0 0 0 0 0 0 0 0 0 0 0 0 0 0 0 0 0 0 0 0 0 0 0 0 0 0 0 0 0 0 5933 5933 5933 5933 5933 5933 6038 6038 6038 6038 6038 6038 6038 6038 6038 6038 6038 6146 6146 6146 6146 6146 6146 6146 5132 5056 5056 5132 5132 5132 5210 5210 5291 5291 5291 5291 5291 5291 5291 5291 5291 5210 5210 5210 5210 5210 5132 5132 5132 5210 5210 5210 5210 5291 5374 5460 5460 5374 5374 5291 5291 5374 5291 5291 5374 5374 5374 5460 5460 5460 5374 5374 5374 5374 5374 5374 5374 5374 5374 2908 2908 2908 2933 2933 2933 2933 2933 2933 2933 2933 2933 2933 2933 2933 2958 2958 2958 2958 2958 2958 2984 2984 2984 2984 2984 2984 2984 2984 2984 2984 2984 2984 3010 3010 3010 3010 3010 3010 3010 3010 3037 3037 3037 3064 3064 3064 3037 3037 3037 3037 3037 3037 3037 3037 3037 3064 3064 3064 3064 3064 3064 3064 3064 3064 3064 3064 3064 3064 3064 3092 3092 3092 3092 3120 3120 3120 3120 3120 3149 3149 3149 3149 3149 3149 3149 3149 3149 3149 3149 3178 3178 3178 3178 3178 3178 3178 3178 3178 3178 3178 3178 3178 3208 3208 3208 3208 3238 3238 3238 3269 3269 3269 3269 3269 3300 3300 6497 6497 6497 6497 6497 6622 6753 7178 7178 7178 7178 7332 7332 7332 7332 7332 7332 7332 7492 7492 7492 7492 7492 7492 7660 7660 7660 7660 7660 7492 7492 7492 7492 7332 7332 7332 7332 7332 7332 7332 7332 7178 7178 7030 7030 7030 7030 5374 5291 5291 5291 5291 5291 5291 5291 5291 5291 5210 5210 5210 5210 5210 5210 5210 5210 5210 5210 5210 5210 5210 5210 5210 5132 5132 5132 5132 5132 5132 5132 5132 5132 5132 5132 5132 5132 5132 5132 5132 5056 5056 5056 5056 5056 5056 5132 5132 5132 5132 5056 5056 5056 5056 5056 5132 5132 5132 5132 5132 5210 5210 6889 6889 6753 6753 6889 6889 7030 7030 7178 7178 7178 2398 2398 6889 6889 6889 6889 6889 6889 6889 6889 7030 7030 7030 7178 7178 7178 7178 7178 2415 2415 2415 4190 4190 4190 3994 3903 2467 2467 2432 2432 2398 2398 2398 2286 2286 2286 2301 3903 3859 3859 3859 3859 3859 3816 3816 3816 3816 3774 3774 3774 3732 3732 3732 3732 3732 3732 3692 3692 3653 3653 3653 3653 3653 3614 3614 3614 3614 3614 3614 3614 3576 3576 3576 3576 3576 3576 3576 3576 3576 3539 3539 3539 3539 3539 3539 3539 3539 3539 3539 3539 3576 3503 3503 3503 3539 3503 3503 3503 3503 3503 3503 3503 3503 3503 3503 3503 3503 3503 3576 3539 3539 3539 3539 3503 3503 3503 3503 3468 3468 3468 3503 3503 3503 3503 3468 3468 3468 3503 3468 3468 3468 3468 3468 3468 3503 3503 3503 3503 3539 3503 3503 3468 3468 3503 3503 3503 3539 3539 3539 3503 3503 3503 3503 3539 3539 3503 3208 3178 3178 3178 3208 3208 3208 3208 3208 3178 3178 3178 3178 3208 3208 3208 3208 3238 3238 3269 3433 3576 3576 3539 3300 3300 3300 3300 3300 3300 3333 6038 6038 6038 6038 6038 6038 3269 3269 3269 3269 3300 3300 3300 3300 3300 3300 3300 3300 3300 3300 3300 3300 3300 3300 3300 4349 4349 4349 4349 4405 4463 4463 4405 4295 4241 4190 4139 4139 4089 4089 4089 4089 4089 4089 4089 4089 4089 4089 4089 4089 0 0 0 0 0 0 0 0 4041 4041 4041 3994 3948 3948 3948 3994 3994 3994 4041 4041 4041 4041 4041 4041 4041 4041 4041 3994 3994 3948 3948 3948 3903 3903 3948 3948 4041 4041 4041 3994 3994 4041 4041 4041 0 0 0 0 0 0 0 0 0 0 0 0
0 0 0 0 0 0 0 0 0 0 0 0 0 0 0 0 0 0 0 0 0 0 0 0 0 0 0 0 0 0 5933 5933 5933 5933 5933 6038 6038 6038 6038 6038 6038 6038 6038 6038 6038 6038 6038 6146 6146 6146 6146 6146 6146 6146 6146 5056 5056 5132 5132 5210 5210 5291 5374 5374 5460 5460 5374 5374 5374 5460 5460 5374 5291 5291 5374 5832 5210 5210 5210 5210 5291 5291 5374 5374 5460 5548 5548 5548 5548 5548 5548 5548 5548 5548 5548 5460 5460 5548 5548 5548 5460 5460 5460 5460 5460 5374 5374 5374 5374 2908 2908 2908 2933 2933 2933 2933 2933 2933 2933 2933 2933 2933 2933 2933 2958 2958 2958 2958 2958 2958 2984 2984 2984 2984 2984 2984 2984 2984 2984 2984 2984 2984 3010 3010 3010 3010 3010 3010 3010 3010 3037 3037 3037 3064 3064 3064 3037 3037 3037 3037 3037 3037 3037 3037 3037 3064 3064 3064 3064 3064 3064 3064 3064 3064 3064 3064 3092 3092 3092 3092 3092 3092 3092 3120 3120 3120 3120 3120 3149 3149 3149 3149 3149 3149 3149 3149 3149 3149 3149 3178 3178 3178 3178 3178 3178 3178 3178 3178 3178 3178 3178 3178 3208 3208 3208 3208 3238 3238 3269 3269 3269 3269 3269 3269 3300 3300 6375 6375 6497 6497 6497 6622 6753 7178 7178 7178 7178 7332 7332 7332 7332 7332 7332 7332 7492 7492 7492 7492 7492 7492 7660 7660 7660 7660 7660 7492 7492 7492 7492 7492 7492 7492 7492 7492 7332 7332 7332 7178 7178 7030 7030 7030 7030 7030 5291 5291 5291 5291 5291 5291 5291 5291 5291 5291 5210 5210 5210 5210 5210 5210 5210 5210 5210 5210 5210 5210 5210 5210 5132 5132 5210 5210 5210 5132 5132 5132 5132 5132 5132 5132 5132 5132 5132 5132 5056 5056 5056 5056 5056 5056 5056 5056 5056 5132 5056 5056 5056 5056 5056 5132 5132 5132 5132 5210 5210 6753 6753 6753 6753 6753 6753 6889 7030 7030 7178 2398 2398 2398 2398 2415 2415 2415 2415 2398 2398 2398 2398 2398 2415 2415 2415 2415 2432 2432 2415 2415 2415 2415 2415 2415 2415 2432 2432 2450 2450 2432 2432 2398 2398 2398 2398 2381 2365 2365 2398 2398 3903 3859 3816 3816 3816 3816 3816 3774 3774 3774 3774 3732 3732 3732 3732 3732 3732 3692 3692 3692 3653 3653 3653 3653 3614 3614 3614 3614 3614 3614 3576 3576 3576 3576 3576 3576 3576 3576 3539 3539 3539 3539 3539 3539 3539 3539 3539 3503 3503 3539 3539 3539 3503 3503 3503 3539 3503 3503 3503 3503 3503 3503 3503 3503 3503 3503 3503 3503 3503 3539 3503 3503 3503 3503 3468 3468 3468 3468 3468 3468 3468 3468 3468 3503 3468 3468 3468 3468 3503 3468 3468 3468 3468 3468 3468 3503 3503 3503 3503 3503 3503 3503 3503 3503 3503 3503 3503 3539 3503 3503 3503 3503 3503 3503 3503 3503 3503 3399 3208 3208 3208 3208 3208 3208 3208 3208 3208 3208 3178 3178 3208 3208 3208 3208 3238 3238 3300 3503 3576 3614 3614 3692 3859 6038 6038 6038 6038 6038 6038 6038 6038 6038 6038 6038 3269 3269 3269 3300 3300 3300 3300 3300 3300 3300 3300 3300 3300 3300 3300 3300 3300 3300 4349 4349 4349 4349 4349 4349 4349 4349 4295 4241 4190 4190 4139 4139 4089 4089 4089 4089 4089 4089 4089 4089 4089 4089 4041 4041 0 0 0 0 0 0 0 0 0 0 0 0 3994 3994 3994 3994 3994 3994 4041 4041 4089 4089 4089 4089 4139 4139 4089 4089 4041 4041 4041 4041 3994 3994 3994 3994 4041 4041 4041 3994 3994 4041 4041 4041 0 0 0 0 0 0 0 0 0 0 0 0
0 0 0 0 0 0 0 0 0 0 0 0 0 0 0 0 0 0 0 0 0 0 0 0 0 0 0 0 0 0 5933 5933 5933 5933 5933 6038 6038 6038 6038 6038 6146 6146 6038 6038 6038 6038 6146 6146 6146 6146 6146 6146 6146 6146 6146 5132 5132 5132 5210 5210 5291 5374 5460 5460 5548 5548 5640 5548 5548 5640 5640 5734 5734 5734 5734 6038 6038 6038 6038 6038 6038 6038 6038 6038 5832 5832 5933 6038 6038 6038 6038 6038 6146 6146 6146 6146 6146 6146 5933 5734 5548 5548 5548 5460 5460 5374 5374 5374 5374 2908 2908 2933 2933 2933 2933 2933 2933 2933 2933 2933 2933 2933 2933 2933 2958 2958 2958 2958 2958 2958 2984 2984 2984 2984 2984 2984 2984 2984 2984 2984 2984 3010 3010 3010 3010 3010 3010 3010 3010 3010 3037 3037 3037 3064 3064 3064 3037 3037 3037 3037 3037 3037 3037 3037 3037 3064 3064 3064 3064 3064 3064 3064 3064 3064 3064 3092 3092 3092 3092 3092 3092 3120 3120 3120 3120 3120 3120 3149 3149 3149 3149 3149 3149 3149 3149 3149 3149 3149 3178 3178 3178 3178 3178 3178 3178 3178 3178 3178 3178 3178 3178 3178 3208 3208 3208 3238 3238 3269 3269 3269 3269 3269 3300 3300 3300 3300 6375 6375 6497 6497 6497 6622 6753 7178 7178 7178 7178 7492 7492 7332 7178 7178 7332 7332 7492 7492 7492 7492 7492 7492 7660 7660 7660 7660 7660 7492 7332 7332 7332 7332 7332 7492 7492 7492 7492 7332 7332 7178 7178 7030 7030 7030 7030 7030 7030 5291 5291 5291 5291 5291 5291 5291 5291 5291 5210 5210 5210 5210 5210 5210 5210 5210 5210 5210 5210 5210 5210 5210 5132 5132 5210 5210 5210 5132 5132 5132 5132 5132 5132 5132 5132 5132 5132 5132 5056 2301 2301 2333 2333 2333 2317 2317 5056 5132 5056 5056 5056 5056 5056 5132 5132 5132 5132 5210 5210 2349 2349 2333 2333 2333 2349 2365 2365 2381 2381 2398 2398 2398 2398 2398 2398 2398 2398 2398 2398 2398 2398 2398 2415 2415 2415 2415 2432 2432 2415 2415 2415 2415 2415 2415 2415 2415 2432 2450 2432 2432 2432 2398 2398 2398 2398 2381 2381 2398 2398 2415 2415 3859 3816 3816 3816 3816 3816 3774 3774 3774 3774 3732 3732 3732 3732 3732 3732 3692 3692 3692 3653 3653 3653 3653 3614 3614 3614 3614 3614 3614 3576 3576 3576 3576 3576 3576 3576 3576 3539 3539 3539 3539 3539 3503 3503 3539 3503 3503 3503 3503 3503 3539 3468 3468 3503 3503 3503 3503 3503 3503 3503 3503 3503 3503 3503 3503 3503 3468 3468 3468 3468 3468 3468 3468 3468 3468 3468 3468 3468 3468 3468 3468 3468 3468 3468 3468 3468 3468 3468 3468 3468 3468 3468 3468 3468 3503 3503 3503 3503 3503 3503 3503 3503 3503 3503 3503 3503 3539 3503 3503 3503 3503 3503 3503 3503 3503 3503 3433 3238 3238 3238 3238 3208 3208 3238 3238 3208 3208 3178 3178 3208 3208 3208 3208 3238 3269 3300 3614 3614 3692 3692 3692 3859 3859 6038 6038 6038 6146 6038 6038 6038 6038 6038 6038 3269 3269 3269 3300 3300 3300 3300 3300 3300 3300 3333 3300 3300 3300 3300 3300 3300 3300 4349 4349 4349 4349 4349 4349 4349 4295 4241 4190 4139 4139 4139 4139 4089 4089 4089 4089 4089 4089 4089 4089 4089 4041 4041 4041 0 0 0 0 0 0 0 0 0 0 0 0 0 0 0 0 0 4041 4041 4041 4089 4089 4089 4139 4190 4190 4139 4139 4139 4139 4139 4139 4089 4041 4041 4089 4089 4089 4041 4041 4041 4041 4041 4041 0 0 0 0 0 0 0 0 0 0 0 0
0 0 0 0 0 0 0 0 0 0 0 0 0 0 0 0 0 0 0 0 0 0 0 0 0 0 0 0 0 0 5933 5933 5933 5933 5933 6038 6038 6038 6038 6146 6038 6038 6038 6038 6038 6038 6038 6146 6146 6146 6146 6146 6038 6038 5210 5132 5132 5210 5210 5291 5291 5460 5548 5548 5548 5734 5734 5832 5832 5832 5832 6038 6038 6038 6038 6038 6038 6146 6146 6038 6038 6038 6038 6038 6038 6038 6038 6146 6146 6146 6146 6146 6146 6146 6146 6146 6146 6146 6038 5933 5832 5640 5548 5460 5460 5374 5374 5374 5374 2933 2933 2933 2933 2933 2933 2933 2933 2933 2933 2933 2933 2933 2958 2958 2958 2958 2958 2958 2958 2958 2984 2984 2984 2984 2984 2984 2984 2984 2984 2984 2984 3010 3010 3010 3010 3010 3010 3010 3010 3037 3037 3037 3037 3064 3064 3064 3037 3037 3037 3037 3037 3037 3037 3037 3064 3064 3064 3064 3064 3064 3064 3064 3064 3064 3064 3092 3092 3092 3092 3092 3092 3120 3120 3120 3120 3120 3120 3149 3149 3149 3149 3149 3149 3149 3178 3178 3178 3178 3178 3178 3178 3178 3178 3178 3178 3178 3178 3178 3178 3178 3178 3208 3208 3238 3238 3238 3238 3269 3269 3269 3269 3269 3300 3300 3300 3300 3333 6497 6497 6497 6497 6622 6753 7178 7178 7178 7332 7332 7178 7030 7030 7030 7332 7332 7492 7492 7492 7492 7492 7492 7660 7660 7660 7660 7660 7178 7178 7030 7030 7332 7332 7492 7492 7492 7492 7332 7332 7178 7178 7030 7030 7030 7030 7030 7030 5210 5210 5291 5291 5291 5291 5291 5291 5291 5210 5210 5210 5210 5210 5210 5210 5210 5210 5210 5210 5210 5210 5210 5210 5210 5210 5210 5210 5210 5210 5210 5210 5132 5132 5132 5132 5210 5210 2301 2301 2301 2301 2317 2333 2333 2317 2317 2333 2349 2349 2349 5056 5056 5056 5132 5132 5132 5132 5210 2365 2349 2349 2333 2333 2333 2349 2349 2365 2365 2381 2381 2398 2398 2398 2398 2398 2398 2398 2398 2398 2398 2398 2398 2415 2415 2415 2415 2415 2432 2415 2415 2415 2415 2415 2415 2415 2415 2432 2432 2432 2432 2432 2432 2415 2415 2415 2415 2415 2415 2415 2415 2467 2467 2485 3816 3816 3816 3816 3774 3774 3774 3774 3732 3732 3732 3732 3732 3732 3692 3692 3692 3614 3614 3614 3653 3614 3614 3614 3614 3614 3614 3576 3576 3576 3576 3576 3576 3576 3576 3539 3539 3539 3539 3503 3503 3503 3539 3503 3503 3503 3503 3503 3503 3468 3468 3503 3503 3503 3503 3503 3503 3503 3503 3503 3503 3503 3503 3468 3468 3468 3468 3468 3468 3468 3468 3468 3468 3468 3468 3468 3468 3468 3468 3468 3468 3468 3468 3468 3468 3468 3468 3468 3468 3468 3468 3468 3503 3503 3503 3503 3503 3503 3503 3503 3503 3503 3503 3503 3539 3503 3503 3503 3503 3503 3503 3503 3503 3503 3399 3238 3238 3238 3208 3208 3208 3238 3238 3208 3208 3208 3208 3208 3208 3208 3208 3238 3269 3300 3300 3859 3859 3859 3859 3859 3859 3948 6146 6146 6146 6038 6038 6038 6038 6038 3269 3269 3269 3269 3300 3300 3300 3300 3300 3300 3300 3333 3300 3300 3300 3300 3300 3300 4349 4349 4349 4349 4349 4295 4295 4295 4295 4241 4190 4139 4139 4139 4139 4089 4089 4089 4089 4089 4089 4089 4041 4041 4041 4041 4041 0 0 0 0 0 0 0 0 0 0 0 0 0 0 0 0 0 0 0 0 4190 4139 4139 4190 4190 4241 4190 4190 4139 4139 4190 4190 4139 4139 4139 4139 4139 4139 4041 4041 3994 3994 4041 4089 0 0 0 0 0 0 0 0 0 0 0 0
0 0 0 0 0 0 0 0 0 0 0 0 0 0 0 0 0 0 0 0 0 0 0 0 0 0 0 0 0 0 5832 5832 5832 5933 5933 5933 5933 6038 6038 6038 6038 6038 6038 6038 6038 6038 6038 6038 6146 6146 6146 6038 5933 5933 5210 5210 5210 5210 5210 5291 5460 5460 5548 5640 5734 5734 5832 5933 5933 5933 6038 6038 6038 6038 6038 6038 6146 6146 6146 6146 6146 6146 6146 6146 6038 6038 6146 6146 6146 6146 6146 6146 6146 6146 6146 6146 6146 6146 6146 6038 5933 5734 5640 5460 5374 5374 5291 5291 5291 5291 2933 2933 2933 2933 2933 2933 2933 2933 2933 2933 2933 2933 2958 2958 2958 2958 2958 2958 2958 2958 2958 2984 2984 2984 2984 2984 2984 2984 2984 2984 3010 3010 3010 3010 3010 3010 3010 3010 3010 3037 3037 3037 3037 3064 3064 3064 3037 3037 3037 3037 3037 3037 3037 3037 3064 3064 3064 3064 3064 3064 3092 3092 3092 3092 3092 3092 3092 3092 3092 3092 3092 3120 3120 3120 3120 3120 3120 3149 3149 3149 3149 3149 3149 3149 3149 3149 3178 3178 3178 3178 3178 3178 3178 3178 3178 3178 3178 3178 3178 3208 3208 3238 3238 3238 3238 3238 3269 3269 3269 3269 3269 3269 3300 3300 3300 3300 3333 6497 6497 6497 6497 6622 6753 7660 7178 7178 7332 7332 7178 7030 7030 7030 7332 7332 7492 7492 7492 7492 7492 7492 7660 7660 7660 7660 7660 7178 2226 2212 2212 2226 2226 7492 7492 7492 7492 7332 7178 7178 7178 7030 7030 7030 6889 6889 6889 5210 5210 5291 5291 5291 5291 5291 5291 5291 5291 5291 5210 5210 5210 5210 5210 5210 5210 5210 5210 5210 5210 5210 5210 5210 5210 5210 5210 5210 5210 5210 5210 5132 5132 5132 5132 5132 5132 2301 2301 2301 2301 2317 2333 2333 2333 2333 2333 2349 2349 2349 2349 2349 2349 2349 2349 2349 2349 2349 2349 2349 2349 2349 2349 2349 2349 2349 2365 2365 2381 2381 2398 2398 2398 2398 2398 2398 2398 2398 2398 2398 2398 2398 2415 2415 2415 2415 2415 2415 2415 2415 2415 2415 2415 2415 2415 2415 2415 2432 2432 2432 2432 2432 2415 2415 2432 2415 2415 2415 2450 2467 2467 2485 0 0 0 0 0 0 0 3774 3774 3732 3732 3732 3732 3732 3732 3692 3692 3692 3614 3614 3614 3653 3614 3614 3614 3614 3614 3614 3576 3576 3576 3576 3576 3576 3576 3576 3576 3576 3539 3539 3503 3503 3503 3539 3503 3503 3503 3503 3503 3503 3503 3503 3503 3503 3539 3503 3503 3539 3503 3503 3503 3503 3468 3468 3468 3468 3468 3468 3468 3468 3468 3468 3468 3468 3468 3468 3468 3468 3468 3468 3468 3468 3468 3468 3468 3468 3468 3468 3468 3468 3468 3468 3468 3468 3503 3503 3503 3503 3503 3503 3503 3503 3503 3503 3539 3539 3539 3503 3503 3503 3503 3503 3503 3503 3468 3333 3269 3238 3238 3208 3208 3208 3238 3238 3208 3208 3208 3208 3208 3208 3208 3208 3238 3269 3300 3300 3948 3948 3948 3948 3948 3948 3948 6146 6146 6146 6038 6038 6038 6038 6038 3269 3269 3269 3269 3300 3300 3300 3300 3300 3300 3300 3333 3300 3300 3300 3300 3300 3300 3365 4349 4349 4349 4349 4295 4295 4241 4241 4241 4190 4139 4139 4190 4190 4139 4089 4089 4190 4089 4089 4089 4041 4041 4041 4041 4139 0 0 0 0 0 0 0 0 0 0 0 0 0 0 0 0 0 0 0 0 0 0 4241 4241 4241 4241 4241 4241 4190 4190 4190 4190 4190 4190 4190 4190 4190 4190 4041 4041 3994 3994 4041 4089 0 0 0 0 0 0 0 0 0 0 0 0
0 0 0 0 0 0 0 0 0 0 0 0 0 0 0 0 0 0 0 0 0 0 0 0 0 0 0 0 0 0 5832 5832 5832 5933 5933 5933 5933 5933 5933 6038 6038 6038 6038 6038 6038 6038 6038 6038 6146 6146 6146 6038 5933 5933 5210 5210 5210 5210 5210 5291 5460 5548 5640 5734 5734 5832 5832 5933 5933 5933 6146 6146 6146 6146 6146 6146 6146 6146 6146 6146 6146 6146 6146 6146 6146 6146 6146 6146 6146 6146 6146 6146 6259 6259 6259 6259 6259 6259 6146 6146 6038 5832 5640 5460 5374 5374 5291 5291 5291 2908 2908 2933 2933 2933 2933 2933 2933 2933 2933 2933 2933 2958 2958 2958 2958 2958 2958 2958 2958 2958 2958 2984 2984 2984 2984 2984 2984 2984 2984 3010 3010 3010 3010 3010 3010 3010 3037 3037 3037 3037 3037 3037 3037 3064 3064 3064 3037 3037 3037 3064 3037 3037 3064 3064 3064 3064 3064 3064 3064 3064 3064 3092 3092 3092 3092 3092 3092 3092 3092 3092 3092 3120 3120 3120 3120 3120 3120 3120 3149 3149 3149 3149 3149 3149 3149 3149 3178 3178 3178 3178 3178 3178 3178 3178 3178 3178 3178 3178 3208 3208 3208 3238 3238 3238 3238 3238 3269 3269 3269 3269 3269 3269 3300 3300 3300 3300 3300 6497 6497 6497 6622 6622 6753 6753 6753 2198 2198 2198 2198 0 0 0 0 7492 7492 7492 7492 7492 7660 7660 7660 7660 2241 2226 2226 2226 2226 2212 2212 2226 2226 2226 7492 7492 7492 7332 7178 7030 7030 7030 7030 6753 6753 6889 6889 5210 5210 5210 5210 5291 5291 5291 5291 5291 5291 5291 5210 5210 5210 5210 5210 5210 5210 5210 5210 5210 5210 5210 5210 5210 5210 5210 5210 5210 5210 5210 5210 5210 5210 5210 5210 5210 0 2317 2317 2317 2317 2333 2333 2333 2349 2349 2349 2349 2349 2349 2349 2349 2333 2333 2349 2349 2349 2349 2349 2349 2349 2349 2349 2349 2349 2365 2365 2381 2381 2381 2398 2398 2398 2398 2398 2398 2398 2398 2398 2398 2398 2398 2415 2415 2415 2415 2415 2415 2415 2415 2415 2415 2415 2415 2415 2415 2415 2432 2415 2415 2432 2432 2432 2432 2432 2432 2432 2432 2450 2467 2467 2485 2485 0 0 0 0 0 0 0 3774 3774 3774 3774 3774 3774 3774 3732 3692 3692 3653 3614 3614 3614 3614 3614 3614 3614 3614 3614 3614 3614 3614 3614 3576 3576 3576 3576 3576 3576 3576 3539 3539 3539 3539 3539 3539 3539 3539 3503 3503 3503 3503 3503 3503 3503 3539 3503 3503 3539 3503 3503 3503 3468 3468 3468 3468 3468 3468 3468 3468 3468 3468 3468 3468 3468 3468 3468 3468 3468 3468 3468 3468 3468 3468 3468 3468 3468 3468 3468 3468 3468 3468 3468 3468 3468 3503 3503 3503 3503 3503 3503 3503 3503 3503 3503 3539 3539 3539 3503 3503 3503 3503 3503 3503 3468 3433 3300 3238 3238 3238 3208 3208 3208 3238 3238 3238 3208 3208 3208 3208 3208 3208 3238 3238 3269 3269 3269 3269 3269 3994 3994 3994 6146 6146 6146 6146 6146 6038 6038 6038 6038 3269 3269 3269 3269 3269 3300 3300 3300 3300 3300 3300 3300 3300 3300 3300 3300 3300 3300 3300 3365 4405 4349 4349 4349 4295 4295 4241 4241 4241 4190 4139 4139 4190 4190 4139 4139 4139 4190 4089 4089 4089 4041 4041 4089 4089 4089 4241 0 0 0 0 0 0 0 0 0 0 0 0 0 0 0 0 0 0 0 0 0 0 0 0 0 0 0 0 4241 4241 4241 4241 4190 4190 0 0 4190 4041 4041 3994 3994 4041 0 0 0 0 0 0 0 0 0 0 0 0 0
0 0 0 0 0 0 0 0 0 0 0 0 0 0 0 0 0 0 0 0 0 0 0 0 0 0 0 0 0 0 5933 5933 5933 5933 5933 5933 5933 5933 5933 6038 6038 6038 6038 6038 6038 6038 6038 6038 6038 6038 6038 6038 5933 5933 5210 5210 5210 5210 5210 5291 5548 5548 5640 5734 5832 5832 5832 5933 5933 5933 6146 6146 6146 6146 6146 6146 6146 6146 6146 6146 6146 6146 6146 6146 6146 6146 6146 6146 6146 6146 6259 6259 6259 6259 6259 6259 6259 6259 6146 6146 6146 5933 5640 5460 5460 5374 5291 5291 5374 2908 2908 2933 2933 2933 2933 2933 2933 2933 2933 2933 2933 2933 2958 2958 2958 2958 2958 2958 2958 2958 2984 2984 2984 2984 2984 2984 2984 2984 2984 3010 3010 3010 3010 3010 3010 3010 3037 3010 3010 3037 3037 3037 3037 3064 3064 3064 3037 3037 3037 3037 3037 3037 3064 3064 3064 3064 3064 3064 3064 3064 3064 3092 3092 3092 3092 3092 3092 3092 3092 3092 3120 3120 3120 3120 3120 3120 3120 3120 3149 3149 3149 3149 3149 3149 3178 3178 3178 3178 3178 3178 3178 3178 3178 3178 3178 3178 3178 3178 3208 3208 3208 3238 3238 3238 3269 3269 3269 3269 3269 3269 3269 3269 3300 3300 3300 3300 3300 2184 2184 2184 2184 7835 7835 7835 2198 2198 0 0 0 0 0 0 0 2226 2184 2184 2184 2184 2212 2212 2226 2226 2226 2226 2212 2212 2212 2226 2226 2226 2226 2226 7492 7492 7492 7332 7178 6889 6889 6889 7030 6753 6753 6889 7030 5210 5210 5210 5210 5291 5291 5291 5291 5291 5291 5291 5210 5210 5210 5210 5210 5210 5210 5210 5210 5210 5210 5210 5210 5210 5210 5210 5210 5210 5210 5210 5210 5210 5210 5210 5210 5210 0 2317 2317 2317 2333 2333 2333 2349 2349 2349 2349 2349 2349 2349 2349 2349 2333 2333 2349 2349 2349 2349 2349 2365 2365 2349 2349 2349 2365 2365 2365 2381 2381 2381 2398 2398 2398 2398 2398 2398 2398 2398 2398 2398 2398 2398 2398 2415 2415 2415 2415 2415 2415 2415 2415 2415 2415 2415 2415 2415 2415 2432 2415 2415 2432 2432 2432 2432 2432 2432 2450 2450 2467 2467 2467 2485 2485 0 0 0 0 0 0 0 0 3774 3774 3774 3774 3774 3774 3732 3692 3653 3614 3614 3614 3614 3576 3576 3614 3614 3614 3614 3614 3614 3614 3614 3576 3576 3614 3576 3576 3576 3576 3539 3539 3539 3539 3539 3539 3539 3539 3503 3503 3503 3503 3503 3503 3503 3539 3539 3539 3539 3503 3503 3503 3468 3468 3468 3468 3468 3468 3468 3468 3468 3468 3468 3468 3468 3468 3468 3468 3468 3468 3468 3468 3468 3503 3503 3503 3503 3468 3468 3468 3468 3468 3468 3468 3468 3503 3503 3503 3503 3503 3539 3539 3503 3503 3539 3539 3539 3539 3503 3503 3503 3503 3503 3503 3468 3300 3269 3238 3238 3238 3208 3208 3238 3238 3238 3238 3208 3208 3208 3208 3208 3208 3238 3238 3269 3269 3269 3269 3269 3269 4041 6146 6038 6038 6146 6146 6146 6146 6038 6038 3238 3238 3269 3269 3269 3300 3300 3300 3300 3300 3300 3300 3300 3300 3300 3300 3300 3300 3300 3333 3365 4349 4349 4349 4349 4349 4295 4295 4295 4241 4241 4190 4190 4190 4190 4139 4139 4139 4190 4139 4089 4089 4089 4089 4089 4089 4089 4241 4241 0 0 0 0 0 0 0 0 0 0 0 0 0 0 0 0 0 0 0 0 0 0 0 0 0 0 0 0 0 0 0 0 0 0 0 4241 4241 0 0 0 0 0 0 0 0 0 0 0 0 0 0 0 0 0
0 0 0 0 0 0 0 0 0 0 0 0 0 0 0 0 0 0 0 0 0 0 0 0 0 0 0 0 0 0 5933 5933 5933 5933 5933 5933 5933 5933 6038 6038 6038 6038 6038 6038 6038 6038 6038 6038 6038 6038 6038 6038 5933 5933 5291 5291 5291 5210 5210 5291 5460 5548 5640 5734 5734 5832 5832 5933 5933 5933 6146 6146 6146 6146 6146 6146 6146 6146 6146 6146 6146 6146 6146 6146 6146 6146 6146 6146 6146 6259 6259 6259 6259 6259 6259 6259 6259 6259 6259 6146 6146 5933 5640 5548 5460 5374 5374 5374 5374 5460 2933 2933 2933 2933 2933 2933 2933 2933 2933 2933 2933 2933 2958 2958 2958 2958 2958 2958 2958 2958 2984 2984 2984 2984 2984 2984 3010 3010 3010 3010 3010 3010 3010 3010 3010 3037 3037 3010 3010 3037 3037 3037 3037 3064 3064 3064 3037 3037 3037 3037 3037 3037 3064 3064 3064 3064 3064 3064 3064 3064 3064 3092 3092 3092 3092 3120 3120 3120 3120 3120 3120 3120 3120 3120 3120 3120 3149 3149 3149 3149 3149 3149 3149 3149 3149 3178 3178 3178 3178 3178 3178 3178 3178 3178 3178 3178 3178 3178 3208 3208 3208 3238 3238 3238 3269 3269 3269 3269 3269 3269 3269 3269 3300 2170 2170 2170 2170 2170 2184 2184 2184 2184 2184 2184 2198 2198 2198 2198 2198 0 0 0 0 0 0 2184 2184 2184 2212 2212 2212 2212 2212 2226 2212 2212 2212 2226 2226 2226 2226 2226 2226 2226 2226 0 6889 6889 6889 6889 6889 6889 6889 7030 7030 7030 5291 5210 5210 5210 5291 5291 5291 5291 5291 5291 5291 5291 5210 5210 5210 5210 5210 5210 5210 5210 5210 5210 5210 5210 5210 5210 5210 5210 5210 5210 5210 5132 5132 5210 5210 5210 5132 2317 2317 2317 2333 2333 2333 2349 2349 2349 2349 2349 2349 2349 2349 2349 2349 2349 2349 2349 2349 2349 2365 2365 2365 2365 2349 2349 2365 2365 2365 2381 2381 2381 2381 2381 2381 2381 2381 2398 2398 2398 2398 2398 2398 2398 2398 2415 2415 2415 2415 2415 2415 2415 2415 2415 2415 2415 2415 2415 2415 2432 2415 2415 2432 2432 2432 2432 2432 2432 2432 2450 2467 2467 2467 2485 2485 0 0 0 0 0 0 0 0 0 3774 3774 3774 3774 3774 3692 3692 3614 3614 3576 3576 3614 3576 3576 3614 3614 3614 3576 3576 3614 3614 3614 3614 3614 3614 3576 3576 3576 3576 3576 3539 3539 3539 3539 3539 3539 3539 3503 3503 3503 3503 3503 3539 3539 3539 3539 3539 3539 3503 3503 3503 3503 3468 3468 3468 3468 3468 3468 3468 3468 3468 3468 3468 3468 3468 3468 3468 3468 3468 3468 3503 3503 3503 3503 3503 3503 3468 3468 3468 3468 3468 3468 3503 3503 3503 3539 3539 3539 3539 3539 3539 3539 3503 3503 3539 3539 3539 3503 3503 3539 3539 3539 3503 3503 3300 3269 3238 3238 3238 3238 3238 3238 3238 3238 3238 3238 3208 3208 3208 3208 3208 3238 3238 3238 3269 3269 3269 3269 3269 3269 6146 6038 6038 6146 6146 6146 6146 6146 6146 3238 3238 3269 3269 3269 3300 3300 3300 3300 3300 3300 3300 3300 3300 3333 3333 3300 3300 3333 3365 4349 4349 4349 4349 4349 4405 4349 4349 4295 4295 4241 4241 4241 4190 4190 4139 4139 4139 4139 4139 4089 4041 4041 4041 4089 4089 4139 4241 4241 4241 0 0 0 0 0 0 0 0 0 0 0 0 0 0 0 0 0 0 0 0 0 0 0 0 0 0 0 0 0 0 0 0 0 0 0 0 0 0 0 0 0 0 0 0 0 0 0 0 0 0 0 0 0
0 0 0 0 0 0 0 0 0 0 0 0 0 0 0 0 0 0 0 0 0 0 0 0 0 0 0 0 0 0 5933 5933 5933 5933 5933 5933 5933 5933 6038 6038 6038 6038 6038 6038 6038 6038 6038 6038 6038 6038 6038 6038 5933 5933 5291 5291 5291 5210 5210 5210 5291 5548 5640 5734 5734 5832 5832 5933 5933 6038 6146 6146 6146 6146 6146 6146 6146 6146 6146 6146 6146 6146 6146 6146 6146 6146 6146 6146 6259 6259 6259 6259 6259 6259 6259 6259 6259 6259 6259 6146 6146 6038 5734 5640 5460 5460 5374 5374 5374 5460 5460 2933 2933 2933 2933 2933 2933 2933 2933 2933 2933 2933 2958 2958 2958 2958 2958 2958 2958 2958 2984 2984 2984 2984 3010 3010 3010 3010 3010 3010 3010 3037 3037 3037 3010 3010 3037 3037 3037 3037 3037 3037 3037 3064 3064 3064 3037 3037 3037 3037 3037 3037 3064 3064 3064 3064 3064 3064 3064 3064 3064 3064 3092 3092 3092 3092 3092 3120 3120 3120 3120 3120 3149 3149 3149 3149 3149 3149 3149 3149 3149 3149 3149 3149 3149 3178 3178 3178 3178 3178 3178 3178 3178 3178 3178 3178 3178 3178 3208 3238 3238 3269 3269 3269 3269 3269 3269 3269 2156 2156 2156 2170 2170 2170 2170 2170 2170 2170 2184 2184 2184 2184 2184 2184 2198 2198 2198 2198 2198 2226 2226 2226 2226 2226 2226 2184 2184 2184 2198 2198 2198 2212 2212 2212 2212 2212 2212 2212 2212 2226 2226 2226 2226 2226 0 0 2226 0 0 6889 6753 6753 6753 7030 7030 7030 5291 5210 5210 5210 5291 5291 5291 5291 5291 5291 5291 5291 5210 5210 5210 5210 5210 5210 5210 5210 5210 5210 5210 5210 5210 5210 5210 5210 5210 5210 5132 5132 5132 5210 5132 5132 5132 2333 2333 2333 2333 2333 2349 2349 2349 2349 2349 2349 2349 2349 2349 2349 2349 2349 2349 2349 2365 2365 2365 2365 2365 2365 2365 2365 2381 2381 2381 2381 2381 2381 2381 2381 2381 2381 2381 2398 2398 2398 2398 2398 2398 2398 2398 2415 2415 2415 2415 2415 2415 2415 2415 2415 2415 2415 2415 2415 2415 2432 2432 2432 2432 2432 2432 2432 2432 2432 2432 2450 2467 2467 2467 2467 2467 0 0 0 0 0 0 0 0 0 0 3816 3774 3774 3774 3692 3614 3576 3576 3576 3576 0 0 4582 4582 3614 3614 3576 3576 3614 3614 3614 3614 3614 3614 3614 3614 3576 3576 3576 3576 3539 3539 3539 3539 3539 3539 3503 3503 3503 3539 3503 3503 3539 3539 3539 3539 3539 3503 3503 3503 3503 3503 3503 3503 3468 3468 3468 3468 3468 3468 3468 3468 3468 3468 3468 3503 3503 3503 3503 3503 3503 3503 3503 3503 3503 3503 3503 3468 3468 3468 3503 3503 3503 3539 3539 3539 3539 3539 3539 3539 3503 3503 3503 3503 3503 3503 3503 3503 3539 3539 3539 3503 3503 3269 3269 3238 3238 3238 3238 3238 3238 3238 3238 3238 3238 3238 3238 3208 3208 3208 3238 3238 3238 3238 3269 3269 3269 3269 3269 3269 3269 6146 6146 6146 6146 6146 6146 3238 3238 3238 3269 3269 3269 3300 3300 3300 3300 3300 3300 3300 3300 3300 3333 3333 3300 3300 3300 3365 4349 4349 4405 4405 4405 4463 4522 4463 4463 4349 4295 4241 4241 4241 4241 4190 4139 4139 4139 4089 4089 4041 4041 4041 4089 4089 4139 4190 4241 4241 0 0 0 0 0 0 0 0 0 0 0 0 0 0 0 0 0 0 0 0 0 0 0 0 0 0 0 0 0 0 0 0 0 0 0 0 0 0 0 0 0 0 0 0 0 0 0 0 0 0 0 0 0
0 0 0 0 0 0 0 0 0 0 0 0 0 0 0 0 0 0 0 0 0 0 0 0 0 0 0 0 0 0 5933 5933 5933 5933 5933 5933 5933 5933 5933 5933 6038 6038 6038 6038 6038 6038 6038 6038 6038 6038 6038 6038 6038 5933 5291 5291 5291 5210 5210 5210 5291 5548 5640 5734 5734 5832 5832 5933 5933 6038 6146 6146 6146 6146 6146 6146 6146 6146 6146 6146 6146 6146 6146 6146 6146 6146 6146 6259 6259 6259 6259 6259 6259 6259 6259 6259 6259 6259 6259 6259 6146 6038 5734 5640 5548 5460 5460 5460 5460 5460 2958 2933 2933 2933 2933 2933 2933 2933 2933 2933 2933 2958 2958 2958 2958 2958 2958 2958 2958 2958 2984 2984 2984 2984 3010 3010 3010 3010 3010 3010 3037 3037 3037 3037 3010 3010 3037 3037 3037 3037 3064 3064 3064 3064 3064 3064 3037 3037 3037 3037 3037 3064 3064 3064 3064 3064 3064 3064 3064 3064 3064 3064 3092 3092 3092 3092 3092 3092 3120 3120 3120 3120 3149 3149 3149 3149 3149 3149 3149 3149 3149 3149 3149 3178 3178 3178 3178 3178 3178 3178 3178 3178 3178 3178 3178 3178 3208 3208 3208 3238 3238 3269 3269 2156 2156 2156 2156 2156 2156 2156 2156 2170 2170 2170 2170 2170 2184 2184 2184 2184 2184 2184 2184 2184 2198 2198 2198 2198 2198 2212 2212 2212 2226 2226 2226 2184 2184 2184 2198 2198 2198 2212 2212 2212 2212 2212 2212 2212 2212 2226 2226 2226 2226 2226 2226 0 0 0 0 0 6753 6753 6753 6889 7030 7030 5291 5210 5210 5210 5291 5291 5291 5291 5291 5291 5291 5291 5210 5210 5210 5210 5210 5210 5210 5210 5210 5210 5210 5210 5210 5210 5210 5132 5132 5132 5132 5132 5132 5132 5132 5132 5132 5132 2333 2333 2333 2349 2349 2349 2349 2349 2349 2349 2349 2349 2349 2349 2349 2349 2349 2349 2349 2365 2365 2365 2365 2381 2381 2381 2381 2381 2381 2381 2381 2381 2381 2381 2381 2398 2398 2398 2398 2398 2398 2398 2398 2398 2398 2415 2415 2415 2415 2415 2415 2415 2415 2415 2415 2415 2415 2432 2432 2432 2432 2432 2432 2432 2432 2432 2432 2450 2450 2467 2467 2467 2467 2467 2467 0 0 0 0 0 0 0 0 0 0 0 0 3774 3774 3774 3614 3576 3576 3576 3576 0 0 0 4582 4582 4522 3576 3576 4582 4582 4582 3614 3614 3653 3653 3653 3614 3614 3576 3576 3539 3539 3539 3539 3539 3539 3503 3503 3503 3539 3503 3503 3539 3539 3539 3539 3539 3539 3539 3539 3503 3503 3503 3503 3503 3503 3468 3468 3468 3468 3468 3503 3468 3468 3468 3503 3503 3468 3468 3503 3503 3503 3503 3503 3503 3503 3503 3468 3468 3468 3503 3503 3503 3539 3539 3539 3539 3539 3539 3539 3503 3503 3503 3503 3503 3503 3503 3503 3539 3539 3539 3503 3300 3269 3269 3238 3238 3238 3238 3238 3238 3238 3238 3238 3238 3238 3238 3208 3208 3208 3238 3238 3238 3238 3269 3269 3269 3269 3269 3269 3269 3269 6146 6146 6146 6259 6259 3178 3178 3208 3238 3269 3269 3300 3300 3300 3300 3300 3300 3300 3300 3300 3333 3333 3300 3300 3300 4349 4349 4349 4405 4405 4405 4463 4463 4463 4463 4349 4295 4241 4241 4241 4241 4190 4190 4139 4139 4089 4089 4089 4089 4089 4089 4089 4089 4139 4190 4139 4139 4139 0 0 0 0 0 0 0 0 0 0 0 0 0 0 0 0 0 0 0 0 0 0 0 0 0 0 0 0 0 0 0 0 0 0 0 0 0 0 0 0 0 0 0 0 0 0 0 0 0 0 0
0 0 0 0 0 0 0 0 0 0 0 0 0 0 0 0 0 0 0 0 0 0 0 0 0 0 0 0 0 0 5933 5933 5933 5933 5933 5933 5933 5933 5933 5933 6038 6038 6038 6038 6038 6038 6038 6038 6038 6038 6038 6038 6146 5933 5933 5734 5734 5291 5291 5291 5460 5548 5640 5734 5734 5734 5832 5832 5933 6038 6146 6146 6146 6146 6146 6146 6146 6146 6146 6146 6146 6146 6146 6146 6146 6146 6146 6259 6259 6259 6259 6259 6259 6259 6259 6259 6259 6259 6259 6146 6146 6038 5933 5832 5640 5460 5460 5460 5460 5460 2958 2958 2958 2933 2933 2933 2958 2958 2958 2958 2958 2958 2958 2958 2958 2958 2958 2958 2958 2958 2984 2984 2984 2984 3010 3010 3010 3010 3010 3037 3037 3037 3037 3037 3037 3037 3037 3037 3037 3037 3037 3064 3064 3064 3064 3064 3037 3037 3064 3064 3064 3064 3064 3064 3064 3064 3064 3064 3064 3064 3064 3064 3064 3092 3092 3092 3092 3092 3092 3092 3120 3120 2053 2053 2053 3149 3149 3149 3149 3149 3149 3149 3149 3149 3178 3178 3178 3178 3178 3178 3178 3178 3178 3178 3178 3208 3208 2143 2143 2143 2143 2143 2156 2156 2156 2156 2156 2156 2156 2156 2156 2170 2170 2170 2170 2170 2184 2184 2184 2184 2184 2184 2184 2184 2198 2198 2198 2198 2198 2212 2212 2212 2212 2212 2198 2198 2198 2198 2198 2212 2212 2212 2212 2212 2212 2212 2212 2212 2212 2226 2226 2226 2226 2226 2226 0 0 0 0 0 6889 6889 6889 6889 7030 7030 5291 5291 5210 5210 5291 5291 5291 5291 5291 5291 5291 5291 5210 5210 5210 5210 5210 5210 5210 5210 5132 5132 5132 5132 5210 5210 5210 5132 5132 5132 5132 5132 5132 5132 5132 5132 5132 0 2349 2349 2349 2349 2349 2349 2349 2349 2349 2349 2349 2349 2349 2349 2349 2349 2349 2349 2349 2365 2365 2365 2381 2381 2381 2381 2398 2381 2381 2381 2381 2381 2381 2381 2398 2398 2398 2398 2398 2398 2415 2415 2415 2415 2415 2415 2415 2415 2415 2415 2415 2415 2415 2415 2415 2415 2432 2432 2432 2432 2432 2450 2450 2432 2432 2450 2450 2450 2450 2467 2467 2467 2467 2467 2467 0 0 0 0 0 0 0 0 0 0 0 0 0 0 0 0 0 0 0 0 0 0 0 4522 4522 4522 4522 4582 4582 4582 4582 4582 4582 4645 4708 3653 3614 3614 3614 3576 3576 3576 3576 3576 3576 3539 3503 3503 3503 3539 3539 3539 3539 3576 3576 3539 3539 3539 3539 3539 3503 3503 3503 3503 3503 3503 3503 3468 3468 3503 3503 3503 3503 3468 3468 3503 3468 3468 3468 3503 3503 3503 3503 3503 3503 3503 3503 3503 3503 3503 3503 3503 3539 3539 3539 3539 3539 3539 3539 3539 3539 3503 3503 3503 3503 3503 3503 3503 3539 3539 3539 3503 3238 3238 3238 3238 3238 3238 3238 3238 3238 3238 3238 3238 3269 3238 3238 3208 3208 3208 3208 3208 3238 3238 3238 3269 3269 3269 3269 3269 3269 3269 6146 6146 6146 6259 6259 3178 3178 3208 3238 3269 3269 3300 3300 3300 3300 3300 3333 3333 3333 3333 3333 3333 3300 3300 3300 4349 4349 4349 4405 4405 4405 4463 4463 4463 4405 4349 4295 4295 4295 4241 4241 4190 4139 4139 4139 4089 4089 4089 4089 4089 4041 4041 4089 4139 4139 4139 4139 4089 4041 4041 4041 4041 4041 0 0 0 0 0 0 0 0 0 0 0 0 0 0 0 0 0 0 0 0 0 0 0 0 0 0 0 0 0 0 0 0 0 0 0 0 0 0 0 0 0 0 0 0 0 0
0 0 0 0 0 0 0 0 0 0 0 0 0 0 0 0 0 0 0 0 0 0 0 0 0 0 0 0 0 0 5933 5933 5933 5933 5933 5933 5933 5933 5933 6038 6038 6038 6038 6038 6038 6038 6038 6038 6038 6038 6038 6038 6038 6038 5933 5460 5460 5291 5291 5291 5460 5548 5548 5640 5640 5734 5832 5832 5933 6038 6146 6146 6146 6259 6146 6146 6146 6146 6146 6146 6259 6259 6259 6259 6259 6259 6259 6259 6259 6259 6259 6259 6259 6259 6259 6259 6259 6259 6259 6146 6146 6038 5933 5832 5640 5460 5460 5460 5460 2984 2958 2958 2958 2933 2933 2933 2958 2958 2958 2958 2958 2958 2958 2958 2958 2958 2958 2958 2958 2984 2984 2984 2984 2984 3010 3010 3010 3010 3010 3037 3037 3037 3037 3037 3010 3010 3037 3037 3037 3037 3037 3064 3064 3064 3064 3064 3064 3064 3064 3064 3064 3064 3064 3064 3064 3064 3064 3064 3064 3064 3064 3064 3064 3092 3064 3064 3064 3064 3092 3092 2065 2065 2053 2053 2053 2065 2078 3149 3149 3149 3149 3149 3149 3149 3178 3178 3178 3178 3178 3178 3178 2116 2116 2129 2129 2129 2129 2143 2143 2143 2143 2143 2143 2156 2156 2156 2156 2156 2170 2170 2170 2170 2170 2170 2184 2184 2184 2184 2184 2184 2184 2184 2184 2184 2198 2198 2198 2198 2198 2212 2212 2212 2212 2212 2198 2198 2198 2198 2212 2212 2212 2212 2212 2212 2212 2212 2212 2212 2226 2226 2226 2226 2226 2226 2226 0 0 0 0 0 6889 6889 6889 7030 7030 7030 5291 5291 5210 5210 5291 5291 5291 5291 5291 5291 5291 5291 5210 5210 5210 5210 5210 5210 5210 5210 5132 5132 5132 5132 5132 5210 5210 5132 5132 5210 5132 5132 5132 5132 5132 5210 5210 0 2349 2349 2349 2349 2349 2349 2349 2349 2349 2349 2349 2349 2365 2365 2349 2349 2349 2365 2365 2365 2365 2365 2381 2381 2381 2381 2398 2381 2381 2381 2381 2381 2381 2381 2398 2398 2398 2398 2398 2398 2415 2415 2415 2415 2415 2415 2415 2415 2415 2415 2415 2415 2415 2415 2415 2415 2432 2432 2450 2450 2450 2450 2450 2450 2450 2450 2450 2450 2467 2467 2467 2467 2467 2467 2467 2467 0 0 0 0 0 0 0 0 0 0 0 0 0 0 0 0 0 0 0 0 0 0 4522 4522 4522 4522 4582 4582 4582 4582 4582 4582 4582 4708 5291 3614 3614 3614 3576 3576 3576 3576 5056 5056 5132 5132 5132 5132 3576 3576 3576 3614 3614 3614 3614 3614 3539 3539 3539 3503 3503 3503 3903 3948 3576 3503 3503 3539 3539 3503 3503 3503 3503 3503 3503 3468 3468 3468 3503 3503 3503 3503 3503 3503 3503 3503 3503 3503 3503 3503 3503 3539 3539 3539 3539 3539 3539 3539 3539 3539 3503 3468 3468 3468 3503 3503 3503 3539 3539 3539 3503 3238 3238 3238 3238 3238 3238 3238 3238 3238 3269 3269 3269 3269 3269 3238 3238 3238 3238 3208 3208 3238 3238 3238 3269 3269 3300 3269 3269 3300 3300 6146 6146 6146 3300 3269 3208 3208 3238 3269 3300 3300 3300 3300 3333 3333 3333 3333 3333 3333 3333 3333 3333 3333 3333 3365 4349 4349 4349 4349 4405 4405 4405 4405 4405 4405 4349 4295 4295 4295 4241 4241 4190 4139 4139 4139 4089 4089 4089 4089 4089 4041 4041 4089 4089 4139 4139 4139 4089 4041 4041 4041 4041 4041 4041 4041 4041 4089 4089 4139 4139 4190 4190 4241 0 0 0 0 0 0 0 0 0 0 0 0 0 0 0 0 0 0 0 0 0 0 0 0 0 0 0 0 0 0 0 0 0 0 0 0
0 0 0 0 0 0 0 0 0 0 0 0 0 0 0 0 0 0 0 0 0 0 0 0 0 0 0 0 0 0 5933 5933 5933 5933 5933 5933 5933 5933 5933 6038 6038 6038 6038 6038 6038 6038 6038 6038 6038 6038 6038 6038 6038 5933 5933 5460 5460 5291 5291 5291 5460 5460 5548 5548 5640 5734 5734 5832 5832 5933 6038 6146 6146 6146 6146 6146 6146 6146 6146 6146 6259 6259 6259 6259 6259 6259 6259 6259 6259 6259 6259 6259 6259 6259 6259 6259 6259 6259 6259 6146 6146 6038 5734 5734 5548 5460 5460 5460 3037 2984 2984 2958 2958 2958 2958 2958 2958 2958 2958 2958 2958 2958 2958 2958 2958 2958 2958 2984 2984 2984 2984 2984 2984 3010 3010 3010 3010 3037 3037 3037 3037 3037 3037 3037 3010 3010 3037 3037 3037 3037 3064 3064 3064 3064 3064 3064 3064 3064 3064 3064 3064 3064 3064 3064 3064 3064 3064 3064 3064 3064 3064 3064 3064 3064 3064 3064 3064 3064 3092 2065 2065 2065 2053 2053 2065 2065 2078 2078 2090 3149 3149 3149 3149 3149 3178 3178 3178 3178 2103 2103 2103 2103 2116 2129 2129 2129 2129 2143 2143 2143 2143 2143 2143 2143 2156 2156 2156 2156 2170 2170 2170 2184 2184 2184 2184 2184 2184 2184 2184 2184 2184 2184 2184 2184 2198 2198 2198 2198 2198 2212 2198 2198 2212 2212 2198 2198 2198 2198 2212 2212 2212 2212 2212 2212 2212 2212 2212 2212 2226 2226 2226 2226 2226 2226 2226 0 0 0 0 0 0 6889 6889 6889 6889 7030 5291 5291 5210 5210 5291 5291 5291 5291 5291 5291 5291 5291 5291 5210 5210 5210 5210 5210 5210 5210 5132 5132 5132 5132 5132 5210 5210 5132 5132 5132 5132 5132 5056 5056 5056 5132 5132 0 2349 2349 2349 2349 2349 2349 2349 2349 2349 2349 2349 2365 2365 2365 2349 2349 2349 2365 2365 2365 2365 2381 2381 2381 2381 2381 2398 2381 2381 2381 2381 2381 2381 2381 2381 2398 2398 2398 2398 2415 2415 2415 2415 2415 2415 2415 2415 2415 2415 2415 2415 2415 2432 2432 2432 2432 2450 2450 2450 2467 2467 2450 2450 2450 2450 2450 2450 2467 2467 2467 2467 2485 2467 2467 2467 2467 0 0 0 0 0 0 0 0 0 0 0 0 0 0 0 0 0 0 0 0 0 0 0 4522 4522 4582 4582 4582 4582 4582 4582 4582 4582 4645 5210 5291 5291 5291 5291 5291 5132 5132 5132 5132 5132 5132 5210 5210 3692 3692 3692 3732 3732 3774 3774 3732 3732 3816 3816 3859 3903 3903 3903 3948 3948 3903 3614 3614 3614 3539 3503 3503 3503 3503 3503 3468 3468 3503 3503 3503 3539 3503 3503 3503 3503 3503 3503 3503 3503 3539 3539 3539 3539 3539 3539 3539 3576 3576 3576 3576 3576 3433 3433 3468 3503 3503 3503 3503 3503 3503 3539 3238 3238 3238 3269 3269 3269 3269 3269 3269 3269 3269 3269 3269 3269 3269 3238 3238 3238 3208 3208 3238 3238 3238 3269 3269 3300 3300 3300 3300 3300 3269 3269 3269 3269 3269 3269 3269 3269 3300 3300 3300 3333 3365 3333 3333 3333 3333 3333 3333 3333 3333 3333 3333 3365 3365 4349 4349 4349 4349 4349 4349 4349 4349 4349 4349 4349 4295 4295 4295 4241 4190 4190 4190 4139 4139 4139 4089 4089 4089 4089 4041 4041 4041 4089 4139 4139 4139 4089 4089 4041 4041 4041 4041 4041 4041 4041 4089 4089 4089 4089 4190 4190 4190 0 4405 4405 0 0 0 0 0 0 0 0 0 0 0 0 0 0 0 0 0 0 0 0 0 0 0 0 0 0 0 0 0 0 0 0 0
0 0 0 0 0 0 0 0 0 0 0 0 0 0 0 0 0 0 0 0 0 0 0 0 0 0 0 0 0 0 5933 5933 5933 5933 5933 5933 5933 5933 6038 6038 6038 6038 6038 6038 5933 5933 6038 6038 6038 6038 5933 5933 5933 5933 5832 5460 5374 5291 5291 5291 5460 5460 5548 5548 5640 5734 5734 5832 5832 5933 6038 6146 6146 6146 6146 6146 6146 6146 6146 6259 6259 6259 6259 6259 6375 6375 6259 6259 6259 6259 6259 6259 6259 6259 6259 6259 6259 6146 6146 6146 6146 6038 5734 5734 5548 5460 5460 5460 3037 2984 2984 2984 2984 2958 2958 2958 2958 2958 2958 2958 2958 2958 2958 2958 2958 2958 2984 2984 2984 2984 2984 2984 2984 2984 3010 3010 3010 3010 3037 3037 3037 3037 3037 3037 3037 3037 3037 3037 3010 3010 3037 3037 3064 3064 3064 3064 3064 3064 3064 3064 3064 3064 3064 3064 3064 3064 3064 3064 3064 3064 3064 3064 3064 3064 3037 3037 3037 3037 3037 2053 2053 2065 2065 2065 2065 2065 2078 2078 2090 2103 2116 2116 2116 2116 2116 2103 2103 2103 2103 2103 2103 2103 2116 2129 2129 2129 2143 2143 2143 2143 2143 2143 2143 2143 2143 2156 2156 2156 2170 2170 2170 2184 2184 2184 2184 2184 2184 2184 2184 2184 2184 2184 2184 2184 2198 2198 2198 2198 2198 2198 2198 2198 2212 2212 2198 2198 2198 2198 2212 2212 2212 2212 2212 2212 2212 2212 2212 2212 2226 2226 2226 2226 2226 2226 2241 0 0 0 0 0 0 6889 6889 6889 6889 6889 5291 5291 5291 5291 5291 5291 5291 5291 5291 5291 5291 5291 5291 5210 5210 5210 5210 5210 5210 5210 5210 5132 5132 5132 5210 5210 5210 5132 5132 5132 5132 5132 5056 5056 5056 5132 5132 0 2349 2349 2349 2349 2349 2349 2349 2349 2349 2349 2349 2349 2349 2365 2349 2349 2349 2349 2365 2365 2365 2381 2381 2381 2381 2381 2381 2365 2365 2365 2365 2365 2365 2365 2381 2398 2398 2398 2398 2415 2415 2415 2415 2415 2415 2415 2415 2415 2415 2415 2415 2415 2432 2432 2432 2432 2450 2450 2450 2467 2467 2467 2467 2450 2450 2450 2467 2467 2467 2467 2467 2485 2485 2485 2485 0 0 0 0 0 0 0 0 0 0 0 0 0 0 0 0 0 0 0 0 0 0 0 0 4522 4522 4522 4522 4582 4582 4582 4582 4582 4582 4582 5210 5291 5291 5291 5291 5291 5291 5291 5132 5132 5132 5132 5210 5291 3948 3859 3859 3859 3859 3903 3903 3859 3859 3859 3903 3903 3903 3948 3948 3948 3948 3948 3859 3859 3614 3614 5374 5374 5374 5374 5291 5291 5374 5374 5374 5374 5374 3503 3503 3503 3503 3503 3468 3468 3468 3468 3468 3503 3503 3503 3576 3576 3614 3614 3614 3614 3539 3433 3433 3468 3468 3503 3503 3503 3503 3503 3503 3208 3208 3269 3269 3269 3269 3269 3269 3269 3269 3269 3269 3269 3269 3269 3238 3238 3238 3208 3208 3208 3238 3238 3269 3269 3300 3300 3300 3300 3300 3269 3269 3269 3269 3269 3269 3269 6038 6038 3399 3399 3399 3365 3333 3333 3333 3333 3333 3333 3333 3333 3333 3333 3365 4349 4349 4349 4349 4349 4349 4349 4349 4349 4349 4349 4349 4295 4295 4295 4241 4190 4190 4190 4139 4139 4139 4089 4089 4089 4089 4041 4041 4041 4089 4089 4089 4139 4089 4089 4041 4041 4041 4041 4041 4041 4041 4089 4089 4089 4089 4190 4190 4190 4190 4405 4405 0 0 0 0 0 0 0 0 0 0 0 0 0 0 0 0 0 0 0 0 0 0 0 0 0 0 0 0 0 0 0 0 0
0 0 0 0 0 0 0 0 0 0 0 0 0 0 0 0 0 0 0 0 0 0 0 0 0 0 0 0 0 0 5832 5832 5832 5832 5933 5933 6038 6038 6038 6038 6038 6038 6038 6038 5933 5933 6038 6038 5933 5933 5933 5933 5933 5933 5734 5460 5374 5374 5374 5374 5460 5460 5548 5548 5640 5734 5734 5832 5832 5933 6038 6146 6146 6146 6146 6146 6146 6146 6146 6259 6259 6259 6259 6259 6375 6375 6146 6146 6259 6259 6146 6146 6146 6259 6259 6259 6146 6146 6146 6146 6038 6038 5640 5640 5548 5460 5460 5460 5460 2984 2984 2984 2984 2958 2958 2958 2958 2958 2958 2958 2958 2958 2958 2958 2958 2984 2984 2984 2984 2984 2984 2984 2984 2984 3010 3010 3010 3010 3037 3037 3037 3037 3037 3037 3037 3037 3037 3010 3010 3010 3037 3037 3037 3037 3037 3064 3037 3037 3037 3037 3037 3064 3037 3037 3064 3037 3037 3064 3037 3037 3037 3037 3037 3037 3037 3010 3010 3010 3010 2053 2053 2065 2065 2065 2065 2065 2078 2078 2090 2103 2116 2116 2116 2116 2103 2103 2103 2103 2103 2103 2103 2116 2116 2129 2129 2129 2129 2143 2143 2143 2143 2143 2143 2143 2143 2156 2156 2156 2156 2170 2170 2170 2184 2184 2184 2184 2184 2184 2184 2184 2184 2184 2198 2198 2198 2198 2198 2198 2198 2198 2198 2198 2212 2212 2212 2198 2198 2212 2212 2212 2212 2212 2212 2212 2212 2212 2212 2212 2226 2226 2226 2226 2226 2241 2241 0 0 0 0 0 0 6889 6889 6889 6889 6889 5291 5291 5291 5291 5291 5291 5291 5291 5291 5291 5291 5291 5291 5210 5210 5210 5210 5210 5210 5210 5210 5210 5210 5210 5210 5210 5210 5132 5132 5132 5132 5132 5056 5056 5056 5132 5132 5132 2349 2349 2349 2349 2349 2349 2349 2349 2349 2349 2349 2349 2349 2365 2349 2349 2349 2349 2365 2365 2365 2365 2381 2381 2381 2381 2381 2365 2365 2365 2365 2365 2365 2365 2381 2398 2398 2398 2398 2415 2415 2415 2415 2415 2415 2415 2415 2415 2415 2415 2415 2415 2415 2415 2415 2415 2432 2450 2450 2467 2467 2450 2450 2450 2450 2450 2467 2467 2467 2467 2485 2485 2485 2485 0 0 0 0 0 0 0 0 0 0 0 0 0 0 0 0 0 0 0 0 0 0 0 0 0 0 4522 4522 4522 4582 4582 4582 4582 4582 4582 4582 5291 5374 5374 5291 5291 5291 5291 5291 5291 5291 5210 5210 5291 5291 3948 3948 3948 3948 3948 3948 3948 3903 3903 3903 3903 3903 3948 3948 3948 3948 3948 3948 3903 3903 3903 5460 5374 5374 5374 5374 5374 5374 5374 5460 5374 5374 5374 3539 3539 3503 3503 3503 3433 3433 3468 3468 3468 3503 3503 3503 3503 3614 3614 3732 3614 3614 3539 3539 3503 3468 3468 3468 3468 3208 3208 3208 3208 3208 3208 3238 3269 3269 3269 3269 3269 3269 3269 3269 3269 3269 3269 3269 3269 3238 3208 3178 3178 3178 3208 3238 3269 3269 3300 3300 3300 3300 3300 3269 3269 3300 3300 3300 3300 3300 5933 5933 3399 3399 3399 3365 3333 3333 3333 3333 3333 3333 3333 3365 3365 3365 3365 4349 4349 4349 4349 4349 4349 4349 4349 4349 4349 4295 4295 4295 4295 4295 4295 4190 4190 4190 4139 4139 4139 4089 4089 4089 4089 4041 4041 4089 4089 4089 4089 4089 4089 4089 4041 4041 4089 4041 4041 4041 4041 4089 4089 4089 4089 4139 4139 4139 4139 4241 4295 0 0 0 0 0 0 0 0 0 0 0 0 0 0 0 0 0 0 0 0 0 0 0 0 0 0 0 0 0 0 0 0 0
0 0 0 0 0 0 0 0 0 0 0 0 0 0 0 0 0 0 0 0 0 0 0 0 0 0 0 0 0 0 5832 5734 5734 5832 5832 5933 6038 5933 5933 6038 6038 6038 6038 6038 6038 6038 6038 6038 5933 5933 5933 5933 5933 5933 5734 5460 5374 5374 5374 5374 5374 5374 5460 5548 5640 5640 5734 5832 5832 5933 6038 6146 6146 6146 6146 6146 6146 6146 6146 6259 6259 6259 6375 6375 6375 6375 6146 6146 6146 5832 5734 5734 6146 6259 2789 2789 2789 6146 6146 6146 6038 6038 5640 5640 5548 5460 5460 5460 5460 2984 2984 2984 2984 2958 2958 2958 2958 2958 2958 2958 2958 2958 2958 2958 2958 2984 2984 2984 2984 2984 2984 2984 2984 3010 3010 2984 2984 3010 3010 3010 3037 3037 3037 3037 3037 3010 3010 3010 3010 3010 3010 3037 3037 3037 3037 3037 3037 3037 3037 3037 3037 3037 3037 3037 3037 3037 3037 3037 3037 3037 3037 3010 3010 3010 3010 2958 2933 2933 2933 2053 2053 2065 2065 2065 2065 2078 2078 2078 2090 2103 2103 2103 2103 2103 2103 2103 2103 2103 2116 2116 2116 2116 2129 2129 2129 2129 2129 2143 2143 2143 2143 2143 2143 2143 2143 2156 2156 2156 2156 2170 2170 2170 2170 2184 2184 2184 2184 2184 2184 2184 2184 2184 2198 2198 2198 2198 2198 2198 2198 2198 2198 2198 2212 2212 2198 2198 2198 2212 2212 2212 2212 2212 2212 2212 2212 2212 2212 2226 2226 2226 2226 2241 2241 2241 2256 0 0 0 0 0 0 6753 6753 6753 6753 5374 5374 5291 5291 5291 5291 5291 5291 5291 5291 5291 5291 5291 5291 5210 5210 5210 5210 5210 5210 5210 5210 5210 5210 5210 5210 5210 5210 5132 5132 5132 5132 5132 5056 5056 5056 5132 5132 5132 2349 2349 2349 2349 2349 2349 2349 2349 2349 2349 2349 2349 2349 2365 2349 2349 2349 2349 2365 2365 2365 2365 2381 2398 2398 2381 2381 2381 2381 2365 2365 2365 2365 2365 2381 2398 2398 2398 2415 2415 2415 2415 2415 2415 2415 2415 2415 2415 2432 2415 2415 2415 2415 2415 2415 2415 2432 2450 2450 2450 2450 2450 2450 2450 2450 2450 2467 2467 2467 2467 2467 2467 2485 2485 0 0 0 0 0 0 0 0 0 0 0 0 0 0 0 0 0 0 0 0 0 0 0 0 0 0 4522 4522 4522 4582 4582 4582 4582 4582 4582 4582 5291 5374 5374 5291 5291 5291 5291 5291 5291 5291 5291 5291 5291 5291 3948 3948 3948 3948 3948 3948 3948 3948 3948 3948 3948 3948 3948 3948 3948 3948 3948 3948 3903 3903 3903 5374 5374 5374 5374 5374 5374 5374 5374 5460 5374 5374 4089 4089 4089 4139 3503 3503 3433 3433 3468 3468 4089 4089 4089 4089 3774 3774 3774 3774 3774 3774 4295 4295 4295 4295 4241 4241 4241 3208 3208 3208 3208 3208 3208 3238 3269 3269 3269 3269 3269 3269 3269 3269 3269 3269 3269 3269 3269 3238 3208 3149 3120 3120 3149 3238 3238 3269 3300 3300 3300 3300 3300 3300 3300 3300 3300 3300 3300 3300 5933 5933 5933 3399 3399 3365 3365 3365 3365 3365 3365 3365 3365 3365 3365 3365 3399 4349 4349 4295 4295 4349 4349 4349 4349 4295 4295 4295 4295 4295 4295 4295 4241 4139 4139 4139 4139 4139 4089 4089 4089 4089 4089 4041 4041 4089 4089 4089 4089 4089 4089 4089 4041 4041 4089 4089 4089 4089 4089 4139 4089 4089 4089 4139 4139 4139 4139 4190 4241 4241 0 0 0 0 0 0 0 0 0 0 0 0 0 0 0 0 0 0 0 0 0 0 0 0 0 0 0 0 0 0 0 0
0 0 0 0 0 0 0 0 0 0 0 0 0 0 0 0 0 0 0 0 0 0 0 0 0 0 0 0 0 0 5734 5734 5734 5734 5832 5832 5832 5933 5933 6038 6038 6038 6038 6038 5933 5933 5933 5832 5832 5832 5832 5832 5832 5734 5640 5374 5374 5291 5291 5374 5374 5374 5460 5548 5548 5640 5734 5734 5832 5832 5832 6146 6146 6146 6146 6146 6146 6146 6259 6259 6375 6259 6259 6375 6375 6259 6038 6038 6146 5832 5734 5734 5734 2789 2789 2789 2789 2789 2789 2789 2812 2812 5548 5548 5548 5460 5460 5640 5640 2984 2984 2984 2958 2958 2958 2958 2958 2958 2933 2933 2958 2958 2958 2958 2958 2984 2984 2984 2984 2984 2984 3010 3010 3010 3010 2984 2984 3010 3010 3010 3010 3037 3010 3010 3010 3010 3010 3010 3010 3010 3010 3010 3037 3037 3037 3037 3010 3010 3010 3010 3010 3010 3010 3010 3037 3037 3037 3037 3037 3037 3010 3010 3010 3010 2958 2933 2933 2933 2040 2040 2053 2065 2078 2078 2078 2078 2090 2090 2090 2103 2103 2103 2103 2103 2103 2103 2103 2103 2116 2116 2116 2116 2129 2129 2129 2129 2129 2143 2143 2143 2143 2143 2143 2156 2156 2156 2156 2156 2156 2170 2170 2170 2170 2170 2184 2184 2184 2184 2184 2184 2184 2184 2198 2198 2198 2198 2198 2198 2198 2198 2198 2198 2212 2212 2198 2198 2198 2212 2212 2212 2212 2212 2212 2212 2212 2212 2212 2226 2226 2226 2226 2241 2241 2241 2256 0 0 0 0 0 0 6753 6753 6753 6753 5374 5374 5374 5291 5291 5291 5291 5374 5374 5291 5291 5291 5291 5291 5291 5291 5291 5210 5210 5210 5210 5210 5210 5210 5210 5210 5210 5210 5132 5132 5132 5132 5132 5132 5132 5132 5132 5132 5132 0 2349 2349 2349 2349 2349 2349 2349 2349 2349 2349 2349 2349 2365 2349 2349 2349 2349 2365 2365 2365 2365 2381 2381 2381 2381 2381 2365 2365 2365 2365 2365 2365 2365 2381 2398 2398 2398 2415 2415 2415 2415 2415 2415 2398 2398 2415 2415 2432 2415 2415 2415 2415 2415 2415 2415 2432 2450 2450 2450 2450 2450 2450 2450 2450 2467 2467 2467 2467 2467 2467 2467 2485 2485 2503 0 0 0 0 0 0 0 0 0 0 0 0 0 0 0 0 0 0 0 0 0 0 0 0 0 0 4522 4522 4522 4522 4582 4582 4582 4582 4582 5374 5374 5374 5374 5374 5291 5291 5291 5291 5291 5291 5291 5291 5291 3948 3948 3948 3948 3948 3948 3948 3948 3948 3948 3948 3948 3948 3948 3948 3948 3948 3948 3903 3903 3903 5374 5374 5374 5374 5374 5374 5374 5374 5460 5460 5460 4089 4089 4139 4139 4139 4190 4241 4241 4190 4139 4089 4089 4041 4041 4041 3774 3774 3774 4089 4089 0 4295 4295 4295 4241 4241 4241 3238 3208 3208 3208 3208 3208 3238 3269 3269 3269 3269 3269 3269 3300 3300 3300 3300 3300 3269 3269 3238 3092 3092 3092 3092 3092 3149 3238 3269 3300 3300 3300 3300 3300 3300 3300 3300 3333 3333 3333 5933 5933 5933 5933 5933 5933 3365 3365 3365 3365 3365 3365 3365 3365 3399 3399 3399 3399 4349 4349 4295 4295 4349 4349 4349 4349 4295 4295 4295 4295 4295 4295 4241 4241 4139 4139 4139 4139 4139 4089 4089 4089 4089 4089 4041 4041 4089 4089 4089 4089 4089 4089 4089 4089 4089 4089 4089 4089 4089 4089 4139 4139 4089 4089 4139 4139 4139 4139 4190 4190 4241 0 0 0 0 0 0 0 0 0 0 0 0 0 0 0 0 0 0 0 0 0 0 0 0 0 0 0 0 0 0 0 0
0 0 0 0 0 0 0 0 0 0 0 0 0 0 0 0 0 0 0 0 0 0 0 0 0 0 0 0 0 0 5734 5734 5734 5734 5832 5832 5832 5933 5933 6038 6038 6038 6038 6038 5933 5933 5933 5832 5734 5734 5734 5734 5734 5640 5460 5374 5374 5291 5291 5291 5291 5291 5374 5460 5548 5548 5640 5640 5640 5832 5832 6146 6146 6259 6146 6146 6146 6259 6259 6259 6259 6259 6259 6259 6259 6259 6038 6038 6038 6038 2812 2812 2812 2812 2789 2789 2789 2789 2789 2789 2812 2812 2835 2835 2859 2859 2883 2883 2908 2984 2984 2933 2933 2933 2933 2933 2933 2933 2933 2933 2933 2958 2958 2958 2958 2958 2984 2984 2984 2984 2984 3010 2984 2984 2984 2984 2984 3010 3010 3010 3010 3010 3010 3010 3010 2984 2984 2984 2984 2984 3010 3010 3010 3010 3010 3010 2984 2984 3010 3010 3010 3010 3010 3010 3037 3037 3037 3037 3037 3037 3010 3010 3010 3010 2958 2933 2933 2933 2040 2040 2053 2065 2078 2078 2078 2078 2090 2090 2090 2090 2090 2090 2103 2103 2103 2103 2103 2103 2116 2116 2116 2129 2129 2129 2129 2129 2143 2143 2143 2143 2143 2143 2143 2156 2156 2156 2156 2156 2170 2170 2170 2170 2170 2170 2184 2184 2184 2184 2184 2184 2184 2184 2198 2198 2198 2198 2198 2198 2198 2198 2198 2198 2212 2212 2198 2198 2198 2212 2212 2212 2212 2212 2212 2212 2212 2212 2212 2226 2226 2226 2226 2241 2241 2241 0 0 0 0 0 0 0 0 6753 6753 6753 5374 5374 5374 5374 5291 5291 5291 5374 5374 5291 5291 5374 5374 5291 5291 5291 5291 5210 5210 5210 5210 5210 5210 5210 5210 5210 5210 5210 5210 5210 5210 5210 5132 5132 5132 5132 5132 5132 5132 0 2333 2333 2333 2349 2349 2349 2349 2349 2349 2349 2349 2365 2365 2349 2349 2365 2365 2365 2365 2365 2381 2381 2381 2381 2381 2381 2349 2349 2365 2349 2349 2349 2365 2381 2398 2398 2398 2415 2415 2398 2398 2398 2398 2398 2398 0 2432 2432 2415 2415 2415 0 0 0 0 0 2450 2450 2450 2450 2450 2450 2450 2450 2467 2467 2467 2467 2467 2467 2485 2485 2485 2503 0 0 0 0 0 0 0 0 0 0 0 0 0 0 0 0 0 0 0 0 0 0 0 0 0 0 4522 4522 4522 4522 4582 4582 4582 4582 4582 5374 5374 5374 5291 5291 5374 5374 5374 5291 5291 5291 5291 5291 5291 5291 3948 3948 3948 3948 3948 3948 3948 3948 3948 3994 3994 3994 3994 3948 3948 3948 3948 3948 3903 3903 5374 5374 5374 5374 5374 5374 5374 5374 5374 5460 4190 4190 4190 4190 4241 4241 4241 4241 4241 4190 4139 4089 4089 4041 4041 4089 4089 4089 4089 4089 4089 4089 4295 4295 4295 4241 4241 3208 3208 3208 3208 3238 3208 3208 3269 3269 3269 3269 3269 3269 3269 3300 3300 3300 3300 3300 3300 3269 3238 3092 3092 3092 3092 3092 3149 3238 3269 3269 3300 3300 3300 3300 3300 3300 3300 3333 3333 6038 5933 5933 5933 5933 5933 6038 3365 3365 3365 3365 3365 3365 3365 3365 3399 3399 3399 4349 4349 4349 4349 4349 4349 4349 4295 4295 4295 4295 4295 4295 4295 4295 4241 4241 4139 4139 4190 4139 4139 4139 4089 4089 4089 4089 4041 4041 4089 4089 4089 4089 4089 4089 4089 4089 4089 4139 4139 4139 4139 4139 4139 4139 4139 4139 4139 4139 4190 4190 4190 4190 4349 4349 4522 4522 0 0 0 0 0 0 0 0 0 0 0 0 0 0 0 0 0 0 0 0 0 0 0 0 0 0 0 0 0
0 0 0 0 0 0 0 0 0 0 0 0 0 0 0 0 0 0 0 0 0 0 0 0 0 0 0 0 0 0 0 5734 5734 5734 5832 5832 5832 5933 5933 5933 6038 6038 6038 5933 5933 5933 5832 5734 5734 5734 5734 5734 5734 5640 5460 5374 5374 5291 5291 5291 5291 5291 5374 5374 5548 5548 5640 5640 5640 5734 5734 6146 6146 6259 6259 6146 6038 6038 6146 6259 6259 6259 6259 6259 6259 6259 2767 2767 2789 2789 2812 2812 2812 2812 2812 2812 2835 2789 2789 2789 2812 2812 2835 2835 2859 2859 2883 2883 2908 2908 2908 2908 2908 2908 2908 2908 2908 2908 2908 2908 2908 2933 2933 2933 2958 2958 2984 2984 2984 2984 2984 3010 2984 2984 2984 2984 2984 2984 2984 2984 2958 2958 2984 2984 2984 2984 2984 2984 2984 2984 2984 2984 2984 2984 2984 2984 2958 2958 2984 2984 2984 3010 3010 3010 3037 3037 3037 3037 3037 3037 3010 3010 3010 3010 2958 2958 2958 2958 2040 2040 2053 2065 2078 2078 2078 2078 2090 2090 2090 2090 2090 2090 2090 2103 2103 2103 2103 2116 2116 2116 2129 2129 2143 2143 2143 2143 2143 2143 2143 2143 2143 2143 2143 2156 2156 2156 2156 2156 2170 2170 2170 2170 2170 2170 2184 2184 2184 2184 2184 2184 2184 2184 2198 2198 2198 2198 2198 2198 2198 2198 2198 2198 2212 2212 2198 2198 2198 2212 2212 2212 2212 2212 2212 2212 2212 2212 2226 2226 2226 2226 2226 2241 2241 2241 0 0 0 0 0 0 0 0 0 0 5374 5374 5374 5374 5374 5374 5374 5374 5374 5374 5291 5291 5374 5374 5291 5291 5291 5291 5210 5210 5210 5210 5210 5210 5210 5210 5210 5210 5210 5210 5210 5210 5210 5210 5132 5132 5132 5132 5132 5132 2333 2333 2333 2333 2349 2349 2349 2349 2349 2365 2365 2365 2365 2365 2349 2349 2365 2381 2381 2381 2398 2381 2381 2381 2381 0 0 2349 2349 2365 2349 2349 2349 2349 2381 2398 2398 2398 2415 2415 2398 2398 2398 2398 0 0 0 0 0 0 0 0 0 0 0 0 0 0 0 2450 2450 2450 2450 2450 2467 2467 2467 2467 2467 2467 2467 2467 2467 2485 0 0 0 0 0 0 0 0 0 0 0 0 0 0 0 0 0 0 0 0 0 0 0 0 0 0 0 4522 4522 4522 4522 4582 4522 4522 4522 4582 5460 5374 5374 5291 5291 5374 5374 5374 5291 5291 5291 5291 5291 5291 5291 5291 3948 3948 3994 3948 3948 3994 3948 3948 3948 3994 3994 3948 3948 3948 3948 3948 3948 3948 3948 5374 5374 5374 5374 5374 5374 5374 5374 5374 5460 4190 4190 4190 4190 4241 4241 4241 4241 4190 4190 4139 4089 4089 4089 4089 4089 4089 4089 4089 4089 4089 4089 4139 4139 4190 4241 4241 3208 3208 3238 3238 3238 3238 3238 3269 3269 3269 3269 3269 3269 3300 3300 3300 3300 3300 3300 3300 3269 3238 3149 3092 3092 3092 3178 3178 3238 3269 3269 3300 3300 3300 3300 3300 3333 3333 3333 3333 6038 6038 6038 6038 6038 6038 6038 3365 3365 3365 3365 3365 3365 3365 3365 3365 3365 3399 4405 4349 4349 4349 4349 4295 4295 4295 4295 4295 4295 4295 4295 4295 4295 4241 4241 4190 4190 4190 4190 4139 4139 4139 4139 4139 4139 4089 4089 4089 4089 4089 4089 4089 4089 4089 4089 4089 4139 4139 4139 4190 4190 4139 4139 4139 4139 4139 4139 4190 4190 4190 4241 4295 4349 4405 4522 4582 4522 4522 0 0 0 0 0 0 4645 4645 4645 4645 0 0 0 0 0 0 0 0 0 0 0 0 0 0 0 0
0 0 0 0 0 0 0 0 0 0 0 0 0 0 0 0 0 0 0 0 0 0 0 0 0 0 0 0 0 0 0 0 0 0 5832 5832 5832 5832 5832 5933 6038 6038 6038 5933 5933 5933 5734 5734 5734 5734 5734 5734 5832 5734 5548 5374 5291 5291 5291 5210 5210 5210 5291 5374 5460 5548 5640 5640 5640 5734 0 5734 5734 6146 0 6146 6038 6038 6146 6259 6259 6259 2789 2789 2789 2789 2767 2767 2789 2789 2789 2789 2812 2835 2835 2835 2835 2835 2812 2812 2812 2812 2835 2859 2859 2859 2883 2883 2883 2883 2883 2883 2883 2883 2883 2883 2883 2883 2883 2883 2908 2933 2933 2933 2933 2958 2984 2984 2984 2984 2984 2984 2984 2984 2984 2984 2984 2958 2958 2958 2812 2789 2767 2767 2789 2859 2958 2958 2984 2984 2984 2984 2984 2984 2984 2984 2958 2958 2984 2984 2984 3010 3010 3010 3037 3037 3037 3037 3037 3037 3037 3010 3010 3010 3010 3010 3037 3037 2053 2053 2053 2065 2078 2078 2078 2078 2090 2090 2090 2090 2090 2090 2090 2103 2103 2103 2116 2116 2116 2129 2129 2129 2129 2143 2143 2143 2143 2143 2143 2143 2143 2143 2156 2156 2156 2170 2170 2170 2170 2170 2170 2170 2170 2170 2184 2184 2184 2184 2184 2184 2184 2184 2184 2198 2198 2198 2198 2198 2198 2198 2198 2212 2212 2212 2212 2212 2212 2212 2212 2212 2212 2212 2212 2212 2212 2212 2226 2226 2226 2226 2226 2241 2241 2241 0 0 0 0 0 0 0 0 0 0 5374 5374 5374 5374 5374 5374 5374 5374 5374 5374 5291 5291 5374 5374 5374 5374 5291 5291 5210 5210 5210 5210 5210 5210 5210 5210 5210 5210 5210 5210 5210 5210 5210 5210 5210 5210 5210 5132 5132 5132 2333 2333 2333 2333 2349 2349 2349 2349 2349 2349 2349 2365 2365 2365 2349 2349 2365 2381 2398 2398 2398 2398 0 0 0 0 0 0 0 0 0 0 2349 2349 2398 2398 2398 2415 0 0 0 0 0 0 0 0 0 0 0 0 0 0 0 0 0 0 0 0 0 0 2450 2450 2450 2467 2467 2467 2467 2467 2467 2467 2467 2467 2467 2485 2522 0 0 0 0 0 0 0 0 0 0 0 0 0 0 0 0 0 0 0 0 0 0 0 0 4522 4522 4522 4522 4522 4522 4522 4522 4522 4522 4522 5640 5291 5291 5291 5291 5374 5374 5291 5291 5291 5291 5291 5291 5291 5291 5374 3948 3948 3948 3948 3994 3994 3948 3948 3948 3994 3994 3948 3948 3948 3948 3948 3948 3948 5374 5374 5374 5374 5374 5374 5374 5374 5460 5460 5460 4190 4190 4190 4190 4241 4241 4241 4241 4190 4190 4139 4139 4089 4089 4089 4089 4089 4089 4089 4089 4089 4089 4139 4139 4190 4190 4190 3178 3178 3238 3269 3269 3238 3238 3269 3269 3269 3269 3269 3269 3300 3300 3300 3300 3300 3300 3300 3269 3238 3178 3178 3178 3238 3238 3238 3269 3269 3300 3300 3300 3300 3300 3333 3333 3333 3333 3365 6038 6038 6038 6038 6038 6038 6038 3333 3333 3365 3365 3333 3333 3365 3365 3365 3365 4405 4405 4405 4405 4349 4349 4295 4295 4295 4295 4295 4295 4295 4295 4295 4295 4241 4241 4190 4190 4241 4190 4190 4139 4139 4139 4139 4139 4089 4089 4089 4089 4089 4089 4089 4139 4139 4139 4139 4190 4190 4190 4190 4190 4190 4139 4139 4139 4190 4190 4190 4190 4241 4241 4295 4349 4405 4463 4522 4522 4522 4522 0 0 0 0 0 4645 4582 4582 4582 4463 4463 0 0 0 0 0 0 0 0 0 0 0 0 0 0
0 0 0 0 0 0 0 0 0 0 0 0 0 0 0 0 0 0 0 0 0 0 0 0 0 0 0 0 0 0 0 0 0 0 0 5933 5832 5832 5832 5933 0 0 6146 6038 5832 5832 5734 5734 5734 5734 5734 5734 5832 5832 5460 5460 5291 5291 5291 5210 5210 5210 5291 5291 5460 5548 5640 5640 5640 5734 5734 0 0 0 0 6259 6259 6259 6259 6259 2789 2789 2789 2789 2789 2789 2767 2767 2789 2789 2789 2789 2812 2835 2835 2835 2835 2835 2835 2835 2835 2835 2859 2859 2859 2859 2883 2883 2883 2883 2883 2883 2883 2883 2883 2883 2859 2859 2859 2859 2883 2883 2908 2933 2933 2958 2958 2958 2958 2958 2958 2984 2984 2984 2984 2984 2984 2958 2958 2958 2789 2789 2767 2767 2789 2812 2958 2958 2958 2984 2984 2984 2984 2984 2984 2958 2958 2958 2984 2984 2984 3010 3010 3010 3037 3037 3037 3037 3037 3037 3037 3037 3037 3010 3010 3010 3037 3037 2053 2053 2065 2065 2078 2078 2078 2078 2090 2090 2090 2090 2090 2090 2090 2103 2103 2103 2116 2116 2129 2129 2129 2129 2129 2129 2129 2129 2143 2143 2143 2143 2143 2143 2156 2156 2156 2156 2156 2156 2170 2170 2170 2170 2170 2170 2184 2184 2184 2184 2184 2184 2184 2184 2184 2198 2198 2198 2198 2198 2198 2198 2198 2198 2198 2212 2198 2198 2212 2212 2212 2212 2212 2212 2212 2212 2212 2212 2226 2226 2226 2226 2226 2241 2241 2241 0 0 0 0 0 0 0 0 0 5374 5374 5374 5460 5374 5374 5374 5374 5374 5374 5374 5374 5374 5460 5374 5374 5374 5291 5291 5210 5210 5210 5210 5210 5210 5210 5210 5210 5210 5210 5210 5210 5210 5210 5210 5210 5210 5210 5210 5210 5210 2333 2333 2333 2333 2349 2349 2349 2349 2349 2349 2349 2365 2365 2365 2349 2349 2365 2381 2398 2398 2398 2398 0 0 0 0 0 0 0 0 0 0 0 0 0 0 0 0 0 0 0 0 0 0 0 0 0 0 0 0 0 0 0 0 0 0 0 0 0 0 2432 2432 2450 2450 2450 2467 2467 2450 2450 2467 2467 2485 2485 2503 2522 0 0 0 0 0 0 0 0 0 0 0 0 0 0 0 0 0 0 0 0 0 0 0 4463 4463 4522 4522 4522 4522 4522 4522 4582 4582 4582 0 5640 5291 5291 5291 5291 5374 5374 5291 5291 5291 5291 5291 5291 5291 5291 5374 5460 3994 3948 3948 3994 3994 3948 3948 3948 3994 3994 3994 3994 3994 3994 3994 3994 5460 5374 5374 5374 5374 5374 5374 5374 5374 5460 5460 5460 4190 4190 4190 4190 4190 4190 4190 4241 4190 4190 4139 4139 4139 4089 4089 4089 4089 4089 4089 4089 4089 4089 4089 4139 4139 4139 4139 3178 3178 3238 3269 3269 3238 3238 3269 3269 3269 3269 3269 3300 3300 3300 3300 3300 3333 3333 3333 3300 3300 3300 3300 3238 3238 3238 3238 3269 3269 3300 3300 3300 3300 3333 3333 3333 3333 3333 3365 6146 6038 6038 6038 6038 6038 6038 3333 3333 3365 3365 3333 3333 3365 3365 3365 3365 4463 4405 4405 4405 4405 4405 4349 4349 4349 4349 4295 4295 4295 4295 4295 4295 4241 4241 4190 4190 4241 4190 4190 4139 4139 4139 4139 4139 4089 4089 4089 4089 4139 4089 4089 4139 4139 4139 4190 4190 4190 4190 4241 4190 4190 4190 4139 4139 4190 4190 4190 4190 4241 4241 4295 4349 4405 4463 4463 4522 4522 4522 4582 4582 4582 4582 4582 4582 4582 4582 4582 4349 4139 4089 4089 0 0 0 0 0 0 0 0 0 0 0 0
0 0 0 0 0 0 0 0 0 0 0 0 0 0 0 0 0 0 0 0 0 0 0 0 0 0 0 0 0 0 0 0 0 0 0 0 0 0 0 0 0 0 0 0 5832 5832 5832 5734 5734 5734 5734 5734 5832 5832 5460 5291 5291 5210 5210 5210 5210 5210 5291 5291 5460 5548 5640 5640 5640 5734 0 5734 0 0 0 6259 6259 6259 6259 2789 2789 2789 2789 2789 2789 2789 2789 2789 2789 2789 2789 2789 2812 2812 2835 2835 2835 2835 2835 2835 2835 2859 2859 2859 2859 2859 2883 2883 2883 2883 2883 2883 2883 2883 2883 2883 2859 2859 2859 2859 2859 2859 2859 2859 2859 2908 2908 2933 2933 2958 2958 2984 2984 2984 2984 2958 2958 2883 2883 2812 2789 2789 2789 2789 2789 2789 2958 2958 2958 2958 2984 2984 2984 2958 2958 2958 2933 2933 2958 2984 2984 3010 3010 3010 3037 3037 3037 3037 3037 3037 3037 3010 3010 3010 3010 3010 3037 3037 3037 2053 2053 2065 2078 2078 2078 2090 2090 2090 2090 2090 2090 2090 2090 2103 2103 2103 2116 2116 2129 2129 2129 2129 2129 2129 2129 2129 2143 2143 2143 2143 2143 2143 2156 2156 2156 2156 2156 2156 2170 2170 2184 2184 2184 2184 2184 2184 2184 2184 2184 2184 2184 2184 2184 2198 2198 2198 2198 2198 2198 2198 2198 2198 2198 2212 2198 2198 2212 2212 2212 2212 2212 2212 2212 2212 2212 2226 2226 2226 2226 2226 2226 2241 2241 2241 0 0 0 0 0 0 0 6497 6375 6375 5374 5374 5460 5460 5374 5374 5374 5374 5374 5374 5374 5374 5460 5374 5374 5374 5374 5291 5210 5210 5210 5210 5210 5210 5210 5210 5210 5210 5210 5210 5210 5210 5210 5210 5210 5210 5210 5210 5210 5056 2349 2349 2349 2349 2349 2349 2349 2349 2349 2349 2349 2365 2365 2365 2349 2349 2365 2381 2415 2415 0 0 0 0 0 0 0 0 0 0 0 0 0 0 0 0 0 0 0 0 0 0 0 0 0 0 0 0 0 0 0 0 0 0 0 0 0 0 0 0 2432 2432 2450 2450 2450 2450 2450 2450 2450 2467 2467 2467 2485 2485 2503 0 0 0 0 0 0 0 0 0 0 0 0 0 0 0 0 0 0 0 0 0 0 0 4463 4463 4522 4522 4522 4522 4522 4582 4582 4582 0 0 5374 5374 5291 5291 5291 5374 5374 5291 5291 5291 5291 5291 5210 5210 5291 5374 5460 3994 3994 3994 3994 3994 3948 3948 3948 3994 3994 3994 3994 3994 3994 3994 3994 5460 5374 5374 5460 5374 5374 5460 5460 5460 5460 5460 5548 4139 4139 4139 4190 4190 4190 4190 4190 4190 4190 4139 4139 4139 4089 4089 4089 4089 4089 4041 4041 4089 4089 4089 4089 4089 4089 4089 3208 3208 3238 3269 3269 3269 3269 3269 3269 3269 3269 3300 3300 3300 3300 3300 3300 3333 3333 3333 3300 3300 3300 3300 3269 3238 3238 3238 3269 3269 3300 3300 3300 3300 3333 3333 3333 3365 3365 3399 6038 6038 6038 6038 6038 6038 3365 3365 3365 3365 3365 3365 3365 3365 3365 3365 3365 4463 4463 4405 4405 4405 4405 4349 4349 4349 4349 4295 4295 4295 4295 4295 4295 4241 4241 4241 4190 4190 4190 4190 4190 4139 4139 4139 4139 4089 4089 4089 4089 4139 4139 4139 4139 4190 4190 4241 4241 4295 4295 4241 4241 4241 4190 4190 4190 4190 4190 4190 4190 4241 4241 4349 4349 4405 4463 4463 4522 4522 4522 4582 4582 4582 4582 4582 4582 4582 4582 4582 4295 4139 4089 4089 0 0 0 0 0 0 0 0 0 0 0 0
0 0 0 0 0 0 0 0 0 0 0 0 0 0 0 0 0 0 0 0 0 0 0 0 0 0 0 0 0 0 0 0 0 0 0 0 0 0 0 0 0 0 0 0 0 5832 5832 5734 5734 5832 5734 5734 5832 6038 5832 5291 5210 5210 5210 5210 5210 5210 5291 5291 5460 5548 5640 5734 5734 5734 5734 5734 5734 0 6259 6259 6259 6259 6259 2789 2789 2789 2789 2789 2789 2789 2789 2789 2812 2812 2789 2789 2812 2812 2835 2835 2835 2835 2835 2859 2859 2859 2859 2859 2859 2859 2883 2883 2883 2883 2883 2883 2883 2883 2883 2883 2859 2859 2859 2859 2859 2835 2835 2835 2835 2859 2859 2883 2883 2908 2958 2984 2984 2984 2984 2933 2933 2859 2859 2812 2789 2789 2789 2789 2789 2789 2812 2812 2958 2958 2958 2958 2958 2933 2933 2933 2908 2908 2958 2984 2984 3010 3010 3010 3037 3010 3010 3010 3010 3010 3010 2984 2984 2984 2984 2984 3037 2040 2040 2053 2053 2065 2078 2078 2090 2090 2090 2090 2090 2103 2103 2103 2103 2103 2103 2116 2116 2116 2129 2129 2129 2129 2129 2129 2129 2129 2143 2143 2143 2143 2143 2143 2156 2156 2156 2156 2156 2156 2170 2170 2184 2184 2184 2184 2184 2184 2184 2170 2170 2170 2184 2184 2198 2198 2198 2198 2198 2198 2198 2198 2198 2198 2198 2212 2198 2198 2212 2212 2212 2212 2226 2226 2226 2226 2226 2226 2226 2226 2226 2226 2241 2241 2241 2241 2256 2256 2256 0 0 0 0 6497 6375 6375 6259 5640 5460 5460 5374 5374 5374 5374 5374 5374 5374 5374 5460 5374 5374 5374 5374 5291 5210 5210 5210 5210 5210 5210 5210 5210 5210 5210 5210 5210 5210 5210 5210 5210 5210 5210 5210 5132 5056 5056 5056 2349 2349 2349 2349 2349 2349 2349 2349 2365 2365 2365 2365 2381 2365 2365 2381 2398 2432 0 0 0 0 0 0 0 0 0 0 0 0 0 0 0 0 0 0 0 0 0 0 0 0 0 0 0 0 0 0 0 0 0 0 0 0 0 0 0 0 0 2432 2432 2450 2450 2450 2450 2450 2450 2450 2450 2467 2467 2485 2485 2503 0 0 0 0 0 0 0 0 0 0 0 0 0 0 0 0 0 0 0 0 0 0 0 4522 4522 4522 4522 4582 4582 4582 4582 4582 0 0 0 0 0 0 5374 5374 5374 5374 5291 5291 5291 5291 5291 5210 5210 5210 4041 4041 3994 3994 3994 3994 3994 3994 3994 3994 3994 3994 3994 3994 4041 3994 3994 3994 5460 5374 5374 5460 5460 5460 5460 5460 5460 5460 5460 5548 4139 4139 4139 4190 4190 4190 4190 4190 4190 4190 4139 4139 4139 4089 4089 4089 4089 4089 4041 4041 4089 4089 4089 4089 4089 4089 4041 3208 3208 3238 3269 3269 3269 3269 3269 3269 3269 3269 3300 3300 3300 3300 3300 3333 3333 3333 3333 3300 3300 3300 3269 3269 3269 3269 3269 3269 3269 3300 3300 3300 3300 3333 3333 3333 3365 3365 6146 6038 6038 6038 6038 3399 3399 3365 3365 3365 3399 3365 3365 3365 3365 3365 3365 4463 4463 4463 4405 4405 4463 4463 4463 4405 4349 4349 4295 4295 4295 4295 4241 4241 4241 4241 4241 4190 4190 4190 4190 4190 4139 4139 4139 4139 4089 4089 4089 4139 4139 4139 4139 4190 4190 4241 4349 4349 4349 4295 4241 4241 4241 4190 4190 4190 4190 4190 4190 4190 4241 4295 4349 4405 4463 4463 4463 4522 4522 4522 4582 4582 4582 4582 4582 4645 4582 4582 4582 4295 4139 4089 4089 0 0 0 0 0 0 0 0 0 0 0 0
0 0 0 0 0 0 0 0 0 0 0 0 0 0 0 0 0 0 0 0 0 0 0 0 0 0 0 0 0 0 0 0 0 0 0 0 0 0 0 0 0 0 0 0 0 5832 5832 5933 5832 5832 5734 5734 5832 5832 5832 5291 5210 5210 5210 5210 5210 5210 5291 5291 5374 5548 5640 5734 5734 5734 5734 5734 0 0 0 2639 2789 2789 2789 2789 2789 2789 2789 2789 2789 2789 2789 2812 2812 2812 2789 2789 2812 2812 2812 2835 2835 2859 2859 2859 2859 2859 2859 2859 2859 2883 2883 2883 2883 2883 2883 2883 2883 2883 2883 2883 2883 2859 2859 2859 2835 2835 2835 2812 2812 2812 2835 2835 2859 2883 2908 2958 2984 2984 2958 2908 2883 2835 2835 2812 2812 2789 2789 2789 2789 2789 2789 2812 2812 2958 2835 2835 2908 2933 2933 2908 2908 2908 2933 2958 2958 2984 2984 2984 3010 2984 2984 3010 2933 2883 2883 2908 2883 2883 2908 2908 2908 2040 2040 2053 2053 2065 2078 2078 2090 2090 2090 2090 2103 2103 2103 2103 2103 2103 2116 2116 2116 2129 2129 2129 2129 2129 2129 2129 2129 2129 2129 2143 2143 2143 2143 2156 2156 2156 2156 2156 2156 2156 2170 2170 2184 2184 2184 2184 2184 2184 2170 2170 2170 2170 2184 2184 2198 2198 2198 2198 2198 2198 2198 2198 2198 2198 2198 2198 2198 2198 2198 2198 2198 2212 2226 2226 2212 2212 2226 2226 2226 2226 2226 2226 2241 2241 2241 2241 2256 2256 2256 0 0 0 0 6497 6375 6375 6259 5734 5460 5460 5374 5374 5374 5374 5374 5374 5460 5460 5460 5374 5374 5374 5374 5291 5210 5210 5210 5210 5210 5210 5210 5210 5210 5210 5210 5210 5210 5210 5210 5210 5210 5210 5210 5132 5056 5056 5056 5056 2349 2349 2349 2349 2349 2349 2349 2365 2365 2365 2365 2365 2349 2349 2365 2398 2450 0 0 0 0 0 0 0 0 0 0 0 0 0 0 0 0 0 0 0 0 0 0 0 0 0 0 0 0 0 0 0 0 0 0 0 0 0 0 0 0 0 2450 2450 2467 2450 2450 2467 2467 2450 2450 2450 2467 2485 2485 2485 2503 0 0 0 0 0 0 0 0 0 0 0 0 0 0 0 0 0 0 0 0 0 0 0 4522 4522 4582 4582 4582 4582 4582 4582 4582 0 0 0 0 0 0 0 0 4295 4295 4295 4190 4241 4241 4241 4190 4139 4139 4139 4041 4041 3994 3994 3994 3994 3994 3994 3994 3994 3994 3994 3994 4041 3994 3994 5374 5374 5374 5374 5460 5460 5460 5460 5460 5460 5460 5460 5548 4190 4190 4190 4190 4241 4190 4190 4190 4190 4190 4139 4139 4139 4089 4089 4089 4089 4089 4041 4041 4089 4089 4089 4089 4041 4041 4041 4041 3238 3238 3269 3269 3269 3269 3269 3300 3300 3300 3300 3300 3300 3300 3300 3333 3333 3333 3333 3300 3300 3300 3269 3269 3269 3269 3269 3269 3300 3300 3300 3300 3333 3333 3333 3333 3399 3399 6146 6038 6038 6038 6038 3399 3399 3365 3365 3365 3399 3365 3365 3365 3365 3365 3365 4463 4463 4463 4463 4463 4463 4522 4582 4463 4405 4349 4241 4241 4295 4295 4241 4241 4241 4241 4241 4241 4190 4190 4190 4190 4190 4190 4190 4139 4139 4139 4139 4139 4190 4190 4190 4190 4241 4405 4405 4463 4463 4405 4295 4241 4241 4241 4190 4190 4190 4190 4190 4241 4241 4295 4349 4405 4463 4463 4522 4522 4522 4582 4582 4582 4582 4582 4645 4645 4645 4645 4582 4190 4139 4089 4089 0 0 0 0 0 0 0 0 0 0 0 0
0 0 0 0 0 0 0 0 0 0 0 0 0 0 0 0 0 0 0 0 0 0 0 0 0 0 0 0 0 0 0 0 0 0 0 0 0 0 0 0 0 0 0 0 0 0 5933 5933 5933 5933 5832 5832 5832 5832 5832 5210 5210 5210 5210 5210 5210 5210 5210 5210 5291 5460 5734 5734 5734 5734 5734 5734 0 0 0 0 0 0 2789 2789 2789 2789 2789 2789 2812 2812 2812 2812 2812 2812 2789 2789 2812 2812 2812 2835 2835 2859 2859 2859 2859 2859 2859 2883 2883 2883 2883 2883 2883 2883 2883 2883 2883 2883 2883 2883 2883 2859 2859 2859 2835 2812 2789 2789 2789 2789 2789 2812 2812 2835 2883 2933 2958 2958 2958 2859 2835 2835 2812 2812 2812 2812 2789 2789 2789 2789 2789 2789 2789 2789 2789 2789 2812 2835 2812 2812 2859 2859 2908 2883 2859 2859 2789 2789 2767 2767 2789 2835 2835 2835 2835 2859 2859 2859 2883 2859 2859 2859 2053 2053 2053 2065 2078 2090 2090 2090 2090 2090 2103 2103 2103 2103 2103 2103 2116 2116 2116 2129 2129 2129 2129 2129 2129 2129 2129 2129 2129 2143 2143 2143 2143 2156 2156 2156 2156 2156 2156 2170 2170 2170 2184 2184 2184 2184 2184 2184 2170 2170 2170 2184 2184 2184 2184 2198 2198 2198 2198 2198 2198 2198 2198 2198 2198 2198 2198 2198 2198 2198 2198 2212 2212 2212 2212 2212 2226 2226 2226 2226 2226 2226 2241 2241 2241 2241 2256 2256 2256 0 0 0 0 6497 6375 6375 6146 5734 5374 5374 5374 5374 5374 5374 5374 5374 5374 5374 5374 5374 5374 5374 5374 5291 5291 5291 5291 5210 5210 5210 5210 5210 5210 5210 5210 5210 5210 5210 5210 5210 5210 5210 5210 5210 5056 5056 5056 5056 5056 2349 2349 2349 2349 2349 2349 2365 2365 2365 2365 2365 2349 2349 2365 2398 0 0 0 0 0 0 0 0 0 0 0 0 0 0 0 0 0 0 0 0 0 0 0 0 0 0 0 0 0 0 0 0 0 0 0 0 0 0 0 0 0 0 2432 2432 2450 2450 2450 2467 2467 2450 2450 2467 2467 2485 2485 2485 2503 0 0 0 0 0 0 0 0 0 0 0 0 0 0 0 0 0 0 0 0 0 0 0 4582 4582 4582 4582 4582 0 4582 4582 4582 0 0 0 0 0 0 0 4295 4295 4295 4295 4190 4241 4241 4241 4190 4139 4139 4139 4089 4041 3994 3994 3994 3994 3994 3994 3994 3994 3994 3994 3994 3994 3994 3994 5374 5374 5374 5374 5460 5460 5460 5460 5460 5460 5460 5460 5548 4241 4190 4190 4241 4241 4190 4190 4190 4190 4190 4139 4139 4139 4139 4089 4089 4089 4089 4041 4041 4089 4089 4089 4041 4041 4041 4041 4041 3238 3238 3269 3269 3269 3269 3269 3300 3300 3300 3300 3300 3300 3300 3300 3333 3333 3333 3333 3300 3300 3300 3300 3300 3300 3300 3300 3300 3300 3300 3300 3333 3333 3333 3333 3399 3399 3399 6146 6038 3399 3399 3399 3399 3399 3399 3399 3399 3399 3399 3399 3399 3365 3365 4463 4405 4405 4463 4463 4463 4463 4522 4522 4582 4582 4582 4241 4241 4295 4295 4295 4295 4241 4241 4241 4241 4241 4241 4241 4190 4190 4190 4190 4190 4139 4139 4139 4139 4190 4190 4190 4582 4582 4522 4522 4582 4582 4522 4463 4295 4241 4241 4190 4190 4190 4190 4190 4190 4241 4295 4405 4463 4463 4522 4522 4522 4522 4645 4645 4645 4645 4645 4645 4645 4645 4645 4645 4089 4089 4041 4041 0 0 0 0 0 0 0 0 0 0 0 0
0 0 0 0 0 0 0 0 0 0 0 0 0 0 0 0 0 0 0 0 0 0 0 0 0 0 0 0 0 0 0 0 0 0 0 0 0 0 0 0 0 0 0 0 0 0 5933 5933 5933 5933 5832 5832 0 5832 0 5210 0 5210 5210 5210 5210 5210 5210 5210 5291 5374 5640 5640 5734 5734 5734 5734 0 0 0 2639 2639 0 2789 2789 2789 2789 2789 2789 2812 2812 2812 2812 2812 2812 2789 2789 2812 2812 2835 2835 2835 2859 2859 2859 2859 2859 2859 2883 2883 2883 2883 2883 2883 2883 2883 2883 2883 2883 2883 2883 2859 2859 2835 2835 2812 2767 2744 2744 2767 2767 2767 2789 2789 2835 2883 2933 2958 2958 2958 2859 2835 2835 2812 2812 2812 2789 2789 2789 2789 2789 2789 2789 2789 2789 2789 2789 2812 2812 2812 2812 2812 2767 2767 2767 2767 2789 2767 2767 2767 2767 2789 2789 2789 2789 2812 2835 2835 2835 2859 2859 2859 2859 2065 2065 2065 2078 2078 2090 2090 2090 2103 2103 2103 2103 2103 2103 2103 2103 2116 2116 2129 2129 2129 2129 2129 2129 2129 2116 2116 2129 2129 2129 2129 2129 2129 2156 2933 2933 2933 2933 2933 2170 2170 2184 2184 2184 2184 2933 2933 2933 2933 2933 2958 2958 2184 2184 2184 2198 2198 2212 2198 2198 2198 3037 3037 2198 2198 3037 3037 3037 3037 2212 2212 2212 2212 2212 2212 2226 2226 2226 2226 2226 2226 2241 2241 2241 2241 2256 2256 2256 2256 0 0 0 6497 6375 6375 6375 6146 5734 5374 5374 5374 5374 5374 5374 5374 5374 5374 5374 5374 5374 5374 5374 5374 5291 5291 5291 5291 5291 5291 5210 5210 5210 5210 5210 5210 5210 5210 5210 5210 5210 5210 5210 5210 5132 5056 5056 5056 5056 5056 2349 2349 2349 2349 2349 2365 2365 2365 2365 2365 2365 2349 2349 2365 0 0 0 0 0 0 0 0 0 0 0 0 0 0 0 0 0 0 0 0 0 0 0 0 0 0 0 0 0 0 0 0 0 0 0 0 0 0 0 0 0 0 0 2432 2432 2450 2450 2450 2467 2467 2467 2467 2467 2467 2485 2485 2485 0 0 0 0 0 0 0 0 0 0 0 0 0 0 0 0 0 0 0 0 0 0 0 0 0 0 0 0 0 0 0 0 0 0 0 0 0 0 4241 4190 4190 4190 4190 4190 4190 4241 4241 4241 4190 4190 4139 4139 4089 4041 4041 4041 4041 3994 3994 3994 3994 3994 3994 3994 3994 3994 3994 3994 5374 5374 5374 5374 5460 5460 5460 5460 5460 5548 5548 5548 5640 4241 4241 4241 4241 4241 4241 4241 4241 4190 4190 4139 4139 4139 4139 4139 4139 4089 4089 4089 4041 4041 4041 4041 4041 4041 4041 3994 3994 3269 3269 3269 3300 3269 3269 3300 3300 3300 3300 3300 3300 3300 3300 3333 3333 3333 3333 3333 3333 3300 3300 3300 3300 3300 3300 3300 3300 3300 3300 3300 3333 3333 3333 3333 3365 3365 3365 3433 3399 3399 3399 3399 3399 3399 3399 3399 3399 3399 3399 3399 3399 3365 3365 4405 4405 4405 4463 4463 4463 4463 4522 4522 4582 4582 4582 4295 4295 4295 4295 4295 4295 4295 4295 4295 4241 4241 4241 4241 4241 4190 4190 4190 4190 4139 4139 4139 0 4139 4139 0 0 4582 4582 4645 4645 4645 4582 4582 4241 4241 4241 4190 4190 4190 4190 4190 4190 4241 4295 4405 4463 4522 4522 4582 4582 4645 4708 4708 4708 4708 4708 4708 4708 4645 4645 4645 4089 4089 4041 4041 0 0 0 0 0 0 0 0 0 0 0 0
0 0 0 0 0 0 0 0 0 0 0 0 0 0 0 0 0 0 0 0 0 0 0 0 0 0 0 0 0 0 0 0 0 0 0 0 0 0 0 0 0 0 0 0 0 0 5832 5832 5832 5832 5832 5832 0 0 0 0 0 5210 5210 5210 5210 5210 5210 5210 5291 5291 5291 5291 5291 5291 2701 2639 0 2639 2639 2639 2639 2659 2659 2789 2789 2789 2789 2789 2812 2812 2812 2812 2812 2812 2789 2789 2789 2789 2812 2835 2835 2835 2835 2859 2859 2859 2859 2859 2883 2883 2883 2883 2883 2883 2883 2883 2859 2859 2859 2859 2859 2812 2723 2723 2723 2723 2723 2723 2744 2767 2767 2789 2789 2835 2908 2984 2984 2958 2958 2859 2835 2835 2812 2812 2812 2789 2789 2789 2789 2789 2789 2789 2789 2789 2789 2789 2789 2789 2789 2789 2789 2767 2767 2767 2767 2767 2767 2767 2767 2767 2767 2789 2789 2789 2812 2835 2835 2835 2835 2835 2835 2835 2859 2065 2065 2078 2078 2090 2090 2103 2103 2103 2103 2103 2103 2103 2103 2116 2116 2116 2116 2129 2129 2129 2129 2129 2129 2116 2116 2129 2129 2129 2129 2129 2129 2933 2933 2933 2933 2933 2933 2933 2933 2933 2933 2933 2958 2933 2933 2933 2933 2933 2958 2958 2958 2958 2958 2958 2984 2984 3010 2198 2198 3037 3037 3037 3037 3037 3037 3037 3037 3037 2212 2212 2212 2212 2212 2226 2226 2226 2226 2226 2226 2241 2241 2241 2241 2256 2256 2256 2256 0 0 0 6497 6375 6375 6375 6146 5734 5460 5460 5374 5374 5374 5374 5374 5374 5374 5374 5374 5374 5374 5374 5291 5291 5291 5291 5291 5291 5291 5210 5210 5210 5210 5210 5210 5210 5210 5210 5210 5210 5210 5210 5210 5132 5056 5056 5056 5056 5056 2365 2365 2365 2349 2349 2365 2365 2365 2365 2365 2365 2349 2349 2365 0 0 0 0 0 0 0 0 0 0 0 0 0 0 0 0 0 0 0 0 0 0 0 0 0 0 0 0 0 0 0 0 0 0 0 0 0 0 0 0 0 0 0 0 2432 2432 2450 2450 2467 2467 2467 2485 2485 2485 2485 2485 2503 0 0 0 0 0 0 0 0 0 0 0 0 0 0 0 0 0 0 0 0 0 0 0 0 0 0 0 0 0 0 0 0 0 0 0 0 0 0 4241 4190 4190 4190 4190 4190 4190 4190 4241 4241 4190 4190 4139 4139 4089 4089 4041 4041 4041 4041 3994 3994 3994 3994 3994 3994 3994 4041 4041 4041 5374 5374 5374 5374 5460 5460 5460 5460 5460 5548 5548 4295 4295 4241 4241 4241 4241 4241 4241 4241 4241 4190 4190 4139 4139 4089 4089 4089 4089 4089 4089 4089 4041 4041 4041 4041 4041 3994 3994 3948 3948 3269 3269 3269 3300 3269 3269 3300 3300 3300 3300 3300 3300 3300 3300 3333 3333 3333 3333 3333 3333 3300 3300 3300 3300 3300 3300 3300 3300 3269 3269 3300 3300 3333 3333 3333 3365 3365 3365 3399 3399 3399 3399 3399 3399 3399 3399 3399 3399 3399 3399 3399 3399 3399 3399 4405 4405 4405 4463 4463 4463 4522 4582 4582 4582 4582 4582 5734 5734 5734 5734 4349 4349 4349 4522 4349 4295 4241 4241 4241 4241 4190 4190 4190 4190 4139 4139 4139 0 0 0 0 0 4645 4645 4708 4774 4708 4708 4645 4241 4241 4190 4190 4190 4139 4139 4139 4190 4241 4295 4405 4522 4522 4582 4645 4645 4708 4708 4774 4774 4774 4842 4774 4774 4708 4708 4708 4041 4041 4089 4089 0 0 0 0 0 0 0 0 0 0 0 0
0 0 0 0 0 0 0 0 0 0 0 0 0 0 0 0 0 0 0 0 0 0 0 0 0 0 0 0 0 0 0 0 0 0 0 0 0 0 0 0 0 0 0 0 0 0 5832 5832 5832 5832 5832 5832 0 0 0 0 0 5291 5291 5291 5210 5210 5210 5210 5291 5291 5291 5291 0 0 2701 2701 0 2618 2618 2618 2618 2618 2639 2639 2639 2789 2789 2789 2812 2812 2812 2812 2767 2744 2744 2744 2744 2744 2723 2701 2701 2835 2835 2835 2835 2835 2835 2835 2835 2859 2723 2723 2723 2723 2789 2723 2723 2859 2859 2859 2723 2723 2723 2701 2701 2701 2701 2701 2723 2744 2767 2767 2789 2812 2883 2984 2984 2984 2984 2883 2859 2835 2835 2812 2812 2812 2789 2789 2789 2789 2789 2789 2789 2789 2789 2789 2789 2789 2789 2789 2789 2767 2767 2767 2767 2767 2767 2767 2767 2767 2767 2789 2789 2789 2812 2812 2812 2835 2835 2835 2835 2835 2835 2835 2078 2078 2090 2090 2090 2103 2103 2103 2103 2103 2103 2103 2103 2116 2116 2116 2116 2129 2129 2129 2129 2958 2933 2116 2116 2129 2129 2129 2908 2908 2908 2933 2933 2933 2933 2933 2933 2933 2933 2933 2933 2933 2958 2933 2933 2933 2933 2933 2958 2958 2958 2958 2958 2958 2958 2984 2984 2984 3010 3010 3037 3037 3010 3010 3037 3037 3037 3037 2212 2212 2212 2212 2212 2212 2212 2226 2226 2226 2226 2241 2241 2241 2241 2256 2256 2256 2256 0 0 0 0 6375 6375 6375 6146 5734 5460 5460 5460 5374 5374 5374 5374 5460 5460 5460 5374 5374 5374 5374 5291 5291 5291 5291 5291 5291 5291 5291 5291 5291 5291 5210 5210 5210 5210 5210 5210 5210 5210 5210 5210 5132 5056 5056 5056 5056 5056 2365 2365 2365 2365 2365 2365 2365 2365 2365 2365 2365 2349 2349 2365 0 0 0 0 0 0 0 0 0 0 0 0 0 0 0 0 0 0 0 0 0 0 0 0 0 0 0 0 0 0 0 0 0 0 0 0 0 0 0 0 0 0 0 0 2432 2432 2450 2450 2467 2467 2485 2485 2485 2485 2485 2485 2485 0 0 0 0 0 0 0 0 0 0 0 0 0 0 0 0 0 0 0 0 0 0 0 0 0 0 0 0 0 0 0 0 0 0 0 0 0 0 4190 4139 4139 4139 4190 4139 4139 4190 4241 4241 4241 4190 4190 4139 4139 4089 4089 4089 4089 4041 4041 4041 4041 3994 3994 3994 4041 4041 4041 4041 5374 5374 5374 5374 5460 5460 5460 5460 5460 5548 5548 4295 4295 4241 4241 4241 4295 4295 4241 4241 4241 4190 4139 4139 4139 4089 4089 4089 4089 4089 4089 4089 4041 4041 4041 4041 4041 3994 3994 3948 3948 3269 3269 3269 3300 3300 3300 3300 3300 3300 3300 3300 3300 3300 3300 3333 3333 3333 3333 3333 3333 3300 3300 3300 3300 3300 3300 3300 3269 3269 3269 3300 3300 3333 3333 3365 3365 3365 3365 3399 3399 3399 3399 3433 3433 3399 3399 3399 3399 3399 3399 3399 3399 3399 3399 4405 4405 4405 4463 4463 4463 4522 4582 4645 4582 4582 4582 5734 5734 5640 5374 4983 4911 4708 4708 4522 4295 4241 4241 4241 4241 4190 4190 4190 4190 4139 4139 0 0 0 0 0 0 4774 4774 4774 4774 4774 4708 4708 4241 4241 4190 4190 4190 4139 4139 4139 4190 4241 4295 4405 4582 4582 4645 4645 4708 4708 4774 4842 4911 4911 4983 4911 4911 4911 4983 4983 4041 4041 4089 4089 0 0 0 0 0 0 0 0 0 0 0 0
0 0 0 0 0 0 0 0 0 0 0 0 0 0 0 0 0 0 0 0 0 0 0 0 0 0 0 0 0 0 0 0 0 0 0 0 0 0 0 0 0 0 0 0 0 0 5734 5734 5832 5832 5832 0 0 0 0 0 0 5291 5291 5291 5210 5210 5210 5210 5291 5291 5291 5291 5291 2701 2701 2701 2659 2618 2618 2618 2618 2618 2618 2618 2618 2618 2618 2618 2812 2812 2812 2701 2701 2680 2680 2680 2680 2680 2659 2659 2680 2680 2680 2835 2835 2701 2701 2701 2701 2701 2701 2701 2701 2701 2701 2701 2701 2723 2723 2701 2701 2701 2701 2701 2701 2701 2701 2701 2723 2744 2744 2767 2789 2789 2883 2984 2984 2984 2984 2883 2859 2835 2835 2835 2812 2812 2812 2789 2789 2789 2789 2789 2789 2789 2789 2789 2789 2789 2789 2789 2767 2767 2767 2767 2767 2767 2767 2767 2767 2767 2789 2789 2789 2789 2812 2812 2812 2835 2835 2835 2835 2835 2835 2835 2078 2078 2090 2090 2090 2090 2090 2090 2103 2103 2103 2116 2116 2116 2129 2116 2116 2129 2129 2129 2933 2958 2933 2933 2933 2933 2933 2908 2908 2908 2908 2933 2933 2933 2933 2933 2933 2933 2933 2933 2933 2933 2933 2933 2933 2933 2933 2933 2958 2958 2958 2958 2958 2958 2958 2958 2984 2984 3010 3010 3037 3037 3010 3010 3010 3037 3037 3037 3037 2226 2212 2212 2212 2212 2212 2226 2226 2226 2226 2226 2241 2241 2241 2256 2271 0 0 0 0 0 0 0 0 0 0 5640 5460 5460 5460 5374 5374 5374 5374 5460 5460 5460 5374 5374 5374 5374 5291 5291 5291 5291 5291 5291 5291 5291 5291 5291 5291 5210 5210 5210 5210 5210 5210 5210 5210 5210 5210 5132 5056 5056 5056 5056 5056 2365 2365 2365 2365 2365 2365 2365 2349 2349 2365 2365 2349 2349 2349 0 0 0 0 0 0 0 0 0 0 0 0 0 0 0 0 0 0 0 0 0 0 0 0 0 0 0 0 0 0 0 0 0 0 0 0 0 0 0 0 0 0 0 0 2432 2432 2450 2450 2467 2467 2485 2485 2485 2485 2485 2485 2485 0 0 0 0 0 0 0 0 0 0 0 0 0 0 0 0 0 0 0 0 0 0 0 0 0 0 0 0 0 0 0 0 0 0 0 0 0 0 4190 4139 4139 4139 4139 4139 4139 4190 4241 4241 4241 4190 4190 4139 4139 4089 4089 4089 4089 4089 4041 4041 4041 4041 4041 4041 4041 4041 4041 4041 5460 5374 5374 5374 5460 5460 5460 5460 5460 5460 5548 4295 4295 4295 4295 4295 4295 4295 4295 4241 4241 4190 4139 4139 4139 5640 4089 4089 4089 4089 4089 4089 4041 4041 4041 4041 4041 4041 4041 3994 3994 3269 3269 3300 3300 3300 3300 3300 3300 3300 3300 3300 3300 3300 3333 3333 3333 3333 3333 3333 3333 3300 3300 3300 3300 3300 3300 3300 3269 3269 3269 3300 0 3365 3365 3365 3365 3365 3365 3399 3399 3399 3433 3433 3433 3433 3433 3433 3433 3433 3433 3433 3433 3433 4522 4463 4463 4463 4463 4463 4463 4522 4522 4582 4582 4582 5734 5734 5734 5548 5374 5056 4911 4911 4842 4774 4708 4295 4295 4295 4241 4241 4190 4190 4190 4190 0 0 0 0 0 0 5210 5056 4983 4911 4911 4911 4911 4911 4911 4911 4190 4139 4139 4089 4089 4139 4139 4190 4241 4295 4645 4645 4645 4708 4708 4774 4774 4911 4983 4983 5056 4983 4983 4983 4983 4983 4089 4089 4089 4089 0 0 0 0 0 0 0 0 0 0 0 0
0 0 0 0 0 0 0 0 0 0 0 0 0 0 0 0 0 0 0 0 0 0 0 0 0 0 0 0 0 0 0 0 0 0 0 0 0 0 0 0 0 0 0 0 0 0 5734 5734 0 0 0 0 0 0 0 0 0 5291 5291 5291 5291 5210 5210 5291 5291 5291 5291 5291 5374 2701 2701 2680 2659 2639 2639 2618 2618 2618 2618 2618 2618 2618 2618 2618 2618 2618 2618 2639 2639 2639 2639 2639 2639 2639 2639 2639 2639 2639 2639 2639 2639 2659 2659 2680 2680 2680 2680 2680 2701 2701 2701 2701 2701 2701 2701 2701 2701 2701 2701 2701 2701 2701 2701 2701 2723 2744 2744 2767 2789 2789 2789 2958 2984 2984 2984 2883 2859 2835 2835 2835 2812 2812 2789 2789 2789 2789 2789 2789 2789 2789 2789 2789 2789 2789 2789 2789 2767 2767 2767 2767 2767 2767 2767 2767 2789 2789 2789 2789 2789 2812 2812 2812 2835 2835 2835 2835 2835 2835 2835 2835 2090 2090 2090 2090 2090 2090 2090 2090 2103 2103 2103 2116 2116 2116 2116 2129 2129 2129 2129 2129 2933 2958 2933 2933 2933 2933 2933 2908 2908 2908 2908 2933 2933 2933 2933 2933 2933 2933 2933 2933 2933 2933 2933 2933 2933 2933 2958 2958 2958 2958 2958 2958 2958 2958 2958 2958 2984 2984 3010 3010 3037 3037 3010 3010 3010 3037 3037 3037 3064 2226 2212 2212 2212 2212 2212 2226 2226 2226 2226 2226 2241 2241 2241 2256 0 0 0 0 0 0 0 0 0 0 0 5640 5460 5460 5460 5374 5374 5374 5374 5460 5460 5460 5460 5374 5374 5374 5291 5291 5291 5291 5291 5291 5291 5210 5210 5210 5210 5210 5210 5210 5210 5210 5210 5210 5210 5210 5210 5210 5132 5056 5056 5056 5056 2365 2365 2365 2365 2365 2365 2365 2349 2349 2365 2365 2349 2349 2349 0 0 0 0 0 0 0 0 0 0 0 0 0 0 0 0 0 0 0 0 0 0 0 0 0 2415 2415 2415 2415 2415 2415 2415 2432 0 0 0 0 0 0 0 0 0 0 0 2432 2432 2450 2450 2467 2467 2467 2485 2485 2485 2485 2485 2485 0 0 0 0 0 0 0 0 0 0 0 0 0 0 0 0 0 0 0 0 0 0 0 0 0 0 0 0 0 0 0 0 0 0 0 0 0 0 0 4139 4139 4139 4139 4139 4139 4190 4241 4241 4241 4190 4190 4139 4139 4089 4089 4089 4089 4089 4041 4041 4041 4041 4041 4041 4041 4041 4089 4089 5460 5460 5460 5460 5460 5460 5460 5460 5460 5460 4295 4295 4295 4295 4295 4295 4295 4295 4295 4241 4241 5640 5640 5640 5640 5640 5640 4089 4089 4041 4041 4041 4041 4041 4041 4041 4089 4089 4089 4041 3269 3269 3269 3300 3300 3300 3300 3300 3300 3300 3300 3300 3300 3300 3333 3333 3333 3333 3333 3333 3333 3300 3300 3300 3300 3300 3300 3300 0 0 0 0 0 0 0 3365 3365 3365 3399 3399 3399 3399 3433 3433 3433 3433 3433 3433 3433 3433 3433 3433 3433 4522 4463 4463 4463 4463 4463 4463 4463 4522 4522 4582 4582 4582 5640 5640 5640 5374 5374 4983 4911 4911 4842 4708 4708 4349 4349 4349 4241 4241 4190 4190 4190 4190 0 0 0 0 0 0 4983 4911 4911 4911 4911 4911 4911 4911 4911 4911 4190 4139 4139 4089 4089 4139 4139 4190 4241 4295 4582 4645 4645 4708 4774 4842 4842 4911 5056 5056 5056 4983 4983 4983 5210 5374 4089 4089 4089 4089 0 0 0 0 0 0 0 0 0 0 0 0
0 0 0 0 0 0 0 0 0 0 0 0 0 0 0 0 0 0 0 0 0 0 0 0 0 0 0 0 0 0 0 0 0 0 0 0 0 0 0 0 0 0 0 0 0 0 0 0 0 0 0 0 0 0 0 0 0 5291 5291 5291 5291 5210 5210 5291 5291 5291 5291 5374 0 2701 2701 2680 2659 2639 2639 2618 2618 2618 2618 2618 2618 2618 2618 2618 2618 2618 2618 2618 2618 2618 2639 2639 2639 2639 2639 2639 2639 2618 2618 2618 2618 2639 2639 2659 2680 2680 2680 2680 2680 2680 2680 2701 2701 2701 2701 2701 2701 2701 2701 2701 2701 2701 2701 2701 2723 2744 2744 2767 2789 2789 2789 2958 3010 3010 3010 2883 2859 2835 2835 2835 2812 2812 2789 2789 2789 2789 2789 2789 2789 2789 2789 2789 2789 2789 2789 2789 2767 2767 2767 2767 2767 2767 2789 2789 2789 2789 2789 2789 2812 2812 2812 2835 2835 2835 2835 2835 2835 2835 2835 2835 2835 2078 2078 2090 2090 2090 2090 2090 2103 2103 2103 2116 2116 2116 2116 2116 2116 2129 2958 2958 2958 2958 2933 2933 2933 2933 2933 2933 2933 2908 2908 2933 2933 2933 2933 2933 2933 2933 2933 2933 2933 2933 2933 2933 2958 2958 2958 2958 2958 2958 2958 2958 2958 2958 2958 2958 2984 2984 3010 3010 3037 3037 3010 3010 3010 3037 3037 3037 3064 3064 2212 2212 2212 2212 2212 2226 2226 2226 2226 2226 2241 2241 2241 2256 0 0 0 0 0 0 0 0 0 0 0 5640 5460 5460 5460 5460 5374 5374 5460 5460 5460 5460 5460 5374 5374 5374 5291 5291 5291 5291 5291 5291 5210 5210 5210 5210 5210 5210 5210 5210 5210 5210 5210 5210 5210 5210 5210 5210 5132 5056 5056 5056 5056 2365 2365 2365 2365 2365 2365 2365 2365 2365 2365 2365 2349 2349 2349 0 0 0 0 0 0 0 0 0 0 0 0 0 0 0 0 0 0 0 0 0 0 0 0 2415 2415 2415 2415 2415 2415 2415 2415 2432 0 0 0 0 0 0 0 0 0 0 2467 2467 2450 2450 2467 2467 2467 2467 2467 2467 2467 2485 2485 2485 0 0 0 0 0 0 0 0 0 0 0 0 0 0 0 0 0 0 0 0 0 0 0 0 0 0 0 0 0 0 0 0 0 0 0 0 0 0 0 0 4139 4139 4139 4139 4139 4241 4241 4241 4241 4241 4190 4139 4089 4089 4089 4089 4089 4089 4041 4041 4089 4041 4041 4041 4041 4089 4089 4089 5460 5460 5460 5460 5460 5460 5460 5460 5460 5548 4295 4295 4295 4295 4295 4295 4295 4295 4295 4241 4241 5548 5548 5640 5548 5548 5548 5548 5548 4041 4041 4041 4041 4041 4041 4041 4089 4089 4089 4089 3269 3269 3269 3300 3300 3300 3300 3300 3300 3300 3300 3300 3300 3300 3333 3333 3333 3333 3333 3333 3333 3300 3300 3300 3300 3300 4089 4089 0 0 0 0 0 0 0 3399 3399 3399 3399 3433 3433 3433 3433 3433 3433 3433 3433 3433 3433 3433 3433 3399 3399 4522 4463 4463 4463 4463 4463 4463 4463 4522 4522 4582 4708 4708 5640 5640 5640 5374 5132 4983 4911 4911 4842 4708 4582 4582 4405 4349 4241 4241 4190 4190 4241 4241 0 0 0 0 0 0 4983 4774 4774 4911 4911 4911 4842 4842 4983 4241 4190 4190 4139 4139 4139 4139 4139 4190 4241 4295 4582 4645 4645 4708 4774 4911 4911 5056 5132 5132 5132 5056 4983 4983 5291 5374 4089 4089 4089 4089 0 0 0 0 0 0 0 0 0 0 0 0
0 0 0 0 0 0 0 0 0 0 0 0 0 0 0 0 0 0 0 0 0 0 0 0 0 0 0 0 0 0 0 0 0 0 0 0 0 0 0 0 0 0 0 0 0 0 0 0 0 0 0 0 0 0 0 0 0 5210 5210 5291 5291 5291 5291 5291 5374 5374 5374 5374 5374 5374 2680 2680 2639 2639 2618 2618 2618 2618 2618 2618 2618 2618 2618 2618 2618 2618 2618 2618 2618 2618 2618 2618 2618 2618 2618 2618 2618 2618 2618 2618 2618 2639 2639 2659 2659 2680 2680 2680 2680 2680 2680 2680 2680 2701 2701 2701 2701 2701 2701 2701 2701 2701 2701 2701 2723 2744 2744 2767 2789 2812 2812 2958 2984 3010 2984 2933 2883 2859 2835 2835 2812 2812 2812 2789 2789 2789 2789 2789 2789 2789 2789 2789 2789 2789 2789 2789 2767 2767 2767 2767 2767 2767 2789 2789 2789 2789 2812 2812 2812 2812 2812 2835 2835 2835 2835 2835 2835 2835 2835 2835 2835 2078 2078 2090 2090 2090 2090 2090 2103 2103 2116 2116 2116 2116 2103 2103 2116 2958 2958 2958 2958 2958 2958 2933 2933 2933 2933 2933 2933 2933 2933 2933 2933 2933 2933 2933 2933 2933 2933 2958 2933 2933 2933 2933 2958 2958 2958 2958 2958 2958 2958 2958 2958 2958 2958 2984 2984 3010 3010 3010 3037 3037 3010 3010 3037 3037 3037 3064 3092 3120 2212 2212 2212 2212 2226 2226 2226 2226 2226 2241 2241 2241 2241 2256 2256 0 0 0 0 0 0 0 0 0 0 5640 5548 5460 5460 5460 5460 5460 5460 5460 5548 5460 5460 5374 5374 5374 5374 5291 5291 5291 5291 5291 5210 5210 5210 5210 5210 5210 5210 5210 5210 5210 5210 5210 5210 5210 5210 5210 5210 5132 5132 5132 2381 2365 2365 2365 2365 2365 2365 2365 2365 2365 2365 2365 2349 2349 2365 0 0 0 0 0 0 0 0 0 0 0 0 0 0 0 0 0 0 0 0 0 0 2415 2415 2415 2415 2398 2398 2415 2398 2398 2398 2432 2432 2432 0 0 0 0 0 0 0 2467 2467 2467 2467 2467 2467 2467 2467 2467 2467 2467 2467 2485 2485 2485 2485 0 0 0 0 0 0 0 0 0 0 0 0 0 0 0 0 0 0 0 0 0 0 0 0 0 0 0 0 0 0 0 0 0 0 0 0 0 0 0 0 4190 4139 4139 4139 4241 4241 4241 4241 4241 4190 4139 4089 4089 4089 4041 4041 4089 4041 4041 4089 4089 4089 4089 4089 4089 4089 4089 4089 5460 5460 5460 5460 5460 5460 5460 5460 4295 4295 4295 4295 4295 4295 4295 4295 4295 4295 4295 5640 5548 5548 5548 5548 5548 5548 5548 5548 5548 4041 4041 4041 4041 4041 4041 4089 4089 4089 4089 3269 3269 3300 3300 3300 3300 3300 3300 3300 3300 3300 3300 3333 3333 3333 3333 3333 3333 3333 3333 3333 3300 3300 3300 4089 4089 4089 4089 0 0 0 0 0 0 0 0 3433 3433 3433 3433 3433 3433 3433 3433 3433 3433 3433 3433 3433 3433 3433 3399 3399 4522 4463 4463 4463 4463 4463 4463 4522 4522 4582 4582 4708 4708 5640 5640 5640 5640 5056 4983 4911 4911 4842 4708 4582 4522 4405 4295 4241 4241 4190 4190 4241 0 0 0 4645 0 0 0 4774 4774 4774 4842 4842 4842 4774 4774 4774 4241 4241 4190 4190 4139 4139 4139 4190 4190 4241 4295 4645 4708 4708 4708 4842 4983 4983 5132 5132 5132 5132 5056 4983 4983 5291 5291 4089 4089 4089 4089 0 0 0 0 0 0 0 0 0 0 0 0
