0 0 0 0 0 0 0 0 0 0 0 0 0 0 0 0 0 0 0 0 0 0 0 0 0 0 0 0 0 0 0 0 0 2301 2301 2301 2301 2286 2286 2286 2286 2301 2301 2301 2301 2301 2301 2301 2301 2301 2301 2301 2317 2317 2301 2301 2301 2301 2301 2301 2301 2301 2301 2301 2301 2301 2317 2317 2317 2301 2301 2317 2317 2317 2317 2317 2317 2301 2301 2286 2286 2286 2286 2286 2301 2301 2301 2301 2317 2317 2317 2317 2317 2317 2301 2301 2317 2301 2301 2301 2301 2301 2301 2301 2301 2301 2301 2301 2317 2317 1647 1647 1647 1647 1655 1655 1655 1647 1647 1594 1586 1586 1579 1572 1572 1572 1572 1579 1579 1579 1579 1579 1586 1586 1586 1586 1594 1586 1586 1586 1586 1586 1586 1586 1586 1586 1586 1586 1586 1586 1586 1586 1586 1586 1586 1586 1586 1579 1572 1572 1572 1572 1572 1572 1579 1579 1579 1579 1579 1572 1572 1564 1564 1564 1564 1564 1564 1564 1564 1564 1564 1564 1564 1564 1564 1557 1557 1557 1557 1557 1557 1557 1557 1557 1557 1557 1557 1557 1557 1557 1557 1557 1557 1557 1557 1557 1557 1557 1557 1557 1557 1550 1550 1550 1550 1543 1543 1536 1529 1529 1529 1529 1529 1529 1529 1529 1536 1543 1550 1557 1572 1572 1579 1586 1601 1609 1616 1624 2317 2333 2349 2333 2333 2333 2349 2349 2349 2349 2349 2349 2349 2349 2349 2349 2349 2349 2349 2349 2349 2349 2349 2349 2349 2365 1936 1936 1936 1936 1936 1936 1415 1415 1415 1415 1421 1421 1421 1421 1415 1415 1421 1421 1421 1427 1433 1439 1445 1452 1452 1464 1470 1470 1470 1464 1464 1464 1464 1464 1464 1464 1464 1464 1464 1470 1470 1470 1470 1464 1464 1464 1464 1464 1464 1464 1464 1464 1464 1464 1464 1464 1464 1464 1464 1464 1464 1464 1464 1464 1464 1464 1458 1458 1458 1458 1458 1458 1458 1458 1458 1458 1458 1458 1458 1458 1458 1464 1464 1464 1464 1464 1464 1464 1458 1458 1458 1458 1458 1458 1458 1458 1458 1458 1458 1464 1464 1464 1464 1464 1464 1458 1458 1458 1458 1458 1458 1458 1458 1458 1458 1458 1458 1464 1483 1354 1354 1354 1354 1354 1354 1354 1354 1354 1349 1349 1349 1349 1458 1458 1458 1458 1458 1464 1470 1477 1477 1483 1489 1766 1766 1776 1776 1776 1776 2333 2333 2333 2333 2333 2333 2333 2333 2333 2333 2333 2333 2317 2317 2317 2317 2317 2317 2333 2333 1863 1863 1863 1863 1863 1863 1863 1863 1863 1863 1863 1863 1853 1853 1833 1833 2333 2333 2333 2333 2333 2333 2317 2212 2198 2184 2184 2184 2184 2184 2170 2170 2170 2170 2170 2170 2198 2198 0 0 1410 1410 1410 1415 1421 1421 1427 1427 1427 1427 1427 1427 1427 1427 1427 1427 1427 1427 1427 1427 1427 1427 1427 1427 1427 1427 1427 1433 1433 1427 1427 1427 1433 1433 2286 2301 2301 2301 2301 2301 2301 2301 2301 2301 2317 2317 2301 2301 2301 2301 2301 2301 2286 2286 2301 2301 2301 2301 2301 2301 2301 2301 2301 2301 2301 2301 2301 2301 2301 2301 2301 2301 2301 2301 2301 2301 2301 2301 2301 2301 2301 2301 2301 2301 2286 2286 2286 2286 2286 2286 2286 2301 2301 2301 2301 2301 2301 2301 2301 2301 2301 2301 2301 2301 2301 2301 2301 2301 2301 2301 2301 2271 2271 2271 2256 2256 2256 2271 2271 2271 2271 2271 2271 2271 2271 2271 2256 2256 2271 2271 2271 2271 2271 2271 2271 2256 2241 2241 2241 2241 2241 2256 2256 2256 2256 2256 2256 2256 2256 2256 2256 2256 2256 2256 2256 2256 2256 2256 0 0 0 0 0 0 0 0 0
0 0 0 0 0 0 0 0 0 0 0 0 0 0 0 0 0 0 0 0 0 0 0 0 0 0 0 0 0 0 0 0 0 2286 2286 2286 2286 2286 2286 2286 2286 2286 2286 2286 2286 2286 2286 2286 2286 2286 2301 2301 2301 2301 2286 2286 2286 2301 2286 2286 2286 2286 2286 2301 2301 2301 2301 2301 2317 2301 2301 2301 2317 2317 2317 2317 2317 2301 2301 2286 2286 2286 2286 2286 2286 2301 2301 2301 2301 2301 2317 2317 2317 2286 2286 2301 2301 2286 2286 2286 2301 2301 2301 2301 2301 2301 2301 2301 2301 2301 1655 1647 1647 1655 1655 1655 1655 1647 1647 1594 1586 1586 1579 1579 1572 1572 1572 1579 1579 1579 1579 1586 1586 1586 1594 1594 1594 1594 1586 1586 1586 1586 1586 1586 1586 1586 1586 1586 1586 1586 1586 1586 1586 1586 1586 1586 1586 1579 1572 1572 1572 1572 1572 1572 1579 1579 1579 1579 1579 1579 1572 1572 1564 1564 1564 1564 1564 1564 1564 1564 1564 1564 1564 1564 1564 1564 1557 1557 1557 1557 1557 1557 1557 1557 1557 1557 1557 1557 1557 1557 1557 1557 1557 1557 1557 1564 1557 1557 1557 1557 1557 1550 1550 1550 1550 1543 1543 1536 1536 1529 1529 1529 1529 1529 1529 1529 1536 1543 1550 1557 1564 1572 1579 1586 1601 1609 2317 2317 2317 2317 2333 2317 2317 2333 2333 2333 2333 2333 2333 2333 2333 2333 2333 2333 2333 2333 2333 2333 2333 2333 2333 2333 2349 2349 1936 1936 1936 1936 1936 1947 1947 1415 1415 1421 1421 1421 1421 1421 1421 1421 1421 1421 1427 1427 1433 1439 1445 1452 1452 1452 1458 1458 1452 1452 1452 1452 1452 1452 1452 1452 1452 1458 1458 1458 1464 1464 1464 1458 1458 1458 1458 1452 1452 1452 1452 1452 1458 1458 1458 1464 1458 1458 1458 1458 1458 1458 1458 1458 1458 1458 1458 1458 1458 1458 1458 1452 1452 1452 1452 1452 1452 1452 1452 1452 1458 1458 1458 1458 1458 1458 1458 1458 1458 1458 1458 1452 1452 1452 1458 1458 1452 1452 1458 1458 1458 1458 1458 1458 1458 1458 1458 1458 1458 1458 1458 1458 1452 1452 1452 1452 1452 1458 1458 1338 1338 1354 1354 1354 1354 1354 1354 1354 1354 1354 1354 1354 1458 1452 1452 1452 1458 1458 1464 1470 1477 1477 1483 1766 1766 1776 1776 1776 1785 2317 2317 2333 2333 2333 2333 2333 2333 2333 2333 2333 2333 2317 2317 2317 2317 2317 2317 2317 2317 1863 1863 1863 1863 1863 1863 1863 1863 1863 1863 1863 1863 1863 1853 1833 1833 2317 2317 2317 2333 2317 2317 2317 2212 2198 2184 2184 2184 2184 2184 2170 2170 2170 2170 2170 2170 2184 2184 0 0 1410 1410 1410 1415 1421 1427 1427 1427 1427 1427 1433 1427 1427 1433 1433 1427 1427 1427 1427 1427 1427 1427 1427 1427 1427 1427 1427 1433 1433 1427 1427 1427 1427 1439 2286 2286 2286 2301 2301 2301 2301 2301 2301 2301 2301 2301 2286 2286 2286 2286 2271 2271 2286 2286 2286 2286 2286 2301 2286 2286 2286 2301 2301 2301 2301 2301 2301 2301 2301 2286 2286 2301 2301 2301 2301 2301 2301 2301 2301 2301 2286 2286 2286 2286 2271 2271 2271 2271 2271 2286 2286 2286 2301 2286 2286 2286 2301 2301 2301 2286 2286 2286 2286 2286 2286 2286 2286 2286 2301 2301 2286 2271 2256 2256 2241 2241 2256 2256 2256 2271 2271 2256 2256 2271 2256 2256 2241 2241 2256 2256 2256 2256 2256 2256 2256 2256 2241 2241 2241 2241 2241 2241 2241 2241 2241 2241 2241 2256 2256 2241 2241 2241 2241 2241 2241 2241 2241 2241 0 0 0 0 0 0 0 0 0
0 0 0 0 0 0 0 0 0 0 0 0 0 0 0 0 0 0 0 0 0 0 0 0 0 0 0 0 0 0 0 0 0 2286 2286 2286 2286 2286 2286 2286 2286 2286 2286 2286 2286 2286 2286 2286 2286 2286 2286 2286 2286 2286 2286 2286 2286 2286 2286 2286 2286 2286 2286 2286 2286 2301 2301 2301 2301 2286 2286 2301 2301 2301 2301 2301 2301 2301 2286 2286 2286 2271 2271 2271 2271 2271 2286 2286 2286 2301 2301 2301 2317 2286 2286 2286 2286 2271 2271 2286 2286 2286 2286 2286 2286 2286 2286 2286 2271 2271 1655 1655 1655 1655 1655 1655 1655 1647 1647 1647 1594 1586 1586 1579 1579 1579 1579 1586 1586 1586 1586 1586 1586 1586 1594 1594 1594 1594 1594 1586 1586 1586 1586 1586 1586 1586 1586 1586 1586 1586 1586 1586 1586 1586 1586 1586 1586 1586 1572 1572 1572 1572 1572 1572 1579 1579 1579 1579 1579 1579 1572 1572 1572 1564 1564 1564 1564 1564 1564 1564 1564 1564 1564 1564 1564 1564 1557 1557 1557 1557 1557 1557 1557 1557 1557 1557 1557 1557 1557 1557 1557 1557 1557 1557 1557 1564 1557 1557 1557 1557 1557 1557 1550 1550 1550 1550 1543 1536 1536 1529 1529 1529 1529 1529 1529 1529 1536 1543 1550 1557 1564 1572 1572 1579 1586 1586 2301 2301 2317 2317 2317 2317 2317 2317 2317 2317 2333 2333 2317 2317 2317 2317 2317 2317 2317 2317 2317 2317 2317 2333 2333 2333 2333 2333 2349 2349 1959 1947 1947 1947 1947 1421 1421 1421 1421 1421 1421 1421 1421 1421 1421 1421 1427 1433 1433 1439 1445 1445 1445 1452 1445 1445 1445 1445 1445 1445 1445 1445 1445 1445 1445 1452 1452 1452 1458 1458 1458 1452 1452 1452 1452 1445 1445 1445 1445 1452 1452 1452 1452 1452 1452 1452 1452 1452 1452 1452 1445 1445 1445 1452 1452 1445 1439 1439 1445 1445 1445 1445 1445 1445 1445 1445 1445 1445 1452 1452 1452 1452 1452 1452 1452 1452 1452 1452 1452 1445 1445 1445 1452 1445 1445 1445 1445 1452 1452 1452 1452 1452 1458 1458 1458 1452 1452 1452 1452 1452 1445 1445 1452 1452 1452 1452 1458 1338 1338 1359 1354 1354 1359 1359 1359 1354 1354 1354 1354 1354 1359 1445 1445 1445 1452 1452 1458 1464 1470 1477 1483 1766 1776 1776 1776 1776 1794 2317 2317 2333 2333 2333 2333 2333 2333 2333 2333 2333 2317 2317 2317 2317 2317 2317 2317 2317 2317 1873 1873 1873 1863 1863 1863 1863 1873 1873 1873 1873 1863 1863 1853 1853 1863 2301 2301 2317 2317 2317 2317 2317 2212 2198 2184 2184 2184 2184 2184 2184 2170 2170 2170 2170 2184 2184 2184 0 1398 1415 1415 1415 1415 1421 1427 1427 1427 1427 1427 1433 1427 1427 1433 1433 1427 1427 1427 1427 1427 1427 1427 1427 1427 1427 1427 1427 1433 1433 1427 1427 1433 1439 1439 2286 2286 2271 2271 2286 2286 2286 2301 2301 2301 2301 2301 2286 2286 2286 2286 2271 2271 2271 2271 2271 2286 2286 2286 2271 2271 2271 2286 2286 2286 2286 2286 2286 2301 2286 2286 2286 2286 2286 2286 2286 2286 2286 2286 2286 2286 2271 2271 2271 2271 2271 2271 2271 2271 2271 2271 2271 2271 2286 2271 2271 2286 2286 2286 2286 2286 2286 2286 2286 2286 2271 2271 2271 2271 2271 2271 2256 2241 2241 2241 2241 2241 2241 2241 2256 2256 2256 2256 2256 2256 2256 2241 2241 2241 2241 2241 2241 2241 2241 2241 2241 2241 2241 2241 2241 2241 2241 2241 2241 2241 2241 2241 2241 2241 2241 2241 2241 2241 2241 2241 2241 2241 2226 2226 0 0 0 0 0 0 0 0 0
0 0 0 0 0 0 0 0 0 0 0 0 0 0 0 0 0 0 0 0 0 0 0 0 0 0 0 0 0 0 0 0 0 2286 2286 2286 2286 2286 2286 2271 2271 2286 2286 2286 2286 2286 2286 2286 2286 2286 2286 2286 2286 2286 2286 2286 2286 2286 2286 2286 2286 2286 2286 2286 2286 2286 2286 2286 2286 2271 2271 2286 2286 2286 2286 2286 2286 2286 2271 2271 2271 2271 2271 2271 2271 2271 2271 2286 2286 2286 2301 2301 2301 2271 2271 2271 2271 2271 2271 2271 2271 2271 2286 2286 2286 2286 2286 2286 2271 2271 2271 1655 1655 1655 1655 1655 1655 1655 1647 1647 1594 1594 1586 1579 1579 1579 1579 1586 1586 1586 1586 1586 1586 1594 1594 1594 1594 1594 1594 1586 1586 1586 1586 1586 1586 1586 1586 1586 1586 1586 1594 1594 1586 1586 1586 1586 1586 1586 1572 1572 1572 1572 1572 1579 1579 1579 1579 1579 1579 1579 1572 1572 1572 1564 1564 1564 1564 1564 1564 1564 1564 1564 1564 1564 1564 1564 1564 1557 1557 1557 1557 1557 1557 1557 1557 1557 1557 1557 1557 1557 1557 1557 1557 1564 1564 1564 1564 1557 1557 1557 1557 1557 1550 1550 1550 1550 1543 1543 1536 1529 1529 1529 1529 1529 1529 1536 1536 1543 1550 1550 1557 1564 1572 1579 1586 1586 2301 2301 2301 2317 2317 2301 2301 2301 2317 2317 2317 2317 2317 2317 2317 2317 2317 2317 2317 2301 2301 2317 2317 2317 2317 2317 2317 2333 2333 1959 1959 1959 1947 1947 1947 1421 1421 1421 1421 1421 1421 1421 1421 1421 1421 1421 1427 1433 1433 1439 1445 1445 1445 1445 1445 1445 1445 1445 1445 1445 1445 1445 1445 1445 1445 1445 1445 1445 1445 1445 1445 1439 1439 1445 1445 1445 1445 1445 1445 1445 1445 1445 1445 1445 1445 1445 1445 1445 1445 1445 1445 1445 1445 1445 1445 1433 1433 1433 1439 1439 1439 1439 1439 1439 1439 1439 1439 1439 1439 1439 1439 1439 1439 1439 1439 1439 1439 1439 1439 1439 1439 1439 1439 1439 1439 1439 1439 1439 1439 1439 1445 1445 1445 1452 1452 1445 1445 1445 1445 1445 1439 1439 1445 1445 1445 1445 1452 1338 1338 1343 1359 1359 1359 1359 1359 1359 1359 1359 1359 1359 1359 1445 1445 1445 1445 1445 1445 1452 1464 1776 1766 1766 1776 1776 1776 1776 1794 2333 2333 2317 2317 2333 2317 2317 2317 2317 2317 2317 2317 2317 2317 2317 2317 2317 2317 2317 2317 1873 1873 1873 1863 1863 1863 1863 1873 1873 1873 1873 1863 1863 1863 1863 1863 2301 2301 2301 2317 2317 2317 2301 2212 2198 2184 2184 2184 2184 2184 2184 2184 2184 2184 2184 2184 2198 2198 2226 0 1398 1398 1415 1421 1427 1427 1427 1427 1433 1433 1433 1433 1433 1433 1433 1433 1433 1427 1427 1427 1433 1433 1433 1433 1433 1433 1433 1433 1433 1427 1427 1433 1439 1439 2241 2256 2256 2256 2271 2271 2271 2286 2286 2301 2286 2286 2271 2271 2271 2271 2271 2271 2271 2271 2271 2271 2271 2271 2271 2271 2271 2271 2271 2271 2271 2271 2271 2271 2271 2271 2271 2271 2271 2271 2271 2271 2286 2286 2286 2286 2271 2256 2256 2256 2256 2256 2256 2256 2256 2271 2271 2271 2271 2271 2271 2271 2271 2271 2271 2271 2271 2271 2271 2271 2256 2256 2256 2256 2256 2271 2256 2241 2241 2241 2241 2241 2241 2241 2241 2241 2241 2241 2241 2241 2241 2241 2241 2226 2226 2241 2241 2241 2241 2241 2241 2241 2226 2226 2226 2226 2226 2226 2226 2226 2226 2241 2241 2241 2241 2241 2241 2226 2226 2226 2226 2226 2212 2212 0 0 0 0 0 0 0 0 0
0 0 0 0 0 0 0 0 0 0 0 0 0 0 0 0 0 0 0 0 0 0 0 0 0 0 0 0 0 0 0 0 0 2271 2271 2271 2271 2271 2271 2271 2271 2271 2286 2286 2271 2271 2271 2271 2286 2286 2286 2286 2286 2271 2271 2271 2271 2271 2271 2271 2286 2286 2286 2286 2271 2271 2286 2271 2271 2271 2271 2271 2271 2271 2271 2271 2271 2271 2271 2271 2271 2256 2256 2271 2271 2271 2271 2271 2286 2286 2286 2286 2286 2271 2271 2271 2271 2271 2271 2271 2271 2271 2286 2286 2286 2286 2286 2286 2286 2286 2286 1655 1655 1655 1655 1655 1655 1655 1647 1647 1639 1594 1586 1586 1586 1586 1586 1586 1586 1586 1586 1586 1586 1594 1594 1594 1601 1601 1601 1594 1586 1586 1586 1586 1586 1586 1586 1586 1594 1594 1594 1594 1586 1586 1586 1586 1586 1586 1572 1572 1579 1579 1579 1579 1579 1579 1579 1579 1579 1579 1579 1572 1572 1564 1564 1564 1564 1564 1564 1564 1564 1564 1572 1572 1564 1564 1564 1564 1564 1557 1557 1557 1557 1557 1557 1557 1557 1557 1557 1557 1557 1557 1557 1564 1564 1564 1564 1564 1557 1557 1557 1557 1557 1550 1550 1550 1543 1543 1536 1536 1536 1529 1529 1529 1529 1536 1543 1543 1550 1550 1550 1557 1572 1579 2317 2317 2301 2301 2301 2317 2317 2301 2301 2301 2301 2301 2317 2317 2301 2301 2301 2301 2301 2301 2301 2301 2301 2301 2301 2301 2301 2301 2301 2317 1970 1959 1959 1947 1947 1936 1936 1427 1427 1421 1421 1421 1421 1421 1421 1427 1427 1427 1427 1433 1433 1439 1439 1439 1445 1445 1439 1439 1439 1439 1439 1439 1439 1439 1439 1439 1439 1439 1439 1439 1439 1439 1439 1433 1433 1439 1439 1439 1439 1439 1439 1439 1439 1439 1439 1439 1445 1445 1439 1439 1439 1439 1439 1439 1439 1439 1439 1433 1433 1427 1427 1433 1433 1433 1433 1433 1439 1439 1439 1439 1439 1439 1433 1433 1433 1433 1433 1433 1433 1433 1439 1439 1433 1433 1433 1433 1433 1433 1433 1433 1433 1433 1439 1439 1439 1439 1439 1439 1439 1439 1433 1433 1433 1433 1433 1439 1433 1433 1427 1338 1338 1343 1359 1359 1359 1365 1359 1359 1359 1365 1365 1365 1365 1433 1439 1439 1439 1445 1445 1445 1458 1776 1776 1776 1776 1776 1776 1785 1794 1804 2301 2317 2317 2317 2317 2317 2317 2317 2317 2317 2317 2317 2317 2317 2317 2301 2301 2317 2317 1873 1873 1873 1873 1873 1873 1873 1873 1873 1873 1873 1873 1863 1863 1863 1863 2286 2301 2301 2301 2301 2301 2271 2226 2198 2184 2184 2184 2184 2184 2184 2184 2184 2184 2184 2198 2198 2226 2226 1398 1398 1398 1415 1421 1427 1427 1433 1433 1433 1433 1433 1433 1433 1433 1433 1433 1433 1433 1427 1427 1433 1433 1433 1433 1433 1433 1433 1433 1433 1427 1427 1433 1439 1439 2241 2241 2241 2256 2256 2271 2271 2286 2286 2286 2286 2271 2256 2256 2256 2256 2256 2256 2271 2271 2271 2271 2271 2271 2256 2256 2256 2271 2256 2256 2271 2271 2271 2271 2271 2271 2271 2271 2271 2271 2271 2271 2271 2271 2271 2271 2256 2256 2256 2256 2256 2256 2256 2256 2256 2256 2271 2271 2256 2256 2256 2271 2256 2256 2271 2271 2271 2256 2256 2256 2256 2256 2256 2256 2256 2256 2256 2241 2241 2241 2226 2226 2226 2241 2241 2241 2241 2241 2241 2241 2241 2241 2226 2226 2226 2241 2241 2241 2226 2226 2226 2226 2226 2226 2226 2226 2226 2226 2226 2226 2226 2226 2226 2241 2241 2226 2226 2226 2226 2212 2212 2226 2212 2212 0 0 0 0 0 0 0 0 0
0 0 0 0 0 0 0 0 0 0 0 0 0 0 0 0 0 0 0 0 0 0 0 0 0 0 0 0 0 0 0 0 0 2271 2271 2271 2271 2271 2271 2271 2271 2271 2271 2271 2271 2271 2271 2271 2271 2271 2271 2271 2271 2271 2271 2271 2271 2271 2271 2271 2271 2271 2271 2271 2271 2271 2271 2271 2271 2256 2256 2256 2256 2271 2271 2271 2271 2271 2256 2256 2256 2256 2256 2256 2271 2271 2271 2271 2271 2271 2271 2271 2271 2271 2271 2256 2256 2271 2271 2271 2271 2271 2271 2286 2286 2286 2286 2286 2271 2271 2271 1655 1655 1655 1655 1655 1655 1655 1655 1647 1639 1594 1594 1586 1586 1586 1586 1586 1586 1586 1586 1586 1586 1594 1594 1601 1601 1601 1601 1594 1586 1586 1586 1586 1586 1586 1586 1586 1594 1594 1594 1594 1586 1586 1586 1586 1586 1579 1572 1572 1579 1579 1579 1579 1579 2256 2271 1579 1579 1579 1579 1579 1572 1572 1572 1572 1572 1572 1572 1572 1564 1564 1572 1564 1564 1564 1564 1564 1564 1564 1557 1557 1557 1557 1557 1557 1557 1557 1557 1557 1557 1564 1564 1564 1564 1564 1564 1564 1557 1557 1557 1557 1550 1550 1550 1550 1550 1550 1543 1536 1536 1536 1536 1536 1536 1536 1543 1543 1550 1550 1550 1557 1564 1572 2317 2317 2301 2301 2301 2301 2301 2301 2301 2301 2301 2301 2301 2301 2301 2301 2301 2301 2301 2301 2301 2301 2301 2301 2301 2301 2301 2301 2301 2301 1970 1959 1959 1947 1936 1936 1936 1936 1433 1433 1427 1427 1427 1427 1427 1427 1427 1427 1427 1433 1433 1433 1439 1439 1439 1439 1439 1439 1439 1439 1439 1439 1439 1439 1439 1439 1433 1433 1439 1439 1439 1433 1433 1433 1433 1439 1439 1439 1439 1439 1439 1439 1439 1439 1439 1439 1439 1439 1439 1439 1439 1439 1439 1439 1439 1439 1433 1427 1427 1427 1427 1427 1427 1427 1433 1433 1433 1433 1433 1433 1433 1433 1433 1433 1433 1433 1433 1433 1433 1433 1433 1433 1433 1433 1433 1433 1433 1433 1433 1433 1433 1433 1433 1433 1439 1433 1433 1433 1433 1433 1433 1433 1433 1433 1433 1433 1433 1433 1427 1427 1349 1349 1365 1365 1365 1365 1365 1365 1365 1365 1365 1370 1370 1410 1433 1433 1439 1439 1439 1445 1458 1776 1776 1776 1776 1785 1785 1785 1794 1804 2301 2301 2301 2301 2301 2301 2301 2301 2301 2301 2301 2301 2301 2301 2301 2301 2301 2301 2301 1873 1873 1873 1873 1873 1873 1873 1873 1873 1873 1873 1873 1863 1863 1863 2286 2286 2286 2286 2286 2286 2286 2256 2226 2198 2198 2184 2184 2184 2184 2184 2184 2184 2184 2198 2198 2212 2226 2226 2226 1410 1410 1410 1421 1427 1433 1433 1433 1433 1433 1433 1433 1433 1433 1433 1433 1433 1433 1433 1433 1433 1433 1433 1433 1433 1433 1433 1433 1433 1433 1433 1439 1445 1452 1452 2241 2241 2256 2256 2271 2271 2286 2286 2271 2271 2256 2256 2256 2256 2256 2256 2256 2256 2256 2256 2256 2256 2256 2256 2256 2256 2256 2256 2256 2256 2256 2256 2256 2256 2256 2256 2256 2256 2256 2256 2256 2256 2256 2256 2256 2256 2256 2256 2256 2256 2256 2256 2256 2256 2256 2256 2256 2256 2256 2256 2256 2256 2256 2256 2256 2256 2256 2256 2256 2241 2241 2241 2241 2241 2241 2241 2241 2241 2241 2226 2226 2226 2226 2226 2241 2241 2241 2241 2241 2241 2226 2226 2226 2226 2226 2226 2226 2226 2226 2226 2226 2226 2226 2226 2212 2212 2212 2226 2212 2212 2226 2226 2226 2226 2226 2226 2212 2212 2212 2212 2198 2198 2198 0 0 0 0 0 0 0 0 0
0 0 0 0 0 0 0 0 0 0 0 0 0 0 0 0 0 0 0 0 0 0 0 0 0 0 0 0 0 0 0 0 0 2271 2271 2271 2271 2271 2256 2256 2256 2256 2256 2256 2256 2256 2256 2271 2271 2271 2271 2271 2271 2271 2271 2271 2271 2271 2271 2271 2271 2271 2271 2271 2271 2271 2271 2271 2271 2256 2256 2256 2256 2256 2256 2256 2256 2256 2256 2256 2256 2256 2256 2256 2256 2271 2271 2271 2271 2271 2256 2256 2256 2256 2256 2256 2256 2271 2271 2271 2271 2271 2271 2256 2256 2271 2271 2271 2271 2271 2271 1655 1655 1655 1655 1655 1655 1655 1655 1655 1647 1594 1594 1594 1586 1586 1586 1586 1586 1586 1586 1586 1586 1594 1594 1601 1601 1601 1601 1594 1586 1586 1586 1586 1586 1586 1586 1594 1594 2271 2286 2286 2286 2286 2286 2271 2271 1579 1579 2256 2256 2256 2256 2256 2256 2256 2271 2271 2271 1572 1572 1579 1579 1579 1572 1572 1993 1993 1572 1572 1564 1564 1564 1564 1564 1564 1564 1564 1564 1564 1557 1557 1557 1557 1557 1557 1557 1557 1557 1557 1557 1557 1564 1564 1564 1564 1564 1564 1557 1557 1557 1557 1550 1550 1550 1550 1550 1550 1543 1543 1543 1536 1536 1536 1543 1543 1543 1543 1550 1550 1550 1557 1564 1572 2317 2301 2301 2301 2301 2301 2301 2286 2286 2286 2301 2301 2301 2301 2301 2301 2301 2301 2301 2301 2301 2286 2286 2301 2301 2286 2286 2301 2301 2301 1970 1959 1947 1936 1936 1936 1936 1936 1433 1433 1427 1427 1427 1427 1427 1427 1427 1427 1427 1427 1433 1433 1439 1439 1439 1439 1439 1439 1439 1439 1439 1439 1433 1433 1433 1433 1433 1433 1433 1433 1433 1427 1427 1427 1427 1433 1433 1433 1433 1433 1433 1433 1433 1433 1433 1433 1433 1433 1433 1433 1433 1433 1433 1433 1433 1433 1433 1421 1421 1421 1421 1421 1421 1421 1421 1427 1427 1427 1427 1427 1427 1427 1427 1427 1427 1427 1427 1427 1427 1427 1433 1433 1433 1433 1427 1427 1427 1427 1427 1427 1427 1427 1433 1433 1433 1427 1427 1427 1427 1433 1427 1427 1427 1427 1433 1433 1427 1427 1427 1392 1376 1370 1370 1370 1370 1370 1365 1365 1365 1370 1370 1370 1376 1398 1415 1433 1433 1439 1439 1445 1766 1776 1776 1776 1785 1785 1785 1785 1794 1804 2301 2301 2301 2286 2286 2286 2286 2286 2286 2286 2286 2286 2286 2286 2286 2286 2286 2286 2271 2271 1873 1873 1873 1873 1873 1873 1873 1873 1873 1873 1873 1863 1863 1863 2271 2271 2271 2271 2286 2286 2271 2241 2226 2212 2198 2184 2184 2184 2198 2184 2184 2184 2184 2198 2212 2212 2212 2226 2226 1410 1410 1410 1421 1427 1433 1433 1433 1433 1433 1433 1433 1433 1433 1433 1433 1433 1433 1433 1433 1433 1433 1433 1433 1433 1433 1433 1433 1433 1433 1433 1439 1445 1452 1452 2226 2226 2256 2256 2256 2256 2256 2256 2256 2256 2256 2241 2241 2241 2241 2241 2241 2256 2256 2256 2256 2256 2256 2256 2256 2256 2256 2256 2256 2256 2256 2256 2256 2256 2256 2256 2256 2256 2256 2256 2241 2241 2241 2241 2241 2241 2241 2241 2241 2241 2241 2241 2241 2241 2256 2256 2256 2256 2256 2256 2256 2256 2256 2256 2256 2256 2256 2241 2241 2241 2241 2241 2241 2241 2241 2241 2226 2226 2226 2226 2226 2226 2226 2226 2226 2226 2226 2226 2226 2226 2226 2226 2226 2226 2226 2226 2226 2212 2212 2212 2212 2212 2212 2212 2212 2212 2212 2212 2212 2212 2212 2212 2212 2212 2212 2212 2198 2198 2198 2212 2198 2198 2198 0 0 0 0 0 0 0 0 0
0 0 0 0 0 0 0 0 0 0 0 0 0 0 0 0 0 0 0 0 0 0 0 0 0 0 0 0 0 0 0 0 0 2241 2241 2256 2256 2256 2256 2256 2256 2256 2256 2256 2256 2256 2256 2271 2271 2271 2271 2271 2271 2256 2256 2271 2271 2256 2256 2271 2271 2271 2271 2271 2271 2271 2271 2271 2271 2256 2256 2256 2256 2256 2256 2256 2256 2256 2256 2256 2256 2256 2256 2256 2256 2256 2256 2256 2256 2256 2241 2241 2241 2256 2256 2256 2256 2256 2256 2256 2256 2256 2256 2256 2256 2256 2256 2271 2256 2256 2256 1655 1655 1655 1655 1655 1655 1655 1655 1655 1647 1639 1601 1594 1586 1586 1586 1586 1586 1586 1586 1586 1594 1594 1601 1601 1609 1609 1609 1609 1609 2286 2286 1586 1586 1586 1586 2271 2271 2271 2286 2286 2286 2271 2271 2271 2256 2256 2256 2256 2256 2256 2256 2256 2256 2256 2271 2271 2286 1572 1572 1579 1993 1993 1993 1993 1993 1993 2005 2016 2016 2016 1564 1564 1564 1564 1564 1564 1564 1564 1564 1557 1557 1557 1557 1564 1564 2040 2053 2053 1557 1557 1564 1564 1564 1564 1564 1564 1557 1557 1557 1557 1550 1550 1550 1550 1550 1543 1543 1543 1543 1543 1543 1543 1543 1543 1543 1550 1550 1550 1550 1557 1564 1572 2317 2301 2301 2301 2301 2301 2301 2286 2286 2286 2286 2286 2286 2286 2286 2286 2286 2286 2286 2286 2286 2286 2286 2286 2286 2286 2286 2286 2286 2271 1970 1959 1947 1936 1936 1936 1936 1936 1439 1439 1433 1433 1427 1427 1433 1427 1427 1427 1427 1427 1433 1433 1439 1439 1439 1439 1439 1439 1439 1439 1439 1433 1433 1433 1433 1433 1427 1427 1427 1427 1433 1427 1427 1427 1427 1427 1433 1433 1433 1433 1433 1433 1433 1433 1433 1433 1427 1427 1427 1427 1433 1433 1433 1433 1433 1433 1427 1421 1415 1415 1415 1415 1415 1415 1421 1421 1421 1421 1421 1421 1421 1421 1421 1421 1421 1421 1421 1421 1421 1421 1427 1421 1421 1421 1421 1421 1421 1421 1421 1421 1421 1427 1427 1427 1421 1421 1421 1421 1421 1427 1421 1421 1421 1427 1427 1427 1421 1421 1421 1392 1376 1376 1370 1370 1370 1370 1370 1370 1370 1370 1370 1370 1376 1398 1410 1427 1427 1433 1433 1776 1776 1785 1785 1785 1785 1785 1785 1794 1794 2317 2286 2286 2286 2271 2271 2286 2286 2286 2286 2286 2286 2286 2286 2286 2271 2271 2286 2286 2271 2271 2271 1873 1873 1873 1873 1873 1873 1873 1873 1873 1863 1863 1863 1863 1863 2256 2271 2271 2256 2256 2241 2226 2226 2212 2198 2198 2198 2198 2198 2198 2198 2198 2198 2198 2212 2212 2212 2226 2226 2256 1421 1421 1421 1427 1433 1433 1433 1433 1433 1433 1433 1433 1433 1433 1433 1433 1433 1433 1433 1433 1433 1433 1433 1433 1433 1433 1433 1433 1433 1433 1433 1439 1445 1452 2212 2212 2241 2241 2241 2241 2241 2241 2241 2241 2241 2241 2241 2241 2241 2241 2241 2256 2256 2256 2256 2241 2241 2241 2241 2241 2256 2241 2241 2256 2256 2256 2256 2256 2256 2256 2256 2241 2241 2241 2241 2241 2241 2241 2241 2241 2241 2241 2241 2241 2241 2241 2241 2241 2256 2256 2241 2241 2256 2256 2256 2241 2241 2241 2241 2241 2241 2241 2241 2241 2241 2241 2241 2241 2226 2226 2226 2226 2226 2226 2212 2212 2226 2226 2226 2226 2226 2226 2226 2226 2226 2226 2212 2212 2212 2212 2212 2212 2212 2212 2212 2212 2198 2198 2198 2198 2198 2198 2198 2198 2212 2198 2198 2212 2198 2198 2184 2184 2198 2198 2198 2184 2184 0 0 0 0 0 0 0 0 0
0 0 0 0 0 0 0 0 0 0 0 0 0 0 0 0 0 0 0 0 0 0 0 0 0 0 0 0 0 0 0 0 0 2241 2241 2241 2241 2241 2241 2241 2256 2256 2256 2256 2256 2256 2256 2256 2256 2256 2256 2256 2256 2256 2256 2256 2256 2241 2241 2256 2256 2256 2256 2256 2256 2256 2256 2256 2256 2241 2241 2241 2241 2241 2241 2241 2241 2241 2241 2241 2241 2241 2241 2241 2256 2256 2256 2256 2256 2241 2226 2226 2241 2241 2241 2241 2241 2256 2256 2256 2256 2256 2256 2256 2256 2256 2256 2256 2256 2256 2256 1655 1655 1655 1655 1655 1655 1655 1655 1655 1647 1639 1624 1594 1594 1586 1586 1586 1586 1586 1586 1586 1594 1594 1601 1609 1609 1609 1609 1609 2286 2286 2286 2271 2271 2271 2271 2271 2271 2271 2286 2286 2271 2271 2271 2256 2256 2256 2256 2256 2256 2256 2256 2256 2256 2256 2271 2271 2271 1993 1993 1993 1993 1993 1993 1993 1993 1993 2005 2016 2016 2028 1564 1564 1564 1564 1564 1564 1564 1564 1564 1557 1557 1557 1557 2040 2040 2053 2053 2053 2040 2040 1564 1564 1564 1564 1550 1550 1557 1557 1557 1550 1550 1550 1550 1550 1543 1543 1543 1543 1543 1543 1543 1543 1543 1543 1543 1550 1550 1557 1557 1557 1557 1572 2301 2301 2301 2286 2286 2301 2286 2271 2271 2286 2286 2286 2286 2286 2286 2286 2286 2286 2286 2286 2286 2286 2286 2286 2286 2286 2286 2286 2286 2271 2271 2271 1947 1936 1936 1936 1947 1947 1439 1439 1433 1433 1433 1433 1433 1433 1427 1427 1427 1427 1433 1433 1439 1439 1439 1439 1439 1439 1439 1439 1433 1433 1433 1433 1433 1433 1427 1427 1427 1427 1427 1427 1427 1427 1427 1427 1433 1433 1433 1433 1433 1433 1427 1427 1427 1427 1427 1427 1427 1427 1427 1427 1427 1427 1427 1427 1421 1415 1415 1415 1415 1415 1415 1415 1415 1415 1415 1415 1415 1415 1421 1415 1415 1415 1415 1415 1415 1415 1415 1415 1421 1415 1415 1415 1415 1415 1415 1415 1415 1415 1415 1415 1415 1415 1415 1415 1415 1415 1421 1421 1421 1421 1421 1421 1421 1421 1421 1421 1415 1387 1376 1376 1370 1370 1370 1370 1370 1370 1370 1370 1370 1376 1376 1398 1410 1415 1421 1427 1433 1785 1785 1785 1785 1785 1785 1794 1794 1794 1804 2301 2271 2271 2271 2271 2271 2271 2271 2271 2271 2271 2271 2271 2271 2271 2271 2271 2271 2271 2271 2271 2271 1873 1873 1873 1873 1873 1873 1873 1873 1873 1863 1863 1863 1863 1863 2256 2256 2256 2256 2256 2226 2226 2212 2212 2198 2198 2198 2198 2198 2198 2198 2198 2198 2198 2212 2212 2226 2226 2256 2256 1421 1421 1421 1433 1433 1433 1433 1433 1433 1433 1433 1433 1433 1433 1433 1433 1433 1433 1433 1433 1433 1433 1433 1433 1433 1433 1433 1433 1433 1433 1433 1439 1445 1452 2198 2198 2212 2226 2226 2226 2226 2226 2241 2241 2241 2241 2241 2241 2241 2241 2241 2241 2241 2241 2241 2241 2241 2241 2241 2241 2241 2241 2241 2241 2241 2241 2241 2241 2241 2241 2241 2241 2241 2241 2226 2226 2226 2226 2226 2226 2226 2241 2241 2241 2241 2241 2241 2241 2241 2241 2241 2241 2241 2241 2241 2241 2241 2241 2241 2241 2241 2226 2226 2241 2226 2226 2226 2226 2226 2226 2212 2212 2212 2212 2212 2212 2212 2212 2212 2212 2212 2212 2212 2212 2212 2212 2212 2212 2198 2198 2212 2198 2198 2198 2198 2198 2198 2198 2198 2198 2198 2198 2198 2198 2198 2198 2198 2198 2184 2184 2184 2184 2184 2184 2184 2184 2184 0 0 0 0 0 0 0 0 0
0 0 0 0 0 0 0 0 0 0 0 0 0 0 0 0 0 0 0 0 0 0 0 0 0 0 0 0 0 0 0 0 0 2226 2226 2226 2226 2226 2226 2226 2226 2226 2226 2226 2226 2226 2241 2241 2241 2241 2241 2241 2241 2241 2241 2241 2241 2226 2226 2226 2226 2226 2226 2226 2241 2241 2241 2241 2241 2241 2226 2226 2226 2226 2226 2226 2226 2226 2226 2226 2226 2226 2241 2241 2241 2241 2256 2256 2241 2226 2226 2226 2226 2226 2226 2241 2241 2256 2256 2256 2256 2256 2256 2241 2241 2256 2256 2256 2256 2256 2256 1655 1655 1655 1655 1655 1655 1655 1655 1655 1647 1632 1609 1594 1594 1586 1586 1586 1586 1586 1586 1586 1594 1594 1601 1609 1609 1609 1609 1609 2271 2271 2271 2271 2271 2271 2271 2271 2271 2271 2271 2271 2271 2271 2271 2256 2256 2256 2256 2256 2256 2256 2256 2256 2256 2256 2256 2271 2271 1993 1981 1981 1993 1993 1993 1993 1993 1993 2005 2005 2016 2016 2028 1564 1564 1564 1564 1564 1564 2256 2271 2271 2040 2040 2040 2040 2040 2040 2065 2053 2040 2040 2040 2256 2256 2271 1550 1550 1557 1557 1557 1550 1550 1550 1550 1543 1543 1543 1543 1543 1543 1543 1543 1543 1543 1543 1543 1550 1550 1557 1557 1557 1557 1557 2286 2286 2286 2286 2286 2286 2286 2271 2271 2271 2271 2271 2286 2286 2286 2286 2286 2286 2286 2286 2286 2286 2286 2286 2286 2286 2271 2271 2286 2271 2241 2241 1947 1947 1936 1936 1947 1947 1439 1439 1433 1433 1433 1433 1433 1433 1427 1427 1427 1427 1433 1433 1439 1439 1439 1439 1439 1439 1439 1439 1433 1433 1433 1433 1433 1433 1427 1427 1427 1427 1427 1427 1427 1427 1427 1427 1427 1427 1427 1427 1427 1427 1427 1421 1421 1421 1421 1421 1421 1421 1421 1421 1421 1421 1421 1421 1421 1415 1415 1415 1415 1415 1415 1415 1415 1415 1415 1415 1415 1415 1415 1415 1415 1415 1415 1415 1415 1415 1415 1415 1415 1415 1415 1415 1415 1415 1415 1415 1415 1415 1415 1415 1415 1415 1415 1415 1415 1415 1415 1415 1415 1415 1415 1415 1415 1421 1421 1410 1404 1381 1376 1370 1370 1370 1370 1370 1370 1370 1370 1370 1376 1376 1376 1398 1410 1415 1421 1427 1433 1785 1785 1785 1785 1785 1794 1794 1794 1794 1804 2271 2271 2271 2271 2271 2271 2271 2271 2271 2271 2271 2271 2271 2271 2271 2271 2271 2271 2271 2271 2271 2286 1873 1873 1873 1873 1873 1873 1873 1873 1873 1863 1863 1863 1863 1863 2256 2256 2256 2256 2241 2226 2212 2212 2198 2198 2198 2198 2198 2198 2198 2198 2198 2198 2212 2212 2226 2241 2241 2256 2256 2256 2256 1433 1433 1433 1433 1433 1433 1433 1433 1433 1433 1433 1433 1433 1433 1433 1433 1433 1439 1439 1439 1433 1433 1433 1433 1433 1433 1433 1433 1433 1439 1445 1452 2198 2198 2212 2212 2212 2212 2226 2226 2226 2226 2226 2241 2241 2241 2241 2241 2241 2241 2241 2241 2241 2226 2226 2241 2241 2241 2241 2241 2241 2241 2241 2241 2241 2241 2226 2226 2226 2226 2226 2212 2212 2212 2226 2226 2226 2226 2226 2226 2226 2226 2241 2241 2241 2241 2241 2241 2226 2226 2226 2226 2226 2226 2226 2226 2226 2226 2226 2226 2226 2226 2226 2226 2226 2226 2212 2212 2212 2198 2198 2198 2198 2198 2198 2198 2212 2212 2212 2212 2212 2212 2212 2212 2198 2198 2198 2198 2198 2198 2198 2198 2198 2198 2184 2184 2184 2184 2184 2198 2198 2198 2198 2198 2198 2184 2170 2170 2170 2170 2184 2184 2184 2184 2184 0 0 0 0 0 0 0 0 0
0 0 0 0 0 0 0 0 0 0 0 0 0 0 0 0 0 0 0 0 0 0 0 0 0 0 0 0 0 0 0 0 0 2226 2212 2212 2212 2212 2212 2212 2226 2226 2226 2226 2226 2226 2226 2226 2226 2226 2226 2226 2226 2226 2226 2226 2226 2226 2226 2226 2226 2226 2226 2226 2226 2226 2226 2226 2226 2212 2212 2226 2212 2212 2212 2212 2212 2212 2212 2212 2212 2212 2226 2226 2226 2226 2226 2226 2212 2212 2212 2212 2226 2226 2226 2226 2226 2241 2241 2241 2241 2241 2241 2226 2226 2226 2241 2256 2256 2256 2256 1655 1655 1655 1655 1655 1655 1655 1655 1655 1647 1632 1609 1594 1594 1586 1586 1586 1586 1586 1586 1594 1594 1594 1601 1609 1609 1609 1609 1609 2256 2271 2271 2271 2256 2256 2271 2271 2256 2256 2271 2271 2271 2271 2271 2256 2256 2256 2256 2256 2256 2256 2256 2256 2256 2256 2256 2271 2286 2286 1981 1981 1981 1981 1993 1993 1993 1993 2005 2005 2016 2016 2028 2028 2028 1564 1564 1564 1564 2256 2256 2256 2040 2040 2040 2040 2040 2040 2065 2065 2053 2053 2065 2241 2241 2256 2271 2271 2271 2271 2271 2271 1550 1543 1543 1543 1543 1543 1543 1543 1543 1543 1543 1543 1543 1550 1550 1550 1550 1557 1557 1557 1557 1557 2286 2286 2286 2286 2286 2271 2271 2256 2256 2256 2256 2256 2271 2271 2271 2271 2271 2271 2271 2271 2271 2271 2271 2271 2271 2271 2271 2271 2271 2256 2241 2241 1959 1947 1947 1947 1947 1947 1439 1439 1433 1433 1433 1433 1433 1433 1433 1433 1433 1433 1433 1433 1439 1439 1439 1439 1439 1439 1439 1439 1439 1439 1433 1433 1433 1433 1427 1427 1427 1427 1427 1427 1427 1427 1427 1427 1427 1427 1427 1427 1427 1427 1427 1421 1421 1421 1421 1421 1421 1421 1421 1421 1421 1421 1421 1421 1421 1415 1415 1415 1415 1415 1415 1415 1415 1415 1415 1415 1415 1415 1415 1410 1410 1415 1415 1415 1415 1415 1410 1410 1415 1410 1410 1410 1410 1410 1410 1415 1410 1410 1410 1410 1410 1410 1410 1410 1410 1410 1410 1410 1415 1415 1415 1415 1415 1415 1415 1404 1392 1381 1376 1370 1370 1370 1370 1370 1370 1370 1370 1370 1376 1376 1387 1404 1410 1415 1427 1427 1433 1785 1785 1785 1785 1794 1794 1794 1794 1794 1804 2256 2256 2256 2271 2271 2271 2271 2271 2271 2256 2256 2256 2256 2256 2256 2256 2256 2256 2256 2271 2271 2286 1883 1883 1883 1883 1883 1873 1873 1873 1873 1873 1863 1863 1863 2256 2256 2256 2241 2241 2241 2226 2212 2212 2198 2198 2198 2198 2198 2198 2198 2198 2212 2212 2212 2212 2226 2226 2241 2241 2241 2241 2241 2241 1433 1433 1433 1433 1433 1433 1433 1433 1433 1439 1439 1439 1439 1439 1439 1439 1439 1439 1439 1439 1433 1433 1439 1439 1439 1433 1433 1439 1439 1445 1452 2198 2198 2198 2198 2198 2198 2198 2212 2212 2226 2226 2226 2226 2226 2226 2226 2226 2226 2226 2226 2226 2226 2226 2226 2226 2226 2226 2226 2226 2226 2226 2226 2226 2226 2226 2226 2226 2226 2212 2212 2212 2212 2212 2212 2212 2212 2226 2226 2226 2226 2226 2226 2226 2226 2226 2226 2212 2212 2212 2226 2226 2226 2226 2226 2226 2226 2226 2226 2226 2226 2226 2226 2226 2226 2212 2212 2212 2184 2184 2184 2184 2184 2198 2198 2198 2198 2198 2198 2198 2198 2198 2198 2198 2184 2184 2184 2184 2184 2184 2184 2184 2184 2184 2184 2184 2184 2184 2184 2184 2184 2184 2184 2184 2184 2170 2170 2170 2170 2170 2170 2170 2170 2170 0 0 0 0 0 0 0 0 0
0 0 0 0 0 0 0 0 0 0 0 0 0 0 0 0 0 0 0 0 0 0 0 0 0 0 0 0 0 0 0 0 0 2212 2212 2212 2212 2212 2212 2212 2212 2212 2212 2212 2212 2212 2212 2212 2212 2226 2226 2226 2226 2226 2226 2226 2226 2212 2212 2212 2212 2212 2226 2226 2226 2226 2226 2226 2226 2212 2212 2212 2212 2212 2212 2212 2212 2212 2212 2212 2212 2212 2212 2212 2212 2212 2212 2212 2212 2212 2212 2212 2212 2212 2212 2212 2212 2226 2226 2226 2226 2226 2226 2212 2212 2212 2212 2226 2212 2212 2212 1655 1655 1655 1655 1655 1655 1655 1663 1655 1655 1639 1632 1594 1594 1586 1586 1586 1586 1586 1586 1594 1594 1594 1601 1609 1609 1609 1609 1609 2256 2256 2256 2256 2241 2241 2256 2256 2256 2256 2256 2256 2256 2256 2256 2241 2241 2241 2241 2241 2256 2256 2256 2256 2256 2256 2256 2271 2286 2286 1970 1970 1981 1981 1993 1993 1993 1993 2005 2016 2016 2028 2028 2028 2028 2241 1564 1564 1564 2256 2256 2256 2040 2040 2028 2028 2040 2053 2065 2065 2065 2065 2065 2078 2241 2256 2256 2256 2256 2256 2271 2271 2271 1543 1543 1543 1543 1543 1543 1543 1543 1543 1543 1543 1543 1550 1550 1550 1550 1557 1557 1557 1557 1557 2286 2286 2271 2271 2271 2271 2256 2241 2241 2241 2241 2241 2256 2256 2256 2271 2271 2271 2271 2271 2271 2271 2271 2271 2271 2271 2271 2271 2271 2256 2241 2241 1959 1947 1947 1947 1959 1959 1439 1439 1439 1439 1433 1433 1439 1433 1433 1433 1433 1433 1433 1433 1439 1445 1445 1445 1445 1439 1439 1439 1439 1439 1439 1433 1433 1433 1433 1433 1433 1427 1427 1427 1427 1427 1427 1427 1427 1427 1427 1427 1427 1427 1427 1421 1421 1421 1421 1421 1421 1421 1421 1421 1421 1421 1421 1421 1421 1415 1415 1415 1415 1415 1415 1415 1415 1415 1410 1410 1410 1410 1410 1410 1410 1410 1410 1410 1410 1410 1410 1410 1410 1410 1410 1410 1410 1410 1410 1410 1410 1410 1410 1410 1410 1410 1404 1404 1410 1410 1410 1410 1410 1410 1410 1410 1410 1410 1404 1392 1392 1381 1376 1376 1370 1370 1370 1370 1370 1370 1370 1376 1376 1376 1387 1404 1410 1415 1427 1433 1794 1785 1785 1785 1785 1794 1794 1794 1794 1794 1804 2256 2256 2256 2256 2256 2256 2271 2271 2271 2256 2256 2256 2256 2256 2256 2256 2256 2256 2256 2256 2256 2256 1883 1883 1883 1883 1883 1883 1883 1883 1873 1873 1863 1863 1863 2241 2241 2256 2241 2241 2226 2212 2212 2212 2198 2198 2198 2198 2198 2198 2198 2212 2212 2212 2212 2212 2212 2226 2226 2241 2241 2241 2241 2241 1433 1433 1433 1433 1433 1439 1445 1439 1439 1439 1445 1445 1445 1445 1445 1445 1445 1445 1445 1445 1445 1445 1439 1439 1439 1433 1433 2184 2184 2198 2198 2198 2198 2198 2198 2198 2198 2198 2198 2212 2212 2212 2212 2212 2212 2212 2212 2212 2212 2212 2212 2212 2212 2198 2198 2212 2212 2212 2212 2212 2226 2212 2212 2212 2212 2212 2212 2212 2212 2212 2212 2212 2212 2212 2212 2212 2212 2212 2212 2212 2226 2226 2226 2212 2212 2212 2212 2212 2198 2198 2212 2212 2212 2212 2212 2212 2212 2212 2212 2212 2212 2212 2212 2212 2212 2212 2198 2198 2184 2184 2184 2184 2184 2184 2184 2184 2184 2184 2198 2184 2184 2184 2198 2184 2184 2184 2184 2184 2184 2184 2184 2184 2170 2170 2170 2170 2170 2170 2170 2170 2170 2184 2184 2184 2184 2156 2156 2170 2170 2170 2170 2170 2170 2170 0 0 0 0 0 0 0 0 0
0 0 0 0 0 0 0 0 0 0 0 0 0 0 0 0 0 0 0 0 0 0 0 0 0 0 0 0 0 0 0 0 0 2212 2212 2212 2212 2212 2212 2212 2212 2212 2212 2212 2212 2212 2212 2212 2212 2212 2212 2212 2212 2212 2226 2212 2212 2212 2212 2212 2212 2212 2212 2212 2212 2212 2212 2212 2212 2212 2212 2212 2198 2198 2198 2212 2198 2198 2198 2198 2198 2212 2212 2198 2198 2198 2212 2212 2198 2198 2198 2212 2212 2212 2212 2212 2212 2212 2212 2212 2212 2212 2212 2212 2212 2212 2212 2212 2212 2212 2198 1655 1655 1655 1655 1655 1655 1663 1663 1663 1663 1655 1647 1594 1594 1594 1586 1586 1586 1586 1586 1594 1594 1594 1601 1601 1609 1609 1616 1616 2226 2226 2226 2226 2226 2226 2226 2226 2241 2241 2256 2256 2256 2256 2241 2226 2226 2226 2226 2226 2241 2241 2241 2241 2241 2256 2256 2271 2271 1947 1947 1959 1981 1981 1981 1981 1993 1993 2005 2016 2016 2028 2028 2028 2028 2226 2226 2226 2241 2241 2256 2256 2040 2040 2028 2028 2040 2053 2065 2065 2065 2065 2065 2078 2078 2241 2256 2256 2256 2256 2256 2271 2271 1536 1536 1536 1536 1543 1543 1543 1543 1543 1543 1550 1550 1550 1550 1557 1557 1557 1557 1557 1557 1557 2286 2286 2271 2271 2271 2256 2256 2241 2241 2241 2241 2241 2241 2241 2256 2256 2256 2256 2256 2256 2256 2256 2256 2256 2256 2256 2256 2271 2256 2241 2241 2241 1959 1959 1959 1959 1970 1970 1439 1439 1439 1439 1433 1433 1439 1439 1439 1433 1433 1433 1439 1439 1439 1445 1445 1445 1445 1445 1439 1439 1439 1439 1439 1439 1439 1439 1433 1433 1433 1433 1433 1433 1433 1433 1433 1433 1427 1427 1427 1427 1427 1427 1427 1427 1427 1427 1421 1421 1421 1421 1421 1421 1421 1421 1421 1421 1421 1415 1415 1415 1415 1415 1415 1415 1415 1415 1410 1410 1410 1410 1410 1410 1410 1410 1410 1410 1410 1410 1410 1410 1410 1410 1410 1410 1410 1410 1410 1410 1410 1410 1404 1404 1404 1404 1404 1404 1404 1404 1404 1404 1410 1410 1410 1404 1404 1404 1398 1392 1387 1387 1381 1376 1376 1376 1376 1370 1370 1370 1370 1376 1376 1376 1387 1404 1410 1415 1421 1433 1794 1794 1794 1794 1794 1794 1794 1794 1794 1794 1804 2256 2256 2256 2256 2256 2256 2271 2256 2256 2256 2256 2241 2241 2241 2241 2241 2241 2241 2241 2241 2241 2241 1904 1894 1883 1883 1883 1883 1883 1883 1873 1873 1863 1863 1863 2241 2241 2241 2241 2226 2226 2212 2212 2212 2198 2198 2198 2198 2212 2212 2212 2212 2212 2212 2212 2212 2212 2226 2226 2226 2226 2226 2226 2226 1439 1439 1439 1445 1445 1445 1452 1445 1445 1445 1445 1445 1445 1445 1445 1445 1445 1445 1445 1445 1445 1445 1445 1445 1445 2184 2184 2184 2184 2198 2198 2198 2198 2198 2198 2198 2198 2198 2198 2198 2198 2198 2198 2198 2212 2198 2198 2198 2198 2198 2198 2198 2198 2198 2198 2198 2198 2198 2198 2198 2198 2198 2198 2198 2198 2198 2198 2198 2198 2198 2198 2198 2198 2198 2212 2198 2198 2212 2212 2212 2212 2212 2212 2212 2212 2212 2198 2198 2198 2198 2198 2198 2198 2198 2198 2198 2198 2198 2198 2198 2198 2198 2198 2198 2198 2198 2198 2198 2184 2184 2184 2184 2184 2184 2184 2184 2184 2184 2184 2184 2184 2184 2184 2184 2184 2184 2184 2184 2170 2170 2170 2170 2170 2170 2170 2170 2170 2170 2170 2170 2170 2184 2184 2184 2184 2156 2156 2156 2156 2170 2170 2170 2170 2170 0 0 0 0 0 0 0 0 0
0 0 0 0 0 0 0 0 0 0 0 0 0 0 0 0 0 0 0 0 0 0 0 0 0 0 0 0 0 0 0 0 0 2198 2198 2198 2198 2198 2198 2198 2198 2198 2198 2198 2212 2212 2198 2198 2212 2212 2212 2212 2212 2212 2212 2212 2212 2212 2212 2198 2198 2198 2212 2212 2212 2212 2212 2212 2212 2198 2198 2198 2198 2198 2198 2198 2198 2198 2198 2198 2198 2212 2198 2198 2198 2198 2198 2198 2198 2198 2198 2198 2198 2198 2198 2198 2198 2212 2212 2212 2212 2212 2212 2212 2212 2212 2212 2212 2198 2198 2198 2198 2198 1655 1655 1655 1655 1663 1663 1663 1663 1655 1647 1601 1594 1594 1586 1586 1586 1586 1586 1594 1594 1594 1594 1601 1609 1609 1616 1616 2212 2212 2212 2212 2212 2212 2212 2226 2226 2226 2241 2241 2241 2241 2226 2212 2212 2226 2226 2226 2226 2226 2226 2226 2241 2241 2241 2256 1936 1936 1947 1947 1970 1981 1981 1981 1993 1993 2005 2016 2016 2028 2028 2028 2028 2226 2226 2226 2241 2241 2241 2241 2241 2040 2028 2028 2040 2053 2065 2065 2065 2065 2065 2078 2078 2241 2241 2241 2256 2256 2256 2256 2256 2256 1536 1536 1536 1543 1543 1543 1543 1543 1543 1550 1550 1550 1550 1557 1557 1564 1564 1564 1564 1564 1564 2256 2256 2256 2256 2256 2256 2226 2226 2226 2226 2226 2226 2241 2241 2241 2241 2241 2256 2241 2241 2241 2256 2256 2241 2241 2256 2256 2241 2241 2241 2241 1959 1959 1959 1959 1959 1959 1439 1439 1439 1439 1439 1439 1439 1439 1439 1439 1439 1439 1439 1439 1445 1445 1445 1445 1445 1445 1445 1445 1439 1439 1439 1439 1439 1439 1439 1439 1439 1439 1439 1439 1433 1433 1433 1433 1433 1433 1433 1433 1433 1433 1427 1427 1427 1427 1427 1427 1427 1427 1421 1421 1421 1421 1421 1421 1421 1415 1415 1415 1415 1415 1415 1415 1415 1415 1410 1410 1410 1410 1410 1410 1410 1410 1410 1410 1410 1410 1410 1410 1410 1410 1410 1410 1410 1410 1410 1410 1410 1410 1404 1404 1404 1404 1404 1404 1404 1404 1404 1404 1404 1404 1404 1404 1404 1404 1398 1392 1387 1387 1381 1376 1376 1376 1376 1370 1370 1376 1376 1376 1376 1376 1387 1404 1410 1415 1421 1421 1794 1794 1794 1794 1794 1794 1794 1794 1794 1794 1804 2241 2241 2241 2241 2256 2256 2256 2256 2256 2241 2241 2241 2241 2226 2226 2226 2226 2226 2226 2226 2226 2226 1894 1894 1894 1894 1894 1883 1883 1883 1883 1873 1873 1873 1873 2226 2226 2226 2226 2226 2226 2212 2212 2212 2198 2198 2198 2198 2198 2198 2212 2212 2212 2212 2212 2212 2212 2212 2212 2226 2226 2226 2226 2226 2226 1452 1445 1445 1445 1452 1452 1452 1452 1452 1452 1452 1452 1452 1452 1452 1452 1452 1445 1445 1445 1445 1445 1445 1445 2184 2184 2184 2184 2184 2184 2184 2198 2198 2198 2198 2198 2198 2198 2198 2198 2198 2198 2198 2198 2198 2198 2198 2198 2198 2198 2198 2198 2198 2198 2198 2198 2198 2198 2198 2198 2198 2198 2198 2198 2198 2198 2198 2198 2198 2198 2198 2198 2198 2198 2198 2198 2198 2198 2198 2198 2198 2198 2198 2198 2198 2184 2184 2184 2198 2198 2198 2198 2198 2198 2198 2198 2198 2198 2198 2198 2198 2198 2198 2198 2198 2198 2198 2170 2170 2184 2184 2184 2184 2184 2184 2184 2184 2184 2184 2184 2184 2170 2170 2170 2170 2170 2170 2170 2170 2170 2170 2170 2170 2170 2170 2170 2170 2170 2170 2170 2170 2170 2170 2156 2143 2143 2143 2143 2156 2156 2156 2156 2156 0 0 0 0 0 0 0 0 0
0 0 0 0 0 0 0 0 0 0 0 0 0 0 0 0 0 0 0 0 0 0 0 0 0 0 0 0 0 0 0 0 0 2184 2184 2198 2198 2198 2198 2198 2198 2198 2198 2198 2198 2198 2198 2198 2198 2198 2212 2212 2212 2212 2212 2212 2212 2198 2198 2198 2198 2198 2198 2198 2198 2198 2212 2212 2198 2198 2198 2198 2184 2184 2184 2198 2184 2184 2198 2198 2198 2198 2198 2184 2184 2198 2198 2198 2198 2198 2198 2198 2198 2198 2198 2198 2198 2198 2198 2198 2198 2198 2212 2198 2198 2198 2198 2198 2198 2198 2184 2170 2170 1655 1655 1663 1663 1663 1671 1671 1671 1655 1647 1601 1594 1594 1594 1594 1586 1586 1594 1594 1594 1594 1594 1601 1609 1609 1616 1609 1609 2212 2212 2212 2212 2212 2212 2226 2226 2226 2226 2226 2226 2226 2226 2212 2212 2212 2212 2212 2226 2226 2226 2226 2226 2226 2241 1936 1936 1936 1947 1947 1970 1981 1981 1981 1993 1993 2005 2016 2016 2028 2028 2028 2028 2226 2226 2226 2226 2226 2226 2226 2226 2040 2040 2040 2040 2053 2065 2065 2065 2078 2078 2078 2078 2226 2226 2241 2241 2241 2241 2241 2241 2241 2241 1536 1536 1543 1543 1543 1543 1550 1550 1550 1550 1550 1550 1557 1557 1564 1564 1572 1572 1572 1572 2256 2256 2256 2256 2256 2241 2226 2226 2226 2226 2226 2226 2241 2241 2241 2241 2241 2241 2241 2241 2241 2241 2241 2241 2241 2241 2241 2241 2241 2241 1947 1947 1959 1959 1959 1959 1959 1959 1439 1439 1439 1439 1439 1439 1439 1439 1439 1439 1439 1439 1439 1445 1445 1445 1445 1445 1445 1445 1445 1439 1439 1439 1439 1439 1439 1439 1439 1439 1439 1439 1439 1439 1439 1439 1439 1439 1439 1433 1433 1433 1433 1433 1433 1427 1427 1427 1427 1427 1427 1427 1427 1421 1421 1421 1421 1421 1415 1415 1415 1415 1415 1415 1415 1415 1415 1410 1410 1410 1410 1410 1410 1410 1410 1410 1410 1410 1410 1410 1410 1410 1410 1410 1410 1410 1410 1410 1410 1410 1410 1404 1404 1404 1404 1404 1404 1404 1404 1404 1404 1404 1404 1404 1404 1404 1404 1398 1392 1387 1387 1381 1381 1376 1376 1376 1376 1376 1376 1376 1376 1376 1376 1387 1404 1410 1415 1421 1794 1794 1794 1794 1794 1794 1794 1794 1794 1794 1794 1804 2241 2241 2241 2241 2241 2241 2241 2241 2241 2226 2226 2226 2226 2226 2226 2212 2212 2212 2226 2212 2212 2212 1894 1894 1894 1894 1894 1883 1883 1883 1883 1873 1873 1873 2198 2212 2212 2226 2226 2212 2212 2212 2212 2212 2198 2198 2198 2198 2198 2198 2198 2198 2212 2212 2212 2212 2212 2212 2212 2212 2212 2212 2212 2212 2212 1445 1445 1445 1445 1452 1452 1452 1452 1452 1452 1452 1452 1452 1452 1452 1452 1452 1452 1452 1445 1445 1452 1452 2184 2184 2184 2184 2184 2184 2184 2184 2184 2184 2198 2198 2198 2198 2198 2198 2198 2198 2198 2198 2198 2198 2198 2184 2184 2184 2184 2184 2184 2184 2184 2184 2184 2184 2184 2184 2184 2184 2184 2184 2184 2184 2184 2184 2198 2198 2198 2198 2198 2198 2198 2198 2198 2184 2184 2184 2184 2184 2184 2198 2198 2198 2184 2184 2184 2184 2184 2184 2184 2184 2184 2184 2184 2184 2184 2184 2184 2184 2184 2184 2184 2184 2184 2184 2170 2170 2170 2170 2170 2170 2184 2184 2184 2184 2170 2170 2170 2170 2170 2170 2170 2170 2170 2170 2170 2170 2170 2170 2156 2156 2156 2156 2170 2170 2170 2170 2170 2170 2156 2156 2143 2143 2143 2143 2143 2143 2143 2156 2156 2156 0 0 0 0 0 0 0 0 0
0 0 0 0 0 0 0 0 0 0 0 0 0 0 0 0 0 0 0 0 0 0 0 0 0 0 0 0 0 0 0 0 0 2184 2184 2184 2184 2184 2184 2184 2184 2184 2184 2184 2198 2198 2198 2198 2198 2198 2198 2198 2198 2198 2212 2212 2198 2198 2198 2198 2198 2198 2198 2198 2198 2198 2198 2198 2198 2184 2184 2184 2170 2170 2170 2184 2170 2170 2184 2184 2184 2184 2184 2170 2170 2184 2184 2184 2184 2198 2198 2198 2198 2184 2184 2198 2198 2198 2198 2198 2198 2198 2198 2198 2198 2198 2198 2198 2198 2198 2184 2170 2170 2170 1663 1663 1663 1663 1671 1671 1671 1655 1647 1594 1594 1594 1594 1594 1594 1594 1594 1594 1594 1594 1594 1601 1609 1609 1616 1609 1609 2198 2212 2212 2212 2212 2212 2212 2212 2212 2212 2226 2226 2226 2226 2212 2212 2212 2212 2212 2212 2212 2212 2212 2212 1904 1904 1915 1926 1936 1936 1947 1970 1981 1981 1993 1993 2005 2005 2005 2016 2028 2028 2028 2028 2198 2212 2212 2212 2226 2226 2226 2226 2040 2040 2040 2040 2065 2065 2065 2078 2078 2078 2090 2090 2198 2212 2226 2241 2241 2241 2241 2241 2241 2241 1543 1536 1536 1543 1543 1550 1550 1550 1550 1550 1550 1550 1557 1557 1564 1564 1572 1572 1579 1586 2256 2241 2241 2241 2226 2226 2212 2212 2212 2212 2212 2212 2226 2226 2226 2226 2226 2226 2226 2226 2241 2241 2241 2241 2241 2241 2241 2241 2241 2241 1947 1947 1959 1959 1959 1959 1959 1959 1439 1439 1439 1439 1439 1439 1439 1439 1439 1439 1439 1439 1445 1445 1445 1445 1445 1445 1445 1445 1445 1445 1445 1445 1445 1439 1439 1439 1439 1439 1439 1439 1439 1439 1439 1439 1439 1439 1439 1439 1439 1439 1439 1433 1433 1433 1433 1433 1433 1433 1427 1427 1427 1421 1421 1421 1421 1421 1415 1415 1415 1415 1415 1415 1415 1415 1415 1415 1415 1415 1415 1410 1410 1410 1410 1410 1410 1410 1410 1410 1410 1410 1410 1410 1410 1410 1410 1410 1410 1410 1410 1404 1404 1404 1404 1404 1404 1398 1398 1398 1398 1404 1404 1404 1404 1398 1398 1398 1392 1387 1387 1381 1381 1376 1376 1376 1376 1376 1376 1376 1376 1376 1376 1392 1404 1415 1415 1794 1794 1794 1794 1794 1794 1794 1794 1794 1794 1794 1794 1804 2212 2226 2212 2212 2212 2212 2226 2226 2226 2212 2212 2212 2212 2212 2212 2212 2212 2212 2212 2212 2212 2212 1894 1894 1894 1894 1894 1883 1883 1883 1883 1873 1873 1873 2198 2212 2212 2212 2212 2212 2212 2212 2212 2212 2198 2198 2198 2198 2198 2198 2198 2198 2198 2198 2198 2198 2198 2212 2212 2212 2212 2212 2212 2212 2212 1445 1445 1445 1445 1452 1452 1452 1452 1452 1452 1452 1452 1452 1452 1452 1452 1452 1452 1452 1445 1445 1452 1452 2170 2170 2170 2170 2184 2184 2184 2184 2184 2184 2184 2184 2184 2184 2184 2184 2184 2184 2184 2184 2184 2184 2184 2184 2184 2184 2184 2184 2184 2184 2184 2184 2184 2184 2184 2184 2184 2184 2184 2184 2184 2184 2184 2184 2184 2198 2198 2198 2198 2198 2198 2184 2184 2184 2184 2184 2184 2184 2184 2184 2184 2184 2184 2184 2184 2184 2184 2184 2184 2184 2184 2184 2184 2184 2184 2184 2184 2184 2184 2170 2170 2170 2170 2184 2170 2170 2170 2170 2170 2170 2170 2170 2170 2170 2170 2170 2156 2156 2156 2156 2156 2170 2170 2170 2170 2170 2156 2156 2156 2156 2156 2156 2170 2170 2156 2156 2170 2170 2156 2143 2143 2129 2129 2129 2129 2143 2143 2143 2143 2143 0 0 0 0 0 0 0 0 0
0 0 0 0 0 0 0 0 0 0 0 0 0 0 0 0 0 0 0 0 0 0 0 0 0 0 0 0 0 0 0 0 0 2170 2170 2170 2170 2170 2170 2170 2170 2184 2184 2184 2184 2184 2184 2184 2184 2184 2184 2184 2184 2198 2198 2198 2198 2198 2198 2198 2198 2198 2184 2184 2184 2184 2184 2184 2184 2184 2170 2156 2156 2156 2156 2170 2170 2170 2170 2170 2170 2170 2170 2170 2170 2184 2184 2184 2184 2184 2184 2184 2184 2184 2184 2198 2198 2198 2198 2198 2198 2198 2198 2198 2198 2198 2198 2198 2184 2184 2184 2170 2170 2170 1671 1671 1671 1671 1680 1680 1680 1663 1655 1594 1594 1594 1594 1594 1594 1594 1594 1594 1594 1594 1594 1601 1609 1616 1616 1616 1616 2198 2212 2212 2212 2212 2212 2212 2212 2212 2212 2212 2212 2212 2212 2212 2198 2198 2198 2198 2198 2198 2212 2212 2212 1904 1904 1915 1926 1936 1936 1947 1970 1981 1981 1993 1993 2005 2005 2005 2016 2028 2028 2028 2040 2198 2198 2198 2212 2212 2212 2212 2198 2040 2040 2040 2040 2065 2065 2065 2078 2078 2078 2090 2103 2184 2212 2212 2226 2226 2226 2226 2226 2241 2241 1536 1536 1536 1543 1550 1550 1550 1550 1550 1550 1550 1557 1557 1557 1564 1564 1572 1572 1579 1586 2241 2241 2226 2226 2226 2226 2212 2212 2212 2212 2212 2212 2226 2226 2226 2226 2226 2226 2226 2226 2226 2226 2226 2226 2226 2226 2212 2212 2212 2212 1936 1936 1936 1947 1947 1947 1947 1439 1439 1439 1439 1439 1439 1445 1445 1445 1439 1439 1439 1439 1445 1445 1445 1445 1445 1445 1445 1445 1445 1445 1445 1445 1445 1445 1445 1439 1439 1439 1439 1439 1439 1439 1439 1439 1439 1439 1439 1439 1439 1439 1439 1439 1439 1433 1433 1433 1433 1433 1433 1427 1427 1427 1427 1427 1427 1427 1421 1421 1421 1415 1415 1415 1415 1415 1415 1415 1415 1415 1415 1415 1415 1410 1410 1415 1415 1415 1410 1410 1410 1410 1410 1410 1410 1410 1410 1410 1410 1410 1410 1404 1404 1404 1404 1404 1398 1398 1398 1398 1398 1404 1404 1404 1404 1398 1398 1398 1392 1392 1387 1381 1381 1376 1376 1376 1376 1376 1376 1376 1376 1381 1381 1387 1404 1404 1794 1794 1794 1794 1794 1794 1794 1794 1794 1794 1794 1804 1804 1804 2212 2212 2212 2212 2212 2212 2212 2212 2212 2212 2212 2212 2212 2212 2212 2212 2212 2212 2212 2212 2212 2212 1894 1894 1894 1894 1894 1894 1894 1894 1883 1873 1873 1873 2198 2198 2198 2198 2212 2212 2212 2212 2212 2198 2198 2198 2198 2198 2198 2198 2198 2198 2198 2198 2198 2198 2198 2198 2198 2198 2198 2212 2212 2212 2212 1452 1452 1452 1452 1452 1452 1452 1452 1452 1452 1458 1452 1452 1452 1452 1452 1452 1445 1445 1445 1445 1445 1445 2170 2170 2170 2170 2170 2170 2170 2184 2184 2184 2184 2184 2184 2170 2170 2170 2170 2170 2184 2184 2184 2184 2184 2184 2184 2184 2184 2184 2184 2184 2184 2184 2184 2184 2170 2170 2170 2170 2170 2170 2170 2170 2184 2184 2184 2184 2184 2198 2198 2184 2184 2184 2184 2184 2184 2184 2184 2170 2170 2184 2170 2170 2170 2170 2184 2184 2184 2170 2170 2184 2170 2170 2184 2184 2184 2170 2170 2170 2170 2156 2156 2170 2170 2170 2156 2156 2156 2156 2156 2156 2156 2156 2156 2156 2143 2143 2143 2129 2129 2129 2129 2143 2143 2143 2143 2143 2143 2129 2129 2143 2143 2156 2156 2170 2156 2156 2170 2156 2143 2129 2129 2129 2129 2129 2129 2129 2129 2129 2143 2143 0 0 0 0 0 0 0 0 0
0 0 0 0 0 0 0 0 0 0 0 0 0 0 0 0 0 0 0 0 0 0 0 0 0 0 0 0 0 0 0 0 0 2170 2170 2170 2170 2170 2170 2170 2170 2170 2170 2170 2170 2170 2170 2170 2184 2184 2184 2184 2184 2184 2184 2184 2184 2184 2184 2198 2184 2156 2156 2184 2184 2184 2184 2184 2184 2170 2170 2156 2156 2156 2156 2156 2156 2156 2156 2170 2170 2170 2170 2170 2170 2170 2170 2170 2170 2170 2170 2170 2170 2170 2170 2184 2184 2184 2184 2184 2184 2184 2184 2184 2184 2184 2184 2184 2184 2184 2184 2170 2170 2170 1671 1671 1671 1671 1680 1680 1680 1663 1647 1594 1594 1594 1594 1594 1594 1594 1594 1594 1594 1594 1594 1601 1609 1616 1616 1616 1616 2198 2198 2198 2212 2198 2198 2212 2212 2212 2212 2212 2212 2212 2212 2212 2198 2198 2198 2198 2198 2198 2198 2198 2198 1915 1915 1926 1926 1936 1947 1947 1981 1981 1993 1993 2005 2005 2005 2016 2028 2028 2028 2040 2184 2184 2198 2198 2198 2198 2198 2198 2184 2184 2053 2053 2053 2065 2065 2065 2078 2078 2078 2090 2090 2170 2198 2198 2212 2212 2212 2226 2226 2226 2226 1536 1536 1536 1543 1550 1550 1550 1550 1550 1550 1550 1557 1557 1564 1564 1572 1572 1579 1586 1594 2212 2212 2212 2212 2212 2212 2198 2198 2198 2198 2198 2198 2212 2212 2212 2212 2212 2212 2212 2212 2212 2212 2212 2212 2212 2212 2212 2212 2198 2198 1926 1926 1936 1936 1936 1947 1947 1433 1433 1439 1439 1439 1439 1445 1445 1445 1439 1439 1439 1439 1445 1445 1445 1445 1445 1452 1445 1445 1445 1445 1445 1445 1445 1445 1445 1445 1445 1445 1445 1445 1439 1439 1439 1439 1439 1439 1439 1439 1439 1439 1439 1439 1439 1439 1439 1439 1439 1439 1439 1433 1433 1433 1433 1433 1433 1433 1421 1421 1421 1415 1415 1415 1415 1415 1415 1415 1421 1415 1415 1415 1415 1415 1415 1415 1415 1415 1410 1410 1410 1410 1410 1410 1410 1410 1410 1410 1410 1410 1410 1410 1404 1404 1404 1404 1398 1398 1398 1398 1398 1404 1404 1404 1404 1404 1404 1398 1392 1392 1387 1387 1387 1381 1381 1381 1381 1381 1381 1381 1381 1381 1381 1387 1387 1387 1794 1794 1794 1794 1794 1794 1794 1794 1794 1794 1794 1804 1804 1804 2212 2212 2212 2198 2198 2212 2212 2212 2212 2212 2212 2212 2212 2212 2212 2212 2212 2212 2212 2212 2212 2212 1894 1894 1894 1894 1894 1894 1894 1894 1883 1883 1873 1873 2198 2198 2198 2198 2198 2198 2212 2198 2198 2198 2198 2198 2198 2198 2184 2184 2184 2184 2184 2198 2198 2198 2198 2198 2198 2198 2198 2198 2198 2184 2184 2184 1452 1452 1452 1452 1452 1458 1452 1452 1452 1458 1452 1452 1452 1452 1452 1452 1445 1445 1445 1445 1445 1452 2143 2143 2156 2156 2170 2170 2170 2170 2170 2170 2170 2170 2170 2156 2156 2156 2170 2170 2170 2170 2170 2170 2170 2170 2170 2170 2170 2170 2170 2170 2170 2170 2170 2170 2170 2170 2170 2156 2156 2156 2170 2170 2170 2170 2170 2184 2184 2184 2184 2184 2184 2184 2184 2170 2170 2170 2170 2170 2170 2170 2170 2170 2170 2170 2170 2170 2170 2170 2170 2170 2170 2170 2170 2170 2170 2170 2156 2156 2143 2143 2143 2156 2156 2156 2143 2143 2143 2143 2143 2143 2143 2143 2143 2143 2129 2129 2129 2129 2129 2129 2129 2129 2129 2143 2129 2129 2129 2129 2129 2129 2129 2143 2143 2156 2156 2156 2156 2143 2129 2116 2116 2116 2116 2129 2129 2129 2129 2129 2129 2129 0 0 0 0 0 0 0 0 0
0 0 0 0 0 0 0 0 0 0 0 0 0 0 0 0 0 0 0 0 0 0 0 0 0 0 0 0 0 0 0 0 0 2170 2170 2170 2170 2170 2170 2170 2170 2170 2170 2170 2170 2170 2170 2170 2170 2170 2170 2170 2184 2184 2184 2184 2184 2184 2184 2184 2184 2156 2156 2170 2170 2170 2170 2170 2170 2156 2156 2156 2156 2156 2156 2156 2156 2156 2156 2156 2156 2156 2156 2156 2156 2170 2170 2170 2170 2170 2170 2170 2170 2170 2170 2170 2170 2170 2170 2184 2184 2184 2184 2184 2184 2184 2184 2184 2184 2184 2184 2170 2156 2156 1680 1671 1671 1671 1671 1671 1671 1663 1647 1594 1594 1594 1594 1594 1594 1594 1594 1594 1594 1594 1594 1601 1609 1616 1616 1616 1624 1624 2198 2198 2212 2198 2198 2198 2198 2212 2198 2198 2212 2212 2212 2212 2198 2198 2198 2198 2198 2198 2198 1904 1904 1904 1915 1926 1926 1936 1936 1947 1970 1981 1993 1993 2005 2005 2016 2016 2028 2028 2028 2040 2184 2184 2184 2198 2198 2198 2198 2184 2184 2184 2053 2053 2053 2065 2065 2078 2078 2078 2078 2090 2090 2170 2198 2198 2198 2212 2212 2212 2226 2226 2226 1536 1536 1536 1543 1550 1550 1550 1550 1550 1550 1550 1557 1557 1564 1564 1572 1572 1579 1579 1586 2198 2198 2198 2198 2198 2198 2198 2198 2198 2198 2198 2198 2198 2212 2198 2198 2198 2198 2212 2198 2198 2198 2198 2212 2212 2212 2212 2212 2198 2198 1926 1926 1936 1936 1936 1936 1936 1433 1433 1439 1445 1445 1445 1445 1445 1445 1445 1445 1445 1445 1445 1452 1445 1445 1452 1452 1452 1452 1445 1445 1445 1445 1445 1445 1445 1445 1445 1445 1445 1445 1445 1445 1445 1445 1439 1439 1439 1439 1439 1439 1439 1439 1439 1439 1439 1439 1439 1439 1439 1439 1439 1433 1433 1433 1439 1433 1427 1421 1421 1421 1421 1421 1421 1421 1421 1421 1421 1421 1421 1415 1415 1415 1415 1415 1415 1415 1415 1410 1410 1410 1410 1410 1410 1410 1410 1410 1410 1410 1410 1410 1410 1404 1404 1404 1404 1404 1404 1404 1404 1404 1404 1404 1404 1404 1404 1398 1392 1392 1392 1387 1387 1381 1381 1381 1381 1381 1381 1381 1387 1381 1381 1387 1387 0 1794 1794 1794 1794 1794 1794 1794 1804 1794 1794 1794 1794 1794 1804 2198 2198 2198 2198 2198 2198 2198 2198 2198 2198 2198 2198 2198 2198 2198 2198 2198 2198 2198 2212 2212 2212 1894 1883 1883 1894 1894 1894 1894 1894 1883 1883 1873 1873 2198 2198 2198 2198 2198 2198 2198 2198 2198 2198 2198 2184 2184 2184 2184 2184 2184 2184 2184 2184 2184 2198 2198 2198 2198 2198 2198 2184 2184 2184 2184 2184 2184 1458 1458 1452 1452 1458 1458 1458 1458 1458 1452 1452 1452 1452 1452 1452 1452 1452 1445 1445 1445 1452 2143 2143 2156 2156 2156 2156 2156 2170 2170 2170 2170 2156 2156 2156 2143 2143 2156 2156 2156 2156 2156 2156 2156 2156 2156 2156 2156 2156 2170 2156 2156 2156 2170 2170 2156 2156 2156 2156 2156 2156 2156 2156 2156 2156 2156 2170 2184 2170 2170 2170 2170 2170 2170 2170 2156 2156 2170 2156 2156 2156 2156 2156 2156 2156 2156 2156 2156 2156 2156 2156 2156 2156 2156 2156 2156 2156 2156 2143 2143 2143 2143 2143 2143 2143 2143 2143 2143 2143 2143 2143 2143 2143 2129 2129 2129 2129 2129 2129 2129 2129 2129 2129 2129 2129 2129 2129 2129 2129 2129 2129 2129 2129 2143 2156 2143 2143 2143 2129 2116 2116 2116 2116 2116 2116 2116 2116 2116 2116 2116 2116 0 0 0 0 0 0 0 0 0
0 0 0 0 0 0 0 0 0 0 0 0 0 0 0 0 0 0 0 0 0 0 0 0 0 0 0 0 0 0 0 0 0 2170 2170 2170 2170 2170 2170 2170 2170 2170 2170 2170 2156 2156 2170 2170 2170 2170 2170 2170 2170 2184 2184 2184 2184 2184 2184 2170 2170 2170 2170 2170 2170 2170 2170 2170 2170 2143 2143 2143 2143 2156 2156 2156 2156 2156 2156 2156 2156 2156 2156 2156 2156 2156 2156 2156 2156 2170 2170 2170 2170 2156 2156 2170 2170 2170 2170 2170 2170 2170 2170 2170 2170 2184 2170 2170 2170 2170 2156 2156 2156 2156 2156 1671 1671 1671 1671 1671 1671 1671 1655 1594 1594 1594 1594 1594 1594 1594 1594 1594 1594 1594 1601 1609 1609 1616 1616 1616 1624 1624 2198 2198 2198 2198 2198 2198 2198 2198 2198 2198 2198 2198 2212 2212 2198 2198 2198 2198 2198 2198 2198 1894 1894 1904 1915 1915 1926 1936 1936 1947 1970 1981 1993 2005 2005 2016 2016 2016 2028 2028 2040 2040 2184 2184 2184 2184 2198 2198 2184 2184 2184 2184 2065 2065 2065 2065 2065 2078 2078 2078 2078 2090 2103 2170 2184 2198 2198 2198 2198 2198 2212 2212 2212 1543 1543 1543 1550 1550 1550 1550 1550 1550 1550 1550 1557 1557 1557 1564 1564 1572 1572 1579 1586 2198 2198 2198 2198 2198 2198 2184 2184 2198 2198 2198 2198 2198 2184 2184 2198 2198 2198 2198 2198 2198 2198 2198 2198 2212 2212 2212 2212 1904 1904 1904 1915 1926 1936 1936 1936 1936 1433 1433 1439 1445 1445 1445 1445 1445 1445 1445 1445 1445 1445 1445 1452 1452 1452 1452 1452 1452 1452 1452 1452 1452 1452 1452 1452 1445 1445 1445 1445 1445 1445 1445 1445 1445 1445 1445 1445 1445 1445 1445 1445 1439 1439 1439 1439 1439 1439 1439 1439 1439 1439 1439 1439 1439 1439 1439 1439 1427 1427 1427 1427 1421 1421 1421 1421 1421 1421 1421 1421 1421 1421 1421 1421 1421 1415 1415 1415 1415 1415 1415 1415 1415 1415 1415 1415 1415 1410 1410 1410 1410 1410 1410 1410 1404 1404 1404 1404 1404 1404 1404 1404 1404 1404 1404 1404 1404 1398 1398 1392 1392 1387 1387 1387 1387 1387 1387 1387 1387 1387 1387 1387 1387 1392 1392 0 1794 1794 1794 1794 1794 1804 1804 1804 1794 1794 1794 1794 1794 1804 2198 2198 2198 2198 2198 2198 2198 2198 2198 2198 2198 2198 2198 2198 2198 2198 2198 2198 2198 2198 2212 2212 1894 1883 1883 1894 1894 1894 1894 1894 1883 1883 1873 1873 2184 2184 2184 2184 2184 2198 2198 2198 2198 2198 2184 2184 2184 2170 2170 2170 2170 2170 2170 2184 2184 2184 2184 2184 2184 2184 2184 2184 2184 2184 2184 2184 2184 1458 1458 1458 1458 1458 1458 1458 1458 1458 1458 1458 1452 1452 1452 1452 1452 1452 1445 1445 1445 1452 1452 2143 2143 2143 2143 2156 2156 2156 2156 2156 2156 2156 2143 2143 2143 2143 2143 2143 2143 2143 2143 2156 2143 2143 2143 2143 2143 2143 2156 2156 2156 2156 2156 2156 2143 2143 2143 2143 2143 2143 2156 2156 2156 2156 2156 2170 2170 2156 2156 2156 2156 2156 2156 2143 2143 2143 2156 2143 2143 2143 2143 2143 2143 2143 2143 2143 2156 2156 2156 2156 2156 2156 2143 2143 2143 2143 2143 2143 2143 2143 2143 2143 2143 2143 2129 2129 2129 2129 2129 2129 2129 2129 2129 2129 2129 2129 2116 2116 2116 2116 2116 2116 2116 2129 2129 2129 2116 2116 2116 2116 2116 2129 2129 2129 2129 2129 2129 2116 2116 2116 2116 2116 2116 2116 2116 2116 2116 2116 2116 2116 0 0 0 0 0 0 0 0 0
0 0 0 0 0 0 0 0 0 0 0 0 0 0 0 0 0 0 0 0 0 0 0 0 0 0 0 0 0 0 0 0 0 2156 2156 2156 2156 2156 2156 2156 2156 2156 2156 2156 2156 2156 2156 2156 2170 2156 2156 2170 2170 2170 2170 2170 2170 2170 2170 2170 2170 2170 2170 2170 2170 2156 2156 2156 2156 2143 2143 2143 2143 2143 2143 2143 2143 2143 2143 2143 2143 2143 2143 2143 2156 2156 2156 2156 2156 2156 2156 2156 2156 2156 2156 2156 2156 2156 2156 2156 2156 2156 2156 2156 2156 2170 2170 2170 2170 2170 2156 2156 2156 2156 2156 1671 1671 1671 1671 1671 1680 1671 1632 1594 1594 1594 1594 1594 1594 1594 1594 1594 1594 1594 1601 1609 1609 1616 1616 1616 1624 1624 2198 2198 2184 2184 2184 2184 2184 2184 2198 2198 2198 2198 2198 2198 2184 2184 2184 2184 2184 2184 1883 1883 1894 1904 1904 1915 1926 1926 1936 1936 1970 1981 1993 2005 2005 2016 2028 2028 2028 2028 2040 2170 2170 2170 2170 2170 2184 2184 2184 2184 2170 2170 2078 2065 2065 2078 2078 2078 2078 2078 2090 2090 2103 2156 2184 2184 2184 2198 2198 2198 2198 2198 2198 1543 1543 1543 1550 1550 1550 1550 1550 1550 1550 1550 1557 1557 1557 1564 1564 1572 1572 1579 1579 2198 2198 2198 2198 2198 2198 2184 2184 2184 2184 2184 2198 2198 2184 2184 2198 2198 2198 2184 2184 2184 2184 2198 2198 2198 2198 2212 1894 1894 1894 1904 1915 1926 1926 1915 1915 1915 1439 1439 1439 1445 1445 1445 1445 1445 1445 1445 1445 1445 1445 1452 1452 1452 1452 1452 1452 1458 1458 1452 1452 1452 1458 1452 1452 1452 1452 1452 1445 1445 1445 1445 1445 1445 1445 1445 1445 1445 1445 1445 1445 1445 1445 1445 1445 1439 1439 1439 1439 1439 1439 1439 1439 1439 1439 1439 1439 1433 1433 1427 1427 1421 1421 1427 1427 1421 1421 1427 1427 1427 1421 1421 1421 1421 1421 1421 1421 1421 1421 1415 1415 1415 1415 1415 1415 1415 1415 1415 1415 1410 1410 1410 1410 1410 1404 1404 1404 1404 1404 1404 1404 1404 1404 1410 1404 1404 1404 1398 1392 1392 1387 1387 1387 1387 1387 1387 1387 1387 1387 1387 1387 1387 1387 1387 0 1794 1794 1794 1794 1794 1804 1804 1804 1804 1794 1794 1804 1804 1804 2198 2198 2184 2184 2184 2184 2184 2184 2184 2184 2198 2198 2198 2198 2198 2198 2198 2198 2198 2198 2198 2212 1894 1894 1894 1894 1894 1894 1894 1894 1883 1883 1883 1883 2170 2170 2170 2170 2170 2184 2184 2184 2184 2184 2170 2170 2170 2170 2170 2170 2170 2170 2170 2170 2170 2170 2170 2170 2170 2170 2170 2170 2170 2170 2170 2184 2184 1458 1458 1458 1458 1458 1458 1458 1458 1458 1458 1458 1458 1452 1452 1452 1452 1452 1445 1445 1452 1452 1452 2129 2129 2143 2143 2143 2143 2143 2143 2156 2156 2143 2143 2143 2143 2143 2143 2143 2143 2143 2143 2143 2143 2143 2143 2143 2143 2143 2143 2143 2143 2143 2143 2143 2143 2143 2143 2143 2143 2143 2143 2143 2143 2156 2156 2156 2156 2143 2143 2143 2143 2143 2143 2143 2143 2143 2143 2143 2143 2143 2143 2143 2143 2143 2143 2143 2143 2143 2143 2143 2143 2143 2143 2143 2143 2143 2143 2143 2143 2143 2143 2143 2143 2143 2129 2129 2129 2129 2129 2129 2129 2129 2116 2116 2116 2116 2116 2116 2116 2116 2116 2116 2116 2116 2116 2116 2116 2116 2116 2116 2116 2116 2116 2116 2116 2103 2103 2103 2103 2103 2103 2103 2103 2116 2103 2103 2103 2116 2116 2116 0 0 0 0 0 0 0 0 0
0 0 0 0 0 0 0 0 0 0 0 0 0 0 0 0 0 0 0 0 0 0 0 0 0 0 0 0 0 0 0 0 0 2156 2156 2156 2156 2156 2156 2143 2143 2143 2143 2129 2129 2129 2143 2143 2156 2156 2156 2156 2156 2156 2156 2156 2156 2156 2156 2156 2156 2156 2156 2156 2156 2156 2156 2156 2156 2143 2143 2143 2143 2143 2143 2143 2143 2143 2143 2143 2143 2143 2143 2143 2143 2143 2143 2143 2143 2156 2143 2143 2143 2143 2156 2143 2143 2143 2143 2143 2143 2156 2156 2156 2156 2156 2156 2156 2156 2156 2156 2156 2156 2170 2170 1671 1671 1671 1671 1680 1680 1671 1632 1594 1594 1594 1594 1594 1594 1594 1594 1594 1594 1594 1601 1609 1609 1616 1616 1616 1624 1624 1624 2184 2184 2170 2170 2170 2184 2184 2184 2184 2184 2184 2184 2184 2184 2184 2184 2184 2170 2170 1883 1883 1894 1904 1904 1915 1915 1915 1926 1936 1970 1981 1993 2005 2016 2016 2028 2028 2028 2040 2040 2103 2156 2156 2156 2170 2170 2184 2170 2170 2143 2143 2078 2078 2078 2078 2078 2078 2078 2078 2090 2090 2103 2143 2170 2184 2184 2184 2184 2184 2184 2198 2212 2212 1543 1543 1550 1550 1550 1550 1550 1550 1550 1550 1557 1557 1564 1564 1564 1564 1572 1579 2184 2184 2198 2198 2198 2198 2198 2184 2184 2184 2184 2184 2184 2184 2184 2184 2184 2184 2184 2184 2184 2184 2184 2184 2198 2198 2198 2212 1894 1894 1894 1904 1904 1926 1926 1915 1915 1915 1445 1445 1445 1445 1445 1445 1445 1445 1445 1445 1445 1445 1445 1452 1458 1452 1452 1458 1458 1458 1458 1458 1458 1458 1458 1458 1458 1452 1452 1452 1452 1452 1452 1452 1445 1445 1445 1445 1445 1445 1445 1445 1445 1445 1445 1445 1445 1445 1439 1439 1439 1439 1439 1439 1439 1439 1439 1439 1439 1433 1433 1433 1427 1427 1427 1427 1427 1427 1427 1427 1427 1427 1427 1427 1427 1427 1427 1421 1421 1421 1421 1421 1421 1421 1415 1415 1415 1415 1415 1415 1415 1415 1415 1415 1410 1410 1410 1410 1410 1410 1410 1404 1404 1410 1410 1410 1410 1410 1404 1398 1398 1392 1387 1387 1387 1387 1387 1387 1387 1387 1387 1387 1387 1387 1387 1392 1392 1794 1794 1794 1794 1794 1794 1804 1804 1804 1804 1804 1804 1804 1804 2184 2184 2184 2184 2184 2184 2170 2170 2170 2170 2184 2184 2184 2184 2184 2184 2184 2198 2198 2198 2198 1904 1904 1894 1894 1894 1894 1894 1894 1894 1883 1883 1883 1883 2156 2156 2156 2156 2170 2170 2170 2170 2170 2170 2170 2170 2156 2156 2156 2156 2156 2156 2170 2170 2170 2170 2156 2156 2170 2170 2170 2170 2170 2170 2170 2184 2184 1464 1464 1458 1458 1458 1458 1458 1458 1458 1458 1458 1458 1458 1452 1452 1452 1452 1452 1452 1452 1452 1452 2129 2129 2143 2143 2143 2143 2143 2143 2143 2143 2143 2143 2143 2143 2143 2143 2143 2143 2143 2143 2143 2143 2143 2143 2143 2143 2143 2143 2143 2143 2143 2143 2143 2143 2143 2143 2143 2143 2143 2143 2143 2143 2143 2143 2143 2143 2143 2143 2143 2143 2129 2129 2129 2143 2143 2143 2143 2143 2143 2143 2143 2143 2143 2143 2143 2143 2143 2143 2143 2143 2143 2143 2143 2143 2143 2129 2129 2129 2129 2129 2129 2129 2129 2116 2116 2129 2129 2116 2116 2116 2116 2116 2116 2116 2116 2116 2116 2116 2116 2116 2116 2116 2116 2116 2103 2103 2103 2103 2103 2103 2116 2103 2103 2103 2090 2090 2090 2090 2090 2090 2090 2103 2103 2090 2090 2103 2103 2103 2103 0 0 0 0 0 0 0 0 0
0 0 0 0 0 0 0 0 0 0 0 0 0 0 0 0 0 0 0 0 0 0 0 0 0 0 0 0 0 0 0 0 0 2156 2143 2143 2156 2143 2143 2143 2143 2143 2129 2129 2129 2129 2129 2143 2156 2156 2156 2156 2156 2156 2156 2156 2156 2156 2156 2156 2143 2143 2143 2143 2143 2143 2156 2143 2143 2143 2143 2143 2143 2143 2143 2143 2143 2143 2143 2143 2143 2143 2143 2143 2143 2143 2143 2143 2143 2143 2143 2143 2143 2143 2143 2143 2129 2129 2143 2143 2143 2143 2143 2143 2156 2156 2156 2156 2156 2156 2156 2156 2156 2156 2156 2156 1680 1680 1680 1680 1680 1671 1639 1594 1594 1601 1594 1594 1594 1594 1594 1594 1601 1601 1601 1609 1616 1616 1624 1624 1624 1624 1624 2170 2156 2156 2156 2156 2170 2170 2170 2170 2170 2170 2184 2184 2156 2156 2156 2156 2156 1883 1883 1894 1894 1904 1904 1904 1915 1915 1915 1936 1981 1993 2005 2016 2016 2016 2028 2028 2028 2040 2040 2103 2156 2156 2156 2170 2170 2184 2156 2156 2129 2129 2078 2078 2078 2078 2078 2078 2078 2078 2090 2090 2103 2129 2156 2170 2170 2170 2184 2184 2184 2184 2198 2198 1550 1550 1550 1550 1550 1550 1550 1550 1557 1557 1557 1557 1564 1564 1564 1564 1572 1579 2184 2184 2184 2184 2184 2184 2198 2184 2184 2184 2184 2184 2184 2184 2170 2170 2184 2170 2170 2184 2184 2170 2170 2184 2198 2198 2198 1883 1883 1894 1894 1894 1904 1915 1926 1926 1926 1947 1445 1445 1445 1452 1445 1445 1445 1445 1445 1445 1445 1445 1445 1452 1458 1458 1458 1458 1458 1458 1458 1464 1458 1458 1458 1458 1452 1452 1445 1445 1445 1445 1452 1452 1445 1445 1445 1445 1445 1445 1445 1445 1445 1445 1445 1445 1445 1445 1445 1439 1439 1445 1445 1445 1439 1439 1439 1439 1439 1433 1433 1433 1433 1433 1433 1433 1427 1427 1427 1427 1427 1433 1427 1427 1427 1427 1427 1421 1421 1421 1421 1421 1421 1421 1415 1415 1415 1415 1415 1415 1415 1415 1415 1415 1415 1415 1410 1410 1410 1410 1410 1410 1410 1410 1410 1410 1410 1410 1410 1404 1398 1392 1392 1387 1387 1387 1387 1387 1387 1387 1387 1387 1387 1387 1387 1387 1387 1804 1804 1794 1794 1794 1794 1804 1804 1804 1804 1804 1804 1804 1804 1813 2156 2156 2156 2156 2156 2156 2156 2156 2156 2170 2170 2170 2170 2170 2170 2170 2184 2184 2184 2184 1904 1904 1904 1904 1904 1904 1904 1904 1904 1894 1883 1883 1883 2156 2156 2156 2156 2156 2156 2156 2156 2170 2156 2156 2156 2156 2156 2156 2156 2156 2156 2156 2156 2156 2156 2156 2156 2156 2156 2156 2156 2156 2170 2170 2170 1464 1464 1464 1458 1458 1458 1458 1458 1458 1458 1458 1458 1458 1458 1452 1452 1452 1452 1452 1452 1458 1458 2129 2129 2129 2129 2143 2143 2143 2143 2143 2143 2143 2143 2143 2143 2129 2129 2129 2129 2129 2129 2129 2129 2143 2143 2143 2143 2129 2129 2129 2129 2129 2129 2129 2129 2129 2143 2143 2143 2143 2143 2143 2143 2143 2143 2143 2143 2143 2143 2143 2129 2129 2129 2129 2129 2129 2129 2129 2129 2129 2129 2129 2129 2129 2129 2129 2129 2129 2129 2129 2129 2129 2129 2129 2129 2129 2129 2129 2129 2116 2116 2116 2116 2129 2129 2116 2116 2116 2116 2116 2116 2116 2116 2116 2116 2116 2116 2116 2116 2116 2116 2116 2116 2116 2103 2103 2103 2103 2103 2103 2103 2103 2103 2090 2090 2078 2078 2078 2078 2078 2078 2078 2090 2090 2090 2090 2090 2090 2090 2090 2103 0 0 0 0 0 0 0 0 0
0 0 0 0 0 0 0 0 0 0 0 0 0 0 0 0 0 0 0 0 0 0 0 0 0 0 0 0 0 0 0 0 0 2143 2143 2143 2156 2143 2143 2143 2143 2129 2129 2129 2129 2129 2129 2129 2143 2143 2143 2156 2156 2156 2156 2156 2156 2156 2143 2143 2143 2143 2143 2143 2143 2143 2143 2143 2143 2129 2129 2129 2129 2129 2129 2129 2129 2129 2129 2143 2129 2129 2129 2129 2129 2129 2129 2129 2129 2143 2143 2143 2143 2143 2143 2129 2129 2129 2129 2129 2129 2143 2143 2143 2143 2156 2156 2156 2156 2156 2156 2156 2156 2156 2156 2170 1680 1671 1671 1671 1680 1671 1671 1624 1601 1601 1594 1594 1594 1594 1594 1594 1601 1601 1601 1609 1616 1616 1624 1624 1624 1624 1624 2156 2156 2156 2156 2156 2156 2156 2170 2170 2170 2170 2170 2170 2156 2143 2143 2143 2143 1883 1883 1883 1894 1894 1904 1904 1904 1915 1915 1936 1981 1993 2005 2016 2016 2028 2028 2028 2028 2040 2040 2040 2156 2156 2156 2156 2170 2170 2156 2143 2129 2129 2078 2078 2078 2078 2078 2078 2078 2078 2090 2090 2116 2129 2143 2156 2170 2170 2170 2170 2170 2184 2184 2184 1550 1550 1550 1550 1550 1550 1550 1557 1557 1557 1557 1557 1564 1564 1564 1564 1564 1579 2170 2184 2184 2184 2184 2184 2184 2170 2170 2170 2170 2170 2170 2170 2170 2170 2170 2170 2170 2170 2170 2170 2170 2198 2198 2198 2198 1883 1883 1883 1894 1894 1904 1915 1926 1926 1947 1947 1452 1452 1452 1452 1445 1445 1445 1445 1445 1445 1445 1445 1445 1452 1458 1458 1458 1458 1458 1464 1464 1464 1464 1464 1464 1458 1452 1452 1445 1445 1445 1445 1445 1452 1445 1445 1445 1445 1445 1445 1445 1445 1445 1445 1445 1445 1445 1445 1445 1445 1445 1445 1445 1445 1445 1445 1445 1445 1439 1433 1433 1433 1433 1433 1433 1433 1433 1433 1433 1427 1427 1433 1433 1433 1427 1427 1427 1427 1421 1421 1421 1421 1421 1421 1421 1421 1421 1421 1415 1415 1415 1415 1415 1415 1415 1415 1415 1415 1415 1410 1410 1410 1410 1410 1410 1410 1410 1410 1410 1404 1398 1392 1392 1392 1387 1387 1387 1387 1387 1387 1387 1387 1387 1387 1387 1387 1387 1387 1794 1794 1794 1794 1804 1804 1804 1804 1804 1804 1804 1804 1804 1804 2156 2156 2156 2156 2156 2156 2156 2156 2156 2156 2156 2156 2156 2156 2156 2170 2156 2156 2156 2170 1904 1904 1904 1904 1904 1904 1904 1904 1904 1894 1883 1883 1883 2143 2143 2143 2156 2156 2156 2156 2156 2156 2156 2156 2156 2156 2156 2156 2156 2156 2156 2156 2156 2156 2156 2156 2156 2156 2156 2156 2156 2156 2156 2170 2170 1470 1464 1464 1458 1458 1458 1458 1458 1458 1458 1458 1458 1458 1458 1458 1458 1452 1452 1452 1452 1458 1458 2116 2116 2129 2129 2129 2129 2129 2129 2143 2129 2129 2129 2129 2129 2129 2129 2129 2129 2129 2129 2129 2129 2129 2129 2129 2129 2129 2129 2129 2129 2129 2129 2129 2129 2129 2129 2129 2129 2129 2129 2143 2143 2143 2143 2143 2143 2143 2129 2129 2129 2129 2129 2129 2129 2129 2129 2129 2129 2129 2129 2129 2129 2129 2129 2129 2129 2129 2116 2116 2116 2116 2116 2129 2129 2116 2116 2116 2116 2116 2116 2116 2116 2116 2116 2103 2103 2116 2116 2103 2103 2103 2103 2103 2103 2103 2116 2116 2116 2116 2116 2116 2103 2103 2103 2090 2090 2090 2090 2103 2090 2090 2090 2078 2078 2078 2078 2078 2078 2078 2078 2078 2090 2090 2090 2078 2078 2078 2078 2078 2078 0 0 0 0 0 0 0 0 0
0 0 0 0 0 0 0 0 0 0 0 0 0 0 0 0 0 0 0 0 0 0 0 0 0 0 0 0 0 0 0 0 0 2143 2143 2143 2143 2143 2143 2129 2129 2129 2116 2116 2116 2116 2129 2129 2143 2143 2143 2143 2143 2143 2143 2143 2143 2143 2143 2129 2129 2129 2129 2129 2129 2143 2143 2129 2129 2129 2116 2116 2116 2116 2116 2129 2129 2129 2129 2129 2129 2116 2116 2116 2116 2116 2129 2129 2129 2129 2129 2116 2116 2129 2129 2129 2129 2129 2129 2129 2129 2129 2129 2129 2143 2143 2143 2143 2156 2156 2156 2156 2156 2156 2156 2170 2170 1671 1671 1671 1680 1680 1671 1671 1616 1601 1601 1601 1594 1594 1594 1601 1601 1601 1601 1609 1616 1616 1624 1624 1624 1624 2156 2143 2143 2143 2143 2156 2156 2156 2156 2156 2156 2156 2170 2170 2156 2143 2143 2143 1873 1873 1883 1883 1894 1894 1904 1904 1904 1915 1915 1936 1993 2005 2016 2016 2028 2028 2028 2028 2028 2040 2040 2040 2129 2129 2143 2143 2156 2170 2143 2143 2129 2129 2090 2078 2078 2078 2078 2078 2078 2078 2090 2090 2116 2129 2143 2156 2170 2170 2170 2170 2170 2184 2184 2184 1550 1550 1550 1550 1557 1557 1557 1557 1557 1557 1557 1557 1557 1557 1564 1564 1564 2170 2170 2170 2184 2184 2184 2184 2184 2170 2170 2170 2170 2170 2170 2170 2170 2170 2170 2170 2170 2170 2170 2170 2170 2198 2198 1873 1873 1883 1883 1883 1894 1894 1904 1915 1926 1926 1947 1947 1452 1452 1452 1452 1452 1452 1445 1445 1452 1452 1452 1452 1452 1458 1458 1458 1458 1458 1458 1464 1464 1464 1464 1464 1464 1458 1458 1452 1452 1445 1445 1445 1445 1452 1445 1445 1445 1445 1445 1445 1445 1445 1445 1445 1445 1445 1445 1445 1445 1445 1445 1445 1445 1445 1445 1445 1445 1445 1439 1439 1433 1433 1433 1433 1433 1433 1433 1433 1433 1427 1427 1433 1433 1433 1427 1427 1427 1427 1427 1427 1427 1427 1427 1427 1421 1421 1421 1421 1415 1415 1415 1415 1415 1421 1415 1415 1415 1415 1415 1415 1410 1410 1410 1410 1410 1410 1410 1410 1410 1404 1398 1398 1392 1392 1392 1392 1392 1392 1392 1392 1392 1387 1387 1387 1387 1387 1387 1794 1794 1794 1794 1794 1804 1804 1804 1804 1804 1804 1804 1804 1804 1804 2143 2143 2156 2156 2156 2156 2156 2156 2156 2156 2156 2156 2156 2156 2156 2156 2156 2156 2156 2156 1904 1904 1904 1904 1904 1904 1904 1904 1904 1894 1894 1894 2143 2143 2143 2143 2143 2143 2143 2143 2143 2143 2143 2143 2143 2143 2143 2143 2143 2143 2143 2143 2143 2143 2143 2143 2143 2143 2143 2143 2143 2143 2156 2156 1470 1470 1464 1464 1464 1464 1464 1458 1458 1458 1458 1458 1458 1458 1458 1458 1458 1452 1452 1452 1458 1458 1458 2103 2116 2116 2129 2129 2129 2129 2129 2129 2129 2129 2129 2129 2129 2129 2129 2129 2129 2129 2129 2129 2129 2129 2116 2116 2129 2116 2116 2116 2116 2116 2129 2116 2116 2116 2129 2129 2129 2129 2129 2129 2129 2129 2129 2129 2129 2129 2129 2129 2116 2116 2116 2116 2116 2116 2116 2116 2116 2116 2129 2129 2129 2129 2129 2116 2116 2116 2116 2116 2116 2116 2116 2116 2116 2116 2116 2116 2103 2103 2116 2116 2116 2116 2116 2103 2103 2103 2103 2103 2103 2103 2103 2103 2103 2103 2103 2103 2103 2103 2103 2103 2103 2103 2090 2090 2090 2090 2090 2090 2078 2078 2078 2078 2078 2078 2078 2078 2078 2078 2078 2078 2078 2078 2078 2078 2078 2078 2078 2078 2078 0 0 0 0 0 0 0 0 0
0 0 0 0 0 0 0 0 0 0 0 0 0 0 0 0 0 0 0 0 0 0 0 0 0 0 0 0 0 0 0 0 0 2129 2129 2129 2129 2129 2129 2129 2129 2116 2116 2116 2116 2116 2116 2129 2129 2129 2129 2129 2129 2129 2129 2129 2129 2129 2129 2129 2129 2129 2129 2129 2129 2143 2129 2129 2129 2129 2103 2103 2103 2103 2103 2129 2116 2116 2116 2129 2116 2116 2116 2116 2116 2116 2129 2116 2116 2116 2116 2116 2116 2116 2116 2116 2116 2116 2116 2116 2116 2116 2116 2116 2129 2129 2143 2143 2143 2143 2143 2143 2143 2143 2156 2156 2156 1671 1671 1680 1680 1680 1671 1671 1616 1601 1601 1601 1601 1601 1601 1601 1601 1601 1609 1609 1616 1616 1624 1632 1639 1639 2156 2143 2143 2143 2143 2143 2156 2156 2156 2156 2156 2156 2156 2156 2143 2143 2143 2143 1873 1873 1873 1873 1883 1894 1894 1894 1904 1904 1915 1936 2005 2016 2016 2028 2028 2028 2028 2028 2028 2040 2040 2053 2090 2116 2129 2129 2143 2143 2143 2129 2129 2116 2090 2078 2078 2078 2078 2078 2078 2078 2090 2103 2103 2129 2143 2143 2156 2156 2170 2170 2170 2170 2170 1550 1550 1550 1550 1550 1557 1557 1557 1557 1557 1557 1557 1557 1557 1557 1564 1564 1564 2156 2156 2156 2170 2170 2170 2170 2170 2170 2170 2156 2156 2170 2156 2156 2156 2156 2156 2170 2170 2156 2156 2170 2170 2170 2170 1873 1873 1883 1883 1883 1894 1894 1904 1915 1926 1936 1959 1959 1452 1452 1452 1458 1452 1452 1452 1452 1452 1452 1452 1452 1452 1458 1458 1458 1458 1458 1458 1464 1464 1458 1458 1458 1452 1452 1452 1452 1452 1452 1452 1452 1452 1452 1452 1445 1445 1445 1445 1445 1445 1445 1445 1445 1445 1445 1445 1445 1445 1445 1445 1445 1445 1445 1445 1445 1445 1445 1445 1439 1433 1433 1433 1433 1433 1433 1433 1433 1433 1433 1433 1433 1433 1433 1427 1427 1427 1427 1427 1427 1427 1427 1427 1421 1421 1421 1421 1421 1421 1421 1421 1421 1421 1421 1421 1415 1415 1415 1415 1415 1410 1410 1415 1415 1415 1410 1410 1410 1410 1410 1404 1398 1392 1392 1392 1392 1392 1392 1392 1392 1392 1387 1387 1387 1387 1387 1387 1794 1794 1794 1794 1804 1804 1804 1804 1804 1804 1804 1804 1804 1804 2143 2143 2143 2143 2143 2143 2143 2143 2143 2143 2143 2143 2143 2143 2156 2156 2156 2143 2143 2143 2143 1915 1915 1904 1904 1904 1904 1904 1904 1904 1894 1894 1894 2143 2143 2143 2143 2143 2143 2143 2143 2143 2143 2143 2143 2143 2143 2143 2143 2143 2143 2143 2143 2143 2143 2143 2143 2143 2143 2129 2116 2116 2116 2116 2116 1464 1464 1464 1464 1464 1464 1464 1464 1464 1458 1458 1458 1458 1458 1458 1458 1458 1458 1452 1452 1452 1452 1458 2103 2103 2116 2116 2116 2129 2129 2129 2129 2129 2129 2129 2129 2129 2129 2129 2129 2116 2116 2116 2116 2116 2116 2116 2116 2116 2116 2116 2116 2116 2116 2116 2116 2116 2116 2116 2116 2116 2116 2116 2129 2116 2116 2116 2116 2116 2116 2116 2116 2116 2116 2116 2116 2116 2103 2103 2103 2103 2103 2116 2116 2116 2116 2116 2116 2116 2103 2103 2103 2103 2103 2103 2103 2103 2103 2116 2116 2103 2103 2103 2103 2103 2116 2116 2090 2090 2103 2090 2090 2090 2090 2090 2090 2090 2090 2090 2103 2090 2090 2090 2090 2090 2090 2078 2078 2078 2078 2078 2078 2078 2078 2065 2065 2065 2065 2065 2078 2078 2078 2078 2078 2078 2078 2078 2065 2065 2065 2065 2053 2053 0 0 0 0 0 0 0 0 0
0 0 0 0 0 0 0 0 0 0 0 0 0 0 0 0 0 0 0 0 0 0 0 0 0 0 0 0 0 0 0 0 0 2129 2116 2116 2129 2116 2116 2116 2116 2116 2116 2116 2116 2116 2116 2116 2116 2116 2116 2116 2116 2116 2116 2116 2116 2116 2116 2116 2116 2116 2116 2116 2116 2116 2116 2116 2116 2116 2103 2103 2103 2103 2103 2103 2116 2116 2116 2116 2116 2103 2103 2103 2103 2103 2116 2116 2116 2116 2103 2103 2103 2103 2103 2116 2103 2103 2116 2116 2116 2116 2116 2116 2116 2129 2129 2129 2129 2143 2143 2129 2129 2143 2143 2156 2156 1671 1671 1680 1680 1680 1671 1663 1616 1601 1601 1601 1601 1601 1601 1601 1601 1609 1609 1616 1616 1624 1624 1632 1639 1639 1647 2143 2129 2129 2143 2143 2143 2143 2143 2143 2143 2143 2143 2156 2143 2143 2143 1863 1863 1873 1873 1873 1883 1883 1894 1894 1904 1904 1915 1915 2028 2028 2028 2028 2028 2028 2028 2028 2028 2040 2040 2053 2078 2103 2116 2129 2129 2143 2129 2129 2129 2116 2090 2078 2078 2078 2078 2078 2078 2090 2090 2103 2103 2116 2129 2143 2156 2156 2156 2156 2170 2170 2170 1550 1550 1550 1550 1550 1557 1557 1557 1557 1557 1557 1557 1557 1564 1564 1564 1564 1564 2156 2143 2143 2156 2170 2170 2170 2170 2156 2156 2156 2156 2156 2156 2156 2156 2143 2143 2143 2143 2143 2143 2143 2156 2156 1873 1873 1873 1883 1883 1883 1894 1894 1904 1926 1936 1947 1959 1959 1458 1458 1458 1458 1458 1458 1452 1452 1452 1452 1452 1452 1452 1458 1464 1464 1464 1464 1464 1464 1464 1458 1458 1458 1452 1452 1452 1452 1452 1452 1452 1452 1452 1452 1445 1445 1445 1445 1445 1445 1445 1445 1445 1445 1445 1445 1445 1445 1445 1445 1445 1445 1445 1445 1445 1445 1445 1445 1445 1439 1433 1433 1433 1433 1433 1433 1433 1433 1433 1433 1433 1433 1433 1433 1433 1433 1433 1427 1427 1427 1427 1427 1427 1421 1421 1421 1421 1421 1421 1421 1421 1421 1421 1421 1421 1415 1415 1415 1415 1415 1415 1415 1415 1415 1415 1410 1410 1410 1410 1410 1404 1398 1398 1392 1392 1392 1392 1392 1392 1392 1392 1387 1387 1387 1387 1387 1387 1794 1794 1794 1794 1794 1804 1804 1804 1804 1804 1804 1804 1804 1804 2143 2143 2143 2143 2143 2143 2143 2143 2143 2143 2143 2143 2143 2143 2143 2143 2143 2143 2143 2129 2129 1915 1915 1915 1904 1904 1904 1904 1904 1904 1894 1894 1894 2143 2143 2143 2143 2129 2129 2129 2129 2129 2129 2129 2129 2129 2129 2129 2129 2129 2129 2129 2129 2143 2143 2143 2143 2129 2129 2129 2116 2103 2103 2103 2103 1464 1464 1464 1464 1464 1464 1464 1464 1464 1464 1458 1458 1458 1458 1458 1458 1458 1458 1452 1452 1445 1433 1433 2090 2090 2116 2116 2116 2116 2129 2116 2116 2116 2116 2116 2116 2116 2116 2116 2116 2116 2103 2103 2103 2103 2103 2103 2103 2103 2103 2103 2103 2103 2103 2116 2116 2116 2116 2116 2103 2103 2103 2103 2116 2116 2116 2116 2116 2103 2103 2116 2103 2103 2103 2103 2103 2103 2103 2103 2103 2103 2103 2103 2103 2103 2116 2116 2103 2103 2103 2103 2103 2090 2090 2090 2090 2090 2103 2103 2103 2103 2103 2103 2103 2103 2103 2103 2090 2090 2090 2090 2090 2090 2090 2090 2090 2090 2090 2090 2090 2078 2078 2078 2078 2078 2078 2078 2078 2078 2078 2078 2078 2078 2078 2065 2065 2065 2065 2065 2065 2065 2065 2065 2065 2065 2065 2065 2065 2065 2065 2065 2053 2040 2040 0 0 0 0 0 0 0 0
0 0 0 0 0 0 0 0 0 0 0 0 0 0 0 0 0 0 0 0 0 0 0 0 0 0 0 0 0 0 0 0 0 0 2116 2116 2116 2116 2116 2116 2116 2116 2116 2116 2116 2116 2116 2103 2103 2116 2116 2116 2116 2116 2116 2116 2116 2116 2103 2103 2116 2116 2116 2116 2116 2116 2116 2116 2116 2116 2103 2103 2103 2103 2103 2103 2103 2103 2103 2103 2103 2103 2103 2103 2103 2103 2103 2103 2103 2103 2103 2103 2103 2103 2103 2103 2103 2090 2090 2090 2090 2090 2103 2103 2103 2103 2103 2103 2116 2103 2103 2103 2103 2116 2129 2143 2143 1680 1680 1680 1680 1680 1671 1663 1616 1601 1601 1601 1601 1601 1601 1601 1601 1609 1609 1616 1624 1624 1632 1639 1639 1639 1647 2129 2129 2129 2129 2143 2143 2143 2143 2143 2143 2143 2143 2143 2143 2143 2143 1863 1863 1863 1873 1873 1873 1883 1894 1894 1894 1904 1904 2065 2040 2040 2040 2040 2040 2040 2040 2040 2040 2040 2040 2040 2065 2090 2103 2116 2129 2129 2129 2129 2129 2116 2090 2078 2078 2078 2078 2078 2078 2090 2090 2103 2103 2116 2129 2143 2156 2156 2156 2156 2156 2170 2170 1550 1550 1550 1550 1550 1557 1557 1557 1557 1557 1557 1557 1557 1564 1564 1564 1572 1579 2143 2143 2143 2156 2156 2156 2156 2156 2143 2143 2143 2143 2143 2143 2143 2129 2129 2129 2129 2129 2129 2143 2143 2143 1863 1863 1863 1873 1883 1883 1883 1883 1894 1904 1926 1959 1959 1970 1970 1970 1464 1464 1458 1458 1458 1458 1458 1452 1452 1458 1458 1458 1464 1464 1464 1470 1464 1464 1464 1464 1464 1458 1458 1452 1452 1452 1452 1452 1452 1452 1452 1452 1445 1445 1445 1445 1445 1445 1445 1445 1445 1445 1445 1445 1445 1445 1445 1445 1445 1445 1439 1439 1439 1445 1445 1445 1445 1439 1439 1433 1433 1433 1433 1433 1433 1433 1433 1433 1433 1433 1433 1433 1433 1433 1433 1433 1427 1427 1427 1427 1427 1427 1427 1421 1421 1421 1421 1421 1421 1421 1421 1421 1421 1421 1415 1415 1415 1415 1415 1415 1415 1415 1415 1415 1415 1415 1415 1410 1410 1404 1404 1398 1398 1392 1392 1392 1392 1392 1392 1392 1387 1387 1387 1387 1387 1387 1794 1794 1794 1794 1794 1804 1804 1804 1804 1813 1813 1804 1804 1804 2129 2129 2129 2143 2143 2143 2143 2143 2143 2143 2143 2143 2129 2129 2129 2129 2129 2129 2129 2129 2129 1915 1915 1915 1904 1904 1904 1904 1915 1904 1904 1904 2143 2129 2129 2129 2129 2129 2129 2116 2116 2116 2116 2116 2129 2116 2116 2129 2129 2116 2116 2116 2116 2129 2129 2129 2129 2129 2129 2116 2103 2103 2103 2103 2103 1477 1470 1464 1464 1464 1464 1464 1464 1464 1464 1464 1458 1458 1458 1458 1458 1458 1458 1452 1452 1439 1433 1433 2078 2078 2090 2103 2103 2103 2103 2103 2103 2103 2103 2103 2103 2103 2103 2103 2103 2090 2090 2090 2103 2103 2103 2090 2090 2103 2090 2090 2103 2103 2103 2103 2103 2103 2103 2103 2103 2103 2103 2103 2103 2103 2103 2103 2103 2103 2103 2103 2090 2090 2090 2090 2090 2090 2090 2090 2090 2090 2090 2090 2090 2103 2103 2103 2103 2103 2090 2090 2090 2090 2090 2090 2090 2090 2090 2090 2090 2090 2090 2090 2103 2103 2103 2090 2090 2090 2090 2078 2078 2078 2078 2078 2078 2078 2078 2078 2065 2065 2065 2065 2065 2065 2065 2065 2065 2065 2065 2065 2065 2065 2065 2065 2065 2065 2065 2065 2065 2065 2065 2065 2065 2065 2065 2065 2065 2065 2065 2053 2053 2040 2040 0 0 0 0 0 0 0 0
0 0 0 0 0 0 0 0 0 0 0 0 0 0 0 0 0 0 0 0 0 0 0 0 0 0 0 0 0 0 0 0 0 0 2103 2103 2103 2103 2103 2103 2116 2116 2103 2103 2103 2103 2103 2103 2103 2103 2103 2116 2116 2116 2116 2116 2103 2103 2103 2103 2103 2103 2103 2103 2103 2103 2103 2116 2116 2103 2090 2090 2090 2090 2090 2090 2090 2090 2090 2103 2103 2103 2103 2103 2103 2103 2103 2103 2103 2090 2090 2090 2090 2090 2103 2103 2090 2090 2090 2090 2090 2090 2090 2090 2090 2103 2103 2103 2103 2103 2103 2103 2103 2116 2116 2143 1680 1680 1680 1680 1680 1680 1680 1671 1616 1609 1601 1601 1601 1601 1601 1601 1601 1609 1609 1616 1624 1624 1632 1632 1639 1639 1647 2103 2103 2116 2129 2129 2129 2129 2143 2143 2143 2143 2143 2143 2129 2129 2143 1853 1853 1863 1873 1873 1873 1883 1883 1894 1894 1894 1894 2065 2053 2040 2040 2040 2040 2040 2040 2040 2040 2040 2040 2040 2065 2078 2103 2116 2116 2129 2129 2129 2129 2116 2090 2078 2078 2078 2078 2078 2090 2090 2090 2103 2103 2116 2129 2143 2143 2143 2143 2143 2143 2143 2143 2143 1550 1550 1550 1557 1557 1557 1557 1557 1557 1557 1564 1564 1564 1572 1572 1579 1579 1586 2129 2129 2143 2143 2143 2143 2143 2143 2143 2129 2129 2129 2129 2129 2129 2129 2129 2129 2129 2129 2129 2129 2129 1863 1863 1863 1873 1883 1883 1883 1883 1894 1904 1926 1959 1959 1970 1970 1970 1464 1464 1464 1464 1458 1458 1458 1458 1458 1458 1458 1458 1464 1464 1464 1470 1464 1464 1464 1464 1464 1458 1458 1452 1452 1873 1452 1452 1452 1452 1452 1452 1445 1445 1445 1445 1445 1445 1445 1445 1445 1445 1445 1445 1445 1445 1445 1445 1445 1445 1439 1439 1439 1445 1445 1445 1445 1439 1439 1433 1433 1433 1433 1439 1433 1433 1433 1433 1433 1433 1433 1433 1433 1433 1433 1433 1433 1433 1433 1433 1433 1427 1427 1427 1433 1433 1433 1427 1421 1421 1421 1421 1421 1421 1421 1421 1421 1421 1421 1415 1415 1415 1415 1415 1415 1415 1415 1415 1410 1410 1404 1398 1398 1392 1392 1392 1392 1392 1392 1392 1392 1392 1392 1392 1392 1392 1794 1794 1794 1794 1804 1804 1804 1804 1804 1813 1813 1813 1813 1813 2129 2129 2129 2129 2129 2129 2129 2129 2129 2129 2129 2129 2116 2116 2129 2116 2116 2116 2116 2116 2116 1915 1915 1915 1915 1904 1904 1904 1915 1904 1904 1904 2129 2116 2116 2116 2116 2116 2116 2116 2116 2116 2116 2116 2116 2116 2116 2116 2116 2116 2116 2116 2116 2116 2116 2116 2116 2116 2116 2116 2103 2103 2103 2103 1477 1477 1470 1470 1470 1470 1464 1464 1464 1464 1464 1464 1464 1458 1458 1458 1458 1458 1458 1458 1452 1439 1433 1433 1433 2065 2078 2090 2090 2103 2103 2103 2103 2090 2090 2090 2090 2090 2090 2090 2090 2090 2090 2090 2090 2090 2090 2090 2090 2090 2090 2090 2090 2090 2090 2090 2090 2090 2090 2090 2090 2090 2090 2103 2103 2103 2103 2103 2103 2090 2090 2090 2090 2090 2090 2090 2090 2090 2090 2090 2090 2090 2090 2090 2090 2090 2103 2103 2090 2090 2090 2090 2090 2090 2090 2090 2090 2090 2090 2090 2090 2090 2090 2090 2090 2090 2090 2090 2078 2078 2078 2078 2078 2078 2078 2078 2078 2078 2065 2065 2065 2065 2065 2053 2053 2053 2053 2065 2065 2065 2065 2065 2065 2065 2065 2053 2053 2065 2065 2065 2065 2065 2065 2065 2065 2065 2065 2065 2065 2065 2053 2053 2053 2040 2040 0 0 0 0 0 0 0 0
0 0 0 0 0 0 0 0 0 0 0 0 0 0 0 0 0 0 0 0 0 0 0 0 0 0 0 0 0 0 0 0 0 0 2103 2090 2090 2103 2103 2103 2116 2103 2103 2103 2103 2103 2103 2090 2090 2103 2103 2103 2103 2103 2116 2103 2103 2103 2103 2103 2103 2103 2103 2103 2103 2103 2103 2103 2116 2090 2090 2090 2090 2090 2090 2090 2090 2090 2090 2090 2090 2090 2090 2090 2090 2090 2090 2090 2090 2090 2090 2090 2090 2090 2090 2090 2090 2078 2078 2078 2078 2090 2090 2090 2090 2090 2090 2090 2103 2103 2103 2103 2103 2103 2116 2116 1680 1680 1680 1680 1680 1680 1680 1671 1632 1616 1609 1609 1609 1601 1601 1601 1601 1609 1609 1616 1624 1624 1632 1632 1639 1639 1647 2103 2103 2103 2116 2116 2116 2116 2116 2116 2116 2116 2116 2129 2129 2129 1853 1853 1853 1853 1863 1863 1863 1873 1883 1883 1883 1894 2116 2078 2078 2065 2053 2040 2040 2040 2040 2040 2040 2040 2040 2040 2065 2078 2090 2103 2103 2116 2129 2129 2129 2116 2090 2090 2078 2078 2078 2078 2090 2090 2103 2103 2103 2116 2129 2129 2129 2143 2143 2143 2143 2129 2129 2129 1557 1557 1557 1557 1564 1564 1564 1564 1564 1564 1564 1564 1572 1579 1579 1579 1586 1586 2116 2116 2129 2143 2143 2143 2143 2129 2129 2129 2129 2129 2129 2129 2129 2129 2116 2116 2129 2129 2129 2129 2129 1863 1863 1863 1873 1883 1883 1883 1883 1894 1894 1926 1959 1959 1970 1970 1970 1464 1464 1464 1464 1458 1458 1458 1458 1458 1458 1458 1458 1464 1464 1464 1470 1470 1464 1464 1464 1464 1464 1863 1863 1863 1863 1873 1863 1863 1873 1873 1452 1445 1445 1445 1445 1445 1445 1445 1445 1445 1445 1445 1452 1445 1445 1445 1445 1445 1445 1439 1439 1439 1445 1445 1445 1445 1445 1439 1433 1433 1433 1433 1439 1439 1433 1433 1433 1433 1433 1433 1433 1433 1433 1433 1433 1433 1433 1433 1433 1433 1427 1427 1433 1433 1433 1427 1427 1421 1421 1421 1421 1421 1421 1421 1421 1421 1421 1421 1415 1415 1415 1415 1415 1415 1415 1415 1415 1415 1410 1410 1404 1398 1398 1398 1398 1392 1392 1392 1392 1392 1392 1392 1392 1392 1392 1794 1794 1794 1804 1804 1804 1804 1804 1804 1813 1813 1823 1823 2129 2116 2116 2116 2116 2116 2129 2129 2116 2116 2116 2116 2116 2116 2116 2116 2103 2103 2103 2116 2116 2116 1915 1915 1915 1915 1904 1904 1904 1915 1904 1904 1904 2103 2103 2103 2103 2103 2103 2103 2103 2103 2103 2103 2103 2103 2103 2103 2103 2103 2103 2103 2103 2103 2103 2103 2103 2103 2103 2103 2103 2103 2103 2103 2103 1477 1477 1477 1477 1470 1470 1470 1470 1470 1464 1464 1464 1464 1464 1464 1458 1458 1458 1458 1458 1452 1439 1433 1433 1433 2065 2078 2078 2090 2090 2090 2090 2090 2090 2090 2090 2078 2078 2078 2078 2078 2078 2078 2078 2078 2078 2078 2078 2078 2078 2078 2078 2090 2090 2090 2090 2090 2090 2090 2090 2090 2090 2090 2090 2090 2090 2090 2090 2078 2078 2078 2078 2078 2078 2078 2078 2078 2090 2078 2078 2078 2090 2090 2090 2090 2090 2090 2090 2090 2090 2090 2090 2090 2090 2090 2090 2090 2090 2090 2090 2090 2090 2090 2090 2090 2090 2090 2090 2065 2065 2065 2065 2065 2078 2078 2078 2065 2065 2065 2053 2053 2053 2053 2053 2053 2040 2040 2053 2053 2053 2053 2053 2053 2053 2053 2053 2053 2053 2053 2053 2065 2065 2065 2065 2065 2065 2065 2065 2053 2053 2053 2040 2040 2040 2040 0 0 0 0 0 0 0 0
0 0 0 0 0 0 0 0 0 0 0 0 0 0 0 0 0 0 0 0 0 0 0 0 0 0 0 0 0 0 0 0 0 0 2090 2090 2090 2090 2090 2090 2103 2090 2090 2090 2103 2090 2090 2078 2078 2090 2103 2103 2103 2103 2103 2103 2103 2090 2090 2090 2103 2090 2090 2090 2090 2090 2090 2090 2103 2078 2078 2078 2078 2078 2090 2090 2090 2090 2090 2090 2090 2090 2090 2090 2090 2090 2090 2090 2090 2090 2090 2090 2090 2090 2090 2078 2078 2078 2078 2078 2078 2078 2078 2078 2090 2090 2090 2090 2090 2103 2090 2090 2103 2103 2103 2103 1680 1680 1688 1688 1688 1688 1688 1671 1671 1624 1616 1609 1609 1601 1601 1601 1601 1609 1609 1616 1624 1624 1632 1632 1639 1639 1647 2103 2103 2103 2103 2103 2103 2103 2116 2116 2116 2116 2116 2129 2116 2116 1853 1853 1853 1853 1853 1863 1863 1873 1873 1873 1883 2116 2116 2090 2090 2065 2053 2040 2040 2040 2040 2040 2040 2040 2040 2040 2065 2078 2090 2103 2103 2116 2129 2129 2116 2103 2090 2078 2078 2078 2078 2078 2090 2090 2090 2103 2103 2116 2116 2116 2116 2116 2116 2116 2116 2116 2116 2116 1550 1550 1550 1557 1564 1564 1564 1564 1564 1564 1564 1572 1572 1579 1579 1579 1579 1586 2116 2116 2116 2129 2129 2129 2143 2129 2129 2129 2129 2129 2129 2129 2129 2129 2116 2116 2129 2129 2129 2129 1853 1853 1853 1863 1873 1883 1883 1883 1883 1894 1894 1926 1959 1970 1970 1970 1970 1970 1464 1464 1464 1458 1458 1458 1458 1458 1458 1458 1464 1464 1464 1470 1470 1470 1470 1464 1464 1843 1843 1853 1863 1863 1863 1863 1853 1853 1863 1863 1863 1445 1445 1445 1445 1445 1445 1445 1445 1452 1452 1452 1452 1445 1445 1445 1445 1445 1445 1439 1439 1439 1445 1445 1452 1445 1445 1439 1439 1439 1433 1433 1439 1439 1433 1433 1433 1433 1433 1433 1433 1433 1433 1433 1433 1433 1433 1433 1433 1433 1427 1427 1427 1433 1433 1427 1427 1421 1421 1421 1421 1421 1421 1421 1421 1421 1421 1421 1421 1421 1421 1415 1415 1415 1415 1415 1415 1415 1410 1410 1404 1404 1398 1398 1398 1398 1392 1392 1392 1392 1392 1392 1392 1392 0 1794 1794 1794 1804 1804 1804 1804 1804 1813 1813 1813 1823 1823 2129 2116 2116 2116 2116 2116 2116 2116 2116 2116 2116 2103 2103 2103 2103 2103 2103 2103 2103 2103 2116 2116 1915 1915 1915 1915 1904 1904 1904 1915 1904 1904 1904 2090 2090 2103 2103 2103 2103 2103 2103 2103 2103 2103 2103 2103 2103 2103 2103 2103 2090 2090 2090 2090 2090 2103 2103 2103 2103 2103 2103 2103 2103 2103 2103 1477 1477 1477 1477 1477 1477 1470 1470 1470 1470 1464 1464 1464 1464 1464 1464 1464 1458 1458 1458 1452 1439 1439 2078 2065 2065 2078 2078 2078 2090 2090 2078 2078 2078 2078 2078 2078 2078 2078 2078 2078 2078 2078 2078 2078 2078 2078 2065 2065 2065 2065 2065 2078 2078 2078 2078 2078 2078 2078 2078 2078 2078 2078 2078 2078 2078 2078 2078 2078 2078 2078 2078 2078 2078 2078 2078 2078 2078 2078 2078 2078 2078 2078 2078 2078 2078 2078 2078 2078 2078 2078 2090 2090 2078 2078 2090 2090 2078 2078 2078 2078 2078 2078 2090 2090 2090 2090 2078 2065 2065 2065 2065 2065 2065 2065 2065 2065 2065 2065 2053 2053 2053 2053 2040 2040 2028 2028 2040 2040 2040 2040 2040 2040 2040 2053 2053 2053 2040 2040 2053 2053 2053 2053 2053 2053 2053 2053 2053 2053 2053 2053 2040 2040 2040 2040 0 0 0 0 0 0 0 0
