0 0 0 0 0 0 0 0 0 0 0 0 0 0 0 0 0 0 0 0 0 0 0 0 0 0 0 0 0 0 6038 6038 6146 6146 6259 6259 6259 6259 6259 6259 6259 6259 6259 6259 6259 6259 6375 6375 6375 6375 6375 6375 6375 6375 6375 6375 6375 6259 6259 6259 6259 6259 6146 6146 6146 6146 6146 6146 6146 6146 6259 6259 6259 6259 6259 6259 6259 6259 6259 6259 6259 6259 6259 6259 6259 6259 6259 6259 6375 6375 6375 6375 6259 6259 6375 6375 6375 6375 6375 6497 6497 6497 6497 6497 6497 6497 6375 6375 6375 6375 6375 6375 6497 6497 6497 6497 6497 6497 6497 6497 6259 6259 6375 6375 6497 6497 6375 6259 6146 5640 5548 5460 5460 5548 2984 2984 3010 3010 3010 3010 3010 3010 3010 3010 3010 3010 3010 3037 3037 3037 3037 3010 3010 2984 2984 2984 2984 2984 2984 3010 3010 3037 3037 3037 3037 3037 3037 3037 3037 3037 3064 3064 3064 3064 3064 3064 3064 3064 3037 3037 3037 3037 3064 3064 3064 3064 3064 3064 3064 3064 3092 3092 3092 3092 3092 3092 3064 3064 3064 3092 3092 3120 3120 3120 3120 3120 3120 3120 3149 3149 3149 3149 3149 3149 3149 3149 3149 3149 3149 3149 3149 3149 3149 3149 3178 3178 3178 3178 3178 3178 3178 3149 3149 3149 3149 2143 2129 2129 2129 2129 3178 3178 3208 3208 3238 3238 3238 3269 3238 3238 3300 6889 6889 6889 6889 6889 6889 6753 6753 6622 6622 6622 6622 7030 7332 7492 7492 7492 7492 7492 7492 7332 7332 7332 7332 7332 7492 7492 7492 7492 7492 7492 7492 7492 7492 7492 7492 7492 7332 7332 7492 7492 7492 7332 7332 6889 6622 6622 6622 6622 0 0 0 0 0 2170 2170 2184 2184 2184 2198 2198 2184 2184 7660 7660 7660 7660 7660 7660 7660 7660 7660 7660 7660 7492 7332 7332 7332 2198 2212 2212 2212 2212 2212 2212 2212 2226 2226 2226 2226 2226 2226 2226 2226 2226 2226 2226 2226 2226 2226 2226 2226 2226 2226 2226 2226 2226 2226 2241 2241 4911 4983 2241 2241 2256 2241 2241 2241 2226 2226 2226 2241 4774 4774 4842 4842 2256 2256 2241 2241 4911 4911 4911 4842 4842 4774 4774 4774 4774 4774 4774 4774 4842 4842 4911 5056 5056 5132 5210 5210 5460 0 0 0 0 0 0 0 0 0 0 0 0 0 0 0 0 0 0 0 0 0 0 0 0 0 0 0 3433 3433 3468 3468 3468 3468 3468 3468 3468 3399 3399 3399 3399 3399 3433 3399 3399 3333 3333 3333 3333 3333 3333 3333 3300 3300 3300 3300 3300 3300 3300 3300 3300 3300 3300 3300 3300 3300 3300 3300 3300 3300 3300 3269 3269 3269 3269 3238 3238 3238 3238 3238 3269 3238 3238 3238 3238 3238 3238 3238 3238 3238 3269 3269 3300 3300 3333 3333 3333 3333 3333 3300 3269 3269 3300 3300 3269 3269 3333 3333 3269 3208 3300 3300 3238 3238 3238 3238 3238 3238 3238 0 0 0 3333 3333 3333 3300 3300 0 0 0 0 0 0 3399 3365 3365 3333 3333 3333 3333 3333 3333 3269 3238 3238 3208 3178 2835 2835 2835 2835 2835 2835 2835 2835 2835 2835 2835 2812 2812 2812 2812 2812 2812 2812 2835 2835 2835 2835 2835 2812 2812 2812 2812 2812 2812 2812 2812 2812 2812 2812 2812 2812 2812 2812 2812 2812 2789 2789 2789 2789 2789 2767 2767 2767 2789 2789 2789 2789 2812 2812 2812 2812 2812 2812 2812 2812 2835 2835 2835 2835 2835 2835 2835 2835 2835 2835 2835 2835 2835 2812 2789 2789 0 0 0 0 0 0 0 0 0 0 0 0 0 0 0 0
0 0 0 0 0 0 0 0 0 0 0 0 0 0 0 0 0 0 0 0 0 0 0 0 0 0 0 0 0 0 6038 6038 6146 6146 6259 6259 6259 6259 6259 6259 6259 6259 6259 6259 6259 6259 6375 6375 6375 6375 6375 6375 6375 6375 6375 6375 6259 6259 6259 6259 6259 6259 6146 6038 6038 6146 6146 6146 6146 6146 6146 6259 6259 6259 6259 6259 6259 6259 6259 6259 6259 6259 6259 6259 6259 6259 6259 6375 6375 6375 6375 6375 6375 6375 6375 6375 6375 6375 6375 6375 6497 6497 6497 6497 6497 6497 6375 6375 6375 6375 6375 6375 6375 6375 6375 6375 6375 6375 6375 6375 6375 6375 6375 6375 6375 6497 6259 6146 6038 5548 5460 5460 5460 5460 5460 3010 3010 3010 3010 3010 3010 3010 3010 3010 3010 3010 3010 3037 3037 3037 3037 3010 3010 2984 2984 2984 2984 2984 3010 3010 3037 3037 3037 3037 3037 3037 3037 3037 3037 3037 3064 3064 3064 3064 3064 3064 3064 3064 3037 3037 3037 3037 3037 3037 3064 3064 3064 3064 3092 3092 3092 3092 3092 3092 3092 3092 3064 3064 3064 3064 3092 3092 3120 3120 3120 3120 3120 3120 3120 3149 3149 3149 3149 3149 3149 3149 3149 3149 3149 3149 3149 3149 3149 3149 3178 3178 3178 3178 3178 3178 3178 3178 3178 3178 2129 2129 2129 2129 2129 2129 3178 3178 3208 3208 3238 3238 3238 3269 3269 3269 3269 3269 7030 6889 6889 6889 6889 6753 6622 6622 6622 6622 6622 6889 7332 7492 7492 7492 7492 7492 7332 7332 7178 7178 7178 7332 7332 7492 7492 7492 7492 7492 7492 7492 7332 7332 7332 7332 7332 7332 7332 7492 7492 7332 7332 6753 6622 6622 6622 6622 0 0 0 0 0 2170 2170 2184 2184 2184 2198 2198 2198 2198 2212 7660 7660 2212 2212 2212 7660 7660 7660 7660 7660 7660 2212 2212 2198 2198 2212 2212 2212 2212 2198 2198 2212 2226 2226 2226 2226 2226 2226 2226 2226 2226 2226 2226 2226 2226 2226 2226 2226 2226 2226 2226 2226 2226 2226 2241 2241 2241 2241 2241 2241 2256 2241 2241 2241 2226 2226 2226 2241 2241 2241 2256 2256 2256 2256 2241 2241 2241 2256 2256 2256 2271 2271 4911 4911 4911 4911 4842 4842 4911 4911 5056 5132 5210 5210 5291 5291 5460 0 0 0 0 5210 5210 0 0 0 0 0 0 0 0 0 0 0 0 0 0 0 0 0 0 0 0 0 0 3468 3468 3468 3503 3468 3468 3468 3468 3433 3433 3399 3399 3433 3433 3399 3399 3333 3333 3333 3333 3333 3333 3333 3333 3300 3300 3300 3300 3300 3300 3300 3300 3300 3300 3300 3269 3269 3238 3238 3238 3269 3238 3238 3238 3238 3238 3238 3238 3238 3238 3238 3238 3208 3208 3208 3208 3208 3208 3208 3208 3208 3238 3238 3238 3269 3300 3300 3300 3300 3269 3178 3178 3238 3269 3269 3269 3238 3238 3238 3269 3208 3208 3208 3208 3208 3208 3178 3178 3208 0 3178 0 3300 3300 3300 3300 3269 3269 0 0 0 0 0 0 3269 3269 3269 3300 3300 3300 3269 3269 3269 3238 3208 3208 3178 3149 3149 2859 2859 2859 2835 2835 2835 2835 2835 2835 2835 2835 2835 2835 2835 2812 2812 2835 2835 2835 2835 2835 2835 2835 2812 2812 2812 2812 2812 2812 2812 2812 2789 2789 2812 2812 2812 2812 2812 2812 2789 2789 2789 2789 2789 2767 2767 2767 2789 2789 2789 2812 2812 2812 2812 2812 2812 2835 2835 2835 2835 2835 2835 2835 2835 2835 2835 2835 2835 2835 2812 2812 2835 2812 2789 2789 5640 5640 0 0 0 0 0 0 0 0 0 0 0 0 0 0
0 0 0 0 0 0 0 0 0 0 0 0 0 0 0 0 0 0 0 0 0 0 0 0 0 0 0 0 0 0 6038 6038 6038 6146 6259 6259 6259 6259 6259 6259 6259 6259 6259 6259 6259 6259 6375 6375 6375 6375 6375 6375 6375 6375 6375 6375 6259 6259 6259 6259 6259 6259 6146 6038 6038 6146 6146 6146 6146 6146 6146 6259 6259 6259 6259 6259 6259 6259 6259 6259 6259 6259 6259 6259 6259 6259 6259 6259 6375 6375 6375 6375 6375 6375 6375 6375 6375 6375 6375 6375 6497 6497 6497 6375 6375 6497 6375 6375 6375 6375 6375 6375 6375 6375 6375 6375 6375 6375 6375 6375 6259 6259 6259 6259 6259 6375 6146 6146 6038 5548 5460 5460 5460 5460 5460 2984 2984 3010 3010 3010 3010 3010 3010 3010 3010 3010 3010 3037 3037 3037 3037 3010 2984 2984 2984 2984 2984 2028 2028 2028 2028 2040 3037 3037 3037 3037 3037 3037 3037 3037 3064 3064 3064 3064 3064 3064 3064 3064 3037 3037 3037 3037 3037 3037 3037 3064 3064 3064 3092 3092 3092 3092 2078 2078 2078 2078 2078 2078 2078 2090 3092 3092 3092 3120 3120 3120 3120 2103 2103 3149 3149 3149 3149 3149 3149 3149 3149 3149 3149 3149 3149 3149 3149 3178 3178 3178 3178 3178 3178 3178 3208 3178 3178 3208 2129 2129 2129 2129 2129 2129 2129 2116 2116 3208 3238 3238 3238 3238 3269 3269 3269 3269 6889 6889 6889 6889 6889 6622 6497 6497 6497 6497 6497 6622 6889 7332 7492 7492 7492 7332 7332 7178 7178 7178 7178 7178 7178 7332 7332 7492 7492 7492 7492 7332 7332 7178 7178 7030 7030 7030 7178 7332 7332 7332 7030 6622 6622 6622 6622 6622 0 0 0 0 0 2170 2170 2184 2184 2184 2198 2198 2198 2198 2198 2198 2212 2212 2212 0 0 0 2226 2226 2226 2212 2212 2212 2198 2198 2198 2198 2212 2212 2198 2198 2212 2212 2226 2226 2226 2226 2226 2212 2212 2212 2226 2226 2226 2226 2226 2226 2226 2226 2226 2226 2226 2226 2226 2241 2241 2241 2241 2241 2241 2256 2241 2241 2241 2226 2226 2226 2241 2241 2241 2256 2256 2256 2256 2256 2241 2241 2256 2256 2271 2271 0 0 4911 4911 4911 4911 4911 4983 5056 5132 5210 5210 5291 5291 5291 5374 5210 5210 5210 0 5210 5210 0 0 0 0 0 0 0 0 0 0 0 0 0 0 0 0 0 0 0 0 0 0 0 3433 3433 3468 3468 3468 3468 3468 3433 3433 3399 3399 3433 3433 3399 3399 3365 3365 3333 3333 3333 3333 3333 3333 3300 3300 3300 3300 3300 3300 3300 3300 3300 3300 3300 3269 3269 3238 3238 3238 3238 3238 3238 3238 3238 3238 3238 3238 3238 3238 3238 3238 3208 3208 3208 3208 3208 3208 3208 3208 3208 3208 3208 3238 3238 3238 3238 3238 3238 3238 3178 3178 3208 3208 3208 3208 3208 3208 3208 3208 3178 3178 3178 3178 3178 3178 3178 3178 3178 3178 3178 3269 3269 3238 3238 3269 3238 3208 3208 3178 3178 3178 3178 3178 3149 3149 3178 3208 3208 3269 3269 3269 3238 3238 3208 3208 3178 3149 3149 2958 2859 2859 2835 2835 2835 2835 2835 2835 2835 2835 2835 2835 2835 2835 2835 2835 2835 2835 2835 2835 2835 2835 2835 2835 2812 2812 2812 2812 2812 2812 2789 2789 2812 2812 2812 2812 2835 2835 2789 2789 2767 2767 2789 2744 2744 2744 2789 2789 2812 2812 2812 2812 2812 2812 2835 2835 2835 2835 2835 2835 2835 2835 2835 2835 2835 2835 2835 2835 2812 2812 2835 2812 2812 5640 5640 5548 5548 0 0 0 0 0 0 0 0 0 0 0 0 0
0 0 0 0 0 0 0 0 0 0 0 0 0 0 0 0 0 0 0 0 0 0 0 0 0 0 0 0 0 0 6038 6038 6038 6146 6259 6259 6259 6259 6259 6259 6259 6259 6259 6259 6259 6259 6375 6375 6375 6375 6375 6375 6375 6375 6375 6375 6259 6259 6259 6259 6259 6259 6146 6146 6146 6146 6146 6146 6146 6146 6146 6259 6259 6259 6259 6259 6259 6259 6259 6259 6259 6259 6259 6259 6259 6259 6259 6259 6375 6375 6375 6375 6375 6375 6375 6375 6375 6375 6375 6375 6497 6375 6375 6375 6375 6375 6375 6375 6375 6375 6375 6375 6375 6375 6375 6375 6375 6375 6375 6375 6259 6259 6259 6259 6259 6375 6146 6146 6038 5640 5548 5460 5460 5460 5460 2984 2958 2958 3010 3010 3010 3010 3010 3010 3010 3010 3010 3037 3037 3037 3010 2984 2984 2984 2984 2984 2016 2016 2028 2028 2028 2040 2040 2040 3037 3037 3037 3037 3037 3037 3064 3064 3064 3064 3064 3064 3064 3064 3037 3037 3037 3037 3037 3037 3037 3037 3037 3037 3092 2078 2065 2065 2078 2078 2078 2078 2078 2078 2078 2090 2090 2090 2090 2103 2103 2103 2103 2103 2103 2103 2103 2103 2103 2103 2103 2103 3149 3149 3149 3149 3149 3149 3178 3178 3178 3178 3178 3178 3178 3178 3208 3178 2170 2156 2129 2129 2129 2129 2129 2129 2129 2116 2116 2129 3238 3238 3238 3238 3238 3269 3269 3269 6889 6889 6889 6889 6753 6497 6497 6497 6497 6497 6497 6497 6889 7332 7492 7492 7492 7332 7178 7030 7030 7030 7030 7030 7030 7030 7178 7332 7492 7492 7492 7332 7178 7030 7030 6889 6889 7030 7030 7030 7178 7178 6889 6622 6622 6622 6622 0 0 0 0 0 0 2170 2170 2170 2184 2184 2184 2184 2184 2198 2198 2198 2198 2212 2212 2212 2212 2226 2226 2226 2226 2226 2226 2212 2198 2198 2198 2198 2212 2212 2198 2198 2212 2212 2212 2226 2226 2226 2226 2212 2212 2212 2226 2226 2226 2226 2226 2226 2226 2226 2226 2226 2226 2226 2241 2241 2241 2241 2256 2256 2256 2256 2241 2241 2241 2241 2241 2241 2241 2241 2241 2256 2256 2256 2256 2256 2256 2256 2256 2271 2271 2271 0 0 4983 4983 4983 4983 4983 5056 5132 5210 5210 5210 5291 5291 5291 5291 5210 5210 5210 5210 5210 5210 0 0 0 0 0 0 0 0 0 0 0 0 0 0 0 0 0 0 0 0 0 0 0 3433 3433 3468 3468 3468 3468 3468 3468 3468 3433 3433 3433 3433 3399 3365 3365 3365 3333 3333 3333 3333 3333 3333 3300 3300 3300 3300 3300 3300 3300 3300 3300 3300 3300 3269 3269 3238 3238 3238 3238 3238 3238 3238 3238 3238 3238 3238 3238 3238 3208 3208 3208 3208 3208 3208 3208 3208 3208 3208 3208 3208 3208 3208 3208 3238 3238 3238 3238 3208 3178 3178 3178 3178 3178 3178 3178 3178 3178 3178 3178 3178 3178 3178 3178 3178 3178 3178 3178 3178 3178 3178 3178 3178 3178 3208 3208 3178 3178 3178 3149 3120 3120 3120 3120 3149 3178 3178 3208 3238 3238 3238 3208 3208 3178 3178 3178 3149 3120 3092 2883 2859 2835 2835 2835 2835 2835 2835 2835 2835 2835 2835 2835 2835 2835 2835 2835 2835 2835 2835 2835 2835 2835 2835 2835 2812 2812 2812 2812 2812 2812 2812 2812 2812 2812 2835 2835 2812 2767 2767 2767 2767 2789 2744 2744 2744 2789 2789 2812 2812 2812 2812 2812 2812 2835 2835 2835 2835 2835 2835 2835 2835 2835 2859 2859 2835 2835 2812 2812 2812 2812 2789 2767 2767 5640 5548 5548 0 0 0 0 0 0 0 0 0 0 0 0 0
0 0 0 0 0 0 0 0 0 0 0 0 0 0 0 0 0 0 0 0 0 0 0 0 0 0 0 0 0 0 6038 6038 6146 6146 6146 6146 6259 6259 6259 6259 6259 6259 6259 6259 6259 6375 6375 6375 6375 6375 6375 6375 6375 6375 6375 6375 6259 6259 6146 6146 6146 6146 6038 6038 6038 6146 6146 6146 6146 6146 6146 6259 6259 6259 6259 6259 6259 6259 6259 6259 6259 6259 6259 6259 6259 6259 6259 6259 6375 6375 6375 6375 6375 6375 6259 6259 6259 6259 6259 6375 6375 6259 6259 6259 6259 6259 6259 6259 6375 6375 6375 6375 6375 6375 6375 6375 6375 6375 6375 6375 6259 6259 6259 6259 6259 6259 6146 6038 5832 5548 5548 5460 5460 5460 5460 3037 2958 2958 3010 3010 3037 3010 3010 3010 3010 3010 3010 3037 3037 3037 3010 2984 2984 2958 2958 2958 2016 2016 2028 2028 2028 2028 2028 2040 2040 2040 2065 3037 3037 3037 3064 3064 3064 3064 3064 3064 3064 3064 3037 3037 2065 2065 2053 2053 3037 3037 3037 2065 2065 2065 2065 2065 2078 2078 2078 2078 2078 2090 2090 2090 2090 2090 2090 2103 2103 2103 2103 2103 2103 2103 2103 2103 2103 2103 2103 2103 2116 2116 2103 2103 2116 2116 2143 3178 3208 3208 3208 3178 3178 3178 2143 2143 2143 2143 2129 2129 2129 2129 2129 2129 2129 2116 2116 2129 2143 3238 3238 3238 3238 3269 3269 3269 3269 6889 6889 6753 6622 6497 6375 6375 6497 6497 6497 6497 7332 7332 7332 7332 7332 7332 7030 6889 6889 6889 6889 6889 6889 7030 7030 7178 7178 7332 7332 7332 7178 7030 7030 6889 6889 7030 7030 7030 7030 6889 6753 6622 6622 6622 6622 0 0 0 0 0 0 2170 2170 2170 2184 2184 2184 2184 2184 2184 2198 2198 2198 2198 2198 2212 2212 2226 2226 2226 2226 2226 2226 2226 2212 2212 2212 2212 2212 2212 2198 2198 2212 2212 2212 2226 2226 2226 2226 2226 2226 2226 2226 2226 2226 2226 2226 2226 2226 2226 2226 2226 2241 2241 2241 2241 2241 2256 2256 2256 2256 2256 2241 2241 2241 2241 2241 2241 2241 2241 2241 2256 2256 2256 2256 2256 2256 2256 2271 2271 2271 2271 2286 0 4983 4983 4983 4983 4983 5056 5132 5210 5210 5210 5210 5291 5291 5291 5210 5210 5210 5210 5210 5210 0 0 0 0 0 0 0 0 0 0 0 0 0 0 0 0 0 0 0 0 0 0 0 3468 3468 3468 3433 3433 3468 3468 3503 3503 3503 3468 3433 3433 3399 3333 3333 3365 3365 3365 3333 3333 3333 3333 3333 3300 3300 3300 3300 3300 3300 3300 3300 3300 3300 3300 3300 3269 3269 3238 3238 3238 3238 3238 3238 3238 3238 3238 3238 3238 3208 3208 3208 3208 3178 3178 3208 3208 3208 3178 3178 3208 3208 3208 3208 3208 3208 3208 3208 3208 3178 3178 3178 3178 3178 3178 3178 3178 3178 3178 3178 3149 3149 3149 3149 3149 3149 3178 3178 3178 3149 3149 3149 3149 3149 3178 3178 3178 3149 3149 3149 3120 3120 3120 3120 3149 3149 3149 3178 3208 3208 3208 3178 3178 3178 3149 3149 3149 3120 3120 3120 2859 2835 2835 2835 2835 2835 2835 2835 2835 2835 2835 2835 2835 2835 2835 2835 2835 2835 2859 2859 2859 2859 2835 2835 2835 2835 2835 2835 2835 2812 2812 2812 2812 2812 2812 2812 2812 2767 2767 2767 2767 2767 2744 2744 2744 2789 2789 2789 2789 2812 2812 2812 2835 2835 2835 2835 2859 2859 2859 2859 2859 2859 2859 2859 2835 2835 2812 2812 2812 2812 2789 2767 2767 5548 5548 5548 0 0 0 0 0 0 0 0 0 0 0 0 0
0 0 0 0 0 0 0 0 0 0 0 0 0 0 0 0 0 0 0 0 0 0 0 0 0 0 0 0 0 0 6038 6038 6038 6146 6146 6146 6146 6146 6259 6259 6259 6259 6259 6259 6259 6259 6375 6375 6375 6375 6375 6375 6375 6375 6375 6375 6259 6259 6146 6146 6146 6038 6038 6038 6038 6146 6146 6146 6146 6146 6146 6259 6259 6259 6259 6259 6259 6375 6375 6375 6375 6375 6259 6259 6259 6259 6259 6259 6375 6497 6497 6497 6375 6375 6259 6259 6259 6259 6259 6375 6259 6259 6259 6259 6259 6259 6259 6259 6375 6375 6375 6375 6375 6375 6375 6375 6375 6375 6375 6375 6259 6259 6259 6259 6259 6259 3092 3092 3092 3064 3064 3092 5460 5460 5548 3037 3037 3037 3010 3010 3037 3010 3010 3010 3010 3010 3010 3037 3037 3010 3010 2984 2984 2958 2958 2016 2016 2016 2028 2028 2028 2028 2028 2028 2040 2040 2040 2040 2040 2040 2040 2040 3064 3064 3064 3064 3064 2040 2040 2053 2065 2065 2053 2053 2065 2065 2078 2065 2065 2065 2078 2078 2078 2078 2090 2090 2090 2090 2090 2090 2090 2090 2090 2090 2090 2103 2103 2103 2103 2103 2103 2103 2103 2103 2103 2116 2116 2116 2103 2103 2116 2116 2129 2129 2129 2129 2129 2143 2143 2143 2143 2129 2129 2143 2129 2129 2129 2143 2143 2143 2143 2129 2129 2143 2143 3238 3238 3238 3238 3238 3238 0 0 0 7332 6753 6497 6497 6375 6375 6375 6375 6375 6497 7332 7332 7332 7332 7332 7332 7030 6889 6753 6753 6889 6889 6889 7030 7030 7030 7178 7332 7332 7332 7178 7178 7030 6889 6889 7030 7030 7030 7030 6889 6753 6622 6622 6622 6497 6497 6375 6375 0 0 0 0 2170 2170 2184 2184 2184 2184 2184 2184 2198 2198 2198 2198 2198 2212 2212 2226 2226 2226 2226 2226 2226 2226 2212 2212 2212 2212 2212 2212 2212 2212 2212 2212 2212 2212 2226 2226 2226 2226 2226 2226 2226 2226 2226 2226 2226 2241 2241 2241 2241 2226 2226 2226 2226 2256 2256 2256 2256 2256 2256 2256 2241 2241 2241 2256 2241 2241 2241 2241 2241 2256 2256 2256 2256 2256 2256 2256 2271 2271 2271 2286 0 0 0 4983 4983 4983 5056 5056 5132 5210 5210 5210 5210 5291 5291 5291 5132 5132 5132 5132 5132 5132 0 0 0 0 0 0 0 0 0 0 0 0 0 0 0 0 0 0 0 0 0 0 0 0 3468 3468 3433 3433 3468 3468 3503 3503 3503 4139 3333 3333 3333 3300 3300 3333 3333 3333 3333 3333 3333 3333 3333 3333 3333 3300 3300 3300 3300 3300 3300 3300 3300 3300 3269 3269 3269 3269 3269 3238 3238 3238 3238 3238 3238 3238 3238 3238 3238 3208 3208 3208 3178 3178 3178 3208 3208 3178 3178 3208 3208 3208 3178 3178 3178 3178 3178 3178 3149 3149 3149 3149 3149 3178 3178 3178 3178 3178 3149 3149 3149 3149 3149 3149 3149 3149 3178 3149 3149 3149 3149 3149 3149 3149 3149 3149 3149 3149 3149 3120 3120 3149 3149 3149 3149 3149 3149 3178 3178 3178 3149 3149 3149 3149 3149 3149 3149 3120 3120 2859 2835 2835 2835 2835 2835 2835 2835 2835 2835 2835 2835 2835 2835 2859 2859 2859 2859 2859 2859 2859 2859 2859 2859 2859 2859 2859 2835 2835 2812 2812 2812 2812 2812 2812 2812 2812 2767 2767 2767 3269 3300 3300 3333 3365 2789 2789 2789 2789 2812 2812 2812 2835 2835 2835 2835 2859 2859 2859 2859 2859 2859 2859 2859 2835 2835 2812 2812 2835 2789 2744 2744 2789 5548 5548 5548 0 0 0 0 0 0 0 0 0 0 0 0 0
0 0 0 0 0 0 0 0 0 0 0 0 0 0 0 0 0 0 0 0 0 0 0 0 0 0 0 0 0 0 6038 6038 6038 6146 6038 6038 6038 6038 6146 6146 6146 6259 6259 6259 6259 6259 6375 6375 6375 6375 6375 6375 6375 6375 6375 6259 6259 6259 6146 6146 6146 6038 6038 6038 6038 6146 6146 6146 6146 6146 6146 6146 6146 6146 6146 6259 6259 6375 6375 6375 6375 6375 6375 6375 6259 6259 6259 6259 6375 6497 6497 6375 6259 6259 6146 6146 6259 6259 6259 6259 6259 6259 6259 6259 6259 6259 6259 6259 6375 6375 6375 6375 6375 6375 6375 6375 6375 6375 6375 6375 6375 6375 6375 6375 6375 3092 3092 3092 3064 3010 3010 3010 5460 5460 5548 3037 3037 3037 3010 3010 3037 3010 3010 3010 3010 3010 3010 3037 3037 3010 3010 2984 2984 2984 2016 2016 2016 2016 2028 2028 2028 2028 2028 2028 2040 2040 2040 2040 2040 2040 2040 2040 2040 2040 2040 2053 2040 2040 2040 2053 2065 2065 2065 2065 2065 2065 2065 2065 2078 2078 2078 2078 2078 2090 2090 2090 2090 2090 2090 2090 2090 2090 2090 2090 2090 2103 2103 2103 2103 2103 2103 2116 2116 2116 2116 2116 2116 2116 2116 2116 2116 2116 2116 2116 2116 2129 2129 2143 2143 2143 2129 2129 2129 2129 2129 2129 2143 2143 2143 2143 2143 2129 2129 2143 2143 3238 3238 3238 3238 3238 3238 3238 0 7332 7332 7332 6497 6497 6375 6375 6375 6375 6375 6375 7332 7332 7178 7178 7332 7178 7030 7030 6753 6753 6753 6889 6889 7030 7030 7030 7178 7332 7332 7178 7178 7030 7030 7030 7030 7030 7030 7030 7030 6497 6497 6497 6497 6497 6497 6497 6375 6375 0 0 0 0 2170 2170 2184 2184 2184 2184 2184 2198 2198 2198 2212 2212 2212 2212 2226 2226 2226 2226 2226 2226 2226 2226 2212 2212 2212 2212 2212 2212 2212 2212 2212 2212 2212 2212 2226 2226 2226 2226 2226 2226 2226 2226 2226 2226 2241 2241 2241 2241 2241 2226 2226 2226 2226 2256 2256 2256 2256 2256 2256 2256 2241 2241 2241 2256 2256 2256 2256 2256 2256 2256 2256 2256 2256 2256 2256 2256 2256 2271 2271 2286 2286 0 4983 4983 4983 4983 5056 5056 5132 5210 5210 5210 5291 5291 5291 5291 5132 5132 5132 5132 5132 5132 0 0 0 0 0 0 0 0 0 0 0 0 0 0 0 0 0 0 0 0 0 0 0 0 0 0 4089 4089 4089 4089 4089 4089 4139 4139 4190 3333 3333 3300 3300 3300 3333 3333 3333 3333 3333 3333 3333 3333 3333 3333 3333 3333 3300 3300 3300 3300 3300 3300 3269 3269 3269 3269 3269 3238 3238 3238 3238 3238 3238 3238 3269 3238 3238 3238 3208 3208 3178 3178 3178 3208 3208 3208 3208 3208 3208 3208 3178 3178 3178 3178 3178 3178 3149 3149 3149 3149 3149 3149 3149 3178 3178 3149 3120 3120 3120 3120 3149 3149 3149 3149 3149 3149 3149 3149 3149 3149 3120 3120 3120 3120 3120 3120 3149 3120 3120 3120 3120 3149 3149 3149 3149 3149 3149 3149 3120 3120 3120 3120 3120 3120 3120 3064 3064 2883 2859 2835 2835 2835 2835 2835 2835 2835 2835 2835 2835 2835 2859 2859 2859 2859 2859 2859 2859 2859 2859 2883 2859 2859 2883 3092 3092 3120 3120 3149 3149 3149 3149 3178 2835 2835 3208 3238 3269 3269 3300 3300 3333 3365 3399 2789 2789 2789 2812 2812 2812 2835 2835 2835 2835 2859 2859 2859 2859 2835 2835 2859 2859 2859 2835 2835 2835 2835 2789 2744 2744 5548 5548 5548 5548 0 0 0 0 0 0 0 0 0 0 0 0 0
0 0 0 0 0 0 0 0 0 0 0 0 0 0 0 0 0 0 0 0 0 0 0 0 0 0 0 0 0 0 5933 5933 5933 5933 5933 5933 5933 5933 6038 6038 6038 6146 6146 6259 6259 6259 6259 6259 6259 6259 6259 6375 6375 6375 6375 6259 6259 6146 6038 6038 6038 5933 5933 5933 5933 6146 6146 6146 6146 6146 6146 6146 6146 6146 6146 6259 0 0 0 0 0 6375 6375 6375 6259 6259 6375 6375 6375 6497 6375 6375 6259 6146 6038 6038 6146 6146 6146 6146 6146 6259 6259 6146 6146 6259 6259 6259 6375 6375 6375 6375 6375 6375 6375 6375 2908 6375 6375 6375 6375 2908 2908 2958 3064 3064 3037 3037 3010 2984 2984 2984 2984 2984 3037 3037 3037 3037 3010 3010 3037 3010 3010 3010 3010 3010 3010 3037 3037 3010 3010 2984 2958 2958 2958 2016 2016 2016 2028 2028 2028 2028 2028 2028 2040 2040 2040 2040 2040 2040 2040 2040 2040 2040 2040 2053 2040 2040 2053 2065 2065 2065 2065 2065 2065 2065 2065 2065 2078 2078 2078 2078 2078 2090 2090 2090 2090 2090 2090 2090 2090 2090 2090 2090 2090 2090 2103 2103 2103 2103 2103 2116 2116 2116 2116 2116 2116 2116 2116 2116 2116 2116 2116 2116 2116 2129 2129 2129 2143 2143 2129 2129 2129 2129 2129 2129 2129 2143 2143 2143 2143 2143 2143 2143 2143 2156 3208 3208 3208 3208 3238 3238 0 7492 7492 7492 7492 6375 6375 6375 6375 6375 6497 6497 6497 7178 7178 7178 7332 7178 7030 7030 6622 6622 6622 6753 6889 7030 7030 7030 7178 7332 7332 7178 7030 7030 6889 6889 6889 6889 6889 6889 0 0 6497 6497 6497 6497 6497 6497 6375 6375 0 0 0 0 2184 2184 2184 2184 2184 2184 2198 2198 2198 2198 2212 2212 2212 2226 2226 2226 2226 2226 2226 2226 2226 2226 2212 2212 2212 2212 2212 2212 2212 2212 2212 2212 2212 2212 2226 2226 2226 2226 2226 2226 2241 2226 2226 2241 2241 2241 2241 2241 2241 2241 2226 2226 2226 2256 2256 2256 2256 2241 2241 2256 2241 2241 2241 2256 2256 2256 2256 2241 2241 2241 2241 2241 2256 2256 2256 2256 2256 2271 2271 2286 2286 2271 5056 5056 5056 5056 5056 5132 5210 5210 5210 5210 5291 5210 5210 5210 5132 5132 5210 5132 5132 0 0 0 0 0 0 0 0 0 0 0 0 0 0 0 0 0 0 0 0 0 0 0 0 0 0 0 4089 4089 4089 4089 4089 4089 4139 4190 4190 4190 4190 3300 3300 3300 3333 3333 3333 3333 3333 3365 3333 3333 3333 3333 3300 3300 3300 3300 3300 3300 3269 3269 3269 3269 3269 3269 3269 3269 3269 3269 3269 3269 3238 3238 3238 3238 3238 3238 3208 3208 3208 3208 3208 3208 3208 3208 3208 3208 3208 3208 3178 3178 3178 3178 3178 3178 3149 3149 3149 3149 3149 3149 3149 3149 3149 3149 3120 3120 3120 3120 3149 3149 3149 3149 3149 3149 3120 3120 3149 3120 3120 3120 3120 3120 3120 3120 3120 3120 3120 3120 3120 3120 3120 3120 3149 3149 3120 3120 3120 3120 3120 3120 3120 3120 3120 3064 3064 2883 2859 2835 2835 2835 2835 2835 2835 2835 2835 2835 2835 2859 2859 2859 2859 2859 2859 2859 2859 2859 2883 2883 2933 3120 3120 3149 3149 3149 3149 3178 3178 3178 3178 3208 3208 3208 3208 3238 3269 3269 3300 3300 3333 3365 3399 2789 2789 2789 2812 2812 2812 2835 2835 2835 2859 2859 2859 2859 2859 2835 2835 2835 2835 2835 2835 2835 2835 2835 5548 5548 5548 5548 5548 5548 5548 0 0 0 0 0 0 0 0 0 0 0 0 0
0 0 0 0 0 0 0 0 0 0 0 0 0 0 0 0 0 0 0 0 0 0 0 0 0 0 0 0 0 0 5933 5933 5933 5933 5832 5832 5832 5933 6038 5933 5933 6038 6038 6259 6259 6259 6259 6259 6259 6259 6259 6259 6375 6375 6375 6259 6259 6146 6038 6038 6038 5933 5933 5933 5933 6146 6146 6146 6146 6146 6146 6146 6146 6146 6146 0 0 0 0 0 0 6375 6375 6375 6146 6146 6259 6259 6375 6497 6375 6375 6146 6146 5832 5832 6146 6146 6146 6146 6146 6375 6375 6146 6146 6259 6259 6259 6375 6375 6375 6375 2908 2883 2883 2883 2908 2908 2883 2883 2883 2908 2908 2958 2958 2984 2984 2984 2984 2984 2984 2984 2984 2984 2984 3010 3037 3037 3010 3010 3010 3010 2984 2984 2984 2984 2984 3010 3010 3010 2984 2984 2958 2958 2958 2016 2016 2028 2028 2028 2028 2028 2028 2028 2040 2040 2040 2040 2040 2040 2040 2040 2040 2040 2053 2053 2053 2065 2065 2065 2078 2078 2065 2065 2078 2078 2078 2078 2078 2078 2078 2078 2090 2090 2090 2090 2090 2090 2090 2090 2090 2090 2090 2090 2090 2090 2103 2103 2103 2103 2103 2116 2116 2116 2116 2116 2116 2116 2116 2116 2116 2116 2129 2129 2129 2129 2129 2129 2143 2143 2129 2129 2129 2129 2129 2129 2129 2143 2143 2143 2143 2143 2143 2143 2143 2143 3208 3208 3178 3178 3178 3178 0 0 3064 0 6375 6375 6375 6375 6375 6375 6497 6497 0 7178 7178 7178 7332 7332 7332 6622 6622 6622 6622 6753 6889 7030 7030 7030 7178 7332 7332 7178 7030 7030 6889 6889 6889 6889 6889 6889 0 0 6497 6497 6497 6497 6497 6375 6375 6375 0 0 0 0 2184 2184 2184 2198 2198 2198 2198 2198 2198 2198 2212 2212 2212 2226 2226 2226 2226 2226 2226 2226 2226 2226 2212 2212 2212 2212 2212 2212 2212 2212 2212 2212 2212 2226 2226 2226 2226 2226 2241 2241 2241 2241 2241 2241 2241 2241 2241 2241 2241 2241 2241 2226 2226 2256 2256 2256 2256 2241 2241 2256 2241 2241 2241 2256 2256 2256 2241 2241 2241 2241 2241 2241 2241 2256 2256 2256 2271 2271 2271 2271 2271 0 5056 5056 5056 5056 5132 5132 5210 5210 5210 5210 5210 5132 5132 5132 5132 5132 5210 0 0 0 0 0 0 0 0 0 0 0 0 0 0 0 0 0 0 0 0 0 0 0 0 0 0 0 0 4139 4089 4089 4089 4089 4089 4139 4139 4190 4190 4190 4190 4190 3300 3300 3300 3300 3333 3333 3333 3365 3333 3333 3333 3333 3300 3300 3300 3300 3300 3269 3269 3269 3269 3269 3269 3269 3269 3269 3269 3269 3269 3269 3269 3269 3238 3238 3238 3238 3208 3208 3208 3208 3208 3208 3208 3208 3208 3208 3208 3208 3178 3178 3178 3178 3178 3178 3149 3149 3149 3149 3149 3149 3149 3149 3149 3149 3120 3120 3120 3149 3149 3149 3149 3149 3149 3149 3120 3120 3149 3120 3120 3120 3120 3120 3120 3120 3120 3120 3120 3120 3120 3120 3120 3120 3120 3120 3120 3120 3120 3120 3092 3092 3092 3120 3120 3064 3064 2908 2859 2859 2859 2859 2859 2835 2835 2859 2859 2859 2859 2859 2859 2859 2859 2859 2859 2859 2859 2859 2883 2958 3064 3149 3149 3178 3178 3178 3178 3178 3178 3178 3208 3208 3238 3238 3238 3238 3269 3269 3300 3333 3365 3365 3399 2789 2789 2789 2812 2812 2835 2835 2859 2859 2859 2859 2835 2835 2908 2835 2835 2835 2835 2835 2835 2835 2835 2835 5548 5548 5460 5460 5460 5460 5460 0 0 0 0 0 0 0 0 0 0 0 0 0
0 0 0 0 0 0 0 0 0 0 0 0 0 0 0 0 0 0 0 0 0 0 0 0 0 0 0 0 0 0 5832 5832 5933 5933 5832 5832 5832 5933 5933 5933 5933 5933 6038 6038 6259 6259 6259 6259 6259 6259 6259 6259 6375 6375 6375 6259 6259 6146 6038 6038 6038 6038 5933 5933 6038 6146 6146 6146 6146 6146 6146 6146 0 0 0 0 0 0 0 0 0 0 0 6375 6146 6146 6259 6259 0 0 0 0 6146 6146 5832 5832 5832 5832 6497 6497 6497 6375 6375 6375 6375 6375 6375 6375 6375 6497 2883 2883 2883 2883 2883 2883 2883 2883 2883 2883 2883 2908 2908 2933 2958 2958 2958 2984 2984 2958 2958 2984 2958 2958 2958 2984 2984 3010 2984 2984 3010 2984 2984 2984 2984 2984 2984 3010 3010 3010 2984 2984 2958 2958 2958 2028 2028 2028 2028 2028 2028 2028 2040 2040 2040 2040 2040 2040 2040 2040 2040 2040 2040 2053 2065 2065 2065 2065 2065 2078 2078 2078 2078 2078 2078 2078 2078 2078 2078 2078 2078 2078 2090 2090 2090 2090 2090 2090 2090 2090 2090 2090 2090 2090 2090 2090 2103 2103 2103 2103 2103 2116 2116 2116 2116 2116 2116 2116 2116 2116 2116 2116 2129 2129 2129 2129 2129 2129 2143 2143 2143 2143 2143 2143 2129 2129 2143 2143 2143 2143 2143 2143 2143 2143 2143 2129 2129 3149 3178 3178 3178 3064 3064 3064 3064 0 0 3092 0 3064 0 0 0 3064 0 7178 7178 7178 7332 7332 7492 6889 6889 6753 6753 6753 6889 7030 7030 7030 7178 7332 7332 7178 7178 7030 7030 6889 6889 6889 6889 6889 6889 0 6375 6375 6375 6375 6375 6375 6375 6375 0 0 0 0 2184 2184 2184 2184 2198 2198 2198 2198 2198 2212 2212 2212 2226 2226 2226 2226 2226 2226 2226 2226 2226 2226 2212 2212 2212 2212 2212 2212 2212 2212 2212 2212 2212 2226 2226 2226 2226 2226 2241 2241 2241 2241 2241 2241 2241 2241 2241 2241 2226 2226 2241 2241 2241 2256 2256 2256 2256 2241 2241 2256 2241 2241 2241 2241 2256 2256 2241 2241 2241 2241 2241 2241 2241 2241 2241 2256 2256 2271 2271 2271 2271 2271 0 5056 5056 5056 5132 5132 5210 5210 5210 5210 5210 5132 5132 5132 5132 5132 5132 0 0 0 0 0 0 0 0 0 0 0 0 0 0 0 0 0 0 0 0 0 0 0 0 0 0 0 0 4139 4089 4089 4089 4139 4139 4139 4139 4190 4241 4241 4190 4190 4190 3300 3300 3300 3333 3333 3333 3333 3333 3333 3333 3333 3300 3300 3300 3300 3269 3269 3269 3269 3269 3269 3269 3269 3269 3269 3269 3269 3269 3269 3269 3238 3238 3238 3238 3238 3238 3208 3208 3208 3208 3208 3208 3208 3208 3208 3208 3208 3178 3178 3178 3178 3178 3178 3149 3149 3149 3149 3149 3149 3149 3149 3149 3149 3149 3149 3149 3149 3149 3149 3149 3149 3149 3149 3149 3149 3149 3120 3120 3120 3120 3120 3120 3120 3120 3120 3149 3120 3120 3120 3120 3120 3120 3120 3120 3120 3120 3120 3092 3092 3092 3092 3092 3064 3037 2908 2859 2859 2859 2859 2859 2835 2835 2859 2859 2859 2859 2859 2859 2859 2859 2859 2859 2859 2859 2859 2883 2933 3120 3149 3149 3178 3178 3178 3178 3208 3208 3208 3208 3238 3269 3238 3238 3269 3269 3269 3300 3365 3365 3399 3433 2789 2789 2812 2812 2835 2835 2835 2859 2859 2859 2859 2835 2835 2908 2835 2835 2835 2835 2835 2835 2835 5548 5460 5460 5460 5460 5460 5460 5374 5374 0 0 0 0 0 0 0 0 0 0 0 0 0
0 0 0 0 0 0 0 0 0 0 0 0 0 0 0 0 0 0 0 0 0 0 0 0 0 0 0 0 0 0 5832 5832 5734 5734 5548 5548 5548 5933 5933 5933 5933 5933 5933 6038 6038 6038 6259 6146 6146 6259 6259 6375 6375 6375 6375 6259 6259 6146 6038 6038 6038 6038 5933 5933 6038 6038 6038 6038 6146 6146 6146 6146 0 0 0 0 0 0 0 0 0 0 0 0 0 0 0 0 0 0 0 0 6146 6146 5933 5933 5933 0 6622 6622 6622 6375 2859 2859 2859 2859 2859 2835 2835 2859 2859 2883 2883 2883 2883 2883 2883 2883 2883 2883 2883 2908 2933 2933 2933 2933 2958 2958 2958 2958 2958 2958 2958 2958 2958 2958 2958 2958 2958 2958 2984 2958 2958 2958 2958 2958 2958 2984 2984 3010 3010 3010 2958 2958 2958 2028 2028 2028 2028 2028 2028 2028 2040 2040 2040 2040 2040 2040 2040 2040 2040 2040 2040 2053 2065 2065 2065 2065 2065 2078 2078 2078 2078 2078 2078 2078 2078 2078 2078 2078 2078 2078 2090 2090 2090 2090 2090 2090 2090 2090 2090 2090 2090 2090 2103 2103 2103 2103 2116 2116 2116 2116 2116 2116 2116 2116 2116 2116 2116 2116 2116 2116 2129 2129 2129 2129 2129 2129 2143 2143 2143 2143 2143 2143 2143 2143 2143 2143 2143 2143 2143 2143 2143 2143 2143 2129 2129 3037 3037 3037 3037 3064 3064 3064 3064 3092 3092 3092 3064 3064 0 0 0 0 0 0 7332 7332 7332 7492 0 0 6889 6753 6753 6753 6889 7030 7030 7030 7030 7178 7030 7030 7030 7030 7030 6889 6889 6889 6889 6889 6889 0 6375 6375 6375 6375 6375 6375 6375 6375 0 0 0 0 2184 2184 2184 2184 2198 2198 2198 2198 2198 2212 2212 2212 2226 2226 2226 2226 2226 2226 2226 2226 2226 2226 2212 2212 2212 2212 2212 2212 2212 2212 2212 2212 2212 2226 2226 2226 2226 2241 2241 2241 2241 2241 2241 2241 2241 2241 2241 2241 2226 2226 2241 2226 2226 2256 2241 2241 2256 2241 2241 2256 2241 2241 2241 2241 2241 2241 2241 2241 2241 2241 2241 2241 2241 2241 2241 2256 2256 2256 2271 2256 2256 2256 4842 4842 4842 4983 5056 5056 5132 5132 5132 5132 5132 5132 5132 5132 5132 5132 5132 0 0 0 0 0 0 0 0 0 0 0 0 0 0 0 0 0 0 0 0 0 0 0 0 0 0 0 0 4139 4089 4089 4089 4139 4139 4139 4190 4190 4190 4190 4241 4241 3300 3300 3300 3300 3300 3300 3333 3300 3300 3333 3333 3333 3300 3300 3300 3300 3269 3269 3269 3269 3269 3269 3269 3269 3269 3269 3269 3269 3269 3269 3269 3238 3238 3208 3208 3208 3238 3238 3208 3208 3208 3208 3208 3208 3208 3208 3208 3208 3178 3178 3178 3178 3178 3178 3149 3149 3149 3149 3149 3149 3120 3120 3149 3149 3149 3149 3149 3149 3149 3149 3149 3149 3149 3149 3149 3149 3149 3149 3149 3120 3120 3120 3120 3120 3149 3149 3149 3149 3149 3120 3120 3120 3120 3120 3120 3120 3092 3092 3092 3092 3092 3092 3092 3064 3010 2908 2859 2859 2859 2859 2859 2859 2859 2859 2859 2859 2859 2859 2859 2859 2859 2859 2859 2859 2859 2859 2859 2883 2883 3149 3178 3178 3178 3178 3178 3208 3208 3208 3238 3269 3269 3238 3238 3269 3269 3300 3365 3365 3399 3399 3433 2789 2789 2812 2835 2835 2835 2835 2859 2859 2883 2859 2859 2859 2908 2835 2835 2835 2835 2835 2835 2835 5548 5460 5460 5460 5460 5460 5374 5374 5374 0 0 0 0 0 0 0 0 0 0 0 0 0
0 0 0 0 0 0 0 0 0 0 0 0 0 0 0 0 0 0 0 0 0 0 0 0 0 0 0 0 0 0 5548 5548 5640 5640 5548 5548 5548 5832 5832 5832 5933 5933 5933 5933 5933 5933 6259 6146 6146 0 0 6375 6375 6375 6375 6259 6259 6038 6038 6038 6038 5933 5933 5933 5933 6038 6038 6038 6038 6146 0 0 0 0 0 0 0 0 0 0 0 0 0 0 0 0 0 0 0 0 0 0 6146 6038 6038 6038 6038 0 2883 2883 2883 2883 2859 2859 2859 2859 2859 2835 2835 2859 2859 2883 2883 2883 2883 2883 2883 2883 2908 2883 2883 2908 2908 2933 2933 2933 2933 2933 2933 2933 2933 2958 2933 2933 2958 2958 2958 2958 2958 2958 2958 2933 2908 2908 2908 2908 2933 2958 2984 3010 2984 2984 2958 2958 2958 2958 2028 2028 2028 2028 2028 2028 2040 2040 2040 2040 2040 2040 2040 2040 2040 2040 2040 2053 2065 2065 2065 2078 2078 2078 2078 2078 2078 2078 2078 2078 2078 2078 2078 2078 2078 2078 2090 2090 2090 2090 2090 2090 2090 2090 2090 2090 2090 2103 2103 2103 2103 2103 2103 2116 2116 2116 2116 2116 2116 2129 2129 2116 2116 2129 2129 2129 2129 2129 2129 2129 2129 2143 2143 2143 2143 2143 2143 2143 2143 2143 2143 2143 2143 2143 2143 2129 2129 2129 2143 2129 2129 3010 3010 3010 3010 3037 3037 3037 3064 3064 3064 3064 3064 3064 3064 3064 3064 0 0 0 0 7492 7492 7492 0 0 0 6889 6889 7030 7030 7030 7030 7030 7030 7178 6753 6753 6889 6889 6889 6889 6889 6889 6889 6889 6889 6889 6375 6375 6375 6375 6375 6375 6375 6375 0 0 0 0 2198 2198 2198 2198 2198 2198 2198 2198 2198 2212 2212 2212 2226 2226 2226 2226 2226 2226 2226 2226 2226 2226 2212 2212 2212 2212 2212 2212 2226 2226 2226 2226 2226 2226 2226 2241 2241 2241 2241 2241 2241 2241 2241 2241 2241 2241 2241 2241 2226 2226 2241 2226 2226 2241 2241 2241 2241 2241 2241 2241 2256 2256 2241 2241 2241 2241 2241 2241 2241 2241 2241 2241 2241 2256 2256 2256 2256 2256 2256 2256 2256 2256 4842 4842 4842 4842 4983 5056 5132 5132 5132 5132 5132 5132 5132 5132 5132 5132 5210 0 0 0 0 0 0 0 0 0 0 0 0 0 0 0 0 0 0 0 0 0 0 0 0 0 0 0 0 4190 4139 4139 4139 4139 4139 4139 4190 4190 4190 4190 4241 4349 4349 0 3300 3300 3300 3300 3333 3300 3300 3300 3300 3300 3300 3300 3300 3300 3269 3269 3269 3269 3269 3269 3269 3269 3269 3269 3269 3269 3238 3238 3238 3238 3238 3208 3208 3208 3208 3208 3208 3208 3208 3208 3208 3208 3208 3208 3208 3208 3178 3178 3178 3178 3178 3178 3149 3149 3149 3149 3149 3149 3120 3120 3149 3149 3149 3120 3120 3120 3120 3120 3149 3149 3149 3149 3149 3149 3149 3149 3149 3149 3120 3120 3120 3120 3149 3149 3149 3149 3149 3120 3120 3120 3120 3120 3120 3120 3092 3092 3092 3092 3092 3092 3092 3037 2933 2908 2859 2859 2859 2859 2859 2859 2859 2859 2859 2859 2859 2883 2883 2883 2859 2859 2859 2859 2859 2859 2859 2859 2859 3149 3178 3178 3178 3178 3178 3208 3208 3208 3238 3269 3269 3269 3269 3269 3300 3300 3365 3365 3399 2701 2701 2744 2812 2835 2835 2835 2835 2859 2859 2883 2883 2859 2859 2859 2883 2835 2835 2835 2835 2835 2835 5640 5548 5548 5460 5374 5374 5374 5374 5374 5374 0 0 0 0 0 0 0 0 0 0 0 0 0
0 0 0 0 0 0 0 0 0 0 0 0 0 0 0 0 0 0 0 0 0 0 0 0 0 0 0 0 0 0 5460 5460 5548 5548 5548 5548 5548 5734 5734 5832 5933 5933 5933 5933 5933 5933 0 0 0 0 0 5933 6375 6375 6259 6259 6259 6038 6038 6038 6038 5933 5933 5933 5933 6038 6038 6038 6038 6038 0 0 0 0 0 0 0 0 0 0 0 0 0 0 0 0 0 0 0 0 0 0 6038 6038 6038 6038 2883 2883 2883 2883 2883 2883 2859 2859 2859 2859 2859 2859 2859 2859 2859 2859 2883 2883 2883 2883 2883 2883 2883 2883 2883 2908 2908 2933 2933 2933 2933 2933 2933 2933 2933 2958 2933 2933 2933 2933 2908 2908 2908 2908 2908 2883 2883 2883 2883 2883 2883 2908 2933 2984 2984 2984 2958 2958 2958 2028 2028 2028 2028 2028 2028 2040 2040 2040 2040 2040 2040 2040 2040 2040 2040 2040 2040 2053 2065 2065 2078 2078 2078 2078 2078 2078 2078 2078 2078 2078 2078 2078 2078 2078 2078 2078 2090 2090 2090 2090 2090 2090 2090 2090 2090 2090 2090 2103 2103 2103 2103 2103 2103 2116 2116 2116 2116 2116 2116 2129 2129 2116 2116 2129 2129 2129 2129 2129 2129 2129 2129 2143 2143 2143 2143 2143 2143 2143 2143 2143 2143 2143 2143 2143 2143 2129 2129 2129 2129 2984 2984 2984 3010 3010 3010 3010 3010 3037 3037 3037 3037 3037 3037 3037 3037 3037 3037 0 0 0 0 0 0 0 0 0 0 0 0 0 0 0 6622 6622 6622 6622 6622 6622 6753 6889 6889 6889 6889 6889 6889 6889 6889 6889 6497 6375 6375 6375 6375 6375 6497 6497 0 0 0 0 2198 2198 2198 2198 2198 2198 2198 2212 2212 2212 2212 2212 2226 2226 2226 2226 2226 2226 2226 2226 2226 2226 2212 2212 2226 2226 2212 2212 2226 2226 2226 2226 2226 2226 2226 2241 2241 2241 2241 2241 2241 2241 2241 2241 2241 2241 2241 2241 2226 2226 2241 2241 2241 2241 2241 2241 2241 2241 2241 2241 2256 2256 2241 2241 2241 2241 2241 2241 2241 2241 2241 2241 2241 2256 2256 2256 2256 2271 2256 2256 2256 2256 2256 4842 4842 4842 4911 4983 5056 5056 5056 5056 5132 5132 5132 5132 5132 5132 5210 0 0 0 0 0 0 0 0 0 0 0 0 0 0 0 0 0 0 0 0 0 0 0 0 0 0 0 0 0 0 0 0 4089 4089 4139 4139 4139 4190 4190 4241 4349 0 0 0 0 0 0 0 0 0 3300 3300 3300 3300 3300 3300 3300 3269 3269 3238 3238 3238 3238 3238 3269 3269 3269 3269 3269 3238 3238 3238 3208 3208 3208 3208 3208 3208 3208 3208 3208 3208 3208 3208 3208 3208 3208 3208 3208 3178 3178 3178 3178 3178 3178 3149 3149 3149 3149 3149 3149 3149 3149 3149 3149 3149 3120 3120 3120 3120 3120 3149 3149 3149 3149 3149 3149 3149 3149 3149 3149 3149 3120 3120 3120 3149 3149 3149 3149 3149 3149 3149 3149 3149 3149 3149 3149 3149 3149 3149 3120 3120 3120 3120 3037 2908 2883 2859 2859 2859 2859 2859 2859 2859 2859 2883 2883 2883 2883 2883 2883 2859 2859 2859 2859 2859 2859 2859 2859 2859 3178 3178 3178 3208 3208 3208 3208 3238 3238 3238 3300 3300 3300 3300 3300 3300 3333 3365 3365 3399 2701 2701 2744 2812 2812 2835 2835 2835 2835 2859 2883 2883 2883 2859 2859 2883 2859 2835 2835 2812 2812 2812 2812 5548 5460 5460 5374 5374 5374 5374 5374 5374 0 0 0 0 0 0 0 0 0 0 0 0 0
0 0 0 0 0 0 0 0 0 0 0 0 0 0 0 0 0 0 0 0 0 0 0 0 0 0 0 0 0 0 5460 5460 5548 5548 5548 5548 0 5734 5734 5832 5832 5832 5933 5933 5933 0 0 0 0 0 0 5933 5933 5933 5933 6038 6038 5933 5933 5933 5933 5832 5734 5734 5734 5832 5832 5832 5933 6038 0 0 0 0 0 0 0 0 0 0 0 0 0 0 0 0 0 0 0 0 0 0 5933 5933 6146 0 2883 2883 2883 2859 2859 2883 2859 2859 2859 2859 2859 2859 2859 2859 2859 2859 2859 2883 2883 2883 2883 2883 2883 2883 2883 2908 2908 2908 2908 2908 2933 2933 2933 2933 2933 2933 2933 2933 2933 2933 2883 2883 2883 2883 2883 2883 2859 2859 2859 2883 2883 2883 2908 2933 2984 2984 2958 2958 2958 2028 2028 2028 2028 2028 2040 2040 2040 2040 2040 2040 2040 2040 2040 2040 2040 2040 2040 2053 2065 2065 2078 2078 2078 2078 2078 2078 2078 2078 2078 2078 2078 2078 2078 2078 2078 2078 2090 2090 2090 2090 2090 2090 2090 2090 2090 2090 2090 2103 2103 2103 2103 2103 2103 2116 2116 2116 2116 2116 2129 2129 2129 2129 2129 2129 2129 2129 2129 2129 2129 2129 2129 2143 2143 2143 2143 2143 2143 2143 2143 2143 2143 2143 2143 2143 2143 2129 2129 2129 2129 2984 2984 2984 2984 2984 2984 3010 3010 3010 3010 3010 3010 3010 3010 3010 3010 3010 3010 3010 0 0 0 0 0 0 0 0 0 0 0 0 0 0 6622 6497 6497 6622 6622 6622 6753 6889 6889 6753 6753 6753 6889 6889 6622 6497 6497 6375 6375 6497 6497 6375 6375 6375 0 0 0 2212 2212 2198 2198 2198 2198 2198 2198 2198 2198 2212 2212 2212 2226 2226 2226 2226 2226 2226 2226 2226 2226 2226 2212 2212 2226 2226 2212 2212 2226 2226 2226 2226 2226 2226 2226 2241 2241 2241 2241 2241 2241 2241 2241 2241 2241 2241 2241 2241 2226 2226 2241 2241 2241 2241 2241 2241 2241 2241 2241 2241 2241 2241 2256 2256 2241 2241 2241 2241 2241 2241 2241 2241 2241 2256 2256 2271 2271 2271 2256 2256 2256 2256 4911 4911 4911 4911 4911 4983 5056 5056 5056 5056 5056 5056 5056 5056 5056 5210 5210 5291 0 0 0 0 0 0 0 0 0 0 0 0 0 0 0 0 0 0 0 0 0 0 0 0 0 0 0 0 0 0 0 4089 4089 4139 4139 4139 4139 4190 4241 4295 0 0 0 0 0 0 0 0 0 0 0 3300 3300 3300 3300 3300 0 0 3238 3238 3238 3238 3238 3269 3269 3269 3238 3238 3238 3238 3238 3208 3208 3208 3208 3208 3208 3208 3208 3208 3208 3208 3208 3208 3208 3208 3208 3208 3208 3208 3178 3178 3178 3178 3149 3149 3149 3149 3149 3149 3149 3149 3149 3149 3149 3149 3120 3120 3120 3149 3149 3149 3149 3149 3149 3149 3149 3149 3149 3149 3149 3149 3149 3149 3149 3149 3149 3149 3149 3149 3149 3149 3149 3149 3149 3149 3149 3149 3149 3149 3149 3120 3092 3092 2908 2883 2859 2859 2859 2859 2859 2859 2859 2883 2883 2883 2883 2883 2883 2883 2859 2859 2859 2859 2859 2859 2859 2859 2859 2933 3208 3208 3208 3208 3208 3238 3238 3238 3269 3300 3300 3300 3300 3300 3300 3333 3365 2812 2812 2723 2723 2767 2812 2812 2812 2835 2835 2835 2859 2883 2883 2883 2859 2859 2883 2859 2835 2835 2812 2812 2812 2812 5460 5460 5374 5374 5374 5374 5374 5374 5374 0 0 0 0 0 0 0 0 0 0 0 0 0
0 0 0 0 0 0 0 0 0 0 0 0 0 0 0 0 0 0 0 0 0 0 0 0 0 0 0 0 0 0 0 0 0 0 0 0 0 0 0 5832 5832 5832 0 0 0 0 0 0 0 0 0 5933 5832 5832 5933 5933 5933 5933 5933 5933 5933 5832 5734 5640 5640 5734 5734 5832 5832 0 0 0 0 0 0 0 0 0 0 0 0 0 0 0 0 0 0 0 0 0 0 0 5933 5933 0 0 0 2883 2883 2859 2859 2859 2859 2859 2859 2859 2859 2859 2859 2859 2859 2859 2859 2859 2859 2859 2883 2883 2883 2883 2883 2908 2908 2908 2908 2908 2933 2933 2933 2933 2933 2933 2933 2908 2908 2908 2883 2883 2883 2883 2859 2859 2859 2859 2859 2859 2859 2859 2883 2908 2908 2933 2958 2958 2958 2028 2028 2028 2028 2040 2040 2040 2040 2040 2040 2040 2040 2040 2040 2040 2040 2053 2053 2053 2065 2065 2078 2078 2078 2078 2078 2078 2078 2078 2078 2078 2078 2078 2078 2078 2078 2078 2090 2090 2090 2090 2090 2090 2090 2103 2103 2103 2103 2103 2103 2103 2103 2103 2103 2116 2129 2129 2116 2116 2129 2129 2129 2129 2129 2129 2129 2129 2129 2129 2129 2129 2129 2143 2143 2143 2143 2143 2143 2143 2143 2143 2143 2143 2143 2143 2143 2143 2143 2143 0 2958 2958 2958 2958 2958 2958 2958 2984 2958 2958 2984 2984 2984 2984 2984 2984 3010 2984 2958 2958 0 0 0 0 0 0 0 0 0 0 0 0 0 6497 6497 6497 6753 6622 6622 6753 6889 6889 6753 6753 6753 6753 6753 6622 6497 6497 6375 6375 6497 6497 6375 6375 6375 0 0 0 0 2198 2198 2198 2198 2198 2198 2198 2198 2198 2212 2212 2212 2226 2226 2226 2226 2226 2226 2226 2226 2226 2226 2212 2212 2212 2212 2212 2212 2212 2212 2212 2212 2212 2226 2226 2241 2241 2241 2241 2241 2241 2241 2241 2241 2226 2226 2226 2226 2226 2226 2241 2241 2241 2241 2241 2241 2241 2241 2241 2256 2241 2241 2256 2256 2256 2256 2241 2241 2241 2241 2241 2241 2256 2256 2256 2271 2271 2271 2256 2256 2256 2256 4911 4911 4911 4911 4983 5056 5056 5056 5056 5056 5056 5056 5056 5056 5056 5132 5210 5210 0 0 0 0 0 0 0 0 0 0 0 0 0 0 0 0 0 0 0 0 0 0 0 0 0 0 0 0 0 0 0 4190 4139 4139 4139 4139 4139 4139 4190 4190 0 0 0 0 0 0 0 0 0 0 0 0 0 0 0 0 0 0 0 0 0 0 3300 3300 3269 3269 3238 3238 3208 3208 3208 3208 3208 3178 3178 3208 3208 3208 3208 3208 3208 3208 3208 3208 3208 3208 3208 3208 3208 3208 3208 3208 3208 3208 3178 3178 3178 3178 3178 3178 3149 3149 3178 3149 3149 3149 3149 3149 3120 3120 3120 3120 3120 3149 3149 3149 3149 3149 3149 3149 3149 3149 3149 3149 3149 3149 3149 3149 3149 3149 3149 3149 3149 3149 3149 3149 3149 3149 3149 3149 3149 3120 3092 3092 2883 2883 2883 2859 2859 2859 2859 2859 2883 2883 2883 2883 2883 2883 2883 2883 2859 2859 2859 2859 2859 2859 2859 2859 2859 2908 3208 3208 3208 3208 3238 3238 3238 3269 3269 3300 3333 3333 3333 3333 3333 3365 3433 2812 2812 2789 2789 2789 2812 2812 2812 2812 2812 2835 2859 2883 2883 2883 2859 2859 2883 2883 2835 2835 2835 2835 2835 5548 5374 5374 5374 5374 5374 5291 5291 5291 5291 0 0 0 0 0 0 0 0 0 0 0 0 0
0 0 0 0 0 0 0 0 0 0 0 0 0 0 0 0 0 0 0 0 0 0 0 0 0 0 0 0 0 0 0 0 0 0 0 0 0 0 0 0 0 0 0 0 0 0 0 0 0 0 0 0 5832 5832 5832 5832 5832 5832 5832 5832 5832 5832 5640 5548 5548 5640 5640 5734 5734 0 0 0 0 0 0 0 0 0 0 0 0 0 0 0 0 0 0 0 0 0 0 0 0 0 0 0 2984 2883 2883 2859 2859 2859 2859 2859 2859 2859 2859 2859 2859 2859 2859 2859 2859 2859 2859 2859 2859 2859 2859 2859 2883 2908 2908 2908 2908 2908 2908 2908 2908 2908 2908 2908 2908 2883 2883 2883 2859 2859 2859 2835 2835 2835 2835 2835 2835 2835 2835 2859 2859 2883 2883 2908 3037 3037 2028 2028 2028 2028 2028 2028 2040 2040 2040 2040 2040 2040 2040 2040 2040 2040 2040 2053 2053 2053 2065 2078 2078 2078 2078 2078 2078 2078 2078 2078 2078 2078 2078 2078 2078 2090 2090 2090 2090 2090 2090 2090 2090 2090 2090 2103 2103 2103 2103 2103 2103 2103 2103 2103 2103 2116 2116 2116 2116 2116 2129 2129 2129 2129 2129 2129 2116 2116 2116 2129 2129 2129 2129 2143 2143 2143 2143 2143 2143 2143 2143 2143 2143 2143 2143 2143 2143 2129 2129 2129 2143 2908 2908 2908 2908 2908 2933 2933 2958 2958 2958 2958 2958 2958 2958 2958 2958 2984 2984 2958 2933 2933 2958 0 0 0 0 0 0 0 0 0 0 0 6497 6497 6497 6622 6622 6622 6622 6753 6753 6753 6753 6753 6753 6753 6622 6497 6497 6375 6375 6497 6497 6375 6375 6375 0 0 0 0 2198 2198 2198 2198 2198 2198 2198 2212 2212 2212 2212 2226 2226 2226 2241 2226 2226 2226 2226 2226 2226 2226 2212 2212 2212 2212 2212 2212 2212 2212 2212 2212 2212 2226 2226 2226 2241 2241 2241 2241 2241 2241 2241 2226 2226 2226 2226 2226 2226 2226 2226 2226 2241 2241 2241 2241 2241 2241 2241 2256 2256 2256 2256 2256 2256 2256 2256 2256 2241 2241 2241 2241 2256 2256 2256 2271 2271 2271 2256 2256 2256 2256 4911 4911 4911 4911 4911 4983 5056 5056 5056 5056 5056 5056 5056 5056 5056 5056 5210 5210 0 0 0 0 0 0 0 0 0 0 0 0 0 0 0 0 0 0 0 0 0 0 0 0 0 0 0 0 0 0 0 4190 4190 4139 4139 4139 4139 4139 4139 4139 4139 0 0 0 0 0 0 0 0 0 0 0 0 0 0 0 0 0 0 0 0 0 0 0 0 0 0 3208 3208 3208 3208 3178 3178 3178 3178 3208 3208 3208 3208 3208 3208 3208 3208 3208 3208 3208 3208 3208 3208 3208 3208 3208 3208 3208 3178 3178 3178 3178 3178 3178 3178 3178 3178 3149 3149 3149 3149 3149 3120 3120 3120 3120 3120 3149 3149 3149 3149 3149 3149 3149 3149 3149 3149 3149 3149 3149 3120 3120 3149 3149 3149 3149 3149 3149 3149 3149 3149 3149 3149 3149 3149 3120 3092 3092 2883 2883 2859 2859 2859 2859 2859 2859 2883 2883 2908 2883 2883 2883 2883 2883 2859 2859 2859 2859 2859 2859 2859 2859 2859 2883 2883 3208 3238 3238 3238 3238 3238 3269 3300 3333 3365 3365 3365 3365 2812 2812 2835 2812 2812 2812 2812 2812 2812 2812 2812 2812 2812 2835 2859 2883 2883 2883 2883 2883 2883 2883 2859 2859 2835 2835 2835 5460 5374 5374 5374 5374 5374 5291 5291 5291 5291 0 0 0 0 0 0 0 0 0 0 0 0 0
0 0 0 0 0 0 0 0 0 0 0 0 0 0 0 0 0 0 0 0 0 0 0 0 0 0 0 0 0 0 0 0 0 0 0 0 0 0 0 0 0 0 0 0 0 0 0 0 0 0 0 0 0 5832 5832 5832 5832 5832 5832 5832 5832 5832 5640 5548 5548 5640 5640 5640 5640 0 0 0 0 0 0 0 0 0 0 0 0 0 0 0 0 0 0 0 0 0 0 0 0 0 0 2984 2984 2767 2767 2812 2812 2812 2812 2859 2859 2859 2859 2859 2859 2859 2859 2859 2835 2835 2835 2835 2835 2835 2859 2859 2859 2883 2883 2883 2883 2883 2859 2859 2883 2859 2859 2859 2859 2859 2859 2835 2812 2812 2812 2835 2812 2812 2835 2835 2835 2835 2835 2859 2859 2883 2883 2908 3037 3037 2028 2028 2028 2028 2028 2028 2040 2040 2040 2040 2040 2040 2040 2040 2040 2040 2040 2053 2053 2053 2065 2065 2078 2078 2078 2078 2078 2078 2078 2078 2078 2078 2078 2090 2090 2090 2090 2090 2090 2090 2090 2090 2090 2090 2103 2103 2103 2103 2103 2103 2103 2103 2103 2103 2103 2116 2116 2116 2116 2116 2129 2129 2129 2116 2116 2129 2116 2116 2116 2129 2129 2129 2129 2143 2143 2143 2143 2143 2143 2143 2143 2143 2143 2143 2143 2143 2143 2129 2129 2143 2143 2908 2908 2908 2908 2908 2908 2933 2933 2933 2933 2933 2958 2933 2933 2958 2958 2958 2958 2933 2933 2933 2933 2933 0 0 0 0 0 0 0 0 0 0 0 6375 6375 6497 6497 6497 6497 6622 6622 6622 6622 6622 6622 6753 6622 6497 6497 6497 6497 6497 6497 6497 6497 6497 0 0 0 0 2198 2198 2198 2198 2198 2198 2198 2198 2198 2212 2212 0 0 0 0 2226 2226 2212 2212 2226 2226 2226 2212 2212 2212 2212 2212 2212 2212 2170 2170 2170 2212 2226 2226 2226 2241 2241 2241 2241 2241 2241 2241 2226 2226 2226 2226 2226 2212 2212 2226 2226 2241 2226 2226 2226 2226 2241 2241 2256 2256 2256 2256 2256 2256 2256 2256 2256 2256 2256 2241 2241 2256 2271 2271 2271 2271 2271 2271 2256 2256 2256 4911 4911 4911 4911 4911 4983 5056 5056 5056 5056 5056 5056 5056 5056 5056 5056 5210 0 0 0 0 0 0 0 0 0 0 0 0 0 0 0 0 0 0 0 0 0 0 0 0 0 0 0 0 0 0 0 0 0 4190 4139 4139 4139 4139 4139 4089 4089 4089 0 0 0 0 0 0 0 0 0 0 0 0 0 0 0 0 0 0 0 0 0 0 0 0 0 0 3208 3178 3178 3208 3178 3178 3178 3178 3238 3238 3208 3178 3178 3208 3208 3208 3208 3208 3208 3208 3208 3208 3208 3238 3208 3208 3208 3178 3178 3178 3178 3178 3178 3178 3178 3178 3149 3149 3149 3149 3120 3092 3064 3064 3092 3092 3092 3149 3149 3149 3149 3149 3149 3149 3149 3149 3149 3149 3149 3120 3120 3149 3149 3149 3149 3149 3149 3149 3149 3149 3149 3149 3149 3120 3037 3037 2958 2883 2883 2859 2859 2859 2859 2859 2859 2883 2908 2908 2908 2908 2908 2883 2883 2883 2859 2859 2859 2859 2859 2859 2859 2859 2883 2883 3238 3238 3238 3238 3238 3238 3269 3333 3365 3433 3433 3433 2812 2812 2812 2835 2835 2835 2835 2835 2812 2812 2812 2812 2812 2812 2883 2883 2883 2883 2883 2883 2883 2883 2883 2859 2859 2859 2859 2859 5374 5374 5374 5374 5374 5374 5291 5291 5374 5374 0 0 0 0 0 0 0 0 0 0 0 0 0
0 0 0 0 0 0 0 0 0 0 0 0 0 0 0 0 0 0 0 0 0 0 0 0 0 0 0 0 0 0 0 0 0 0 0 0 0 0 0 0 0 0 0 0 0 0 0 0 0 0 0 0 0 5832 5832 5832 0 0 5734 0 0 5734 5548 5548 5548 5640 5640 5640 5640 0 0 0 0 0 0 0 0 0 0 0 0 0 0 0 0 0 0 0 0 0 0 0 0 0 0 2984 2701 2701 2723 2744 2767 2744 2744 2744 2744 2789 2701 2701 2701 2744 2812 2744 2744 2767 2812 2812 2812 2812 2812 2835 2835 2859 2859 2859 2835 2812 2812 2812 2812 2812 2812 2812 2835 2835 2812 2812 2789 2789 2789 2789 2789 2789 2812 2812 2835 2835 2835 2859 2883 2883 2908 3037 3037 3037 2028 2028 2028 2028 2028 2028 2040 2040 2040 2040 2040 2053 2053 2053 2040 2040 2053 2053 2053 2053 2065 2065 2065 2065 2078 2078 2078 2078 2078 2078 2078 2078 2078 2090 2090 2090 2090 2090 2090 2090 2090 2090 2090 2103 2103 2103 2103 2103 2103 2103 2090 2090 2103 2103 2103 2103 2116 2116 2116 2116 2116 2116 2129 2116 2116 2116 2116 2116 2116 2116 2129 2129 2129 2129 2129 2143 2143 2143 2143 2143 2143 2143 2143 2143 2143 2143 2143 2129 2129 2129 2129 2883 2883 2883 2883 2883 2908 2908 2908 2908 2908 2908 2933 2933 2933 2933 2933 2933 2958 2933 2933 2958 2933 2933 0 0 0 0 0 0 0 0 0 0 0 6375 6375 6375 6375 6375 6375 6497 6497 6622 6497 6497 6622 6622 6622 6497 6497 6497 6497 6497 6497 6375 6375 6497 0 0 0 2198 2184 2184 2198 2198 2198 2198 2198 2198 2198 0 0 0 0 0 0 0 0 2212 2212 2226 2226 2226 2212 2212 2212 2212 2212 2212 2212 2170 2170 2170 5210 5210 5210 5374 5374 5210 5210 5210 2256 2256 2256 5132 5132 2241 2226 2226 2212 2212 5056 4983 4911 2226 2226 2226 2226 2241 2256 2271 2256 2256 2256 2256 2271 2271 2271 2256 2241 2241 2241 2241 2271 2271 2271 2271 2271 2271 2271 2256 2256 2256 4911 4911 4983 4983 4983 5056 5056 5132 5132 5132 5132 5056 5056 5056 5056 5132 0 0 0 0 0 0 0 0 0 0 0 0 0 0 0 0 0 0 0 0 0 0 0 0 0 0 0 0 0 0 0 0 0 0 0 4139 4139 4089 4089 4089 4089 4089 4089 0 0 0 0 0 0 0 0 0 0 0 0 0 0 0 0 0 0 0 0 0 0 0 0 0 0 0 3178 3178 3208 4190 4241 4241 4190 4190 3238 3238 3178 3178 3208 3238 5056 5056 5056 5056 5056 5056 3333 3333 3300 3238 3238 3238 3208 3208 3208 3178 3178 3178 3178 3208 3178 3178 3149 3149 3149 3120 3092 3064 3064 3092 3092 3092 3149 3149 3149 3149 3149 3149 3120 3120 3149 3149 3149 3092 3092 3092 3120 3120 3120 3149 3149 3149 3149 3149 3149 3149 3149 3120 3120 2984 2958 2933 2883 2883 2859 2859 2859 2859 2859 2859 2883 2908 2908 2908 2908 2908 2883 2883 2883 2883 2883 2883 2883 2883 2859 2859 2859 2883 2883 2883 2883 2958 0 0 0 0 0 3539 3539 3503 3503 2812 2812 2835 2835 2835 2835 2835 2812 2812 2812 0 2812 2908 0 2883 2883 2883 2908 2883 2883 2883 2883 2883 2859 2859 2883 2883 5374 5374 5291 5291 5291 5291 5374 5291 5291 5374 5374 0 0 0 0 0 0 0 0 0 0 0 0 0
0 0 0 0 0 0 0 0 0 0 0 0 0 0 0 0 0 0 0 0 0 0 0 0 0 0 0 0 0 0 0 0 0 0 0 0 0 0 0 0 0 0 0 0 0 0 0 0 0 0 0 0 5734 5734 5734 5734 0 0 0 0 5734 5734 5548 5548 5548 5640 5640 5548 5548 0 0 0 0 0 0 0 0 0 0 0 0 0 0 0 5734 5734 0 0 0 0 0 0 0 0 0 2701 2701 2701 2723 2723 2723 2723 2701 2701 2701 2701 2701 2701 2701 2701 2723 2723 2723 2723 2723 2723 2723 2723 2723 2723 2723 2723 2723 2723 2723 2789 2789 2789 2789 2789 2789 2789 2812 2812 2789 2789 2789 2789 2789 2789 2789 2789 2812 2812 2835 2835 2835 2859 2883 2883 2908 3037 3037 3037 2028 2028 2028 2028 2028 2028 2040 2040 2040 2040 2040 2053 2053 2053 2040 2040 2053 2053 2053 2053 2065 2065 2065 2065 2065 2078 2078 2078 2078 2078 2078 2078 2078 2090 2090 2090 2090 2090 2090 2090 2090 2090 2090 2103 2116 2116 2116 2103 2103 2103 2090 2090 2090 2090 2090 2103 2116 2103 2103 2116 2116 2116 2129 2116 2116 2116 2116 2116 2116 2116 2129 2129 2143 2129 2129 2143 2143 2129 2129 2143 2143 2143 2143 2143 2143 2143 2143 2129 2129 2129 2129 2883 2883 2883 2883 2883 2883 2883 2908 2908 2908 2908 2908 2908 2933 2933 2933 2933 2958 2933 2933 2958 2958 0 0 0 0 0 0 0 0 0 0 0 0 6375 6375 6375 6375 6375 6375 6497 6497 6497 6497 6497 6497 6497 6497 6497 6497 6497 6497 6375 6375 6375 6375 0 0 0 0 2198 2184 2184 2198 2198 2198 2198 2198 2198 2212 0 0 0 0 0 0 0 0 2226 2226 2226 2226 2226 2212 2212 0 0 0 5132 5132 5132 5210 5210 5210 5210 5210 5374 5374 5210 5210 5210 5210 5132 5132 5132 5132 5132 5132 5132 5132 5132 5056 4983 4911 4911 4983 4983 4911 4911 4911 4911 4911 2271 2271 2286 2271 2271 2271 2241 2241 2241 2241 2241 2271 2271 2271 2271 2271 2271 2271 2271 2271 2271 5132 5132 5056 5056 5132 5132 5132 5132 5132 5132 5132 5132 5132 5132 5132 5132 0 0 0 0 0 0 0 0 0 0 0 0 0 0 0 0 0 0 0 0 0 0 0 0 0 0 0 0 0 0 0 0 0 0 0 4139 4089 4089 4089 4089 4089 4041 4041 0 0 0 0 0 0 0 0 0 0 0 0 0 0 0 0 0 0 0 0 0 0 0 0 0 0 0 4190 4190 4190 4241 4241 4241 4241 4295 4295 4295 4295 5056 5056 5056 5056 5056 5056 5056 5132 5132 3539 3539 3539 3576 3576 3468 3468 3539 3576 3539 3539 3576 3576 3576 3576 3208 3178 3178 3178 3178 3064 3064 3064 3064 3064 3092 3149 3149 3149 3149 3149 3149 3120 3120 3149 3120 3120 3092 3092 3092 3120 3120 3120 3149 3149 3149 3149 3149 3149 3149 3149 2984 2958 2958 2958 2933 2908 2883 2859 2859 2859 2859 2859 2883 2883 2908 2908 2908 2908 2908 2908 2908 2908 2883 2883 2883 2883 2883 2859 2859 2859 2883 2908 2908 2958 2958 0 0 0 0 3576 3576 3576 3539 3539 2835 2835 2835 2859 2859 2835 2835 2812 2812 0 0 0 0 2908 2883 2883 2883 2883 2883 2883 2883 2883 2859 2835 2835 2859 2859 5374 5374 5291 5291 5291 5291 5374 5291 5291 5374 5374 0 0 0 0 0 0 0 0 0 0 0 0 0
0 0 0 0 0 0 0 0 0 0 0 0 0 0 0 0 0 0 0 0 0 0 0 0 0 0 0 0 0 0 0 0 0 0 0 0 0 0 0 0 0 0 0 0 0 0 0 0 0 0 0 5640 5640 5640 5640 5640 0 5640 0 0 0 0 0 0 5640 5640 5640 5548 5548 0 0 0 0 0 0 0 0 0 0 5734 5734 5734 5734 5734 5734 5734 5832 5933 0 0 0 0 2701 2701 2701 2701 2701 2701 2701 2701 2701 2701 2701 2701 2701 2701 2701 2701 2680 2680 2701 2701 2701 2701 2701 2701 2723 2723 2723 2723 2701 2701 2723 2723 2723 2723 2723 2744 2744 2767 2767 2767 2767 2767 2767 2767 2767 2767 2767 2789 2789 2789 2812 2812 2835 2835 2835 2859 2883 2883 2908 3037 3037 3037 2028 2028 2028 2028 2028 2028 2040 2040 2040 2040 2040 2053 2053 2053 2040 2040 2053 2053 2053 2053 2053 2065 2065 2065 2065 2065 2065 2078 2078 2078 2078 2078 2078 2090 2090 2090 2090 2090 2090 2090 2090 2090 2090 2103 2116 2129 2116 2103 2103 2103 2090 2090 2090 2090 2090 2103 2103 2103 2103 2116 2116 2116 2129 2129 2116 2116 2116 2116 2116 2129 2129 2129 2143 2143 2143 2143 2143 2129 2129 2129 2129 2143 2143 2143 2143 2143 2143 2129 2129 2143 2143 2859 2859 2883 2883 2883 2883 2883 2908 2908 2908 2908 2908 2908 2933 2933 2933 2933 2958 2933 2933 2958 2984 0 0 0 0 0 0 0 0 0 0 0 0 6375 6375 6375 6375 6375 6375 6497 6497 6497 6497 6497 6497 6497 6375 6375 6375 6375 6375 6375 6375 6259 6259 6259 0 0 0 2198 2198 2198 2198 2198 2198 2198 2198 2212 2212 0 0 0 0 0 0 0 0 0 2226 2226 0 0 0 0 0 0 0 0 5132 5132 5210 5210 5210 5210 5210 5291 5210 5210 5210 5210 5210 5210 5132 5132 5132 5132 5132 5056 5056 5056 5056 5056 4983 4983 4983 4983 4911 4911 4911 4911 4911 4911 4842 4842 4842 4842 4842 4842 2256 2256 2256 2256 2271 2271 2271 2271 2271 2271 2271 2256 2256 2256 5132 5132 5132 5132 5132 5132 5132 5210 5132 5132 5132 5132 5132 5132 5132 5132 0 0 0 0 0 0 0 0 0 0 0 0 0 0 0 0 0 0 0 0 0 0 0 0 0 0 0 0 0 0 0 0 0 0 0 4139 4089 4089 4089 4089 4041 4041 4041 0 0 0 0 0 0 0 0 0 0 0 0 0 0 0 0 0 0 0 0 0 0 0 0 0 0 0 0 4190 4190 4190 4241 4241 4241 4295 4295 4295 4295 5056 5056 5056 5056 5056 5056 5056 5132 3576 3576 3576 3576 3576 3576 3576 3576 3576 3576 3576 3576 3576 3576 3576 3576 3576 3539 3539 3576 3576 4911 4842 3064 3064 3064 4774 4774 4774 4842 3149 3149 4911 4983 5056 4842 3120 3120 3120 4842 3149 3149 3149 3149 3149 3149 3149 3149 3178 3732 3732 3732 2958 2958 2958 2933 2933 2908 2883 2883 2883 2883 2883 2883 2883 2908 2908 2908 2908 2908 2908 2908 2908 2908 2908 2883 2883 2883 2883 2883 2859 2859 2883 2908 2933 2958 2958 2933 0 0 0 0 2883 2883 2859 2835 2835 2835 2859 2859 2859 0 0 0 0 0 0 0 0 2908 2908 2883 2883 2883 2883 2883 2883 2883 2859 2835 2835 2859 2859 5374 5374 5374 5374 5374 5374 5291 5291 5291 5374 5374 0 0 0 0 0 0 0 0 0 0 0 0 0
0 0 0 0 0 0 0 0 0 0 0 0 0 0 0 0 0 0 0 0 0 0 0 0 0 0 0 0 0 0 0 0 0 0 0 0 0 0 0 0 0 0 0 0 0 0 0 0 0 0 5548 5460 5460 5548 5548 5548 5640 5640 0 0 0 0 0 0 0 5640 5640 5548 5460 5460 0 0 0 0 0 0 0 0 0 5734 5734 5734 5734 5734 5734 5734 5734 5832 0 0 0 2723 2701 2701 2701 2701 2701 2701 2701 2701 2701 2701 2680 2680 2680 2680 2680 2680 2680 2680 2701 2701 2701 2701 2701 2701 2701 2701 2701 2701 2701 2701 2701 2701 2723 2723 2723 2723 2723 2744 2744 2767 2767 2767 2767 2767 2767 2767 2767 2789 2789 2789 2812 2812 2835 2835 2835 2859 2883 2908 3010 3037 3037 3037 2028 2028 2028 2028 2028 2028 2040 2040 2040 2040 2053 2053 2053 2053 2053 2053 2053 2053 2053 2053 2053 2065 2065 2065 2065 2065 2065 2078 2078 2053 2053 2065 2078 2078 2090 2090 2090 2090 2090 2090 2090 2103 2103 2103 2116 2129 2116 2103 2103 2103 2090 2090 2090 2090 2090 2103 2103 2103 2103 2116 2116 2129 2129 2908 2908 2859 2859 2859 2883 2129 2129 2129 2859 2859 2883 2883 2143 2129 2129 2129 2129 2129 2143 2143 2143 2143 2143 2129 2129 2129 2129 2859 2859 2883 2883 2883 2883 2883 2908 2908 2908 2908 2908 2908 2908 2933 2933 2933 2958 2958 2958 3010 3010 3010 0 0 0 0 0 0 0 0 0 0 0 6375 6375 6375 6375 6375 6375 6375 6375 6375 6497 6497 6497 6497 6375 6375 6375 6375 6259 6259 6259 6146 6146 6146 0 0 2198 2198 2198 2198 2198 2198 2198 2198 2198 2198 0 0 0 0 0 0 0 0 0 0 0 0 0 0 0 0 0 0 0 5056 5056 5056 5210 5210 5210 5210 5210 5210 5210 5210 5210 5210 5210 5210 5132 5132 5132 5132 5132 5056 5056 5056 5056 5056 4983 4983 4983 4983 4983 4983 4983 4911 4911 4911 4842 4842 4911 4911 4911 2226 2256 2256 2256 2256 2271 2271 2271 2271 2271 2271 2271 2256 2256 2256 5056 5132 5132 5132 5132 5132 5132 5210 5210 5210 5210 5132 5132 5132 5132 5132 0 0 0 0 0 0 0 0 0 0 0 0 0 0 0 0 0 0 0 0 0 0 0 0 0 0 0 0 0 0 0 0 0 0 0 4089 4089 4089 4089 4089 4041 4041 4041 4089 0 0 0 0 0 0 0 0 0 0 0 0 0 0 0 0 0 0 0 0 0 0 0 0 0 0 4139 4139 4190 4190 4241 4241 4241 4349 4349 4349 4983 5056 5056 5056 5056 5056 5056 5056 5056 3576 3576 3576 3576 3576 3614 3614 3576 3576 3576 3576 3576 3576 3576 3576 3576 3576 3576 3576 3576 3576 4911 4842 4842 4842 4774 4774 4774 4842 4842 4842 4842 4842 4842 4842 4842 4842 4774 4774 4842 4911 4911 3149 3149 3149 3149 3149 3178 3774 3732 3732 3732 2933 2933 2933 2933 2933 2908 2883 2883 2883 2883 2883 2883 2883 2908 2908 2933 2933 2908 2908 2908 2908 2908 2908 2908 2908 2908 2908 2883 2859 2859 2883 2908 2908 2933 2933 2933 2958 2958 0 0 2883 2883 2859 2859 2835 2835 2859 2859 0 0 0 0 0 0 0 0 0 2883 2883 2883 2883 2883 2883 2883 2883 2859 2859 2835 2835 2835 5374 5374 5374 5374 5374 5291 5291 5291 5291 5291 5374 5374 0 0 0 0 0 0 0 0 0 0 0 0 0
0 0 0 0 0 0 0 0 0 0 0 0 0 0 0 0 0 0 0 0 0 0 0 0 0 0 0 0 0 0 0 0 0 0 5548 5548 5640 5640 0 0 0 0 0 0 0 0 0 0 0 5548 5548 5460 5460 5548 5548 5548 5640 0 0 0 0 0 5460 0 5460 5548 5548 5548 5460 5460 0 0 0 0 0 0 0 0 0 5734 5734 5734 5734 5734 5734 5734 5734 5832 0 2701 2701 2701 2701 2701 2701 2701 2701 2701 2701 2701 2701 2701 2680 2680 2680 2680 2680 2680 2680 2680 2701 2701 2701 2701 2701 2701 2701 2701 2701 2701 2701 2701 2701 2701 2701 2701 2723 2723 2723 2744 2744 2744 2767 2767 2767 2767 2767 2767 2767 2789 2789 2789 2812 2812 2812 2835 2835 2859 2883 2908 2984 3010 3010 3010 2016 2016 2016 2016 2028 2028 2028 2040 2040 2040 2053 2053 2053 2053 2053 2053 2053 2053 2053 2053 2053 2065 2065 2065 2065 2789 2812 2812 2812 2053 2053 2065 2078 2078 2812 2812 2835 2859 2859 2859 2859 2859 2859 2859 2859 2859 2859 2859 2883 2883 2908 2933 2933 2103 2103 2103 2116 2116 2984 2958 2933 2908 2908 2908 2908 2883 2883 2883 2883 2883 2883 2883 2883 2883 2883 2883 2908 2908 2129 2129 2129 2129 2143 2143 2143 2143 2143 2129 2129 2129 2129 2835 2859 2883 2883 2883 2883 2883 2883 2908 2908 2908 2908 2908 2908 2933 2933 2933 2958 2958 2958 3010 3010 3010 0 0 0 0 0 0 0 0 0 0 0 6375 6375 6375 6375 6375 6375 6375 6375 6375 6497 6497 6497 6497 6375 6375 6375 6375 6259 6259 6259 6146 6146 6146 0 0 2198 2198 2198 2212 2212 2198 2198 2198 2198 2198 0 0 0 0 0 0 0 0 0 0 0 0 0 0 0 0 0 0 0 4911 4911 5056 5132 5132 5132 5210 5210 5210 5210 5210 5210 5210 5210 5132 5132 5132 5056 5056 5132 5056 5056 5056 5056 5056 4983 4983 4983 5056 5056 5056 5056 4983 4983 4983 4911 4911 4911 4911 4911 2226 2226 2226 2241 2241 2256 2271 2271 2271 2271 2271 2271 2256 2256 5056 5056 5132 5132 5132 5132 5132 5210 5210 5210 5210 5210 5210 5132 5132 5132 5132 0 0 0 0 0 0 0 0 0 0 0 0 0 0 0 0 0 0 0 0 0 0 0 0 0 0 0 0 0 0 0 0 0 0 0 4089 4089 4089 4089 4089 4089 4089 4089 4089 0 0 0 0 0 0 0 0 0 0 0 0 0 0 0 0 0 0 0 0 0 0 0 0 0 0 4139 4139 4190 4190 4241 4241 4241 4295 4349 4983 4983 5056 5056 5056 5056 5056 5056 5056 5056 3576 3576 3576 3576 3614 3614 3614 3576 3576 3576 3576 3576 3576 3614 3614 3576 3576 3576 3576 3576 3576 3576 4842 4842 4842 4774 4774 4774 4842 4842 4842 4842 4842 4842 4842 4774 4774 4774 4774 4774 4911 4983 3149 3149 3149 3774 3774 3774 3774 3732 3732 2933 2933 2933 2933 2933 2933 2908 2908 2883 2883 2883 2883 2883 2883 2908 2908 2908 2933 2908 2908 2908 2908 2933 2933 2933 2933 2933 2933 2859 2859 2859 2883 2908 2908 2933 2933 2958 2958 0 0 0 2883 2883 2883 2859 2859 2859 2859 0 0 0 0 0 0 0 0 0 2933 2883 2883 2908 2908 2883 2883 2883 2883 2859 2859 2835 2835 5374 5374 5374 5374 5374 5460 5291 5291 5291 5291 5291 5374 5374 0 0 0 0 0 0 0 0 0 0 0 0 0
0 0 0 0 0 0 0 0 0 0 0 0 0 0 0 0 0 0 0 0 0 0 0 0 0 0 0 0 0 0 0 0 0 5460 5460 5548 5548 5548 5548 0 0 0 0 0 0 0 0 0 0 5548 5460 5460 5460 5548 5460 5460 5460 5460 5460 0 0 0 5460 5460 5460 5460 5548 5460 5460 5374 5374 0 0 0 0 0 0 0 0 5734 5734 5734 5734 5734 5640 5640 5374 5374 5374 2701 2701 2701 2701 2701 2701 2701 2701 2701 2701 2701 2701 2701 2680 2680 2680 2680 2680 2680 2680 2680 2701 2701 2701 2701 2701 2701 2701 2701 2701 2701 2701 2701 2701 2701 2701 2701 2701 2723 2723 2744 2744 2744 2767 2767 2767 2767 2767 2767 2767 2789 2789 2789 2812 2812 2812 2835 2835 2859 2883 2883 2958 2958 3010 3010 2016 2016 2016 2016 2028 2028 2028 2040 2040 2040 2053 2053 2053 2053 2053 2053 2053 2053 2053 2053 2053 2767 2767 2789 2789 2789 2812 2812 2812 2812 2812 2812 2812 2835 2835 2835 2835 2859 2859 2859 2859 2859 2859 2859 2859 2859 2859 2859 2883 2883 2933 2933 2933 2958 2958 2984 2984 2984 2958 2958 2933 2933 2933 2908 2908 2883 2883 2883 2883 2883 2883 2883 2883 2883 2883 2883 2883 2908 2129 2116 2116 2116 2143 2143 2143 2143 2143 2129 2129 2129 2129 2156 2859 2883 2883 2883 2883 2883 2883 2908 2908 2908 2908 2908 2908 2933 2933 2933 2958 2984 3010 3010 3010 3010 0 0 0 0 0 0 0 0 0 0 0 6259 6259 6375 6375 6375 6375 6375 6375 6375 6497 6497 6497 6497 6375 6375 6497 6375 6375 6375 6038 6038 6038 6038 6038 0 2198 2198 2198 2212 2212 2212 2212 2212 2198 2198 0 0 0 0 0 0 0 0 0 0 0 0 0 0 0 0 0 0 0 4911 4911 5056 5132 5132 5132 5210 5210 5210 5210 5210 5210 5210 5210 5132 5132 5132 5056 5056 5132 5056 5056 5056 5056 5056 4983 4983 4983 5056 5056 5056 5056 5056 4983 4983 4983 4911 4911 4911 4911 2212 2212 2212 2226 2241 2256 2256 2271 2271 2271 2256 2256 2256 2256 5056 5056 5132 5132 5132 5132 5210 5210 5210 5210 5210 5210 5132 5132 5132 5132 5132 0 0 0 0 0 0 0 0 0 0 0 0 0 0 0 0 0 0 0 0 0 0 0 0 0 0 0 0 0 0 0 0 0 0 0 4089 4089 4089 4089 4089 4089 4089 4089 4089 0 0 0 0 0 0 0 0 0 0 0 0 0 0 0 0 0 0 0 0 0 0 0 0 0 0 4139 4139 4190 4190 4190 4190 4190 4295 4349 5056 5056 5056 5056 5056 5056 5056 5056 5056 5056 3576 3576 3576 3576 3614 3614 3614 3576 3576 3576 3576 3614 3614 3614 3614 3576 3576 3614 3614 3576 3576 3576 4842 4842 4842 4842 4774 4774 4842 4842 4842 4842 4842 4842 4842 4774 4774 4774 4774 4774 4983 4983 4983 4983 4983 3859 3816 3816 3816 3774 3732 2933 2933 2933 2933 2933 2933 2908 2883 2883 2883 2883 2883 2883 2883 2908 2908 2908 2933 2908 2908 2908 2908 2908 2908 2908 2933 2933 2933 2859 2859 2859 2883 2908 2908 2908 2908 2933 2933 2958 2933 2933 2933 2883 2883 2859 2859 2859 0 0 0 0 0 0 0 0 0 0 2933 2908 2908 2908 2908 2908 2883 2883 2883 2859 2859 2859 5374 5374 5374 5374 5374 5374 5374 5291 5291 5460 5291 5291 5291 5291 0 0 0 0 0 0 0 0 0 0 0 0 0
0 0 0 0 0 0 0 0 0 0 0 0 0 0 0 0 0 0 0 0 0 0 0 0 0 0 0 0 0 0 0 0 0 5460 5460 5460 5548 5460 5460 0 0 0 0 0 0 0 0 0 0 0 5460 5460 5460 5548 5460 5460 5460 5460 5460 0 0 0 5460 5460 5460 5460 5548 5460 5460 5374 5374 0 0 0 0 0 0 0 0 5734 5734 5734 5374 5374 5640 5640 5374 5374 5374 2701 2701 2701 2701 2701 2701 2701 2701 2701 2701 2701 2701 2701 2680 2680 2680 2680 2680 2680 2680 2680 2680 2680 2701 2701 2701 2701 2701 2701 2701 2723 2701 2701 2723 2701 2701 2701 2701 2701 2723 2723 2744 2744 2744 2767 2767 2767 2767 2767 2767 2789 2789 2789 2812 2812 2835 2859 2859 2859 2883 2883 2908 2933 2958 2958 2958 2016 2016 2028 2028 2028 2028 2040 2040 2040 2053 2053 2053 2053 2053 2789 2789 2789 2767 2767 2789 2789 2789 2789 2789 2789 2812 2812 2812 2812 2812 2812 2812 2835 2835 2835 2835 2835 2859 2835 2835 2859 2859 2859 2859 2859 2883 2883 2908 2908 2933 2933 2933 2958 2958 2984 2984 2984 2958 2958 2933 2933 2933 2933 2908 2908 2908 2908 2883 2883 2883 2883 2883 2883 2883 2883 2883 2908 2908 2116 2116 2116 2143 2143 2143 2143 2143 2129 2129 2129 2129 2156 2859 2883 2883 2883 2908 2908 2908 2908 2908 2908 2908 2908 2908 2933 2933 2933 2958 2984 3010 3010 3037 3037 0 0 0 0 0 0 0 0 0 0 0 6259 6259 6375 6375 6375 6375 6375 6375 6375 6375 6375 6375 6375 6375 6375 6038 6038 6038 5933 5933 6038 6038 6038 0 2226 2212 2212 2212 2212 2212 2212 2226 2226 2198 2170 2156 2156 0 0 0 0 0 0 0 0 0 0 0 0 0 0 0 0 0 0 0 5210 5210 5210 5210 5210 5210 5210 5210 5210 5210 5210 5210 5132 5132 5132 5056 5056 5132 5056 5056 5056 5056 5056 4983 4983 4983 5056 5056 5056 5056 5056 5056 4983 4983 4983 4911 4911 0 2212 2212 2212 2226 2241 2256 2256 2271 2271 2271 2256 2256 2256 2256 5056 5056 5132 5132 5132 5132 5210 5210 5210 5210 5210 5210 5132 5132 5132 5132 5210 0 0 0 0 0 0 0 0 0 0 0 0 0 0 0 0 0 0 0 0 0 0 0 0 0 0 0 0 0 0 0 0 0 0 0 4089 4089 4089 4089 4089 4089 4089 4089 4139 0 0 0 0 0 0 0 0 0 0 0 0 0 0 0 0 0 0 0 0 0 0 0 0 0 0 4139 4139 4190 4190 4139 4139 4139 4190 4190 5056 5056 5132 5056 5056 5056 5056 5056 5056 5056 3614 3614 3614 3614 3614 3614 3614 3576 3576 3614 3614 3614 3614 3614 3614 3614 3614 3614 3614 3614 3614 4842 4842 4842 4842 4842 4842 4842 4842 4842 4842 4842 4842 4842 4842 4774 4774 4774 4774 4842 5056 3732 3732 3774 3774 3774 3774 3774 3774 3774 3732 3732 2908 2908 2908 2908 2908 2908 2883 2883 2883 2883 2883 2883 2883 2908 2908 2908 2933 2908 2908 2908 2908 2908 2908 2908 2933 2933 2933 2859 2859 2859 2883 2908 2908 2908 2908 2908 2933 2933 2908 2908 2908 2908 2908 2859 2859 2883 0 0 0 0 0 0 0 0 0 0 2933 2908 2908 2908 2908 2908 2908 2908 2908 2883 2883 2883 5374 5374 5374 5374 5374 5374 5374 5374 5374 5374 5291 5291 5291 5291 0 0 0 0 0 0 0 0 0 0 0 0 0
0 0 0 0 0 0 0 0 0 0 0 0 0 0 0 0 0 0 0 0 0 0 0 0 0 0 0 0 0 0 5132 5132 5210 5291 5374 5460 5460 5460 5374 5374 0 0 0 0 0 0 0 0 0 0 5460 5460 5460 5460 5460 5548 5548 5460 5460 5460 0 0 5460 5460 5460 5460 5460 5460 5374 5374 5374 0 0 0 0 0 0 0 0 0 5291 5291 5291 5291 5460 5548 5291 5291 5291 2701 2680 2680 2701 2701 2701 2701 2701 2701 2701 2701 2701 2701 2680 2680 2680 2680 2680 2680 2680 2680 2680 2680 2701 2701 2701 2701 2701 2701 2701 2723 2723 2723 2723 2701 2701 2701 2701 2701 2723 2723 2744 2744 2744 2767 2767 2767 2767 2767 2767 2789 2789 2789 2812 2812 2835 2835 2859 2859 2883 2883 2908 2908 2958 2958 2958 2016 2016 2028 2028 2028 2028 2040 2040 2040 2053 2053 2053 2053 2789 2789 2789 2789 2789 2789 2789 2812 2812 2789 2789 2789 2812 2812 2812 2812 2812 2812 2835 2835 2835 2835 2835 2835 2859 2835 2835 2859 2859 2859 2859 2883 2883 2883 2908 2908 2933 2933 2958 2958 2958 2958 2984 2984 2958 2958 2933 2933 2933 2933 2908 2908 2908 2908 2908 2883 2883 2908 2883 2883 2883 2883 2883 2883 2908 2908 2116 2116 2143 2143 2143 2143 2143 2129 2129 2129 2129 2170 2859 2883 2883 2908 2908 2908 2908 2908 2908 2908 2908 2933 2933 2933 2933 2958 2984 2984 3010 3010 3037 3037 0 0 0 0 0 0 0 0 0 0 0 0 6375 6375 6375 6375 6375 6375 6375 6375 6375 6375 6375 6375 6375 0 0 6038 6038 5933 5933 5933 6038 6038 6038 2226 2226 2226 2226 2226 2212 2212 2226 2226 2198 2170 2156 2156 0 0 0 0 0 0 0 0 0 0 0 0 0 0 0 0 0 0 0 5210 5210 5210 5210 5210 5291 5291 5291 5210 5210 5210 5132 5132 5132 5132 5056 5056 5132 5056 5056 5056 5132 5056 5056 5056 5056 5056 5056 5056 5056 5056 5056 5056 4983 4983 4983 4983 0 4983 2226 2226 2226 2241 2256 2256 2271 2271 2256 2256 2256 2256 5056 5056 5056 5132 5132 5132 5132 5210 5210 5210 5210 5210 5210 5132 5132 5132 5132 5210 0 0 0 0 0 0 0 0 0 0 0 0 0 0 0 0 0 0 0 0 0 0 0 0 0 0 0 0 0 0 0 0 0 0 0 4089 4089 4089 4089 4089 4089 4139 4139 4139 4190 0 0 0 0 0 0 0 0 0 0 4089 4089 0 0 0 0 3948 3948 3948 3948 4041 4041 0 0 0 4089 4089 4139 4139 4139 4139 4139 4139 4139 4139 5132 5132 5056 5056 5056 5056 5056 5056 5056 3614 3614 3614 3614 3653 3653 3653 3614 3614 3614 3576 3576 3614 3614 3614 3614 3614 3614 3653 3614 3614 4774 4842 4842 4842 4842 4842 4842 4842 4842 4842 4842 4842 4842 4842 4774 4774 4774 4774 4842 3732 3732 3732 3774 3774 3774 3732 3732 3692 3692 3692 3692 2908 2883 2883 2908 2908 2908 2883 2883 2883 2883 2883 2883 2883 2908 2933 2933 2933 2933 2933 2933 2933 2933 2933 2933 2933 2933 0 2883 2883 2883 2883 2908 2908 2908 2908 2908 2933 2933 2908 2908 2908 2908 2908 2859 2859 0 0 0 0 0 0 0 0 0 0 0 2933 2908 2908 2908 2908 2908 2908 2908 2908 2883 2883 2883 5374 5374 5374 5374 5374 5374 5374 5374 5374 5374 5374 5374 5291 5291 0 0 0 0 0 0 0 0 0 0 0 0 0
0 0 0 0 0 0 0 0 0 0 0 0 0 0 0 0 0 0 0 0 0 0 0 0 0 0 0 0 0 0 5132 5132 5132 5210 5291 5374 5460 5460 5374 5374 0 0 0 0 0 0 0 0 0 0 5460 5460 5460 5460 5460 5460 5548 5460 5460 5460 5548 5548 5460 5460 5460 5460 5460 5374 5374 5291 5291 0 0 0 0 0 0 0 0 0 5374 5291 5291 5291 5291 5291 5291 5291 5291 2680 2680 2680 2701 2701 2701 2701 2701 2701 2701 2701 2701 2701 2701 2680 2680 2680 2680 2680 2680 2680 2680 2680 2701 2701 2701 2701 2701 2701 2701 2701 2723 2723 2723 2701 2701 2723 2723 2723 2723 2744 2744 2744 2744 2767 2767 2767 2767 2767 2789 2789 2789 2789 2812 2812 2835 2835 2859 2859 2883 2883 2908 2908 2958 2958 2958 2028 2016 2016 2028 2028 2028 2040 2040 2040 2053 2053 2053 2053 2789 2789 2789 2789 2789 2789 2812 2812 2812 2789 2789 2812 2812 2812 2835 2835 2835 2835 2835 2835 2835 2835 2835 2835 2859 2859 2859 2859 2859 2859 2859 2883 2883 2883 2908 2908 2933 2933 2958 2958 2958 2958 2958 2958 2958 2933 2933 2933 2933 2933 2933 2908 2908 2908 2908 2883 2883 2908 2883 2883 2883 2883 2883 2883 2908 2908 2116 2116 2143 2143 2143 2143 2143 2129 2129 2129 2129 2835 2859 2883 2883 2908 2908 2908 2908 2908 2908 2908 2933 2933 2933 2933 2958 2958 2984 3010 3010 3010 3010 0 0 0 0 0 0 0 0 0 0 0 0 0 0 6375 6259 6259 6259 6375 6259 6259 6259 6259 6259 6259 6259 0 0 5933 0 5933 5933 5933 5933 5933 2226 2226 2226 2226 2226 2226 2212 2212 2226 2212 2198 2170 2143 2129 2116 2116 2116 0 0 0 0 0 0 0 0 0 0 0 0 0 0 0 0 0 5210 5210 5210 5210 5291 5291 5291 5210 5210 5210 5132 5132 5132 5132 5056 5056 5132 5056 5056 5056 5056 5132 5056 4983 4983 5056 5056 5056 4983 4983 4983 5056 4983 4983 4983 4983 4983 0 2226 2226 2226 2241 2256 2256 2271 2271 2256 2256 2256 2256 5056 5056 5132 5132 5132 5132 5132 5210 5210 5210 5210 5210 5210 5132 5132 5132 5132 5210 0 0 0 0 0 0 0 0 0 0 0 0 0 0 0 0 0 0 0 0 0 0 0 0 0 0 0 0 0 0 0 0 0 0 0 4089 4089 4089 4089 4089 4089 4089 4089 4139 4139 0 0 0 0 0 0 0 0 4041 4041 4041 4041 3994 3994 3948 3948 3948 3948 3948 3948 3994 4041 4041 4041 4089 4089 4089 4139 4089 4089 4089 4089 4139 4139 4139 5132 5132 5056 5056 5056 5056 5056 5056 3732 3653 3653 3653 3653 3653 3653 3653 3614 3614 3576 3576 3576 3614 3614 3614 3653 3653 3653 3653 3653 3653 4774 4842 4842 4842 4842 4842 4842 4842 4842 4842 4842 4842 4842 4842 4774 4774 4774 4774 3774 3732 3732 3732 3774 3774 3732 3732 3692 3692 3692 3653 3653 2859 2859 2883 2908 2933 2908 2908 2908 2908 2908 2908 2908 2908 2908 2933 2933 2933 2933 2933 2933 2933 2933 2933 2933 2933 2933 0 0 2908 2908 2908 2933 2908 2908 2908 2908 2908 2908 2908 2908 2908 2908 2908 2859 2859 0 0 0 0 0 0 0 0 0 0 2933 2933 2908 2908 2908 2908 2908 2908 2908 2908 2883 2883 2883 5291 5291 5374 5374 5374 5374 5374 5374 5374 5374 5374 5374 5291 5291 0 0 0 0 0 0 0 0 0 0 0 0 0
0 0 0 0 0 0 0 0 0 0 0 0 0 0 0 0 0 0 0 0 0 0 0 0 0 0 0 0 0 0 5132 5132 5132 5210 5291 5291 5291 5460 5460 0 0 0 0 0 0 0 0 0 0 0 0 5460 5460 5460 5460 5460 5460 5460 5460 5460 5460 5548 5460 5460 5460 5460 5460 5374 5374 5291 5291 5374 5374 0 0 0 0 0 5460 5374 5291 5210 5210 5210 5210 5210 5132 5132 5132 2680 2680 2680 2701 2701 2723 2723 2701 2701 2701 2701 2701 2701 2701 2701 2680 2680 2680 2701 2701 2701 2701 2701 2701 2701 2701 2701 2701 2701 2701 2701 2723 2723 2723 2723 2723 2723 2723 2723 2744 2744 2744 2767 2767 2767 2767 2767 2767 2789 2789 2789 2789 2789 2812 2812 2835 2835 2859 2883 2883 2908 2908 2908 2933 2933 2933 2028 2016 2016 2028 2028 2028 2040 2040 2040 2040 2040 2053 2053 2789 2789 2789 2789 2789 2789 2812 2812 2812 2812 2812 2812 2812 2812 2812 2835 2835 2835 2835 2835 2835 2835 2835 2859 2859 2859 2859 2859 2859 2859 2859 2883 2908 2908 2908 2933 2933 2933 2958 2958 2958 2958 2958 2958 2933 2933 2933 2933 2933 2933 2933 2908 2908 2908 2908 2883 2883 2883 2883 2883 2883 2883 2883 2883 2883 2129 2116 2116 2143 2143 2143 2143 2143 2129 2129 2129 2143 2170 2883 2883 2883 2908 2908 2908 2908 2908 2908 2933 2933 2933 2933 2933 2958 2958 2984 3010 3010 3010 3010 0 0 0 0 0 0 0 0 0 0 0 0 0 0 6146 6146 6146 6146 6259 6146 6146 6259 6259 6259 6259 6259 0 0 0 5933 0 5933 5933 5933 0 2212 2212 2212 2212 2212 2212 2212 2212 2212 2212 2198 2170 2143 2129 2116 2116 2116 0 0 0 0 0 0 0 0 0 0 0 0 0 0 0 0 5291 5210 5210 5210 5210 5291 5291 5291 5210 5210 5210 5132 5132 5132 5132 5056 5056 5132 5056 5056 5056 5056 5056 5056 4983 4983 4983 5056 5056 4983 4983 4983 5056 4983 4983 4983 4983 4983 0 2226 2226 2226 2241 2256 2256 2271 2271 2256 2256 2256 2256 2256 5132 5132 5132 5132 5132 5210 5210 5210 5210 5210 5210 5210 5210 5210 5132 5132 5210 0 0 0 0 0 0 0 0 0 0 0 0 0 0 0 0 0 0 0 0 0 0 0 0 0 0 0 0 0 0 0 0 0 0 0 0 4089 4089 4089 4089 4139 4089 4089 4139 4139 0 0 0 0 0 0 0 3994 3994 3994 4041 3994 3994 3948 3948 3948 3948 3948 3948 3948 3994 4041 4041 4089 4089 4041 4041 4089 4089 4089 4041 4041 4089 4089 4089 4139 5132 5056 5056 5056 5056 5056 3732 3732 3692 3653 3653 3653 3653 3653 3653 3614 3614 3576 3576 3576 3614 3614 3614 3653 3653 3653 3653 3653 3653 4774 4774 4774 4774 4774 4842 4774 4774 4774 4842 4842 4842 4842 4842 4842 4842 4842 4842 3774 3732 3732 3732 3774 3774 3732 3732 3692 3692 3692 3653 3653 2859 2859 2859 2883 2933 2933 2908 2908 2908 2908 2908 2908 2908 2908 2933 2933 2933 2933 2933 2933 2933 2933 2933 2933 2933 0 0 0 0 2933 2933 2908 2908 2908 2883 2883 2908 2908 2883 2883 2883 2908 2908 0 0 0 0 0 0 0 0 0 0 0 2958 2933 2933 2908 2908 2908 2908 2908 2908 2908 2908 2883 2883 2883 5291 5291 5374 5374 5460 5374 5374 5374 5374 5374 5374 5374 5291 5291 0 0 0 0 0 0 0 0 0 0 0 0 0
0 0 0 0 0 0 0 0 0 0 0 0 0 0 0 0 0 0 0 0 0 0 0 0 0 0 0 0 0 0 5210 5132 5132 5210 5291 5210 5210 5132 5056 5056 0 0 0 0 0 0 0 0 0 0 0 0 5548 5460 5460 5460 5460 5460 5460 5460 5460 5460 5460 5460 5374 5374 5374 5291 5291 5291 5291 5374 5374 0 0 0 0 0 5374 5291 5291 5210 5210 5210 5210 5132 5132 5132 5132 5132 2680 2680 2701 2701 2723 2723 2701 2701 2701 2701 2701 2701 2701 2701 2701 2680 2680 2701 2701 2701 2701 2701 2701 2701 2701 2701 2701 2701 2701 2723 2723 2723 2723 2723 2723 2744 2723 2723 2744 2744 2744 2767 2767 2767 2767 2767 2767 2789 2789 2789 2789 2812 2812 2812 2835 2835 2859 2883 2883 2908 2908 2908 2933 2933 3010 3010 2016 2016 2028 2028 2028 2040 2040 2040 2040 2040 2053 2053 2789 2789 2789 2789 2812 2812 2812 2812 2812 2812 2812 2812 2812 2812 2812 2835 2812 2812 2835 2835 2835 2835 2859 2859 2859 2859 2859 2859 2859 2859 2859 2883 2883 2908 2908 2933 2933 2933 2958 2958 2958 2958 2958 2958 2933 2933 2933 2933 2933 2933 2933 2933 2933 2908 2908 2908 2908 2883 2883 2883 2883 2883 2883 2883 2883 2129 2129 2143 2143 2143 2143 2143 2143 2129 2129 2129 2143 2170 2883 2883 2883 2908 2908 2908 2908 2908 2933 2933 2933 2933 2933 2958 2958 2984 2984 2984 3010 3010 3010 0 0 0 0 0 0 0 0 0 0 0 0 0 0 6038 6038 6146 6146 6146 6146 6146 6146 6259 6259 6259 6259 0 0 0 0 0 5548 5548 5548 5640 2212 2212 2212 2212 2212 2212 2212 2212 2212 2212 2212 2198 2170 2170 0 0 0 0 0 0 0 0 0 0 0 0 0 0 0 0 0 0 5374 5291 5210 5210 5210 5210 5291 5291 5291 5210 5210 5210 5132 5132 5132 5132 5056 5056 5132 5056 5056 5056 5056 5056 4983 4983 4983 4983 5056 5056 4983 4983 4983 5056 5056 4983 4983 4983 4983 0 2226 2226 2226 2241 2256 2256 2271 2271 2271 2271 2256 2256 2256 5132 5132 5132 5210 5210 5210 5210 5210 5210 5210 5210 5210 5210 5210 5210 5210 5210 0 0 0 0 0 0 0 0 0 0 0 0 0 0 0 0 0 0 0 0 0 0 0 0 0 0 0 0 0 0 0 0 0 0 0 0 4089 4089 4089 4139 4139 4139 4139 4139 4139 0 0 0 0 0 0 3994 3994 3994 3994 3994 3994 3948 3948 3948 3948 3948 3948 3948 3948 3994 4041 4041 4089 4089 4041 4041 4041 4041 4041 4041 3994 3994 4089 4089 4089 3948 3948 3948 3948 3903 3816 3732 3732 3692 3692 3653 3653 3653 3653 3653 3614 3614 3576 3576 3576 3614 3614 3614 3614 3614 3653 3653 3653 3653 4774 4774 4774 4774 4774 4842 4774 4774 4774 4842 4842 4842 4842 4842 4842 4842 4911 3774 3774 3774 3774 3774 3774 3774 3732 3732 3732 3692 3692 3692 3692 2859 2859 2859 2883 2908 2908 2908 2908 2908 2908 2908 2908 2908 2908 2933 2933 2933 2933 2933 2933 2933 2933 2933 2933 2933 0 0 0 0 2908 2908 2908 2908 2883 2883 2883 2883 2883 2883 2883 2883 2908 2908 0 0 0 0 0 0 0 0 0 0 2933 2933 2933 2933 2908 2908 2933 2908 2908 2908 2908 2908 2883 2883 2883 5460 5460 5460 5460 5460 5460 5374 5374 5374 5374 5374 5374 5374 5374 0 0 0 0 0 0 0 0 0 0 0 0 0
0 0 0 0 0 0 0 0 0 0 0 0 0 0 0 0 0 0 0 0 0 0 0 0 0 0 0 0 0 0 5210 5210 5210 5210 5291 5210 5210 5132 5056 5056 0 0 0 0 0 0 0 0 0 0 0 0 5548 5460 5460 5460 5460 5460 5460 5460 5460 5460 5374 5374 5374 5374 5374 5291 5291 5291 5291 0 0 0 0 0 0 0 5291 5291 5210 5210 5210 5210 5210 5132 5132 5132 5132 5132 2701 2680 2680 2701 2723 2723 2723 2723 2723 2723 2723 2723 2701 2701 2701 2701 2701 2701 2701 2701 2701 2701 2701 2701 2701 2701 2701 2701 2701 2723 2723 2723 2723 2723 2723 2744 2744 2744 2744 2744 2767 2767 2767 2767 2767 2767 2789 2789 2789 2789 2789 2812 2835 2835 2835 2859 2859 2883 2883 2908 2908 2933 2933 2908 2908 2908 2028 2028 2028 2028 2040 2040 2040 2040 2053 2053 2053 2812 2812 2812 2812 2812 2812 2812 2812 2812 2812 2812 2812 2812 2812 2812 2812 2835 2812 2812 2835 2835 2835 2835 2835 2859 2859 2859 2859 2859 2859 2859 2859 2883 2883 2908 2908 2933 2933 2933 2958 2958 2958 2958 2958 2958 2958 2933 2933 2933 2933 2933 2933 2933 2933 2933 2908 2908 2908 2908 2908 2883 2883 2883 2908 2908 2908 2156 2156 2156 2143 2143 2143 2143 2143 2143 2143 2156 2156 2156 2170 2883 2883 2908 2908 2908 2908 2933 2933 2933 2933 2933 2933 2958 2958 2984 2984 2984 2984 3010 3010 3037 0 0 0 0 0 0 0 0 0 0 0 0 0 6038 6038 6038 6146 6146 5933 5933 5933 5933 6038 6146 6259 0 0 0 0 0 5548 5548 5640 5640 2226 2226 2212 2212 2198 2198 2212 2198 2198 2212 2212 2212 2198 2198 0 0 0 0 0 0 0 0 0 0 0 0 0 0 0 0 0 0 5374 5374 5291 5291 5291 5291 5291 5291 5291 5291 5210 5210 5132 5132 5132 5132 5056 5056 5132 5132 5056 5056 5056 5056 4983 4983 4983 4983 4983 4983 4983 4983 4983 5056 5056 4983 4983 4983 4983 0 2226 2226 2226 2241 2256 2256 2271 2271 2271 2271 2271 2271 2271 5056 5056 5132 5210 5210 5210 5210 5210 5210 5210 5210 5210 5210 5210 5210 5210 5210 0 0 0 0 0 0 0 0 0 0 0 0 0 0 0 0 0 0 0 0 0 0 0 0 0 0 0 0 0 0 0 0 0 0 0 0 4089 4089 4139 4139 4139 4139 4139 4139 4139 0 0 0 0 0 3994 3994 3994 3994 3994 3994 3948 3948 3948 3948 3948 3948 3948 3903 3903 3948 3994 3994 3994 3994 3994 3994 3994 3994 3994 3948 3948 3948 3948 4041 3994 3948 3948 3948 3948 3903 3816 3774 3732 3692 3692 3692 3653 3653 3653 3653 3614 3614 3576 3576 3576 3576 3576 3614 3614 3614 3653 3653 3653 3692 3732 4774 4774 4774 4774 4842 4774 4774 4774 4842 4842 4842 4842 4842 4842 4842 4983 2883 2883 3774 3774 3774 3774 3774 3774 3732 3732 3692 3692 3692 3692 3732 2883 2883 2908 2908 2908 2908 2908 2908 2908 2908 2908 2908 2933 2933 2933 2933 2933 2933 2933 2933 2933 2933 2933 2933 2933 0 2908 0 2883 2883 2908 2908 2883 2883 2883 2883 2883 2883 2883 2883 0 0 0 0 0 0 0 0 0 0 0 0 2933 2933 2933 2933 2908 2908 2933 2908 2908 2908 2908 2908 2883 2883 2883 5548 5460 5460 5460 5460 5374 5374 5374 5374 5374 5374 5374 5291 5291 0 0 0 0 0 0 0 0 0 0 0 0 0
0 0 0 0 0 0 0 0 0 0 0 0 0 0 0 0 0 0 0 0 0 0 0 0 0 0 0 0 0 0 5132 5132 5056 5056 5210 5210 5210 5210 5132 5132 0 0 0 5291 5291 0 0 0 0 0 0 0 0 5460 5460 5460 5460 5460 5460 5460 5460 5460 5374 5374 5374 5374 5374 5291 5291 5291 0 0 0 0 0 0 0 0 5291 5291 5210 5210 5210 5210 5210 5210 5132 5132 5132 0 2680 2680 2680 2701 2723 2723 2723 2723 2723 2723 2723 2723 2701 2701 2701 2701 2701 2701 2701 2701 2701 2701 2701 2701 2701 2701 2701 2701 2701 2701 2701 2723 2723 2723 2723 2744 2744 2744 2744 2744 2767 2767 2767 2767 2767 2767 2789 2789 2789 2789 2789 2812 2835 2835 2835 2859 2859 2883 2883 2908 2933 2933 2908 2908 2908 2908 2908 2028 2028 2028 2040 2040 2040 2040 2053 2053 2053 2065 2812 2812 2812 2812 2812 2812 2812 2835 2835 2812 2812 2812 2812 2812 2812 2835 2812 2812 2835 2835 2835 2835 2835 2859 2859 2859 2859 2859 2859 2859 2859 2883 2883 2883 2908 2908 2933 2933 2958 2958 2958 2958 2958 2958 2958 2933 2933 2933 2933 2933 2933 2933 2933 2933 2908 2908 2908 2908 2908 2908 2908 2908 2908 2908 2908 2908 2156 2143 2143 2143 2143 2143 2143 2143 2143 2156 2156 2156 2170 2883 2908 2908 2908 2908 2933 2933 2933 2933 2933 2958 2958 2958 2958 2958 2984 2984 2984 3010 3010 3037 0 0 0 0 0 0 0 0 0 0 0 0 0 0 6038 6038 6038 5734 5734 5832 5832 5933 5933 5933 5933 0 0 0 0 0 5548 5548 5548 5640 0 2212 2212 2212 2198 2198 2212 2198 2198 2212 2212 2212 2198 2198 0 0 0 0 0 0 0 0 0 0 0 0 0 0 0 0 0 0 5374 5374 5291 5291 5291 5291 5291 5291 5291 5291 5291 5210 5210 5132 5132 5132 5056 5056 5132 5132 5056 5056 5056 5056 4983 4983 4983 4983 4983 4983 4983 4983 4983 5056 5056 5056 4983 4983 4983 2271 2241 2241 2241 2241 2256 2256 2271 2271 2271 2271 2271 2271 2271 5056 5056 5056 5210 5210 5210 5210 5210 5210 5210 5210 5210 5210 5210 5210 5210 5210 0 0 0 0 0 0 0 0 0 0 0 0 0 0 0 0 0 0 0 0 0 0 0 0 0 0 0 0 0 0 0 0 0 0 0 0 0 4139 4139 4139 4139 4139 4139 4139 4139 0 0 0 0 0 3994 3994 3994 3994 3994 3994 3948 3948 3948 3903 3903 3948 3948 3903 3903 3948 3948 3948 3994 3994 3948 3948 3948 3948 3948 3948 3903 3903 3903 3903 3903 3903 3903 3903 3948 3903 3816 3774 3732 3692 3692 3692 3653 3653 3653 3653 3614 3614 3576 3576 3576 3576 3576 3614 3614 3653 3653 3653 3692 3692 3732 3774 4774 4774 4774 4774 4774 4774 4842 4842 4842 4842 4842 4842 4842 4842 3732 2883 2883 3774 3774 3774 3732 3732 3732 3732 3692 3692 3653 3653 3653 3692 2883 2883 2908 2908 2908 2908 2908 2908 2908 2908 2933 2933 2933 2958 2958 2958 2933 2933 2933 2933 2933 2933 2958 2958 0 0 2908 2908 2883 2883 2908 2908 2908 2883 2883 2883 2883 2883 2883 2883 0 0 0 0 0 0 0 0 0 0 0 0 0 2933 2908 2908 2908 2908 2933 2908 2908 2908 2908 2908 2908 2908 2908 5548 5460 5460 5548 5460 5374 5374 5374 5291 5291 5374 5374 5291 5291 0 0 0 0 0 0 0 0 0 0 0 0 0
0 0 0 0 0 0 0 0 0 0 0 0 0 0 0 0 0 0 0 0 0 0 0 0 0 0 0 0 0 0 5056 5056 4983 4983 4983 4983 5210 5210 5132 5132 5132 5132 5132 5210 5291 0 0 0 0 0 0 0 0 0 5460 5374 5374 5374 5460 5460 5374 5374 5291 5374 5374 5374 5374 5374 4911 4911 0 0 0 0 0 0 0 5291 5291 5210 5210 5210 5210 5210 5210 5210 5132 5132 5132 0 0 2701 2680 2680 2701 2723 2723 2723 2744 2744 2744 2744 2723 2723 2723 2701 2701 2701 2701 2701 2701 2701 2701 2701 2701 2701 2701 2701 2701 2701 2701 2723 2723 2723 2744 2744 2744 2744 2744 2767 2767 2767 2767 2767 2767 2789 2789 2789 2789 2789 2789 2812 2835 2835 2835 2859 2859 2883 2883 2908 2933 2933 2908 2908 2908 2908 2933 2933 2040 2040 2040 2040 2040 2053 2053 2053 2053 2065 2812 2812 2812 2812 2812 2812 2812 2835 2835 2835 2835 2812 2812 2812 2835 2835 2835 2835 2835 2835 2835 2835 2859 2859 2859 2859 2859 2859 2859 2859 2859 2883 2883 2883 2908 2908 2933 2933 2958 2958 2958 2958 2958 2958 2958 2958 2933 2933 2933 2933 2933 2933 2908 2908 2908 2908 2908 2908 2908 2908 2908 2908 2908 2908 2908 2908 2156 2143 2143 2143 2143 2143 2143 2143 2143 2156 2156 2883 2908 2908 2908 2908 2908 2908 2933 2933 2933 2933 2933 2958 2958 2958 2958 2958 2984 2984 2984 3010 3010 3037 0 0 0 0 0 0 0 0 0 0 0 0 0 0 0 5832 5640 5640 5640 5832 5832 5832 5832 5832 5832 0 0 0 5548 5548 5548 5548 5548 5640 0 2226 2226 2226 2226 2212 2212 2212 2212 2212 2212 2212 2198 2198 0 0 0 0 0 0 0 0 0 0 0 0 0 0 0 0 0 0 5460 5374 5374 5291 5291 5291 5291 5291 5291 5210 5210 5210 5210 5132 5132 5132 5056 5056 5132 5132 5056 5056 5056 5056 4983 4983 4983 4983 4983 4983 4983 4983 4983 4983 4983 4983 4983 5056 5056 2271 2271 2256 2256 2256 2256 2256 2271 2271 2271 2271 2271 2271 2271 5056 5056 5056 5132 5210 5210 5210 5210 5291 5291 5210 5210 5210 5291 5210 5210 5210 0 0 0 0 0 0 0 0 0 0 0 0 0 0 0 0 0 0 0 0 0 0 0 0 0 0 0 0 0 0 0 0 0 0 0 0 0 0 0 4139 4139 4139 4139 0 0 0 0 0 0 0 0 3994 3994 3994 3994 3994 3948 3948 3903 3903 3903 3948 3903 3903 3903 3903 3903 3948 3948 3948 3903 3903 3903 3903 3903 3948 3903 3903 3903 3903 3903 3903 3903 3903 3903 3859 3816 3774 3732 3692 3692 3653 3653 3692 3692 3653 3614 3614 3576 3576 3576 3576 3576 3614 3614 3653 3692 3692 3692 3732 3732 3774 4774 4774 4774 4774 4774 4774 4842 4842 4842 4842 4842 4842 4911 4911 2883 2883 2883 3774 3774 3774 3732 3732 3732 3692 3692 3692 3653 3653 3653 2883 2883 2883 2908 2908 2908 2908 2908 2933 2933 2933 2933 2933 2933 2958 2958 2958 2958 2958 2958 2958 2958 2958 2958 2958 0 0 2908 2908 2908 2908 2908 2908 2908 2883 2883 2883 2908 2883 2883 2883 0 0 0 0 0 0 0 0 0 0 0 0 0 2908 2908 2908 2908 2908 2908 2908 2908 2908 2908 2908 2908 2908 2908 2908 5548 5548 5548 5460 5374 5374 5291 5291 5291 5291 5374 5291 5291 0 0 0 0 0 0 0 0 0 0 0 0 0
0 0 0 0 0 0 0 0 0 0 0 0 0 0 0 0 0 0 0 0 0 0 0 0 0 0 0 0 0 0 5056 4983 4983 4911 4911 4911 5056 5132 5056 5056 5056 5132 5132 5210 5291 5291 5132 5132 0 0 0 0 0 0 5460 5291 5291 5291 5291 5291 5374 5374 5291 5291 5291 5056 5056 4911 4911 0 0 0 0 0 0 0 0 5291 5210 5210 5210 5210 5210 5210 5210 5210 5210 0 0 0 0 0 2680 2680 2701 2723 2723 2723 2744 2744 2744 2744 2723 2723 2723 2701 2701 2701 2701 2701 2701 2701 2701 2701 2701 2701 2701 2701 2701 2701 2701 2701 2723 2723 2744 2767 2767 2767 2767 2767 2767 2767 2767 2767 2767 2789 2789 2789 2789 2789 2789 2812 2812 2812 2835 2859 2859 2883 2883 2908 2933 2933 2908 2908 2908 2933 2933 2933 2053 2040 2040 2040 2040 2053 2053 2053 2053 2835 2812 2812 2812 2812 2812 2812 2812 2835 2835 2835 2835 2812 2812 2835 2835 2835 2835 2835 2835 2835 2835 2859 2859 2859 2859 2859 2859 2859 2859 2859 2859 2883 2883 2883 2908 2933 2933 2933 2958 2958 2958 2958 2958 2958 2958 2958 2933 2933 2933 2933 2933 2933 2908 2908 2908 2908 2908 2908 2908 2908 2908 2908 2908 2908 2908 2908 2156 2156 2143 2143 2143 2143 2143 2143 2143 2156 2156 2170 2908 2908 2908 2908 2908 2933 2933 2933 2933 2933 2933 2958 2958 2958 2958 2984 2984 2984 2984 3010 3010 0 0 0 0 0 0 0 0 0 0 0 0 0 0 5832 5832 5832 5832 5640 5640 5734 5734 5734 5832 5832 5832 0 0 0 5548 5548 5548 5548 5548 5548 0 2241 2226 2226 2226 2212 2212 2212 2212 2212 2212 2212 2212 2212 2212 0 0 0 0 0 0 0 0 0 0 0 0 0 0 0 0 0 5460 5374 5374 5291 5291 5291 5291 5291 5291 5210 5210 5210 5210 5132 5132 5132 5056 5056 5056 5056 5056 5056 4983 4983 4983 4983 4911 4911 4911 4911 4911 4911 4911 4911 4983 4983 4983 5056 5056 2271 2271 2271 2271 2271 2256 2256 2271 2271 2271 2271 2286 2286 5056 5056 5056 5056 5132 5132 5210 5210 5210 5291 5291 5291 5291 5291 5291 0 0 0 0 0 0 0 0 0 0 0 0 0 0 0 0 0 0 0 0 0 0 0 0 0 0 0 0 0 0 0 0 0 0 0 0 0 0 0 0 0 0 0 0 0 0 0 0 0 0 0 0 0 0 3994 3994 3994 3994 3994 3948 3948 3903 3903 3903 3948 3903 3903 3903 3903 3903 3903 3903 3903 3903 3859 3859 3859 3859 3859 3859 3816 3816 3859 3859 3903 3903 3903 3903 3859 3816 3774 3732 3692 3653 3653 3653 3653 3653 3653 3614 3614 3614 3576 3576 3614 3614 3614 3653 3653 3692 3692 3692 3732 3774 3774 4774 4774 4774 4774 4774 4774 4842 4842 4842 4842 4842 4842 4911 3653 2883 2859 2859 3774 3774 3774 3774 3732 3732 3692 3692 3692 3653 3653 3653 2883 2883 2883 2908 2908 2908 2933 2933 2933 2933 2933 2933 2933 2933 2958 2958 2958 2958 2958 2958 2958 2958 2958 0 2933 2933 2933 2908 2908 2908 2908 2933 2933 2908 2908 2908 2908 2908 2883 2883 2883 0 0 0 0 0 0 0 0 0 0 0 0 0 2908 2908 2908 2908 2908 2908 2908 2908 2908 2908 2908 2908 2908 0 5291 5291 5460 5460 5374 5374 5374 5291 5291 5210 5210 5291 5291 5291 0 0 0 0 0 0 0 0 0 0 0 0 0
