0 0 0 0 0 0 0 0 0 0 0 0 0 0 0 0 0 0 0 0 0 0 0 0 0 0 0 0 0 0 0 0 0 0 1970 1970 1970 1970 1981 1981 1981 1981 1981 1981 1981 1981 1970 1970 1981 1981 1981 1981 1981 1981 1981 1993 1993 1981 1981 1981 1981 1981 1981 1970 1970 1981 1981 1981 1981 1981 1981 1981 1993 1970 1970 1981 1970 1970 1970 1970 1981 1981 1970 1970 1970 1970 1970 1981 1993 1993 1993 1993 1993 1993 1993 1981 1981 1981 1981 1981 1981 1981 1981 1981 1981 1981 1981 1981 1981 1981 1981 1981 1981 1981 1981 1993 1993 1993 1993 1993 1993 1993 1993 1993 1993 1993 1993 1993 1993 1993 1993 1993 1993 1993 2005 2005 2005 2005 2005 2005 2005 2005 2005 2005 2005 2005 2005 2005 2005 2005 2005 2005 2005 2005 2005 2005 2016 2016 2016 2016 2016 2016 2005 2005 2005 2016 2016 2016 2016 2016 2016 2028 2028 2016 2016 2016 2016 2016 2016 2028 2028 2028 2028 2028 2028 2028 2028 2028 2028 2028 2028 2028 2028 2040 2040 2040 2040 2040 2040 2040 2040 2040 2040 2040 2040 2040 2040 2028 2028 2028 2028 2028 2040 2040 2040 2040 2040 2040 2040 2040 2040 2040 2040 2040 2040 2040 2040 2053 2040 2040 2053 2053 2040 2040 2053 2053 2053 2065 2065 2053 2053 2065 2065 2053 2053 2053 2053 2053 2053 2053 2053 2053 2053 2053 2053 2053 2053 2053 2065 2065 2065 2065 2065 2065 2065 2065 2053 2053 2053 2053 2053 2053 2053 2053 2053 2053 2065 2065 2065 2065 2053 2053 2053 2053 2053 2053 2053 2053 2053 2065 2065 2065 2065 2065 2065 2065 2065 2065 2065 2065 2065 2065 2065 2065 2065 2065 2065 2078 2078 2065 2065 2053 2053 2040 2028 2005 1993 1993 1993 1993 1993 1993 2005 2016 2016 2028 2040 2065 2053 2053 2053 2053 2065 2065 2065 2065 1873 1863 1863 1863 1863 1853 1853 1853 1843 1843 1843 1843 1843 1843 1843 1843 1671 1671 1671 1663 1663 1663 1655 1655 1655 1655 1655 1655 1655 1655 1655 1663 1663 1663 1663 1663 1663 1663 1671 2078 2078 2078 2090 2090 2090 2090 2090 2090 2090 1655 1655 1655 1647 1639 1632 1632 1632 1624 1624 1624 1624 1624 1632 1632 1632 1632 1632 1632 1616 1616 1616 1609 1609 2090 2090 2103 2090 2078 2078 2078 2078 2078 2078 2078 2090 2090 2090 2090 2090 2090 2078 2078 2090 2090 2090 2090 2090 2090 2090 2090 2090 2090 2090 2090 2090 1853 1853 1853 1863 1863 1863 1863 1863 1863 1863 1853 1853 1843 1823 1813 1804 1804 1794 1785 1785 1785 1785 1785 1785 1785 1785 1785 1785 1785 1794 1785 1785 2090 2090 2090 2090 2090 2090 2103 2103 2103 2103 2103 2103 2103 2103 2103 2103 2103 2103 2103 1915 1915 1904 1904 1904 1904 1894 1883 1873 1873 1873 1863 1863 1863 1863 1853 1853 1853 1853 1843 1833 1823 1823 1823 1823 1813 1813 1813 1813 1813 1804 1804 2090 2090 2090 2090 2103 2103 2103 2103 2103 2103 2103 2103 2103 2103 2103 2103 2090 2090 2090 2090 2090 2090 2090 2090 2090 2090 2090 2103 2103 2103 2103 2103 2103 2090 2090 2103 2090 2090 2078 2016 1993 1993 1981 1981 1981 1981 1981 1981 1981 1981 1981 1993 2005 2016 2078 2090 2103 2090 2090 2090 2078 2078 2078 2078 2078 2078 2078 2078 2078 2078 2078 2078 2078 2078 2078 2078 2078 2078 2078 2078 2078 2078 2065 2065 2078 2078 2078 2078 2078 2078 2078 2078 2078 2078 2078 2078 2078 2065 2065 2065 2078 2078 2078 2078 2078 2078 2078 2078 0 0 0 0 0 0 0 0
0 0 0 0 0 0 0 0 0 0 0 0 0 0 0 0 0 0 0 0 0 0 0 0 0 0 0 0 0 0 0 0 0 0 1970 1970 1970 1970 1970 1970 1970 1970 1970 1970 1970 1970 1970 1970 1970 1970 1981 1981 1981 1981 1981 1993 1993 1981 1981 1981 1981 1981 1970 1970 1970 1981 1981 1981 1981 1970 1970 1981 1970 1959 1959 1959 1970 1970 1970 1970 1981 1981 1970 1970 1970 1970 1970 1981 1981 1981 1981 1993 1993 1993 1981 1970 1970 1959 1959 1959 1970 1970 1970 1970 1970 1970 1970 1970 1970 1970 1981 1970 1970 1981 1981 1981 1981 1981 1993 1993 1993 1993 1993 1993 1993 1993 1981 1981 1981 1993 1993 1993 1993 1993 1993 2005 2005 2005 2005 2005 2005 2005 2005 2005 2005 2005 2005 2005 2005 2005 2005 2005 2005 2005 2005 2005 2005 2005 2005 2005 2005 2005 2005 2005 2005 2005 2005 2005 2016 2016 2016 2016 2016 2016 2016 2016 2016 2016 2016 2016 2028 2028 2028 2028 2028 2028 2028 2028 2028 2028 2028 2028 2028 2028 2040 2028 2028 2028 2028 2028 2028 2040 2040 2040 2028 2028 2028 2028 2028 2028 2028 2028 2028 2040 2040 2040 2040 2040 2040 2028 2028 2040 2040 2040 2040 2040 2040 2040 2040 2040 2040 2040 2040 2040 2040 2040 2040 2053 2053 2053 2053 2053 2053 2053 2040 2040 2053 2053 2053 2053 2053 2053 2053 2053 2053 2053 2053 2053 2053 2053 2053 2053 2053 2053 2053 2053 2053 2053 2053 2053 2053 2053 2053 2040 2040 2053 2053 2065 2053 2053 2053 2053 2053 2053 2040 2040 2040 2053 2053 2065 2065 2065 2065 2065 2065 2065 2065 2065 2065 2065 2053 2053 2065 2065 2065 2065 2065 2065 2065 2065 2065 2053 2053 2040 2028 2005 1993 1993 1993 1993 1993 1993 2005 2016 2016 2028 2040 2065 2053 2053 2053 2053 2065 2065 2053 2053 2053 1863 1863 1863 1863 1843 1843 1843 1843 1833 1833 1833 1833 1833 1843 1843 1843 1671 1671 1663 1663 1663 1655 1655 1655 1655 1655 1655 1655 1655 1655 1663 1663 1663 1663 1663 1663 1663 1671 2078 2078 2078 2078 2078 2078 2078 2078 2078 2090 1663 1655 1655 1647 1639 1639 1632 1632 1624 1624 1624 1624 1624 1632 1632 1632 1632 1632 1639 1616 1616 1616 1616 2078 2090 2090 2090 2078 2065 2065 2065 2065 2065 2065 2078 2078 2078 2078 2078 2078 2078 2078 2078 2078 2078 2078 2078 2090 2090 2090 2090 2090 2090 2090 2090 2090 2090 1833 1833 1853 1863 1863 1863 1863 1863 1863 1853 1853 1843 1823 1823 1813 1804 1804 1794 1785 1785 1785 1785 1785 1785 1785 1785 1794 1794 1794 1785 1785 2078 2078 2090 2090 2090 2090 2090 2090 2090 2090 2090 2090 2090 2090 2090 2090 2090 2090 2090 2090 1915 1904 1904 1904 1904 1894 1883 1873 1873 1873 1863 1863 1863 1863 1853 1853 1853 1853 1843 1843 1833 1823 1823 1813 1813 1813 1813 1813 1804 1804 1804 2078 2078 2078 2090 2090 2090 2090 2090 2090 2090 2103 2090 2090 2090 2090 2090 2090 2090 2090 2090 2090 2090 2090 2090 2090 2090 2090 2090 2090 2090 2090 2090 2090 2090 2090 2090 2078 2078 2065 2005 1993 1993 1981 1981 1981 1981 1981 1981 1981 1981 1981 1993 1993 2028 2078 2078 2090 2090 2090 2090 2078 2078 2065 2065 2065 2078 2078 2078 2078 2078 2078 2078 2078 2078 2078 2078 2065 2065 2065 2065 2065 2065 2065 2065 2065 2078 2065 2065 2065 2065 2078 2065 2065 2078 2078 2078 2078 2065 2065 2065 2065 2065 2078 2078 2078 2078 2078 2078 0 0 0 0 0 0 0 0
0 0 0 0 0 0 0 0 0 0 0 0 0 0 0 0 0 0 0 0 0 0 0 0 0 0 0 0 0 0 0 0 0 0 1959 1959 1959 1959 1959 1959 1959 1959 1959 1959 1959 1959 1959 1959 1959 1959 1970 1970 1970 1970 1981 1981 1981 1970 1970 1970 1970 1970 1970 1970 1970 1970 1970 1970 1970 1970 1970 1970 1970 1959 1959 1959 1959 1959 1959 1970 1970 1970 1970 1959 1959 1959 1959 1970 1981 1981 1981 1981 1981 1981 1970 1959 1959 1959 1959 1959 1959 1970 1970 1970 1970 1970 1959 1959 1959 1970 1970 1970 1970 1970 1970 1981 1981 1981 1981 1993 1981 1981 1981 1981 1981 1981 1970 1970 1981 1981 1981 1993 1993 1993 1993 1993 1993 1993 2005 2005 1993 1993 2005 2005 2005 2005 2005 2005 2005 2005 2005 2005 2005 2005 2005 2005 2005 2005 2005 1993 1993 1993 1993 1993 1993 1993 1993 2005 2005 2005 2016 2016 2016 2016 2016 2016 2016 2016 2016 2016 2016 2016 2016 2028 2028 2028 2028 2028 2028 2028 2028 2028 2028 2028 2028 2028 2028 2028 2028 2028 2028 2028 2028 2028 2028 2028 2028 2028 2028 2028 2028 2028 2028 2028 2028 2040 2028 2028 2040 2028 2028 2028 2028 2028 2040 2040 2040 2040 2040 2040 2040 2040 2040 2040 2040 2040 2040 2040 2040 2040 2040 2040 2040 2040 2040 2040 2040 2040 2040 2040 2040 2040 2040 2040 2040 2040 2040 2040 2053 2053 2053 2053 2053 2053 2053 2053 2053 2040 2040 2040 2040 2040 2040 2040 2040 2040 2053 2053 2053 2053 2040 2040 2040 2040 2040 2040 2040 2040 2040 2053 2053 2053 2053 2053 2053 2053 2053 2065 2053 2053 2053 2053 2053 2053 2053 2053 2053 2065 2065 2065 2065 2053 2053 2040 2028 2016 2005 2005 2005 2005 2005 2005 2016 2016 2028 2028 2040 2040 2053 2053 2053 2053 2053 2053 2053 2053 2040 2040 1873 1863 1863 1843 1843 1843 1843 1833 1833 1833 1833 1833 1833 1843 1843 1671 1671 1663 1663 1663 1655 1655 1655 1655 1655 1655 1655 1655 1663 1663 1663 1663 1671 1671 1671 1671 2065 2065 2078 2078 2078 2078 2078 2078 2078 2078 2090 1655 1655 1655 1647 1639 1639 1632 1632 1632 1624 1624 1624 1632 1632 1632 1632 1632 1632 1639 1616 1616 1616 1616 2078 2078 2078 2078 2065 2065 2053 2053 2053 2053 2065 2065 2065 2065 2065 2065 2065 2078 2078 2078 2078 2078 2078 2078 2078 2078 2090 2078 2078 2078 2078 2078 2078 2078 1823 1823 1853 1853 1863 1863 1863 1863 1863 1853 1843 1843 1833 1823 1813 1804 1804 1794 1785 1785 1785 1785 1785 1785 1785 1785 1794 1794 1785 1785 2078 2078 2078 2078 2078 2078 2090 2090 2090 2090 2090 2090 2090 2090 2090 2090 2090 2090 2078 2078 2065 2065 2078 1904 1904 1904 1894 1883 1873 1873 1873 1863 1863 1853 1853 1853 1853 1853 1853 1843 1843 1833 1823 1823 1813 1813 1813 1813 1813 1804 1794 1794 2078 2078 2078 2078 2078 2078 2090 2090 2090 2090 2090 2090 2090 2090 2090 2090 2078 2078 2078 2078 2078 2090 2078 2078 2078 2090 2090 2090 2090 2090 2090 2090 2078 2078 2078 2078 2078 2065 2053 2005 1993 1981 1981 1981 1981 1981 1981 1981 1981 1981 1981 1993 1993 2028 2065 2078 2090 2090 2090 2090 2078 2065 2065 2065 2065 2065 2078 2065 2065 2078 2078 2065 2065 2065 2065 2065 2065 2065 2065 2065 2065 2065 2065 2065 2065 2065 2065 2065 2065 2065 2065 2065 2065 2065 2065 2065 2065 2065 2065 2065 2065 2065 2065 2078 2078 2078 2078 2078 0 0 0 0 0 0 0 0
0 0 0 0 0 0 0 0 0 0 0 0 0 0 0 0 0 0 0 0 0 0 0 0 0 0 0 0 0 0 0 0 0 0 1947 1947 1947 1947 1959 1959 1959 1959 1959 1959 1959 1959 1959 1959 1959 1959 1959 1959 1959 1970 1970 1970 1970 1970 1970 1959 1959 1959 1959 1970 1970 1970 1970 1970 1970 1970 1970 1970 1970 1947 1947 1959 1959 1947 1947 1959 1959 1959 1959 1959 1959 1959 1959 1959 1959 1959 1959 1959 1959 1959 1959 1959 1959 1959 1959 1959 1959 1959 1959 1959 1959 1959 1959 1959 1959 1959 1959 1947 1947 1959 1959 1970 1970 1970 1970 1970 1970 1970 1970 1970 1970 1970 1970 1970 1970 1981 1981 1981 1981 1993 1993 1993 1993 1993 1993 1993 1993 1993 1993 1993 1993 1993 1993 1993 2005 2005 1993 1993 1993 1993 1993 1993 1993 1993 1993 1981 1981 1981 1981 1993 1993 1993 1993 2005 1993 1993 2005 2005 2005 2016 2005 2005 2005 2005 2005 2005 2016 2016 2016 2016 2016 2016 2016 2016 2016 2016 2016 2016 2016 2016 2028 2028 2016 2016 2016 2016 2016 2016 2016 2016 2016 2016 2028 2028 2028 2028 2028 2028 2028 2028 2028 2028 2028 2028 2028 2028 2028 2028 2028 2028 2028 2028 2028 2028 2028 2028 2028 2028 2028 2028 2028 2028 2028 2040 2040 2040 2040 2040 2040 2040 2028 2028 2028 2028 2028 2028 2028 2028 2028 2028 2028 2028 2028 2040 2040 2040 2040 2053 2053 2053 2053 2040 2040 2040 2040 2040 2040 2040 2040 2040 2040 2040 2040 2040 2040 2040 2040 2040 2040 2040 2040 2040 2040 2040 2040 2040 2040 2040 2040 2053 2040 2040 2053 2053 2053 2053 2053 2053 2053 2053 2053 2053 2053 2053 2053 2053 2053 2053 2040 2028 2028 2016 2005 2005 2005 2005 2005 2005 2016 2016 2028 2028 2040 2040 2053 2053 2053 2053 2053 2053 2040 2040 2040 2040 2040 2040 2040 1853 1843 1843 1833 1833 1833 1833 1833 1833 1833 1833 1843 1680 1671 1671 1663 1663 1655 1655 1655 1655 1655 1655 1655 1663 1663 1663 1663 1663 1671 1671 1671 1671 2053 2065 2065 2065 2065 2065 2065 2065 2065 2065 2065 1655 1655 1655 1647 1639 1639 1632 1632 1632 1632 1624 1624 1632 1632 1632 1632 1632 1632 1632 1624 1616 1616 1624 2065 2065 2078 2065 2065 2053 2053 2053 2053 2053 2053 2053 2053 2065 2053 2053 2065 2065 2065 2065 2065 2065 2065 2078 2078 2078 2078 2078 2078 2078 2065 2065 2065 2065 1823 1823 1843 1853 1853 1863 1863 1863 1853 1853 1843 1843 1833 1823 1813 1804 1804 1794 1794 1785 1785 1785 1785 1785 1785 1785 1785 1785 1785 1785 2065 2065 2065 2065 2078 2078 2078 2078 2078 2090 2090 2090 2078 2078 2078 2078 2078 2078 2078 2078 2065 2065 2065 2065 2053 2053 1894 1883 1873 1873 1873 1863 1863 1853 1853 1843 1843 1843 1843 1843 1833 1823 1823 1823 1813 1813 1813 1813 1813 1804 1794 1794 2065 2078 2078 2078 2078 2078 2078 2078 2078 2078 2090 2090 2090 2090 2090 2090 2078 2078 2078 2078 2078 2078 2078 2078 2078 2078 2090 2078 2078 2078 2090 2078 2078 2078 2078 2078 2065 2053 2040 2005 2005 1981 1981 1981 1981 1981 1981 1981 1981 1981 1981 1993 2005 2028 2065 2078 2078 2078 2078 2078 2065 2065 2065 2065 2065 2065 2065 2065 2065 2065 2065 2065 2065 2065 2065 2053 2053 2065 2065 2065 2065 2065 2065 2065 2065 2065 2065 2065 2065 2065 2065 2065 2065 2065 2065 2065 2065 2065 2065 2065 2065 2065 2065 2065 2065 2065 2065 2065 0 0 0 0 0 0 0 0
0 0 0 0 0 0 0 0 0 0 0 0 0 0 0 0 0 0 0 0 0 0 0 0 0 0 0 0 0 0 0 0 0 0 1936 1936 1936 1947 1947 1947 1947 1947 1959 1959 1959 1947 1947 1947 1947 1947 1947 1959 1959 1959 1959 1959 1970 1959 1959 1959 1959 1959 1959 1959 1959 1959 1959 1959 1959 1959 1959 1959 1959 1947 1947 1947 1947 1947 1947 1947 1959 1959 1959 1959 1959 1959 1959 1959 1947 1947 1947 1959 1947 1947 1947 1959 1959 1959 1959 1959 1959 1959 1959 1959 1959 1959 1959 1959 1959 1959 1959 1947 1947 1959 1959 1959 1959 1959 1970 1970 1970 1959 1959 1970 1970 1970 1970 1970 1970 1970 1970 1981 1981 1981 1981 1981 1981 1981 1981 1981 1993 1993 1993 1993 1981 1981 1981 1993 1981 1981 1981 1981 1981 1981 1981 1981 1981 1981 1981 1981 1981 1981 1981 1981 1981 1981 1981 1981 1993 1993 1993 1993 1993 1993 1993 1993 1993 1993 1993 1993 2005 2005 2005 2005 2016 2016 2016 2016 2016 2016 2016 2016 2016 2016 2016 2016 2016 2005 2005 2016 2016 2005 2005 2016 2016 2016 2016 2016 2016 2016 2016 2016 2016 2028 2028 2028 2028 2028 2028 2016 2016 2028 2028 2028 2028 2028 2028 2028 2028 2028 2028 2028 2028 2028 2028 2028 2028 2040 2040 2040 2040 2040 2040 2040 2028 2028 2028 2028 2028 2028 2028 2016 2016 2016 2016 2028 2028 2028 2028 2028 2040 2040 2040 2040 2040 2028 2028 2028 2028 2028 2028 2028 2028 2028 2028 2028 2028 2040 2040 2040 2040 2040 2040 2040 2040 2028 2028 2040 2028 2028 2040 2040 2040 2053 2040 2040 2040 2040 2040 2040 2040 2040 2040 2040 2040 2040 2040 2053 2053 2053 2040 2040 2028 2028 2016 2016 2005 2005 2005 2005 2005 2005 2016 2016 2016 2028 2028 2040 2040 2040 2040 2040 2040 2040 2040 2040 2040 2040 2040 2040 2040 2040 2040 1843 1833 1833 1833 1833 1833 1833 1833 1833 1833 1688 1680 1671 1671 1663 1663 1663 1655 1655 1655 1655 1655 1663 1663 1663 1663 1663 1671 1671 1671 1671 2040 2040 2065 2065 2065 2065 2065 2065 2065 2065 2065 1655 1655 1655 1655 1647 1639 1632 1632 1632 1632 1632 1632 1632 1632 1632 1632 1632 1632 1632 1632 1624 1624 1632 2065 2065 2065 2065 2065 2053 2053 2053 2053 2053 2053 2053 2053 2053 2053 2053 2053 2053 2053 2053 2065 2065 2065 2065 2065 2065 2065 2065 2065 2065 2053 2053 2053 2065 2065 1843 1843 1853 1853 1853 1863 1853 1853 1843 1843 1833 1833 1823 1813 1804 1804 1794 1794 1785 1785 1785 1785 1785 1785 1785 1785 1785 1766 1766 2053 2053 2065 2065 2065 2065 2078 2078 2078 2078 2078 2078 2078 2078 2078 2078 2078 2078 2078 2078 2065 2065 2065 2065 2065 2065 2053 2040 1873 1873 1873 1863 1863 1853 1853 1843 1843 1843 1843 1843 1833 1823 1823 1823 1823 1823 1813 1813 1813 1813 1804 1804 2065 2065 2065 2065 2065 2078 2078 2078 2078 2078 2090 2078 2078 2078 2078 2078 2078 2078 2078 2078 2078 2078 2078 2078 2078 2078 2078 2078 2078 2078 2078 2078 2065 2065 2078 2065 2053 2040 2028 2005 1993 1981 1981 1981 1981 1970 1970 1981 1981 1981 1993 1993 2005 2040 2065 2065 2078 2078 2078 2078 2065 2065 2065 2065 2065 2065 2065 2065 2065 2065 2065 2053 2053 2053 2053 2053 2053 2053 2065 2065 2065 2065 2065 2065 2065 2065 2065 2053 2053 2065 2065 2053 2053 2065 2065 2065 2065 2065 2065 2065 2065 2065 2065 2065 2065 2065 2065 2065 0 0 0 0 0 0 0 0
0 0 0 0 0 0 0 0 0 0 0 0 0 0 0 0 0 0 0 0 0 0 0 0 0 0 0 0 0 0 0 0 0 0 1936 1936 1936 1936 1936 1936 1936 1947 1947 1947 1947 1947 1947 1947 1947 1947 1947 1947 1959 1959 1959 1959 1959 1959 1959 1959 1959 1959 1959 1959 1947 1947 1959 1959 1959 1959 1959 1959 1959 1947 1947 1947 1947 1947 1947 1947 1959 1959 1959 1959 1959 1947 1947 1947 1947 1947 1947 1947 1947 1947 1947 1947 1959 1959 1959 1959 1959 1959 1959 1959 1959 1959 1959 1959 1959 1959 1959 1959 1959 1959 1959 1959 1959 1959 1959 1959 1959 1959 1959 1959 1959 1959 1959 1959 1970 1970 1970 1970 1970 1970 1970 1970 1970 1970 1970 1970 1981 1981 1981 1970 1970 1970 1981 1981 1981 1981 1981 1970 1970 1970 1970 1981 1981 1981 1981 1981 1981 1981 1981 1981 1981 1981 1981 1981 1981 1981 1981 1993 1993 1993 1993 1993 1993 1981 1981 1993 1993 1993 1993 1993 1993 1993 1993 1993 1993 1993 1993 1993 1993 1993 2005 2005 2005 2005 2005 2005 2005 2005 2005 2005 2005 2005 2005 2005 2005 2005 2005 2005 2005 2016 2016 2016 2016 2016 2016 2016 2016 2016 2016 2028 2028 2028 2028 2028 2028 2028 2016 2016 2028 2028 2028 2028 2028 2028 2028 2028 2028 2028 2028 2028 2016 2016 2028 2016 2016 2016 2016 2016 2016 2016 2016 2016 2016 2028 2028 2028 2028 2028 2028 2028 2028 2028 2028 2028 2028 2028 2028 2028 2028 2028 2028 2028 2028 2028 2028 2028 2028 2028 2028 2028 2028 2028 2028 2028 2028 2028 2028 2040 2040 2040 2040 2040 2040 2040 2028 2028 2028 2028 2028 2040 2040 2040 2040 2040 2040 2040 2040 2040 2028 2028 2016 2016 2005 2005 2005 2005 2005 2016 2016 2016 2016 2028 2028 2040 2040 2028 2028 2028 2028 2040 2028 2028 2028 2040 2040 2040 2040 2028 2028 2040 1833 1833 1833 1833 1833 1833 1833 1833 1833 1680 1680 1671 1671 1663 1663 1663 1655 1655 1655 1655 1655 1663 1663 1663 1663 1663 1671 1671 1671 1671 2028 2028 2040 2053 2053 2053 2053 2053 2053 2053 2053 2053 1655 1655 1655 1647 1639 1632 1632 1632 1632 1632 1632 1632 1632 1632 1632 1632 1632 1632 1632 1624 1624 1632 2053 2053 2065 2065 2065 2053 2053 2053 2040 2040 2053 2053 2053 2053 2053 2053 2053 2053 2053 2053 2053 2053 2053 2053 2053 2053 2053 2053 2053 2053 2053 2053 2053 2053 2053 2065 1853 1853 1853 1853 1853 1853 1843 1843 1843 1833 1833 1823 1813 1813 1804 1794 1794 1794 1794 1794 1794 1794 1794 1785 1785 1785 1757 1757 2053 2053 2053 2053 2053 2065 2065 2065 2065 2065 2065 2065 2065 2065 2065 2065 2065 2065 2065 2065 2053 2053 2065 2065 2065 2065 2053 2040 2040 2040 2040 1863 1863 1853 1843 1843 1843 1843 1843 1843 1833 1833 1823 1823 1823 1823 1813 1813 1813 1813 1804 1804 2053 2053 2053 2053 2053 2065 2065 2065 2065 2078 2078 2065 2065 2065 2065 2078 2078 2078 2078 2078 2078 2078 2078 2078 2065 2065 2065 2065 2065 2065 2065 2065 2065 2065 2065 2065 2053 2040 2016 2005 1993 1981 1981 1981 1981 1970 1970 1970 1981 1981 1993 1993 2016 2040 2065 2065 2065 2078 2078 2078 2065 2053 2053 2053 2053 2053 2053 2053 2053 2053 2053 2053 2053 2053 2040 2040 2040 2053 2053 2053 2053 2053 2053 2053 2053 2053 2053 2053 2053 2053 2053 2053 2053 2053 2065 2065 2065 2065 2065 2065 2053 2053 2053 2065 2065 2065 2065 2065 0 0 0 0 0 0 0 0
0 0 0 0 0 0 0 0 0 0 0 0 0 0 0 0 0 0 0 0 0 0 0 0 0 0 0 0 0 0 0 0 0 0 1926 1926 1926 1926 1936 1936 1936 1936 1936 1936 1936 1947 1936 1936 1936 1936 1936 1947 1947 1947 1947 1947 1947 1959 1959 1947 1947 1947 1959 1959 1947 1947 1947 1947 1959 1959 1959 1959 1947 1947 1947 1947 1947 1947 1947 1947 1947 1947 1947 1947 1947 1947 1947 1947 1947 1947 1947 1947 1947 1947 1947 1947 1947 1947 1947 1947 1947 1947 1947 1947 1947 1959 1959 1959 1959 1959 1959 1959 1959 1959 1959 1959 1959 1959 1959 1959 1959 1959 1959 1959 1959 1959 1959 1959 1959 1959 1970 1970 1959 1959 1970 1970 1970 1970 1970 1970 1970 1970 1981 1970 1970 1970 1970 1970 1970 1970 1970 1970 1970 1970 1970 1970 1970 1981 1970 1970 1970 1970 1970 1970 1970 1970 1970 1970 1981 1981 1981 1981 1981 1981 1981 1981 1981 1981 1981 1981 1993 1981 1981 1981 1993 1993 1993 1981 1981 1993 1993 1993 1993 1993 1993 1993 1993 1993 1993 1993 1993 1993 2005 2005 2005 2005 1993 1993 2005 2005 2005 2005 2005 2005 2005 2005 2005 2005 2005 2005 2005 2005 2005 2005 2016 2005 2005 2005 2016 2016 2005 2005 2016 2016 2016 2016 2016 2016 2016 2016 2005 2005 2016 2016 2005 1993 1993 1993 2016 2016 2016 2016 2016 2016 2016 2016 2016 2016 2016 2016 2028 2028 2028 2028 2016 2016 2016 2016 2016 2016 2016 2016 2016 2016 2016 2028 2028 2028 2028 2028 2028 2028 2028 2028 2028 2016 2016 2028 2028 2028 2028 2028 2028 2040 2028 2028 2028 2028 2028 2028 2028 2028 2028 2028 2028 2028 2028 2028 2028 2028 2028 2028 2028 2028 2016 2016 2005 2005 2016 2016 2016 2016 2016 2016 2016 2016 2028 2028 2028 2028 2028 2028 2028 2028 2028 2028 2028 2028 2040 2040 2040 2028 2028 2028 2028 1833 1833 1833 1833 1833 1833 1833 1843 1680 1680 1671 1671 1663 1663 1663 1663 1663 1663 1663 1663 1663 1663 1663 1663 1663 1671 1671 1671 2016 2016 2016 2028 2040 2040 2040 2053 2053 2053 2053 2053 2053 1655 1655 1655 1647 1639 1639 1632 1632 1632 1632 1632 1632 1632 1632 1632 1632 1632 1632 1632 1624 1624 2040 2053 2053 2053 2053 2053 2040 2040 2040 2040 2040 2040 2040 2040 2040 2040 2053 2053 2053 2053 2053 2053 2040 2040 2040 2040 2053 2053 2053 2053 2053 2053 2053 2053 2053 2053 2053 2053 2053 1863 1863 1853 1853 1843 1843 1843 1833 1823 1823 1823 1813 1804 1794 1794 1794 1794 1794 1794 1794 1794 1785 1785 1776 1757 1757 2040 2040 2040 2053 2053 2053 2053 2053 2053 2053 2053 2053 2053 2053 2053 2053 2053 2053 2053 2053 2053 2053 2053 2053 2053 2053 2040 2040 2040 2040 2040 2040 1863 1843 1843 1843 1843 1843 1843 1843 1833 1833 1833 1833 1823 1823 1823 1823 1823 1813 1813 1813 2053 2040 2040 2040 2053 2053 2065 2065 2065 2065 2065 2053 2053 2040 2040 2040 2040 2040 2040 2040 2053 2053 2053 2053 2053 2053 2053 2053 2053 2053 2053 2053 2053 2065 2065 2053 2053 2040 2016 2005 1993 1981 1981 1981 1981 1970 1970 1970 1981 1981 1993 1993 2016 2040 2053 2053 2065 2065 2065 2065 2053 2053 2053 2053 2053 2040 2040 2040 2053 2053 2040 2040 2040 2040 2040 2040 2040 2040 2040 2040 2040 2040 2053 2053 2053 2053 2053 2040 2040 2053 2053 2040 2040 2040 2053 2053 2053 2053 2053 2053 2053 2053 2053 2053 2053 2053 2053 2053 0 0 0 0 0 0 0 0
0 0 0 0 0 0 0 0 0 0 0 0 0 0 0 0 0 0 0 0 0 0 0 0 0 0 0 0 0 0 0 0 0 0 1926 1926 1926 1926 1926 1926 1926 1936 1936 1936 1936 1936 1936 1926 1926 1926 1926 1936 1936 1936 1926 1926 1947 1947 1947 1947 1947 1947 1947 1947 1936 1936 1936 1936 1936 1936 1936 1936 1936 1936 1936 1947 1947 1947 1947 1947 1947 1947 1947 1947 1947 1947 1947 1947 1936 1936 1947 1947 1947 1947 1947 1947 1947 1947 1947 1947 1947 1947 1947 1947 1947 1947 1947 1947 1959 1959 1959 1959 1959 1947 1947 1959 1959 1959 1959 1947 1947 1947 1947 1959 1947 1947 1947 1959 1959 1959 1959 1959 1959 1959 1959 1959 1959 1970 1970 1970 1970 1970 1981 1970 1959 1959 1959 1959 1959 1959 1959 1959 1959 1970 1970 1970 1970 1970 1970 1970 1970 1959 1959 1959 1959 1959 1970 1970 1970 1981 1981 1981 1981 1981 1981 1981 1981 1981 1981 1981 1981 1981 1981 1981 1981 1981 1981 1981 1981 1993 1993 1993 1993 1993 1993 1993 1993 1993 1993 1993 1993 1993 1993 1993 1993 1993 1993 1993 1993 1993 1993 1993 2005 2005 2005 2005 2005 2005 2005 2005 2005 2005 2005 2005 2005 2005 2005 2005 2005 2005 2005 2005 2016 2016 2016 2016 2016 2016 2016 2016 2005 2005 2005 2005 1993 1993 1993 1993 2005 2005 2005 2005 2005 2005 2005 2005 2005 2005 2005 2005 2005 2005 2016 2016 2016 2005 1993 1993 2005 2005 2005 2005 2005 2005 2016 2016 2016 2016 2028 2028 2028 2028 2028 2028 2016 2016 2016 2016 2016 2016 2016 2028 2028 2028 2028 2028 2028 2028 2028 2028 2028 2028 2028 2028 2028 2028 2028 2028 2028 2028 2028 2028 2028 2028 2016 2016 2005 2005 2016 2016 2016 2016 2016 2016 2016 2016 2028 2028 2016 2016 2016 2016 2016 2028 2028 2028 2028 2028 2028 2028 2028 2028 2028 2028 2028 2016 1843 1843 1843 1833 1833 1843 1680 1680 1680 1680 1671 1671 1663 1663 1663 1663 1663 1663 1663 1663 1663 1663 1663 1671 1671 1671 1671 2016 2016 2016 2016 2028 2028 2028 2040 2040 2040 2040 2040 2040 1663 1663 1655 1655 1647 1639 1639 1632 1632 1632 1632 1632 1632 1632 1632 1632 1632 1632 1632 1632 2028 2040 2040 2040 2053 2053 2053 2040 2040 2040 2040 2040 2040 2040 2040 2040 2040 2040 2040 2040 2040 2040 2040 2040 2040 2040 2040 2040 2040 2040 2040 2040 2040 2040 2040 2040 2040 2040 2053 2053 1863 1863 1853 1853 1853 1843 1843 1833 1823 1823 1813 1813 1804 1794 1794 1794 1794 1794 1794 1794 1794 1785 1785 1776 1776 2040 2040 2040 2040 2040 2053 2053 2053 2053 2053 2053 2053 2053 2053 2053 2053 2053 2053 2053 2053 2053 2053 2053 2053 2053 2053 2053 2040 2040 2040 2040 2040 2040 2040 1843 1833 1833 1843 1843 1843 1833 1833 1833 1833 1823 1823 1823 1823 1823 1823 1823 1813 1813 2040 2040 2040 2040 2040 2040 2053 2040 2040 2040 2040 2040 2040 2040 2040 2040 2040 2040 2040 2040 2040 2053 2053 2053 2040 2040 2040 2040 2040 2040 2040 2040 2040 2053 2053 2040 2040 2040 2028 2016 1993 1993 1981 1981 1981 1981 1981 1981 1981 1993 1993 2005 2028 2040 2053 2053 2065 2065 2065 2065 2040 2040 2040 2040 2040 2040 2040 2040 2040 2040 2028 2028 2028 2028 2028 2028 2028 2040 2040 2040 2040 2040 2040 2040 2040 2040 2040 2040 2040 2040 2040 2040 2040 2040 2040 2040 2040 2040 2040 2040 2040 2040 2040 2040 2040 2040 2040 2040 0 0 0 0 0 0 0 0
0 0 0 0 0 0 0 0 0 0 0 0 0 0 0 0 0 0 0 0 0 0 0 0 0 0 0 0 0 0 0 0 0 0 1915 1915 1915 1926 1926 1926 1926 1936 1936 1936 1936 1926 1926 1926 1926 1926 1926 1926 1926 1926 1926 1926 1936 1936 1947 1947 1936 1936 1947 1936 1936 1936 1936 1936 1936 1926 1926 1926 1936 1926 1926 1936 1936 1936 1947 1947 1947 1947 1936 1936 1936 1936 1936 1936 1936 1936 1936 1936 1936 1936 1947 1947 1947 1947 1947 1936 1936 1936 1936 1936 1936 1947 1947 1947 1947 1947 1947 1947 1947 1947 1947 1947 1947 1947 1947 1947 1947 1947 1947 1947 1947 1947 1947 1947 1947 1947 1947 1947 1959 1959 1959 1959 1959 1959 1970 1959 1959 1970 1970 1959 1959 1959 1959 1959 1959 1959 1959 1959 1959 1959 1959 1959 1959 1959 1959 1959 1959 1959 1959 1947 1947 1959 1959 1959 1959 1970 1970 1970 1970 1981 1981 1981 1981 1981 1981 1981 1981 1981 1981 1981 1981 1981 1981 1981 1981 1981 1981 1981 1981 1981 1993 1993 1993 1993 1981 1981 1981 1993 1993 1993 1993 1993 1993 1993 1993 1993 1993 1993 1993 1993 1993 1993 1993 2005 2005 1993 1993 1993 1993 2005 1993 1993 1993 1993 2005 2005 1993 1993 2005 2005 2005 2005 2005 2005 2005 2005 2005 2005 2005 2005 1993 1993 1993 1993 1993 1993 1993 1993 1993 1993 1993 1993 2005 2005 2005 2005 2005 2005 2016 2016 2005 2005 1993 1993 1993 1993 1993 1993 1993 2005 2005 2005 2016 2016 2016 2016 2016 2016 2016 2016 2016 2016 2016 2016 2016 2016 2016 2016 2016 2016 2016 2028 2028 2028 2016 2016 2016 2016 2016 2016 2028 2028 2028 2028 2028 2028 2028 2028 2028 2028 2016 2016 2005 2005 2016 2016 2016 2016 2016 2016 2016 2016 2028 2028 2016 2016 2016 2016 2016 2016 2016 2016 2016 2016 2016 2028 2028 2016 2016 2016 2016 2016 2016 1843 1843 1843 1843 1843 1680 1680 1680 1680 1671 1671 1663 1663 1663 1663 1663 1663 1663 1663 1663 1663 1663 1671 1671 1680 1680 1680 2016 2016 2016 2028 2028 2028 2028 2028 2028 2028 2040 1663 1663 1655 1655 1655 1647 1639 1639 1639 1639 1632 1632 1632 1632 1639 1639 1639 1639 1639 2016 2028 2028 2028 2040 2040 2040 2040 2040 2028 2028 2028 2028 2028 2028 2028 2040 2040 2040 2040 2040 2040 2040 2040 2040 2028 2028 2028 2028 2040 2040 2040 2040 2040 2040 2040 2040 2040 2040 2040 2040 2040 2040 1863 1863 1863 1853 1843 1843 1833 1823 1823 1813 1813 1804 1794 1794 1794 1794 1794 1794 1794 1794 1794 1785 1785 1785 2040 2040 2040 2040 2040 2040 2040 2040 2040 2040 2040 2040 2040 2040 2040 2040 2040 2053 2040 2040 2040 2040 2040 2040 2053 2053 2053 2040 2040 2040 2040 2040 2040 2040 2040 1833 1833 1833 1833 1843 1833 1833 1833 1833 1823 1823 1823 1823 1823 1823 1823 1813 1813 2040 2040 2040 2040 2040 2040 2040 2040 2040 2040 2040 2040 2040 2040 2040 2040 2040 2040 2040 2040 2040 2040 2040 2040 2040 2040 2040 2040 2040 2040 2040 2040 2040 2040 2040 2040 2040 2028 2016 2005 1993 1993 1981 1981 1981 1981 1981 1981 1981 1993 2005 2016 2028 2028 2040 2053 2053 2053 2053 2053 2040 2040 2040 2028 2028 2028 2028 2028 2028 2028 2028 2028 2028 2028 2028 2028 2028 2028 2028 2028 2028 2028 2040 2040 2040 2028 2028 2028 2028 2040 2028 2028 2028 2040 2028 2028 2028 2028 2028 2028 2028 2028 2028 2028 2040 2028 2028 2040 0 0 0 0 0 0 0 0
0 0 0 0 0 0 0 0 0 0 0 0 0 0 0 0 0 0 0 0 0 0 0 0 0 0 0 0 0 0 0 0 0 0 1915 1915 1915 1915 1926 1926 1926 1936 1936 1926 1926 1926 1926 1926 1926 1926 1926 1926 1926 1926 1926 1926 1936 1936 1936 1936 1926 1926 1936 1936 1926 1926 1926 1926 1926 1926 1926 1926 1926 1926 1926 1926 1926 1936 1936 1947 1936 1936 1936 1936 1936 1936 1936 1936 1926 1926 1926 1926 1926 1926 1936 1936 1936 1936 1936 1936 1926 1926 1926 1926 1936 1936 1936 1936 1947 1947 1947 1947 1947 1947 1947 1947 1947 1947 1947 1947 1947 1947 1947 1947 1947 1947 1947 1947 1947 1947 1947 1947 1947 1959 1959 1959 1959 1959 1959 1959 1959 1959 1959 1959 1959 1959 1959 1947 1947 1947 1947 1947 1947 1947 1947 1959 1959 1959 1947 1947 1947 1947 1947 1947 1947 1947 1947 1947 1959 1959 1959 1970 1970 1970 1981 1970 1970 1970 1981 1981 1981 1981 1981 1981 1981 1981 1981 1981 1981 1981 1981 1981 1981 1981 1981 1981 1981 1981 1981 1981 1981 1981 1981 1993 1993 1993 1993 1993 1993 1993 1993 1993 1993 1993 1993 1993 1993 1993 1993 1993 1993 1993 1993 1993 1993 1993 1993 1993 1993 1993 1993 1993 1993 1993 1993 2005 1993 1993 1993 1993 1993 1993 1993 1993 1993 1981 1981 1981 1981 1993 1993 1993 1993 1993 1993 1993 1993 1993 1993 1993 1993 1993 1993 1993 1981 1981 1981 1981 1981 1993 1993 1993 1993 1993 1993 2005 2005 2005 2005 2005 2005 2005 2005 2005 2005 2016 2016 2016 2016 2016 2016 2016 2016 2016 2016 2016 2016 2016 2016 2005 2005 2016 2016 2016 2016 2016 2016 2016 2016 2016 2016 2016 2016 2016 2016 2016 2016 2005 2005 2005 2005 2005 2016 2016 2016 2016 2016 2016 2005 2005 2016 2005 2005 2016 2016 2016 2016 2016 2016 2016 2016 2016 2005 2005 2016 2005 2005 2016 2016 1843 1843 1843 1680 1680 1680 1680 1671 1671 1663 1663 1663 1663 1663 1663 1663 1663 1663 1663 1671 1671 1680 1680 1680 1680 2005 2005 2016 2016 2016 2016 2028 2016 2016 2028 2028 1663 1663 1655 1655 1655 1647 1639 1639 1639 1639 1632 1632 1639 1639 1639 1639 1639 1639 1639 2016 2028 2028 2028 2028 2028 2028 2040 2040 2028 2028 2028 2028 2028 2028 2028 2028 2028 2028 2040 2040 2040 2040 2040 2028 2028 2016 2016 2028 2028 2028 2028 2028 2028 2040 2028 2028 2028 2028 2040 2040 2040 2040 2040 2040 1863 1853 1843 1833 1833 1823 1823 1813 1813 1804 1804 1804 1794 1794 1794 1794 1794 1794 1794 1785 1785 1785 2028 2028 2028 2028 2040 2040 2040 2040 2040 2040 2040 2040 2040 2040 2040 2040 2040 2040 2040 2040 2040 2040 2040 2040 2040 2040 2053 2040 2040 2028 2028 2028 2028 2028 2040 2040 1823 1823 1833 1833 1833 1833 1833 1833 1823 1823 1823 1823 1823 1823 1823 1813 1813 2028 2028 2028 2028 2028 2028 2028 2028 2028 2028 2028 2028 2028 2040 2040 2040 2040 2040 2040 2040 2040 2040 2040 2040 2040 2040 2040 2040 2040 2040 2040 2040 2040 2040 2040 2040 2040 2028 2016 2005 1993 1993 1981 1981 1981 1981 1981 1993 1993 1993 2005 2016 2028 2028 2040 2040 2040 2040 2053 2053 2028 2028 2028 2028 2028 2028 2028 2028 2028 2028 2028 2028 2028 2028 2016 2016 2028 2028 2028 2028 2028 2028 2028 2028 2028 2028 2028 2028 2028 2028 2028 2028 2028 2028 2028 2028 2028 2028 2028 2028 2028 2028 2028 2028 2028 2028 2028 2028 0 0 0 0 0 0 0 0
0 0 0 0 0 0 0 0 0 0 0 0 0 0 0 0 0 0 0 0 0 0 0 0 0 0 0 0 0 0 0 0 0 0 1915 1915 1915 1915 1915 1915 1915 1915 1926 1926 1926 1926 1926 1926 1926 1926 1926 1926 1926 1926 1926 1926 1926 1926 1926 1926 1926 1926 1926 1926 1926 1926 1926 1926 1926 1926 1926 1926 1926 1915 1915 1926 1926 1926 1936 1936 1936 1926 1926 1936 1936 1936 1926 1926 1926 1926 1926 1926 1926 1926 1926 1926 1936 1936 1936 1926 1926 1926 1926 1926 1926 1926 1926 1936 1947 1947 1947 1947 1947 1947 1947 1947 1947 1947 1947 1936 1936 1947 1947 1947 1947 1947 1947 1947 1947 1947 1947 1947 1947 1947 1947 1947 1959 1959 1959 1959 1959 1959 1959 1947 1947 1947 1947 1947 1947 1947 1947 1947 1947 1947 1947 1947 1959 1959 1947 1947 1947 1947 1947 1947 1947 1947 1947 1947 1947 1947 1947 1959 1959 1970 1970 1970 1970 1970 1970 1970 1970 1970 1970 1970 1970 1970 1970 1970 1970 1970 1981 1970 1970 1981 1981 1981 1981 1981 1981 1981 1981 1981 1981 1981 1981 1981 1981 1981 1981 1981 1981 1981 1981 1993 1993 1981 1981 1993 1993 1981 1981 1981 1993 1993 1993 1993 1993 1993 1993 1993 1993 1993 1993 1993 1993 1981 1981 1981 1981 1993 1993 1993 1993 1993 1981 1981 1981 1981 1981 1993 1993 1993 1993 1993 1993 1993 1993 1981 1981 1981 1981 1981 1981 1981 1981 1981 1981 1981 1981 1981 1981 1981 1981 1993 1993 1993 1993 1993 2005 2005 2005 2005 2005 2005 2005 2005 2016 2016 2005 2005 2005 2005 2005 1993 1993 2005 2016 2016 2016 2005 2005 2005 2005 2005 2005 2005 2016 2016 2016 2016 2016 2016 2016 2016 2016 2016 2016 2005 2005 2005 2005 2005 2016 2016 2016 2016 2016 2016 2005 2005 2005 2005 2005 2005 2005 2005 2005 2005 2005 2005 2005 2005 2005 2005 2005 2005 2005 2005 2005 2005 2005 1680 1680 1680 1680 1680 1680 1671 1663 1663 1663 1663 1663 1663 1663 1663 1671 1671 1671 1671 1680 1680 1680 1680 2005 2005 2016 2016 2016 2016 2016 2016 2016 2016 2016 1663 1663 1655 1655 1655 1647 1647 1639 1639 1639 1639 1639 1639 1639 1639 1639 1639 1639 2016 2016 2028 2028 2028 2028 2028 2028 2028 2028 2016 2016 2016 2016 2028 2016 2016 2016 2028 2028 2028 2028 2028 2028 2028 2028 2016 2016 2016 2016 2028 2016 2016 2016 2016 2028 2028 2028 2028 2028 2028 2028 2028 2028 2028 2028 2028 2028 1843 1833 1823 1823 1823 1813 1804 1804 1804 1804 1794 1794 1794 1794 1794 1794 1794 1785 1785 1785 2028 2028 2028 2028 2028 2040 2040 2040 2040 2040 2040 2040 2040 2040 2040 2040 2040 2040 2040 2040 2040 2040 2040 2040 2040 2040 2040 2028 2028 2028 2028 2028 2028 2028 2028 2028 1823 1823 1833 1833 1833 1833 1833 1833 1823 1823 1823 1823 1823 1823 1823 1823 1823 2028 2028 2028 2028 2028 2028 2016 2016 2016 2028 2028 2028 2028 2028 2040 2040 2028 2028 2028 2028 2040 2040 2040 2040 2040 2040 2040 2040 2040 2028 2028 2040 2040 2040 2040 2040 2040 2028 2016 2005 1993 1993 1981 1981 1981 1981 1993 1993 1993 1993 2005 2016 2016 2028 2028 2040 2040 2040 2040 2040 2028 2016 2016 2016 2016 2016 2016 2016 2028 2028 2028 2028 2028 2016 2016 2016 2016 2016 2016 2028 2028 2028 2028 2028 2028 2028 2028 2028 2028 2028 2028 2016 2016 2028 2028 2028 2028 2028 2028 2028 2028 2028 2028 2028 2028 2028 2028 2028 0 0 0 0 0 0 0 0
0 0 0 0 0 0 0 0 0 0 0 0 0 0 0 0 0 0 0 0 0 0 0 0 0 0 0 0 0 0 0 0 0 0 1904 1904 1904 1915 1915 1915 1915 1915 1915 1915 1915 1915 1926 1926 1926 1926 1926 1926 1926 1926 1926 1915 1915 1915 1915 1915 1926 1915 1915 1926 1926 1926 1926 1926 1926 1926 1926 1926 1926 1915 1915 1915 1915 1926 1926 1926 1926 1926 1926 1936 1926 1926 1926 1926 1926 1915 1915 1915 1915 1926 1926 1926 1926 1926 1926 1915 1915 1915 1915 1915 1926 1926 1926 1926 1936 1936 1936 1936 1936 1936 1936 1947 1947 1936 1936 1936 1936 1936 1936 1936 1936 1936 1947 1947 1947 1947 1947 1947 1947 1947 1947 1947 1947 1947 1947 1947 1947 1947 1947 1947 1947 1947 1947 1947 1947 1947 1947 1947 1947 1936 1936 1947 1947 1947 1936 1936 1947 1947 1947 1947 1947 1947 1947 1947 1947 1947 1947 1947 1947 1959 1970 1947 1947 1947 1970 1970 1970 1959 1959 1959 1959 1959 1959 1959 1959 1970 1970 1970 1970 1970 1970 1970 1970 1970 1970 1970 1970 1970 1970 1970 1970 1970 1970 1970 1981 1981 1981 1981 1981 1981 1981 1981 1981 1981 1981 1981 1981 1981 1981 1981 1981 1981 1993 1993 1993 1993 1993 1981 1981 1981 1981 1981 1981 1981 1981 1981 1981 1981 1981 1993 1981 1981 1981 1981 1981 1981 1981 1981 1981 1981 1981 1981 1981 1981 1981 1981 1981 1981 1981 1981 1981 1981 1981 1981 1981 1981 1981 1981 1981 1981 1981 1993 1993 1993 1993 1993 1981 1981 1993 1993 1993 2005 2005 2005 2005 2005 2005 2005 2005 1993 1993 2005 2005 2005 2005 1993 1993 2005 2005 2005 2005 2005 2005 2016 2016 2016 2016 2016 2005 2005 2005 2005 2005 2005 2005 2005 2005 2005 2005 2005 2005 2005 2016 2016 2005 1993 1993 2005 2005 2005 2005 2005 2005 2005 2005 2005 2005 2005 2005 2005 2005 2005 2005 2005 2005 1993 1959 1959 1680 1680 1680 1680 1680 1671 1671 1663 1663 1663 1663 1663 1663 1671 1671 1671 1671 1680 1680 1680 1688 1688 2005 2005 2005 2016 2016 2016 2016 2016 2016 2016 2016 1663 1663 1655 1655 1655 1647 1639 1639 1639 1639 1639 1639 1639 1639 1639 1639 1639 1639 2016 2016 2028 2028 2028 2028 2028 2028 2028 2028 2016 2016 2016 2016 2016 2016 2016 2016 2016 2028 2028 2016 2016 2016 2016 2016 2005 2005 2016 2016 2016 2016 2016 2016 2016 2016 2016 2016 2016 2016 2016 2016 2016 2016 2016 2016 2016 2016 2016 1833 1823 1813 1813 1813 1804 1804 1804 1804 1794 1794 1794 1794 1794 1794 1794 1794 1785 1785 2016 2016 2016 2028 2028 2028 2028 2028 2040 2040 2040 2040 2040 2040 2040 2040 2040 2040 2040 2040 2040 2040 2040 2040 2040 2040 2040 2028 2016 2016 2016 2028 2016 2016 2016 2028 1823 1823 1833 1843 1833 1833 1833 1833 1823 1823 1823 1823 1823 1823 1823 1823 2040 2028 2028 2028 2028 2016 2016 2016 2016 2016 2016 2028 2028 2028 2028 2028 2028 2028 2028 2028 2028 2028 2028 2028 2028 2028 2028 2028 2028 2028 2028 2028 2028 2028 2028 2028 2040 2028 2028 2016 2005 1993 1993 1993 1993 1993 1993 1993 1993 1993 2005 2005 2005 2016 2028 2028 2040 2040 2028 2028 2028 2016 2016 2016 2016 2016 2016 2016 2016 2016 2016 2016 2016 2005 2005 2005 2005 2005 2016 2016 2016 2016 2016 2016 2028 2028 2028 2028 2028 2028 2028 2016 2016 2016 2016 2016 2016 2016 2016 2016 2016 2016 2016 2016 2016 2016 2016 2016 2016 0 0 0 0 0 0 0 0
0 0 0 0 0 0 0 0 0 0 0 0 0 0 0 0 0 0 0 0 0 0 0 0 0 0 0 0 0 0 0 0 0 0 1904 1904 1904 1904 1915 1915 1915 1915 1915 1915 1915 1915 1926 1926 1915 1915 1915 1915 1915 1915 1915 1915 1915 1915 1915 1915 1915 1915 1915 1915 1915 1915 1926 1926 1926 1926 1926 1926 1926 1915 1915 1915 1915 1915 1926 1926 1915 1915 1915 1915 1915 1915 1915 1915 1915 1915 1915 1915 1915 1915 1915 1915 1915 1915 1915 1915 1915 1915 1915 1915 1915 1915 1915 1915 1926 1926 1936 1926 1926 1926 1936 1936 1936 1936 1936 1936 1936 1936 1936 1936 1936 1936 1936 1936 1936 1936 1936 1936 1936 1936 1936 1936 1947 1936 1936 1936 1936 1936 1936 1936 1936 1947 1947 1947 1947 1947 1947 1947 1936 1936 1936 1947 1947 1947 1936 1936 1936 1947 1947 1947 1936 1936 1936 1936 1936 1936 1947 1947 1947 1947 1947 1947 1947 1947 1947 1947 1947 1947 1959 1959 1959 1959 1959 1959 1959 1959 1959 1959 1959 1959 1959 1959 1959 1959 1959 1959 1959 1959 1970 1970 1959 1959 1959 1959 1970 1970 1970 1970 1970 1981 1981 1981 1981 1981 1981 1981 1981 1981 1981 1981 1981 1981 1981 1981 1981 1981 1981 1981 1981 1981 1981 1981 1981 1981 1981 1981 1981 1981 1981 1981 1981 1981 1981 1981 1981 1981 1981 1981 1981 1981 1981 1981 1981 1981 1981 1970 1970 1970 1970 1970 1970 1970 1981 1981 1981 1981 1981 1981 1981 1981 1981 1981 1981 1981 1981 1981 1981 1981 1981 1981 1981 1993 2005 2005 2005 2005 2005 2005 2005 1993 1993 1993 1993 1993 1993 1993 1993 1993 1993 1993 1993 1993 2005 2005 2005 2005 2005 2005 2005 2005 1993 1993 2005 2005 2005 2005 2005 2005 2005 2005 2005 2005 2005 2005 1993 1993 1993 1993 2005 2005 2005 1993 1993 1993 2005 1993 1993 1993 2005 2005 2005 2005 2005 2005 1993 1993 1959 1959 1680 1680 1680 1680 1680 1671 1671 1671 1671 1663 1663 1671 1671 1671 1671 1671 1671 1680 1688 1688 1688 1696 1731 2005 2005 2005 2005 2005 2005 1993 1993 1993 1993 1663 1663 1663 1655 1655 1647 1639 1639 1639 1639 1639 1639 1639 1639 1647 1647 1655 1655 2016 2016 2028 2016 2016 2028 2016 2016 2016 2016 2005 2005 2016 2016 2016 2016 2016 2016 2016 2016 2016 2005 2005 2005 2005 2005 2005 2005 2005 2005 2005 2005 2005 2016 2016 2016 2016 2016 2016 2016 2016 2016 2016 2016 2016 2016 2005 2005 2005 2005 2016 1813 1813 1813 1804 1804 1804 1804 1794 1794 1794 1794 1794 1794 1794 1794 1794 1794 1794 2016 2016 2016 2016 2016 2028 2028 2028 2028 2028 2028 2028 2028 2028 2028 2028 2028 2028 2028 2040 2040 2028 2028 2040 2040 2028 2016 2016 2016 2016 2016 2016 2016 2016 2016 1813 1813 1823 1843 1833 1833 1833 1833 1833 1823 1823 1823 1823 1823 1823 1823 2028 2016 2016 2016 2016 2005 2005 2005 2005 2005 2005 2016 2016 2016 2028 2028 2028 2028 2028 2028 2028 2028 2028 2028 2028 2028 2028 2028 2028 2028 2028 2028 2028 2028 2028 2028 2028 2028 2028 2016 2005 1993 1993 1993 1993 1993 1993 1993 1993 1993 2005 2005 2005 2016 2028 2028 2028 2028 2028 2028 2016 2005 2005 2005 2005 2005 2005 2005 2005 2005 2005 2005 2005 2005 2005 2005 2005 2005 2005 2005 2005 2016 2016 2016 2016 2016 2016 2016 2016 2016 2016 2016 2016 2016 2016 2016 2016 2016 2016 2016 2016 2016 2016 2016 2016 2016 2016 2016 2016 0 0 0 0 0 0 0 0
0 0 0 0 0 0 0 0 0 0 0 0 0 0 0 0 0 0 0 0 0 0 0 0 0 0 0 0 0 0 0 0 0 0 1894 1894 1894 1904 1904 1904 1904 1915 1915 1915 1915 1915 1915 1915 1915 1915 1915 1915 1915 1915 1915 1915 1915 1915 1915 1904 1904 1904 1904 1904 1915 1915 1915 1915 1915 1926 1926 1926 1926 1915 1915 1915 1915 1915 1915 1915 1915 1915 1915 1915 1915 1915 1915 1915 1915 1915 1915 1915 1915 1915 1915 1915 1915 1915 1915 1915 1915 1915 1915 1915 1915 1915 1915 1915 1926 1926 1926 1926 1926 1926 1926 1926 1926 1926 1926 1926 1936 1936 1926 1926 1926 1926 1936 1936 1936 1926 1926 1936 1936 1936 1936 1936 1936 1936 1936 1936 1936 1936 1936 1936 1936 1947 1947 1936 1936 1936 1936 1936 1936 1936 1936 1936 1936 1936 1936 1926 1926 1936 1926 1926 1936 1936 1936 1936 1936 1936 1936 1936 1936 1936 1936 1936 1936 1936 1947 1947 1947 1947 1947 1947 1947 1947 1947 1947 1947 1947 1947 1947 1947 1947 1947 1947 1959 1947 1947 1947 1959 1959 1959 1959 1947 1947 1959 1959 1959 1959 1959 1959 1959 1970 1970 1970 1970 1959 1959 1970 1970 1970 1970 1970 1970 1970 1981 1981 1981 1981 1981 1981 1981 1981 1981 1981 1981 1970 1970 1981 1981 1981 1981 1981 1970 1970 1970 1970 1970 1970 1970 1970 1970 1981 1981 1981 1981 1981 1981 1970 1970 1970 1970 1970 1970 1970 1981 1981 1981 1970 1970 1981 1981 1981 1981 1981 1981 1981 1981 1981 1981 1981 1981 1981 1981 1981 1981 1981 1981 1993 1993 1993 1993 1993 1993 1993 1993 1981 1981 1981 1981 1981 1981 1981 1981 1981 1981 1981 1993 1993 1993 1993 1993 1993 1993 1993 1993 1993 1993 2005 2005 2005 2005 2005 2005 2005 2005 2005 1993 1981 1981 1981 1993 1981 1981 1993 1993 1993 1993 1993 1993 1993 2005 2005 2005 2005 2005 1993 1993 1981 1959 1959 1688 1688 1688 1680 1680 1680 1671 1671 1671 1671 1671 1671 1671 1680 1680 1680 1688 1688 1696 1696 1696 1705 1731 1993 2005 2005 2005 2005 2005 1993 1993 1993 1993 1993 1663 1655 1655 1655 1647 1647 1639 1639 1639 1639 1647 1647 1647 1647 1655 1655 1655 2016 2016 2016 2016 2016 2016 2016 2016 2016 2016 2005 2005 2005 2005 2005 2005 2005 2005 2005 2005 2016 2005 2005 2005 2005 2005 2005 2005 2005 2005 2005 2005 2005 2005 2005 2005 2005 2005 2005 2005 2005 2005 2005 2005 2005 2005 2005 2005 2005 2005 2016 1804 1804 1813 1804 1804 1804 1804 1794 1794 1794 1794 1794 1794 1794 1794 1794 1794 1794 2005 2005 2005 2005 2005 2016 2016 2016 2016 2016 2016 2028 2028 2028 2028 2028 2028 2028 2028 2028 2028 2028 2028 2028 2028 2028 2016 2005 2005 2005 2005 2005 2005 2005 1993 1813 1813 1823 1843 1843 1833 1833 1833 1833 1823 1823 1823 1823 1823 1833 2005 2005 2005 2005 2005 2005 2005 2005 1993 1993 2005 2005 2005 2016 2016 2016 2016 2016 2016 2016 2016 2016 2016 2016 2028 2016 2016 2028 2028 2028 2028 2016 2016 2016 2016 2016 2016 2016 2016 2016 2005 2005 1993 1993 1993 1993 1993 1993 1993 1993 1993 1993 1993 2005 2016 2016 2028 2028 2028 2016 2016 2016 2005 2005 2005 2005 2005 2005 2005 2005 2005 2005 2005 1993 1993 1993 1993 1993 1993 1993 1993 2005 2005 2005 2005 2005 2005 2016 2016 2016 2016 2016 2016 2016 2005 2005 2005 2005 2016 2016 2016 2016 2016 2016 2016 2016 2016 2016 2016 2016 0 0 0 0 0 0 0 0
0 0 0 0 0 0 0 0 0 0 0 0 0 0 0 0 0 0 0 0 0 0 0 0 0 0 0 0 0 0 0 0 0 0 1894 1894 1894 1894 1904 1904 1904 1904 1915 1915 1894 1894 1904 1915 1915 1915 1915 1915 1915 1915 1915 1915 1904 1904 1904 1894 1894 1904 1904 1904 1904 1915 1915 1915 1915 1915 1915 1915 1915 1904 1904 1904 1904 1904 1904 1904 1915 1915 1915 1915 1915 1915 1915 1915 1915 1915 1915 1904 1904 1904 1904 1915 1915 1915 1915 1904 1904 1904 1904 1904 1904 1904 1904 1915 1915 1915 1915 1926 1926 1926 1926 1926 1926 1926 1926 1926 1926 1926 1926 1926 1926 1926 1926 1926 1936 1915 1915 1936 1936 1936 1936 1936 1936 1936 1936 1926 1926 1926 1926 1926 1926 1936 1936 1936 1936 1936 1936 1936 1926 1926 1926 1926 1926 1926 1926 1926 1926 1926 1926 1926 1926 1926 1926 1926 1926 1936 1936 1936 1936 1936 1936 1936 1936 1936 1936 1936 1936 1936 1947 1947 1947 1947 1947 1947 1947 1936 1936 1936 1936 1936 1947 1947 1947 1947 1947 1947 1959 1947 1947 1959 1947 1947 1947 1947 1947 1947 1959 1959 1959 1959 1959 1959 1959 1959 1959 1970 1970 1970 1970 1970 1970 1970 1970 1970 1970 1970 1970 1981 1970 1970 1981 1970 1970 1970 1970 1981 1981 1981 1981 1981 1970 1970 1970 1959 1959 1970 1970 1970 1970 1970 1970 1970 1981 1970 1970 1970 1970 1970 1970 1970 1970 1970 1970 1970 1970 1970 1970 1981 1981 1981 1981 1981 1981 1970 1970 1970 1970 1970 1970 1981 1981 1981 1981 1981 1981 1981 1981 1993 1993 1993 1981 1981 1981 1981 1981 1981 1981 1981 1981 1981 1981 1981 1981 1981 1981 1981 1981 1981 1981 1981 1981 1993 1993 1993 1993 1993 1993 1993 1993 1993 1993 1993 1993 1981 1981 1981 1981 1981 1981 1981 1981 1981 1981 1981 1981 1981 1981 1981 1993 1993 1993 1993 1993 1993 1981 1970 1959 1959 1688 1688 1688 1688 1680 1680 1671 1671 1671 1671 1671 1671 1680 1680 1680 1688 1688 1688 1696 1705 1705 1731 1739 1748 1993 1993 1993 1993 1993 1993 1993 1993 1993 1993 1663 1655 1655 1655 1647 1647 1639 1639 1639 1639 1647 1647 1647 1655 1655 1663 1663 1688 1705 2005 2005 2005 2005 2005 2005 2005 2005 1993 1993 1993 1993 1993 1993 1993 1993 1993 2005 2005 2005 2005 2005 2005 2005 1993 1993 1993 1993 1993 1993 2005 2005 2005 2005 2005 2005 2005 2005 2005 2005 2005 2005 2005 2005 2005 2005 2005 2005 2016 1804 1794 1794 1804 1804 1804 1804 1794 1794 1794 1794 1794 1794 1794 1794 1794 1794 1804 2005 2005 2005 2005 2005 2005 2016 2016 2016 2016 2016 2016 2016 2016 2016 2016 2016 2016 2016 2028 2028 2028 2028 2028 2028 2016 2005 2005 2005 2005 2005 1993 1993 1993 1993 1823 1823 1833 1843 1843 1833 1833 1833 1833 1823 1823 1823 1823 1823 1833 1993 2005 2005 2005 2005 2005 1993 1993 1993 1993 1993 1993 2005 2005 2005 2016 2016 2016 2016 2016 2016 2016 2016 2016 2016 2016 2016 2016 2016 2016 2016 2016 2016 2016 2016 2005 2005 2005 2005 2005 1993 1993 1993 1993 1993 1981 1981 1981 1981 1993 1993 1993 1993 1993 2005 2005 2016 2016 2016 2016 2016 2005 1993 1993 1993 1993 1993 1993 1993 2005 2005 1993 1993 1993 1993 1993 1993 1993 1981 1981 1993 1993 1993 1993 1993 1993 1993 1993 2005 1993 1993 1981 1981 2005 1993 1993 1993 2005 2005 2005 2005 2005 2005 2005 2005 2005 2005 2016 2016 2016 0 0 0 0 0 0 0 0
0 0 0 0 0 0 0 0 0 0 0 0 0 0 0 0 0 0 0 0 0 0 0 0 0 0 0 0 0 0 0 0 0 0 1883 1883 1894 1894 1894 1904 1904 1904 1904 1904 1894 1894 1904 1904 1904 1904 1904 1904 1904 1904 1904 1904 1904 1904 1904 1894 1894 1894 1894 1894 1904 1904 1915 1915 1915 1915 1915 1915 1915 1904 1904 1904 1904 1904 1904 1904 1904 1904 1904 1904 1904 1915 1915 1915 1915 1904 1904 1904 1904 1904 1904 1904 1904 1904 1904 1904 1904 1904 1904 1904 1904 1904 1904 1904 1915 1915 1915 1915 1915 1915 1915 1915 1915 1915 1915 1915 1915 1915 1915 1915 1915 1915 1915 1915 1915 1915 1915 1926 1926 1926 1926 1926 1915 1915 1915 1915 1915 1915 1915 1915 1915 1926 1926 1926 1926 1926 1926 1926 1926 1926 1926 1926 1926 1926 1915 1915 1926 1926 1926 1926 1926 1926 1926 1926 1926 1926 1926 1926 1936 1926 1926 1926 1926 1926 1936 1936 1936 1936 1936 1936 1936 1936 1936 1936 1936 1936 1936 1936 1936 1936 1936 1936 1947 1947 1947 1947 1947 1947 1947 1947 1947 1947 1947 1947 1947 1947 1947 1947 1947 1947 1947 1947 1947 1959 1959 1959 1959 1959 1959 1959 1959 1959 1959 1959 1959 1959 1959 1970 1970 1970 1970 1970 1970 1970 1970 1981 1981 1981 1981 1981 1970 1970 1970 1959 1959 1959 1970 1970 1970 1970 1970 1970 1970 1970 1970 1970 1970 1970 1970 1970 1970 1970 1970 1970 1970 1970 1970 1970 1970 1981 1981 1970 1970 1970 1970 1970 1970 1970 1970 1970 1970 1970 1981 1981 1981 1981 1981 1981 1981 1981 1981 1981 1981 1981 1981 1981 1981 1981 1981 1981 1981 1981 1981 1981 1981 1981 1981 1981 1981 1981 1981 1981 1981 1981 1981 1981 1981 1981 1981 1981 1981 1981 1981 1981 1981 1970 1970 1970 1981 1970 1970 1970 1970 1970 1970 1970 1970 1981 1981 1981 1981 1993 1993 1970 1970 1959 1947 1947 1947 1696 1696 1688 1688 1680 1671 1671 1671 1671 1680 1680 1680 1680 1688 1688 1688 1688 1696 1705 1722 1748 1748 1748 1981 1993 1993 1993 1993 1993 1993 1993 1993 1993 1663 1655 1655 1655 1647 1647 1639 1639 1639 1639 1647 1647 1647 1655 1655 1663 1663 1688 1705 1993 1993 2005 2005 2005 2005 2005 2005 1993 1993 1993 1993 1993 1993 1993 1993 1993 1993 1993 1993 1993 1993 1993 1993 1993 1981 1981 1981 1981 1993 1993 1993 1993 1993 1993 2005 2005 2005 2005 2005 2005 2005 2005 2005 2005 2005 2005 2005 2005 2005 1794 1794 1804 1804 1804 1804 1794 1794 1794 1794 1794 1794 1794 1794 1804 1804 1804 2005 2005 2005 2005 2005 2005 2005 2005 2005 2005 2005 2016 2016 2016 2005 2005 2005 2005 2016 2016 2016 2016 2016 2016 2016 2005 1993 1993 1993 1993 1993 1993 1993 1993 1993 1823 1823 1833 1843 1843 1833 1833 1833 1833 1833 1833 1833 1833 1833 1843 1993 1993 2005 2005 1993 1993 1993 1993 1993 1993 1993 1993 1993 2005 2005 2005 2005 2005 2005 2005 2005 2005 2005 2005 2005 2005 2005 2005 2005 2005 2005 2005 2005 2005 2005 2005 2005 1993 1993 1993 1993 1993 1993 1993 1993 1981 1981 1981 1981 1993 1993 1993 1993 1993 1993 2005 2005 2005 2005 2005 2005 2005 1993 1993 1993 1993 1993 1981 1981 1993 1993 1981 1981 1981 1981 1981 1981 1981 1981 1981 1993 1981 1981 1981 1981 1981 1981 1981 1993 1981 1981 1981 1981 1981 1981 1993 1993 1993 1993 1993 1993 1993 1993 1993 1993 2005 2005 2005 2005 2005 0 0 0 0 0 0 0 0
0 0 0 0 0 0 0 0 0 0 0 0 0 0 0 0 0 0 0 0 0 0 0 0 0 0 0 0 0 0 0 0 0 0 1883 1883 1883 1883 1894 1894 1894 1894 1894 1894 1894 1894 1894 1904 1904 1904 1904 1904 1904 1904 1904 1904 1894 1894 1894 1894 1894 1894 1894 1894 1904 1904 1904 1904 1904 1915 1904 1904 1904 1894 1894 1904 1894 1894 1894 1894 1894 1904 1904 1904 1904 1904 1904 1904 1904 1904 1904 1904 1904 1904 1904 1904 1904 1904 1904 1904 1904 1904 1904 1904 1904 1904 1904 1904 1904 1915 1915 1915 1915 1915 1915 1915 1904 1904 1904 1904 1904 1915 1915 1915 1915 1915 1915 1915 1915 1915 1915 1915 1915 1915 1915 1915 1915 1915 1915 1915 1915 1915 1915 1915 1915 1915 1915 1915 1926 1926 1926 1926 1915 1915 1926 1915 1915 1915 1904 1904 1904 1915 1915 1915 1915 1926 1926 1926 1926 1926 1926 1926 1926 1926 1926 1926 1926 1926 1936 1936 1936 1936 1936 1936 1936 1936 1936 1936 1936 1936 1936 1936 1936 1936 1936 1936 1947 1947 1947 1947 1947 1947 1947 1947 1947 1947 1947 1947 1947 1947 1947 1947 1947 1947 1947 1947 1947 1947 1947 1959 1959 1959 1959 1947 1947 1947 1947 1947 1959 1959 1959 1959 1959 1959 1970 1970 1970 1970 1970 1970 1970 1970 1970 1970 1959 1959 1959 1959 1959 1959 1970 1970 1970 1970 1970 1970 1970 1970 1970 1970 1970 1970 1970 1959 1959 1970 1970 1970 1970 1970 1970 1970 1970 1970 1970 1970 1970 1970 1970 1970 1970 1970 1970 1970 1970 1970 1970 1970 1970 1970 1981 1981 1981 1981 1981 1981 1981 1981 1981 1970 1970 1970 1970 1970 1970 1970 1970 1981 1981 1981 1981 1981 1981 1981 1981 1981 1970 1970 1981 1981 1970 1970 1970 1970 1970 1970 1970 1970 1970 1970 1970 1970 1970 1970 1970 1970 1970 1970 1970 1970 1970 1970 1970 1981 1981 1981 1981 1970 1970 1959 1947 1947 1947 1696 1696 1688 1688 1680 1680 1680 1680 1680 1680 1680 1680 1680 1688 1688 1688 1688 1696 1713 1731 1748 1748 1748 1748 1981 1981 1981 1981 1993 1993 1993 1970 1970 1663 1663 1655 1655 1647 1647 1639 1639 1639 1639 1647 1647 1655 1655 1655 1663 1663 1688 1696 1981 1993 1993 1993 2005 2005 2005 2005 1993 1993 1993 1993 1993 1981 1981 1981 1981 1993 1993 1993 1981 1981 1981 1981 1981 1981 1970 1970 1981 1981 1981 1993 1993 1993 1993 1993 1993 1993 1993 1993 1993 2005 2005 1993 1993 1993 1993 2005 2005 2005 1813 1813 1804 1804 1794 1794 1794 1794 1794 1794 1794 1794 1794 1794 1804 1804 1813 1993 1993 1993 1993 2005 2005 2005 2005 2005 2005 2005 2005 2005 2005 2005 2005 2005 2005 2005 2005 2005 2005 2005 2005 2016 2005 1993 1993 1993 1993 1993 1993 1993 1993 1981 1843 1843 1843 1843 1843 1843 1833 1833 1833 1833 1833 1833 1833 1833 1833 1993 1993 1993 1993 1993 1993 1993 1993 1993 1993 1993 1993 1993 1993 1993 2005 1993 1993 2005 2005 2005 1993 1993 1993 1993 1993 1993 1993 2005 2005 2005 2005 2005 2005 2005 1993 1993 1993 1993 1993 1993 1993 1993 1993 1993 1981 1981 1981 1981 1981 1981 1993 1993 1993 1993 1993 1993 1993 1993 1993 1993 1993 1993 1981 1981 1981 1981 1981 1981 1981 1993 1981 1981 1981 1981 1981 1981 1981 1981 1981 1981 1981 1981 1981 1981 1981 1981 1981 1981 1981 1981 1981 1981 1981 1981 1981 1993 1993 1981 1981 1981 1981 1993 1993 1993 1993 1993 1993 1993 1993 0 0 0 0 0 0 0 0
0 0 0 0 0 0 0 0 0 0 0 0 0 0 0 0 0 0 0 0 0 0 0 0 0 0 0 0 0 0 0 0 0 0 1873 1873 1883 1883 1883 1883 1894 1883 1883 1894 1883 1883 1883 1883 1894 1894 1894 1894 1894 1894 1894 1894 1894 1894 1894 1883 1883 1894 1894 1894 1894 1904 1904 1904 1904 1904 1904 1904 1904 1894 1894 1894 1894 1894 1894 1894 1894 1894 1894 1894 1894 1904 1904 1904 1904 1904 1904 1904 1894 1894 1894 1894 1894 1894 1904 1904 1904 1904 1904 1904 1904 1904 1904 1904 1904 1904 1904 1904 1904 1915 1904 1904 1904 1904 1904 1904 1904 1904 1904 1904 1904 1904 1915 1915 1915 1915 1915 1915 1915 1915 1915 1915 1915 1915 1915 1915 1915 1915 1915 1915 1915 1915 1915 1915 1915 1915 1915 1915 1915 1915 1915 1915 1915 1915 1904 1904 1904 1904 1904 1904 1915 1915 1915 1915 1915 1915 1926 1926 1926 1926 1926 1926 1926 1926 1926 1926 1926 1936 1936 1936 1936 1936 1936 1936 1936 1936 1936 1936 1936 1936 1936 1936 1936 1936 1936 1947 1947 1947 1947 1947 1936 1936 1936 1936 1947 1947 1947 1947 1936 1936 1936 1936 1936 1947 1947 1947 1947 1959 1947 1947 1947 1947 1947 1947 1959 1959 1959 1959 1959 1959 1970 1970 1970 1959 1959 1970 1959 1959 1959 1959 1959 1959 1947 1947 1959 1959 1959 1959 1959 1970 1970 1970 1970 1970 1970 1970 1959 1959 1959 1959 1959 1959 1959 1959 1959 1959 1959 1959 1959 1959 1970 1970 1959 1959 1959 1959 1970 1959 1959 1970 1970 1970 1970 1970 1970 1970 1970 1970 1970 1970 1970 1970 1970 1970 1970 1970 1970 1970 1970 1970 1970 1970 1970 1970 1970 1970 1970 1970 1970 1970 1970 1970 1970 1970 1970 1970 1970 1970 1970 1970 1970 1970 1970 1970 1970 1970 1970 1970 1959 1959 1959 1970 1970 1970 1970 1970 1970 1970 1970 1970 1970 1970 1970 1970 1970 1959 1947 1947 1947 1696 1696 1688 1688 1680 1680 1680 1680 1680 1680 1680 1680 1680 1688 1688 1688 1696 1696 1713 1731 1748 1748 1748 1748 1748 1981 1981 1981 1981 1981 1993 1970 1663 1663 1663 1655 1655 1647 1647 1639 1639 1639 1639 1647 1647 1655 1655 1655 1663 1663 1688 1696 1981 1981 1993 1993 2005 2005 2005 2005 1970 1970 1970 1993 1993 1970 1970 1981 1981 1993 1993 1993 1981 1981 1970 1970 1970 1970 1970 1970 1970 1970 1981 1981 1981 1981 1981 1981 1981 1981 1981 1981 1981 1981 1993 1993 1993 1993 1993 1993 1993 1993 1813 1813 1804 1804 1794 1794 1794 1794 1794 1794 1794 1794 1804 1804 1804 1804 1981 1981 1993 1981 1981 1993 1993 1993 1993 1993 1993 1993 1993 1993 1993 1993 1993 1993 1993 2005 2005 2005 2005 2005 2005 2005 2005 1981 1981 1993 1993 1993 1993 1981 1981 1981 1843 1843 1843 1843 1843 1843 1843 1833 1833 1833 1833 1833 1833 1833 1833 1981 1993 1993 1993 1993 1993 1993 1993 1993 1993 1993 1993 1993 1993 1993 1993 1993 1993 1993 2005 1993 1993 1993 1993 1993 1993 1993 1993 1993 1993 1993 1993 1993 1993 1993 1993 1993 1993 1993 1993 1993 1993 1993 1981 1981 1981 1981 1981 1981 1981 1981 1993 1993 1993 1993 1993 1993 1993 1993 1993 1993 1993 1993 1981 1981 1981 1981 1981 1981 1981 1981 1981 1981 1981 1981 1981 1981 1981 1981 1981 1981 1981 1981 1970 1970 1970 1970 1970 1970 1970 1981 1981 1981 1981 1981 1981 1981 1981 1981 1981 1981 1981 1993 1993 1993 1993 1993 1993 1993 1993 0 0 0 0 0 0 0 0
0 0 0 0 0 0 0 0 0 0 0 0 0 0 0 0 0 0 0 0 0 0 0 0 0 0 0 0 0 0 0 0 0 0 1873 1873 1873 1873 1883 1883 1883 1883 1883 1883 1883 1883 1883 1883 1883 1883 1883 1883 1883 1883 1883 1883 1883 1883 1883 1883 1883 1883 1883 1894 1894 1894 1894 1894 1894 1894 1894 1894 1894 1883 1883 1894 1883 1883 1883 1883 1883 1894 1894 1894 1894 1894 1894 1894 1894 1904 1904 1904 1894 1894 1894 1894 1894 1894 1894 1894 1904 1904 1904 1904 1904 1904 1904 1904 1904 1904 1904 1904 1904 1904 1904 1904 1904 1904 1904 1904 1904 1904 1904 1904 1904 1904 1904 1904 1904 1904 1904 1904 1904 1904 1904 1915 1915 1915 1915 1915 1915 1915 1915 1915 1915 1915 1915 1915 1915 1915 1915 1915 1915 1915 1915 1915 1915 1915 1904 1904 1904 1904 1904 1904 1904 1904 1904 1904 1915 1915 1915 1915 1915 1915 1915 1915 1915 1915 1926 1926 1926 1926 1926 1926 1926 1926 1926 1926 1926 1926 1926 1926 1926 1926 1926 1936 1936 1936 1936 1936 1936 1936 1936 1936 1936 1936 1936 1936 1936 1936 1947 1936 1936 1936 1936 1936 1936 1947 1947 1947 1947 1947 1947 1947 1947 1947 1947 1947 1947 1947 1947 1947 1947 1959 1947 1947 1947 1947 1947 1959 1959 1959 1959 1959 1947 1947 1947 1947 1947 1947 1947 1959 1959 1959 1970 1959 1959 1959 1959 1959 1959 1959 1959 1959 1947 1947 1959 1959 1959 1959 1959 1959 1959 1959 1959 1959 1959 1959 1959 1959 1959 1947 1947 1959 1959 1959 1970 1970 1970 1970 1970 1970 1970 1970 1970 1970 1970 1970 1970 1970 1970 1970 1970 1970 1959 1959 1959 1959 1970 1970 1970 1970 1970 1970 1970 1959 1959 1959 1970 1970 1970 1970 1970 1970 1970 1970 1970 1970 1970 1959 1959 1959 1959 1959 1959 1959 1959 1970 1970 1970 1970 1970 1970 1970 1970 1970 1970 1959 1959 1959 1959 1959 1959 1696 1696 1688 1688 1688 1680 1680 1680 1680 1680 1680 1688 1688 1688 1688 1688 1696 1705 1713 1731 1739 1748 1748 1739 1739 1739 1970 1970 1981 1981 1970 1970 1663 1663 1663 1655 1655 1647 1647 1639 1639 1639 1639 1647 1647 1655 1655 1655 1663 1663 1688 1696 1970 1981 1981 1981 1981 1970 1970 1970 1959 1959 1959 1970 1970 1970 1970 1970 1970 1970 1970 1970 1970 1970 1970 1970 1970 1970 1970 1970 1970 1970 1970 1981 1981 1981 1981 1970 1970 1970 1970 1970 1970 1970 1981 1981 1981 1981 1981 1993 1993 1993 1813 1813 1804 1804 1794 1794 1794 1794 1794 1794 1804 1804 1804 1804 1804 1804 1970 1970 1981 1970 1970 1981 1981 1981 1981 1993 1993 1993 1993 1993 1981 1981 1981 1993 1993 1993 1993 1993 1993 1993 1993 1993 1993 1981 1981 1981 1981 1981 1981 1981 1981 1981 1853 1843 1843 1843 1843 1843 1843 1833 1833 1833 1833 1833 1833 1843 1853 1981 1981 1981 1981 1993 1993 1993 1993 1993 1993 1981 1981 1993 1993 1993 1993 1993 1993 1993 1993 1993 1993 1993 1981 1981 1993 1993 1993 1993 1993 1993 1993 1993 1993 1993 1993 1993 1993 1993 1993 1993 1993 1981 1981 1981 1981 1981 1981 1981 1981 1981 1981 1981 1993 1993 1993 1993 1993 1993 1993 1993 1993 1993 1981 1981 1981 1981 1981 1981 1981 1981 1981 1981 1981 1970 1970 1970 1970 1981 1981 1981 1981 1981 1970 1970 1970 1970 1970 1970 1970 1970 1981 1981 1981 1981 1981 1981 1981 1981 1981 1981 1981 1981 1981 1981 1993 1993 1993 1993 1993 0 0 0 0 0 0 0 0
0 0 0 0 0 0 0 0 0 0 0 0 0 0 0 0 0 0 0 0 0 0 0 0 0 0 0 0 0 0 0 0 0 0 1873 1873 1873 1873 1883 1883 1883 1883 1883 1883 1883 1883 1883 1883 1883 1883 1883 1883 1883 1883 1883 1883 1883 1883 1883 1883 1883 1883 1883 1883 1894 1894 1894 1894 1894 1894 1894 1894 1894 1883 1883 1883 1883 1883 1883 1883 1883 1883 1883 1883 1883 1883 1894 1894 1894 1894 1894 1894 1894 1894 1894 1894 1894 1894 1894 1894 1894 1894 1894 1894 1894 1894 1894 1894 1894 1894 1904 1904 1904 1904 1894 1894 1904 1894 1894 1894 1894 1894 1894 1894 1894 1894 1894 1894 1904 1904 1904 1904 1904 1904 1904 1904 1904 1904 1904 1904 1904 1904 1904 1904 1904 1904 1904 1915 1915 1915 1915 1915 1915 1915 1915 1915 1915 1915 1894 1894 1904 1904 1904 1904 1904 1904 1904 1904 1904 1915 1915 1915 1915 1915 1915 1915 1915 1915 1915 1915 1915 1926 1926 1915 1915 1926 1926 1926 1926 1926 1926 1926 1926 1926 1926 1926 1936 1936 1936 1936 1936 1936 1936 1936 1936 1926 1926 1936 1936 1936 1936 1936 1936 1936 1936 1936 1936 1947 1947 1947 1947 1947 1947 1947 1936 1936 1947 1947 1947 1947 1947 1947 1947 1947 1947 1947 1947 1947 1947 1947 1947 1947 1947 1947 1947 1936 1936 1936 1936 1947 1947 1947 1947 1947 1959 1959 1947 1947 1947 1947 1947 1947 1947 1947 1947 1947 1959 1959 1959 1959 1959 1959 1947 1947 1959 1959 1959 1959 1947 1947 1959 1947 1947 1959 1959 1959 1959 1959 1959 1959 1959 1959 1959 1959 1959 1959 1970 1970 1970 1959 1959 1959 1959 1959 1959 1959 1959 1959 1959 1959 1970 1959 1959 1959 1959 1959 1959 1959 1970 1970 1970 1959 1959 1959 1959 1959 1959 1959 1959 1959 1959 1959 1959 1947 1947 1959 1959 1959 1959 1959 1959 1959 1970 1959 1959 1959 1959 1959 1959 1959 1959 1959 1959 1696 1696 1688 1688 1688 1680 1680 1680 1680 1680 1680 1688 1688 1688 1688 1688 1696 1705 1713 1722 1731 1739 1739 1739 1739 1739 1731 1731 1970 1970 1959 1959 1663 1663 1663 1655 1655 1647 1647 1647 1639 1639 1647 1647 1647 1655 1655 1655 1663 1663 1959 1970 1970 1970 1981 1981 1970 1970 1970 1970 1959 1959 1959 1959 1959 1959 1959 1970 1970 1970 1970 1970 1970 1970 1970 1959 1959 1959 1959 1959 1959 1959 1970 1970 1970 1970 1970 1970 1970 1970 1970 1959 1959 1959 1970 1970 1970 1970 1981 1981 1981 1981 1823 1813 1804 1804 1804 1804 1804 1804 1804 1813 1813 1813 1813 1804 1804 1813 1970 1970 1970 1970 1970 1970 1970 1970 1970 1970 1981 1981 1970 1970 1970 1970 1970 1970 1981 1981 1981 1981 1993 1993 1993 1981 1981 1970 1970 1981 1981 1981 1981 1981 1981 1981 1853 1853 1843 1843 1843 1843 1843 1833 1833 1843 1843 1843 1853 1853 1936 1970 1970 1981 1981 1981 1981 1981 1981 1981 1981 1981 1981 1981 1993 1993 1993 1993 1993 1993 1993 1993 1981 1981 1981 1981 1981 1981 1981 1981 1993 1993 1993 1993 1993 1993 1993 1993 1993 1993 1993 1981 1981 1981 1970 1970 1981 1981 1981 1981 1981 1981 1981 1981 1993 1993 1993 1981 1981 1981 1981 1981 1981 1981 1970 1970 1981 1970 1970 1970 1970 1970 1970 1970 1970 1970 1970 1970 1970 1970 1970 1970 1970 1970 1970 1959 1959 1959 1970 1970 1970 1970 1970 1970 1981 1981 1981 1981 1981 1981 1981 1981 1981 1981 1981 1981 1981 1981 1993 1981 1981 0 0 0 0 0 0 0 0
0 0 0 0 0 0 0 0 0 0 0 0 0 0 0 0 0 0 0 0 0 0 0 0 0 0 0 0 0 0 0 0 0 0 1863 1863 1863 1863 1873 1873 1873 1873 1873 1873 1873 1873 1873 1873 1873 1873 1873 1873 1873 1873 1873 1873 1883 1873 1873 1873 1873 1883 1883 1883 1883 1883 1883 1883 1883 1883 1883 1883 1883 1873 1873 1873 1873 1873 1873 1883 1873 1873 1883 1883 1883 1883 1883 1883 1883 1883 1883 1883 1883 1883 1883 1883 1883 1883 1883 1883 1883 1883 1883 1883 1883 1883 1894 1894 1894 1894 1894 1894 1894 1894 1894 1894 1894 1883 1883 1894 1894 1894 1894 1883 1883 1883 1894 1894 1894 1894 1894 1894 1894 1894 1904 1904 1904 1904 1904 1904 1904 1904 1904 1904 1904 1904 1904 1904 1904 1904 1904 1904 1904 1904 1904 1904 1904 1904 1894 1894 1894 1894 1894 1894 1904 1904 1904 1904 1904 1904 1915 1915 1904 1904 1904 1904 1904 1904 1904 1904 1904 1915 1915 1915 1915 1915 1926 1926 1915 1915 1926 1926 1926 1915 1915 1926 1926 1936 1926 1926 1926 1936 1926 1926 1926 1926 1926 1926 1936 1936 1936 1936 1936 1936 1936 1936 1936 1936 1936 1947 1947 1947 1936 1936 1936 1936 1936 1936 1947 1936 1936 1947 1947 1936 1936 1936 1936 1947 1947 1947 1947 1947 1947 1947 1936 1936 1936 1936 1936 1936 1936 1936 1936 1947 1947 1936 1936 1936 1936 1936 1936 1936 1936 1936 1936 1936 1947 1936 1936 1947 1947 1947 1947 1947 1947 1947 1947 1947 1947 1947 1947 1947 1947 1959 1947 1947 1959 1959 1959 1959 1959 1947 1947 1947 1947 1947 1947 1947 1947 1959 1959 1959 1959 1947 1947 1959 1959 1959 1959 1959 1947 1947 1947 1959 1947 1947 1959 1959 1959 1959 1959 1959 1959 1959 1959 1959 1959 1959 1959 1947 1947 1947 1947 1947 1947 1947 1947 1959 1959 1959 1959 1959 1959 1947 1947 1959 1959 1959 1947 1947 1947 1947 1959 1696 1696 1688 1688 1688 1680 1680 1680 1680 1680 1688 1688 1688 1688 1688 1696 1696 1705 1713 1722 1731 1739 1739 1739 1739 1739 1731 1731 1731 1959 1947 1947 1663 1663 1663 1655 1655 1647 1647 1647 1647 1647 1647 1647 1655 1655 1655 1663 1663 1663 1959 1970 1970 1970 1970 1970 1970 1970 1970 1970 1959 1959 1959 1959 1959 1959 1959 1959 1959 1959 1959 1959 1959 1959 1959 1959 1959 1959 1959 1959 1959 1959 1970 1970 1970 1959 1959 1959 1959 1959 1959 1959 1959 1959 1959 1970 1970 1970 1970 1970 1970 1981 1833 1813 1813 1804 1804 1804 1804 1804 1804 1813 1813 1813 1813 1813 1813 1813 1959 1959 1959 1959 1959 1959 1959 1959 1959 1970 1970 1970 1970 1970 1970 1970 1970 1970 1970 1970 1970 1970 1981 1981 1981 1970 1970 1959 1959 1959 1959 1959 1959 1959 1970 1970 1863 1853 1853 1843 1843 1843 1843 1843 1843 1843 1843 1843 1853 1863 1936 1959 1970 1970 1981 1981 1981 1981 1981 1981 1981 1981 1981 1981 1981 1981 1981 1981 1981 1993 1981 1981 1981 1981 1981 1981 1981 1981 1981 1981 1981 1981 1981 1981 1981 1981 1981 1981 1981 1981 1970 1970 1981 1959 1959 1959 1970 1970 1970 1970 1981 1981 1981 1981 1981 1993 1993 1981 1981 1981 1981 1981 1981 1981 1970 1970 1970 1970 1970 1970 1970 1970 1970 1970 1970 1970 1970 1970 1970 1970 1970 1970 1970 1970 1959 1959 1959 1959 1970 1970 1970 1970 1970 1970 1970 1970 1970 1970 1970 1970 1970 1970 1970 1981 1981 1981 1981 1981 1981 1981 1981 0 0 0 0 0 0 0 0
0 0 0 0 0 0 0 0 0 0 0 0 0 0 0 0 0 0 0 0 0 0 0 0 0 0 0 0 0 0 0 0 0 0 1853 1853 1863 1863 1863 1863 1863 1873 1873 1873 1873 1873 1873 1873 1873 1873 1873 1873 1873 1873 1873 1873 1873 1873 1873 1873 1873 1873 1873 1883 1883 1883 1883 1883 1883 1883 1883 1883 1883 1873 1863 1863 1873 1873 1873 1873 1873 1873 1873 1873 1873 1873 1873 1873 1873 1873 1873 1873 1873 1873 1873 1873 1873 1873 1873 1873 1873 1873 1873 1873 1883 1883 1883 1883 1883 1883 1883 1883 1873 1873 1873 1873 1873 1873 1873 1873 1873 1873 1873 1873 1873 1873 1883 1883 1883 1883 1883 1883 1883 1883 1894 1894 1894 1894 1894 1894 1894 1894 1894 1894 1894 1894 1894 1894 1894 1894 1894 1894 1904 1904 1904 1904 1904 1904 1894 1894 1894 1894 1894 1894 1894 1894 1894 1904 1904 1904 1915 1904 1904 1904 1904 1904 1904 1904 1904 1904 1904 1904 1915 1904 1904 1904 1904 1915 1915 1915 1915 1915 1915 1915 1915 1915 1915 1926 1926 1915 1915 1915 1915 1915 1915 1926 1926 1926 1926 1926 1936 1936 1936 1936 1936 1936 1936 1936 1936 1947 1936 1936 1936 1936 1936 1936 1936 1936 1936 1936 1936 1936 1936 1926 1926 1936 1936 1936 1936 1947 1947 1947 1947 1947 1936 1936 1936 1936 1936 1936 1936 1936 1936 1936 1936 1936 1936 1936 1936 1936 1936 1936 1936 1936 1936 1936 1936 1936 1936 1936 1936 1936 1936 1936 1936 1936 1936 1936 1936 1936 1936 1936 1936 1947 1936 1936 1947 1947 1947 1947 1947 1947 1947 1936 1936 1947 1947 1936 1936 1936 1936 1936 1936 1947 1947 1947 1947 1947 1959 1959 1947 1947 1947 1947 1947 1947 1947 1947 1947 1959 1959 1947 1947 1947 1947 1947 1947 1947 1947 1947 1936 1936 1936 1936 1936 1936 1936 1936 1947 1947 1959 1947 1947 1947 1947 1947 1947 1947 1947 1947 1947 1947 1705 1696 1696 1688 1688 1688 1688 1680 1680 1680 1680 1688 1688 1688 1688 1688 1696 1696 1705 1713 1722 1731 1731 1731 1731 1731 1731 1731 1731 1731 1959 1947 1663 1663 1663 1663 1655 1655 1655 1647 1647 1647 1647 1647 1647 1655 1655 1655 1663 1663 1663 1959 1959 1959 1959 1970 1970 1970 1970 1970 1959 1959 1959 1959 1959 1959 1959 1959 1959 1959 1959 1959 1959 1959 1959 1959 1959 1959 1959 1959 1959 1959 1959 1959 1959 1959 1959 1959 1959 1959 1959 1959 1959 1959 1959 1959 1959 1959 1959 1959 1970 1970 1970 1970 1813 1813 1804 1804 1804 1804 1804 1804 1813 1813 1813 1813 1813 1813 1813 1959 1959 1959 1959 1959 1959 1959 1959 1959 1959 1970 1970 1970 1959 1959 1959 1959 1970 1970 1959 1959 1970 1970 1970 1970 1970 1970 1959 1959 1959 1959 1959 1959 1959 1947 1936 1863 1853 1853 1843 1843 1843 1843 1843 1843 1843 1843 1843 1853 1863 1936 1947 1959 1970 1970 1981 1981 1981 1981 1981 1981 1981 1981 1981 1981 1981 1981 1981 1970 1970 1970 1970 1970 1970 1970 1970 1970 1970 1970 1970 1981 1981 1981 1981 1981 1981 1981 1970 1970 1970 1970 1959 1959 1959 1959 1959 1959 1959 1959 1970 1970 1970 1981 1981 1981 1981 1981 1981 1981 1981 1981 1981 1981 1981 1970 1970 1959 1959 1959 1959 1959 1959 1959 1959 1959 1959 1959 1959 1959 1959 1959 1959 1959 1959 1959 1959 1947 1947 1959 1959 1959 1959 1959 1959 1959 1970 1970 1970 1970 1970 1970 1970 1970 1970 1970 1970 1981 1981 1970 1970 1970 0 0 0 0 0 0 0 0
0 0 0 0 0 0 0 0 0 0 0 0 0 0 0 0 0 0 0 0 0 0 0 0 0 0 0 0 0 0 0 0 0 0 1853 1853 1853 1853 1853 1853 1863 1863 1863 1863 1863 1863 1863 1863 1863 1863 1873 1873 1873 1873 1873 1873 1873 1873 1873 1873 1873 1873 1873 1873 1873 1873 1873 1883 1873 1873 1873 1873 1883 1863 1863 1863 1863 1863 1863 1863 1863 1873 1863 1863 1863 1863 1863 1873 1873 1873 1873 1873 1873 1873 1873 1873 1873 1873 1873 1873 1873 1873 1873 1873 1873 1873 1873 1883 1883 1873 1873 1873 1873 1873 1863 1863 1873 1873 1873 1873 1873 1873 1873 1873 1873 1873 1873 1873 1873 1883 1883 1883 1883 1883 1883 1883 1883 1894 1894 1894 1894 1894 1883 1883 1883 1883 1894 1894 1894 1894 1894 1894 1894 1894 1894 1894 1894 1894 1883 1883 1883 1883 1883 1883 1883 1883 1883 1894 1894 1894 1904 1904 1904 1904 1904 1894 1894 1894 1894 1894 1894 1904 1904 1904 1904 1904 1904 1904 1904 1904 1904 1904 1904 1904 1904 1904 1915 1904 1904 1904 1904 1904 1904 1904 1904 1915 1915 1915 1926 1926 1926 1926 1936 1936 1936 1936 1936 1936 1936 1936 1936 1936 1936 1936 1936 1936 1926 1926 1936 1936 1936 1936 1936 1926 1926 1926 1936 1936 1936 1936 1936 1936 1936 1936 1936 1926 1926 1926 1926 1926 1926 1926 1926 1926 1926 1936 1936 1936 1936 1936 1936 1936 1936 1936 1936 1936 1936 1936 1936 1936 1936 1936 1936 1936 1936 1936 1936 1936 1936 1936 1936 1936 1936 1936 1936 1936 1936 1936 1936 1947 1947 1947 1947 1936 1936 1936 1947 1936 1936 1936 1936 1936 1936 1936 1936 1936 1947 1947 1947 1947 1936 1936 1947 1947 1947 1947 1936 1936 1947 1947 1947 1947 1947 1936 1936 1947 1947 1947 1947 1936 1936 1936 1936 1936 1936 1936 1936 1936 1936 1936 1947 1947 1947 1947 1947 1947 1947 1947 1936 1936 1947 1947 1705 1696 1696 1688 1688 1688 1680 1680 1680 1680 1680 1688 1688 1688 1688 1688 1696 1696 1705 1713 1722 1731 1731 1731 1731 1731 1731 1731 1731 1731 1722 1722 1663 1663 1663 1663 1655 1655 1655 1647 1647 1647 1647 1647 1655 1655 1655 1655 1655 1655 1663 1959 1959 1959 1959 1959 1970 1959 1959 1959 1959 1947 1947 1947 1947 1959 1947 1947 1959 1959 1959 1959 1959 1959 1959 1959 1959 1947 1947 1959 1959 1959 1959 1959 1959 1959 1947 1947 1947 1947 1947 1947 1947 1947 1947 1959 1959 1959 1959 1959 1959 1959 1959 1959 1813 1813 1813 1804 1804 1804 1804 1804 1813 1813 1813 1823 1813 1813 1823 1947 1947 1959 1959 1959 1959 1959 1959 1959 1959 1959 1959 1959 1959 1959 1959 1959 1959 1959 1959 1959 1970 1970 1970 1970 1959 1959 1947 1947 1947 1947 1947 1947 1947 1936 1936 1863 1853 1853 1843 1843 1843 1843 1843 1843 1843 1843 1853 1853 1873 1926 1947 1947 1959 1970 1970 1970 1970 1970 1981 1981 1981 1981 1981 1981 1981 1981 1981 1959 1959 1959 1959 1959 1959 1970 1970 1970 1970 1970 1970 1970 1970 1970 1970 1970 1970 1970 1959 1959 1959 1959 1959 1959 1959 1947 1947 1959 1959 1959 1959 1959 1959 1970 1970 1981 1981 1981 1970 1970 1970 1970 1970 1970 1970 1959 1959 1959 1959 1959 1959 1959 1959 1947 1947 1947 1947 1947 1959 1959 1959 1947 1947 1947 1947 1947 1947 1947 1947 1947 1947 1947 1947 1947 1947 1959 1959 1959 1959 1970 1970 1970 1970 1970 1970 1970 1970 1970 1970 1970 1959 1959 0 0 0 0 0 0 0 0
0 0 0 0 0 0 0 0 0 0 0 0 0 0 0 0 0 0 0 0 0 0 0 0 0 0 0 0 0 0 0 0 0 0 1853 1843 1843 1843 1843 1853 1853 1863 1863 1863 1863 1863 1863 1863 1863 1863 1863 1873 1873 1873 1873 1873 1873 1863 1863 1863 1873 1873 1873 1873 1873 1873 1873 1873 1873 1873 1873 1873 1873 1863 1863 1863 1863 1863 1863 1863 1863 1863 1863 1863 1863 1863 1863 1863 1863 1863 1863 1863 1863 1863 1863 1863 1863 1863 1873 1873 1873 1873 1873 1873 1873 1873 1873 1873 1873 1873 1873 1873 1863 1863 1863 1863 1873 1873 1873 1873 1873 1873 1873 1863 1863 1873 1873 1873 1873 1873 1873 1873 1873 1873 1873 1873 1873 1883 1883 1883 1883 1883 1873 1873 1883 1883 1883 1883 1883 1883 1894 1894 1894 1894 1894 1894 1894 1894 1873 1873 1883 1883 1883 1883 1883 1883 1883 1883 1883 1894 1894 1904 1894 1894 1894 1894 1894 1894 1883 1883 1894 1894 1894 1894 1904 1904 1904 1904 1904 1904 1904 1904 1904 1904 1904 1904 1904 1904 1904 1904 1904 1904 1894 1894 1904 1904 1904 1904 1904 1904 1904 1915 1904 1904 1915 1915 1915 1915 1915 1915 1915 1915 1915 1915 1915 1915 1915 1915 1926 1926 1926 1926 1926 1926 1926 1926 1926 1926 1926 1936 1936 1936 1936 1936 1926 1926 1926 1926 1926 1926 1926 1926 1926 1926 1926 1926 1926 1926 1926 1936 1936 1936 1926 1926 1926 1926 1926 1926 1926 1926 1936 1936 1926 1926 1936 1936 1936 1936 1926 1926 1936 1936 1936 1936 1936 1936 1936 1936 1936 1936 1936 1936 1936 1936 1936 1936 1936 1936 1936 1936 1936 1936 1936 1936 1936 1936 1936 1936 1936 1936 1936 1936 1936 1936 1936 1936 1936 1936 1936 1936 1936 1936 1936 1936 1936 1947 1936 1936 1936 1936 1936 1936 1936 1926 1926 1936 1926 1926 1936 1936 1936 1936 1936 1936 1936 1947 1947 1936 1936 1936 1947 1947 1696 1696 1696 1688 1688 1688 1680 1680 1680 1680 1680 1688 1688 1688 1688 1696 1696 1696 1713 1713 1722 1731 1731 1731 1731 1731 1731 1731 1731 1731 1722 1722 1680 1671 1663 1663 1655 1655 1655 1655 1647 1647 1647 1647 1655 1655 1655 1655 1655 1655 1663 1947 1959 1959 1959 1959 1959 1959 1959 1959 1959 1947 1947 1947 1947 1947 1947 1947 1947 1947 1947 1947 1947 1947 1947 1947 1947 1947 1947 1947 1947 1947 1947 1947 1947 1959 1947 1947 1947 1947 1947 1947 1947 1947 1947 1947 1947 1947 1959 1959 1959 1947 1947 1947 1813 1813 1813 1813 1813 1804 1804 1813 1813 1813 1823 1823 1823 1823 1833 1947 1947 1947 1947 1947 1947 1959 1959 1959 1959 1959 1959 1959 1959 1959 1959 1959 1959 1959 1959 1959 1959 1959 1959 1959 1959 1959 1947 1947 1947 1947 1947 1947 1936 1936 1926 1873 1853 1853 1843 1843 1843 1843 1843 1843 1843 1853 1853 1863 1904 1926 1936 1947 1947 1959 1959 1959 1959 1959 1959 1959 1959 1959 1959 1959 1959 1959 1959 1959 1959 1959 1959 1959 1959 1959 1959 1959 1959 1959 1959 1959 1959 1959 1959 1959 1959 1959 1959 1947 1947 1947 1947 1947 1947 1947 1947 1947 1947 1959 1959 1947 1947 1959 1959 1959 1970 1970 1959 1959 1970 1970 1970 1959 1959 1947 1947 1947 1947 1947 1947 1947 1947 1947 1947 1947 1947 1947 1947 1959 1959 1947 1947 1947 1947 1936 1936 1936 1936 1936 1936 1947 1947 1947 1947 1947 1947 1959 1959 1959 1959 1959 1970 1970 1970 1970 1970 1959 1959 1959 1947 1947 0 0 0 0 0 0 0 0
0 0 0 0 0 0 0 0 0 0 0 0 0 0 0 0 0 0 0 0 0 0 0 0 0 0 0 0 0 0 0 0 0 0 1843 1843 1843 1843 1843 1843 1853 1863 1863 1863 1863 1863 1863 1863 1863 1863 1863 1863 1863 1873 1873 1873 1873 1863 1863 1863 1863 1863 1873 1873 1873 1873 1873 1873 1863 1863 1863 1863 1863 1853 1853 1853 1863 1863 1863 1863 1863 1863 1863 1863 1863 1863 1863 1863 1863 1863 1863 1863 1863 1863 1863 1863 1863 1863 1863 1863 1863 1863 1863 1863 1863 1863 1863 1873 1873 1873 1873 1873 1863 1863 1863 1863 1863 1863 1863 1863 1863 1863 1863 1863 1863 1863 1863 1863 1863 1873 1873 1873 1873 1873 1873 1873 1873 1873 1873 1873 1873 1873 1873 1873 1873 1873 1873 1873 1873 1873 1883 1883 1883 1883 1883 1883 1883 1883 1873 1873 1873 1873 1873 1873 1873 1873 1883 1873 1873 1873 1883 1883 1883 1883 1894 1894 1883 1883 1883 1883 1883 1894 1894 1894 1894 1894 1894 1894 1894 1894 1904 1904 1894 1894 1894 1894 1894 1894 1894 1894 1894 1894 1894 1894 1894 1904 1904 1904 1904 1904 1904 1904 1904 1904 1904 1904 1904 1904 1904 1904 1904 1904 1904 1904 1904 1904 1904 1915 1915 1915 1915 1915 1904 1904 1915 1915 1915 1926 1926 1926 1926 1926 1926 1926 1915 1915 1915 1915 1926 1915 1915 1915 1915 1915 1926 1926 1926 1926 1926 1926 1926 1926 1926 1926 1926 1926 1926 1926 1915 1915 1926 1926 1926 1926 1926 1926 1926 1926 1926 1926 1926 1926 1926 1926 1926 1926 1926 1926 1926 1936 1936 1936 1936 1936 1936 1936 1936 1936 1936 1936 1936 1936 1936 1936 1936 1936 1936 1936 1936 1936 1936 1936 1936 1936 1936 1936 1936 1936 1936 1936 1936 1936 1936 1936 1936 1936 1936 1936 1936 1936 1926 1926 1926 1926 1926 1926 1926 1926 1926 1926 1926 1926 1926 1926 1926 1936 1936 1926 1926 1936 1936 1947 1696 1696 1696 1688 1688 1688 1680 1680 1680 1680 1688 1688 1688 1688 1696 1696 1696 1713 1713 1722 1722 1731 1731 1731 1731 1731 1731 1731 1722 1722 1722 1722 1688 1671 1671 1663 1663 1663 1655 1655 1647 1647 1655 1655 1655 1655 1655 1655 1655 1655 1663 1947 1947 1947 1947 1947 1959 1947 1947 1947 1959 1947 1947 1947 1947 1947 1947 1947 1947 1947 1947 1947 1947 1947 1947 1947 1936 1936 1936 1947 1947 1947 1947 1947 1947 1947 1947 1947 1947 1947 1947 1947 1947 1947 1947 1947 1947 1947 1947 1947 1947 1947 1947 1947 1813 1813 1813 1813 1813 1804 1804 1813 1813 1813 1823 1823 1823 1823 1843 1947 1947 1947 1947 1947 1947 1947 1947 1959 1959 1959 1959 1959 1947 1947 1947 1947 1947 1947 1959 1959 1959 1959 1959 1959 1959 1959 1947 1947 1936 1936 1936 1936 1936 1936 1926 1873 1853 1853 1853 1843 1843 1843 1843 1843 1843 1853 1853 1863 1915 1926 1936 1936 1947 1959 1959 1947 1947 1947 1947 1947 1947 1947 1947 1947 1947 1947 1947 1947 1947 1947 1947 1947 1947 1947 1959 1947 1947 1947 1959 1959 1947 1947 1947 1947 1947 1947 1947 1947 1947 1947 1947 1947 1947 1947 1947 1947 1947 1959 1959 1947 1947 1947 1947 1959 1959 1959 1947 1947 1959 1959 1959 1959 1959 1947 1936 1936 1936 1936 1936 1936 1936 1936 1936 1936 1947 1947 1947 1947 1947 1936 1936 1936 1936 1936 1936 1936 1936 1936 1936 1936 1936 1947 1947 1947 1947 1959 1959 1959 1959 1959 1959 1970 1970 1959 1959 1947 1947 1947 1947 1947 0 0 0 0 0 0 0 0
0 0 0 0 0 0 0 0 0 0 0 0 0 0 0 0 0 0 0 0 0 0 0 0 0 0 0 0 0 0 0 0 0 0 1843 1843 1843 1843 1843 1843 1853 1853 1853 1853 1853 1853 1863 1853 1853 1853 1863 1863 1863 1863 1863 1863 1863 1853 1853 1853 1853 1863 1863 1863 1863 1863 1863 1863 1853 1853 1853 1853 1853 1843 1843 1843 1853 1853 1853 1853 1863 1863 1863 1863 1863 1863 1863 1863 1863 1863 1863 1853 1853 1853 1853 1853 1853 1853 1863 1863 1863 1863 1863 1863 1863 1863 1863 1863 1863 1863 1863 1863 1863 1863 1863 1863 1863 1863 1863 1863 1863 1863 1863 1863 1863 1863 1863 1863 1863 1863 1863 1863 1873 1873 1873 1863 1863 1873 1873 1873 1873 1873 1873 1873 1873 1873 1873 1873 1873 1873 1873 1873 1873 1873 1873 1873 1873 1873 1863 1863 1873 1873 1873 1873 1873 1873 1873 1873 1873 1873 1873 1873 1883 1883 1883 1883 1873 1873 1873 1873 1873 1883 1883 1883 1883 1894 1894 1894 1894 1894 1894 1894 1894 1894 1894 1894 1894 1894 1894 1894 1894 1894 1894 1894 1894 1894 1894 1894 1904 1904 1894 1894 1894 1904 1904 1904 1904 1904 1904 1904 1904 1904 1904 1904 1904 1904 1904 1904 1915 1915 1915 1915 1904 1904 1904 1904 1915 1915 1926 1926 1915 1915 1915 1915 1904 1904 1904 1904 1915 1915 1904 1904 1904 1904 1915 1915 1915 1915 1915 1926 1926 1926 1926 1926 1926 1926 1915 1915 1915 1915 1915 1915 1915 1915 1915 1915 1915 1915 1915 1915 1915 1915 1915 1915 1915 1915 1926 1926 1926 1926 1926 1926 1926 1926 1926 1926 1926 1926 1936 1926 1926 1926 1926 1926 1936 1926 1926 1926 1936 1936 1936 1936 1936 1936 1936 1936 1936 1936 1936 1936 1926 1926 1926 1926 1926 1926 1936 1936 1936 1926 1926 1926 1926 1926 1926 1926 1926 1926 1926 1926 1926 1926 1926 1926 1926 1926 1926 1926 1926 1926 1926 1705 1696 1696 1705 1696 1696 1688 1688 1688 1688 1688 1688 1688 1688 1696 1696 1696 1696 1713 1713 1722 1722 1722 1722 1731 1722 1722 1722 1722 1722 1713 1713 1705 1696 1688 1671 1671 1663 1663 1655 1655 1647 1647 1655 1655 1655 1655 1655 1655 1663 1663 1663 1936 1936 1936 1936 1936 1936 1936 1936 1936 1947 1947 1936 1936 1947 1947 1936 1936 1936 1936 1936 1936 1936 1936 1936 1936 1936 1926 1926 1936 1936 1936 1936 1936 1936 1936 1936 1936 1936 1947 1947 1947 1947 1936 1936 1947 1947 1947 1947 1947 1947 1947 1947 1813 1813 1813 1813 1813 1813 1813 1813 1813 1813 1823 1823 1823 1823 1833 1853 1936 1936 1936 1936 1936 1947 1947 1947 1947 1947 1947 1947 1947 1947 1947 1947 1947 1947 1947 1947 1947 1947 1959 1959 1959 1947 1947 1936 1936 1936 1936 1936 1936 1926 1926 1926 1894 1873 1853 1853 1853 1843 1843 1843 1843 1843 1853 1853 1863 1915 1926 1936 1936 1947 1947 1947 1947 1947 1947 1947 1947 1947 1947 1947 1947 1947 1947 1947 1947 1947 1947 1947 1947 1947 1947 1947 1947 1947 1947 1947 1947 1936 1936 1947 1947 1947 1947 1947 1947 1947 1947 1936 1936 1947 1947 1947 1947 1947 1947 1947 1947 1947 1947 1947 1947 1947 1947 1947 1947 1959 1959 1959 1947 1947 1936 1936 1936 1926 1926 1936 1936 1936 1936 1936 1936 1936 1936 1936 1936 1936 1936 1936 1936 1936 1936 1936 1936 1936 1936 1936 1936 1936 1936 1947 1947 1947 1947 1947 1947 1947 1947 1959 1947 1947 1947 1947 1947 1947 1947 1936 1936 0 0 0 0 0 0 0 0
0 0 0 0 0 0 0 0 0 0 0 0 0 0 0 0 0 0 0 0 0 0 0 0 0 0 0 0 0 0 0 0 0 0 1843 1843 1843 1843 1843 1843 1843 1843 1843 1843 1853 1853 1853 1853 1853 1853 1853 1853 1853 1853 1853 1853 1853 1843 1843 1843 1843 1853 1853 1853 1853 1853 1863 1853 1853 1853 1853 1853 1843 1843 1843 1843 1843 1843 1843 1853 1853 1853 1863 1853 1853 1853 1853 1853 1853 1853 1853 1853 1853 1853 1853 1853 1853 1853 1853 1853 1853 1853 1863 1863 1863 1863 1863 1863 1863 1863 1863 1853 1853 1853 1853 1853 1853 1853 1853 1853 1853 1853 1853 1853 1853 1853 1853 1853 1853 1863 1863 1863 1863 1863 1863 1863 1863 1863 1863 1863 1863 1863 1863 1873 1873 1873 1873 1873 1873 1873 1873 1873 1873 1873 1873 1873 1873 1873 1863 1863 1863 1863 1863 1873 1863 1863 1863 1863 1863 1863 1863 1873 1873 1873 1873 1873 1873 1873 1873 1873 1873 1873 1873 1873 1873 1883 1883 1883 1883 1883 1894 1883 1883 1883 1883 1894 1894 1894 1894 1883 1883 1894 1894 1894 1894 1894 1894 1894 1904 1894 1894 1894 1894 1894 1904 1904 1904 1904 1904 1894 1894 1894 1894 1894 1904 1904 1904 1904 1904 1904 1915 1915 1915 1904 1904 1904 1915 1915 1904 1904 1904 1904 1915 1915 1904 1904 1904 1904 1904 1904 1904 1904 1904 1904 1915 1915 1915 1915 1915 1926 1926 1926 1915 1915 1926 1926 1915 1915 1915 1915 1904 1904 1904 1904 1915 1915 1915 1915 1915 1915 1915 1915 1915 1915 1915 1915 1915 1915 1926 1926 1926 1926 1926 1926 1926 1926 1926 1926 1926 1926 1926 1926 1926 1915 1915 1915 1915 1915 1915 1926 1915 1915 1926 1926 1926 1926 1926 1926 1926 1926 1926 1926 1926 1926 1926 1926 1926 1926 1926 1926 1915 1915 1926 1926 1926 1926 1926 1926 1926 1926 1926 1926 1926 1926 1926 1926 1926 1926 1926 1915 1894 1705 1705 1705 1705 1696 1696 1688 1688 1688 1688 1688 1688 1688 1688 1696 1696 1696 1696 1713 1713 1722 1722 1722 1722 1731 1722 1722 1722 1722 1722 1713 1713 1705 1696 1688 1671 1671 1663 1663 1655 1655 1655 1655 1655 1655 1655 1655 1655 1663 1663 1663 1663 1936 1936 1936 1936 1936 1936 1936 1936 1936 1936 1936 1936 1936 1936 1936 1926 1926 1936 1936 1936 1936 1926 1926 1936 1926 1926 1926 1926 1936 1936 1936 1926 1926 1926 1926 1926 1926 1926 1936 1936 1936 1936 1936 1936 1936 1936 1936 1947 1936 1936 1936 1926 1813 1813 1823 1813 1813 1813 1813 1813 1813 1813 1823 1823 1823 1833 1843 1926 1926 1926 1936 1936 1936 1936 1947 1947 1947 1947 1947 1947 1947 1947 1936 1936 1936 1936 1936 1936 1947 1947 1947 1959 1947 1947 1947 1936 1936 1936 1936 1936 1936 1926 1926 1915 1873 1863 1863 1853 1853 1843 1843 1843 1843 1843 1853 1853 1863 1915 1926 1936 1936 1947 1947 1947 1947 1947 1947 1947 1947 1936 1936 1936 1936 1936 1936 1936 1936 1936 1936 1936 1936 1936 1936 1936 1936 1936 1936 1947 1947 1936 1936 1947 1947 1947 1947 1947 1947 1947 1936 1936 1936 1936 1936 1936 1936 1936 1947 1947 1947 1947 1947 1947 1947 1947 1947 1947 1947 1947 1947 1947 1947 1947 1936 1936 1936 1926 1926 1936 1936 1936 1936 1936 1936 1936 1936 1936 1936 1936 1936 1936 1936 1936 1936 1936 1936 1936 1936 1936 1936 1936 1936 1936 1936 1936 1936 1936 1947 1947 1947 1947 1947 1947 1947 1936 1936 1936 1936 1936 1936 0 0 0 0 0 0 0 0
0 0 0 0 0 0 0 0 0 0 0 0 0 0 0 0 0 0 0 0 0 0 0 0 0 0 0 0 0 0 0 0 0 0 1833 1833 1833 1833 1833 1833 1843 1843 1843 1843 1843 1843 1843 1843 1843 1843 1853 1843 1843 1843 1843 1843 1843 1843 1843 1843 1843 1843 1843 1843 1853 1853 1853 1853 1853 1853 1853 1853 1843 1833 1833 1843 1843 1843 1843 1843 1843 1853 1853 1853 1853 1843 1843 1833 1833 1833 1833 1843 1843 1843 1843 1843 1853 1853 1843 1843 1853 1853 1853 1863 1863 1863 1863 1863 1863 1853 1853 1853 1853 1853 1853 1853 1853 1853 1853 1853 1853 1853 1853 1853 1853 1843 1843 1843 1843 1853 1853 1863 1863 1863 1863 1863 1863 1853 1853 1863 1863 1863 1863 1863 1863 1863 1863 1863 1863 1863 1863 1863 1873 1873 1873 1873 1873 1873 1863 1863 1863 1863 1863 1863 1863 1863 1863 1863 1863 1863 1863 1863 1873 1873 1873 1873 1863 1863 1873 1873 1873 1873 1873 1873 1873 1873 1873 1873 1873 1883 1883 1883 1883 1883 1883 1883 1883 1883 1883 1883 1883 1883 1883 1883 1883 1894 1894 1894 1894 1894 1894 1894 1894 1894 1894 1894 1894 1894 1894 1894 1894 1894 1894 1894 1894 1894 1894 1904 1904 1904 1904 1904 1904 1904 1904 1904 1904 1904 1904 1904 1904 1904 1904 1904 1894 1894 1894 1894 1894 1894 1894 1894 1894 1894 1894 1904 1904 1904 1904 1904 1904 1904 1904 1904 1904 1915 1915 1915 1915 1915 1904 1904 1904 1904 1904 1904 1904 1894 1894 1894 1894 1915 1915 1904 1904 1915 1915 1915 1915 1915 1915 1915 1915 1915 1915 1915 1915 1915 1915 1915 1915 1915 1915 1915 1915 1904 1904 1904 1915 1915 1915 1915 1915 1915 1926 1926 1926 1926 1926 1926 1926 1926 1926 1926 1926 1926 1926 1926 1926 1915 1915 1915 1915 1915 1915 1915 1915 1915 1915 1915 1915 1915 1915 1915 1915 1926 1926 1926 1926 1915 1894 1705 1705 1705 1705 1696 1696 1688 1688 1688 1688 1688 1688 1688 1696 1696 1696 1696 1696 1713 1722 1722 1722 1731 1731 1731 1731 1722 1722 1722 1713 1713 1705 1705 1696 1688 1680 1671 1663 1663 1655 1655 1655 1655 1655 1655 1655 1655 1655 1655 1663 1663 1663 1936 1936 1936 1936 1926 1926 1926 1926 1926 1926 1926 1926 1926 1926 1926 1915 1915 1926 1926 1926 1926 1926 1926 1926 1926 1926 1926 1926 1926 1926 1926 1926 1926 1926 1926 1926 1926 1926 1926 1926 1926 1936 1926 1926 1926 1926 1926 1936 1926 1926 1926 1904 1833 1823 1823 1813 1813 1813 1813 1813 1813 1813 1823 1823 1833 1833 1843 1904 1915 1926 1936 1936 1926 1926 1936 1936 1936 1936 1947 1947 1947 1936 1936 1936 1936 1936 1936 1936 1936 1936 1947 1947 1947 1947 1947 1936 1936 1926 1926 1926 1926 1915 1915 1894 1873 1863 1863 1853 1853 1843 1843 1843 1853 1853 1853 1853 1873 1915 1926 1936 1936 1936 1936 1936 1936 1936 1936 1936 1936 1936 1936 1936 1936 1936 1936 1936 1936 1936 1936 1936 1936 1936 1936 1936 1936 1936 1936 1936 1947 1936 1936 1947 1947 1947 1947 1936 1936 1936 1936 1936 1936 1936 1936 1936 1936 1936 1936 1936 1936 1936 1936 1936 1936 1936 1936 1936 1936 1947 1947 1947 1947 1947 1936 1926 1926 1926 1926 1926 1926 1926 1926 1936 1936 1936 1936 1936 1936 1936 1926 1926 1926 1926 1926 1926 1926 1926 1936 1936 1936 1936 1936 1936 1936 1936 1936 1936 1936 1936 1936 1936 1936 1936 1936 1936 1936 1936 1936 1936 1936 0 0 0 0 0 0 0 0
0 0 0 0 0 0 0 0 0 0 0 0 0 0 0 0 0 0 0 0 0 0 0 0 0 0 0 0 0 0 0 0 0 0 1823 1823 1833 1833 1833 1833 1833 1833 1843 1843 1843 1843 1843 1843 1843 1843 1843 1843 1843 1843 1843 1843 1843 1843 1843 1843 1843 1843 1843 1843 1843 1843 1843 1843 1843 1843 1843 1843 1843 1833 1833 1843 1843 1833 1833 1843 1843 1843 1843 1843 1843 1833 1833 1833 1833 1833 1833 1833 1833 1843 1843 1843 1843 1843 1843 1843 1843 1843 1843 1843 1853 1853 1853 1853 1853 1853 1853 1853 1853 1853 1853 1843 1843 1843 1843 1843 1843 1843 1843 1843 1843 1843 1843 1833 1833 1843 1853 1853 1853 1853 1863 1863 1853 1853 1853 1853 1853 1853 1853 1863 1863 1863 1863 1863 1863 1863 1863 1863 1863 1863 1863 1863 1863 1863 1853 1853 1853 1853 1853 1863 1863 1863 1863 1863 1863 1863 1863 1863 1863 1863 1863 1863 1863 1863 1863 1863 1873 1873 1863 1863 1873 1873 1873 1873 1873 1873 1883 1873 1873 1883 1883 1883 1883 1883 1883 1883 1883 1883 1883 1883 1883 1883 1894 1894 1894 1894 1894 1894 1883 1883 1894 1894 1894 1894 1894 1894 1894 1894 1894 1894 1894 1894 1894 1894 1894 1894 1904 1904 1904 1904 1904 1894 1894 1904 1904 1904 1904 1904 1904 1904 1894 1894 1894 1894 1894 1894 1894 1894 1883 1883 1894 1894 1894 1894 1904 1904 1904 1904 1894 1894 1894 1894 1904 1904 1904 1904 1904 1904 1894 1894 1894 1894 1894 1894 1894 1894 1894 1904 1904 1904 1904 1904 1904 1915 1915 1915 1915 1915 1915 1904 1904 1915 1915 1904 1904 1904 1904 1904 1904 1904 1904 1904 1904 1904 1904 1904 1915 1915 1915 1915 1915 1915 1915 1915 1915 1915 1915 1915 1915 1915 1915 1915 1915 1915 1915 1904 1904 1904 1904 1904 1904 1904 1904 1915 1915 1915 1915 1915 1915 1915 1915 1915 1904 1904 1915 1915 1915 1722 1705 1705 1705 1696 1696 1696 1688 1688 1688 1688 1688 1688 1696 1696 1696 1696 1696 1713 1722 1722 1731 1731 1731 1731 1731 1722 1722 1722 1713 1713 1705 1705 1696 1688 1688 1680 1671 1663 1655 1655 1655 1655 1655 1655 1655 1655 1655 1655 1655 1655 1663 1926 1926 1926 1926 1926 1926 1926 1926 1926 1926 1926 1915 1915 1915 1915 1915 1915 1915 1915 1915 1915 1915 1915 1915 1915 1915 1915 1915 1915 1926 1926 1926 1915 1915 1926 1915 1915 1915 1926 1926 1926 1926 1926 1926 1926 1915 1915 1915 1915 1915 1904 1883 1833 1823 1823 1813 1813 1813 1813 1813 1813 1813 1823 1823 1833 1833 1843 1904 1915 1926 1926 1926 1926 1926 1926 1926 1936 1936 1936 1936 1936 1936 1926 1926 1926 1926 1926 1926 1926 1936 1936 1947 1936 1936 1936 1926 1926 1926 1926 1926 1926 1904 1904 1873 1873 1863 1863 1853 1853 1853 1853 1853 1853 1853 1853 1863 1873 1915 1915 1926 1936 1926 1926 1926 1926 1926 1926 1926 1926 1926 1936 1936 1936 1936 1936 1936 1936 1936 1936 1936 1936 1936 1936 1926 1926 1926 1926 1936 1936 1936 1936 1936 1936 1936 1936 1936 1936 1936 1936 1936 1936 1936 1936 1936 1936 1936 1936 1936 1936 1936 1936 1936 1936 1936 1936 1936 1936 1936 1936 1936 1936 1936 1926 1915 1915 1915 1926 1926 1926 1926 1926 1926 1926 1926 1936 1926 1926 1926 1926 1926 1926 1926 1926 1926 1926 1926 1926 1926 1926 1926 1936 1936 1936 1936 1936 1936 1936 1936 1926 1926 1926 1926 1936 1936 1936 1936 1936 1926 1926 0 0 0 0 0 0 0 0
0 0 0 0 0 0 0 0 0 0 0 0 0 0 0 0 0 0 0 0 0 0 0 0 0 0 0 0 0 0 0 0 0 0 1823 1823 1823 1823 1823 1823 1833 1833 1833 1843 1843 1843 1843 1843 1843 1843 1833 1833 1833 1833 1833 1833 1833 1843 1843 1843 1843 1843 1843 1843 1843 1843 1843 1843 1843 1843 1843 1843 1843 1833 1833 1833 1833 1833 1833 1833 1833 1833 1833 1833 1833 1833 1833 1823 1823 1833 1833 1833 1833 1833 1833 1833 1833 1843 1843 1843 1833 1833 1833 1843 1833 1833 1843 1853 1853 1843 1843 1843 1853 1843 1843 1843 1833 1833 1843 1843 1843 1843 1843 1843 1843 1833 1833 1833 1833 1843 1843 1843 1853 1853 1853 1853 1853 1853 1853 1853 1853 1853 1853 1863 1863 1863 1863 1863 1863 1863 1853 1853 1853 1853 1863 1853 1853 1863 1853 1853 1853 1853 1853 1863 1853 1853 1853 1853 1853 1853 1853 1853 1853 1863 1863 1863 1863 1863 1863 1863 1863 1863 1863 1863 1863 1863 1863 1863 1863 1863 1873 1873 1873 1863 1863 1873 1873 1873 1873 1873 1873 1873 1873 1883 1883 1883 1883 1883 1883 1883 1883 1883 1883 1883 1894 1894 1894 1894 1894 1894 1894 1894 1894 1894 1894 1894 1894 1894 1894 1894 1894 1894 1894 1894 1894 1894 1894 1894 1894 1894 1894 1894 1904 1904 1894 1894 1894 1883 1883 1894 1894 1894 1883 1883 1894 1894 1894 1894 1894 1894 1894 1894 1894 1894 1894 1894 1894 1894 1894 1894 1894 1894 1894 1894 1894 1894 1894 1894 1894 1894 1894 1894 1904 1894 1894 1894 1904 1904 1904 1904 1904 1904 1904 1904 1904 1904 1904 1894 1894 1894 1894 1894 1894 1894 1894 1894 1894 1894 1894 1904 1904 1904 1904 1904 1904 1904 1915 1904 1904 1904 1904 1904 1904 1904 1904 1904 1915 1904 1904 1894 1894 1894 1894 1894 1894 1904 1904 1904 1904 1904 1904 1904 1904 1904 1904 1904 1904 1904 1915 1915 1915 1722 1713 1705 1705 1705 1696 1696 1696 1688 1688 1688 1688 1688 1696 1696 1696 1696 1705 1713 1722 1722 1731 1731 1731 1731 1731 1731 1722 1722 1713 1705 1705 1705 1696 1688 1688 1680 1671 1663 1663 1655 1655 1655 1655 1655 1655 1655 1655 1655 1655 1655 1663 1926 1926 1926 1926 1926 1926 1926 1915 1915 1915 1915 1915 1915 1915 1915 1904 1904 1915 1915 1915 1915 1915 1915 1915 1915 1915 1915 1915 1915 1915 1915 1915 1915 1915 1915 1915 1915 1915 1915 1915 1915 1915 1915 1915 1915 1915 1915 1915 1915 1915 1883 1843 1833 1833 1823 1823 1823 1823 1813 1813 1813 1823 1823 1823 1833 1833 1843 1904 1915 1915 1915 1915 1915 1915 1926 1926 1926 1926 1926 1926 1926 1926 1926 1926 1926 1926 1926 1926 1926 1926 1926 1926 1926 1926 1926 1926 1915 1915 1904 1904 1904 1894 1894 1873 1873 1863 1863 1853 1853 1853 1853 1853 1853 1853 1853 1863 1873 1904 1904 1915 1915 1915 1915 1915 1926 1926 1926 1926 1926 1926 1926 1926 1936 1936 1926 1926 1926 1926 1926 1926 1926 1926 1926 1915 1915 1915 1915 1926 1936 1926 1926 1936 1936 1936 1936 1926 1926 1926 1936 1926 1926 1926 1926 1926 1926 1926 1926 1926 1926 1926 1926 1926 1926 1926 1926 1926 1926 1936 1936 1926 1926 1926 1915 1915 1915 1915 1915 1915 1915 1915 1915 1915 1915 1915 1926 1915 1915 1915 1915 1915 1926 1926 1926 1926 1926 1926 1926 1926 1926 1926 1926 1926 1926 1926 1926 1926 1926 1926 1926 1926 1926 1926 1936 1936 1936 1936 1936 1926 1926 0 0 0 0 0 0 0 0
0 0 0 0 0 0 0 0 0 0 0 0 0 0 0 0 0 0 0 0 0 0 0 0 0 0 0 0 0 0 0 0 0 0 1813 1813 1823 1823 1823 1823 1833 1833 1833 1833 1833 1833 1833 1833 1833 1833 1833 1833 1833 1833 1833 1833 1833 1833 1833 1833 1833 1833 1833 1843 1833 1833 1833 1833 1833 1833 1833 1843 1833 1833 1823 1823 1833 1833 1833 1833 1833 1833 1833 1833 1833 1833 1833 1823 1823 1823 1823 1823 1823 1833 1833 1833 1833 1843 1833 1833 1833 1833 1833 1833 1833 1833 1843 1843 1843 1843 1843 1843 1843 1843 1843 1833 1833 1833 1833 1833 1833 1833 1833 1833 1833 1833 1833 1833 1833 1843 1843 1843 1843 1853 1853 1853 1843 1843 1843 1843 1843 1843 1843 1853 1853 1853 1853 1853 1853 1853 1853 1853 1853 1853 1853 1853 1853 1853 1853 1853 1853 1853 1853 1853 1853 1853 1853 1853 1853 1853 1853 1853 1853 1853 1863 1853 1853 1853 1863 1863 1863 1863 1863 1863 1863 1863 1863 1863 1863 1863 1863 1863 1863 1863 1863 1863 1863 1863 1873 1873 1873 1863 1863 1863 1863 1863 1863 1873 1873 1883 1883 1883 1883 1883 1894 1894 1894 1883 1883 1883 1883 1894 1894 1894 1894 1894 1894 1894 1894 1894 1894 1894 1894 1894 1894 1894 1894 1894 1894 1894 1894 1894 1904 1904 1883 1883 1883 1883 1883 1883 1883 1883 1883 1883 1883 1883 1883 1883 1894 1894 1894 1883 1883 1883 1883 1883 1894 1894 1894 1894 1894 1894 1894 1894 1894 1894 1894 1894 1894 1894 1894 1894 1894 1894 1894 1894 1894 1894 1904 1904 1904 1904 1894 1894 1894 1894 1894 1894 1894 1894 1894 1894 1894 1894 1894 1894 1894 1894 1894 1894 1894 1894 1904 1904 1904 1904 1904 1904 1904 1904 1904 1904 1904 1904 1894 1894 1894 1894 1894 1883 1883 1883 1883 1883 1894 1894 1894 1894 1894 1904 1904 1904 1904 1904 1904 1904 1904 1904 1904 1915 1915 1722 1705 1705 1705 1705 1705 1696 1696 1696 1696 1696 1688 1688 1696 1696 1696 1696 1705 1713 1722 1722 1731 1731 1731 1731 1731 1722 1722 1713 1705 1705 1705 1705 1696 1688 1688 1680 1663 1663 1655 1655 1655 1655 1655 1655 1655 1655 1655 1655 1655 1663 1663 1915 1915 1926 1926 1915 1915 1915 1915 1915 1915 1915 1904 1904 1904 1904 1904 1904 1904 1904 1904 1915 1915 1915 1915 1915 1915 1915 1915 1915 1915 1915 1915 1915 1915 1915 1915 1915 1915 1915 1915 1915 1915 1915 1915 1915 1915 1915 1915 1904 1904 1883 1843 1833 1833 1823 1823 1823 1823 1813 1813 1823 1823 1823 1823 1833 1833 1894 1904 1904 1915 1915 1915 1915 1915 1915 1915 1915 1915 1915 1915 1926 1926 1915 1915 1915 1915 1915 1915 1915 1915 1926 1926 1926 1926 1926 1915 1915 1904 1904 1904 1904 1894 1894 1883 1873 1863 1863 1853 1853 1853 1853 1853 1853 1853 1853 1863 1873 1894 1904 1904 1915 1915 1915 1915 1915 1915 1915 1915 1915 1915 1915 1915 1915 1915 1915 1915 1926 1926 1926 1926 1915 1915 1915 1915 1915 1915 1915 1915 1915 1926 1915 1915 1926 1926 1915 1915 1915 1915 1926 1915 1915 1915 1915 1926 1915 1915 1915 1915 1915 1915 1915 1915 1915 1915 1926 1926 1926 1926 1926 1926 1915 1915 1904 1904 1904 1904 1904 1904 1904 1904 1904 1904 1904 1904 1904 1904 1904 1904 1904 1904 1915 1915 1915 1926 1926 1926 1915 1915 1915 1915 1915 1915 1915 1915 1926 1926 1926 1915 1915 1915 1926 1926 1926 1926 1926 1926 1926 1926 1926 0 0 0 0 0 0 0 0
