0 0 0 0 0 0 0 0 0 0 0 0 0 0 0 0 0 0 0 0 0 0 0 0 0 0 0 0 0 0 0 0 2579 2579 2579 2579 2579 2560 2560 2579 2579 2579 2579 2579 2579 2579 2579 2579 2579 2579 2560 2560 2560 2560 2579 2579 2579 2598 2598 2598 2598 2598 2598 2598 2598 2598 2598 2598 2618 2598 2598 2598 2598 2598 2598 2598 2598 2598 2598 2598 2598 2598 2598 2598 2598 2598 2598 2598 2618 2618 2618 2618 2618 2618 2618 2618 2618 2618 2618 2618 2618 2618 2618 2618 2618 2618 2618 2618 2639 2639 2639 2639 2618 2618 2618 1785 1785 1785 1785 1722 1722 1722 1713 1713 1713 1713 1713 1713 1713 1713 1713 1713 1713 1713 1713 1713 1713 1713 1713 1713 1713 1705 1705 1705 1705 1705 1696 1696 1696 1705 1696 1696 1696 1696 1696 1688 1688 1688 1680 1680 1688 1688 1688 1688 1688 1688 1688 1688 1688 1688 1688 1688 1696 1696 1696 1696 1696 1696 1696 1696 1696 1696 1696 1696 1696 1696 1696 1696 1696 1696 1696 1696 1696 1696 1586 1586 1586 1586 1586 1586 1586 1586 1586 1586 1586 1594 1594 1601 1609 1609 1609 1609 1624 1696 1705 1705 1705 1705 1705 1705 1705 1705 1705 1705 1705 1705 1713 1713 1713 1713 1713 1713 1713 1713 1452 1452 1452 1445 1445 1445 1439 1439 1439 1439 1439 1439 1439 1439 1445 1445 1445 1445 1439 1427 1421 1410 1410 1410 1410 1404 1404 1404 1404 1404 1404 1398 1398 1398 1398 1392 1392 1392 1392 1392 1387 1387 1387 1381 1381 1381 1381 1376 1376 1376 1376 1376 1370 1370 1370 1370 1370 1365 1365 1365 1365 1359 1359 1354 1354 1354 1354 1354 1354 1349 1349 1349 1349 1349 1349 1349 1343 1338 1338 1338 1333 1333 1333 1333 1333 1333 1333 1333 1333 1333 1328 1328 1328 1328 1328 1328 1328 1328 1322 1317 1317 1307 1302 1302 1297 1297 1292 1292 1288 1288 1292 1292 1292 1297 1297 1302 1307 1307 1307 1307 1307 1307 1722 1731 1731 1731 1731 1731 1731 1731 1739 1739 1739 1739 1739 1739 1739 1739 1739 1739 1748 1748 1748 1757 1757 1757 1766 1766 1766 1823 1833 1833 1833 1833 1833 1833 1843 1843 1843 1843 1843 1833 1833 1833 1833 1833 1833 1833 1833 1833 1823 1823 1823 1823 1813 1804 1804 1804 1804 1804 1785 1785 1785 1785 1785 1785 1785 1785 1785 1785 1785 1785 1776 1776 1776 1776 1776 1776 1776 1776 1776 1776 1776 1766 1766 1766 1766 1757 1757 1766 1766 1338 1338 1338 1338 1338 1338 1338 1338 1338 1338 1338 1338 1338 1338 1333 1333 1333 1333 1328 1328 1328 1328 1322 1322 1322 1322 1322 1322 1322 1322 1322 1322 1322 1322 1322 2005 2005 2005 2005 2005 2005 2005 2005 2005 2005 1993 1993 2005 2005 2883 2883 2883 2859 2859 2859 2859 2859 2859 2859 2883 2883 2883 2883 2883 2883 2883 2859 2859 2859 2859 2859 2859 2859 2859 2859 2883 2883 2883 2883 2883 2883 2883 2883 2883 2883 2883 2883 2883 2883 2883 2883 2883 2883 2883 2883 2883 2908 2883 2883 2908 2908 2908 2908 2908 2908 2908 2908 2908 2933 2908 2908 2908 2908 2908 2908 2908 2908 2908 2908 2908 2908 2908 2908 2908 2883 2883 2883 2908 2908 2908 2908 2908 2908 2908 2908 2908 2908 2908 2883 2883 2883 2883 2883 2883 2883 2883 2883 2883 2908 2908 2883 2883 2883 2859 2859 2859 2859 2859 2859 2859 2883 2883 2883 2883 2883 2883 2859 2859 2859 2859 2859 2859 2859 2883 2883 2883 2883 2883 2859 2859 2835 2835 2835 0 0 0 0 0 0 0 0 0 0 0 0
0 0 0 0 0 0 0 0 0 0 0 0 0 0 0 0 0 0 0 0 0 0 0 0 0 0 0 0 0 0 0 0 2579 2579 2579 2579 2560 2560 2560 2560 2560 2560 2579 2579 2579 2579 2579 2579 2579 2560 2560 2560 2560 2560 2579 2579 2579 2598 2598 2598 2579 2579 2579 2579 2579 2598 2579 2579 2598 2579 2579 2579 2579 2579 2579 2579 2579 2579 2579 2598 2598 2598 2598 2598 2598 2598 2598 2598 2598 2618 2618 2618 2618 2618 2598 2598 2598 2598 2598 2598 2598 2598 2598 2618 2618 2618 2618 2618 2618 2618 2618 2618 2618 2618 2618 1794 1794 1785 1785 1785 1722 1722 1722 1722 1713 1713 1713 1713 1713 1713 1713 1713 1713 1713 1713 1713 1713 1713 1713 1713 1713 1705 1705 1705 1705 1705 1696 1696 1696 1696 1696 1688 1688 1688 1688 1688 1688 1688 1680 1680 1680 1680 1680 1680 1680 1688 1680 1680 1680 1680 1680 1688 1688 1688 1688 1688 1696 1696 1696 1688 1688 1688 1696 1696 1696 1696 1696 1696 1696 1688 1688 1688 1688 1688 1688 1688 1594 1594 1594 1586 1586 1586 1586 1586 1594 1594 1594 1609 1609 1616 1616 1616 1624 1671 1696 1696 1705 1705 1705 1696 1696 1696 1696 1696 1696 1696 1705 1705 1713 1713 1713 1713 1713 1713 1452 1452 1452 1445 1445 1445 1445 1439 1439 1439 1445 1439 1439 1445 1445 1452 1452 1458 1464 1464 0 0 0 0 0 1404 1404 1398 1398 1404 1404 1398 1398 1392 1392 1392 1392 1392 1392 1392 1392 1392 1387 1387 1387 1381 1381 1376 1376 1376 1376 1376 1370 1370 1370 1370 1370 1370 1365 1365 1370 1365 1359 1359 1354 1354 1354 1354 1354 1349 1349 1349 1349 1349 1349 1349 1349 1343 1343 1338 1338 1338 1333 1333 1338 1333 1333 1333 1333 1333 1333 1328 1328 1328 1328 1328 1328 1328 1322 1322 1317 1307 1307 1302 1302 1297 1292 1292 1292 1292 1292 1292 1292 1297 1302 1302 1307 1307 1307 1307 1307 1307 1722 1722 1722 1722 1731 1731 1731 1731 1731 1731 1731 1731 1731 1731 1739 1731 1731 1731 1739 1739 1739 1739 1739 1748 1748 1748 1748 1748 1766 1833 1833 1833 1833 1833 1833 1843 1843 1843 1843 1833 1833 1833 1833 1833 1833 1833 1833 1833 1833 1833 1833 1823 1813 1813 1804 1804 1804 1804 1794 1785 1785 1785 1785 1785 1785 1785 1785 1785 1785 1785 1785 1776 1776 1766 1766 1766 1766 1776 1766 1766 1766 1766 1766 1757 1757 1757 1757 1757 1757 1338 1338 1338 1338 1343 1338 1338 1338 1338 1338 1338 1338 1338 1338 1333 1333 1333 1328 1328 1328 1328 1328 1322 1322 1322 1322 1322 1322 1322 1322 1322 1322 1322 1322 1322 1322 2005 2005 2005 2005 1993 1993 2005 2005 2005 1993 1993 1993 1993 2883 2883 2859 2859 2835 2835 2835 2859 2859 2859 2859 2859 2859 2859 2859 2859 2859 2859 2859 2859 2859 2859 2859 2859 2859 2859 2859 2859 2859 2859 2859 2859 2859 2859 2859 2859 2859 2859 2859 2859 2859 2859 2859 2859 2859 2883 2883 2883 2883 2883 2883 2883 2883 2883 2883 2883 2908 2908 2908 2908 2883 2883 2883 2883 2883 2883 2883 2883 2883 2908 2883 2883 2908 2883 2883 2883 2883 2883 2883 2883 2883 2883 2883 2883 2883 2883 2883 2883 2883 2883 2859 2859 2859 2859 2883 2883 2883 2883 2883 2883 2883 2883 2883 2883 2859 2859 2835 2835 2835 2859 2859 2859 2859 2859 2859 2859 2859 2859 2835 2835 2835 2835 2835 2835 2859 2859 2883 2883 2883 2859 2859 2835 2835 0 0 0 0 0 0 0 0 0 0 0 0 0
0 0 0 0 0 0 0 0 0 0 0 0 0 0 0 0 0 0 0 0 0 0 0 0 0 0 0 0 0 0 0 0 2579 2560 2560 2560 2541 2541 2541 2541 2541 2541 2560 2560 2560 2560 2560 2560 2560 2560 2560 2560 2560 2560 2560 2560 2560 2579 2579 2598 2579 2579 2579 2579 2579 2579 2579 2579 2579 2560 2560 2560 2560 2560 2579 2579 2579 2579 2579 2579 2579 2579 2598 2579 2579 2598 2598 2598 2598 2598 2598 2598 2598 2598 2598 2598 2598 2598 2598 2598 2598 2598 2598 2598 2598 2598 2598 2618 2618 2618 2618 2618 2618 2618 2618 1794 1794 1785 1785 1776 1731 1722 1722 1722 1713 1713 1713 1713 1713 1713 1713 1713 1713 1713 1713 1713 1713 1713 1713 1713 1713 1713 1705 1705 1705 1705 1705 1705 1705 1696 1696 1688 1688 1688 1688 1688 1688 1688 1680 1680 1680 1680 1680 1680 1680 1680 1680 1680 1680 1680 1680 1680 1680 1680 1680 1680 1688 1688 1688 1680 1680 1688 1688 1688 1688 1688 1688 1688 1688 1680 1680 1688 1680 1680 1680 1680 1601 1594 1594 1594 1586 1586 1594 1594 1594 1594 1601 1609 1609 1616 1616 1624 1624 1663 1688 1688 1696 1696 1696 1696 1696 1696 1696 1688 1688 1696 1696 1705 1705 1713 1713 1713 1713 1713 1452 1452 1452 1445 1445 1445 1445 1445 1445 1445 1445 1439 1439 1445 1452 1452 1458 1464 1464 1470 0 0 0 0 0 0 0 1398 1398 0 0 1398 1398 1392 1392 1392 1392 1392 1392 1392 1392 1392 1392 1387 1387 1387 1387 1381 1381 1381 1376 1376 1376 1376 1376 1376 1370 1370 1370 1370 1370 1370 1365 1365 1359 1354 1354 1354 1354 1354 1354 1354 1349 1349 1349 1349 1349 1349 1343 1343 1343 1338 1338 1338 1338 1338 1338 1338 1333 1333 1333 1333 1328 1328 1328 1328 1328 1328 1322 1322 1317 1312 1307 1302 1302 1302 1297 1297 1292 1292 1292 1292 1297 1297 1302 1302 1307 1307 1307 1307 1312 1312 1722 1722 1722 1722 1722 1722 1722 1722 1731 1731 1731 1731 1731 1731 1731 1731 1731 1731 1731 1731 1731 1739 1739 1739 1739 1739 1739 1739 1731 1731 1731 1731 1731 1731 1833 1833 1833 1843 1833 1833 1833 1833 1833 1833 1833 1833 1833 1833 1833 1833 1833 1833 1823 1813 1813 1813 1813 1804 1794 1794 1794 1794 1794 1785 1785 1785 1785 1785 1785 1785 1785 1776 1776 1766 1766 1766 1766 1766 1766 1766 1766 1757 1757 1757 1757 1757 1757 1757 1757 1338 1338 1338 1343 1343 1338 1338 1338 1338 1338 1338 1338 1338 1338 1333 1333 1333 1328 1328 1328 1328 1328 1322 1322 1322 1322 1322 1322 1322 1322 1322 1322 1322 1322 1322 1322 1993 1993 2005 2005 1993 1993 1993 2005 2005 2005 2005 2005 2859 2859 2859 2859 2835 2835 2835 2835 2859 2835 2835 2859 2859 2859 2859 2859 2859 2859 2835 2835 2859 2859 2835 2835 2835 2835 2859 2859 2859 2859 2859 2859 2859 2859 2859 2859 2859 2859 2859 2859 2859 2859 2859 2859 2859 2859 2859 2859 2859 2859 2859 2859 2859 2859 2859 2859 2859 2883 2883 2883 2883 2859 2859 2859 2859 2883 2859 2859 2859 2883 2883 2883 2883 2883 2859 2859 2859 2859 2859 2883 2859 2859 2883 2883 2883 2859 2859 2859 2859 2859 2859 2835 2835 2859 2859 2859 2859 2859 2859 2883 2883 2883 2883 2883 2859 2859 2859 2835 2835 2835 2835 2835 2835 2835 2835 2859 2835 2835 2835 2835 2835 2835 2835 2835 2835 2835 2859 2859 2859 2859 2835 2835 0 0 0 0 0 0 0 0 0 0 0 0 0 0 0
0 0 0 0 0 0 0 0 0 0 0 0 0 0 0 0 0 0 0 0 0 0 0 0 0 0 0 0 0 0 0 0 0 2541 2541 2541 2541 2541 2541 2541 2522 2522 2541 2541 2560 2541 2541 2560 2560 2541 2541 2541 2541 2560 2560 2560 2560 2579 2579 2579 2579 2579 2560 2560 2579 2579 2560 2560 2579 2560 2560 2560 2560 2560 2560 2560 2579 2560 2560 2579 2579 2579 2579 2579 2579 2579 2579 2579 2598 2598 2598 2598 2598 2598 2598 2598 2598 2598 2598 2598 2598 2598 2598 2598 2598 2598 2598 2598 2598 2598 2598 2598 2598 2598 2598 1794 1794 1794 1785 1776 1731 1722 1722 1722 1713 1713 1713 1722 1722 1722 1722 1713 1713 1722 1713 1713 1713 1713 1713 1713 1713 1713 1705 1705 1705 1705 1705 1705 1705 1696 1688 1688 1688 1688 1688 1688 1688 1680 1680 1680 1680 1680 1671 1671 1671 1680 1671 1671 1671 1671 1671 1680 1680 1680 1680 1680 1680 1680 1680 1680 1680 1680 1680 1680 1680 1680 1680 1680 1680 1680 1680 1680 1680 1680 1680 1680 1609 1594 1594 1594 1594 1594 1594 1594 1594 1601 1601 1609 1609 1616 1616 1624 1632 1655 1680 1688 1688 1688 1688 1688 1688 1688 1688 1688 1688 1688 1688 1696 1705 1705 1713 1713 1713 1713 1452 1452 1452 1445 1445 1445 1445 1445 1445 1445 1445 1445 1445 1445 1452 1458 1458 1464 1464 1470 0 0 0 0 0 0 0 0 0 0 0 0 0 1392 1392 1392 1392 1392 1392 1392 1392 1392 1392 1392 1387 1387 1387 1381 1381 1381 1381 1381 1376 1376 1376 1376 1376 1370 1370 1370 1370 1370 1370 1365 1365 1359 1359 1354 1354 1354 1354 1354 1354 1354 1354 1354 1354 1349 1349 1349 1349 1343 1343 1343 1343 1343 1338 1338 1338 1338 1338 1333 1333 1333 1333 1328 1328 1328 1322 1322 1322 1312 1307 1307 1302 1302 1302 1297 1297 1297 1297 1297 1297 1302 1302 1307 1307 1307 1307 1312 1312 1705 1705 1705 1713 1713 1713 1713 1713 1713 1713 1713 1713 1713 1713 1713 1722 1722 1722 1722 1722 1722 1722 1731 1731 1731 1731 1731 1731 1731 1731 1731 1731 1731 1731 1731 1722 1722 1731 1731 1731 1739 1748 1766 1833 1833 1833 1833 1833 1833 1833 1833 1833 1833 1823 1823 1813 1813 1813 1804 1794 1794 1794 1794 1794 1794 1794 1794 1794 1785 1785 1785 1785 1776 1776 1766 1766 1766 1766 1766 1766 1766 1766 1757 1757 1757 1757 1757 1757 1757 1757 1338 1338 1338 1343 1343 1343 1338 1338 1338 1338 1338 1338 1338 1338 1333 1333 1333 1328 1328 1328 1328 1328 1328 1328 1328 1328 1328 1328 1328 1322 1322 1322 1322 1322 1322 1322 1993 1993 2005 2005 2005 1993 1993 1993 1993 1993 1993 1993 2859 2859 2859 2859 2835 2835 2835 2835 2835 2835 2835 2835 2835 2835 2835 2835 2835 2835 2835 2835 2835 2835 2835 2835 2835 2835 2835 2835 2835 2835 2835 2835 2835 2835 2835 2835 2835 2835 2835 2835 2835 2835 2835 2835 2835 2859 2859 2859 2859 2859 2859 2859 2859 2859 2859 2859 2859 2859 2859 2859 2883 2859 2859 2859 2859 2859 2859 2859 2859 2859 2859 2859 2859 2859 2859 2859 2859 2859 2859 2859 2859 2859 2859 2859 2859 2859 2859 2859 2859 2859 2835 2835 2835 2835 2835 2835 2835 2859 2859 2859 2859 2859 2859 2859 2859 2859 2835 2835 2835 2835 2835 2835 2835 2835 2835 2835 2835 2835 2835 2835 2835 2835 2835 2835 2835 2835 2835 2835 2835 2835 2835 2835 0 0 0 0 0 0 0 0 0 0 0 0 0 0 0
0 0 0 0 0 0 0 0 0 0 0 0 0 0 0 0 0 0 0 0 0 0 0 0 0 0 0 0 0 0 0 0 0 2541 2541 2541 2541 2522 2522 2522 2522 2522 2522 2541 2541 2541 2541 2541 2541 2541 2541 2541 2541 2541 2541 2541 2560 2560 2560 2560 2560 2560 2560 2560 2560 2560 2560 2560 2560 2541 2541 2541 2541 2541 2541 2541 2560 2560 2560 2560 2560 2560 2579 2560 2560 2579 2579 2579 2579 2579 2579 2579 2579 2579 2579 2579 2579 2579 2579 2579 2579 2579 2579 2598 2598 2598 2598 2598 2598 2598 2598 2598 2598 2598 2598 1794 1794 1794 1785 1785 1731 1722 1722 1722 1713 1713 1713 1722 1722 1722 1722 1722 1722 1722 1722 1713 1713 1722 1713 1713 1713 1713 1713 1705 1705 1705 1705 1705 1705 1696 1688 1688 1688 1688 1688 1688 1688 1680 1680 1680 1680 1671 1671 1671 1671 1671 1671 1671 1671 1671 1671 1671 1671 1671 1671 1671 1671 1671 1671 1671 1671 1671 1671 1671 1671 1680 1680 1680 1680 1680 1680 1680 1680 1680 1671 1671 1616 1601 1594 1594 1594 1594 1594 1594 1594 1601 1601 1609 1609 1616 1616 1624 1632 1655 1671 1680 1688 1688 1688 1688 1680 1680 1680 1680 1680 1680 1688 1696 1696 1705 1713 1713 1722 1731 1452 1445 1445 1445 1445 1445 1445 1445 1445 1445 1445 1445 1445 1452 1452 1458 1464 1464 1464 1470 0 0 0 0 0 0 0 0 0 0 0 0 0 1392 1392 1392 1392 1392 1392 1392 1392 1392 1392 1392 1392 1392 1387 1381 1381 1381 1381 1381 1376 1376 1376 1376 1376 1370 1370 1370 1370 1370 1370 1370 1365 1365 1365 1359 1359 1354 1354 1354 1354 1354 1354 1354 1354 1349 1349 1349 1349 1349 1343 1343 1343 1343 1343 1343 1343 1343 1338 1338 1333 1333 1333 1333 1333 1328 1328 1328 1322 1317 1317 1312 1307 1302 1302 1302 1297 1297 1297 1297 1302 1302 1302 1307 1307 1307 1307 1312 1312 1705 1696 1696 1705 1705 1705 1705 1705 1705 1705 1705 1705 1705 1705 1705 1705 1705 1713 1713 1713 1713 1722 1722 1722 1722 1722 1722 1722 1722 1722 1722 1722 1722 1722 1713 1713 1722 1722 1722 1722 1722 1731 1731 1731 1722 1722 1722 1833 1833 1833 1833 1833 1833 1833 1823 1823 1823 1823 1813 1804 1794 1794 1794 1794 1794 1794 1794 1794 1785 1785 1785 1785 1785 1776 1776 1776 1776 1776 1766 1766 1766 1757 1757 1757 1757 1757 1757 1757 1757 1343 1343 1343 1343 1343 1343 1343 1343 1343 1338 1338 1338 1338 1338 1338 1338 1338 1333 1333 1328 1328 1328 1328 1328 1328 1333 1333 1328 1328 1328 1322 1322 1322 1322 1322 1322 1322 1993 1993 2005 2005 2005 1993 1993 1993 1993 1993 1993 2789 2789 2812 2835 2835 2812 2812 2812 2835 2835 2835 2835 2835 2835 2835 2835 2835 2835 2835 2835 2835 2835 2835 2835 2835 2835 2835 2835 2835 2835 2835 2835 2835 2835 2835 2835 2835 2835 2835 2835 2835 2835 2835 2835 2835 2835 2835 2835 2835 2859 2859 2859 2859 2859 2859 2859 2859 2859 2859 2859 2859 2859 2859 2859 2859 2859 2859 2859 2835 2835 2859 2859 2859 2859 2859 2859 2835 2835 2835 2835 2835 2835 2835 2859 2859 2859 2835 2835 2835 2859 2859 2835 2835 2835 2835 2835 2835 2835 2835 2835 2835 2835 2835 2835 2835 2835 2835 2835 2835 2835 2835 2835 2835 2835 2835 2835 2835 2835 2835 2835 2835 2835 2835 2835 2835 2835 2835 2835 2835 2835 2835 2835 0 0 0 0 0 0 0 0 0 0 0 0 0 0 0 0
0 0 0 0 0 0 0 0 0 0 0 0 0 0 0 0 0 0 0 0 0 0 0 0 0 0 0 0 0 0 0 0 0 2522 2522 2522 2522 2522 2522 2522 2522 2522 2522 2541 2541 2522 2522 2541 2541 2541 2541 2541 2541 2541 2541 2541 2541 2541 2560 2560 2560 2560 2560 2560 2560 2560 2560 2560 2560 2541 2541 2541 2541 2541 2541 2541 2560 2560 2560 2560 2560 2560 2560 2560 2560 2560 2560 2560 2560 2560 2560 2560 2579 2579 2579 2560 2560 2560 2560 2560 2560 2579 2579 2579 2579 2598 2598 2598 2598 2598 2598 2598 2598 2598 2598 1794 1794 1794 1794 1794 1794 1722 1722 1722 1713 1713 1713 1722 1722 1722 1722 1722 1722 1722 1722 1722 1722 1722 1722 1713 1713 1713 1713 1705 1705 1705 1705 1705 1705 1696 1696 1688 1688 1688 1688 1688 1688 1688 1680 1680 1680 1671 1671 1671 1671 1671 1671 1663 1663 1663 1663 1663 1663 1663 1671 1671 1671 1671 1671 1671 1671 1671 1671 1671 1671 1671 1671 1671 1671 1671 1671 1671 1671 1671 1671 1663 1616 1601 1601 1601 1594 1594 1594 1594 1594 1601 1601 1609 1609 1616 1616 1632 1639 1655 1671 1671 1680 1680 1680 1680 1680 1680 1680 1680 1680 1680 1688 1696 1696 1713 1713 1722 1731 1731 1731 1445 1445 1445 1452 1452 1452 1452 1452 1452 1452 1445 1445 1452 1458 1458 1464 1464 1470 1470 1470 0 0 0 0 0 0 0 0 0 0 0 0 1671 1671 1663 1663 1392 1392 1392 1392 1398 1392 1392 1392 1392 1392 1387 1381 1381 1381 1381 1376 1376 1376 1376 1376 1370 1370 1370 1370 1370 1370 1370 1370 1365 1365 1359 1359 1354 1354 1354 1354 1354 1354 1354 1354 1354 1354 1349 1349 1349 1349 1349 1349 1349 1349 1349 1349 1343 1343 1338 1338 1338 1338 1333 1333 1328 1328 1328 1328 1322 1317 1312 1307 1307 1302 1302 1302 1302 1302 1302 1302 1302 1302 1307 1307 1307 1312 1312 1317 1696 1696 1696 1696 1696 1705 1705 1696 1696 1696 1696 1696 1696 1696 1705 1705 1705 1705 1705 1705 1705 1713 1713 1713 1722 1722 1722 1722 1722 1713 1713 1713 1713 1713 1713 1713 1713 1722 1722 1722 1722 1722 1722 1722 1713 1705 1705 1705 1705 1705 1833 1843 1833 1833 1833 1823 1823 1823 1823 1804 1794 1794 1794 1794 1794 1794 1794 1794 1794 1794 1785 1785 1785 1785 1776 1776 1776 1776 1766 1766 1766 1757 1757 1757 1757 1757 1757 1757 1757 1343 1343 1343 1343 1343 1343 1343 1343 1343 1338 1338 1338 1338 1338 1338 1338 1338 1333 1333 1333 1333 1333 1333 1333 1333 1333 1333 1333 1328 1328 1328 1322 1322 1322 1322 1322 2005 2005 2005 2005 2005 2005 2005 2005 1993 1993 1993 1993 2789 2789 2812 2835 2835 2812 2812 2812 2812 2812 2812 2812 2812 2812 2812 2812 2812 2812 2812 2812 2812 2812 2812 2812 2812 2812 2835 2835 2835 2835 2835 2835 2835 2835 2835 2835 2812 2812 2812 2812 2812 2812 2812 2812 2812 2835 2835 2835 2835 2835 2835 2835 2835 2835 2835 2835 2835 2835 2835 2835 2835 2835 2859 2859 2835 2835 2835 2835 2835 2835 2835 2835 2835 2835 2835 2835 2835 2835 2835 2835 2835 2835 2835 2835 2835 2835 2835 2835 2835 2835 2835 2812 2812 2835 2835 2835 2835 2835 2835 2835 2835 2835 2835 2835 2812 2812 2812 2812 2812 2812 2812 2812 2812 2835 2835 2835 2835 2812 2812 2812 2812 2812 2812 2812 2812 2812 2812 2835 2835 2835 2812 2812 0 0 0 0 0 0 0 0 0 0 0 0 0 0 0 0
0 0 0 0 0 0 0 0 0 0 0 0 0 0 0 0 0 0 0 0 0 0 0 0 0 0 0 0 0 0 0 0 0 2503 2503 2503 2503 2503 2522 2503 2503 2503 2522 2522 2522 2522 2522 2522 2541 2522 2522 2522 2522 2541 2541 2541 2541 2541 2541 2541 2541 2541 2541 2541 2541 2560 2560 2560 2560 2541 2541 2541 2541 2541 2541 2541 2541 2541 2541 2541 2541 2541 2541 2541 2541 2541 2541 2541 2541 2541 2541 2560 2560 2560 2560 2560 2560 2541 2541 2560 2560 2560 2560 2560 2579 2579 2598 2598 2598 2598 2598 2598 2598 2598 2598 2598 1794 1794 1794 1794 1794 1722 1722 1722 1713 1713 1713 1722 1722 1722 1722 1722 1722 1722 1722 1722 1722 1722 1722 1722 1722 1713 1713 1713 1713 1705 1705 1705 1705 1705 1696 1696 1696 1688 1688 1688 1688 1688 1680 1680 1680 1671 1671 1671 1671 1671 1671 1663 1663 1663 1663 1663 1663 1663 1663 1663 1663 1663 1663 1663 1663 1663 1663 1663 1663 1663 1671 1671 1671 1671 1671 1671 1663 1663 1663 1639 1616 1609 1601 1601 1594 1594 1594 1594 1594 1601 1601 1609 1609 1616 1624 1632 1639 1647 1663 1663 1671 1671 1680 1680 1680 1680 1680 1680 1680 1680 1688 1696 1696 1713 1722 1731 1731 1739 1748 1445 1445 1445 1452 1452 1452 1452 1452 1452 1452 1452 1452 1458 1458 1464 1464 1464 1470 1470 1470 0 0 0 0 0 0 0 0 0 0 0 0 1663 1663 1663 1663 1671 1671 1671 1671 1671 1671 1671 1671 1671 1671 1671 1671 1663 1381 1381 1376 1376 1370 1370 1376 1376 1370 1370 1370 1370 1370 1370 1370 1370 1365 1365 1365 1359 1359 1359 1354 1354 1354 1354 1354 1354 1354 1354 1354 1349 1349 1349 1349 1349 1349 1349 1349 1349 1343 1343 1338 1338 1338 1333 1333 1328 1328 1328 1328 1322 1317 1312 1307 1307 1302 1302 1302 1302 1302 1302 1302 1302 1302 1307 1307 1312 1312 1312 1317 1688 1688 1696 1696 1696 1696 1696 1696 1696 1696 1696 1696 1696 1696 1696 1696 1696 1696 1696 1696 1705 1705 1705 1713 1713 1713 1713 1713 1713 1713 1713 1713 1705 1705 1705 1705 1705 1713 1713 1713 1713 1713 1713 1713 1705 1705 1705 1705 1705 1705 1713 1843 1843 1833 1833 1833 1833 1833 1823 1813 1804 1794 1794 1794 1794 1794 1794 1794 1794 1794 1785 1785 1785 1785 1785 1785 1776 1776 1776 1776 1766 1766 1757 1757 1757 1757 1757 1757 1757 1349 1349 1343 1343 1343 1343 1343 1343 1343 1343 1343 1343 1338 1338 1338 1338 1338 1333 1333 1333 1333 1333 1333 1333 1333 1333 1333 1333 1333 1328 1328 1328 1322 1322 1322 1322 2005 2005 2005 2005 2005 2005 1993 1993 1993 1993 1993 1993 2789 2789 2812 2812 2812 2789 2789 2812 2812 2812 2789 2789 2789 2789 2789 2789 2789 2789 2812 2812 2812 2812 2812 2812 2812 2812 2812 2812 2812 2812 2812 2812 2812 2812 2812 2812 2812 2789 2789 2789 2789 2789 2789 2812 2812 2812 2812 2812 2812 2812 2835 2835 2835 2835 2835 2835 2835 2835 2835 2835 2835 2835 2835 2835 2835 2835 2835 2835 2835 2835 2835 2835 2835 2835 2835 2835 2835 2835 2835 2835 2835 2835 2835 2835 2812 2812 2812 2812 2812 2835 2835 2812 2812 2812 2812 2812 2812 2812 2812 2812 2812 2812 2812 2812 2812 2812 2812 2812 2812 2812 2812 2812 2812 2812 2812 2812 2812 2812 2812 2812 2812 2812 2812 2812 2812 2812 2812 2812 2812 2812 2789 2789 0 0 0 0 0 0 0 0 0 0 0 0 0 0 0 0
0 0 0 0 0 0 0 0 0 0 0 0 0 0 0 0 0 0 0 0 0 0 0 0 0 0 0 0 0 0 0 0 0 2503 2485 2485 2485 2503 2503 2503 2503 2503 2503 2503 2503 2503 2503 2522 2522 2522 2522 2522 2522 2522 2522 2522 2503 2503 2503 2522 2522 2522 2522 2522 2541 2541 2541 2541 2541 2522 2522 2522 2522 2522 2522 2522 2522 2522 2522 2522 2522 2522 2541 2541 2541 2541 2541 2541 2541 2541 2541 2541 2560 2541 2541 2541 2541 2541 2541 2541 2541 2560 2560 2560 2560 2579 2579 2579 2579 2579 2579 2579 2579 2579 2579 2579 1804 1804 1804 1804 1804 1722 1722 1722 1713 1713 1713 1722 1722 1722 1722 1722 1722 1722 1722 1722 1722 1722 1722 1722 1722 1713 1713 1713 1713 1705 1705 1705 1705 1705 1696 1696 1696 1696 1696 1688 1688 1688 1680 1680 1680 1671 1671 1671 1671 1671 1671 1663 1663 1663 1663 1663 1655 1655 1663 1663 1663 1663 1663 1663 1655 1655 1655 1655 1655 1655 1663 1663 1663 1663 1663 1663 1655 1647 1647 1639 1624 1609 1609 1601 1601 1601 1601 1594 1594 1601 1601 1609 1609 1616 1624 1624 1639 1647 1647 1663 1671 1671 1671 1671 1671 1671 1680 1680 1680 1680 1688 1696 1713 1713 1722 1731 1739 1739 1748 1757 1452 1452 1452 1452 1452 1452 1452 1458 1458 1452 1452 1458 1464 1464 1464 1464 1470 1470 1470 0 0 0 0 0 0 0 0 0 0 0 1663 1663 1663 1663 1663 1663 1663 1671 1671 1671 1671 1671 1671 1671 1671 1663 1663 1663 1663 1663 1376 1370 1370 1370 1376 1376 1370 1370 1370 1370 1376 1376 1370 1370 1370 1365 1365 1359 1359 1359 1359 1359 1359 1354 1354 1354 1354 1354 1354 1349 1349 1349 1349 1349 1349 1349 1349 1349 1349 1343 1343 1338 1338 1338 1338 1328 1328 1328 1328 1322 1322 1317 1312 1307 1307 1307 1302 1302 1302 1302 1302 1302 1307 1307 1307 1312 1317 1317 1322 1688 1688 1688 1688 1688 1696 1688 1688 1688 1688 1688 1688 1688 1688 1696 1696 1696 1696 1696 1696 1696 1696 1696 1705 1705 1705 1713 1713 1713 1705 1705 1705 1696 1696 1696 1696 1696 1705 1705 1705 1705 1705 1705 1705 1705 1696 1696 1696 1705 1705 1713 1722 1833 1833 1833 1833 1833 1833 1833 1813 1813 1804 1804 1804 1804 1804 1794 1794 1794 1794 1794 1794 1794 1785 1785 1785 1785 1785 1776 1776 1776 1766 1757 1757 1757 1757 1757 1757 1354 1349 1349 1349 1349 1343 1343 1343 1343 1343 1343 1343 1343 1343 1343 1338 1338 1338 1338 1333 1333 1333 1333 1333 1333 1338 1338 1338 1333 1333 1328 1328 1328 1328 1328 1328 0 1993 1993 1993 2005 2005 2005 1993 1993 1993 1993 1993 2789 2789 2789 2789 2812 2812 2789 2789 2789 2789 2789 2767 2767 2767 2789 2789 2789 2789 2789 2789 2789 2789 2789 2789 2789 2789 2789 2812 2812 2812 2812 2812 2789 2789 2789 2789 2789 2789 2789 2789 2789 2789 2789 2789 2789 2789 2812 2812 2812 2812 2812 2812 2812 2812 2812 2812 2812 2812 2812 2835 2835 2835 2835 2835 2835 2835 2812 2812 2812 2812 2812 2812 2835 2835 2835 2835 2835 2835 2835 2835 2835 2812 2812 2812 2812 2812 2812 2812 2812 2812 2812 2812 2812 2812 2812 2812 2812 2812 2812 2812 2812 2812 2789 2789 2789 2789 2789 2789 2789 2789 2789 2789 2789 2812 2812 2812 2812 2812 2812 2812 2812 2812 2812 2812 2812 2812 2789 2789 2789 2789 2789 2723 2701 2659 2659 2659 0 0 0 0 0 0 0 0 0 0 0 0 0
0 0 0 0 0 0 0 0 0 0 0 0 0 0 0 0 0 0 0 0 0 0 0 0 0 0 0 0 0 0 0 0 0 2485 2485 2485 2485 2485 2485 2485 2485 2485 2503 2503 2503 2503 2503 2503 2503 2522 2522 2503 2503 2503 2503 2503 2485 2485 2503 2503 2522 2522 2522 2522 2522 2522 2522 2522 2522 2503 2503 2503 2503 2503 2503 2503 2503 2503 2503 2522 2522 2522 2522 2522 2522 2522 2522 2522 2522 2522 2541 2541 2541 2541 2541 2541 2541 2541 2541 2541 2541 2541 2541 2560 2560 2560 2579 2579 2560 2560 2579 2579 2579 2579 2579 2579 2579 1813 1804 1804 1785 1722 1722 1722 1713 1713 1713 1722 1722 1722 1722 1722 1722 1722 1722 1722 1722 1722 1722 1722 1722 1722 1722 1713 1713 1713 1713 1713 1705 1705 1705 1705 1705 1696 1696 1696 1688 1688 1680 1680 1680 1680 1671 1671 1671 1671 1671 1663 1663 1663 1663 1663 1655 1655 1663 1663 1663 1663 1655 1655 1655 1655 1647 1647 1647 1647 1655 1655 1655 1655 1655 1647 1647 1639 1639 1639 1632 1616 1609 1609 1601 1601 1601 1601 1601 1601 1609 1609 1609 1616 1624 1624 1632 1647 1647 1655 1663 1663 1671 1671 1671 1671 1680 1680 1680 1680 1688 1705 1713 1722 1731 1739 1739 1748 1748 1757 1757 1452 1452 1452 1452 1452 1458 1458 1458 1458 1458 1458 1464 1464 1464 1470 1470 1470 1477 0 0 0 0 0 0 0 0 0 0 0 1655 1655 1663 1663 1663 1663 1663 1663 1663 1663 1663 1663 1663 1663 1663 1663 1663 1663 1663 1663 1663 1370 1370 1370 1376 1376 1370 1370 1370 1370 1376 1376 1370 1370 1370 1370 1365 1365 1365 1365 1359 1359 1359 1354 1354 1354 1354 1354 1354 1354 1354 1349 1349 1349 1349 1349 1349 1349 1349 1349 1343 1343 1343 1343 1338 1333 1328 1328 1328 1322 1322 1317 1312 1312 1307 1307 1307 1307 1307 1307 1307 1307 1307 1312 1312 1317 1317 1322 1328 1328 1680 1680 1680 1688 1688 1688 1688 1688 1688 1688 1688 1688 1688 1688 1688 1688 1688 1696 1696 1696 1696 1696 1696 1696 1696 1696 1696 1696 1696 1688 1688 1696 1688 1688 1696 1696 1696 1696 1696 1696 1705 1696 1696 1696 1696 1696 1696 1696 1696 1696 1713 1833 1833 1833 1833 1833 1833 1833 1813 1813 1813 1813 1804 1804 1804 1804 1794 1794 1794 1794 1794 1794 1785 1785 1785 1785 1785 1785 1785 1785 1776 1766 1757 1757 1757 1757 1757 1354 1349 1349 1349 1349 1343 1343 1343 1343 1343 1343 1343 1343 1343 1343 1343 1343 1343 1338 1338 1338 1338 1338 1338 1338 1338 1338 1338 1333 1333 1328 1328 1328 1328 1328 0 0 1993 1993 1993 2005 2005 2005 2005 2005 2005 2005 2005 2767 2767 2789 2789 2789 2789 2767 2767 2767 2767 2767 2767 2767 2767 2767 2767 2767 2767 2767 2767 2767 2767 2767 2767 2767 2767 2789 2789 2789 2789 2789 2789 2789 2789 2789 2767 2767 2767 2767 2767 2767 2789 2789 2789 2789 2789 2789 2812 2789 2789 2789 2789 2789 2789 2789 2789 2812 2812 2812 2812 2812 2812 2812 2812 2812 2812 2812 2812 2812 2812 2812 2812 2812 2835 2835 2835 2835 2835 2835 2812 2812 2812 2789 2789 2789 2789 2789 2789 2789 2789 2812 2812 2789 2789 2789 2812 2812 2812 2789 2789 2789 2789 2789 2789 2789 2789 2789 2789 2789 2789 2789 2789 2789 2789 2789 2789 2789 2789 2812 2812 2812 2812 2812 2812 2812 2789 2789 2767 2767 2767 2767 2723 2680 2659 2639 2639 0 0 0 0 0 0 0 0 0 0 0 0 0
0 0 0 0 0 0 0 0 0 0 0 0 0 0 0 0 0 0 0 0 0 0 0 0 0 0 0 0 0 0 0 0 0 2485 2485 2485 2485 2485 2485 2485 2485 2485 2485 2485 2485 2485 2485 2503 2503 2503 2503 2503 2503 2503 2503 2485 2485 2485 2485 2503 2503 2522 2522 2522 2522 2522 2503 2503 2503 2503 2503 2503 2503 2503 2503 2503 2503 2503 2503 2503 2522 2522 2522 2522 2522 2522 2522 2522 2522 2522 2522 2522 2522 2522 2522 2522 2541 2541 2541 2541 2541 2541 2541 2541 2541 2541 2541 2541 2541 2541 2560 2560 2560 2579 2579 2579 2598 1813 1804 1794 1785 1731 1722 1722 1713 1713 1722 1722 1722 1722 1722 1722 1722 1722 1722 1722 1722 1722 1722 1722 1722 1722 1722 1713 1713 1713 1713 1713 1713 1705 1705 1705 1705 1705 1696 1696 1696 1696 1680 1680 1680 1680 1680 1671 1671 1671 1671 1663 1663 1663 1663 1663 1655 1655 1663 1663 1663 1663 1655 1655 1655 1655 1647 1647 1647 1647 1655 1655 1655 1647 1647 1647 1639 1639 1639 1632 1624 1616 1616 1609 1609 1609 1601 1601 1601 1609 1609 1609 1609 1616 1624 1632 1632 1647 1647 1655 1663 1663 1663 1671 1671 1671 1680 1680 1680 1688 1696 1713 1713 1722 1731 1739 1739 1748 1748 1748 1748 1452 1452 1452 1458 1458 1458 1458 1458 1458 1458 1458 1464 1464 1464 1470 1470 1477 1483 0 0 0 0 0 0 0 0 1639 1639 1639 1639 1647 1647 1655 1655 1655 1655 1655 1655 1655 1655 1655 1655 1655 1655 1655 1655 1655 1655 1663 1663 1663 1663 1376 1376 1376 1370 1370 1663 1655 1655 1655 1370 1370 1370 1370 1365 1365 1365 1365 1365 1359 1359 1359 1359 1354 1354 1354 1354 1354 1354 1354 1354 1349 1349 1349 1349 1349 1349 1349 1343 1343 1343 1343 1338 1333 1333 1328 1328 1322 1322 1317 1312 1312 1307 1307 1307 1307 1307 1307 1307 1307 1307 1312 1312 1317 1322 1322 1322 1663 1663 1671 1680 1680 1680 1680 1680 1680 1680 1680 1680 1680 1680 1680 1688 1688 1688 1688 1688 1688 1688 1688 1688 1688 1688 1688 1680 1680 1680 1680 1680 1680 1688 1688 1688 1688 1688 1688 1688 1688 1696 1696 1696 1688 1688 1688 1696 1696 1696 1696 1705 1705 1713 1833 1833 1833 1833 1833 1813 1813 1804 1804 1804 1804 1804 1804 1794 1794 1794 1794 1794 1794 1785 1785 1785 1785 1785 1785 1785 1785 1776 1766 1766 1766 1766 1757 1757 1354 1349 1349 1349 1349 1343 1343 1343 1343 1343 1343 1343 1343 1343 1343 1343 1343 1343 1343 1338 1338 1338 1338 1338 1338 1338 1338 1338 1338 1338 1333 1333 1333 1333 1333 0 0 1993 1993 1993 2005 2005 2005 2005 2005 2005 2005 2005 2744 2767 2767 2767 2767 2767 2767 2767 2767 2767 2767 2744 2744 2744 2767 2767 2767 2767 2767 2767 2767 2767 2767 2744 2744 2744 2767 2767 2767 2767 2767 2767 2767 2767 2767 2767 2767 2767 2767 2767 2767 2767 2767 2767 2767 2789 2789 2789 2767 2767 2767 2767 2767 2767 2767 2789 2789 2789 2789 2812 2812 2812 2812 2812 2812 2789 2789 2789 2789 2789 2789 2789 2812 2812 2812 2812 2812 2812 2812 2812 2789 2789 2789 2789 2789 2767 2767 2767 2789 2789 2789 2789 2767 2767 2767 2767 2789 2789 2767 2767 2767 2767 2767 2767 2767 2767 2767 2767 2789 2789 2767 2767 2767 2767 2789 2789 2767 2767 2789 2789 2812 2812 2812 2812 2789 2789 2767 2767 2767 2767 2744 2723 2680 2659 2639 2639 2659 2659 0 0 0 0 0 0 0 0 0 0 0
0 0 0 0 0 0 0 0 0 0 0 0 0 0 0 0 0 0 0 0 0 0 0 0 0 0 0 0 0 0 0 0 0 2467 2467 2467 2467 2485 2485 2467 2467 2467 2485 2485 2485 2485 2485 2485 2503 2503 2503 2503 2503 2485 2485 2485 2485 2485 2485 2503 2503 2503 2503 2503 2503 2503 2503 2503 2503 2485 2485 2485 2485 2485 2485 2485 2485 2485 2485 2503 2503 2503 2503 2503 2503 2503 2522 2522 2522 2522 2522 2522 2522 2522 2522 2522 2522 2522 2522 2522 2522 2522 2522 2522 2522 2541 2541 2541 2541 2541 2560 2560 2560 2560 2560 2579 2579 2579 1813 1794 1794 1722 1722 1722 1713 1713 1722 1722 1722 1722 1722 1722 1722 1722 1722 1722 1722 1722 1722 1722 1722 1722 1722 1713 1713 1713 1713 1713 1713 1713 1713 1705 1705 1705 1705 1705 1696 1696 1688 1688 1680 1680 1680 1680 1671 1671 1671 1663 1663 1663 1663 1663 1655 1655 1663 1663 1663 1663 1655 1655 1655 1655 1647 1647 1647 1647 1647 1647 1647 1647 1647 1639 1639 1639 1632 1632 1624 1616 1616 1616 1609 1609 1609 1609 1609 1609 1609 1609 1609 1616 1624 1632 1639 1647 1647 1655 1663 1663 1663 1671 1671 1671 1680 1680 1688 1688 1696 1713 1722 1731 1731 1739 1739 1748 1748 1748 1757 1452 1452 1458 1458 1458 1464 1464 1464 1458 1458 1458 1464 1464 1464 1470 1477 1477 1483 1489 0 0 0 0 0 0 1639 1639 1639 1639 1639 1639 1647 1647 1647 1647 1647 1647 1647 1647 1647 1647 1647 1647 1647 1647 1647 1647 1655 1655 1655 1655 1655 1655 1655 1655 1655 1655 1655 1655 1647 1647 1647 1639 1639 1639 1639 1639 1370 1365 1365 1365 1365 1359 1359 1359 1354 1354 1354 1354 1354 1354 1354 1354 1354 1349 1349 1349 1349 1349 1349 1343 1343 1343 1343 1333 1333 1333 1328 1322 1322 1317 1317 1312 1307 1307 1307 1307 1307 1307 1307 1307 1312 1317 1317 1317 1322 1322 1322 1663 1663 1663 1671 1671 1671 1671 1671 1671 1671 1671 1671 1671 1671 1680 1680 1680 1680 1680 1680 1680 1680 1680 1680 1680 1680 1671 1671 1671 1671 1671 1671 1671 1680 1680 1680 1680 1680 1680 1680 1680 1688 1688 1688 1688 1688 1688 1688 1688 1696 1696 1705 1705 1713 1833 1833 1823 1823 1833 1813 1813 1804 1804 1804 1804 1804 1804 1794 1794 1794 1794 1794 1794 1794 1794 1794 1785 1785 1785 1785 1785 1776 1766 1766 1766 1757 1757 1757 1757 1343 1343 1349 1349 1349 1343 1343 1343 1343 1343 1343 1343 1343 1343 1343 1343 1343 1343 1343 1338 1338 1338 1338 1338 1338 1338 1338 1338 1338 1338 1333 1333 1333 1333 0 0 2005 2005 2005 2005 2005 2005 2005 2005 2005 2005 2005 2744 2767 2767 2767 2767 2767 2744 2744 2744 2744 2744 2744 2744 2744 2744 2744 2744 2744 2744 2744 2744 2744 2744 2744 2744 2744 2744 2744 2744 2744 2744 2744 2744 2744 2744 2744 2744 2744 2744 2744 2744 2767 2767 2767 2767 2767 2767 2767 2767 2767 2767 2767 2767 2767 2767 2767 2767 2767 2767 2767 2767 2767 2767 2767 2767 2767 2767 2767 2789 2767 2767 2767 2789 2789 2789 2789 2812 2812 2812 2789 2789 2789 2789 2767 2767 2767 2767 2767 2767 2767 2767 2789 2767 2767 2767 2767 2744 2744 2744 2744 2744 2744 2767 2767 2744 2744 2744 2744 2767 2744 2744 2744 2744 2744 2767 2744 2744 2744 2767 2789 2812 2812 2789 2767 2767 2744 2744 2744 2744 2744 2744 2723 2723 2680 2659 2659 2659 2659 2723 0 0 0 0 0 0 0 0 0 0
0 0 0 0 0 0 0 0 0 0 0 0 0 0 0 0 0 0 0 0 0 0 0 0 0 0 0 0 0 0 0 0 0 2467 2467 2467 2467 2467 2467 2467 2467 2467 2467 2467 2467 2467 2467 2485 2485 2485 2485 2485 2485 2485 2485 2485 2485 2485 2485 2485 2485 2503 2503 2503 2503 2503 2485 2485 2503 2467 2467 2485 2485 2485 2467 2467 2485 2485 2485 2485 2503 2503 2503 2503 2503 2503 2503 2503 2503 2503 2503 2503 2503 2503 2503 2503 2503 2503 2503 2503 2503 2503 2522 2522 2522 2522 2541 2541 2541 2541 2541 2541 2541 2541 2541 2541 2541 2541 1813 1813 1813 1722 1722 1722 1713 1713 1722 1722 1722 1722 1722 1722 1722 1722 1722 1722 1722 1722 1722 1722 1722 1722 1722 1722 1722 1722 1722 1713 1713 1713 1713 1713 1713 1713 1705 1705 1705 1696 1688 1688 1688 1680 1680 1680 1671 1671 1671 1671 1671 1663 1663 1663 1663 1663 1663 1663 1663 1663 1663 1663 1655 1655 1655 1647 1647 1647 1647 1647 1647 1639 1639 1639 1639 1639 1632 1632 1624 1616 1616 1616 1609 1609 1609 1609 1609 1609 1609 1609 1616 1616 1624 1632 1639 1639 1647 1655 1663 1663 1663 1671 1671 1671 1680 1680 1688 1696 1713 1722 1722 1731 1739 1739 1739 1748 1748 1748 1757 1458 1458 1464 1458 1458 1464 1464 1464 1458 1458 1458 1464 1464 1470 1470 1477 1477 1483 1489 0 0 0 0 0 1632 1632 1632 1632 1639 1639 1639 1639 1639 1639 1639 1639 1639 1639 1639 1639 1639 1639 1639 1639 1639 1639 1647 1647 1647 1647 1647 1647 1647 1647 1647 1647 1647 1647 1647 1647 1639 1639 1639 1639 1639 1639 1639 1639 1639 1639 1639 1365 1359 1359 1359 1354 1354 1354 1354 1354 1354 1354 1354 1354 1354 1354 1354 1349 1349 1349 1349 1349 1343 1343 1338 1333 1333 1328 1328 1322 1322 1317 1312 1312 1312 1307 1307 1307 1307 1307 1312 1312 1317 1317 1322 1322 1322 1663 1663 1663 1663 1663 1663 1671 1663 1663 1671 1663 1663 1663 1671 1671 1671 1671 1680 1680 1680 1680 1671 1671 1671 1671 1671 1671 1663 1663 1663 1663 1671 1671 1671 1671 1671 1671 1671 1671 1671 1671 1671 1680 1680 1680 1680 1688 1688 1688 1688 1688 1696 1705 1705 1722 1823 1823 1823 1823 1823 1813 1813 1804 1804 1804 1804 1804 1804 1794 1794 1794 1794 1794 1794 1794 1794 1794 1785 1785 1785 1785 1785 1776 1776 1766 1766 1757 1757 1757 1757 1343 1343 1343 1343 1349 1343 1343 1343 1343 1343 1343 1343 1343 1343 1343 1343 1343 1343 1343 1338 1338 1338 1338 1338 1338 1338 1338 1338 1338 1338 1338 1333 1333 0 0 0 2005 2005 2005 2005 2005 2005 2005 2005 2005 2005 2005 2744 2767 2767 2767 2767 2767 2744 2744 2744 2744 2744 2744 2744 2744 2744 2744 2744 2744 2744 2744 2744 2723 2723 2723 2723 2723 2723 2744 2744 2744 2744 2744 2744 2744 2744 2744 2744 2744 2744 2744 2744 2744 2744 2744 2744 2744 2767 2767 2744 2744 2744 2744 2744 2744 2744 2744 2744 2744 2744 2744 2744 2744 2744 2767 2767 2767 2767 2767 2767 2767 2767 2767 2767 2789 2767 2767 2767 2767 2767 2767 2767 2767 2767 2744 2744 2744 2744 2744 2767 2767 2767 2767 2744 2744 2744 2744 2744 2744 2744 2744 2744 2744 2744 2744 2744 2744 2744 2744 2744 2744 2744 2744 2744 2744 2744 2744 2744 2744 2744 2767 2789 2767 2744 2744 2744 2744 2744 2723 2723 2723 2723 2723 2723 2723 2680 2680 2680 2723 2723 0 0 0 0 0 0 0 0 0 0
0 0 0 0 0 0 0 0 0 0 0 0 0 0 0 0 0 0 0 0 0 0 0 0 0 0 0 0 0 0 0 0 0 2467 2467 2467 2467 2467 2467 2467 2467 2467 2467 2450 2450 2467 2467 2467 2467 2467 2485 2485 2485 2485 2485 2485 2485 2485 2485 2485 2485 2485 2485 2485 2485 2485 2485 2485 2485 2467 2467 2467 2467 2467 2467 2467 2467 2467 2467 2485 2485 2485 2485 2485 2485 2485 2485 2485 2485 2485 2485 2485 2485 2485 2485 2485 2485 2485 2485 2485 2485 2485 2503 2503 2522 2522 2522 2522 2522 2522 2522 2522 2522 2522 2522 2503 2503 2522 2541 2541 1731 1731 1731 1731 1722 1722 1722 1722 1722 1722 1722 1722 1731 1731 1731 1731 1731 1731 1731 1731 1731 1722 1722 1722 1722 1722 1722 1722 1722 1713 1713 1713 1713 1713 1713 1713 1705 1705 1696 1696 1688 1688 1680 1680 1680 1680 1671 1671 1671 1671 1671 1671 1663 1663 1663 1671 1671 1663 1663 1663 1655 1655 1655 1647 1647 1647 1647 1647 1639 1639 1639 1639 1639 1632 1632 1632 1624 1624 1616 1616 1616 1609 1609 1609 1609 1609 1616 1616 1616 1624 1632 1632 1639 1639 1647 1647 1663 1663 1671 1671 1671 1671 1680 1688 1688 1705 1713 1722 1731 1739 1739 1739 1739 1748 1748 1757 1766 1766 1464 1464 1464 1464 1464 1464 1464 1458 1458 1458 1464 1464 1470 1470 1477 1477 1483 1489 0 0 0 0 0 1624 1624 1624 1632 1632 1632 1632 1632 1632 1632 1632 1632 1632 1632 1632 1632 1639 1639 1639 1639 1639 1639 1639 1639 1639 1639 1639 1639 1639 1639 1647 1647 1647 1639 1639 1639 1639 1639 1639 1639 1639 1639 1639 1639 1639 1632 1632 1632 1632 1359 1359 1359 1359 1359 1354 1354 1354 1354 1354 1354 1349 1349 1349 1349 1349 1349 1349 1349 1349 1343 1338 1333 1333 1328 1328 1322 1322 1317 1317 1312 1312 1312 1312 1312 1312 1312 1312 1317 1317 1322 1322 1322 1322 1663 1663 1655 1655 1663 1663 1663 1663 1663 1663 1663 1663 1663 1663 1663 1663 1671 1671 1671 1671 1671 1663 1663 1663 1663 1663 1663 1663 1663 1663 1663 1663 1663 1663 1663 1663 1663 1663 1663 1663 1663 1663 1671 1671 1680 1680 1680 1680 1688 1688 1688 1696 1696 1813 1813 1823 1823 1823 1823 1823 1813 1813 1804 1804 1804 1804 1804 1804 1794 1794 1794 1794 1794 1794 1794 1794 1785 1785 1785 1785 1785 1785 1776 1776 1766 1766 1766 1766 1757 1757 1757 1343 1343 1343 1349 1343 1343 1343 1343 1343 1343 1343 1343 1343 1343 1343 1343 1343 1343 1343 1343 1338 1338 1338 1338 1338 1338 1338 1338 1338 1338 1338 1338 1338 0 2005 2005 2005 2005 2005 2005 2005 2005 2005 2005 2005 2005 2744 2767 2767 2767 2767 2767 2744 2744 2723 2723 2723 2723 2723 2723 2723 2723 2723 2723 2723 2723 2723 2723 2723 2723 2723 2723 2723 2723 2723 2723 2744 2744 2744 2744 2744 2744 2744 2744 2744 2744 2744 2744 2744 2744 2744 2744 2744 2744 2744 2744 2744 2744 2744 2744 2744 2744 2744 2744 2744 2744 2744 2744 2744 2744 2744 2744 2744 2744 2744 2767 2767 2767 2767 2767 2767 2767 2767 2744 2744 2744 2744 2744 2744 2744 2744 2744 2744 2744 2767 2767 2767 2767 2744 2723 2723 2723 2723 2723 2723 2723 2723 2744 2723 2723 2723 2723 2723 2744 2744 2744 2744 2744 2744 2744 2744 2723 2723 2723 2744 2744 2744 2744 2744 2744 2744 2744 2723 2723 2723 2723 2723 2723 2723 2723 2723 2723 2723 2723 2744 0 0 0 0 0 0 0 0 0 0
0 0 0 0 0 0 0 0 0 0 0 0 0 0 0 0 0 0 0 0 0 0 0 0 0 0 0 0 0 0 0 0 0 2450 2450 2450 2450 2450 2450 2450 2450 2450 2450 2432 2432 2450 2450 2450 2450 2450 2467 2467 2467 2467 2467 2467 2467 2467 2467 2467 2485 2485 2485 2485 2485 2485 2485 2485 2485 2467 2467 2467 2467 2467 2467 2467 2467 2467 2467 2467 2467 2467 2467 2467 2467 2467 2467 2467 2485 2485 2485 2485 2485 2485 2485 2485 2485 2485 2485 2485 2485 2485 2485 2503 2503 2522 2522 2522 2522 2522 2522 2522 2522 2522 2522 2503 2503 2503 2522 2522 1731 1731 1731 1731 1722 1722 1722 1722 1731 1731 1731 1731 1731 1731 1739 1739 1739 1731 1731 1731 1731 1722 1722 1722 1722 1722 1722 1722 1722 1722 1722 1713 1713 1713 1713 1713 1705 1705 1696 1696 1696 1688 1688 1680 1680 1680 1680 1671 1671 1671 1671 1671 1671 1671 1671 1671 1671 1671 1663 1663 1655 1655 1655 1647 1647 1647 1647 1647 1639 1639 1639 1639 1639 1632 1632 1632 1632 1624 1624 1616 1616 1616 1609 1609 1616 1616 1616 1616 1616 1624 1632 1632 1639 1639 1639 1647 1663 1663 1671 1671 1671 1680 1680 1688 1696 1705 1722 1731 1731 1739 1739 1739 1748 1748 1748 1757 1766 1470 1464 1464 1464 1464 1464 1464 1464 1458 1458 1464 1464 1464 1470 1470 1477 1477 1483 1489 1489 0 0 1609 1609 1609 1616 1616 1624 1632 1632 1632 1624 1624 1624 1624 1624 1624 1624 1624 1632 1632 1632 1632 1632 1632 1632 1632 1639 1639 1639 1632 1632 1639 1639 1639 1639 1639 1639 1639 1639 1639 1639 1639 1639 1639 1639 1639 1639 1632 1632 1632 1632 1632 1632 1632 1632 1639 1359 1359 1359 1354 1354 1354 1349 1349 1349 1349 1349 1349 1349 1349 1349 1349 1349 1343 1338 1333 1333 1328 1328 1322 1322 1317 1317 1317 1312 1312 1312 1312 1312 1312 1317 1322 1322 1322 1328 1328 1655 1655 1655 1655 1655 1655 1655 1655 1655 1655 1655 1655 1655 1655 1663 1663 1663 1663 1663 1663 1663 1663 1655 1655 1655 1655 1655 1655 1655 1655 1655 1655 1655 1655 1663 1663 1663 1663 1663 1663 1663 1663 1663 1663 1671 1671 1680 1680 1680 1688 1688 1696 1696 1804 1804 1823 1823 1823 1823 1823 1813 1804 1804 1804 1794 1794 1804 1804 1794 1794 1794 1794 1794 1794 1794 1794 1785 1785 1785 1785 1785 1785 1776 1776 1766 1766 1766 1766 1766 1766 1349 1349 1349 1349 1349 1349 1349 1349 1343 1343 1343 1343 1343 1343 1343 1343 1343 1343 1343 1343 1343 1343 1343 1343 1338 1338 1338 1338 1338 1338 1338 1338 1338 1338 0 2005 2005 2005 2005 2005 2005 2005 2005 2005 2005 2005 2005 2744 2767 2767 2767 2744 2744 2723 2723 2701 2701 2701 2701 2701 2723 2723 2723 2723 2723 2723 2723 2723 2701 2701 2701 2701 2701 2701 2701 2723 2723 2723 2723 2723 2723 2723 2723 2723 2723 2723 2723 2723 2723 2723 2744 2744 2744 2744 2744 2744 2744 2723 2723 2723 2723 2723 2723 2723 2723 2723 2723 2723 2723 2723 2723 2744 2744 2744 2744 2744 2744 2744 2767 2767 2767 2744 2744 2744 2744 2744 2744 2744 2744 2744 2744 2744 2744 2744 2744 2767 2767 2767 2767 2723 2723 2723 2723 2723 2723 2723 2723 2723 2723 2723 2723 2723 2723 2723 2744 2744 2744 2744 2744 2723 2723 2723 2723 2723 2723 2723 2701 2701 2723 2723 2723 2723 2723 2723 2701 2701 2701 2723 2723 2723 2723 2723 2723 2723 2723 2723 0 0 0 0 0 0 0 0 0 0
0 0 0 0 0 0 0 0 0 0 0 0 0 0 0 0 0 0 0 0 0 0 0 0 0 0 0 0 0 0 0 0 0 2432 2432 2432 2432 2450 2432 2432 2432 2432 2450 2432 2432 2432 2432 2432 2432 2432 2450 2450 2467 2467 2467 2467 2467 2467 2467 2467 2467 2467 2467 2467 2467 2467 2467 2467 2467 2450 2450 2450 2450 2450 2450 2467 2467 2467 2467 2467 2467 2467 2467 2467 2467 2467 2467 2467 2467 2467 2467 2467 2467 2467 2467 2467 2467 2467 2467 2467 2467 2485 2485 2485 2485 2503 2503 2503 2503 2503 2503 2503 2522 2503 2503 2503 2503 2503 2503 2503 1739 1739 1739 1739 1731 1731 1731 1731 1731 1731 1731 1731 1731 1739 1739 1739 1739 1739 1739 1731 1731 1722 1722 1722 1722 1722 1722 1722 1722 1722 1722 1713 1713 1713 1713 1713 1713 1713 1696 1696 1696 1696 1688 1688 1680 1680 1680 1680 1680 1680 1680 1680 1671 1671 1671 1671 1671 1671 1671 1663 1663 1663 1663 1655 1655 1655 1647 1647 1639 1639 1639 1639 1639 1639 1632 1632 1632 1624 1624 1624 1616 1616 1616 1616 1616 1616 1616 1616 1616 1624 1632 1632 1639 1639 1639 1647 1663 1671 1671 1671 1680 1680 1688 1696 1705 1713 1722 1731 1731 1739 1739 1739 1748 1748 1748 1748 1757 1470 1470 1470 1470 1470 1470 1470 1464 1464 1464 1464 1464 1464 1470 1477 1483 1483 1489 1489 1489 1489 1609 1609 1609 1609 1616 1616 1624 1624 1624 1624 1624 1624 1624 1624 1624 1624 1624 1624 1624 1632 1632 1632 1632 1632 1632 1632 1632 1632 1632 1632 1632 1632 1632 1632 1632 1632 1632 1632 1632 1632 1632 1632 1632 1632 1632 1632 1632 1632 1632 1632 1632 1632 1632 1632 1632 1632 1639 1639 1639 1639 1639 1639 1349 1349 1349 1349 1349 1349 1349 1349 1349 1349 1349 1343 1338 1338 1333 1328 1328 1322 1322 1322 1317 1317 1317 1312 1312 1312 1317 1317 1317 1322 1322 1322 1328 1655 1655 1655 1655 1655 1655 1655 1655 1655 1647 1647 1647 1655 1655 1655 1655 1655 1655 1655 1655 1655 1655 1655 1655 1655 1655 1655 1655 1655 1655 1655 1655 1655 1655 1655 1655 1655 1655 1655 1655 1655 1663 1663 1663 1663 1671 1671 1680 1680 1680 1688 1696 1696 1705 1804 1804 1823 1823 1823 1823 1823 1813 1804 1804 1794 1794 1794 1794 1794 1794 1794 1794 1794 1794 1794 1794 1785 1785 1785 1785 1785 1776 1776 1776 1776 1776 1776 1776 1766 1766 1766 1349 1349 1349 1349 1349 1349 1349 1349 1349 1343 1343 1343 1343 1343 1343 1343 1343 1343 1343 1343 1343 1343 1343 1343 1338 1338 1338 1338 1338 1338 1338 1338 1338 1338 0 2005 2005 2005 2005 2005 2005 2005 2005 2005 2005 2005 2005 2701 2744 2744 2744 2744 2744 2701 2701 2701 2701 2701 2701 2701 2701 2701 2701 2701 2723 2723 2701 2701 2701 2701 2701 2701 2701 2701 2701 2723 2723 2723 2723 2723 2723 2723 2723 2723 2701 2701 2723 2723 2723 2723 2723 2723 2744 2744 2744 2744 2723 2723 2723 2723 2723 2723 2723 2723 2723 2723 2723 2723 2723 2723 2723 2723 2723 2723 2723 2723 2744 2744 2744 2744 2744 2744 2744 2744 2723 2723 2723 2723 2723 2723 2723 2723 2723 2744 2744 2744 2744 2744 2744 2723 2701 2701 2701 2701 2701 2723 2723 2723 2723 2723 2723 2723 2723 2723 2723 2723 2723 2723 2723 2723 2701 2701 2701 2701 2701 2680 2680 2680 2701 2701 2701 2701 2723 2723 2701 2701 2701 2701 2680 2680 2680 2680 2680 2680 2680 2680 0 0 0 0 0 0 0 0 0 0
0 0 0 0 0 0 0 0 0 0 0 0 0 0 0 0 0 0 0 0 0 0 0 0 0 0 0 0 0 0 0 0 0 2415 2415 2415 2415 2432 2432 2432 2432 2432 2432 2415 2415 2432 2432 2432 2432 2432 2432 2450 2467 2467 2467 2467 2467 2467 2467 2467 2467 2467 2467 2450 2450 2450 2450 2450 2450 2432 2432 2432 2450 2450 2450 2450 2450 2450 2450 2450 2467 2467 2467 2467 2467 2467 2467 2467 2467 2467 2467 2467 2467 2467 2467 2467 2467 2467 2467 2467 2467 2467 2467 2467 2467 2485 2485 2485 2485 2485 2485 2485 2485 2485 2485 2485 2485 2485 2503 2503 1731 1731 1731 1739 1731 1731 1731 1731 1731 1731 1739 1739 1739 1739 1748 1748 1748 1748 1739 1731 1731 1722 1722 1722 1722 1722 1722 1722 1722 1722 1722 1713 1713 1713 1713 1713 1713 1713 1705 1696 1696 1696 1696 1688 1688 1680 1680 1680 1680 1680 1680 1680 1680 1671 1671 1671 1671 1671 1671 1663 1663 1663 1663 1655 1655 1655 1647 1647 1647 1647 1647 1639 1639 1639 1639 1632 1632 1632 1624 1624 1616 1616 1616 1616 1616 1616 1616 1616 1624 1632 1639 1639 1639 1647 1647 1663 1671 1680 1680 1680 1680 1688 1696 1705 1705 1713 1722 1731 1739 1739 1739 1748 1748 1748 1748 1748 1757 1470 1470 1470 1470 1470 1470 1470 1464 1464 1464 1464 1464 1464 1470 1483 1483 1483 1489 1489 1489 1601 1601 1601 1601 1609 1609 1609 1609 1616 1616 1616 1616 1609 1609 1616 1616 1616 1616 1616 1616 1624 1624 1624 1624 1624 1624 1624 1624 1624 1624 1624 1624 1624 1624 1624 1624 1624 1624 1632 1632 1632 1632 1632 1632 1632 1632 1624 1624 1632 1632 1632 1632 1632 1632 1632 1632 1632 1632 1632 1632 1639 1632 1632 1632 1632 1632 1349 1349 1349 1349 1349 1349 1349 1349 1343 1343 1338 1333 1328 1328 1328 1322 1322 1317 1317 1317 1312 1312 1312 1317 1317 1322 1322 1322 1328 1333 1343 1655 1647 1647 1647 1647 1647 1647 1647 1639 1639 1639 1647 1647 1647 1647 1647 1655 1655 1655 1647 1647 1647 1647 1647 1647 1647 1647 1647 1647 1647 1647 1647 1647 1647 1655 1655 1655 1655 1655 1655 1655 1655 1655 1663 1663 1663 1671 1671 1680 1696 1696 1696 1696 2789 2744 2723 2723 2701 2701 2701 2680 2680 1804 1794 1794 1794 1794 1794 1794 1794 1794 1794 1794 1785 1785 1785 1785 1785 1785 1785 1776 1776 1776 1776 1776 1776 1776 1766 1766 1343 1343 1349 1349 1349 1354 1349 1349 1349 1349 1349 1349 1343 1343 1343 1343 1343 1343 1343 1343 1343 1343 1343 1343 1343 1343 1343 1338 1338 1338 1338 1338 1338 1338 1338 2016 2016 2016 2005 2005 2005 2005 2005 2005 2005 2005 2005 2701 2701 2723 2723 2723 2723 2723 2701 2680 2680 2680 2680 2680 2680 2680 2701 2701 2701 2701 2701 2701 2680 2680 2680 2680 2680 2701 2701 2701 2701 2701 2701 2701 2701 2701 2701 2701 2701 2701 2701 2701 2701 2701 2701 2723 2723 2723 2723 2723 2723 2701 2701 2701 2701 2701 2701 2701 2701 2701 2723 2723 2701 2701 2701 2701 2701 2701 2701 2701 2701 2701 2701 2723 2723 2723 2723 2723 2723 2723 2701 2701 2723 2723 2701 2701 2701 2723 2723 2744 2744 2744 2744 2723 2701 2701 2701 2701 2701 2701 2701 2701 2701 2701 2701 2701 2701 2701 2701 2723 2723 2723 2723 2723 2701 2701 2680 2680 2680 2680 2659 2659 2680 2680 2680 2701 2701 2701 2701 2701 2701 2680 2680 2680 2680 2680 2680 2680 2680 2680 2680 0 0 0 0 0 0 0 0 0 0
0 0 0 0 0 0 0 0 0 0 0 0 0 0 0 0 0 0 0 0 0 0 0 0 0 0 0 0 0 0 0 0 0 2415 2415 2415 2415 2415 2415 2415 2415 2432 2415 2415 2415 2415 2415 2415 2415 2415 2432 2450 2450 2467 2467 2467 2467 2467 2467 2450 2450 2450 2450 2432 2432 2432 2432 2432 2450 2432 2415 2415 2432 2432 2432 2432 2432 2450 2450 2450 2450 2450 2450 2450 2450 2450 2450 2450 2450 2450 2450 2450 2450 2450 2450 2450 2467 2467 2467 2467 2467 2467 2467 2467 2467 2467 2467 2485 2485 2485 2485 2485 2485 2485 2485 2485 2485 2485 2485 2485 1731 1731 1731 1739 1731 1731 1731 1731 1731 1739 1739 1739 1739 1739 1748 1748 1748 1748 1748 1739 1731 1722 1722 1722 1722 1722 1722 1722 1722 1722 1722 1713 1713 1713 1713 1713 1713 1713 1705 1696 1696 1696 1696 1688 1688 1688 1688 1680 1680 1680 1680 1680 1680 1680 1671 1671 1671 1671 1671 1671 1671 1671 1663 1663 1655 1655 1655 1647 1647 1647 1647 1647 1639 1639 1639 1639 1639 1632 1624 1624 1624 1616 1616 1616 1616 1616 1616 1616 1624 1632 1639 1639 1639 1647 1647 1663 1671 1680 1680 1680 1688 1696 1705 1705 1713 1713 1731 1731 1739 1739 1739 1748 1748 1748 1748 1464 1464 1470 1470 1470 1470 1470 1470 1470 1470 1464 1464 1464 1464 1470 1470 1483 1483 1489 1489 1489 1601 1601 1601 1601 1601 1609 1609 1609 1609 1609 1609 1609 1609 1609 1609 1609 1609 1609 1609 1609 1616 1609 1609 1609 1609 1609 1609 1609 1609 1609 1609 1616 1616 1616 1616 1616 1616 1616 1616 1616 1616 1616 1616 1616 1624 1624 1616 1616 1616 1624 1624 1632 1632 1632 1632 1632 1632 1632 1632 1632 1632 1632 1632 1632 1632 1632 1632 1632 1624 1624 1624 1624 1624 1616 1616 1343 1343 1338 1333 1328 1328 1328 1322 1322 1317 1317 1317 1312 1312 1317 1317 1317 1322 1322 1322 1333 1333 1343 1349 1647 1647 1639 1632 1632 1639 1639 1632 1632 1639 1639 1639 1639 1639 1647 1647 1647 1647 1639 1639 1639 1639 1639 1639 1639 1639 1647 1647 1647 1647 1639 1639 1647 1647 1647 1647 1647 1647 1647 1655 1655 1655 1663 1663 1663 1671 1671 1680 1696 1696 1705 1705 2723 2723 2723 2723 2701 2680 2680 2680 2680 2680 2680 1794 1794 1794 1794 1794 1794 1794 1794 1794 1785 1785 1785 1785 1785 1785 1776 1776 1776 1776 1776 1776 1776 1776 1776 1776 1343 1343 1349 1349 1354 1354 1354 1354 1354 1349 1349 1349 1343 1343 1343 1343 1343 1343 1343 1343 1343 1343 1343 1343 1343 1343 1338 1338 1338 1338 1338 1338 1338 1338 1338 2016 2016 2016 2016 2016 2016 2005 2005 2016 2016 2016 2016 2680 2680 2701 2701 2701 2701 2701 2680 2680 2680 2680 2680 2680 2680 2680 2680 2680 2680 2680 2680 2680 2680 2680 2680 2680 2680 2680 2680 2680 2680 2701 2680 2680 2680 2680 2680 2680 2680 2680 2680 2680 2680 2680 2701 2701 2701 2701 2701 2701 2701 2680 2680 2680 2680 2680 2680 2701 2701 2701 2723 2701 2701 2701 2701 2701 2701 2701 2701 2701 2701 2701 2701 2701 2701 2701 2701 2701 2701 2701 2701 2701 2701 2701 2701 2680 2680 2701 2701 2723 2723 2723 2723 2723 2701 2680 2680 2680 2680 2680 2680 2680 2680 2680 2680 2680 2680 2680 2680 2680 2701 2701 2701 2701 2701 2680 2680 2680 2680 2680 2659 2659 2659 2680 2680 2680 2680 2680 2701 2680 2680 2680 2680 2680 2680 2659 2659 2680 2680 2680 2680 0 0 0 0 0 0 0 0 0 0
0 0 0 0 0 0 0 0 0 0 0 0 0 0 0 0 0 0 0 0 0 0 0 0 0 0 0 0 0 0 0 0 0 2415 2415 2415 2415 2415 2415 2415 2415 2415 2415 2415 2415 2415 2415 2415 2415 2415 2415 2432 2432 2450 2450 2450 2450 2450 2450 2432 2432 2432 2432 2432 2432 2415 2415 2432 2432 2415 2415 2415 2432 2432 2432 2432 2432 2432 2450 2450 2450 2450 2450 2450 2450 2450 2450 2450 2450 2450 2450 2450 2450 2450 2450 2450 2450 2467 2450 2450 2450 2467 2467 2467 2467 2467 2467 2467 2467 2467 2485 2467 2467 2467 2467 2467 2467 2467 2467 2467 1731 1731 1731 1739 1739 1731 1731 1731 1739 1739 1739 1739 1739 1748 1748 1748 1748 1748 1748 1739 1739 1722 1722 1722 1722 1722 1722 1722 1722 1722 1722 1713 1713 1713 1713 1713 1713 1705 1705 1696 1696 1696 1696 1688 1688 1688 1688 1680 1680 1680 1680 1680 1680 1680 1680 1680 1671 1671 1671 1671 1671 1671 1663 1663 1663 1663 1655 1655 1647 1647 1647 1647 1647 1647 1639 1639 1639 1639 1632 1632 1624 1616 1616 1616 1616 1616 1624 1624 1632 1632 1639 1639 1639 1647 1647 1663 1671 1680 1680 1680 1688 1696 1705 1705 1713 1713 1731 1731 1739 1739 1739 1748 1748 1748 1748 1464 1464 1470 1470 1470 1470 1470 1470 1470 1470 1464 1464 1464 1464 1470 1470 1483 1489 1489 1489 1489 1594 1594 1594 1601 1601 1601 1601 1601 1601 1601 1601 1601 1601 1601 1601 1601 1609 1609 1609 1609 1609 1609 1609 1601 1601 1609 1609 1609 1609 1609 1609 1609 1609 1609 1609 1609 1609 1616 1616 1616 1616 1616 1616 1616 1616 1616 1616 1609 1609 1616 1616 1616 1616 1616 1616 1616 1616 1616 1616 1616 1624 1624 1624 1624 1624 1624 1624 1624 1624 1616 1616 1616 1624 1616 1609 1609 1609 1609 1333 1328 1328 1328 1322 1322 1322 1322 1317 1317 1317 1317 1317 1317 1322 1322 1328 1333 1333 1343 1349 1632 1632 1624 1624 1624 1632 1632 1632 1632 1632 1632 1639 1639 1639 1639 1639 1639 1639 1639 1632 1632 1632 1639 1639 1639 1639 1639 1639 1639 1639 1639 1639 1639 1639 1639 1639 1647 1647 1647 1647 1647 1655 1655 1663 1663 1671 1671 1680 1696 1705 1722 1722 2723 2723 2723 2723 2723 2680 2680 2680 2659 2659 2659 2639 2639 1794 1794 1794 1794 1794 1794 1794 1794 1794 1785 1785 1785 1785 1776 1776 1776 1776 1776 1776 1776 1776 1776 1776 1349 1349 1354 1354 1354 1354 1354 1354 1354 1349 1349 1349 1349 1343 1343 1343 1343 1343 1343 1343 1343 1343 1343 1343 1343 1343 1338 1338 1338 1338 1338 1338 1338 1338 1338 2005 2005 2016 2016 2016 2016 2016 2016 2016 2016 2016 2680 2680 2680 2680 2680 2680 2680 2701 2680 2680 2680 2680 2680 2680 2680 2680 2680 2680 2680 2680 2680 2680 2680 2680 2680 2680 2680 2680 2680 2680 2680 2680 2680 2680 2680 2680 2680 2680 2680 2680 2680 2680 2680 2680 2680 2680 2680 2680 2680 2680 2680 2680 2680 2680 2680 2680 2680 2680 2701 2701 2701 2701 2701 2701 2701 2701 2701 2701 2701 2701 2701 2680 2680 2680 2680 2680 2680 2680 2701 2701 2680 2680 2680 2680 2680 2680 2680 2701 2701 2723 2723 2723 2723 2723 2680 2680 2680 2680 2680 2680 2680 2680 2680 2680 2680 2680 2680 2680 2680 2680 2680 2680 2701 2680 2680 2680 2659 2659 2680 2680 2659 2659 2659 2659 2659 2659 2659 2659 2680 2659 2659 2680 2680 2680 2659 2659 2659 2659 2659 2659 2659 0 0 0 0 0 0 0 0 0 0
0 0 0 0 0 0 0 0 0 0 0 0 0 0 0 0 0 0 0 0 0 0 0 0 0 0 0 0 0 0 0 0 0 2415 2415 2415 2415 2398 2398 2415 2415 2415 2415 2415 2415 2415 2415 2415 2415 2415 2415 2415 2432 2432 2432 2432 2432 2432 2432 2415 2415 2415 2415 2415 2415 2415 2415 2432 2432 2415 2415 2415 2415 2415 2415 2415 2415 2415 2415 2432 2432 2432 2432 2432 2432 2450 2450 2432 2432 2450 2450 2450 2450 2450 2450 2450 2450 2450 2450 2450 2450 2450 2450 2450 2450 2450 2467 2467 2467 2467 2467 2467 2467 2467 2467 2467 2467 2467 2467 2467 1739 1739 1739 1748 1739 1731 1731 1731 1731 1739 1739 1739 1739 1748 1748 1757 1757 1757 1757 1748 1739 1722 1722 1722 1722 1722 1722 1722 1722 1722 1722 1713 1713 1713 1713 1713 1713 1705 1705 1705 1696 1696 1696 1688 1688 1688 1688 1680 1680 1680 1680 1680 1680 1680 1680 1680 1680 1671 1671 1671 1671 1671 1671 1663 1663 1663 1663 1663 1655 1655 1655 1655 1647 1647 1647 1647 1639 1639 1639 1632 1632 1624 1616 1616 1624 1624 1624 1624 1632 1632 1639 1639 1639 1647 1663 1671 1671 1680 1680 1680 1688 1696 1705 1705 1713 1713 1722 1731 1739 1739 1739 1748 1748 1748 1464 1464 1464 1470 1470 1470 1470 1470 1470 1470 1470 1464 1464 1464 1464 1470 1470 1483 1489 1489 1489 1496 1496 1594 1594 1594 1594 1594 1594 1594 1601 1601 1601 1601 1601 1601 1601 1601 1601 1601 1601 1601 1601 1601 1601 1601 1601 1601 1601 1601 1601 1601 1601 1601 1609 1609 1609 1609 1609 1609 1609 1609 1609 1609 1609 1609 1609 1609 1609 1609 1609 1609 1609 1609 1609 1609 1609 1609 1609 1609 1609 1609 1616 1616 1616 1616 1616 1616 1616 1616 1616 1616 1616 1616 1616 1616 1609 1609 1601 1601 1609 1328 1328 1322 1322 1322 1322 1322 1322 1317 1317 1317 1317 1317 1322 1322 1328 1333 1338 1343 1349 1616 1616 1616 1616 1616 1616 1616 1624 1624 1624 1632 1632 1632 1632 1632 1632 1632 1632 1632 1632 1632 1632 1632 1632 1632 1632 1632 1632 1632 1632 1632 1632 1632 1632 1632 1632 1639 1639 1639 1647 1647 1655 1655 1663 1663 1671 1680 1696 1722 1731 1748 1748 2723 2723 2723 2701 2701 2680 2680 2659 2659 2659 2659 2639 2639 2659 2659 2659 2659 2659 2659 2659 2639 2639 1785 1785 1776 1776 1776 1776 1776 1785 1776 1776 1776 1785 1785 1785 1354 1354 1354 1354 1359 1359 1354 1354 1359 1354 1349 1349 1349 1343 1343 1343 1343 1343 1343 1343 1343 1343 1343 1343 1343 1343 1343 1338 1338 1343 1338 1338 1338 1338 1993 1993 1993 2005 2016 2016 2016 2016 2016 2016 2016 2659 2659 2680 2680 2680 2680 2680 2680 2680 2659 2659 2659 2659 2659 2659 2659 2659 2659 2659 2680 2680 2659 2659 2659 2659 2659 2659 2680 2680 2680 2680 2680 2680 2680 2659 2659 2659 2659 2680 2680 2659 2659 2680 2680 2659 2659 2659 2659 2659 2659 2659 2659 2659 2659 2659 2659 2659 2680 2680 2680 2680 2680 2701 2701 2701 2701 2701 2701 2680 2680 2680 2680 2680 2680 2680 2680 2680 2680 2680 2680 2680 2680 2680 2680 2680 2680 2680 2680 2680 2680 2701 2701 2701 2701 2701 2680 2680 2680 2680 2680 2680 2680 2680 2680 2680 2659 2659 2659 2659 2659 2659 2659 2659 2659 2659 2659 2659 2659 2659 2659 2659 2659 2659 2659 2659 2659 2659 2659 2659 2659 2659 2659 2659 2680 2659 2659 2659 2659 2659 2659 2659 2659 0 0 0 0 0 0 0 0 0 0
0 0 0 0 0 0 0 0 0 0 0 0 0 0 0 0 0 0 0 0 0 0 0 0 0 0 0 0 0 0 0 0 0 2398 2398 2398 2398 2398 2398 2398 2398 2398 2398 2398 2398 2398 2398 2415 2415 2415 2415 2415 2415 2415 2415 2432 2432 2432 2432 2415 2415 2415 2415 2415 2415 2415 2415 2415 2415 2398 2398 2398 2398 2398 2398 2398 2398 2398 2398 2415 2415 2432 2432 2432 2432 2432 2432 2432 2432 2432 2432 2432 2432 2432 2432 2432 2450 2450 2450 2450 2450 2450 2450 2450 2450 2450 2450 2450 2450 2467 2467 2467 2467 2467 2467 2467 2467 2467 2467 2467 1739 1739 1739 1739 1731 1731 1731 1731 1731 1739 1739 1739 1748 1748 1748 1757 1757 1757 1757 1757 1748 1705 1705 1713 1722 1722 1722 1722 1722 1722 1722 1713 1713 1713 1713 1713 1713 1705 1705 1705 1696 1696 1696 1688 1688 1688 1688 1688 1680 1680 1680 1680 1680 1680 1680 1680 1680 1680 1671 1671 1671 1671 1671 1663 1663 1663 1663 1663 1663 1663 1663 1655 1655 1655 1647 1647 1647 1647 1639 1639 1632 1624 1616 1616 1624 1624 1624 1624 1632 1632 1639 1639 1647 1647 1663 1671 1671 1680 1680 1680 1688 1696 1705 1705 1713 1713 1722 1731 1739 1739 1739 1739 2503 1464 1464 1464 1464 1470 1470 1470 1470 1470 1470 1470 1470 1464 1464 1464 1470 1470 1477 1483 1489 1489 1489 1496 1496 1594 1594 1594 1594 1594 1594 1594 1594 1594 1594 1594 1594 1594 1594 1594 1601 1601 1601 1601 1601 1594 1594 1594 1594 1594 1594 1601 1601 1601 1601 1601 1601 1601 1601 1601 1601 1601 1601 1601 1601 1601 1601 1609 1609 1609 1609 1609 1609 1601 1601 1609 1609 1609 1609 1609 1609 1609 1609 1609 1609 1609 1609 1609 1609 1609 1609 1609 1609 1609 1609 1609 1609 1609 1601 1601 1601 1601 1601 1328 1328 1322 1322 1322 1322 1322 1322 1317 1317 1317 1322 1322 1322 1322 1333 1338 1343 1349 1349 1609 1609 1609 1609 1609 1609 1616 1616 1616 1616 1624 1624 1624 1624 1624 1624 1624 1624 1624 1624 1624 1624 1624 1624 1624 1624 1624 1624 1624 1624 1624 1624 1624 1624 1624 1624 1632 1632 1632 1639 1647 1655 1655 1663 1663 1671 1688 1722 1731 1739 1748 1748 2701 2701 2701 2680 2680 2659 2659 2639 2639 2659 2659 2639 2639 2659 2659 2659 2639 2639 2639 2639 2639 2639 2639 2639 1776 1776 1776 1776 1776 1785 1785 1785 1785 1785 1785 1354 1354 1359 1359 1359 1359 1359 1359 1359 1359 1354 1354 1349 1349 1349 1349 1343 1343 1343 1343 1343 1343 1343 1343 1343 1343 1343 1343 1338 1338 1343 1343 1338 1338 1338 1993 1993 1993 2005 2016 2016 2016 2016 2016 2028 2028 2659 2659 2659 2659 2659 2659 2659 2659 2680 2659 2659 2659 2659 2659 2659 2659 2659 2659 2659 2659 2659 2659 2659 2659 2659 2659 2659 2659 2659 2659 2659 2659 2659 2659 2659 2659 2659 2659 2659 2659 2659 2659 2659 2659 2659 2659 2659 2659 2659 2659 2659 2659 2659 2659 2639 2639 2659 2659 2659 2659 2680 2680 2680 2680 2680 2680 2680 2680 2680 2680 2680 2680 2680 2680 2680 2680 2680 2680 2680 2680 2680 2680 2680 2680 2680 2680 2680 2680 2680 2680 2680 2680 2680 2680 2680 2659 2659 2659 2659 2659 2659 2659 2659 2659 2659 2659 2659 2659 2659 2659 2659 2659 2659 2659 2659 2659 2659 2659 2659 2659 2659 2659 2659 2639 2639 2639 2639 2639 2639 2639 2639 2639 2659 2659 2659 2639 2639 2659 2659 2659 2639 2639 0 0 0 0 0 0 0 0 0 0
0 0 0 0 0 0 0 0 0 0 0 0 0 0 0 0 0 0 0 0 0 0 0 0 0 0 0 0 0 0 0 0 0 2398 2398 2398 2398 2381 2381 2381 2381 2398 2398 2398 2398 2398 2398 2398 2398 2398 2398 2415 2415 2415 2415 2415 2415 2415 2415 2415 2415 2415 2415 2415 2415 2415 2415 2415 2415 2398 2398 2398 2398 2398 2398 2398 2398 2398 2398 2398 2415 2415 2415 2415 2415 2415 2415 2415 2415 2415 2415 2432 2432 2432 2432 2432 2432 2450 2450 2450 2450 2450 2450 2450 2450 2450 2450 2450 2450 2450 2450 2450 2450 2450 2450 2450 2450 2450 2450 2450 2450 1739 1739 1739 1731 1731 1731 1731 1731 1739 1739 1739 1748 1748 1748 1757 1757 1757 1757 1757 1757 1705 1705 1713 1722 1722 1722 1722 1722 1722 1722 1722 1722 1713 1713 1713 1713 1705 1705 1705 1696 1696 1696 1696 1688 1688 1688 1688 1688 1680 1680 1680 1680 1680 1680 1680 1680 1680 1671 1671 1671 1671 1671 1671 1671 1671 1671 1671 1663 1663 1663 1663 1663 1655 1655 1655 1655 1647 1647 1639 1632 1624 1616 1616 1624 1624 1624 1624 1632 1632 1639 1639 1647 1663 1671 1671 1671 1680 1680 1680 1688 1696 1705 1705 1713 1713 1713 1731 1739 2503 2503 2503 2503 2503 1470 1470 1470 1470 1470 1477 1477 1477 1470 1470 1470 1464 1464 1464 1470 1470 1477 1483 1489 1489 1496 1496 1496 1586 1586 1586 1586 1586 1586 1586 1586 1586 1586 1586 1594 1594 1594 1594 1594 1594 1586 1586 1594 1586 1586 1586 1594 1594 1594 1594 1594 1601 1601 1601 1601 1601 1601 1601 1601 1601 1601 1601 1601 1601 1601 1601 1601 1601 1601 1601 1601 1601 1601 1601 1601 1601 1601 1601 1601 1601 1601 1601 1609 1601 1601 1601 1601 1601 1601 1601 1601 1601 1601 1601 1601 1601 1594 1594 1594 1594 1601 1601 1328 1322 1322 1322 1322 1322 1322 1322 1322 1322 1322 1322 1328 1333 1338 1343 1343 1349 1354 1601 1601 1601 1609 1609 1609 1609 1609 1609 1609 1616 1616 1616 1616 1616 1624 1624 1624 1624 1624 1616 1616 1616 1616 1616 1616 1616 1616 1616 1616 1616 1616 1616 1616 1616 1616 1624 1624 1624 1639 1647 1655 1663 1671 1671 1688 1713 1722 1731 1739 1757 1757 2639 2639 2639 2639 2639 2639 2639 2639 2639 2639 2659 2639 2639 2659 2659 2659 2639 2639 2639 2639 2639 2618 2618 2639 1776 1776 1776 1785 1785 1785 1785 1785 1785 1785 1785 1354 1354 1359 1359 1359 1359 1359 1359 1359 1359 1354 1354 1354 1354 1349 1349 1349 1349 1349 1343 1343 1343 1343 1343 1343 1343 1343 1343 1343 1343 1343 1343 1338 1338 1338 1338 1970 1970 2005 2016 2016 2016 2016 2016 2028 2040 2659 2659 2659 2659 2659 2659 2659 2659 2659 2639 2639 2639 2639 2639 2639 2639 2639 2639 2639 2639 2659 2639 2639 2659 2659 2639 2639 2659 2659 2659 2659 2659 2659 2639 2639 2639 2639 2639 2639 2639 2639 2659 2659 2659 2659 2659 2659 2659 2639 2639 2639 2639 2639 2639 2639 2639 2639 2659 2659 2659 2659 2659 2680 2680 2680 2680 2680 2680 2680 2659 2659 2659 2659 2659 2659 2659 2659 2659 2659 2659 2659 2659 2659 2659 2680 2680 2680 2680 2680 2680 2680 2680 2680 2680 2680 2659 2659 2659 2659 2659 2659 2659 2659 2659 2659 2659 2659 2659 2639 2639 2639 2639 2639 2639 2639 2639 2639 2639 2639 2639 2639 2639 2639 2639 2639 2639 2639 2618 2618 2639 2639 2639 2639 2639 2639 2639 2639 2639 2639 2639 2639 2639 0 0 0 0 0 0 0 0 0 0
0 0 0 0 0 0 0 0 0 0 0 0 0 0 0 0 0 0 0 0 0 0 0 0 0 0 0 0 0 0 0 0 0 2398 2381 2381 2381 2381 2381 2381 2381 2381 2381 2381 2381 2398 2398 2398 2398 2398 2398 2398 2398 2415 2415 2415 2415 2415 2415 2415 2415 2415 2398 2398 2398 2398 2398 2415 2398 2381 2381 2381 2381 2381 2381 2381 2398 2398 2398 2398 2398 2415 2415 2398 2398 2398 2398 2398 2398 2415 2415 2415 2415 2415 2415 2415 2432 2432 2432 2450 2450 2450 2450 2432 2432 2450 2432 2432 2450 2450 2450 2450 2450 2450 2450 2450 2432 2432 2432 2432 2432 1739 1739 1739 1731 1731 1731 1731 1731 1739 1739 1739 1748 1748 1757 1757 1757 1766 1776 1776 2450 2467 2467 1722 1722 1722 1722 2467 2485 2485 2485 1722 1722 1713 1713 1713 1713 1705 1705 1705 1696 1696 1696 1696 1688 1688 1688 1688 1688 1680 1680 1680 1680 1680 1680 1680 1680 1680 1680 1680 1680 1671 1671 1671 1671 1671 1663 1663 1663 1663 1663 1663 1663 1663 1655 1655 1655 1647 1647 1639 1632 1624 1624 1624 1624 1624 1624 1624 1632 1632 1639 1647 1647 1663 1671 1671 1671 1680 1680 1680 1680 1688 1696 1705 1705 1705 1713 2503 2503 2503 2503 2503 2503 2503 1470 1470 1470 1470 1470 1470 1477 1477 1470 1470 1470 1464 1464 1464 1470 1470 1477 1489 1489 1489 1496 1496 1496 1579 1579 1579 1579 1579 1579 1579 1579 1579 1579 1579 1586 1586 1586 1586 1586 1586 1579 1579 1579 1579 1579 1579 1579 1586 1586 1586 1594 1594 1594 1594 1594 1594 1594 1594 1594 1594 1594 1594 1594 1594 1594 1594 1594 1594 1594 1594 1594 1601 1601 1601 1601 1601 1601 1601 1601 1601 1601 1601 1601 1594 1594 1594 1594 1601 1601 1601 1601 1601 1601 1601 1601 1601 1594 1594 1586 1586 1594 1594 1328 1328 1328 1328 1328 1328 1328 1322 1322 1322 1322 1322 1328 1333 1338 1343 1343 1349 1601 1601 1601 1601 1601 1601 1601 1601 1601 1601 1601 1601 1601 1609 1609 1609 1609 1616 1616 1616 1616 1616 1609 1609 1609 1601 1601 1609 1609 1609 1616 1616 1616 1609 1609 1609 1616 1616 1624 1624 1639 1647 1655 1663 1680 1680 1696 1722 1731 1739 1748 1757 2618 2618 2639 2639 2639 2639 2618 2618 2618 2618 2618 2618 2618 2618 2618 2618 2618 2618 2618 2618 2618 2618 2618 2618 2618 2618 1785 1785 1785 1785 1785 1785 1785 1785 1785 1785 1354 1354 1359 1359 1359 1359 1359 1359 1359 1359 1359 1359 1354 1354 1354 1354 1349 1349 1349 1349 1349 1343 1343 1343 1343 1343 1343 1343 1343 1343 1343 1343 1338 1338 1338 1993 1970 1970 2005 2016 2016 2016 2016 2016 2028 2040 2065 2639 2659 2659 2659 2639 2639 2639 2659 2618 2618 2618 2618 2639 2618 2618 2618 2618 2639 2639 2639 2639 2639 2639 2639 2639 2639 2639 2639 2639 2639 2639 2639 2639 2618 2618 2639 2639 2639 2639 2639 2639 2639 2639 2639 2639 2639 2639 2618 2618 2639 2618 2618 2639 2618 2618 2639 2639 2639 2659 2659 2659 2659 2659 2659 2659 2659 2659 2659 2659 2659 2659 2659 2659 2659 2659 2659 2659 2659 2659 2659 2659 2659 2659 2659 2659 2659 2659 2659 2659 2659 2659 2659 2659 2659 2659 2659 2659 2659 2659 2659 2659 2659 2659 2659 2639 2639 2639 2618 2618 2639 2618 2618 2618 2618 2618 2639 2618 2618 2639 2639 2639 2639 2618 2618 2618 2618 2618 2618 2639 2639 2639 2639 2618 2618 2618 2618 2618 2618 2618 2618 2618 0 0 0 0 0 0 0 0 0 0
0 0 0 0 0 0 0 0 0 0 0 0 0 0 0 0 0 0 0 0 0 0 0 0 0 0 0 0 0 0 0 0 0 2381 2365 2365 2365 2365 2365 2365 2365 2365 2381 2381 2381 2381 2381 2398 2381 2381 2381 2398 2398 2398 2398 2398 2398 2398 2398 2398 2398 2398 2398 2398 2398 2398 2398 2398 2398 2381 2381 2381 2381 2381 2381 2381 2381 2381 2398 2398 2398 2398 2398 2398 2398 2398 2398 2398 2398 2398 2398 2398 2398 2398 2398 2398 2415 2432 2432 2432 2432 2432 2432 2432 2432 2432 2432 2432 2432 2432 2450 2450 2450 2450 2432 2432 2432 2432 2432 2432 1766 1757 1748 1748 1731 1731 1731 1731 1739 1739 1748 1748 1748 1748 1757 1757 1766 1766 1785 1785 2450 2450 2450 2450 2450 2450 2450 2467 2467 2467 2467 2485 2485 2485 2485 2450 2450 2450 2450 2450 2432 1705 1705 1696 1696 1696 1688 1688 1688 1680 1680 1680 1680 1680 1680 1680 1680 1680 1680 1680 1680 1680 1671 1671 1671 1671 1663 1663 1663 1663 1663 1663 1663 1663 1663 1655 1655 1655 1647 1639 1632 1624 1624 1624 1624 1624 1624 1624 1632 1639 1639 1647 1647 1663 1671 1671 1671 1680 1680 1680 1680 1688 1696 1705 1705 1705 2485 2503 2503 2503 2503 2503 2503 2522 2522 1470 1470 1470 1470 1470 1477 1477 1477 1477 1477 1470 1470 1470 1470 1470 1477 1489 1489 1496 1496 1503 1503 1529 1579 1579 1579 1579 1579 1579 1572 1572 1579 1579 1579 1579 1579 1579 1579 1579 1579 1579 1579 1579 1579 1579 1579 1579 1579 1579 1586 1586 1586 1586 1586 1586 1586 1586 1586 1586 1586 1586 1594 1594 1594 1586 1586 1586 1586 1586 1594 1594 1594 1594 1594 1594 1594 1586 1586 1594 1594 1594 1594 1586 1586 1594 1594 1594 1594 1594 1594 1594 1594 1594 1594 1594 1586 1586 1586 1586 1586 1586 1586 1328 1328 1328 1328 1328 1328 1322 1322 1322 1322 1322 1328 1333 1338 1343 1349 1349 1594 1594 1601 1601 1601 1601 1601 1601 1601 1601 1601 1601 1601 1601 1601 1601 1601 1609 1609 1609 1609 1609 1609 1601 1601 1601 1601 1601 1609 1609 1609 1609 1609 1609 1609 1609 1609 1609 1616 1624 1639 1647 1663 1671 1688 1688 1705 1731 1731 1731 1748 1757 2618 2618 2639 2639 2618 2618 2618 2618 2598 2598 2598 2618 2598 2598 2618 2618 2618 2618 2618 2618 2618 2618 2598 2598 2598 2598 1785 1785 1785 1785 1785 1785 1785 1785 1785 1359 1359 1359 1359 1359 1359 1359 1359 1359 1359 1359 1359 1359 1354 1354 1354 1354 1349 1349 1349 1349 1349 1349 1343 1343 1349 1343 1343 1343 1343 1343 1343 1343 1343 1343 1343 1993 1993 2005 2016 2016 2016 2028 2028 2028 2040 2053 2065 2639 2639 2639 2639 2618 2618 2639 2639 2618 2598 2598 2618 2618 2598 2598 2598 2598 2618 2618 2639 2639 2639 2618 2618 2618 2618 2618 2618 2618 2618 2639 2618 2618 2618 2618 2618 2618 2618 2618 2618 2618 2639 2639 2618 2618 2618 2639 2618 2618 2618 2618 2618 2618 2618 2618 2618 2618 2618 2639 2639 2639 2659 2659 2659 2659 2639 2639 2659 2639 2639 2639 2639 2659 2659 2659 2659 2659 2659 2659 2639 2639 2639 2639 2659 2659 2659 2659 2659 2639 2639 2639 2639 2659 2659 2639 2639 2639 2639 2639 2639 2659 2639 2639 2639 2639 2639 2639 2618 2618 2639 2618 2618 2618 2618 2618 2618 2618 2618 2618 2618 2618 2598 2598 2598 2618 2618 2618 2618 2618 2639 2639 2618 2618 2618 2598 2598 2598 2598 2598 2598 2598 0 0 0 0 0 0 0 0 0 0
0 0 0 0 0 0 0 0 0 0 0 0 0 0 0 0 0 0 0 0 0 0 0 0 0 0 0 0 0 0 0 0 0 2381 2365 2365 2365 2365 2349 2349 2349 2349 2365 2349 2349 2349 2365 2365 2365 2365 2381 2381 2381 2381 2381 2381 2381 2381 2381 2381 2398 2398 2381 2381 2398 2398 2381 2381 2398 2381 2381 2381 2381 2381 2381 2381 2381 2381 2381 2381 2398 2398 2398 2381 2381 2398 2398 2398 2398 2398 2398 2398 2398 2398 2398 2398 2398 2398 2415 2415 2415 2415 2415 2415 2415 2415 2415 2415 2432 2432 2432 2432 2432 2432 2432 2432 2415 2398 2398 2398 1766 1757 1757 1748 1739 1739 1739 1739 1739 1739 1748 1748 1748 1757 1757 1757 1766 1766 1785 1785 2450 2450 2450 2450 2450 2450 2450 2467 2467 2467 2467 2467 2467 2467 2467 2450 2450 2450 2450 2450 2432 2432 2432 2432 2432 1696 1688 1688 1688 1680 1680 1680 1680 1680 1680 1680 1680 1680 1680 1680 1680 1680 1680 1671 1671 1671 1671 1671 1671 1663 1663 1663 1663 1663 1663 1655 1655 1647 1647 1639 1632 1624 1624 1624 1624 1624 1624 1632 1632 1639 1639 1647 1647 1663 1671 1671 1671 1680 1680 1680 1680 1688 1688 1696 1705 2485 2485 2503 2503 2503 2503 2503 2503 2503 0 2503 1470 1470 1470 1470 1477 1477 1477 1477 1477 1470 1470 1470 1470 1470 1477 1489 1489 1496 1496 1503 1509 1529 1564 1572 1572 1572 1572 1572 1572 1572 1572 1572 1572 1572 1579 1579 1572 1572 1572 1572 1572 1572 1572 1572 1572 1579 1579 1579 1579 1579 1579 1579 1579 1579 1579 1579 1579 1579 1579 1579 1586 1586 1586 1579 1579 1579 1586 1586 1586 1586 1586 1586 1586 1586 1586 1586 1586 1586 1586 1586 1586 1579 1579 1586 1586 1586 1586 1586 1586 1586 1586 1586 1586 1586 1579 1579 1579 1579 1579 1579 1579 1328 1328 1328 1328 1328 1328 1328 1328 1328 1328 1328 1328 1333 1338 1343 1349 1349 1594 1594 1594 1594 1594 1594 1594 1594 1594 1594 1594 1594 1594 1594 1594 1594 1601 1601 1601 1601 1601 1601 1601 1601 1601 1601 1601 1601 1601 1601 1601 1601 1601 1601 1601 1601 1609 1609 1616 1624 1639 1647 1671 1680 1688 1696 1705 1731 1731 1731 1731 2618 2618 2618 2618 2618 2618 2618 2598 2598 2598 2598 2598 2598 2598 2598 2598 2598 2598 2598 2598 2598 2598 2598 2598 2598 2598 2598 1785 1785 1785 1785 1794 1785 1785 1785 1785 1359 1359 1359 1359 1359 1359 1359 1359 1359 1359 1359 1359 1359 1359 1359 1354 1354 1349 1349 1349 1349 1349 1349 1349 1349 1349 1343 1343 1343 1343 1343 1343 1343 1343 1343 1343 1993 1993 2005 2016 2016 2016 2016 2028 2028 2028 2040 2639 2639 2639 2639 2639 2618 2618 2618 2639 2598 2598 2598 2598 2618 2598 2598 2598 2598 2598 2598 2618 2618 2618 2618 2618 2618 2618 2618 2618 2618 2618 2618 2618 2618 2598 2598 2598 2598 2618 2618 2618 2618 2618 2618 2618 2618 2618 2618 2598 2598 2598 2598 2598 2598 2598 2598 2598 2618 2618 2618 2639 2639 2639 2639 2639 2618 2618 2618 2618 2618 2618 2618 2618 2639 2639 2639 2639 2639 2639 2639 2618 2618 2618 2618 2639 2639 2639 2639 2639 2639 2639 2639 2639 2639 2639 2639 2639 2639 2639 2639 2639 2639 2639 2639 2639 2639 2639 2639 2618 2618 2618 2618 2618 2598 2598 2598 2598 2598 2598 2598 2598 2598 2598 2598 2598 2598 2618 2618 2618 2618 2618 2618 2598 2598 2598 2579 2579 2579 2579 2579 2579 2579 0 0 0 0 0 0 0 0 0 0
0 0 0 0 0 0 0 0 0 0 0 0 0 0 0 0 0 0 0 0 0 0 0 0 0 0 0 0 0 0 0 0 0 2365 2365 2349 2349 2349 2349 2349 2349 2349 2349 2349 2349 2349 2349 2349 2365 2365 2365 2381 2381 2381 2381 2381 2365 2365 2365 2365 2381 2381 2365 2365 2365 2381 2365 2365 2381 2365 2365 2365 2365 2365 2365 2381 2381 2381 2381 2381 2381 2381 2381 2381 2381 2381 2381 2381 2381 2381 2381 2381 2398 2398 2398 2398 2398 2398 2398 2398 2398 2398 2398 2415 2415 2415 2415 2415 2415 2415 2415 2415 2415 2415 2415 2415 2415 2398 2398 2398 1766 1766 1757 1757 1739 1739 1739 1739 1739 1739 1748 1748 1748 1757 1757 1757 1766 1766 1794 1794 2450 2450 2450 2450 2450 2450 2450 2450 2450 2450 2467 2467 2467 2467 2467 2450 2450 2450 2450 2432 2432 2432 2432 2432 2432 2432 2432 2432 2432 1680 1680 1680 1680 1680 1680 1680 1680 1680 1688 1688 1680 1680 1680 1671 1671 1671 1671 1671 1671 1671 1671 1663 1663 1663 1663 1655 1655 1647 1647 1639 1639 1624 1624 1624 1632 1632 1632 1632 1632 1639 1639 1647 1655 1671 1671 1671 1671 1680 1680 1680 1680 1688 1688 1696 1705 2485 2503 2503 2503 2503 2503 2503 2503 2503 2503 0 1470 1470 1470 1470 1477 1477 1477 1477 1477 1470 1470 1470 1470 1477 1477 1489 1489 1496 1496 1503 1509 1529 1557 1557 1557 1564 1564 1564 1564 1564 1572 1572 1572 1572 1572 1572 1572 1572 1572 1572 1572 1572 1572 1572 1572 1572 1572 1572 1572 1572 1572 1572 1572 1572 1572 1572 1572 1572 1572 1572 1572 1579 1572 1572 1572 1572 1579 1579 1579 1579 1579 1579 1579 1579 1579 1579 1579 1579 1579 1579 1579 1579 1579 1579 1579 1579 1579 1579 1586 1586 1579 1579 1579 1579 1572 1572 1572 1572 1572 1572 1572 1328 1328 1328 1328 1333 1328 1328 1328 1328 1328 1328 1333 1338 1338 1343 1349 1349 1594 1594 1594 1594 1586 1586 1594 1594 1586 1586 1586 1586 1586 1586 1586 1586 1594 1594 1594 1594 1594 1594 1594 1594 1594 1594 1594 1594 1601 1601 1601 1601 1601 1601 1601 1601 1609 1609 1616 1624 1647 1663 1680 1688 1696 1705 1713 1731 1731 1731 1731 2618 2618 2618 2618 2598 2598 2598 2579 2579 2579 2579 2598 2598 2598 2598 2598 2598 2598 2598 2598 2598 2598 2598 2598 2598 2598 2598 1794 1785 1785 1785 1794 1785 1785 1785 1785 1359 1359 1359 1359 1359 1359 1359 1359 1359 1359 1359 1359 1359 1359 1359 1359 1359 1354 1354 1354 1354 1354 1354 1349 1349 1354 1349 1349 1349 1343 1343 1343 1343 1343 1343 1343 2005 2005 2005 2016 2016 2016 2016 2028 2028 2028 2028 2028 2598 2598 2598 2598 2598 2598 2598 2618 2598 2598 2598 2598 2598 2598 2598 2579 2579 2579 2579 2598 2598 2598 2598 2598 2598 2598 2598 2618 2598 2598 2598 2598 2598 2598 2598 2598 2598 2598 2598 2598 2598 2618 2618 2618 2618 2618 2618 2598 2598 2598 2598 2598 2598 2598 2598 2598 2618 2618 2618 2618 2618 2618 2618 2618 2618 2598 2598 2618 2618 2618 2598 2598 2618 2639 2639 2639 2639 2639 2618 2618 2618 2618 2618 2618 2618 2618 2618 2618 2618 2618 2618 2618 2639 2639 2618 2618 2618 2618 2618 2618 2618 2618 2618 2618 2618 2618 2598 2598 2598 2598 2598 2598 2598 2598 2598 2598 2598 2598 2598 2598 2598 2598 2598 2598 2598 2598 2598 2598 2598 2598 2598 2579 2579 2579 2579 2579 2579 2579 2579 2579 2579 0 0 0 0 0 0 0 0 0 0
0 0 0 0 0 0 0 0 0 0 0 0 0 0 0 0 0 0 0 0 0 0 0 0 0 0 0 0 0 0 0 0 0 2349 2349 2349 2349 2349 2349 2349 2349 2349 2349 2349 2349 2349 2349 2349 2349 2349 2365 2365 2365 2365 2365 2365 2365 2365 2365 2365 2365 2365 2349 2349 2349 2365 2365 2365 2365 2349 2349 2365 2365 2365 2365 2365 2365 2365 2381 2365 2365 2365 2365 2365 2365 2365 2365 2365 2365 2381 2381 2381 2381 2381 2381 2381 2381 2381 2381 2381 2381 2398 2398 2398 2398 2398 2398 2398 2398 2398 2398 2398 2398 2398 2398 2398 2398 2381 2381 2381 1794 1794 1757 1748 1739 1739 1739 1739 1739 1739 1748 1748 1748 1757 1757 1757 1766 1766 1794 1794 1794 2450 2450 2432 2432 2450 2450 2450 2450 2450 2450 2450 2450 2467 2467 2450 2450 2450 2450 2432 2432 2432 2432 2432 2432 2432 2432 2432 2415 2415 1680 1680 1680 1680 1680 1680 1680 1688 1688 1688 1680 1680 1680 1680 1671 1671 1671 1671 1671 1671 1671 1663 1663 1655 1655 1655 1655 1647 1647 1639 1639 1632 1632 1632 1632 1632 1632 1632 1632 1639 1647 1647 1663 1671 1671 1671 1671 1680 1680 1680 1680 1688 1696 2467 2485 2485 2503 2503 2503 2503 2503 2503 2503 2503 2503 0 1477 1477 1477 1477 1477 1477 1477 1477 1477 1470 1470 1470 1470 1477 1483 1489 1496 1496 1496 1503 1516 1529 1550 1550 1550 1557 1557 1557 1557 1557 1564 1564 1564 1564 1564 1564 1564 1564 1564 1564 1564 1564 1564 1572 1572 1572 1572 1572 1572 1572 1572 1564 1564 1572 1572 1572 1572 1572 1572 1572 1572 1572 1572 1572 1572 1572 1572 1572 1572 1572 1572 1579 1572 1572 1572 1572 1572 1572 1572 1572 1572 1572 1572 1572 1579 1579 1579 1579 1579 1579 1579 1579 1579 1579 1572 1572 1572 1572 1572 1572 1572 1572 1333 1333 1333 1333 1328 1328 1328 1328 1328 1328 1333 1338 1343 1343 1349 1349 1349 1594 1594 1586 1579 1579 1586 1586 1579 1579 1579 1579 1586 1586 1579 1579 1586 1586 1586 1586 1586 1586 1586 1586 1586 1586 1586 1586 1594 1594 1594 1601 1601 1601 1601 1601 1609 1616 1624 1632 1671 1680 1688 1696 1696 1713 1722 1731 1731 1731 1731 2598 2598 2598 2598 2598 2598 2598 2579 2560 2560 2560 2560 2579 2579 2579 2579 2579 2598 2598 2579 2579 2579 2598 2598 2598 2598 1785 1785 1785 1785 1794 1794 1785 1785 1785 1359 1359 1359 1359 1359 1359 1359 1365 1365 1359 1359 1359 1359 1359 1359 1359 1359 1359 1354 1354 1354 1354 1354 1354 1349 1349 1354 1349 1349 1349 1349 1343 1343 1343 1343 1343 1349 2005 2005 2005 2016 2016 2016 2028 2028 2028 2040 2028 2028 2579 2579 2579 2579 2598 2598 2598 2598 2579 2579 2579 2579 2579 2579 2579 2579 2579 2579 2579 2579 2579 2579 2579 2579 2579 2579 2579 2579 2579 2579 2579 2579 2579 2579 2579 2579 2579 2579 2579 2579 2598 2598 2598 2598 2598 2598 2598 2598 2598 2598 2598 2598 2598 2598 2598 2598 2598 2598 2598 2598 2598 2598 2598 2598 2598 2598 2598 2598 2598 2598 2598 2598 2598 2618 2618 2618 2618 2618 2618 2598 2598 2618 2618 2618 2618 2618 2618 2618 2618 2618 2618 2618 2618 2618 2598 2598 2598 2598 2598 2598 2598 2598 2598 2598 2598 2598 2598 2598 2598 2598 2598 2598 2598 2598 2598 2598 2579 2579 2579 2579 2579 2579 2579 2579 2598 2598 2598 2598 2598 2598 2579 2579 2579 2579 2560 2560 2560 2560 2560 2560 2560 0 0 0 0 0 0 0 0 0 0
0 0 0 0 0 0 0 0 0 0 0 0 0 0 0 0 0 0 0 0 0 0 0 0 0 0 0 0 0 0 0 0 0 2333 2333 2333 2333 2333 2333 2333 2333 2333 2333 2333 2333 2349 2349 2349 2349 2349 2349 2349 2349 2349 2349 2349 2349 2349 2349 2349 2349 2349 2349 2349 2349 2349 2365 2365 2365 2349 2349 2349 2349 2349 2349 2365 2365 2365 2365 2365 2365 2365 2365 2365 2365 2365 2365 2365 2365 2365 2365 2365 2381 2381 2381 2381 2381 2381 2381 2381 2381 2381 2381 2381 2381 2398 2398 2398 2398 2398 2398 2398 2398 2381 2381 2381 2398 2381 2381 2381 2381 2381 1757 1748 1739 1739 1739 1739 1739 1748 1748 1748 1748 1757 1757 1757 1766 1776 1794 1794 1813 2432 2432 2432 2432 2432 2432 2450 2450 2450 2450 2450 2450 2450 2450 2432 2432 2432 2432 2432 2432 2432 2432 2432 2432 2432 2432 2432 2415 2415 2415 2415 2415 1688 1688 1680 1680 1688 1688 1688 1688 1680 1680 1671 1671 1671 1663 1663 1671 1663 1663 1663 1655 1655 1655 1647 1647 1647 1647 1639 1639 1632 1632 1632 1632 1632 1632 1639 1639 1639 1647 1647 1655 1663 1671 1671 1671 1680 1680 1680 1680 1688 2467 2467 2467 2485 2503 2503 2503 2503 2503 2503 2503 2503 2503 0 1477 1477 1477 1477 1483 1483 1483 1483 1477 1470 1470 1470 1477 1477 1483 1489 1496 1496 1503 1509 1516 1529 1550 1550 1550 1550 1550 1550 1550 1550 1550 1557 1557 1557 1557 1557 1557 1557 1557 1557 1564 1564 1564 1564 1564 1564 1564 1564 1564 1564 1564 1564 1564 1564 1564 1564 1564 1564 1564 1564 1564 1564 1564 1564 1564 1564 1564 1564 1564 1564 1572 1572 1564 1564 1564 1564 1564 1572 1572 1572 1572 1572 1572 1572 1572 1572 1572 1572 1572 1572 1572 1572 1572 1572 1564 1564 1564 1564 1572 1572 1572 1338 1333 1333 1333 1333 1333 1333 1328 1328 1328 1328 1338 1338 1343 1343 1349 1349 1349 1586 1579 1572 1572 1572 1579 1579 1572 1572 1572 1572 1579 1579 1579 1579 1579 1579 1586 1586 1586 1579 1579 1579 1579 1579 1579 1579 1586 1586 1594 1594 1601 1601 1601 1609 1616 1624 1632 1639 1680 1688 1696 1696 1705 1722 1731 1739 1739 1739 0 2598 2598 2598 2579 2579 2579 2579 2560 2560 2560 2560 2560 2560 2579 2579 2579 2579 2579 2579 2579 2579 2579 2579 2579 2579 2579 2579 1785 1785 1785 1794 1794 1785 1785 1785 1359 1359 1359 1359 1359 1359 1359 1359 1365 1365 1359 1359 1359 1359 1359 1359 1359 1359 1359 1354 1354 1354 1354 1354 1354 1354 1354 1349 1349 1349 1349 1349 1349 1343 1343 1343 1343 2005 2005 2016 2028 2028 2028 2028 2040 2040 2040 2040 2040 2560 2560 2560 2579 2579 2598 2598 2598 2579 2579 2579 2579 2579 2579 2579 2560 2541 2541 2560 2560 2560 2560 2560 2560 2579 2579 2579 2579 2579 2579 2579 2560 2560 2560 2560 2560 2560 2579 2579 2579 2579 2598 2598 2598 2598 2579 2579 2579 2579 2579 2579 2579 2579 2598 2598 2598 2598 2579 2579 2579 2579 2579 2579 2579 2598 2598 2598 2598 2598 2598 2598 2598 2598 2618 2598 2598 2618 2618 2618 2598 2598 2598 2598 2598 2598 2618 2618 2618 2618 2618 2598 2598 2598 2598 2579 2579 2579 2598 2598 2598 2598 2579 2579 2579 2579 2579 2579 2579 2579 2579 2579 2579 2579 2579 2579 2579 2579 2579 2579 2579 2579 2579 2579 2579 2579 2579 2579 2579 2579 2579 2579 2579 2560 2560 2560 2560 2560 2560 2560 2560 2560 0 0 0 0 0 0 0 0 0 0
0 0 0 0 0 0 0 0 0 0 0 0 0 0 0 0 0 0 0 0 0 0 0 0 0 0 0 0 0 0 0 0 0 2333 2333 2333 2333 2333 2333 2333 2333 2333 2333 2333 2333 2333 2333 2333 2333 2333 2349 2333 2333 2349 2349 2349 2349 2349 2349 2349 2349 2349 2333 2333 2333 2349 2349 2349 2365 2349 2349 2349 2349 2349 2349 2349 2349 2349 2349 2349 2349 2349 2349 2365 2349 2349 2349 2365 2365 2365 2365 2365 2365 2365 2381 2381 2381 2381 2381 2381 2381 2381 2381 2381 2381 2381 2381 2381 2381 2381 2381 2381 2381 2381 2381 2381 2381 2398 2381 2381 2381 1757 1757 1748 1748 1748 1748 1748 1748 1748 1748 1748 1748 1757 1757 1757 1766 1776 1785 1794 1813 2398 2398 2415 2415 2415 2432 2432 2432 2432 2450 2450 2450 2450 2450 2432 2432 2432 2432 2432 2432 2415 2415 2415 2415 2432 2432 2432 2432 2415 2415 2415 2415 2415 2415 2415 2415 2398 2398 2398 2398 1680 1680 1671 1671 1671 1663 1663 1671 1663 1663 1655 1655 1655 1655 1647 1647 1647 1647 1639 1639 1632 1632 1632 1632 1639 1639 1639 1639 1639 1647 1647 1655 1663 1671 1671 1671 1680 1680 2450 2450 2450 2450 2450 2467 2467 2467 2485 2485 2485 2485 2485 2503 2503 2503 2450 1477 1477 1477 1477 1483 1483 1483 1483 1483 1470 1470 1477 1477 1483 1483 1489 1496 1503 1503 1516 1523 1529 1543 1543 1543 1550 1550 1550 1543 1543 1550 1550 1550 1550 1550 1550 1550 1550 1550 1550 1550 1550 1550 1557 1557 1557 1557 1557 1557 1557 1557 1557 1557 1557 1557 1557 1557 1557 1557 1557 1557 1557 1557 1557 1557 1557 1557 1557 1564 1564 1564 1557 1557 1557 1557 1557 1564 1564 1564 1564 1564 1564 1564 1564 1564 1564 1564 1572 1572 1572 1572 1572 1572 1572 1557 1557 1557 1557 1572 1572 1572 1338 1338 1338 1338 1338 1338 1333 1333 1333 1333 1333 1338 1343 1343 1343 1349 1349 1354 1579 1572 1572 1572 1572 1572 1572 1572 1572 1572 1572 1572 1572 1572 1572 1579 1579 1579 1579 1579 1572 1572 1572 1572 1572 1572 1579 1579 1586 1586 1594 1594 1601 1609 1609 1624 1632 1639 1647 1680 1696 1696 1705 1713 1731 1739 1748 1748 0 0 2579 2579 2579 2579 2579 2579 2579 2560 2560 2560 2560 2560 2560 2560 2560 2560 2560 2579 2560 2560 2560 2560 2560 2560 2560 2560 2560 2560 1785 1785 1785 1794 1785 1785 1785 1359 1359 1359 1359 1359 1359 1359 1359 1365 1365 1359 1359 1359 1359 1359 1359 1359 1359 1359 1354 1354 1354 1354 1354 1354 1354 1354 1354 1349 1349 1349 1349 1349 1343 1343 1343 1343 2005 2005 2028 2028 2028 2028 2028 2040 2040 2040 2040 2040 2541 2541 2541 2560 2579 2579 2579 2579 2579 2560 2560 2560 2560 2560 2560 2541 2541 2541 2541 2541 2541 2560 2560 2560 2560 2560 2560 2560 2560 2560 2560 2560 2560 2560 2560 2560 2560 2579 2579 2579 2579 2579 2579 2579 2579 2579 2579 2579 2579 2579 2579 2579 2579 2579 2598 2598 2598 2579 2579 2579 2579 2579 2579 2579 2579 2579 2579 2579 2579 2579 2579 2579 2598 2598 2598 2598 2598 2598 2579 2579 2579 2598 2598 2598 2598 2598 2598 2598 2598 2598 2598 2598 2598 2598 2579 2579 2579 2579 2579 2579 2579 2579 2579 2579 2579 2579 2579 2579 2579 2579 2579 2579 2579 2579 2579 2579 2560 2560 2560 2560 2560 2560 2560 2560 2579 2579 2579 2579 2579 2579 2560 2560 2560 2560 2560 2560 2560 2560 2560 2560 2560 0 0 0 0 0 0 0 0 0 0
0 0 0 0 0 0 0 0 0 0 0 0 0 0 0 0 0 0 0 0 0 0 0 0 0 0 0 0 0 0 0 0 0 2301 2301 2317 2317 2317 2317 2317 2317 2333 2333 2333 2333 2333 2333 2333 2333 2333 2333 2333 2333 2333 2333 2333 2333 2333 2333 2333 2333 2333 2333 2333 2333 2349 2349 2349 2349 2333 2333 2349 2349 2333 2333 2333 2333 2333 2349 2333 2333 2349 2349 2349 2349 2349 2349 2349 2349 2365 2365 2365 2365 2365 2365 2365 2381 2365 2365 2365 2381 2381 2381 2381 2381 2381 2381 2365 2365 2365 2365 2365 2365 2365 2365 2365 2381 2381 2381 2381 2381 1757 1748 1748 1748 1748 1748 1748 1748 1748 1748 1748 1748 1757 1757 1757 1766 1776 1785 1794 2381 2381 2381 2398 2398 2415 2415 2432 2432 2432 2432 2432 2450 2450 2450 2432 2432 2415 2415 2415 2415 2415 2415 2415 2415 2415 2415 2415 2415 2415 2415 2398 2398 2398 2398 2398 2398 2398 2398 2398 2381 2381 2381 1671 1671 1671 1663 1663 1671 1663 1663 1655 1655 1647 1647 1647 1647 1647 1647 1639 1639 1639 1639 1639 1639 1639 1639 1639 1639 1639 1647 1647 1655 1663 1671 1671 1680 1680 1680 2450 2450 2450 2450 2450 2450 2467 2467 2467 2467 2467 2467 2485 2467 2450 2450 2450 0 1477 1477 1483 1483 1489 1489 1489 1489 1477 1477 1483 1483 1483 1489 1496 1496 1503 1509 1516 1523 1529 1543 1543 1543 1543 1543 1543 1543 1543 1543 1543 1550 1550 1550 1550 1550 1550 1550 1550 1550 1550 1550 1550 1550 1550 1550 1557 1557 1557 1557 1550 1550 1550 1550 1550 1550 1550 1550 1550 1550 1550 1550 1550 1557 1557 1557 1557 1557 1557 1557 1557 1557 1557 1557 1557 1557 1557 1557 1557 1564 1557 1557 1557 1557 1557 1557 1557 1557 1564 1564 1564 1564 1564 1557 1557 1557 1557 1557 1572 1572 1338 1338 1338 1338 1338 1338 1333 1333 1333 1333 1333 1338 1343 1343 1343 1349 1349 1354 1572 1564 1564 1564 1564 1564 1564 1572 1572 1572 1572 1572 1572 1572 1572 1572 1572 1572 1572 1572 1572 1572 1572 1572 1572 1572 1572 1579 1579 1586 1586 1594 1601 1609 1609 1624 1639 1647 1671 1688 1705 1713 1713 1722 1731 1739 1748 1748 1757 0 2560 2560 2560 2560 2560 2560 2560 2541 2541 2541 2541 2541 2541 2541 2541 2560 2560 2560 2560 2541 2541 2560 2541 2541 2560 2560 2560 2560 1785 1785 1785 1794 1785 1785 1785 1359 1359 1365 1365 1365 1365 1365 1365 1365 1365 1359 1359 1359 1359 1359 1359 1359 1359 1359 1359 1359 1359 1359 1354 1354 1354 1354 1354 1349 1349 1349 1349 1349 1349 1343 1343 1343 2005 2005 2028 2040 2040 2040 2040 2040 2040 2040 2040 2040 2541 2541 2541 2541 2560 2560 2560 2560 2560 2541 2541 2541 2541 2541 2541 2541 2541 2541 2541 2541 2541 2541 2541 2541 2560 2560 2560 2541 2541 2541 2541 2541 2541 2541 2541 2560 2560 2560 2560 2579 2579 2579 2579 2579 2579 2560 2560 2579 2579 2579 2579 2579 2579 2579 2579 2579 2579 2579 2579 2579 2579 2560 2560 2560 2579 2579 2579 2579 2560 2560 2579 2579 2579 2579 2579 2579 2579 2579 2579 2579 2579 2579 2560 2560 2579 2579 2579 2579 2579 2579 2579 2579 2579 2579 2579 2560 2560 2560 2560 2560 2579 2560 2560 2579 2579 2579 2579 2579 2579 2579 2579 2579 2579 2560 2560 2560 2560 2560 2560 2560 2560 2560 2560 2560 2560 2560 2560 2560 2560 2560 2560 2541 2541 2541 2541 2541 2541 2560 2560 2541 2541 0 0 0 0 0 0 0 0 0 0
0 0 0 0 0 0 0 0 0 0 0 0 0 0 0 0 0 0 0 0 0 0 0 0 0 0 0 0 0 0 0 0 0 2301 2301 2301 2301 2301 2301 2317 2317 2317 2317 2317 2333 2333 2333 2333 2333 2333 2333 2317 2317 2317 2317 2333 2333 2333 2333 2333 2333 2333 2333 2333 2333 2333 2349 2349 2349 2333 2333 2333 2333 2333 2317 2317 2333 2333 2333 2333 2333 2333 2333 2349 2333 2333 2333 2333 2333 2349 2349 2349 2349 2349 2349 2349 2365 2365 2365 2365 2365 2381 2365 2365 2365 2365 2365 2349 2349 2349 2349 2349 2349 2365 2365 2365 2365 2381 2381 2381 2381 1748 1748 1748 1748 1748 1748 1748 1748 1748 1748 1748 1748 1757 1757 1757 1766 1785 1794 1794 2365 2365 2381 2381 2398 2398 2398 2415 2415 2415 2432 2432 2432 2432 2432 2415 2415 2415 2398 2398 2398 2398 2398 2398 2398 2415 2415 2415 2415 2415 2415 2398 2381 2381 2381 2381 2398 2398 2398 2398 2381 2381 2103 2103 2116 1671 1671 1671 1671 1671 1671 1663 1655 1647 1647 1647 1647 1647 1647 1639 1639 1639 1639 1639 1639 1639 1639 1639 1639 1647 1647 1647 1655 1663 1663 1671 1671 1680 1680 2450 2450 2450 2450 2450 2450 2450 2450 2467 2467 2450 2450 2450 2450 2432 2432 2432 0 1489 1489 1489 1489 1489 1496 1496 1489 1483 1483 1483 1489 1489 1489 1496 1496 1503 1509 1516 1523 1529 1536 1543 1543 1543 1536 1536 1536 1536 1536 1543 1543 1543 1543 1543 1543 1543 1543 1543 1543 1543 1543 1550 1550 1550 1550 1550 1550 1550 1550 1550 1550 1550 1550 1550 1550 1550 1550 1550 1550 1550 1550 1550 1550 1550 1550 1550 1550 1550 1550 1550 1550 1550 1550 1550 1550 1550 1550 1557 1550 1550 1550 1550 1550 1550 1550 1550 1550 1557 1557 1557 1557 1557 1550 1550 1550 1550 1550 1550 1333 1333 1338 1338 1338 1338 1338 1338 1333 1333 1333 1333 1338 1343 1349 1349 1354 1354 1365 1564 1557 1557 1557 1564 1564 1564 1564 1564 1564 1564 1564 1564 1564 1564 1572 1572 1572 1564 1564 1564 1564 1564 1564 1564 1564 1564 1572 1572 1579 1586 1586 1601 1609 1616 1632 1647 1663 1680 1688 1705 1713 1722 1731 1739 1739 1748 1757 1757 2485 2560 2560 2560 2541 2541 2541 2560 2541 2541 2541 2541 2541 2541 2541 2541 2541 2541 2541 2541 2541 2541 2541 2541 2541 2541 2541 2560 2560 1785 1785 1785 1794 1785 1785 1785 1365 1365 1365 1365 1365 1365 1365 1365 1365 1365 1365 1365 1365 1359 1359 1359 1359 1359 1359 1359 1359 1359 1359 1354 1354 1354 1354 1354 1349 1349 1349 1349 1349 1349 1349 1349 1349 2005 2005 2028 2040 2040 2040 2040 2040 2040 2040 2040 2053 2522 2541 2541 2541 2560 2560 2560 2560 2560 2541 2522 2522 2522 2522 2541 2522 2522 2522 2541 2541 2541 2541 2541 2541 2541 2541 2541 2541 2522 2522 2541 2541 2541 2541 2541 2560 2560 2560 2560 2560 2560 2560 2560 2560 2560 2560 2560 2560 2560 2560 2579 2579 2579 2579 2579 2579 2579 2579 2579 2579 2560 2560 2560 2560 2560 2560 2560 2560 2560 2560 2560 2560 2560 2560 2560 2560 2579 2579 2579 2560 2560 2560 2560 2560 2560 2560 2579 2579 2579 2579 2579 2579 2579 2579 2579 2560 2560 2560 2560 2560 2560 2560 2560 2560 2560 2560 2560 2560 2560 2560 2560 2541 2541 2522 2522 2522 2522 2522 2541 2541 2541 2560 2541 2541 2560 2560 2560 2560 2560 2560 2541 2541 2541 2541 2541 2541 2541 2541 2560 2541 2541 0 0 0 0 0 0 0 0 0 0
0 0 0 0 0 0 0 0 0 0 0 0 0 0 0 0 0 0 0 0 0 0 0 0 0 0 0 0 0 0 0 0 0 2301 2301 2301 2301 2301 2301 2301 2317 2317 2317 2317 2333 2333 2333 2317 2317 2317 2317 2317 2301 2301 2301 2301 2301 2317 2317 2317 2317 2317 2333 2333 2333 2333 2349 2349 2349 2333 2333 2317 2317 2317 2317 2317 2317 2317 2333 2333 2333 2333 2333 2333 2333 2333 2333 2333 2333 2333 2333 2333 2333 2333 2349 2349 2349 2349 2349 2349 2365 2365 2349 2349 2349 2349 2349 2349 2349 2349 2349 2349 2349 2349 2349 2349 2365 2365 2381 2381 2381 1748 1748 1748 1748 1748 1748 1748 1748 1748 1748 1748 1748 1757 1757 1757 1766 1776 1785 1794 2365 2365 2381 2381 2381 2398 2398 2415 2415 2415 2415 2415 2415 2415 2415 2415 2398 2398 2398 2381 2381 2381 2381 2381 2381 2398 2398 2398 2398 2398 2398 2381 2381 2381 2381 2381 2381 2381 2381 2381 2381 2090 2090 2103 2103 2116 2129 2129 2129 2129 2143 2143 2143 2156 1655 1647 1647 1647 1639 1639 1639 1639 1639 1639 1639 1639 1639 1639 1639 1647 1647 1647 1655 1663 1663 1671 1671 1680 2432 2432 2432 2432 2432 2432 2450 2450 2450 2450 2450 2450 2450 2432 2432 2415 2415 2415 0 1496 1496 1496 1496 1496 1496 1496 1496 1483 1483 1489 1489 1489 1489 1496 1496 1503 1509 1509 1516 1529 1536 1536 1536 1536 1536 1536 1536 1536 1536 1536 1543 1543 1543 1543 1543 1536 1536 1536 1536 1543 1543 1543 1543 1543 1543 1543 1543 1543 1543 1543 1543 1543 1543 1543 1543 1543 1543 1543 1543 1543 1543 1543 1543 1543 1543 1543 1543 1543 1550 1550 1550 1550 1550 1550 1550 1550 1550 1550 1550 1550 1550 1550 1543 1543 1543 1550 1550 1550 1550 1550 1550 1550 1543 1543 1543 1543 1543 1543 1333 1333 1338 1338 1338 1338 1338 1338 1333 1333 1333 1338 1343 1343 1349 1349 1354 1359 1365 1557 1550 1550 1550 1557 1557 1557 1557 1557 1557 1557 1564 1564 1564 1564 1564 1564 1564 1564 1564 1564 1564 1564 1564 1564 1564 1564 1564 1572 1572 1579 1586 1601 1609 1624 1632 1647 1671 1688 1705 1713 1722 1731 1731 1739 1748 1748 1757 1757 2485 2485 2485 2541 2541 2541 2541 2560 2541 2541 2541 2541 2541 2541 2541 2541 2541 2541 2541 2522 2522 2541 2541 2541 2541 2541 2541 2560 2560 1785 1785 1785 1794 1794 1794 1794 1365 1365 1365 1365 1365 1365 1365 1365 1365 1365 1365 1365 1365 1359 1359 1359 1359 1359 1359 1359 1359 1359 1359 1359 1354 1354 1354 1354 1349 1349 1349 1349 1354 1349 1349 1349 2016 2016 2016 2040 2040 2040 2040 2040 2040 2040 2040 2040 2053 2522 2522 2541 2541 2541 2541 2541 2541 2541 2522 2522 2522 2522 2522 2522 2522 2522 2522 2522 2522 2522 2522 2522 2522 2522 2522 2522 2522 2522 2522 2522 2522 2522 2522 2541 2541 2541 2541 2541 2541 2541 2560 2541 2541 2541 2541 2541 2560 2560 2560 2560 2560 2560 2579 2579 2579 2560 2560 2560 2560 2541 2541 2541 2541 2560 2560 2541 2541 2541 2541 2541 2560 2560 2560 2560 2560 2560 2560 2560 2541 2541 2541 2541 2541 2541 2541 2560 2560 2560 2579 2579 2560 2560 2579 2579 2541 2541 2541 2541 2560 2560 2541 2541 2541 2541 2541 2541 2541 2541 2541 2541 2541 2541 2522 2522 2522 2522 2522 2522 2522 2522 2541 2522 2522 2541 2541 2522 2522 2522 2522 2522 2522 2522 2522 2522 2522 2541 2541 2541 2522 2522 0 0 0 0 0 0 0 0 0 0
