2.9701 2.9701 2.9701 3.1276 3.0978 3.1126 3.1126 3.1276 3.1427 3.1581 3.1581 3.1735 3.1735 3.1735 3.2369 3.2531 3.2695 3.286 3.286 3.286 3.3028 3.3028 3.3028 3.3028 3.286 3.3028 3.3028 3.354 3.354 3.3367 3.354 3.3714 3.389 3.389 3.389 3.389 3.389 3.4069 3.443 3.443 3.4069 3.4069 3.4249 3.4069 3.4069 3.4069 3.48 3.4987 3.5562 3.6771 3.7407 3.7625 3.8066 3.8066 3.8291 3.8519 3.8291 3.8291 3.8066 3.8066 3.8066 3.8066 3.8066 3.7844 3.7844 3.7625 3.8291 3.8066 3.7844 3.7625 3.7194 3.7407 3.7407 3.7407 3.7625 3.7407 3.7625 3.7407 3.7407 3.8066 3.8749 3.8981 3.9216 3.9455 3.9696 4.0693 4.121 4.201 4.201 4.201 4.2561 4.2561 4.2561 4.2843 4.3128 4.4005 4.461 0 0 1.9226 1.9399 1.9458 1.9575 1.9516 1.9516 1.9516 1.9458 1.9284 1.9226 1.917 1.9114 1.9114 1.9058 1.9001 1.8891 1.8836 1.8781 1.8836 1.8836 1.8836 1.8836 1.8727 1.8727 1.8674 1.862 1.8514 1.8514 1.8409 1.8356 1.8305 1.8305 1.8356 1.8409 1.8461 1.8514 1.862 1.8674 1.8727 1.8727 1.8727 1.8674 1.8674 1.862 1.8566 1.8514 1.8514 1.8461 1.8409 1.8461 1.8409 1.8356 1.8356 1.8356 1.8305 1.8253 1.8202 1.8202 1.81 1.8 1.8 1.805 1.8 1.8 1.8 1.805 1.805 1.81 1.8202 1.8305 1.8305 1.8356 1.8461 1.8514 1.8566 1.8674 1.8674 1.862 1.8566 1.8461 1.8514 1.8566 1.862 1.8566 1.8461 1.8356 1.8461 1.8674 1.8891 0 0 0 0 0 0 0 0 0 0 1.742 1.7466 1.7561 1.7609 1.7657 1.7609 1.7514 1.7466 1.7466 1.7561 1.7466 1.7466 1.7466 1.7466 1.7514 1.7514 1.7561 1.7657 1.7705 1.7609 1.7609 1.7561 1.7561 1.7561 0 0 0 1.5286 1.5321 1.5431 1.5505 1.5617 1.5617 1.5655 1.5808 1.5808 1.5769 1.5769 1.5808 1.5769 1.573 1.5769 1.5808 1.5808 1.5808 1.5924 1.5962 1.6041 1.6201 1.6201 1.6121 1.6081 1.5846 1.5769 1.5655 1.5395 1.5321 1.5286 1.5179 1.5214 1.525 1.5143 1.5108 1.5108 1.5179 1.5143 1.49 1.4797 1.4631 1.4598 1.4532 1.4404 1.434 1.4435 1.4435 1.4307 1.4245 0 0 0 0 0 0 0 2.3218 2.364 2.3814 2.4079 2.4535 2.426 2.4079 2.4535 2.4442 2.426 2.435 2.3902 0 0 0 1.5769 1.5769 1.5617 1.5542 1.5468 1.5395 1.5395 1.5395 1.5431 1.5505 1.5542 1.5505 1.5617 0 0 0 0 0 2.3727 2.364 2.364 2.347 2.347 2.3555 2.3727 2.399 2.426 2.4721 2.4911 2.5008 2.5201 2.53 2.5104 2.4911 2.4816 2.4721 2.4628 2.4535 2.4169 2.4079 2.3555 2.3555 2.3555 2.364 2.399 2.399 2.3902 2.3727 2.3902 2.426 2.4442 2.4442 2.4628 2.4442 2.435 2.4535 2.435 2.4169 2.4079 2.399 2.3727 2.3814 2.347
2.9431 2.9566 2.9838 3.0685 3.054 3.083 3.083 3.0978 3.1427 3.1427 3.1581 3.1735 3.1891 3.1735 3.2369 3.2531 3.3028 3.3028 3.286 3.3028 3.3196 3.3196 3.3196 3.3196 3.3367 3.3367 3.3714 3.3714 3.3714 3.389 3.389 3.4069 3.389 3.4069 3.4069 3.4069 3.4069 3.4249 3.4614 3.48 3.4249 3.4249 3.443 3.4249 3.4069 3.4069 3.4614 3.48 3.5176 3.6157 3.6981 3.7407 3.7844 3.8066 3.8519 3.8519 3.8291 3.8066 3.8066 3.8066 3.8066 3.8066 3.7844 3.7844 3.7844 3.7844 3.8291 3.8291 3.7625 3.7625 3.6981 3.7194 3.7407 3.7407 3.7625 3.7407 3.7194 3.7194 3.7194 3.7625 3.8066 3.8519 3.9216 3.9216 3.9455 4.0189 4.0693 4.1472 4.174 4.201 4.2561 4.2561 4.2561 4.2843 4.3415 4.4005 4.461 0 0 1.9226 1.9284 1.9341 1.9458 1.9458 1.9458 1.9458 1.9341 1.9226 1.917 1.9114 1.9114 1.9114 1.9058 1.9001 1.8891 1.8836 1.8836 1.8781 1.8781 1.8836 1.8781 1.8674 1.862 1.8566 1.8566 1.8514 1.8461 1.8409 1.8409 1.8253 1.8305 1.8305 1.8356 1.8409 1.8461 1.8566 1.862 1.862 1.8674 1.8674 1.862 1.862 1.8566 1.8514 1.8514 1.8514 1.8461 1.8356 1.8356 1.8356 1.8305 1.8305 1.8305 1.8253 1.8151 1.8151 1.8151 1.805 1.8 1.795 1.8 1.795 1.795 1.8 1.8 1.805 1.805 1.8151 1.8305 1.8305 1.8305 1.8356 1.8409 1.8461 1.862 1.8566 1.8514 1.8461 1.8409 1.8461 1.8514 1.862 1.862 1.8514 1.8305 1.8461 1.8674 1.8891 0 0 0 0 0 0 0 0 0 0 1.7281 1.7328 1.7374 1.7466 1.7657 1.7561 1.7466 1.742 1.7466 1.742 1.7374 1.7328 1.7328 1.7328 1.7328 1.7281 1.7281 1.7328 1.742 1.7466 1.7466 1.7514 1.7466 1.7561 1.742 1.742 1.742 1.5321 1.5321 1.5431 1.5542 1.5655 1.5655 1.5693 1.5769 1.5769 1.573 1.5693 1.573 1.5693 1.5693 1.5693 1.573 1.5769 1.5808 1.5924 1.5962 1.6041 1.6121 1.6161 1.6121 1.6121 1.5846 1.5769 1.5655 1.5395 1.5286 1.525 1.5143 1.5108 1.5143 1.5072 1.5072 1.5072 1.5072 1.5072 1.4865 1.4697 1.4598 1.45 1.45 1.4245 1.4276 1.434 1.4404 1.4214 1.4245 1.473 1.5037 0 0 1.7281 1.7281 1.79 1.7803 1.7754 1.8 1.81 1.81 2.3814 2.3814 2.4535 2.426 2.426 2.399 2.3902 0 0 0 1.5617 1.5655 1.5617 1.5542 1.5505 1.5431 1.5431 1.5431 1.5468 1.5505 1.5542 1.5542 1.5617 0 0 0 0 0 2.3727 2.3727 2.3555 2.3301 2.3301 2.3385 2.3555 2.3902 2.4169 2.4628 2.4721 2.4911 2.5104 2.5008 2.5008 2.4911 2.4721 2.4535 2.4628 2.4442 2.399 2.3814 2.3301 2.347 2.3555 2.3727 2.3902 2.399 2.3814 2.3814 2.3902 2.4169 2.435 2.4442 2.4442 2.426 2.4169 2.435 2.426 2.4169 2.4079 2.3902 2.3555 2.3555 2.3555
2.9701 3.0115 3.0398 3.083 3.0685 3.1126 3.1276 3.1276 3.1581 3.1735 3.1735 3.1891 3.1891 3.2049 3.2207 3.2369 3.3028 3.3196 3.3196 3.3196 3.3367 3.3196 3.354 3.389 3.4069 3.4069 3.4249 3.443 3.443 3.4614 3.4614 3.48 3.4614 3.443 3.4249 3.443 3.443 3.443 3.4614 3.48 3.4249 3.4069 3.4249 3.4069 3.4069 3.4069 3.443 3.4614 3.48 3.6157 3.6771 3.7407 3.8066 3.8291 3.8519 3.8291 3.8291 3.8066 3.8066 3.8066 3.8066 3.8066 3.8291 3.8066 3.8291 3.8519 3.8981 3.8749 3.8519 3.8291 3.7844 3.7625 3.7625 3.7625 3.7407 3.7407 3.7194 3.7194 3.6981 3.7625 3.7844 3.8291 3.8981 3.9216 3.9216 4.0189 4.0439 4.121 4.174 4.174 4.2284 4.2561 4.2843 4.3128 4.4005 4.4919 0 0 0 1.9226 1.9284 1.9341 1.9399 1.9399 1.9458 1.9341 1.9284 1.9226 1.9114 1.9058 1.9114 1.9058 1.9058 1.9058 1.9001 1.8891 1.8891 1.8836 1.8836 1.8836 1.8781 1.8727 1.8674 1.8566 1.8514 1.8514 1.8514 1.8409 1.8409 1.8305 1.8305 1.8356 1.8356 1.8356 1.8409 1.8566 1.8566 1.862 1.8674 1.8727 1.8674 1.862 1.862 1.8514 1.8514 1.8514 1.8461 1.8409 1.8356 1.8356 1.8305 1.8305 1.8305 1.8356 1.8202 1.8202 1.8151 1.81 1.8 1.8 1.805 1.805 1.8 1.805 1.805 1.8151 1.81 1.8202 1.8253 1.8305 1.8253 1.8305 1.8356 1.8356 1.8566 1.8514 1.8409 1.8409 1.8356 1.8409 1.8514 1.8566 1.8781 1.8836 1.8409 1.8356 1.8891 1.8946 0 0 0 0 0 0 0 0 0 0 1.7281 1.7281 1.7281 1.7281 1.7657 1.7609 1.7514 1.7466 1.742 1.742 1.7374 1.7328 1.7328 1.7281 1.7189 1.7144 1.7189 1.7281 1.7328 1.7374 1.7466 1.7466 1.7514 1.7514 1.7466 1.742 1.742 1.5395 1.5357 1.5693 1.573 1.5769 1.573 1.573 1.5769 1.5769 1.5693 1.5693 1.5693 1.5655 1.5655 1.5655 1.573 1.573 1.5769 1.5962 1.5962 1.6081 1.6081 1.6161 1.6242 1.6242 1.5808 1.5808 1.5808 1.5357 1.5286 1.5214 1.5143 1.5108 1.5108 1.5037 1.5037 1.5037 1.5072 1.5072 1.4831 1.49 1.4934 1.5003 1.5037 1.4934 1.4865 1.5037 1.4969 1.4969 1.4764 1.4831 1.5037 0 0 1.7281 1.7514 1.7851 1.7803 1.7851 1.8 1.805 1.81 0 0 0 0 0 0 0 0 0 0 1.5617 1.5617 1.558 1.5542 1.5505 1.5468 1.5542 1.5542 1.558 1.558 1.5617 1.5617 1.5655 0 0 0 0 0 0 0 2.364 2.3135 2.3301 2.3385 2.3555 2.4079 2.4169 2.4535 2.4721 2.4816 2.5104 2.5008 2.5008 2.4911 2.4442 2.435 2.4628 2.4169 2.4169 2.364 2.3218 2.3385 2.3555 2.3814 2.399 2.3902 2.3814 2.3814 2.3814 2.4169 2.426 2.435 2.426 2.4079 2.399 2.426 2.4169 2.4079 2.399 2.3814 2.347 2.3385 2.347
2.9701 3.0115 3.054 3.0685 3.0685 3.1126 3.1276 3.1427 3.1581 3.1735 3.1891 3.2049 3.2049 3.2049 3.2207 3.2369 3.3028 3.3196 3.3196 3.3196 3.3367 3.3196 3.354 3.389 3.4069 3.4069 3.4249 3.443 3.4614 3.4614 3.4614 3.4987 3.48 3.4614 3.48 3.48 3.4987 3.4987 3.4987 3.5176 3.4614 3.443 3.443 3.4249 3.4249 3.4069 3.443 3.4614 3.4987 3.5956 3.6771 3.7407 3.7844 3.8291 3.8519 3.8291 3.8291 3.8066 3.7844 3.7844 3.8066 3.8066 3.8066 3.8066 3.8291 3.8291 3.8981 3.8749 3.8291 3.8519 3.7844 3.7844 3.7625 3.7625 3.7625 3.7625 3.7407 3.7407 3.7407 3.7625 3.8066 3.8519 3.8981 3.9216 3.9455 3.9941 4.0693 4.121 4.1472 4.1472 4.2284 4.2284 4.2561 4.3128 4.4005 4.4005 0 0 0 1.9114 1.9284 1.9341 1.9399 1.9341 1.9399 1.9341 1.9284 1.917 1.9114 1.9058 1.9058 1.9058 1.9058 1.8946 1.8946 1.8891 1.8836 1.8836 1.8836 1.8781 1.8727 1.8674 1.8674 1.8566 1.8566 1.8461 1.8514 1.8409 1.8409 1.8305 1.8356 1.8356 1.8356 1.8461 1.8461 1.8514 1.8566 1.862 1.8674 1.8727 1.8674 1.862 1.8566 1.8514 1.8514 1.8514 1.8409 1.8356 1.8356 1.8409 1.8356 1.8356 1.8356 1.8356 1.8253 1.8202 1.8253 1.81 1.805 1.805 1.81 1.81 1.8 1.805 1.81 1.8151 1.8151 1.8151 1.8253 1.8253 1.8253 1.8253 1.8253 1.8356 1.8409 1.8409 1.8356 1.8409 1.8356 1.8356 1.8409 1.8514 1.8566 1.8674 1.8 1.795 1.8305 1.8253 0 0 0 0 0 0 0 0 0 0 1.742 1.7328 1.7374 1.7374 1.7657 1.7609 1.7466 1.742 1.742 1.742 1.7328 1.7235 1.7235 1.7189 1.7144 1.7099 1.7099 1.7189 1.7281 1.7328 1.742 1.7466 1.7466 1.7514 1.742 1.7374 1.7281 1.6616 1.5924 1.5769 1.5808 1.5808 1.573 1.5769 1.573 1.573 1.5655 1.5617 1.5617 1.5617 1.558 1.5655 1.5693 1.573 1.5769 1.5962 1.6041 1.6081 1.6081 1.6201 1.6284 1.6284 1.5962 1.5924 1.5885 1.4934 1.5143 1.5108 1.5003 1.5003 1.5037 1.5003 1.5003 1.5003 1.5037 1.5003 1.4865 1.49 1.4934 1.5037 1.5143 1.5072 1.5037 1.5037 1.5617 1.5617 1.473 1.4831 1.5003 0 0 1.7281 1.7466 1.79 1.7851 1.7851 1.8 1.805 1.7561 1.7561 1.7561 1.7514 1.7561 1.649 1.6533 1.649 1.6041 1.6081 1.6002 1.5769 1.5655 1.5655 1.558 1.5542 1.5542 1.558 1.5617 1.5617 1.5617 1.5617 1.5617 1.5655 1.5769 1.573 1.5808 1.5769 1.573 1.5962 1.5924 0 2.3555 2.347 2.3555 2.3727 2.426 2.426 2.4628 2.4816 2.4911 2.5104 2.5008 2.4628 2.3902 2.2415 2.2415 2.2492 2.2035 2.2035 2.2492 2.2971 2.3135 2.3301 2.347 2.3902 2.3814 2.3727 2.3727 2.3902 2.4079 2.426 2.426 2.4169 2.3902 2.3814 2.399 2.3902 2.3814 2.3727 2.3555 2.3301 2.3135 2.3301
2.9838 3.0255 3.054 3.0978 3.083 3.1126 3.1427 3.1581 3.1891 3.2049 3.2207 3.2207 3.2369 3.2369 3.2369 3.2531 3.3028 3.3196 3.3028 3.3028 3.3196 3.3196 3.3367 3.389 3.389 3.4069 3.4069 3.443 3.4614 3.48 3.48 3.4987 3.5176 3.4987 3.5176 3.5369 3.5562 3.5562 3.5562 3.5759 3.48 3.48 3.4987 3.4987 3.48 3.4614 3.48 3.4987 3.5562 3.6157 3.6565 3.6981 3.7625 3.7625 3.7844 3.7407 3.7407 3.7194 3.6981 3.6981 3.7407 3.7625 3.7407 3.7407 3.7625 3.7844 3.8749 3.8519 3.8291 3.8519 3.8066 3.8291 3.8066 3.8291 3.8066 3.7844 3.7844 3.7844 3.7844 3.8291 3.8519 3.8749 3.9216 3.9216 3.9696 4.0189 4.0693 4.121 4.121 4.121 4.201 4.201 4.201 4.2284 4.2843 4.4305 0 0 0 1.9114 1.9114 1.9226 1.9341 1.9284 1.9284 1.9341 1.9284 1.9058 1.9058 1.9058 1.9058 1.9001 1.9001 1.8891 1.8836 1.8781 1.8781 1.8781 1.8727 1.8727 1.862 1.862 1.862 1.8566 1.8566 1.8461 1.8514 1.8409 1.8356 1.8356 1.8356 1.8409 1.8409 1.8514 1.8514 1.862 1.8566 1.8566 1.8674 1.8674 1.8674 1.8566 1.8566 1.8461 1.8409 1.8461 1.8409 1.8409 1.8409 1.8409 1.8409 1.8356 1.8461 1.8409 1.8409 1.8305 1.8356 1.8202 1.8151 1.81 1.8151 1.81 1.805 1.81 1.81 1.8151 1.8202 1.8202 1.8253 1.8253 1.8202 1.8202 1.8202 1.8253 1.8253 1.8253 1.8202 1.8305 1.8253 1.8253 1.8202 1.8253 1.8409 1.8461 1.81 1.795 1.8305 1.8253 0 0 0 0 0 0 0 0 0 0 1.742 1.742 1.7466 1.7514 1.7561 1.742 1.7328 1.7328 1.7328 1.7281 1.7235 1.7099 1.7099 1.7054 1.7009 1.6965 1.6965 1.6965 1.7054 1.7054 1.7189 1.7235 1.7235 1.7189 1.7144 1.7281 1.7281 1.6616 1.5924 1.5885 1.5846 1.5808 1.5693 1.5655 1.558 1.5542 1.5468 1.5468 1.5468 1.5468 1.5505 1.5542 1.5617 1.5655 1.573 1.5924 1.6002 1.6041 1.6041 1.6121 1.6284 1.6284 1.6201 1.6081 1.6002 1.4934 1.4934 1.5003 1.49 1.4865 1.49 1.49 1.4934 1.4934 1.4969 1.49 1.4831 1.49 1.4934 1.5003 1.5286 1.525 1.5179 1.5037 1.5617 1.5617 1.473 1.4764 1.5003 0 0 1.7281 1.7561 1.79 1.7851 1.79 1.79 1.795 1.7657 1.7561 1.7514 1.7374 1.7374 1.649 1.6533 1.6449 1.6121 1.6041 1.6002 1.5846 1.5769 1.5693 1.5617 1.558 1.558 1.558 1.5617 1.5617 1.5655 1.5617 1.5617 1.5617 1.5693 1.573 1.5769 1.5808 1.5808 1.5885 1.5962 0 2.3555 2.364 2.3902 2.399 2.4535 2.4442 2.4442 2.5008 2.4911 2.53 2.4816 2.3902 2.3902 2.2415 2.2415 2.2492 2.2035 2.2035 2.2492 2.2035 2.265 2.3053 2.3053 2.3727 2.3727 2.364 2.3727 2.3814 2.3902 2.426 2.4079 2.3814 2.347 2.3301 2.347 2.3555 2.3385 2.3301 2.3218 2.289 2.273 2.289
2.9976 3.0255 3.054 3.0978 3.083 3.1126 3.1427 3.1581 3.1891 3.2049 3.2207 3.2369 3.2369 3.2369 3.2531 3.2531 3.3028 3.3196 3.3028 3.3028 3.3028 3.3028 3.354 3.389 3.389 3.389 3.389 3.443 3.4614 3.4614 3.48 3.5176 3.4987 3.4987 3.4987 3.5369 3.5562 3.5562 3.5759 3.5759 3.48 3.4614 3.4987 3.5369 3.5176 3.4987 3.5176 3.5562 3.5759 3.6157 3.636 3.6771 3.7194 3.7407 3.7194 3.6981 3.6771 3.6771 3.6771 3.6565 3.6981 3.7407 3.6981 3.6981 3.7194 3.7407 3.8291 3.8291 3.8519 3.8519 3.8291 3.8291 3.8291 3.8291 3.8291 3.8291 3.7844 3.8291 3.8291 3.8291 3.8519 3.8749 3.9216 3.9455 3.9696 4.0439 4.0693 4.095 4.121 4.1472 4.174 4.174 4.174 4.201 4.2561 4.2561 0 0 0 1.9001 1.9114 1.917 1.9226 1.9226 1.9226 1.9284 1.9226 1.9058 1.9001 1.9001 1.9001 1.9001 1.8946 1.8891 1.8836 1.8781 1.8781 1.8781 1.8781 1.8674 1.8566 1.8566 1.8566 1.8566 1.8514 1.8461 1.8461 1.8409 1.8356 1.8356 1.8409 1.8409 1.8461 1.8514 1.8514 1.8566 1.8566 1.862 1.862 1.8674 1.8674 1.862 1.8566 1.8461 1.8409 1.8409 1.8409 1.8461 1.8461 1.8461 1.8461 1.8461 1.8461 1.8461 1.8409 1.8409 1.8409 1.8202 1.8151 1.8151 1.8151 1.81 1.805 1.805 1.8151 1.8151 1.8202 1.8202 1.8202 1.8253 1.8253 1.8253 1.8202 1.8253 1.8202 1.8202 1.8202 1.8253 1.8202 1.8151 1.81 1.8202 1.8409 1.8514 1.81 1.4969 1.5003 1.4969 1.5003 1.5003 1.5037 0 0 0 0 0 0 0 0 0 1.6745 1.6745 1.7514 1.7328 1.7235 1.7281 1.7281 1.7189 1.7099 1.7054 1.7054 1.7009 1.692 1.6876 1.6789 1.6832 1.6876 1.692 1.7009 1.7054 1.7009 1.7009 1.692 1.6575 1.6533 1.6365 1.5846 1.5808 1.5808 1.573 1.5617 1.5542 1.5505 1.5468 1.5357 1.5357 1.5357 1.5357 1.5468 1.5468 1.558 1.5617 1.573 1.5885 1.6002 1.6002 1.6041 1.6041 1.6201 1.6242 1.6121 1.6081 1.6041 1.5542 1.5542 1.4969 1.49 1.4865 1.49 1.4865 1.4865 1.49 1.4934 1.49 1.4797 1.4865 1.49 1.5003 1.5214 1.5214 1.5179 1.5505 1.5693 1.573 1.5924 1.5885 0 1.7561 1.7561 1.7374 1.7561 1.79 1.7851 1.7803 1.79 1.79 1.7657 1.7514 1.7466 1.7235 1.7189 1.6575 1.649 1.6406 1.6121 1.6041 1.6002 1.5808 1.573 1.573 1.5617 1.558 1.558 1.558 1.558 1.5617 1.5617 1.5617 1.558 1.5617 1.5655 1.5693 1.5808 1.5808 1.5808 1.5808 1.5769 1.5808 1.5846 1.5846 1.5885 1.6745 1.6789 1.6575 1.6575 1.6575 1.6406 1.6406 1.6449 2.0966 2.0966 2.0121 2.0184 2.1171 2.1311 2.1241 2.1666 2.1595 2.1452 2.1381 2.031 2.0374 2.031 1.9516 1.9516 1.795 1.795 1.795 2.4079 2.3727 2.3218 2.2971 2.3218 2.347 2.3385 2.3135 2.3135 2.289 2.2571 2.281
2.9976 3.0255 3.0255 3.0255 3.0115 3.0398 3.0685 3.083 3.1427 3.1735 3.1735 3.2049 3.2207 3.2369 3.2531 3.2531 3.3028 3.3196 3.286 3.3028 3.3028 3.3028 3.3367 3.354 3.3714 3.3714 3.3714 3.3714 3.389 3.389 3.389 3.4069 3.4069 3.4249 3.4249 3.48 3.4987 3.5176 3.5369 3.5759 3.443 3.4614 3.48 3.5369 3.5176 3.4987 3.5176 3.5369 3.5562 3.6157 3.6565 3.6771 3.6981 3.7194 3.6771 3.6771 3.6565 3.6565 3.636 3.6565 3.6565 3.6981 3.6565 3.6565 3.6771 3.7194 3.8291 3.8291 3.8291 3.8519 3.8291 3.8519 3.8291 3.8519 3.8519 3.8519 3.8291 3.8291 3.8519 3.8519 3.8749 3.8749 3.9216 3.9455 3.9696 4.0189 4.0693 4.0693 4.095 4.121 4.174 4.174 4.1472 4.174 4.2284 4.2561 0 0 0 1.9001 1.9058 1.917 1.9284 1.9226 1.9226 1.917 1.917 1.8946 1.8946 1.8946 1.8946 1.9001 1.8946 1.8836 1.8836 1.8727 1.8727 1.8781 1.8727 1.8674 1.8566 1.8566 1.862 1.862 1.8566 1.8461 1.8514 1.8461 1.8356 1.8356 1.8461 1.8461 1.8514 1.8514 1.8566 1.8566 1.862 1.8566 1.8674 1.8674 1.862 1.8566 1.8514 1.8409 1.8409 1.8409 1.8356 1.8409 1.8409 1.8409 1.8409 1.8409 1.8461 1.8461 1.8461 1.8409 1.8409 1.8253 1.8151 1.8151 1.8151 1.81 1.805 1.805 1.8151 1.8151 1.8151 1.8151 1.8202 1.8151 1.8151 1.81 1.81 1.81 1.805 1.8 1.8 1.8253 1.8151 1.8 1.79 1.805 1.8151 1.8151 1.4831 1.473 1.4797 1.4764 1.4764 1.4697 1.4664 1.5072 0 0 0 0 0 0 0 0 1.6745 1.6745 1.7514 1.7281 1.7144 1.7189 1.7189 1.7099 1.7009 1.6876 1.6832 1.6832 1.6703 1.666 1.6616 1.6616 1.6703 1.666 1.6745 1.6789 1.6789 1.6745 1.6745 1.6616 1.6533 1.6324 1.6002 1.5846 1.5808 1.5693 1.5542 1.5468 1.5431 1.5395 1.5357 1.5321 1.5321 1.5321 1.5431 1.5468 1.5542 1.5617 1.5693 1.5885 1.5962 1.5962 1.6002 1.6002 1.6161 1.6201 1.6161 1.6121 1.6121 1.5542 1.5542 1.4969 1.4865 1.4831 1.49 1.49 1.4865 1.49 1.4934 1.4865 1.4831 1.49 1.4934 1.5003 1.5143 1.5214 1.5214 1.5468 1.5542 1.5769 1.5846 1.5885 1.5962 1.6832 1.7099 1.7235 1.7466 1.7705 1.7705 1.7657 1.7754 1.7705 1.7466 1.7374 1.7328 1.7054 1.6965 1.6081 1.6161 1.6201 1.6002 1.5962 1.5846 1.573 1.5693 1.5655 1.558 1.5505 1.5505 1.5505 1.5542 1.558 1.5617 1.5617 1.5542 1.5542 1.558 1.558 1.5617 1.5655 1.5693 1.573 1.5693 1.5769 1.5808 1.5808 1.5846 1.6616 1.6533 1.6449 1.6449 1.649 1.649 1.6449 1.6449 1.6703 1.6703 1.9284 1.9341 2.0568 2.0765 2.0899 2.1103 2.1171 2.1241 2.1311 2.031 2.0184 2.0059 1.8836 1.8836 1.7189 1.742 1.7561 1.6449 1.649 1.6533 1.6533 1.6575 1.6616 2.3135 2.3053 2.3053 1.6406 1.6406 2.2571
3.0398 3.054 3.0255 3.0115 3.0255 3.0255 3.054 3.083 3.1276 3.1581 3.1735 3.1891 3.2207 3.2531 3.2369 3.2531 3.286 3.3196 3.286 3.286 3.3028 3.3028 3.354 3.354 3.354 3.3714 3.354 3.3714 3.354 3.3714 3.3714 3.389 3.389 3.4069 3.4249 3.4614 3.4987 3.4987 3.5369 3.5562 3.4614 3.443 3.48 3.5176 3.5369 3.4987 3.4987 3.5176 3.5369 3.5956 3.6565 3.6565 3.6771 3.6981 3.6771 3.636 3.6565 3.6565 3.636 3.6565 3.6771 3.6981 3.6771 3.6771 3.6981 3.7194 3.8519 3.8291 3.8519 3.8749 3.8519 3.8749 3.8981 3.8749 3.8749 3.8519 3.8981 3.8981 3.8981 3.8749 3.8749 3.9216 3.9696 3.9696 3.9941 4.0693 4.0693 4.0693 4.0693 4.121 4.1472 4.174 4.1472 4.174 4.2561 4.3708 0 0 0 1.9058 1.917 1.9226 1.9284 1.9226 1.917 1.917 1.9114 1.8891 1.8891 1.8946 1.8946 1.8946 1.8946 1.8781 1.8781 1.8727 1.8727 1.8727 1.8727 1.8727 1.8566 1.8566 1.862 1.862 1.8674 1.862 1.8674 1.862 1.8461 1.8409 1.8514 1.8514 1.8514 1.8514 1.8566 1.8566 1.862 1.862 1.8674 1.8727 1.8674 1.862 1.8514 1.8409 1.8356 1.8356 1.8356 1.8409 1.8356 1.8356 1.8356 1.8409 1.8461 1.8461 1.8461 1.8409 1.8356 1.8253 1.8202 1.8151 1.8151 1.8151 1.805 1.81 1.8151 1.8151 1.8151 1.8151 1.8151 1.8151 1.81 1.805 1.8 1.795 1.81 1.79 1.79 1.8305 1.805 1.79 1.79 1.8253 1.8202 1.805 1.4831 1.4831 1.4764 1.4797 1.4764 1.4764 1.4865 1.5072 0 0 0 0 0 0 0 0 1.6745 1.6745 1.7514 1.7054 1.7099 1.7144 1.7099 1.7009 1.6876 1.6789 1.6745 1.6703 1.6616 1.6533 1.649 1.6533 1.6616 1.666 1.6616 1.666 1.666 1.666 1.6616 1.6575 1.6533 1.6324 1.5962 1.5924 1.5924 1.5769 1.5655 1.5468 1.5431 1.5431 1.5321 1.5321 1.5321 1.5357 1.5395 1.5431 1.5542 1.558 1.5655 1.5846 1.5924 1.5924 1.5924 1.5962 1.6121 1.6161 1.6161 1.6161 1.6201 1.6201 0 1.5962 1.5962 0 1.4934 1.49 1.4934 1.4934 1.4934 1.49 1.49 1.4934 1.5003 1.5037 1.5179 1.5214 1.525 1.5431 1.5542 1.5808 1.5885 1.5924 1.5962 1.6832 1.6876 1.7281 1.7235 1.7705 1.7609 1.7609 1.7609 1.7609 1.7374 1.7281 1.7235 1.7009 1.692 1.6081 1.6081 1.6081 1.5962 1.5885 1.5808 1.5693 1.5693 1.5693 1.558 1.5542 1.5542 1.5505 1.5542 1.558 1.558 1.558 1.5542 1.5542 1.5542 1.5542 1.558 1.558 1.5655 1.5617 1.5655 1.573 1.5808 1.5808 1.5846 1.666 1.649 1.6365 1.649 1.6533 1.6533 1.6533 1.6533 1.6616 1.6703 1.9284 1.9341 2.0439 2.0634 2.0765 2.0899 2.0966 2.1103 2.1311 2.031 2.0246 1.9997 1.8836 1.8836 1.7235 1.7189 1.7561 1.6449 1.6533 1.6533 1.6533 1.6575 1.6616 0 0 0 1.6406 1.6406 2.3814
3.083 3.0685 3.054 3.0398 3.0255 3.0398 3.054 3.083 3.1276 3.1581 3.1735 3.1891 3.2207 3.2369 3.2369 3.2369 3.3028 3.3196 3.286 3.286 3.286 3.3028 3.3367 3.354 3.354 3.3714 3.354 3.354 3.354 3.354 3.3714 3.389 3.389 3.389 3.4069 3.443 3.4614 3.48 3.5176 3.5562 3.443 3.4249 3.48 3.4987 3.5176 3.4987 3.48 3.4614 3.48 3.5562 3.5956 3.636 3.636 3.6771 3.636 3.636 3.6565 3.6771 3.6771 3.6565 3.7194 3.7407 3.6981 3.6981 3.7407 3.7625 3.8291 3.8291 3.8749 3.8749 3.8749 3.8749 3.8981 3.8981 3.8981 3.8749 3.8981 3.9216 3.8981 3.8981 3.8981 3.9216 3.9941 3.9941 4.0189 4.0693 4.0693 4.095 4.095 4.095 4.174 4.1472 4.1472 4.201 4.2843 4.3708 0 0 0 1.9341 1.9284 1.9284 1.9226 1.917 1.9058 1.9058 1.9058 1.8836 1.8836 1.8891 1.8891 1.8946 1.8891 1.8781 1.8727 1.8727 1.8727 1.8727 1.8674 1.862 1.8566 1.8566 1.8674 1.8674 1.8674 1.862 1.8674 1.8674 1.8514 1.8461 1.8514 1.8566 1.8514 1.8566 1.8566 1.862 1.8566 1.8566 1.8727 1.8727 1.8727 1.862 1.8514 1.8356 1.8305 1.8305 1.8305 1.8305 1.8356 1.8305 1.8356 1.8356 1.8409 1.8409 1.8409 1.8356 1.8356 1.8202 1.8202 1.8151 1.8151 1.8151 1.8151 1.8151 1.8202 1.8202 1.8151 1.8151 1.81 1.81 1.81 1.795 1.79 1.7803 1.7657 1.6616 1.6616 1.666 1.49 1.49 1.49 1.4969 1.5003 1.5108 1.4934 1.4865 1.4797 1.4797 1.49 1.4934 1.4969 1.5108 1.5108 1.5072 1.5108 1.5072 1.5108 1.5072 1.5108 1.6201 0 0 0 1.692 1.7009 1.7099 1.6965 1.6876 1.6789 1.6703 1.666 1.6575 1.649 1.6449 1.6406 1.6406 1.649 1.6575 1.6616 1.6533 1.649 1.6533 1.6533 1.649 1.6575 1.6365 1.6041 1.5924 1.5924 1.5808 1.573 1.5542 1.5468 1.5468 1.5357 1.5357 1.5321 1.5321 1.5431 1.5431 1.5505 1.5542 1.5617 1.5808 1.5885 1.5885 1.5885 1.5924 1.6041 1.6081 1.6041 1.6081 1.6161 1.6161 0 0 0 0 1.4969 1.4934 1.4934 1.4934 1.49 1.4865 1.49 1.5003 1.5037 1.5037 1.5214 1.525 1.525 1.5431 1.5505 1.5808 1.5962 1.5846 1.573 1.5769 1.573 1.5846 1.7705 1.7657 1.7609 1.7514 1.7514 1.7466 1.7328 1.7235 1.7144 1.7009 1.6876 1.5962 1.6002 1.6002 1.5924 1.5808 1.573 1.5655 1.5655 1.5655 1.558 1.558 1.558 1.558 1.558 1.5617 1.558 1.558 1.5505 1.5542 1.5505 1.5542 1.5505 1.5542 1.5542 1.5542 1.5542 1.573 1.5885 1.6002 1.6449 1.6533 1.6449 1.6365 1.6449 1.649 1.649 1.6449 1.6449 1.649 1.5846 1.5846 2.0374 2.0503 2.0503 2.0568 2.0765 2.0765 2.1035 2.1171 2.0184 2.0121 1.8836 1.8 1.8 1.666 1.6703 1.7054 1.6703 1.6533 1.6533 1.6533 1.6575 1.6575 0 0 1.6201 1.5769 1.5769 1.6121
3.1126 3.0978 3.083 3.0685 3.054 3.054 3.054 3.083 3.1427 3.1581 3.1735 3.2049 3.2207 3.2369 3.2369 3.2531 3.286 3.3196 3.286 3.286 3.286 3.3028 3.3367 3.3367 3.3367 3.3367 3.3196 3.3367 3.354 3.354 3.3714 3.3714 3.3714 3.3714 3.3714 3.4069 3.4249 3.4249 3.443 3.4614 3.389 3.3714 3.3714 3.4069 3.4249 3.4249 3.4069 3.389 3.4069 3.48 3.5369 3.5369 3.5562 3.6157 3.5956 3.5562 3.6157 3.6771 3.6981 3.6771 3.7194 3.7625 3.7407 3.7407 3.7625 3.7844 3.8291 3.8519 3.8749 3.8981 3.8749 3.8749 3.8981 3.8981 3.8981 3.8749 3.8981 3.9216 3.8981 3.8981 3.8981 3.9216 3.9941 4.0189 4.0189 4.0693 4.095 4.095 4.095 4.121 4.174 4.174 4.174 4.2284 4.2843 4.3128 0 0 2.0121 1.9399 1.9399 1.9341 1.917 1.9114 1.9001 1.9001 1.8946 1.8836 1.8836 1.8836 1.8836 1.8781 1.8781 1.8727 1.8674 1.862 1.862 1.862 1.8566 1.8566 1.8514 1.8461 1.862 1.8674 1.8674 1.8674 1.8727 1.8674 1.8566 1.8514 1.8514 1.8514 1.8514 1.8514 1.8514 1.862 1.8566 1.862 1.8674 1.8727 1.8727 1.862 1.8461 1.8305 1.8253 1.8202 1.8202 1.8202 1.8253 1.8253 1.8253 1.8253 1.8253 1.8305 1.8305 1.8305 1.8305 1.8202 1.8202 1.8151 1.8202 1.8202 1.8202 1.8253 1.8202 1.8202 1.8151 1.8151 1.805 1.8 1.8 1.4934 1.4969 1.5003 1.4934 1.49 1.49 1.49 1.4697 1.4697 1.473 1.473 1.4764 1.4865 1.4831 1.4764 1.473 1.4797 1.4934 1.5003 1.5037 1.5108 1.5037 1.5037 1.5003 1.4969 1.4969 1.4865 1.5003 1.5037 1.49 1.4865 1.4831 1.4404 1.4371 1.4435 1.4598 1.4532 1.4565 1.4565 1.4565 1.4631 1.4664 1.4697 1.6121 1.6284 1.6324 1.5143 1.5143 1.4969 1.5003 1.5072 1.6449 1.6449 1.6365 1.6284 1.5924 1.5808 1.5885 1.5846 1.5769 1.558 1.5505 1.5431 1.5321 1.5286 1.5286 1.5286 1.5357 1.5395 1.5431 1.5468 1.5542 1.5693 1.573 1.5693 1.5693 1.5693 1.5846 1.5846 1.5769 1.5808 1.5846 1.5769 0 0 0 0 1.4934 1.4934 1.4934 1.49 1.4865 1.4865 1.49 1.4969 1.5003 1.5037 1.5143 1.5179 1.5214 1.5179 1.5655 1.5617 1.6081 1.525 1.5431 1.5505 1.4697 1.4697 1.5037 1.5037 1.7374 1.742 1.742 1.7374 1.7189 1.7099 1.7009 1.6745 1.6533 1.5962 1.5962 1.5924 1.5846 1.5769 1.5655 1.5655 1.5655 1.5655 1.5617 1.5617 1.558 1.5617 1.558 1.5617 1.5617 1.5542 1.5505 1.5505 1.5505 1.5431 1.5431 1.5431 1.5468 1.5468 1.5468 1.5617 1.5808 1.5962 1.649 1.649 1.6406 1.6365 1.6406 1.6406 1.6406 1.6365 1.6324 1.6242 1.6002 1.5846 1.5924 1.5885 2.0439 2.0439 2.0439 2.0503 2.0568 2.0634 1.9516 1.9575 1.8836 1.6533 1.5846 1.5885 1.5885 1.5885 1.6406 1.6449 1.6406 1.6406 1.6449 1.6365 1.6324 1.6284 1.6201 1.5769 1.5962 1.6041
3.1735 3.1581 3.1276 3.1126 3.1126 3.1126 3.1276 3.1276 3.1735 3.1891 3.1891 3.2369 3.2531 3.2695 3.2695 3.2695 3.3028 3.3196 3.3028 3.3196 3.3196 3.3028 3.354 3.3367 3.3367 3.3367 3.3196 3.3367 3.354 3.354 3.354 3.354 3.3714 3.354 3.354 3.389 3.4069 3.389 3.4069 3.4249 3.354 3.3367 3.354 3.3714 3.4069 3.389 3.389 3.389 3.4069 3.48 3.5176 3.5369 3.5562 3.5956 3.5956 3.5759 3.6157 3.6981 3.7194 3.6981 3.7625 3.7844 3.7625 3.7407 3.7844 3.8291 3.8519 3.8519 3.8981 3.8981 3.8981 3.8749 3.8981 3.9216 3.8749 3.8519 3.9216 3.9455 3.8981 3.8981 3.8749 3.9216 3.9696 3.9941 4.0189 4.095 4.121 4.121 4.121 4.174 4.2284 4.2561 4.2561 4.2843 4.2561 4.3128 0 0 2.0121 1.9814 1.9634 1.9458 1.9284 1.917 1.9058 1.8946 1.8946 1.8781 1.8781 1.8836 1.8781 1.8781 1.8727 1.8674 1.8674 1.862 1.8566 1.8514 1.8566 1.8514 1.8461 1.8514 1.8674 1.8674 1.8674 1.8727 1.8781 1.8674 1.8566 1.8514 1.8514 1.8514 1.8514 1.8566 1.8566 1.8674 1.8727 1.862 1.8674 1.8781 1.8727 1.862 1.8461 1.8253 1.8253 1.8202 1.8151 1.8202 1.8202 1.8253 1.8202 1.8202 1.8305 1.8305 1.8305 1.8305 1.8305 1.8202 1.8202 1.8202 1.8202 1.8253 1.8253 1.8305 1.8305 1.8202 1.8202 1.8202 1.805 1.8 1.795 1.4934 1.4969 1.4969 1.4934 1.49 1.4865 1.4764 1.4697 1.4598 1.4631 1.4631 1.4664 1.4764 1.4764 1.473 1.473 1.4764 1.4969 1.5037 1.5072 1.5072 1.5037 1.5003 1.4934 1.4934 1.4865 1.4865 1.49 1.4934 1.4865 1.4831 1.4697 1.45 1.4435 1.4435 1.4532 1.4565 1.4532 1.4532 1.4565 1.4565 1.4631 1.4697 1.6161 1.6121 1.6284 1.5143 1.5037 1.4969 1.5003 1.5037 1.6533 1.6324 1.6365 1.6161 1.573 1.5769 1.5885 1.5808 1.5769 1.5505 1.5431 1.5357 1.5286 1.525 1.5286 1.5286 1.5357 1.5357 1.5431 1.5468 1.5468 1.5655 1.5693 1.5617 1.5617 1.5617 1.5693 1.573 1.5655 1.5693 1.573 1.5769 0 0 0 0 1.4934 1.4934 1.49 1.49 1.4865 1.4865 1.49 1.5003 1.5037 1.5037 1.5143 1.5143 1.5214 1.5179 1.5808 1.5846 0 1.525 1.5286 1.5468 1.4697 1.4764 1.4865 1.5037 1.7374 1.7374 1.742 1.7328 1.7099 1.7054 1.6965 1.6616 1.649 1.6284 1.5962 1.5885 1.5808 1.5769 1.5693 1.5617 1.5655 1.5655 1.5655 1.5655 1.5655 1.5655 1.558 1.558 1.558 1.5542 1.5468 1.5505 1.5505 1.5395 1.5395 1.5395 1.5395 1.5395 1.5431 1.558 1.573 1.5846 1.6365 1.6449 1.6406 1.6365 1.6365 1.6406 1.6324 1.6324 1.6284 1.6201 1.5962 1.5885 1.5885 1.5924 2.0439 2.031 2.031 2.0439 2.0439 2.0439 1.9516 1.9575 1.8836 1.6533 1.5846 1.5846 1.5885 1.5885 1.6449 1.6406 1.6406 1.6406 1.6406 1.6365 1.6324 1.6284 1.6201 1.5885 1.5924 1.6041
3.1891 3.1735 3.1427 3.1427 3.1276 3.1276 3.1427 3.1427 3.1735 3.1891 3.1891 3.2369 3.2531 3.2695 3.2695 3.2695 3.3028 3.3196 3.3028 3.3196 3.3367 3.3367 3.354 3.354 3.3367 3.3367 3.3367 3.3196 3.354 3.3367 3.3367 3.3367 3.3367 3.3196 3.3367 3.3196 3.389 3.389 3.3714 3.389 3.354 3.3367 3.354 3.354 3.4069 3.389 3.4069 3.4069 3.4249 3.48 3.5176 3.5176 3.5562 3.6157 3.5956 3.5759 3.636 3.6771 3.6771 3.6981 3.7625 3.8066 3.7625 3.7625 3.8066 3.8066 3.8981 3.8749 3.9216 3.9216 3.8749 3.8981 3.9216 3.8981 3.8749 3.8749 3.8981 3.9455 3.8981 3.8981 3.8981 3.9216 3.9941 3.9941 4.0439 4.095 4.095 4.121 4.121 4.1472 4.201 4.2284 4.201 4.2284 4.2284 4.174 0 0 1.9814 1.9814 1.9634 1.9516 1.9341 1.9284 1.9058 1.9001 1.8946 1.8836 1.8781 1.8836 1.8836 1.8781 1.8727 1.8674 1.862 1.862 1.862 1.8566 1.8566 1.8514 1.8461 1.8461 1.862 1.862 1.8674 1.862 1.8674 1.8674 1.8566 1.8514 1.8514 1.8566 1.8514 1.8566 1.8566 1.8674 1.8727 1.8674 1.8727 1.8781 1.8674 1.862 1.8461 1.8202 1.8202 1.8202 1.8151 1.8202 1.8202 1.8202 1.8253 1.8202 1.8305 1.8305 1.8305 1.8305 1.8305 1.8253 1.8305 1.8202 1.8202 1.8253 1.8253 1.8305 1.8253 1.8253 1.8202 1.8202 1.81 1.8 0 1.4969 1.4969 1.4934 1.4865 1.4865 1.4797 1.4697 1.4598 1.4532 1.4565 1.4565 1.4598 1.473 1.473 1.4664 1.4697 1.4764 1.4934 1.5037 1.5037 1.5072 1.5037 1.4969 1.4934 1.49 1.4865 1.4831 1.4831 1.4831 1.4764 1.4764 1.4664 1.4532 1.4467 1.4467 1.45 1.45 1.4467 1.4467 1.4467 1.4435 1.4467 1.4404 1.4598 1.4598 1.4831 1.49 1.4934 1.4934 1.4934 1.4969 1.5108 1.5072 1.5617 1.5846 1.5214 1.525 1.5468 1.5655 1.5617 1.5395 1.5357 1.5286 1.5214 1.5214 1.525 1.525 1.5286 1.5321 1.5395 1.5395 1.5468 1.558 1.5655 1.558 1.5542 1.5505 1.5542 1.5357 1.5214 1.558 1.573 1.5769 0 0 0 0 1.49 1.49 1.49 1.4934 1.49 1.4865 1.49 1.5003 1.5003 1.5037 1.5072 1.5072 1.5108 1.5214 1.5808 1.5846 0 1.4532 1.4565 1.4865 1.45 1.4697 1.4831 1.4565 1.4532 1.4969 1.4969 1.5542 1.5542 1.6832 1.6789 1.649 1.6365 1.6201 1.5962 1.5846 1.5808 1.573 1.5655 1.5617 1.5655 1.5617 1.5617 1.5617 1.5617 1.5617 1.5542 1.5542 1.5505 1.5505 1.5395 1.5395 1.5431 1.5357 1.5321 1.5321 1.5321 1.5321 1.5321 1.5542 1.5693 1.5655 1.6201 1.6324 1.6365 1.6365 1.6365 1.6365 1.6365 1.6284 1.6242 1.6161 1.5962 1.5885 1.5846 1.573 1.5693 1.5321 1.5357 0 0 0 1.5542 1.558 1.5655 1.5769 1.573 1.5808 1.5808 1.5693 1.5769 1.573 1.6041 1.5693 1.5693 1.5693 1.5617 1.5655 1.6121 1.5962 1.5885 1.5962
3.2049 3.2049 3.1735 3.1735 3.1581 3.1581 3.1581 3.1581 3.1891 3.1891 3.2207 3.2531 3.2695 3.286 3.2695 3.286 3.286 3.3028 3.3028 3.3028 3.3196 3.3367 3.354 3.3367 3.3367 3.3367 3.3196 3.3028 3.3028 3.3028 3.3028 3.286 3.286 3.2695 3.2695 3.2695 3.354 3.354 3.354 3.354 3.354 3.3367 3.3367 3.354 3.389 3.3714 3.389 3.389 3.443 3.4987 3.5176 3.5176 3.5369 3.5956 3.636 3.636 3.6771 3.6771 3.6565 3.6771 3.7407 3.7844 3.7844 3.7625 3.8066 3.8291 3.8981 3.8981 3.9216 3.9455 3.8749 3.8749 3.8981 3.8981 3.8749 3.8519 3.8749 3.8981 3.8749 3.8749 3.8749 3.8981 3.9696 3.9941 4.0189 4.095 4.121 4.121 4.121 4.1472 4.1472 4.174 4.121 4.095 4.095 4.174 0 0 1.9754 1.9694 1.9634 1.9575 1.9341 1.9284 1.9058 1.9001 1.8946 1.8781 1.8836 1.8836 1.8836 1.8781 1.8727 1.8674 1.8674 1.862 1.8566 1.8514 1.8514 1.8461 1.8461 1.8461 1.8566 1.862 1.862 1.8566 1.862 1.862 1.8514 1.8514 1.8514 1.8566 1.8514 1.8514 1.8566 1.8727 1.8781 1.862 1.8674 1.8727 1.862 1.8461 1.8356 1.8202 1.81 1.81 1.81 1.8151 1.8202 1.8202 1.8253 1.8253 1.8253 1.8305 1.8356 1.8356 1.8305 1.8305 1.8305 1.8202 1.8202 1.8202 1.8202 1.8253 1.8202 1.8202 1.8151 1.8202 1.8 1.8 0 1.4969 1.4934 1.4865 1.4764 1.4697 1.4631 1.4532 1.4467 1.4435 1.45 1.4467 1.45 1.4565 1.4598 1.4631 1.4631 0.38488 0.38512 1.4969 1.5037 1.5108 1.5003 1.4831 1.4865 1.4865 1.4831 1.4831 1.4797 1.473 1.4664 1.4664 1.4664 1.4598 1.4467 1.4467 1.4467 1.4435 1.4404 1.4371 1.4307 1.4307 1.434 1.4404 1.4435 1.45 1.4697 1.4764 1.4764 1.4797 1.4797 1.4831 1.4865 1.4697 1.4831 1.4831 1.4831 1.4831 1.4831 1.4831 1.49 1.49 1.5143 1.5108 1.5108 1.5108 1.5179 1.5214 1.5214 1.525 1.5321 1.5321 1.5321 1.5468 1.5468 1.5431 1.5395 1.5321 1.5286 1.5286 1.5214 1.5143 1.525 1.525 0 0 0 0 1.49 1.4797 1.4831 1.4865 1.49 1.49 1.49 1.4969 1.4934 1.4934 1.5003 1.5003 1.5037 1.5072 1.5286 1.5321 0 1.4532 1.4697 1.4764 1.4598 1.4598 1.4697 1.4631 1.4598 1.473 1.4831 1.5108 1.5108 1.5542 1.5505 1.5505 1.5885 1.5885 1.5769 1.5769 1.5655 1.5617 1.558 1.5542 1.5542 1.558 1.5542 1.5542 1.5542 1.5468 1.5431 1.5395 1.5357 1.5357 1.5286 1.5321 1.5321 1.525 1.5214 1.5179 1.5214 1.5214 1.5214 1.5431 1.5542 1.5693 1.6041 1.6161 1.6324 1.6365 1.6365 1.6365 1.6324 1.6242 1.6161 1.6041 1.5808 1.5808 1.5769 1.5617 1.5542 1.5431 1.5357 1.5321 1.5286 1.5286 1.5321 1.5431 1.5617 1.5655 1.5693 1.573 1.5693 1.5617 1.5693 1.5769 1.5924 1.5769 1.5617 1.558 1.558 1.5286 1.5321 1.558 1.5655 1.5655
3.2207 3.2049 3.1891 3.1891 3.1891 3.1735 3.1735 3.1735 3.2049 3.2049 3.2207 3.2695 3.286 3.286 3.2695 3.2695 3.3028 3.3028 3.3028 3.3028 3.3028 3.3196 3.3714 3.354 3.3367 3.354 3.3196 3.3028 3.3028 3.3028 3.286 3.2695 3.2695 3.2695 3.2695 3.2695 3.354 3.354 3.3714 3.3714 3.354 3.354 3.3714 3.3714 3.4069 3.389 3.3714 3.3714 3.4249 3.4987 3.5369 3.4987 3.5176 3.5759 3.636 3.636 3.6565 3.6771 3.6565 3.6565 3.6981 3.7844 3.7625 3.7625 3.8291 3.8519 3.8749 3.8981 3.8981 3.9455 3.8749 3.8749 3.8749 3.8749 3.8519 3.8519 3.8519 3.8749 3.8519 3.8519 3.8519 3.8749 3.9455 3.9941 4.0439 4.0693 4.095 4.1472 4.1472 4.1472 4.1472 4.1472 4.095 4.095 4.0693 4.0693 0 0 1.9814 1.9634 1.9634 1.9516 1.9341 1.9284 1.9001 1.8946 1.8891 1.8836 1.8836 1.8836 1.8836 1.8836 1.8781 1.8674 1.8674 1.8674 1.8566 1.8566 1.8514 1.8461 1.8461 1.8461 1.862 1.862 1.8674 1.8674 1.8674 1.8674 1.862 1.8514 1.8566 1.8566 1.862 1.862 1.862 1.8727 1.8781 1.862 1.8674 1.8674 1.8514 1.8409 1.8356 1.8151 1.8151 1.805 1.81 1.81 1.8151 1.8253 1.8253 1.8305 1.8305 1.8356 1.8356 1.8409 1.8356 1.8356 1.8356 1.8202 1.8202 1.8202 1.8202 1.8202 1.8202 1.8151 1.8151 1.8151 1.81 0 0 1.4969 1.49 1.4831 1.4664 1.4631 1.4598 1.4435 1.4404 1.4435 1.4435 1.4435 1.4467 1.45 1.4532 1.4565 1.4598 0.38488 0.38512 1.4969 1.5003 1.5108 0 1.4831 1.4831 1.4831 1.4797 1.4865 1.4831 1.4697 1.4664 1.4631 1.4664 1.4631 1.45 1.4467 1.4467 1.4435 1.4371 1.434 1.4307 1.4307 1.4307 1.4371 1.4371 1.4404 1.4631 1.4664 1.4697 1.473 1.473 1.473 1.473 1.473 1.4797 1.4831 1.4831 1.4831 1.4831 1.4865 1.49 1.4934 1.5072 1.5072 1.5072 1.5108 1.5108 1.5143 1.5214 1.525 1.525 1.525 1.5286 1.5395 1.5431 1.5321 1.5321 1.525 1.525 1.525 1.5179 1.5179 1.5214 1.525 0 0 0 0 0 1.4797 1.4797 1.49 1.49 1.4934 1.4934 1.4934 1.49 1.49 1.4969 1.4969 1.5037 1.5072 1.5286 1.5321 0 1.4532 1.4664 1.4764 1.4631 1.4598 1.4664 1.4631 1.4631 1.473 1.4969 1.5072 1.5108 1.5542 1.5505 1.5542 1.5655 1.573 1.5693 1.5693 1.558 1.5542 1.5468 1.5468 1.5505 1.5505 1.5505 1.5505 1.5468 1.5431 1.5357 1.5321 1.5321 1.5286 1.5214 1.5286 1.5321 1.5214 1.5143 1.5179 1.5143 1.5179 1.5214 1.5395 1.5542 1.5693 1.6081 1.6242 1.6406 1.6406 1.6406 1.6406 1.6365 1.6284 1.6284 1.5846 1.5769 1.573 1.5693 1.5542 1.5431 1.5431 1.5357 1.5321 1.5286 1.5286 1.5321 1.5357 1.558 1.5655 1.5655 1.5769 1.5655 1.558 1.558 1.573 1.5846 1.5769 1.558 1.5542 1.5505 1.5395 1.5357 1.5431 1.5542 1.5431
3.1891 3.1891 3.1891 3.2049 3.1891 3.1735 3.1735 3.1891 3.2049 3.1891 3.2049 3.2207 3.2369 3.2369 3.2369 3.2369 3.286 3.3028 3.286 3.286 3.3028 3.3196 3.3367 3.3367 3.3028 3.354 3.3196 3.3196 3.3028 3.286 3.286 3.2695 3.2695 3.2695 3.2695 3.2695 3.3714 3.389 3.4069 3.4249 3.389 3.389 3.389 3.389 3.4069 3.389 3.389 3.389 3.443 3.5369 3.5562 3.5562 3.5759 3.6157 3.6771 3.6565 3.6981 3.6981 3.6771 3.6565 3.6981 3.7844 3.7625 3.7625 3.8066 3.8066 3.8291 3.8519 3.8749 3.8749 3.8519 3.8519 3.8519 3.8519 3.8291 3.8291 3.8066 3.8291 3.8291 3.8519 3.8519 3.8749 3.8981 3.9216 3.9455 3.9696 3.9941 4.0439 4.0693 4.0693 4.095 4.121 4.0693 4.095 4.121 4.0693 0 0 1.9634 1.9634 1.9516 1.9516 1.9341 1.9226 1.8891 1.8891 1.8891 1.8781 1.8781 1.8781 1.8781 1.8727 1.8727 1.8674 1.8674 1.862 1.8566 1.8514 1.8514 1.8461 1.8514 1.8514 1.8674 1.8674 1.8674 1.8674 1.8674 1.8674 1.8566 1.8566 1.8566 1.8566 1.8566 1.8566 1.862 1.8674 1.8781 1.8566 1.862 1.862 1.8514 1.8356 1.8305 1.8151 1.81 1.81 1.81 1.805 1.8151 1.8202 1.8202 1.8202 1.8305 1.8305 1.8356 1.8356 1.8305 1.8356 1.8305 1.8253 1.8253 1.8253 1.8202 1.8202 1.8202 1.8151 1.8151 1.81 1.805 0 0 1.473 1.4865 1.4764 1.4664 1.4598 1.4565 1.4435 1.4371 1.4404 1.4435 1.4435 1.4435 1.4467 1.45 1.45 1.4631 0.38488 0.38512 1.4934 1.5003 1.5037 0 1.4831 1.4865 1.4831 1.4797 1.4865 1.4831 1.4697 1.4631 1.4631 1.4664 1.4664 1.4532 1.4467 1.4467 1.4435 1.4404 1.434 1.434 1.4307 1.4307 1.4307 1.434 1.4371 1.4532 1.4532 1.4598 1.4598 1.4631 1.4664 1.4664 1.4697 1.4764 1.4797 1.4797 1.4831 1.4797 1.4865 1.4865 1.4934 1.5037 1.5037 1.5037 1.5108 1.5108 1.5143 1.5143 1.5179 1.5214 1.5214 1.525 1.5286 1.5286 1.5214 1.5179 1.5143 1.5108 1.5072 1.5072 1.5003 1.5003 1.4598 1.4631 1.4631 1.4598 0 0 1.409 1.4121 1.45 1.4797 1.4831 1.4831 1.473 1.4276 1.4245 1.4865 1.4865 1.49 1.5072 0 0 0 1.49 1.4797 1.4831 1.4697 1.4664 1.4664 1.4664 1.4664 1.473 1.4934 1.5003 1.4865 1.5357 1.5395 1.5431 1.5617 1.5617 1.5617 1.5617 1.558 1.5505 1.5431 1.5431 1.5431 1.5468 1.5431 1.5431 1.5431 1.5357 1.5286 1.5286 1.5286 1.525 1.5179 1.5214 1.5286 1.5179 1.5143 1.5143 1.5108 1.5143 1.5179 1.5395 1.5505 1.5655 1.6041 1.6242 1.6406 1.6365 1.6365 1.6324 1.6284 1.6121 1.6002 1.558 1.5693 1.5617 1.5617 1.5431 1.5395 1.5357 1.5321 1.5321 1.5286 1.5286 1.5286 1.5321 1.5505 1.558 1.5655 1.5655 1.558 1.5505 1.5505 1.5655 1.5769 1.573 1.5505 1.5468 1.5431 1.5395 1.5357 1.5468 1.5468 1.5468
3.2049 3.2049 3.1891 3.2207 3.2207 3.2049 3.2049 3.1891 3.1891 3.1891 3.1891 3.2207 3.2049 3.2207 3.2049 3.2207 3.2531 3.2695 3.286 3.286 3.286 3.3028 3.3367 3.3196 3.3028 3.3367 3.3196 3.3196 3.3367 3.3028 3.3028 3.3028 3.3028 3.3028 3.286 3.3714 3.4249 3.4249 3.4987 3.5369 3.4614 3.443 3.4069 3.389 3.443 3.4069 3.389 3.4069 3.4614 3.5759 3.5956 3.6157 3.6565 3.6771 3.7194 3.7407 3.7625 3.7407 3.6981 3.6981 3.7407 3.7844 3.7844 3.7844 3.7844 3.8066 3.8291 3.8519 3.8749 3.8749 3.8291 3.8291 3.8291 3.8291 3.8066 3.8066 3.7844 3.8291 3.8066 3.8519 3.8519 3.8749 3.8981 3.9216 3.9455 3.9696 4.0189 4.0693 4.121 4.1472 4.121 4.121 4.0693 4.095 4.1472 4.2284 0 0 1.9694 1.9458 1.9399 1.9341 1.9226 1.917 1.8781 1.8781 1.8781 1.862 1.8727 1.8727 1.8674 1.862 1.8566 1.8514 1.8566 1.8566 1.8461 1.8461 1.8461 1.8461 1.8461 1.8461 1.8674 1.8674 1.862 1.862 1.8674 1.8674 1.862 1.8566 1.8566 1.8566 1.8566 1.8514 1.8566 1.862 1.8727 1.8566 1.8514 1.8514 1.8461 1.8409 1.8305 1.8151 1.81 1.81 1.805 1.805 1.81 1.8202 1.8202 1.8202 1.8253 1.8305 1.8305 1.8356 1.8356 1.8356 1.8356 1.8202 1.8253 1.8305 1.8253 1.8253 1.8253 1.8253 1.8151 1.8151 1.805 0 0 1.473 1.4764 1.473 1.4598 1.4598 1.4467 1.4467 1.4307 1.434 1.4371 1.4371 1.4371 1.434 1.4371 1.4467 1.4598 0.38488 0.38512 1.49 1.49 1.5037 0 1.4831 1.4865 1.4831 1.4831 1.4831 1.4831 1.473 1.4697 1.4664 1.4664 1.4664 1.45 1.4467 1.4467 1.4435 1.4404 1.434 1.434 1.4307 1.4245 1.4245 1.4276 1.4307 1.4404 1.4435 1.4404 1.434 1.4404 1.45 1.45 1.4532 1.4664 1.4664 1.4697 1.4764 1.4797 1.4831 1.4831 1.49 1.4969 1.5003 1.5003 1.5072 1.5072 1.5037 1.5037 1.5072 1.5072 1.5072 1.5072 1.5108 1.5072 1.5003 1.5003 1.4934 1.49 1.4865 1.4865 1.473 1.4664 1.4598 1.4565 1.4565 1.4631 0 0 1.409 1.4183 1.4276 1.4467 1.4532 1.4532 1.4467 1.4307 1.434 1.4598 1.4598 1.4764 1.5072 0 0 0 1.49 1.4797 1.4831 1.4664 1.4664 1.4697 1.4697 1.4697 1.473 1.4797 1.4797 1.4865 1.5037 1.5108 1.5143 1.5505 1.5505 1.5505 1.5542 1.5431 1.5395 1.5321 1.5321 1.5395 1.5395 1.5395 1.5395 1.5357 1.5286 1.5214 1.5214 1.5214 1.5179 1.5108 1.5143 1.5179 1.5179 1.5143 1.5143 1.5108 1.5108 1.5179 1.5357 1.5468 1.5617 1.5924 1.6081 1.6324 1.6284 1.6284 1.6161 1.6121 1.5924 1.5769 1.558 1.5431 1.5431 1.5395 1.5286 1.525 1.5214 1.5214 1.5214 1.5214 1.5214 1.5179 1.5214 1.5286 1.5357 1.5542 1.5617 1.5395 1.5357 1.5431 1.5395 1.573 1.5542 1.5357 1.525 1.5214 1.5214 1.5321 1.5321 1.5321 1.5321
3.2049 3.1891 3.2049 3.2369 3.2207 3.2049 3.2049 3.1891 3.1891 3.1891 3.1735 3.2049 3.1891 3.1891 3.1735 3.1891 3.2369 3.2531 3.2695 3.2531 3.2531 3.286 3.3367 3.3196 3.3028 3.3196 3.3028 3.3367 3.3367 3.3367 3.3196 3.3196 3.3028 3.3367 3.3196 3.389 3.443 3.4614 3.4987 3.5562 3.4987 3.4614 3.4069 3.389 3.4249 3.4069 3.389 3.389 3.443 3.5759 3.5759 3.6157 3.6565 3.6981 3.7407 3.7625 3.7844 3.7625 3.7194 3.6981 3.7625 3.7844 3.8066 3.7844 3.8066 3.8066 3.8291 3.8519 3.8519 3.8519 3.8291 3.8066 3.8291 3.8291 3.8066 3.8066 3.7844 3.8066 3.8291 3.8291 3.8749 3.8749 3.8981 3.9216 3.9455 3.9696 4.0189 4.121 4.174 4.201 4.201 4.1472 4.095 4.121 4.1472 1.9284 1.9341 1.9458 1.9516 1.9399 1.9284 1.9284 1.917 1.9058 1.8781 1.8727 1.8727 1.862 1.862 1.8674 1.8566 1.8514 1.8514 1.8409 1.8461 1.8461 1.8461 1.8409 1.8409 1.8409 1.8461 1.8514 1.8674 1.8674 1.862 1.862 1.862 1.8674 1.862 1.862 1.8566 1.8566 1.8566 1.8566 1.8566 1.8674 1.8727 1.8566 1.8566 1.8566 1.8461 1.8356 1.8356 1.8151 1.8151 1.8151 1.81 1.81 1.8151 1.8202 1.8202 1.8253 1.8253 1.8305 1.8356 1.8356 1.8409 1.8356 1.8409 1.8202 1.8253 1.8305 1.8305 1.8305 1.8356 1.8305 1.8253 1.8202 1.81 0 0 0 0 0 0 0 0 0 0 1.4276 1.434 1.4307 1.4276 1.4276 1.4276 1.4276 0 0 0.382 0.382 1.49 0 0 0 0 1.4797 1.4797 1.4865 1.4797 1.4764 1.4697 1.4664 1.4697 1.4631 1.4467 1.4404 1.4435 1.4435 1.4435 1.434 1.434 1.4307 0.38888 0.38888 1.4307 1.4307 1.4371 0 1.4245 1.4276 1.434 1.4435 1.4467 1.45 1.4598 1.4631 1.4664 1.4764 1.4797 1.4831 1.4865 1.49 1.4934 1.4969 1.5003 1.5003 1.5003 1.5037 1.5003 1.5003 1.5037 1.5037 1.5037 1.5037 1.5037 1.4934 1.4934 1.4934 1.4831 1.4831 1.4797 1.4697 1.4631 1.4565 1.4532 1.45 1.4467 1.4467 1.4121 1.4121 1.4183 1.4245 1.4276 1.4404 1.4404 1.4371 1.4276 1.434 1.4467 1.4467 1.4435 1.4467 1.45 1.4307 1.4307 1.4631 1.473 1.473 1.4598 1.4598 1.4631 1.4697 1.473 1.4764 1.4764 1.4764 1.4831 1.4969 1.4969 1.5037 1.5108 1.4697 1.473 1.5431 1.5395 1.5321 1.5214 1.5286 1.5357 1.5395 1.5321 1.5321 1.5321 1.525 1.5214 1.5214 1.5214 1.5179 1.5072 1.5108 1.5179 1.5143 1.5143 1.5108 1.5108 1.5108 1.5143 1.5321 1.5468 1.558 1.5885 1.6002 1.6161 1.6284 1.6242 1.6121 1.6041 1.5846 1.5655 1.5505 1.5357 1.5321 1.5286 1.5214 1.5214 1.5143 1.5143 1.5143 1.5143 1.5143 1.5143 1.5143 1.5214 1.525 1.4969 1.4969 1.4831 1.4797 1.4797 1.4969 1.4969 1.4969 1.4969 1.5108 1.5108 1.5108 1.5214 1.525 1.525 1.525
3.1891 3.1891 3.1891 3.2207 3.2207 3.2207 3.2207 3.1891 3.1735 3.1581 3.1735 3.1891 3.1581 3.1581 3.1735 3.1891 3.2369 3.2531 3.2531 3.2531 3.2531 3.2369 3.3196 3.3028 3.3028 3.3367 3.3196 3.3367 3.3714 3.354 3.354 3.3367 3.3196 3.3714 3.3367 3.4249 3.4614 3.48 3.5176 3.5759 3.5176 3.48 3.4249 3.3714 3.443 3.4069 3.3714 3.3714 3.4249 3.4987 3.48 3.48 3.5562 3.6157 3.7194 3.7625 3.7844 3.7625 3.7194 3.7407 3.7844 3.8066 3.8291 3.8066 3.8066 3.8291 3.8519 3.8519 3.8749 3.8749 3.8066 3.8066 3.8291 3.8066 3.8066 3.8066 3.8066 3.8066 3.8066 3.8519 3.8749 3.8749 3.8981 3.9455 3.9455 3.9941 4.0439 4.121 4.201 4.201 4.2284 4.174 4.095 4.095 4.174 1.9284 1.9284 1.9341 1.9341 1.9226 1.917 1.9114 1.9058 1.8946 1.8727 1.8727 1.8674 1.862 1.862 1.862 1.8461 1.8409 1.8356 1.8253 1.8305 1.8305 1.8305 1.8305 1.8253 1.8305 1.8305 1.8356 1.8514 1.8514 1.8461 1.8566 1.8566 1.8566 1.8566 1.8566 1.862 1.862 1.8566 1.862 1.862 1.8727 1.8781 1.8566 1.8514 1.8461 1.8461 1.8409 1.8305 1.8253 1.8202 1.8151 1.81 1.8151 1.8202 1.8253 1.8253 1.8253 1.8305 1.8356 1.8356 1.8409 1.8461 1.8409 1.8409 1.8305 1.8305 1.8356 1.8305 1.8356 1.8356 1.8305 1.8305 1.81 1.81 0 0 0 0 0 0 0 0 0 0 1.4276 1.4307 1.4307 1.4245 1.4276 1.4276 0.38088 0.38112 0.3815 0.382 0.382 0.38238 0.38238 0.38812 0.39337 0.39337 0.39425 0.3945 0.3945 0.39475 0.3945 0.39425 0.394 0.39337 0.39337 0.39213 0.39213 0.39213 0.39125 0.39125 0.3895 0.38912 0.38912 0.38888 0.38888 0.39 1.4307 1.4371 0 1.4245 1.4245 1.4276 1.4276 1.4276 1.4276 1.4276 1.4307 1.4307 1.4467 1.4532 1.4664 1.473 1.4764 1.4831 1.4831 1.4831 1.49 1.49 1.4934 1.4934 1.49 1.4934 1.4934 1.4969 1.4934 1.4934 1.49 1.4865 1.4865 1.4764 1.4764 1.4697 1.4152 1.4467 1.4245 1.434 1.434 1.4276 1.4245 1.4152 1.4121 1.4152 1.4183 1.4214 1.4276 1.4307 1.4245 1.4214 1.4214 1.4307 1.4307 1.434 1.4435 1.4435 1.434 1.4276 1.434 1.45 1.45 1.4404 1.4467 1.4532 1.4631 1.4697 1.4697 1.473 1.4664 1.4664 1.473 1.473 1.473 1.4697 1.4276 1.4276 1.4435 1.45 1.4532 1.5108 1.5108 1.5179 1.5321 1.5179 1.5108 1.5037 1.3999 1.403 1.4371 1.4371 1.4764 1.4764 1.4797 1.4865 1.49 1.5037 1.5037 1.5037 1.5072 1.5108 1.5286 1.5431 1.5505 1.5655 1.5617 1.558 1.5924 1.5924 1.5924 1.5885 1.5655 1.5542 1.5395 1.5321 1.5286 1.5214 1.5143 1.5143 1.5108 1.5072 1.5037 1.5003 1.5003 1.5003 1.4934 1.4934 1.4934 1.4865 1.4797 1.473 1.4664 1.473 1.4764 1.49 1.4934 1.4865 1.4865 1.4865 1.4934 1.5003 1.5108 1.5179 1.5143
3.2049 3.1891 3.1891 3.2049 3.2369 3.2207 3.2207 3.1891 3.1735 3.1735 3.1581 3.1735 3.1735 3.1427 3.1735 3.1735 3.2369 3.2531 3.2695 3.2531 3.2531 3.2531 3.3196 3.3196 3.3028 3.3367 3.3196 3.3714 3.4249 3.389 3.389 3.3714 3.389 3.443 3.4249 3.48 3.5176 3.5369 3.5759 3.5956 3.5759 3.5176 3.4614 3.4069 3.443 3.4249 3.4069 3.389 3.4249 3.4614 3.4614 3.443 3.5176 3.5562 3.6157 3.7844 3.7844 3.7625 3.7194 3.7407 3.8291 3.8749 3.8749 3.8749 3.8519 3.8519 3.8749 3.8981 3.8749 3.8749 3.8291 3.8066 3.8066 3.8291 3.8066 3.8066 3.8066 3.8291 3.8519 3.8519 3.8749 3.8749 3.8981 3.9216 3.9696 4.0189 4.0693 4.1472 4.2284 4.2284 4.2561 4.201 4.1472 4.095 0 1.9341 1.9284 1.9341 1.9341 1.917 1.9114 1.9058 1.9058 1.8946 1.8727 1.8674 1.8727 1.862 1.862 1.8566 1.8514 1.8409 1.8356 1.8305 1.8305 1.8356 1.8305 1.8305 1.8253 1.8305 1.8356 1.8409 1.8514 1.8461 1.8514 1.8514 1.8514 1.8566 1.862 1.8566 1.8566 1.862 1.862 1.862 1.8674 1.8727 1.8836 1.8514 1.8461 1.8461 1.8409 1.8409 1.8356 1.8305 1.8253 1.8202 1.8151 1.8202 1.8253 1.8305 1.8305 1.8305 1.8356 1.8461 1.8461 1.8461 1.8514 1.862 1.8566 1.8461 1.8514 1.8566 1.8461 1.8409 1.8409 1.8356 0 0 0 0 0 0 0 0 0 0 0 0 0 0 0 0 0 0 0 0.38088 0.38088 0.38138 0.38175 0.38225 0.38238 0.38238 0.38812 0.39337 0.39375 0.394 0.39425 0.3945 0.39475 0.39425 0.3945 0.394 0.39375 0.39337 0.39263 0.39213 0.39237 0.39137 0.391 0.39025 0.3895 0.38938 0.3895 0.3895 0.38975 0 0 0 0 0 1.4307 1.4276 1.4245 1.4245 1.4245 1.4245 1.4214 1.4371 1.4435 1.4565 1.473 1.4831 1.4797 1.4764 1.4797 1.4865 1.4934 1.49 1.4934 1.49 1.49 1.4934 1.4969 1.4934 1.49 1.4865 1.4865 1.4831 1.4764 1.4697 1.4697 1.4152 1.4152 1.4245 1.4245 1.4276 1.4245 1.4214 1.4152 1.4121 1.4183 1.4183 1.4183 1.4276 1.4276 1.4214 1.4183 1.4152 1.4245 1.4276 1.4307 1.4404 1.4404 1.434 1.4307 1.434 1.4467 1.4467 1.434 1.4404 1.45 1.4598 1.4664 1.4697 1.4664 1.4664 1.4631 1.4631 1.4664 1.4598 1.45 1.4371 1.4276 1.4404 1.4404 1.4532 1.5143 1.5108 1.5072 1.5357 1.5072 1.5072 1.4969 1.3999 1.406 1.4152 1.4371 1.4764 1.4697 1.473 1.4764 1.4797 1.4934 1.4969 1.4969 1.5003 1.5037 1.5214 1.5357 1.5431 1.5617 1.5617 1.5617 1.5808 1.5846 1.5808 1.5769 1.5542 1.5468 1.5357 1.5214 1.5179 1.5108 1.5037 1.5037 1.5037 1.5003 1.4969 1.49 1.49 1.4865 1.4865 1.4865 1.4831 1.4764 1.473 1.4664 1.4598 1.4664 1.4697 1.4797 1.4831 1.4797 1.4797 1.4831 1.4831 1.4934 1.5003 1.5072 1.5037
3.1891 3.1891 3.1735 3.2207 3.2207 3.2207 3.2049 3.1735 3.1581 3.1581 3.1427 3.1581 3.1427 3.1427 3.1735 3.2049 3.2369 3.2695 3.2531 3.2695 3.2531 3.2695 3.3367 3.3028 3.3028 3.3196 3.3028 3.354 3.4069 3.4069 3.389 3.389 3.4069 3.4614 3.48 3.5176 3.5562 3.5759 3.5956 3.6157 3.5956 3.5562 3.48 3.4614 3.4614 3.443 3.4069 3.389 3.4069 3.4614 3.443 3.443 3.4614 3.4987 3.5369 3.7625 3.7625 3.7625 3.7194 3.7407 3.8519 3.8749 3.8981 3.8749 3.8519 3.8519 3.8981 3.8981 3.8981 3.8519 3.8291 3.8291 3.8291 3.8066 3.8066 3.8066 3.8066 3.8066 3.8519 3.8749 3.8749 3.8749 3.9216 3.9455 3.9696 4.0439 4.0693 4.1472 4.201 4.2561 4.2561 4.2284 4.174 4.174 0 1.9284 1.9284 1.9284 1.9341 1.917 1.9058 1.9114 1.8946 1.8891 1.8836 1.8674 1.8727 1.862 1.862 1.8566 1.8461 1.8409 1.8356 1.8305 1.8305 1.8356 1.8356 1.8305 1.8253 1.8356 1.8409 1.8461 1.8566 1.8566 1.8566 1.8514 1.8566 1.8566 1.8566 1.8566 1.8566 1.862 1.862 1.862 1.862 1.8727 1.8727 1.8461 1.8409 1.8356 1.8356 1.8356 1.8305 1.8253 1.8202 1.8151 1.8151 1.8202 1.8253 1.8305 1.8305 1.8305 1.8356 1.8461 1.8461 1.8461 1.8514 1.8566 1.862 1.8514 1.8566 1.862 1.8461 1.8409 1.8461 1.8461 0 0 0 0 0 0 0 0 0 0 0 0 0 0 0 0 0 0 0 0.38038 0.38088 0.38112 0.3815 0.38225 0.38238 0.38238 0.38775 0.39263 0.39363 0.39375 0.39425 0.39425 0.3945 0.39425 0.39425 0.39425 0.39375 0.39337 0.39263 0.39213 0.39213 0.39187 0.39137 0.391 0.39 0.39 0.39 0.39 0.3905 0.39075 0.391 0.39075 0.39075 0.39125 0.39237 0.39237 0 0 0.38862 0.38888 0.38812 0.38788 0.38775 0.38775 0.3875 0.38775 0.38625 0.3865 0.38625 0.38625 0 0 0 0 0 1.5037 1.5003 1.4969 1.4865 1.4831 1.4831 0 1.4598 1.4631 1.4631 1.4598 0 1.4152 1.4214 1.4276 1.4183 1.4152 1.4152 1.4152 1.4152 1.4183 1.4183 1.4245 1.4245 1.4152 1.4152 1.409 1.4152 1.4214 1.4276 1.4371 1.4371 1.4307 1.4276 1.4371 1.4467 1.4435 1.4371 1.4404 1.45 1.4565 1.4664 1.4664 1.4631 1.4631 1.4565 1.4565 1.4565 1.45 1.4435 1.434 1.4245 1.4307 1.434 1.406 1.406 1.3939 1.3909 1.3939 1.3733 1.3761 1.3791 1.382 1.3999 1.409 1.4121 1.4467 1.4598 1.4664 1.4697 1.4764 1.4797 1.4831 1.4865 1.49 1.4934 1.5143 1.5286 1.5395 1.558 1.5617 1.5655 1.5769 1.573 1.5693 1.5655 1.5468 1.5395 1.525 1.5108 1.5037 1.4934 1.4865 1.4865 1.49 1.49 1.4831 1.4797 1.4764 1.4764 1.4764 1.4764 1.4764 1.4664 1.4631 1.4565 1.4532 1.4565 1.4631 1.4697 1.4664 1.4697 1.4764 1.4764 1.4764 1.4831 1.49 1.4934 1.4934
3.1735 3.1581 3.1581 3.1735 3.1891 3.1891 3.1735 3.1581 3.1427 3.1427 3.1427 3.1427 3.1126 3.0978 3.1735 3.2049 3.2531 3.2695 3.2695 3.2695 3.2695 3.286 3.3196 3.286 3.2695 3.286 3.286 3.3367 3.4069 3.4069 3.389 3.389 3.389 3.5176 3.5176 3.5956 3.6157 3.6157 3.636 3.6565 3.6157 3.5956 3.5369 3.48 3.5176 3.4614 3.4069 3.389 3.4249 3.443 3.443 3.4249 3.443 3.443 3.4614 3.7625 3.7407 3.7407 3.6981 3.7194 3.8291 3.8749 3.8981 3.8981 3.8749 3.8519 3.8519 3.8749 3.8749 3.8749 3.8066 3.8066 3.8291 3.8066 3.8066 3.7844 3.8066 3.8066 3.8291 3.8749 3.8749 3.8749 3.8981 3.9455 3.9941 4.0439 4.0189 4.121 4.201 4.2561 4.2284 4.174 4.0439 3.9941 0 1.9341 1.9058 1.9114 1.9058 1.8891 1.8781 1.8836 1.8781 1.8727 1.8674 1.862 1.8674 1.862 1.8566 1.8514 1.8409 1.8409 1.8409 1.8305 1.8305 1.8305 1.8305 1.8253 1.8253 1.8305 1.8461 1.8514 1.8566 1.8566 1.8566 1.8566 1.8566 1.862 1.862 1.8566 1.862 1.862 1.8566 1.8566 1.8514 1.8514 1.8514 1.8305 1.8305 1.8253 1.8253 1.8356 1.8253 1.8202 1.8202 1.8151 1.8151 1.8151 1.8202 1.8202 1.8151 1.8151 1.8202 1.8253 1.8356 1.8409 1.8461 1.8514 1.8566 1.8514 1.862 1.8674 1.8461 1.8461 1.8461 1.8461 0 0 0 0 0 0 0 0 0 0 0 0 0 0 0 0 0 0 0 0.37775 0.37862 0.38025 0.38062 0.38138 0.3815 0.38138 0.38675 0.3905 0.39187 0.39263 0.39313 0.39375 0.39375 0.394 0.394 0.394 0.39363 0.39337 0.39263 0.39237 0.39213 0.39187 0.39163 0.39125 0.3905 0.39 0.39 0.39025 0.39025 0.39025 0.3905 0.39025 0.3905 0.391 0.39163 0.3905 0.3905 0.38975 0.38862 0.38862 0.38838 0.38812 0.38788 0.38788 0.38775 0.38788 0.38675 0.38675 0.3865 0.38625 0.3875 0.3865 0.38675 0.387 0.38625 0.38625 0.38612 0.38562 0.38538 0.38538 0.38512 0.38512 1.4598 1.4598 1.4565 1.4598 0 1.4121 1.4183 1.4245 1.4121 1.4121 1.4121 1.4152 1.4152 1.4183 1.4183 1.4183 1.4152 1.4121 1.4121 1.403 1.406 1.4121 1.4183 1.4307 1.4307 1.4245 1.4245 1.434 1.4435 1.4435 1.434 1.4371 1.4371 1.4435 1.4532 1.4532 1.4532 1.4532 1.4404 1.4404 1.4404 1.4307 1.4245 1.4152 1.4152 1.4152 1.4183 1.406 1.3969 1.3939 1.385 1.382 1.3733 1.3761 1.3791 1.382 1.388 1.3969 1.4183 1.4307 1.4371 1.4565 1.4598 1.4664 1.473 1.473 1.4764 1.4797 1.4831 1.5003 1.5143 1.525 1.5431 1.5468 1.5468 1.558 1.558 1.5505 1.5468 1.5321 1.525 1.4664 1.4797 1.473 1.4697 1.4631 1.4631 1.4631 1.4598 1.4565 1.45 1.45 1.45 1.4532 1.45 1.45 1.4404 1.4404 1.4404 1.4404 1.4404 1.4435 1.45 1.45 1.4532 1.4697 1.4697 1.4697 1.4697 1.4697 1.473 1.4697
3.1427 3.1427 3.1581 3.1581 3.1581 3.1581 3.1581 3.1427 3.1581 3.1427 3.1581 3.1427 3.0978 3.083 3.1891 3.2207 3.2695 3.2695 3.2531 3.2531 3.2695 3.2695 3.3028 3.2695 3.2531 3.2695 3.2531 3.3367 3.389 3.4249 3.4069 3.4069 3.3714 3.6565 3.7194 3.8291 3.8066 3.7625 3.7625 3.7844 3.6981 3.6771 3.636 3.5956 3.636 3.5369 3.443 3.443 3.4614 3.48 3.4614 3.443 3.443 3.443 3.48 3.7407 3.7407 3.7407 3.6981 3.7407 3.8519 3.8749 3.9216 3.8981 3.8749 3.8519 3.8749 3.8749 3.8749 3.8519 3.8291 3.8066 3.8066 3.8066 3.8291 3.8291 3.8066 3.8066 3.8519 3.8749 3.8981 3.8981 3.9455 4.0189 4.0439 4.0693 4.0189 3.9941 4.201 4.201 4.2843 4.095 3.9941 3.9941 0 0 1.9114 1.8946 1.8891 1.8727 1.862 1.862 1.8674 1.862 1.8566 1.862 1.8566 1.8566 1.8566 1.8514 1.8409 1.8409 1.8409 1.8305 1.8305 1.8305 1.8253 1.8253 1.8253 1.8305 1.8461 1.8566 1.862 1.8566 1.8566 1.862 1.862 1.8674 1.8727 1.862 1.8674 1.862 1.8566 1.8566 1.8514 1.8461 1.8461 1.8409 1.8253 1.8253 1.8253 1.8305 1.8253 1.8305 1.8253 1.8253 1.8202 1.8151 1.8253 1.8202 1.805 1.805 1.8151 1.8305 1.8253 1.8356 1.8356 1.8514 1.8514 1.8461 1.8461 1.8946 1.8891 0 0 0 0 0 0 0 0 0 0 0 0 0 0 0 0 0 0 0 0 0 0 0.378 0.37775 0.3795 0.38 0.38088 0.38138 0.38138 0.38675 0.3905 0.39125 0.39213 0.39263 0.39363 0.39375 0.394 0.39375 0.39375 0.39375 0.39337 0.39287 0.39237 0.39213 0.39187 0.39163 0.39125 0.39025 0.39 0.39 0.39 0.39 0.39 0.39 0.39025 0.39025 0.3905 0.39125 0.3905 0.39 0.39 0.38912 0.38862 0.38838 0.38812 0.38788 0.38788 0.38812 0.38812 0.38775 0.38788 0.38788 0.3875 0.38725 0.387 0.38675 0.387 0.3865 0.38612 0.38612 0.38538 0.38538 0.38538 0.38488 0.38512 0 0 0 0 0 1.4121 1.4121 1.4245 1.409 1.4121 1.4152 1.4183 1.4214 1.4214 1.4152 1.4152 1.4121 1.409 1.409 1.3999 1.403 1.409 1.4152 1.4307 1.4276 1.4245 1.4276 1.4371 1.4435 1.4404 1.434 1.434 1.4371 1.4404 1.4467 1.45 1.45 1.4467 1.434 1.4307 1.4307 1.4276 1.4214 1.4152 1.409 1.4121 1.4121 1.403 1.3939 1.3909 1.382 1.3761 1.3733 1.3761 1.3791 1.382 1.385 1.388 1.3969 1.4276 1.4245 1.4435 1.4598 1.4565 1.4664 1.4697 1.4697 1.473 1.4764 1.4865 1.5179 1.5179 1.5395 1.5395 1.5431 1.5505 1.5505 1.5505 1.5468 1.525 1.525 1.4664 1.4664 1.4631 1.4598 1.4565 1.4565 1.4565 1.4532 1.45 1.4435 1.4435 1.4435 1.4435 1.4435 1.4371 1.4307 1.4307 1.434 1.434 1.4371 1.4371 1.4435 1.4435 1.45 1.4631 1.4664 1.4664 1.4664 1.4664 1.4631 1.4631
3.1276 3.1427 3.1276 3.1276 3.1427 3.1126 3.0978 3.1126 3.1276 3.1276 3.1276 3.1427 3.0978 3.083 3.1735 3.2207 3.2369 3.2369 3.2049 3.2049 3.2049 3.2049 3.2531 3.2531 3.2531 3.2531 3.2531 3.3367 3.4069 3.4249 3.48 3.48 3.5956 3.6771 3.7194 3.8291 3.8291 3.7844 3.7844 3.7844 3.7407 3.6981 3.6771 3.636 3.6565 3.5759 3.48 3.4614 3.48 3.5176 3.4987 3.4614 3.4614 3.48 3.4987 3.7407 3.7625 3.7407 3.7194 3.7625 3.8519 3.8981 3.9216 3.9216 3.8981 3.9216 3.9216 3.9216 3.8981 3.8519 3.8519 3.8066 3.8066 3.8066 3.8291 3.8291 3.8291 3.8291 3.8519 3.9216 3.9455 3.9455 4.0189 4.0693 4.095 4.121 4.0189 3.8981 1.8356 1.8409 1.8514 1.8514 1.8461 1.8305 1.8356 1.8461 1.8253 1.862 1.8566 1.8461 1.8409 1.8409 1.8461 1.8461 1.8461 1.8514 1.8514 1.8461 1.8461 1.8461 1.8356 1.8356 1.8356 1.8305 1.8305 1.8305 1.8253 1.8253 1.8253 1.8356 1.8514 1.8566 1.862 1.8514 1.8514 1.8566 1.8566 1.8674 1.8727 1.862 1.8674 1.862 1.8566 1.8566 1.8514 1.8461 1.8461 1.8409 1.8253 1.8202 1.8202 1.8356 1.8305 1.8253 1.8305 1.8253 1.8253 1.8253 0 0 0 0 0 1.8202 1.8253 1.8356 1.8409 1.8461 1.8514 1.8514 1.8514 0 0 0 0 0 0 0 0 0 0.33663 0.33637 0.33625 0.33613 0.33613 0.33663 0.33675 0.33675 0.33625 0.33625 0 0 0 0 0 0 0.37825 0.37912 0.37925 0.38025 0.38112 0.38088 0.38675 0.38888 0.38938 0.39163 0.39237 0.39363 0.39375 0.39375 0.394 0.39375 0.39363 0.39337 0.39313 0.39237 0.39237 0.39187 0.39137 0.39125 0.39 0.38975 0.38975 0.38975 0.38975 0.38975 0.38975 0.3895 0.38975 0.39025 0.39075 0.39025 0.39 0.3895 0.38912 0.38862 0.38838 0.38812 0.38812 0.38788 0.38812 0.38812 0.38775 0.38775 0.38775 0.3875 0.38725 0.38675 0.38675 0.38675 0.3865 0.38588 0.38588 0.38512 0.38512 0.38488 0.38488 0.3845 0.38362 0.38312 0.38312 0.38038 0.38025 0 0 0 0 0 1.4276 1.4214 1.4214 1.4152 1.4152 1.4152 1.4121 1.409 1.409 1.3999 1.406 1.409 1.4152 1.4307 1.4307 1.4307 1.4307 1.4404 1.4467 1.4435 1.434 1.4371 1.4404 1.4435 1.45 1.45 1.4467 1.4467 1.4307 1.4276 1.4276 1.4245 1.4183 1.4152 1.409 1.409 1.409 1.3999 1.3939 1.3909 1.385 1.3791 1.3733 1.3733 1.3761 1.3761 1.3761 1.3791 1.3733 1.3733 1.388 1.385 1.4214 1.4404 1.4532 1.4565 1.4565 1.4664 1.4697 1.4598 1.4631 1.45 1.45 1.45 1.4532 1.4565 1.4764 1.473 1.4797 1.4797 1.4764 1.4697 1.4631 1.4598 1.4598 1.4532 1.4532 1.4532 1.45 1.4467 1.4435 1.4404 1.4435 1.4371 1.4371 1.434 1.4276 1.4276 1.4276 1.4307 1.434 1.4371 1.4371 1.4371 1.4435 1.4565 1.4631 1.4631 1.4631 1.4631 1.4598 1.4631
3.1126 3.1126 3.083 3.083 3.0978 3.083 3.054 3.083 3.1126 3.1276 3.1276 3.1126 3.0978 3.083 3.1891 3.2207 3.2207 3.2049 3.1735 3.1581 3.1581 3.1581 3.1891 3.2207 3.2531 3.2695 3.286 3.354 3.4249 3.4614 3.48 3.4987 3.5176 3.7194 3.7625 3.7844 3.8749 3.8066 3.8066 3.8291 3.7625 3.636 3.636 3.636 3.5956 3.5562 3.4987 3.4987 3.48 3.4987 3.48 3.48 3.48 3.4987 3.5369 3.7194 3.7407 3.7625 3.7407 3.7625 3.8291 3.8519 3.8981 3.9216 3.9216 3.9696 3.9941 4.0189 3.9696 3.8981 3.8749 3.8749 3.8519 3.8519 3.8749 3.8981 3.8749 3.8749 3.8981 4.0189 4.095 4.1472 4.0693 4.174 4.174 4.174 3.8981 3.8981 1.8356 1.8461 1.8461 1.8514 1.8514 1.8461 1.8409 1.8461 1.8356 1.8356 1.8305 1.8202 1.8253 1.8202 1.8253 1.8305 1.8305 1.8356 1.8356 1.8356 1.8409 1.8356 1.8305 1.8253 1.8253 1.8253 1.8202 1.8253 1.8202 1.8253 1.8202 1.8356 1.8514 1.8566 1.8514 1.8514 1.8461 1.8514 1.8514 1.862 1.8727 1.8674 1.862 1.8566 1.862 1.8674 1.862 1.8566 1.8514 1.8409 1.8253 1.8202 1.8202 1.8356 1.8305 1.8305 1.8253 1.8409 1.8253 1.8253 0 0 0 0 0 1.8202 1.8202 1.8305 1.8305 1.8461 1.8514 1.8566 1.8514 0 0 0 0 0 0 0 0.3335 0.3335 0.3355 0.33587 0.33587 0.33575 0.33575 0.33587 0.33613 0.33587 0.33575 0.334 0.33413 0.33263 0.33213 0.332 0.332 0.33175 0.33175 0.33175 0.33175 0.33225 0.3325 0.38088 0.38675 0.38888 0.38888 0.39237 0.39213 0.39363 0.39375 0.394 0.39375 0.39375 0.39363 0.39337 0.39313 0.39263 0.39237 0.39187 0.39137 0.39125 0.39 0.38975 0.3895 0.38938 0.38938 0.38938 0.38912 0.38912 0.38912 0.3895 0.38975 0.3895 0.38938 0.38938 0.38862 0.38838 0.38838 0.38812 0.38812 0.38788 0.38812 0.38812 0.38775 0.38775 0.38775 0.38725 0.38725 0.38675 0.3865 0.3865 0.38612 0.38562 0.38512 0.38488 0.38488 0.3845 0.3845 0.38425 0.38375 0.38338 0.38288 0.38175 0.38025 0.38225 0.38238 0.38262 0.38238 0.38225 0.38262 0.38175 0.382 0.382 0.38312 0.38312 1.406 1.406 1.406 1.3969 1.3999 1.4121 1.409 1.4276 1.4276 1.4307 1.434 1.4404 1.4435 1.4371 1.4307 1.434 1.4404 1.4404 1.4435 1.4467 1.4467 1.4435 1.4276 1.4245 1.4245 1.4183 1.4152 1.409 1.406 1.403 1.3999 1.3939 1.3939 1.3939 1.382 1.3761 1.3733 1.3733 1.3733 1.3733 1.3733 1.3733 1.3733 1.3704 1.3791 1.3939 1.403 1.409 1.4183 1.4245 1.4307 1.4371 1.4435 1.4467 1.4467 1.4371 1.4371 1.4404 1.4404 1.4435 1.4435 1.4764 1.45 1.4532 1.4565 1.4565 1.4532 1.45 1.4467 1.4467 1.4435 1.4435 1.4404 1.434 1.4307 1.4307 1.434 1.4276 1.4245 1.4245 1.4183 1.4214 1.4214 1.4245 1.4214 1.4245 1.4245 1.4245 1.4276 1.4404 1.4435 1.4435 1.4435 1.4435 1.4435 1.45
3.1126 3.0978 3.083 3.0685 3.083 3.0685 3.054 3.083 3.1126 3.1276 3.1126 3.1276 3.1126 3.1126 3.1891 3.2207 3.2369 3.2049 3.1891 3.1735 3.1735 3.1735 3.1891 3.2049 3.2531 3.286 3.286 3.3714 3.443 3.48 3.4614 3.4614 3.4249 3.4249 3.3367 3.3367 3.4614 3.4249 3.443 3.4614 3.4614 3.5956 3.5956 3.5759 3.5759 3.5176 3.4614 3.4614 3.4614 3.4614 3.443 3.4614 3.48 3.4987 3.5369 3.6981 3.7194 3.7407 3.7407 3.7407 3.8291 3.8519 3.8749 3.9216 3.9216 3.9941 4.0189 4.0693 4.0189 3.9455 3.9216 3.8981 3.8749 3.8749 3.8981 3.8981 3.9216 3.8981 3.9216 4.0439 4.1472 4.2284 1.862 1.862 1.8461 1.8461 1.8461 1.8305 1.8305 1.8461 1.8514 1.8566 1.8514 1.8461 1.8461 1.8461 1.8409 1.8356 1.8356 1.8253 1.8253 1.8253 1.8253 1.8305 1.8305 1.8253 1.8305 1.8305 1.8356 1.8305 1.8253 1.8202 1.8202 1.8202 1.8151 1.8151 1.8202 1.8253 1.8202 1.8305 1.8461 1.8514 1.8514 1.8461 1.8409 1.8461 1.8461 1.862 1.8674 1.8674 1.8566 1.8514 1.8514 1.8836 1.8727 1.8566 1.8514 1.8305 1.8253 1.8202 1.8202 1.8356 1.8305 1.8253 1.8253 0 0 0 0 0 0 0 0 0 1.8202 1.8253 1.8202 1.8409 1.8461 1.8514 0 0 0 0 0 0 0 0 0.3335 0.33413 0.335 0.33537 0.3355 0.33537 0.33537 0.33537 0.3355 0.33575 0.33525 0.334 0.3335 0.33275 0.33213 0.33213 0.332 0.33175 0.33175 0.33175 0.33213 0.33225 0.33225 0 0 0.3895 0.3895 0.39313 0.39337 0.39363 0.39375 0.394 0.394 0.39375 0.394 0.39363 0.39337 0.39287 0.39263 0.39187 0.39163 0.39125 0.39 0.38975 0.3895 0.38912 0.38912 0.38912 0.38912 0.38888 0.38912 0.3895 0.3895 0.38938 0.38938 0.38912 0.38862 0.38838 0.38838 0.38838 0.38812 0.38812 0.38788 0.38788 0.38775 0.3875 0.3875 0.38725 0.387 0.387 0.38625 0.38612 0.38612 0.38512 0.38488 0.38475 0.38475 0.38425 0.38425 0.38425 0.384 0.38362 0.38312 0.38262 0.38225 0.38225 0.38262 0.38238 0.38238 0.38238 0.38238 0.382 0.382 0.382 0.38262 0.38312 0 0 0 0 0 1.3999 1.403 1.4214 1.4245 1.4276 1.434 1.4371 1.4404 1.4307 1.4307 1.434 1.4371 1.4371 1.4404 1.4435 1.4467 1.4467 1.4276 1.4276 1.4214 1.4152 1.4121 1.409 1.403 1.403 1.3969 1.3909 1.3939 1.3909 1.382 1.3761 1.3733 1.3733 1.3733 1.3733 1.3761 1.3791 1.3704 1.3704 1.3761 1.3909 1.3939 1.3969 1.406 1.4121 1.4183 1.4276 1.4307 1.4371 1.4371 1.4276 1.4307 1.4307 1.4307 1.4276 1.4245 1.4245 1.4276 1.434 1.4467 1.4467 1.4467 1.4467 1.4435 1.4435 1.4404 1.4371 1.434 1.4307 1.4276 1.4245 1.4245 1.4245 1.4214 1.4214 1.4183 1.4214 1.4214 1.4214 1.4214 1.4214 1.4214 1.4214 1.4245 1.4307 1.434 1.434 1.434 1.434 1.434 1.4435
3.1126 3.1126 3.1126 3.0978 3.1126 3.0978 3.0978 3.1126 3.1581 3.1427 3.1427 3.1427 3.1276 3.1427 3.2049 3.2207 3.2369 3.2369 3.1891 3.1891 3.1891 3.2049 3.2049 3.2207 3.2207 3.286 3.3028 3.354 3.389 3.4249 3.443 3.4249 3.4249 3.4249 3.3714 3.4069 3.443 3.4069 3.4069 3.4249 3.443 3.5759 3.5562 3.5369 3.5176 3.48 3.4614 3.4614 3.48 3.4614 3.443 3.4614 3.48 3.4987 3.5562 3.6771 3.6981 3.7407 3.7194 3.7407 3.8291 3.8749 3.8981 3.9455 3.9696 3.9941 4.0189 4.0693 4.0439 3.9696 3.9216 3.9216 3.8981 3.8981 3.9455 3.9455 3.9696 3.9696 3.9455 3.9455 4.201 4.201 1.8566 1.8514 1.8461 1.8409 1.8356 1.8305 1.8253 1.8253 1.8356 1.8461 1.8461 1.8409 1.8305 1.8356 1.8356 1.8305 1.8253 1.8253 1.8202 1.8202 1.8202 1.8305 1.8305 1.8253 1.8253 1.8253 1.8356 1.8356 1.8202 1.8151 1.8151 1.805 1.805 1.8 1.8151 1.8202 1.805 1.8202 1.8356 1.8409 1.8409 1.8356 1.8356 1.8409 1.8461 1.8514 1.8514 1.8566 1.8566 1.8566 1.8566 1.8836 1.8781 1.8566 1.8514 1.8253 1.8202 1.8151 1.8151 1.8202 1.8305 1.8253 1.8253 0 0 0 0 0 0 0 0 0 1.8202 1.8253 1.8202 1.8253 1.8461 1.8514 0 0 0 0 0 0 0 0.334 0.33337 0.33387 0.33437 0.33475 0.33475 0.3345 0.33437 0.3345 0.3345 0.33363 0.333 0.3325 0.33275 0.3325 0.33213 0.332 0.33175 0.33175 0.33163 0.33163 0.33175 0.33175 0.33087 0.33113 0.33075 0.33063 0.39163 0.39237 0.39287 0.39363 0.39375 0.394 0.394 0.39375 0.394 0.39375 0.39337 0.39287 0.39263 0.39213 0.39163 0.39125 0.3905 0.39 0.3895 0.38938 0.38938 0.38912 0.38912 0.38912 0.38938 0.38938 0.38938 0.38938 0.38912 0.38912 0.38838 0.38812 0.38838 0.38838 0.38812 0.38812 0.38812 0.38812 0.3875 0.3875 0.3875 0.38725 0.387 0.387 0.38625 0.38612 0.38588 0.38538 0.38512 0.38475 0.3845 0.3845 0.38425 0.38425 0.38425 0.38375 0.38338 0.38288 0.38238 0.38238 0.38238 0.38262 0.38262 0.38238 0.38225 0.38175 0.3815 0.38225 0.38238 0.38262 0 0 0 0 0 1.3999 1.403 1.4245 1.4245 1.4214 1.4307 1.4245 1.4183 1.4214 1.4214 1.4307 1.434 1.434 1.4371 1.4404 1.4435 1.4435 1.434 1.4245 1.4183 1.4121 1.409 1.406 1.403 1.403 1.3969 1.3939 1.3939 1.3909 1.385 1.3791 1.3733 1.3761 1.3761 1.3791 1.3791 1.3791 1.3733 1.3733 1.3761 1.388 1.3939 1.3939 1.3939 1.3969 1.403 1.409 1.4152 1.4214 1.4245 1.4183 1.4214 1.4245 1.4183 1.4152 1.4121 1.409 1.4152 1.4152 1.4214 1.4245 1.4214 1.4245 1.4214 1.4183 1.4183 1.4121 1.4121 1.409 1.409 1.409 1.406 1.409 1.4121 1.4121 1.409 1.4121 1.4121 1.406 1.3999 1.3999 1.403 1.403 1.403 1.409 1.409 1.409 1.4152 1.4152 1.4152 1.4276
3.1276 3.1276 3.1276 3.1427 3.1427 3.1581 3.1735 3.1735 3.1891 3.1735 3.1276 3.1276 3.1276 3.1126 3.2049 3.2207 3.2369 3.2369 3.2207 3.2207 3.2369 3.2207 3.2207 3.2207 3.2207 3.286 3.3028 3.354 3.389 3.4249 3.4249 3.4069 3.4069 3.4069 3.389 3.4249 3.443 3.4069 3.4069 3.4249 3.4614 3.5956 3.5759 3.5562 3.5369 3.4987 3.48 3.4987 3.48 3.4987 3.4987 3.48 3.4987 3.5369 3.5759 3.6565 3.6981 3.7194 3.7194 3.7194 3.8066 3.8519 3.8749 3.9455 3.9696 3.9696 3.9941 4.0439 4.0439 3.9941 3.9941 3.9696 3.9696 3.9216 3.9941 4.0693 4.0439 4.0439 3.9696 3.9941 0 0 1.8566 1.8566 1.8514 1.8409 1.8356 1.8356 1.8253 1.8305 1.8409 1.8409 1.8409 1.8356 1.8305 1.8305 1.8305 1.8305 1.8253 1.8202 1.8202 1.8202 1.8253 1.8253 1.8305 1.8253 1.8202 1.8253 1.8305 1.8356 1.8253 1.8253 1.8202 1.805 1.8 1.805 1.81 1.8151 1.805 1.8202 1.8356 1.8356 1.8356 1.8356 1.8305 1.8409 1.8461 1.8409 1.8461 1.8514 1.8514 1.8514 1.8566 1.8781 1.8727 1.8566 1.8514 1.8253 1.8202 1.8151 1.8151 1.8202 0 0 0 0 0 0 0 0 0 0 0 0 0 0 0 0 0 0 0 0 0 0 0 0 0 0.334 0.33337 0.3335 0.3335 0.33313 0.33313 0.33313 0.333 0.333 0.333 0.33275 0.33263 0.332 0.332 0.33163 0.33175 0.3315 0.33125 0.33113 0.33125 0.33125 0.33113 0.33087 0.33075 0.33037 0.33025 0.33075 0.39163 0.39163 0.39337 0.39337 0.39375 0.39375 0.394 0.394 0.39375 0.39375 0.39363 0.39313 0.39287 0.39237 0.39187 0.39137 0.39075 0.3905 0.39 0.38975 0.38975 0.38975 0.3895 0.38938 0.3895 0.3895 0.38938 0.38912 0.38912 0.38912 0.38838 0.38812 0.38838 0.38812 0.38838 0.38812 0.38812 0.38812 0.38788 0.38775 0.38775 0.3875 0.38725 0.38725 0.38625 0.38625 0.38588 0.38562 0.38538 0.38488 0.3845 0.38425 0.384 0.38425 0.384 0.38375 0.38338 0.38288 0.38262 0.38238 0.38238 0.38238 0.38238 0.38225 0.382 0.38175 0.38175 0.38262 0.38262 0.38262 0 0 0 0 0 1.3999 1.403 1.4276 1.4214 1.4214 1.4307 1.4183 1.4214 1.4214 1.4276 1.4371 1.434 1.434 1.4371 1.4404 1.4435 1.4435 1.4307 1.4245 1.4183 1.409 1.406 1.403 1.403 1.3999 1.3969 1.3909 1.3939 1.3909 1.388 1.382 1.3791 1.382 1.382 1.385 1.3909 1.3909 1.385 1.382 1.382 1.3909 1.3939 1.3939 1.3939 1.3939 1.3939 1.403 1.403 1.4152 1.4183 1.409 1.4121 1.4121 1.409 1.409 1.406 1.403 1.4121 1.4121 1.4183 1.4183 1.4121 1.4121 1.4121 1.4121 1.409 1.403 1.3999 1.3969 1.3999 1.3999 1.3999 1.403 1.406 1.406 1.406 1.406 1.409 1.3999 1.3969 1.3969 1.3969 1.3969 1.3999 1.403 1.406 1.409 1.4121 1.4121 1.4152 1.4214
3.1276 3.1276 3.1276 3.1427 3.1427 3.1735 3.1891 3.1891 3.1891 3.1735 3.0978 3.083 3.083 3.083 3.2049 3.2049 3.2369 3.2369 3.2207 3.2207 3.2369 3.2207 3.2207 3.2207 3.2207 3.286 3.3028 3.3367 3.3714 3.4069 3.4249 3.4069 3.389 3.4069 3.389 3.4069 3.4249 3.4069 3.4249 3.4249 3.48 3.5956 3.5956 3.5759 3.5369 3.4987 3.48 3.48 3.4987 3.5176 3.4987 3.5176 3.5176 3.5369 3.5759 3.6565 3.6771 3.7194 3.6981 3.7407 3.7625 3.8066 3.8291 3.9216 3.9216 3.9216 3.9455 3.9696 4.0189 4.0189 3.9941 4.0189 4.0189 4.0439 4.3708 0 0 1.8727 1.8727 1.8566 1.862 1.862 1.8566 1.8514 1.8461 1.8461 1.8409 1.8356 1.8305 1.8356 1.8356 1.8409 1.8356 1.8305 1.8305 1.8253 1.8305 1.8253 1.8202 1.8202 1.8202 1.8202 1.8202 1.8253 1.8253 1.8202 1.8253 1.8202 1.8305 1.8305 1.8305 1.8305 1.8253 1.805 1.795 1.8 1.805 1.81 1.805 1.8202 1.8253 1.8356 1.8305 1.8253 1.8305 1.8409 1.8409 1.8356 1.8409 1.8461 1.8461 1.8461 1.8461 1.8674 1.862 1.8461 1.8461 1.8356 1.8253 1.8253 1.8202 0 0 0 0 0 0 0 0 0 0 0 0 0 0 0 0 0 0 0 0 0 0 0 0 0.333 0.333 0.33337 0.33337 0.33337 0.33337 0.33275 0.33275 0.33275 0.3325 0.3325 0.3325 0.33225 0.33213 0.33175 0.33163 0.33125 0.3315 0.33113 0.33087 0.33075 0.33113 0.33113 0.33087 0.33075 0.33063 0.33025 0.32987 0.32775 0.32788 0.32675 0.32612 0.32612 0 0.394 0.394 0.39375 0.39375 0.39375 0.39363 0.39313 0.39313 0.39213 0.39163 0.39137 0.39125 0.39075 0.39025 0.39025 0.39 0.39 0.3895 0.38938 0.3895 0.3895 0.38938 0.38912 0.38912 0.38912 0.38838 0.38812 0.38812 0.38812 0.38812 0.38838 0.38812 0.38838 0.38788 0.38788 0.38788 0.38775 0.38775 0.38725 0.38675 0.38625 0.38612 0.38562 0.38562 0.38475 0.3845 0.384 0.38375 0.384 0.384 0.38338 0.38312 0.38288 0.38238 0.38262 0.38238 0.38238 0.38238 0.38225 0.38225 0.382 0.382 0.38288 0.38312 0.38362 0.38375 0.38338 0.38338 0 0 0 0 0 0 0 0 1.4183 1.4214 1.4214 1.4307 1.4435 1.4371 1.434 1.4371 1.4371 1.4435 1.4435 1.4276 1.4214 1.4152 1.406 1.403 1.403 1.3999 1.3969 1.3909 1.388 1.3909 1.388 1.388 1.382 1.382 1.382 1.388 1.3909 1.3969 1.3999 1.3909 1.388 1.388 1.3909 1.3939 1.3939 1.3909 1.388 1.388 1.3939 1.3969 1.3969 1.406 1.403 1.403 1.406 1.3999 1.3999 1.3999 1.3999 1.406 1.406 1.4121 1.4121 1.403 1.406 1.406 1.403 1.3999 1.3939 1.388 1.385 1.388 1.3939 1.3909 1.3969 1.3999 1.3999 1.3999 1.403 1.403 1.3969 1.3909 1.3909 1.3939 1.3939 1.3969 1.3969 1.403 1.403 1.409 1.409 1.4121 1.4121
3.083 3.1126 3.1276 3.1126 3.1276 3.1427 3.1735 3.1891 3.1891 3.1735 3.0978 3.083 3.083 3.083 3.1891 3.2049 3.1891 3.1891 3.1891 3.1891 3.1891 3.1891 3.1891 3.2049 3.2049 3.2531 3.2695 3.3367 3.3714 3.389 3.4249 3.4069 3.389 3.389 3.389 3.4249 3.4249 3.4069 3.4249 3.443 3.48 3.5956 3.5956 3.5759 3.5369 3.4987 3.4987 3.4987 3.5176 3.5176 3.5369 3.5369 3.5562 3.5562 3.5956 3.6565 3.6771 3.7194 3.6981 3.6981 3.7194 3.7407 3.7625 3.8066 3.8291 3.8291 3.8519 3.8519 3.8981 3.8981 3.8981 3.9941 4.0189 4.0693 4.3708 0 0 1.8514 1.8566 1.8514 1.8514 1.8566 1.8514 1.8461 1.8409 1.8356 1.8356 1.8356 1.8253 1.8253 1.8305 1.8253 1.8202 1.8202 1.8202 1.8202 1.8202 1.8202 1.8151 1.8151 1.8151 1.81 1.8151 1.8202 1.8202 1.8151 1.8151 1.8202 1.8253 1.8305 1.8305 1.8253 1.8202 1.8 1.7851 1.79 1.8 1.805 1.795 1.805 1.8151 1.8151 1.8202 1.8202 1.8202 1.8253 1.8305 1.8305 1.8305 1.8305 1.8253 1.8202 1.8202 1.8202 1.8253 1.8202 1.8202 1.8202 1.81 1.81 1.8 0 0 0 0 0 0 0 0 0 0 0 0 0 0 0 0 0 0 0 0 0 0 0.33363 0.33387 0.333 0.33313 0.3335 0.33275 0.33263 0.33263 0.3325 0.3325 0.3325 0.332 0.332 0.332 0.33175 0.33163 0.3315 0.33125 0.33113 0.33113 0.33087 0.33063 0.33063 0.33075 0.33075 0.33063 0.33063 0.33037 0.32987 0.32975 0.32837 0.32788 0.32738 0.32662 0.32612 0.32662 0.32662 0.32675 0.39375 0.39363 0.39363 0.39337 0.39263 0.39237 0.39213 0.39187 0.39187 0.39125 0.391 0.39075 0.3905 0.3905 0.39 0.38938 0.38938 0.3895 0.3895 0.3895 0.38912 0.38912 0.38862 0.38788 0.3875 0.38775 0.38775 0.38812 0.38812 0.38812 0.38812 0.38788 0.38788 0.38788 0.38775 0.38775 0.38725 0.38675 0.3865 0.38625 0.38538 0.38488 0.384 0.38375 0.38338 0.38338 0.38312 0.38312 0.38262 0.38238 0.38238 0.38238 0.38238 0.38238 0.38238 0.38238 0.38225 0.38225 0.382 0.382 0.38288 0.38238 0.38262 0.38238 0.38238 0.38238 0 0 0 0 0 0 0 0 1.4183 1.4183 1.4245 1.4214 1.4467 1.4404 1.4371 1.434 1.4404 1.4404 1.4404 1.4307 1.4214 1.4152 1.406 1.403 1.3999 1.3969 1.3939 1.388 1.382 1.385 1.382 1.382 1.3791 1.3791 1.382 1.388 1.3909 1.3969 1.3999 1.3909 1.388 1.388 1.3909 1.388 1.385 1.382 1.382 1.3761 1.3761 1.3761 1.3791 1.385 1.385 1.388 1.3909 1.388 1.388 1.3909 1.3909 1.3999 1.3999 1.3999 1.403 1.3939 1.3939 1.3969 1.3909 1.385 1.3791 1.3704 1.3704 1.3733 1.3761 1.3791 1.385 1.3939 1.3939 1.3909 1.3969 1.3969 1.3909 1.388 1.385 1.385 1.385 1.382 1.388 1.3969 1.3999 1.403 1.409 1.406 1.406
3.0978 3.1126 3.1276 3.1126 3.1126 3.1581 3.1891 3.1891 3.1891 3.1581 3.083 3.0685 3.083 3.083 3.1276 3.1427 3.1735 3.1581 3.1427 3.1581 3.1427 3.1276 3.1581 3.1735 3.1891 3.2531 3.2695 3.354 3.389 3.4069 3.4249 3.4249 3.389 3.4069 3.4069 3.4614 3.4614 3.4249 3.443 3.48 3.4987 3.5956 3.5956 3.5759 3.5759 3.5176 3.5369 3.5562 3.5759 3.5759 3.5956 3.5956 3.636 3.636 3.636 3.6771 3.6771 3.6981 3.6981 3.6771 3.7194 3.7194 3.7407 3.8066 3.8066 3.8066 3.8066 3.8291 3.8981 3.8981 3.8981 3.9941 4.0189 4.0693 4.3708 0 0 1.8514 1.8461 1.8461 1.8514 1.8566 1.8566 1.8409 1.8356 1.8356 1.8356 1.8305 1.8253 1.8253 1.8305 1.8253 1.8151 1.8151 1.8202 1.8202 1.8202 1.8202 1.8151 1.8151 1.81 1.81 1.805 1.8202 1.8151 1.8151 1.81 1.8151 1.8202 1.8305 1.8253 1.8253 1.8151 1.79 1.7851 1.7851 1.795 1.795 1.795 1.8 1.81 1.81 1.8151 1.8151 1.8151 1.8253 1.8202 1.8253 1.8253 1.8253 1.8151 1.81 1.81 1.81 1.8151 1.8151 1.8151 1.8151 1.8151 1.805 1.8 0 0 0 0 0 0 0 0 0 0 0 0 0 0 0 0 0 0 0 0 0 0 0.33363 0.33387 0.3335 0.33313 0.33337 0.33263 0.33263 0.33263 0.3325 0.33225 0.33225 0.332 0.33175 0.33175 0.3315 0.3315 0.33125 0.33113 0.33087 0.33087 0.33087 0.33063 0.33063 0.33075 0.33075 0.33037 0.33063 0.33037 0.32975 0.32963 0.32925 0.32875 0.32825 0.32725 0.32688 0.32688 0.32662 0.32675 0 0.39363 0.39363 0.39313 0.39263 0.39237 0.39213 0.39213 0.39237 0.39187 0.39163 0.391 0.39075 0.39125 0.3895 0.3895 0.38938 0.38975 0.3895 0.38938 0.38938 0.38912 0.38862 0.3875 0.38725 0.38725 0.38725 0.38775 0.3875 0.38788 0.38788 0.38775 0.38788 0.38775 0.38775 0.3875 0.38725 0.38675 0.38675 0.38625 0.38512 0.38475 0.38375 0.38338 0.38312 0.38288 0.38288 0.38238 0.38225 0.38225 0.38225 0.38238 0.38238 0.38238 0.38262 0.38262 0.38225 0.38225 0.38225 0.38238 0.38262 0.38238 0.38225 0.38225 0.38225 0.38238 0 0 0 0 0 0 0 0 0 0 0 1.4532 1.45 1.4435 1.4404 1.4371 1.4404 1.4404 1.4404 1.4371 1.4307 1.4245 1.406 1.403 1.403 1.3999 1.3939 1.388 1.382 1.385 1.385 1.382 1.3791 1.3761 1.382 1.385 1.388 1.3969 1.3999 1.3909 1.388 1.388 1.388 1.388 1.382 1.3791 1.3791 1.3761 1.3733 1.3733 1.3733 1.382 1.3791 1.385 1.385 1.385 1.385 1.385 1.385 1.3909 1.3939 1.3969 1.3969 1.388 1.388 1.385 1.388 1.382 1.3761 1.3646 1.3675 1.3704 1.3733 1.3761 1.3791 1.388 1.388 1.388 1.3909 1.3939 1.388 1.382 1.3791 1.3791 1.3791 1.3761 1.382 1.388 1.3939 1.3969 1.3999 1.3999 1.409
3.0978 3.1276 3.1276 3.1276 3.1126 3.1581 3.1891 3.1735 3.1427 3.1276 3.0398 3.0398 3.0255 3.0398 3.0398 3.083 3.1276 3.1276 3.0978 3.083 3.0685 3.0685 3.1126 3.1427 3.1735 3.2695 3.3028 3.3714 3.4069 3.443 3.443 3.4249 3.4069 3.4069 3.4249 3.4614 3.4614 3.443 3.4614 3.48 3.4987 3.5759 3.5956 3.5759 3.5562 3.5176 3.5369 3.5759 3.5956 3.5956 3.6157 3.636 3.636 3.6565 3.6565 3.6771 3.6981 3.6981 3.6981 3.6771 3.7194 3.7194 3.7625 3.7844 3.7844 3.8066 3.8291 3.8519 3.8749 3.8749 3.8981 3.9941 4.0189 4.0693 4.2561 0 1.81 1.81 1.8409 1.8409 1.8461 1.8514 1.8461 1.8409 1.8409 1.8356 1.8356 1.8305 1.8253 1.8202 1.8253 1.8202 1.8151 1.8151 1.8202 1.8202 1.8202 1.8151 1.8151 1.81 1.81 1.805 1.805 1.8151 1.8151 1.81 1.81 1.81 1.8202 1.8253 1.8253 1.8253 1.81 1.7851 1.7803 1.7851 1.7851 1.7851 1.7851 1.795 1.8 1.805 1.81 1.81 1.81 1.81 1.8151 1.8151 1.8253 1.8151 1.8151 1.805 1.8 1.81 1.81 1.81 1.805 1.8151 1.81 0 0 0 0 0 0 0 0 0 0 0 0 0 0 0 0 0 0 0 0 0 0 0 0.33225 0.3325 0.33363 0.3335 0.333 0.33313 0.33263 0.33263 0.33263 0.33263 0.3325 0.33213 0.33175 0.33163 0.3315 0.33125 0.33125 0.33113 0.33087 0.33075 0.33087 0.33075 0.33063 0.33063 0.33075 0.33063 0.33037 0.33037 0.33025 0.32975 0.32963 0.32913 0.32887 0.32837 0.32738 0.32712 0.32712 0.3265 0.32625 0.32612 0.326 0 0.39287 0.39263 0.39237 0.39213 0.39237 0.39213 0.39213 0.39187 0 0 0 0.32812 0.32825 0.32512 0.32462 0.32475 0 0.32462 0.32462 0 0.3865 0.38675 0.38675 0.38675 0.38725 0.38725 0.38725 0.3875 0.3875 0.38775 0.38775 0.38775 0.3875 0.387 0.3865 0.38625 0.38612 0.38488 0.38475 0.38338 0.38312 0.38262 0.38262 0.38238 0.38225 0.38175 0.382 0.382 0.38238 0.38238 0.38238 0.38262 0.38238 0.38225 0.38225 0.38225 0.38238 0.38238 0.38238 0.38175 0.38175 0.382 0.382 0 0 0 0 0 0 0 0 0 0 0 1.4404 1.4435 1.4404 1.4404 1.4371 1.4404 1.4371 1.4404 1.4371 1.4276 1.4245 1.409 1.409 1.403 1.3969 1.3939 1.3909 1.385 1.385 1.385 1.382 1.3761 1.3761 1.382 1.385 1.3909 1.3939 1.3969 1.388 1.388 1.388 1.385 1.385 1.3791 1.3791 1.3761 1.3761 1.3733 1.3704 1.3733 1.3761 1.3761 1.3791 1.382 1.382 1.3791 1.3791 1.382 1.385 1.388 1.385 1.3909 1.385 1.3791 1.3791 1.3761 1.3761 1.3675 1.3646 1.3675 1.3675 1.3704 1.3704 1.3761 1.382 1.382 1.382 1.388 1.3909 1.382 1.3791 1.3733 1.3704 1.3704 1.3704 1.3733 1.3791 1.385 1.388 1.3909 1.3939 1.385
3.1126 3.1276 3.1581 3.1427 3.1276 3.1735 3.2049 3.1581 3.1276 3.083 2.9701 2.9701 2.9566 2.9566 2.9566 2.9838 3.0115 3.0115 2.9976 2.9976 2.9701 2.9701 3.0115 3.0685 3.1126 3.286 3.3196 3.389 3.4249 3.443 3.48 3.4249 3.4069 3.4069 3.443 3.4614 3.4614 3.443 3.443 3.4614 3.48 3.5369 3.5369 3.5369 3.5176 3.48 3.4614 3.4614 3.5176 3.5956 3.6157 3.636 3.6565 3.636 3.636 3.6771 3.6981 3.6981 3.6771 3.6981 3.7194 3.7407 3.7407 3.7844 3.7844 3.7844 3.8066 3.8291 3.8981 3.8981 3.9216 3.9941 3.9941 3.9941 4.2561 0 1.81 1.81 1.8202 1.8253 1.8305 1.8409 1.8409 1.8305 1.8253 1.8253 1.8253 1.8202 1.8202 1.8202 1.8202 1.8202 1.8151 1.81 1.8151 1.8151 1.8151 1.8151 1.8151 1.81 1.805 1.805 1.805 1.8202 1.8151 1.81 1.81 1.81 1.8151 1.8202 1.8202 1.8151 1.8 1.7803 1.7754 1.7803 1.7851 1.7803 1.7803 1.79 1.79 1.7851 1.7851 1.79 1.8 1.795 1.795 1.795 1.8 1.8 1.795 1.795 1.795 1.805 1.805 1.805 1.805 1.8151 1.81 0 0 0 0 0 0 0 0 0 0 0 0 0 0 0 0 0 0 0 0 0 0 0 0.33225 0.33263 0.333 0.33263 0.33263 0.33263 0.33263 0.33263 0.33263 0.33225 0.33213 0.33175 0.33113 0.33113 0.33087 0.33063 0.33063 0.33063 0.33037 0.33037 0.33025 0.33025 0.33013 0.33013 0.33025 0.33025 0.32987 0.32975 0.32937 0.32925 0.32913 0.32875 0.32863 0.32825 0.32762 0.32725 0.32712 0.32662 0.3265 0.32612 0.32562 0.32562 0.32562 0.32562 0.325 0.32462 0.32475 0.325 0.325 0.325 0.3255 0.32525 0.3255 0.32562 0.32575 0.32512 0.32475 0.32462 0.32438 0.32412 0.32412 0.32438 0.32438 0.32412 0.32412 0.38562 0.38588 0.38612 0.38625 0.3865 0.38625 0.3875 0.3875 0.3875 0.3875 0.38625 0.38625 0.38625 0.38538 0.38512 0.3845 0.38225 0.382 0.38175 0.38112 0.38088 0.38062 0.38062 0.38088 0.38138 0.382 0.38225 0.38238 0.38238 0.38262 0.382 0.38225 0.38225 0.38238 0.38238 0.38225 0.3815 0.3815 0.3815 0.382 0 0 0 0 0 0 0 0 0 0 0 1.4371 1.4371 1.4371 1.4371 1.434 1.434 1.434 1.434 1.4276 1.4245 1.4214 1.406 1.406 1.403 1.3969 1.3969 1.3909 1.385 1.3909 1.388 1.385 1.3791 1.3791 1.382 1.385 1.388 1.3909 1.3939 1.385 1.382 1.385 1.382 1.385 1.3761 1.3791 1.3761 1.3733 1.3733 1.3733 1.3704 1.3761 1.3761 1.3791 1.3791 1.3761 1.3733 1.3733 1.3733 1.3761 1.3733 1.3675 1.3646 1.3646 1.3618 1.3589 1.3589 1.356 1.3533 1.3533 1.356 1.3618 1.3646 1.3675 1.3675 1.3733 1.3791 1.3791 1.3791 1.385 1.3791 1.3704 1.3646 1.3589 1.3589 1.3589 1.3618 1.3675 1.3733 1.3791 1.3791 1.382 1.3791
3.1891 3.1891 3.2049 3.2207 3.2369 3.2531 3.286 3.1891 3.1427 3.083 2.9566 2.9431 2.9299 2.9299 2.9566 2.9701 2.9701 2.9701 2.9701 2.9566 2.9566 2.9566 2.9838 3.0398 3.083 3.2695 3.3196 3.389 3.4249 3.443 3.443 3.4249 3.4069 3.4069 3.4249 3.48 3.48 3.443 3.4614 3.443 3.4614 3.5176 3.5176 3.5176 3.5176 3.48 3.4069 3.4069 3.48 3.5956 3.6157 3.6157 3.6157 3.636 3.6157 3.636 3.6771 3.6981 3.6771 3.6771 3.7194 3.7407 3.7625 3.7844 3.8066 3.7844 3.8291 3.8519 3.9216 3.9455 3.9696 4.0189 3.9455 3.9455 4.2561 0 1.81 1.81 1.8202 1.8202 1.8305 1.8305 1.8305 1.8305 1.8202 1.8202 1.8253 1.8202 1.81 1.81 1.8151 1.8151 1.8151 1.81 1.8151 1.8202 1.8151 1.8202 1.8202 1.8151 1.81 1.81 1.805 1.8253 1.8202 1.81 1.81 1.8151 1.8151 1.8202 1.8151 1.81 1.8 1.7851 1.7803 1.7851 1.7803 1.7803 1.7803 1.79 1.7803 1.7803 1.7754 1.795 1.79 1.79 1.79 1.79 1.795 1.7851 1.79 1.79 1.79 1.8 1.8 1.805 0 0 0 0 0 0 0 0 0 0 0 0 0 0 0 0 0 0 0 0 0 0 0 0 0 0 0.33275 0.33263 0.33263 0.3325 0.33225 0.3325 0.3325 0.3325 0.3325 0.33213 0.33175 0.33163 0.33087 0.33075 0.33075 0.33037 0.33037 0.33037 0.33025 0.33025 0.33013 0.33013 0.32987 0.32987 0.32987 0.32987 0.32963 0.32937 0.32913 0.32887 0.32875 0.32863 0.32837 0.32812 0.32775 0.32762 0.32725 0.32675 0.32662 0.32612 0.32562 0.32562 0.3255 0.32525 0.325 0.32475 0.32475 0.325 0.325 0.325 0.32525 0.3255 0.3255 0.3255 0.3255 0.3255 0.325 0.32475 0.32438 0.324 0.32388 0.32412 0.324 0.324 0.32412 0.38562 0.38562 0.38612 0.38612 0.3865 0.38625 0 0.3875 0.38725 0.3875 0 0 0 0.38538 0.38538 0 0.38238 0.38225 0.38112 0.38062 0.38025 0.38025 0.38 0.38038 0.38062 0.38175 0.382 0.38225 0.38288 0.38288 0.38238 0.38238 0.38262 0.38262 0.38262 0.382 0.38138 0.38138 0.38112 0.382 0 0 0 0 0 0 0 0 0 0 0 1.4371 1.4371 1.4371 1.4371 1.434 1.434 1.4276 1.4276 1.4276 1.4214 1.4183 1.406 1.403 1.3999 1.3999 1.3999 1.3969 1.3909 1.3939 1.3939 1.3909 1.3909 1.385 1.385 1.385 1.385 1.3909 1.3909 1.385 1.382 1.382 1.385 1.385 1.382 1.382 1.3791 1.3761 1.3761 1.3761 1.3761 1.3761 1.3761 1.3791 1.3791 1.3761 1.3733 1.3733 1.3733 1.3761 1.3704 1.3618 1.356 1.3589 1.356 1.356 1.3504 1.3504 1.3476 1.3504 1.3504 1.3589 1.3646 1.3646 1.3646 1.3704 1.3761 1.3761 1.3791 1.382 1.3733 1.3704 1.3618 1.356 1.356 1.3533 1.3589 1.3646 1.3675 1.3733 1.3733 1.3733 1.3733
3.1891 3.1891 3.2049 3.2369 3.2369 3.2695 3.286 3.2049 3.1427 3.083 2.9701 2.9431 2.9299 2.9167 2.9431 2.9566 2.9431 2.9566 2.9566 2.9566 2.9431 2.9431 2.9701 2.9976 2.9566 3.2695 3.3028 3.389 3.389 3.4249 3.4249 3.4249 3.4069 3.4069 3.443 3.48 3.48 3.4614 3.4614 3.443 3.48 3.4987 3.5176 3.5176 3.5176 3.4614 3.4249 3.4249 3.48 3.5759 3.5956 3.5956 3.5956 3.5759 3.5759 3.5759 3.636 3.6981 3.6771 3.6565 3.6981 3.7407 3.7625 3.7625 3.7625 3.7625 3.7844 3.8291 3.9216 3.9455 3.9455 3.8519 3.5176 3.5176 0 0 1.81 1.8151 1.8202 1.8202 1.8253 1.8305 1.8305 1.8202 1.8151 1.8202 1.8151 1.8151 1.8 1.805 1.81 1.81 1.805 1.81 1.8151 1.8151 1.8151 1.8151 1.8151 1.8151 1.81 1.81 1.81 1.8253 1.8202 1.8202 1.8151 1.8151 1.8202 1.8202 1.8202 1.81 1.8 1.7851 1.7803 1.7851 1.7803 1.7851 1.7851 1.7803 1.7754 1.7705 1.7561 0 0 0 0 0 1.7754 1.7754 1.7803 1.7803 1.7851 1.795 0 0 0 0 0 0 0 0 0 0 0 0 0 0 0 0 0 0 0 0 0 0 0 0 0 0 0 0 0.33225 0.3325 0.3325 0.33225 0.332 0.33225 0.33213 0.33213 0.332 0.33175 0.3315 0.33125 0.33087 0.33075 0.33075 0.33037 0.33025 0.33025 0.33013 0.33013 0.32987 0.32975 0.32963 0.32963 0.32975 0.32937 0.32925 0.32913 0.32875 0.32863 0.32837 0.32837 0.32825 0.32825 0.32762 0.32738 0.32738 0.32675 0.32662 0.32612 0.32575 0.32562 0.3255 0.32512 0.32512 0.32462 0.32462 0.32475 0.325 0.32525 0.32525 0.32512 0.32512 0.32525 0.325 0.325 0.32462 0.3245 0.32412 0.32362 0.32362 0.3235 0.3235 0.3235 0.32325 0.32338 0.323 0.323 0.32288 0.32325 0.323 0.32288 0.32362 0.32388 0.3235 0.32338 0.32338 0.32188 0.32112 0.321 0.32062 0.32038 0.32038 0 0.37838 0.3795 0.37925 0.37925 0.3795 0.37975 0.38112 0.3815 0.382 0.38312 0.38312 0.38262 0.38288 0.38312 0.38312 0.38312 0.382 0.38112 0.38138 0.38112 0.32825 0.32825 0.32825 0 0 0 0 0 0 0 0 0 1.4371 1.4371 1.434 1.4371 1.434 1.434 1.4276 1.4276 1.4245 1.4214 1.4152 1.409 1.406 1.406 1.406 1.406 1.403 1.3999 1.3999 1.3969 1.3969 1.3969 1.385 1.385 1.385 1.385 1.3909 1.388 1.385 1.385 1.385 1.388 1.388 1.382 1.3791 1.3791 1.3791 1.3761 1.3761 1.3761 1.3761 1.3761 1.3791 1.3791 1.3761 1.3761 1.3761 1.3791 1.3761 1.3733 1.3618 1.3618 1.3589 1.356 1.3533 1.3504 1.3504 1.3504 1.3476 1.3504 1.356 1.3618 1.3618 1.3618 1.3675 1.3704 1.3704 1.3733 1.3761 1.3704 1.3618 1.356 1.3533 1.3504 1.3504 1.3533 1.356 1.356 1.3589 1.3589 1.3589 1.3589
3.1891 3.2049 3.2049 3.2207 3.2207 3.2695 3.2695 3.2049 3.0685 3.0398 2.9566 2.9299 2.8908 2.8779 2.8779 2.8908 2.8779 2.8779 2.8908 2.9167 2.8779 2.8908 2.9299 2.9299 2.9566 3.3028 3.3196 3.4069 3.389 3.4069 3.4249 3.48 3.443 3.443 3.48 3.5369 3.5562 3.4987 3.4987 3.4987 3.48 3.4987 3.5176 3.5369 3.5369 3.48 3.4069 3.4069 3.48 3.5956 3.5956 3.6157 3.5759 3.5176 3.4987 3.5562 0.7665 0.7665 0.76738 0.7665 0.771 0.7665 0.7665 3.7625 3.7194 3.7407 3.6981 3.7844 3.9696 3.9941 3.9941 3.8519 3.5176 3.5176 0 0 1.81 1.81 1.8253 1.8253 1.8253 1.8253 1.8253 0.78225 0.78225 0.78312 0.78312 0.78412 0.786 0.785 1.805 1.805 1.8 1.795 1.805 1.81 1.81 1.81 1.8151 1.8151 1.8151 1.8151 1.8151 1.8253 1.8253 1.8305 1.8305 1.8253 1.8202 1.8202 1.8151 1.81 1.8 1.79 1.7851 1.7851 1.7754 1.7803 1.7754 1.7657 1.7561 1.7561 1.7561 0 0 0 0 0 1.7754 1.7561 1.7609 1.7657 1.7657 1.795 0 0 0 0 0 0 0.8045 0.8055 0 0 0 0 0 0 0 0 0 0 0 0 0 0 0 0 0 0 0 0 0.3315 0.33175 0.33175 0.33163 0.33163 0.33175 0.33163 0.33163 0.33163 0.33113 0.33113 0.33113 0.33087 0.33075 0.33063 0.33025 0.33025 0.33025 0.33013 0.33013 0.32963 0.32963 0.32925 0.32913 0.32913 0.32913 0.32863 0.32863 0.32863 0.32837 0.32825 0.32812 0.32788 0.32788 0.32762 0.32725 0.32725 0.32675 0.3265 0.32612 0.32575 0.32562 0.32525 0.32512 0.32512 0.32462 0.32475 0.32475 0.325 0.32512 0.32525 0.325 0.32475 0.32462 0.32462 0.32438 0.32412 0.324 0.32362 0.32325 0.323 0.32288 0.32275 0.32325 0.32325 0.323 0.323 0.32275 0.32288 0.32288 0.32288 0.32325 0.32338 0.3235 0.3235 0.32338 0.32275 0.32212 0.32112 0.321 0.32075 0.32038 0.32 0.32038 0.32038 0.3205 0.32 0.32 0.32062 0.32075 0.32125 0.32175 0.32012 0.32 0.3195 0.31938 0.38312 0.3205 0.3205 0.3205 0.3205 0.32212 0.32225 0.32212 0.32288 0.32475 0.32475 0.32712 0.32712 0 0 0 0 0 0 0 1.4371 1.4371 1.434 1.4183 1.4245 1.4276 1.4276 1.4276 1.4214 1.4183 1.4183 1.4121 1.4152 1.4152 1.4152 1.4121 1.409 1.403 1.409 1.409 1.3999 1.3999 1.3909 1.388 1.388 1.388 1.3939 1.3909 1.388 1.388 1.388 1.3909 1.3909 1.388 1.388 1.385 1.382 1.382 1.3791 1.3761 1.3761 1.3761 1.3761 1.3791 1.3791 1.3791 1.3791 1.3791 1.382 1.3761 1.3675 1.3675 1.3646 1.3618 1.3589 1.3504 1.3504 1.3504 1.3504 1.3533 1.3589 1.3589 1.3589 1.3589 1.3618 1.3646 1.3618 1.3675 1.3733 1.3646 1.356 1.3504 1.3447 1.3447 1.342 1.342 1.342 1.3393 1.3365 1.3365 1.3365 1.3393
3.1891 3.2049 3.2049 3.2207 3.2207 3.2531 3.2531 3.0255 3.0115 2.9976 2.9431 2.9167 2.8779 2.8277 2.8401 2.8401 2.8401 2.8277 2.8526 2.8653 2.8401 2.8401 2.9036 2.9167 2.9431 3.3028 3.3367 3.4069 3.4069 3.389 3.443 3.4987 3.48 3.443 3.4987 3.5562 3.5956 3.5176 3.5176 3.5176 3.4987 3.4987 3.5369 3.5562 3.5562 3.48 3.4069 3.4069 3.48 3.6157 3.6157 3.5956 3.5759 3.4987 3.48 3.5759 0.7665 0.7665 0.7665 0.7665 0.771 0.76925 0.7665 0 0 3.636 3.6771 3.7844 4.0189 4.0189 4.0439 4.095 3.5176 3.5369 0 0 0 1.8253 1.8253 1.8253 1.8305 0 1.8151 0.78225 0.78225 0.78312 0.78412 0.78412 0.786 0.785 0 1.79 1.79 1.79 1.8 1.805 1.805 1.805 1.8151 1.8151 1.8151 1.8202 1.8202 1.8305 1.8305 1.8356 1.8409 1.8356 1.8253 1.8202 1.8151 1.805 1.805 1.79 1.7851 1.7803 1.7754 1.7754 1.7803 1.7657 1.7514 1.7466 0 0 0 0 0 0 1.7514 1.7466 1.7514 1.7561 1.7609 1.7657 0 0 0 0 0 0 0.8045 0.8055 0 0 0 0 0 0 0 0 0 0 0 0 0 0 0 0 0 0 0 0 0.3315 0.3315 0.33163 0.3315 0.3315 0.33163 0.33163 0.33125 0.3315 0.33113 0.33087 0.33087 0.33087 0.33075 0.33075 0.33037 0.33037 0.33037 0.33013 0.33013 0.32975 0.32937 0.32925 0.32875 0.32875 0.32875 0.32837 0.32825 0.32837 0.32825 0.32825 0.32812 0.32788 0.32788 0.32738 0.32725 0.32712 0.32675 0.32662 0.32625 0.32575 0.32562 0.32525 0.32512 0.32512 0.325 0.325 0.325 0.325 0.32512 0.325 0.32475 0.32462 0.32462 0.32438 0.32438 0.324 0.32388 0.3235 0.32288 0.32275 0.32275 0.3225 0.323 0.323 0.323 0.32288 0.32275 0.32275 0.32275 0.32275 0.323 0.32338 0.32362 0.3235 0.3235 0.323 0.32238 0.32125 0.321 0.32075 0.32038 0.32012 0.32012 0.32038 0.32038 0.32038 0.32038 0.32062 0.32075 0.32125 0.32162 0.3205 0.31988 0.31962 0.3195 0 0.3205 0.3205 0.32038 0.321 0.32212 0.32212 0.32225 0.32325 0.32388 0.32475 0.32712 0.32712 0 0 0 0 0 0 0 0 0 1.403 1.406 1.4183 1.4214 1.4276 1.4276 1.4214 1.4183 1.4214 1.4183 1.4214 1.4214 1.4183 1.4152 1.4121 1.406 1.409 1.4121 1.3999 1.3939 1.3939 1.3939 1.388 1.388 1.3939 1.3909 1.3909 1.3909 1.3909 1.3969 1.3939 1.388 1.388 1.388 1.385 1.382 1.382 1.3791 1.3791 1.3761 1.3761 1.3761 1.3791 1.3791 1.3791 1.3791 1.382 1.3761 1.3704 1.3675 1.3675 1.3618 1.3589 1.3504 1.3504 1.3504 1.3533 1.356 1.3589 1.3589 1.3589 1.356 1.3589 1.3589 1.3589 1.3646 1.3733 1.3675 1.3589 1.3504 1.3393 1.3393 1.3393 1.3365 1.3393 1.3337 1.3365 1.3337 1.3337 1.3337
3.2049 3.2049 3.2049 3.2049 3.2049 3.1891 3.1891 3.054 2.9976 2.9566 2.9167 2.8908 2.8526 2.8401 2.8526 2.8401 2.8155 2.7912 2.8155 2.8277 2.8032 2.8032 2.8277 2.8653 2.8908 3.3196 3.3367 3.4069 3.389 3.4069 3.48 3.5176 3.4987 3.4614 3.4987 3.5759 0.73025 0.73113 3.5369 3.5176 3.443 3.443 3.443 3.443 3.5759 3.4069 3.4069 3.389 3.4069 3.636 3.6157 3.5956 3.5956 0.762 0.762 0.76462 0.76375 0.76562 0.76562 0.76562 0.76738 0.76562 0.762 0.7665 0.7665 0.77012 0.7665 0.76562 0.76825 0.78025 0.78025 0.77663 0.77287 0.77287 0.75662 0.7575 0.7575 0.76025 0.75313 0.754 0.7505 0.7505 0.75575 0.78025 0.78225 0.78312 0.78412 0.786 0.786 0.78787 0.79175 0.78975 0.78975 0.79363 0.79363 0.8015 0.8055 0.8045 0.8045 0.7995 0.7995 0.79763 0.7985 1.8305 1.8305 1.8409 1.8461 1.8409 0.772 0.77287 1.8151 1.81 1.795 1.79 1.7851 1.7803 1.7803 1.7851 1.7754 1.7705 1.7609 1.7466 0 0 0 0 0 0 1.7374 1.7374 1.7466 1.7561 1.7561 1.7609 0 0 0 0.8055 0.8065 0.8075 0.8045 0.8045 0 0 0 0 0 0 0 0 0 0 0 0 0 0 0 0 0 0 0.32662 0.32675 0.33025 0.33087 0.3315 0.3315 0.3315 0.3315 0.33125 0.33125 0.33125 0.33087 0.33075 0.33075 0.33063 0.33037 0.33037 0.33013 0.33013 0.33013 0.32975 0.32975 0.32963 0.32925 0.32913 0.32863 0.32863 0.32837 0.32825 0.32812 0.32837 0.32825 0.32825 0.32788 0.32775 0.32775 0.32725 0.32725 0.32712 0.32675 0.3265 0.32625 0.32575 0.32575 0.32525 0.32512 0.32512 0.32475 0.32475 0.325 0.325 0.32512 0.32475 0.3245 0.3245 0.3245 0.32412 0.324 0.32388 0.32362 0.32338 0.323 0.32288 0.32275 0.3225 0.32288 0.32288 0.32288 0.32275 0.32275 0.3225 0.32238 0.32238 0.32288 0.323 0.32338 0.32338 0.32338 0.32275 0.32225 0.32112 0.32075 0.32075 0.32012 0.32 0.32038 0.32012 0.32038 0.32012 0.32038 0.32038 0.32062 0.321 0.32125 0.32038 0.31988 0.3195 0.31825 0.31825 0.31862 0.31988 0.32038 0.32062 0.32162 0.32175 0.32188 0.323 0.32362 0.3235 0.32512 0.32525 0 0 0 0 0 0 0 0 0 1.3939 1.3969 1.406 1.4121 1.4245 1.4214 1.4183 1.4183 1.4214 1.4214 1.4245 1.4245 1.4214 1.4183 1.4152 1.409 1.4152 1.4152 1.409 1.403 1.403 1.403 1.3969 1.3969 1.3999 1.3969 1.3909 1.3939 1.3939 1.3969 1.3939 1.3909 1.3909 1.3909 1.385 1.382 1.382 1.3791 1.3791 1.3791 1.3761 1.3791 1.3791 1.382 1.3791 1.382 1.382 1.3791 1.3704 1.3675 1.3675 1.3646 1.3618 1.356 1.356 1.356 1.356 1.3589 1.3618 1.3589 1.3589 1.3589 1.3618 1.3646 1.3618 1.3704 1.3761 1.3704 1.3618 1.3504 1.3365 1.3365 1.3393 1.342 1.3393 1.3365 1.3337 1.3337 1.3337 1.3365
3.2369 3.2369 3.2207 3.2207 3.2049 3.1891 3.1581 3.0398 2.9701 2.9566 2.8779 2.9036 2.8401 2.8401 2.8653 2.8526 2.8155 2.7912 2.8155 2.8277 2.8401 2.7912 2.8032 2.9036 2.8908 3.3367 3.354 3.4249 3.389 3.389 3.5562 3.5369 3.48 3.48 3.5176 3.5176 0.73025 0.73113 3.6565 0 3.443 3.443 3.443 3.443 0 0 0 0 0 0 0 3.6157 3.636 0.762 0.7575 0.75925 0.75838 0.76025 0.76025 0.76025 0.75838 0.75838 0.76025 0.76113 0.76287 0.76462 0.76287 0.76562 0.76825 0.78025 0.78025 0.77663 0.771 0.77287 0.75662 0.75838 0.75838 0.76113 0.75575 0.754 0.75313 0.75225 0.75575 0.78025 0.78125 0.78312 0.78412 0.786 0.787 0.78787 0.78887 0.78787 0.78787 0.787 0.79363 0.8015 0.8055 0.8045 0.7995 0.79763 0.79563 0.79563 0.79763 0 1.8514 1.8514 1.8566 1.8514 0.772 0.77287 1.8253 0 1.795 1.79 1.7851 1.7803 1.79 1.795 1.79 1.7803 1.7754 1.7754 0 0 0 0 0 0 1.7374 1.7374 1.742 1.7561 1.7561 1.7609 0 0 0 0.8055 0.8065 0.8075 0.8065 0.8045 0 0 0 0 0 0 0 0 0 0 0 0 0 0 0 0 0 0 0.32662 0.32675 0.33025 0.33037 0.33125 0.33125 0.33125 0.33113 0.33113 0.33075 0.33113 0.33063 0.33037 0.33037 0.33013 0.33013 0.33013 0.32975 0.32975 0.32963 0.32937 0.32925 0.32913 0.32887 0.32875 0.32837 0.32825 0.32812 0.32788 0.32775 0.32788 0.32825 0.32812 0.32775 0.32762 0.32762 0.32738 0.32725 0.32712 0.3265 0.32625 0.32612 0.32575 0.32562 0.32525 0.32512 0.325 0.32475 0.32475 0.32475 0.32475 0.32475 0.32438 0.324 0.32388 0.324 0.324 0.32388 0.32338 0.32325 0.323 0.3225 0.3225 0.32238 0.32225 0.32238 0.32238 0.32238 0.32225 0.32212 0.32188 0.32175 0.32175 0.32188 0.32225 0.32238 0.32225 0.32238 0.32188 0.32162 0.32062 0.3205 0.32038 0.32 0.31962 0.31988 0.32 0.31988 0.31988 0.31962 0.31988 0.31962 0.31988 0.32 0.32 0.31888 0.31888 0.31825 0.31825 0.31825 0.31875 0.31925 0.32012 0.32075 0.32138 0.32138 0.32288 0.32362 0.32412 0.32462 0.32512 0 0 0 0 0 0 0 0 0 1.3939 1.3969 1.406 1.4121 1.4214 1.4245 1.4183 1.4152 1.4183 1.4214 1.4276 1.4307 1.4276 1.4245 1.4214 1.4183 1.4245 1.4245 1.4214 1.4183 1.4183 1.4183 1.4121 1.409 1.409 1.406 1.3969 1.3969 1.3999 1.3999 1.3999 1.3909 1.3909 1.3909 1.388 1.388 1.385 1.382 1.382 1.3791 1.3791 1.3791 1.382 1.388 1.385 1.385 1.3909 1.382 1.3733 1.3733 1.3704 1.3675 1.3646 1.3618 1.3618 1.3618 1.3618 1.3618 1.3646 1.3646 1.3646 1.3618 1.3675 1.3704 1.3761 1.3791 1.385 1.382 1.3761 1.3646 1.3337 1.3504 1.3533 1.3533 1.3447 1.3393 1.3393 1.3393 1.3393 1.3365
3.2531 3.2369 3.2369 3.2369 3.2049 3.1735 3.1427 2.9299 2.9566 2.9431 2.8653 2.8401 2.5008 2.5104 2.5802 2.8401 2.8155 2.7912 0.71975 0.7205 2.8779 2.9036 0 3.0398 3.054 0.75313 0.754 0.75313 0.75662 0.75575 0 0.72375 0.7245 0.7245 0.72375 0.72862 0.72537 0.7245 0.72537 0.72537 0.72537 0.72537 0.72537 0.72613 0.72613 0.72613 0.73188 0.73275 0.73188 0.73438 0.74875 0.74875 0.74962 0.74962 0.75313 0.75313 0.754 0.75487 0.75575 0.75487 0.75487 0.75487 0.75662 0.75838 0.75925 0.76025 0.75838 0.7505 0.74962 0.75925 0.75925 0.77287 0.76825 0.76825 0.76113 0.7575 0.75925 0.76113 0.75662 0.75487 0.754 0.75487 0.75838 0.77663 0.77938 0.78225 0.78312 0.785 0.786 0.787 0.787 0.786 0.78225 0.78125 0.7785 0.8015 0.78787 0.78887 0.79463 0.79363 0.79275 0.79275 0.78975 0.78975 0 0 1.8566 1.8514 0.77287 0.77287 0.77287 0.77375 0.77663 0 0 1.79 1.8 1.8 1.8 1.8 0 0.78787 0.78787 0.78787 0.79663 0.79663 0.79763 0.79763 0.8015 0.8005 0.8015 0 0.81463 0.81463 0.81463 0.81263 0.81263 0.8075 0.8065 0.8075 0.8065 0.8015 0.8025 0 0 0 0 0 0 0 0 0 0 0 0 0 0 0 0 0 0.32662 0.32675 0.33013 0.33025 0.3315 0.33125 0.33125 0.33113 0.33087 0.33075 0.33087 0.33063 0.33037 0.33037 0.33013 0.32987 0.32987 0.32963 0.32963 0.32963 0.32925 0.32925 0.32887 0.32875 0.32863 0.32825 0.32812 0.32812 0.32775 0.32775 0.32775 0.32812 0.32825 0.32762 0.32762 0.32762 0.32725 0.32712 0.32688 0.3265 0.32612 0.326 0.3255 0.3255 0.32475 0.32475 0.32475 0.32475 0.32475 0.32475 0.32462 0.3245 0.32412 0.324 0.32388 0.324 0.32388 0.32362 0.323 0.32288 0.32275 0.32238 0.32212 0.32212 0.32188 0.32188 0.32188 0.32212 0.32188 0.32138 0.32138 0.32138 0.32138 0.32162 0.32175 0.32188 0.32175 0.32175 0.32138 0.32112 0.32038 0.32012 0.32 0.31962 0.3195 0.3195 0.31962 0.31962 0.3195 0.31938 0.31938 0.31925 0.31925 0.31938 0.31825 0.31838 0.31838 0.31812 0.318 0.318 0.31825 0.31838 0.31812 0.31825 0.31812 0.31825 0.31825 0.32325 0.32388 0.32438 0.32438 0 0 0 0 0 0 0 0 0 0 1.3999 1.406 1.4121 1.4214 1.4245 1.4183 1.4152 1.4183 1.4214 1.4276 1.4307 1.4307 1.4307 1.4276 1.4245 1.4276 1.4276 1.4276 1.4276 1.4214 1.4214 1.4152 1.409 1.406 1.403 1.3999 1.3999 1.403 1.403 1.403 1.3939 1.3909 1.3909 1.388 1.388 1.385 1.382 1.382 1.382 1.3791 1.3791 1.382 1.3909 1.3909 1.388 1.3909 1.385 1.3733 1.3704 1.3704 1.3675 1.3646 1.3589 1.3618 1.3589 1.3589 1.3618 1.3618 1.3646 1.3675 1.3675 1.3704 1.3733 1.3791 1.385 1.388 1.385 1.385 1.382 1.3733 1.3675 1.3646 1.3589 1.3476 1.3447 1.342 1.342 1.3393 1.3393
0.687 0.68837 0.68837 0.69875 0.70175 0.70175 3.1276 2.9299 2.9431 2.9431 2.6651 2.6761 2.4911 2.5008 2.5008 2.5008 2.5104 0.70875 0.70875 0.71262 0.71262 0.71262 0 3.0398 3.054 0.75313 0.75225 0.75138 0.75225 0.73025 0.73113 0.72213 0.72375 0.7245 0.72288 0.72213 0.72288 0.72137 0.72213 0.72375 0.7245 0.7245 0.7245 0.72375 0.72375 0.7245 0.72862 0.73113 0.73275 0.73275 0.73938 0.7445 0.74625 0.74787 0.74787 0.74787 0.74875 0.7505 0.75138 0.75225 0.75138 0.75225 0.75138 0.75225 0.75225 0.75225 0.7505 0.74625 0.7445 0.75313 0.754 0.77012 0.76113 0.75925 0.7575 0.75487 0.75662 0.7575 0.754 0.75225 0.75225 0.75225 0.75313 0.762 0.762 0.7785 0.77938 0.78025 0.78225 0.78125 0.78025 0.7775 0.77475 0.77563 0.77475 0.77663 0.7775 0.77663 0.78225 0.78312 0.78412 0.78312 0.78312 0.78225 0.7785 0.77563 0.77475 0.77375 0.77287 0.77375 0.77375 0.77475 0.77663 0.7785 0.7785 0.78225 0.78125 0.786 0.786 0.785 0.78975 0.78787 0.78975 0.78887 0.79175 0.79463 0.79463 0.79563 0.7995 0.7995 0.7995 0.8035 0.8115 0.8115 0.8115 0.8115 0.8085 0.8045 0.7985 0.7995 0.8035 0.8045 0.8025 0 0 0 0 0 0 0 0 0 0 0 0 0 0 0 0 0 0.32662 0.32675 0.33013 0.33063 0.3315 0.3315 0.33113 0.33113 0.33087 0.33075 0.33075 0.33037 0.33025 0.33013 0.32975 0.32975 0.32963 0.32925 0.32913 0.32913 0.32887 0.32887 0.32887 0.32887 0.32875 0.32837 0.32812 0.32812 0.32788 0.32775 0.32775 0.32788 0.32812 0.32762 0.32738 0.32725 0.32712 0.32688 0.32688 0.3265 0.32612 0.326 0.3255 0.32525 0.325 0.32475 0.32475 0.32462 0.32462 0.32462 0.32438 0.32412 0.32388 0.32362 0.32362 0.32362 0.32338 0.32325 0.32275 0.32275 0.32238 0.32175 0.32175 0.32162 0.32162 0.32138 0.32125 0.32125 0.32138 0.32125 0.32112 0.32125 0.32125 0.32162 0.32162 0.32138 0.32138 0.32112 0.32062 0.32038 0.32 0.32 0.31988 0.319 0.31875 0.31888 0.31875 0.31888 0.31875 0.31875 0.31875 0.31838 0.31825 0.31825 0.31825 0.318 0.31775 0.3175 0.3175 0.3175 0.31738 0.31738 0.31712 0.31738 0.3175 0.31712 0.317 0.31738 0.31738 0.318 0.32438 0 0 0 0 0 0 0 0 0 0 1.3761 1.385 1.3939 1.406 1.4183 1.409 1.406 1.4121 1.4183 1.4245 1.4276 1.4307 1.4307 1.4276 1.4245 1.4276 1.4307 1.4307 1.4276 1.4245 1.4214 1.4152 1.4121 1.409 1.406 1.403 1.403 1.403 1.406 1.406 1.3969 1.3939 1.3939 1.3909 1.388 1.385 1.385 1.382 1.382 1.3791 1.3791 1.385 1.3939 1.3909 1.3939 1.3909 1.385 1.3791 1.3733 1.3733 1.3704 1.3646 1.3646 1.3618 1.3618 1.3618 1.3618 1.3646 1.3646 1.3704 1.3704 1.3733 1.3761 1.382 1.385 1.3909 1.388 1.388 1.388 1.3791 1.3733 1.3704 1.3589 1.3533 1.3476 1.3447 1.3447 1.3447 1.3447
