1.434 1.4371 1.4371 1.4371 1.4371 1.4371 1.4371 1.4404 1.4371 1.4404 1.4435 1.4404 1.434 1.434 1.434 1.4276 1.4245 1.4183 1.4152 1.4121 1.409 1.403 1.403 1.3999 1.3999 1.3999 1.3999 1.403 1.403 1.3999 1.403 1.403 1.403 1.406 1.406 1.4183 1.4152 1.4214 1.4245 1.4245 1.4245 1.4276 1.4214 1.4214 1.4183 1.4183 1.4183 1.4152 1.409 1.4121 1.409 1.409 1.409 1.409 1.409 1.406 1.403 1.403 1.403 1.3969 1.3909 1.3909 1.3939 1.3939 1.3969 1.3969 1.3999 1.3939 1.388 1.388 1.382 1.3791 1.3791 1.3761 1.3733 1.3675 1.3675 1.3675 1.3675 1.3675 1.3675 1.3675 1.3646 1.3618 1.3618 1.3646 1.3589 1.3618 1.3618 1.3618 1.3589 1.356 1.3533 1.3533 1.3504 1.3504 1.3476 1.3504 1.3504 1.3504 1.3476 1.3504 1.3504 1.3504 1.3504 1.3504 1.3476 1.3447 1.3365 1.3365 1.3365 1.3365 1.3393 1.3365 1.3393 1.3447 1.342 1.342 1.3447 1.3447 1.3393 1.3365 1.331 1.3282 1.331 1.3282 1.3256 1.3256 1.3229 1.3256 1.3256 1.3282 1.3282 1.331 1.3337 1.3337 1.3337 1.3337 1.331 1.331 1.3282 1.3256 1.3256 1.3256 1.3256 1.3256 1.3229 1.3229 1.3229 1.3256 1.3229 1.3229 1.3201 1.3201 1.3201 1.3175 1.3229 1.3201 1.3175 1.3121 1.3149 1.3121 1.3121 1.3121 1.3121 1.3121 1.3042 1.3042 1.3042 1.3016 1.3016 1.299 1.299 1.299 1.299 1.3016 1.3016 1.3016 1.3042 1.3042 1.3042 1.3069 1.3069 1.3069 1.3069 1.3042 1.3042 1.3016 1.2939 1.2939 1.2939 1.2913 1.2913 1.2861 1.2811 1.2785 1.2785 1.276 1.276 1.276 1.2785 1.276 1.276 1.276 1.2785 1.2811 1.2811 1.2811 1.2811 1.2836 1.2811 1.2785 1.2785 1.276 1.2735 1.2735 1.2785 1.276 1.2735 1.271 1.2685 1.2685 1.2661 1.2636 1.2611 1.2611 1.2611 1.2636 1.2636 1.2661 1.2685 1.2685 1.2685 1.2661 1.2661 1.2661 1.2661 1.2611 1.2539 1.2563 1.249 1.2466 1.2466 1.2466 1.2466 1.2466 1.2419 1.249 1.2466 1.2466 1.2443 1.249 1.2563 1.2563 1.2563 1.2539 1.2514 1.249 1.249 1.2443 1.2348 1.2324 1.2231 1.2185 1.2185 1.2185 1.2185 1.2208 1.2185 1.2163 1.2185 1.2163 1.2443 1.2419 1.2466 1.2324 1.2116 0.53338 0.5325 0.5325 0.5325 0.5325 0.5325 1.2163 1.2185 1.2185 1.2231 1.2231 1.2277 1.2277 1.2277 1.2301 1.2116 1.2116 1.2094 1.2027 1.1983 1.1983 1.1983 1.196 1.183 1.1744 1.1872 0 0 0 0 0.59225 0.59225 0.59275 0.595 0.601 0.60162 0.60213 0.60162 0.601 0.59988 0.59937 0.59825 0.59662 0.5955 0.58062 0.58013 0.5795 0.5775 0.577 0.576 0.576 0.5755 0.57488 0.57288 0.57188 0.57137 0.56888 0.56688 0.56588 0.56537 0.56437 0.562 0.5615 0.5605 0.55963 0.55863 0.55763 0.55525 0.55425 0.55288 0.551 0.55012 0.54912 0.54863 0.54825 0.54688 0.5455 0.54363 0.5405 0.5395 0.53863 0.53775 0.53738
1.4404 1.4404 1.4467 1.4435 1.4404 1.4371 1.4404 1.4467 1.4435 1.4404 1.4435 1.4371 1.434 1.4307 1.4307 1.4307 1.4245 1.4214 1.4152 1.4121 1.409 1.406 1.406 1.3999 1.3999 1.3999 1.3999 1.403 1.3999 1.403 1.403 1.403 1.406 1.406 1.409 1.4183 1.4183 1.4214 1.4245 1.4245 1.4276 1.4307 1.4276 1.4276 1.4245 1.4245 1.4245 1.4214 1.4152 1.4152 1.4121 1.409 1.409 1.409 1.409 1.406 1.403 1.403 1.403 1.406 1.403 1.403 1.406 1.406 1.409 1.406 1.406 1.3969 1.3909 1.3909 1.382 1.3791 1.3791 1.3761 1.3733 1.3675 1.3675 1.3704 1.3675 1.3704 1.3733 1.3704 1.3675 1.3675 1.3618 1.3646 1.3618 1.3589 1.3589 1.3618 1.3589 1.356 1.3533 1.3504 1.3504 1.3504 1.3504 1.3504 1.3533 1.3504 1.3504 1.3533 1.3504 1.3504 1.3476 1.3504 1.3476 1.3476 1.3365 1.3337 1.3365 1.3365 1.3393 1.3393 1.3365 1.342 1.342 1.342 1.3447 1.3447 1.3393 1.3365 1.3282 1.3282 1.3282 1.3256 1.3229 1.3229 1.3256 1.3229 1.3256 1.3282 1.331 1.3337 1.3365 1.3393 1.342 1.342 1.3337 1.331 1.3282 1.3282 1.331 1.3282 1.3282 1.3282 1.3256 1.3256 1.3256 1.3282 1.3282 1.3256 1.3229 1.3201 1.3175 1.3175 1.3201 1.3229 1.3201 1.3175 1.3175 1.3201 1.3201 1.3201 1.3175 1.3175 1.3095 1.3069 1.3069 1.3069 1.3042 1.3016 1.3016 1.3016 1.3016 1.3016 1.3042 1.3042 1.3069 1.3042 1.3042 1.3069 1.3069 1.3042 1.3069 1.3042 1.3042 1.299 1.2964 1.2939 1.2939 1.2913 1.2913 1.2888 1.2811 1.2785 1.2785 1.2785 1.276 1.2785 1.2785 1.2785 1.2785 1.2811 1.2836 1.2836 1.2836 1.2836 1.2836 1.2861 1.2836 1.2836 1.2836 1.2785 1.276 1.2785 1.2785 1.2785 1.2735 1.271 1.2661 1.2661 1.2636 1.2611 1.2588 1.2611 1.2611 1.2636 1.2661 1.2685 1.271 1.2735 1.271 1.2735 1.271 1.271 1.2685 1.2661 1.2563 1.2563 1.2514 1.249 1.249 1.249 1.2466 1.2466 1.2443 1.249 1.249 1.249 1.2466 1.2514 1.2588 1.2588 1.2588 1.2588 1.2563 1.2514 1.2539 1.2466 1.2395 1.2371 1.2254 1.2254 1.2254 1.2231 1.2254 1.2254 1.2277 1.2277 1.2301 1.2371 1.2419 1.2419 1.2371 1.2324 1.2231 1.2208 1.2185 1.2163 1.2185 1.2163 1.2163 1.2163 1.2185 1.2208 1.2208 1.2254 1.2254 1.2254 1.2277 1.2277 1.2208 1.2116 1.2094 1.2049 1.2027 1.2027 1.2005 1.1983 1.1872 1.183 1.1872 0 0 0 0 0.59225 0.59225 0.59275 0.59225 0.601 0.605 0.60325 0.6055 0.60437 0.60275 0.60162 0.6005 0.59775 0.59613 0.58113 0.58113 0.58062 0.5785 0.5775 0.577 0.577 0.5775 0.5775 0.5765 0.576 0.5755 0.57288 0.56788 0.56888 0.56788 0.56637 0.563 0.5625 0.562 0.56 0.55963 0.55863 0.55712 0.55625 0.55475 0.552 0.551 0.55012 0.54912 0.54863 0.54775 0.54587 0.54412 0.54175 0.54138 0.54087 0.5395 0.53912
1.4532 1.45 1.4532 1.45 1.4404 1.4404 1.4435 1.45 1.45 1.4435 1.4435 1.4404 1.4307 1.4307 1.434 1.4276 1.4276 1.4214 1.4183 1.4152 1.4121 1.409 1.406 1.403 1.3999 1.3999 1.3969 1.403 1.403 1.3999 1.403 1.403 1.406 1.406 1.409 1.4214 1.4183 1.4245 1.4276 1.4276 1.4276 1.4307 1.4276 1.4245 1.4245 1.4245 1.4245 1.4214 1.4183 1.4183 1.4121 1.409 1.409 1.409 1.409 1.406 1.403 1.406 1.406 1.409 1.406 1.409 1.4121 1.4121 1.4121 1.4121 1.409 1.3999 1.3909 1.388 1.382 1.3791 1.3761 1.3761 1.3733 1.3704 1.3675 1.3733 1.3675 1.3675 1.3704 1.3733 1.3675 1.3646 1.3646 1.3646 1.3589 1.3589 1.3589 1.3589 1.3589 1.356 1.3504 1.3504 1.3504 1.3504 1.3476 1.3504 1.3533 1.3533 1.3504 1.3504 1.3533 1.3504 1.3476 1.3476 1.3476 1.3476 1.3365 1.3365 1.3337 1.3365 1.3365 1.3365 1.3337 1.342 1.3393 1.3393 1.342 1.342 1.3393 1.3365 1.3282 1.3282 1.3256 1.3256 1.3256 1.3229 1.3229 1.3201 1.3229 1.3256 1.3337 1.3365 1.3337 1.3393 1.342 1.342 1.3365 1.3337 1.331 1.331 1.331 1.331 1.3282 1.3282 1.3256 1.3256 1.3256 1.3282 1.3256 1.3256 1.3229 1.3229 1.3201 1.3175 1.3229 1.3229 1.3229 1.3175 1.3201 1.3229 1.3229 1.3229 1.3201 1.3201 1.3121 1.3095 1.3095 1.3069 1.3016 1.3016 1.3016 1.3016 1.3016 1.3016 1.299 1.3016 1.3069 1.3042 1.3016 1.3042 1.3069 1.3042 1.3042 1.3016 1.3016 1.299 1.2939 1.2939 1.2939 1.2939 1.2913 1.2888 1.2811 1.2785 1.2785 1.2811 1.2811 1.2785 1.2811 1.2811 1.2836 1.2836 1.2861 1.2861 1.2861 1.2836 1.2861 1.2861 1.2861 1.2836 1.2836 1.2785 1.2785 1.2785 1.2785 1.2811 1.271 1.2685 1.2661 1.2588 1.2563 1.2563 1.2563 1.2588 1.2588 1.2636 1.2661 1.271 1.2735 1.276 1.2735 1.276 1.276 1.271 1.271 1.2611 1.2588 1.2588 1.2514 1.2514 1.249 1.2466 1.2466 1.2443 1.2419 1.249 1.249 1.249 1.2466 1.2514 1.2588 1.2588 1.2611 1.2588 1.2588 1.2563 1.2563 1.2514 1.2395 1.2371 1.2301 1.2277 1.2277 1.2254 1.2254 1.2277 1.2277 1.2324 1.2348 1.2395 1.2419 1.2395 1.2348 1.2277 1.2185 1.2163 1.214 1.214 1.214 1.214 1.2163 1.2185 1.2163 1.2208 1.2231 1.2208 1.2208 1.2231 1.2231 1.2254 1.2208 1.214 1.2116 1.2049 1.2049 1.2049 1.2005 1.1983 1.1939 1.1916 1.196 0 0 0 0 0 0 0 0.6135 0.61413 0.613 0.61013 0.60888 0.60725 0.605 0.60325 0.59988 0.59825 0.59662 0.58262 0.58213 0.58162 0.579 0.5785 0.578 0.5775 0.578 0.5785 0.5775 0.5775 0.577 0.5765 0.57488 0.57088 0.56888 0.56688 0.5635 0.563 0.5625 0.5605 0.5605 0.55963 0.55763 0.55712 0.55575 0.55288 0.552 0.5505 0.55012 0.54963 0.54825 0.54688 0.545 0.54225 0.54175 0.54138 0.5405 0.54
1.4598 1.4565 1.4532 1.45 1.4435 1.4435 1.4467 1.4565 1.4532 1.4467 1.4435 1.4404 1.434 1.4307 1.4307 1.4276 1.4214 1.4183 1.4152 1.4152 1.409 1.409 1.403 1.3999 1.3999 1.3999 1.3969 1.403 1.403 1.403 1.403 1.403 1.403 1.406 1.409 1.4214 1.4214 1.4245 1.4245 1.4276 1.4307 1.4307 1.4276 1.4276 1.4245 1.4276 1.4245 1.4214 1.4152 1.4152 1.4121 1.409 1.406 1.406 1.406 1.406 1.403 1.406 1.409 1.409 1.4121 1.4121 1.4152 1.4152 1.4152 1.4152 1.4121 1.3969 1.3939 1.3909 1.385 1.3791 1.3791 1.3733 1.3704 1.3675 1.3675 1.3704 1.3704 1.3675 1.3646 1.3618 1.3618 1.3589 1.3646 1.3646 1.3618 1.3589 1.3589 1.3589 1.3589 1.3533 1.3504 1.3533 1.3504 1.3504 1.3504 1.3533 1.3533 1.3533 1.3504 1.3533 1.3504 1.3504 1.3504 1.3504 1.3476 1.342 1.3365 1.3365 1.3337 1.3365 1.3365 1.3365 1.3365 1.3393 1.3393 1.3393 1.3393 1.3393 1.3365 1.3337 1.3256 1.3256 1.3229 1.3201 1.3201 1.3201 1.3201 1.3201 1.3201 1.3229 1.3282 1.3337 1.3337 1.3365 1.342 1.342 1.3365 1.3365 1.3337 1.3337 1.3337 1.331 1.331 1.3282 1.3256 1.3229 1.3229 1.3256 1.3256 1.3229 1.3201 1.3201 1.3175 1.3201 1.3229 1.3229 1.3229 1.3201 1.3201 1.3256 1.3282 1.3256 1.3229 1.3201 1.3149 1.3121 1.3121 1.3042 1.3016 1.299 1.2964 1.2964 1.2939 1.2939 1.2939 1.2964 1.299 1.299 1.2964 1.299 1.3016 1.3042 1.3042 1.299 1.299 1.2964 1.2964 1.2939 1.2939 1.2913 1.2913 1.2888 1.2836 1.2811 1.2811 1.2836 1.2811 1.2811 1.2811 1.2811 1.2836 1.2861 1.2861 1.2861 1.2861 1.2836 1.2861 1.2861 1.2836 1.2836 1.2836 1.2785 1.2785 1.2785 1.2785 1.2785 1.271 1.2636 1.2588 1.2539 1.2514 1.2514 1.2514 1.2563 1.2563 1.2636 1.2661 1.2685 1.276 1.276 1.276 1.276 1.276 1.276 1.2735 1.2661 1.2611 1.2588 1.2539 1.2514 1.249 1.2443 1.2443 1.2443 1.2443 1.2466 1.2466 1.249 1.2466 1.2514 1.2588 1.2588 1.2588 1.2588 1.2588 1.2563 1.2539 1.2514 1.2419 1.2395 1.2301 1.2301 1.2301 1.2301 1.2277 1.2301 1.2301 1.2324 1.2348 1.2371 1.2395 1.2324 1.2277 1.2208 1.2163 1.214 1.214 1.214 1.214 1.2116 1.214 1.2163 1.2163 1.2208 1.2231 1.2185 1.2185 1.2185 1.2163 1.2208 1.2185 1.214 1.2116 1.2071 1.2049 1.2027 1.2005 1.1983 1.196 1.196 1.196 0 0 0 0 0 0 0 0.6135 0.61413 0.6135 0.61175 0.61062 0.6095 0.6055 0.60437 0.6005 0.59888 0.59713 0.58262 0.58325 0.58262 0.58013 0.579 0.5785 0.5775 0.5785 0.5785 0.5785 0.578 0.5775 0.576 0.5755 0.57088 0.56888 0.56688 0.564 0.563 0.5625 0.561 0.5605 0.56 0.55863 0.55763 0.55663 0.55388 0.55337 0.5515 0.551 0.55012 0.54863 0.54725 0.54587 0.54312 0.54275 0.54175 0.54087 0.5405
1.4598 1.4565 1.4565 1.4532 1.45 1.45 1.4532 1.4598 1.4565 1.4565 1.4532 1.45 1.4435 1.4435 1.4404 1.4307 1.4214 1.4183 1.4152 1.4152 1.409 1.409 1.403 1.403 1.3999 1.403 1.403 1.406 1.406 1.403 1.406 1.403 1.409 1.409 1.4121 1.4214 1.4245 1.4245 1.4245 1.4276 1.4307 1.4307 1.4276 1.4276 1.4276 1.4245 1.4214 1.4214 1.4152 1.4152 1.4121 1.409 1.403 1.403 1.406 1.403 1.403 1.409 1.4121 1.4152 1.4183 1.4183 1.4214 1.4214 1.4214 1.4183 1.4152 1.403 1.3999 1.3969 1.3909 1.388 1.382 1.3791 1.3733 1.3675 1.3675 1.3704 1.3704 1.3646 1.3618 1.3589 1.3589 1.3589 1.3618 1.3618 1.3618 1.3618 1.3618 1.3618 1.3646 1.3618 1.3589 1.3589 1.3589 1.3533 1.3533 1.3533 1.356 1.356 1.356 1.3589 1.356 1.3533 1.3533 1.3533 1.3476 1.3447 1.3365 1.3365 1.3365 1.3365 1.3393 1.3365 1.3365 1.3393 1.3365 1.342 1.342 1.3393 1.3365 1.3337 1.3282 1.3282 1.3256 1.3229 1.3201 1.3175 1.3201 1.3175 1.3201 1.3229 1.3282 1.3282 1.3337 1.3337 1.342 1.342 1.3393 1.3393 1.3393 1.3393 1.3393 1.3337 1.3337 1.331 1.3282 1.3229 1.3229 1.3256 1.3256 1.3229 1.3201 1.3201 1.3201 1.3175 1.3256 1.3256 1.3229 1.3201 1.3229 1.3256 1.3256 1.3256 1.3256 1.3201 1.3149 1.3121 1.3121 1.3069 1.3042 1.3016 1.2964 1.2964 1.2939 1.2913 1.2939 1.2939 1.299 1.2964 1.2964 1.299 1.299 1.3042 1.3016 1.3016 1.3016 1.299 1.299 1.299 1.299 1.2939 1.2913 1.2888 1.2888 1.2888 1.2861 1.2888 1.2861 1.2836 1.2861 1.2836 1.2836 1.2861 1.2861 1.2861 1.2861 1.2861 1.2861 1.2888 1.2836 1.2861 1.2836 1.2836 1.2811 1.2785 1.2811 1.2785 1.271 1.2636 1.2588 1.2539 1.2539 1.2514 1.2514 1.2588 1.2588 1.2661 1.2685 1.2735 1.2785 1.2785 1.2785 1.2836 1.2811 1.276 1.276 1.2661 1.2611 1.2563 1.2539 1.2539 1.2514 1.2443 1.2443 1.2419 1.2443 1.249 1.249 1.249 1.249 1.2514 1.2563 1.2588 1.2588 1.2588 1.2588 1.2588 1.2539 1.2539 1.249 1.2443 1.2348 1.2348 1.2348 1.2324 1.2301 1.2324 1.2324 1.2348 1.2348 1.2371 1.2371 1.2324 1.2254 1.2185 1.2163 1.2163 1.214 1.214 1.214 1.214 1.214 1.2163 1.2163 1.2208 1.2254 1.2208 1.2208 1.2208 1.2185 1.2208 1.2185 1.214 1.2116 1.2071 1.2071 1.2049 1.2005 1.2005 1.2005 1.1983 1.1983 0 0 0 0 0 0 0 0.61525 0.61525 0.61475 0.613 0.61175 0.61125 0.60725 0.6055 0.60162 0.59988 0.59888 0.58637 0.58637 0.58425 0.58162 0.58113 0.5785 0.58013 0.58013 0.58062 0.5795 0.5795 0.579 0.578 0.577 0.57037 0.57088 0.56637 0.56488 0.564 0.5635 0.562 0.562 0.561 0.56 0.55912 0.55812 0.55575 0.55475 0.55337 0.55237 0.552 0.55012 0.54912 0.54775 0.545 0.54412 0.54363 0.54225 0.54175
1.4598 1.4598 1.4532 1.4532 1.45 1.45 1.4532 1.4631 1.4598 1.4565 1.4532 1.4532 1.4435 1.4435 1.4435 1.4276 1.4214 1.4152 1.4152 1.4121 1.4121 1.409 1.406 1.403 1.406 1.406 1.406 1.409 1.409 1.409 1.406 1.406 1.409 1.4121 1.4121 1.4214 1.4245 1.4276 1.4276 1.4245 1.4276 1.4307 1.4276 1.4245 1.4245 1.4214 1.4183 1.4183 1.4121 1.4121 1.409 1.406 1.403 1.403 1.403 1.403 1.403 1.409 1.409 1.4152 1.4152 1.4183 1.4183 1.4214 1.4183 1.4152 1.4121 1.406 1.3999 1.3969 1.388 1.388 1.382 1.3791 1.3733 1.3675 1.3675 1.3704 1.3675 1.3646 1.3618 1.3589 1.356 1.3589 1.3618 1.3646 1.3646 1.3646 1.3618 1.3646 1.3618 1.3618 1.3618 1.3589 1.3589 1.356 1.3533 1.356 1.3533 1.356 1.356 1.3589 1.356 1.3533 1.3533 1.3533 1.3476 1.3447 1.3365 1.3365 1.3365 1.3365 1.3365 1.3337 1.3337 1.3393 1.3393 1.342 1.3447 1.342 1.3393 1.3393 1.3337 1.331 1.3282 1.3229 1.3201 1.3201 1.3175 1.3201 1.3201 1.3229 1.3256 1.3282 1.3282 1.3337 1.3393 1.342 1.3337 1.3365 1.3393 1.3393 1.3337 1.331 1.3282 1.3282 1.3256 1.3229 1.3201 1.3229 1.3256 1.3229 1.3201 1.3201 1.3201 1.3201 1.3229 1.3229 1.3229 1.3201 1.3201 1.3256 1.3256 1.3229 1.3201 1.3175 1.3149 1.3149 1.3121 1.3095 1.3069 1.3016 1.299 1.299 1.2939 1.2939 1.2913 1.2913 1.2964 1.2939 1.2939 1.299 1.299 1.3042 1.3042 1.3016 1.3016 1.3016 1.299 1.299 1.3016 1.2964 1.2939 1.2939 1.2888 1.2888 1.2888 1.2888 1.2888 1.2861 1.2836 1.2836 1.2836 1.2888 1.2861 1.2861 1.2836 1.2836 1.2888 1.2861 1.2861 1.2836 1.2836 1.2836 1.2811 1.2811 1.2785 1.2785 1.271 1.2661 1.2611 1.2563 1.2563 1.2539 1.2563 1.2588 1.2611 1.2661 1.271 1.2735 1.276 1.2785 1.2785 1.2836 1.2836 1.276 1.276 1.2636 1.2611 1.2563 1.2539 1.2539 1.2514 1.2466 1.2443 1.2466 1.2443 1.249 1.249 1.249 1.249 1.249 1.2588 1.2588 1.2588 1.2588 1.2588 1.2588 1.2539 1.2539 1.2514 1.2466 1.2371 1.2348 1.2348 1.2348 1.2324 1.2324 1.2324 1.2371 1.2371 1.2371 1.2395 1.2324 1.2277 1.2208 1.2163 1.2163 1.2163 1.214 1.214 1.214 1.2116 1.2163 1.2163 1.2231 1.2277 1.2254 1.2254 1.2231 1.2208 1.2254 1.2231 1.2163 1.2116 1.2094 1.2071 1.2049 1.2027 1.2027 1.2005 1.2005 1.2116 0 0 0 0 0 0 0 0.617 0.6165 0.61587 0.613 0.61175 0.61062 0.60725 0.605 0.60213 0.601 0.59937 0.59713 0.59713 0.59113 0.589 0.5885 0.58525 0.58213 0.58213 0.58213 0.58162 0.58062 0.58013 0.5795 0.5785 0.576 0.576 0.56637 0.56488 0.56437 0.564 0.5625 0.5625 0.5615 0.5605 0.55963 0.55863 0.55625 0.55575 0.55337 0.55337 0.55237 0.5505 0.54963 0.54912 0.54638 0.5455 0.545 0.54312 0.54312
1.4598 1.4598 1.4565 1.4565 1.45 1.4532 1.4565 1.4598 1.4565 1.4532 1.4467 1.45 1.4435 1.4467 1.4435 1.4307 1.4183 1.4152 1.4121 1.4121 1.409 1.409 1.406 1.406 1.406 1.409 1.409 1.4121 1.409 1.409 1.406 1.406 1.4121 1.4121 1.4121 1.4245 1.4276 1.4276 1.4245 1.4245 1.4276 1.4276 1.4276 1.4245 1.4214 1.4183 1.4121 1.409 1.406 1.406 1.403 1.403 1.3999 1.3999 1.3999 1.3969 1.3999 1.406 1.409 1.4152 1.4183 1.4152 1.4183 1.4183 1.4152 1.4152 1.409 1.403 1.3999 1.3969 1.388 1.388 1.385 1.3791 1.3761 1.3675 1.3675 1.3704 1.3675 1.3646 1.3618 1.356 1.3533 1.3533 1.3589 1.3618 1.3618 1.3618 1.3618 1.3618 1.3589 1.3589 1.3618 1.3618 1.3618 1.3589 1.356 1.3533 1.3589 1.3589 1.3589 1.3589 1.356 1.3504 1.3476 1.3476 1.3447 1.3393 1.3337 1.3365 1.3365 1.3365 1.3365 1.3365 1.3337 1.3365 1.3365 1.3447 1.3447 1.3447 1.342 1.342 1.3365 1.3337 1.331 1.3256 1.3201 1.3201 1.3175 1.3175 1.3175 1.3175 1.3175 1.3175 1.3229 1.3282 1.3365 1.342 1.3256 1.3337 1.3365 1.3365 1.3337 1.331 1.3256 1.3256 1.3229 1.3201 1.3201 1.3229 1.3229 1.3201 1.3201 1.3175 1.3149 1.3175 1.3149 1.3149 1.3095 1.3095 1.3095 1.3121 1.3149 1.3149 1.3149 1.3149 1.3149 1.3121 1.3121 1.3095 1.3069 1.3042 1.299 1.299 1.2939 1.2939 1.2888 1.2888 1.2939 1.2913 1.2913 1.2964 1.299 1.3042 1.3042 1.3042 1.3042 1.3016 1.3016 1.3016 1.3016 1.3016 1.299 1.2939 1.2939 1.2913 1.2913 1.2913 1.2913 1.2861 1.2836 1.2861 1.2836 1.2861 1.2836 1.2836 1.2836 1.2811 1.2811 1.2836 1.2811 1.2836 1.2811 1.2785 1.276 1.276 1.2811 1.2785 1.271 1.2685 1.2636 1.2611 1.2588 1.2563 1.2588 1.2611 1.2611 1.2661 1.2685 1.271 1.276 1.276 1.2785 1.2836 1.2836 1.2785 1.2735 1.2636 1.2588 1.2588 1.2539 1.2539 1.2539 1.2466 1.2443 1.2466 1.2466 1.249 1.249 1.2514 1.2514 1.2514 1.2514 1.2514 1.2514 1.2611 1.2588 1.2563 1.2539 1.2539 1.2514 1.249 1.2371 1.2371 1.2395 1.2324 1.2348 1.2348 1.2348 1.2348 1.2371 1.2395 1.2419 1.2348 1.2301 1.2208 1.2163 1.2163 1.214 1.214 1.214 1.2116 1.2116 1.2116 1.2163 1.2254 1.2277 1.2324 1.2301 1.2277 1.2254 1.2277 1.2231 1.2185 1.214 1.2116 1.2116 1.2071 1.2049 1.2071 1.2027 1.2027 1.2116 1.2419 1.2443 0 0 0 0 0 0.61762 0.61762 0.61587 0.6135 0.61175 0.61125 0.60662 0.60437 0.60213 0.60162 0.6005 0.59775 0.5955 0.59275 0.59013 0.588 0.58688 0.58475 0.58425 0.58375 0.58262 0.58162 0.58113 0.58062 0.58013 0.577 0.576 0.56688 0.56437 0.56488 0.56437 0.564 0.5635 0.563 0.561 0.5605 0.55912 0.55712 0.55575 0.55425 0.55337 0.55237 0.551 0.55012 0.54863 0.54638 0.54587 0.5455 0.5445 0.54412
1.4697 1.4664 1.4631 1.4598 1.4565 1.4565 1.4565 1.4565 1.4532 1.45 1.4467 1.4435 1.4404 1.4435 1.4404 1.434 1.4245 1.4214 1.4183 1.4152 1.4152 1.4152 1.4121 1.409 1.409 1.409 1.409 1.4121 1.409 1.4121 1.409 1.409 1.4152 1.4183 1.4214 1.434 1.4404 1.4371 1.434 1.434 1.434 1.4307 1.4276 1.4276 1.4276 1.4152 1.409 1.406 1.406 1.409 1.403 1.3999 1.3999 1.3969 1.3999 1.3969 1.3969 1.403 1.406 1.4121 1.4152 1.4183 1.4152 1.4183 1.4121 1.4121 1.4121 1.3999 1.3999 1.3969 1.3909 1.388 1.388 1.382 1.3761 1.3704 1.3704 1.3704 1.3646 1.3618 1.3618 1.356 1.356 1.3533 1.3589 1.3618 1.3618 1.3646 1.3646 1.3618 1.3618 1.3618 1.3589 1.3618 1.3646 1.3589 1.356 1.356 1.356 1.356 1.3589 1.3618 1.3589 1.3533 1.3476 1.3476 1.342 1.3393 1.3337 1.3337 1.3337 1.3365 1.3337 1.3337 1.3365 1.3393 1.3393 1.3447 1.3447 1.342 1.3393 1.3393 1.3365 1.3365 1.3337 1.3282 1.3229 1.3201 1.3201 1.3175 1.3149 1.3149 1.3121 1.3149 1.3229 1.331 1.3365 1.342 1.3256 1.331 1.3365 1.3365 1.3337 1.3337 1.3282 1.3282 1.3282 1.3229 1.3201 1.3229 1.3229 1.3229 1.3175 1.3175 1.3149 1.3121 1.3095 1.3069 1.3042 1.3042 1.3042 1.3069 1.3069 1.3095 1.3121 1.3121 1.3121 1.3149 1.3121 1.3069 1.3042 1.3042 1.3016 1.299 1.2939 1.2913 1.2888 1.2888 1.2913 1.2939 1.2939 1.299 1.3016 1.3069 1.3069 1.3042 1.3069 1.3042 1.3016 1.3042 1.3069 1.3042 1.3016 1.299 1.299 1.299 1.2964 1.299 1.2964 1.2913 1.2861 1.2861 1.2836 1.2888 1.2861 1.2785 1.2811 1.2785 1.2785 1.2785 1.2811 1.2811 1.2811 1.276 1.2735 1.2735 1.2811 1.2811 1.2785 1.276 1.2735 1.2661 1.2661 1.2636 1.2636 1.271 1.2685 1.2735 1.2735 1.2735 1.276 1.2785 1.2785 1.2888 1.2861 1.2836 1.2811 1.2685 1.2636 1.2611 1.2588 1.2588 1.2588 1.2514 1.249 1.2514 1.249 1.2563 1.2563 1.2539 1.2539 1.2514 1.2514 1.2466 1.249 1.2588 1.2588 1.2563 1.2514 1.2539 1.2539 1.2539 1.2514 1.2514 1.2514 1.2466 1.2443 1.2443 1.2443 1.2443 1.2466 1.2466 1.2466 1.2443 1.2348 1.2277 1.2185 1.2163 1.214 1.214 1.214 1.2116 1.2094 1.2094 1.214 1.2324 1.2348 1.2395 1.2395 1.2348 1.2324 1.2324 1.2301 1.2277 1.2277 1.2254 1.2254 1.2208 1.2185 1.2208 1.2208 1.2185 1.2324 1.2371 1.2419 0 0 0 0 0 0.61875 0.61938 0.61525 0.613 0.613 0.61175 0.60725 0.60437 0.60275 0.60213 0.601 0.59888 0.59662 0.595 0.59337 0.59175 0.59013 0.58688 0.58588 0.58525 0.58425 0.58375 0.58262 0.58325 0.58213 0.58062 0.5795 0.5785 0.56837 0.56888 0.56788 0.56588 0.56437 0.564 0.562 0.5615 0.561 0.55863 0.55763 0.55388 0.55337 0.55237 0.5515 0.54963 0.54825 0.54638 0.54587 0.5455 0.545 0.5445
1.473 1.4664 1.4631 1.4598 1.4565 1.4565 1.4598 1.4565 1.4532 1.4435 1.4404 1.4404 1.4404 1.4435 1.4404 1.4307 1.4276 1.4183 1.4183 1.4183 1.4183 1.4152 1.4121 1.4121 1.4121 1.4121 1.409 1.4121 1.409 1.4121 1.409 1.4121 1.4152 1.4183 1.4245 1.434 1.4404 1.4371 1.4371 1.4307 1.4307 1.4307 1.4276 1.4276 1.4245 1.4121 1.406 1.403 1.403 1.403 1.406 1.3999 1.3969 1.3969 1.3969 1.3939 1.3939 1.403 1.403 1.409 1.409 1.4121 1.4121 1.4121 1.409 1.409 1.406 1.3999 1.3969 1.3969 1.3909 1.388 1.388 1.385 1.3791 1.3704 1.3704 1.3704 1.3646 1.3618 1.356 1.356 1.3533 1.3533 1.3589 1.3589 1.3618 1.3675 1.3646 1.3646 1.3618 1.3618 1.3646 1.3646 1.3646 1.3589 1.3589 1.356 1.3589 1.3589 1.3589 1.3589 1.3589 1.3533 1.3504 1.3476 1.342 1.3393 1.3365 1.3365 1.3393 1.3393 1.3393 1.3365 1.3365 1.3393 1.3393 1.3447 1.342 1.3393 1.3365 1.3337 1.3365 1.3337 1.3337 1.3282 1.3256 1.3201 1.3201 1.3149 1.3149 1.3149 1.3149 1.3175 1.3229 1.3282 1.3393 1.3393 1.331 1.3337 1.3365 1.3365 1.3337 1.331 1.331 1.3256 1.3256 1.3201 1.3201 1.3229 1.3229 1.3175 1.3175 1.3149 1.3149 1.3121 1.3095 1.3069 1.3016 1.299 1.3016 1.3042 1.3069 1.3095 1.3095 1.3095 1.3121 1.3121 1.3095 1.3069 1.3042 1.3016 1.299 1.2964 1.2913 1.2888 1.2861 1.2861 1.2913 1.2913 1.2913 1.2964 1.299 1.3069 1.3069 1.3069 1.3042 1.3016 1.3016 1.3042 1.3069 1.3042 1.3042 1.3016 1.3042 1.3016 1.3016 1.3016 1.3016 1.2939 1.2888 1.2888 1.2888 1.2913 1.2811 1.2811 1.2785 1.2785 1.2785 1.276 1.2785 1.2811 1.2811 1.276 1.2735 1.276 1.2811 1.2811 1.2785 1.2785 1.2735 1.2661 1.2636 1.2636 1.2636 1.2685 1.271 1.271 1.2735 1.276 1.2785 1.2811 1.2811 1.2861 1.2861 1.2836 1.2811 1.2685 1.2636 1.2611 1.2611 1.2611 1.2611 1.2539 1.2539 1.2514 1.2514 1.2588 1.2563 1.2563 1.2539 1.249 1.249 1.2466 1.2466 1.2588 1.2563 1.2563 1.2539 1.2539 1.2563 1.2539 1.2539 1.2539 1.2539 1.2466 1.2443 1.2466 1.2466 1.2443 1.2443 1.2466 1.2466 1.2419 1.2348 1.2277 1.2185 1.2163 1.2163 1.214 1.2116 1.2094 1.2116 1.214 1.2163 1.2301 1.2348 1.2395 1.2371 1.2371 1.2348 1.2348 1.2324 1.2301 1.2324 1.2301 1.2277 1.2254 1.2208 1.2231 1.2231 1.2301 1.2348 1.2419 1.249 0 0 0 0 0 0 0 0 0.613 0.613 0.61125 0.60725 0.605 0.60275 0.60162 0.60162 0.59888 0.59713 0.59613 0.59388 0.59337 0.59175 0.58737 0.58637 0.58588 0.58525 0.58425 0.58325 0.58262 0.58213 0.58113 0.5795 0.5785 0.57337 0.57088 0.56988 0.56688 0.56537 0.56488 0.5625 0.562 0.5615 0.55863 0.55763 0.55388 0.55288 0.55288 0.5515 0.55012 0.54863 0.54638 0.54587 0.54587 0.545 0.5445
1.4764 1.4697 1.4697 1.4631 1.4598 1.4598 1.4565 1.4565 1.4532 1.4435 1.4404 1.4404 1.434 1.4371 1.4371 1.434 1.4276 1.4214 1.4183 1.4183 1.4214 1.4214 1.4183 1.4152 1.4152 1.4152 1.4121 1.4152 1.4121 1.4121 1.409 1.409 1.4183 1.4245 1.4276 1.4404 1.4435 1.4371 1.4371 1.4276 1.4245 1.4276 1.4183 1.4152 1.4121 1.3969 1.3939 1.3909 1.3939 1.3939 1.3969 1.3939 1.3909 1.388 1.388 1.388 1.385 1.3969 1.3969 1.3999 1.3999 1.403 1.403 1.406 1.403 1.3999 1.3969 1.3939 1.3939 1.3909 1.388 1.385 1.388 1.385 1.382 1.3733 1.3704 1.3675 1.3589 1.3589 1.356 1.3533 1.3533 1.3533 1.356 1.3589 1.3618 1.3675 1.3675 1.3704 1.3675 1.3675 1.3675 1.3675 1.3675 1.3646 1.3618 1.3589 1.3589 1.3589 1.3589 1.3589 1.3589 1.356 1.3533 1.3504 1.342 1.3393 1.3393 1.3393 1.342 1.3393 1.3393 1.3393 1.3365 1.3393 1.3365 1.3393 1.3365 1.3337 1.3337 1.331 1.3337 1.3337 1.3337 1.3282 1.3256 1.3229 1.3201 1.3201 1.3149 1.3149 1.3175 1.3175 1.3256 1.3256 1.3337 1.3337 1.3337 1.3337 1.3365 1.3337 1.3337 1.331 1.3256 1.3229 1.3229 1.3175 1.3201 1.3201 1.3201 1.3175 1.3121 1.3121 1.3121 1.3069 1.3042 1.3042 1.2964 1.2964 1.2964 1.3016 1.3042 1.3042 1.3069 1.3069 1.3095 1.3095 1.3069 1.3016 1.299 1.2964 1.2913 1.2888 1.2861 1.2861 1.2861 1.2836 1.2888 1.2913 1.2913 1.2964 1.299 1.3042 1.3042 1.3069 1.3069 1.3042 1.3042 1.3069 1.3095 1.3069 1.3069 1.3042 1.3069 1.3042 1.3069 1.3069 1.3042 1.299 1.2964 1.2964 1.2964 1.2964 1.2861 1.2836 1.2811 1.2785 1.2785 1.2785 1.2785 1.2785 1.276 1.276 1.2735 1.276 1.2785 1.2836 1.2785 1.276 1.276 1.2661 1.2636 1.2611 1.2636 1.2685 1.271 1.2735 1.2735 1.276 1.2785 1.2811 1.2811 1.2836 1.2836 1.2811 1.2785 1.2661 1.2661 1.2636 1.2636 1.2661 1.2685 1.2588 1.2563 1.2563 1.2563 1.2588 1.2588 1.2514 1.249 1.2443 1.2443 1.2443 1.2443 1.2539 1.2563 1.2539 1.2514 1.2539 1.2588 1.2588 1.2563 1.2563 1.2588 1.249 1.249 1.249 1.249 1.2466 1.2443 1.2419 1.2419 1.2371 1.2301 1.2254 1.2163 1.2163 1.214 1.214 1.2116 1.2094 1.2094 1.214 1.2163 1.2254 1.2324 1.2371 1.2371 1.2348 1.2371 1.2395 1.2395 1.2371 1.2371 1.2348 1.2324 1.2301 1.2277 1.2254 1.2277 1.2348 1.2371 1.2395 1.249 0 0 0 0 0 0 0 0 0.6135 0.61475 0.613 0.6095 0.60775 0.6055 0.60437 0.60388 0.59988 0.59888 0.59775 0.59613 0.595 0.59337 0.589 0.5885 0.588 0.58637 0.58588 0.58375 0.58325 0.58213 0.58113 0.5795 0.578 0.57488 0.57288 0.57237 0.56988 0.56788 0.56688 0.564 0.5625 0.5625 0.55912 0.55812 0.55288 0.55237 0.55288 0.5505 0.54912 0.54775 0.54688 0.54587 0.5455 0.5455 0.5445
1.4764 1.4697 1.4697 1.4631 1.4598 1.4598 1.4565 1.4565 1.4532 1.4435 1.4404 1.4371 1.434 1.434 1.4371 1.4276 1.4245 1.4214 1.4152 1.4152 1.4183 1.4214 1.4214 1.4152 1.4152 1.4152 1.4121 1.4121 1.4121 1.4121 1.4121 1.4121 1.4183 1.4245 1.4307 1.4435 1.4404 1.4404 1.434 1.4245 1.4245 1.4245 1.4121 1.406 1.403 1.3909 1.388 1.388 1.388 1.388 1.388 1.388 1.385 1.382 1.382 1.382 1.382 1.3939 1.3939 1.3969 1.3969 1.3969 1.3999 1.3999 1.403 1.3999 1.3969 1.3909 1.3909 1.3909 1.385 1.385 1.385 1.385 1.3791 1.3733 1.3704 1.3646 1.3618 1.356 1.356 1.3504 1.3504 1.3533 1.3533 1.3589 1.3589 1.3704 1.3704 1.3704 1.3704 1.3704 1.3733 1.3704 1.3704 1.3675 1.3646 1.3589 1.3589 1.3589 1.3618 1.3589 1.3589 1.356 1.3533 1.3504 1.342 1.3393 1.3393 1.3393 1.3393 1.3393 1.3393 1.3365 1.3365 1.3337 1.3337 1.3365 1.3365 1.331 1.331 1.331 1.331 1.3337 1.3337 1.3282 1.3282 1.3256 1.3201 1.3201 1.3175 1.3175 1.3175 1.3201 1.3229 1.3256 1.3282 1.3337 1.3337 1.3337 1.3365 1.331 1.331 1.331 1.3256 1.3229 1.3175 1.3149 1.3229 1.3201 1.3201 1.3175 1.3095 1.3095 1.3121 1.3095 1.3069 1.3042 1.299 1.2964 1.2964 1.299 1.3016 1.3016 1.3042 1.3042 1.3069 1.3095 1.3069 1.3016 1.299 1.2964 1.2888 1.2861 1.2861 1.2861 1.2861 1.2861 1.2888 1.2888 1.2913 1.2964 1.3016 1.3069 1.3069 1.3069 1.3069 1.3042 1.3042 1.3069 1.3095 1.3069 1.3042 1.3042 1.3069 1.3069 1.3069 1.3095 1.3069 1.3016 1.299 1.299 1.2964 1.2964 1.2861 1.2836 1.2811 1.2785 1.2785 1.2785 1.2785 1.2785 1.2785 1.276 1.276 1.276 1.2785 1.2811 1.2785 1.276 1.2735 1.2661 1.2636 1.2611 1.2611 1.2685 1.271 1.2735 1.2735 1.276 1.2785 1.2785 1.2811 1.2811 1.2811 1.2785 1.276 1.2661 1.2661 1.2636 1.2636 1.2661 1.2661 1.2611 1.2588 1.2588 1.2588 1.2611 1.2563 1.2539 1.2466 1.2443 1.2443 1.2443 1.2443 1.249 1.2514 1.2539 1.2514 1.2539 1.2563 1.2563 1.2539 1.2563 1.2588 1.2539 1.249 1.2514 1.2514 1.249 1.2443 1.2395 1.2395 1.2324 1.2277 1.2254 1.2185 1.2163 1.214 1.214 1.2116 1.2094 1.2094 1.214 1.2163 1.2277 1.2324 1.2371 1.2371 1.2371 1.2371 1.2419 1.2371 1.2371 1.2419 1.2348 1.2324 1.2301 1.2277 1.2277 1.2277 1.2277 1.2324 1.2371 1.2466 0 0 0 0 0 0 0 0.62238 0.61762 0.617 0.61475 0.61175 0.61013 0.60775 0.60613 0.6055 0.601 0.59937 0.59888 0.59662 0.595 0.59275 0.59013 0.589 0.588 0.58688 0.58637 0.58375 0.58325 0.58262 0.58062 0.579 0.578 0.57488 0.57337 0.57337 0.57088 0.56937 0.56737 0.56488 0.5635 0.5625 0.55963 0.55812 0.55288 0.55288 0.55337 0.54963 0.54863 0.54775 0.54688 0.54587 0.54587 0.545 0.545
1.473 1.4631 1.4631 1.4565 1.4565 1.4532 1.45 1.4467 1.4467 1.4371 1.434 1.4307 1.4307 1.4307 1.4307 1.4245 1.4183 1.4152 1.4183 1.4152 1.4183 1.4183 1.4152 1.4152 1.4152 1.4152 1.4121 1.4152 1.4121 1.4121 1.4121 1.4121 1.4183 1.4245 1.4276 1.4404 1.4371 1.4307 1.4276 1.4214 1.4214 1.4183 1.409 1.406 1.403 1.3909 1.388 1.388 1.385 1.385 1.385 1.385 1.382 1.382 1.3791 1.382 1.3791 1.3909 1.3939 1.3969 1.3969 1.3969 1.3999 1.3969 1.3939 1.3909 1.3909 1.382 1.382 1.385 1.382 1.382 1.382 1.3791 1.3761 1.3704 1.3704 1.3646 1.3589 1.356 1.3533 1.3504 1.3504 1.3504 1.3589 1.3589 1.3618 1.3704 1.3733 1.3733 1.3704 1.3733 1.3704 1.3704 1.3675 1.3646 1.3646 1.356 1.3589 1.356 1.3589 1.3589 1.3589 1.356 1.356 1.3447 1.3447 1.3393 1.3393 1.3393 1.3393 1.3365 1.3337 1.3337 1.3337 1.3337 1.3337 1.3337 1.3337 1.331 1.331 1.331 1.331 1.3365 1.3337 1.331 1.3256 1.3256 1.3229 1.3201 1.3175 1.3175 1.3175 1.3175 1.3229 1.3256 1.3229 1.3282 1.3282 1.3282 1.331 1.331 1.3282 1.3282 1.3229 1.3229 1.3201 1.3149 1.3201 1.3175 1.3175 1.3149 1.3121 1.3121 1.3095 1.3069 1.3042 1.3016 1.2964 1.2939 1.2964 1.299 1.3016 1.3016 1.3042 1.3042 1.3042 1.3095 1.3069 1.3016 1.299 1.2964 1.2888 1.2888 1.2861 1.2888 1.2861 1.2836 1.2861 1.2913 1.2939 1.2964 1.3016 1.3095 1.3095 1.3095 1.3069 1.3069 1.3069 1.3095 1.3121 1.3069 1.3069 1.3069 1.3069 1.3069 1.3069 1.3095 1.3095 1.3016 1.299 1.299 1.2964 1.2964 1.2888 1.2836 1.2836 1.2811 1.2785 1.2785 1.2785 1.2785 1.2785 1.276 1.2785 1.276 1.2811 1.2811 1.2785 1.276 1.2735 1.2636 1.2611 1.2588 1.2563 1.2661 1.2661 1.271 1.2735 1.276 1.2785 1.2785 1.2811 1.2811 1.2811 1.276 1.2735 1.2661 1.2661 1.2661 1.2661 1.2685 1.2685 1.2636 1.2588 1.2611 1.2611 1.2611 1.2588 1.2539 1.2514 1.2443 1.2443 1.2443 1.2443 1.249 1.2514 1.2514 1.249 1.2539 1.2563 1.2563 1.2563 1.2563 1.2563 1.2514 1.249 1.2514 1.2466 1.2443 1.2443 1.2395 1.2419 1.2371 1.2324 1.2277 1.2208 1.2208 1.2185 1.2163 1.214 1.2116 1.2116 1.214 1.2185 1.2254 1.2324 1.2371 1.2371 1.2371 1.2395 1.2443 1.2395 1.2395 1.2419 1.2371 1.2348 1.2324 1.2301 1.2301 1.2301 1.2324 1.2348 1.2395 1.2443 0 0 0 0 0 0 0 0.62062 0.61825 0.6165 0.61525 0.61238 0.61062 0.60888 0.60725 0.6055 0.59988 0.59775 0.59662 0.595 0.59437 0.59337 0.59062 0.58962 0.589 0.588 0.58688 0.58475 0.58425 0.58325 0.58113 0.5795 0.5785 0.57488 0.57388 0.57337 0.57137 0.56988 0.56837 0.56537 0.564 0.562 0.5605 0.55912 0.55237 0.55425 0.55425 0.551 0.55012 0.54863 0.54688 0.54638 0.54587 0.5455 0.545
1.4697 1.4664 1.4598 1.4565 1.4532 1.45 1.45 1.4467 1.4435 1.4371 1.434 1.4307 1.4307 1.4307 1.4307 1.4245 1.4183 1.4152 1.4152 1.4183 1.4183 1.4152 1.4152 1.4121 1.4152 1.4152 1.4152 1.4152 1.4152 1.4152 1.4152 1.4152 1.4276 1.4276 1.4307 1.4371 1.4371 1.4307 1.4276 1.4214 1.4183 1.4183 1.409 1.406 1.403 1.3969 1.3939 1.3909 1.388 1.388 1.388 1.385 1.385 1.382 1.382 1.382 1.382 1.388 1.3909 1.3969 1.3969 1.3969 1.3969 1.3939 1.3909 1.388 1.388 1.382 1.3791 1.3791 1.382 1.3791 1.3761 1.3791 1.3791 1.3733 1.3704 1.3675 1.3618 1.3589 1.3589 1.3533 1.356 1.3533 1.3589 1.3618 1.3646 1.3733 1.3761 1.3733 1.3704 1.3704 1.3675 1.3704 1.3646 1.3618 1.3589 1.3533 1.3533 1.3533 1.3533 1.356 1.356 1.3533 1.3533 1.3447 1.342 1.342 1.3393 1.3393 1.3393 1.3337 1.3337 1.3337 1.3337 1.331 1.3337 1.3365 1.3337 1.3337 1.3337 1.3337 1.3337 1.3337 1.3337 1.3282 1.3256 1.3256 1.3229 1.3201 1.3201 1.3201 1.3201 1.3201 1.3256 1.3256 1.3256 1.331 1.331 1.331 1.3337 1.331 1.3282 1.331 1.3256 1.3256 1.3229 1.3201 1.3229 1.3201 1.3201 1.3175 1.3175 1.3149 1.3121 1.3095 1.3042 1.3042 1.2964 1.2964 1.2964 1.3016 1.3042 1.3016 1.3016 1.3042 1.3042 1.3121 1.3095 1.3042 1.3016 1.3016 1.2964 1.2964 1.2913 1.2913 1.2913 1.2861 1.2888 1.2913 1.2964 1.3042 1.3042 1.3121 1.3121 1.3149 1.3121 1.3149 1.3121 1.3149 1.3149 1.3121 1.3095 1.3095 1.3095 1.3095 1.3069 1.3095 1.3095 1.3042 1.3016 1.3016 1.299 1.299 1.2888 1.2861 1.2861 1.2836 1.2836 1.2836 1.2836 1.2836 1.2811 1.2785 1.2811 1.2785 1.2811 1.2811 1.2785 1.2735 1.2735 1.2636 1.2611 1.2588 1.2588 1.2661 1.2661 1.271 1.2735 1.276 1.2811 1.2811 1.2811 1.2811 1.2836 1.276 1.276 1.2685 1.2661 1.2661 1.2661 1.271 1.271 1.2685 1.2661 1.2661 1.2661 1.2661 1.2636 1.2588 1.2539 1.2443 1.2419 1.2419 1.2443 1.249 1.2514 1.2514 1.2539 1.2539 1.2588 1.2588 1.2563 1.2563 1.2563 1.249 1.249 1.249 1.2443 1.2419 1.2419 1.2395 1.2419 1.2419 1.2395 1.2324 1.2254 1.2231 1.2231 1.2208 1.2185 1.2163 1.2163 1.2185 1.2208 1.2277 1.2324 1.2348 1.2371 1.2395 1.2419 1.2443 1.2443 1.2443 1.2443 1.2443 1.2419 1.2395 1.2324 1.2301 1.2301 1.2348 1.2371 1.2395 1.2466 0 0 0 0 0 0 0 0.62062 0.61875 0.617 0.61587 0.6135 0.61175 0.61013 0.60837 0.60613 0.59988 0.59775 0.59662 0.595 0.59437 0.59337 0.59175 0.59113 0.59113 0.58962 0.5885 0.58688 0.58637 0.58525 0.58262 0.58113 0.58013 0.5765 0.57488 0.57437 0.57288 0.57188 0.57037 0.56737 0.56588 0.5635 0.5625 0.5615 0.55863 0.55625 0.55475 0.55237 0.551 0.54912 0.54775 0.54725 0.54688 0.54587 0.54587
1.4697 1.4664 1.4598 1.4565 1.45 1.4467 1.4467 1.4435 1.4404 1.4371 1.4307 1.4307 1.4307 1.4307 1.4276 1.4245 1.4214 1.4152 1.4152 1.4152 1.4183 1.4152 1.4152 1.4121 1.4152 1.4152 1.4152 1.4152 1.4152 1.4152 1.4152 1.4183 1.4307 1.4307 1.434 1.434 1.434 1.434 1.4307 1.4214 1.4152 1.4121 1.409 1.406 1.403 1.3999 1.3969 1.3939 1.388 1.388 1.388 1.388 1.382 1.385 1.382 1.382 1.3791 1.3909 1.3909 1.3969 1.3969 1.3939 1.3939 1.3939 1.385 1.385 1.382 1.3791 1.3761 1.3761 1.3791 1.3791 1.3761 1.3761 1.3761 1.3791 1.3733 1.3675 1.3646 1.3618 1.3618 1.356 1.3589 1.3589 1.3589 1.3646 1.3675 1.3733 1.3761 1.3733 1.3704 1.3704 1.3675 1.3675 1.3618 1.3589 1.356 1.3504 1.3504 1.3504 1.3476 1.3533 1.3504 1.3533 1.3476 1.3447 1.3393 1.3365 1.3393 1.3393 1.3365 1.3365 1.331 1.331 1.331 1.331 1.3337 1.3365 1.3365 1.331 1.3337 1.3337 1.3337 1.3337 1.3337 1.3282 1.3229 1.3256 1.3229 1.3229 1.3229 1.3229 1.3229 1.3229 1.3256 1.3282 1.331 1.331 1.3337 1.331 1.3337 1.3337 1.331 1.331 1.3282 1.3256 1.3256 1.3256 1.3256 1.3229 1.3229 1.3201 1.3175 1.3175 1.3149 1.3095 1.3095 1.3042 1.299 1.299 1.299 1.3016 1.3016 1.3042 1.3016 1.3042 1.3069 1.3121 1.3121 1.3042 1.3042 1.3016 1.3016 1.299 1.299 1.2964 1.2939 1.2939 1.2939 1.2964 1.3016 1.3069 1.3069 1.3121 1.3121 1.3121 1.3149 1.3149 1.3149 1.3175 1.3175 1.3149 1.3121 1.3095 1.3095 1.3095 1.3095 1.3121 1.3069 1.3042 1.3016 1.299 1.299 1.299 1.2888 1.2888 1.2861 1.2861 1.2836 1.2836 1.2836 1.2861 1.2836 1.2811 1.2785 1.2811 1.2811 1.2811 1.276 1.271 1.2685 1.2661 1.2611 1.2611 1.2588 1.2661 1.2636 1.271 1.276 1.276 1.2811 1.2811 1.2811 1.2811 1.2836 1.2785 1.276 1.2685 1.2636 1.2611 1.2661 1.2735 1.2735 1.2685 1.2685 1.2685 1.2661 1.2661 1.2611 1.2588 1.2539 1.2443 1.2419 1.2395 1.2395 1.2466 1.249 1.2514 1.2563 1.2563 1.2588 1.2611 1.2539 1.2539 1.2514 1.2466 1.2443 1.2466 1.2395 1.2371 1.2371 1.2371 1.2395 1.2395 1.2371 1.2348 1.2254 1.2254 1.2254 1.2208 1.2185 1.2185 1.2185 1.2185 1.2208 1.2277 1.2301 1.2324 1.2371 1.2371 1.2443 1.2466 1.2443 1.2443 1.2466 1.2443 1.2419 1.2419 1.2348 1.2301 1.2324 1.2301 1.2348 1.2371 1.2395 0 0 0 0 0 0 0 0.62238 0.61938 0.61762 0.617 0.61413 0.613 0.61013 0.60837 0.60662 0.59937 0.59825 0.59662 0.595 0.59437 0.59388 0.59175 0.59113 0.59113 0.59013 0.589 0.58737 0.58688 0.58588 0.58425 0.58262 0.58113 0.5775 0.576 0.5755 0.57337 0.57237 0.57137 0.56788 0.56688 0.564 0.5635 0.563 0.55763 0.55575 0.55388 0.55237 0.5515 0.54963 0.54825 0.54775 0.54725 0.54688 0.54638
1.4697 1.4664 1.4598 1.4565 1.45 1.4467 1.4435 1.4404 1.4371 1.4307 1.4307 1.4307 1.4307 1.4307 1.434 1.4245 1.4214 1.4183 1.4183 1.4152 1.4183 1.4152 1.4121 1.409 1.4152 1.4152 1.4152 1.4152 1.4152 1.4183 1.4183 1.4245 1.4307 1.4307 1.4307 1.434 1.4307 1.4307 1.4307 1.4183 1.4152 1.4121 1.409 1.406 1.403 1.3999 1.3999 1.3969 1.3939 1.3909 1.3939 1.388 1.385 1.385 1.385 1.385 1.382 1.3909 1.3909 1.3939 1.3939 1.3939 1.3909 1.388 1.3791 1.3791 1.3733 1.3704 1.3675 1.3704 1.3704 1.3704 1.3733 1.3761 1.3791 1.3791 1.3761 1.3704 1.3646 1.3618 1.3618 1.3618 1.3618 1.3589 1.3618 1.3646 1.3675 1.3733 1.3761 1.3733 1.3704 1.3646 1.3618 1.3589 1.3589 1.3589 1.3533 1.3476 1.3447 1.342 1.342 1.3504 1.3504 1.3476 1.3447 1.3447 1.3393 1.3365 1.3365 1.3393 1.3393 1.3337 1.3337 1.331 1.331 1.331 1.331 1.3337 1.3337 1.3337 1.3337 1.3337 1.3337 1.3337 1.331 1.3282 1.3256 1.3229 1.3256 1.3229 1.3229 1.3229 1.3229 1.3256 1.3282 1.3282 1.3337 1.3337 1.3337 1.3337 1.3337 1.3337 1.3337 1.3337 1.331 1.3282 1.3256 1.3256 1.3256 1.3256 1.3229 1.3201 1.3201 1.3175 1.3175 1.3121 1.3095 1.3069 1.3016 1.299 1.3016 1.3016 1.3042 1.3016 1.3042 1.3042 1.3069 1.3121 1.3121 1.3069 1.3069 1.3042 1.3042 1.3042 1.3016 1.299 1.2964 1.2964 1.2964 1.2964 1.3042 1.3069 1.3069 1.3095 1.3121 1.3149 1.3149 1.3149 1.3149 1.3175 1.3175 1.3175 1.3149 1.3121 1.3095 1.3095 1.3069 1.3095 1.3095 1.3016 1.3016 1.3016 1.299 1.2964 1.2913 1.2913 1.2888 1.2861 1.2861 1.2861 1.2836 1.2888 1.2861 1.2836 1.2785 1.2811 1.2811 1.2836 1.2735 1.271 1.2685 1.2636 1.2611 1.2611 1.2588 1.2636 1.2661 1.271 1.2735 1.2785 1.2811 1.2811 1.2811 1.2811 1.2811 1.2785 1.2785 1.2661 1.2661 1.2636 1.2661 1.2735 1.2735 1.271 1.2685 1.2685 1.2685 1.2661 1.2636 1.2588 1.2539 1.2443 1.2419 1.2395 1.2395 1.249 1.249 1.2514 1.2588 1.2588 1.2588 1.2588 1.2563 1.2539 1.2539 1.2466 1.2466 1.2466 1.2395 1.2371 1.2371 1.2371 1.2395 1.2395 1.2395 1.2324 1.2277 1.2254 1.2277 1.2208 1.2185 1.2163 1.2185 1.2163 1.2185 1.2254 1.2254 1.2301 1.2324 1.2348 1.2419 1.2443 1.2419 1.2419 1.2443 1.2443 1.2443 1.2395 1.2348 1.2324 1.2301 1.2254 1.2277 1.2277 1.2254 1.2324 1.2324 0 0 0 0 0 0.62238 0.62062 0.61875 0.61762 0.61475 0.6135 0.61062 0.60888 0.60725 0.59888 0.59825 0.59662 0.5955 0.595 0.59437 0.59225 0.59113 0.59113 0.59062 0.589 0.588 0.58737 0.58737 0.58425 0.58325 0.58162 0.5785 0.577 0.576 0.57388 0.57288 0.57188 0.56888 0.56737 0.56488 0.564 0.5635 0.55763 0.55575 0.55388 0.55237 0.5515 0.55012 0.54863 0.54825 0.54775 0.54688 0.54638
1.473 1.4664 1.4631 1.4598 1.45 1.45 1.4435 1.4435 1.4435 1.434 1.434 1.4307 1.4307 1.434 1.4371 1.4371 1.4276 1.4276 1.4245 1.4214 1.4214 1.4183 1.4152 1.4121 1.4152 1.4152 1.4152 1.4152 1.4121 1.4214 1.4214 1.4245 1.4307 1.434 1.4307 1.4276 1.4307 1.4307 1.4307 1.4214 1.4152 1.4121 1.409 1.4121 1.4121 1.409 1.409 1.406 1.403 1.3999 1.3999 1.3969 1.3909 1.3909 1.3909 1.3909 1.388 1.3939 1.3969 1.3909 1.3939 1.3939 1.3909 1.388 1.3791 1.3761 1.3704 1.3675 1.3675 1.3704 1.3704 1.3704 1.3704 1.3761 1.3791 1.3791 1.3761 1.3704 1.3646 1.3646 1.3646 1.3675 1.3704 1.3675 1.3646 1.3618 1.3646 1.3761 1.3791 1.3733 1.3704 1.3646 1.3618 1.3589 1.3589 1.356 1.356 1.3476 1.3476 1.3447 1.3447 1.3504 1.356 1.3533 1.3504 1.3504 1.3447 1.342 1.3447 1.3447 1.342 1.3337 1.331 1.331 1.331 1.331 1.331 1.3337 1.3337 1.331 1.3337 1.3337 1.3337 1.3337 1.3337 1.331 1.331 1.3282 1.3256 1.3282 1.3256 1.3256 1.3256 1.3256 1.3365 1.3337 1.3365 1.3337 1.3337 1.3365 1.3365 1.3337 1.3337 1.331 1.331 1.3282 1.3282 1.3256 1.3256 1.3256 1.3256 1.3229 1.3201 1.3175 1.3149 1.3121 1.3121 1.3095 1.3069 1.3069 1.3069 1.3042 1.3069 1.3069 1.3095 1.3095 1.3095 1.3121 1.3121 1.3121 1.3149 1.3121 1.3095 1.3069 1.3069 1.3069 1.3042 1.3016 1.3016 1.3016 1.3042 1.3069 1.3095 1.3121 1.3121 1.3149 1.3149 1.3149 1.3149 1.3175 1.3149 1.3149 1.3121 1.3121 1.3121 1.3095 1.3069 1.3069 1.3069 1.3042 1.3016 1.3016 1.299 1.2964 1.2939 1.2939 1.2939 1.2888 1.2861 1.2888 1.2861 1.2888 1.2888 1.2861 1.2836 1.2836 1.2861 1.2861 1.2785 1.2735 1.271 1.2636 1.2636 1.2611 1.2611 1.2685 1.271 1.276 1.276 1.2785 1.2811 1.2811 1.2811 1.2785 1.2811 1.2811 1.2811 1.2685 1.2685 1.2661 1.2685 1.276 1.276 1.2735 1.271 1.271 1.271 1.2685 1.2636 1.2588 1.2563 1.2466 1.2443 1.2443 1.2443 1.2539 1.2539 1.2539 1.2611 1.2588 1.2611 1.2588 1.2539 1.2514 1.2514 1.2514 1.249 1.2514 1.2443 1.2419 1.2419 1.2395 1.2419 1.2419 1.2395 1.2348 1.2301 1.2254 1.2277 1.2231 1.2208 1.2185 1.2163 1.2163 1.2208 1.2231 1.2277 1.2277 1.2301 1.2348 1.2395 1.2443 1.2395 1.2395 1.2419 1.2419 1.2395 1.2395 1.2324 1.2324 1.2277 1.2231 1.2231 1.2231 1.2254 1.2277 1.2324 0 0 0 0 0 0.62538 0.62362 0.61938 0.617 0.617 0.6135 0.6135 0.61238 0.61062 0.59937 0.6005 0.6005 0.59662 0.59662 0.59613 0.59388 0.59337 0.59275 0.59225 0.59062 0.58962 0.5885 0.5885 0.58588 0.58475 0.58325 0.58013 0.578 0.5765 0.57488 0.57388 0.57337 0.57037 0.56937 0.56588 0.56488 0.56437 0.55912 0.55763 0.55625 0.55425 0.55237 0.5515 0.55012 0.54912 0.54912 0.54775 0.54688
1.4664 1.4664 1.4631 1.4598 1.4532 1.4532 1.4467 1.4467 1.4435 1.4371 1.434 1.434 1.434 1.434 1.4371 1.434 1.4307 1.4245 1.4245 1.4245 1.4245 1.4183 1.4183 1.4183 1.4152 1.4183 1.4152 1.4121 1.4152 1.4214 1.4245 1.4307 1.4307 1.4307 1.4307 1.4276 1.4276 1.4276 1.4245 1.4214 1.4152 1.4121 1.409 1.4121 1.409 1.409 1.4121 1.409 1.406 1.406 1.403 1.3999 1.3969 1.3969 1.3969 1.3939 1.3939 1.3969 1.3939 1.3969 1.3939 1.3939 1.3939 1.388 1.3791 1.3761 1.3733 1.3675 1.3675 1.3733 1.3733 1.3733 1.3733 1.3761 1.3791 1.382 1.3761 1.3704 1.3646 1.3618 1.3646 1.3646 1.3675 1.3704 1.3618 1.3618 1.3618 1.3733 1.3761 1.3733 1.3704 1.3675 1.3589 1.3618 1.3589 1.3589 1.3589 1.3504 1.3504 1.3504 1.3504 1.356 1.356 1.356 1.3533 1.3533 1.3476 1.3476 1.3476 1.3447 1.342 1.3337 1.3337 1.3337 1.331 1.3282 1.331 1.3337 1.331 1.331 1.331 1.3337 1.3337 1.331 1.331 1.3282 1.331 1.3282 1.3282 1.3282 1.3282 1.3256 1.3256 1.3282 1.3365 1.3365 1.3365 1.3365 1.3365 1.3365 1.3365 1.3337 1.331 1.3337 1.3282 1.3282 1.331 1.3256 1.3282 1.3229 1.3256 1.3229 1.3175 1.3149 1.3149 1.3149 1.3149 1.3121 1.3095 1.3095 1.3095 1.3069 1.3069 1.3069 1.3121 1.3095 1.3095 1.3121 1.3121 1.3121 1.3149 1.3095 1.3095 1.3069 1.3042 1.3042 1.3042 1.3016 1.3016 1.3016 1.3069 1.3095 1.3095 1.3121 1.3121 1.3121 1.3149 1.3149 1.3149 1.3149 1.3121 1.3095 1.3095 1.3095 1.3095 1.3069 1.3042 1.3042 1.3042 1.3042 1.3016 1.3042 1.299 1.299 1.2964 1.2939 1.2939 1.2913 1.2913 1.2888 1.2888 1.2913 1.2913 1.2861 1.2836 1.2836 1.2861 1.2861 1.2785 1.276 1.271 1.2661 1.2636 1.2636 1.2636 1.2685 1.271 1.276 1.276 1.2785 1.2836 1.2811 1.2785 1.2785 1.2785 1.2811 1.2811 1.2685 1.2685 1.271 1.271 1.2735 1.2735 1.2735 1.271 1.2735 1.2685 1.2685 1.2661 1.2611 1.2563 1.2443 1.2466 1.2443 1.2466 1.2539 1.2539 1.2563 1.2563 1.2563 1.2563 1.2563 1.249 1.249 1.249 1.249 1.2466 1.2466 1.2443 1.2419 1.2395 1.2395 1.2395 1.2395 1.2395 1.2348 1.2277 1.2254 1.2277 1.2208 1.2208 1.2185 1.2185 1.2185 1.2185 1.2254 1.2277 1.2277 1.2301 1.2348 1.2371 1.2419 1.2419 1.2419 1.2419 1.2395 1.2371 1.2371 1.2301 1.2254 1.2231 1.2185 1.2208 1.2185 1.2208 1.2208 1.214 1.2163 0 0 0 0 0.62838 0.62662 0.62538 0.62662 0.62713 0.62062 0.61587 0.61413 0.61175 0.60662 0.60437 0.60388 0.60162 0.59937 0.59825 0.595 0.59437 0.59437 0.59275 0.59175 0.58962 0.58962 0.589 0.58637 0.58475 0.58325 0.58013 0.579 0.5775 0.57488 0.57437 0.57337 0.57037 0.56937 0.56588 0.56488 0.56437 0.5605 0.55912 0.55812 0.55575 0.55475 0.55337 0.551 0.5505 0.55012 0.54863 0.54775
1.4631 1.4598 1.4598 1.4565 1.45 1.45 1.4467 1.4467 1.4467 1.4404 1.434 1.4371 1.434 1.434 1.4371 1.434 1.434 1.4276 1.4276 1.4276 1.4245 1.4214 1.4214 1.4214 1.4183 1.4183 1.4183 1.4183 1.4152 1.4214 1.4245 1.4276 1.4307 1.4307 1.4245 1.4214 1.4214 1.4245 1.4214 1.4152 1.4121 1.409 1.409 1.406 1.406 1.409 1.4121 1.4121 1.409 1.406 1.406 1.406 1.3999 1.403 1.3999 1.3969 1.3999 1.3999 1.3969 1.3939 1.3939 1.3939 1.3909 1.388 1.3761 1.3733 1.3704 1.3704 1.3675 1.3704 1.3704 1.3733 1.3704 1.3761 1.382 1.382 1.3791 1.3733 1.3646 1.3618 1.3646 1.3646 1.3675 1.3675 1.3618 1.3618 1.3618 1.3704 1.3761 1.3733 1.3704 1.3675 1.3618 1.3618 1.3618 1.3618 1.3589 1.3533 1.3533 1.356 1.356 1.3589 1.3589 1.356 1.356 1.3533 1.3533 1.3504 1.3476 1.3447 1.342 1.3365 1.3365 1.3337 1.331 1.331 1.3282 1.3337 1.331 1.331 1.3282 1.331 1.3282 1.3282 1.3282 1.3282 1.3282 1.3256 1.3256 1.3256 1.3282 1.3282 1.3282 1.3282 1.3365 1.3365 1.3365 1.3365 1.3365 1.3365 1.3365 1.3337 1.3337 1.3337 1.3282 1.3282 1.331 1.3282 1.3282 1.3229 1.3256 1.3256 1.3175 1.3149 1.3149 1.3149 1.3149 1.3149 1.3121 1.3095 1.3095 1.3069 1.3069 1.3095 1.3121 1.3121 1.3121 1.3121 1.3149 1.3121 1.3149 1.3121 1.3095 1.3069 1.3016 1.3042 1.3016 1.3042 1.3042 1.3042 1.3069 1.3095 1.3121 1.3121 1.3121 1.3149 1.3149 1.3121 1.3121 1.3121 1.3121 1.3069 1.3069 1.3042 1.3042 1.3016 1.3016 1.3016 1.3016 1.3016 1.3016 1.3016 1.299 1.299 1.2964 1.2939 1.2913 1.2913 1.2913 1.2913 1.2913 1.2913 1.2913 1.2861 1.2836 1.2811 1.2836 1.2836 1.276 1.2735 1.2685 1.2661 1.2661 1.2636 1.2661 1.2685 1.2685 1.2735 1.276 1.276 1.2811 1.2811 1.2785 1.276 1.276 1.276 1.2785 1.271 1.271 1.271 1.271 1.276 1.276 1.271 1.2735 1.2735 1.271 1.2661 1.2636 1.2588 1.2563 1.2466 1.2466 1.2466 1.249 1.2514 1.2514 1.2539 1.2539 1.2539 1.249 1.2466 1.2395 1.2371 1.2371 1.2395 1.2395 1.2419 1.2371 1.2348 1.2348 1.2324 1.2324 1.2324 1.2324 1.2324 1.2254 1.2254 1.2277 1.2208 1.2208 1.2185 1.2208 1.2185 1.2208 1.2231 1.2254 1.2301 1.2301 1.2324 1.2348 1.2395 1.2395 1.2395 1.2395 1.2371 1.2348 1.2324 1.2231 1.2185 1.214 1.2116 1.2094 1.2116 1.2116 1.2116 1.2116 1.2116 0 0 0 0 0.62362 0.62538 0.626 0.62538 0.62413 0.62175 0.61762 0.61525 0.613 0.60775 0.60725 0.60613 0.60275 0.6005 0.59988 0.59662 0.5955 0.5955 0.59388 0.59225 0.59062 0.59013 0.58962 0.58688 0.58525 0.58325 0.58113 0.5795 0.578 0.5755 0.57488 0.57337 0.57037 0.56888 0.56637 0.56537 0.56437 0.5615 0.5605 0.55912 0.55763 0.55625 0.55475 0.55237 0.552 0.5515 0.55012 0.54863
1.4598 1.4598 1.4565 1.4565 1.45 1.45 1.45 1.4467 1.4435 1.4404 1.4404 1.4404 1.434 1.434 1.4371 1.434 1.4307 1.4307 1.4307 1.4307 1.434 1.4307 1.4307 1.4307 1.434 1.4307 1.4245 1.4276 1.4245 1.4276 1.4276 1.4276 1.4307 1.4276 1.4245 1.4214 1.4214 1.4214 1.4214 1.4121 1.4121 1.409 1.406 1.406 1.406 1.409 1.4121 1.4152 1.4121 1.409 1.409 1.409 1.406 1.406 1.409 1.409 1.403 1.3999 1.3999 1.3969 1.3939 1.3939 1.3909 1.385 1.3733 1.3704 1.3704 1.3646 1.3675 1.3675 1.3675 1.3733 1.3733 1.3761 1.382 1.385 1.382 1.3791 1.3733 1.3704 1.3761 1.3791 1.3791 1.3733 1.3733 1.3733 1.3791 1.382 1.382 1.382 1.3791 1.3761 1.3704 1.3733 1.3675 1.3675 1.3646 1.3646 1.3618 1.3646 1.3646 1.3704 1.3675 1.3646 1.3618 1.3618 1.3618 1.3589 1.3504 1.3504 1.3476 1.342 1.3393 1.3365 1.331 1.331 1.331 1.331 1.331 1.331 1.3282 1.3282 1.3282 1.3282 1.3282 1.3256 1.331 1.3282 1.3256 1.3256 1.3256 1.331 1.331 1.3337 1.3393 1.342 1.342 1.3447 1.3447 1.3447 1.342 1.3365 1.3337 1.3337 1.331 1.331 1.3282 1.3282 1.3282 1.3229 1.3229 1.3282 1.3229 1.3201 1.3175 1.3175 1.3175 1.3175 1.3121 1.3121 1.3121 1.3095 1.3095 1.3121 1.3121 1.3121 1.3121 1.3149 1.3175 1.3175 1.3175 1.3149 1.3149 1.3121 1.3069 1.3069 1.3069 1.3042 1.3069 1.3069 1.3069 1.3095 1.3095 1.3175 1.3149 1.3149 1.3175 1.3175 1.3175 1.3149 1.3121 1.3095 1.3095 1.3095 1.3069 1.3042 1.3016 1.3042 1.3042 1.3042 1.3042 1.3042 1.299 1.299 1.2964 1.2939 1.2939 1.2913 1.2913 1.2913 1.2939 1.2939 1.2939 1.2861 1.2836 1.2836 1.2811 1.2811 1.276 1.271 1.2661 1.2636 1.2685 1.2661 1.2661 1.2661 1.2661 1.2735 1.2735 1.276 1.2785 1.2785 1.276 1.276 1.276 1.276 1.276 1.271 1.271 1.271 1.271 1.2735 1.276 1.276 1.276 1.2735 1.2735 1.271 1.2685 1.2636 1.2611 1.2563 1.2563 1.2563 1.2539 1.2514 1.2514 1.2514 1.2539 1.249 1.2466 1.2419 1.2348 1.2324 1.2324 1.2348 1.2395 1.2395 1.2348 1.2348 1.2324 1.2301 1.2301 1.2301 1.2301 1.2277 1.2254 1.2254 1.2277 1.2231 1.2231 1.2231 1.2254 1.2254 1.2254 1.2301 1.2277 1.2301 1.2324 1.2324 1.2348 1.2419 1.2419 1.2395 1.2419 1.2371 1.2371 1.2348 1.2231 1.2163 1.2116 1.2071 1.2071 1.2094 1.2116 1.2116 1.2116 1.2116 0 0 0 0 0.62362 0.62362 0.62362 0.62475 0.62413 0.623 0.61875 0.617 0.61475 0.61175 0.61062 0.60888 0.60437 0.60213 0.6005 0.59888 0.59825 0.59713 0.595 0.59337 0.59175 0.59113 0.59062 0.58737 0.58525 0.58375 0.58113 0.5795 0.5785 0.5765 0.576 0.57437 0.57137 0.56988 0.56688 0.56637 0.56488 0.5635 0.5625 0.5615 0.55912 0.55863 0.55712 0.55525 0.55425 0.55337 0.552 0.5505
1.4631 1.4598 1.4565 1.4565 1.4532 1.45 1.45 1.4467 1.4467 1.4371 1.4404 1.4371 1.4371 1.4371 1.4404 1.434 1.434 1.434 1.434 1.4371 1.4371 1.4371 1.434 1.434 1.434 1.434 1.4276 1.4276 1.4276 1.4245 1.4245 1.4245 1.4245 1.4245 1.4214 1.4183 1.4183 1.4214 1.4214 1.4121 1.4121 1.4121 1.406 1.406 1.406 1.406 1.4152 1.4121 1.4152 1.409 1.4121 1.406 1.409 1.406 1.409 1.409 1.406 1.403 1.3999 1.3969 1.3969 1.3969 1.3909 1.3909 1.3761 1.3733 1.3704 1.3704 1.3704 1.3704 1.3704 1.3733 1.3733 1.3791 1.385 1.385 1.382 1.382 1.3733 1.3704 1.3733 1.3791 1.3791 1.3733 1.3733 1.3761 1.3761 1.382 1.382 1.382 1.3791 1.3733 1.3704 1.3704 1.3675 1.3646 1.3646 1.3618 1.3618 1.3618 1.3618 1.3675 1.3675 1.3675 1.3618 1.3646 1.3618 1.3618 1.3589 1.356 1.3533 1.3476 1.3447 1.3393 1.3365 1.3337 1.3337 1.3282 1.331 1.3282 1.3282 1.3282 1.3282 1.331 1.3282 1.3282 1.331 1.3282 1.3256 1.3256 1.3282 1.331 1.331 1.331 1.342 1.3447 1.3447 1.3476 1.3476 1.3476 1.342 1.3365 1.3365 1.3337 1.331 1.331 1.3282 1.3256 1.3256 1.3256 1.3229 1.3256 1.3229 1.3229 1.3175 1.3175 1.3201 1.3175 1.3149 1.3149 1.3121 1.3121 1.3121 1.3121 1.3149 1.3149 1.3149 1.3149 1.3149 1.3149 1.3175 1.3149 1.3095 1.3095 1.3069 1.3069 1.3042 1.3042 1.3069 1.3042 1.3095 1.3095 1.3121 1.3149 1.3149 1.3149 1.3175 1.3149 1.3149 1.3121 1.3095 1.3095 1.3069 1.3042 1.3042 1.3016 1.3016 1.3016 1.3016 1.3042 1.3016 1.3016 1.299 1.2964 1.2964 1.2939 1.2913 1.2913 1.2913 1.2913 1.2913 1.2939 1.2913 1.2861 1.2811 1.2811 1.2811 1.2811 1.2735 1.2685 1.2636 1.2636 1.2661 1.2636 1.2636 1.2611 1.2636 1.271 1.2735 1.2735 1.2785 1.2785 1.276 1.276 1.276 1.276 1.276 1.271 1.271 1.271 1.271 1.276 1.276 1.276 1.276 1.276 1.271 1.271 1.2685 1.2661 1.2636 1.2588 1.2588 1.2563 1.2539 1.2514 1.2514 1.2514 1.2514 1.2514 1.2443 1.2419 1.2395 1.2371 1.2348 1.2348 1.2395 1.2395 1.2348 1.2348 1.2324 1.2348 1.2324 1.2301 1.2301 1.2277 1.2254 1.2254 1.2254 1.2254 1.2231 1.2231 1.2231 1.2254 1.2277 1.2277 1.2301 1.2301 1.2324 1.2324 1.2348 1.2395 1.2395 1.2419 1.2419 1.2395 1.2371 1.2348 1.2254 1.2231 1.2185 1.2094 1.2094 1.2071 1.2116 1.2116 1.2116 1.2116 1.2116 1.2116 0 0 0.62362 0.62362 0.62413 0.62413 0.62475 0.62362 0.61938 0.61762 0.61525 0.613 0.61125 0.61013 0.60388 0.60162 0.601 0.59888 0.59825 0.59775 0.595 0.59388 0.59225 0.59175 0.59113 0.58737 0.58588 0.58425 0.58113 0.58013 0.5785 0.577 0.5765 0.57488 0.57188 0.57088 0.56788 0.56637 0.56537 0.5635 0.563 0.5615 0.56 0.55912 0.55812 0.55625 0.55575 0.55475 0.552 0.551
1.4664 1.4598 1.4565 1.4565 1.4532 1.45 1.45 1.4467 1.4467 1.4404 1.4404 1.4371 1.4371 1.4404 1.4404 1.4404 1.4371 1.434 1.434 1.4371 1.4404 1.4404 1.4404 1.4371 1.4371 1.4371 1.4307 1.4276 1.4307 1.4276 1.4276 1.4214 1.4214 1.4214 1.4214 1.4214 1.4183 1.4183 1.4183 1.4152 1.4121 1.4121 1.409 1.406 1.409 1.406 1.4183 1.4152 1.4152 1.4121 1.4121 1.409 1.409 1.409 1.409 1.409 1.406 1.406 1.406 1.403 1.403 1.3999 1.3969 1.3939 1.385 1.382 1.3791 1.3761 1.3761 1.3791 1.3761 1.3761 1.3791 1.3791 1.382 1.385 1.382 1.382 1.3761 1.3761 1.3791 1.3791 1.382 1.3761 1.3791 1.3791 1.3791 1.382 1.382 1.382 1.382 1.3761 1.3704 1.3733 1.3704 1.3675 1.3675 1.356 1.356 1.3589 1.3618 1.3646 1.3646 1.3675 1.3646 1.3646 1.3646 1.3675 1.3675 1.3675 1.3618 1.3533 1.3476 1.342 1.3365 1.3365 1.3365 1.331 1.3337 1.3282 1.331 1.331 1.331 1.3365 1.3337 1.3365 1.3365 1.3337 1.3337 1.3337 1.3337 1.3365 1.3337 1.3365 1.342 1.3447 1.3504 1.3504 1.3476 1.3476 1.342 1.3393 1.3365 1.3365 1.331 1.331 1.3282 1.3201 1.3201 1.3229 1.3229 1.3229 1.3229 1.3201 1.3175 1.3149 1.3201 1.3201 1.3201 1.3201 1.3175 1.3149 1.3149 1.3149 1.3175 1.3175 1.3121 1.3121 1.3121 1.3121 1.3095 1.3095 1.3069 1.3069 1.3042 1.3042 1.3069 1.3069 1.3095 1.3069 1.3121 1.3149 1.3149 1.3175 1.3175 1.3149 1.3149 1.3095 1.3069 1.3069 1.3042 1.3042 1.3016 1.299 1.299 1.2964 1.299 1.3016 1.299 1.299 1.2964 1.2964 1.2939 1.2913 1.2939 1.2888 1.2888 1.2861 1.2861 1.2888 1.2888 1.2888 1.2888 1.2836 1.2811 1.2811 1.2785 1.2785 1.2685 1.2661 1.2611 1.2588 1.2636 1.2611 1.2611 1.2611 1.2636 1.2685 1.2685 1.2735 1.276 1.2785 1.2735 1.271 1.271 1.276 1.2735 1.2735 1.2735 1.2735 1.2735 1.276 1.276 1.276 1.2735 1.2735 1.2735 1.271 1.271 1.2685 1.2685 1.2611 1.2611 1.2588 1.2514 1.249 1.249 1.2539 1.2514 1.249 1.2419 1.2395 1.2371 1.2348 1.2348 1.2348 1.2395 1.2419 1.2371 1.2371 1.2371 1.2371 1.2395 1.2348 1.2301 1.2277 1.2254 1.2277 1.2277 1.2231 1.2231 1.2231 1.2231 1.2231 1.2254 1.2301 1.2301 1.2301 1.2324 1.2348 1.2371 1.2371 1.2395 1.2443 1.2443 1.2395 1.2395 1.2371 1.2324 1.2301 1.2277 1.2163 1.214 1.2094 1.2071 1.2071 1.2094 1.2116 1.2116 1.2116 0 0 0.62362 0.62362 0.62362 0.62413 0.626 0.623 0.61938 0.61875 0.61762 0.61525 0.61413 0.61238 0.601 0.60325 0.60213 0.59988 0.59988 0.59937 0.59613 0.59437 0.59275 0.59175 0.59113 0.58737 0.58588 0.58475 0.58162 0.58062 0.5795 0.5775 0.577 0.576 0.57337 0.57288 0.56937 0.56837 0.56688 0.56437 0.5635 0.5625 0.561 0.56 0.56 0.55763 0.55712 0.55625 0.55388 0.552
1.4631 1.4631 1.4598 1.4565 1.4532 1.45 1.45 1.4467 1.4435 1.4404 1.4404 1.4371 1.4404 1.4404 1.4435 1.4404 1.4371 1.4371 1.4371 1.4371 1.4404 1.4404 1.4404 1.4371 1.4371 1.434 1.4307 1.4307 1.4276 1.4276 1.4276 1.4214 1.4214 1.4214 1.4214 1.4214 1.4183 1.4214 1.4214 1.4121 1.4121 1.4121 1.4121 1.409 1.406 1.409 1.4152 1.4183 1.4152 1.4121 1.4121 1.4121 1.4121 1.409 1.4121 1.4121 1.409 1.409 1.406 1.406 1.406 1.3999 1.3969 1.3939 1.388 1.385 1.382 1.3791 1.3791 1.3791 1.3791 1.3761 1.3791 1.3791 1.385 1.382 1.385 1.382 1.3791 1.3791 1.3791 1.3791 1.382 1.382 1.382 1.3791 1.382 1.382 1.382 1.382 1.382 1.3761 1.3761 1.3761 1.3733 1.3704 1.3704 1.356 1.356 1.3618 1.3618 1.3675 1.3675 1.3646 1.3646 1.3618 1.3646 1.3675 1.3675 1.3675 1.3618 1.3504 1.3447 1.342 1.3365 1.3337 1.3337 1.3337 1.3337 1.3282 1.331 1.331 1.3337 1.3365 1.3393 1.3393 1.342 1.3365 1.3365 1.3393 1.3393 1.3393 1.3365 1.3393 1.342 1.3447 1.3476 1.3476 1.3476 1.3447 1.3393 1.3365 1.3337 1.3337 1.331 1.331 1.3282 1.3201 1.3175 1.3201 1.3229 1.3229 1.3201 1.3175 1.3175 1.3149 1.3201 1.3201 1.3229 1.3229 1.3175 1.3175 1.3149 1.3175 1.3175 1.3175 1.3121 1.3095 1.3095 1.3095 1.3069 1.3069 1.3069 1.3042 1.3042 1.3069 1.3069 1.3095 1.3095 1.3095 1.3149 1.3149 1.3175 1.3149 1.3175 1.3149 1.3121 1.3069 1.3016 1.3042 1.3016 1.3016 1.299 1.2964 1.2964 1.2964 1.2964 1.299 1.299 1.2964 1.299 1.2964 1.2913 1.2913 1.2913 1.2888 1.2861 1.2861 1.2836 1.2861 1.2861 1.2913 1.2888 1.2836 1.2811 1.2785 1.2785 1.2785 1.2685 1.2636 1.2588 1.2588 1.2636 1.2636 1.2611 1.2611 1.2636 1.2685 1.271 1.271 1.276 1.276 1.271 1.271 1.271 1.2735 1.2735 1.2735 1.2735 1.2735 1.276 1.276 1.276 1.2735 1.2735 1.2735 1.271 1.271 1.271 1.271 1.2685 1.2661 1.2611 1.2588 1.2539 1.249 1.2514 1.2514 1.2514 1.249 1.2395 1.2371 1.2324 1.2324 1.2301 1.2348 1.2419 1.2419 1.2395 1.2395 1.2371 1.2371 1.2395 1.2395 1.2348 1.2277 1.2254 1.2254 1.2254 1.2254 1.2231 1.2208 1.2208 1.2231 1.2254 1.2301 1.2301 1.2324 1.2324 1.2371 1.2395 1.2395 1.2395 1.2466 1.2466 1.2395 1.2395 1.2371 1.2324 1.2324 1.2277 1.2185 1.2163 1.2094 1.2049 1.2049 1.2071 1.2094 1.2116 1.2116 0 0 0 0 0 0 0 0.6315 0.61938 0.61938 0.61875 0.6165 0.61525 0.6135 0.60613 0.605 0.60275 0.601 0.601 0.59988 0.59662 0.595 0.59275 0.59175 0.59113 0.58737 0.58637 0.58475 0.58162 0.58062 0.58013 0.578 0.577 0.576 0.57437 0.57337 0.57037 0.56888 0.56788 0.56488 0.5635 0.5625 0.5615 0.561 0.56 0.55812 0.55712 0.55663 0.55475 0.55337
1.4664 1.4631 1.4598 1.4598 1.4532 1.4532 1.4532 1.4532 1.4467 1.4371 1.4404 1.4371 1.4404 1.4404 1.4404 1.4371 1.4371 1.4371 1.4371 1.4371 1.4371 1.4404 1.4435 1.4371 1.4371 1.434 1.4307 1.4307 1.4307 1.4307 1.4276 1.4245 1.4245 1.4276 1.4214 1.4214 1.4214 1.4214 1.4214 1.409 1.4121 1.4121 1.409 1.409 1.406 1.406 1.4152 1.4152 1.4183 1.4152 1.4121 1.4121 1.4121 1.4121 1.4121 1.4121 1.403 1.403 1.403 1.403 1.3999 1.3939 1.3969 1.3969 1.388 1.388 1.382 1.382 1.382 1.382 1.382 1.3791 1.3791 1.382 1.382 1.382 1.3791 1.3791 1.3733 1.3704 1.3733 1.3761 1.3761 1.3761 1.382 1.382 1.3791 1.382 1.382 1.382 1.382 1.3791 1.3791 1.3791 1.3761 1.3761 1.3733 1.3618 1.3589 1.3646 1.3675 1.3704 1.3675 1.3675 1.3675 1.3618 1.3646 1.3704 1.3675 1.3675 1.3618 1.3504 1.3476 1.342 1.3365 1.3365 1.3365 1.3337 1.3337 1.3282 1.331 1.331 1.3337 1.3365 1.3393 1.342 1.342 1.3365 1.3393 1.3393 1.3393 1.3393 1.3393 1.3393 1.342 1.3393 1.3447 1.3476 1.3476 1.3447 1.3393 1.3337 1.3365 1.3337 1.3282 1.3256 1.3256 1.3229 1.3201 1.3201 1.3201 1.3201 1.3201 1.3175 1.3149 1.3149 1.3175 1.3175 1.3201 1.3175 1.3149 1.3149 1.3149 1.3175 1.3175 1.3175 1.3095 1.3095 1.3095 1.3069 1.3042 1.3042 1.3069 1.3069 1.3042 1.3069 1.3069 1.3095 1.3121 1.3095 1.3149 1.3175 1.3149 1.3175 1.3149 1.3121 1.3095 1.3042 1.3016 1.3016 1.299 1.2964 1.2964 1.2964 1.2939 1.2964 1.2964 1.2964 1.2964 1.2964 1.2939 1.2888 1.2861 1.2861 1.2836 1.2836 1.2811 1.2785 1.2811 1.2836 1.2861 1.2888 1.2888 1.2836 1.2811 1.2785 1.276 1.2785 1.271 1.2661 1.2588 1.2563 1.2588 1.2611 1.2611 1.2588 1.2611 1.2588 1.2588 1.2636 1.271 1.271 1.2685 1.2685 1.2685 1.2735 1.2735 1.2735 1.2735 1.271 1.271 1.2735 1.271 1.271 1.271 1.2685 1.2685 1.2661 1.2685 1.2685 1.2661 1.2636 1.2636 1.2611 1.2539 1.2514 1.2539 1.2514 1.2514 1.249 1.2419 1.2395 1.2348 1.2324 1.2324 1.2348 1.2466 1.2466 1.2419 1.2419 1.2395 1.2395 1.2419 1.2419 1.2371 1.2324 1.2254 1.2254 1.2277 1.2254 1.2231 1.2231 1.2231 1.2231 1.2277 1.2301 1.2301 1.2301 1.2371 1.2371 1.2395 1.2395 1.2395 1.2443 1.2443 1.2419 1.2371 1.2371 1.2301 1.2277 1.2231 1.2185 1.214 1.2094 1.2049 1.2049 1.2071 1.2071 1.2116 1.2116 0.6415 0.64212 0.6415 0.64212 0.63575 0.6345 0.63387 0.6315 0.61938 0.62175 0.62062 0.617 0.61587 0.61413 0.60213 0.60275 0.60162 0.60162 0.60213 0.59888 0.59775 0.59613 0.59337 0.59225 0.59175 0.58737 0.58637 0.58525 0.58162 0.58013 0.5795 0.578 0.577 0.5765 0.57488 0.57337 0.57137 0.56988 0.56888 0.56537 0.564 0.563 0.562 0.5615 0.5605 0.55863 0.55763 0.55712 0.55575 0.55475
1.4697 1.4631 1.4598 1.4598 1.4631 1.4598 1.4598 1.4532 1.4467 1.434 1.4371 1.4371 1.4371 1.4371 1.4371 1.4371 1.434 1.4371 1.4371 1.4371 1.4371 1.4404 1.4435 1.4404 1.4404 1.4371 1.4307 1.434 1.4307 1.434 1.4307 1.4307 1.4276 1.4307 1.4307 1.4276 1.4245 1.4214 1.4214 1.409 1.409 1.4121 1.4121 1.4121 1.406 1.406 1.4183 1.4152 1.4183 1.4183 1.4152 1.4121 1.4121 1.4121 1.4152 1.4121 1.406 1.406 1.403 1.403 1.3969 1.3939 1.3939 1.3969 1.388 1.388 1.388 1.385 1.385 1.385 1.385 1.382 1.382 1.382 1.3791 1.3791 1.3791 1.3791 1.3704 1.3675 1.3704 1.3733 1.3733 1.3761 1.3761 1.3791 1.3791 1.382 1.382 1.382 1.382 1.382 1.385 1.385 1.382 1.3791 1.3791 1.3704 1.3733 1.3761 1.3761 1.3761 1.3761 1.3675 1.3675 1.3675 1.3646 1.3675 1.3646 1.3618 1.356 1.3533 1.3476 1.3447 1.3393 1.3393 1.3393 1.3337 1.3337 1.331 1.331 1.3337 1.3337 1.3365 1.3393 1.342 1.3447 1.3393 1.3393 1.342 1.3393 1.3393 1.3393 1.3393 1.3393 1.3393 1.342 1.3447 1.3447 1.3447 1.3393 1.3337 1.3365 1.3365 1.331 1.3256 1.3256 1.3229 1.3229 1.3229 1.3256 1.3229 1.3201 1.3201 1.3149 1.3149 1.3201 1.3201 1.3175 1.3175 1.3175 1.3149 1.3149 1.3175 1.3175 1.3201 1.3121 1.3121 1.3121 1.3095 1.3095 1.3069 1.3095 1.3121 1.3069 1.3095 1.3095 1.3121 1.3149 1.3149 1.3149 1.3175 1.3175 1.3175 1.3175 1.3121 1.3095 1.3042 1.299 1.3016 1.299 1.2964 1.2964 1.2964 1.2939 1.2964 1.2964 1.2964 1.299 1.2939 1.2939 1.2888 1.2861 1.2861 1.2861 1.2836 1.2836 1.276 1.2785 1.2811 1.2836 1.2861 1.2861 1.2811 1.2785 1.276 1.276 1.2735 1.271 1.2685 1.2588 1.2563 1.2611 1.2636 1.2636 1.2611 1.2611 1.2611 1.2611 1.2636 1.2685 1.271 1.2661 1.2685 1.2685 1.271 1.2735 1.2735 1.2735 1.271 1.271 1.271 1.271 1.2685 1.271 1.2685 1.2685 1.2685 1.2685 1.2661 1.2661 1.2636 1.2636 1.2611 1.2563 1.2514 1.2539 1.249 1.249 1.249 1.2443 1.2419 1.2395 1.2371 1.2348 1.2395 1.249 1.249 1.2443 1.2443 1.2443 1.2419 1.2419 1.2443 1.2395 1.2371 1.2301 1.2301 1.2301 1.2277 1.2301 1.2301 1.2301 1.2301 1.2277 1.2324 1.2348 1.2371 1.2419 1.2419 1.2395 1.2371 1.2419 1.2443 1.2443 1.2395 1.2371 1.2324 1.2277 1.2254 1.2208 1.2163 1.214 1.2094 1.2049 0 0 0 0 0 0.6415 0.64338 0.64275 0.64013 0.63638 0.6345 0.63387 0.63262 0.62838 0.626 0.623 0.61825 0.6165 0.61525 0.60213 0.60437 0.60325 0.60325 0.60388 0.59988 0.59888 0.59775 0.595 0.59388 0.59275 0.589 0.58737 0.58588 0.58213 0.58062 0.5795 0.5785 0.5775 0.5765 0.5755 0.57437 0.57337 0.57188 0.57037 0.56737 0.56537 0.56437 0.563 0.5625 0.5615 0.55912 0.55863 0.55812 0.55712 0.55625
1.4697 1.4664 1.4598 1.4631 1.4631 1.4631 1.4532 1.45 1.4435 1.434 1.434 1.434 1.434 1.434 1.4371 1.434 1.4371 1.434 1.434 1.434 1.434 1.4435 1.4435 1.4404 1.4404 1.4371 1.434 1.4307 1.434 1.4307 1.4307 1.4276 1.4276 1.4276 1.4276 1.4245 1.4214 1.4214 1.4152 1.4121 1.4121 1.4121 1.4121 1.4121 1.406 1.409 1.4152 1.4183 1.4183 1.4152 1.4152 1.4183 1.4152 1.4152 1.4152 1.4152 1.409 1.406 1.406 1.3999 1.3969 1.3969 1.3969 1.3939 1.3909 1.388 1.388 1.388 1.388 1.388 1.382 1.382 1.382 1.382 1.382 1.3791 1.3761 1.3733 1.3704 1.3675 1.3704 1.3733 1.3733 1.3733 1.3761 1.3791 1.3791 1.3791 1.3791 1.382 1.3791 1.382 1.385 1.385 1.3791 1.382 1.3791 1.3761 1.3733 1.3761 1.3791 1.3791 1.3761 1.3675 1.3646 1.3618 1.3589 1.356 1.356 1.3533 1.3533 1.3504 1.3476 1.3447 1.3393 1.3393 1.3365 1.3365 1.3337 1.3282 1.3282 1.3282 1.331 1.3365 1.3365 1.342 1.3447 1.3393 1.342 1.342 1.3393 1.3393 1.3365 1.3393 1.3393 1.3393 1.3393 1.342 1.3447 1.3447 1.3365 1.3365 1.3337 1.3365 1.3282 1.3282 1.3256 1.3256 1.3256 1.3256 1.3229 1.3229 1.3201 1.3175 1.3175 1.3149 1.3201 1.3175 1.3201 1.3175 1.3175 1.3175 1.3149 1.3175 1.3201 1.3229 1.3149 1.3121 1.3149 1.3095 1.3095 1.3121 1.3095 1.3121 1.3121 1.3095 1.3121 1.3121 1.3149 1.3149 1.3201 1.3201 1.3175 1.3175 1.3175 1.3121 1.3069 1.3016 1.299 1.299 1.2964 1.2964 1.299 1.2964 1.2939 1.2964 1.2964 1.3016 1.3016 1.2939 1.2913 1.2888 1.2861 1.2861 1.2861 1.2836 1.2811 1.2785 1.276 1.2785 1.2785 1.2836 1.2836 1.2811 1.276 1.2735 1.271 1.271 1.2661 1.2636 1.2611 1.2563 1.2611 1.2685 1.2661 1.2611 1.2636 1.2636 1.2636 1.2636 1.271 1.271 1.2685 1.2661 1.2661 1.271 1.2735 1.2735 1.2735 1.271 1.2735 1.271 1.271 1.2685 1.2685 1.271 1.2685 1.2685 1.2685 1.2685 1.2661 1.2636 1.2611 1.2611 1.2539 1.2514 1.2514 1.2466 1.2466 1.2466 1.2419 1.2419 1.2371 1.2348 1.2348 1.2348 1.2466 1.2466 1.2419 1.2395 1.2419 1.2395 1.2419 1.2419 1.2395 1.2371 1.2324 1.2277 1.2301 1.2301 1.2301 1.2301 1.2301 1.2301 1.2301 1.2324 1.2395 1.2419 1.2419 1.2419 1.2395 1.2395 1.2419 1.2443 1.2443 1.2395 1.2371 1.2301 1.2254 1.2208 1.2163 1.2116 1.2094 1.2094 1.2071 1.2116 1.2116 0 0 0 0.64463 0.644 0.644 0.6415 0.63762 0.6345 0.63387 0.63262 0.62838 0.62662 0.62362 0.61875 0.61762 0.617 0.60662 0.60613 0.6055 0.60437 0.60437 0.59988 0.59888 0.59825 0.5955 0.59437 0.59337 0.58962 0.588 0.58637 0.58213 0.58062 0.58013 0.5785 0.5775 0.577 0.57488 0.57437 0.57388 0.57237 0.57137 0.56837 0.56688 0.56537 0.564 0.563 0.562 0.55963 0.55863 0.55863 0.55712 0.55625
1.4697 1.4664 1.4598 1.4598 1.4598 1.4598 1.4532 1.45 1.4435 1.4307 1.4307 1.434 1.4307 1.4307 1.434 1.4307 1.4276 1.4307 1.4307 1.434 1.434 1.4371 1.4404 1.4404 1.4371 1.434 1.434 1.434 1.4307 1.4307 1.4307 1.4276 1.4276 1.4276 1.4276 1.4245 1.4245 1.4183 1.4152 1.4121 1.4121 1.4152 1.4121 1.4121 1.409 1.409 1.4152 1.4183 1.4183 1.4152 1.4152 1.4152 1.4121 1.4121 1.409 1.409 1.403 1.403 1.3999 1.3939 1.3939 1.3909 1.3939 1.3939 1.3909 1.388 1.388 1.388 1.3909 1.388 1.385 1.385 1.382 1.382 1.382 1.3761 1.3761 1.3761 1.3675 1.3675 1.3675 1.3704 1.3704 1.3733 1.3733 1.3761 1.3791 1.3791 1.3791 1.3733 1.3733 1.3761 1.3761 1.3791 1.3704 1.3704 1.3704 1.3675 1.3704 1.3733 1.3733 1.3733 1.3733 1.3618 1.3589 1.3476 1.3504 1.3476 1.3504 1.3504 1.3476 1.3476 1.3476 1.3447 1.3393 1.3393 1.3365 1.3337 1.331 1.3229 1.3229 1.3229 1.3282 1.3337 1.3337 1.3393 1.3393 1.3393 1.342 1.342 1.342 1.342 1.3393 1.3365 1.3393 1.3393 1.342 1.342 1.3447 1.3447 1.3393 1.3365 1.3365 1.3365 1.331 1.3282 1.3256 1.3256 1.3256 1.3229 1.3229 1.3229 1.3201 1.3201 1.3175 1.3149 1.3201 1.3175 1.3175 1.3175 1.3175 1.3175 1.3175 1.3175 1.3201 1.3229 1.3175 1.3121 1.3121 1.3095 1.3095 1.3121 1.3095 1.3095 1.3095 1.3095 1.3069 1.3095 1.3121 1.3121 1.3121 1.3121 1.3149 1.3121 1.3121 1.3095 1.3069 1.299 1.299 1.299 1.2964 1.299 1.299 1.2964 1.2964 1.2964 1.299 1.299 1.3016 1.2939 1.2913 1.2861 1.2811 1.2785 1.2785 1.2785 1.276 1.2735 1.271 1.271 1.2735 1.276 1.276 1.276 1.2735 1.271 1.2685 1.271 1.2636 1.2636 1.2611 1.2588 1.2636 1.2685 1.2685 1.2661 1.2661 1.2661 1.2661 1.2685 1.271 1.2735 1.2685 1.2685 1.271 1.271 1.276 1.2735 1.2735 1.271 1.271 1.271 1.2685 1.2685 1.2685 1.2685 1.271 1.271 1.271 1.2661 1.2661 1.2611 1.2588 1.2588 1.2514 1.2514 1.249 1.2466 1.2443 1.2443 1.2419 1.2395 1.2371 1.2348 1.2348 1.2371 1.2443 1.2419 1.2395 1.2348 1.2348 1.2324 1.2301 1.2301 1.2324 1.2324 1.2301 1.2301 1.2301 1.2301 1.2324 1.2324 1.2301 1.2301 1.2301 1.2324 1.2395 1.2443 1.2443 1.2395 1.2371 1.2395 1.2395 1.2466 1.2443 1.2419 1.2348 1.2208 1.2163 1.214 1.2116 1.2071 1.2071 1.2071 1.2094 1.2116 1.2116 0 0 0 0.64463 0.64463 0.64463 0.64525 0.63762 0.63575 0.6345 0.63325 0.629 0.62713 0.62413 0.62 0.61825 0.61762 0.60725 0.60725 0.60613 0.60325 0.60275 0.59937 0.59888 0.59888 0.59613 0.595 0.59337 0.59062 0.589 0.58688 0.58213 0.58113 0.58062 0.579 0.578 0.5775 0.5755 0.57488 0.57388 0.57288 0.57188 0.56937 0.56788 0.56688 0.56437 0.5635 0.5625 0.5605 0.55963 0.55863 0.55712 0.55625
1.4697 1.4697 1.4664 1.4598 1.4598 1.4598 1.4532 1.45 1.4467 1.434 1.4307 1.434 1.4276 1.4307 1.4307 1.4307 1.4276 1.4276 1.4276 1.4307 1.4307 1.434 1.4371 1.4371 1.434 1.434 1.4307 1.434 1.4307 1.4307 1.4307 1.4276 1.4276 1.4276 1.4276 1.4307 1.4276 1.4245 1.4214 1.4121 1.4121 1.4152 1.4183 1.4152 1.409 1.409 1.4183 1.4183 1.4214 1.4183 1.4183 1.4183 1.4152 1.409 1.406 1.406 1.403 1.3999 1.3969 1.3969 1.3909 1.3939 1.3939 1.3969 1.3939 1.3939 1.3939 1.3939 1.3939 1.3939 1.3909 1.388 1.385 1.382 1.382 1.3791 1.3761 1.3761 1.3704 1.3675 1.3675 1.3733 1.3704 1.3733 1.382 1.382 1.382 1.3791 1.3761 1.3733 1.3704 1.3733 1.3704 1.3733 1.3675 1.3675 1.3675 1.3646 1.3646 1.3675 1.3704 1.3704 1.3704 1.3618 1.356 1.3476 1.3476 1.3476 1.3504 1.3476 1.3476 1.3476 1.3476 1.3447 1.342 1.3447 1.342 1.3365 1.331 1.3201 1.3229 1.3229 1.3282 1.331 1.3365 1.3393 1.342 1.3393 1.342 1.3393 1.342 1.342 1.3393 1.3393 1.3393 1.3393 1.342 1.3447 1.3476 1.3447 1.3393 1.342 1.3393 1.3365 1.3337 1.3337 1.3282 1.3282 1.3282 1.3256 1.3256 1.3256 1.3229 1.3229 1.3175 1.3175 1.3201 1.3201 1.3229 1.3229 1.3175 1.3175 1.3175 1.3175 1.3201 1.3201 1.3175 1.3121 1.3095 1.3121 1.3095 1.3095 1.3095 1.3095 1.3069 1.3069 1.3095 1.3095 1.3095 1.3121 1.3095 1.3121 1.3121 1.3121 1.3095 1.3069 1.3042 1.299 1.2964 1.3016 1.3016 1.299 1.3016 1.299 1.299 1.299 1.299 1.299 1.3016 1.2939 1.2888 1.2861 1.2785 1.2735 1.276 1.276 1.276 1.271 1.271 1.271 1.2735 1.2735 1.276 1.276 1.2735 1.2685 1.2685 1.271 1.271 1.2735 1.2735 1.2685 1.271 1.2735 1.276 1.276 1.276 1.2735 1.2735 1.2735 1.2785 1.2785 1.2735 1.2735 1.276 1.276 1.276 1.276 1.276 1.2735 1.271 1.2735 1.271 1.2735 1.2735 1.2735 1.271 1.271 1.2685 1.2661 1.2636 1.2611 1.2588 1.2588 1.2539 1.2514 1.2466 1.2466 1.2443 1.2443 1.2419 1.2419 1.2371 1.2371 1.2348 1.2371 1.2419 1.2395 1.2348 1.2324 1.2324 1.2301 1.2277 1.2277 1.2301 1.2324 1.2301 1.2324 1.2324 1.2348 1.2348 1.2371 1.2348 1.2348 1.2301 1.2348 1.2395 1.2419 1.2419 1.2395 1.2395 1.2395 1.2443 1.2514 1.2514 1.249 1.2466 1.2116 1.2163 1.2163 1.214 1.2094 1.2071 1.2094 1.214 1.214 1.2163 0 0 0 0 0 0 0 0.64338 0.63762 0.63638 0.63513 0.63213 0.63025 0.62713 0.62175 0.62 0.61875 0.60837 0.60775 0.60613 0.60325 0.60213 0.59988 0.59937 0.59937 0.59775 0.59613 0.59437 0.59175 0.59013 0.588 0.58325 0.58162 0.58113 0.58013 0.5795 0.5785 0.577 0.577 0.57488 0.57437 0.57337 0.57037 0.56937 0.56888 0.56637 0.56537 0.564 0.5615 0.5605 0.56 0.55763 0.55663
1.473 1.4697 1.4664 1.4664 1.4631 1.4631 1.4565 1.4532 1.4467 1.4371 1.434 1.434 1.4276 1.4307 1.4307 1.4276 1.4276 1.4245 1.4214 1.4214 1.4276 1.4307 1.434 1.434 1.434 1.4307 1.4307 1.4276 1.4307 1.4307 1.4307 1.4276 1.4276 1.4276 1.4307 1.4307 1.4276 1.4245 1.4214 1.4121 1.4152 1.4183 1.4152 1.4152 1.4121 1.4121 1.4183 1.4214 1.4183 1.4214 1.4183 1.4152 1.4121 1.406 1.403 1.403 1.3999 1.3969 1.3969 1.3939 1.3939 1.3939 1.3969 1.3969 1.3969 1.3969 1.3969 1.3939 1.3969 1.3969 1.3909 1.388 1.382 1.382 1.3791 1.3761 1.3791 1.3761 1.3704 1.3675 1.3704 1.3704 1.3733 1.3761 1.3791 1.385 1.3791 1.3791 1.3761 1.3704 1.3704 1.3704 1.3675 1.3646 1.3646 1.3646 1.3646 1.3589 1.3618 1.3675 1.3675 1.3704 1.3704 1.3589 1.3533 1.3504 1.3476 1.3476 1.3504 1.3504 1.3504 1.3476 1.3447 1.3447 1.3447 1.3447 1.342 1.3365 1.331 1.3229 1.3229 1.3256 1.3282 1.3337 1.3365 1.3393 1.3447 1.342 1.342 1.3447 1.3447 1.3447 1.3393 1.3393 1.3393 1.3393 1.3393 1.342 1.3447 1.342 1.3365 1.3365 1.3365 1.3365 1.331 1.331 1.331 1.3282 1.3282 1.3256 1.3282 1.3256 1.3256 1.3229 1.3201 1.3201 1.3201 1.3229 1.3229 1.3229 1.3175 1.3175 1.3149 1.3175 1.3175 1.3201 1.3121 1.3121 1.3121 1.3121 1.3095 1.3095 1.3069 1.3095 1.3069 1.3095 1.3095 1.3095 1.3095 1.3095 1.3095 1.3121 1.3121 1.3121 1.3069 1.3069 1.3042 1.2964 1.2939 1.2964 1.299 1.299 1.299 1.299 1.299 1.299 1.299 1.299 1.299 1.2939 1.2888 1.2836 1.276 1.271 1.2735 1.2735 1.2735 1.2685 1.271 1.271 1.2735 1.276 1.2785 1.276 1.2735 1.271 1.271 1.271 1.271 1.2735 1.2735 1.271 1.2735 1.2735 1.2785 1.2785 1.276 1.276 1.2735 1.276 1.2785 1.2811 1.276 1.276 1.276 1.276 1.276 1.276 1.276 1.2735 1.2735 1.2735 1.2735 1.2735 1.2735 1.2735 1.2735 1.2735 1.2685 1.2661 1.2636 1.2588 1.2563 1.2563 1.2514 1.249 1.2466 1.2443 1.2443 1.2443 1.2443 1.2443 1.2395 1.2371 1.2348 1.2371 1.2371 1.2371 1.2301 1.2301 1.2301 1.2277 1.2277 1.2277 1.2301 1.2301 1.2301 1.2324 1.2348 1.2348 1.2371 1.2371 1.2395 1.2395 1.2348 1.2348 1.2348 1.2371 1.2395 1.2395 1.2419 1.2395 1.2443 1.2539 1.2563 1.2514 1.2539 1.2419 1.2254 1.2231 1.2208 1.214 1.2094 1.2116 1.214 1.214 1.2163 0 0 0 0 0 0 0 0.6465 0.63887 0.637 0.63513 0.63213 0.63025 0.62713 0.623 0.62062 0.61938 0.60888 0.60888 0.60662 0.60388 0.60325 0.59988 0.59988 0.59988 0.59825 0.59662 0.595 0.59225 0.59013 0.5885 0.58425 0.58213 0.58162 0.58013 0.5795 0.579 0.5775 0.5775 0.576 0.57437 0.57388 0.57137 0.56988 0.56888 0.56737 0.56688 0.56488 0.5625 0.561 0.5605 0.55763 0.55712
1.473 1.4697 1.4697 1.4631 1.4631 1.4664 1.4598 1.4532 1.4467 1.4404 1.434 1.4307 1.4276 1.4307 1.4307 1.4276 1.4245 1.4183 1.4152 1.4152 1.4152 1.4183 1.4183 1.4183 1.4183 1.4214 1.4214 1.4245 1.4245 1.4245 1.4276 1.4276 1.4276 1.4276 1.4276 1.434 1.4307 1.4245 1.4214 1.4152 1.4121 1.4152 1.4152 1.4183 1.4152 1.4121 1.4183 1.4214 1.4214 1.4214 1.4183 1.4152 1.409 1.403 1.3999 1.3999 1.3999 1.3969 1.3969 1.3969 1.3939 1.3939 1.3969 1.3999 1.3969 1.3969 1.3939 1.3969 1.3939 1.3939 1.3909 1.388 1.382 1.3791 1.3761 1.3761 1.3791 1.3761 1.3704 1.3704 1.3704 1.3704 1.3733 1.3733 1.3791 1.3791 1.3761 1.3733 1.3704 1.3675 1.3646 1.3646 1.3646 1.3589 1.356 1.356 1.356 1.356 1.3589 1.3646 1.3675 1.3646 1.3646 1.356 1.3504 1.3476 1.3476 1.3476 1.3504 1.3504 1.3476 1.3476 1.3476 1.3447 1.3447 1.3476 1.342 1.3365 1.331 1.3256 1.3256 1.3282 1.331 1.3337 1.3365 1.342 1.342 1.3447 1.3447 1.3447 1.3447 1.3476 1.342 1.3365 1.3365 1.3393 1.3365 1.3365 1.3365 1.3337 1.331 1.331 1.3337 1.3337 1.331 1.3282 1.3282 1.3282 1.3282 1.3256 1.3282 1.3256 1.3229 1.3229 1.3201 1.3201 1.3201 1.3229 1.3229 1.3229 1.3175 1.3175 1.3149 1.3149 1.3149 1.3175 1.3121 1.3121 1.3121 1.3095 1.3095 1.3069 1.3069 1.3069 1.3069 1.3095 1.3095 1.3069 1.3095 1.3069 1.3095 1.3121 1.3069 1.3069 1.3042 1.3016 1.299 1.2939 1.2913 1.2939 1.2939 1.299 1.299 1.2964 1.299 1.2964 1.299 1.299 1.299 1.2913 1.2861 1.2836 1.2735 1.2685 1.2685 1.2735 1.2735 1.2685 1.271 1.271 1.2735 1.276 1.2785 1.2785 1.276 1.2735 1.2685 1.2735 1.2735 1.276 1.2735 1.2735 1.2735 1.276 1.2785 1.2811 1.2785 1.2785 1.276 1.276 1.2785 1.2785 1.2785 1.2785 1.2785 1.276 1.276 1.276 1.276 1.276 1.271 1.2735 1.2735 1.2735 1.2735 1.2735 1.2735 1.2735 1.2685 1.2661 1.2636 1.2563 1.2563 1.2539 1.2466 1.2443 1.2443 1.2419 1.2443 1.2443 1.2466 1.2466 1.2419 1.2395 1.2371 1.2348 1.2324 1.2324 1.2277 1.2277 1.2254 1.2254 1.2231 1.2254 1.2277 1.2301 1.2277 1.2324 1.2348 1.2371 1.2395 1.2419 1.2419 1.2419 1.2348 1.2348 1.2348 1.2324 1.2371 1.2419 1.2395 1.2371 1.2443 1.2563 1.2563 1.2539 1.249 1.2466 1.2324 1.2277 1.2277 1.2185 1.2116 1.2116 1.2163 1.2163 1.214 0 0 0 0 0 0 0 0.64587 0.6395 0.637 0.63513 0.63213 0.63025 0.62775 0.62238 0.62113 0.62 0.60888 0.60888 0.60775 0.605 0.60388 0.601 0.6005 0.601 0.59888 0.59713 0.5955 0.59275 0.59062 0.589 0.58475 0.58213 0.58162 0.58013 0.58013 0.5795 0.5785 0.5785 0.5765 0.57488 0.57437 0.57188 0.57088 0.56937 0.56837 0.56737 0.56537 0.5625 0.5615 0.5605 0.55812 0.55712
1.4697 1.4664 1.4664 1.4598 1.4631 1.4598 1.4631 1.4598 1.4565 1.45 1.4467 1.4435 1.4371 1.434 1.4307 1.4276 1.4245 1.4214 1.4183 1.409 1.409 1.4121 1.409 1.4121 1.4121 1.4152 1.4183 1.4214 1.4214 1.4276 1.4276 1.4307 1.4371 1.4371 1.4371 1.434 1.4307 1.4245 1.4183 1.4183 1.4183 1.4183 1.4214 1.4183 1.4152 1.4183 1.4183 1.4214 1.4183 1.4183 1.4183 1.4152 1.4121 1.3999 1.403 1.3999 1.3999 1.403 1.3969 1.3969 1.3969 1.3969 1.3999 1.403 1.3999 1.3999 1.3999 1.3969 1.3969 1.3969 1.3939 1.3909 1.382 1.382 1.3761 1.3761 1.3791 1.3791 1.3733 1.3733 1.3704 1.3733 1.3733 1.3761 1.382 1.3791 1.3791 1.3733 1.3704 1.3646 1.3646 1.3646 1.3646 1.3589 1.356 1.3533 1.3533 1.356 1.3589 1.3618 1.3675 1.3646 1.3618 1.356 1.3476 1.3476 1.3476 1.3504 1.3504 1.3476 1.3476 1.3447 1.3476 1.3447 1.3476 1.3476 1.3447 1.3393 1.331 1.331 1.331 1.331 1.3337 1.3393 1.342 1.3476 1.3476 1.3476 1.3476 1.3476 1.3476 1.3447 1.3393 1.3365 1.3365 1.3393 1.3337 1.3337 1.3337 1.331 1.3282 1.3282 1.3337 1.3337 1.331 1.331 1.3282 1.3282 1.3282 1.3256 1.3282 1.3256 1.3229 1.3229 1.3201 1.3229 1.3229 1.3256 1.3201 1.3201 1.3175 1.3149 1.3175 1.3149 1.3149 1.3149 1.3149 1.3149 1.3149 1.3149 1.3149 1.3121 1.3121 1.3121 1.3095 1.3095 1.3095 1.3095 1.3121 1.3095 1.3095 1.3121 1.3069 1.3042 1.3042 1.299 1.2964 1.2939 1.2913 1.299 1.2964 1.299 1.299 1.299 1.3016 1.3016 1.3016 1.3016 1.299 1.2913 1.2861 1.2811 1.2735 1.271 1.271 1.271 1.271 1.271 1.2735 1.2735 1.276 1.2785 1.2811 1.2811 1.2785 1.276 1.276 1.2785 1.2785 1.2836 1.2836 1.2785 1.2785 1.2785 1.2811 1.2861 1.2811 1.2785 1.2785 1.276 1.2785 1.2785 1.2785 1.276 1.276 1.276 1.2735 1.2735 1.2785 1.2785 1.2735 1.276 1.276 1.276 1.2785 1.2785 1.276 1.276 1.2685 1.2685 1.2636 1.2563 1.2539 1.249 1.2466 1.2443 1.2443 1.2419 1.2466 1.2466 1.2514 1.249 1.2514 1.2514 1.249 1.2419 1.2395 1.2348 1.2301 1.2277 1.2277 1.2231 1.2231 1.2277 1.2324 1.2348 1.2348 1.2371 1.2395 1.2443 1.2466 1.249 1.2443 1.2419 1.2324 1.2395 1.2466 1.2514 1.2514 1.249 1.2443 1.2419 1.2466 1.2588 1.2588 1.2514 1.249 1.2466 1.2324 1.2277 1.2277 1.2254 1.2254 1.2254 1.2254 1.2277 1.2277 0 0 0 0 0 0 0 0.64587 0.64013 0.63762 0.63575 0.63213 0.63213 0.62662 0.623 0.62113 0.62 0.61525 0.61125 0.6095 0.60613 0.605 0.60162 0.60162 0.60162 0.59937 0.59888 0.59775 0.59437 0.59275 0.59062 0.58525 0.58375 0.58262 0.58013 0.58013 0.58013 0.5795 0.5795 0.5775 0.5765 0.5755 0.57337 0.57237 0.57088 0.56888 0.56737 0.56588 0.5635 0.562 0.561 0.55963 0.55912
1.4697 1.4697 1.4664 1.4631 1.4631 1.4631 1.4598 1.4565 1.4565 1.45 1.4435 1.4435 1.434 1.434 1.4307 1.4276 1.4245 1.4214 1.4183 1.4152 1.4121 1.4121 1.4121 1.4121 1.4152 1.4152 1.4214 1.4214 1.4214 1.4276 1.4307 1.434 1.4371 1.4371 1.4371 1.4371 1.434 1.4276 1.4245 1.4152 1.4183 1.4183 1.4214 1.4183 1.4183 1.4152 1.4214 1.4214 1.4214 1.4214 1.4214 1.4152 1.409 1.406 1.403 1.3999 1.403 1.3999 1.3999 1.3969 1.3969 1.3999 1.3999 1.406 1.403 1.403 1.406 1.3999 1.3999 1.3999 1.3939 1.3909 1.385 1.385 1.382 1.3791 1.3791 1.3791 1.3761 1.3733 1.3733 1.3761 1.3761 1.3791 1.385 1.382 1.3791 1.3791 1.3761 1.3675 1.3675 1.3675 1.3675 1.3618 1.356 1.356 1.356 1.356 1.3618 1.3646 1.3646 1.3646 1.3646 1.3533 1.3476 1.3447 1.3447 1.3476 1.3476 1.3447 1.3447 1.342 1.3447 1.342 1.3476 1.3504 1.3447 1.342 1.3337 1.3337 1.331 1.331 1.3337 1.342 1.3447 1.3476 1.3476 1.3476 1.3476 1.3447 1.3447 1.3447 1.342 1.3365 1.3393 1.3393 1.3365 1.3337 1.3337 1.331 1.331 1.331 1.3337 1.3365 1.3337 1.3337 1.331 1.3282 1.3282 1.3282 1.3282 1.3256 1.3229 1.3229 1.3229 1.3201 1.3256 1.3229 1.3229 1.3201 1.3175 1.3175 1.3149 1.3149 1.3149 1.3149 1.3149 1.3175 1.3175 1.3175 1.3175 1.3121 1.3149 1.3149 1.3121 1.3095 1.3095 1.3095 1.3121 1.3121 1.3095 1.3121 1.3069 1.3042 1.3016 1.299 1.2964 1.2964 1.2939 1.2964 1.299 1.3016 1.299 1.299 1.3016 1.3016 1.3016 1.3042 1.3016 1.2888 1.2836 1.2836 1.276 1.271 1.2735 1.271 1.2735 1.271 1.271 1.2735 1.2735 1.2785 1.2811 1.2811 1.2811 1.276 1.2785 1.2811 1.2811 1.2836 1.2836 1.2811 1.2811 1.2811 1.2836 1.2861 1.2836 1.2811 1.2785 1.2785 1.2785 1.2811 1.2785 1.276 1.276 1.276 1.2735 1.2735 1.276 1.276 1.276 1.276 1.2735 1.2735 1.276 1.276 1.276 1.2735 1.271 1.2661 1.2636 1.2563 1.2539 1.2514 1.2443 1.2443 1.2443 1.2419 1.2466 1.249 1.249 1.249 1.249 1.2514 1.249 1.2443 1.2419 1.2371 1.2324 1.2301 1.2324 1.2324 1.2324 1.2348 1.2395 1.2371 1.2371 1.2395 1.2419 1.249 1.249 1.249 1.249 1.2419 1.2371 1.2395 1.2466 1.249 1.249 1.2443 1.2419 1.2395 1.2466 1.2539 1.2563 1.2514 1.2466 1.2443 1.2324 1.2277 1.2254 1.2254 1.2254 1.2254 1.2277 1.2254 1.2277 1.2419 0 0 0 0 0 0 0.64212 0.64013 0.63825 0.63638 0.63213 0.63025 0.62062 0.62175 0.62113 0.62 0.61525 0.61238 0.61062 0.60725 0.6055 0.60275 0.60213 0.60162 0.59988 0.59825 0.59775 0.595 0.59337 0.59113 0.58637 0.58425 0.58325 0.58162 0.58062 0.58062 0.58013 0.58062 0.578 0.577 0.577 0.57437 0.57337 0.57237 0.56988 0.56888 0.56737 0.5635 0.562 0.5605 0.56 0.55963
1.4697 1.4697 1.4664 1.4664 1.4598 1.4598 1.4565 1.4565 1.4532 1.45 1.4467 1.4435 1.4371 1.434 1.434 1.4307 1.4276 1.4214 1.4183 1.4183 1.4121 1.4121 1.4152 1.4152 1.4183 1.4152 1.4214 1.4183 1.4214 1.4245 1.4276 1.4307 1.434 1.434 1.4371 1.4371 1.4371 1.4307 1.4276 1.4214 1.4214 1.4214 1.4214 1.4214 1.4183 1.4152 1.4214 1.4214 1.4214 1.4214 1.4183 1.4183 1.4121 1.406 1.406 1.403 1.3999 1.403 1.403 1.3999 1.403 1.3999 1.403 1.406 1.409 1.409 1.4121 1.406 1.409 1.406 1.3999 1.3969 1.3939 1.3939 1.3909 1.385 1.385 1.385 1.382 1.3791 1.3791 1.385 1.385 1.385 1.385 1.385 1.382 1.3791 1.3791 1.3761 1.3733 1.3733 1.3704 1.3646 1.3618 1.3589 1.3589 1.3589 1.3675 1.3704 1.3704 1.3646 1.3646 1.3504 1.342 1.342 1.3393 1.342 1.3447 1.3393 1.3365 1.3365 1.342 1.342 1.3447 1.3504 1.3447 1.3447 1.3393 1.3365 1.3365 1.3365 1.3365 1.342 1.3447 1.3476 1.3447 1.3393 1.3393 1.3393 1.3393 1.3365 1.3365 1.3337 1.3337 1.3365 1.3393 1.3365 1.3337 1.3337 1.3337 1.3337 1.3365 1.3365 1.3365 1.3337 1.3337 1.3282 1.331 1.3256 1.3256 1.3256 1.3229 1.3201 1.3201 1.3201 1.3229 1.3201 1.3229 1.3201 1.3201 1.3175 1.3175 1.3149 1.3175 1.3175 1.3175 1.3201 1.3201 1.3201 1.3201 1.3175 1.3201 1.3175 1.3149 1.3149 1.3095 1.3095 1.3095 1.3095 1.3069 1.3095 1.3069 1.3042 1.299 1.299 1.299 1.2964 1.2964 1.299 1.299 1.3042 1.3016 1.3016 1.3069 1.3069 1.3042 1.3042 1.3042 1.2939 1.2888 1.2888 1.2811 1.276 1.2785 1.276 1.2785 1.2735 1.2735 1.2735 1.276 1.2785 1.2785 1.2811 1.2811 1.2811 1.2836 1.2836 1.2861 1.2861 1.2861 1.2811 1.2836 1.2861 1.2861 1.2861 1.2861 1.2836 1.2836 1.2811 1.2785 1.2785 1.2811 1.2785 1.2785 1.276 1.276 1.2735 1.276 1.2785 1.2735 1.276 1.276 1.276 1.2785 1.2785 1.276 1.2735 1.271 1.2661 1.2661 1.2539 1.2514 1.249 1.2419 1.2395 1.2419 1.2443 1.249 1.249 1.249 1.2466 1.249 1.2514 1.2514 1.249 1.2466 1.2395 1.2348 1.2324 1.2348 1.2443 1.2466 1.2443 1.2419 1.2395 1.2371 1.2395 1.2443 1.249 1.2514 1.249 1.249 1.2443 1.2371 1.2371 1.2371 1.2395 1.2395 1.2371 1.2348 1.2348 1.2395 1.2443 1.2466 1.2443 1.2395 1.2348 1.2301 1.2277 1.2277 1.2254 1.2254 1.2254 1.2277 1.2254 1.2324 1.2419 0 0 0 0 0 0 0.64275 0.64075 0.64013 0.63887 0.63325 0.63025 0.62062 0.62062 0.62413 0.62238 0.61762 0.61525 0.6135 0.6095 0.60775 0.60437 0.60388 0.60275 0.601 0.59937 0.59825 0.59613 0.5955 0.59388 0.58475 0.588 0.58688 0.58525 0.58425 0.58325 0.58162 0.58213 0.5795 0.579 0.578 0.5765 0.5755 0.57488 0.57237 0.57137 0.56937 0.56488 0.5635 0.5615 0.5605 0.56
1.4697 1.4697 1.4664 1.4631 1.4598 1.4598 1.4565 1.4598 1.4565 1.45 1.4467 1.4435 1.4435 1.4371 1.4371 1.4307 1.4276 1.4214 1.4183 1.4152 1.4121 1.4121 1.4121 1.4152 1.4152 1.4183 1.4183 1.4183 1.4183 1.4245 1.4245 1.4307 1.4307 1.434 1.434 1.4371 1.434 1.4307 1.4245 1.4214 1.4214 1.4214 1.4214 1.4214 1.4183 1.4183 1.4214 1.4245 1.4214 1.4214 1.4183 1.4183 1.4121 1.406 1.406 1.403 1.403 1.403 1.403 1.3999 1.403 1.403 1.406 1.409 1.4121 1.4121 1.4121 1.4121 1.409 1.406 1.403 1.3969 1.3969 1.3939 1.3939 1.388 1.388 1.388 1.385 1.382 1.385 1.385 1.388 1.385 1.385 1.385 1.382 1.3791 1.3761 1.3761 1.3761 1.3761 1.3733 1.3704 1.3618 1.3618 1.3618 1.3618 1.3704 1.3733 1.3704 1.3675 1.3675 1.3533 1.3447 1.342 1.3393 1.342 1.3393 1.3393 1.3365 1.3365 1.3365 1.3393 1.3393 1.3476 1.3476 1.342 1.3393 1.3365 1.3337 1.3337 1.3365 1.3447 1.3447 1.3447 1.3447 1.3365 1.3365 1.3337 1.3337 1.3337 1.331 1.3282 1.331 1.3337 1.3365 1.3337 1.3365 1.3337 1.3365 1.3365 1.3365 1.3365 1.3365 1.3337 1.331 1.3282 1.331 1.3256 1.3256 1.3256 1.3201 1.3201 1.3229 1.3201 1.3229 1.3201 1.3229 1.3201 1.3201 1.3175 1.3201 1.3175 1.3201 1.3201 1.3201 1.3229 1.3229 1.3201 1.3201 1.3201 1.3201 1.3201 1.3175 1.3121 1.3095 1.3069 1.3095 1.3069 1.3042 1.3069 1.3042 1.3042 1.299 1.299 1.299 1.299 1.299 1.299 1.3016 1.3042 1.3016 1.3016 1.3069 1.3042 1.3069 1.3042 1.3042 1.2964 1.2939 1.2913 1.2861 1.2811 1.2836 1.2811 1.2785 1.276 1.276 1.276 1.2785 1.2785 1.2811 1.2836 1.2811 1.2836 1.2836 1.2861 1.2836 1.2888 1.2861 1.2861 1.2836 1.2861 1.2888 1.2888 1.2861 1.2861 1.2861 1.2811 1.2811 1.2811 1.2811 1.2785 1.2785 1.276 1.276 1.276 1.2785 1.2785 1.2785 1.276 1.2785 1.2785 1.2836 1.2811 1.2811 1.2785 1.2685 1.2661 1.2636 1.2563 1.2539 1.2466 1.2419 1.2395 1.2395 1.2419 1.2514 1.2514 1.249 1.2466 1.249 1.2539 1.2514 1.2466 1.2466 1.2419 1.2324 1.2324 1.2348 1.2466 1.2466 1.2443 1.2419 1.2371 1.2348 1.2371 1.2395 1.2419 1.2466 1.2466 1.2443 1.2466 1.2348 1.2324 1.2324 1.2324 1.2301 1.2301 1.2301 1.2301 1.2348 1.2395 1.2395 1.2395 1.2371 1.2324 1.2254 1.2254 1.2277 1.2277 1.2277 1.2277 1.2277 1.2277 1.2301 1.2419 0 0 0 0 0 0 0.64275 0.6415 0.64013 0.63825 0.63513 0.63387 0.63213 0.629 0.62775 0.62475 0.61825 0.61587 0.61475 0.61125 0.6095 0.605 0.60437 0.60437 0.601 0.59937 0.59888 0.59775 0.59613 0.595 0.59113 0.59062 0.59013 0.588 0.58637 0.58375 0.58325 0.58213 0.58062 0.58013 0.579 0.577 0.576 0.5755 0.57388 0.57237 0.57037 0.56637 0.56437 0.5615 0.561 0.5605
1.473 1.4697 1.4664 1.4631 1.4565 1.4565 1.4565 1.4598 1.4565 1.45 1.45 1.45 1.4404 1.4404 1.4404 1.4307 1.4276 1.4183 1.4152 1.4152 1.4152 1.4121 1.4152 1.4152 1.4183 1.4183 1.4214 1.4183 1.4214 1.4214 1.4245 1.4276 1.4307 1.4307 1.434 1.4307 1.4307 1.4245 1.4245 1.4214 1.4214 1.4214 1.4214 1.4183 1.4183 1.4152 1.4214 1.4214 1.4214 1.4214 1.4183 1.4152 1.4121 1.406 1.406 1.403 1.403 1.3969 1.403 1.403 1.406 1.403 1.406 1.4121 1.4121 1.4152 1.4121 1.4121 1.409 1.409 1.403 1.3969 1.3969 1.3969 1.3969 1.3909 1.388 1.3909 1.385 1.385 1.385 1.388 1.3909 1.385 1.388 1.385 1.385 1.382 1.3791 1.3761 1.3791 1.3791 1.3761 1.3761 1.3704 1.3704 1.3675 1.3675 1.3733 1.3761 1.3761 1.3733 1.3675 1.356 1.3447 1.3447 1.342 1.342 1.342 1.342 1.3365 1.3337 1.3365 1.3393 1.342 1.3476 1.3476 1.3476 1.3447 1.3393 1.342 1.342 1.342 1.3476 1.3476 1.342 1.3393 1.3337 1.3337 1.3337 1.3337 1.3337 1.331 1.3282 1.331 1.3337 1.3365 1.3337 1.3365 1.3365 1.3365 1.3393 1.3365 1.3337 1.3282 1.3256 1.3256 1.3175 1.3149 1.3121 1.3121 1.3121 1.3149 1.3175 1.3201 1.3201 1.3201 1.3201 1.3229 1.3229 1.3175 1.3175 1.3175 1.3175 1.3175 1.3175 1.3175 1.3201 1.3201 1.3201 1.3201 1.3175 1.3175 1.3175 1.3149 1.3121 1.3095 1.3069 1.3069 1.3042 1.3016 1.3016 1.3016 1.3016 1.299 1.299 1.299 1.3016 1.299 1.3016 1.3016 1.3042 1.3016 1.3042 1.3069 1.3069 1.3069 1.3042 1.3016 1.299 1.2964 1.2939 1.2888 1.2861 1.2861 1.2836 1.2836 1.2811 1.2785 1.2785 1.2785 1.2785 1.2836 1.2836 1.2861 1.2836 1.2836 1.2836 1.2836 1.2888 1.2861 1.2836 1.2811 1.2836 1.2836 1.2861 1.2861 1.2836 1.2836 1.2811 1.2785 1.2785 1.2785 1.2785 1.276 1.276 1.276 1.276 1.2811 1.2811 1.276 1.276 1.2785 1.2785 1.2811 1.2811 1.2785 1.276 1.2685 1.2661 1.2636 1.2563 1.2514 1.249 1.2419 1.2419 1.2419 1.2443 1.2539 1.2514 1.2514 1.2514 1.2539 1.2563 1.2539 1.249 1.2443 1.2419 1.2371 1.2371 1.2395 1.2466 1.249 1.2419 1.2395 1.2371 1.2348 1.2395 1.2419 1.2443 1.2466 1.2443 1.2443 1.2443 1.2371 1.2371 1.2348 1.2301 1.2277 1.2277 1.2254 1.2301 1.2324 1.2348 1.2348 1.2371 1.2371 1.2324 1.2277 1.2277 1.2301 1.2301 1.2301 1.2301 1.2277 1.2254 1.2301 1.2419 0 0 0 0 0 0 0.64275 0.64013 0.64013 0.63887 0.6345 0.63262 0.6315 0.62775 0.626 0.62362 0.61762 0.61525 0.61413 0.61062 0.6095 0.6055 0.605 0.60437 0.601 0.59988 0.59937 0.59775 0.59713 0.595 0.59175 0.59062 0.59013 0.589 0.58737 0.58475 0.58375 0.58325 0.58113 0.58062 0.5795 0.577 0.5765 0.5755 0.57437 0.57288 0.57088 0.56688 0.56488 0.5625 0.562 0.5615
1.473 1.473 1.4697 1.4664 1.4565 1.4565 1.4565 1.4598 1.4565 1.4532 1.45 1.45 1.4467 1.4467 1.4435 1.4371 1.434 1.4245 1.4245 1.4245 1.4214 1.4214 1.4214 1.4214 1.4214 1.4214 1.4214 1.4183 1.4245 1.4276 1.4307 1.434 1.434 1.4371 1.434 1.4371 1.434 1.4276 1.4245 1.4214 1.4214 1.4183 1.4214 1.4214 1.4183 1.4183 1.4276 1.4245 1.4245 1.4214 1.4183 1.4152 1.409 1.406 1.406 1.403 1.403 1.3999 1.403 1.406 1.409 1.409 1.4121 1.4152 1.4183 1.4183 1.4152 1.4152 1.4121 1.4121 1.406 1.403 1.3999 1.3999 1.3999 1.3939 1.3909 1.3909 1.3909 1.388 1.388 1.388 1.3909 1.385 1.388 1.385 1.385 1.382 1.3791 1.3761 1.382 1.385 1.382 1.385 1.3791 1.382 1.3791 1.382 1.385 1.385 1.3791 1.3791 1.3733 1.3589 1.3504 1.3476 1.3476 1.3476 1.3476 1.342 1.3393 1.3365 1.3393 1.3393 1.3476 1.3533 1.3504 1.356 1.356 1.3533 1.3533 1.3533 1.3589 1.3618 1.3589 1.3447 1.342 1.3365 1.3365 1.3337 1.3365 1.3365 1.3365 1.3337 1.3337 1.3365 1.3393 1.3337 1.3393 1.342 1.3393 1.3393 1.3393 1.3365 1.3282 1.3256 1.3229 1.3175 1.3149 1.3121 1.3095 1.3121 1.3149 1.3175 1.3201 1.3201 1.3201 1.3201 1.3229 1.3229 1.3201 1.3201 1.3175 1.3175 1.3175 1.3201 1.3201 1.3201 1.3201 1.3201 1.3201 1.3175 1.3149 1.3149 1.3149 1.3149 1.3095 1.3069 1.3042 1.3042 1.3016 1.3016 1.3042 1.3016 1.2964 1.299 1.299 1.3016 1.3016 1.3042 1.3042 1.3016 1.3042 1.3042 1.3069 1.3095 1.3095 1.3095 1.3069 1.3069 1.3069 1.3042 1.2964 1.2964 1.2964 1.2888 1.2888 1.2836 1.2836 1.2811 1.2836 1.2811 1.2836 1.2861 1.2861 1.2888 1.2836 1.2836 1.2836 1.2888 1.2888 1.2836 1.2836 1.2836 1.2836 1.2836 1.2861 1.2836 1.2836 1.2785 1.2811 1.2785 1.2785 1.2785 1.276 1.2735 1.2735 1.276 1.2785 1.2811 1.276 1.276 1.276 1.2785 1.2811 1.2785 1.2785 1.2785 1.2685 1.2685 1.2661 1.2588 1.2563 1.2563 1.249 1.2514 1.2514 1.2514 1.2563 1.2539 1.2563 1.2588 1.2588 1.2563 1.2563 1.2514 1.249 1.249 1.2466 1.2514 1.2514 1.249 1.249 1.2395 1.2371 1.2371 1.2371 1.2419 1.2443 1.2466 1.249 1.2466 1.2466 1.2466 1.2466 1.2466 1.2443 1.2371 1.2348 1.2324 1.2301 1.2324 1.2348 1.2371 1.2371 1.2371 1.2395 1.2371 1.2371 1.2395 1.2419 1.2395 1.2348 1.2348 1.2301 1.2301 1.2301 1.2419 0 0 0 0 0 0 0 0.64075 0.63825 0.63638 0.63325 0.6315 0.63025 0.62662 0.62538 0.62238 0.617 0.61525 0.61413 0.61062 0.6095 0.60613 0.6055 0.60437 0.60213 0.601 0.59988 0.59825 0.59775 0.595 0.59175 0.59113 0.59062 0.58962 0.5885 0.58637 0.58525 0.58475 0.58213 0.58162 0.58113 0.578 0.577 0.5765 0.57488 0.57437 0.57237 0.56888 0.56737 0.56488 0.564 0.5635
1.4764 1.473 1.4697 1.4664 1.4598 1.4565 1.4565 1.4598 1.4598 1.4532 1.4532 1.45 1.45 1.4532 1.45 1.4435 1.4404 1.434 1.434 1.434 1.4307 1.4276 1.4276 1.4245 1.4245 1.4245 1.4245 1.4245 1.4245 1.434 1.4404 1.4371 1.4371 1.4371 1.4404 1.4404 1.4404 1.4307 1.4245 1.4214 1.4214 1.4214 1.4214 1.4214 1.4183 1.4214 1.4276 1.4276 1.4245 1.4214 1.4214 1.4183 1.4121 1.406 1.406 1.409 1.403 1.403 1.406 1.4121 1.4121 1.4152 1.4152 1.4183 1.4183 1.4214 1.4183 1.4152 1.4152 1.4121 1.406 1.403 1.403 1.3999 1.3999 1.3939 1.3939 1.3939 1.3909 1.388 1.3909 1.3909 1.3909 1.388 1.388 1.385 1.385 1.3791 1.3791 1.3761 1.3791 1.385 1.382 1.3791 1.3791 1.382 1.382 1.382 1.388 1.388 1.382 1.3791 1.3733 1.3618 1.3533 1.3504 1.3476 1.3476 1.3476 1.3447 1.3393 1.3393 1.3393 1.342 1.3476 1.3504 1.3533 1.3589 1.3589 1.356 1.3589 1.3589 1.3646 1.3675 1.3618 1.3504 1.342 1.3337 1.3365 1.3337 1.3337 1.3365 1.3393 1.3337 1.3337 1.3393 1.3393 1.3365 1.3393 1.3447 1.342 1.342 1.3393 1.3393 1.3282 1.3229 1.3229 1.3149 1.3121 1.3095 1.3069 1.3095 1.3121 1.3149 1.3175 1.3201 1.3175 1.3175 1.3229 1.3229 1.3201 1.3201 1.3201 1.3175 1.3175 1.3201 1.3201 1.3201 1.3201 1.3229 1.3201 1.3175 1.3149 1.3149 1.3149 1.3121 1.3095 1.3069 1.3042 1.3042 1.3016 1.3016 1.3042 1.3042 1.299 1.299 1.3016 1.3016 1.3016 1.3042 1.3016 1.3016 1.299 1.3042 1.3095 1.3121 1.3121 1.3095 1.3121 1.3095 1.3095 1.3069 1.3042 1.3016 1.2964 1.2913 1.2888 1.2861 1.2861 1.2811 1.2811 1.2811 1.2836 1.2861 1.2861 1.2861 1.2861 1.2811 1.2836 1.2861 1.2888 1.2861 1.2861 1.2861 1.2836 1.2861 1.2861 1.2861 1.2836 1.2785 1.2785 1.2785 1.2785 1.2785 1.276 1.2735 1.276 1.276 1.2785 1.2785 1.276 1.276 1.2785 1.2785 1.2811 1.2811 1.276 1.276 1.271 1.2685 1.2661 1.2636 1.2611 1.2563 1.2539 1.2539 1.2563 1.2563 1.2563 1.2563 1.2563 1.2588 1.2539 1.2588 1.2588 1.2539 1.2539 1.2514 1.249 1.2514 1.249 1.249 1.2514 1.2371 1.2348 1.2371 1.2371 1.2443 1.2443 1.249 1.2514 1.249 1.249 1.2514 1.2514 1.2514 1.249 1.2443 1.2419 1.2395 1.2371 1.2395 1.2419 1.2395 1.2395 1.2419 1.2419 1.2443 1.2443 1.2466 1.2466 1.2419 1.2395 1.2348 1.2348 1.2301 1.2324 1.2324 0 0 0 0 0 0 0 0.63825 0.637 0.63387 0.6315 0.63025 0.62838 0.62538 0.62362 0.62113 0.617 0.61525 0.61413 0.61125 0.6095 0.60613 0.605 0.60437 0.60213 0.601 0.59988 0.59825 0.59713 0.595 0.59175 0.59062 0.59062 0.58962 0.5885 0.58637 0.58588 0.58475 0.58325 0.58213 0.58162 0.5795 0.578 0.5775 0.5755 0.57488 0.57337 0.57088 0.56937 0.56637 0.56537 0.564
1.473 1.4697 1.4631 1.4631 1.4532 1.45 1.4532 1.4532 1.4532 1.4467 1.45 1.45 1.45 1.4598 1.4532 1.45 1.4467 1.4404 1.4371 1.4371 1.4371 1.434 1.434 1.4276 1.4276 1.4245 1.4245 1.4245 1.4276 1.4371 1.4435 1.4404 1.4371 1.4371 1.4371 1.4404 1.4371 1.4276 1.4214 1.4183 1.4183 1.4183 1.4183 1.4183 1.4183 1.4183 1.4276 1.4276 1.4214 1.4214 1.4183 1.4152 1.4121 1.406 1.406 1.406 1.406 1.406 1.409 1.4152 1.4152 1.4152 1.4183 1.4183 1.4214 1.4214 1.4183 1.4183 1.4152 1.4121 1.403 1.3999 1.3969 1.3969 1.3969 1.388 1.385 1.385 1.385 1.385 1.385 1.388 1.388 1.385 1.385 1.385 1.3791 1.3761 1.3761 1.3733 1.3791 1.382 1.382 1.382 1.3791 1.382 1.382 1.385 1.3909 1.388 1.385 1.3791 1.3733 1.356 1.3504 1.3476 1.3447 1.3447 1.3447 1.342 1.3393 1.3393 1.342 1.3447 1.3476 1.3504 1.3533 1.3618 1.3618 1.3618 1.3618 1.3646 1.3675 1.3646 1.3618 1.3504 1.3447 1.3365 1.3337 1.331 1.331 1.3337 1.3365 1.3337 1.331 1.3365 1.3393 1.3393 1.3393 1.342 1.3447 1.342 1.342 1.3393 1.331 1.3256 1.3201 1.3121 1.3095 1.3069 1.3095 1.3095 1.3095 1.3149 1.3149 1.3175 1.3201 1.3201 1.3229 1.3229 1.3201 1.3201 1.3201 1.3175 1.3201 1.3201 1.3229 1.3229 1.3201 1.3229 1.3229 1.3175 1.3175 1.3149 1.3149 1.3149 1.3095 1.3095 1.3095 1.3042 1.3042 1.3069 1.3069 1.3042 1.299 1.3016 1.3016 1.3042 1.3016 1.3016 1.3042 1.3016 1.299 1.3016 1.3069 1.3095 1.3149 1.3121 1.3121 1.3121 1.3121 1.3095 1.3042 1.3042 1.299 1.2939 1.2888 1.2861 1.2836 1.2836 1.2811 1.2811 1.2836 1.2836 1.2836 1.2836 1.2836 1.2811 1.2836 1.2861 1.2861 1.2861 1.2861 1.2861 1.2836 1.2836 1.2836 1.2861 1.2811 1.2785 1.2785 1.2785 1.276 1.2785 1.276 1.276 1.276 1.2785 1.276 1.2811 1.276 1.2785 1.2785 1.2785 1.2785 1.2785 1.2735 1.2735 1.2685 1.2685 1.2661 1.2636 1.2611 1.2588 1.2563 1.2539 1.2588 1.2563 1.2563 1.2563 1.2588 1.2588 1.2563 1.2563 1.2588 1.2588 1.2563 1.2539 1.2539 1.2514 1.249 1.2514 1.2514 1.2371 1.2348 1.2348 1.2371 1.2443 1.2443 1.249 1.2514 1.249 1.2514 1.2539 1.2514 1.2514 1.2466 1.2443 1.2466 1.2419 1.2419 1.2419 1.2419 1.2419 1.2419 1.2419 1.2443 1.2466 1.2443 1.2443 1.2443 1.2395 1.2395 1.2348 1.2324 1.2324 1.2301 1.2301 0 0 0 0 0 0 0.64013 0.63887 0.63825 0.63087 0.63025 0.62962 0.62775 0.62538 0.62413 0.62175 0.61762 0.61587 0.61475 0.61175 0.61013 0.60613 0.60437 0.60325 0.6005 0.59988 0.59937 0.59825 0.59713 0.595 0.59225 0.59113 0.59062 0.58962 0.589 0.58637 0.58588 0.58525 0.58325 0.58262 0.58213 0.58013 0.579 0.578 0.5765 0.5755 0.57437 0.57188 0.57088 0.56688 0.56588 0.56437
1.4697 1.4631 1.4598 1.4598 1.45 1.4467 1.45 1.4532 1.4532 1.4467 1.4467 1.45 1.45 1.4664 1.4631 1.4565 1.4532 1.4467 1.4467 1.4435 1.4467 1.4404 1.4404 1.434 1.4307 1.4307 1.4276 1.4307 1.4307 1.4435 1.4467 1.4371 1.4371 1.4371 1.434 1.4371 1.434 1.4245 1.4183 1.4152 1.4121 1.4121 1.4152 1.4121 1.4152 1.4152 1.4245 1.4245 1.4214 1.4183 1.4152 1.4152 1.409 1.406 1.409 1.409 1.409 1.409 1.4121 1.4214 1.4245 1.4214 1.4214 1.4214 1.4214 1.4214 1.4152 1.4152 1.4152 1.4121 1.3999 1.3969 1.3939 1.3939 1.3909 1.382 1.382 1.385 1.382 1.382 1.382 1.385 1.385 1.385 1.385 1.382 1.382 1.3761 1.3761 1.3733 1.3791 1.385 1.385 1.385 1.385 1.388 1.3909 1.3909 1.3939 1.3909 1.385 1.382 1.3733 1.356 1.3504 1.3476 1.342 1.3447 1.342 1.342 1.3393 1.3393 1.342 1.3447 1.3504 1.3504 1.356 1.3589 1.3618 1.3618 1.3646 1.3646 1.3646 1.3618 1.3618 1.3504 1.3447 1.3393 1.3337 1.3337 1.331 1.3337 1.3365 1.3337 1.331 1.3365 1.342 1.342 1.3447 1.3447 1.3476 1.3447 1.342 1.3447 1.331 1.3282 1.3256 1.3149 1.3149 1.3121 1.3095 1.3095 1.3121 1.3149 1.3175 1.3201 1.3201 1.3229 1.3256 1.3256 1.3256 1.3256 1.3229 1.3229 1.3229 1.3282 1.331 1.331 1.331 1.3256 1.3282 1.3201 1.3229 1.3201 1.3201 1.3229 1.3175 1.3149 1.3149 1.3149 1.3121 1.3121 1.3121 1.3069 1.3042 1.3016 1.3042 1.3042 1.3042 1.3042 1.3042 1.3042 1.3042 1.3042 1.3069 1.3121 1.3121 1.3149 1.3121 1.3149 1.3149 1.3149 1.3069 1.3069 1.299 1.2964 1.2913 1.2861 1.2836 1.2861 1.2811 1.2836 1.2836 1.2811 1.2861 1.2836 1.2861 1.2836 1.2836 1.2861 1.2888 1.2888 1.2888 1.2888 1.2836 1.2836 1.2836 1.2836 1.2811 1.2811 1.2785 1.2785 1.276 1.276 1.276 1.2811 1.2811 1.2785 1.2811 1.2811 1.2785 1.2785 1.2785 1.2785 1.2811 1.276 1.2735 1.2735 1.271 1.271 1.2685 1.2636 1.2636 1.2611 1.2563 1.2563 1.2588 1.2588 1.2563 1.2588 1.2563 1.2588 1.2588 1.2588 1.2611 1.2611 1.2611 1.2611 1.2588 1.2563 1.2588 1.2563 1.2563 1.2419 1.2419 1.2395 1.2419 1.2466 1.2466 1.249 1.2539 1.2514 1.2539 1.2539 1.2539 1.249 1.2443 1.2419 1.2466 1.2443 1.2419 1.2419 1.2419 1.2419 1.2419 1.2443 1.249 1.2466 1.2419 1.2395 1.2395 1.2371 1.2371 1.2348 1.2348 1.2324 1.2324 1.2301 0 0 0 0 0 0 0.64013 0.64075 0.6415 0.6415 0.63025 0.6315 0.63025 0.62838 0.62662 0.62362 0.62 0.61825 0.617 0.61413 0.61175 0.6055 0.60388 0.60275 0.59988 0.59888 0.59888 0.59825 0.59775 0.59613 0.59388 0.59275 0.59225 0.59062 0.59013 0.58688 0.58637 0.58588 0.58375 0.58262 0.58262 0.58113 0.58013 0.5795 0.5775 0.5765 0.576 0.57337 0.57288 0.56837 0.56637 0.56488
