1.9875 1.9936 1.9936 1.9875 1.9936 1.9936 1.9936 2.0059 1.9997 2.0059 2.0121 2.0059 2.0121 1.9997 1.9875 1.9754 1.9694 1.9754 1.9754 1.9754 1.9814 1.9814 1.9814 1.9814 1.9814 1.9814 1.0163 1.0163 1.0163 1.044 1.0559 1.0611 1.0662 1.0699 1.0734 1.0751 1.0769 1.0788 1.0805 1.0805 1.0824 1.0841 1.0841 1.0841 1.0841 1.086 1.0841 1.0841 1.086 1.086 1.086 1.0877 1.0877 1.0877 1.0877 1.0877 1.0877 1.0877 1.0914 1.0914 1.097 1.097 1.0951 1.0951 1.097 1.0989 1.1006 1.1006 1.1006 1.1006 1.1006 1.1006 1.1006 1.1006 1.0989 1.0989 1.097 1.0989 1.1006 1.1006 1.0989 1.1006 1.1044 1.1082 1.1101 1.112 1.112 1.112 1.1178 1.1178 1.1178 1.1159 1.1139 1.1139 1.1139 1.1139 1.112 1.1139 1.1139 1.1139 1.1159 1.1178 1.1216 1.1216 1.1235 1.1255 1.1255 1.1275 1.1275 1.1294 1.1314 1.1314 1.1334 1.1334 1.1314 1.1314 1.1294 1.1314 1.1334 1.1354 1.1354 1.1354 1.1334 1.1374 1.1374 1.1394 1.1394 1.1414 1.1394 1.1414 1.1434 1.1454 1.1494 1.1494 1.1556 1.1556 1.1576 1.1598 1.1598 1.1618 1.1618 1.1618 1.1618 1.166 1.168 1.1701 1.1723 1.1723 1.1744 1.1765 1.1744 1.1765 1.1765 1.1786 1.1786 1.1786 1.1786 1.1786 1.1744 1.1744 1.1744 1.1765 1.1786 1.1807 1.1786 1.1786 1.1807 1.1872 1.1895 1.1916 1.1939 1.1939 1.1939 0 2.289 2.289 2.281 2.289 2.2971 2.3218 2.3301 2.3385 2.3385 2.3385 2.3385 2.3385 2.3301 2.3301 2.3301 2.3218 2.3218 2.3218 2.3218 2.3301 2.3301 2.3301 2.3301 2.347 2.3555 2.364 2.364 2.364 2.3555 2.3555 2.347 2.347 2.3555 2.347 2.347 2.3385 2.3385 2.347 2.3385 2.347 2.3555 2.364 2.364 2.3727 2.364 2.364 2.3727 2.3814 2.3814 2.3902 2.3902 2.3902 2.4169 2.426 2.4442 2.4535 2.4535 2.4535 2.4535 2.4442 2.435 2.435 2.426 2.426 2.3902 2.3902 2.3814 2.3814 2.3814 2.3814 2.3727 2.3902 2.3902 2.399 2.399 2.399 2.4079 2.4079 2.4169 2.4169 2.4169 2.4169 2.4169 2.4169 2.435 2.435 2.4442 2.435 2.435 2.426 2.435 2.435 2.426 2.4442 2.4442 2.4628 2.4628 2.4721 2.4816 2.4911 2.5008 2.5399 2.5399 2.5499 2.5399 2.5399 2.5201 2.5104 2.5008 2.4911 2.4721 2.4721 2.4721 2.4721 2.4721 2.4911 2.5008 2.5201 2.5201 2.5399 2.56 2.5701 2.5802 2.5906 2.5906 2.5802 2.5906 2.5802 2.5802 2.5701 2.5499 2.5499 2.5499 2.5399 2.5399 2.5399 2.5399 2.5399 2.5399 2.5399 2.5499 2.5499 2.56 2.5701 2.56 2.5701 2.5802 2.601 2.6115 2.6326 2.6651 2.6761 2.6761 2.6761 2.6651 2.6651 2.6543 2.6651 2.6761 2.6871 2.6871 2.6984 2.6984 2.6984 2.7096 2.7096 2.6984 2.6984 2.6984 2.6761 2.6761 2.6651 2.6543 2.6543 2.6434 2.6434 2.6434 2.6434 2.6434 2.6543 2.6651 2.6651 2.6761 2.6761 2.6871 2.6984
1.9875 1.9814 1.9814 1.9814 1.9936 1.9936 1.9936 1.9997 1.9997 1.9997 2.0059 2.0121 2.0121 2.0059 1.9875 1.9754 1.9754 1.9754 1.9754 1.9754 1.9814 1.9875 1.9814 1.0576 1.0576 1.0594 1.0163 1.0163 1.0163 1.044 1.0559 1.0611 1.0645 1.0681 1.0699 1.0716 1.0734 1.0751 1.0769 1.0788 1.0805 1.0805 1.0824 1.0805 1.0805 1.0824 1.0824 1.0824 1.0824 1.0841 1.0841 1.0841 1.086 1.086 1.086 1.0841 1.0841 1.0841 1.086 1.0877 1.0896 1.0914 1.0933 1.0951 1.0951 1.0951 1.0989 1.0989 1.0989 1.0989 1.0989 1.0989 1.0989 1.097 1.097 1.097 1.097 1.097 1.097 1.0989 1.1006 1.1006 1.1062 1.1082 1.1101 1.1139 1.1139 1.1139 1.1159 1.1178 1.1139 1.1139 1.1101 1.1101 1.1082 1.1082 1.1082 1.1082 1.1101 1.1101 1.1139 1.1159 1.1178 1.1196 1.1196 1.1216 1.1196 1.1255 1.1255 1.1275 1.1255 1.1275 1.1294 1.1294 1.1294 1.1314 1.1314 1.1314 1.1334 1.1334 1.1314 1.1334 1.1314 1.1354 1.1354 1.1374 1.1394 1.1394 1.1374 1.1394 1.1414 1.1434 1.1454 1.1474 1.1515 1.1515 1.1535 1.1576 1.1576 1.1576 1.1576 1.1576 1.1598 1.1618 1.1639 1.166 1.168 1.168 1.1701 1.1744 1.1744 1.1765 1.1765 1.1765 1.1744 1.1744 1.1765 1.1744 1.1744 1.1744 1.1744 1.1744 1.1765 1.1786 1.1765 1.1786 1.1807 1.1851 1.1872 1.1895 1.1939 1.1939 1.1939 0 2.289 2.281 2.273 2.281 2.281 2.3135 2.3301 2.3385 2.3385 2.347 2.347 2.3385 2.3385 2.3301 2.3301 2.3301 2.3218 2.3301 2.3218 2.3218 2.3301 2.3301 2.3385 2.3385 2.347 2.3555 2.3555 2.364 2.3555 2.347 2.347 2.347 2.3385 2.3385 2.3385 2.3385 2.3385 2.3385 2.347 2.347 2.3555 2.364 2.364 2.364 2.364 2.364 2.364 2.3727 2.3902 2.3902 2.399 2.399 2.426 2.426 2.4535 2.4628 2.4628 2.4628 2.4628 2.4442 2.435 2.435 2.426 2.4169 2.3902 2.3814 2.3814 2.3814 2.3902 2.3814 2.3814 2.399 2.3902 2.3902 2.3814 2.399 2.399 2.4079 2.4079 2.4169 2.4079 2.4079 2.4169 2.426 2.435 2.435 2.4442 2.4442 2.4442 2.426 2.426 2.426 2.426 2.435 2.4535 2.4628 2.4721 2.4721 2.4911 2.5008 2.5201 2.5399 2.5499 2.5499 2.5499 2.5399 2.5201 2.5201 2.5008 2.4911 2.4816 2.4628 2.4628 2.4628 2.4721 2.4721 2.4816 2.5104 2.5104 2.5201 2.56 2.5701 2.5701 2.5906 2.5802 2.5802 2.5701 2.5701 2.56 2.56 2.5499 2.5499 2.5499 2.5399 2.5399 2.5399 2.5399 2.5399 2.5399 2.56 2.5499 2.56 2.5701 2.5701 2.5701 2.5802 2.5906 2.6115 2.6326 2.6434 2.6761 2.6871 2.6984 2.6871 2.6761 2.6761 2.6761 2.6651 2.6761 2.6871 2.6871 2.6984 2.6984 2.6984 2.7096 2.7096 2.6871 2.6871 2.6871 2.6761 2.6761 2.6651 2.6651 2.6543 2.6543 2.6543 2.6651 2.6543 2.6434 2.6651 2.6651 2.6651 2.6651 2.6871 2.6871 2.6984
1.9814 1.9814 1.9754 1.9754 1.9936 1.9936 1.9997 2.0059 2.0059 2.0059 2.0121 2.0121 2.0184 2.0121 1.9754 1.9754 1.9754 1.9754 1.9754 1.9694 1.9814 1.9997 1.9936 1.0576 1.0576 1.0576 1.0559 1.0525 1.0525 1.0541 1.0576 1.0611 1.0629 1.0681 1.0699 1.0699 1.0734 1.0751 1.0751 1.0788 1.0805 1.0805 1.0805 1.0805 1.0805 1.0805 1.0805 1.0824 1.0824 1.0841 1.0824 1.0841 1.0841 1.0841 1.0841 1.086 1.0841 1.0841 1.0841 1.0841 1.0877 1.0896 1.0896 1.0914 1.0933 1.0933 1.097 1.097 1.0951 1.0989 1.0989 1.0989 1.0989 1.0951 1.097 1.0951 1.0951 1.0989 1.097 1.0989 1.0989 1.1025 1.1082 1.112 1.112 1.1139 1.1139 1.1139 1.1139 1.1159 1.1139 1.112 1.1101 1.1062 1.1062 1.1062 1.1082 1.1082 1.1101 1.1101 1.1139 1.1178 1.1178 1.1196 1.1216 1.1216 1.1216 1.1235 1.1235 1.1255 1.1255 1.1255 1.1294 1.1294 1.1294 1.1294 1.1294 1.1314 1.1334 1.1334 1.1314 1.1314 1.1314 1.1354 1.1354 1.1354 1.1394 1.1374 1.1394 1.1394 1.1414 1.1434 1.1454 1.1474 1.1515 1.1515 1.1515 1.1576 1.1576 1.1556 1.1576 1.1576 1.1576 1.1618 1.1618 1.166 1.166 1.166 1.168 1.1701 1.1723 1.1723 1.1744 1.1744 1.1723 1.1765 1.1744 1.1744 1.1723 1.1723 1.1723 1.1744 1.1765 1.1765 1.1786 1.1786 1.1807 1.183 1.1872 1.1895 1.1939 1.1939 1.196 0 2.289 2.273 2.273 2.281 2.281 2.2971 2.3218 2.3385 2.3385 2.347 2.347 2.3385 2.3385 2.3385 2.3385 2.3301 2.3301 2.3385 2.3218 2.3218 2.3301 2.3301 2.3301 2.3385 2.347 2.347 2.3555 2.3555 2.3555 2.347 2.347 2.347 2.3385 2.347 2.3385 2.347 2.347 2.3385 2.347 2.347 2.3555 2.364 2.364 2.364 2.3555 2.364 2.3727 2.3727 2.3902 2.399 2.399 2.426 2.435 2.4442 2.4628 2.4721 2.4721 2.4721 2.4628 2.4535 2.4442 2.4442 2.426 2.4169 2.399 2.3902 2.3814 2.3902 2.399 2.399 2.3902 2.4079 2.399 2.399 2.3902 2.399 2.4079 2.4169 2.4079 2.4169 2.4169 2.4079 2.4169 2.4169 2.435 2.435 2.435 2.435 2.4442 2.426 2.426 2.426 2.426 2.4442 2.4535 2.4628 2.4721 2.4721 2.5008 2.5201 2.53 2.5399 2.5499 2.56 2.56 2.5399 2.53 2.5201 2.5104 2.4911 2.4911 2.4628 2.4628 2.4628 2.4721 2.4721 2.4816 2.4911 2.5008 2.5201 2.5499 2.5701 2.5701 2.5802 2.5802 2.5701 2.5701 2.5701 2.56 2.5499 2.5499 2.56 2.56 2.56 2.5499 2.5499 2.5499 2.5499 2.56 2.5802 2.5701 2.5802 2.5802 2.5906 2.5906 2.601 2.6115 2.622 2.6326 2.6543 2.6984 2.7096 2.7096 2.7096 2.7096 2.7096 2.6984 2.6984 2.6984 2.6984 2.6984 2.6984 2.6984 2.6984 2.7096 2.7096 2.6984 2.6871 2.6871 2.6871 2.6761 2.6651 2.6761 2.6651 2.6651 2.6651 2.6761 2.6761 2.6761 2.6871 2.6871 2.6871 2.6984 2.6984 2.6984 2.6984
1.9814 1.9754 1.9754 1.9694 1.9936 1.9936 1.9997 2.0059 2.0059 2.0184 2.0184 2.0246 2.0246 2.0184 2.0184 0 1.0611 1.0629 1.0662 1.0662 1.0662 1.0594 1.0611 1.0576 1.0576 1.0594 1.0576 1.0559 1.0559 1.0541 1.0576 1.0611 1.0645 1.0662 1.0681 1.0699 1.0734 1.0734 1.0734 1.0788 1.0788 1.0805 1.0788 1.0805 1.0788 1.0805 1.0805 1.0805 1.0805 1.0841 1.0824 1.0824 1.0841 1.0841 1.0841 1.0841 1.0841 1.0824 1.0841 1.0841 1.086 1.0877 1.0877 1.0896 1.0896 1.0914 1.0933 1.0951 1.0951 1.097 1.097 1.0989 1.0989 1.0951 1.0951 1.0933 1.0951 1.097 1.097 1.097 1.1006 1.1006 1.1082 1.112 1.112 1.1159 1.1139 1.1139 1.112 1.1139 1.112 1.1101 1.1101 1.1044 1.1044 1.1044 1.1062 1.1082 1.1101 1.112 1.1139 1.1159 1.1178 1.1196 1.1235 1.1235 1.1196 1.1216 1.1235 1.1255 1.1255 1.1275 1.1275 1.1294 1.1275 1.1294 1.1314 1.1314 1.1334 1.1314 1.1314 1.1314 1.1314 1.1334 1.1334 1.1354 1.1374 1.1374 1.1354 1.1394 1.1414 1.1414 1.1454 1.1474 1.1515 1.1515 1.1535 1.1535 1.1556 1.1556 1.1556 1.1576 1.1576 1.1598 1.1598 1.1639 1.1639 1.1639 1.168 1.168 1.1701 1.1701 1.1701 1.1701 1.1723 1.1723 1.1744 1.1744 1.1701 1.1701 1.1723 1.1723 1.1744 1.1744 1.1765 1.1765 1.1786 1.1851 1.1872 1.1895 1.1916 1.1916 1.1895 1.1895 1.1851 1.1851 1.183 1.1807 2.273 2.2971 2.3135 2.3301 2.3385 2.347 2.347 2.3385 2.3301 2.3385 2.3385 2.3218 2.3301 2.3301 2.3301 2.3301 2.3218 2.3301 2.3301 2.3301 2.347 2.347 2.347 2.3555 2.347 2.3385 2.347 2.3385 2.347 2.3385 2.3385 2.3385 2.347 2.3385 2.347 2.3555 2.3555 2.3555 2.364 2.3555 2.3555 2.3555 2.364 2.3727 2.3902 2.399 2.4079 2.426 2.4442 2.4442 2.4721 2.4816 2.4721 2.4721 2.4721 2.4535 2.4535 2.4442 2.426 2.4169 2.399 2.3902 2.3902 2.3902 2.4079 2.399 2.4079 2.4079 2.4169 2.399 2.399 2.4079 2.4169 2.4169 2.4169 2.4169 2.4079 2.4169 2.4169 2.426 2.435 2.426 2.435 2.435 2.435 2.426 2.426 2.426 2.435 2.4442 2.4535 2.4816 2.4721 2.4816 2.5008 2.5104 2.53 2.5499 2.5499 2.56 2.5499 2.5399 2.5399 2.53 2.5104 2.5008 2.4816 2.4721 2.4628 2.4721 2.4628 2.4816 2.4816 2.4911 2.5008 2.5104 2.5499 2.56 2.5701 2.5701 2.5802 2.5701 2.56 2.5701 2.56 2.56 2.5499 2.5701 2.5701 2.56 2.5701 2.56 2.56 2.56 2.5701 2.5802 2.5802 2.5701 2.5802 2.5802 2.5802 2.601 2.6115 2.622 2.6326 2.6543 2.6984 2.721 2.7096 2.7096 2.721 2.7096 2.7096 2.6984 2.7096 2.7096 2.6984 2.6984 2.6984 2.6984 2.7096 2.7096 2.6984 2.6984 2.6984 2.6761 2.6761 2.6543 2.6651 2.6651 2.6651 2.6871 2.6761 2.6871 2.6984 2.6984 2.6984 2.6984 2.6984 2.7096 2.6871 2.6984
1.9814 1.9754 1.9754 1.9694 1.9875 1.9936 1.9997 2.0059 2.0059 2.0184 2.0184 2.0246 2.0246 1.0576 1.0576 1.0576 1.0576 1.0611 1.0611 1.0629 1.0645 1.0611 1.0611 1.0594 1.0594 1.0611 1.0594 1.0576 1.0559 1.0541 1.0559 1.0576 1.0611 1.0645 1.0662 1.0662 1.0662 1.0681 1.0681 1.0716 1.0734 1.0751 1.0734 1.0716 1.0734 1.0734 1.0751 1.0769 1.0769 1.0805 1.0788 1.0788 1.0805 1.0824 1.0824 1.0824 1.0824 1.0824 1.0824 1.0824 1.0824 1.0841 1.0841 1.086 1.086 1.0877 1.0896 1.0896 1.0896 1.0951 1.0933 1.0951 1.097 1.0914 1.0933 1.0933 1.0933 1.097 1.097 1.097 1.0989 1.0989 1.1062 1.1101 1.112 1.1139 1.1139 1.112 1.112 1.112 1.1101 1.1082 1.1062 1.1025 1.1006 1.0989 1.1025 1.1044 1.1082 1.112 1.1139 1.1159 1.1178 1.1196 1.1216 1.1216 1.1178 1.1196 1.1216 1.1216 1.1255 1.1255 1.1275 1.1294 1.1255 1.1275 1.1294 1.1294 1.1314 1.1314 1.1294 1.1294 1.1294 1.1314 1.1294 1.1314 1.1334 1.1334 1.1354 1.1334 1.1354 1.1374 1.1394 1.1434 1.1474 1.1474 1.1494 1.1515 1.1535 1.1515 1.1535 1.1535 1.1556 1.1576 1.1576 1.1618 1.1618 1.1618 1.166 1.166 1.166 1.168 1.1701 1.168 1.168 1.1701 1.1701 1.1701 1.168 1.166 1.1701 1.168 1.1701 1.1723 1.1744 1.1744 1.1744 1.1765 1.1786 1.1807 1.1872 1.1872 1.1851 1.1851 1.1851 1.1807 1.1807 1.1807 1.1807 2.273 2.2971 2.3053 2.3218 2.3385 2.3385 2.3301 2.3301 2.3385 2.3385 2.3301 2.3301 2.3301 2.3301 2.3218 2.3218 2.3301 2.3301 2.3301 2.3301 2.3385 2.3301 2.3385 2.3385 2.3301 2.3301 2.3301 2.3385 2.3301 2.3385 2.3385 2.347 2.3385 2.3385 2.3385 2.347 2.3555 2.3555 2.3555 2.3555 2.3555 2.364 2.3727 2.3814 2.4079 2.4079 2.426 2.4442 2.4442 2.4628 2.4721 2.4721 2.4721 2.4721 2.4628 2.4442 2.4442 2.435 2.426 2.3902 2.3902 2.3902 2.399 2.399 2.4079 2.4079 2.4169 2.4169 2.4079 2.4079 2.4169 2.426 2.426 2.4169 2.4169 2.4169 2.4169 2.4169 2.426 2.435 2.435 2.4442 2.435 2.435 2.426 2.435 2.426 2.435 2.4442 2.4535 2.4721 2.4721 2.4816 2.5008 2.5104 2.5201 2.53 2.5399 2.53 2.5399 2.5201 2.5201 2.5104 2.5104 2.5104 2.4911 2.4721 2.4628 2.4721 2.4721 2.4721 2.4816 2.4816 2.4911 2.5008 2.5201 2.53 2.5399 2.56 2.5499 2.5499 2.5399 2.56 2.56 2.56 2.56 2.5701 2.5701 2.5701 2.5802 2.5701 2.56 2.56 2.5701 2.5802 2.5701 2.56 2.56 2.56 2.56 2.5802 2.5906 2.6115 2.622 2.6434 2.7096 2.721 2.7325 2.721 2.721 2.721 2.721 2.721 2.7096 2.7096 2.6984 2.6871 2.6984 2.6984 2.7096 2.7096 2.6761 2.6651 2.6651 2.6543 2.6651 2.6543 2.6543 2.6651 2.6543 2.6761 2.6761 2.6761 2.6871 2.6871 2.6871 2.6984 2.6871 2.6984 2.6761 2.6761
1.9814 1.9814 1.9814 1.9814 1.9936 1.9936 1.9936 1.9997 2.0059 2.0184 2.0184 2.0246 2.031 1.0576 1.0576 1.0576 1.0576 1.0611 1.0611 1.0629 1.0629 1.0611 1.0611 1.0629 1.0629 1.0645 1.0611 1.0594 1.0559 1.0559 1.0559 1.0576 1.0611 1.0629 1.0645 1.0662 1.0645 1.0662 1.0662 1.0716 1.0716 1.0734 1.0716 1.0699 1.0699 1.0716 1.0716 1.0734 1.0751 1.0769 1.0751 1.0769 1.0769 1.0805 1.0805 1.0805 1.0805 1.0805 1.0824 1.0824 1.0824 1.0824 1.0824 1.0841 1.0841 1.086 1.0896 1.0877 1.0896 1.0933 1.0933 1.0951 1.0951 1.0933 1.0914 1.0933 1.0933 1.097 1.097 1.0951 1.0989 1.0989 1.1062 1.1101 1.112 1.1159 1.1159 1.112 1.1101 1.112 1.1082 1.1082 1.1062 1.1006 1.1006 1.0989 1.1006 1.1044 1.1082 1.112 1.1139 1.1159 1.1178 1.1178 1.1216 1.1196 1.1178 1.1178 1.1178 1.1196 1.1235 1.1235 1.1255 1.1275 1.1255 1.1255 1.1275 1.1294 1.1294 1.1275 1.1275 1.1294 1.1294 1.1275 1.1294 1.1314 1.1314 1.1334 1.1314 1.1334 1.1334 1.1354 1.1394 1.1414 1.1434 1.1434 1.1454 1.1494 1.1515 1.1494 1.1515 1.1515 1.1535 1.1556 1.1576 1.1576 1.1598 1.1598 1.1639 1.1639 1.166 1.166 1.168 1.166 1.168 1.168 1.1723 1.1701 1.166 1.166 1.166 1.1701 1.168 1.1701 1.1744 1.1744 1.1744 1.1765 1.1765 1.1807 1.1851 1.1851 1.1851 1.1851 1.183 1.183 1.1807 1.183 1.1807 0 2.2971 2.2971 2.3218 2.3555 2.347 2.3385 2.3385 2.3555 2.3555 2.347 2.3385 2.3385 2.3385 2.3385 2.3301 2.3385 2.3385 2.3301 2.3301 2.3218 2.3301 2.3218 2.3218 2.3218 2.3218 2.3301 2.3301 2.3385 2.3301 2.3385 2.3385 2.3385 2.3301 2.3385 2.3385 2.347 2.3555 2.347 2.364 2.364 2.3727 2.3727 2.3814 2.4079 2.4079 2.426 2.4442 2.4442 2.4628 2.4721 2.4721 2.4721 2.4721 2.4628 2.4628 2.4628 2.4442 2.435 2.4079 2.399 2.399 2.4079 2.4079 2.4169 2.4079 2.4169 2.4169 2.4169 2.4169 2.426 2.426 2.426 2.426 2.426 2.426 2.435 2.435 2.435 2.4442 2.4442 2.4442 2.4535 2.4442 2.426 2.426 2.435 2.435 2.435 2.4442 2.4721 2.4721 2.4816 2.5008 2.5104 2.5201 2.53 2.53 2.53 2.53 2.5201 2.5201 2.5201 2.5104 2.5104 2.5008 2.4721 2.4721 2.4816 2.4816 2.4911 2.4911 2.4911 2.4911 2.5008 2.5104 2.53 2.5399 2.5399 2.5399 2.5399 2.5399 2.5499 2.5499 2.5499 2.56 2.56 2.5701 2.5701 2.5701 2.5701 2.56 2.56 2.5701 2.5701 2.56 2.5499 2.5499 2.5499 2.5499 2.5701 2.5906 2.6115 2.622 2.6543 2.721 2.7325 2.7325 2.7325 2.7325 2.721 2.7325 2.7325 2.7325 2.7325 2.6984 2.6871 2.6984 2.6984 2.6984 2.7096 2.6761 2.6651 2.6543 2.6543 2.6543 2.6543 2.6543 2.6543 2.6543 2.6761 2.6761 2.6761 2.6871 2.6871 2.6871 2.6871 2.6871 2.6871 2.6761 2.6871
1.9814 1.9814 1.9814 1.9814 1.9875 1.9875 1.9875 1.9936 2.0059 1.9997 0 0 1.0629 1.0576 1.0576 1.0594 1.0576 1.0611 1.0611 1.0611 1.0629 1.0594 1.0611 1.0611 1.0629 1.0645 1.0629 1.0611 1.0594 1.0576 1.0576 1.0594 1.0611 1.0645 1.0645 1.0645 1.0645 1.0645 1.0662 1.0681 1.0716 1.0716 1.0716 1.0681 1.0699 1.0699 1.0699 1.0716 1.0734 1.0734 1.0716 1.0716 1.0751 1.0769 1.0769 1.0788 1.0805 1.0788 1.0788 1.0805 1.0805 1.0805 1.0805 1.0824 1.0824 1.0824 1.0877 1.0877 1.0877 1.0933 1.0933 1.0951 1.0951 1.0951 1.0933 1.0933 1.0933 1.0951 1.0951 1.097 1.097 1.0989 1.1044 1.1101 1.112 1.1139 1.1139 1.1139 1.112 1.1101 1.1101 1.1082 1.1044 1.1006 1.0989 1.097 1.1025 1.1044 1.1062 1.112 1.112 1.112 1.1159 1.1178 1.1178 1.1178 1.1159 1.1159 1.1159 1.1178 1.1196 1.1216 1.1235 1.1255 1.1235 1.1255 1.1275 1.1275 1.1294 1.1275 1.1255 1.1275 1.1275 1.1275 1.1275 1.1294 1.1314 1.1314 1.1314 1.1314 1.1334 1.1354 1.1374 1.1394 1.1414 1.1434 1.1434 1.1474 1.1474 1.1474 1.1515 1.1515 1.1515 1.1535 1.1556 1.1556 1.1576 1.1576 1.1618 1.1618 1.1639 1.1639 1.166 1.166 1.166 1.166 1.1701 1.1701 1.1639 1.1639 1.168 1.168 1.168 1.1701 1.1723 1.1723 1.1744 1.1765 1.1765 1.1786 1.1851 1.1851 1.1851 1.1872 1.1851 1.183 1.183 1.183 1.1872 1.1872 1.1851 1.1872 0 2.3727 2.364 2.3555 2.3555 2.364 2.364 2.347 2.347 2.347 2.347 2.3385 2.3385 2.3385 2.3301 2.3301 2.3218 2.3218 2.3135 2.3218 2.3218 2.3135 2.3218 2.3301 2.3218 2.3301 2.3301 2.3301 2.3301 2.3301 2.3385 2.3301 2.3301 2.347 2.347 2.347 2.364 2.3555 2.3727 2.3727 2.3814 2.4079 2.399 2.426 2.435 2.435 2.4628 2.4628 2.4721 2.4721 2.4721 2.4628 2.4721 2.4628 2.4535 2.4442 2.399 2.4079 2.4079 2.4079 2.4169 2.4169 2.4079 2.4169 2.4169 2.426 2.426 2.426 2.435 2.426 2.426 2.435 2.426 2.426 2.435 2.435 2.435 2.4442 2.4442 2.4442 2.4442 2.426 2.426 2.426 2.426 2.426 2.4535 2.4721 2.4721 2.4816 2.5008 2.5104 2.5201 2.5399 2.5399 2.5399 2.5399 2.53 2.5201 2.53 2.5201 2.5201 2.5008 2.4911 2.4816 2.4816 2.4816 2.4911 2.4911 2.4911 2.4911 2.4911 2.5201 2.5201 2.5201 2.5399 2.53 2.53 2.53 2.5399 2.5399 2.5499 2.5499 2.56 2.5701 2.56 2.5701 2.56 2.56 2.5499 2.56 2.56 2.5499 2.5499 2.5399 2.5499 2.5399 2.56 2.5802 2.6115 2.6326 2.6543 2.7325 2.744 2.744 2.744 2.7325 2.7325 2.7325 2.7325 2.7325 2.7325 2.6984 2.6984 2.6871 2.6984 2.6984 2.6984 2.6761 2.6543 2.6543 2.6434 2.6434 2.6434 2.6434 2.6543 2.6543 2.6651 2.6761 2.6761 2.6984 2.6871 2.6871 2.6761 2.6871 2.6871 2.6761 2.6761
1.9754 1.9814 1.9814 1.9814 1.9875 1.9814 1.9814 1.9875 1.9814 1.9997 0 0 1.0611 1.0594 1.0594 1.0594 1.0594 1.0611 1.0594 1.0594 1.0611 1.0576 1.0594 1.0594 1.0611 1.0645 1.0629 1.0611 1.0594 1.0576 1.0576 1.0576 1.0594 1.0611 1.0629 1.0629 1.0629 1.0629 1.0645 1.0681 1.0681 1.0699 1.0699 1.0662 1.0645 1.0645 1.0645 1.0662 1.0681 1.0662 1.0681 1.0681 1.0699 1.0716 1.0734 1.0751 1.0751 1.0769 1.0769 1.0769 1.0769 1.0769 1.0788 1.0788 1.0788 1.0805 1.0824 1.0841 1.086 1.0896 1.0896 1.0933 1.0933 1.0951 1.0933 1.0933 1.0914 1.0951 1.0933 1.0933 1.0951 1.097 1.1006 1.1062 1.1062 1.1101 1.1101 1.112 1.1101 1.1101 1.1062 1.1062 1.1044 1.0989 1.097 1.097 1.1006 1.1025 1.1044 1.1082 1.1101 1.1101 1.1139 1.1139 1.1159 1.1159 1.1139 1.1159 1.1139 1.1139 1.1178 1.1178 1.1216 1.1235 1.1235 1.1235 1.1255 1.1255 1.1275 1.1255 1.1255 1.1255 1.1255 1.1255 1.1255 1.1275 1.1294 1.1294 1.1294 1.1314 1.1314 1.1314 1.1334 1.1354 1.1374 1.1394 1.1374 1.1414 1.1414 1.1434 1.1454 1.1474 1.1494 1.1515 1.1515 1.1494 1.1494 1.1515 1.1556 1.1576 1.1576 1.1598 1.1598 1.1639 1.1618 1.166 1.166 1.168 1.1639 1.1639 1.166 1.166 1.168 1.168 1.1701 1.1723 1.1723 1.1765 1.1765 1.1786 1.1851 1.183 1.1807 1.183 1.183 1.183 1.1807 1.183 1.183 1.183 1.183 1.183 1.2005 1.2027 2.3727 2.3555 2.364 2.3727 2.364 2.3555 2.3555 2.3555 2.3385 2.3385 2.3301 2.3301 2.3218 2.3135 2.3053 2.3053 2.3053 2.3053 2.3053 2.3135 2.3135 2.3218 2.3301 2.3301 2.3301 2.3301 2.3385 2.3301 2.3301 2.3301 2.3301 2.3385 2.3385 2.347 2.3555 2.3555 2.364 2.364 2.3727 2.399 2.399 2.4169 2.435 2.435 2.4535 2.4628 2.4721 2.4816 2.4721 2.4721 2.4721 2.4721 2.4535 2.4442 2.4079 2.4079 2.4079 2.4169 2.4169 2.4169 2.4169 2.4169 2.4169 2.4169 2.426 2.435 2.426 2.426 2.426 2.426 2.426 2.426 2.435 2.435 2.435 2.435 2.435 2.435 2.435 2.4169 2.4169 2.426 2.4169 2.4169 2.435 2.4721 2.4721 2.4721 2.4911 2.5008 2.5104 2.5399 2.5399 2.5399 2.5399 2.53 2.5201 2.5399 2.5201 2.5201 2.5104 2.4911 2.4911 2.4911 2.4911 2.5008 2.4911 2.4816 2.4816 2.4911 2.5008 2.5104 2.5104 2.53 2.5201 2.5201 2.5201 2.53 2.53 2.5399 2.53 2.5499 2.5499 2.5499 2.5499 2.5399 2.53 2.53 2.5399 2.5399 2.53 2.53 2.5201 2.53 2.53 2.5499 2.5701 2.601 2.622 2.6434 2.7096 2.721 2.7325 2.7325 2.7325 2.721 2.744 2.744 2.744 2.7325 2.6984 2.6984 2.6871 2.6871 2.6984 2.6984 2.6651 2.6543 2.6543 2.6434 2.6434 2.6326 2.6543 2.6434 2.6543 2.6651 2.6761 2.6871 2.6984 2.6871 2.6871 2.6761 2.6871 2.6871 2.6761 2.6761
1.9754 1.9814 1.9754 1.9754 1.9814 1.9754 1.9814 1.9814 1.9875 0 0 0 1.0611 1.0594 1.0594 1.0594 1.0594 1.0576 1.0576 1.0576 1.0594 1.0559 1.0576 1.0594 1.0611 1.0629 1.0629 1.0594 1.0576 1.0576 1.0576 1.0576 1.0576 1.0611 1.0629 1.0611 1.0629 1.0629 1.0645 1.0681 1.0699 1.0699 1.0681 1.0662 1.0645 1.0645 1.0645 1.0645 1.0662 1.0662 1.0662 1.0662 1.0681 1.0699 1.0734 1.0751 1.0751 1.0769 1.0751 1.0751 1.0769 1.0769 1.0769 1.0769 1.0769 1.0788 1.0805 1.0824 1.0841 1.0877 1.0914 1.0933 1.0933 1.0933 1.0933 1.0914 1.0914 1.0933 1.0933 1.0933 1.0933 1.097 1.0989 1.1025 1.1062 1.1082 1.1101 1.1082 1.1082 1.1082 1.1062 1.1062 1.1044 1.0989 1.097 1.097 1.1006 1.0989 1.1025 1.1062 1.1082 1.1101 1.112 1.112 1.1159 1.1159 1.1159 1.1139 1.1159 1.1159 1.1196 1.1196 1.1196 1.1216 1.1235 1.1255 1.1255 1.1255 1.1255 1.1255 1.1255 1.1255 1.1255 1.1275 1.1255 1.1255 1.1294 1.1314 1.1314 1.1334 1.1314 1.1294 1.1314 1.1334 1.1374 1.1374 1.1374 1.1414 1.1414 1.1434 1.1434 1.1474 1.1474 1.1515 1.1494 1.1494 1.1474 1.1494 1.1535 1.1556 1.1576 1.1598 1.1598 1.1618 1.1618 1.1639 1.166 1.166 1.166 1.166 1.166 1.166 1.168 1.168 1.1723 1.1701 1.1723 1.1765 1.1765 1.1786 1.183 1.1807 1.1807 1.1807 1.1807 1.1807 1.1807 1.1807 1.1807 1.1807 1.1807 1.1895 1.1939 1.2005 0 2.3555 2.3555 2.3727 2.3727 2.347 2.3555 2.347 2.347 2.3385 2.3301 2.3218 2.3218 2.3053 2.2971 2.2971 2.2971 2.3053 2.3053 2.3218 2.3135 2.3218 2.3301 2.3301 2.3385 2.3385 2.347 2.347 2.347 2.3385 2.3385 2.3385 2.347 2.347 2.3555 2.3555 2.364 2.364 2.3727 2.399 2.399 2.426 2.435 2.435 2.4535 2.4628 2.4721 2.4911 2.4911 2.4816 2.4816 2.4721 2.4628 2.4442 2.426 2.426 2.426 2.435 2.435 2.4442 2.435 2.435 2.435 2.4535 2.4535 2.4628 2.4628 2.4535 2.4535 2.4442 2.4535 2.4442 2.4535 2.4535 2.4442 2.4442 2.4442 2.4442 2.4442 2.4169 2.4169 2.4169 2.4169 2.4169 2.435 2.4721 2.4628 2.4721 2.4816 2.5008 2.5201 2.53 2.5399 2.5399 2.56 2.5499 2.5399 2.56 2.5499 2.56 2.5499 2.53 2.5201 2.5201 2.5104 2.5104 2.5008 2.4816 2.4911 2.4816 2.5008 2.5008 2.5008 2.5201 2.5201 2.5201 2.5201 2.53 2.5399 2.53 2.5399 2.5499 2.5399 2.5399 2.5399 2.53 2.5201 2.5201 2.53 2.53 2.5201 2.5201 2.5201 2.5201 2.53 2.5399 2.5701 2.601 2.6115 2.6434 2.6984 2.6984 2.7096 2.721 2.7325 2.721 2.7325 2.744 2.744 2.744 2.6984 2.7096 2.6984 2.6984 2.7096 2.6984 2.6651 2.6543 2.6543 2.6543 2.6543 2.6543 2.6651 2.6651 2.6651 2.6761 2.6871 2.6984 2.7096 2.6984 2.6984 2.6871 2.6984 2.6984 2.6984 2.7096
1.9754 1.9754 1.9754 1.9754 1.9754 1.9754 1.9754 1.9754 1.9694 0 1.0559 1.0576 1.0541 1.0576 1.0559 1.0576 1.0559 1.0576 1.0559 1.0559 1.0559 1.0559 1.0559 1.0576 1.0611 1.0611 1.0629 1.0576 1.0576 1.0559 1.0559 1.0559 1.0576 1.0594 1.0611 1.0594 1.0629 1.0629 1.0645 1.0681 1.0681 1.0681 1.0681 1.0645 1.0645 1.0645 1.0629 1.0645 1.0662 1.0662 1.0662 1.0662 1.0681 1.0699 1.0716 1.0751 1.0751 1.0751 1.0751 1.0751 1.0769 1.0769 1.0751 1.0769 1.0769 1.0769 1.0824 1.0824 1.0841 1.0877 1.0877 1.0933 1.0914 1.0933 1.0914 1.0896 1.0877 1.0914 1.0914 1.0914 1.0933 1.0951 1.1006 1.1025 1.1044 1.1062 1.1082 1.1082 1.1082 1.1062 1.1062 1.1044 1.1025 1.0989 1.097 1.097 1.097 1.0989 1.1006 1.1044 1.1062 1.1082 1.1101 1.112 1.112 1.1139 1.1139 1.1139 1.1139 1.1159 1.1178 1.1178 1.1196 1.1216 1.1216 1.1235 1.1255 1.1255 1.1235 1.1235 1.1235 1.1235 1.1255 1.1235 1.1235 1.1255 1.1275 1.1294 1.1294 1.1294 1.1294 1.1294 1.1314 1.1314 1.1334 1.1354 1.1354 1.1374 1.1394 1.1414 1.1434 1.1454 1.1454 1.1515 1.1494 1.1494 1.1494 1.1494 1.1535 1.1535 1.1556 1.1576 1.1576 1.1598 1.1618 1.1618 1.166 1.1639 1.1639 1.1639 1.1639 1.166 1.166 1.166 1.1701 1.1701 1.1701 1.1723 1.1744 1.1765 1.1786 1.1786 1.1786 1.1786 1.1807 1.1786 1.1807 1.1786 1.1807 1.1807 1.1807 1.1872 1.1939 1.1939 1.1939 0 2.364 2.3727 2.364 2.3555 2.347 2.347 2.3385 2.3301 2.3301 2.3135 2.3135 2.2971 2.2971 2.2971 2.2971 2.3053 2.3135 2.3135 2.3218 2.3218 2.3385 2.3385 2.3385 2.3385 2.347 2.347 2.3385 2.3385 2.3301 2.3385 2.3301 2.347 2.347 2.3555 2.364 2.364 2.364 2.3902 2.399 2.4169 2.426 2.435 2.4535 2.4628 2.4721 2.4911 2.4816 2.4816 2.4816 2.4721 2.4628 2.4628 2.435 2.435 2.435 2.4442 2.4535 2.4535 2.4442 2.4442 2.4442 2.4535 2.4628 2.4628 2.4721 2.4628 2.4628 2.4535 2.4535 2.4535 2.4628 2.4535 2.4535 2.4535 2.4442 2.4442 2.435 2.426 2.426 2.426 2.4169 2.4169 2.435 2.4535 2.4628 2.4535 2.4816 2.4911 2.5201 2.53 2.5399 2.5399 2.56 2.56 2.56 2.56 2.56 2.56 2.56 2.53 2.53 2.5201 2.5201 2.5104 2.5008 2.4816 2.4816 2.4816 2.4911 2.4911 2.5008 2.5104 2.5104 2.5104 2.5201 2.53 2.53 2.5399 2.5399 2.5399 2.5499 2.5399 2.53 2.53 2.5201 2.5104 2.5201 2.53 2.5201 2.5201 2.5201 2.53 2.53 2.5499 2.56 2.601 2.6115 2.6434 2.6761 2.6871 2.6984 2.721 2.721 2.7325 2.7325 2.7325 2.744 2.7325 2.7096 2.7096 2.6984 2.6984 2.7096 2.6984 2.6761 2.6543 2.6543 2.6543 2.6434 2.6543 2.6651 2.6651 2.6651 2.6871 2.6984 2.6984 2.7096 2.7096 2.6984 2.6984 2.6984 2.7096 2.7096 2.7096
1.9694 1.9754 1.9694 1.9754 1.9754 1.9754 1.9634 1.9575 1.9694 0 1.0559 1.0541 1.0525 1.0525 1.0508 1.0508 1.0508 1.0525 1.0525 1.0525 1.0525 1.0525 1.0541 1.0541 1.0559 1.0576 1.0576 1.0576 1.0559 1.0541 1.0525 1.0525 1.0525 1.0559 1.0576 1.0559 1.0594 1.0594 1.0611 1.0629 1.0645 1.0645 1.0629 1.0611 1.0611 1.0611 1.0611 1.0629 1.0629 1.0629 1.0629 1.0629 1.0681 1.0699 1.0699 1.0716 1.0716 1.0716 1.0734 1.0734 1.0734 1.0751 1.0751 1.0734 1.0734 1.0751 1.0788 1.0788 1.0805 1.0841 1.0841 1.0877 1.0896 1.0877 1.086 1.086 1.0841 1.086 1.0877 1.0896 1.0896 1.0914 1.097 1.1006 1.1006 1.1025 1.1025 1.1044 1.1044 1.1044 1.1044 1.1044 1.1025 1.097 1.097 1.0951 1.097 1.0989 1.0989 1.1062 1.1062 1.1082 1.1082 1.1101 1.112 1.1139 1.112 1.1139 1.1139 1.1139 1.1139 1.1159 1.1178 1.1178 1.1196 1.1196 1.1216 1.1216 1.1216 1.1196 1.1196 1.1216 1.1216 1.1216 1.1216 1.1216 1.1235 1.1275 1.1275 1.1275 1.1275 1.1275 1.1275 1.1294 1.1334 1.1314 1.1334 1.1354 1.1354 1.1354 1.1374 1.1394 1.1394 1.1454 1.1454 1.1474 1.1494 1.1474 1.1494 1.1515 1.1515 1.1556 1.1556 1.1576 1.1576 1.1598 1.1618 1.1618 1.1598 1.1598 1.1598 1.1598 1.1639 1.1639 1.1639 1.166 1.166 1.1701 1.1701 1.1723 1.1765 1.1744 1.1744 1.1765 1.1765 1.1765 1.1765 1.1765 1.1786 1.1786 1.1807 1.1851 1.1895 1.1916 1.1939 0 2.364 2.3727 2.3555 2.3555 2.3555 2.3555 2.3555 2.347 2.3385 2.3218 2.3135 2.3135 2.2971 2.2971 2.289 2.2971 2.3053 2.3135 2.3218 2.3301 2.3385 2.347 2.3385 2.347 2.3555 2.3385 2.3385 2.3301 2.3301 2.3385 2.3385 2.347 2.3555 2.347 2.3555 2.3555 2.364 2.3902 2.399 2.4079 2.4169 2.426 2.435 2.4535 2.4628 2.4816 2.4721 2.4628 2.4721 2.4721 2.4628 2.4628 2.4442 2.4442 2.4442 2.4442 2.4721 2.4721 2.4628 2.4535 2.4442 2.4628 2.4628 2.4721 2.4721 2.4721 2.4628 2.4721 2.4628 2.4721 2.4721 2.4721 2.4535 2.4442 2.4442 2.4442 2.435 2.426 2.4169 2.4169 2.4169 2.426 2.426 2.435 2.435 2.4442 2.4721 2.4911 2.5104 2.5201 2.53 2.5399 2.56 2.56 2.5802 2.5701 2.5802 2.56 2.5701 2.5399 2.5399 2.5399 2.53 2.5201 2.5008 2.4816 2.4816 2.4721 2.4721 2.4816 2.4816 2.4911 2.4911 2.4911 2.5104 2.5201 2.53 2.5399 2.5399 2.5499 2.5499 2.5399 2.5399 2.53 2.5201 2.5104 2.5201 2.53 2.5201 2.5104 2.5104 2.5201 2.5201 2.5399 2.5499 2.601 2.6115 2.6326 2.6761 2.6761 2.6761 2.6871 2.6984 2.7096 2.7325 2.7325 2.721 2.7325 2.7096 2.7096 2.7096 2.7096 2.6984 2.6871 2.6761 2.6543 2.6543 2.6543 2.6543 2.6651 2.6651 2.6651 2.6761 2.6871 2.6984 2.6984 2.7096 2.6984 2.6984 2.6871 2.6984 2.721 2.721 2.7325
1.9694 1.9754 1.9694 1.9694 1.9754 1.9754 1.9575 1.9458 1.9399 0 1.0474 1.0508 1.0525 1.0508 1.0491 1.0491 1.0491 1.0508 1.0508 1.0525 1.0525 1.0508 1.0525 1.0541 1.0541 1.0559 1.0559 1.0559 1.0541 1.0525 1.0508 1.0508 1.0525 1.0541 1.0559 1.0559 1.0559 1.0576 1.0576 1.0611 1.0611 1.0594 1.0611 1.0576 1.0594 1.0576 1.0594 1.0611 1.0611 1.0611 1.0594 1.0629 1.0662 1.0681 1.0699 1.0699 1.0699 1.0716 1.0734 1.0734 1.0751 1.0751 1.0734 1.0751 1.0751 1.0751 1.0769 1.0788 1.0788 1.0824 1.0824 1.086 1.0877 1.086 1.0841 1.0841 1.0824 1.0841 1.086 1.086 1.0896 1.0896 1.0951 1.0989 1.0989 1.1025 1.1025 1.1025 1.1025 1.1025 1.1044 1.1044 1.1025 1.097 1.097 1.0951 1.097 1.097 1.0989 1.1044 1.1062 1.1082 1.1082 1.1082 1.112 1.1139 1.112 1.112 1.1139 1.112 1.112 1.1139 1.1159 1.1178 1.1178 1.1196 1.1216 1.1196 1.1196 1.1178 1.1159 1.1196 1.1216 1.1196 1.1196 1.1196 1.1216 1.1255 1.1275 1.1275 1.1275 1.1275 1.1275 1.1294 1.1334 1.1334 1.1314 1.1334 1.1334 1.1334 1.1354 1.1354 1.1374 1.1434 1.1434 1.1454 1.1454 1.1474 1.1494 1.1494 1.1515 1.1535 1.1535 1.1556 1.1556 1.1576 1.1598 1.1598 1.1576 1.1576 1.1576 1.1576 1.1618 1.1618 1.1639 1.166 1.166 1.168 1.1701 1.1723 1.1744 1.1744 1.1744 1.1744 1.1765 1.1744 1.1765 1.1765 1.1765 1.1786 1.1786 1.1851 1.1895 1.1895 1.1895 1.2005 1.1983 0 2.364 2.3555 2.364 2.364 2.3555 2.347 2.347 2.3218 2.3218 2.3135 2.3053 2.2971 2.2971 2.2971 2.3053 2.3135 2.3218 2.3301 2.3385 2.347 2.347 2.347 2.3555 2.347 2.3385 2.3301 2.3301 2.3385 2.3385 2.347 2.347 2.347 2.3555 2.3555 2.3555 2.3814 2.3902 2.399 2.4169 2.4169 2.426 2.435 2.4535 2.4628 2.4628 2.4535 2.4535 2.4628 2.4535 2.4628 2.4442 2.4442 2.4442 2.4442 2.4721 2.4721 2.4628 2.4535 2.4535 2.4535 2.4721 2.4816 2.4721 2.4721 2.4628 2.4628 2.4628 2.4721 2.4721 2.4721 2.4535 2.4535 2.4442 2.4442 2.435 2.4169 2.4169 2.4169 2.4169 2.426 2.426 2.435 2.435 2.4442 2.4628 2.4816 2.5008 2.5201 2.53 2.5399 2.56 2.5701 2.5802 2.5802 2.5701 2.5701 2.56 2.56 2.5499 2.5399 2.53 2.5201 2.5008 2.4911 2.4721 2.4816 2.4721 2.4816 2.4816 2.4911 2.4911 2.5008 2.5104 2.5201 2.53 2.5399 2.5399 2.5701 2.56 2.5499 2.5499 2.5399 2.53 2.5201 2.5201 2.53 2.5201 2.4911 2.5008 2.5104 2.5201 2.53 2.5499 2.5906 2.622 2.6326 2.6651 2.6651 2.6651 2.6871 2.6984 2.7096 2.721 2.7325 2.721 2.7325 2.7096 2.7096 2.7096 2.6984 2.6871 2.6984 2.6651 2.6543 2.6543 2.6543 2.6543 2.6651 2.6761 2.6651 2.6761 2.6871 2.6984 2.6871 2.7096 2.6984 2.6984 2.6871 2.6984 2.7325 2.7325 2.7325
1.9575 1.9634 1.9694 1.9694 1.9754 1.9634 1.9458 1.9458 1.9399 1.044 1.044 1.0474 1.0474 1.0474 1.0456 1.0474 1.0456 1.0474 1.0474 1.0474 1.0456 1.0474 1.0474 1.0491 1.0508 1.0491 1.0508 1.0491 1.0508 1.0491 1.0491 1.0491 1.0491 1.0541 1.0559 1.0559 1.0559 1.0576 1.0576 1.0594 1.0594 1.0576 1.0559 1.0541 1.0541 1.0541 1.0541 1.0559 1.0559 1.0576 1.0576 1.0594 1.0629 1.0662 1.0681 1.0699 1.0716 1.0716 1.0734 1.0734 1.0751 1.0769 1.0734 1.0734 1.0734 1.0734 1.0734 1.0734 1.0751 1.0769 1.0769 1.0805 1.0841 1.0841 1.0841 1.0841 1.0824 1.0841 1.0841 1.086 1.0877 1.0896 1.0914 1.0933 1.0933 1.097 1.0989 1.0951 1.097 1.097 1.0989 1.097 1.097 1.0933 1.0933 1.0896 1.0914 1.0914 1.0951 1.1006 1.1025 1.1025 1.1062 1.1062 1.1062 1.1101 1.1082 1.1082 1.1082 1.1082 1.1082 1.1082 1.1101 1.1101 1.112 1.1139 1.1159 1.1159 1.1159 1.1159 1.1159 1.1178 1.1196 1.1196 1.1196 1.1196 1.1235 1.1235 1.1255 1.1275 1.1275 1.1275 1.1275 1.1275 1.1275 1.1314 1.1294 1.1294 1.1314 1.1294 1.1314 1.1314 1.1334 1.1374 1.1394 1.1434 1.1414 1.1414 1.1434 1.1454 1.1454 1.1494 1.1494 1.1494 1.1556 1.1535 1.1576 1.1576 1.1556 1.1576 1.1556 1.1576 1.1598 1.1598 1.1598 1.1598 1.1618 1.1639 1.1639 1.166 1.166 1.168 1.1701 1.1701 1.1723 1.1723 1.1723 1.1723 1.1723 1.1744 1.1765 1.1786 1.1807 1.183 1.1807 1.1851 1.1895 1.196 1.196 2.3555 2.364 2.364 2.364 2.364 2.3555 2.3385 2.3301 2.3135 2.3053 2.2971 2.2971 2.2971 2.3053 2.3135 2.3218 2.3218 2.3385 2.3385 2.347 2.347 2.347 2.347 2.347 2.347 2.3385 2.347 2.3555 2.3555 2.3555 2.364 2.3555 2.364 2.3727 2.3902 2.399 2.399 2.399 2.399 2.4169 2.426 2.426 2.4442 2.4442 2.435 2.4442 2.4442 2.4535 2.4535 2.4442 2.435 2.4442 2.4442 2.4628 2.4628 2.4535 2.4535 2.4442 2.4535 2.4535 2.4628 2.4628 2.4628 2.4535 2.4628 2.4628 2.4628 2.4816 2.4721 2.4628 2.4535 2.4442 2.4442 2.4442 2.4169 2.4169 2.4169 2.4169 2.4169 2.4169 2.426 2.426 2.435 2.4721 2.4816 2.5008 2.5201 2.53 2.53 2.5499 2.56 2.5701 2.5701 2.56 2.56 2.56 2.5499 2.5399 2.5499 2.53 2.53 2.5201 2.4911 2.4911 2.4816 2.4911 2.4816 2.4911 2.4911 2.4911 2.5008 2.5104 2.5201 2.5399 2.5399 2.5499 2.5701 2.56 2.56 2.56 2.5499 2.53 2.53 2.5201 2.5104 2.5201 2.4911 2.5008 2.5104 2.5104 2.53 2.5399 2.5802 2.6115 2.622 2.6543 2.6651 2.6761 2.6761 2.6871 2.6984 2.721 2.721 2.7096 2.7096 2.7096 2.6984 2.6984 2.6871 2.6871 2.6871 2.6543 2.6543 2.6434 2.6543 2.6434 2.6543 2.6651 2.6651 2.6651 2.6651 2.6761 2.6761 2.7096 2.7096 2.6984 2.6984 2.7096 2.721 2.7325 2.7325
1.9575 1.9575 1.9634 1.9694 1.9754 1.9399 1.9458 0 0 1.044 1.044 1.0456 1.0456 1.0456 1.044 1.044 1.044 1.044 1.044 1.0456 1.044 1.044 1.0456 1.0474 1.0474 1.0508 1.0491 1.0491 1.0474 1.0491 1.0508 1.0508 1.0508 1.0525 1.0541 1.0541 1.0541 1.0559 1.0576 1.0576 1.0576 1.0559 1.0559 1.0525 1.0525 1.0525 1.0541 1.0541 1.0559 1.0559 1.0576 1.0576 1.0629 1.0645 1.0662 1.0699 1.0716 1.0716 1.0751 1.0734 1.0751 1.0751 1.0734 1.0734 1.0734 1.0716 1.0734 1.0751 1.0751 1.0788 1.0769 1.0805 1.0824 1.0824 1.0841 1.0824 1.0824 1.0841 1.0841 1.086 1.086 1.0877 1.0896 1.0914 1.0933 1.0951 1.097 1.097 1.0951 1.097 1.097 1.0989 1.097 1.0933 1.0914 1.0896 1.0914 1.0914 1.0933 1.1006 1.1006 1.1025 1.1025 1.1044 1.1062 1.1082 1.1082 1.1082 1.1082 1.1062 1.1062 1.1082 1.1082 1.1101 1.112 1.112 1.1139 1.1139 1.1139 1.1139 1.1159 1.1178 1.1178 1.1196 1.1196 1.1196 1.1216 1.1235 1.1255 1.1255 1.1275 1.1255 1.1255 1.1255 1.1275 1.1294 1.1294 1.1294 1.1294 1.1294 1.1314 1.1314 1.1334 1.1374 1.1394 1.1414 1.1414 1.1414 1.1414 1.1454 1.1454 1.1454 1.1474 1.1494 1.1515 1.1515 1.1556 1.1556 1.1535 1.1556 1.1556 1.1556 1.1576 1.1598 1.1576 1.1556 1.1576 1.1639 1.1639 1.1639 1.166 1.168 1.166 1.1701 1.1701 1.1723 1.1701 1.1723 1.1723 1.1765 1.1744 1.1786 1.1786 1.1786 1.1786 1.1807 1.1872 1.1916 1.196 2.3727 2.3727 2.3727 2.364 2.364 2.3555 2.347 2.347 2.3301 2.3218 2.3135 2.3053 2.3053 2.3135 2.3218 2.3301 2.3301 2.3385 2.347 2.347 2.364 2.364 2.3555 2.3555 2.364 2.3555 2.3727 2.3727 2.3814 2.3727 2.3814 2.3814 2.3814 2.3814 2.399 2.4079 2.399 2.399 2.399 2.4079 2.426 2.426 2.426 2.435 2.435 2.435 2.435 2.4442 2.4442 2.4442 2.435 2.4442 2.4535 2.4535 2.4628 2.4628 2.4535 2.4535 2.4535 2.4535 2.4628 2.4628 2.4628 2.4535 2.4628 2.4628 2.4628 2.4721 2.4721 2.4628 2.4535 2.4628 2.4535 2.4535 2.435 2.426 2.426 2.4169 2.426 2.426 2.426 2.435 2.435 2.4721 2.4816 2.5008 2.5201 2.5399 2.5399 2.56 2.5701 2.5701 2.5802 2.56 2.5701 2.56 2.5499 2.5499 2.5499 2.5499 2.5399 2.53 2.5104 2.5104 2.5008 2.5104 2.5008 2.5104 2.5104 2.5008 2.5008 2.53 2.53 2.5499 2.56 2.56 2.5802 2.5802 2.5701 2.56 2.56 2.5399 2.53 2.53 2.5201 2.5201 2.5104 2.5104 2.5201 2.53 2.5499 2.56 2.5906 2.622 2.6326 2.6651 2.6651 2.6651 2.6761 2.6761 2.6871 2.721 2.7096 2.6984 2.6984 2.6984 2.6984 2.6984 2.6871 2.6871 2.6761 2.6543 2.6434 2.6434 2.6434 2.6326 2.6434 2.6543 2.6543 2.6543 2.6651 2.6651 2.6651 2.6984 2.6984 2.6984 2.6984 2.7096 2.744 2.744 2.7556
1.9575 1.9575 1.9634 1.9575 1.9516 0 0 1.0374 1.0374 1.0406 1.0424 1.044 1.044 1.0424 1.0424 1.0424 1.0406 1.0406 1.0406 1.0424 1.0406 1.0406 1.044 1.0456 1.0474 1.0474 1.0491 1.0491 1.0491 1.0474 1.0508 1.0491 1.0491 1.0525 1.0525 1.0525 1.0525 1.0559 1.0559 1.0559 1.0559 1.0541 1.0541 1.0508 1.0525 1.0525 1.0525 1.0559 1.0541 1.0559 1.0559 1.0576 1.0611 1.0645 1.0645 1.0681 1.0699 1.0699 1.0734 1.0734 1.0751 1.0734 1.0734 1.0734 1.0716 1.0734 1.0734 1.0751 1.0751 1.0788 1.0769 1.0805 1.0824 1.0841 1.0841 1.0824 1.0824 1.0841 1.0824 1.0841 1.086 1.086 1.0896 1.0896 1.0914 1.0951 1.0951 1.0951 1.0951 1.097 1.097 1.097 1.0951 1.0933 1.0914 1.0896 1.0896 1.0914 1.0933 1.0989 1.1006 1.0989 1.1006 1.1025 1.1044 1.1044 1.1062 1.1062 1.1062 1.1062 1.1062 1.1062 1.1062 1.1082 1.1101 1.1101 1.112 1.1139 1.1139 1.1139 1.1159 1.1178 1.1178 1.1196 1.1178 1.1196 1.1216 1.1235 1.1235 1.1255 1.1255 1.1255 1.1235 1.1235 1.1275 1.1275 1.1275 1.1294 1.1294 1.1294 1.1294 1.1314 1.1314 1.1374 1.1394 1.1414 1.1414 1.1414 1.1414 1.1414 1.1434 1.1454 1.1454 1.1474 1.1494 1.1515 1.1515 1.1535 1.1515 1.1556 1.1535 1.1535 1.1556 1.1576 1.1535 1.1535 1.1576 1.1598 1.1618 1.1618 1.1639 1.1639 1.166 1.168 1.1701 1.1723 1.1723 1.1701 1.1723 1.1744 1.1744 1.1765 1.1765 1.1765 1.1765 1.1765 1.183 1.183 1.1807 1.1807 0 2.347 2.3555 2.3555 2.3555 2.347 2.347 2.3385 2.3301 2.3301 2.3218 2.3301 2.3301 2.3301 2.347 2.347 2.3555 2.3555 2.3555 2.364 2.364 2.364 2.364 2.364 2.364 2.3814 2.3814 2.3814 2.3814 2.3814 2.3902 2.3902 2.3902 2.399 2.4079 2.4079 2.4079 2.399 2.4079 2.4169 2.4169 2.426 2.426 2.4169 2.435 2.426 2.435 2.435 2.4442 2.4442 2.4442 2.4535 2.4628 2.4628 2.4628 2.4535 2.4535 2.4628 2.4628 2.4628 2.4535 2.4628 2.4535 2.4535 2.4535 2.4628 2.4816 2.4721 2.4721 2.4628 2.4628 2.4628 2.4628 2.435 2.426 2.426 2.426 2.426 2.426 2.435 2.435 2.4442 2.4721 2.5008 2.5008 2.53 2.5399 2.5399 2.56 2.5701 2.5701 2.5701 2.5701 2.56 2.56 2.5499 2.5399 2.5499 2.5499 2.5399 2.5399 2.5104 2.5201 2.5104 2.5104 2.5008 2.5104 2.5201 2.5104 2.5104 2.53 2.5399 2.5499 2.5499 2.56 2.5802 2.5701 2.5701 2.56 2.56 2.5399 2.53 2.53 2.53 2.53 2.5104 2.5201 2.53 2.53 2.5499 2.56 2.601 2.622 2.6326 2.6543 2.6651 2.6651 2.6761 2.6871 2.6871 2.6984 2.6984 2.6871 2.6871 2.6984 2.6871 2.6871 2.6871 2.6761 2.6651 2.6543 2.6434 2.6326 2.6326 2.622 2.622 2.6543 2.6543 2.6543 2.6543 2.6651 2.6651 2.6871 2.6984 2.7096 2.7096 2.721 2.7556 2.7674 2.7674
1.9399 1.9341 1.0259 1.0259 1.0324 1.0324 1.044 1.0374 1.039 1.0406 1.0424 1.0424 1.0424 1.0406 1.0374 1.039 1.0356 1.0356 1.0356 1.039 1.0374 1.039 1.039 1.0424 1.0424 1.044 1.044 1.044 1.0456 1.044 1.0474 1.0456 1.0456 1.0491 1.0508 1.0491 1.0508 1.0525 1.0525 1.0541 1.0525 1.0525 1.0525 1.0491 1.0508 1.0508 1.0508 1.0525 1.0525 1.0541 1.0541 1.0559 1.0594 1.0611 1.0629 1.0645 1.0645 1.0645 1.0681 1.0699 1.0734 1.0734 1.0716 1.0716 1.0716 1.0734 1.0751 1.0751 1.0769 1.0769 1.0769 1.0788 1.0805 1.0805 1.0824 1.0805 1.0805 1.0824 1.0841 1.0824 1.0841 1.0841 1.0877 1.0877 1.0896 1.0933 1.0951 1.0933 1.0951 1.0951 1.097 1.097 1.097 1.0914 1.0896 1.0896 1.0896 1.0896 1.0896 1.0951 1.097 1.0951 1.097 1.097 1.1025 1.1025 1.1044 1.1044 1.1025 1.1044 1.1044 1.1044 1.1025 1.1044 1.1044 1.1082 1.1082 1.1082 1.112 1.1101 1.112 1.1178 1.1178 1.1178 1.1178 1.1178 1.1178 1.1196 1.1196 1.1216 1.1216 1.1216 1.1216 1.1216 1.1235 1.1255 1.1255 1.1255 1.1275 1.1255 1.1255 1.1275 1.1294 1.1354 1.1354 1.1394 1.1394 1.1394 1.1394 1.1394 1.1414 1.1454 1.1454 1.1454 1.1474 1.1474 1.1494 1.1494 1.1494 1.1515 1.1535 1.1515 1.1535 1.1556 1.1535 1.1515 1.1535 1.1576 1.1598 1.1598 1.1639 1.1639 1.1618 1.166 1.168 1.1701 1.1701 1.1701 1.1701 1.1723 1.1744 1.1765 1.1765 1.1744 1.1765 1.1765 1.1786 1.1786 1.1786 1.1765 1.1807 1.1807 2.347 2.3555 2.347 2.3385 2.3385 2.3385 2.3385 2.3385 2.3301 2.3301 2.3385 2.347 2.347 2.347 2.3555 2.3555 2.3555 2.3555 2.3555 2.3555 2.3555 2.3555 2.364 2.3814 2.3814 2.3814 2.3814 2.3814 2.3902 2.3902 2.3902 2.399 2.399 2.399 2.3902 2.399 2.4079 2.4079 2.399 2.399 2.4079 2.4079 2.4169 2.4169 2.435 2.435 2.435 2.4442 2.4442 2.4442 2.4628 2.4628 2.4628 2.4535 2.4535 2.4535 2.4628 2.4628 2.4628 2.4628 2.4535 2.4628 2.4628 2.4628 2.4816 2.4816 2.4628 2.4628 2.4628 2.4628 2.4628 2.4442 2.435 2.426 2.4169 2.426 2.426 2.426 2.435 2.4442 2.4628 2.4816 2.5008 2.5399 2.53 2.5399 2.5499 2.56 2.5701 2.5701 2.56 2.5499 2.5399 2.5399 2.53 2.5399 2.5399 2.5399 2.5399 2.5201 2.5201 2.5104 2.5201 2.5104 2.5201 2.5201 2.5201 2.5201 2.5399 2.5499 2.56 2.56 2.5701 2.5802 2.5802 2.5802 2.5701 2.56 2.5399 2.5399 2.53 2.53 2.53 2.5201 2.5201 2.53 2.5399 2.5701 2.5701 2.601 2.622 2.6326 2.6326 2.6434 2.6434 2.6651 2.6761 2.6871 2.6871 2.6871 2.6761 2.6761 2.6761 2.6871 2.6761 2.6761 2.6761 2.6651 2.6543 2.6434 2.6434 2.6326 2.6115 2.6326 2.6434 2.6434 2.6543 2.6434 2.6434 2.6434 2.6651 2.6761 2.6984 2.6984 2.7325 2.7674 2.7793 2.7793
1.9284 1.9341 1.0259 1.0291 1.0308 1.0324 1.0424 1.0406 1.039 1.039 1.0424 1.0424 1.0424 1.039 1.0374 1.0374 1.0356 1.034 1.0356 1.0374 1.039 1.0374 1.039 1.039 1.039 1.0424 1.0424 1.0424 1.0424 1.0424 1.0424 1.0424 1.044 1.044 1.0474 1.0491 1.0491 1.0508 1.0525 1.0525 1.0525 1.0508 1.0508 1.0508 1.0491 1.0508 1.0508 1.0508 1.0508 1.0525 1.0541 1.0541 1.0594 1.0594 1.0611 1.0629 1.0645 1.0645 1.0662 1.0699 1.0716 1.0734 1.0716 1.0716 1.0734 1.0716 1.0734 1.0751 1.0769 1.0751 1.0751 1.0788 1.0788 1.0805 1.0788 1.0805 1.0788 1.0805 1.0824 1.0824 1.0841 1.0841 1.086 1.0841 1.0896 1.0933 1.0933 1.0933 1.0933 1.0951 1.097 1.097 1.097 1.0933 1.0896 1.0896 1.0896 1.0896 1.0896 1.0933 1.0951 1.0951 1.0951 1.0951 1.0989 1.1006 1.1025 1.1025 1.1025 1.1025 1.1044 1.1025 1.1006 1.1044 1.1025 1.1044 1.1062 1.1062 1.1101 1.1101 1.112 1.1159 1.1159 1.1178 1.1159 1.1159 1.1178 1.1196 1.1196 1.1196 1.1216 1.1216 1.1216 1.1196 1.1235 1.1235 1.1235 1.1255 1.1255 1.1255 1.1255 1.1294 1.1294 1.1314 1.1354 1.1374 1.1374 1.1374 1.1374 1.1394 1.1394 1.1434 1.1434 1.1434 1.1474 1.1474 1.1494 1.1494 1.1494 1.1515 1.1515 1.1515 1.1535 1.1535 1.1515 1.1535 1.1535 1.1556 1.1556 1.1598 1.1598 1.1618 1.1618 1.166 1.166 1.168 1.1701 1.168 1.1701 1.1701 1.1723 1.1744 1.1744 1.1723 1.1723 1.1723 1.1765 1.1786 1.1765 1.1765 1.1807 1.1807 2.3555 2.347 2.347 2.3385 2.3385 2.3385 2.3385 2.347 2.3385 2.347 2.3555 2.3555 2.3555 2.3555 2.3555 2.3555 2.347 2.3555 2.3555 2.3555 2.3555 2.364 2.364 2.3814 2.3814 2.3902 2.3727 2.3814 2.3814 2.3902 2.3902 2.399 2.399 2.399 2.3902 2.399 2.399 2.4079 2.3902 2.3902 2.4079 2.399 2.399 2.4079 2.426 2.426 2.426 2.4442 2.4442 2.4442 2.4628 2.4628 2.4535 2.4535 2.4442 2.4535 2.4628 2.4628 2.4628 2.4628 2.4628 2.4628 2.4721 2.4721 2.4911 2.4911 2.4721 2.4628 2.4628 2.4721 2.4628 2.4535 2.4442 2.435 2.426 2.426 2.426 2.435 2.4442 2.4442 2.4721 2.4816 2.4911 2.5399 2.53 2.5399 2.5499 2.56 2.5701 2.5701 2.56 2.5499 2.5399 2.53 2.53 2.5399 2.5499 2.5399 2.53 2.53 2.53 2.53 2.53 2.5201 2.5201 2.5201 2.53 2.5201 2.5701 2.5701 2.5701 2.5802 2.5802 2.601 2.601 2.5906 2.5906 2.5802 2.5701 2.5499 2.5499 2.56 2.56 2.56 2.5701 2.56 2.5701 2.5802 2.5906 2.6115 2.6326 2.622 2.6434 2.6434 2.6434 2.6651 2.6651 2.6761 2.6871 2.6871 2.6761 2.6761 2.6761 2.6871 2.6871 2.6651 2.6761 2.6651 2.6543 2.6651 2.6543 2.6434 2.622 2.6326 2.6434 2.6434 2.6434 2.6434 2.6326 2.6326 2.6651 2.6761 2.6984 2.7096 2.7325 2.7793 2.7793 2.7912
0 1.0259 1.0275 1.0291 1.0308 1.0324 1.039 1.039 1.039 1.039 1.0406 1.0424 1.0406 1.0374 1.0356 1.0356 1.0356 1.034 1.0356 1.0356 1.0374 1.0374 1.0374 1.0374 1.0374 1.0406 1.0406 1.039 1.039 1.039 1.0374 1.0374 1.0374 1.0406 1.0424 1.044 1.0474 1.0491 1.0508 1.0525 1.0525 1.0508 1.0508 1.0491 1.0491 1.0508 1.0508 1.0508 1.0525 1.0508 1.0525 1.0541 1.0559 1.0576 1.0594 1.0629 1.0629 1.0645 1.0645 1.0681 1.0734 1.0716 1.0716 1.0716 1.0716 1.0716 1.0716 1.0734 1.0751 1.0751 1.0734 1.0769 1.0769 1.0769 1.0788 1.0769 1.0788 1.0805 1.0805 1.0824 1.0824 1.0824 1.0824 1.0841 1.086 1.0933 1.0933 1.0914 1.0933 1.0933 1.0951 1.097 1.0951 1.0914 1.0896 1.0896 1.0877 1.0877 1.0896 1.0914 1.0933 1.0933 1.0933 1.0951 1.097 1.0989 1.0989 1.1006 1.1006 1.1006 1.1006 1.1006 1.0989 1.1025 1.1006 1.1044 1.1025 1.1044 1.1082 1.1082 1.112 1.1139 1.1139 1.1139 1.1139 1.1139 1.1159 1.1159 1.1178 1.1196 1.1178 1.1196 1.1196 1.1196 1.1216 1.1235 1.1235 1.1255 1.1255 1.1235 1.1235 1.1255 1.1294 1.1294 1.1334 1.1334 1.1354 1.1354 1.1354 1.1354 1.1374 1.1394 1.1394 1.1394 1.1454 1.1454 1.1494 1.1494 1.1515 1.1494 1.1494 1.1494 1.1535 1.1535 1.1535 1.1515 1.1515 1.1556 1.1556 1.1556 1.1598 1.1598 1.1618 1.1639 1.1639 1.168 1.168 1.166 1.168 1.168 1.1701 1.1701 1.1701 1.1701 1.1701 1.1723 1.1723 1.1744 1.1744 1.1744 1.1765 1.1765 2.347 2.3555 2.347 2.347 2.347 2.3385 2.3555 2.347 2.347 2.347 2.364 2.3555 2.364 2.3555 2.3555 2.347 2.3555 2.3555 2.3555 2.3555 2.364 2.364 2.364 2.3814 2.3902 2.3814 2.3814 2.3814 2.3814 2.3902 2.399 2.3902 2.399 2.3902 2.3902 2.3814 2.399 2.399 2.3814 2.3814 2.3902 2.3902 2.399 2.4079 2.4079 2.426 2.426 2.435 2.435 2.4442 2.4535 2.4535 2.4535 2.4442 2.4442 2.4535 2.4535 2.4535 2.4535 2.4535 2.4535 2.4628 2.4628 2.4721 2.4911 2.4911 2.4721 2.4721 2.4721 2.4721 2.4628 2.4535 2.4442 2.435 2.426 2.435 2.435 2.435 2.4442 2.4535 2.4721 2.4911 2.5008 2.5201 2.53 2.5201 2.5499 2.56 2.56 2.5701 2.5499 2.5499 2.5399 2.5399 2.53 2.5499 2.5499 2.5499 2.5399 2.53 2.53 2.53 2.5201 2.53 2.5201 2.53 2.5399 2.53 2.5701 2.5802 2.5802 2.5906 2.5906 2.6115 2.6115 2.6115 2.6115 2.5906 2.5802 2.56 2.56 2.56 2.5701 2.5802 2.5802 2.5802 2.5802 2.5906 2.601 2.622 2.6326 2.6326 2.6434 2.6326 2.6434 2.6651 2.6761 2.6761 2.6871 2.6871 2.6651 2.6651 2.6761 2.6761 2.6761 2.6651 2.6651 2.6543 2.6543 2.6543 2.6543 2.6326 2.622 2.622 2.6543 2.6434 2.6434 2.6434 2.6326 2.6326 2.6651 2.6761 2.6871 2.6984 2.721 2.7793 2.7793 2.7912
1.0308 1.0259 1.0275 1.0308 1.0308 1.0324 1.0356 1.0374 1.039 1.039 1.039 1.0406 1.0406 1.0356 1.0356 1.034 1.0324 1.0324 1.034 1.034 1.0356 1.0356 1.034 1.034 1.034 1.0356 1.0356 1.0356 1.034 1.034 1.034 1.034 1.034 1.0374 1.039 1.0424 1.0424 1.0456 1.0456 1.0491 1.0474 1.0491 1.0491 1.0474 1.0474 1.0474 1.0474 1.0491 1.0508 1.0508 1.0491 1.0525 1.0541 1.0559 1.0576 1.0594 1.0611 1.0611 1.0629 1.0662 1.0716 1.0734 1.0716 1.0716 1.0716 1.0716 1.0716 1.0734 1.0751 1.0734 1.0751 1.0734 1.0734 1.0734 1.0751 1.0751 1.0734 1.0788 1.0788 1.0788 1.0788 1.0805 1.0788 1.0805 1.0824 1.0914 1.0914 1.0914 1.0914 1.0933 1.0933 1.0951 1.0951 1.0914 1.0896 1.0896 1.0877 1.0877 1.0896 1.0896 1.0914 1.0914 1.0896 1.0896 1.0933 1.0933 1.0951 1.0951 1.097 1.097 1.097 1.0989 1.097 1.1006 1.1025 1.1025 1.1006 1.1044 1.1082 1.1082 1.1101 1.112 1.112 1.1101 1.1101 1.1101 1.112 1.1101 1.1101 1.1139 1.1139 1.1139 1.1159 1.1159 1.1178 1.1196 1.1216 1.1235 1.1235 1.1235 1.1235 1.1255 1.1275 1.1294 1.1314 1.1314 1.1334 1.1334 1.1334 1.1334 1.1354 1.1354 1.1354 1.1334 1.1414 1.1414 1.1454 1.1454 1.1454 1.1454 1.1474 1.1474 1.1535 1.1515 1.1515 1.1515 1.1515 1.1494 1.1494 1.1515 1.1556 1.1576 1.1576 1.1618 1.1618 1.1639 1.1639 1.1639 1.166 1.166 1.166 1.166 1.166 1.1639 1.1639 1.166 1.1701 1.1723 1.1723 1.1744 1.1744 1.1723 1.1723 2.3555 2.347 2.347 2.347 2.347 2.364 2.3555 2.3555 2.3555 2.364 2.364 2.364 2.3555 2.3555 2.3555 2.3555 2.3555 2.3555 2.3555 2.3555 2.364 2.364 2.3814 2.3902 2.3814 2.3814 2.3814 2.3814 2.3902 2.3902 2.3902 2.3902 2.3902 2.3814 2.3814 2.3814 2.3902 2.3727 2.3727 2.3727 2.3727 2.3814 2.3902 2.399 2.399 2.4079 2.426 2.426 2.435 2.435 2.4442 2.435 2.435 2.435 2.435 2.435 2.435 2.435 2.435 2.435 2.4442 2.4535 2.4442 2.4628 2.4721 2.4628 2.4721 2.4628 2.4721 2.4628 2.4535 2.4442 2.435 2.435 2.426 2.435 2.4442 2.4442 2.4535 2.4721 2.4816 2.5008 2.5104 2.5104 2.5201 2.53 2.5399 2.5499 2.5499 2.53 2.53 2.5201 2.53 2.5399 2.5399 2.5499 2.5499 2.5399 2.53 2.53 2.53 2.53 2.53 2.5201 2.5201 2.53 2.5399 2.5701 2.5802 2.5802 2.5906 2.601 2.6115 2.622 2.6115 2.622 2.601 2.5906 2.5701 2.5701 2.5701 2.5802 2.5906 2.5906 2.5802 2.5802 2.601 2.601 2.6326 2.6326 2.6434 2.6434 2.6434 2.6434 2.6651 2.6651 2.6761 2.6871 2.6871 2.6651 2.6543 2.6651 2.6761 2.6761 2.6651 2.6651 2.6651 2.6434 2.6434 2.6434 2.622 2.622 2.622 2.6434 2.6326 2.6326 2.6326 2.6115 2.622 2.6651 2.6761 2.6871 2.6984 2.7096 2.7556 2.7556 2.7793
1.0291 1.0291 1.0291 1.0308 1.0308 1.0324 1.034 1.0356 1.0374 1.0374 1.039 1.039 1.039 1.0356 1.034 1.034 1.0324 1.0324 1.034 1.0324 1.034 1.034 1.034 1.034 1.0324 1.0324 1.034 1.0324 1.0324 1.0324 1.034 1.034 1.0324 1.0374 1.039 1.0424 1.0424 1.044 1.0456 1.0474 1.0456 1.0474 1.0474 1.0456 1.0456 1.0474 1.0474 1.0474 1.0491 1.0508 1.0491 1.0491 1.0559 1.0559 1.0576 1.0594 1.0611 1.0611 1.0611 1.0645 1.0716 1.0734 1.0716 1.0716 1.0734 1.0734 1.0751 1.0751 1.0769 1.0751 1.0751 1.0734 1.0734 1.0734 1.0734 1.0734 1.0751 1.0751 1.0769 1.0751 1.0769 1.0788 1.0788 1.0788 1.0824 1.0914 1.0896 1.0914 1.0914 1.0933 1.0951 1.0933 1.0951 1.0933 1.0914 1.0914 1.0914 1.0914 1.0914 1.0914 1.0914 1.0896 1.0914 1.0896 1.0933 1.0914 1.0933 1.0951 1.0951 1.097 1.097 1.0989 1.0989 1.1025 1.1025 1.1062 1.1044 1.1044 1.1101 1.1082 1.1101 1.1139 1.112 1.1082 1.1082 1.1082 1.1082 1.1082 1.1082 1.1101 1.1101 1.112 1.1139 1.1139 1.1178 1.1178 1.1216 1.1235 1.1255 1.1255 1.1255 1.1255 1.1275 1.1275 1.1294 1.1314 1.1314 1.1314 1.1314 1.1334 1.1354 1.1334 1.1334 1.1334 1.1394 1.1394 1.1434 1.1434 1.1434 1.1454 1.1454 1.1474 1.1535 1.1515 1.1515 1.1494 1.1494 1.1494 1.1494 1.1494 1.1556 1.1556 1.1576 1.1598 1.1618 1.1639 1.1639 1.1618 1.1639 1.166 1.166 1.166 1.166 1.1639 1.166 1.166 1.1701 1.1723 1.1701 1.1723 1.1723 1.1723 1.1723 0 2.3727 2.3727 2.364 2.364 2.3727 2.3727 2.3727 2.364 2.3727 2.3555 2.364 2.3555 2.347 2.347 2.347 2.364 2.3555 2.3555 2.3555 2.364 2.364 2.3902 2.3902 2.3814 2.3814 2.3814 2.3814 2.3902 2.399 2.3902 2.3902 2.3902 2.3902 2.3814 2.3814 2.3902 2.3727 2.3727 2.3727 2.3727 2.3814 2.3902 2.3902 2.399 2.399 2.426 2.426 2.435 2.435 2.435 2.426 2.435 2.435 2.426 2.435 2.426 2.4169 2.426 2.426 2.4442 2.435 2.4442 2.4442 2.4535 2.4535 2.4628 2.4628 2.4628 2.4535 2.4535 2.4628 2.4535 2.4535 2.4442 2.4442 2.4535 2.4535 2.4535 2.4816 2.4911 2.5008 2.5104 2.5104 2.5201 2.53 2.5399 2.53 2.5399 2.5201 2.5201 2.5201 2.5201 2.5399 2.5499 2.5499 2.5499 2.5499 2.5499 2.5399 2.5399 2.53 2.53 2.5201 2.5201 2.53 2.53 2.5802 2.5802 2.5906 2.5906 2.6115 2.6326 2.6434 2.6434 2.6434 2.622 2.601 2.5906 2.5802 2.5906 2.5906 2.5906 2.601 2.5906 2.5906 2.601 2.6115 2.6434 2.6543 2.6651 2.6543 2.6651 2.6651 2.6871 2.6871 2.6871 2.6871 2.6871 2.6984 2.6984 2.6984 2.6984 2.6984 2.6871 2.6761 2.6761 2.6651 2.6543 2.6543 2.6326 2.622 2.6326 2.6326 2.6326 2.6326 2.622 2.6115 2.601 2.6651 2.6651 2.6871 2.6871 2.6984 2.744 2.7556 2.7674
1.0308 1.0291 1.0291 1.0308 1.0324 1.0324 1.034 1.0356 1.0374 1.0374 1.0374 1.039 1.039 1.034 1.034 1.034 1.0308 1.0308 1.0308 1.0308 1.0324 1.0308 1.0324 1.0308 1.0308 1.0308 1.0324 1.0324 1.0324 1.0324 1.0308 1.0324 1.034 1.0356 1.039 1.039 1.044 1.044 1.0456 1.0456 1.044 1.0474 1.0474 1.0456 1.044 1.0474 1.0474 1.0491 1.0508 1.0474 1.0474 1.0508 1.0525 1.0541 1.0576 1.0576 1.0611 1.0611 1.0629 1.0645 1.0716 1.0716 1.0716 1.0734 1.0734 1.0734 1.0734 1.0751 1.0751 1.0751 1.0734 1.0734 1.0716 1.0716 1.0734 1.0716 1.0734 1.0751 1.0769 1.0751 1.0769 1.0769 1.0788 1.0788 1.0824 1.0896 1.0914 1.0914 1.0933 1.0933 1.0951 1.0951 1.0951 1.0933 1.0933 1.0896 1.0896 1.0914 1.0914 1.0914 1.0914 1.0877 1.0896 1.0914 1.0914 1.0933 1.0933 1.0933 1.0951 1.0933 1.0989 1.0989 1.1006 1.1006 1.1044 1.1062 1.1044 1.1062 1.1101 1.1082 1.1101 1.112 1.112 1.1062 1.1062 1.1082 1.1062 1.1062 1.1062 1.1082 1.1101 1.1101 1.1101 1.112 1.1159 1.1178 1.1196 1.1235 1.1235 1.1255 1.1255 1.1255 1.1255 1.1294 1.1294 1.1314 1.1314 1.1294 1.1334 1.1334 1.1334 1.1334 1.1334 1.1354 1.1374 1.1394 1.1434 1.1434 1.1434 1.1454 1.1434 1.1454 1.1535 1.1515 1.1494 1.1474 1.1474 1.1494 1.1494 1.1515 1.1515 1.1556 1.1556 1.1598 1.1598 1.1618 1.1618 1.1618 1.1639 1.1639 1.1639 1.1639 1.1639 1.1618 1.166 1.166 1.1701 1.1701 1.1723 1.1723 1.1744 1.1744 1.1786 1.1786 1.1786 0 2.3727 2.3727 2.3727 2.3727 2.364 2.3555 2.364 2.347 2.347 2.347 2.3385 2.3385 2.347 2.3555 2.3555 2.3555 2.3555 2.364 2.3727 2.3902 2.3902 2.3902 2.3902 2.3814 2.3814 2.3902 2.399 2.399 2.3902 2.3902 2.3902 2.3902 2.3902 2.3902 2.3727 2.3727 2.3727 2.3727 2.3902 2.3902 2.399 2.399 2.4079 2.4169 2.426 2.426 2.4442 2.435 2.426 2.426 2.426 2.435 2.435 2.4169 2.4169 2.4169 2.426 2.4442 2.435 2.435 2.4442 2.4442 2.4535 2.4535 2.4535 2.4628 2.4442 2.4535 2.4535 2.4535 2.4535 2.4442 2.4442 2.4535 2.4535 2.4628 2.4721 2.4816 2.5008 2.5008 2.5104 2.5104 2.53 2.53 2.5399 2.53 2.5201 2.5201 2.5104 2.5201 2.5399 2.5499 2.5399 2.5499 2.5499 2.5399 2.5499 2.5399 2.5499 2.53 2.53 2.5201 2.53 2.53 2.5906 2.5802 2.601 2.601 2.601 2.6326 2.6326 2.6434 2.6326 2.622 2.5906 2.5906 2.5802 2.5906 2.5906 2.5906 2.5802 2.5802 2.5802 2.601 2.6115 2.6434 2.6543 2.6543 2.6651 2.6651 2.6761 2.6871 2.6871 2.6984 2.6984 2.6871 2.6984 2.6984 2.6984 2.6984 2.6984 2.6871 2.6871 2.6761 2.6651 2.6543 2.6543 2.6434 2.622 2.622 2.6326 2.622 2.622 2.622 2.6115 2.6115 2.6543 2.6761 2.6871 2.7096 2.7096 2.744 2.7556 2.7674
1.0324 1.0308 1.0308 1.0324 1.0324 1.0324 1.034 1.034 1.0356 1.034 1.034 1.0356 1.0356 1.034 1.034 1.0324 1.0291 1.0291 1.0308 1.0291 1.0291 1.0291 1.0275 1.0275 1.0291 1.0291 1.0308 1.0308 1.0308 1.0308 1.0308 1.0308 1.0324 1.034 1.0374 1.0374 1.0406 1.0406 1.0424 1.044 1.044 1.044 1.044 1.044 1.044 1.0456 1.0456 1.0491 1.0508 1.0474 1.0474 1.0491 1.0541 1.0541 1.0559 1.0559 1.0576 1.0576 1.0611 1.0629 1.0699 1.0699 1.0699 1.0699 1.0699 1.0716 1.0734 1.0734 1.0716 1.0734 1.0716 1.0699 1.0699 1.0716 1.0716 1.0699 1.0716 1.0716 1.0716 1.0734 1.0716 1.0734 1.0734 1.0734 1.0769 1.0841 1.0877 1.0877 1.0896 1.0933 1.0933 1.0933 1.0951 1.0933 1.0914 1.0914 1.0914 1.0914 1.0896 1.0896 1.0896 1.0877 1.0877 1.0896 1.0896 1.0914 1.0933 1.0933 1.0951 1.0951 1.0989 1.0989 1.1006 1.1006 1.1025 1.1062 1.1044 1.1062 1.1082 1.1082 1.1082 1.1101 1.1101 1.1044 1.1044 1.1044 1.1044 1.1044 1.1044 1.1082 1.1082 1.1101 1.1082 1.1101 1.1159 1.1178 1.1178 1.1235 1.1235 1.1235 1.1255 1.1255 1.1255 1.1275 1.1275 1.1275 1.1275 1.1275 1.1294 1.1294 1.1294 1.1334 1.1334 1.1334 1.1394 1.1414 1.1434 1.1454 1.1454 1.1454 1.1454 1.1454 1.1515 1.1515 1.1494 1.1494 1.1494 1.1494 1.1494 1.1494 1.1515 1.1515 1.1535 1.1576 1.1576 1.1598 1.1598 1.1598 1.1618 1.1618 1.1618 1.1618 1.1618 1.1618 1.1639 1.166 1.1701 1.1701 1.1701 1.1723 1.1744 1.1744 1.1786 1.1765 1.1786 0 2.3727 2.3727 2.364 2.364 2.3555 2.3555 2.3555 2.3555 2.347 2.347 2.3385 2.3385 2.3385 2.3555 2.347 2.3555 2.3727 2.3727 2.3814 2.399 2.4079 2.3902 2.3902 2.3902 2.399 2.399 2.399 2.399 2.399 2.3902 2.3902 2.3902 2.399 2.399 2.3814 2.3814 2.3902 2.3814 2.3902 2.399 2.399 2.4079 2.4079 2.4169 2.435 2.426 2.435 2.435 2.426 2.4169 2.426 2.426 2.426 2.4169 2.4169 2.4169 2.4169 2.426 2.426 2.426 2.426 2.426 2.426 2.4442 2.4442 2.4535 2.4442 2.4442 2.4535 2.4535 2.4442 2.4442 2.4535 2.4535 2.4628 2.4628 2.4721 2.4816 2.5008 2.5008 2.5008 2.5008 2.53 2.5201 2.53 2.53 2.5104 2.5104 2.5104 2.5104 2.53 2.5399 2.5499 2.5399 2.5399 2.5399 2.5499 2.5399 2.5499 2.53 2.53 2.53 2.53 2.53 2.5906 2.5802 2.5802 2.5906 2.5906 2.6115 2.6115 2.622 2.622 2.6115 2.5802 2.5802 2.5802 2.5906 2.5802 2.5906 2.5802 2.5802 2.5701 2.601 2.601 2.6434 2.6434 2.6543 2.6651 2.6651 2.6761 2.6984 2.6984 2.6984 2.7096 2.7096 2.6984 2.6984 2.7096 2.6984 2.7096 2.6984 2.6984 2.6871 2.6761 2.6651 2.6651 2.6543 2.6434 2.6326 2.6326 2.6326 2.622 2.6115 2.6115 2.6115 2.6543 2.6761 2.6984 2.7096 2.721 2.7556 2.7556 2.7793
1.0324 1.0308 1.0308 1.0324 1.0308 1.0324 1.0324 1.034 1.0356 1.034 1.034 1.034 1.0356 1.034 1.0324 1.0324 1.0291 1.0291 1.0291 1.0291 1.0308 1.0259 1.0275 1.0259 1.0275 1.0275 1.0308 1.0308 1.0308 1.0308 1.0291 1.0308 1.0308 1.0356 1.0374 1.0356 1.0374 1.0406 1.0406 1.0424 1.044 1.0424 1.044 1.044 1.044 1.0474 1.0456 1.0508 1.0491 1.0491 1.0491 1.0508 1.0525 1.0541 1.0541 1.0576 1.0559 1.0576 1.0594 1.0629 1.0645 1.0681 1.0699 1.0681 1.0681 1.0699 1.0716 1.0716 1.0699 1.0699 1.0681 1.0681 1.0681 1.0699 1.0699 1.0699 1.0699 1.0699 1.0699 1.0699 1.0699 1.0716 1.0699 1.0716 1.0734 1.0788 1.0824 1.0841 1.0877 1.0914 1.0914 1.0914 1.0933 1.0933 1.0896 1.0896 1.0914 1.0914 1.0896 1.0896 1.0896 1.0877 1.0877 1.0896 1.0896 1.0914 1.0933 1.0933 1.0951 1.0951 1.097 1.0989 1.1006 1.1006 1.1025 1.1062 1.1044 1.1062 1.1082 1.1082 1.1082 1.1101 1.1101 1.1062 1.1044 1.1062 1.1044 1.1025 1.1044 1.1082 1.1082 1.1082 1.1101 1.1101 1.1139 1.1159 1.1178 1.1196 1.1216 1.1235 1.1255 1.1255 1.1275 1.1255 1.1275 1.1255 1.1275 1.1255 1.1275 1.1294 1.1314 1.1314 1.1334 1.1334 1.1394 1.1414 1.1434 1.1454 1.1454 1.1474 1.1474 1.1474 1.1515 1.1515 1.1494 1.1474 1.1494 1.1494 1.1474 1.1494 1.1515 1.1535 1.1535 1.1535 1.1576 1.1576 1.1576 1.1598 1.1598 1.1618 1.1618 1.1618 1.1618 1.1618 1.1639 1.166 1.168 1.168 1.1701 1.1701 1.1744 1.1744 1.1765 1.1765 1.1765 1.183 0 2.364 2.3727 2.3555 2.3555 2.364 2.3555 2.3555 2.3555 2.347 2.347 2.347 2.347 2.347 2.3555 2.3555 2.3727 2.3814 2.3902 2.399 2.4079 2.399 2.399 2.3902 2.3902 2.399 2.399 2.399 2.399 2.3902 2.399 2.399 2.399 2.399 2.3902 2.3902 2.3814 2.3814 2.399 2.4079 2.4079 2.4079 2.4079 2.426 2.426 2.435 2.435 2.4442 2.426 2.426 2.426 2.426 2.435 2.4169 2.4169 2.4169 2.4169 2.426 2.4169 2.426 2.4169 2.4169 2.426 2.435 2.4442 2.4442 2.4442 2.4442 2.4535 2.4535 2.4535 2.4442 2.4442 2.4535 2.4721 2.4535 2.4721 2.4816 2.4911 2.5104 2.5008 2.5008 2.53 2.53 2.5201 2.5201 2.5104 2.5104 2.5104 2.5104 2.53 2.5399 2.53 2.53 2.5399 2.5399 2.5399 2.5399 2.5499 2.5399 2.5201 2.5201 2.53 2.5399 2.5802 2.5701 2.5802 2.5802 2.5802 2.601 2.6115 2.6115 2.622 2.6115 2.5906 2.5906 2.5906 2.5906 2.601 2.5906 2.5906 2.5906 2.5802 2.601 2.6115 2.6326 2.6326 2.6434 2.6543 2.6651 2.6761 2.6984 2.6984 2.6984 2.6984 2.6984 2.6984 2.6984 2.6984 2.6984 2.7096 2.7096 2.6984 2.6984 2.6761 2.6761 2.6761 2.6543 2.6434 2.6434 2.6326 2.622 2.622 2.6115 2.6115 2.6115 2.6651 2.6761 2.6984 2.721 2.721 2.7556 2.7674 2.7674
1.0308 1.0324 1.0308 1.0308 1.0308 1.0308 1.0308 1.0324 1.0308 1.0308 1.0324 1.0308 1.0324 1.0308 1.0308 1.0275 1.0275 1.0275 1.0275 1.0291 1.0291 1.0275 1.0275 1.0259 1.0275 1.0275 1.0291 1.0291 1.0291 1.0291 1.0275 1.0291 1.0291 1.034 1.0356 1.0356 1.0374 1.039 1.039 1.0406 1.0424 1.044 1.0456 1.044 1.044 1.0456 1.0474 1.0508 1.0508 1.0491 1.0491 1.0508 1.0525 1.0525 1.0525 1.0559 1.0559 1.0559 1.0576 1.0611 1.0629 1.0645 1.0662 1.0681 1.0662 1.0662 1.0681 1.0681 1.0681 1.0681 1.0681 1.0662 1.0645 1.0662 1.0662 1.0681 1.0681 1.0681 1.0681 1.0699 1.0681 1.0699 1.0699 1.0699 1.0716 1.0769 1.0805 1.0824 1.086 1.0877 1.0896 1.0896 1.0896 1.0914 1.0896 1.0877 1.0896 1.0896 1.0896 1.0877 1.0877 1.0877 1.0896 1.0896 1.0914 1.0914 1.0914 1.0951 1.0951 1.0951 1.0989 1.0989 1.1006 1.1006 1.1025 1.1062 1.1044 1.1044 1.1062 1.1062 1.1082 1.1082 1.1062 1.1044 1.1025 1.1025 1.1044 1.1025 1.1044 1.1062 1.1062 1.1062 1.1062 1.1082 1.1101 1.112 1.1159 1.1178 1.1196 1.1178 1.1196 1.1196 1.1216 1.1216 1.1235 1.1255 1.1255 1.1235 1.1255 1.1275 1.1294 1.1294 1.1314 1.1334 1.1394 1.1394 1.1414 1.1394 1.1414 1.1414 1.1414 1.1414 1.1474 1.1474 1.1515 1.1494 1.1494 1.1474 1.1474 1.1474 1.1515 1.1515 1.1515 1.1515 1.1515 1.1535 1.1556 1.1556 1.1576 1.1576 1.1576 1.1618 1.1598 1.1618 1.1639 1.1639 1.168 1.168 1.168 1.1701 1.1723 1.1723 1.1744 1.1744 1.1744 1.1744 1.1765 1.1786 2.3727 2.364 2.3727 2.364 2.364 2.3555 2.364 2.3555 2.347 2.347 2.347 2.347 2.347 2.347 2.364 2.3727 2.3814 2.3902 2.3902 2.3814 2.3814 2.364 2.364 2.3727 2.3727 2.3727 2.3814 2.3727 2.3727 2.3814 2.3814 2.3902 2.3814 2.3902 2.3902 2.399 2.399 2.4079 2.4169 2.426 2.4079 2.4169 2.426 2.435 2.435 2.435 2.426 2.4169 2.426 2.4169 2.426 2.4169 2.4169 2.4169 2.4169 2.4169 2.4169 2.4079 2.4169 2.4169 2.426 2.435 2.435 2.4442 2.435 2.435 2.4442 2.4442 2.4442 2.4442 2.4442 2.4535 2.4628 2.4535 2.4628 2.4721 2.4911 2.4911 2.4911 2.4911 2.5104 2.5104 2.5104 2.5201 2.5104 2.5104 2.5104 2.5104 2.53 2.5399 2.53 2.5201 2.53 2.5399 2.5399 2.5399 2.5499 2.5499 2.53 2.53 2.5399 2.5499 2.5802 2.5802 2.5701 2.5701 2.5701 2.5802 2.5906 2.601 2.5906 2.5701 2.56 2.56 2.56 2.5701 2.5802 2.5802 2.5802 2.5701 2.5701 2.5802 2.5906 2.6115 2.6115 2.6115 2.6115 2.6115 2.6326 2.6761 2.6984 2.6984 2.6984 2.6984 2.7096 2.7096 2.6984 2.7096 2.7096 2.7096 2.7096 2.7096 2.6761 2.6651 2.6651 2.6543 2.6434 2.6434 2.6326 2.622 2.622 2.622 2.6115 2.622 2.6651 2.6871 2.7096 2.7096 2.721 2.7674 2.7674 2.7793
1.0308 1.0308 1.0324 1.0308 1.0308 1.0308 1.0291 1.0308 1.0308 1.0291 1.0308 1.0308 1.0308 1.0291 1.0275 1.0259 1.0259 1.0259 1.0275 1.0275 1.0291 1.0275 1.0259 1.0259 1.0275 1.0275 1.0291 1.0291 1.0291 1.0291 1.0275 1.0291 1.0308 1.0308 1.034 1.034 1.0374 1.0374 1.039 1.0406 1.0406 1.0406 1.0424 1.044 1.0456 1.0456 1.0474 1.0508 1.0508 1.0508 1.0508 1.0525 1.0525 1.0525 1.0541 1.0559 1.0559 1.0559 1.0576 1.0594 1.0611 1.0629 1.0645 1.0662 1.0662 1.0662 1.0662 1.0662 1.0662 1.0681 1.0681 1.0645 1.0629 1.0662 1.0662 1.0662 1.0662 1.0681 1.0681 1.0681 1.0681 1.0699 1.0681 1.0681 1.0716 1.0788 1.0805 1.0805 1.0841 1.0841 1.086 1.0877 1.0896 1.0877 1.0877 1.0877 1.0877 1.0896 1.0896 1.0877 1.0877 1.0877 1.0896 1.0896 1.0914 1.0914 1.0914 1.0951 1.0951 1.0951 1.097 1.0989 1.1006 1.1044 1.1062 1.1062 1.1062 1.1044 1.1062 1.1062 1.1062 1.1082 1.1062 1.1044 1.1025 1.1025 1.1025 1.1025 1.1044 1.1062 1.1062 1.1062 1.1062 1.1082 1.112 1.1139 1.1139 1.1196 1.1196 1.1196 1.1196 1.1216 1.1216 1.1216 1.1216 1.1235 1.1235 1.1216 1.1235 1.1255 1.1255 1.1294 1.1314 1.1314 1.1374 1.1394 1.1394 1.1394 1.1394 1.1414 1.1414 1.1434 1.1454 1.1474 1.1494 1.1515 1.1494 1.1474 1.1474 1.1494 1.1515 1.1515 1.1515 1.1515 1.1515 1.1515 1.1535 1.1535 1.1576 1.1576 1.1576 1.1598 1.1598 1.1598 1.166 1.1639 1.166 1.166 1.166 1.1701 1.1723 1.1723 1.1723 1.1723 1.1744 1.1744 1.1744 1.1786 0 2.3902 2.3814 2.3814 2.3727 2.364 2.364 2.3555 2.347 2.347 2.347 2.347 2.3555 2.3555 2.364 2.3727 2.3727 2.3902 2.3902 2.3727 2.3727 2.364 2.364 2.364 2.364 2.3727 2.364 2.364 2.3814 2.3902 2.3814 2.3902 2.3814 2.3902 2.4079 2.4079 2.4169 2.4169 2.426 2.435 2.426 2.426 2.435 2.435 2.4442 2.4442 2.435 2.426 2.426 2.426 2.435 2.4169 2.4169 2.426 2.4079 2.4079 2.4079 2.4079 2.4079 2.4079 2.426 2.426 2.426 2.4442 2.4442 2.4442 2.4442 2.4442 2.4535 2.4442 2.4535 2.4721 2.4816 2.4721 2.4816 2.4911 2.5008 2.5008 2.5008 2.5008 2.5201 2.5201 2.5104 2.53 2.5201 2.5201 2.5201 2.5201 2.53 2.5399 2.5399 2.53 2.53 2.53 2.53 2.5399 2.5499 2.5499 2.53 2.5399 2.5499 2.56 2.5802 2.5802 2.5802 2.5802 2.5701 2.5802 2.5906 2.601 2.601 2.5802 2.56 2.56 2.56 2.5701 2.5906 2.5802 2.5802 2.5701 2.56 2.5802 2.5906 2.601 2.601 2.601 2.601 2.601 2.622 2.6651 2.6871 2.6871 2.6984 2.7096 2.721 2.7325 2.721 2.721 2.721 2.721 2.7096 2.7096 2.6871 2.6651 2.6651 2.6651 2.6543 2.6543 2.6434 2.6326 2.6326 2.6326 2.6326 2.6434 2.6761 2.6984 2.7096 2.721 2.721 2.7556 2.7793 2.7912
1.0324 1.0324 1.0308 1.0308 1.0308 1.0291 1.0291 1.0291 1.0291 1.0291 1.0291 1.0308 1.0291 1.0259 1.0259 1.0259 1.0243 1.0259 1.0259 1.0275 1.0275 1.0275 1.0259 1.0259 1.0275 1.0291 1.0291 1.0291 1.0291 1.0291 1.0275 1.0275 1.0291 1.0308 1.0324 1.034 1.034 1.0356 1.0356 1.039 1.039 1.039 1.0406 1.0424 1.044 1.0456 1.0474 1.0508 1.0508 1.0508 1.0508 1.0508 1.0541 1.0525 1.0541 1.0559 1.0559 1.0559 1.0576 1.0594 1.0594 1.0629 1.0629 1.0645 1.0645 1.0645 1.0645 1.0629 1.0645 1.0662 1.0662 1.0645 1.0611 1.0629 1.0662 1.0662 1.0645 1.0662 1.0662 1.0662 1.0662 1.0662 1.0681 1.0681 1.0699 1.0769 1.0788 1.0805 1.0805 1.0824 1.0824 1.086 1.086 1.086 1.086 1.0877 1.0896 1.0896 1.0896 1.0896 1.0896 1.0896 1.0896 1.0914 1.0896 1.0914 1.0933 1.0951 1.0951 1.0951 1.097 1.0989 1.0989 1.1025 1.1044 1.1062 1.1062 1.1044 1.1044 1.1044 1.1062 1.1062 1.1062 1.1025 1.1025 1.1025 1.1025 1.1044 1.1044 1.1082 1.1082 1.1062 1.1082 1.1082 1.1139 1.112 1.1159 1.1196 1.1216 1.1196 1.1196 1.1196 1.1235 1.1216 1.1216 1.1216 1.1216 1.1196 1.1216 1.1235 1.1235 1.1275 1.1275 1.1294 1.1354 1.1374 1.1394 1.1394 1.1394 1.1394 1.1394 1.1394 1.1474 1.1474 1.1515 1.1515 1.1515 1.1474 1.1494 1.1494 1.1494 1.1494 1.1515 1.1515 1.1494 1.1515 1.1515 1.1535 1.1576 1.1556 1.1576 1.1598 1.1598 1.1618 1.1639 1.166 1.1639 1.1639 1.166 1.1701 1.1723 1.1723 1.1744 1.1723 1.1723 1.1744 1.1744 1.1723 1.1744 1.1765 2.3814 2.3814 2.3727 2.364 2.3727 2.364 2.347 2.3385 2.347 2.3555 2.3555 2.3555 2.364 2.3727 2.3727 2.3814 2.3727 2.3727 2.3727 2.3555 2.364 2.364 2.364 2.3727 2.364 2.364 2.3814 2.3902 2.3902 2.3902 2.3814 2.3902 2.399 2.4079 2.4169 2.4169 2.435 2.4442 2.426 2.426 2.4442 2.4442 2.4442 2.4442 2.4442 2.4442 2.435 2.426 2.435 2.4169 2.4169 2.4169 2.4079 2.399 2.399 2.399 2.399 2.4079 2.4079 2.4169 2.426 2.4442 2.435 2.435 2.4535 2.4442 2.4535 2.4442 2.4535 2.4911 2.5008 2.4816 2.4911 2.5008 2.5008 2.5104 2.5104 2.5104 2.53 2.5104 2.5201 2.53 2.53 2.53 2.53 2.53 2.5399 2.5499 2.5399 2.53 2.5399 2.53 2.5201 2.53 2.5499 2.5399 2.5399 2.5399 2.5499 2.5701 2.5802 2.5802 2.5802 2.5802 2.5802 2.5906 2.5906 2.601 2.601 2.5802 2.5701 2.56 2.56 2.5802 2.5802 2.5802 2.5906 2.5802 2.5701 2.5701 2.5906 2.5906 2.5906 2.5906 2.601 2.5906 2.601 2.6651 2.6761 2.6871 2.6984 2.7096 2.721 2.7325 2.7325 2.7325 2.7325 2.7325 2.7325 2.721 2.6871 2.6761 2.6651 2.6651 2.6651 2.6543 2.6543 2.6326 2.6326 2.6434 2.6434 2.6434 2.6871 2.6984 2.7096 2.7096 2.7096 2.7556 2.7674 2.7793
1.0291 1.0291 1.0291 1.0275 1.0275 1.0259 1.0275 1.0275 1.0275 1.0259 1.0275 1.0275 1.0275 1.0259 1.0243 1.0259 1.0226 1.0226 1.0243 1.0243 1.0259 1.0243 1.0243 1.0259 1.0243 1.0259 1.0259 1.0275 1.0259 1.0259 1.0259 1.0275 1.0275 1.0308 1.0308 1.0324 1.034 1.034 1.034 1.0374 1.0374 1.0374 1.039 1.0406 1.0424 1.044 1.0456 1.0508 1.0508 1.0508 1.0508 1.0525 1.0508 1.0491 1.0491 1.0525 1.0525 1.0525 1.0525 1.0559 1.0559 1.0611 1.0629 1.0645 1.0629 1.0629 1.0645 1.0629 1.0629 1.0645 1.0645 1.0611 1.0594 1.0594 1.0611 1.0611 1.0576 1.0594 1.0594 1.0594 1.0611 1.0611 1.0629 1.0629 1.0645 1.0716 1.0734 1.0751 1.0769 1.0769 1.0788 1.0805 1.0824 1.0841 1.0841 1.0841 1.0896 1.0877 1.0877 1.0896 1.0896 1.0896 1.0914 1.0914 1.0914 1.0914 1.0914 1.0951 1.0951 1.0951 1.0951 1.097 1.0989 1.1006 1.1025 1.1044 1.1025 1.1044 1.1025 1.1025 1.1025 1.1025 1.1025 1.1025 1.1006 1.1006 1.1006 1.1025 1.1025 1.1062 1.1062 1.1082 1.1082 1.1101 1.1139 1.1159 1.1178 1.1196 1.1216 1.1196 1.1216 1.1235 1.1216 1.1216 1.1216 1.1196 1.1196 1.1196 1.1196 1.1216 1.1235 1.1255 1.1275 1.1275 1.1314 1.1334 1.1374 1.1374 1.1374 1.1374 1.1354 1.1374 1.1414 1.1454 1.1454 1.1515 1.1494 1.1474 1.1494 1.1474 1.1494 1.1494 1.1474 1.1494 1.1494 1.1494 1.1494 1.1515 1.1535 1.1535 1.1556 1.1576 1.1576 1.1598 1.1618 1.1618 1.1639 1.1639 1.1639 1.168 1.1723 1.1723 1.1723 1.1701 1.1701 1.1723 1.1723 1.1744 1.1765 1.1765 2.3727 2.3727 2.3727 2.364 2.364 2.3555 2.347 2.347 2.347 2.3555 2.3555 2.3555 2.3555 2.3727 2.3727 2.3727 2.3727 2.364 2.364 2.3555 2.3555 2.364 2.364 2.364 2.364 2.3555 2.3727 2.3814 2.3902 2.3902 2.3814 2.3902 2.399 2.4079 2.4169 2.4169 2.435 2.4442 2.426 2.435 2.4442 2.4535 2.4535 2.4535 2.4442 2.4442 2.4442 2.435 2.435 2.426 2.4169 2.4079 2.399 2.3902 2.3902 2.3814 2.3902 2.399 2.399 2.4079 2.4169 2.435 2.4442 2.435 2.4535 2.4535 2.4535 2.4535 2.4628 2.4911 2.5008 2.4911 2.5008 2.5104 2.5201 2.5104 2.5201 2.5201 2.53 2.53 2.5201 2.53 2.53 2.53 2.5399 2.5399 2.5499 2.5399 2.5399 2.53 2.5399 2.53 2.5201 2.53 2.5499 2.5399 2.53 2.5399 2.5499 2.5499 2.56 2.5701 2.5701 2.5701 2.56 2.5701 2.5802 2.5906 2.5906 2.5802 2.56 2.5701 2.56 2.5701 2.5802 2.5701 2.5701 2.5499 2.5499 2.56 2.5701 2.5802 2.5802 2.5906 2.5906 2.5906 2.601 2.6434 2.6543 2.6651 2.6871 2.7096 2.7325 2.744 2.7325 2.7325 2.744 2.744 2.744 2.7325 2.6984 2.6761 2.6761 2.6651 2.6651 2.6651 2.6651 2.6434 2.6434 2.6543 2.6543 2.6543 2.6871 2.6984 2.7096 2.7096 2.721 2.744 2.7674 2.7793
1.0291 1.0291 1.0275 1.0259 1.0259 1.0243 1.0259 1.0259 1.0275 1.0259 1.0259 1.0275 1.0275 1.0243 1.0243 1.0226 1.0226 1.0226 1.0226 1.0243 1.0243 1.0226 1.0243 1.0243 1.0243 1.0243 1.0243 1.0259 1.0243 1.0243 1.0243 1.0259 1.0275 1.0291 1.0308 1.0308 1.034 1.034 1.034 1.0374 1.0374 1.0374 1.039 1.0406 1.0424 1.044 1.0456 1.0525 1.0525 1.0508 1.0525 1.0508 1.0508 1.0474 1.0491 1.0491 1.0508 1.0508 1.0525 1.0525 1.0559 1.0576 1.0611 1.0645 1.0645 1.0629 1.0629 1.0629 1.0629 1.0629 1.0629 1.0594 1.0594 1.0594 1.0576 1.0576 1.0559 1.0576 1.0576 1.0576 1.0594 1.0594 1.0611 1.0611 1.0629 1.0716 1.0734 1.0751 1.0769 1.0769 1.0769 1.0788 1.0805 1.0824 1.0824 1.0841 1.086 1.086 1.0877 1.0877 1.0896 1.0877 1.0914 1.0896 1.0914 1.0914 1.0914 1.0951 1.0951 1.0951 1.0951 1.097 1.0989 1.0989 1.1006 1.1025 1.1025 1.1006 1.1025 1.1025 1.1025 1.1025 1.1025 1.1006 1.1025 1.1025 1.1025 1.1025 1.1044 1.1082 1.1062 1.1082 1.1101 1.112 1.1139 1.1178 1.1178 1.1216 1.1235 1.1216 1.1235 1.1235 1.1235 1.1235 1.1216 1.1196 1.1196 1.1196 1.1196 1.1216 1.1235 1.1255 1.1275 1.1294 1.1294 1.1314 1.1354 1.1354 1.1354 1.1354 1.1354 1.1354 1.1414 1.1434 1.1434 1.1494 1.1494 1.1474 1.1494 1.1454 1.1474 1.1494 1.1474 1.1474 1.1474 1.1474 1.1494 1.1515 1.1535 1.1556 1.1535 1.1576 1.1576 1.1598 1.1618 1.1618 1.1618 1.1639 1.1618 1.166 1.1701 1.1701 1.1701 1.1701 1.168 1.1723 1.1723 1.1744 1.1765 1.1786 2.3814 2.3727 2.3727 2.364 2.364 2.3555 2.347 2.347 2.347 2.3555 2.364 2.347 2.3555 2.364 2.3727 2.3727 2.3727 2.364 2.3555 2.364 2.3555 2.3727 2.364 2.3727 2.364 2.364 2.3814 2.3902 2.3902 2.3902 2.399 2.399 2.399 2.4079 2.4169 2.4169 2.435 2.4442 2.435 2.4442 2.4442 2.4535 2.4628 2.4628 2.4535 2.4535 2.4442 2.4442 2.4442 2.426 2.4169 2.4079 2.399 2.3902 2.3814 2.3814 2.3902 2.399 2.4079 2.4079 2.426 2.435 2.4442 2.4442 2.4442 2.4535 2.4535 2.4535 2.4628 2.4816 2.5008 2.5008 2.5104 2.5201 2.5201 2.53 2.53 2.53 2.53 2.53 2.5399 2.53 2.53 2.5399 2.5499 2.5399 2.5499 2.5399 2.5399 2.5399 2.53 2.53 2.5201 2.53 2.5499 2.5399 2.5399 2.5399 2.5499 2.5499 2.5499 2.56 2.56 2.56 2.56 2.5701 2.5802 2.5906 2.5802 2.5802 2.5701 2.5701 2.5701 2.5701 2.5701 2.5802 2.5701 2.56 2.5499 2.56 2.5701 2.5802 2.5802 2.5906 2.5906 2.5906 2.601 2.6434 2.6434 2.6543 2.6871 2.7096 2.744 2.7556 2.744 2.744 2.7556 2.7556 2.744 2.744 2.721 2.7096 2.7096 2.6871 2.6871 2.6871 2.6761 2.6651 2.6651 2.6761 2.6761 2.6871 2.721 2.721 2.721 2.721 2.7325 2.7556 2.7674 2.7793
1.0259 1.0243 1.0243 1.0243 1.0226 1.0226 1.0243 1.0259 1.0243 1.0243 1.0259 1.0259 1.0259 1.0243 1.0243 1.0226 1.021 1.0226 1.0226 1.0226 1.0226 1.0226 1.0226 1.0226 1.0226 1.0226 1.0226 1.0226 1.0226 1.0226 1.0226 1.0243 1.0243 1.0275 1.0275 1.0308 1.034 1.034 1.034 1.0356 1.0356 1.0374 1.039 1.039 1.0424 1.0424 1.0456 1.0508 1.0508 1.0508 1.0525 1.0525 1.0491 1.0474 1.0474 1.0474 1.0491 1.0491 1.0508 1.0541 1.0541 1.0576 1.0594 1.0629 1.0629 1.0611 1.0611 1.0611 1.0611 1.0611 1.0611 1.0611 1.0576 1.0576 1.0576 1.0559 1.0576 1.0559 1.0576 1.0559 1.0576 1.0594 1.0594 1.0594 1.0645 1.0699 1.0734 1.0734 1.0751 1.0751 1.0751 1.0751 1.0788 1.0805 1.0824 1.0824 1.0824 1.0824 1.0841 1.086 1.0877 1.0896 1.0896 1.0914 1.0914 1.0896 1.0933 1.0951 1.0951 1.0933 1.0933 1.0951 1.097 1.097 1.1006 1.1006 1.1025 1.1006 1.1006 1.1025 1.1025 1.1025 1.1006 1.1025 1.1006 1.1006 1.1044 1.1025 1.1044 1.1082 1.1082 1.1101 1.1101 1.112 1.1139 1.1178 1.1196 1.1196 1.1216 1.1216 1.1216 1.1235 1.1216 1.1216 1.1216 1.1196 1.1196 1.1178 1.1196 1.1216 1.1216 1.1255 1.1275 1.1275 1.1294 1.1314 1.1354 1.1334 1.1334 1.1354 1.1334 1.1354 1.1394 1.1414 1.1434 1.1474 1.1474 1.1454 1.1494 1.1454 1.1474 1.1494 1.1474 1.1474 1.1474 1.1474 1.1494 1.1515 1.1556 1.1535 1.1556 1.1576 1.1576 1.1576 1.1618 1.1598 1.1618 1.1598 1.1598 1.1639 1.168 1.1701 1.1701 1.168 1.1701 1.168 1.1701 1.1744 1.1744 1.1744 2.364 2.364 2.3727 2.3555 2.364 2.3555 2.3555 2.347 2.3555 2.347 2.3555 2.3555 2.3555 2.364 2.364 2.3727 2.3727 2.364 2.3555 2.364 2.364 2.3727 2.364 2.3727 2.364 2.3727 2.3814 2.3902 2.3902 2.3902 2.399 2.399 2.4079 2.4079 2.4169 2.426 2.435 2.4442 2.435 2.435 2.4442 2.4442 2.4628 2.4535 2.4628 2.4535 2.4535 2.4442 2.4442 2.426 2.4169 2.4079 2.4079 2.3902 2.3902 2.3902 2.3902 2.399 2.4169 2.4169 2.426 2.435 2.435 2.4442 2.4442 2.4535 2.4442 2.4535 2.4535 2.4721 2.4911 2.4911 2.5201 2.5201 2.53 2.53 2.53 2.53 2.5499 2.5399 2.5399 2.5399 2.5399 2.5399 2.5399 2.5499 2.5399 2.5499 2.5399 2.5399 2.53 2.53 2.5201 2.53 2.5499 2.5399 2.5399 2.5499 2.5499 2.5499 2.5499 2.5499 2.5701 2.5701 2.56 2.5701 2.5802 2.5802 2.5701 2.5701 2.56 2.5701 2.5701 2.5701 2.5701 2.5802 2.5701 2.56 2.56 2.5701 2.5802 2.5906 2.5906 2.5906 2.5906 2.5906 2.601 2.6434 2.6543 2.6651 2.6871 2.7096 2.7325 2.744 2.744 2.744 2.7556 2.744 2.7556 2.744 2.721 2.721 2.721 2.6984 2.6984 2.6984 2.6871 2.6761 2.6761 2.6984 2.6984 2.6984 2.721 2.7325 2.744 2.7325 2.744 2.7674 2.7793 2.7912
1.0226 1.0226 1.0226 1.0226 1.021 1.021 1.021 1.0226 1.0243 1.0226 1.0243 1.0259 1.0243 1.0243 1.0243 1.021 1.021 1.021 1.021 1.021 1.021 1.021 1.0194 1.021 1.021 1.021 1.0226 1.021 1.0226 1.021 1.021 1.0226 1.0243 1.0259 1.0259 1.0291 1.034 1.0324 1.0324 1.0356 1.034 1.0356 1.0356 1.0374 1.0406 1.0406 1.044 1.0474 1.0474 1.0474 1.0491 1.0491 1.0456 1.0424 1.044 1.044 1.0456 1.044 1.0474 1.0508 1.0525 1.0525 1.0541 1.0594 1.0594 1.0576 1.0594 1.0576 1.0576 1.0576 1.0576 1.0576 1.0576 1.0576 1.0559 1.0541 1.0541 1.0541 1.0541 1.0559 1.0559 1.0576 1.0576 1.0594 1.0611 1.0681 1.0699 1.0716 1.0734 1.0716 1.0734 1.0716 1.0734 1.0769 1.0788 1.0788 1.0805 1.0805 1.0805 1.0824 1.0841 1.086 1.0896 1.0896 1.0896 1.0896 1.0914 1.0933 1.0933 1.0933 1.0933 1.0914 1.0914 1.0914 1.0933 1.097 1.097 1.097 1.0989 1.0989 1.1006 1.1025 1.1025 1.1006 1.1044 1.1025 1.1044 1.1044 1.1044 1.1082 1.1082 1.1082 1.1101 1.112 1.112 1.1159 1.1178 1.1196 1.1216 1.1216 1.1216 1.1216 1.1216 1.1216 1.1216 1.1196 1.1196 1.1178 1.1178 1.1196 1.1196 1.1235 1.1255 1.1235 1.1255 1.1275 1.1314 1.1314 1.1314 1.1334 1.1334 1.1314 1.1374 1.1394 1.1414 1.1474 1.1454 1.1454 1.1454 1.1454 1.1474 1.1494 1.1474 1.1474 1.1474 1.1474 1.1494 1.1515 1.1535 1.1535 1.1556 1.1556 1.1556 1.1576 1.1598 1.1576 1.1598 1.1576 1.1576 1.1598 1.1639 1.1639 1.166 1.166 1.168 1.168 1.168 1.1723 1.1723 1.168 1.168 2.364 2.364 2.364 2.364 2.3555 2.347 2.3385 2.347 2.347 2.347 2.347 2.347 2.3555 2.364 2.364 2.364 2.364 2.364 2.364 2.364 2.3727 2.3727 2.3727 2.3727 2.3727 2.3814 2.3814 2.3902 2.3902 2.399 2.4079 2.4079 2.4169 2.4169 2.426 2.435 2.4442 2.435 2.4442 2.435 2.435 2.4535 2.4535 2.4628 2.4535 2.4535 2.435 2.435 2.426 2.4169 2.4079 2.4079 2.399 2.3902 2.3902 2.3902 2.4169 2.426 2.4169 2.435 2.4442 2.435 2.435 2.4442 2.4535 2.435 2.435 2.435 2.4535 2.4628 2.4816 2.5104 2.5201 2.5201 2.5201 2.5201 2.5201 2.5399 2.5399 2.5499 2.5499 2.5399 2.5499 2.5499 2.5499 2.5499 2.5399 2.5399 2.5399 2.5399 2.53 2.5201 2.53 2.5499 2.5499 2.5399 2.5399 2.5399 2.5499 2.5499 2.5499 2.56 2.56 2.56 2.5701 2.5802 2.5701 2.5701 2.5701 2.56 2.5701 2.5701 2.5802 2.5802 2.5701 2.5802 2.5701 2.5701 2.5701 2.5802 2.5906 2.5906 2.601 2.601 2.5906 2.5906 2.6434 2.6543 2.6651 2.6871 2.7096 2.7325 2.744 2.7325 2.7325 2.744 2.744 2.7556 2.744 2.721 2.721 2.721 2.7096 2.7096 2.7096 2.6984 2.6871 2.6984 2.7096 2.721 2.7096 2.7325 2.744 2.744 2.744 2.744 2.7912 2.7912 2.7912
1.0226 1.021 1.021 1.021 1.0194 1.0194 1.0226 1.0226 1.0226 1.0226 1.0243 1.0259 1.0243 1.0243 1.0259 1.0243 1.0226 1.0226 1.0226 1.0226 1.021 1.021 1.0194 1.0194 1.021 1.021 1.021 1.0226 1.0226 1.0243 1.0226 1.0226 1.0243 1.0275 1.0275 1.0291 1.0324 1.0324 1.0324 1.034 1.034 1.0356 1.0356 1.0374 1.039 1.0424 1.0424 1.044 1.0456 1.0456 1.0491 1.0491 1.0424 1.039 1.0406 1.044 1.044 1.044 1.0456 1.0508 1.0508 1.0508 1.0541 1.0576 1.0559 1.0576 1.0576 1.0576 1.0559 1.0559 1.0576 1.0559 1.0576 1.0559 1.0559 1.0541 1.0525 1.0541 1.0559 1.0559 1.0559 1.0576 1.0594 1.0594 1.0629 1.0662 1.0699 1.0716 1.0716 1.0716 1.0716 1.0716 1.0734 1.0769 1.0769 1.0769 1.0788 1.0769 1.0788 1.0805 1.0824 1.0841 1.0896 1.0877 1.0896 1.0896 1.0914 1.0914 1.0933 1.0914 1.0914 1.0896 1.0896 1.0914 1.0914 1.0951 1.0951 1.0951 1.097 1.0989 1.1006 1.1044 1.1044 1.1025 1.1062 1.1044 1.1062 1.1062 1.1082 1.1082 1.1082 1.1082 1.1101 1.1101 1.1139 1.1139 1.1159 1.1178 1.1196 1.1216 1.1216 1.1216 1.1216 1.1216 1.1216 1.1196 1.1196 1.1178 1.1178 1.1178 1.1196 1.1235 1.1235 1.1235 1.1235 1.1255 1.1294 1.1294 1.1294 1.1314 1.1314 1.1314 1.1334 1.1374 1.1414 1.1454 1.1434 1.1454 1.1474 1.1434 1.1454 1.1494 1.1474 1.1474 1.1474 1.1494 1.1494 1.1515 1.1515 1.1535 1.1535 1.1535 1.1556 1.1556 1.1576 1.1576 1.1556 1.1556 1.1556 1.1598 1.1618 1.1639 1.1639 1.166 1.168 1.168 1.168 1.1701 1.1701 1.168 1.168 0 2.364 2.364 2.364 2.3555 2.347 2.3385 2.3385 2.347 2.347 2.347 2.347 2.3555 2.364 2.3727 2.364 2.3555 2.364 2.364 2.3727 2.3727 2.3727 2.3814 2.3727 2.3814 2.3902 2.3902 2.399 2.399 2.4079 2.4169 2.4169 2.4169 2.435 2.435 2.4442 2.4535 2.435 2.435 2.435 2.435 2.4535 2.4628 2.4535 2.4535 2.4442 2.435 2.426 2.426 2.426 2.4169 2.3902 2.3902 2.3902 2.3902 2.4079 2.426 2.4535 2.4442 2.4442 2.4535 2.4442 2.4535 2.4442 2.4442 2.435 2.426 2.435 2.4535 2.4628 2.4721 2.5104 2.5104 2.5201 2.5201 2.5201 2.53 2.53 2.5399 2.5499 2.56 2.56 2.56 2.5701 2.56 2.5701 2.5701 2.56 2.5499 2.56 2.5399 2.5399 2.53 2.5499 2.56 2.5499 2.56 2.56 2.5499 2.56 2.5701 2.5701 2.5701 2.5701 2.5701 2.5701 2.5802 2.5802 2.5802 2.5906 2.5906 2.5802 2.5906 2.5906 2.5906 2.5906 2.5802 2.5802 2.5906 2.5906 2.601 2.601 2.601 2.622 2.6326 2.6434 2.6984 2.6984 2.721 2.721 2.744 2.7556 2.7674 2.744 2.744 2.744 2.7325 2.744 2.7325 2.721 2.721 2.7096 2.7096 2.7096 2.721 2.721 2.7096 2.6984 2.721 2.7325 2.744 2.7556 2.744 2.744 2.744 2.7556 2.7912 2.7912 2.7912
1.021 1.021 1.021 1.0194 1.0194 1.0194 1.0194 1.021 1.021 1.021 1.0226 1.0259 1.0243 1.0243 1.0226 1.0226 1.0226 1.0226 1.0226 1.0226 1.021 1.021 1.0194 1.0177 1.0194 1.021 1.021 1.0226 1.021 1.021 1.0226 1.021 1.0226 1.0275 1.0259 1.0291 1.0324 1.0324 1.0324 1.0324 1.0324 1.034 1.034 1.0356 1.039 1.0406 1.0406 1.044 1.044 1.044 1.0474 1.0456 1.0406 1.0374 1.0406 1.0424 1.0424 1.0424 1.0456 1.0491 1.0508 1.0508 1.0541 1.0576 1.0559 1.0559 1.0576 1.0576 1.0559 1.0559 1.0559 1.0559 1.0559 1.0541 1.0541 1.0541 1.0525 1.0541 1.0559 1.0559 1.0576 1.0576 1.0576 1.0594 1.0611 1.0681 1.0699 1.0716 1.0716 1.0734 1.0716 1.0716 1.0734 1.0769 1.0769 1.0769 1.0769 1.0769 1.0788 1.0805 1.0824 1.0841 1.0877 1.0877 1.0877 1.0896 1.0896 1.0914 1.0914 1.0896 1.0896 1.0896 1.0896 1.0896 1.0896 1.0933 1.0933 1.0951 1.097 1.0989 1.1006 1.1044 1.1044 1.1062 1.1062 1.1062 1.1062 1.1062 1.1062 1.1062 1.1062 1.1062 1.1082 1.1082 1.1139 1.1139 1.1159 1.1178 1.1216 1.1196 1.1235 1.1216 1.1235 1.1255 1.1235 1.1216 1.1196 1.1196 1.1216 1.1196 1.1196 1.1235 1.1235 1.1235 1.1235 1.1255 1.1275 1.1275 1.1314 1.1314 1.1314 1.1314 1.1334 1.1354 1.1374 1.1414 1.1414 1.1414 1.1454 1.1414 1.1454 1.1474 1.1454 1.1454 1.1474 1.1474 1.1494 1.1515 1.1535 1.1535 1.1515 1.1556 1.1535 1.1535 1.1556 1.1535 1.1556 1.1535 1.1556 1.1576 1.1618 1.1618 1.166 1.166 1.168 1.168 1.168 1.1723 1.1723 1.168 1.168 0 2.3727 2.364 2.3727 2.364 2.347 2.347 2.347 2.347 2.3385 2.3385 2.347 2.347 2.3555 2.364 2.3555 2.3555 2.364 2.364 2.364 2.364 2.3727 2.3727 2.3727 2.3727 2.3902 2.3902 2.399 2.4079 2.4079 2.4169 2.4169 2.4169 2.426 2.435 2.4442 2.4442 2.4442 2.4442 2.435 2.435 2.4535 2.4628 2.4535 2.4535 2.435 2.435 2.426 2.4169 2.4079 2.4079 2.399 2.399 2.3814 2.3814 2.4169 2.435 2.4535 2.4442 2.4535 2.4628 2.4535 2.4535 2.4535 2.4535 2.435 2.435 2.435 2.4628 2.4721 2.4816 2.5104 2.5201 2.5201 2.5201 2.5201 2.5201 2.53 2.5399 2.56 2.56 2.56 2.5701 2.5701 2.5701 2.5701 2.5701 2.5701 2.5701 2.56 2.5399 2.5399 2.5399 2.5499 2.5499 2.56 2.56 2.5499 2.5499 2.56 2.56 2.5701 2.5802 2.5802 2.5802 2.5802 2.5802 2.5906 2.5802 2.5802 2.5802 2.5802 2.5906 2.5906 2.5906 2.5906 2.5802 2.5701 2.5802 2.5906 2.601 2.601 2.601 2.622 2.622 2.6434 2.7096 2.7096 2.721 2.7325 2.744 2.7674 2.7674 2.744 2.744 2.7325 2.7325 2.7325 2.721 2.721 2.721 2.7096 2.7096 2.7096 2.721 2.721 2.7096 2.7096 2.7325 2.7325 2.744 2.7556 2.7556 2.744 2.744 2.7674 2.7793 2.7912 2.8032
1.0194 1.0177 1.0177 1.0177 1.0163 1.0163 1.0177 1.0177 1.0177 1.0194 1.0194 1.021 1.021 1.021 1.021 1.0194 1.0194 1.0226 1.0243 1.0226 1.0226 1.021 1.0194 1.0177 1.0177 1.0194 1.0194 1.0194 1.021 1.0194 1.0194 1.021 1.021 1.0259 1.0259 1.0275 1.0308 1.0324 1.0308 1.0324 1.0324 1.0324 1.0324 1.034 1.0356 1.0356 1.0374 1.0406 1.0424 1.0406 1.044 1.0424 1.039 1.0356 1.0374 1.039 1.0374 1.039 1.0424 1.0474 1.0525 1.0525 1.0559 1.0594 1.0576 1.0576 1.0576 1.0576 1.0559 1.0559 1.0541 1.0541 1.0541 1.0541 1.0541 1.0541 1.0525 1.0525 1.0541 1.0541 1.0559 1.0576 1.0594 1.0594 1.0611 1.0681 1.0699 1.0716 1.0734 1.0734 1.0734 1.0716 1.0734 1.0769 1.0769 1.0751 1.0751 1.0751 1.0751 1.0788 1.0805 1.0824 1.0877 1.086 1.0877 1.0877 1.0896 1.0914 1.0896 1.0877 1.086 1.086 1.086 1.0877 1.0896 1.0914 1.0933 1.0933 1.0951 1.097 1.0989 1.1025 1.1044 1.1044 1.1062 1.1062 1.1044 1.1044 1.1044 1.1044 1.1044 1.1062 1.1062 1.1062 1.112 1.1139 1.1159 1.1178 1.1196 1.1216 1.1255 1.1255 1.1275 1.1275 1.1275 1.1255 1.1216 1.1216 1.1235 1.1216 1.1216 1.1216 1.1235 1.1235 1.1255 1.1255 1.1294 1.1294 1.1294 1.1314 1.1314 1.1314 1.1334 1.1334 1.1354 1.1374 1.1374 1.1374 1.1414 1.1374 1.1394 1.1434 1.1434 1.1454 1.1454 1.1454 1.1474 1.1494 1.1494 1.1494 1.1474 1.1515 1.1494 1.1494 1.1515 1.1515 1.1515 1.1535 1.1535 1.1576 1.1618 1.1618 1.166 1.168 1.168 1.168 1.1701 1.1723 1.1744 1.168 1.1701 0 2.3814 2.3814 2.3727 2.364 2.364 2.3555 2.3555 2.3555 2.347 2.3385 2.347 2.3555 2.3555 2.364 2.3555 2.3555 2.3555 2.364 2.364 2.364 2.364 2.3727 2.3727 2.3727 2.399 2.3902 2.399 2.4079 2.4079 2.4169 2.426 2.426 2.426 2.426 2.4442 2.4442 2.435 2.435 2.435 2.4442 2.4442 2.4535 2.4442 2.4535 2.435 2.426 2.4169 2.4169 2.399 2.3902 2.3902 2.3902 2.3902 2.3814 2.4079 2.426 2.4535 2.4535 2.4535 2.4721 2.4628 2.4628 2.4816 2.4721 2.4628 2.4628 2.4628 2.4721 2.4911 2.5008 2.5201 2.5201 2.5201 2.5201 2.53 2.5201 2.53 2.5399 2.56 2.56 2.5701 2.5802 2.5906 2.5906 2.5906 2.5906 2.5802 2.5802 2.5701 2.5499 2.5399 2.53 2.5399 2.5399 2.5399 2.5499 2.5399 2.5399 2.5499 2.56 2.5802 2.5802 2.5802 2.5906 2.5802 2.5906 2.5906 2.5906 2.5906 2.5802 2.5701 2.5802 2.5802 2.5802 2.5802 2.5802 2.5701 2.5701 2.5802 2.601 2.6115 2.6115 2.6434 2.6543 2.6761 2.7096 2.7096 2.721 2.744 2.7556 2.7674 2.7793 2.7325 2.721 2.721 2.721 2.721 2.721 2.7096 2.7096 2.7096 2.6984 2.7096 2.721 2.721 2.721 2.721 2.7556 2.7556 2.744 2.7556 2.744 2.744 2.744 2.7556 2.7793 2.7912 2.7912
1.0177 1.0163 1.0163 1.0146 1.0146 1.0146 1.0177 1.0163 1.0163 1.0177 1.0194 1.0194 1.0177 1.0194 1.0194 1.0194 1.0194 1.0226 1.0243 1.0226 1.0226 1.021 1.0194 1.0177 1.0177 1.0177 1.0194 1.0194 1.0194 1.0177 1.0177 1.0194 1.0226 1.0243 1.0259 1.0275 1.0308 1.0308 1.0308 1.0308 1.0308 1.0324 1.0308 1.0324 1.034 1.0324 1.034 1.0406 1.0406 1.0406 1.0424 1.0406 1.0374 1.0374 1.0356 1.0356 1.0356 1.0356 1.0406 1.0456 1.0508 1.0559 1.0576 1.0594 1.0594 1.0594 1.0594 1.0594 1.0576 1.0541 1.0541 1.0541 1.0559 1.0541 1.0541 1.0525 1.0525 1.0525 1.0525 1.0541 1.0559 1.0559 1.0576 1.0594 1.0629 1.0662 1.0699 1.0716 1.0734 1.0734 1.0751 1.0734 1.0734 1.0769 1.0751 1.0769 1.0751 1.0751 1.0751 1.0788 1.0805 1.0805 1.086 1.086 1.086 1.0877 1.0896 1.0896 1.0877 1.086 1.086 1.086 1.0841 1.0877 1.0896 1.0896 1.0914 1.0914 1.0951 1.097 1.0989 1.1006 1.1025 1.1025 1.1044 1.1062 1.1044 1.1025 1.1025 1.1044 1.1044 1.1044 1.1062 1.1082 1.1101 1.112 1.1139 1.1196 1.1196 1.1216 1.1275 1.1275 1.1294 1.1294 1.1294 1.1235 1.1235 1.1216 1.1216 1.1216 1.1216 1.1216 1.1235 1.1235 1.1235 1.1255 1.1275 1.1294 1.1314 1.1314 1.1334 1.1314 1.1314 1.1334 1.1354 1.1354 1.1354 1.1374 1.1374 1.1374 1.1394 1.1394 1.1414 1.1454 1.1454 1.1454 1.1474 1.1474 1.1494 1.1474 1.1474 1.1474 1.1474 1.1494 1.1474 1.1494 1.1515 1.1515 1.1515 1.1598 1.1618 1.1639 1.168 1.168 1.168 1.168 1.1701 1.1723 1.1744 1.168 1.168 0 2.3902 2.3814 2.3814 2.3727 2.364 2.364 2.364 2.3555 2.347 2.347 2.347 2.3555 2.3555 2.3555 2.3555 2.3555 2.347 2.3555 2.364 2.364 2.364 2.364 2.3727 2.3727 2.399 2.399 2.4079 2.4079 2.4079 2.4169 2.4169 2.426 2.426 2.426 2.435 2.435 2.435 2.435 2.435 2.435 2.4442 2.4442 2.4535 2.4442 2.4442 2.426 2.4169 2.4169 2.399 2.399 2.3814 2.3814 2.3814 2.3814 2.4079 2.426 2.4442 2.4442 2.4535 2.4628 2.4628 2.4721 2.4911 2.4911 2.4721 2.4721 2.4721 2.4911 2.5008 2.5104 2.53 2.5399 2.5201 2.5201 2.53 2.53 2.53 2.5499 2.5701 2.5701 2.5701 2.5906 2.601 2.5906 2.601 2.5906 2.601 2.5906 2.5802 2.5499 2.5499 2.5201 2.53 2.53 2.53 2.53 2.53 2.5399 2.53 2.5499 2.5906 2.5802 2.5906 2.5906 2.5906 2.5906 2.5906 2.5906 2.5802 2.5701 2.5701 2.5701 2.5701 2.5701 2.5701 2.5701 2.5701 2.5701 2.5802 2.601 2.6115 2.622 2.6543 2.6761 2.6984 2.721 2.721 2.721 2.744 2.7556 2.7674 2.7674 2.721 2.721 2.721 2.7096 2.7096 2.7096 2.6984 2.7096 2.7096 2.7096 2.7096 2.721 2.744 2.7325 2.7325 2.7556 2.7556 2.7556 2.744 2.744 2.7325 2.7325 2.744 2.7793 2.7793 2.7912
1.0146 1.013 1.0146 1.013 1.013 1.013 1.0146 1.0146 1.0146 1.0146 1.0163 1.0177 1.0163 1.0177 1.0177 1.0177 1.0194 1.0243 1.0243 1.0243 1.0226 1.021 1.0194 1.0177 1.0163 1.0163 1.0163 1.0163 1.0163 1.0163 1.0163 1.0177 1.0194 1.021 1.0226 1.0259 1.0275 1.0275 1.0275 1.0275 1.0275 1.0308 1.0308 1.0324 1.0324 1.0308 1.0308 1.0356 1.0374 1.0356 1.039 1.0356 1.034 1.0324 1.034 1.0324 1.034 1.034 1.039 1.044 1.0508 1.0559 1.0559 1.0594 1.0576 1.0576 1.0559 1.0559 1.0508 1.0525 1.0525 1.0508 1.0525 1.0525 1.0525 1.0525 1.0491 1.0525 1.0525 1.0541 1.0541 1.0541 1.0559 1.0559 1.0594 1.0645 1.0681 1.0681 1.0716 1.0716 1.0716 1.0716 1.0716 1.0734 1.0734 1.0734 1.0751 1.0734 1.0751 1.0769 1.0788 1.0805 1.0841 1.0841 1.086 1.086 1.0841 1.086 1.086 1.0841 1.0824 1.0824 1.0841 1.0841 1.0877 1.0877 1.0896 1.0914 1.0951 1.097 1.0989 1.1006 1.1025 1.1025 1.1025 1.1025 1.1025 1.1025 1.1006 1.1025 1.1044 1.1062 1.1062 1.1082 1.1101 1.112 1.112 1.1178 1.1196 1.1216 1.1235 1.1255 1.1255 1.1255 1.1275 1.1255 1.1255 1.1216 1.1216 1.1216 1.1196 1.1196 1.1216 1.1216 1.1235 1.1255 1.1275 1.1275 1.1294 1.1334 1.1334 1.1314 1.1314 1.1314 1.1314 1.1354 1.1334 1.1354 1.1354 1.1334 1.1354 1.1374 1.1394 1.1414 1.1454 1.1434 1.1454 1.1454 1.1474 1.1454 1.1474 1.1474 1.1474 1.1454 1.1454 1.1474 1.1474 1.1474 1.1474 1.1515 1.1576 1.1576 1.1598 1.1639 1.166 1.1701 1.1701 1.1744 1.1765 1.1701 1.168 0 2.364 2.3727 2.3727 2.364 2.364 2.3727 2.364 2.364 2.347 2.347 2.3555 2.3555 2.364 2.364 2.364 2.3555 2.3555 2.3555 2.364 2.364 2.364 2.3727 2.3814 2.3814 2.3902 2.3902 2.4079 2.4079 2.4169 2.4169 2.4169 2.4079 2.4079 2.4079 2.4169 2.4169 2.4169 2.4169 2.4169 2.4169 2.435 2.435 2.4442 2.4535 2.4442 2.426 2.426 2.4169 2.399 2.399 2.399 2.3902 2.3902 2.3902 2.4079 2.426 2.4535 2.4442 2.4535 2.4628 2.4535 2.4628 2.4721 2.4721 2.4442 2.4442 2.4442 2.4535 2.4721 2.4911 2.5201 2.5201 2.5008 2.5104 2.5104 2.5104 2.53 2.5399 2.56 2.56 2.56 2.5802 2.5906 2.5802 2.601 2.5906 2.5906 2.5906 2.5701 2.56 2.5499 2.5399 2.53 2.5399 2.5399 2.5399 2.5399 2.5399 2.5399 2.5499 2.5802 2.5802 2.5802 2.5802 2.5802 2.5701 2.5906 2.5906 2.5906 2.5802 2.5701 2.5802 2.5802 2.5701 2.5701 2.5701 2.56 2.5701 2.5802 2.601 2.601 2.622 2.6651 2.6871 2.721 2.721 2.721 2.721 2.7556 2.7556 2.7556 2.7556 2.6984 2.6984 2.6984 2.6871 2.6761 2.6761 2.6761 2.6871 2.6761 2.6984 2.6871 2.6984 2.721 2.7325 2.7325 2.7556 2.7556 2.744 2.744 2.744 2.7325 2.7325 2.7325 2.7674 2.7674 2.7793
1.0146 1.0146 1.013 1.0146 1.013 1.013 1.0146 1.013 1.013 1.013 1.0146 1.0163 1.0146 1.0163 1.0177 1.0177 1.0194 1.0226 1.0243 1.0243 1.0226 1.021 1.0194 1.0177 1.0163 1.0163 1.0163 1.0163 1.0146 1.0163 1.0146 1.0163 1.0177 1.0194 1.021 1.0243 1.0259 1.0259 1.0259 1.0275 1.0275 1.0291 1.0308 1.0324 1.0308 1.0308 1.0308 1.034 1.0356 1.0374 1.0356 1.0356 1.034 1.034 1.034 1.034 1.034 1.0356 1.039 1.044 1.0491 1.0541 1.0559 1.0559 1.0559 1.0559 1.0559 1.0541 1.0525 1.0508 1.0508 1.0508 1.0508 1.0508 1.0525 1.0525 1.0491 1.0508 1.0525 1.0541 1.0541 1.0541 1.0559 1.0559 1.0594 1.0629 1.0681 1.0681 1.0699 1.0716 1.0716 1.0716 1.0716 1.0734 1.0734 1.0734 1.0751 1.0751 1.0751 1.0788 1.0788 1.0805 1.0841 1.0841 1.0841 1.086 1.0841 1.0841 1.086 1.0841 1.0841 1.0841 1.0841 1.0841 1.086 1.0896 1.0896 1.0914 1.0951 1.097 1.097 1.1006 1.1006 1.1006 1.1025 1.1006 1.1006 1.1006 1.0989 1.1025 1.1025 1.1044 1.1044 1.1062 1.1101 1.112 1.1139 1.1178 1.1178 1.1216 1.1235 1.1235 1.1255 1.1235 1.1255 1.1255 1.1255 1.1235 1.1235 1.1216 1.1216 1.1216 1.1235 1.1235 1.1235 1.1255 1.1275 1.1275 1.1294 1.1314 1.1334 1.1334 1.1334 1.1314 1.1314 1.1334 1.1334 1.1334 1.1334 1.1334 1.1354 1.1374 1.1394 1.1394 1.1414 1.1434 1.1434 1.1434 1.1474 1.1454 1.1474 1.1454 1.1474 1.1474 1.1454 1.1454 1.1494 1.1474 1.1474 1.1535 1.1576 1.1576 1.1618 1.1618 1.166 1.1701 1.1723 1.1744 1.1744 1.1723 1.1723 0 2.3727 2.364 2.3727 2.3727 2.364 2.3727 2.3814 2.3727 2.3555 2.347 2.364 2.3727 2.3727 2.3727 2.3727 2.364 2.364 2.364 2.3727 2.3814 2.3814 2.3814 2.3814 2.3902 2.4079 2.399 2.4169 2.4169 2.4169 2.435 2.426 2.4169 2.4079 2.4079 2.4079 2.4079 2.4079 2.426 2.4169 2.4169 2.4169 2.426 2.435 2.4535 2.4442 2.426 2.4169 2.4169 2.4079 2.4079 2.4079 2.4079 2.4079 2.4079 2.435 2.4442 2.4721 2.4628 2.4628 2.4628 2.4535 2.4628 2.4628 2.4628 2.4442 2.435 2.435 2.4535 2.4535 2.4721 2.5104 2.5008 2.5008 2.5008 2.5008 2.5008 2.53 2.5399 2.56 2.56 2.5701 2.5802 2.5906 2.5802 2.601 2.5906 2.5906 2.601 2.5802 2.56 2.5499 2.56 2.5499 2.5499 2.56 2.56 2.5499 2.5499 2.5499 2.56 2.5802 2.5802 2.5802 2.5802 2.5802 2.5802 2.5802 2.5802 2.5906 2.5802 2.5701 2.5701 2.5701 2.5701 2.5701 2.5701 2.56 2.56 2.5701 2.6115 2.622 2.6326 2.6984 2.7325 2.7325 2.744 2.7325 2.7325 2.7556 2.7556 2.7556 2.744 2.6871 2.6761 2.6761 2.6651 2.6651 2.6651 2.6543 2.6651 2.6761 2.6871 2.6871 2.6984 2.721 2.721 2.7325 2.7674 2.7556 2.7556 2.744 2.744 2.7325 2.744 2.744 2.7556 2.7674 2.7674
1.0146 1.0146 1.013 1.0146 1.013 1.013 1.013 1.0115 1.0115 1.0115 1.013 1.0146 1.013 1.0146 1.0146 1.0163 1.0177 1.0194 1.0226 1.0226 1.0226 1.021 1.0194 1.0177 1.0163 1.0163 1.0163 1.0146 1.0146 1.013 1.0146 1.013 1.0146 1.0177 1.0194 1.0226 1.0259 1.0259 1.0243 1.0259 1.0275 1.0291 1.0291 1.0308 1.0291 1.0291 1.0308 1.034 1.034 1.0356 1.0356 1.034 1.034 1.034 1.034 1.034 1.034 1.0356 1.039 1.044 1.0474 1.0541 1.0541 1.0559 1.0541 1.0541 1.0559 1.0525 1.0508 1.0508 1.0508 1.0491 1.0508 1.0508 1.0508 1.0525 1.0491 1.0508 1.0525 1.0525 1.0541 1.0559 1.0559 1.0576 1.0594 1.0629 1.0681 1.0681 1.0699 1.0716 1.0716 1.0716 1.0699 1.0734 1.0734 1.0734 1.0751 1.0751 1.0751 1.0769 1.0788 1.0805 1.0841 1.0841 1.0824 1.0841 1.0841 1.0841 1.0841 1.0841 1.0841 1.0841 1.0841 1.086 1.0877 1.0896 1.0914 1.0933 1.0951 1.097 1.097 1.1006 1.0989 1.1006 1.1006 1.1006 1.0989 1.0989 1.0989 1.1006 1.1025 1.1025 1.1044 1.1044 1.1082 1.1101 1.112 1.1159 1.1178 1.1196 1.1216 1.1216 1.1216 1.1255 1.1235 1.1255 1.1255 1.1235 1.1216 1.1196 1.1196 1.1235 1.1235 1.1235 1.1235 1.1255 1.1275 1.1275 1.1294 1.1334 1.1334 1.1314 1.1334 1.1314 1.1314 1.1334 1.1334 1.1334 1.1334 1.1334 1.1334 1.1354 1.1354 1.1394 1.1414 1.1434 1.1434 1.1454 1.1454 1.1474 1.1454 1.1454 1.1474 1.1454 1.1454 1.1454 1.1494 1.1494 1.1474 1.1515 1.1576 1.1576 1.1598 1.1618 1.166 1.168 1.1701 1.1701 1.1744 1.1701 1.1701 1.168 1.168 2.3727 2.3814 2.3727 2.3727 2.3814 2.3814 2.3727 2.3555 2.3555 2.3555 2.364 2.3727 2.3727 2.3727 2.364 2.364 2.3727 2.3727 2.3727 2.3814 2.3902 2.3902 2.3902 2.4079 2.4169 2.4079 2.4169 2.426 2.435 2.426 2.4169 2.4169 2.4169 2.4079 2.399 2.4079 2.4169 2.4169 2.4169 2.4169 2.4169 2.426 2.4535 2.435 2.426 2.4169 2.4169 2.4169 2.4079 2.4169 2.4169 2.4169 2.4169 2.435 2.4535 2.4721 2.4628 2.4628 2.4535 2.4535 2.4628 2.4628 2.4535 2.4442 2.435 2.435 2.435 2.4442 2.4628 2.5008 2.5008 2.4911 2.4911 2.5008 2.5008 2.53 2.53 2.56 2.56 2.56 2.5906 2.5906 2.5906 2.5906 2.601 2.601 2.5906 2.5802 2.5701 2.56 2.5499 2.56 2.56 2.56 2.56 2.5499 2.5499 2.5499 2.56 2.5802 2.5802 2.5802 2.5802 2.5802 2.5802 2.5802 2.5906 2.5802 2.5802 2.56 2.5701 2.5701 2.5701 2.5701 2.56 2.56 2.56 2.5802 2.6115 2.6326 2.6543 2.6984 2.7325 2.7556 2.7556 2.7556 2.7556 2.7556 2.7556 2.7325 2.721 2.6651 2.6543 2.6434 2.6434 2.6326 2.6434 2.6434 2.6651 2.6651 2.6871 2.6761 2.6871 2.7096 2.721 2.7325 2.7793 2.7674 2.7556 2.7556 2.744 2.744 2.7325 2.744 2.7556 2.7556 2.7556
1.013 1.0146 1.0146 1.0146 1.0146 1.0146 1.013 1.0115 1.0115 1.0099 1.0099 1.0115 1.0115 1.0115 1.0146 1.0146 1.0146 1.0194 1.021 1.021 1.021 1.021 1.0177 1.0177 1.0163 1.0163 1.0163 1.0146 1.013 1.013 1.013 1.013 1.013 1.0177 1.0194 1.021 1.0226 1.0243 1.0226 1.0226 1.0243 1.0275 1.0275 1.0291 1.0308 1.0308 1.0291 1.0324 1.0324 1.034 1.0356 1.034 1.034 1.0356 1.034 1.034 1.0356 1.0356 1.0406 1.044 1.0456 1.0525 1.0508 1.0508 1.0491 1.0491 1.0508 1.0508 1.0474 1.0474 1.0491 1.0491 1.0491 1.0491 1.0525 1.0525 1.0491 1.0508 1.0508 1.0525 1.0541 1.0559 1.0559 1.0576 1.0594 1.0645 1.0662 1.0681 1.0716 1.0716 1.0716 1.0716 1.0716 1.0716 1.0734 1.0734 1.0734 1.0751 1.0751 1.0769 1.0769 1.0769 1.0824 1.0824 1.0841 1.0841 1.0824 1.0841 1.0841 1.0824 1.0824 1.0841 1.0841 1.0841 1.0877 1.0877 1.0896 1.0914 1.0951 1.0951 1.097 1.1006 1.0989 1.1006 1.0989 1.0989 1.097 1.097 1.097 1.0989 1.1006 1.1006 1.1025 1.1025 1.1062 1.1101 1.112 1.1159 1.1139 1.1178 1.1196 1.1196 1.1196 1.1216 1.1235 1.1235 1.1235 1.1235 1.1235 1.1216 1.1216 1.1216 1.1235 1.1235 1.1235 1.1255 1.1275 1.1275 1.1275 1.1314 1.1334 1.1334 1.1334 1.1334 1.1314 1.1314 1.1334 1.1314 1.1334 1.1334 1.1334 1.1354 1.1354 1.1374 1.1394 1.1414 1.1414 1.1434 1.1454 1.1474 1.1474 1.1474 1.1474 1.1474 1.1474 1.1474 1.1494 1.1494 1.1494 1.1535 1.1556 1.1576 1.1576 1.1618 1.1639 1.166 1.168 1.168 1.1701 1.168 1.168 1.166 1.1639 2.347 2.364 2.347 2.364 2.364 2.3727 2.364 2.3555 2.3555 2.3555 2.364 2.3727 2.3814 2.3727 2.364 2.3555 2.364 2.364 2.364 2.364 2.3814 2.3814 2.3902 2.4079 2.4169 2.4169 2.426 2.4169 2.426 2.426 2.4169 2.4169 2.4169 2.4169 2.4079 2.4169 2.4169 2.4169 2.4169 2.426 2.426 2.426 2.4442 2.435 2.4169 2.4169 2.4169 2.4169 2.4169 2.4079 2.4169 2.4169 2.4169 2.4442 2.4535 2.4721 2.4628 2.4442 2.435 2.435 2.435 2.435 2.435 2.426 2.4169 2.4169 2.426 2.426 2.4442 2.4721 2.4628 2.4628 2.4816 2.4911 2.5008 2.5201 2.53 2.5499 2.56 2.56 2.5802 2.5906 2.5906 2.5906 2.601 2.5906 2.5906 2.5802 2.56 2.5499 2.5499 2.5499 2.5499 2.5499 2.56 2.5499 2.5499 2.5499 2.56 2.5802 2.5802 2.5802 2.5802 2.5701 2.5802 2.5802 2.5906 2.5802 2.5701 2.5499 2.56 2.56 2.56 2.56 2.56 2.56 2.56 2.5802 2.622 2.6434 2.6651 2.7096 2.7325 2.744 2.7556 2.7556 2.7556 2.7556 2.744 2.7325 2.721 2.6434 2.6326 2.6115 2.622 2.6115 2.6115 2.6115 2.6326 2.6326 2.6651 2.6543 2.6761 2.6984 2.721 2.721 2.7556 2.7556 2.744 2.7325 2.7325 2.744 2.7325 2.7325 2.7556 2.7556 2.744
