2.273 2.273 2.281 2.2971 2.3053 2.3135 2.364 2.3555 2.364 2.3902 2.399 2.4079 2.4079 2.3814 2.3814 2.3814 2.3727 2.3727 2.3727 2.3814 2.3814 2.3814 2.3814 2.3902 2.3902 2.399 2.399 2.399 2.426 2.426 2.426 2.426 2.426 2.4442 2.4535 2.4628 2.4721 2.4721 2.4535 2.4628 2.4628 2.4628 2.4721 2.4816 2.4628 2.4535 2.4535 2.4721 2.4816 2.4911 2.53 2.5399 2.5499 2.5499 2.56 2.5701 2.5701 2.56 2.5701 2.5701 2.5701 2.5701 2.56 2.5701 2.56 2.5802 2.601 2.601 2.601 2.622 2.601 2.601 2.6115 2.622 2.6651 2.6761 2.6871 2.721 2.721 2.7325 2.7325 2.744 2.7325 2.7325 2.7325 2.7096 2.6984 2.7096 2.7096 2.7096 2.7096 2.7325 2.7556 2.7556 2.7674 2.7674 2.7793 2.7793 2.7793 2.8401 2.8653 2.8653 2.8653 2.8653 2.8653 2.8779 2.8779 2.8908 2.8779 2.8653 2.8779 2.8779 2.8908 2.9167 2.9299 2.9167 2.9036 2.9036 2.9431 2.9566 2.9431 2.9299 2.9167 2.9167 2.9431 2.9566 2.9701 2.9976 2.9976 3.0398 3.0255 3.054 3.1126 3.1427 3.1581 3.1735 3.1891 3.2207 3.2049 3.2207 3.2207 3.2207 3.1735 3.1581 3.1735 3.1735 3.1581 3.1735 3.2049 3.2049 3.2369 3.2369 3.2531 3.2695 3.286 3.3196 3.354 3.3714 3.3714 3.4069 3.4249 3.4249 3.443 3.4249 3.443 3.4614 3.4614 3.4614 3.4614 3.443 3.4614 3.48 3.5176 3.5562 3.5562 3.5562 3.5956 3.5956 3.6157 3.6157 3.636 3.6981 3.6565 3.6565 3.6565 3.6565 3.6565 3.6565 3.6771 3.7194 3.7407 3.7194 3.7407 3.7407 3.7407 3.7844 3.7625 3.7194 3.7194 3.6981 3.6981 3.8981 3.8981 4.0189 3.9696 3.8981 3.8981 3.9696 4.095 4.174 3.8981 3.8749 3.8749 3.9216 4.0189 3.9941 3.9216 3.8749 3.8981 3.8749 0 0 0 3.8066 3.8519 4.1472 4.1472 4.2284 4.2561 4.2843 4.3128 4.3708 4.2843 4.2561 4.2561 4.2284 4.2561 4.2561 4.2843 4.2843 4.201 4.174 4.2284 4.2284 4.461 0 3.8066 3.8066 4.8989 4.8989 5.387 5.3426 5.387 4.6529 4.6529 4.6529 5.2561 5.2139 5.2139 4.5231 4.4919 4.4305 4.461 4.5231 4.4305 4.4005 4.5549 0 0 0 0 0 0 0 0 0 0 0 0 0 0 0 0 0 0 0 0 0 0 0 0 0 0 0 0 0 0 0 0 0 0 0 0 0 0 0 0 0 0 0 0 0 0 0 0 0 0 0 0 0 0 0 0 0 0 0 0 0 0 0 0 0 0 0 0 0 0 0 0 0 0 0 0 0 0 0 0 0 0 0 0 0 0 0 0 0 0 0 0 0
2.281 2.281 2.281 2.3053 2.3218 2.3385 2.3555 2.3555 2.3555 2.3814 2.3814 2.399 2.399 2.3902 2.3814 2.3727 2.3727 2.3814 2.3814 2.3727 2.3727 2.3727 2.3727 2.3727 2.3814 2.3902 2.3902 2.3902 2.4169 2.4169 2.4169 2.435 2.4442 2.4535 2.4628 2.4721 2.4816 2.4911 2.4721 2.4721 2.4721 2.4816 2.4816 2.4816 2.4721 2.4535 2.4535 2.4721 2.4816 2.4911 2.53 2.5399 2.5499 2.5499 2.56 2.5701 2.5701 2.56 2.56 2.56 2.56 2.5399 2.5399 2.5499 2.56 2.5701 2.5906 2.6115 2.6115 2.6115 2.6115 2.601 2.6115 2.6326 2.6651 2.6761 2.6871 2.7096 2.721 2.721 2.7325 2.7325 2.7325 2.721 2.721 2.7096 2.6984 2.6984 2.6984 2.7096 2.7096 2.7325 2.744 2.7674 2.7674 2.7793 2.7793 2.7793 2.7912 2.8401 2.8526 2.8653 2.8653 2.8779 2.8653 2.8908 2.8908 2.8908 2.8908 2.8779 2.8908 2.8908 2.9036 2.9167 2.9299 2.9167 2.9036 2.9167 2.9566 2.9701 2.9566 2.9431 2.9299 2.9299 2.9566 2.9566 2.9976 3.0115 3.0115 3.0398 3.0398 3.054 3.1276 3.1427 3.1581 3.1581 3.1735 3.2049 3.1891 3.2049 3.1891 3.2049 3.1581 3.1427 3.1581 3.1581 3.1581 3.1427 3.1891 3.2049 3.2207 3.2369 3.2695 3.2695 3.286 3.3367 3.389 3.389 3.4069 3.4249 3.443 3.4614 3.4614 3.4614 3.4614 3.48 3.48 3.4614 3.48 3.4614 3.48 3.4987 3.5176 3.5562 3.5759 3.5759 3.6157 3.5956 3.5956 3.6157 3.6157 3.6565 3.6157 3.6157 3.6565 3.6157 3.6157 3.6157 3.6565 3.6981 3.6981 3.7194 3.7407 3.7625 3.7844 3.7844 3.7625 3.7407 3.7194 3.7194 3.8066 3.8519 3.9216 3.8981 3.9216 3.8981 3.8981 3.9455 4.1472 4.174 3.8291 3.8749 3.8981 3.9455 4.0693 4.0439 3.9455 3.8749 3.8749 3.8749 3.8981 3.7844 3.8066 3.8066 3.8066 3.9941 4.0189 4.174 4.2561 4.2843 4.3128 4.3128 4.2843 4.2561 4.2284 4.2284 4.2561 4.2843 4.2843 4.2843 4.201 4.201 4.2284 4.2843 4.4305 4.6529 3.8066 3.8066 4.6865 4.6529 5.3426 5.3426 5.387 4.6529 4.6529 4.6529 5.2561 5.2561 5.2139 4.5549 4.461 4.4005 4.461 4.5871 4.4919 4.4305 4.5549 0 0 0 0 0 0 0 0 0 0 0 0 0 0 0 0 0 0 0 0 0 0 0 0 0 0 0 0 0 0 0 0 0 0 0 0 0 0 0 0 0 0 0 0 0 0 0 0 0 0 0 0 0 0 0 0 0 0 0 0 0 0 0 0 0 0 0 0 0 0 0 0 0 0 0 0 0 0 0 0 0 0 0 0 0 0 0 0 0 0 0 0 0
2.2971 2.3053 2.3053 2.3218 2.3301 2.347 2.364 2.3555 2.3555 2.3814 2.3814 2.399 2.399 2.399 2.399 2.3902 2.3814 2.3814 2.3814 2.3727 2.3727 2.364 2.3727 2.3814 2.3814 2.3902 2.3814 2.3902 2.4169 2.4169 2.426 2.435 2.4535 2.4721 2.4911 2.5008 2.5104 2.5104 2.5008 2.5008 2.5008 2.5008 2.5008 2.4911 2.4721 2.4535 2.4628 2.4721 2.4816 2.4911 2.53 2.5399 2.5499 2.56 2.56 2.5701 2.5701 2.5701 2.5701 2.56 2.5499 2.5399 2.5499 2.5499 2.56 2.5802 2.601 2.622 2.622 2.6115 2.6115 2.601 2.622 2.6434 2.6761 2.6761 2.6871 2.6984 2.7096 2.721 2.721 2.7325 2.721 2.721 2.721 2.6984 2.6984 2.6984 2.7096 2.7096 2.7096 2.7325 2.744 2.7674 2.7674 2.7674 2.7793 2.7674 2.7912 2.8401 2.8526 2.8526 2.8653 2.8779 2.8779 2.8908 2.9167 2.9036 2.9036 2.9036 2.9036 2.9299 2.9299 2.9566 2.9566 2.9701 2.9431 2.9566 3.0115 2.9976 2.9838 2.9701 2.9701 2.9566 3.0115 2.9976 3.0255 3.0255 3.0398 3.054 3.0685 3.0685 3.1427 3.1427 3.1581 3.1581 3.1735 3.2049 3.1891 3.1891 3.1891 3.1891 3.1427 3.1581 3.1581 3.1581 3.1581 3.1581 3.1891 3.2207 3.2369 3.2531 3.2695 3.2695 3.286 3.3367 3.4249 3.443 3.4614 3.48 3.4987 3.4987 3.48 3.48 3.4987 3.4987 3.4987 3.4987 3.48 3.48 3.4987 3.5176 3.5562 3.5759 3.5956 3.5956 3.6157 3.5956 3.6157 3.6157 3.6565 3.636 3.6157 3.5956 3.6565 3.6157 3.5956 3.5956 3.636 3.6981 3.6981 3.7194 3.7194 3.7407 3.7625 3.8066 3.7844 3.7625 3.7407 3.7625 3.8981 3.9455 3.9216 3.8981 3.8981 3.8981 3.9216 3.9696 4.201 4.2561 3.8519 3.8981 3.9455 3.9941 4.095 4.121 4.0439 3.9455 3.8981 3.8981 3.9216 3.7625 3.7407 3.7625 3.7625 3.9455 3.9941 4.2284 4.3128 4.3415 4.3415 4.3708 4.3128 4.3128 4.2843 4.2843 4.2843 4.2843 4.3128 4.2843 4.201 4.201 4.2284 4.2843 4.4919 4.5871 4.6529 4.6529 4.6865 4.6865 5.3426 5.299 5.387 5.3426 5.1723 5.0515 5.1314 5.299 5.3426 4.5549 4.4919 4.4005 4.4919 4.7206 4.6197 4.5549 4.7904 0 0 0 0 0 0 0 0 0 0 0 0 0 0 0 0 0 0 0 0 0 0 0 0 0 0 0 0 0 0 0 0 0 0 0 0 0 0 0 0 0 0 0 0 0 0 0 0 0 0 0 0 0 0 0 0 0 0 0 0 0 0 0 0 0 0 0 0 0 0 0 0 0 0 0 0 0 0 0 0 0 0 0 0 0 0 0 0 0 0 0 0 0
2.3053 2.3053 2.3135 2.3301 2.3385 2.347 2.3555 2.3555 2.347 2.3814 2.3814 2.3814 2.3902 2.3902 2.399 2.399 2.3902 2.3814 2.3814 2.3814 2.3727 2.3727 2.3727 2.3814 2.3814 2.3814 2.3814 2.3902 2.4169 2.426 2.435 2.4442 2.4535 2.4911 2.5104 2.5201 2.53 2.53 2.5201 2.5104 2.5201 2.5104 2.5104 2.5008 2.4816 2.4628 2.4721 2.4816 2.4816 2.5008 2.53 2.5399 2.5499 2.5499 2.56 2.5802 2.5802 2.56 2.56 2.56 2.56 2.5499 2.5399 2.5499 2.5499 2.5701 2.601 2.622 2.6115 2.6115 2.6115 2.6115 2.622 2.6434 2.6761 2.6651 2.6761 2.6761 2.6984 2.6984 2.721 2.721 2.721 2.7096 2.7096 2.6984 2.6984 2.6984 2.7096 2.7096 2.7096 2.7325 2.7325 2.7556 2.744 2.7556 2.7674 2.7674 2.7793 2.8401 2.8526 2.8526 2.8653 2.8653 2.8908 2.9036 2.9167 2.9036 2.9167 2.9167 2.9299 2.9299 2.9566 2.9566 2.9838 2.9838 2.9701 2.9701 3.0115 3.0255 2.9838 2.9701 2.9838 2.9701 3.0115 3.0255 3.0255 3.054 3.0398 3.0685 3.083 3.083 3.1581 3.1581 3.1581 3.1581 3.1581 3.1891 3.1735 3.1735 3.1735 3.1735 3.1427 3.1276 3.1427 3.1581 3.1581 3.1735 3.1891 3.2207 3.2369 3.2695 3.2695 3.286 3.286 3.3367 3.4249 3.443 3.4614 3.48 3.4987 3.48 3.48 3.48 3.48 3.4987 3.48 3.48 3.48 3.443 3.4614 3.4987 3.5176 3.5759 3.5759 3.5956 3.5956 3.5956 3.6157 3.636 3.636 3.6565 3.636 3.6157 3.636 3.6157 3.5759 3.5759 3.6157 3.6981 3.6981 3.6981 3.7194 3.7407 3.7625 3.7844 3.7844 3.7625 3.7625 3.7844 3.8749 3.9455 3.9216 3.8981 3.8981 3.8749 3.9455 3.9941 4.174 4.2561 3.8749 3.8981 3.8981 3.9455 4.0693 4.095 4.0693 3.9941 3.8519 3.8981 3.9216 3.7194 3.6771 3.6771 3.7194 3.8519 4.2843 4.2843 4.3708 4.3708 4.4005 4.4305 4.4005 4.3708 4.3415 4.3128 4.3128 4.3415 4.3128 4.3128 4.174 4.201 4.2284 4.2843 4.5231 4.5871 4.6865 4.6865 4.7206 4.826 5.0911 5.1723 5.299 5.2139 5.0124 4.974 5.0515 5.2139 5.299 4.4919 4.461 4.4005 4.461 4.7553 4.5549 4.5231 4.5549 0 0 0 0 0 0 0 0 0 0 0 0 0 0 0 0 0 0 0 0 0 0 0 0 0 0 0 0 0 0 0 0 0 0 0 0 0 0 0 0 0 0 0 0 0 0 0 0 0 0 0 0 0 0 0 0 0 0 0 0 0 0 0 0 0 0 0 0 0 0 0 0 0 0 0 0 0 0 0 0 0 0 0 0 0 0 0 0 0 0 0 0 0
2.3053 2.3135 2.3135 2.3301 2.3385 2.3385 2.3385 2.3301 2.3218 2.3555 2.3555 2.364 2.364 2.3727 2.3814 2.3814 2.3902 2.3902 2.3814 2.364 2.364 2.3727 2.3727 2.3814 2.3814 2.3814 2.3727 2.3814 2.399 2.4169 2.4169 2.4442 2.4442 2.4816 2.5008 2.5104 2.53 2.5201 2.5201 2.5201 2.5201 2.53 2.5201 2.5104 2.4911 2.4721 2.4721 2.4816 2.4911 2.5008 2.53 2.53 2.5499 2.56 2.56 2.5701 2.5802 2.56 2.56 2.56 2.5499 2.5399 2.5399 2.5399 2.5499 2.56 2.601 2.6115 2.622 2.6115 2.6115 2.601 2.6326 2.6434 2.6651 2.6651 2.6543 2.6543 2.6761 2.6761 2.6984 2.7096 2.7096 2.6984 2.6984 2.6984 2.6984 2.7096 2.6984 2.7096 2.7096 2.721 2.721 2.7325 2.7325 2.7325 2.744 2.744 2.7556 2.7793 2.8032 2.8155 2.8401 2.8653 2.8908 2.9036 2.9036 2.9167 2.9167 2.9167 2.9431 2.9431 2.9566 2.9701 2.9701 2.9976 2.9976 2.9976 3.0115 2.9976 2.9976 2.9838 2.9976 2.9976 3.0255 3.0398 3.054 3.0685 3.054 3.083 3.083 3.0978 3.1581 3.1427 3.1427 3.1427 3.1427 3.1581 3.1427 3.1427 3.1276 3.1276 3.1276 3.1276 3.1581 3.1581 3.1735 3.1735 3.1891 3.2207 3.2369 3.2695 3.2695 3.2531 3.2531 3.286 3.389 3.4069 3.4249 3.48 3.4987 3.4987 3.4614 3.48 3.4987 3.4987 3.4249 3.4069 3.4069 3.3714 3.389 3.4249 3.48 3.5369 3.5369 3.5759 3.5759 3.5759 3.5956 3.6157 3.6157 3.636 3.6157 3.5956 3.5956 3.5759 3.5759 3.5759 3.5956 3.6565 3.6771 3.6771 3.7194 3.7407 3.7625 3.7844 3.7625 3.7625 3.7625 3.7625 3.8749 3.8981 3.9216 3.9216 3.8981 3.8981 3.9455 4.0189 4.174 4.2561 3.9455 3.8981 3.9216 3.9455 4.0693 4.121 4.095 3.9941 3.8981 3.9216 3.9696 3.6771 3.6565 3.6565 3.636 3.8519 4.201 4.3415 4.4005 4.4005 4.461 4.461 4.461 4.4305 4.4005 4.3415 4.3708 4.3415 4.3708 4.3128 4.201 4.201 4.2284 4.3128 4.4919 4.5549 4.6865 4.7206 4.7206 4.826 4.9361 5.0124 5.1723 5.0911 4.9361 4.8989 4.974 5.0124 5.2561 4.5231 4.461 4.4005 4.4005 4.826 4.4919 4.4919 4.5549 0 0 0 0 0 0 0 0 0 0 0 0 0 0 0 0 0 0 0 0 0 0 0 0 0 0 0 0 0 0 0 0 0 0 0 0 0 0 0 0 0 0 0 0 0 0 0 0 0 0 0 0 0 0 0 0 0 0 0 0 0 0 0 0 0 0 0 0 0 0 0 0 0 0 0 0 0 0 0 0 0 0 0 0 0 0 0 0 0 0 0 0 0
2.3053 2.3135 2.3218 2.3301 2.3385 2.3385 2.3385 2.3301 2.3218 2.347 2.3555 2.3555 2.3555 2.3555 2.3814 2.3814 2.3814 2.3814 2.3727 2.364 2.364 2.364 2.3727 2.3814 2.3727 2.364 2.364 2.3727 2.4079 2.4169 2.4169 2.435 2.4442 2.4721 2.4911 2.4911 2.5201 2.5201 2.5201 2.53 2.53 2.53 2.5201 2.5201 2.5008 2.4911 2.4911 2.4911 2.4911 2.5008 2.5201 2.53 2.5499 2.56 2.56 2.5701 2.5802 2.56 2.56 2.56 2.5499 2.5399 2.5399 2.5499 2.5399 2.5701 2.601 2.6115 2.622 2.622 2.622 2.622 2.6326 2.6543 2.6543 2.6543 2.6543 2.6651 2.6761 2.6871 2.6871 2.6984 2.7096 2.6984 2.6984 2.7096 2.6984 2.6984 2.7096 2.7096 2.7096 2.7325 2.7325 2.7325 2.7325 2.7325 2.744 2.744 2.744 2.7793 2.7912 2.7912 2.8277 2.8526 2.8908 2.9036 2.9167 2.9167 2.9299 2.9299 2.9566 2.9701 2.9566 2.9701 2.9701 2.9976 2.9976 2.9976 3.0115 2.9976 2.9976 2.9838 2.9976 2.9976 3.0115 3.0255 3.083 3.0978 3.0978 3.1126 3.1126 3.1276 3.1581 3.1427 3.1427 3.1276 3.1276 3.1427 3.1427 3.1276 3.1276 3.1276 3.1276 3.1276 3.1581 3.1891 3.1891 3.2049 3.2207 3.2369 3.2531 3.2531 3.2695 3.2369 3.2531 3.286 3.3714 3.389 3.4249 3.4614 3.4987 3.4987 3.4987 3.48 3.5176 3.4987 3.4069 3.4069 3.4069 3.3714 3.389 3.4249 3.4614 3.5176 3.5176 3.5562 3.5562 3.5562 3.5956 3.5956 3.6157 3.6157 3.5956 3.5759 3.5562 3.5562 3.5562 3.5562 3.5759 3.6771 3.6565 3.6771 3.7194 3.7625 3.7625 3.7844 3.8066 3.7844 3.7844 3.8066 3.8749 3.8749 3.8981 4.095 3.9941 3.9941 4.0189 4.0693 4.174 4.3128 3.9455 4.0189 4.1472 4.1472 4.095 4.1472 4.1472 4.095 4.0693 4.0439 4.0189 3.7625 3.7625 3.7625 3.7407 4.2561 4.2284 4.3128 4.4005 4.4305 4.4305 4.4919 4.5231 4.5231 4.4919 4.4305 4.4305 4.4005 4.4005 4.3708 4.2284 4.2561 4.2843 4.3128 4.4919 4.5549 4.6197 4.7206 4.7206 4.826 4.8989 4.974 5.1723 5.0911 4.9361 4.8621 4.9361 5.0124 0 4.5231 4.5231 4.4919 4.461 5.0515 4.5549 4.5871 4.7904 0 0 0 0 0 0 0 0 0 0 0 0 0 0 0 0 0 0 0 0 0 0 0 0 0 0 0 0 0 0 0 0 0 0 0 0 0 0 0 0 0 0 0 0 0 0 0 0 0 0 0 0 0 0 0 0 0 0 0 0 0 0 0 0 0 0 0 0 0 0 0 0 0 0 0 0 0 0 0 0 0 0 0 0 0 0 0 0 0 0 0 0 0
2.3218 2.3301 2.3301 2.3385 2.347 2.347 2.3385 2.3301 2.3218 2.347 2.347 2.347 2.347 2.347 2.364 2.3727 2.3727 2.3727 2.364 2.3555 2.3555 2.3555 2.364 2.3727 2.3727 2.3727 2.364 2.364 2.399 2.399 2.4169 2.4169 2.426 2.4628 2.4816 2.4911 2.5008 2.5008 2.5104 2.5201 2.53 2.53 2.53 2.5008 2.4911 2.4911 2.4816 2.4816 2.4911 2.4911 2.5008 2.5104 2.53 2.5499 2.56 2.56 2.56 2.56 2.5499 2.5499 2.5499 2.5499 2.5499 2.5499 2.56 2.5802 2.6115 2.622 2.6326 2.622 2.6326 2.622 2.6434 2.6434 2.6651 2.6543 2.6651 2.6651 2.6871 2.6871 2.7096 2.721 2.7096 2.7096 2.7096 2.7096 2.6984 2.7096 2.7096 2.7096 2.721 2.7325 2.7325 2.744 2.7325 2.7325 2.744 2.7325 2.744 2.7674 2.7793 2.7912 2.8155 2.8526 2.8908 2.8908 2.9036 2.9167 2.9299 2.9299 2.9566 2.9701 2.9701 2.9838 2.9838 3.0115 2.9976 3.0115 3.0115 3.0115 2.9838 2.9838 2.9838 2.9976 3.0115 3.0255 3.083 3.083 3.0978 3.1276 3.1276 3.1276 3.1735 3.1581 3.1427 3.1276 3.1276 3.1276 3.1427 3.1276 3.1427 3.1276 3.1276 3.1581 3.1581 3.2207 3.2207 3.2207 3.2207 3.2531 3.2531 3.286 3.2531 3.2531 3.2369 3.2695 3.354 3.3714 3.4069 3.4614 3.48 3.4987 3.4987 3.4987 3.4987 3.4987 3.4249 3.4069 3.4069 3.389 3.4069 3.443 3.48 3.5369 3.5176 3.5369 3.5369 3.5369 3.5956 3.5759 3.5956 3.5956 3.5759 3.5562 3.5562 3.5369 3.5369 3.5176 3.5956 3.6771 3.6771 3.6771 3.7625 3.7844 3.8066 3.8066 3.8291 3.8291 3.8066 3.8291 3.8981 3.8749 3.8981 4.0189 3.9941 3.9216 4.0189 4.0189 3.8749 3.7407 3.7625 4.0189 4.1472 4.121 4.0693 4.1472 4.1472 4.121 4.121 4.121 4.095 3.9696 3.8291 3.7844 3.7407 4.2561 4.2284 4.3415 4.4005 4.4305 4.461 4.4919 4.4919 4.5549 4.4919 4.461 4.461 4.461 4.3708 4.3415 4.201 4.201 4.2561 4.2843 4.461 4.5231 4.6197 4.6865 4.7206 4.8621 4.8989 4.974 5.1723 5.0911 4.9361 4.8621 4.8621 4.8621 0 4.5231 4.5231 4.5549 4.3128 4.2843 4.3128 4.3128 5.0515 0 0 0 0 0 0 0 0 0 0 0 0 0 0 0 0 0 0 0 0 0 0 0 0 0 0 0 0 0 0 0 0 0 0 0 0 0 0 0 0 0 0 0 0 0 0 0 0 0 0 0 0 0 0 0 0 0 0 0 0 0 0 0 0 0 0 0 0 0 0 0 0 0 0 0 0 0 0 0 0 0 0 0 0 0 0 0 0 0 0 0 0 0
2.3301 2.347 2.3385 2.3385 2.3385 2.347 2.3385 2.3218 2.3218 2.3385 2.3385 2.3218 2.3218 2.3301 2.3385 2.347 2.3555 2.3555 2.3385 2.3301 2.3301 2.347 2.364 2.364 2.364 2.364 2.3555 2.364 2.3814 2.3902 2.399 2.4079 2.4079 2.426 2.4442 2.4535 2.4816 2.4721 2.4816 2.4911 2.5008 2.5104 2.5008 2.4911 2.4816 2.4816 2.4816 2.4816 2.4816 2.4816 2.5008 2.5104 2.53 2.5499 2.56 2.56 2.56 2.56 2.56 2.5499 2.5499 2.5701 2.5701 2.5802 2.5802 2.5906 2.6326 2.6434 2.6326 2.6326 2.6434 2.6434 2.6434 2.6434 2.6761 2.6761 2.6871 2.6871 2.6871 2.6984 2.721 2.7325 2.7325 2.7325 2.721 2.721 2.721 2.7096 2.721 2.7325 2.7325 2.744 2.744 2.744 2.744 2.744 2.7556 2.744 2.7556 2.7674 2.7674 2.7674 2.8032 2.8277 2.8908 2.9036 2.9036 2.9167 2.9299 2.9431 2.9838 2.9838 3.0115 2.9976 3.0115 3.0115 3.0115 3.0115 2.9976 2.9976 2.9566 2.9701 2.9701 2.9838 3.0115 3.0398 3.083 3.0978 3.083 3.1126 3.1126 3.1276 3.1735 3.1581 3.1427 3.1126 3.1126 3.1126 3.1276 3.1276 3.1427 3.1581 3.1581 3.1735 3.1891 3.2369 3.2369 3.2531 3.2531 3.2531 3.2531 3.286 3.2695 3.2369 3.2369 3.2695 3.3367 3.354 3.389 3.4614 3.48 3.48 3.4987 3.5176 3.4987 3.4987 3.443 3.443 3.443 3.4614 3.4614 3.4987 3.5176 3.5759 3.5562 3.5369 3.5369 3.5369 3.5562 3.5759 3.5956 3.5759 3.5369 3.5369 3.5759 3.5562 3.5176 3.5176 3.5759 3.6565 3.636 3.6565 3.8291 3.8519 3.8749 3.8981 3.9455 3.9455 3.9216 3.9696 4.0439 3.9941 3.8519 4.121 4.0439 3.9696 3.9455 3.9216 3.8749 3.8519 3.8981 4.0439 4.121 4.121 4.0693 4.1472 4.174 4.174 4.174 4.201 4.2284 4.0693 3.9696 3.7625 3.7407 4.3128 4.2843 4.3708 4.4005 4.4005 4.4305 4.4305 4.461 4.5231 4.5231 4.4919 4.461 4.4919 4.3708 4.3128 4.174 4.174 4.201 4.2561 4.4305 4.4919 4.6197 4.6197 4.6865 4.826 4.8989 4.974 5.1314 5.1314 4.7904 4.6865 4.6865 4.8621 0 4.4919 4.5549 4.5871 4.2843 4.2843 4.2561 4.3128 5.0515 0 0 0 0 0 0 0 0 0 0 0 0 0 0 0 0 0 0 0 0 0 0 0 0 0 0 0 0 0 0 0 0 0 0 0 0 0 0 0 0 0 0 0 0 0 0 0 0 0 0 0 0 0 0 0 0 0 0 0 0 0 0 0 0 0 0 0 0 0 0 0 0 0 0 0 0 0 0 0 0 0 0 0 0 0 0 0 0 0 0 0 0 0
2.3385 2.3555 2.3385 2.3385 2.347 2.3385 2.3385 2.3218 2.3135 2.3385 2.3301 2.3218 2.3218 2.3218 2.3385 2.347 2.3555 2.347 2.3301 2.3218 2.3218 2.3385 2.364 2.3727 2.3555 2.364 2.364 2.3727 2.3902 2.399 2.399 2.399 2.4079 2.426 2.435 2.4442 2.4628 2.4628 2.4721 2.4816 2.4911 2.4911 2.4816 2.4816 2.4816 2.4721 2.4721 2.4816 2.4816 2.4816 2.5008 2.5104 2.5399 2.56 2.5701 2.56 2.56 2.5701 2.56 2.56 2.56 2.5802 2.5802 2.5906 2.5906 2.6115 2.6326 2.6543 2.6434 2.6543 2.6543 2.6543 2.6434 2.6543 2.6761 2.6871 2.6871 2.6984 2.6984 2.6984 2.7325 2.7325 2.7325 2.744 2.7096 2.7096 2.721 2.721 2.7325 2.7325 2.744 2.744 2.744 2.744 2.7556 2.744 2.744 2.7556 2.7556 2.7556 2.7674 2.7674 2.8032 2.8277 2.8653 2.8908 2.9036 2.9167 2.9299 2.9566 2.9976 2.9976 3.0115 3.0115 3.0115 3.0115 3.0115 3.0115 2.9976 2.9838 2.9431 2.9431 2.9701 2.9838 3.0115 3.0398 3.083 3.0978 3.083 3.0978 3.1126 3.1276 3.1581 3.1581 3.1276 3.0978 3.0978 3.1126 3.1276 3.1276 3.1581 3.1581 3.1581 3.1891 3.2049 3.2531 3.2695 3.2531 3.2695 3.2695 3.2695 3.2695 3.2695 3.2369 3.2369 3.2531 3.3196 3.3367 3.3714 3.4614 3.4614 3.48 3.5176 3.4987 3.4987 3.4987 3.48 3.48 3.4987 3.48 3.4987 3.5176 3.5369 3.5759 3.5562 3.5562 3.5562 3.5369 3.5562 3.5759 3.5759 3.5759 3.5369 3.5176 3.5956 3.5562 3.5176 3.5176 3.5759 3.6565 3.6157 3.636 3.8519 3.8981 3.9216 3.9455 4.0189 3.9941 3.9696 4.0189 4.1472 4.121 4.095 4.2561 4.121 3.9696 3.9455 3.8981 3.8981 3.9216 3.9455 4.0693 4.121 4.121 4.095 4.1472 4.174 4.1472 4.174 4.2284 4.2561 4.095 4.0693 4.174 4.201 4.3415 4.3708 4.3415 4.4005 4.4005 4.4005 4.4005 4.4305 4.4919 4.4919 4.4919 4.461 4.4919 4.3708 4.2843 4.1472 4.1472 4.174 4.201 4.4005 4.4919 4.5871 4.5871 4.6529 4.7553 4.826 4.8989 5.1314 5.1314 4.7553 4.5871 4.6197 4.5871 0 4.5231 4.5231 4.5549 4.2561 4.2284 4.2284 4.2284 5.0515 0 0 0 0 0 0 0 0 0 0 0 0 0 0 0 0 0 0 0 0 0 0 0 0 0 0 0 0 0 0 0 0 0 0 0 0 0 0 0 0 0 0 0 0 0 0 0 0 0 0 0 0 0 0 0 0 0 0 0 0 0 0 0 0 0 0 0 0 0 0 0 0 0 0 0 0 0 0 0 0 0 0 0 0 0 0 0 0 0 0 0 0 0
2.3385 2.3555 2.3301 2.3385 2.3385 2.3385 2.3301 2.3218 2.3218 2.3385 2.3385 2.3218 2.3135 2.3218 2.3385 2.347 2.347 2.347 2.3385 2.3218 2.3301 2.3385 2.364 2.3727 2.3727 2.3727 2.3727 2.3727 2.399 2.4079 2.4079 2.4079 2.4079 2.426 2.435 2.435 2.4442 2.4442 2.4535 2.4628 2.4721 2.4816 2.4721 2.4721 2.4721 2.4816 2.4816 2.4911 2.4816 2.4816 2.5104 2.5104 2.53 2.5499 2.56 2.5701 2.5701 2.56 2.56 2.5701 2.5701 2.5906 2.5906 2.6115 2.6115 2.622 2.6434 2.6543 2.6543 2.6651 2.6543 2.6543 2.6434 2.6543 2.6761 2.6871 2.6761 2.6871 2.6984 2.6984 2.7325 2.7325 2.744 2.7325 2.721 2.721 2.7325 2.7325 2.744 2.744 2.744 2.744 2.744 2.744 2.744 2.744 2.744 2.744 2.744 2.7674 2.7674 2.7674 2.8032 2.8155 2.8526 2.8779 2.8779 2.9036 2.9167 2.9299 2.9838 2.9838 2.9838 2.9838 2.9838 2.9838 2.9976 2.9976 2.9838 2.9566 2.9431 2.9431 2.9701 2.9838 3.0115 3.0398 3.0685 3.083 3.083 3.1126 3.1276 3.1427 3.1427 3.1427 3.1276 3.0978 3.083 3.0978 3.1126 3.1276 3.1427 3.1581 3.1735 3.1891 3.2049 3.2531 3.2531 3.2531 3.2531 3.2531 3.2531 3.2531 3.2531 3.2207 3.2049 3.2531 3.3196 3.354 3.389 3.4614 3.4614 3.48 3.4987 3.4987 3.4987 3.4987 3.48 3.4987 3.4987 3.5176 3.5176 3.5369 3.5759 3.5956 3.5956 3.5562 3.5759 3.5562 3.5759 3.5759 3.5956 3.5956 3.5759 3.5562 3.636 3.5759 3.4987 3.4614 3.48 3.4614 3.443 3.443 3.8519 3.8519 3.8519 3.9216 3.9941 4.0189 3.9696 3.9941 4.174 4.1472 4.121 4.121 3.9941 3.9455 3.9455 3.8291 3.8066 3.7844 3.8066 3.9941 4.095 4.1472 4.1472 4.1472 4.174 4.174 4.174 4.2561 4.2843 4.121 4.095 4.1472 4.174 4.3415 4.3708 4.3415 4.3708 4.3708 4.3708 4.4005 4.4305 4.4305 4.4305 4.4005 4.4305 4.4305 4.4005 4.3128 4.1472 4.1472 4.1472 4.174 4.3708 4.461 4.4919 4.4305 4.461 4.4305 4.461 4.461 4.7904 4.7553 4.5231 4.5231 4.5231 4.5231 0 4.5231 4.5231 4.5549 4.2284 4.2284 4.2284 4.2284 5.0515 5.0911 5.0911 5.2561 5.2561 0 0 0 0 0 0 0 0 0 0 0 0 0 0 0 0 0 0 0 0 0 0 0 0 0 0 0 0 0 0 0 0 0 0 0 0 0 0 0 0 0 0 0 0 0 0 0 0 0 0 0 0 0 0 0 0 0 0 0 0 0 0 0 0 0 0 0 0 0 0 0 0 0 0 0 0 0 0 0 0 0 0 0 0 0 0 0 0 0
2.3053 2.3218 2.3218 2.3218 2.3218 2.3301 2.3218 2.3218 2.3135 2.3385 2.3301 2.3385 2.3301 2.3385 2.347 2.364 2.364 2.3555 2.3385 2.3301 2.3301 2.3385 2.3727 2.3814 2.3902 2.3814 2.3902 2.3902 2.4079 2.4169 2.4169 2.4079 2.4169 2.4169 2.426 2.435 2.435 2.4442 2.4442 2.4628 2.4721 2.4816 2.4721 2.4721 2.4816 2.4816 2.4911 2.4911 2.5008 2.4911 2.5104 2.5008 2.5399 2.56 2.56 2.5701 2.5701 2.5701 2.5701 2.5701 2.5802 2.601 2.6115 2.6326 2.6326 2.6434 2.6651 2.6761 2.6761 2.6761 2.6761 2.6651 2.6651 2.6651 2.6761 2.6871 2.6871 2.6984 2.6984 2.7096 2.744 2.744 2.7556 2.7556 2.744 2.744 2.7556 2.7556 2.7556 2.7674 2.7556 2.7556 2.7556 2.744 2.7556 2.7556 2.7556 2.744 2.744 2.7793 2.7912 2.7912 2.8277 2.8401 2.8653 2.8779 2.8779 2.8908 2.9167 2.9167 2.9566 2.9566 2.9701 2.9701 2.9701 2.9701 2.9838 2.9838 2.9838 2.9566 2.9431 2.9566 2.9701 2.9976 2.9976 3.0255 3.054 3.0685 3.083 3.0978 3.1276 3.1427 3.1581 3.1581 3.1427 3.1276 3.1126 3.1276 3.1427 3.1427 3.1581 3.1735 3.1735 3.2207 3.2369 3.2695 3.2695 3.2695 3.2695 3.2695 3.2695 3.2531 3.2531 3.2207 3.2207 3.2531 3.3196 3.3367 3.3714 3.443 3.4614 3.4614 3.48 3.4987 3.5369 3.5176 3.5369 3.5562 3.5562 3.5759 3.5759 3.6157 3.636 3.6565 3.636 3.5956 3.5956 3.5956 3.5956 3.5956 3.6157 3.6565 3.6157 3.6157 3.6565 3.6157 3.5176 3.48 3.48 3.5176 3.4987 3.443 3.7844 3.8291 3.8519 3.9216 3.9696 4.0189 3.9455 3.9696 4.1472 4.1472 4.095 4.121 0 0 0 3.8291 3.8291 3.7844 3.7625 4.095 4.1472 4.201 4.201 4.174 4.174 4.174 4.2284 4.2561 4.2843 4.121 4.121 4.1472 4.174 4.3415 4.3708 4.3415 4.3415 4.3415 4.3708 4.3708 4.4305 4.4305 4.4305 4.3708 4.4005 4.4305 4.4005 4.3128 4.121 4.121 4.121 4.174 4.4005 4.461 4.461 4.4305 4.4305 4.4005 4.4305 4.5231 4.7206 4.6865 4.5231 4.4919 4.4919 4.5231 0 0 0 0 4.6865 4.8989 5.0515 5.1723 5.1314 5.1314 5.2139 5.2561 5.2561 0 0 0 0 0 0 0 0 0 0 0 0 0 0 0 0 0 0 0 0 0 0 0 0 0 0 0 0 0 0 0 0 0 0 0 0 0 0 0 0 0 0 0 0 0 0 0 0 0 0 0 0 0 0 0 0 0 0 0 0 0 0 0 0 0 0 0 0 0 0 0 0 0 0 0 0 0 0 0 0 0 0 0 0 0 0 0 0 0
2.289 2.2971 2.3053 2.3053 2.3053 2.3135 2.3218 2.3218 2.3218 2.3385 2.3385 2.3385 2.3385 2.347 2.3555 2.3727 2.3727 2.364 2.347 2.3385 2.3385 2.347 2.3727 2.3902 2.3902 2.399 2.399 2.399 2.4169 2.4169 2.4169 2.4079 2.4079 2.426 2.4169 2.426 2.435 2.435 2.4442 2.4628 2.4721 2.4816 2.4721 2.4816 2.4721 2.4911 2.4911 2.4911 2.5008 2.5008 2.5008 2.5008 2.53 2.56 2.5701 2.5701 2.5701 2.5701 2.5802 2.5802 2.5802 2.6115 2.622 2.6434 2.6543 2.6543 2.6761 2.6761 2.6871 2.6761 2.6871 2.6651 2.6651 2.6761 2.6871 2.6871 2.6984 2.6984 2.7096 2.721 2.744 2.744 2.7556 2.7674 2.7556 2.7556 2.7674 2.7674 2.7674 2.7674 2.7556 2.7556 2.7556 2.7556 2.7556 2.7556 2.7556 2.7556 2.7556 2.7912 2.7912 2.8032 2.8277 2.8401 2.8779 2.8779 2.8779 2.9036 2.9167 2.9167 2.9431 2.9431 2.9431 2.9431 2.9431 2.9701 2.9701 2.9701 2.9701 2.9431 2.9566 2.9566 2.9701 2.9838 2.9976 3.0115 3.054 3.054 3.0685 3.0978 3.1126 3.1276 3.1735 3.1735 3.1581 3.1581 3.1427 3.1581 3.1735 3.1735 3.1891 3.1891 3.1891 3.2369 3.2531 3.2695 3.286 3.286 3.286 3.286 3.2695 3.2531 3.2531 3.2369 3.2207 3.2531 3.3028 3.3196 3.3367 3.4069 3.443 3.443 3.48 3.5176 3.5369 3.5562 3.5562 3.5956 3.5956 3.6157 3.6157 3.636 3.6565 3.6771 3.636 3.5759 3.5956 3.5956 3.5956 3.5956 3.5956 3.6565 3.6565 3.6565 3.6565 3.636 3.5369 3.48 3.5176 3.5562 3.5759 3.5956 3.7194 3.7625 3.8291 3.9216 3.9696 3.9696 3.9216 3.9455 4.0439 4.121 4.0439 3.9941 3.9216 3.8981 4.201 3.9696 3.9941 4.2561 4.174 4.1472 4.201 4.201 4.174 4.121 4.174 4.174 4.2284 4.2843 4.2561 4.121 4.095 4.1472 4.1472 4.3708 4.3708 4.3415 4.3415 4.3708 4.3708 4.4005 4.4005 4.4005 4.3708 4.3708 4.3708 4.4305 4.3708 4.2843 4.121 4.121 4.1472 4.174 4.4005 4.4305 4.461 4.4305 4.4005 4.4005 4.3708 4.4919 4.6865 4.6197 4.4919 4.461 4.4305 4.2561 4.2284 5.0124 5.0124 5.0515 4.974 5.0124 5.1314 5.2139 5.1723 5.1723 5.2561 5.299 5.299 5.299 0 0 0 0 0 0 0 0 0 0 0 0 0 0 0 0 0 0 0 0 0 0 0 0 0 0 0 0 0 0 0 0 0 0 0 0 0 0 0 0 0 0 0 0 0 0 0 0 0 0 0 0 0 0 0 0 0 0 0 0 0 0 0 0 0 0 0 0 0 0 0 0 0 0 0 0 0 0 0 0 0 0 0 0 0 0 0 0
2.265 2.265 2.273 2.289 2.2971 2.2971 2.3135 2.3135 2.3218 2.347 2.347 2.347 2.347 2.347 2.364 2.3727 2.3727 2.364 2.3555 2.3385 2.3385 2.347 2.3727 2.3814 2.3814 2.399 2.3902 2.399 2.4079 2.4169 2.4079 2.4079 2.399 2.399 2.3902 2.399 2.4079 2.4079 2.4079 2.4442 2.4535 2.4628 2.4628 2.4721 2.4816 2.4911 2.4911 2.4911 2.5008 2.5008 2.5104 2.5104 2.53 2.5499 2.56 2.56 2.5701 2.5499 2.56 2.5701 2.5802 2.601 2.622 2.6326 2.6434 2.6326 2.6543 2.6651 2.6761 2.6871 2.6871 2.6761 2.6761 2.6761 2.6871 2.6984 2.6984 2.6984 2.7096 2.7096 2.7325 2.744 2.7674 2.7556 2.7674 2.7674 2.7793 2.7912 2.7793 2.7793 2.7793 2.7674 2.7674 2.7674 2.7556 2.7674 2.7556 2.7556 2.7556 2.7793 2.7912 2.8032 2.8526 2.8526 2.8779 2.8779 2.8779 2.8908 2.9036 2.9036 2.9167 2.9167 2.9167 2.9167 2.9167 2.9299 2.9299 2.9566 2.9566 2.9431 2.9299 2.9566 2.9566 2.9701 2.9701 2.9976 3.0398 3.0398 3.0685 3.0978 3.1126 3.1276 3.1581 3.1581 3.1581 3.1735 3.1581 3.1427 3.1581 3.1581 3.1891 3.2049 3.1891 3.2531 3.2531 3.286 3.3028 3.286 3.3028 3.286 3.2531 3.2531 3.2531 3.2207 3.2207 3.2369 3.286 3.3196 3.3367 3.389 3.4249 3.4614 3.4614 3.5176 3.5562 3.5759 3.5759 3.6157 3.636 3.636 3.6565 3.6771 3.6771 3.6771 3.636 3.6157 3.5956 3.6157 3.5956 3.6157 3.6157 3.6565 3.636 3.636 3.6771 3.6565 3.5956 3.5369 3.5562 3.636 3.636 3.636 3.7407 3.8066 3.8519 3.8519 3.9455 3.9696 3.8981 3.9216 4.0439 4.121 4.121 3.9941 3.9216 3.8981 4.0189 4.0439 4.1472 4.2284 4.2284 4.201 4.2284 4.201 4.201 4.121 4.174 4.201 4.2284 4.2843 4.2561 4.1472 4.121 4.1472 4.201 4.2561 4.2843 4.2843 4.2843 4.2561 4.2843 4.3128 4.3128 4.3128 4.3128 4.3128 4.3128 4.3708 4.3415 4.2843 4.121 4.121 4.1472 4.201 4.4005 4.4305 4.4305 4.4305 4.4005 4.3708 4.3708 4.461 4.5549 4.4919 4.461 4.4005 4.3415 4.2284 4.2561 5.0124 5.0124 5.0515 5.0124 5.0911 5.2139 5.2139 5.1723 5.1723 5.299 5.299 5.3426 5.299 0 0 0 0 0 0 0 0 0 0 0 0 0 0 0 0 0 0 0 0 0 0 0 0 0 0 0 0 0 0 0 0 0 0 0 0 0 0 0 0 0 0 0 0 0 0 0 0 0 0 0 0 0 0 0 0 0 0 0 0 0 0 0 0 0 0 0 0 0 0 0 0 0 0 0 0 0 0 0 0 0 0 0 0 0 0 0 0
2.2571 2.265 2.273 2.281 2.289 2.3053 2.3135 2.3218 2.3301 2.3555 2.3555 2.3555 2.3555 2.3555 2.364 2.3727 2.3727 2.364 2.364 2.3385 2.3385 2.347 2.3727 2.3814 2.3814 2.399 2.399 2.3902 2.4079 2.4079 2.4079 2.399 2.399 2.399 2.3902 2.3902 2.4079 2.4079 2.4169 2.435 2.4535 2.4721 2.4628 2.4721 2.4816 2.5008 2.5008 2.5104 2.5104 2.5201 2.5104 2.5201 2.5399 2.5499 2.56 2.56 2.5701 2.56 2.5701 2.5701 2.5802 2.601 2.6115 2.6434 2.6326 2.6326 2.6543 2.6651 2.6761 2.6761 2.6871 2.6761 2.6761 2.6871 2.6871 2.6984 2.6984 2.6984 2.7096 2.721 2.744 2.7556 2.7674 2.7793 2.7793 2.8032 2.8032 2.8155 2.8032 2.8032 2.8032 2.8032 2.7912 2.7912 2.7793 2.7674 2.7674 2.7674 2.7674 2.8032 2.8155 2.8277 2.8526 2.8653 2.8908 2.8779 2.8779 2.8908 2.9036 2.9036 2.9036 2.9167 2.9036 2.9036 2.9036 2.9299 2.9299 2.9299 2.9566 2.9431 2.9299 2.9701 2.9701 2.9838 2.9701 2.9976 3.0255 3.0398 3.054 3.0978 3.1276 3.1427 3.1581 3.1735 3.1735 3.1735 3.1581 3.1581 3.1735 3.1735 3.1891 3.2207 3.2369 3.2531 3.2531 3.3028 3.3028 3.3196 3.3028 3.286 3.2695 3.2531 3.2369 3.2369 3.2207 3.2531 3.3028 3.3028 3.3367 3.389 3.4249 3.48 3.48 3.5369 3.5759 3.5956 3.5956 3.636 3.6565 3.6565 3.6981 3.7194 3.6981 3.6771 3.636 3.636 3.636 3.636 3.636 3.636 3.636 3.636 3.6565 3.636 3.7194 3.7194 3.7194 3.6771 3.6771 3.7194 3.7194 3.7407 3.8519 3.8981 3.8749 3.8749 3.9696 3.9696 3.8981 3.9216 4.0693 4.174 4.2284 4.3128 0 0 4.0189 4.095 4.2284 4.3128 4.2561 4.2284 4.201 4.201 4.201 4.121 4.095 4.121 4.2284 4.2843 4.2284 4.201 4.2284 4.2284 4.2284 4.201 4.2284 4.2284 4.2284 4.2284 4.2843 4.2843 4.2843 4.2843 4.2561 4.2843 4.2843 4.3415 4.3415 4.3415 4.2284 4.2284 4.2284 4.2561 4.4305 4.461 4.461 4.4305 4.4005 4.3708 4.3708 4.461 4.4919 4.461 4.461 4.4305 4.3415 4.2561 4.2284 0 0 5.0515 5.0515 5.1723 5.3426 5.299 5.2139 5.2139 5.299 5.3426 5.4321 5.572 0 0 0 0 0 0 0 0 0 0 0 0 0 0 0 0 0 0 0 0 0 0 0 0 0 0 0 0 0 0 0 0 0 0 0 0 0 0 0 0 0 0 0 0 0 0 0 0 0 0 0 0 0 0 0 0 0 0 0 0 0 0 0 0 0 0 0 0 0 0 0 0 0 0 0 0 0 0 0 0 0 0 0 0 0 0 0 0
2.265 2.273 2.281 2.281 2.289 2.2971 2.3218 2.3301 2.3385 2.3555 2.364 2.3555 2.3555 2.3555 2.3727 2.3814 2.364 2.364 2.364 2.347 2.347 2.347 2.3727 2.3727 2.3814 2.399 2.399 2.399 2.399 2.4079 2.399 2.3902 2.399 2.3902 2.3902 2.399 2.399 2.4079 2.4169 2.4442 2.4535 2.4721 2.4628 2.4721 2.4911 2.5008 2.5008 2.5104 2.5201 2.5201 2.5201 2.5201 2.5399 2.56 2.56 2.5701 2.5701 2.5701 2.5701 2.5802 2.5906 2.6115 2.622 2.6326 2.6434 2.6326 2.6434 2.6761 2.6761 2.6871 2.6761 2.6871 2.6651 2.6761 2.6871 2.6984 2.6871 2.6871 2.6984 2.7096 2.7325 2.744 2.7674 2.7793 2.7793 2.8032 2.8155 2.8032 2.8155 2.8032 2.8032 2.8032 2.8032 2.8032 2.7912 2.7912 2.7674 2.7674 2.7793 2.8032 2.8155 2.8277 2.8401 2.8653 2.8779 2.8779 2.8779 2.9036 2.8908 2.9036 2.8908 2.9036 2.9036 2.9036 2.9036 2.9036 2.9036 2.9167 2.9566 2.9299 2.9431 2.9701 2.9838 2.9838 2.9976 2.9976 3.0398 3.0398 3.054 3.1126 3.1276 3.1427 3.1581 3.1735 3.1735 3.1891 3.1735 3.1735 3.1735 3.1735 3.2049 3.2207 3.2531 3.2695 3.2695 3.3028 3.3028 3.3196 3.3028 3.3028 3.2695 3.2695 3.2531 3.2369 3.2369 3.2695 3.3196 3.3196 3.3367 3.389 3.4249 3.48 3.4987 3.5369 3.5759 3.5759 3.5956 3.636 3.6565 3.6771 3.6981 3.7194 3.6981 3.6771 3.636 3.6157 3.6157 3.6157 3.6157 3.6157 3.6157 3.636 3.6565 3.6565 3.7194 3.7194 3.7194 3.6771 3.6771 3.7194 3.6981 3.7407 3.8981 3.8981 3.9216 3.8981 3.9941 3.9941 3.9455 3.9216 4.0693 4.1472 4.095 3.9455 4.2284 4.201 4.1472 4.095 4.201 4.3128 4.2561 4.201 4.201 4.201 4.201 4.0693 3.9455 3.9216 4.3708 4.2843 4.174 4.1472 4.174 4.201 4.1472 4.121 4.174 4.174 4.174 4.174 4.2561 4.2843 4.2561 4.2561 4.2561 4.2561 4.2561 4.2843 4.3415 4.3415 4.2843 4.2561 4.2843 4.3415 4.4305 4.461 4.4305 4.4005 4.3708 4.3708 4.4005 4.4305 4.4919 4.461 4.461 4.5231 4.4005 4.461 4.5231 4.6529 0 4.974 5.0515 5.1723 5.387 5.3426 5.299 5.299 5.3426 5.299 5.387 5.5246 0 0 0 0 0 0 0 0 0 0 0 0 0 0 0 0 0 0 0 0 0 0 0 0 0 0 0 0 0 0 0 0 0 0 0 0 0 0 0 0 0 0 0 0 0 0 0 0 0 0 0 0 0 0 0 0 0 0 0 0 0 0 0 0 0 0 0 0 0 0 0 0 0 0 0 0 0 0 0 0 0 0 0 0 0 0 0 0
2.265 2.273 2.281 2.289 2.2971 2.3053 2.3301 2.3385 2.3385 2.364 2.364 2.3727 2.3555 2.364 2.3814 2.3814 2.3727 2.3727 2.3727 2.347 2.347 2.3555 2.3727 2.3814 2.3902 2.399 2.399 2.399 2.399 2.399 2.399 2.399 2.3902 2.399 2.3902 2.399 2.4079 2.4169 2.4169 2.4442 2.4535 2.4628 2.4628 2.4721 2.4911 2.5008 2.5104 2.5201 2.53 2.5201 2.5201 2.5201 2.5499 2.56 2.56 2.5802 2.5802 2.5802 2.5802 2.5906 2.601 2.6115 2.622 2.6326 2.6326 2.622 2.6326 2.6543 2.6651 2.6651 2.6651 2.6543 2.6651 2.6543 2.6761 2.6871 2.6871 2.6871 2.6984 2.6871 2.721 2.7556 2.7674 2.7674 2.7793 2.8032 2.8032 2.8032 2.8155 2.8032 2.8155 2.8032 2.8032 2.8032 2.8032 2.7912 2.7912 2.7793 2.7793 2.8155 2.8155 2.8401 2.8401 2.8653 2.8779 2.8779 2.8779 2.9036 2.9036 2.8908 2.8908 2.9036 2.9036 2.9036 2.8908 2.9036 2.9036 2.9167 2.9431 2.9431 2.9431 2.9838 2.9838 2.9976 2.9976 3.0115 3.0255 3.0398 3.054 3.0978 3.1126 3.1276 3.1276 3.1581 3.1735 3.1891 3.1581 3.1581 3.1581 3.1735 3.1891 3.2207 3.2531 3.2695 3.286 3.3028 3.3028 3.3196 3.3196 3.3196 3.2695 3.2695 3.2531 3.2369 3.2369 3.2695 3.3196 3.3367 3.3367 3.3714 3.4249 3.443 3.4987 3.5369 3.5759 3.5759 3.5956 3.636 3.6565 3.6771 3.6981 3.6981 3.6981 3.6771 3.6157 3.5759 3.5759 3.5956 3.5956 3.5956 3.5759 3.5759 3.5759 3.5759 3.636 3.6565 3.6565 3.6157 3.5956 3.636 3.6565 3.6981 3.8519 3.8981 3.9216 3.9216 3.9455 3.9696 3.9455 3.9216 4.0189 4.0693 4.0189 3.9941 4.095 4.201 4.1472 4.0439 4.174 4.3128 4.2284 4.174 4.174 4.174 4.2284 3.8981 3.8981 3.8981 4.4005 4.3708 3.9455 4.0189 4.174 4.1472 4.0189 3.9696 4.095 4.1472 4.1472 4.121 4.174 4.201 4.2284 4.201 4.201 4.201 4.2284 4.2561 4.3128 4.3415 4.3128 4.3128 4.3415 4.3415 4.4305 4.4305 4.4305 4.4005 4.4005 4.3708 4.4005 4.4305 4.4919 4.461 4.461 4.5549 4.4305 4.3415 4.5231 4.6529 5.2561 4.974 5.0124 5.1723 5.3426 5.387 5.299 5.3426 5.299 5.299 5.3426 5.478 0 0 0 0 0 0 0 0 0 0 0 0 0 0 0 0 0 0 0 0 0 0 0 0 0 0 0 0 0 0 0 0 0 0 0 0 0 0 0 0 0 0 0 0 0 0 0 0 0 0 0 0 0 0 0 0 0 0 0 0 0 0 0 0 0 0 0 0 0 0 0 0 0 0 0 0 0 0 0 0 0 0 0 0 0 0 0 0
2.265 2.281 2.289 2.2971 2.3053 2.3053 2.3301 2.3301 2.347 2.3902 2.3902 2.4079 2.399 2.399 2.399 2.399 2.399 2.3902 2.3902 2.364 2.364 2.3727 2.399 2.399 2.399 2.399 2.399 2.399 2.4079 2.4079 2.4079 2.4079 2.4079 2.4079 2.4079 2.4169 2.426 2.435 2.4442 2.4628 2.4721 2.4721 2.4816 2.5008 2.5201 2.53 2.53 2.5399 2.56 2.5499 2.56 2.56 2.5701 2.5906 2.5906 2.5906 2.5906 2.601 2.601 2.6115 2.622 2.622 2.622 2.6326 2.622 2.622 2.6326 2.6543 2.6543 2.6651 2.6651 2.6543 2.6434 2.6651 2.6651 2.6761 2.6761 2.6871 2.6871 2.6984 2.721 2.744 2.7793 2.7793 2.7793 2.8155 2.8155 2.8277 2.8155 2.8155 2.8032 2.8032 2.8155 2.8155 2.8277 2.8032 2.8032 2.7912 2.8032 2.8401 2.8401 2.8653 2.8653 2.8779 2.8779 2.8908 2.8908 2.9036 2.9167 2.9036 2.9036 2.9036 2.9036 2.9167 2.9167 2.9036 2.9167 2.9299 2.9431 2.9566 2.9566 2.9838 2.9976 2.9976 2.9976 3.0115 3.0398 3.0398 3.054 3.0978 3.1126 3.1276 3.1276 3.1427 3.1581 3.1891 3.1427 3.1427 3.1427 3.1581 3.1891 3.2049 3.2531 3.2695 3.286 3.3028 3.3028 3.3196 3.3196 3.3196 3.286 3.286 3.2695 3.2531 3.2531 3.3028 3.3196 3.3367 3.354 3.3714 3.4069 3.443 3.4987 3.5176 3.5562 3.5759 3.5759 3.6157 3.636 3.6565 3.6981 3.6981 3.6981 3.6771 3.636 3.5956 3.5956 3.5759 3.5759 3.5956 3.5759 3.5759 3.5369 3.5369 3.5956 3.636 3.6157 3.5759 3.5759 3.5956 3.6157 3.6565 3.8291 3.8519 3.8981 3.9216 3.9216 3.9455 3.8981 3.9216 3.9696 4.0189 4.0693 4.095 4.174 4.201 4.174 4.095 4.201 4.2843 4.2561 4.201 4.201 4.201 4.3415 3.8981 3.8981 3.8981 4.4005 4.4005 3.9455 3.9941 4.1472 4.1472 3.9696 3.9696 4.0693 4.1472 4.121 4.121 4.1472 4.174 4.174 4.174 4.174 4.174 4.201 4.2561 4.3128 4.3415 4.3415 4.3415 4.3708 4.3708 4.461 4.4305 4.4305 4.461 4.4005 4.4005 4.4005 4.4305 4.4919 4.461 4.461 4.5549 4.4005 4.2843 4.5231 5.2561 5.1723 5.0124 5.0515 5.1314 5.478 5.299 5.3426 5.387 5.478 5.2561 5.2561 5.5246 0 0 0 0 0 0 0 0 0 0 0 0 0 0 0 0 0 0 0 0 0 0 0 0 0 0 0 0 0 0 0 0 0 0 0 0 0 0 0 0 0 0 0 0 0 0 0 0 0 0 0 0 0 0 0 0 0 0 0 0 0 0 0 0 0 0 0 0 0 0 0 0 0 0 0 0 0 0 0 0 0 0 0 0 0 0 0 0
2.273 2.281 2.281 2.3053 2.3053 2.3135 2.3385 2.3385 2.347 2.399 2.4079 2.4169 2.4079 2.4169 2.4169 2.4079 2.4079 2.4169 2.399 2.3902 2.3814 2.3814 2.399 2.399 2.399 2.399 2.399 2.399 2.399 2.4079 2.4079 2.4079 2.4079 2.4079 2.4079 2.4169 2.4535 2.4535 2.4628 2.4816 2.4911 2.5008 2.5104 2.5104 2.5399 2.5499 2.5399 2.5499 2.5499 2.5701 2.56 2.56 2.5802 2.5802 2.5906 2.5906 2.5906 2.601 2.601 2.601 2.601 2.622 2.622 2.622 2.6115 2.6115 2.622 2.6434 2.6543 2.6543 2.6651 2.6543 2.6543 2.6543 2.6761 2.6871 2.6871 2.6871 2.6871 2.6984 2.7325 2.7556 2.7793 2.7912 2.7912 2.8155 2.8277 2.8277 2.8277 2.8155 2.8277 2.8155 2.8277 2.8277 2.8277 2.8155 2.8032 2.7912 2.8155 2.8401 2.8653 2.8526 2.8653 2.8779 2.8908 2.8908 2.8908 2.9167 2.9167 2.9036 2.9036 2.8908 2.9036 2.9036 2.8908 2.9036 2.9167 2.9167 2.9431 2.9431 2.9566 2.9838 2.9976 2.9838 2.9838 2.9976 3.0398 3.0398 3.054 3.083 3.0978 3.1126 3.1276 3.1427 3.1581 3.1891 3.1581 3.1735 3.1735 3.1581 3.1891 3.2049 3.2369 3.2695 3.286 3.3028 3.3028 3.3028 3.3028 3.3028 3.286 3.2695 3.2531 3.2531 3.2695 3.3028 3.3367 3.3714 3.354 3.389 3.4249 3.443 3.48 3.4987 3.5369 3.5369 3.5562 3.5956 3.6157 3.636 3.6771 3.6981 3.6771 3.6981 3.636 3.6157 3.6157 3.5956 3.5956 3.6157 3.5956 3.5759 3.5369 3.5369 3.5562 3.5956 3.5956 3.5562 3.5562 3.5956 3.6157 3.636 3.7844 3.8291 3.8749 3.8519 3.8749 3.8749 3.8519 3.8519 3.9216 3.9941 4.0439 4.1472 4.201 4.2561 4.201 4.174 4.2284 4.3128 4.201 4.201 4.174 4.174 4.201 3.8519 3.8749 3.8519 4.2843 4.2843 3.8981 3.9941 4.1472 4.1472 4.0189 3.9696 4.0693 4.174 4.121 4.095 4.1472 4.174 4.174 4.174 4.174 4.174 4.174 4.201 4.2843 4.3128 4.3415 4.3415 4.3708 4.3708 4.4305 4.4305 4.461 4.4919 4.4305 4.4005 4.4305 4.461 4.461 4.4305 4.4305 4.461 4.3415 4.5231 4.6529 4.7904 5.1723 5.0515 5.0515 5.2561 4.7904 4.826 5.387 5.387 5.478 0 0 0 0 0 0 0 0 0 0 0 0 0 0 0 0 0 0 0 0 0 0 0 0 0 0 0 0 0 0 0 0 0 0 0 0 0 0 0 0 0 0 0 0 0 0 0 0 0 0 0 0 0 0 0 0 0 0 0 0 0 0 0 0 0 0 0 0 0 0 0 0 0 0 0 0 0 0 0 0 0 0 0 0 0 0 0 0 0 0 0
2.273 2.289 2.289 2.3135 2.3218 2.3218 2.3385 2.347 2.347 2.4079 2.4169 2.4169 2.4169 2.426 2.426 2.426 2.4169 2.426 2.4169 2.399 2.399 2.3902 2.399 2.3902 2.3814 2.3727 2.3727 2.3727 2.3814 2.3814 2.3814 2.399 2.4079 2.4169 2.426 2.4442 2.4816 2.4816 2.4911 2.5201 2.5201 2.5399 2.5399 2.5499 2.56 2.5701 2.56 2.5701 2.5701 2.5701 2.5802 2.5802 2.5906 2.5906 2.601 2.601 2.6115 2.601 2.6115 2.601 2.601 2.6115 2.6115 2.622 2.622 2.6115 2.6115 2.6326 2.6434 2.6543 2.6543 2.6543 2.6651 2.6651 2.6651 2.6651 2.6761 2.6761 2.6871 2.6871 2.7325 2.744 2.7674 2.7793 2.7912 2.8155 2.8277 2.8277 2.8277 2.8277 2.8277 2.8401 2.8526 2.8526 2.8401 2.8401 2.8401 2.8277 2.8277 2.8526 2.8779 2.8653 2.8779 2.8779 2.8779 2.8908 2.8908 2.9167 2.9299 2.9036 2.9036 2.8908 2.8779 2.9167 2.9036 2.9167 2.9167 2.9299 2.9431 2.9566 2.9701 2.9976 2.9976 2.9976 2.9838 2.9976 3.0398 3.0398 3.054 3.083 3.0978 3.1126 3.1126 3.1276 3.1427 3.1581 3.1735 3.1735 3.1891 3.1735 3.2049 3.2049 3.2369 3.286 3.286 3.286 3.286 3.286 3.2695 3.286 3.2695 3.2695 3.2531 3.2369 3.2695 3.3028 3.3367 3.3714 3.389 3.4069 3.443 3.4614 3.48 3.4987 3.5176 3.5176 3.5562 3.5759 3.5956 3.636 3.6565 3.6771 3.6565 3.6771 3.636 3.6157 3.636 3.6157 3.6157 3.6157 3.5956 3.5759 3.5369 3.5176 3.5369 3.5562 3.5759 3.5562 3.5562 3.5759 3.5956 3.636 3.7407 3.7625 3.8066 3.7844 3.8066 3.8066 3.8066 3.7844 3.8291 3.9216 3.9941 4.174 4.2284 4.2843 4.2284 4.201 4.2561 4.3128 4.201 4.174 4.121 4.095 4.201 3.8519 3.8519 3.8519 4.2843 4.2843 3.8981 4.0439 4.174 4.201 4.095 4.0439 4.121 4.201 4.1472 4.095 4.121 4.174 4.1472 4.121 4.1472 4.121 4.121 4.1472 4.2561 4.3128 4.3128 4.3415 4.4005 4.4005 4.4305 4.4305 4.461 4.5231 4.461 4.4005 4.461 4.461 4.461 4.4005 4.4005 4.461 4.3708 4.4919 4.5871 4.7553 5.0124 4.9361 4.974 5.0911 4.9361 4.826 5.387 5.478 5.478 0 0 0 0 0 0 0 0 0 0 0 0 0 0 0 0 0 0 0 0 0 0 0 0 0 0 0 0 0 0 0 0 0 0 0 0 0 0 0 0 0 0 0 0 0 0 0 0 0 0 0 0 0 0 0 0 0 0 0 0 0 0 0 0 0 0 0 0 0 0 0 0 0 0 0 0 0 0 0 0 0 0 0 0 0 0 0 0 0 0 0
2.281 2.2971 2.3053 2.3135 2.3218 2.3301 2.3385 2.347 2.347 2.4079 2.4079 2.4169 2.4169 2.4079 2.426 2.4169 2.426 2.4169 2.4169 2.4079 2.399 2.3902 2.3814 2.3814 2.3727 2.364 2.364 2.364 2.3727 2.3727 2.3727 2.3902 2.399 2.4169 2.4169 2.435 2.4911 2.4816 2.4911 2.5201 2.5201 2.5399 2.5499 2.56 2.5701 2.5701 2.56 2.56 2.5701 2.5802 2.5802 2.5802 2.5906 2.5906 2.601 2.6115 2.6115 2.6115 2.6115 2.6115 2.6115 2.622 2.6115 2.622 2.6115 2.6115 2.622 2.622 2.6326 2.6543 2.6543 2.6543 2.6543 2.6543 2.6761 2.6651 2.6651 2.6761 2.6761 2.6984 2.7096 2.721 2.7556 2.7674 2.7912 2.8155 2.8277 2.8277 2.8401 2.8401 2.8277 2.8526 2.8526 2.8653 2.8653 2.8401 2.8401 2.8401 2.8401 2.8653 2.8653 2.8779 2.8653 2.8779 2.8908 2.8779 2.8908 2.9299 2.9299 2.9036 2.8908 2.8908 2.9036 2.9167 2.9167 2.9299 2.9299 2.9431 2.9566 2.9701 2.9838 3.0115 3.0115 3.0115 2.9976 3.0115 3.0398 3.054 3.054 3.083 3.0978 3.0978 3.1126 3.1276 3.1276 3.1581 3.1581 3.1891 3.1891 3.1891 3.1891 3.2207 3.2369 3.286 3.286 3.286 3.3028 3.2695 3.286 3.286 3.2695 3.2531 3.2369 3.2369 3.2695 3.286 3.3196 3.354 3.3714 3.4249 3.4614 3.4614 3.4614 3.4987 3.5176 3.5369 3.5369 3.5759 3.5956 3.636 3.6565 3.6771 3.6565 3.6565 3.636 3.5956 3.6157 3.6157 3.6157 3.6157 3.5759 3.5562 3.5369 3.5176 3.5369 3.5562 3.5562 3.5369 3.5562 3.5956 3.6157 3.636 3.7407 3.7844 3.7844 3.7625 3.7844 3.8066 3.7844 3.7625 3.8291 3.8981 3.9941 4.174 4.2284 4.2284 4.201 4.2284 4.2561 4.2843 4.2284 4.1472 4.095 4.0439 4.0693 4.2561 4.2843 4.0189 4.0189 4.3415 4.121 4.1472 4.201 4.2284 4.121 4.0693 4.1472 4.201 4.1472 4.095 4.121 4.1472 4.1472 4.121 4.121 4.121 4.095 4.121 4.2284 4.3128 4.3415 4.3415 4.3708 4.3708 4.4305 4.461 4.461 4.4919 4.461 4.4305 4.4305 4.4305 4.4305 4.4005 4.4005 4.4919 4.4305 4.4005 4.4305 4.8621 4.8621 4.8621 4.8621 5.0124 4.974 4.6865 4.7206 4.7206 4.4919 4.5231 4.4919 4.4919 0 0 0 0 0 0 0 0 0 0 0 0 0 0 0 0 0 0 0 0 0 0 0 0 0 0 0 0 0 0 0 0 0 0 0 0 0 0 0 0 0 0 0 0 0 0 0 0 0 0 0 0 0 0 0 0 0 0 0 0 0 0 0 0 0 0 0 0 0 0 0 0 0 0 0 0 0 0 0 0 0 0 0 0 0 0 0 0
2.289 2.2971 2.2971 2.3218 2.3301 2.3301 2.347 2.347 2.3555 2.399 2.4079 2.4079 2.4079 2.4079 2.4169 2.4169 2.426 2.4169 2.4079 2.399 2.3902 2.3902 2.3814 2.3727 2.3555 2.3555 2.347 2.3555 2.364 2.3727 2.3814 2.399 2.4079 2.426 2.435 2.4535 2.4911 2.5008 2.5008 2.5201 2.5201 2.5399 2.5399 2.5499 2.5701 2.5701 2.56 2.56 2.5701 2.5701 2.5802 2.5906 2.601 2.6115 2.601 2.6115 2.6115 2.6115 2.6115 2.601 2.5906 2.5906 2.5802 2.5802 2.5802 2.5802 2.5802 2.5906 2.601 2.6115 2.622 2.622 2.6434 2.6326 2.6434 2.6434 2.6434 2.6651 2.6543 2.6651 2.6984 2.7096 2.721 2.721 2.7325 2.7556 2.7793 2.7793 2.8032 2.8155 2.8032 2.8401 2.8401 2.8526 2.8526 2.8401 2.8277 2.8277 2.8401 2.8653 2.8779 2.8779 2.8779 2.8779 2.8908 2.8908 2.8908 2.9299 2.9431 2.9167 2.9036 2.9036 2.9036 2.9299 2.9299 2.9431 2.9566 2.9431 2.9838 2.9838 2.9976 3.0255 3.0255 2.9976 2.9976 3.0115 3.054 3.0685 3.054 3.0398 3.0685 3.0685 3.0685 3.0685 3.0978 3.0978 3.1276 3.1581 3.1735 3.1891 3.1891 3.2207 3.2531 3.2695 3.286 3.3028 3.286 3.286 3.286 3.2695 3.286 3.2695 3.2531 3.2531 3.286 3.3028 3.3196 3.3367 3.354 3.389 3.4249 3.4249 3.4069 3.4069 3.443 3.443 3.48 3.5369 3.5562 3.5759 3.636 3.636 3.636 3.6565 3.636 3.5956 3.5759 3.5759 3.5956 3.5759 3.5759 3.5562 3.5562 3.5176 3.5369 3.5759 3.5759 3.5562 3.5562 3.5759 3.5956 3.6157 3.6771 3.7194 3.7407 3.7407 3.7407 3.7625 3.7844 3.7844 3.8066 3.8291 3.8749 3.9696 4.0439 4.121 4.095 4.0693 4.121 4.174 4.0693 4.0189 3.9455 3.9216 3.9941 4.0189 4.0439 4.0189 4.121 4.2561 4.201 4.174 4.2284 4.2561 4.095 4.0439 4.121 4.201 4.1472 4.0693 4.0693 4.095 4.0439 4.0439 4.0693 4.0693 4.0693 4.095 4.201 4.3128 4.3128 4.3128 4.3415 4.3708 4.4305 4.4305 4.461 4.5231 4.461 4.461 4.4919 4.4305 4.4305 4.4005 4.4005 4.4919 4.4305 4.4005 4.4919 4.6197 4.7206 4.6197 4.6529 4.826 4.8621 4.6529 4.5549 4.6197 4.5871 4.5231 4.5549 4.4919 0 0 0 0 0 0 0 0 0 0 0 0 0 0 0 0 0 0 0 0 0 0 0 0 0 0 0 0 0 0 0 0 0 0 0 0 0 0 0 0 0 0 0 0 0 0 0 0 0 0 0 0 0 0 0 0 0 0 0 0 0 0 0 0 0 0 0 0 0 0 0 0 0 0 0 0 0 0 0 0 0 0 0 0 0 0 0 0
2.289 2.3053 2.3135 2.3385 2.3385 2.347 2.3555 2.3555 2.3555 2.399 2.4079 2.399 2.399 2.399 2.426 2.4169 2.426 2.426 2.4169 2.4079 2.399 2.399 2.3902 2.3814 2.3727 2.364 2.364 2.3555 2.3727 2.3727 2.3814 2.426 2.435 2.4442 2.4535 2.4721 2.5104 2.5104 2.5201 2.53 2.53 2.5399 2.5399 2.5499 2.5701 2.5701 2.5701 2.5701 2.5802 2.5802 2.5802 2.601 2.601 2.622 2.601 2.6115 2.6115 2.6115 2.6115 2.6115 2.601 2.5906 2.5906 2.5906 2.5802 2.5906 2.5906 2.5906 2.5906 2.6115 2.622 2.622 2.6326 2.6326 2.6326 2.6434 2.6434 2.6543 2.6543 2.6651 2.6984 2.7096 2.721 2.7096 2.7325 2.7556 2.7793 2.7793 2.7912 2.8032 2.8032 2.8277 2.8277 2.8401 2.8401 2.8277 2.8155 2.8155 2.8155 2.8401 2.8401 2.8526 2.8653 2.8779 2.8908 2.8908 2.9036 2.9299 2.9701 2.9566 2.9431 2.9566 2.9431 2.9976 2.9838 2.9838 2.9838 2.9838 3.0115 3.0115 3.0115 3.054 3.0398 3.0255 3.0255 3.0398 3.054 3.0685 3.054 3.0398 3.054 3.054 3.054 3.0685 3.083 3.1126 3.1276 3.1735 3.1891 3.1891 3.2049 3.2369 3.2531 3.3028 3.3028 3.3028 3.3028 3.286 3.3028 3.286 3.286 3.286 3.286 3.2695 3.3028 3.3028 3.3367 3.3196 3.3367 3.4069 3.4249 3.4069 3.4069 3.4069 3.389 3.389 3.4249 3.4987 3.4987 3.5369 3.5759 3.5956 3.5956 3.636 3.6157 3.5562 3.5562 3.5562 3.5759 3.5759 3.5369 3.5369 3.5562 3.5176 3.5369 3.5562 3.5956 3.5759 3.5176 3.5369 3.5562 3.5759 3.6771 3.6981 3.7407 3.7194 3.7407 3.7625 3.7625 3.7844 3.8066 3.8519 3.8749 3.9216 3.9696 4.0439 4.095 4.0439 4.095 4.1472 4.0439 3.9941 3.9455 3.8981 3.9455 4.0189 4.0189 3.9696 4.0189 4.2561 4.2561 4.2284 4.2843 4.3128 4.121 4.0693 4.1472 4.201 4.174 4.095 4.095 4.095 4.0439 4.0439 4.0693 4.0439 4.0693 4.0693 4.201 4.3128 4.3128 4.3128 4.3128 4.3708 4.4005 4.4305 4.4005 4.5231 4.461 4.4305 4.4919 4.4919 4.4919 4.461 4.4919 4.5231 4.4919 4.4005 4.5231 4.6529 4.7553 4.6197 4.6197 4.7904 4.8989 4.6197 4.5231 4.5871 4.6197 4.6197 4.5871 4.7206 0 0 0 0 0 0 0 0 0 0 0 0 0 0 0 0 0 0 0 0 0 0 0 0 0 0 0 0 0 0 0 0 0 0 0 0 0 0 0 0 0 0 0 0 0 0 0 0 0 0 0 0 0 0 0 0 0 0 0 0 0 0 0 0 0 0 0 0 0 0 0 0 0 0 0 0 0 0 0 0 0 0 0 0 0 0 0 0
2.2971 2.3135 2.3218 2.3385 2.347 2.347 2.347 2.3555 2.3555 2.3902 2.3902 2.399 2.399 2.4079 2.4169 2.4169 2.426 2.426 2.426 2.4169 2.4079 2.4079 2.399 2.399 2.3727 2.3727 2.364 2.364 2.3814 2.3814 2.3902 2.426 2.426 2.4535 2.4535 2.4628 2.5008 2.5104 2.5201 2.5201 2.5201 2.5399 2.5399 2.5499 2.56 2.5701 2.56 2.5701 2.5802 2.5802 2.5906 2.5906 2.6115 2.6115 2.601 2.5906 2.601 2.6115 2.622 2.622 2.6115 2.601 2.6115 2.5906 2.5906 2.601 2.601 2.5906 2.5906 2.6115 2.6115 2.6115 2.6326 2.6326 2.6326 2.6326 2.6434 2.6543 2.6651 2.6651 2.6984 2.7096 2.721 2.721 2.7325 2.7556 2.7674 2.7674 2.7912 2.7912 2.8032 2.8155 2.8155 2.8277 2.8155 2.8155 2.8155 2.7912 2.8032 2.8155 2.8277 2.8277 2.8401 2.8653 2.8779 2.8779 2.8908 2.9299 2.9566 2.9838 2.9838 2.9838 2.9701 3.0398 3.0255 3.0115 3.0115 3.0255 3.0255 3.0398 3.0255 3.054 3.0398 3.0255 3.0255 3.0398 3.0685 3.0685 3.054 3.054 3.054 3.0398 3.0398 3.054 3.083 3.1126 3.1427 3.1735 3.1891 3.1891 3.2049 3.2369 3.2531 3.3028 3.286 3.3196 3.3028 3.286 3.286 3.3028 3.286 3.286 3.286 3.286 3.3028 3.3196 3.3367 3.354 3.354 3.4249 3.443 3.4069 3.389 3.389 3.354 3.354 3.389 3.4614 3.4614 3.4987 3.5369 3.5562 3.5759 3.5956 3.5759 3.5562 3.5369 3.5369 3.5562 3.5369 3.5369 3.5369 3.5369 3.5176 3.5176 3.5369 3.5759 3.5759 3.48 3.4987 3.5176 3.5562 3.6565 3.6981 3.7194 3.7194 3.7194 3.7407 3.7407 3.7407 3.8066 3.8291 3.8519 3.8749 3.8749 3.9941 4.095 4.0189 4.095 4.121 4.0439 3.9696 3.8981 3.8749 3.9455 4.0189 4.0189 3.8749 3.7407 3.7625 4.095 4.1472 4.2843 4.2843 4.1472 4.0693 4.1472 4.201 4.174 4.095 4.095 4.121 4.0693 4.0693 4.0439 4.0693 4.0439 4.0439 4.174 4.2843 4.2843 4.2843 4.2843 4.3128 4.3708 4.3708 4.4005 4.5231 4.461 4.4005 4.461 4.461 4.4919 4.5231 4.5231 4.5549 4.5231 4.4305 4.5549 4.6865 4.7553 4.6865 4.6529 4.7553 4.8989 4.6197 4.5231 4.5549 4.6197 4.6865 4.461 4.4005 0 0 0 0 0 0 0 0 0 0 0 0 0 0 0 0 0 0 0 0 0 0 0 0 0 0 0 0 0 0 0 0 0 0 0 0 0 0 0 0 0 0 0 0 0 0 0 0 0 0 0 0 0 0 0 0 0 0 0 0 0 0 0 0 0 0 0 0 0 0 0 0 0 0 0 0 0 0 0 0 0 0 0 0 0 0 0 0
2.3053 2.3218 2.3301 2.347 2.347 2.3555 2.3555 2.3555 2.3555 2.3902 2.3902 2.3902 2.3902 2.399 2.4169 2.4079 2.4169 2.426 2.426 2.426 2.4079 2.4169 2.4079 2.4079 2.3902 2.3902 2.3814 2.3814 2.3902 2.399 2.399 2.426 2.435 2.4535 2.4535 2.4721 2.4911 2.4911 2.5008 2.5008 2.5104 2.53 2.5399 2.5499 2.56 2.56 2.5701 2.56 2.5701 2.5701 2.5906 2.5906 2.6115 2.6115 2.5701 2.5802 2.5906 2.601 2.622 2.622 2.622 2.622 2.6115 2.601 2.6115 2.601 2.6115 2.5906 2.5906 2.6115 2.6115 2.622 2.622 2.6326 2.6326 2.6326 2.6434 2.6543 2.6651 2.6761 2.6871 2.6984 2.7096 2.6984 2.7096 2.744 2.744 2.7556 2.7793 2.7793 2.7912 2.8032 2.8032 2.8155 2.8155 2.8155 2.8032 2.8032 2.8032 2.8032 2.8032 2.8155 2.8401 2.8401 2.8653 2.8653 2.8779 2.9036 2.9167 2.9299 2.9566 2.9566 2.9566 3.0115 3.0115 3.0115 2.9976 3.0115 3.0398 3.0398 3.0398 3.0398 3.0398 3.0115 3.0115 3.0255 3.054 3.0685 3.0255 3.0255 3.0398 3.0398 3.0398 3.0398 3.083 3.083 3.1126 3.1891 3.1891 3.2049 3.2049 3.2369 3.2531 3.3028 3.286 3.286 3.3028 3.2531 3.2531 3.2695 3.286 3.286 3.286 3.286 3.3028 3.3196 3.3028 3.3196 3.3367 3.4069 3.4249 3.389 3.3714 3.354 3.3367 3.3367 3.3714 3.4614 3.4614 3.48 3.5369 3.5369 3.5369 3.5759 3.5759 3.5562 3.5176 3.5176 3.5369 3.5176 3.4987 3.5176 3.5176 3.5176 3.5176 3.5176 3.5369 3.5369 3.4987 3.48 3.4987 3.5176 3.6157 3.6565 3.6981 3.6771 3.7194 3.7194 3.7407 3.7625 3.8066 3.8291 3.8519 3.8519 3.8519 3.9941 4.0439 3.9696 4.0189 4.0439 3.9455 3.8981 3.8291 3.7844 3.8519 3.8519 3.8291 3.8066 3.8291 3.8981 3.9455 3.9941 4.2284 4.2561 4.121 4.0693 4.121 4.174 4.1472 4.095 4.0693 4.0693 4.0189 4.0189 3.9941 4.0189 4.0439 4.0439 4.1472 4.2284 4.201 4.2284 4.201 4.201 4.2843 4.2843 4.2843 4.5549 4.461 4.461 4.4919 4.5231 4.5549 4.5231 4.5549 4.5231 4.5231 4.4919 4.4919 4.4919 4.4305 4.4005 4.3128 4.201 4.4305 4.4305 4.4919 4.5871 4.5549 4.6865 4.4005 4.4005 0 0 0 0 0 0 0 0 0 0 0 0 0 0 0 0 0 0 0 0 0 0 0 0 0 0 0 0 0 0 0 0 0 0 0 0 0 0 0 0 0 0 0 0 0 0 0 0 0 0 0 0 0 0 0 0 0 0 0 0 0 0 0 0 0 0 0 0 0 0 0 0 0 0 0 0 0 0 0 0 0 0 0 0 0 0 0 0
2.3301 2.3385 2.3385 2.3555 2.3555 2.3555 2.3555 2.3555 2.3555 2.3814 2.3814 2.3814 2.3814 2.3902 2.4079 2.4079 2.4169 2.426 2.426 2.426 2.426 2.4169 2.4169 2.4079 2.4079 2.4079 2.4079 2.4079 2.4169 2.4169 2.426 2.4535 2.4535 2.4628 2.4628 2.4721 2.5008 2.5008 2.5008 2.5008 2.5104 2.53 2.5399 2.5499 2.5499 2.56 2.56 2.56 2.5701 2.5701 2.5802 2.5802 2.601 2.601 2.5701 2.5701 2.5802 2.601 2.6115 2.622 2.622 2.622 2.6115 2.6115 2.622 2.622 2.622 2.601 2.601 2.6115 2.6115 2.622 2.6326 2.6434 2.6434 2.6543 2.6651 2.6761 2.6871 2.6871 2.6984 2.7096 2.7096 2.7096 2.721 2.7325 2.744 2.7556 2.7793 2.7793 2.7912 2.8032 2.8155 2.8277 2.8155 2.8277 2.8277 2.8401 2.8155 2.8155 2.8155 2.8277 2.8401 2.8526 2.8653 2.8653 2.8779 2.8908 2.9036 2.9167 2.9431 2.9431 2.9431 2.9976 2.9976 3.0115 2.9976 3.0115 3.0398 3.054 3.0398 3.0398 3.0255 3.0115 3.0115 3.0255 3.0398 3.054 3.0255 3.0255 3.0255 3.0255 3.0255 3.0398 3.054 3.083 3.0978 3.1891 3.2049 3.2049 3.2207 3.2369 3.2531 3.286 3.286 3.286 3.286 3.2531 3.2531 3.2531 3.2695 3.286 3.286 3.286 3.3196 3.3028 3.3196 3.3367 3.354 3.4069 3.4249 3.4069 3.389 3.354 3.3367 3.3714 3.4069 3.4987 3.5176 3.5562 3.5759 3.5562 3.5759 3.5956 3.5956 3.5759 3.5562 3.5369 3.5176 3.4987 3.4987 3.5176 3.5176 3.5369 3.5369 3.5369 3.5369 3.5369 3.5176 3.5369 3.5369 3.5562 3.6157 3.636 3.6771 3.6771 3.7194 3.7194 3.7407 3.7407 3.8066 3.8291 3.8519 3.8749 3.9216 4.0189 4.0439 3.9455 3.9941 4.0439 3.9696 3.8981 3.8291 3.8066 3.8291 3.8291 3.8066 3.8066 3.8291 3.8749 3.9455 4.0189 4.201 4.2561 4.174 4.095 4.1472 4.174 4.1472 4.095 4.095 4.121 4.0189 4.0189 4.0189 4.0439 4.0439 4.0439 4.121 4.201 4.201 4.174 4.1472 4.174 4.2561 4.2561 4.2561 4.5871 4.5871 4.5871 4.6529 4.5549 4.5871 4.6197 4.5549 4.5231 4.5549 4.4305 4.4005 4.4005 4.3708 4.3708 4.2284 4.201 4.4305 4.4305 0 0 0 0 0 0 0 0 0 0 0 0 0 0 0 0 0 0 0 0 0 0 0 0 0 0 0 0 0 0 0 0 0 0 0 0 0 0 0 0 0 0 0 0 0 0 0 0 0 0 0 0 0 0 0 0 0 0 0 0 0 0 0 0 0 0 0 0 0 0 0 0 0 0 0 0 0 0 0 0 0 0 0 0 0 0 0 0 0 0 0 0 0 0
2.3385 2.3555 2.347 2.3555 2.347 2.347 2.3555 2.347 2.3555 2.3555 2.364 2.364 2.3555 2.3727 2.4079 2.4079 2.4079 2.426 2.426 2.426 2.426 2.426 2.426 2.4169 2.4169 2.4169 2.4169 2.4169 2.435 2.435 2.4442 2.4628 2.4628 2.4721 2.4721 2.4816 2.5008 2.5008 2.5008 2.5008 2.5104 2.53 2.5399 2.5399 2.56 2.56 2.5499 2.56 2.56 2.5701 2.5701 2.5906 2.5906 2.5906 2.5499 2.56 2.5701 2.5906 2.601 2.6115 2.622 2.622 2.6115 2.601 2.6115 2.622 2.622 2.601 2.601 2.6115 2.622 2.622 2.6326 2.6434 2.6543 2.6651 2.6651 2.6871 2.6984 2.6984 2.7096 2.7096 2.7096 2.7096 2.721 2.7325 2.744 2.744 2.7793 2.7912 2.7912 2.8155 2.8155 2.8277 2.8277 2.8277 2.8401 2.8401 2.8277 2.8277 2.8277 2.8277 2.8526 2.8526 2.8653 2.8653 2.8653 2.8779 2.8779 2.9036 2.9299 2.9299 2.9299 2.9838 2.9976 2.9976 3.0115 3.0115 3.054 3.054 3.0255 3.0255 3.0255 2.9976 2.9976 3.0115 3.0398 3.0398 3.0115 3.0115 3.0255 3.0115 3.0115 3.0115 3.054 3.0685 3.0978 3.1735 3.2049 3.2049 3.2207 3.2369 3.2531 3.286 3.3028 3.286 3.2695 3.2369 3.2531 3.2531 3.2531 3.286 3.286 3.286 3.3028 3.3028 3.3367 3.3367 3.3714 3.4069 3.4249 3.4249 3.4069 3.389 3.354 3.3714 3.4069 3.5369 3.5759 3.5956 3.6157 3.5956 3.5956 3.636 3.636 3.5956 3.5759 3.5759 3.5369 3.4987 3.4987 3.5369 3.5369 3.5369 3.5759 3.5562 3.5562 3.5562 3.5562 3.5759 3.5562 3.5759 3.636 3.6565 3.6565 3.6565 3.6771 3.7194 3.7407 3.7407 3.7625 3.8066 3.8291 3.8749 3.9216 3.9941 4.0189 3.9696 4.0439 4.0693 4.0189 3.9455 3.8749 3.8291 3.8519 3.8291 3.8291 3.8291 3.8519 3.8981 3.9455 3.9941 4.201 4.2561 4.174 4.121 4.1472 4.174 4.1472 4.121 4.1472 4.1472 4.0693 4.0439 4.0439 4.0693 4.0693 4.0439 4.1472 4.201 4.174 4.174 4.1472 4.1472 4.2284 4.2284 4.2284 4.5549 4.5871 4.5871 4.6197 4.4305 4.5231 4.5871 4.5231 4.4919 4.5231 4.4005 4.2843 4.3415 4.3415 4.3415 4.3415 0 0 0 0 0 0 0 0 0 0 0 0 0 0 0 0 0 0 0 0 0 0 0 0 0 0 0 0 0 0 0 0 0 0 0 0 0 0 0 0 0 0 0 0 0 0 0 0 0 0 0 0 0 0 0 0 0 0 0 0 0 0 0 0 0 0 0 0 0 0 0 0 0 0 0 0 0 0 0 0 0 0 0 0 0 0 0 0 0 0 0 0 0 0 0 0 0
2.3555 2.364 2.3555 2.3555 2.347 2.3555 2.347 2.347 2.3385 2.347 2.347 2.347 2.347 2.364 2.399 2.399 2.4079 2.426 2.426 2.426 2.426 2.426 2.4169 2.4079 2.4169 2.426 2.435 2.435 2.435 2.4442 2.4628 2.4721 2.4721 2.4816 2.4816 2.4911 2.5008 2.5008 2.5008 2.5104 2.5104 2.53 2.53 2.5399 2.5399 2.5499 2.5399 2.5499 2.5499 2.56 2.56 2.5701 2.5802 2.5802 2.56 2.56 2.5802 2.5802 2.601 2.6115 2.622 2.6115 2.601 2.6115 2.6115 2.622 2.622 2.601 2.5906 2.5906 2.601 2.6115 2.6326 2.6434 2.6434 2.6543 2.6543 2.6761 2.6871 2.6871 2.6871 2.6871 2.7096 2.6984 2.721 2.744 2.744 2.744 2.7674 2.7912 2.8032 2.8155 2.8277 2.8277 2.8155 2.8277 2.8401 2.8401 2.8277 2.8277 2.8401 2.8401 2.8526 2.8653 2.8653 2.8526 2.8401 2.8526 2.8526 2.8779 2.9167 2.9167 2.9299 2.9701 2.9701 3.0115 3.0115 3.0255 3.0398 3.054 3.0255 3.0255 3.0115 3.0115 2.9976 3.0115 3.0255 3.0255 2.9976 2.9976 2.9838 2.9838 2.9701 2.9701 3.0115 3.0398 3.0685 3.1581 3.2049 3.2049 3.2049 3.2207 3.2369 3.2695 3.2531 3.2695 3.2531 3.2207 3.2207 3.2369 3.2369 3.2531 3.2695 3.2695 3.286 3.3028 3.3367 3.3367 3.3714 3.4249 3.443 3.4614 3.443 3.4249 3.389 3.4069 3.443 3.5759 3.6157 3.636 3.636 3.6157 3.5956 3.636 3.636 3.636 3.6157 3.5759 3.5369 3.48 3.4987 3.5369 3.5562 3.5759 3.5759 3.5759 3.5956 3.5759 3.5956 3.5956 3.5956 3.6157 3.6565 3.6565 3.636 3.6565 3.6771 3.7194 3.7407 3.7407 3.7625 3.8066 3.8066 3.8749 3.9216 3.9941 4.0189 3.9941 4.0439 4.121 4.0439 3.9941 3.8981 3.8749 3.8519 3.8519 3.8519 3.8749 3.8291 3.8749 3.9455 4.0189 4.201 4.2561 4.201 4.1472 4.174 4.174 4.174 4.1472 4.174 4.174 4.121 4.095 4.095 4.0693 4.121 4.095 4.121 4.201 4.174 4.121 4.121 4.121 4.201 4.2284 4.2284 4.5231 4.5549 4.5871 4.5231 4.4005 4.461 4.6197 4.4919 4.4919 4.5231 4.3128 4.1472 4.174 4.121 4.3415 4.3415 0 0 0 0 0 0 0 0 0 0 0 0 0 0 0 0 0 0 0 0 0 0 0 0 0 0 0 0 0 0 0 0 0 0 0 0 0 0 0 0 0 0 0 0 0 0 0 0 0 0 0 0 0 0 0 0 0 0 0 0 0 0 0 0 0 0 0 0 0 0 0 0 0 0 0 0 0 0 0 0 0 0 0 0 0 0 0 0 0 0 0 0 0 0 0 0 0
2.3555 2.364 2.3555 2.3555 2.3555 2.347 2.347 2.3555 2.3385 2.3385 2.347 2.347 2.3555 2.364 2.399 2.399 2.4079 2.4169 2.435 2.426 2.426 2.426 2.4169 2.4079 2.4169 2.426 2.435 2.4442 2.4535 2.4535 2.4628 2.4816 2.4816 2.4911 2.4911 2.4911 2.5008 2.4911 2.4911 2.5104 2.5201 2.53 2.5399 2.5399 2.5399 2.5399 2.5399 2.5499 2.5499 2.5499 2.56 2.5802 2.601 2.6115 2.5802 2.5906 2.601 2.6115 2.6326 2.6434 2.6326 2.622 2.6115 2.601 2.6115 2.622 2.6115 2.601 2.5802 2.5906 2.601 2.6115 2.622 2.6326 2.6434 2.6434 2.6543 2.6651 2.6761 2.6761 2.6871 2.6871 2.6984 2.6984 2.721 2.744 2.7556 2.7556 2.7793 2.7912 2.8155 2.8277 2.8155 2.8277 2.8277 2.8277 2.8401 2.8401 2.8401 2.8401 2.8401 2.8401 2.8526 2.8653 2.8526 2.8526 2.8277 2.8277 2.8401 2.8653 2.9167 2.9167 2.9299 2.9838 2.9976 3.0255 3.0255 3.0398 3.0685 3.0685 3.054 3.054 3.0255 3.0255 3.0255 3.0398 3.0398 3.0398 3.0115 2.9976 2.9838 2.9566 2.9566 2.9701 2.9976 3.0398 3.0685 3.1427 3.2049 3.2049 3.2049 3.2207 3.2369 3.2531 3.2531 3.2369 3.2369 3.2049 3.2049 3.2049 3.2207 3.2369 3.2531 3.2531 3.286 3.286 3.354 3.3714 3.389 3.4614 3.4987 3.5369 3.5176 3.5176 3.4987 3.4987 3.5369 3.636 3.6565 3.636 3.5956 3.6157 3.6157 3.6565 3.636 3.636 3.6157 3.5956 3.5562 3.5176 3.5369 3.5956 3.6157 3.6157 3.6565 3.6565 3.6771 3.6771 3.6771 3.7194 3.7194 3.7194 3.7194 3.7194 3.6981 3.6981 3.7407 3.7625 3.7844 3.7844 3.8066 3.8519 3.8981 3.9216 4.0189 4.0693 4.0439 4.0693 4.201 4.2843 4.2284 4.121 4.0189 3.9696 3.9696 3.9455 3.9216 3.9455 3.7625 3.8749 3.9696 4.0693 4.2561 4.3415 4.2843 4.2284 4.2561 4.2561 4.2843 4.2284 4.2561 4.2843 4.201 4.174 4.174 4.174 4.174 4.174 4.2284 4.2561 4.2284 4.174 4.121 4.1472 4.2284 4.2561 4.2561 4.5231 4.7206 4.6865 4.4305 4.461 4.6197 4.7206 4.5871 4.5231 4.5549 4.3415 4.121 4.121 4.121 4.6529 4.6529 0 0 0 0 0 0 0 0 0 0 0 0 0 0 0 0 0 0 0 0 0 0 0 0 0 0 0 0 0 0 0 0 0 0 0 0 0 0 0 0 0 0 0 0 0 0 0 0 0 0 0 0 0 0 0 0 0 0 0 0 0 0 0 0 0 0 0 0 0 0 0 0 0 0 0 0 0 0 0 0 0 0 0 0 0 0 0 0 0 0 0 0 0 0 0 0 0
2.364 2.364 2.3555 2.347 2.347 2.347 2.347 2.3555 2.347 2.347 2.3555 2.3555 2.364 2.3727 2.399 2.4079 2.4079 2.426 2.426 2.435 2.435 2.426 2.426 2.4169 2.4169 2.4442 2.4442 2.4442 2.4628 2.4628 2.4721 2.4816 2.4816 2.4911 2.4911 2.4911 2.4911 2.4911 2.4911 2.5008 2.5104 2.5201 2.53 2.53 2.5499 2.5499 2.5399 2.5499 2.5499 2.5499 2.56 2.5701 2.601 2.6115 2.5802 2.5802 2.5906 2.601 2.6326 2.6434 2.6326 2.622 2.601 2.601 2.6115 2.622 2.6115 2.5906 2.5701 2.5701 2.5802 2.5906 2.6115 2.622 2.6434 2.6543 2.6543 2.6651 2.6761 2.6761 2.6761 2.6871 2.6871 2.721 2.7325 2.744 2.7556 2.7556 2.7674 2.7793 2.7912 2.8032 2.8032 2.8032 2.7912 2.8032 2.8277 2.8277 2.8401 2.8277 2.8401 2.8401 2.8401 2.8526 2.8526 2.8401 2.8277 2.8277 2.8401 2.8653 2.9036 2.9167 2.9167 2.9838 2.9976 3.0255 3.0255 3.0398 3.0685 3.083 3.054 3.054 3.0398 3.0255 3.0398 3.0398 3.054 3.0398 3.0115 2.9976 2.9838 2.9701 2.9701 2.9701 3.0255 3.0685 3.083 3.1581 3.2049 3.2049 3.2049 3.2207 3.2207 3.2207 3.2207 3.2207 3.2207 3.2049 3.2049 3.2049 3.2207 3.2531 3.2695 3.2531 3.286 3.286 3.354 3.3714 3.389 3.4614 3.4987 3.5176 3.4987 3.5176 3.5176 3.4987 3.5369 3.636 3.6565 3.6157 3.5956 3.5956 3.5956 3.6565 3.636 3.6157 3.6157 3.5956 3.5562 3.5369 3.5369 3.5956 3.5956 3.6157 3.6565 3.6771 3.6771 3.6771 3.6981 3.6981 3.7194 3.7407 3.7407 3.7407 3.7194 3.7194 3.7407 3.7844 3.7844 3.8066 3.8519 3.8749 3.8749 3.8981 3.9696 4.0189 4.0439 4.0439 4.201 4.2843 4.2284 4.1472 4.0439 4.0189 4.0189 3.9941 3.9216 3.8749 3.8291 3.8749 3.9941 4.095 4.2843 4.3415 4.2843 4.2284 4.2561 4.3128 4.2843 4.2561 4.2843 4.2843 4.2284 4.2284 4.201 4.2284 4.2284 4.201 4.2284 4.2561 4.201 4.1472 4.095 4.095 4.2561 4.2284 4.2284 4.4005 0 0 5.2139 4.5549 4.6865 4.7904 4.6529 4.5549 4.5549 4.3128 4.121 3.7407 3.7407 4.6529 4.6529 0 0 0 0 0 0 0 0 0 0 0 0 0 0 0 0 0 0 0 0 0 0 0 0 0 0 0 0 0 0 0 0 0 0 0 0 0 0 0 0 0 0 0 0 0 0 0 0 0 0 0 0 0 0 0 0 0 0 0 0 0 0 0 0 0 0 0 0 0 0 0 0 0 0 0 0 0 0 0 0 0 0 0 0 0 0 0 0 0 0 0 0 0 0 0 0 0
2.3555 2.364 2.3555 2.347 2.3385 2.3385 2.3385 2.347 2.3555 2.3555 2.3555 2.364 2.3727 2.3814 2.4079 2.4079 2.4079 2.426 2.426 2.435 2.435 2.435 2.426 2.426 2.426 2.4442 2.4442 2.4628 2.4721 2.4721 2.4721 2.4911 2.4816 2.4816 2.4816 2.4816 2.4911 2.4816 2.4721 2.5008 2.5008 2.5201 2.53 2.53 2.5399 2.56 2.5499 2.56 2.5499 2.5399 2.56 2.5701 2.5906 2.601 2.5701 2.5802 2.5802 2.601 2.6326 2.6434 2.6326 2.622 2.601 2.601 2.6115 2.6115 2.6115 2.5906 2.56 2.56 2.5701 2.5701 2.601 2.6115 2.6326 2.6543 2.6543 2.6651 2.6871 2.6871 2.6761 2.6984 2.6984 2.7325 2.744 2.7556 2.7556 2.7556 2.7674 2.7556 2.7793 2.7793 2.7793 2.7793 2.7674 2.7793 2.8155 2.8155 2.8277 2.8277 2.8277 2.8401 2.8401 2.8401 2.8401 2.8277 2.8155 2.8155 2.8277 2.8401 2.8908 2.8908 2.8908 2.9431 2.9566 3.0115 3.0115 3.0398 3.054 3.0685 3.0255 3.0255 3.0115 2.9976 3.0255 3.0255 3.0115 3.0115 2.9838 2.9838 2.9838 2.9701 2.9838 3.0115 3.083 3.1427 3.1735 3.2049 3.2207 3.2049 3.1891 3.2049 3.2049 3.2049 3.2049 3.1735 3.1735 3.1735 3.1891 3.1891 3.1891 3.2531 3.2695 3.286 3.3028 3.3196 3.3714 3.4069 3.4249 3.48 3.4987 3.4987 3.5176 3.5176 3.4987 3.48 3.48 3.5759 3.6157 3.5956 3.5562 3.5369 3.5369 3.6157 3.6157 3.5956 3.5956 3.5956 3.5369 3.4987 3.5176 3.6157 3.6157 3.636 3.6771 3.6771 3.7194 3.6981 3.7194 3.7194 3.7407 3.7194 3.7407 3.7407 3.7194 3.7194 3.7407 3.8066 3.8291 3.8291 3.8519 3.8749 3.8749 3.8981 3.9455 3.9941 4.0189 4.0439 4.201 4.2843 4.201 4.1472 4.0693 4.0439 4.0439 4.0189 3.9455 3.9455 3.8291 3.8291 3.9455 4.0439 4.3128 4.3708 4.3415 4.2843 4.2843 4.3415 4.3415 4.2843 4.3128 4.3415 4.2843 4.2843 4.2561 4.2561 4.2843 4.2561 4.2843 4.2843 4.201 4.1472 4.121 4.121 4.201 4.174 4.1472 4.4305 0 0 5.2139 4.5871 4.7206 4.8621 4.7206 4.5549 4.5549 4.1472 4.121 3.7407 3.7407 4.6529 4.6529 0 0 0 0 0 0 0 0 0 0 0 0 0 0 0 0 0 0 0 0 0 0 0 0 0 0 0 0 0 0 0 0 0 0 0 0 0 0 0 0 0 0 0 0 0 0 0 0 0 0 0 0 0 0 0 0 0 0 0 0 0 0 0 0 0 0 0 0 0 0 0 0 0 0 0 0 0 0 0 0 0 0 0 0 0 0 0 0 0 0 0 0 0 0 0 0 0
2.3555 2.364 2.347 2.3385 2.3218 2.3218 2.3385 2.347 2.347 2.364 2.3555 2.364 2.3814 2.3902 2.4169 2.4079 2.4169 2.426 2.435 2.435 2.4442 2.4442 2.435 2.426 2.435 2.4442 2.4535 2.4628 2.4721 2.4816 2.4721 2.4911 2.4911 2.4721 2.4816 2.4816 2.4816 2.4816 2.4816 2.4816 2.4911 2.5104 2.53 2.53 2.5499 2.56 2.56 2.56 2.5499 2.5399 2.5499 2.5701 2.5906 2.5906 2.5701 2.5701 2.5802 2.5906 2.6326 2.6543 2.6326 2.6115 2.6115 2.601 2.6115 2.622 2.6115 2.5906 2.5701 2.56 2.56 2.5701 2.601 2.6115 2.6326 2.6434 2.6543 2.6651 2.6871 2.6761 2.6871 2.7096 2.7325 2.744 2.7556 2.7556 2.7556 2.7556 2.7556 2.7674 2.7674 2.7793 2.7793 2.7674 2.7674 2.7793 2.8032 2.8155 2.8277 2.8277 2.8277 2.8277 2.8277 2.8401 2.8401 2.8277 2.7912 2.8032 2.8277 2.8401 2.8779 2.8779 2.8779 2.9167 2.9299 2.9976 3.0115 3.0255 3.0685 3.054 2.9976 2.9976 2.9838 2.9976 2.9976 3.0115 2.9838 2.9976 2.9701 2.9701 2.9701 2.9701 2.9976 3.0115 3.1276 3.1891 3.2049 3.2207 3.2207 3.2049 3.2049 3.1891 3.1891 3.2049 3.1891 3.1735 3.1735 3.1581 3.1735 3.1891 3.1891 3.2531 3.2695 3.286 3.3196 3.3367 3.389 3.443 3.443 3.48 3.4987 3.4987 3.5369 3.5176 3.4987 3.443 3.443 3.5176 3.6157 3.5562 3.5176 3.4987 3.4987 3.5562 3.5759 3.5956 3.5956 3.5956 3.5369 3.48 3.48 3.6157 3.636 3.636 3.6981 3.6981 3.6981 3.7194 3.6981 3.7194 3.7194 3.7194 3.7407 3.7407 3.7407 3.7194 3.7407 3.7844 3.8066 3.8291 3.8749 3.8749 3.8749 3.9216 3.9455 4.0189 4.0189 4.0693 4.174 4.2843 4.1472 4.121 4.095 4.0439 4.0189 3.9696 3.9941 4.0189 3.7194 3.8066 3.8749 3.9696 4.3128 4.4005 4.3708 4.3128 4.3128 4.3415 4.3415 4.2843 4.3128 4.3128 4.3128 4.2843 4.2843 4.2561 4.2843 4.2843 4.3128 4.3128 4.201 4.174 4.121 4.121 4.1472 4.121 4.095 4.3415 4.3128 4.3128 4.7206 4.7206 4.7553 4.8621 4.7553 4.6865 5.2139 5.2139 0 0 0 0 0 0 0 0 0 0 0 0 0 0 0 0 0 0 0 0 0 0 0 0 0 0 0 0 0 0 0 0 0 0 0 0 0 0 0 0 0 0 0 0 0 0 0 0 0 0 0 0 0 0 0 0 0 0 0 0 0 0 0 0 0 0 0 0 0 0 0 0 0 0 0 0 0 0 0 0 0 0 0 0 0 0 0 0 0 0 0 0 0 0 0 0 0 0 0 0 0 0
2.3555 2.364 2.3385 2.3301 2.3218 2.3135 2.3218 2.3385 2.347 2.347 2.347 2.3727 2.3902 2.399 2.4079 2.4169 2.4169 2.426 2.435 2.4442 2.4442 2.435 2.435 2.435 2.4442 2.4442 2.4535 2.4628 2.4816 2.4911 2.4816 2.4816 2.4816 2.4721 2.4721 2.4816 2.4721 2.4721 2.4721 2.4911 2.4911 2.5008 2.5008 2.5104 2.5399 2.5399 2.5499 2.56 2.5499 2.5399 2.5499 2.5701 2.5906 2.601 2.56 2.5701 2.5802 2.5906 2.622 2.6326 2.622 2.6115 2.5906 2.5906 2.601 2.6115 2.601 2.5802 2.56 2.56 2.56 2.56 2.5802 2.5906 2.622 2.6326 2.6434 2.6543 2.6761 2.6761 2.6761 2.6871 2.7325 2.744 2.744 2.744 2.7556 2.744 2.7556 2.7556 2.7674 2.7793 2.7793 2.7793 2.7793 2.7793 2.8155 2.8155 2.8277 2.8277 2.8277 2.8277 2.8155 2.8155 2.8155 2.8032 2.7912 2.8032 2.8155 2.8277 2.8526 2.8526 2.8526 2.9036 2.9167 2.9701 2.9838 2.9976 3.0255 3.0398 2.9976 2.9976 2.9838 2.9838 2.9976 2.9976 2.9976 2.9838 2.9838 2.9838 2.9701 2.9701 2.9976 3.0115 3.0978 3.1427 3.1581 3.2049 3.2369 3.2049 3.1891 3.1891 3.1735 3.1735 3.1581 3.1276 3.1427 3.1276 3.1427 3.1581 3.1735 3.2207 3.2531 3.2695 3.286 3.3196 3.389 3.4249 3.443 3.48 3.4614 3.4614 3.5176 3.5176 3.48 3.443 3.4249 3.4987 3.5759 3.5562 3.5176 3.4987 3.4987 3.4987 3.5176 3.5562 3.5759 3.4987 3.4614 3.4249 3.443 3.5759 3.5956 3.6157 3.6565 3.6771 3.7194 3.7407 3.7194 3.7194 3.7407 3.7407 3.7407 3.7625 3.7407 3.7407 3.7625 3.8066 3.8291 3.8291 3.8981 3.8981 3.8981 3.9455 3.9696 3.9696 3.9941 4.0189 4.121 4.174 4.0693 4.0189 3.9941 3.9455 3.9216 3.9216 3.9455 3.9455 3.6981 3.7625 3.7844 3.7844 4.174 4.2843 4.3415 4.3128 4.3128 4.3415 4.3415 4.3128 4.3415 4.3415 4.3128 4.2843 4.2843 4.2561 4.2843 4.2561 4.2843 4.3128 4.2284 4.174 4.095 4.095 4.0693 4.0189 3.9941 4.3415 4.3128 4.3128 4.7206 4.7206 4.6865 4.6865 4.5549 4.4919 4.4919 4.4919 0 0 0 0 0 0 0 0 0 0 0 0 0 0 0 0 0 0 0 0 0 0 0 0 0 0 0 0 0 0 0 0 0 0 0 0 0 0 0 0 0 0 0 0 0 0 0 0 0 0 0 0 0 0 0 0 0 0 0 0 0 0 0 0 0 0 0 0 0 0 0 0 0 0 0 0 0 0 0 0 0 0 0 0 0 0 0 0 0 0 0 0 0 0 0 0 0 0 0 0 0 0
2.3555 2.364 2.347 2.3301 2.3218 2.3135 2.3218 2.347 2.347 2.347 2.347 2.3814 2.399 2.399 2.4079 2.4169 2.4079 2.426 2.426 2.435 2.4442 2.426 2.435 2.4442 2.435 2.4535 2.4535 2.4721 2.5104 2.5104 2.5008 2.4911 2.4911 2.4816 2.4816 2.4816 2.4816 2.4816 2.4721 2.5008 2.5008 2.5104 2.5201 2.53 2.5499 2.56 2.56 2.5701 2.5499 2.5499 2.56 2.5701 2.5906 2.601 2.5701 2.5802 2.5906 2.601 2.6326 2.6326 2.6326 2.6115 2.601 2.5906 2.5906 2.601 2.6115 2.5802 2.56 2.56 2.56 2.56 2.5701 2.5906 2.622 2.6326 2.6434 2.6543 2.6761 2.6651 2.6761 2.6871 2.7325 2.744 2.744 2.744 2.7556 2.744 2.744 2.7556 2.7674 2.7674 2.7674 2.7556 2.7556 2.7674 2.8155 2.8277 2.8401 2.8277 2.8277 2.8277 2.8155 2.8277 2.8155 2.8032 2.7912 2.8032 2.8155 2.8277 2.8653 2.8526 2.8653 2.8908 2.9299 2.9566 2.9701 2.9976 3.0115 3.0255 2.9976 2.9976 2.9838 2.9838 2.9976 2.9976 3.0115 2.9976 2.9701 2.9838 2.9838 2.9838 2.9838 3.0115 3.083 3.1427 3.1581 3.2207 3.2531 3.2207 3.2049 3.2049 3.1891 3.1891 3.1581 3.1581 3.1581 3.1427 3.1427 3.1581 3.1735 3.2369 3.2531 3.2531 3.3028 3.3196 3.389 3.443 3.4614 3.4614 3.4614 3.4614 3.4987 3.4987 3.48 3.4249 3.4069 3.4614 3.5369 3.5176 3.4987 3.48 3.4614 3.48 3.4987 3.5369 3.5759 3.4987 3.443 3.4069 3.443 3.5956 3.6157 3.636 3.6771 3.6981 3.7194 3.7407 3.7407 3.7625 3.7625 3.7625 3.7844 3.7844 3.7844 3.7625 3.7844 3.8066 3.8291 3.8519 3.8981 3.9216 3.9216 3.9696 3.9696 4.0189 3.9941 4.0439 4.121 4.174 4.121 4.0693 4.0693 3.9941 3.9696 3.9696 3.9941 4.0189 3.7194 3.7194 3.8066 3.9696 4.174 4.2561 4.3415 4.3415 4.3128 4.3415 4.3415 4.3128 4.3415 4.3708 4.3128 4.2843 4.2843 4.2561 4.2843 4.2843 4.2843 4.3415 4.2561 4.174 4.121 4.095 4.0693 4.0189 3.9696 4.5549 0 0 0 0 0 4.6865 4.5549 4.4919 4.4919 4.4919 0 0 0 0 0 0 0 0 0 0 0 0 0 0 0 0 0 0 0 0 0 0 0 0 0 0 0 0 0 0 0 0 0 0 0 0 0 0 0 0 0 0 0 0 0 0 0 0 0 0 0 0 0 0 0 0 0 0 0 0 0 0 0 0 0 0 0 0 0 0 0 0 0 0 0 0 0 0 0 0 0 0 0 0 0 0 0 0 0 0 0 0 0 0 0 0 0 0 0 0 0 0
2.347 2.3555 2.347 2.3385 2.3301 2.3218 2.3301 2.347 2.3385 2.3301 2.347 2.3814 2.3902 2.399 2.4079 2.4079 2.4169 2.4079 2.426 2.426 2.426 2.426 2.426 2.4442 2.4442 2.4442 2.4535 2.4628 2.53 2.5201 2.5008 2.5008 2.4816 2.4816 2.4816 2.4911 2.4911 2.4816 2.4911 2.5008 2.5104 2.5201 2.53 2.5399 2.56 2.5701 2.5701 2.5701 2.56 2.5499 2.56 2.5701 2.601 2.601 2.5802 2.5802 2.5906 2.601 2.6326 2.6434 2.6326 2.6326 2.601 2.5906 2.5802 2.5906 2.601 2.5701 2.5499 2.56 2.5499 2.56 2.5701 2.5906 2.622 2.6326 2.6434 2.6543 2.6651 2.6651 2.6761 2.6871 2.7325 2.744 2.744 2.744 2.744 2.744 2.744 2.7556 2.7674 2.7674 2.7674 2.744 2.744 2.7674 2.8032 2.8401 2.8277 2.8277 2.8277 2.8277 2.8277 2.8277 2.8155 2.8032 2.7912 2.8032 2.8277 2.8526 2.8653 2.8653 2.8779 2.9036 2.9167 2.9566 2.9701 2.9838 3.0115 3.0255 2.9838 2.9701 2.9838 2.9838 2.9976 3.0115 3.0115 3.0115 2.9838 2.9838 2.9838 2.9838 2.9838 2.9976 3.0685 3.1427 3.1735 3.2207 3.2695 3.2369 3.2369 3.2207 3.2207 3.2049 3.1891 3.1581 3.1581 3.1581 3.1581 3.1581 3.1735 3.2369 3.2531 3.2531 3.3028 3.3196 3.4069 3.443 3.443 3.443 3.443 3.443 3.48 3.4987 3.4249 3.389 3.389 3.443 3.4987 3.48 3.48 3.443 3.4249 3.4614 3.4614 3.5176 3.5562 3.4987 3.443 3.4069 3.443 3.5956 3.636 3.636 3.6771 3.6981 3.7407 3.7407 3.7407 3.7844 3.7625 3.7625 3.7625 3.8066 3.7844 3.7844 3.7844 3.8291 3.8291 3.8519 3.9216 3.9216 3.9455 3.9941 4.0189 3.9941 4.0189 4.0439 4.1472 4.174 4.1472 4.121 4.121 4.0439 4.0189 4.0189 4.0693 4.0693 3.9216 3.9216 4.121 4.0693 4.201 4.2561 4.3128 4.3128 4.3128 4.3128 4.2843 4.3128 4.3415 4.3708 4.3128 4.2843 4.2843 4.2843 4.2561 4.2561 4.3415 4.4005 4.2561 4.201 4.121 4.121 4.0693 4.0439 3.9941 4.5549 0 0 0 0 0 4.6865 4.5549 4.5231 5.1314 5.1314 0 0 0 0 0 0 0 0 0 0 0 0 0 0 0 0 0 0 0 0 0 0 0 0 0 0 0 0 0 0 0 0 0 0 0 0 0 0 0 0 0 0 0 0 0 0 0 0 0 0 0 0 0 0 0 0 0 0 0 0 0 0 0 0 0 0 0 0 0 0 0 0 0 0 0 0 0 0 0 0 0 0 0 0 0 0 0 0 0 0 0 0 0 0 0 0 0 0 0 0 0 0
2.3218 2.3218 2.3135 2.3135 2.3135 2.3135 2.3301 2.3385 2.3301 2.3135 2.3301 2.3727 2.3902 2.3902 2.3902 2.3902 2.3814 2.3902 2.3902 2.399 2.4079 2.399 2.4169 2.435 2.4442 2.4442 2.4535 2.4628 2.5399 2.53 2.5104 2.5104 2.4816 2.4816 2.4816 2.4816 2.4911 2.4911 2.4911 2.5008 2.5008 2.5201 2.5399 2.5499 2.5701 2.5701 2.5802 2.5802 2.56 2.56 2.56 2.5802 2.601 2.6115 2.5802 2.5906 2.601 2.601 2.6326 2.6434 2.6434 2.6326 2.6115 2.5906 2.5802 2.601 2.5906 2.5701 2.56 2.5499 2.56 2.5499 2.5802 2.5906 2.601 2.6115 2.6115 2.6326 2.6434 2.6543 2.6651 2.6651 2.6984 2.7325 2.744 2.744 2.744 2.744 2.7556 2.7556 2.7556 2.7674 2.7674 2.7556 2.7556 2.7674 2.7912 2.8155 2.8277 2.8277 2.8277 2.8155 2.8155 2.8032 2.8155 2.8032 2.8032 2.8155 2.8277 2.8277 2.8653 2.8653 2.8653 2.9036 2.9167 2.9431 2.9566 2.9701 2.9838 2.9976 2.9701 2.9701 2.9701 2.9838 3.0115 3.0115 3.0115 3.0115 2.9838 2.9838 2.9838 2.9838 2.9838 2.9976 3.0685 3.1276 3.1581 3.2369 3.2695 3.2531 3.2369 3.2369 3.2049 3.2049 3.1891 3.1735 3.1735 3.1427 3.1427 3.1581 3.1735 3.2369 3.2531 3.2531 3.286 3.3196 3.389 3.4249 3.443 3.443 3.443 3.4614 3.4614 3.48 3.4249 3.389 3.389 3.389 3.443 3.4249 3.4069 3.3714 3.354 3.4249 3.4249 3.48 3.5176 3.4987 3.4614 3.4069 3.443 3.636 3.6565 3.6771 3.6771 3.7194 3.7407 3.7625 3.7625 3.7625 3.7625 3.7625 3.7625 3.7844 3.7844 3.7625 3.7625 3.8066 3.8066 3.8519 3.9216 3.9696 3.9696 3.9941 3.9941 4.0439 4.0439 4.0693 4.1472 4.174 4.0693 4.0693 4.0693 3.9941 3.9696 3.9696 3.9941 3.9941 3.8519 3.9216 3.9941 4.0439 4.174 4.2561 4.3128 4.3415 4.3128 4.3128 4.2843 4.2843 4.2843 4.3415 4.2843 4.2843 4.2843 4.2284 4.174 4.201 4.2843 4.3708 4.2843 4.2284 4.174 4.095 4.095 3.9941 3.9941 4.5549 0 0 0 0 0 4.6865 4.4919 4.5231 5.1314 5.1314 0 0 0 0 0 0 0 0 0 0 0 0 0 0 0 0 0 0 0 0 0 0 0 0 0 0 0 0 0 0 0 0 0 0 0 0 0 0 0 0 0 0 0 0 0 0 0 0 0 0 0 0 0 0 0 0 0 0 0 0 0 0 0 0 0 0 0 0 0 0 0 0 0 0 0 0 0 0 0 0 0 0 0 0 0 0 0 0 0 0 0 0 0 0 0 0 0 0 0 0 0 0
2.2971 2.3053 2.3053 2.3053 2.3053 2.3053 2.3301 2.3385 2.3135 2.2971 2.3135 2.3555 2.399 2.3902 2.364 2.3727 2.364 2.364 2.364 2.3727 2.4079 2.399 2.4169 2.435 2.4442 2.4535 2.4442 2.4628 2.5499 2.5499 2.5201 2.5201 2.4911 2.4816 2.4721 2.4816 2.4816 2.4816 2.4721 2.5008 2.5008 2.53 2.5499 2.56 2.5802 2.5802 2.5906 2.5906 2.5802 2.56 2.5802 2.5802 2.601 2.6115 2.5802 2.5802 2.601 2.6115 2.6326 2.6434 2.6434 2.6326 2.6115 2.5906 2.5906 2.6115 2.601 2.5906 2.5701 2.56 2.56 2.56 2.5906 2.5906 2.601 2.601 2.6115 2.622 2.6326 2.6434 2.6651 2.6651 2.6871 2.721 2.7325 2.744 2.744 2.744 2.7556 2.7556 2.7556 2.7674 2.7674 2.7556 2.7556 2.7556 2.7912 2.8032 2.8155 2.8155 2.8155 2.8032 2.8032 2.8032 2.8032 2.7912 2.8032 2.8155 2.8277 2.8401 2.8526 2.8526 2.8653 2.8908 2.9167 2.9299 2.9431 2.9701 2.9838 2.9838 2.9701 2.9701 2.9838 2.9976 3.0255 3.0255 3.0255 3.0398 2.9976 2.9976 2.9976 3.0115 3.0115 3.0255 3.0978 3.1427 3.1735 3.2369 3.2695 3.2531 3.2531 3.2531 3.2207 3.2207 3.1891 3.1891 3.1891 3.1427 3.1581 3.1581 3.1735 3.2369 3.2531 3.2695 3.286 3.3367 3.389 3.4249 3.4069 3.4249 3.443 3.4249 3.443 3.443 3.4249 3.389 3.3714 3.389 3.4249 3.389 3.3714 3.354 3.3367 3.389 3.389 3.48 3.5176 3.5176 3.5176 3.4987 3.5369 3.6771 3.6981 3.7194 3.7407 3.7625 3.7625 3.7844 3.7844 3.7844 3.7625 3.7625 3.7844 3.7844 3.7844 3.7625 3.7625 3.7844 3.8066 3.8519 3.8981 3.9696 3.9696 3.9941 3.9941 4.0189 4.0693 4.095 4.1472 4.121 4.0189 3.9941 4.0189 3.9455 3.8981 3.9216 3.9455 3.9455 3.8291 3.8749 3.9696 4.0189 4.121 4.3708 4.3708 4.3708 4.3708 4.3128 4.3128 4.2843 4.3128 4.3128 4.2843 4.2561 4.2284 4.201 4.1472 4.201 4.2843 4.3708 4.4005 4.3708 4.201 4.174 0 4.5549 4.5231 4.5549 0 0 0 0 0 5.3426 4.8989 4.9361 5.572 5.572 0 0 0 0 0 0 0 0 0 0 0 0 0 0 0 0 0 0 0 0 0 0 0 0 0 0 0 0 0 0 0 0 0 0 0 0 0 0 0 0 0 0 0 0 0 0 0 0 0 0 0 0 0 0 0 0 0 0 0 0 0 0 0 0 0 0 0 0 0 0 0 0 0 0 0 0 0 0 0 0 0 0 0 0 0 0 0 0 0 0 0 0 0 0 0 0 0 0 0 0 0 0
2.281 2.281 2.2971 2.3053 2.2971 2.3053 2.3301 2.3385 2.3053 2.281 2.273 2.2261 0 2.3301 2.347 2.347 2.3218 2.3218 2.3301 2.3385 2.3902 2.399 2.4079 2.426 2.4442 2.4442 2.4442 2.4535 2.56 2.5499 2.5201 2.5104 2.4911 2.4721 2.4628 2.4628 2.4721 2.4628 2.4721 2.4816 2.4911 2.5201 2.5399 2.56 2.5802 2.5906 2.5906 2.5906 2.5802 2.5701 2.5802 2.5906 2.601 2.6115 2.5802 2.5906 2.601 2.601 2.6434 2.6434 2.6434 2.6326 2.6115 2.5906 2.5906 2.601 2.601 2.5802 2.5701 2.5701 2.56 2.56 2.601 2.601 2.601 2.601 2.601 2.6326 2.6434 2.6543 2.6543 2.6761 2.6871 2.7325 2.7325 2.744 2.744 2.7556 2.744 2.7556 2.7556 2.7674 2.7674 2.7556 2.7674 2.7674 2.7793 2.7912 2.8032 2.8032 2.8032 2.8032 2.7912 2.7912 2.8032 2.8032 2.8032 2.8032 2.8155 2.8277 2.8526 2.8653 2.8653 2.8908 2.9036 2.9299 2.9431 2.9566 2.9838 2.9838 2.9838 2.9838 2.9976 3.0115 3.0398 3.0398 3.0398 3.054 3.0115 3.0255 3.0398 3.0398 3.054 3.054 3.1276 3.1735 3.2049 3.2531 3.286 3.2695 3.2695 3.2369 3.2207 3.2207 3.2207 3.1891 3.1735 3.1735 3.1735 3.1581 3.1891 3.2207 3.2369 3.2531 3.286 3.3196 3.3714 3.389 3.389 3.4069 3.4069 3.4069 3.4249 3.4069 3.389 3.3714 3.3714 3.3714 3.4069 3.3714 3.354 3.3196 3.3028 3.3714 3.3714 3.443 3.48 3.4987 3.5176 3.5369 3.5759 3.7194 3.7194 3.7407 3.7625 3.7625 3.7844 3.7625 3.7844 3.7844 3.7844 3.7625 3.7625 3.7844 3.7844 3.7625 3.7625 3.7625 3.8066 3.8066 3.8981 3.9216 3.9455 3.9455 3.9696 4.0189 4.0189 4.0693 4.095 4.095 3.9455 3.9216 3.9696 3.8749 3.8519 3.8981 3.8981 3.8981 3.8749 3.8519 3.9216 3.9696 3.9696 3.9216 3.9216 4.3128 4.3415 4.2843 4.3128 4.2843 4.2843 4.2843 4.2561 4.2561 4.2284 4.1472 4.121 4.174 4.2843 4.3708 4.3708 4.4005 0 0 0 4.5231 4.5231 4.5549 4.2561 4.2561 4.1472 4.1472 4.2561 4.2561 4.2284 4.4919 4.5231 4.5231 0 0 0 0 0 0 0 0 0 0 0 0 0 0 0 0 0 0 0 0 0 0 0 0 0 0 0 0 0 0 0 0 0 0 0 0 0 0 0 0 0 0 0 0 0 0 0 0 0 0 0 0 0 0 0 0 0 0 0 0 0 0 0 0 0 0 0 0 0 0 0 0 0 0 0 0 0 0 0 0 0 0 0 0 0 0 0 0 0 0 0 0 0 0 0 0 0 0 0 0 0 0
2.273 2.273 2.289 2.3135 2.2971 2.3053 2.3385 2.3385 2.289 2.265 2.2492 2.2261 2.3301 2.2415 2.273 2.265 2.273 2.2571 2.2492 2.211 2.364 2.3727 2.4079 2.4169 2.426 2.426 2.4169 2.426 2.4816 2.5008 2.4816 2.4628 2.4628 2.4442 2.426 2.426 2.4535 2.435 2.435 2.4535 2.4535 2.5008 2.5201 2.5499 2.5802 2.5906 2.5906 2.5906 2.5701 2.5701 2.5802 2.5906 2.601 2.622 2.5802 2.5906 2.5906 2.6115 2.6326 2.6434 2.6543 2.6326 2.6115 2.5802 2.5802 2.5906 2.601 2.5701 2.56 2.5701 2.56 2.56 2.601 2.601 2.601 2.6115 2.6115 2.6326 2.6434 2.6434 2.6543 2.6651 2.6761 2.7096 2.7096 2.7325 2.7325 2.744 2.7556 2.7674 2.7674 2.7674 2.7674 2.7674 2.7674 2.7674 2.7793 2.7793 2.7912 2.7912 2.7912 2.7793 2.7793 2.7793 2.7912 2.7912 2.7912 2.8155 2.8277 2.8401 2.8401 2.8526 2.8653 2.8908 2.9036 2.9299 2.9431 2.9566 2.9701 2.9701 2.9701 2.9838 2.9976 3.0255 3.0398 3.0398 3.0398 3.0685 3.0255 3.0398 3.054 3.0685 3.083 3.083 3.1427 3.1891 3.2207 3.2695 3.2695 3.286 3.2531 3.2531 3.2207 3.2207 3.2207 3.1891 3.1891 3.1735 3.1735 3.1891 3.1891 3.2369 3.2531 3.2531 3.286 3.3196 3.3714 3.3714 3.3714 3.354 3.3714 3.354 3.3714 3.3714 3.354 3.3367 3.3196 3.354 3.3714 3.354 3.3196 3.286 3.286 3.3196 3.3196 3.4069 3.443 3.4614 3.4987 3.4987 3.5369 3.7194 3.7407 3.7407 3.7844 3.7844 3.8066 3.7844 3.7844 3.8066 3.7844 3.7625 3.7625 3.7844 3.7625 3.7625 3.7407 3.7625 3.7844 3.7844 3.8291 3.8519 3.8749 3.9216 3.9216 3.9455 3.9455 3.9696 3.9696 3.9216 3.8519 3.8291 3.8519 3.7844 3.7625 3.8066 3.8291 3.8519 3.8066 3.8066 3.8749 3.8749 3.9455 3.9216 3.9696 4.2843 4.2843 4.201 4.2284 4.2284 4.2561 4.2284 4.201 4.174 4.121 4.095 4.095 4.0693 3.8749 4.3708 4.3708 4.4005 0 0 0 4.4005 4.461 4.461 4.3128 4.201 4.174 4.201 4.2284 4.201 4.2284 4.4919 4.5231 4.5231 0 0 0 0 0 0 0 0 0 0 0 0 0 0 0 0 0 0 0 0 0 0 0 0 0 0 0 0 0 0 0 0 0 0 0 0 0 0 0 0 0 0 0 0 0 0 0 0 0 0 0 0 0 0 0 0 0 0 0 0 0 0 0 0 0 0 0 0 0 0 0 0 0 0 0 0 0 0 0 0 0 0 0 0 0 0 0 0 0 0 0 0 0 0 0 0 0 0 0 0 0 0
2.289 2.289 2.2971 2.3301 2.3385 2.347 2.347 2.347 2.289 2.265 2.273 2.2971 2.3218 2.2415 2.2339 2.2415 2.2415 2.2415 2.2261 2.2185 2.347 2.3814 2.399 2.4169 2.426 2.4169 2.4079 2.4169 2.4628 2.4721 2.4721 2.4535 2.4535 2.426 2.4079 2.4079 2.4442 2.435 2.426 2.435 2.435 2.4816 2.5104 2.5399 2.601 2.601 2.6115 2.6115 2.601 2.5906 2.6115 2.622 2.6326 2.6434 2.601 2.601 2.601 2.6115 2.6434 2.6434 2.6543 2.6651 2.622 2.5906 2.5802 2.5906 2.601 2.5701 2.5701 2.5701 2.56 2.56 2.601 2.601 2.6115 2.6115 2.622 2.6434 2.6543 2.6543 2.6651 2.6761 2.6871 2.6984 2.7096 2.721 2.7325 2.744 2.7674 2.7674 2.7793 2.7793 2.7912 2.7912 2.7912 2.7912 2.7912 2.7793 2.7912 2.7912 2.7912 2.7912 2.7912 2.7793 2.7912 2.8032 2.8032 2.8277 2.8401 2.8526 2.8779 2.8653 2.8779 2.8908 2.9167 2.9431 2.9431 2.9701 2.9701 2.9701 2.9701 2.9976 3.0115 3.0255 3.0398 3.0398 3.054 3.0685 3.0398 3.0398 3.054 3.0685 3.0978 3.1126 3.1427 3.1581 3.2049 3.2695 3.2695 3.2695 3.286 3.286 3.286 3.2695 3.2695 3.2531 3.2369 3.2207 3.2207 3.2369 3.2531 3.286 3.286 3.3028 3.3196 3.3367 3.3714 3.3714 3.3714 3.354 3.3714 3.354 3.3714 3.3714 3.3367 3.3367 3.3196 3.3367 3.3714 3.354 3.3196 3.286 3.286 3.3028 3.3028 3.3714 3.4249 3.4614 3.48 3.48 3.5369 3.7407 3.7407 3.7625 3.7844 3.7844 3.7844 3.7844 3.7844 3.8066 3.8066 3.7844 3.8066 3.8066 3.7844 3.7625 3.7625 3.7625 3.7844 3.8066 3.8291 3.8291 3.8519 3.8981 3.8981 3.8749 3.9216 3.9216 3.9216 3.8981 3.8066 3.8066 3.8066 3.7625 3.7407 3.7844 3.8066 3.8291 3.7844 3.8066 3.8291 3.8519 3.9455 3.9696 4.0439 4.2843 4.2561 4.201 4.174 4.201 4.2284 4.201 4.174 4.1472 4.1472 4.121 4.201 3.8749 3.8749 0 0 0 0 0 0 4.4005 4.461 4.4305 4.121 4.2561 4.3415 4.4005 4.4005 4.121 4.121 4.4919 0 0 0 0 0 0 0 0 0 0 0 0 0 0 0 0 0 0 0 0 0 0 0 0 0 0 0 0 0 0 0 0 0 0 0 0 0 0 0 0 0 0 0 0 0 0 0 0 0 0 0 0 0 0 0 0 0 0 0 0 0 0 0 0 0 0 0 0 0 0 0 0 0 0 0 0 0 0 0 0 0 0 0 0 0 0 0 0 0 0 0 0 0 0 0 0 0 0 0 0 0 0 0 0
