1.6832 1.692 1.692 1.6965 1.7054 1.7144 1.7235 1.7561 1.7514 1.7514 1.7514 1.7561 1.7609 1.7657 1.7609 1.7561 1.7374 1.7054 1.7009 1.692 1.6703 1.6616 1.6406 1.6449 1.6406 1.6365 1.6365 1.6284 1.6201 1.6121 1.6081 1.6041 1.6081 1.6002 1.5885 1.5769 1.5769 1.5769 1.573 1.573 1.5769 1.5846 1.5885 1.5885 1.5885 1.5924 1.5924 1.5924 1.6041 1.6002 1.5885 1.5846 1.5808 1.5769 1.5769 1.5808 1.5885 1.5885 1.5885 1.5924 1.5885 1.573 1.5655 1.5655 1.5505 1.5431 1.5395 1.5321 1.5321 1.5214 1.5179 1.5108 1.5003 1.5003 1.5003 1.4969 1.4969 1.5003 1.49 1.4865 1.49 1.4934 1.4934 1.4969 1.4969 1.5037 1.5072 1.5108 1.5108 1.5179 1.5214 1.5108 1.5108 1.5072 1.5072 1.5037 1.5003 1.4969 1.5003 1.4934 1.4865 1.4797 1.4797 1.4831 1.4831 1.473 1.4697 1.4664 1.4664 1.4697 1.4764 1.473 1.473 1.4664 1.4631 1.4664 1.4664 1.4664 1.4631 1.45 1.4404 1.4404 1.4371 1.4404 1.4404 1.4404 1.434 1.4276 1.4276 1.4276 1.4307 1.4404 1.4435 1.4404 1.4371 1.4404 1.4371 1.434 1.434 1.4371 1.4307 1.4245 1.4214 1.4183 1.4183 1.4152 1.4152 1.4152 1.4121 1.409 1.409 1.406 1.406 1.409 1.409 1.406 1.403 1.406 1.403 1.403 1.3999 1.403 1.3999 1.3969 1.3969 1.3939 1.3909 1.385 1.385 1.3791 1.3761 1.3733 1.3704 1.3675 1.3618 1.3618 1.3589 1.3589 1.356 1.356 1.3476 1.3447 1.3476 1.356 1.356 1.356 1.3589 1.3589 1.3618 1.3589 1.3618 1.3618 1.3589 1.3589 1.356 1.356 1.3533 1.3533 1.3504 1.3447 1.342 1.3393 1.331 1.331 1.331 1.331 1.331 1.3229 1.3229 1.3229 1.3256 1.3229 1.3229 1.3201 1.3175 1.3042 1.3042 1.3069 1.3016 1.299 0 0 0 0 0 0 0 0 0 0 0 0 0 0 0 0 0 0 0 0 0 0 0 0 0 0 0 0 0 0 0 0 0 0 0 0.29637 0.29637 0.29875 0.29888 0.29925 0.29875 0.297 0.2965 0.2965 0.29675 0.297 0.29663 0.29637 0.29637 0.29613 0.29637 0.29825 0.29862 0.29875 0.299 0.29938 0 0 0 0.3005 0.30175 0.30238 0.3025 1.2466 0.3045 0.305 0.30525 0.3075 0.30775 0.30775 0.30788 0.31175 0.31188 0.31188 0 0 0 0.52475 0.52638 0.52687 0.52775 0.52863 0.529 0.529 0.53025 0.53163 0.532 0.53425 0.5355 0.53912 0.5405 0.54175 0.5445 0.5445 0.545 0.54775 0.5505 0.55288 0.55288 0.55388 0.55663 0.55663 0.55575 0.5625 0.56488 0.56937 0.4485 0.44888 0.463 0.46025 0.46025 0.46063 0.46025 0 0.59775 0.59825 0.59888 0.59988 0.60162 0.60388 0.605 0.60725 0.60837 0.60837 0.60888 0.61062 0.61175 0 0.48912 0.48912 0.48875 0.48725 0.4865 0.48588 0.48512 0.48438 0.48438 0.48475 0.48512 0.48475
1.6789 1.6876 1.6876 1.692 1.7054 1.7144 1.7235 1.7514 1.7514 1.7374 1.742 1.7514 1.7609 1.7609 1.7609 1.7514 1.7328 1.7054 1.7009 1.692 1.6745 1.6575 1.6449 1.6449 1.649 1.6406 1.6406 1.6284 1.6201 1.6121 1.6041 1.5962 1.5962 1.5924 1.5846 1.5769 1.5769 1.573 1.5693 1.5693 1.5769 1.5846 1.5885 1.5885 1.5924 1.5924 1.5924 1.5962 1.6041 1.6002 1.5808 1.5769 1.573 1.573 1.5693 1.573 1.5846 1.5846 1.5846 1.5885 1.5924 1.5808 1.5693 1.5655 1.5542 1.5505 1.5431 1.5321 1.5321 1.5214 1.5179 1.5108 1.5003 1.4969 1.5003 1.5003 1.5037 1.5003 1.4934 1.49 1.49 1.4934 1.4934 1.4969 1.5037 1.5037 1.5072 1.5072 1.5108 1.5179 1.5179 1.5143 1.5108 1.5108 1.5072 1.5072 1.5037 1.4969 1.4969 1.4934 1.4831 1.4797 1.4797 1.4797 1.4797 1.473 1.4697 1.4664 1.4631 1.4697 1.473 1.473 1.473 1.4664 1.4631 1.4631 1.4631 1.4631 1.4631 1.45 1.4435 1.4404 1.4404 1.4435 1.4404 1.4371 1.434 1.4276 1.4276 1.4276 1.4276 1.4371 1.4404 1.4371 1.4371 1.4371 1.4371 1.4371 1.434 1.4371 1.4307 1.4245 1.4214 1.4183 1.4152 1.4152 1.4152 1.4121 1.4121 1.403 1.403 1.403 1.403 1.406 1.406 1.403 1.403 1.403 1.406 1.403 1.403 1.406 1.403 1.3969 1.3999 1.3999 1.3939 1.388 1.388 1.382 1.3791 1.3733 1.3704 1.3675 1.3646 1.3618 1.3589 1.3589 1.356 1.356 1.3476 1.3476 1.3504 1.3589 1.3589 1.3589 1.3618 1.3618 1.3618 1.3618 1.3618 1.3618 1.3618 1.356 1.356 1.356 1.3533 1.3504 1.3533 1.3447 1.342 1.342 1.3337 1.3337 1.3337 1.331 1.3337 1.3256 1.3256 1.3256 1.3229 1.3256 1.3229 1.3201 1.3175 1.3042 1.3069 1.3069 1.3016 1.3016 1.2861 1.2685 1.2661 0 0 0 0 0 0 0 0 0 0 0 0 0 0 0 0 0 0 0 0 0 0 0 0 0 0 0 0 0 0 0 0 0.29712 0.29725 0.29875 0.29875 0.29925 0.29825 0.29563 0.29587 0.296 0.29663 0.29712 0.29663 0.2965 0.29613 0.296 0.29587 0.29888 0.299 0.29938 0.2995 0.3 0 0 0 0.30062 0.30175 0.30238 0.30238 0.30788 0.30538 0.30538 0.30612 0.308 0.30788 0.30775 0.30788 0.31188 0.31212 0.31262 0 0 0 0.52387 0.52563 0.52638 0.52725 0.52775 0.52812 0.52812 0.52987 0.53112 0.532 0.53375 0.53512 0.53825 0.53912 0.5405 0.54412 0.5445 0.545 0.54725 0.54963 0.55237 0.55237 0.55288 0.55763 0.55763 0.55963 0.564 0.56537 0.56988 0.57088 0.57088 0.5795 0.46025 0.46025 0 0.58525 0.58525 0.59613 0.59713 0.59888 0.59937 0.60162 0.60325 0.60437 0.60662 0.60775 0.60837 0.60888 0.61013 0.61125 0 0.48988 0.48988 0.48912 0.488 0.48725 0.4865 0.4865 0.52863 0.52863 0.529 0.52512 0.52475
1.6745 1.6832 1.6832 1.6832 1.7099 1.7144 1.7235 1.7374 1.7374 1.7281 1.7328 1.7374 1.7609 1.7609 1.7609 1.7514 1.7328 1.7054 1.7054 1.6965 1.6789 1.6575 1.6449 1.6449 1.6533 1.6449 1.6406 1.6324 1.6201 1.6121 1.6002 1.5885 1.5885 1.5846 1.5846 1.5808 1.573 1.5693 1.5655 1.5693 1.5808 1.5846 1.5924 1.5885 1.5924 1.5962 1.5962 1.6002 1.6002 1.5924 1.5693 1.5693 1.5655 1.5655 1.5617 1.5693 1.5808 1.5808 1.5808 1.5885 1.5924 1.5808 1.573 1.5693 1.5542 1.5505 1.5468 1.5357 1.5321 1.525 1.5179 1.5108 1.5003 1.5003 1.5037 1.5037 1.5037 1.5037 1.4934 1.4865 1.49 1.4934 1.4969 1.5003 1.5003 1.5072 1.5108 1.5072 1.5143 1.5179 1.5214 1.5108 1.5072 1.5072 1.5037 1.5037 1.5003 1.4969 1.4934 1.49 1.4831 1.4797 1.4797 1.4797 1.4764 1.473 1.4664 1.4631 1.4631 1.4697 1.4697 1.473 1.4697 1.4631 1.4631 1.4631 1.4565 1.4532 1.45 1.4404 1.434 1.4307 1.4276 1.434 1.4307 1.4276 1.4245 1.4245 1.4214 1.4214 1.4245 1.434 1.4371 1.434 1.434 1.434 1.4307 1.4307 1.4307 1.4371 1.434 1.4245 1.4183 1.4183 1.4152 1.4121 1.4121 1.409 1.406 1.3999 1.3999 1.3999 1.3999 1.403 1.406 1.3999 1.3969 1.3999 1.403 1.406 1.406 1.406 1.406 1.403 1.403 1.403 1.3999 1.3939 1.388 1.382 1.3791 1.3733 1.3704 1.3646 1.356 1.3533 1.3504 1.3504 1.3504 1.3504 1.3504 1.3476 1.3533 1.3618 1.3618 1.3618 1.3618 1.3618 1.3589 1.356 1.3589 1.3589 1.3589 1.356 1.356 1.356 1.3533 1.3533 1.3533 1.3504 1.3476 1.342 1.3393 1.3337 1.3337 1.331 1.3337 1.3256 1.3256 1.3256 1.3229 1.3229 1.3201 1.3201 1.3175 1.3069 1.3069 1.3069 1.3016 1.299 1.2913 1.276 1.2685 1.299 1.2811 1.2785 1.2811 1.2836 0 0 0 0 0 0 0 0 0 0 0 0 0 0 0 0 0 0 0 0 0 0 0 0 0 0 0 0.29712 0.29725 0.29875 0.299 0.29925 0.29712 0.29637 0.29563 0.29587 0.29637 0.2965 0.29663 0.2965 0.29637 0.29587 0.29587 0.299 0.29888 0.29938 0.29938 0.3 1.2395 1.2395 1.2419 0.30062 0.30062 0.3025 0.30238 0.30788 0.30538 0.30538 0.30638 0.30712 0.308 0.30775 0.30788 0.31212 0.3125 0.31262 0 0 0 0.52425 0.52512 0.52638 0.52638 0.52638 0.52638 0.52687 0.529 0.53025 0.53163 0.53338 0.53463 0.53825 0.53863 0.54 0.54363 0.5445 0.545 0.54638 0.54863 0.55237 0.552 0.55337 0.55812 0.55912 0.56 0.5635 0.56488 0.56888 0.57088 0.57137 0.5785 0.46025 0.46025 0.58013 0.58213 0.58262 0.58262 0.58213 0.59613 0.59713 0.59888 0.60162 0.60325 0.60613 0.60725 0.60775 0.60775 0.61125 0.61125 0.49362 0.49025 0.49025 0.4895 0.48875 0.48762 0.48688 0.48688 0.52863 0.529 0.529 0.52687 0.52563
1.6789 1.6876 1.6876 1.6876 1.7099 1.7144 1.7189 1.7328 1.7281 1.7281 1.7281 1.7374 1.7609 1.7609 1.7609 1.7561 1.7374 1.7189 1.7144 1.7144 1.6876 1.6703 1.6449 1.649 1.649 1.649 1.649 1.6406 1.6242 1.6121 1.5962 1.5885 1.5924 1.5885 1.5846 1.5885 1.5808 1.5846 1.5885 1.5924 1.6081 1.6121 1.6041 1.6002 1.5962 1.5962 1.6002 1.6002 1.5962 1.5885 1.5693 1.5617 1.5655 1.5655 1.5693 1.573 1.5808 1.5808 1.5808 1.5924 1.5962 1.5885 1.5808 1.573 1.5617 1.5505 1.5468 1.5395 1.5395 1.5214 1.5179 1.5143 1.5003 1.5003 1.5037 1.5037 1.5072 1.5037 1.4969 1.4934 1.4934 1.5072 1.5072 1.5108 1.5108 1.5143 1.5214 1.5179 1.5179 1.5214 1.5214 1.5108 1.5072 1.5072 1.5037 1.5003 1.4969 1.4969 1.4969 1.4934 1.49 1.49 1.4831 1.4831 1.4797 1.473 1.473 1.4664 1.4631 1.4664 1.4697 1.4664 1.4697 1.4598 1.4598 1.4598 1.45 1.45 1.4435 1.4371 1.434 1.4276 1.4214 1.4276 1.4276 1.4245 1.4214 1.4214 1.4214 1.4214 1.4245 1.4307 1.434 1.434 1.434 1.4307 1.4307 1.4307 1.4307 1.434 1.4307 1.4276 1.4214 1.4214 1.4152 1.4152 1.4152 1.409 1.406 1.403 1.3999 1.3999 1.3999 1.3999 1.403 1.3999 1.3969 1.3999 1.403 1.406 1.406 1.403 1.403 1.403 1.403 1.3999 1.3969 1.3939 1.388 1.385 1.3791 1.3704 1.3646 1.3618 1.3533 1.3476 1.3476 1.3447 1.3476 1.3476 1.3504 1.3504 1.3533 1.3589 1.3589 1.3618 1.3618 1.3618 1.356 1.3533 1.356 1.3589 1.3589 1.3589 1.356 1.356 1.356 1.3533 1.3533 1.3504 1.3504 1.3447 1.3365 1.3337 1.3337 1.331 1.331 1.3282 1.3256 1.3256 1.3229 1.3229 1.3201 1.3201 1.3201 1.3095 1.3069 1.3095 1.3069 1.3042 1.3042 1.3016 1.299 1.3016 1.2861 1.2811 1.2811 1.2836 0 0 0 0 0 0 0 0 0 0 0 0 0 0 0 0 0 0 0 0 0 0 0 0 0 0 0 0.2985 0.2985 0.29962 0.2995 0.2995 0.2975 0.29587 0.29575 0.29613 0.29613 0.29637 0.29613 0.29663 0.29637 0.29613 0 0 0 0.29938 0.29938 0 1.2395 1.2395 1.2419 0.303 0.30312 0.305 0.30512 0.30788 1.2443 0.30688 0.30688 0.30788 0.308 0 0.3135 0.3135 0.3135 0.3135 0 0 0 0.52425 0.52425 0.52725 0.52638 0.526 0.526 0.52638 0.52938 0.53075 0.532 0.53338 0.53512 0.5395 0.54087 0.54175 0.54363 0.5445 0.5455 0.54775 0.54863 0.55237 0.55388 0.55475 0.56 0.561 0.562 0.5635 0.56437 0.56837 0.57037 0.57188 0.5775 0.5785 0.5785 0.58013 0.58062 0.58213 0.58213 0.58262 0.595 0.59662 0.59775 0.601 0.60275 0.6055 0.60613 0.60662 0.60775 0 0 0.49362 0.4925 0.491 0.4895 0.48988 0.48875 0.488 0.48762 0.52863 0.52987 0.53075 0.53112 0.53075
1.6832 1.692 1.6876 1.692 1.7054 1.7144 1.7189 1.7328 1.7281 1.7235 1.7281 1.7374 1.7561 1.7609 1.7609 1.7561 1.7374 1.7144 1.7099 1.7099 1.6832 1.666 1.649 1.649 1.6449 1.6449 1.649 1.6406 1.6161 1.6081 1.5962 1.5846 1.5885 1.5885 1.5885 1.5924 1.5885 1.5924 1.5962 1.6002 1.6121 1.6121 1.6121 1.6041 1.6002 1.5962 1.5962 1.5885 1.5846 1.5808 1.5693 1.5655 1.5617 1.5655 1.5655 1.573 1.5769 1.5808 1.5808 1.5924 1.5962 1.5924 1.5885 1.5808 1.558 1.5542 1.5468 1.5357 1.5357 1.525 1.5179 1.5108 1.5072 1.5072 1.5037 1.5072 1.5072 1.5072 1.5003 1.4934 1.5003 1.5037 1.5108 1.5108 1.5143 1.5179 1.5179 1.5214 1.5179 1.5214 1.525 1.5072 1.5037 1.5037 1.5037 1.5003 1.4969 1.4934 1.4969 1.49 1.4865 1.4865 1.4831 1.4797 1.4797 1.4697 1.4697 1.4631 1.4598 1.4631 1.4631 1.4631 1.4631 1.45 1.45 1.4467 1.4467 1.4404 1.4371 1.434 1.4276 1.4276 1.4245 1.4245 1.4276 1.4245 1.4245 1.4245 1.4214 1.4245 1.4276 1.4307 1.434 1.434 1.4307 1.434 1.4276 1.4307 1.4307 1.4307 1.434 1.4276 1.4245 1.4214 1.4214 1.4183 1.4152 1.409 1.406 1.3999 1.403 1.3999 1.3999 1.403 1.3999 1.3999 1.3969 1.3999 1.3999 1.3999 1.403 1.403 1.403 1.403 1.3999 1.3969 1.3939 1.388 1.385 1.3791 1.3761 1.3675 1.3618 1.3589 1.3504 1.3476 1.3447 1.342 1.3476 1.3447 1.3504 1.3504 1.3533 1.3589 1.3589 1.3589 1.3618 1.3618 1.3589 1.356 1.3589 1.3589 1.3589 1.3589 1.3589 1.3589 1.356 1.356 1.3533 1.3533 1.3504 1.3447 1.3393 1.3365 1.3337 1.331 1.3337 1.3256 1.3282 1.3256 1.3256 1.3256 1.3229 1.3201 1.3201 1.3095 1.3121 1.3095 1.3069 1.3042 1.3042 1.3016 1.299 1.299 1.2888 1.2811 1.2836 1.2836 1.2254 1.2254 1.2371 1.2371 1.2094 1.2094 1.214 1.2116 0 1.2348 1.2324 0 0 0 0 0 0 0 0 0 0 0 0 0 0 1.2661 1.2685 1.2785 1.2785 1.249 0.29975 0.29988 0.3 0.30012 0.29988 0.3 1.2514 1.2539 0 0 0 0 0 0 1.2348 1.2348 1.2419 1.2277 1.2254 1.2395 1.2371 1.2395 1.2443 1.2185 1.2254 1.2324 1.2419 1.2563 0 0 0 0 0 0 0 0 0 0 0 0 0 0 0.52512 0.526 0.52638 0.52687 0.53112 0.53163 0.5325 0.53425 0.536 0.54 0.54138 0.54225 0.5445 0.545 0.54587 0.54775 0.54912 0.552 0.55337 0.55475 0.55912 0.5605 0.5615 0.5635 0.56437 0.56737 0.56837 0.56737 0.5775 0.578 0.5785 0.579 0.58013 0.58113 0.58113 0.58013 0.59337 0.595 0.59613 0.59888 0.601 0.60437 0.6055 0.60613 0.60662 0 0 0.49662 0.49362 0.491 0.49175 0.536 0.536 0.53738 0.536 0.53463 0.532 0.5325 0.53163 0.53163
1.6876 1.6965 1.6965 1.6965 1.7144 1.7144 1.7235 1.7328 1.7235 1.7144 1.7189 1.7281 1.742 1.7466 1.7374 1.7328 1.7189 1.6965 1.692 1.6965 1.6789 1.666 1.6533 1.6449 1.6406 1.6365 1.6365 1.6284 1.6041 1.5962 1.5846 1.5808 1.5808 1.5846 1.5885 1.5962 1.5962 1.6041 1.6041 1.6081 1.6121 1.6121 1.6121 1.6081 1.6041 1.5924 1.5885 1.5808 1.573 1.5655 1.5617 1.5617 1.558 1.5617 1.5655 1.5693 1.573 1.5769 1.5808 1.5924 1.5962 1.6002 1.5924 1.5846 1.5617 1.5505 1.5431 1.5357 1.5321 1.5286 1.5214 1.5143 1.5108 1.5108 1.5108 1.5108 1.5108 1.5108 1.5072 1.5003 1.5037 1.5143 1.5179 1.5179 1.5143 1.5179 1.5179 1.5214 1.5214 1.5214 1.5179 1.5037 1.5003 1.5003 1.4969 1.4934 1.4934 1.49 1.4934 1.49 1.4831 1.4831 1.4797 1.4797 1.4797 1.4697 1.4664 1.4631 1.4598 1.4631 1.4631 1.4631 1.4598 1.4467 1.4467 1.4435 1.4467 1.4435 1.4371 1.4307 1.4307 1.4276 1.4276 1.4276 1.4307 1.4307 1.4276 1.4276 1.4276 1.4276 1.4307 1.434 1.434 1.434 1.4307 1.434 1.4307 1.434 1.4307 1.4307 1.4307 1.4276 1.4245 1.4214 1.4214 1.4183 1.4152 1.4121 1.409 1.403 1.403 1.403 1.403 1.406 1.406 1.403 1.3999 1.403 1.403 1.403 1.406 1.403 1.403 1.3999 1.3999 1.3969 1.3969 1.3939 1.3909 1.3791 1.3761 1.3675 1.3646 1.3589 1.3504 1.3476 1.3476 1.3476 1.3447 1.3447 1.3476 1.3533 1.3533 1.356 1.3589 1.3589 1.3618 1.3589 1.3618 1.3618 1.3618 1.3618 1.3618 1.3646 1.3618 1.3618 1.3618 1.3618 1.3618 1.356 1.3533 1.3504 1.342 1.3365 1.3337 1.3337 1.3337 1.3282 1.3282 1.3282 1.3282 1.3282 1.3256 1.3256 1.3256 1.3175 1.3149 1.3149 1.3095 1.3095 1.3095 1.3042 1.3042 1.3016 1.2913 1.2888 1.2836 1.2861 1.2254 1.2371 1.2348 1.2348 1.2185 1.214 1.2208 1.2116 0 1.2348 1.2324 0 0 0 0 0 0 0 0 0 0 0 0 0 0 1.2661 1.276 1.2785 1.2785 1.2636 0.29975 0.29988 0.3 0.30012 0.29988 0.3 1.2466 1.2514 0 0 0 0 0 0 1.2348 1.2419 1.2419 1.2395 1.2371 1.2395 1.2419 1.2443 1.2466 1.2395 1.2371 1.2395 1.2443 1.2588 0 0 0 0 0 0 0 0 0 0 0 0 0 0 0.52563 0.52512 0.52638 0.52863 0.5325 0.53338 0.53338 0.5355 0.53638 0.54 0.54138 0.54312 0.545 0.54587 0.54688 0.54863 0.54963 0.552 0.55288 0.55425 0.55763 0.55912 0.56 0.5615 0.563 0.56437 0.56488 0.56688 0.57337 0.57437 0.576 0.576 0.5775 0.579 0.5795 0.58013 0.59062 0.59388 0.59437 0.59662 0.601 0.601 0.60613 0.605 0.60613 0 0 0.49662 0.497 0.49138 0.49175 0.536 0.536 0.53687 0.53738 0.5355 0.53425 0.53375 0.5325 0.53287
1.692 1.6965 1.6965 1.7009 1.7144 1.7235 1.7281 1.7374 1.7235 1.7144 1.7189 1.7281 1.7374 1.7374 1.7189 1.7144 1.7009 1.6832 1.6876 1.6876 1.6789 1.666 1.6533 1.6449 1.6365 1.6324 1.6284 1.6242 1.6002 1.5924 1.5808 1.5769 1.5769 1.5808 1.5846 1.5924 1.5924 1.6041 1.6081 1.6081 1.6121 1.6121 1.6081 1.6081 1.6041 1.5924 1.5885 1.5769 1.5693 1.5617 1.558 1.558 1.558 1.558 1.5655 1.5655 1.5693 1.5693 1.5808 1.5962 1.6002 1.5962 1.5962 1.5846 1.5617 1.5468 1.5431 1.5321 1.5321 1.525 1.5214 1.5143 1.5108 1.5108 1.5108 1.5108 1.5143 1.5143 1.5037 1.5037 1.5037 1.5143 1.5214 1.5143 1.5179 1.5214 1.5179 1.5179 1.5214 1.5179 1.5179 1.5037 1.5003 1.5003 1.4969 1.4934 1.49 1.49 1.4934 1.49 1.4797 1.4764 1.4797 1.4831 1.4797 1.4697 1.4664 1.4631 1.4598 1.4664 1.4664 1.4664 1.4631 1.45 1.4467 1.4467 1.4467 1.45 1.4404 1.4371 1.4371 1.4307 1.4307 1.4307 1.4307 1.4307 1.4307 1.4276 1.4307 1.4307 1.4307 1.434 1.434 1.4371 1.434 1.4307 1.4307 1.434 1.4307 1.4307 1.4307 1.4276 1.4245 1.4214 1.4183 1.4183 1.4152 1.409 1.409 1.403 1.403 1.403 1.403 1.409 1.406 1.409 1.406 1.406 1.403 1.409 1.409 1.406 1.406 1.403 1.403 1.403 1.403 1.3999 1.3939 1.385 1.3791 1.3733 1.3704 1.3646 1.3533 1.3504 1.3504 1.3476 1.3476 1.3447 1.3476 1.3504 1.3504 1.356 1.3589 1.3589 1.3589 1.3589 1.3589 1.3675 1.3675 1.3675 1.3646 1.3646 1.3675 1.3646 1.3618 1.3675 1.3646 1.3589 1.3533 1.3504 1.3447 1.3393 1.3337 1.3337 1.3337 1.331 1.3282 1.331 1.3282 1.3282 1.3256 1.3256 1.3256 1.3201 1.3175 1.3149 1.3121 1.3095 1.3095 1.3069 1.3069 1.3016 1.2939 1.2913 1.2836 1.2836 1.2419 1.2395 1.2371 1.2301 1.2208 1.2185 1.2231 1.2277 1.2254 1.2661 1.2685 1.2811 1.2811 1.299 1.299 1.2964 0 0 0 0 0 0 0 1.2913 1.2913 1.2836 1.2785 1.2785 1.2785 1.2661 1.2539 1.249 1.249 1.2514 1.2466 1.2466 1.2443 1.2466 1.2636 1.2588 1.249 1.249 1.2371 1.2371 1.249 1.2466 1.2466 1.2466 1.2419 1.2419 1.2466 1.2514 1.2539 1.2443 1.2466 1.2443 1.249 1.2539 1.271 1.271 1.3175 1.3069 1.3095 0 0 0 0 0 0 0 0 0 0 0 0.529 0.52938 0.5325 0.53338 0.53375 0.5355 0.53687 0.54 0.54138 0.54275 0.5455 0.54587 0.54688 0.54863 0.54963 0.5515 0.55237 0.55337 0.55663 0.55812 0.55912 0.561 0.5615 0.5625 0.563 0.5635 0.57088 0.57288 0.57388 0.57488 0.5765 0.578 0.5785 0.5785 0.58375 0.57388 0.57388 0.57437 0.59613 0.59613 0.60388 0.60388 0.51638 0.51675 0.52563 0.52563 0.52563 0.53163 0.53163 0.53463 0.5355 0.53738 0.53825 0.5355 0.53463 0.53375 0.53287 0.53287
1.692 1.6965 1.6965 1.6965 1.7144 1.7189 1.7235 1.7281 1.7235 1.7144 1.7189 1.7235 1.7281 1.7235 1.692 1.6832 1.6745 1.6616 1.6616 1.6616 1.6533 1.6533 1.6406 1.6365 1.6284 1.6242 1.6242 1.6201 1.6081 1.5962 1.5885 1.5846 1.5808 1.5846 1.5924 1.5962 1.5962 1.6041 1.6081 1.6041 1.6002 1.6002 1.5962 1.6081 1.6002 1.5924 1.5885 1.5808 1.573 1.5617 1.558 1.5617 1.558 1.5542 1.5655 1.5655 1.573 1.5769 1.5808 1.6002 1.6002 1.6002 1.5962 1.5885 1.5693 1.558 1.5505 1.5357 1.5321 1.525 1.5214 1.5143 1.5108 1.5143 1.5108 1.5108 1.5179 1.5143 1.5072 1.5072 1.5072 1.5179 1.525 1.5179 1.5179 1.5179 1.5214 1.5179 1.5179 1.5143 1.5143 1.5003 1.5003 1.5003 1.4969 1.4934 1.4934 1.49 1.4934 1.49 1.4797 1.4797 1.4797 1.4831 1.4797 1.473 1.4697 1.4664 1.4631 1.4664 1.4697 1.4697 1.4697 1.4532 1.4532 1.4532 1.4532 1.4532 1.4467 1.4404 1.4371 1.4371 1.434 1.4371 1.434 1.434 1.434 1.4276 1.4307 1.4307 1.434 1.434 1.434 1.4307 1.4307 1.4276 1.4307 1.4307 1.4307 1.434 1.4307 1.4245 1.4245 1.4214 1.4183 1.4183 1.4152 1.4121 1.409 1.403 1.403 1.403 1.403 1.4121 1.409 1.409 1.406 1.406 1.406 1.406 1.409 1.406 1.406 1.403 1.403 1.3999 1.3999 1.3999 1.3969 1.388 1.382 1.3733 1.3704 1.3675 1.356 1.3533 1.356 1.3504 1.3504 1.3504 1.3533 1.356 1.3589 1.3589 1.3618 1.3618 1.3618 1.3589 1.3589 1.3646 1.3646 1.3675 1.3675 1.3675 1.3704 1.3646 1.3646 1.3704 1.3675 1.3618 1.3589 1.356 1.3504 1.3447 1.3393 1.3365 1.3393 1.331 1.3337 1.331 1.331 1.331 1.3282 1.3282 1.3282 1.3256 1.3229 1.3201 1.3121 1.3121 1.3149 1.3095 1.3069 1.3042 1.2964 1.2913 1.2888 1.2861 1.2419 1.2466 1.2419 1.2371 1.2231 1.2254 1.2324 1.2395 1.2254 1.2661 1.2785 1.2836 1.2888 1.299 1.2964 1.2964 1.2939 1.2861 1.2861 1.2861 1.2861 1.2964 1.2939 1.2888 1.2888 1.2861 1.2811 1.2785 1.2811 1.2685 1.2611 1.249 1.2514 1.2539 1.2514 1.249 1.2466 1.249 1.2636 1.2611 1.2588 1.2514 1.2443 1.2466 1.249 1.2514 1.2514 1.249 1.2466 1.2443 1.249 1.2514 1.2539 1.2466 1.2466 1.249 1.2514 1.2563 1.2611 1.2611 1.2611 1.2685 1.271 0 0 0 0 0 0 0 0 0 0 0 0.529 0.53075 0.53287 0.53375 0.53425 0.536 0.53687 0.53863 0.54 0.54138 0.54412 0.5445 0.54587 0.54688 0.54775 0.55012 0.5515 0.552 0.55425 0.55575 0.55663 0.55912 0.55963 0.5615 0.562 0.5625 0.564 0.56537 0.56437 0.56437 0.56588 0.56588 0.56788 0.56737 0.56737 0.56788 0.56937 0.57388 0.59613 0.59613 0.60388 0.60388 0.51638 0.51675 0.52563 0.52387 0.523 0.53163 0.53375 0.53512 0.536 0.53775 0.53825 0.536 0.5355 0.53463 0.53375 0.53338
1.7009 1.6965 1.6965 1.6965 1.7144 1.7144 1.7235 1.7235 1.7144 1.7144 1.7189 1.7189 1.7281 1.7189 1.692 1.6789 1.6745 1.6616 1.6575 1.6533 1.649 1.6449 1.6406 1.6324 1.6242 1.6242 1.6242 1.6242 1.6161 1.6081 1.6041 1.5924 1.5924 1.5962 1.6002 1.6081 1.6121 1.6121 1.6121 1.6041 1.6002 1.6002 1.6002 1.6081 1.6041 1.5924 1.5924 1.5769 1.573 1.5655 1.5617 1.5655 1.5655 1.558 1.5693 1.573 1.5808 1.5808 1.5846 1.5962 1.5962 1.5924 1.5962 1.5924 1.5808 1.5693 1.5617 1.5431 1.5395 1.525 1.525 1.5179 1.5179 1.5214 1.5179 1.5214 1.525 1.5214 1.5179 1.5143 1.5143 1.525 1.5286 1.525 1.525 1.5214 1.5214 1.5214 1.5179 1.5143 1.5143 1.5072 1.5072 1.5037 1.4969 1.4934 1.4934 1.49 1.4934 1.49 1.4831 1.4831 1.4831 1.4831 1.4831 1.4764 1.473 1.473 1.4697 1.473 1.4764 1.4764 1.4764 1.4664 1.4664 1.4631 1.4631 1.4565 1.45 1.4467 1.4435 1.4435 1.4404 1.4404 1.4404 1.4371 1.4371 1.4307 1.434 1.434 1.434 1.434 1.434 1.434 1.4276 1.4276 1.4276 1.4276 1.4276 1.434 1.4307 1.4245 1.4245 1.4183 1.4152 1.4183 1.4152 1.4121 1.4121 1.406 1.406 1.406 1.406 1.4152 1.4152 1.4121 1.406 1.409 1.406 1.406 1.409 1.406 1.403 1.3999 1.3969 1.3969 1.3969 1.3939 1.3939 1.388 1.385 1.3761 1.3733 1.3675 1.3646 1.3589 1.3618 1.3618 1.3618 1.3618 1.3646 1.3675 1.3704 1.3733 1.3733 1.3704 1.3704 1.3646 1.3646 1.3675 1.3704 1.3704 1.3704 1.3704 1.3733 1.3733 1.3733 1.3761 1.3761 1.3675 1.3646 1.3618 1.356 1.3533 1.3447 1.342 1.342 1.3365 1.3365 1.3365 1.3337 1.331 1.3337 1.331 1.3337 1.3256 1.3229 1.3229 1.3175 1.3175 1.3175 1.3175 1.3149 1.3095 1.3042 1.3016 1.2964 1.2888 1.2785 1.271 1.2588 1.2395 1.2324 1.2301 1.2539 1.2636 1.271 1.276 1.2888 1.2939 1.2964 1.3016 1.2964 1.2964 1.2939 1.2913 1.2888 1.2861 1.2888 1.2939 1.2939 1.2888 1.2888 1.2861 1.2811 1.2785 1.2811 1.271 1.2636 1.2514 1.2539 1.2539 1.2539 1.2514 1.2514 1.2539 1.2685 1.2661 1.2661 1.2611 1.2563 1.2539 1.2539 1.2539 1.2563 1.2539 1.249 1.2466 1.2514 1.2539 1.2539 1.249 1.249 1.2514 1.2539 1.2539 1.2563 1.2611 1.2636 1.2661 1.2685 0 0 0 0 0 0 0 0 0 0 0 0.53163 0.532 0.53425 0.53463 0.5355 0.536 0.53638 0.53863 0.5395 0.54087 0.54312 0.54412 0.545 0.54638 0.54725 0.54912 0.55012 0.551 0.55288 0.55425 0.55625 0.55763 0.55912 0.5605 0.561 0.562 0.564 0.56437 0.5635 0.564 0.5635 0.56588 0.56788 0.56737 0.56737 0.56788 0.56788 0.57437 0 0 0 0 0.51638 0.51675 0.52563 0.5235 0.523 0.5325 0.53512 0.53687 0.53825 0.5395 0.5395 0.53863 0.53775 0.53738 0.53687 0.53638
1.7054 1.7054 1.7009 1.7009 1.7099 1.7144 1.7189 1.7189 1.7099 1.7144 1.7144 1.7235 1.7235 1.7235 1.6876 1.6832 1.6745 1.6616 1.6575 1.6533 1.6449 1.6406 1.6406 1.6284 1.6201 1.6201 1.6201 1.6242 1.6161 1.6161 1.6081 1.6002 1.6002 1.6041 1.6081 1.6121 1.6121 1.6161 1.6161 1.6081 1.6081 1.6041 1.6081 1.6081 1.6081 1.5962 1.5924 1.5693 1.5655 1.5655 1.5655 1.5693 1.5655 1.5655 1.573 1.5769 1.5846 1.5808 1.5846 1.5924 1.5885 1.5885 1.5885 1.5885 1.5769 1.5693 1.558 1.5395 1.5395 1.5286 1.5286 1.525 1.525 1.525 1.525 1.525 1.5286 1.5286 1.5214 1.5179 1.5214 1.525 1.5286 1.5286 1.525 1.525 1.5179 1.5179 1.5179 1.5143 1.5143 1.5072 1.5072 1.5072 1.4969 1.4934 1.49 1.49 1.49 1.4865 1.4865 1.4831 1.4865 1.4831 1.4865 1.4764 1.4764 1.4764 1.473 1.4797 1.4831 1.4797 1.4831 1.4697 1.473 1.4697 1.4664 1.4631 1.4532 1.4467 1.4467 1.4435 1.4371 1.4404 1.4404 1.4404 1.4371 1.434 1.434 1.434 1.434 1.434 1.434 1.4307 1.4276 1.4245 1.4276 1.4307 1.4276 1.4276 1.4276 1.4276 1.4214 1.4214 1.4152 1.4183 1.4152 1.4121 1.4121 1.409 1.406 1.406 1.406 1.4152 1.4152 1.409 1.406 1.406 1.406 1.406 1.406 1.403 1.403 1.3939 1.3939 1.3939 1.3939 1.3939 1.3909 1.382 1.382 1.3733 1.3704 1.3675 1.3618 1.3618 1.3646 1.3646 1.3675 1.3675 1.3704 1.3733 1.3733 1.3791 1.3791 1.3761 1.3733 1.3733 1.3704 1.3733 1.3733 1.3733 1.3704 1.3704 1.3733 1.3704 1.3704 1.3733 1.3733 1.3646 1.3618 1.3618 1.3533 1.3504 1.342 1.342 1.3393 1.3365 1.3337 1.3337 1.3337 1.3337 1.331 1.331 1.3337 1.3256 1.3229 1.3201 1.3175 1.3149 1.3175 1.3149 1.3149 1.3095 1.3042 1.3016 1.3016 1.2913 1.2836 1.2836 1.299 1.2964 1.299 1.299 1.2836 1.276 1.276 1.2811 1.2913 1.2964 1.299 1.299 1.2964 1.2939 1.2964 1.2939 1.2861 1.2861 1.2888 1.2939 1.2939 1.2913 1.2888 1.2888 1.2811 1.2785 1.2785 1.2685 1.2611 1.2539 1.2514 1.2539 1.2514 1.2539 1.2514 1.2539 1.2685 1.2685 1.2685 1.2661 1.2588 1.2563 1.2539 1.2563 1.2563 1.2563 1.2514 1.2514 1.2514 1.2539 1.2539 1.2514 1.249 1.249 1.2514 1.2563 1.2539 1.2563 1.2636 1.2661 1.271 0 0 0 0 0 0 0 0 0 0 0 0.532 0.5325 0.53375 0.53512 0.5355 0.536 0.53638 0.53825 0.5395 0.5405 0.54275 0.54312 0.54363 0.54587 0.54688 0.54825 0.54912 0.55012 0.5515 0.55337 0.55425 0.55712 0.55812 0.5605 0.561 0.5615 0.563 0.5635 0.563 0.5625 0.562 0.5615 0 0 0 0 0 0 0 0.51763 0.51675 0.51725 0.51438 0.51475 0.51475 0.5135 0.51387 0.53338 0.536 0.53775 0.53912 0.5405 0.5405 0.54 0.54 0.53912 0.53912 0.53912
1.7054 1.7099 1.7009 1.7054 1.7099 1.7144 1.7099 1.7099 1.7099 1.7144 1.7189 1.7235 1.7235 1.7189 1.6876 1.6789 1.6745 1.6616 1.6575 1.649 1.6406 1.6365 1.6324 1.6242 1.6161 1.6161 1.6161 1.6201 1.6201 1.6201 1.6121 1.6041 1.6041 1.6041 1.6081 1.6121 1.6161 1.6121 1.6081 1.6002 1.6002 1.5962 1.6002 1.6041 1.6002 1.5924 1.5846 1.5693 1.5655 1.5617 1.5617 1.5693 1.5693 1.5693 1.5769 1.5808 1.5885 1.5846 1.5885 1.5924 1.5885 1.5885 1.5846 1.5846 1.573 1.5655 1.5542 1.5431 1.5395 1.5357 1.5321 1.5286 1.525 1.525 1.5214 1.5214 1.5286 1.525 1.5214 1.5179 1.5179 1.525 1.525 1.525 1.525 1.525 1.5179 1.5179 1.5143 1.5108 1.5072 1.5037 1.5003 1.5037 1.4934 1.4934 1.4934 1.49 1.4865 1.4865 1.4865 1.4831 1.4831 1.4865 1.4831 1.4764 1.473 1.4764 1.4764 1.4797 1.4865 1.4865 1.4865 1.4764 1.4764 1.473 1.4697 1.4631 1.4565 1.4467 1.4467 1.4435 1.4404 1.4435 1.4404 1.4404 1.4371 1.434 1.434 1.4371 1.434 1.4307 1.4307 1.4276 1.4276 1.4276 1.4276 1.4307 1.4276 1.4276 1.4276 1.4245 1.4245 1.4214 1.4152 1.4183 1.4183 1.4152 1.4121 1.4121 1.409 1.409 1.409 1.4152 1.4152 1.409 1.403 1.3999 1.3999 1.403 1.3999 1.3969 1.3969 1.3909 1.388 1.388 1.388 1.388 1.385 1.3791 1.3791 1.3733 1.3704 1.3675 1.3618 1.3646 1.3646 1.3675 1.3675 1.3704 1.3733 1.3761 1.3761 1.3791 1.3791 1.3791 1.3761 1.3733 1.3733 1.3704 1.3733 1.3704 1.3704 1.3675 1.3704 1.3675 1.3675 1.3704 1.3704 1.3589 1.356 1.356 1.3533 1.3476 1.3393 1.3393 1.3393 1.3337 1.3337 1.3337 1.3337 1.3337 1.331 1.3337 1.3337 1.3256 1.3229 1.3201 1.3175 1.3175 1.3201 1.3149 1.3149 1.3095 1.3042 1.3042 1.3042 1.2964 1.2939 1.2913 1.299 1.2964 1.2964 1.299 1.2913 1.2836 1.2836 1.2861 1.2939 1.2939 1.2964 1.2964 1.2939 1.2913 1.2913 1.2939 1.2888 1.2888 1.2913 1.2939 1.2939 1.2913 1.2939 1.2913 1.2836 1.2836 1.2785 1.271 1.2636 1.2466 1.2514 1.2514 1.2539 1.2514 1.2514 1.2539 1.2685 1.2685 1.271 1.2661 1.2611 1.2588 1.2563 1.2563 1.2563 1.2563 1.2514 1.2514 1.2514 1.2539 1.2563 1.249 1.2514 1.249 1.249 1.2514 1.249 1.249 1.2539 1.2563 1.2563 1.2588 1.2563 0 0 0 0 0 0 0 0 0 0.532 0.532 0.53375 0.5355 0.5355 0.5355 0.53638 0.53775 0.53863 0.5395 0.54138 0.54175 0.54275 0.545 0.5455 0.54775 0.54825 0.54863 0.5505 0.5515 0.55288 0.55575 0.55663 0.55812 0.55912 0.55963 0.5615 0.5615 0.561 0.561 0.56 0.55712 0.55663 0.55812 0.55763 0.55475 0.54825 0.54825 0 0.51763 0.51763 0.51763 0.51638 0.51475 0.51475 0.51313 0.51225 0.5135 0.5135 0.53825 0.53825 0.54275 0.54275 0.54225 0.54225 0.54175 0.54175 0.54
1.7099 1.7099 1.7054 1.7054 1.7099 1.7144 1.7099 1.7099 1.7099 1.7144 1.7235 1.7281 1.7235 1.7144 1.6876 1.6789 1.6745 1.666 1.6616 1.6533 1.6365 1.6365 1.6284 1.6242 1.6161 1.6161 1.6161 1.6161 1.6161 1.6201 1.6161 1.6081 1.6081 1.6081 1.6081 1.6121 1.6121 1.6161 1.6121 1.6002 1.5962 1.5924 1.5924 1.6002 1.5962 1.5885 1.5769 1.5693 1.5693 1.5655 1.5655 1.5693 1.5693 1.5693 1.5885 1.5885 1.5924 1.5924 1.5924 1.5924 1.5924 1.5885 1.5924 1.5924 1.5769 1.573 1.5617 1.5505 1.5468 1.5357 1.5321 1.525 1.5214 1.5214 1.5179 1.5179 1.525 1.525 1.5179 1.5143 1.5179 1.525 1.525 1.525 1.525 1.5214 1.5214 1.5143 1.5143 1.5108 1.5072 1.5003 1.5003 1.5003 1.4934 1.4934 1.4934 1.49 1.4865 1.4865 1.4865 1.4865 1.4865 1.4831 1.4831 1.473 1.473 1.4764 1.4831 1.4865 1.49 1.4934 1.4934 1.4865 1.4831 1.4831 1.4764 1.473 1.4631 1.45 1.4467 1.4435 1.4404 1.4435 1.4404 1.4371 1.4371 1.4371 1.4371 1.4371 1.434 1.4307 1.4307 1.4276 1.4276 1.4276 1.4307 1.434 1.4276 1.4276 1.4276 1.4245 1.4245 1.4214 1.4214 1.4183 1.4183 1.4183 1.4152 1.4152 1.4121 1.4152 1.4152 1.4183 1.4183 1.409 1.403 1.3999 1.3999 1.3999 1.3969 1.3969 1.3969 1.385 1.385 1.385 1.385 1.388 1.385 1.3791 1.3791 1.3704 1.3704 1.3675 1.3646 1.3646 1.3675 1.3704 1.3704 1.3733 1.3761 1.3733 1.3761 1.3791 1.3791 1.382 1.382 1.3761 1.3704 1.3704 1.3733 1.3704 1.3675 1.3675 1.3704 1.3675 1.3675 1.3704 1.3675 1.3589 1.356 1.356 1.3504 1.3476 1.3393 1.3393 1.3365 1.3365 1.3365 1.3365 1.3337 1.3337 1.3337 1.3337 1.3365 1.3256 1.3229 1.3229 1.3201 1.3201 1.3229 1.3175 1.3175 1.3149 1.3095 1.3095 1.3121 1.3095 1.3095 1.3069 1.3042 1.3016 1.299 1.299 1.299 1.299 1.2939 1.2939 1.2939 1.2939 1.2939 1.2939 1.2913 1.2913 1.2888 1.2939 1.2913 1.2939 1.2939 1.2964 1.2964 1.299 1.299 1.299 1.2939 1.2913 1.2861 1.2785 1.2735 1.2611 1.2611 1.2588 1.2588 1.2563 1.2563 1.2563 1.2685 1.271 1.2685 1.2661 1.2636 1.2611 1.2588 1.2563 1.2588 1.2588 1.2563 1.2539 1.2563 1.2563 1.2588 1.2514 1.2514 1.2514 1.249 1.249 1.249 1.2466 1.249 1.2514 1.2563 1.2588 1.2563 0 0 0 0 0 0 0 0 0 0 0 0 0.5355 0.5355 0.5355 0.53638 0.53775 0.53825 0.53912 0.5405 0.54087 0.54175 0.54412 0.545 0.54638 0.54775 0.54825 0.54963 0.55012 0.5515 0.55425 0.55525 0.55712 0.55812 0.55863 0.5605 0.562 0.561 0.5605 0.55912 0.55763 0.55663 0.55712 0.55625 0.55525 0.54825 0.54825 0 0.51763 0.518 0.51838 0.51763 0.5155 0.51513 0.51225 0.51275 0.51313 0.5135 0.54912 0.54863 0.54775 0.54725 0.54688 0.54688 0.54725 0.54688 0.54688
1.7054 1.7144 1.7099 1.7054 1.7144 1.7144 1.7144 1.7099 1.7099 1.7189 1.7281 1.7235 1.7235 1.7099 1.6876 1.6789 1.6789 1.6616 1.6533 1.6449 1.6406 1.6324 1.6324 1.6201 1.6161 1.6161 1.6121 1.6161 1.6161 1.6201 1.6121 1.6081 1.6081 1.6041 1.6081 1.6081 1.6121 1.6161 1.6081 1.6002 1.5962 1.5962 1.5924 1.5924 1.5924 1.5846 1.573 1.5655 1.5655 1.5655 1.5655 1.573 1.573 1.573 1.5846 1.5846 1.5885 1.5924 1.5924 1.5924 1.5885 1.5846 1.5885 1.5885 1.5769 1.5693 1.558 1.5505 1.5431 1.5395 1.5321 1.525 1.5179 1.5214 1.5179 1.5179 1.5214 1.5179 1.5179 1.5143 1.5179 1.5214 1.525 1.525 1.525 1.525 1.5179 1.5143 1.5143 1.5108 1.5037 1.5003 1.5003 1.5003 1.4934 1.4934 1.4969 1.49 1.4865 1.49 1.4865 1.4865 1.4865 1.4831 1.4797 1.4764 1.4764 1.4764 1.4797 1.49 1.4934 1.4934 1.4934 1.49 1.4865 1.4831 1.4797 1.4697 1.4631 1.45 1.45 1.4467 1.4404 1.4435 1.4404 1.4404 1.4371 1.4371 1.4371 1.4371 1.4307 1.4276 1.4245 1.4276 1.4245 1.4276 1.4307 1.434 1.4276 1.4276 1.4276 1.4245 1.4245 1.4214 1.4214 1.4214 1.4183 1.4183 1.4183 1.4152 1.4152 1.4152 1.4152 1.4214 1.4183 1.409 1.403 1.3999 1.3969 1.3969 1.3969 1.3909 1.3909 1.382 1.3791 1.3791 1.382 1.385 1.385 1.3791 1.3761 1.3733 1.3704 1.3646 1.3675 1.3646 1.3675 1.3675 1.3733 1.3733 1.3733 1.3733 1.3733 1.3791 1.3791 1.382 1.382 1.3761 1.3704 1.3704 1.3733 1.3704 1.3675 1.3704 1.3704 1.3675 1.3704 1.3675 1.3675 1.3589 1.356 1.356 1.3533 1.3476 1.3393 1.3393 1.3365 1.3337 1.3337 1.3365 1.3337 1.3365 1.3365 1.3365 1.3393 1.3282 1.3256 1.3229 1.3229 1.3229 1.3229 1.3201 1.3175 1.3149 1.3095 1.3095 1.3121 1.3121 1.3121 1.3042 1.3016 1.3016 1.299 1.3016 1.299 1.2964 1.2939 1.2939 1.2939 1.2939 1.2939 1.2913 1.2913 1.2861 1.2888 1.2913 1.2913 1.2913 1.2939 1.2939 1.2964 1.2964 1.299 1.299 1.2913 1.2888 1.2861 1.2811 1.276 1.2636 1.2636 1.2636 1.2611 1.2611 1.2588 1.2588 1.271 1.271 1.271 1.2661 1.2636 1.2611 1.2588 1.2588 1.2588 1.2588 1.2563 1.2563 1.2588 1.2588 1.2588 1.2539 1.2539 1.2539 1.249 1.2466 1.2466 1.2443 1.2466 1.249 1.2539 1.2563 1.2277 1.2277 0 0 0 0 0 0 0 0 0 0.53638 0.53687 0.53512 0.5355 0.5355 0.536 0.53738 0.53775 0.53825 0.5395 0.54 0.5405 0.54275 0.54363 0.54587 0.54688 0.54775 0.54825 0.54863 0.54963 0.552 0.55237 0.55575 0.55712 0.5505 0.551 0.551 0.5505 0.551 0.55625 0.55663 0.55663 0.55712 0.55625 0.55475 0.54138 0.52175 0.52175 0.51925 0.51925 0.51887 0.51675 0.516 0.5155 0.51187 0.51275 0.51313 0.51387 0.55388 0.54963 0.54863 0.54825 0.54775 0.54863 0.561 0.561 0.56
1.7054 1.7099 1.7054 1.7099 1.7144 1.7189 1.7144 1.7099 1.7144 1.7235 1.7235 1.7281 1.7189 1.7144 1.6832 1.6789 1.6745 1.6575 1.6533 1.649 1.6365 1.6365 1.6284 1.6201 1.6201 1.6121 1.6121 1.6161 1.6161 1.6201 1.6161 1.6041 1.6041 1.6041 1.6081 1.6081 1.6121 1.6081 1.6041 1.5885 1.5808 1.5808 1.5769 1.5808 1.5769 1.5769 1.5693 1.558 1.5617 1.5617 1.5693 1.573 1.5769 1.573 1.573 1.5769 1.5846 1.5885 1.5885 1.5846 1.5808 1.5769 1.5808 1.5769 1.5655 1.558 1.5505 1.5468 1.5395 1.5357 1.5286 1.5214 1.5179 1.5143 1.5143 1.5143 1.5214 1.5179 1.5143 1.5108 1.5143 1.5214 1.525 1.5286 1.525 1.525 1.5179 1.5143 1.5108 1.5072 1.5003 1.5003 1.5003 1.4969 1.4934 1.4934 1.4934 1.49 1.4865 1.4865 1.4831 1.4797 1.4797 1.4797 1.4764 1.4764 1.4764 1.4797 1.4831 1.49 1.4934 1.4969 1.4969 1.49 1.49 1.4865 1.4797 1.473 1.4598 1.4565 1.4532 1.4467 1.4435 1.4404 1.4404 1.4404 1.4371 1.434 1.4371 1.4371 1.4307 1.4276 1.4245 1.4245 1.4245 1.4245 1.4307 1.434 1.4276 1.4276 1.4276 1.4245 1.4245 1.4214 1.4214 1.4245 1.4214 1.4183 1.4183 1.4183 1.4152 1.4152 1.4152 1.4245 1.4214 1.409 1.403 1.3999 1.3999 1.3999 1.3939 1.3939 1.3909 1.3791 1.3761 1.3761 1.3761 1.385 1.385 1.3791 1.3761 1.3704 1.3675 1.3675 1.3646 1.3675 1.3704 1.3704 1.3733 1.3733 1.3704 1.3733 1.3733 1.3791 1.3791 1.382 1.382 1.3761 1.3704 1.3733 1.3704 1.3733 1.3675 1.3704 1.3733 1.3704 1.3704 1.3704 1.3704 1.3589 1.356 1.356 1.3533 1.3504 1.3393 1.3393 1.3393 1.3337 1.331 1.3337 1.3337 1.3337 1.3337 1.3337 1.3365 1.3282 1.3282 1.3282 1.3229 1.3229 1.3229 1.3201 1.3201 1.3149 1.3095 1.3069 1.3095 1.3095 1.3069 1.3042 1.3042 1.3016 1.299 1.299 1.299 1.2964 1.2964 1.2939 1.2939 1.2939 1.2913 1.2913 1.2888 1.2861 1.2861 1.2888 1.2888 1.2913 1.2913 1.2939 1.2913 1.2939 1.299 1.299 1.2913 1.2888 1.2861 1.2785 1.276 1.2685 1.2661 1.2661 1.2636 1.2611 1.2636 1.2636 1.271 1.2735 1.2685 1.2685 1.2636 1.2636 1.2588 1.2611 1.2588 1.2611 1.2563 1.2588 1.2611 1.2588 1.2563 1.2539 1.2539 1.2539 1.2466 1.2466 1.2466 1.2395 1.2395 1.2443 1.2539 1.2563 1.2277 1.2277 1.2277 1.2277 0 0 0 0 0 0 0 0.53638 0.53687 0.5355 0.53512 0.53512 0.536 0.53638 0.53638 0.53687 0.53738 0.53775 0.53775 0.53912 0.5395 0.53863 0.54175 0.54412 0.5455 0.54587 0.54638 0.54775 0.54825 0.54688 0.54825 0.54638 0.54775 0.54825 0.54863 0.5505 0.551 0.54725 0.54775 0.54963 0.53287 0.53338 0.52775 0.52175 0.52175 0.52087 0.51963 0.52012 0.51763 0.51638 0.5155 0.50787 0.50787 0.5135 0.51387 0.55388 0.551 0.54963 0.54863 0.54825 0.54863 0.561 0.5605 0.56
1.7099 1.7054 1.7099 1.7054 1.7235 1.7281 1.7328 1.7328 1.7281 1.7374 1.742 1.742 1.7328 1.7189 1.6876 1.6789 1.6745 1.6616 1.6533 1.649 1.6406 1.6406 1.6324 1.6201 1.6201 1.6121 1.6121 1.6161 1.6161 1.6201 1.6121 1.6081 1.6041 1.6041 1.6081 1.6081 1.6081 1.6041 1.6002 1.5808 1.5808 1.5769 1.573 1.573 1.573 1.5769 1.573 1.5617 1.5655 1.5655 1.5693 1.5808 1.5808 1.5693 1.5693 1.573 1.5808 1.5846 1.5846 1.5846 1.5769 1.5769 1.5769 1.573 1.558 1.5542 1.5505 1.5468 1.5468 1.5321 1.5286 1.5179 1.5179 1.5143 1.5143 1.5143 1.5214 1.5179 1.5108 1.5108 1.5143 1.5214 1.525 1.525 1.5321 1.525 1.5179 1.5143 1.5143 1.5108 1.5037 1.5037 1.5037 1.5003 1.4934 1.49 1.4934 1.4865 1.4865 1.4865 1.4797 1.4764 1.4764 1.4764 1.4764 1.473 1.4764 1.4764 1.4797 1.49 1.49 1.4934 1.4969 1.4934 1.49 1.4934 1.4797 1.4764 1.4664 1.4631 1.4631 1.4565 1.45 1.45 1.4435 1.4435 1.4404 1.4371 1.4371 1.4404 1.4307 1.4307 1.4276 1.4276 1.4245 1.4245 1.4307 1.434 1.4307 1.4276 1.4276 1.4276 1.4245 1.4245 1.4214 1.4214 1.4214 1.4183 1.4183 1.4214 1.4214 1.4183 1.4183 1.4245 1.4245 1.4183 1.4121 1.409 1.403 1.403 1.3969 1.3969 1.3939 1.3791 1.3761 1.3761 1.3761 1.388 1.385 1.382 1.3791 1.3704 1.3704 1.3704 1.3733 1.3704 1.3733 1.3704 1.3733 1.3761 1.3733 1.3733 1.3761 1.385 1.382 1.382 1.382 1.3791 1.3791 1.3791 1.3791 1.3791 1.3761 1.3733 1.3761 1.3733 1.3733 1.3733 1.3733 1.3618 1.3589 1.3618 1.3589 1.3533 1.3476 1.3447 1.342 1.3365 1.3365 1.3365 1.3337 1.3337 1.3337 1.3337 1.3337 1.3282 1.3282 1.3282 1.3229 1.3229 1.3229 1.3229 1.3201 1.3175 1.3095 1.3069 1.3121 1.3095 1.3069 1.3042 1.3069 1.3042 1.3016 1.3016 1.299 1.2964 1.2964 1.2964 1.2939 1.2939 1.2913 1.2939 1.2888 1.2861 1.2836 1.2888 1.2913 1.2913 1.2888 1.2913 1.2913 1.2913 1.2964 1.2964 1.2913 1.2861 1.2861 1.2785 1.276 1.271 1.271 1.271 1.2685 1.2661 1.2661 1.2661 1.2735 1.2735 1.2735 1.271 1.271 1.2685 1.2636 1.2636 1.2636 1.2636 1.2636 1.2636 1.2661 1.2611 1.2563 1.2563 1.2563 1.2563 1.2539 1.2514 1.249 1.2419 1.2395 1.2419 1.2539 1.2636 1.2301 1.2277 1.2277 1.2277 0 0 0 0 0 0 0 0.53738 0.53775 0.53463 0.53512 0.5355 0.536 0.536 0.536 0.536 0.53638 0.53638 0.53687 0.53775 0.53825 0.5405 0.54138 0.54225 0.5445 0.5445 0.5445 0.54638 0.54638 0.54725 0.54825 0.54638 0.54688 0.54638 0.54688 0.55012 0.54863 0.54725 0.54775 0.54963 0.53287 0.532 0.52938 0.526 0.52425 0.52387 0.52263 0.52263 0.5205 0.5205 0.51513 0.50787 0.50787 0.552 0.552 0.55388 0.55525 0.55763 0.55712 0.55763 0.5605 0.5615 0.562 0.5615
1.7054 1.7054 1.7054 1.7054 1.7189 1.7235 1.7281 1.7281 1.7328 1.7374 1.7466 1.742 1.742 1.7281 1.692 1.6832 1.6789 1.666 1.6575 1.6533 1.6406 1.6406 1.6324 1.6242 1.6242 1.6161 1.6161 1.6161 1.6201 1.6242 1.6161 1.6081 1.6041 1.6081 1.6081 1.6081 1.6081 1.6081 1.6002 1.5885 1.5846 1.5846 1.5808 1.5846 1.5846 1.5808 1.5808 1.573 1.5693 1.573 1.5769 1.5808 1.5808 1.5693 1.5693 1.5769 1.5808 1.5846 1.5846 1.5808 1.5769 1.5693 1.5693 1.5693 1.5655 1.558 1.558 1.5542 1.5542 1.5357 1.5321 1.5214 1.5214 1.5179 1.5179 1.5143 1.5179 1.5143 1.5143 1.5108 1.5143 1.5179 1.5214 1.5214 1.5286 1.525 1.5179 1.5143 1.5143 1.5108 1.5072 1.5072 1.5003 1.5003 1.4934 1.49 1.49 1.49 1.4865 1.4831 1.4797 1.4764 1.473 1.473 1.4764 1.473 1.4764 1.4764 1.4797 1.4865 1.4865 1.4934 1.4969 1.49 1.49 1.49 1.4797 1.473 1.4697 1.4664 1.4631 1.4598 1.45 1.45 1.4435 1.4435 1.4404 1.4404 1.4371 1.4404 1.434 1.434 1.434 1.4276 1.4245 1.4276 1.434 1.4371 1.4307 1.4276 1.4245 1.4276 1.4245 1.4245 1.4214 1.4214 1.4214 1.4214 1.4183 1.4214 1.4214 1.4214 1.4214 1.4245 1.4214 1.4183 1.4152 1.4121 1.406 1.406 1.3939 1.3939 1.3909 1.382 1.3761 1.3761 1.3791 1.385 1.385 1.3791 1.3761 1.3761 1.3733 1.3733 1.3733 1.3704 1.3733 1.3704 1.3761 1.3761 1.3761 1.3761 1.3761 1.385 1.382 1.382 1.382 1.3791 1.3761 1.3791 1.3791 1.3761 1.3733 1.3761 1.3733 1.3733 1.3704 1.3733 1.3704 1.3646 1.3589 1.3618 1.3589 1.3533 1.3476 1.3476 1.3447 1.3393 1.3365 1.3365 1.3337 1.3365 1.3337 1.3337 1.3365 1.3282 1.3282 1.3256 1.3256 1.3256 1.3256 1.3201 1.3175 1.3175 1.3095 1.3069 1.3121 1.3095 1.3095 1.3095 1.3095 1.3069 1.3042 1.3042 1.3016 1.3016 1.299 1.2964 1.2964 1.2939 1.2939 1.2913 1.2888 1.2888 1.2861 1.2888 1.2913 1.2913 1.2888 1.2939 1.2913 1.2913 1.2964 1.2964 1.2913 1.2888 1.2836 1.2785 1.276 1.2735 1.2735 1.271 1.2685 1.2685 1.2661 1.2685 1.2735 1.2735 1.2735 1.271 1.271 1.2685 1.2661 1.2636 1.2636 1.2636 1.2636 1.2611 1.2661 1.2588 1.2539 1.2539 1.2539 1.2563 1.2514 1.249 1.2466 1.2395 1.2371 1.2395 1.2514 1.2611 1.2301 1.2301 1.2277 1.2116 1.2116 0 0 0 0 0 0 0 0 0.53463 0.53463 0.536 0.536 0.5355 0.536 0.536 0.536 0.536 0.53638 0.53738 0.53738 0.5395 0.5405 0.54138 0.54312 0.54363 0.54363 0.545 0.54412 0.53687 0.53687 0.53687 0.53638 0.53825 0.53775 0.54363 0.5405 0.53775 0.53775 0.54138 0.53075 0.53112 0.529 0.52563 0.52387 0.523 0.52212 0.52175 0.52138 0.52175 0.51062 0.50787 0.50825 0.55763 0.55812 0.5615 0.55812 0.55912 0.55912 0.55912 0.5615 0.562 0.5625 0.562
1.692 1.7009 1.7009 1.7009 1.7099 1.7144 1.7189 1.7235 1.7328 1.7466 1.7561 1.7561 1.7514 1.7466 1.7144 1.7054 1.7009 1.6832 1.6703 1.666 1.649 1.649 1.6406 1.6365 1.6365 1.6324 1.6284 1.6284 1.6242 1.6242 1.6161 1.6121 1.6081 1.6041 1.6041 1.6041 1.6081 1.6041 1.6041 1.6002 1.5962 1.5962 1.5962 1.6002 1.5962 1.5885 1.5808 1.5769 1.5769 1.5808 1.5808 1.5885 1.5846 1.5769 1.573 1.5846 1.5885 1.5885 1.5808 1.5769 1.573 1.5655 1.5617 1.5617 1.5655 1.5617 1.558 1.558 1.558 1.5431 1.5357 1.525 1.525 1.5214 1.5214 1.5179 1.5143 1.5143 1.5108 1.5108 1.5143 1.5179 1.5214 1.5214 1.5214 1.5179 1.5143 1.5108 1.5108 1.5108 1.5072 1.5072 1.5037 1.5003 1.4969 1.4934 1.49 1.4865 1.4865 1.4865 1.4764 1.473 1.473 1.4697 1.4697 1.4697 1.473 1.4764 1.4764 1.4831 1.4797 1.4865 1.4934 1.4865 1.4865 1.4831 1.4764 1.473 1.4697 1.4664 1.4631 1.4598 1.45 1.45 1.4467 1.4467 1.4435 1.4404 1.4371 1.4404 1.4371 1.4371 1.4404 1.434 1.4307 1.4307 1.4404 1.4435 1.4371 1.434 1.4276 1.4245 1.4276 1.4245 1.4214 1.4245 1.4214 1.4245 1.4214 1.4245 1.4214 1.4214 1.4183 1.4245 1.4245 1.4183 1.4152 1.4121 1.406 1.403 1.3909 1.388 1.385 1.382 1.3791 1.3761 1.3761 1.382 1.3791 1.3761 1.3761 1.3761 1.3733 1.3704 1.3704 1.3733 1.3733 1.3733 1.3761 1.3761 1.3761 1.3761 1.3791 1.382 1.382 1.382 1.385 1.3791 1.3761 1.3761 1.3761 1.3761 1.3704 1.3675 1.3675 1.3704 1.3675 1.3675 1.3675 1.3618 1.3589 1.3589 1.356 1.3533 1.3476 1.3447 1.3447 1.3393 1.3393 1.3365 1.3337 1.3337 1.3337 1.3365 1.3393 1.331 1.331 1.3282 1.3256 1.3256 1.3229 1.3175 1.3121 1.3121 1.3121 1.3095 1.3121 1.3149 1.3149 1.3121 1.3175 1.3121 1.3121 1.3095 1.3069 1.3042 1.3016 1.299 1.2964 1.2939 1.2939 1.2913 1.2888 1.2861 1.2861 1.2888 1.2913 1.2913 1.2913 1.2939 1.2913 1.2913 1.2939 1.2939 1.2913 1.2888 1.2861 1.2735 1.271 1.271 1.271 1.2661 1.2661 1.2685 1.2661 1.2661 1.2735 1.2735 1.271 1.271 1.2685 1.2685 1.2636 1.2636 1.2611 1.2636 1.2563 1.2514 1.2539 1.249 1.2466 1.249 1.249 1.249 1.249 1.2466 1.2443 1.2395 1.2371 1.2371 1.249 1.2563 1.2348 1.2301 1.2301 1.2163 1.2116 0 0 0 0 0 0 0 0 0.53463 0.53512 0.536 0.5355 0.53463 0.53463 0.53463 0.53463 0.53512 0.5355 0.53638 0.53638 0.53738 0.53775 0.53825 0.5395 0.54 0.5405 0.54138 0.5405 0.53775 0.53638 0.53638 0.53638 0.53687 0.53775 0.54363 0.5405 0.5355 0.53775 0.54138 0.53075 0.52863 0.52725 0.5235 0.52175 0.52087 0.52012 0.51963 0.51963 0.52138 0.51062 0.50787 0.50825 0.55763 0.55912 0.561 0.562 0.5615 0.561 0.5605 0.5635 0.5635 0.564 0.5635
1.692 1.692 1.6965 1.6965 1.7054 1.7099 1.7144 1.7235 1.7328 1.7514 1.7609 1.7657 1.7609 1.7561 1.7235 1.7144 1.7144 1.6876 1.6789 1.6703 1.6575 1.6533 1.6406 1.6406 1.6449 1.6365 1.6365 1.6284 1.6242 1.6242 1.6161 1.6081 1.6081 1.6041 1.6002 1.6041 1.6081 1.6041 1.6041 1.6002 1.6002 1.6002 1.6002 1.6002 1.6002 1.5885 1.5808 1.573 1.5769 1.5769 1.5808 1.5846 1.5846 1.5769 1.5769 1.5808 1.5924 1.5885 1.5769 1.573 1.5693 1.5617 1.558 1.558 1.558 1.5542 1.5542 1.5505 1.5542 1.5395 1.5357 1.5321 1.525 1.525 1.525 1.5179 1.5179 1.5143 1.5143 1.5143 1.5143 1.5214 1.5214 1.525 1.5179 1.5143 1.5108 1.5108 1.5072 1.5108 1.5072 1.5108 1.5072 1.5003 1.4969 1.4934 1.49 1.49 1.49 1.4865 1.473 1.4697 1.4697 1.4664 1.4664 1.4664 1.473 1.4764 1.4764 1.4797 1.4797 1.4865 1.49 1.4831 1.4865 1.4797 1.4764 1.4697 1.4664 1.4631 1.4565 1.4532 1.4467 1.4467 1.4435 1.4467 1.4435 1.4404 1.4404 1.4404 1.4371 1.4404 1.4404 1.4371 1.434 1.434 1.4404 1.4435 1.4371 1.434 1.4307 1.4276 1.4245 1.4214 1.4214 1.4245 1.4245 1.4245 1.4245 1.4245 1.4245 1.4183 1.4183 1.4245 1.4245 1.4183 1.4152 1.4121 1.406 1.403 1.388 1.385 1.382 1.3791 1.3791 1.3761 1.3761 1.382 1.3791 1.3761 1.3761 1.3761 1.3761 1.3704 1.3675 1.3761 1.3733 1.3761 1.3791 1.3791 1.3761 1.3761 1.3791 1.385 1.385 1.382 1.382 1.3761 1.3733 1.3761 1.3733 1.3733 1.3675 1.3675 1.3675 1.3675 1.3646 1.3646 1.3646 1.3618 1.3589 1.356 1.3533 1.3504 1.3447 1.342 1.342 1.3393 1.3365 1.3337 1.331 1.331 1.3337 1.3365 1.3365 1.331 1.331 1.3282 1.3256 1.3256 1.3229 1.3149 1.3121 1.3121 1.3095 1.3095 1.3149 1.3149 1.3149 1.3121 1.3175 1.3175 1.3095 1.3095 1.3095 1.3042 1.3042 1.2964 1.2964 1.2964 1.2913 1.2939 1.2913 1.2861 1.2861 1.2888 1.2939 1.2939 1.2939 1.2939 1.2939 1.2913 1.2939 1.2939 1.2913 1.2888 1.2836 1.2735 1.2685 1.2685 1.2685 1.2661 1.2636 1.2661 1.2661 1.2661 1.271 1.2735 1.2685 1.2685 1.2661 1.2661 1.2636 1.2611 1.2611 1.2588 1.2514 1.2466 1.2466 1.2419 1.2395 1.2419 1.2443 1.2466 1.2466 1.2466 1.2443 1.2371 1.2371 1.2371 1.2514 1.2588 1.2371 1.2348 1.2301 1.2208 1.2208 0 0 0 0 0 0 0 0 0 0.5355 0.536 0.53512 0.53375 0.53375 0.53375 0.53425 0.53425 0.53512 0.5355 0.536 0.53638 0.53687 0.53738 0.53825 0.53863 0.53912 0.5395 0.5395 0.53738 0.53638 0.53638 0.5355 0.53512 0.5355 0.536 0.5355 0.53375 0.53375 0.53163 0.52863 0.52775 0.52638 0.52212 0.52138 0.52012 0.51925 0.51887 0.51887 0.51925 0.5155 0.51513 0 0.55663 0.55912 0.561 0.5625 0.5625 0.5615 0.563 0.564 0.564 0.564 0.5635
1.692 1.6965 1.6965 1.6965 1.7009 1.7054 1.7144 1.7189 1.7328 1.7561 1.7609 1.7609 1.7609 1.7609 1.7281 1.7189 1.7144 1.6965 1.6876 1.6745 1.6616 1.6533 1.6365 1.6365 1.6365 1.6324 1.6284 1.6242 1.6161 1.6121 1.6081 1.6002 1.6041 1.6002 1.6002 1.6002 1.6041 1.6041 1.6041 1.6002 1.6041 1.6002 1.6002 1.6002 1.6002 1.5885 1.5808 1.573 1.5769 1.5769 1.5808 1.5808 1.5846 1.5769 1.5808 1.5808 1.5885 1.5846 1.573 1.5693 1.5655 1.5655 1.5617 1.5617 1.558 1.5542 1.5542 1.5505 1.5542 1.5431 1.5321 1.5286 1.5179 1.5214 1.5179 1.5143 1.5108 1.5108 1.5072 1.5108 1.5108 1.5143 1.5143 1.5143 1.5143 1.5108 1.5072 1.5072 1.5072 1.5037 1.5037 1.5037 1.5072 1.5037 1.5003 1.4969 1.4969 1.4934 1.49 1.49 1.4797 1.473 1.4697 1.4664 1.4664 1.4697 1.473 1.473 1.4764 1.4764 1.4764 1.4831 1.4865 1.4831 1.4831 1.4797 1.4664 1.4631 1.4598 1.4532 1.4532 1.4467 1.434 1.434 1.4371 1.434 1.434 1.434 1.4371 1.4371 1.4404 1.4404 1.4435 1.4435 1.4435 1.4435 1.4467 1.45 1.4435 1.4371 1.434 1.4307 1.4276 1.4245 1.4214 1.4245 1.4245 1.4214 1.4245 1.4245 1.4245 1.4183 1.4152 1.4183 1.4183 1.4152 1.4121 1.4121 1.409 1.403 1.3939 1.3909 1.388 1.385 1.382 1.382 1.382 1.388 1.385 1.3761 1.3791 1.3791 1.3761 1.3704 1.3704 1.3761 1.3733 1.3733 1.3761 1.3733 1.3733 1.3733 1.3761 1.3791 1.385 1.382 1.3791 1.3761 1.3733 1.3733 1.3733 1.3704 1.3646 1.3646 1.3646 1.3646 1.3618 1.3618 1.3618 1.356 1.3533 1.3504 1.3447 1.3447 1.3393 1.3393 1.3393 1.3365 1.3337 1.3337 1.331 1.331 1.3337 1.3365 1.3365 1.331 1.331 1.3256 1.3256 1.3229 1.3229 1.3121 1.3069 1.3095 1.3121 1.3095 1.3121 1.3149 1.3121 1.3149 1.3201 1.3175 1.3121 1.3095 1.3095 1.3042 1.3042 1.299 1.2964 1.2939 1.2939 1.2913 1.2888 1.2861 1.2861 1.2888 1.2939 1.2939 1.2939 1.2939 1.2939 1.2939 1.2939 1.2939 1.2939 1.2888 1.2836 1.276 1.271 1.271 1.2685 1.2685 1.2636 1.2636 1.2661 1.2661 1.271 1.271 1.2685 1.2661 1.2661 1.2661 1.2636 1.2611 1.2611 1.2611 1.249 1.2443 1.2443 1.2443 1.2419 1.2443 1.2466 1.249 1.249 1.249 1.2466 1.2443 1.2443 1.2443 1.2539 1.2611 1.2419 1.2395 1.2348 1.2277 1.2208 1.2348 1.2324 0 0 0 0 0 0 0 0.532 0.5325 0.532 0.53163 0.53075 0.53163 0.53338 0.53338 0.53425 0.53512 0.53512 0.5355 0.5355 0.536 0.53738 0.53775 0.53825 0.53775 0.53738 0.536 0.53463 0.53463 0.53375 0.53287 0.53163 0.53112 0.53075 0.52775 0.52863 0.52938 0.52775 0.52687 0.52512 0.52263 0.52138 0.5205 0.52012 0.51963 0.51887 0.51887 0.5155 0.51513 0 0.55663 0.55663 0.563 0.562 0.5625 0.561 0.5615 0.564 0.56588 0.56688 0.56637
1.692 1.7009 1.7054 1.7054 1.7054 1.7099 1.7189 1.7235 1.7374 1.7561 1.7609 1.7657 1.7609 1.7561 1.7328 1.7235 1.7189 1.6965 1.6876 1.6789 1.6616 1.6575 1.6406 1.6406 1.6406 1.6324 1.6284 1.6201 1.6121 1.6081 1.6041 1.6002 1.6041 1.6002 1.6002 1.6041 1.6081 1.6041 1.6041 1.6041 1.6041 1.6041 1.6041 1.6041 1.6041 1.5924 1.5846 1.5808 1.5808 1.5808 1.5808 1.5808 1.5808 1.5808 1.5769 1.5808 1.5846 1.5808 1.573 1.5693 1.5655 1.5617 1.5655 1.5617 1.5542 1.5542 1.5468 1.5468 1.5431 1.5395 1.5321 1.525 1.5179 1.5179 1.5143 1.5143 1.5143 1.5108 1.5072 1.5072 1.5108 1.5143 1.5108 1.5108 1.5143 1.5072 1.5037 1.5037 1.5037 1.5003 1.5003 1.5072 1.5072 1.5072 1.5037 1.5003 1.5003 1.5037 1.5003 1.5003 1.49 1.4797 1.4764 1.4764 1.4764 1.473 1.4764 1.4764 1.4764 1.4797 1.4764 1.4797 1.4831 1.4865 1.4831 1.4831 1.4598 1.4565 1.4532 1.45 1.45 1.4435 1.434 1.4307 1.4307 1.434 1.4307 1.434 1.4371 1.4404 1.4371 1.4404 1.45 1.4598 1.4598 1.4631 1.4664 1.4664 1.4565 1.4532 1.4435 1.4404 1.434 1.4307 1.4245 1.4245 1.4245 1.4245 1.4245 1.4214 1.4245 1.4183 1.4152 1.4183 1.4183 1.4152 1.4152 1.4121 1.409 1.406 1.403 1.3969 1.3969 1.3969 1.3999 1.3999 1.3939 1.3909 1.3909 1.385 1.385 1.382 1.382 1.3761 1.3733 1.3761 1.3761 1.3733 1.3761 1.3733 1.3733 1.3733 1.3733 1.3791 1.382 1.3791 1.3791 1.3761 1.3733 1.3733 1.3733 1.3675 1.3675 1.3646 1.3675 1.3675 1.3618 1.3618 1.3646 1.356 1.3533 1.3504 1.3476 1.3476 1.3393 1.3393 1.3393 1.3337 1.3365 1.331 1.331 1.331 1.3337 1.3365 1.3365 1.3337 1.331 1.3282 1.3256 1.3229 1.3201 1.3121 1.3095 1.3121 1.3121 1.3121 1.3121 1.3121 1.3121 1.3121 1.3201 1.3201 1.3149 1.3121 1.3121 1.3042 1.3042 1.299 1.299 1.299 1.2913 1.2913 1.2913 1.2888 1.2913 1.2913 1.2939 1.2939 1.2939 1.2939 1.2939 1.2913 1.2939 1.2939 1.2913 1.2913 1.2861 1.2811 1.2785 1.276 1.276 1.276 1.271 1.271 1.271 1.271 1.271 1.271 1.2685 1.2661 1.2661 1.2685 1.2661 1.2661 1.2636 1.2611 1.2539 1.249 1.249 1.2466 1.2466 1.249 1.2514 1.2539 1.2539 1.2563 1.2588 1.2539 1.2539 1.2539 1.2588 1.2636 1.249 1.249 1.2466 1.2419 1.2371 1.2348 1.2324 0 0 0 0 0 0 0 0.532 0.5325 0.532 0.532 0.53075 0.53338 0.53375 0.53425 0.53463 0.536 0.5355 0.53512 0.536 0.536 0.53738 0.53738 0.53775 0.53775 0.53687 0.53512 0.53425 0.53425 0.53287 0.5325 0.53163 0.52987 0.529 0.52687 0.52687 0.52687 0.52775 0.52475 0.52387 0.52263 0.52212 0.52138 0.52138 0.52138 0.51925 0.51925 0 0 0 0.55912 0.55912 0.57488 0.57188 0.5755 0.57388 0.57188 0.57137 0.57137 0.57237 0.57237
1.7009 1.7054 1.7099 1.7099 1.7099 1.7189 1.7235 1.7328 1.7466 1.7561 1.7609 1.7609 1.7609 1.7561 1.7328 1.7189 1.7144 1.7009 1.692 1.6832 1.666 1.6616 1.6449 1.6406 1.6406 1.6284 1.6242 1.6201 1.6081 1.6041 1.6002 1.6002 1.6002 1.6002 1.6002 1.6081 1.6081 1.6081 1.6081 1.6041 1.6081 1.6081 1.6081 1.6121 1.6081 1.5924 1.5885 1.5846 1.5808 1.5846 1.5808 1.5808 1.5769 1.5769 1.573 1.5769 1.5808 1.5808 1.5693 1.5655 1.5655 1.5617 1.5617 1.558 1.5505 1.5468 1.5431 1.5357 1.5321 1.5321 1.5286 1.5214 1.5143 1.5143 1.5143 1.5143 1.5108 1.5143 1.5108 1.5108 1.5143 1.5108 1.5108 1.5072 1.5108 1.5072 1.5003 1.4969 1.5003 1.5003 1.5003 1.5037 1.5108 1.5072 1.5037 1.5037 1.5037 1.5037 1.5037 1.5003 1.49 1.4831 1.4797 1.4797 1.4764 1.4764 1.4797 1.4797 1.4764 1.4797 1.4764 1.4831 1.4865 1.4865 1.4831 1.4797 1.4565 1.45 1.45 1.4467 1.4435 1.4404 1.4307 1.4276 1.4307 1.4307 1.4307 1.4307 1.4371 1.4371 1.4371 1.4404 1.45 1.4631 1.4664 1.4697 1.4697 1.4697 1.4598 1.4532 1.45 1.4404 1.4371 1.434 1.4276 1.4245 1.4245 1.4245 1.4245 1.4245 1.4214 1.4183 1.4152 1.4183 1.4183 1.4152 1.4152 1.4152 1.4121 1.409 1.403 1.3999 1.3999 1.3999 1.3999 1.3999 1.3939 1.388 1.385 1.388 1.385 1.385 1.382 1.3791 1.3733 1.3733 1.3733 1.3733 1.3733 1.3733 1.3675 1.3675 1.3704 1.3733 1.3761 1.3761 1.3761 1.3733 1.3733 1.3704 1.3733 1.3675 1.3675 1.3675 1.3675 1.3675 1.3646 1.3618 1.3646 1.3589 1.356 1.3533 1.3504 1.3447 1.3393 1.3393 1.3365 1.3365 1.3337 1.331 1.3282 1.3337 1.331 1.3365 1.3365 1.3337 1.331 1.3282 1.3256 1.3229 1.3201 1.3149 1.3121 1.3121 1.3149 1.3121 1.3095 1.3121 1.3121 1.3121 1.3175 1.3175 1.3149 1.3121 1.3095 1.3042 1.3042 1.3016 1.3016 1.299 1.2939 1.2939 1.2913 1.2888 1.2913 1.2913 1.2939 1.2964 1.2939 1.2939 1.2939 1.2913 1.2913 1.2939 1.2913 1.2913 1.2888 1.2836 1.2811 1.2811 1.2811 1.276 1.276 1.2735 1.271 1.271 1.271 1.271 1.2661 1.2661 1.2661 1.2685 1.2685 1.2661 1.2636 1.2611 1.2539 1.2514 1.2514 1.2514 1.2514 1.2514 1.2539 1.2539 1.2539 1.2588 1.2563 1.2563 1.2539 1.2563 1.2588 1.2636 1.249 1.2466 1.2443 1.2395 1.2371 1.2324 1.2301 1.2277 1.2208 1.2208 0 0 0 0 0 0 0 0 0.53463 0.53425 0.53512 0.53512 0.53512 0.53687 0.53638 0.5355 0.536 0.536 0.53687 0.53775 0.53738 0.53775 0.53687 0.53512 0.53375 0.53375 0.5325 0.53112 0.53075 0.529 0.52775 0.52563 0.52512 0.52475 0.52212 0.52263 0.523 0.52263 0.52212 0.52212 0.52175 0.52175 0.52138 0 0 0 0 0.56937 0.56937 0.58113 0.58013 0.5785 0.5755 0.57337 0.57337 0.57388 0.57437 0.57437
1.692 1.6965 1.7054 1.7009 1.7054 1.7189 1.7235 1.7328 1.742 1.7561 1.7609 1.7609 1.7561 1.7514 1.7189 1.7099 1.7054 1.692 1.6832 1.6745 1.666 1.6616 1.6449 1.6406 1.6365 1.6284 1.6201 1.6161 1.6081 1.6041 1.6002 1.5962 1.6002 1.6002 1.6041 1.6081 1.6081 1.6081 1.6081 1.6121 1.6121 1.6081 1.6121 1.6121 1.6081 1.6002 1.5962 1.5885 1.5846 1.5846 1.5846 1.5808 1.5808 1.5769 1.5769 1.5769 1.5808 1.5769 1.5693 1.5655 1.5617 1.5617 1.5617 1.5542 1.5468 1.5395 1.5395 1.5286 1.5214 1.525 1.525 1.5214 1.5143 1.5143 1.5143 1.5143 1.5143 1.5143 1.5143 1.5143 1.5143 1.5108 1.5037 1.5037 1.5072 1.5072 1.5003 1.4969 1.4969 1.5003 1.5003 1.5072 1.5108 1.5108 1.5037 1.5037 1.5037 1.5072 1.5037 1.5037 1.4934 1.4831 1.4831 1.4831 1.4831 1.4797 1.4831 1.4831 1.4797 1.4797 1.4764 1.4831 1.4865 1.4865 1.4831 1.4764 1.4532 1.45 1.4467 1.4467 1.4467 1.4404 1.4276 1.4245 1.4276 1.4276 1.4276 1.4245 1.4307 1.4276 1.4307 1.434 1.4404 1.45 1.4532 1.4598 1.473 1.473 1.4598 1.4532 1.45 1.4404 1.4371 1.434 1.4276 1.4276 1.4245 1.4245 1.4214 1.4214 1.4214 1.4183 1.4152 1.4152 1.4183 1.4152 1.4183 1.4152 1.4121 1.409 1.3999 1.3999 1.3999 1.3969 1.3999 1.3969 1.388 1.385 1.382 1.385 1.382 1.385 1.3791 1.3761 1.3704 1.3704 1.3704 1.3704 1.3704 1.3704 1.3675 1.3675 1.3704 1.3733 1.3733 1.3733 1.3761 1.3733 1.3704 1.3733 1.3704 1.3704 1.3646 1.3646 1.3704 1.3675 1.3646 1.3646 1.3618 1.3589 1.356 1.3533 1.3504 1.3447 1.3365 1.3365 1.3365 1.331 1.331 1.331 1.3256 1.331 1.3282 1.3337 1.331 1.331 1.3282 1.3256 1.3229 1.3229 1.3201 1.3149 1.3121 1.3121 1.3121 1.3095 1.3095 1.3095 1.3095 1.3121 1.3175 1.3175 1.3149 1.3121 1.3095 1.3069 1.3042 1.3016 1.299 1.299 1.2964 1.2939 1.2939 1.2913 1.2913 1.2939 1.2964 1.2964 1.2939 1.2939 1.2939 1.2888 1.2888 1.2913 1.2913 1.2888 1.2861 1.2836 1.2836 1.2811 1.2811 1.2811 1.276 1.2735 1.276 1.271 1.271 1.271 1.2661 1.2661 1.2661 1.271 1.271 1.2661 1.2636 1.2588 1.2539 1.2539 1.2514 1.2514 1.249 1.249 1.2539 1.2539 1.2563 1.2588 1.2563 1.2539 1.2539 1.2539 1.2563 1.2563 1.249 1.2466 1.2443 1.2371 1.2348 1.2324 1.2301 1.2277 1.2231 1.2116 1.2094 0 0 0 0 0 0 0 0.53463 0.53463 0.536 0.536 0.5355 0.53775 0.53738 0.536 0.536 0.53638 0.53738 0.53738 0.53775 0.53687 0.53687 0.53375 0.53287 0.5325 0.53163 0.53075 0.52987 0.52812 0.52638 0.52387 0.5235 0.523 0.52212 0.52212 0.52263 0.52263 0.52263 0.52212 0.52175 0.52138 0.52138 0 0 0 0 0.56937 0.56937 0.58113 0.58062 0.58013 0.5765 0.57437 0.57488 0.576 0.576 0.5755
1.692 1.6965 1.7009 1.7009 1.7054 1.7144 1.7235 1.7374 1.742 1.7561 1.7609 1.7609 1.7609 1.7466 1.7189 1.7054 1.7009 1.692 1.6832 1.6789 1.666 1.666 1.6449 1.6406 1.6365 1.6284 1.6242 1.6201 1.6161 1.6121 1.6041 1.5962 1.6002 1.6002 1.6041 1.6081 1.6121 1.6081 1.6081 1.6081 1.6201 1.6161 1.6161 1.6242 1.6201 1.6081 1.6081 1.6002 1.6002 1.5924 1.5885 1.5808 1.5808 1.5769 1.5769 1.5769 1.5808 1.5808 1.573 1.573 1.5655 1.5617 1.5617 1.5542 1.5505 1.5395 1.5357 1.5286 1.525 1.525 1.5214 1.525 1.5214 1.5179 1.5214 1.5179 1.5214 1.5214 1.525 1.5214 1.5143 1.5108 1.5072 1.5108 1.5108 1.5108 1.5072 1.5072 1.5072 1.5072 1.5108 1.5108 1.5214 1.5179 1.5143 1.5143 1.5143 1.5108 1.5108 1.5108 1.5003 1.4934 1.4865 1.4865 1.4865 1.4865 1.4865 1.4865 1.4831 1.4797 1.4797 1.4865 1.4865 1.4865 1.4831 1.4797 1.4631 1.4631 1.4598 1.4565 1.45 1.4435 1.4307 1.4276 1.4276 1.4276 1.4245 1.4276 1.4276 1.4307 1.4276 1.434 1.4371 1.4435 1.4435 1.4565 1.473 1.4697 1.4598 1.4565 1.4532 1.4467 1.4404 1.4371 1.4276 1.4276 1.4245 1.4245 1.4245 1.4245 1.4214 1.4183 1.4183 1.4183 1.4183 1.4183 1.4183 1.4152 1.4121 1.409 1.3999 1.3969 1.3969 1.3969 1.3999 1.3939 1.388 1.382 1.3791 1.382 1.382 1.382 1.382 1.3761 1.3704 1.3704 1.3675 1.3704 1.3675 1.3675 1.3675 1.3675 1.3675 1.3733 1.3733 1.3733 1.3761 1.3733 1.3733 1.3791 1.3761 1.3761 1.3704 1.3704 1.3675 1.3704 1.3675 1.3646 1.3646 1.356 1.356 1.3533 1.3504 1.3447 1.3393 1.3365 1.3365 1.331 1.3282 1.3282 1.3282 1.3282 1.331 1.331 1.331 1.3282 1.3282 1.3282 1.3229 1.3201 1.3201 1.3149 1.3121 1.3121 1.3149 1.3121 1.3121 1.3121 1.3121 1.3121 1.3175 1.3201 1.3175 1.3121 1.3121 1.3069 1.3069 1.299 1.299 1.299 1.2964 1.2964 1.2939 1.2939 1.2964 1.2964 1.2964 1.299 1.299 1.2939 1.2913 1.2888 1.2888 1.2913 1.2888 1.2888 1.2861 1.2836 1.2836 1.2836 1.2836 1.2811 1.2785 1.276 1.2735 1.271 1.271 1.271 1.271 1.2685 1.271 1.2735 1.2735 1.2685 1.2611 1.2588 1.2539 1.2563 1.2539 1.2514 1.249 1.2514 1.2514 1.2514 1.2563 1.2588 1.2563 1.2563 1.2563 1.2539 1.2563 1.2563 1.249 1.2466 1.2443 1.2395 1.2371 1.2348 1.2324 1.2301 1.2254 1.2163 1.2094 0 0 0 0 0 0 0 0 0.53775 0.53738 0.53638 0.53687 0.54087 0.5405 0.53825 0.53687 0.53687 0.53775 0.53912 0.53738 0.53687 0.53687 0.53287 0.5325 0.5325 0.53025 0.53075 0.52938 0.52987 0.52563 0.5235 0.5235 0.523 0.52175 0.52212 0.523 0.52263 0.52263 0.52212 0.52212 0.52175 0.52175 0 0 0 0 0.56937 0.56937 0.58162 0.5795 0.58013 0.57388 0.57437 0.5775 0.579 0.579 0.5785
1.6876 1.692 1.7009 1.7009 1.7054 1.7144 1.7235 1.7328 1.7374 1.7514 1.7609 1.7609 1.7561 1.7514 1.7189 1.7099 1.7054 1.692 1.6876 1.6832 1.6745 1.666 1.649 1.6449 1.6406 1.6284 1.6284 1.6242 1.6121 1.6121 1.6041 1.6002 1.6002 1.6002 1.6081 1.6121 1.6121 1.6081 1.6121 1.6121 1.6161 1.6161 1.6161 1.6242 1.6201 1.6081 1.6081 1.6002 1.5962 1.5962 1.5846 1.5808 1.5808 1.573 1.573 1.573 1.5769 1.5769 1.573 1.5693 1.5693 1.5617 1.5617 1.558 1.5468 1.5431 1.5395 1.5286 1.525 1.525 1.525 1.525 1.5214 1.5214 1.5179 1.5179 1.5214 1.5214 1.525 1.525 1.5143 1.5143 1.5072 1.5108 1.5143 1.5143 1.5108 1.5108 1.5072 1.5108 1.5108 1.5143 1.5214 1.5214 1.5143 1.5143 1.5143 1.5143 1.5108 1.5108 1.5003 1.4934 1.4934 1.49 1.49 1.4865 1.4831 1.4831 1.4831 1.4797 1.4797 1.4865 1.49 1.4865 1.4831 1.4797 1.4697 1.4697 1.4664 1.4631 1.4598 1.4467 1.434 1.4307 1.4307 1.4307 1.4276 1.4245 1.4276 1.4307 1.4307 1.434 1.4371 1.4404 1.4404 1.4532 1.4697 1.473 1.4598 1.4532 1.4532 1.4467 1.4435 1.4371 1.4307 1.4276 1.4245 1.4276 1.4245 1.4245 1.4214 1.4152 1.4152 1.4183 1.4183 1.4152 1.4152 1.4152 1.409 1.406 1.3969 1.3969 1.3969 1.3969 1.3969 1.3939 1.388 1.382 1.3791 1.382 1.385 1.382 1.3791 1.3761 1.3704 1.3675 1.3675 1.3675 1.3704 1.3675 1.3675 1.3675 1.3675 1.3761 1.3761 1.3733 1.3761 1.3761 1.3761 1.3791 1.3761 1.3761 1.3733 1.3704 1.3704 1.3704 1.3675 1.3675 1.3646 1.356 1.3504 1.3533 1.3476 1.3447 1.3393 1.3365 1.3365 1.331 1.331 1.331 1.3282 1.3282 1.3282 1.3282 1.3282 1.3256 1.3256 1.3256 1.3201 1.3201 1.3175 1.3121 1.3121 1.3121 1.3149 1.3149 1.3121 1.3121 1.3121 1.3095 1.3201 1.3175 1.3175 1.3121 1.3121 1.3069 1.3042 1.299 1.2964 1.2964 1.2964 1.2964 1.2939 1.2939 1.2964 1.299 1.299 1.299 1.299 1.2964 1.2939 1.2913 1.2888 1.2913 1.2913 1.2888 1.2861 1.2836 1.2836 1.2836 1.2836 1.2836 1.2785 1.276 1.2735 1.2735 1.271 1.271 1.271 1.2685 1.271 1.276 1.2735 1.2661 1.2611 1.2588 1.2563 1.2563 1.2539 1.2539 1.249 1.249 1.249 1.2514 1.2539 1.2588 1.2588 1.2563 1.2563 1.2563 1.2563 1.2539 1.249 1.2466 1.2466 1.2395 1.2395 1.2371 1.2371 1.2324 1.2301 1.2231 1.2277 1.2324 1.2301 1.2301 1.2301 0 0 0 0 0 1.2163 0.53912 0.5395 0.54275 0.54225 0.54275 0.55337 0.55388 0.55425 0 0 1.183 1.183 1.1723 1.1701 1.1598 1.1598 1.1598 1.2094 1.2071 1.2071 1.2027 1.2005 1.2027 1.2005 1.2005 1.2005 1.1851 1.1851 1.1598 1.1598 0 0 0 0 0 0 0 0.60437 0.59988 0.6005 0.59937 0.5885 0.5885 0.58425 0.58113 0.58062 0.58013
1.6876 1.692 1.7009 1.7054 1.7099 1.7144 1.7235 1.7328 1.7328 1.7466 1.7561 1.7561 1.7514 1.7466 1.7281 1.7144 1.7099 1.6965 1.6965 1.6876 1.6745 1.6703 1.649 1.6406 1.6406 1.6284 1.6284 1.6242 1.6121 1.6121 1.6041 1.5962 1.6041 1.6041 1.6121 1.6161 1.6121 1.6121 1.6121 1.6121 1.6161 1.6201 1.6201 1.6201 1.6161 1.6121 1.6041 1.6002 1.5924 1.5885 1.5769 1.5769 1.5769 1.573 1.5693 1.573 1.5693 1.573 1.5693 1.5693 1.5655 1.5655 1.5617 1.558 1.5505 1.5468 1.5395 1.5321 1.5286 1.525 1.525 1.525 1.5214 1.5214 1.5214 1.5179 1.525 1.525 1.525 1.525 1.5143 1.5143 1.5143 1.5108 1.5143 1.5143 1.5143 1.5108 1.5108 1.5108 1.5143 1.5143 1.525 1.5214 1.5179 1.5179 1.5143 1.5179 1.5143 1.5143 1.5037 1.4934 1.4934 1.4934 1.49 1.4865 1.4865 1.4831 1.4797 1.4797 1.4797 1.4865 1.49 1.4831 1.4797 1.4797 1.473 1.4697 1.4631 1.4631 1.4565 1.45 1.4404 1.4371 1.434 1.4276 1.4276 1.4245 1.4245 1.4276 1.4276 1.4276 1.4307 1.434 1.434 1.4435 1.4664 1.4664 1.4598 1.4565 1.4532 1.45 1.4467 1.4404 1.4307 1.4276 1.4276 1.4276 1.4245 1.4214 1.4214 1.4152 1.4121 1.4152 1.4152 1.409 1.406 1.403 1.403 1.3999 1.3939 1.3969 1.3969 1.3939 1.3939 1.3909 1.382 1.3791 1.3791 1.385 1.385 1.382 1.3791 1.3733 1.3675 1.3675 1.3675 1.3675 1.3704 1.3646 1.3646 1.3675 1.3704 1.3733 1.3733 1.3761 1.3761 1.3733 1.3733 1.3791 1.3791 1.3733 1.3733 1.3704 1.3704 1.3704 1.3675 1.3675 1.3646 1.356 1.3504 1.3504 1.3447 1.342 1.3365 1.3365 1.3365 1.3282 1.3282 1.331 1.3282 1.3282 1.3282 1.3256 1.3256 1.3256 1.3229 1.3229 1.3201 1.3175 1.3149 1.3121 1.3095 1.3121 1.3149 1.3149 1.3149 1.3121 1.3121 1.3121 1.3175 1.3201 1.3149 1.3121 1.3121 1.3069 1.3016 1.2964 1.2964 1.2964 1.2964 1.2964 1.2964 1.2964 1.2964 1.299 1.3016 1.3016 1.3016 1.299 1.2964 1.2913 1.2888 1.2888 1.2888 1.2888 1.2861 1.2785 1.2811 1.276 1.276 1.276 1.2685 1.2636 1.2611 1.2588 1.2588 1.2588 1.2611 1.2611 1.2661 1.271 1.2685 1.2636 1.2636 1.2611 1.2563 1.2563 1.2563 1.2514 1.2514 1.2466 1.249 1.2514 1.2514 1.2539 1.2539 1.2563 1.2539 1.2539 1.2563 1.2563 1.2466 1.2466 1.2443 1.2419 1.2419 1.2419 1.2395 1.2395 1.2348 1.2277 1.2277 1.2301 1.2301 1.2301 1.2208 1.2208 1.2163 1.2163 0 0 1.2163 0.53912 0.5395 0.54412 0.54275 0.54275 0.55337 0.55388 0.55425 1.1872 1.183 1.1744 1.1765 1.1744 1.1639 1.1598 1.1598 1.1598 1.1939 1.2005 1.1983 1.2005 1.2005 1.1983 1.2005 1.1983 1.1939 1.1786 1.1744 1.1639 1.1598 0 0 0 0 0 0.613 0.6135 0.601 0.6005 0.59937 0.59775 0.5885 0.58737 0.58525 0.58375 0.58213 0.58162
1.7009 1.7054 1.7144 1.7144 1.7235 1.7281 1.7281 1.7281 1.7328 1.7466 1.7561 1.7609 1.7609 1.7561 1.7374 1.7328 1.7281 1.7099 1.6965 1.6832 1.6745 1.666 1.649 1.649 1.6449 1.6365 1.6284 1.6284 1.6161 1.6121 1.6041 1.6002 1.6002 1.6081 1.6161 1.6161 1.6121 1.6121 1.6121 1.6161 1.6161 1.6201 1.6201 1.6161 1.6161 1.6121 1.6081 1.5962 1.5924 1.5846 1.5769 1.573 1.5693 1.573 1.5693 1.5655 1.5655 1.5655 1.5655 1.573 1.5693 1.5655 1.5655 1.5617 1.558 1.5542 1.5505 1.5431 1.5357 1.5357 1.5357 1.5321 1.5321 1.5286 1.525 1.5214 1.525 1.5286 1.5286 1.5286 1.5214 1.5179 1.5179 1.5143 1.5214 1.5214 1.5143 1.5179 1.5143 1.5143 1.5143 1.5179 1.525 1.525 1.5214 1.525 1.5214 1.5179 1.5179 1.5143 1.5108 1.5037 1.5037 1.5037 1.5003 1.4934 1.49 1.49 1.4865 1.4831 1.4865 1.4865 1.49 1.4865 1.4797 1.4764 1.473 1.4697 1.4631 1.4532 1.4532 1.45 1.4435 1.4435 1.4371 1.4307 1.4276 1.4245 1.4276 1.4276 1.4245 1.4276 1.4307 1.4307 1.434 1.4467 1.4631 1.4664 1.4598 1.4598 1.4565 1.4532 1.45 1.4435 1.434 1.434 1.4276 1.4276 1.4276 1.4214 1.4183 1.4152 1.4121 1.4121 1.409 1.406 1.3999 1.403 1.3969 1.3969 1.3939 1.3969 1.3969 1.3939 1.3969 1.3939 1.3909 1.388 1.388 1.3909 1.3909 1.385 1.382 1.3704 1.3675 1.3646 1.3675 1.3675 1.3675 1.3646 1.3646 1.3704 1.3733 1.3761 1.3791 1.3733 1.3733 1.3733 1.3733 1.3761 1.3791 1.3733 1.3733 1.3704 1.3704 1.3733 1.3675 1.3704 1.3646 1.356 1.3533 1.3533 1.3447 1.342 1.3337 1.3337 1.3337 1.3282 1.3256 1.3282 1.3256 1.3256 1.3229 1.3256 1.3229 1.3229 1.3201 1.3201 1.3175 1.3175 1.3149 1.3149 1.3149 1.3175 1.3149 1.3175 1.3175 1.3175 1.3175 1.3175 1.3201 1.3201 1.3175 1.3121 1.3121 1.3069 1.3042 1.2939 1.2939 1.2964 1.2939 1.2964 1.2939 1.2939 1.2964 1.299 1.3016 1.3042 1.3042 1.299 1.299 1.2913 1.2913 1.2888 1.2888 1.2861 1.2836 1.2785 1.2785 1.2735 1.2735 1.2735 1.2636 1.2588 1.2539 1.249 1.2563 1.2514 1.2514 1.2539 1.2611 1.2661 1.2611 1.2611 1.2636 1.2661 1.2661 1.2661 1.2661 1.2563 1.2514 1.2539 1.2514 1.2539 1.2514 1.2514 1.2539 1.2563 1.2539 1.2539 1.2539 1.2563 1.249 1.2466 1.2443 1.2443 1.2466 1.2466 1.2466 1.2514 1.249 1.2419 1.2395 1.2371 1.2324 1.2301 1.2231 1.2185 1.2163 1.2163 0 0 1.2231 1.2208 1.2163 1.2094 1.2094 1.2071 1.2005 1.1939 1.1895 1.1872 1.183 1.1786 1.1744 1.1744 1.1701 1.166 1.1744 1.1895 1.1939 1.1939 1.1939 1.1983 1.1983 1.1983 1.1983 1.196 1.1916 1.1744 1.1723 1.168 1.168 0 0 0 0 0 0.613 0.6135 0.60162 0.59937 0.59888 0.59713 0.59275 0.59062 0.5885 0.58688 0.58475 0.58325
1.7054 1.7099 1.7144 1.7189 1.7281 1.7328 1.7281 1.7328 1.7328 1.7514 1.7609 1.7609 1.7561 1.7609 1.742 1.7374 1.7374 1.7144 1.6965 1.6876 1.6745 1.6703 1.649 1.649 1.6406 1.6324 1.6284 1.6242 1.6201 1.6201 1.6081 1.6041 1.6041 1.6121 1.6161 1.6201 1.6161 1.6121 1.6121 1.6121 1.6201 1.6201 1.6161 1.6161 1.6161 1.6121 1.6081 1.6002 1.5962 1.5885 1.5769 1.5769 1.573 1.5693 1.5693 1.5617 1.5617 1.5655 1.5655 1.5693 1.5655 1.5655 1.5655 1.5617 1.558 1.5542 1.5505 1.5395 1.5395 1.5357 1.5357 1.5357 1.5321 1.5286 1.525 1.5214 1.5321 1.5286 1.5357 1.5357 1.525 1.525 1.5214 1.5214 1.525 1.5214 1.5214 1.5214 1.5179 1.5179 1.5143 1.5179 1.525 1.525 1.5214 1.525 1.5214 1.5179 1.5179 1.5179 1.5108 1.5072 1.5072 1.5072 1.5072 1.4934 1.49 1.4934 1.4865 1.4865 1.4865 1.49 1.4934 1.4865 1.4797 1.4764 1.473 1.4697 1.4664 1.4565 1.4565 1.4532 1.4467 1.45 1.4404 1.4371 1.434 1.4307 1.434 1.4307 1.4307 1.4307 1.434 1.434 1.434 1.4435 1.4631 1.4631 1.4565 1.4565 1.4598 1.4565 1.4532 1.4467 1.4371 1.434 1.4307 1.4307 1.4245 1.4245 1.4214 1.4152 1.4121 1.4121 1.4121 1.403 1.403 1.403 1.3969 1.3969 1.3939 1.3969 1.3969 1.3969 1.3999 1.3939 1.3909 1.388 1.3909 1.385 1.385 1.382 1.3733 1.3675 1.3646 1.3646 1.3646 1.3646 1.3646 1.3618 1.3646 1.3675 1.3704 1.3733 1.3761 1.3761 1.3761 1.3761 1.3733 1.3761 1.3791 1.3733 1.3733 1.3733 1.3704 1.3733 1.3704 1.3675 1.3675 1.356 1.3504 1.3504 1.3447 1.342 1.3365 1.3337 1.331 1.3256 1.3282 1.3256 1.3256 1.3229 1.3229 1.3229 1.3256 1.3201 1.3201 1.3201 1.3175 1.3175 1.3149 1.3149 1.3149 1.3175 1.3175 1.3175 1.3175 1.3201 1.3175 1.3201 1.3229 1.3201 1.3175 1.3121 1.3149 1.3095 1.3042 1.2939 1.2939 1.2939 1.2964 1.2964 1.2964 1.2964 1.299 1.299 1.3042 1.3069 1.3016 1.299 1.299 1.2913 1.2913 1.2939 1.2888 1.2888 1.2836 1.2811 1.2811 1.271 1.2735 1.2735 1.2636 1.2611 1.2563 1.2514 1.2539 1.2539 1.2514 1.2539 1.2588 1.2636 1.2611 1.2636 1.2636 1.2661 1.2661 1.2685 1.2661 1.2588 1.2563 1.2563 1.2539 1.2563 1.2539 1.2539 1.2563 1.2563 1.2539 1.2539 1.2539 1.2539 1.2466 1.2466 1.2443 1.2443 1.2466 1.2466 1.249 1.2514 1.249 1.2443 1.2419 1.2324 1.2324 1.2301 1.2185 1.2163 1.2163 1.2116 1.2208 1.2163 1.2163 1.2231 1.2185 1.2185 1.2185 1.214 1.2071 1.196 1.1895 1.1872 1.1872 1.1765 1.1744 1.1744 1.1701 1.168 1.1744 1.1916 1.1939 1.1939 1.1939 1.196 1.1983 1.1983 1.1983 1.196 1.1916 1.1723 1.1701 1.1701 1.1701 0 0 0 0 0 0 0 0.601 0.59988 0.59825 0.59713 0.59275 0.59113 0.589 0.58688 0.58525 0.58375
1.7054 1.7189 1.7235 1.7235 1.7281 1.7374 1.7328 1.7328 1.7374 1.7514 1.7561 1.7609 1.7561 1.7561 1.7466 1.7466 1.7466 1.7189 1.7009 1.692 1.6745 1.6745 1.6533 1.649 1.6406 1.6324 1.6324 1.6284 1.6284 1.6284 1.6201 1.6121 1.6121 1.6201 1.6284 1.6242 1.6161 1.6121 1.6121 1.6121 1.6121 1.6161 1.6161 1.6121 1.6161 1.6081 1.6081 1.6041 1.6002 1.5924 1.5808 1.5769 1.573 1.5655 1.5617 1.5617 1.5542 1.5542 1.5617 1.5693 1.5693 1.5617 1.558 1.558 1.5542 1.5542 1.5505 1.5395 1.5357 1.5357 1.5357 1.5357 1.5321 1.5321 1.5286 1.525 1.5357 1.5321 1.5357 1.5357 1.5357 1.5321 1.5286 1.5286 1.5321 1.5321 1.5286 1.5286 1.5286 1.525 1.525 1.525 1.525 1.5286 1.5214 1.5214 1.5214 1.5214 1.5179 1.5179 1.5143 1.5143 1.5108 1.5108 1.5143 1.5003 1.5003 1.5003 1.4934 1.4969 1.4969 1.49 1.49 1.4831 1.4797 1.4764 1.4697 1.4664 1.4664 1.4631 1.4565 1.4565 1.4532 1.4565 1.4467 1.4467 1.4467 1.4435 1.4435 1.4435 1.4371 1.4371 1.434 1.434 1.434 1.4435 1.4565 1.4565 1.4565 1.4565 1.4565 1.4598 1.4598 1.4532 1.4467 1.4435 1.434 1.434 1.4276 1.4276 1.4245 1.4183 1.4152 1.409 1.409 1.403 1.403 1.403 1.3999 1.3969 1.3969 1.3969 1.3999 1.3999 1.3999 1.3969 1.3909 1.388 1.388 1.385 1.3791 1.3761 1.3704 1.3646 1.3618 1.3618 1.3618 1.3646 1.3618 1.3589 1.3646 1.3675 1.3704 1.3733 1.3733 1.3733 1.3791 1.3761 1.3733 1.3761 1.3761 1.3761 1.3733 1.3761 1.3761 1.3733 1.3733 1.3733 1.3704 1.3618 1.3589 1.3589 1.3476 1.3447 1.3337 1.3365 1.3337 1.3282 1.3256 1.3256 1.3256 1.3201 1.3201 1.3201 1.3229 1.3201 1.3175 1.3175 1.3201 1.3175 1.3175 1.3149 1.3175 1.3175 1.3175 1.3175 1.3175 1.3229 1.3229 1.3229 1.3256 1.3229 1.3201 1.3175 1.3175 1.3121 1.3095 1.2964 1.2964 1.2964 1.2964 1.299 1.3016 1.299 1.3016 1.3016 1.3016 1.3042 1.3016 1.299 1.2964 1.2939 1.2913 1.2913 1.2861 1.2888 1.2861 1.2811 1.2811 1.2735 1.2735 1.271 1.2685 1.2636 1.2588 1.2563 1.2539 1.2539 1.2539 1.2563 1.2588 1.2636 1.2636 1.2661 1.2661 1.2661 1.2685 1.2685 1.2661 1.2611 1.2588 1.2563 1.2588 1.2588 1.2539 1.2539 1.2563 1.2539 1.2514 1.2514 1.2514 1.2514 1.2419 1.2419 1.2443 1.2466 1.2466 1.2466 1.2466 1.2514 1.249 1.2419 1.2395 1.2324 1.2301 1.2254 1.2208 1.2163 1.2163 1.2163 1.2185 1.2185 1.2163 1.2254 1.2254 1.2231 1.2231 1.214 1.2071 1.196 1.1895 1.1872 1.1872 1.1807 1.1765 1.1765 1.1723 1.1723 1.1786 1.196 1.1983 1.196 1.196 1.1983 1.1983 1.2005 1.2005 1.1983 1.1939 1.1701 1.168 1.1639 1.1701 0 0 0 0 0 0 0 0.60162 0.59888 0.59825 0.59713 0.59388 0.59175 0.58962 0.588 0.58637 0.58425
1.7144 1.7144 1.7189 1.7235 1.7281 1.7374 1.7374 1.7328 1.7374 1.7561 1.7561 1.7561 1.7561 1.7561 1.7514 1.7466 1.742 1.7189 1.6965 1.6832 1.6745 1.6745 1.649 1.6449 1.6449 1.6324 1.6324 1.6324 1.6324 1.6324 1.6242 1.6161 1.6201 1.6242 1.6365 1.6324 1.6201 1.6161 1.6121 1.6121 1.6161 1.6161 1.6121 1.6161 1.6161 1.6081 1.6081 1.6041 1.6002 1.5924 1.5808 1.573 1.5693 1.5655 1.5617 1.558 1.5542 1.5542 1.558 1.5693 1.5693 1.558 1.558 1.5542 1.5542 1.5505 1.5468 1.5395 1.5357 1.5321 1.5357 1.5357 1.5321 1.5321 1.5321 1.5286 1.5357 1.5357 1.5357 1.5357 1.5321 1.5321 1.5286 1.5286 1.5321 1.5321 1.5321 1.5286 1.5286 1.5286 1.5286 1.525 1.5321 1.5286 1.525 1.525 1.525 1.5179 1.5179 1.5179 1.5214 1.5179 1.5179 1.5179 1.5143 1.5072 1.5037 1.5003 1.5003 1.4969 1.4934 1.49 1.49 1.4797 1.4764 1.473 1.4664 1.4664 1.4631 1.4631 1.4598 1.4565 1.4565 1.4598 1.45 1.45 1.45 1.4467 1.4467 1.4467 1.4404 1.4371 1.4371 1.4307 1.434 1.4371 1.4532 1.4532 1.45 1.4565 1.4565 1.4565 1.4598 1.4565 1.45 1.4435 1.4371 1.434 1.4307 1.4276 1.4245 1.4214 1.4121 1.409 1.409 1.403 1.3999 1.403 1.3999 1.3999 1.3969 1.3969 1.3969 1.3999 1.3969 1.3969 1.3909 1.385 1.388 1.382 1.3791 1.3733 1.3675 1.3646 1.3618 1.3646 1.3646 1.3646 1.3618 1.3618 1.3618 1.3675 1.3704 1.3704 1.3733 1.3761 1.3761 1.3733 1.3761 1.3761 1.3761 1.3761 1.3761 1.3761 1.3761 1.3733 1.3733 1.3733 1.3704 1.3675 1.3618 1.3618 1.3533 1.3476 1.3365 1.3365 1.3365 1.3256 1.3256 1.3256 1.3229 1.3229 1.3201 1.3201 1.3256 1.3201 1.3201 1.3175 1.3175 1.3175 1.3149 1.3149 1.3175 1.3175 1.3175 1.3175 1.3175 1.3229 1.3256 1.3256 1.3256 1.3256 1.3229 1.3175 1.3201 1.3149 1.3121 1.299 1.3016 1.299 1.299 1.299 1.3016 1.3016 1.3016 1.3016 1.3042 1.3042 1.3016 1.299 1.2964 1.2913 1.2913 1.2913 1.2861 1.2861 1.2836 1.2811 1.276 1.276 1.2735 1.271 1.2685 1.2661 1.2611 1.2563 1.2539 1.2563 1.2563 1.2588 1.2588 1.2636 1.2636 1.2661 1.2661 1.2661 1.2685 1.2685 1.2661 1.2588 1.2588 1.2539 1.2563 1.2563 1.2514 1.2514 1.2539 1.249 1.249 1.249 1.249 1.2514 1.2395 1.2419 1.2443 1.2443 1.2443 1.2443 1.2466 1.249 1.249 1.2371 1.2348 1.2348 1.2277 1.2254 1.2208 1.2185 1.2185 1.2185 1.2208 1.2185 1.2185 1.2277 1.2208 1.2185 1.214 1.2071 1.2005 1.196 1.1895 1.1895 1.1872 1.1807 1.1807 1.1786 1.1765 1.1765 1.183 1.1983 1.2027 1.1983 1.1983 1.1983 1.2005 1.2005 1.2005 1.196 1.1916 1.1701 1.166 1.1598 1.1598 1.168 1.1701 1.168 0 0 0 0 0.601 0.59888 0.59825 0.59662 0.59388 0.59175 0.59013 0.5885 0.58688 0.58475
1.7054 1.7099 1.7144 1.7144 1.7189 1.7235 1.7235 1.7235 1.7328 1.7466 1.7561 1.7561 1.7561 1.7561 1.7514 1.7514 1.7466 1.7144 1.692 1.6832 1.6703 1.6703 1.6449 1.6406 1.6406 1.6324 1.6324 1.6324 1.6324 1.6324 1.6242 1.6081 1.6121 1.6201 1.6324 1.6242 1.6201 1.6161 1.6121 1.6081 1.6161 1.6161 1.6121 1.6121 1.6121 1.6081 1.6081 1.6002 1.5962 1.5885 1.5769 1.573 1.5655 1.5617 1.558 1.558 1.5542 1.5542 1.5617 1.5655 1.5655 1.558 1.558 1.5542 1.5542 1.5468 1.5468 1.5395 1.5395 1.5321 1.5321 1.5357 1.5321 1.5286 1.5286 1.525 1.5357 1.5357 1.5357 1.5395 1.5321 1.5321 1.5286 1.5286 1.5357 1.5357 1.5321 1.5321 1.5321 1.5321 1.5286 1.5286 1.5286 1.5286 1.525 1.5214 1.525 1.5179 1.5179 1.5179 1.5179 1.5214 1.5214 1.5179 1.5179 1.5072 1.5072 1.5037 1.5003 1.4969 1.4969 1.49 1.4865 1.4764 1.473 1.4664 1.4631 1.4631 1.4598 1.4631 1.4598 1.4598 1.4598 1.4598 1.45 1.4467 1.4467 1.4467 1.4467 1.4467 1.4404 1.4371 1.434 1.4276 1.4307 1.4307 1.4404 1.4435 1.4467 1.4532 1.4532 1.4565 1.4598 1.4565 1.4532 1.4467 1.4404 1.434 1.4307 1.4307 1.4276 1.4214 1.4121 1.4121 1.409 1.406 1.403 1.403 1.3999 1.3969 1.3969 1.3969 1.3999 1.3969 1.3969 1.3969 1.3909 1.388 1.388 1.382 1.382 1.3761 1.3704 1.3675 1.3646 1.3646 1.3646 1.3646 1.3618 1.3618 1.3646 1.3675 1.3675 1.3733 1.3733 1.3761 1.3791 1.3761 1.3733 1.3761 1.3761 1.3761 1.3761 1.3791 1.3791 1.3761 1.3761 1.3761 1.3733 1.3704 1.3646 1.3646 1.3533 1.3476 1.3365 1.3337 1.3365 1.3282 1.3282 1.3256 1.3256 1.3229 1.3201 1.3229 1.3229 1.3201 1.3201 1.3201 1.3175 1.3149 1.3149 1.3149 1.3175 1.3175 1.3175 1.3175 1.3201 1.3256 1.3256 1.3256 1.3256 1.3229 1.3201 1.3201 1.3175 1.3175 1.3121 1.3016 1.299 1.299 1.3016 1.299 1.3042 1.3042 1.3042 1.3016 1.3042 1.3042 1.3042 1.3016 1.299 1.2913 1.2888 1.2861 1.2811 1.2811 1.2785 1.276 1.2735 1.271 1.271 1.271 1.2661 1.2636 1.2611 1.2563 1.2563 1.2563 1.2539 1.2539 1.2563 1.2588 1.2611 1.2636 1.2661 1.2685 1.2661 1.2661 1.2636 1.2563 1.2563 1.2514 1.2514 1.249 1.2443 1.2443 1.2466 1.2419 1.2395 1.2395 1.2395 1.2419 1.2395 1.2371 1.2348 1.2395 1.2443 1.2443 1.2466 1.2466 1.2466 1.2371 1.2348 1.2324 1.2277 1.2277 1.2231 1.2208 1.2208 1.2185 1.2208 1.2208 1.2208 1.2254 1.2208 1.214 1.2116 1.2071 1.2005 1.1939 1.1872 1.1851 1.1872 1.1851 1.1851 1.1851 1.183 1.183 1.1895 1.1983 1.2027 1.2005 1.2005 1.2005 1.2005 1.2005 1.2005 1.196 1.1916 1.1765 1.168 1.1576 1.1639 1.168 1.1701 1.168 0 0 0 0 0.60162 0.59825 0.59888 0.59662 0.59337 0.59175 0.59113 0.589 0.5885 0.58688
1.7009 1.7099 1.7144 1.7099 1.7144 1.7235 1.7235 1.7281 1.7328 1.7514 1.7561 1.7561 1.7609 1.7609 1.7561 1.7514 1.7514 1.7235 1.7054 1.6876 1.666 1.666 1.6449 1.6406 1.6406 1.6365 1.6324 1.6324 1.6324 1.6365 1.6242 1.6161 1.6161 1.6284 1.6365 1.6324 1.6242 1.6201 1.6161 1.6161 1.6201 1.6201 1.6121 1.6121 1.6081 1.6081 1.6041 1.6002 1.5962 1.5885 1.5769 1.5693 1.5655 1.5617 1.5617 1.5617 1.558 1.5617 1.5655 1.5655 1.5655 1.558 1.558 1.558 1.5542 1.5468 1.5505 1.5395 1.5395 1.5357 1.5357 1.5357 1.5357 1.5357 1.5286 1.5286 1.5395 1.5357 1.5395 1.5395 1.5357 1.5321 1.5321 1.5286 1.5357 1.5321 1.5357 1.5357 1.5357 1.5357 1.5321 1.5286 1.5286 1.5286 1.5286 1.5286 1.525 1.5179 1.5179 1.5179 1.5143 1.5179 1.5179 1.5179 1.5143 1.5072 1.5072 1.5072 1.5003 1.5003 1.4969 1.4934 1.4865 1.473 1.4697 1.4664 1.4631 1.4631 1.4631 1.4664 1.4631 1.4631 1.4631 1.4598 1.4532 1.45 1.45 1.4467 1.45 1.4467 1.4435 1.4404 1.434 1.4307 1.434 1.4371 1.4404 1.4435 1.4467 1.4532 1.4532 1.4565 1.4631 1.4598 1.4565 1.45 1.4435 1.4404 1.4371 1.434 1.4307 1.4245 1.4152 1.4152 1.4121 1.406 1.406 1.406 1.403 1.3999 1.3999 1.3999 1.3999 1.3999 1.3999 1.3999 1.3969 1.3939 1.3939 1.388 1.385 1.382 1.3791 1.3733 1.3704 1.3704 1.3675 1.3675 1.3646 1.3646 1.3704 1.3733 1.3733 1.3733 1.3733 1.3761 1.3791 1.3761 1.3733 1.3791 1.3761 1.3791 1.3791 1.3791 1.382 1.382 1.3791 1.382 1.3791 1.3733 1.3704 1.3675 1.356 1.3504 1.3365 1.3337 1.3337 1.3282 1.331 1.331 1.3256 1.3256 1.3229 1.3256 1.3229 1.3201 1.3175 1.3175 1.3149 1.3175 1.3149 1.3149 1.3175 1.3175 1.3201 1.3229 1.3256 1.331 1.331 1.3282 1.3282 1.3256 1.3256 1.3229 1.3229 1.3175 1.3121 1.3016 1.299 1.299 1.3016 1.3016 1.3042 1.3042 1.3095 1.3069 1.3069 1.3069 1.3095 1.3069 1.3016 1.2939 1.2888 1.2861 1.2811 1.2785 1.2785 1.276 1.271 1.271 1.271 1.271 1.2685 1.2636 1.2636 1.2563 1.2588 1.2563 1.2563 1.2539 1.2563 1.2588 1.2611 1.2611 1.2661 1.2661 1.2685 1.2685 1.2661 1.2588 1.2563 1.2539 1.2514 1.2514 1.2419 1.2395 1.2443 1.2395 1.2419 1.2395 1.2371 1.2395 1.2419 1.2371 1.2395 1.2395 1.2466 1.2466 1.2466 1.249 1.2466 1.2371 1.2348 1.2348 1.2277 1.2277 1.2231 1.2208 1.2208 1.2208 1.2231 1.2254 1.2254 1.2277 1.2254 1.2163 1.214 1.2094 1.2049 1.1983 1.1895 1.1895 1.1872 1.1895 1.1916 1.196 1.196 1.196 1.1983 1.2027 1.2049 1.2049 1.2049 1.2027 1.2027 1.2049 1.2049 1.2005 1.196 1.1939 1.1872 1.1786 1.1701 1.1744 0 0 0 0 0 0 0 0.61762 0.61762 0.601 0.59225 0.59275 0.59225 0.59113 0.59013 0.589
1.7009 1.7144 1.7144 1.7099 1.7099 1.7189 1.7235 1.7281 1.7374 1.7514 1.7561 1.7561 1.7657 1.7657 1.7657 1.7657 1.7657 1.7374 1.7235 1.6965 1.6703 1.666 1.6449 1.6406 1.6449 1.6365 1.6324 1.6284 1.6284 1.6365 1.6242 1.6201 1.6284 1.6324 1.6406 1.6324 1.6284 1.6284 1.6201 1.6201 1.6242 1.6201 1.6161 1.6121 1.6081 1.6081 1.6041 1.6002 1.5924 1.5846 1.5769 1.573 1.5693 1.5617 1.5617 1.5617 1.558 1.558 1.5617 1.5655 1.5617 1.558 1.558 1.5617 1.5542 1.5505 1.5505 1.5431 1.5431 1.5357 1.5395 1.5395 1.5395 1.5357 1.5357 1.5321 1.5431 1.5395 1.5395 1.5431 1.5395 1.5357 1.5321 1.5321 1.5357 1.5321 1.5357 1.5357 1.5395 1.5357 1.5357 1.5286 1.5286 1.5286 1.525 1.525 1.5214 1.5179 1.5143 1.5143 1.5108 1.5179 1.5143 1.5108 1.5108 1.5037 1.5003 1.5003 1.5003 1.5003 1.4969 1.49 1.4831 1.4697 1.4664 1.4664 1.4631 1.4664 1.4697 1.4697 1.4697 1.4664 1.4664 1.4631 1.4565 1.4565 1.4532 1.4532 1.4467 1.4435 1.4435 1.4404 1.4371 1.434 1.4371 1.4371 1.4467 1.4467 1.45 1.4532 1.4565 1.4565 1.4664 1.4664 1.4565 1.4532 1.4435 1.4404 1.4404 1.4371 1.434 1.4276 1.4183 1.4152 1.4121 1.409 1.406 1.406 1.403 1.406 1.3999 1.3999 1.3999 1.3999 1.403 1.3999 1.3999 1.3969 1.3939 1.3909 1.388 1.385 1.382 1.3791 1.3733 1.3733 1.3733 1.3704 1.3704 1.3704 1.3761 1.3761 1.3761 1.3791 1.3791 1.3791 1.3791 1.3761 1.3761 1.3791 1.3791 1.3761 1.3791 1.3791 1.382 1.382 1.382 1.382 1.382 1.3733 1.3704 1.3675 1.356 1.3504 1.3365 1.3337 1.3337 1.331 1.3282 1.3282 1.3282 1.3256 1.3229 1.3229 1.3229 1.3175 1.3149 1.3175 1.3149 1.3175 1.3149 1.3149 1.3149 1.3175 1.3201 1.3229 1.331 1.3365 1.3337 1.3282 1.331 1.3282 1.3256 1.3256 1.3229 1.3175 1.3121 1.299 1.299 1.299 1.299 1.3042 1.3042 1.3042 1.3069 1.3042 1.3095 1.3095 1.3095 1.3095 1.3042 1.2939 1.2888 1.2836 1.2811 1.2811 1.2785 1.2735 1.271 1.2685 1.271 1.271 1.2661 1.2661 1.2661 1.2588 1.2588 1.2588 1.2563 1.2563 1.2563 1.2588 1.2611 1.2611 1.2661 1.2685 1.2685 1.2661 1.2636 1.2611 1.2611 1.2539 1.2514 1.2514 1.2395 1.2395 1.2419 1.2395 1.2395 1.2371 1.2395 1.2395 1.2395 1.2419 1.2419 1.2443 1.2466 1.2466 1.249 1.2466 1.2443 1.2395 1.2348 1.2324 1.2301 1.2301 1.2231 1.2208 1.2208 1.2208 1.2231 1.2254 1.2277 1.2277 1.2254 1.2208 1.2185 1.214 1.2094 1.2049 1.1939 1.1939 1.1916 1.1916 1.196 1.196 1.1983 1.1983 1.1983 1.2027 1.2049 1.2071 1.2049 1.2049 1.2049 1.2071 1.2071 1.2027 1.2005 1.1895 1.1872 1.1807 1.1807 0 0 0 0 0 0 0 0.60662 0.60725 0.6095 0.60162 0.5955 0.59437 0.59337 0.59225 0.59113 0.59013
1.692 1.7054 1.7099 1.7099 1.7099 1.7189 1.7235 1.7328 1.7374 1.7514 1.7561 1.7561 1.7657 1.7657 1.7705 1.7705 1.7705 1.742 1.7144 1.6876 1.6703 1.6703 1.6406 1.6406 1.6406 1.6365 1.6324 1.6324 1.6284 1.6324 1.6324 1.6284 1.6324 1.6406 1.6406 1.6365 1.6324 1.6324 1.6284 1.6284 1.6242 1.6242 1.6121 1.6121 1.6121 1.6081 1.6081 1.6002 1.5962 1.5885 1.5769 1.5769 1.573 1.5617 1.558 1.558 1.558 1.558 1.5617 1.5617 1.558 1.558 1.558 1.5617 1.558 1.5505 1.5505 1.5468 1.5431 1.5395 1.5395 1.5431 1.5431 1.5395 1.5357 1.5357 1.5395 1.5395 1.5395 1.5395 1.5357 1.5395 1.5321 1.5321 1.5395 1.5321 1.5357 1.5357 1.5395 1.5395 1.5357 1.5286 1.5286 1.525 1.525 1.525 1.525 1.5143 1.5108 1.5108 1.5072 1.5072 1.5108 1.5108 1.5072 1.4969 1.4969 1.4969 1.4934 1.4934 1.49 1.4865 1.4831 1.4664 1.4631 1.4631 1.4598 1.4598 1.4631 1.4664 1.4664 1.4664 1.4598 1.4565 1.4532 1.4532 1.4565 1.4532 1.4467 1.4467 1.4404 1.4404 1.4371 1.4371 1.4404 1.4404 1.4467 1.4467 1.4467 1.45 1.4532 1.4532 1.4532 1.4565 1.45 1.45 1.4371 1.434 1.4371 1.4371 1.4307 1.4276 1.4152 1.4121 1.4121 1.406 1.406 1.406 1.403 1.406 1.403 1.403 1.3999 1.3999 1.403 1.3999 1.3999 1.3969 1.3969 1.3939 1.388 1.388 1.385 1.382 1.3791 1.3761 1.3761 1.3761 1.3791 1.3761 1.382 1.382 1.3791 1.3791 1.3791 1.3791 1.3791 1.3791 1.3761 1.3761 1.3791 1.3791 1.3791 1.3791 1.382 1.3791 1.382 1.382 1.3791 1.3761 1.3704 1.3675 1.3589 1.3504 1.3365 1.331 1.331 1.3282 1.3282 1.3256 1.3229 1.3201 1.3175 1.3201 1.3201 1.3175 1.3149 1.3149 1.3121 1.3149 1.3149 1.3121 1.3175 1.3149 1.3201 1.3256 1.3337 1.342 1.3365 1.331 1.3282 1.3282 1.3256 1.3256 1.3256 1.3149 1.3095 1.299 1.299 1.299 1.299 1.3016 1.3042 1.3042 1.3069 1.3042 1.3095 1.3149 1.3121 1.3095 1.3042 1.2939 1.2888 1.2861 1.2811 1.2811 1.2785 1.2735 1.2735 1.2685 1.271 1.2685 1.2685 1.2661 1.2661 1.2588 1.2611 1.2588 1.2563 1.2563 1.2563 1.2563 1.2563 1.2611 1.2636 1.2661 1.2661 1.2661 1.2636 1.2611 1.2588 1.2563 1.2514 1.249 1.2371 1.2371 1.2371 1.2371 1.2395 1.2371 1.2371 1.2395 1.2395 1.2395 1.2419 1.2443 1.2466 1.2466 1.2466 1.2466 1.2443 1.2395 1.2371 1.2324 1.2301 1.2277 1.2185 1.2185 1.2185 1.2185 1.2231 1.2254 1.2324 1.2301 1.2277 1.2231 1.2185 1.2185 1.214 1.2071 1.1983 1.1939 1.1916 1.1895 1.1983 1.1983 1.1983 1.1983 1.2005 1.2049 1.2071 1.2094 1.2071 1.2094 1.2071 1.2094 1.2094 1.2049 1.2027 1.1916 1.1872 1.183 1.1807 0 0 0 0 0 0 0 0.60613 0.60662 0.605 0.60275 0.59713 0.5955 0.59388 0.59275 0.59175 0.59113
1.6876 1.7009 1.7054 1.7099 1.7099 1.7144 1.7235 1.7328 1.742 1.7514 1.7561 1.7561 1.7657 1.7657 1.7705 1.7754 1.7754 1.7328 1.7054 1.6876 1.6703 1.666 1.6406 1.6406 1.6406 1.6365 1.6324 1.6284 1.6284 1.6324 1.6365 1.6449 1.6449 1.649 1.649 1.6406 1.6406 1.6365 1.6406 1.6324 1.6284 1.6242 1.6201 1.6121 1.6161 1.6121 1.6121 1.6121 1.6081 1.6041 1.5924 1.5846 1.5769 1.5655 1.5617 1.5617 1.558 1.558 1.5617 1.558 1.5617 1.558 1.558 1.5617 1.5617 1.558 1.5542 1.5542 1.5468 1.5468 1.5468 1.5468 1.5468 1.5468 1.5431 1.5431 1.5431 1.5431 1.5395 1.5395 1.5395 1.5395 1.5357 1.5357 1.5395 1.5357 1.5357 1.5357 1.5395 1.5395 1.5357 1.5286 1.525 1.5214 1.5214 1.525 1.525 1.5143 1.5108 1.5072 1.5072 1.5072 1.5072 1.5072 1.5072 1.4934 1.4934 1.4969 1.4934 1.4934 1.49 1.4865 1.4831 1.4664 1.4631 1.4664 1.4598 1.4598 1.4631 1.4631 1.4631 1.4631 1.4598 1.4565 1.45 1.4532 1.4565 1.4565 1.45 1.4467 1.4404 1.4435 1.4435 1.4435 1.4467 1.4467 1.4467 1.45 1.4467 1.45 1.4532 1.45 1.45 1.4532 1.4467 1.4467 1.4371 1.434 1.434 1.434 1.4276 1.4245 1.4152 1.409 1.409 1.406 1.409 1.409 1.406 1.406 1.403 1.403 1.3999 1.3999 1.406 1.403 1.403 1.3999 1.3999 1.3969 1.3939 1.3969 1.3939 1.3939 1.388 1.388 1.3909 1.388 1.3999 1.3939 1.3909 1.3909 1.385 1.385 1.382 1.3791 1.382 1.3791 1.3761 1.3733 1.3761 1.3761 1.3791 1.382 1.382 1.382 1.382 1.382 1.382 1.3761 1.3704 1.3675 1.3589 1.3504 1.3365 1.3337 1.331 1.3282 1.3282 1.3282 1.3201 1.3201 1.3175 1.3229 1.3229 1.3201 1.3175 1.3149 1.3149 1.3149 1.3175 1.3175 1.3149 1.3175 1.3256 1.331 1.3365 1.342 1.3393 1.3337 1.3337 1.3282 1.3256 1.3256 1.3256 1.3149 1.3095 1.3042 1.3016 1.3016 1.3016 1.3042 1.3069 1.3069 1.3069 1.3069 1.3095 1.3149 1.3149 1.3095 1.3042 1.2964 1.2913 1.2888 1.2836 1.2836 1.2836 1.2785 1.276 1.2735 1.276 1.2735 1.2735 1.2735 1.271 1.2636 1.2636 1.2611 1.2588 1.2588 1.2563 1.2588 1.2563 1.2588 1.2611 1.2636 1.2636 1.2636 1.2636 1.2588 1.2588 1.2563 1.2539 1.249 1.2371 1.2371 1.2371 1.2371 1.2395 1.2371 1.2371 1.2395 1.2395 1.2395 1.2443 1.2466 1.2466 1.2466 1.2443 1.2443 1.2395 1.2371 1.2371 1.2324 1.2277 1.2277 1.2185 1.2185 1.2185 1.2185 1.2254 1.2301 1.2371 1.2371 1.2301 1.2301 1.2254 1.2185 1.2163 1.2094 1.2005 1.1939 1.1939 1.1916 1.2027 1.2049 1.2071 1.2071 1.2094 1.214 1.214 1.2163 1.2185 1.2163 1.214 1.2163 1.2163 1.2116 1.2071 1.2005 1.1939 1.1872 1.1851 0 0 0 0 0 0 0 0.60662 0.605 0.60388 0.60162 0.59775 0.59613 0.595 0.59388 0.59275 0.59225
1.6876 1.6965 1.7009 1.7054 1.7144 1.7144 1.7189 1.7374 1.742 1.7514 1.7561 1.7561 1.7561 1.7657 1.7657 1.7705 1.7705 1.7328 1.7054 1.692 1.6703 1.666 1.6365 1.6365 1.6324 1.6284 1.6284 1.6242 1.6201 1.6284 1.6324 1.6406 1.6449 1.649 1.6449 1.6406 1.6365 1.6365 1.6406 1.6324 1.6284 1.6242 1.6201 1.6161 1.6161 1.6121 1.6121 1.6081 1.6081 1.6002 1.5924 1.5846 1.573 1.5655 1.5617 1.558 1.558 1.558 1.5617 1.558 1.558 1.5617 1.5617 1.5617 1.5617 1.558 1.558 1.5542 1.5468 1.5468 1.5505 1.5505 1.5505 1.5468 1.5468 1.5431 1.5468 1.5395 1.5395 1.5395 1.5395 1.5357 1.5357 1.5357 1.5395 1.5357 1.5321 1.5357 1.5357 1.5395 1.5357 1.525 1.525 1.5214 1.5214 1.525 1.525 1.5179 1.5143 1.5143 1.5072 1.5072 1.5072 1.5108 1.5072 1.4969 1.4969 1.4969 1.4934 1.4934 1.49 1.4865 1.4831 1.4697 1.4664 1.4664 1.4664 1.4631 1.4631 1.4631 1.4631 1.4631 1.4565 1.4532 1.4467 1.45 1.4532 1.45 1.45 1.4435 1.4404 1.4435 1.4435 1.4467 1.45 1.4467 1.4467 1.45 1.4467 1.45 1.45 1.45 1.45 1.45 1.45 1.4467 1.4371 1.434 1.434 1.4307 1.4276 1.4214 1.4121 1.409 1.409 1.406 1.406 1.406 1.409 1.409 1.403 1.403 1.403 1.403 1.406 1.403 1.406 1.403 1.403 1.3969 1.3969 1.3969 1.3969 1.3939 1.3939 1.388 1.3909 1.3909 1.3999 1.3969 1.3909 1.3939 1.385 1.382 1.382 1.3791 1.3791 1.3761 1.3761 1.3733 1.3733 1.3733 1.3733 1.3761 1.3791 1.3791 1.3791 1.3791 1.3761 1.3733 1.3675 1.3675 1.3589 1.3533 1.3337 1.3337 1.331 1.3282 1.3282 1.3282 1.3256 1.3256 1.3229 1.3229 1.3229 1.3201 1.3201 1.3175 1.3175 1.3175 1.3149 1.3175 1.3175 1.3175 1.3256 1.331 1.3393 1.342 1.342 1.3337 1.3337 1.331 1.3256 1.3229 1.3256 1.3175 1.3121 1.3042 1.3042 1.3042 1.3042 1.3069 1.3121 1.3095 1.3095 1.3069 1.3095 1.3149 1.3121 1.3095 1.3016 1.2964 1.2939 1.2913 1.2861 1.2861 1.2836 1.2836 1.2785 1.2785 1.2785 1.276 1.276 1.276 1.2735 1.2661 1.2661 1.2661 1.2611 1.2611 1.2588 1.2588 1.2563 1.2563 1.2588 1.2611 1.2611 1.2611 1.2588 1.2588 1.2588 1.2563 1.2514 1.2514 1.2419 1.2395 1.2419 1.2395 1.2395 1.2395 1.2395 1.2395 1.2419 1.2395 1.2419 1.2443 1.2466 1.2443 1.2419 1.2419 1.2395 1.2301 1.2254 1.2231 1.2231 1.2231 1.2231 1.2208 1.2231 1.2231 1.2301 1.2301 1.2371 1.2371 1.2301 1.2254 1.2231 1.2163 1.214 1.2094 1.196 1.1916 1.1939 1.196 1.2071 1.2094 1.2163 1.2185 1.2208 1.2231 1.2231 1.2254 1.2254 1.2231 1.2185 1.2208 1.2163 1.214 1.2116 1.2005 1.1939 1.1895 1.1895 0 0 0 0 0 0 0 0.60275 0.60388 0.60275 0.601 0.59825 0.59662 0.59613 0.59437 0.59388 0.59275
1.6832 1.6965 1.7009 1.7009 1.7144 1.7144 1.7189 1.7374 1.7466 1.7466 1.7466 1.7466 1.7466 1.7514 1.7514 1.7466 1.742 1.7189 1.7009 1.692 1.6745 1.666 1.6365 1.6324 1.6324 1.6201 1.6161 1.6161 1.6161 1.6201 1.6284 1.6365 1.6449 1.6449 1.6449 1.6406 1.6365 1.6365 1.6365 1.6284 1.6242 1.6242 1.6201 1.6201 1.6201 1.6081 1.6081 1.6041 1.6041 1.6002 1.5885 1.5808 1.573 1.5617 1.5617 1.558 1.558 1.558 1.558 1.558 1.5505 1.5505 1.558 1.5542 1.5505 1.5468 1.5468 1.5431 1.5431 1.5395 1.5468 1.5468 1.5468 1.5431 1.5468 1.5468 1.5468 1.5431 1.5357 1.5357 1.5321 1.5286 1.5286 1.525 1.525 1.5214 1.5179 1.5286 1.5286 1.5321 1.5321 1.525 1.5214 1.525 1.525 1.525 1.5286 1.5179 1.5143 1.5143 1.5108 1.5108 1.5108 1.5072 1.5108 1.4969 1.4969 1.4969 1.4969 1.4934 1.4934 1.4865 1.4831 1.4697 1.4697 1.4664 1.4664 1.4631 1.4631 1.4631 1.4664 1.4598 1.4532 1.45 1.4435 1.4435 1.4467 1.4404 1.4371 1.4371 1.434 1.4371 1.4404 1.4404 1.4435 1.4435 1.4467 1.45 1.4435 1.4467 1.4467 1.4467 1.45 1.45 1.4467 1.4467 1.434 1.4307 1.4307 1.4276 1.4245 1.4214 1.4121 1.409 1.406 1.406 1.406 1.406 1.406 1.406 1.403 1.406 1.403 1.403 1.406 1.406 1.406 1.406 1.403 1.403 1.3999 1.3999 1.3999 1.3969 1.3939 1.3939 1.3939 1.3909 1.3969 1.3969 1.3939 1.3939 1.388 1.385 1.382 1.3791 1.3761 1.3761 1.3733 1.3733 1.3704 1.3733 1.3733 1.3733 1.3761 1.3761 1.3733 1.3733 1.3733 1.3704 1.3675 1.3618 1.356 1.3504 1.3365 1.3365 1.3337 1.3282 1.3282 1.3282 1.3256 1.3282 1.3282 1.3256 1.3229 1.3229 1.3229 1.3201 1.3175 1.3175 1.3175 1.3175 1.3175 1.3175 1.3282 1.3337 1.3365 1.3393 1.342 1.3337 1.331 1.3282 1.3256 1.3256 1.3256 1.3175 1.3149 1.3069 1.3042 1.3042 1.3069 1.3069 1.3121 1.3121 1.3095 1.3069 1.3095 1.3121 1.3121 1.3069 1.3016 1.2964 1.2939 1.2913 1.2888 1.2888 1.2888 1.2861 1.2836 1.2811 1.2811 1.2811 1.2785 1.2811 1.2785 1.2685 1.2685 1.2661 1.2636 1.2636 1.2588 1.2588 1.2563 1.2539 1.2514 1.2539 1.2539 1.2539 1.2514 1.2563 1.2588 1.2563 1.2563 1.2514 1.2466 1.2443 1.2419 1.2419 1.2443 1.2419 1.2395 1.2419 1.2395 1.2419 1.2419 1.2419 1.2419 1.2419 1.2348 1.2324 1.2301 1.2208 1.2185 1.2185 1.2185 1.2185 1.2208 1.2231 1.2254 1.2254 1.2324 1.2324 1.2324 1.2324 1.2208 1.2185 1.214 1.2094 1.2049 1.2005 1.1895 1.1872 1.1939 1.196 1.2116 1.214 1.2231 1.2277 1.2277 1.2348 1.2348 1.2324 1.2324 1.2277 1.2231 1.2231 1.2208 1.2163 1.2163 1.2027 1.2005 1.1872 1.1895 0 0 0 0 0 0.601 0.601 0.601 0.60275 0.60162 0.601 0.59825 0.59825 0.59662 0.5955 0.59437 0.59388
1.6745 1.6965 1.7009 1.7009 1.7099 1.7144 1.7189 1.742 1.7466 1.742 1.742 1.7374 1.742 1.742 1.742 1.7374 1.7328 1.7099 1.7009 1.6876 1.6745 1.666 1.6449 1.6365 1.6284 1.6201 1.6161 1.6121 1.6121 1.6201 1.6242 1.6365 1.6406 1.6406 1.6449 1.6406 1.6406 1.6365 1.6406 1.6284 1.6201 1.6242 1.6242 1.6201 1.6161 1.6121 1.6041 1.6041 1.6002 1.6002 1.5885 1.5808 1.573 1.5617 1.5617 1.5617 1.558 1.5617 1.558 1.5542 1.5505 1.5505 1.5505 1.5505 1.5468 1.5395 1.5431 1.5357 1.5357 1.5395 1.5468 1.5468 1.5431 1.5431 1.5468 1.5468 1.5431 1.5395 1.5357 1.5357 1.5286 1.5286 1.525 1.5179 1.5179 1.5143 1.5143 1.5214 1.525 1.5286 1.5286 1.525 1.525 1.5286 1.5286 1.5321 1.5357 1.5286 1.525 1.525 1.5179 1.5143 1.5179 1.5143 1.5143 1.5003 1.4969 1.4934 1.4969 1.4934 1.49 1.4865 1.4865 1.4664 1.4697 1.4697 1.4664 1.4697 1.4697 1.4664 1.4631 1.4598 1.45 1.4467 1.4435 1.4435 1.4435 1.434 1.434 1.4307 1.4307 1.4371 1.4371 1.4371 1.4404 1.4404 1.4435 1.4467 1.4467 1.4435 1.4435 1.4467 1.4435 1.4467 1.4467 1.4467 1.4371 1.4371 1.434 1.4276 1.4245 1.4214 1.4121 1.4121 1.409 1.406 1.406 1.409 1.406 1.406 1.406 1.406 1.403 1.406 1.409 1.409 1.409 1.409 1.406 1.403 1.403 1.403 1.406 1.406 1.3999 1.3999 1.3999 1.3969 1.3969 1.3969 1.3939 1.3939 1.3909 1.3909 1.388 1.388 1.388 1.385 1.3791 1.3791 1.3761 1.3761 1.3733 1.3761 1.3761 1.3761 1.3733 1.3733 1.3733 1.3704 1.3675 1.3618 1.3533 1.3476 1.3365 1.3365 1.3365 1.3337 1.331 1.331 1.3282 1.331 1.3282 1.3282 1.3256 1.3229 1.3229 1.3201 1.3175 1.3175 1.3175 1.3149 1.3175 1.3149 1.3282 1.3365 1.3365 1.3393 1.3393 1.3337 1.3337 1.331 1.3256 1.3256 1.3256 1.3175 1.3149 1.3042 1.3069 1.3069 1.3069 1.3069 1.3095 1.3121 1.3095 1.3042 1.3069 1.3121 1.3121 1.3095 1.3042 1.299 1.2939 1.2913 1.2888 1.2888 1.2888 1.2888 1.2861 1.2811 1.2811 1.2811 1.2861 1.2836 1.2836 1.276 1.2735 1.271 1.2685 1.2685 1.2661 1.2636 1.2588 1.2539 1.2514 1.2514 1.2514 1.2514 1.2514 1.2539 1.2588 1.2563 1.2563 1.2539 1.2514 1.2514 1.249 1.249 1.249 1.2466 1.2466 1.2443 1.2443 1.2466 1.2443 1.2443 1.2419 1.2395 1.2324 1.2301 1.2277 1.2208 1.2185 1.2208 1.2208 1.2208 1.2208 1.2231 1.2254 1.2254 1.2324 1.2324 1.2301 1.2301 1.2231 1.214 1.2094 1.2071 1.2027 1.1983 1.1895 1.1916 1.196 1.2005 1.2277 1.2301 1.2348 1.2348 1.2348 1.2348 1.2371 1.2371 1.2371 1.2348 1.2277 1.2254 1.2231 1.2208 1.2185 1.2071 1.2027 0 0 0 0 0 0 0 0.601 0.601 0.601 0.60213 0.60325 0.60275 0.601 0.6005 0.59937 0.59662 0.5955 0.595
1.6745 1.692 1.692 1.7009 1.7054 1.7144 1.7189 1.7466 1.7466 1.742 1.742 1.7374 1.742 1.742 1.742 1.7374 1.7328 1.7099 1.7009 1.692 1.6789 1.6703 1.6449 1.6406 1.6324 1.6201 1.6161 1.6121 1.6121 1.6161 1.6201 1.6284 1.6365 1.6365 1.6406 1.6406 1.6365 1.6365 1.6365 1.6242 1.6201 1.6201 1.6201 1.6161 1.6161 1.6041 1.6041 1.6002 1.6002 1.5962 1.5885 1.5808 1.573 1.5617 1.5655 1.558 1.5617 1.5617 1.558 1.558 1.5505 1.5505 1.558 1.558 1.5505 1.5468 1.5431 1.5395 1.5395 1.5395 1.5468 1.5468 1.5468 1.5431 1.5468 1.5468 1.5468 1.5395 1.5357 1.5357 1.5286 1.525 1.525 1.5214 1.5179 1.5143 1.5143 1.5214 1.525 1.525 1.5286 1.525 1.525 1.525 1.525 1.5286 1.5321 1.5286 1.525 1.5214 1.5179 1.5143 1.5143 1.5143 1.5108 1.5003 1.4934 1.4934 1.4934 1.4934 1.49 1.4797 1.4797 1.4664 1.4664 1.4697 1.4664 1.4631 1.4631 1.4565 1.4598 1.4565 1.45 1.4435 1.4404 1.4404 1.4404 1.4307 1.434 1.4307 1.4307 1.4371 1.4371 1.4371 1.4404 1.4404 1.4467 1.4467 1.4435 1.4435 1.4435 1.4435 1.4435 1.4435 1.4467 1.4467 1.4371 1.4371 1.434 1.4276 1.4245 1.4214 1.4121 1.4121 1.409 1.406 1.406 1.409 1.409 1.409 1.409 1.406 1.406 1.409 1.409 1.4121 1.409 1.409 1.409 1.403 1.403 1.403 1.403 1.403 1.403 1.3999 1.3999 1.3939 1.3999 1.3969 1.3939 1.3939 1.3909 1.388 1.388 1.388 1.388 1.385 1.382 1.3791 1.3761 1.3761 1.3733 1.3761 1.3733 1.3733 1.3704 1.3704 1.3733 1.3675 1.3646 1.3618 1.3533 1.3476 1.3365 1.3365 1.3365 1.3337 1.3337 1.331 1.331 1.331 1.331 1.3256 1.3256 1.3229 1.3229 1.3201 1.3175 1.3175 1.3175 1.3149 1.3175 1.3149 1.3256 1.331 1.3337 1.3337 1.3337 1.331 1.331 1.3282 1.3256 1.3256 1.3256 1.3149 1.3121 1.3069 1.3069 1.3095 1.3069 1.3095 1.3095 1.3121 1.3095 1.3069 1.3095 1.3121 1.3121 1.3121 1.3042 1.299 1.2939 1.2913 1.2861 1.2888 1.2888 1.2888 1.2861 1.2811 1.2811 1.2836 1.2861 1.2836 1.2836 1.276 1.2735 1.2735 1.271 1.271 1.2661 1.2661 1.2611 1.2514 1.2514 1.2514 1.2514 1.2514 1.249 1.2539 1.2563 1.2588 1.2563 1.2514 1.2539 1.2514 1.249 1.249 1.249 1.249 1.2466 1.2443 1.2466 1.2466 1.2466 1.2443 1.2443 1.2419 1.2348 1.2324 1.2254 1.2208 1.2185 1.2185 1.2208 1.2185 1.2185 1.2231 1.2231 1.2254 1.2324 1.2324 1.2301 1.2277 1.2231 1.214 1.2116 1.2071 1.2027 1.2005 1.1939 1.1939 1.2005 1.2027 1.2254 1.2301 1.2324 1.2348 1.2348 1.2348 1.2371 1.2371 1.2371 1.2348 1.2277 1.2254 1.2231 1.2208 1.2185 1.214 1.2231 1.2231 1.2254 0 0 0 0 0 0.59988 0.6005 0.6005 0.601 0.60325 0.60275 0.60275 0.60162 0.59937 0.59662 0.5955 0.595
