0.38725 0.38612 0.38588 0.387 0.38625 0.3865 0.38725 0.38725 0.38725 0.3875 0.38725 0.38725 0.39625 0.39625 0.391 0.39125 0.39263 0.39125 0.39 0.39 0.38975 0.38888 0.38862 0.39363 0.39363 0.3955 0.39525 0.396 0.3945 0.39363 0.39363 0.39363 0.39187 0.39187 0.39163 0.39163 0.39337 0.39337 0.39375 0.39363 0.39287 0.39237 0.39187 0.38975 0.38975 0.38612 0.38675 0.38725 0.3875 0.3875 0.3875 0.38775 0.38812 0.38788 0.3865 0.38625 0.387 0.38788 0.38788 0.38888 0.39 0.394 0.39375 0.39337 0.39337 0.39313 0.39313 0.39313 0.39337 0.39163 0.391 0.391 0.3905 0.3905 0.39075 0.39075 0.39075 0.39163 0.39163 0.39187 0.39263 0.38725 0.38725 0.38725 0.38725 0 0 0 0 0 0 0 0 0 0 0 0.27713 0.277 0.27713 0.27687 0.27687 0.277 0.27687 0.27687 0.277 0.27725 0.27763 0.27775 0.278 0.2785 0.2785 0.27863 0.279 0.27913 0.27925 0.27937 0.2795 0.27975 0.28 0.28013 0.2805 0.2805 0.28075 0.28075 0.28087 0.28125 0.28137 0.28125 0.28137 0.28163 0.28163 0.28175 0.282 0.282 0.282 0.28213 0.2825 0.28263 0.28275 0.283 0.28313 0.28313 0.283 0.28313 0.28313 0.28325 0.28337 0.28337 0.2835 0.28363 0.284 0.284 0.2845 0.28475 0.28487 0.28513 0.28525 0.28537 0.28537 0.2855 0.28563 0.28563 0.28575 0.28613 0.28613 0.28587 0.286 0.28613 0.28637 0.28663 0.28675 0.28713 0.28713 0.28725 0.2875 0.2875 0.28775 0.28775 0.28787 0.288 0.28813 0.28813 0.28825 0.28837 0.2885 0.28863 0.28875 0.28887 0.28925 0.28937 0.28963 0.28987 0.29 0.29025 0.29013 0.29013 0.29037 0.29063 0.29075 0.29087 0.29087 0.291 0.29087 0.291 0.29137 0.2915 0.29163 0.29175 0.29187 0.292 0.2925 0.2925 0.29275 0.29275 0.29313 0.29337 0.2935 0.2935 0.29337 0.29325 0.29325 0 0 0.40363 0.40413 0.40437 0.40463 0.40487 0.40487 0.40387 0.40387 0.40413 0.40363 0.40287 0.40287 0.40213 0.40163 0.40113 0.40113 0.40487 0.40313 0.40287 0.40237 0.40113 0.40087 0.40213 0.40363 0.40387 0.40363 0.40363 0.40387 0.40387 0.41263 0.4095 0.40875 0.40787 0.40713 0.40713 0.40713 0.40713 0.40737 0.40737 0.40713 0.40713 0.40787 0.4085 0.409 0.409 0.409 0.409 0.4095 0.4105 0.4145 0.41475 0.416 0.4115 0.4115 0.41625 0.4155 0.41575 0.41475 0.415 0.415 0.41525 0.41475 0.41413 0.41125 0.41213 0.41287 0.41337 0.41363 0.41313 0.41337 0.41313 0.41337 0.41337 0.41413 0.41413 0.41413 0.41475 0.41413 0.41363 0.41387 0.41363 0.41387 0.41413 0.41387 0.415 0.41363 0.41337 0.41363 0.41313 0.41313 0.41313 0.41337 0.41387 0.41387 0.41337 0.41337 0.41337 0.41387 0.41387 0.4145 0.41525 0.41525 0.41413 0.41337 0.41337 0.41363 0.41337 0.41363 0.41387 0.41413 0.41413 0.41413 0.41413 0.41387 0.41713 0.41713 0.41713 0.41763 0.41687 0.41687 0.41687 0.41687 0.419 0.41925 0.4185 0.4185 0.41763 0.41763 0.4185 0.41687 0.41687 0.41313 0.41313 0.41363 0.41363 0.41363 0.41313
0.38338 0.38362 0.38488 0.38362 0.38312 0.38312 0.38425 0.38588 0.3865 0.3865 0.38612 0.38475 0.38488 0.38475 0.387 0.38788 0.38775 0.38938 0.38938 0.38912 0.38912 0.38862 0.38788 0.38812 0.3795 0.3795 0.3795 0.3795 0.38025 0.38025 0.39287 0.39237 0.38938 0.39075 0.3905 0.38912 0.39163 0.39287 0.39337 0.39363 0.39237 0.39187 0.39137 0.38612 0.38625 0.384 0.38512 0.38612 0.38625 0.3865 0.3865 0.38675 0.3875 0.38725 0.38625 0.38625 0.38675 0.3875 0.38788 0.38838 0.38862 0.394 0.39375 0.39337 0.39313 0.3865 0.38675 0.38562 0.38562 0.38625 0.38588 0.38562 0.38562 0.38488 0.38488 0.38588 0.38588 0.3875 0.38838 0.38838 0.3905 0.3905 0.39137 0 0 0 0 0 0 0 0 0 0 0 0.27625 0.27625 0.27625 0.27625 0 0.27713 0.277 0.27713 0.277 0.277 0.277 0.27725 0.2775 0.27775 0.278 0.27837 0.2785 0.27863 0.27887 0.279 0.27925 0.27937 0.27925 0.27963 0.27987 0.28013 0.2805 0.28063 0.28075 0.28075 0.281 0.28125 0.28137 0.28113 0.28125 0.28137 0.2815 0.28175 0.28175 0.28187 0.28187 0.282 0.2825 0.28263 0.28263 0.28287 0.28313 0.28313 0.283 0.28313 0.283 0.28313 0.28325 0.2835 0.2835 0.28363 0.28387 0.28387 0.28437 0.28463 0.28475 0.285 0.28525 0.28513 0.28537 0.2855 0.2855 0.2855 0.28575 0.286 0.28613 0.286 0.28613 0.28625 0.28637 0.28663 0.28687 0.28713 0.28737 0.2875 0.28763 0.28775 0.28787 0.28787 0.288 0.288 0.28813 0.28813 0.28837 0.28837 0.28863 0.28875 0.28887 0.289 0.28937 0.2895 0.28975 0.28987 0.29 0.29013 0.29013 0.29013 0.29025 0.2905 0.29075 0.29075 0.29087 0.291 0.29087 0.291 0.29125 0.29137 0.29163 0.29175 0.292 0.292 0.2925 0.2925 0.29263 0.29275 0.293 0.29325 0.29337 0.29337 0.29325 0.29325 0.29325 0 0 0.40263 0.40363 0.40387 0.40413 0.40413 0.40437 0.40337 0.40287 0.40313 0.40287 0.40287 0.40237 0.40137 0.40087 0.40063 0.39987 0.40087 0.40063 0.40213 0.40187 0.40063 0.40063 0.40113 0.40237 0.40237 0.40237 0.40237 0.40287 0.40163 0.40313 0.40613 0.40737 0.40737 0.40687 0.40687 0.40713 0.40713 0.40713 0.40713 0.40687 0.40713 0.40737 0.4085 0.40875 0.40875 0.4085 0.4085 0.40875 0.40787 0.40813 0.40663 0.40637 0.40637 0.40613 0.40737 0.40737 0.40713 0.40737 0.40737 0.415 0.41475 0.4145 0.41413 0.4115 0.41175 0.41287 0.41263 0.4115 0.40763 0.40737 0.40813 0.4095 0.40925 0.41313 0.41363 0.41313 0.4085 0.40875 0.41237 0.41237 0.40875 0.4085 0.41075 0.409 0.409 0.411 0.41237 0.41237 0.41213 0.41213 0.41237 0.41237 0.41363 0.41337 0.41313 0.41287 0.41287 0.41287 0.41313 0.41363 0.41413 0.41387 0.41287 0.41263 0.41263 0.41237 0.41287 0.41287 0.41337 0.41337 0.41337 0.41363 0.41363 0.41263 0.41575 0.41575 0.416 0.41625 0.4155 0.4155 0.4155 0.4095 0.4095 0.4155 0.41713 0.41687 0.41663 0.4145 0.41413 0.41313 0.41313 0.41213 0.41263 0.41313 0.41337 0.41287 0.41287
0.38238 0.38225 0.382 0.38362 0.38312 0.38312 0.38425 0.38425 0.38338 0.38375 0.38362 0.38338 0.38362 0.38475 0.387 0.38788 0.38775 0.38912 0.38812 0.38812 0.38812 0.38812 0.38788 0.38812 0.3795 0.37912 0.37912 0.37912 0.37925 0.38025 0.39213 0.3905 0.38912 0.38938 0.38938 0.38912 0.39137 0.39163 0.39313 0.39363 0.391 0.391 0.391 0.38612 0.38625 0.384 0.38312 0.38375 0.384 0.38475 0.38475 0.38512 0.38588 0.38588 0.38538 0.38562 0.38612 0.38675 0.38675 0.387 0.38862 0.394 0.39313 0.39337 0.39237 0.3865 0.38625 0.38588 0.38538 0.38538 0.38488 0.38488 0.38488 0.38488 0.38488 0.38588 0.38588 0.3875 0.38838 0.38838 0.3905 0.3905 0.39137 0 0 0 0 0 0 0 0 0 0 0 0.27625 0.27637 0.27675 0.27625 0 0.27713 0.27725 0.27713 0.27713 0.277 0.27713 0.27737 0.27763 0.27787 0.278 0.27837 0.27837 0.27863 0.279 0.27913 0.27913 0.27925 0.27925 0.27937 0.27963 0.27987 0.2805 0.2805 0.2805 0.2805 0.28063 0.28087 0.281 0.28087 0.281 0.281 0.28113 0.28125 0.28137 0.28163 0.28175 0.28187 0.28225 0.28237 0.28263 0.28275 0.28287 0.283 0.28287 0.283 0.283 0.28287 0.283 0.28337 0.2835 0.28363 0.28375 0.28387 0.28413 0.2845 0.28463 0.28487 0.285 0.28513 0.28525 0.28537 0.28525 0.28537 0.2855 0.28575 0.286 0.28587 0.286 0.286 0.28613 0.28637 0.28675 0.28713 0.28737 0.28737 0.28775 0.28787 0.288 0.288 0.28813 0.28813 0.28837 0.2885 0.28863 0.28887 0.28887 0.28925 0.28925 0.289 0.28937 0.2895 0.28963 0.28975 0.28975 0.28987 0.28987 0.28987 0.29025 0.2905 0.29063 0.29075 0.29075 0.291 0.29087 0.291 0.29137 0.2915 0.2915 0.29163 0.29187 0.29187 0.29237 0.29237 0.2925 0.29263 0.29275 0.293 0.29313 0.29313 0.29313 0.293 0.29325 0 0 0.40287 0.40263 0.40313 0.40337 0.40237 0.40237 0.40163 0.40113 0.40087 0.40087 0.40163 0.40137 0.40013 0.39987 0.39937 0.39963 0.40013 0.40037 0.40063 0.40037 0.39987 0.39987 0.39987 0.40013 0.40037 0.40063 0.40063 0.40113 0.40137 0.40313 0.40613 0.40587 0.40637 0.40487 0.40487 0.40513 0.40513 0.40563 0.40563 0.40563 0.40663 0.40787 0.40763 0.4085 0.40787 0.40813 0.40763 0.40787 0.40787 0.40813 0.40663 0.40637 0.40637 0.40613 0.40737 0.40737 0.40713 0.40737 0.40737 0.4145 0.41413 0.41413 0.41413 0.41125 0.411 0.41263 0.41175 0.4115 0.40763 0.40737 0.40787 0.4085 0.40925 0.41313 0.41287 0.41313 0.4085 0.40813 0.40925 0.40925 0.40813 0.40787 0.40875 0.40875 0.4085 0.409 0.4095 0.4095 0.40975 0.40975 0.40975 0.41125 0.41237 0.41237 0.4115 0.411 0.41125 0.41175 0.41213 0.41213 0.41237 0.41175 0.41025 0.40975 0.40975 0.4105 0.411 0.41075 0.41075 0.411 0.41125 0.41263 0.41287 0.41263 0.41413 0.41413 0.41413 0.41475 0.41413 0.41387 0.41387 0.4095 0.4095 0.4155 0.41525 0.415 0.4145 0.4145 0.41413 0.41313 0.41313 0.41213 0.41213 0.41237 0.41287 0.41237 0.4115
0.38112 0.38112 0.38062 0.38025 0.37975 0.37975 0.38038 0.38175 0.38225 0.38225 0.38225 0.38225 0.382 0.3815 0.38238 0.38675 0.387 0.38538 0.38538 0.38562 0.37738 0.37738 0.37738 0.38175 0.37862 0.37862 0.37862 0.37838 0.37838 0.37862 0.37838 0.37925 0.37925 0.3795 0.37925 0.37925 0.37975 0.37975 0.37862 0.37838 0.37825 0.37825 0.37838 0.37825 0.3795 0.38175 0.382 0.38312 0.38338 0.38375 0.38425 0.3845 0.38512 0.38512 0.38512 0.38512 0.38562 0.38625 0.38625 0.38625 0.38588 0.38475 0.38475 0.38475 0.38625 0.38562 0.38588 0.38562 0.38488 0.3845 0.3845 0.38425 0.38425 0.38138 0.38138 0.3815 0.3815 0.382 0.38512 0.38512 0.38912 0.38938 0 0 0 0 0 0 0 0 0 0 0 0 0.276 0.27663 0.27713 0.27725 0.27763 0.27737 0.27725 0.27737 0.27725 0.27713 0.27725 0.27737 0.27775 0.278 0.278 0.27837 0.2785 0.27863 0.279 0.27913 0.27925 0.27937 0.27925 0.27937 0.2795 0.27975 0.28025 0.28025 0.28025 0.28037 0.2805 0.28063 0.28075 0.28075 0.28075 0.28087 0.281 0.281 0.28113 0.2815 0.28175 0.28187 0.28237 0.28237 0.2825 0.28287 0.283 0.283 0.283 0.283 0.28287 0.28287 0.283 0.28337 0.28337 0.2835 0.28375 0.28375 0.28413 0.2845 0.28463 0.28487 0.28513 0.28513 0.28537 0.28537 0.28537 0.28537 0.2855 0.28563 0.28575 0.28563 0.28575 0.28587 0.28587 0.28613 0.28637 0.287 0.28725 0.28737 0.28775 0.28787 0.288 0.288 0.28813 0.28813 0.28837 0.2885 0.28875 0.28887 0.289 0.28925 0.28925 0.28925 0.28937 0.2895 0.2895 0.28963 0.28963 0.28963 0.28963 0.28975 0.29 0.29037 0.29063 0.29075 0.29075 0.29087 0.29075 0.291 0.2915 0.2915 0.2915 0.29163 0.29187 0.29187 0.29213 0.29213 0.2925 0.29237 0.29263 0.293 0.29313 0.293 0.29287 0.293 0.29313 0 0 0.396 0.396 0.39937 0.39937 0.40137 0.40137 0.40063 0.40037 0.40037 0.40013 0.40113 0.40063 0.39987 0.39913 0.39913 0.39913 0.39963 0.39987 0.40013 0.39987 0.39963 0.39937 0.39963 0.40013 0.40037 0.40013 0.40037 0.40037 0.40037 0.40063 0.40137 0.40163 0.40337 0.40337 0.40387 0.40387 0.40413 0.40463 0.40487 0.40513 0.40513 0.40213 0.40187 0.40287 0.40287 0.40287 0.40187 0.40163 0.40163 0.39937 0.39887 0.39863 0.39913 0.39937 0.40263 0.40337 0.40313 0.40337 0.40313 0.40313 0.40587 0.40563 0.40563 0.40563 0.40537 0.40663 0.40637 0.40687 0.40687 0.40687 0.40763 0.40787 0.40763 0.4085 0.40713 0.40737 0.40687 0.40713 0.40787 0.40813 0.40713 0.40713 0.40763 0.40787 0.40787 0.40813 0.4085 0.4085 0.4085 0.4085 0.40875 0.40813 0.41213 0.41213 0.41075 0.40975 0.41025 0.41125 0.41175 0.41175 0.41175 0.411 0.40925 0.40813 0.40813 0.40975 0.4105 0.4095 0.4095 0.41 0.41 0.41 0.40813 0.40563 0.40537 0.40537 0.40537 0.40537 0.40537 0.40537 0.40787 0.40563 0.40563 0.40763 0.40587 0.40587 0.40763 0.40737 0.40637 0.40613 0.40737 0.40763 0.40763 0.41 0.40787 0.40763 0.41075
0.37862 0.376 0.376 0.37625 0.37475 0.37488 0.37512 0.37388 0.37388 0.37362 0.37325 0.37338 0.373 0.37275 0.37275 0.37238 0.37238 0.37212 0.37238 0.37212 0.373 0.3725 0.3725 0.3725 0.37238 0.374 0.37512 0.37475 0.37475 0.37488 0.37488 0.37362 0.37338 0.37662 0.37662 0.376 0.376 0.374 0.373 0.373 0.37512 0.37562 0.37575 0.37538 0.37688 0.37862 0.37888 0.38 0.38038 0.38112 0.38138 0.38088 0.38088 0.38138 0.38138 0.38238 0.38288 0.38338 0.38312 0.38312 0.38312 0.38288 0.38338 0.384 0.384 0.38375 0.38362 0.384 0.38375 0.38338 0.38238 0.38225 0.38175 0.37912 0.37912 0.37888 0.37775 0.37775 0.37775 0.378 0.37825 0.37662 0.3765 0 0 0 0 0 0 0 0 0 0.27537 0.2755 0.27575 0.27625 0.27675 0.277 0.2775 0.27737 0.27725 0.27737 0.27725 0.27725 0.27737 0.2775 0.27787 0.278 0.27813 0.27837 0.27837 0.2785 0.279 0.27913 0.27925 0.27937 0.27925 0.27937 0.2795 0.27963 0.28025 0.28025 0.28025 0.28025 0.2805 0.28063 0.28063 0.28063 0.28075 0.281 0.281 0.281 0.28113 0.28163 0.28163 0.28175 0.28225 0.28225 0.28237 0.28263 0.28275 0.28287 0.28287 0.28287 0.28287 0.28287 0.28313 0.28337 0.2835 0.2835 0.28387 0.28387 0.28425 0.28437 0.28463 0.28487 0.285 0.28513 0.28525 0.28537 0.28513 0.28513 0.28537 0.2855 0.28563 0.2855 0.28563 0.28563 0.28575 0.28587 0.28613 0.2865 0.28675 0.28687 0.2875 0.28775 0.28787 0.288 0.288 0.28813 0.2885 0.2885 0.28887 0.289 0.28925 0.28937 0.28925 0.28925 0.28925 0.28937 0.28925 0.28937 0.28937 0.28937 0.28937 0.2895 0.28975 0.29013 0.29037 0.29063 0.29063 0.29075 0.2905 0.29075 0.29137 0.2915 0.2915 0.2915 0.29163 0.29163 0.29175 0.29175 0.292 0.29213 0.2925 0.29275 0.29287 0.29287 0.29287 0.293 0.29313 0 0 0.39363 0.39375 0.3955 0.3965 0.3965 0.40013 0.39625 0.39625 0.39737 0.39763 0.39837 0.39887 0.395 0.39525 0.396 0.39575 0.39525 0.39525 0.39937 0.39913 0.39837 0.39787 0.39837 0.39887 0.39937 0.39913 0.39887 0.39887 0.39887 0.39963 0.39987 0.40013 0.40113 0.40113 0.40113 0.40113 0.40137 0.40187 0.40213 0.40213 0.40187 0.40187 0.40187 0.40187 0.40213 0.40187 0.40163 0.40063 0.40013 0.39937 0.39863 0.39863 0.39887 0.39863 0.39837 0.39787 0.39813 0.39913 0.39887 0.39987 0.40113 0.40137 0.40263 0.40137 0.40113 0.40337 0.40413 0.40463 0.40513 0.40337 0.40313 0.39837 0.39837 0.39837 0.39887 0.39887 0.39887 0.40313 0.40313 0.40313 0.40337 0.40413 0.40463 0.40487 0.40537 0.40563 0.40537 0.40413 0.40387 0.40613 0.40637 0.40613 0.40637 0.40637 0.40637 0.40875 0.40763 0.40763 0.40737 0.40587 0.40563 0.40563 0.40563 0.40613 0.40613 0.40563 0.40587 0.40637 0.40687 0.40713 0.40763 0.40763 0.40763 0.40637 0.40587 0.40563 0.40487 0.40487 0.40537 0.40637 0.40687 0.40587 0.40587 0.40587 0.40513 0.40563 0.40663 0.40713 0.40637 0.40587 0.40613 0.40613 0.40663 0.40763 0.40737 0.40737 0.40813
0.37888 0.376 0.376 0.37625 0.37475 0.37425 0.3745 0.374 0.37338 0.37338 0.37325 0.37325 0.37275 0.37275 0.3725 0.3725 0.37212 0.37212 0.37238 0.3725 0.373 0.37238 0.37238 0.37238 0.3725 0.37362 0.37425 0.37425 0.37425 0.3745 0.37388 0.37362 0.37425 0.37575 0.37575 0.37538 0.37512 0.3745 0.37338 0.37325 0.374 0.37475 0.37488 0.37538 0.37712 0.37862 0.37825 0.37912 0.3795 0.37975 0.38 0.38 0.38112 0.38138 0.38138 0.38238 0.38288 0.38288 0.38288 0.38288 0.38262 0.38288 0.38262 0.38375 0.38375 0.38338 0.38338 0.384 0.38338 0.38262 0.38238 0.3815 0.38112 0.37912 0.37862 0.37825 0.37775 0.3775 0.3775 0.3775 0.37775 0.37738 0.3765 0 0 0 0 0 0 0 0 0 0.27537 0.2755 0.27563 0.27625 0.27663 0.277 0.2775 0.2775 0.2775 0.2775 0.2775 0.2775 0.2775 0.27763 0.27813 0.27825 0.27837 0.2785 0.27863 0.27863 0.27925 0.27937 0.2795 0.2795 0.27925 0.27937 0.2795 0.27963 0.28013 0.28013 0.28013 0.28013 0.28037 0.2805 0.28063 0.2805 0.28075 0.281 0.28113 0.28113 0.28125 0.2815 0.28163 0.28187 0.28213 0.28213 0.28237 0.28263 0.28275 0.28275 0.283 0.283 0.283 0.28313 0.28325 0.28363 0.28375 0.28363 0.28387 0.28387 0.28425 0.28437 0.28463 0.28487 0.285 0.28513 0.28525 0.28537 0.28513 0.28513 0.28525 0.2855 0.2855 0.2855 0.28563 0.28563 0.28575 0.28587 0.28613 0.28637 0.28663 0.28687 0.28737 0.28775 0.28787 0.288 0.28813 0.28813 0.28863 0.28863 0.28887 0.28925 0.289 0.28937 0.28925 0.28925 0.28925 0.28937 0.28925 0.28937 0.28937 0.28937 0.28937 0.28937 0.28975 0.29 0.29025 0.2905 0.29063 0.29075 0.29075 0.291 0.29137 0.2915 0.29163 0.29175 0.29175 0.29175 0.29175 0.29175 0.292 0.29213 0.29237 0.29275 0.29275 0.29287 0.29275 0.29325 0.29325 0 0 0.39363 0.39375 0.3955 0.3965 0.3965 0.40013 0.39625 0.39625 0.39737 0.397 0.39813 0.39887 0.395 0.39475 0.395 0.395 0.395 0.39525 0.39937 0.39887 0.39787 0.39737 0.39763 0.39837 0.39863 0.39813 0.39813 0.39813 0.39787 0.39863 0.39887 0.39913 0.40113 0.40087 0.40113 0.40113 0.40087 0.40113 0.40113 0.40113 0.40113 0.40113 0.40137 0.40137 0.40163 0.40137 0.40113 0.40013 0.39963 0.39887 0.39813 0.39837 0.39863 0.39813 0.39813 0.39763 0.39763 0.39837 0.39863 0.39963 0.39987 0.40063 0.40163 0.40137 0.40187 0.40237 0.40287 0.40363 0.40387 0.40337 0.40313 0.39837 0.39813 0.39837 0.39837 0.39863 0.39887 0.40313 0.40313 0.40313 0.40337 0.40363 0.40463 0.40437 0.40537 0.40563 0.40537 0.40413 0.40387 0.40587 0.40613 0.40537 0.40563 0.40587 0.40587 0.40687 0.40713 0.40713 0.40713 0.40513 0.40487 0.40487 0.40487 0.40537 0.40537 0.40537 0.40537 0.40563 0.40637 0.40663 0.40687 0.40687 0.40713 0.40637 0.40613 0.40537 0.40463 0.40463 0.40513 0.40613 0.40637 0.40587 0.40563 0.40513 0.40487 0.40587 0.40663 0.40687 0.40613 0.40537 0.40537 0.40587 0.40613 0.40713 0.40687 0.40663 0.40713
0.36938 0.37175 0.37175 0.37238 0.37338 0.37388 0.37388 0.37362 0.37325 0.37325 0.37325 0.37275 0.3725 0.3725 0.37238 0.3725 0.37212 0.37212 0.37188 0.3725 0.37275 0.37238 0.37238 0.37238 0.37238 0.373 0.37362 0.37388 0.37388 0.37388 0.37362 0.37362 0.374 0.37512 0.37488 0.3745 0.3745 0.37425 0.37338 0.37325 0.37388 0.3745 0.3745 0.37475 0.37488 0.37662 0.37738 0.37825 0.37838 0.37862 0.37888 0.37862 0.37775 0.37662 0.37662 0.3795 0.37775 0.3745 0.37425 0.37425 0.37362 0.37362 0.37325 0.373 0.3765 0.3765 0.37625 0.3765 0.37625 0.382 0.3815 0.38112 0.38038 0.37912 0.37838 0.378 0.3775 0.37738 0.3775 0.3775 0.37738 0.37712 0.37688 0 0 0 0 0 0 0 0 0 0.27537 0.2755 0.27563 0.27613 0.2765 0.27687 0.27737 0.27725 0.27725 0.2775 0.27737 0.2775 0.2775 0.27775 0.27813 0.27837 0.27837 0.27863 0.27863 0.27875 0.27913 0.27937 0.2795 0.2795 0.27937 0.2795 0.2795 0.27975 0.28 0.28 0.28013 0.28013 0.28025 0.2805 0.2805 0.2805 0.28075 0.281 0.281 0.281 0.28113 0.28137 0.28163 0.28175 0.28213 0.28213 0.28225 0.28263 0.28263 0.28263 0.28287 0.283 0.283 0.28313 0.28325 0.28387 0.28375 0.28375 0.28387 0.284 0.28413 0.28425 0.2845 0.28487 0.285 0.285 0.28525 0.28525 0.28525 0.28525 0.28525 0.2855 0.28537 0.2855 0.28563 0.28575 0.28575 0.28587 0.286 0.28637 0.28663 0.28687 0.28737 0.28763 0.28775 0.28813 0.28813 0.28825 0.28863 0.28863 0.28875 0.289 0.289 0.289 0.28925 0.28925 0.28925 0.28925 0.28925 0.28937 0.28937 0.2895 0.28937 0.28937 0.28975 0.28987 0.29013 0.29037 0.2905 0.29075 0.29087 0.291 0.29163 0.29163 0.29163 0.29187 0.29187 0.292 0.29187 0.29187 0.292 0.29237 0.2925 0.29287 0.29287 0.29275 0.29263 0 0 0.39187 0.39187 0.39075 0.3905 0.39213 0.39 0.39 0.39 0.39 0.39163 0.39525 0.396 0.3955 0.39475 0.394 0.39425 0.39425 0.39425 0.39425 0.39375 0.39375 0.394 0.39375 0.39625 0.397 0.39763 0.39787 0.39713 0.397 0.397 0.39675 0.39763 0.39787 0.39813 0.39737 0.39525 0.3955 0.3955 0.39913 0.40013 0.40037 0.40063 0.40063 0.40063 0.40063 0.40087 0.40087 0.40087 0.40087 0.39963 0.39887 0.39813 0.39763 0.39763 0.39787 0.39763 0.397 0.397 0.39713 0.39737 0.39763 0.39837 0.39913 0.39963 0.40037 0.40037 0.40037 0.40163 0.40187 0.40237 0.40287 0.40313 0.40337 0.39787 0.39787 0.39763 0.39787 0.39813 0.39837 0.39813 0.39837 0.39813 0.39787 0.39887 0.40037 0.39813 0.39787 0.39787 0.39787 0.39787 0.39787 0.39787 0.40337 0.40437 0.40487 0.40537 0.40537 0.40637 0.40663 0.40687 0.40687 0.40413 0.40363 0.40337 0.40363 0.40437 0.40463 0.40437 0.40487 0.40537 0.40587 0.40587 0.40637 0.40637 0.40613 0.40563 0.40537 0.40487 0.40437 0.40463 0.40463 0.40563 0.40563 0.40537 0.40513 0.40487 0.40487 0.40587 0.40613 0.40637 0.40563 0.40537 0.40513 0.40537 0.40587 0.40663 0.40637 0.40587 0.40637
0.36725 0.36725 0.36725 0.3685 0.36962 0.36962 0.3725 0.37212 0.37188 0.37212 0.37212 0.37238 0.37212 0.37188 0.37188 0.37212 0.3715 0.3715 0.3715 0.37188 0.37212 0.37188 0.37175 0.37175 0.37175 0.37238 0.373 0.373 0.37275 0.37275 0.373 0.37325 0.37338 0.37362 0.37338 0.3725 0.3725 0.37275 0.37275 0.3725 0.373 0.373 0.373 0.37325 0.37325 0.37425 0.37488 0.37425 0.37362 0.37362 0.37362 0.37275 0.373 0.3725 0.37175 0.37175 0.3715 0.37125 0.37212 0.37275 0.37088 0.3715 0.37188 0.37188 0.37238 0.37175 0.37175 0.37212 0.37212 0.3795 0.3795 0.37925 0.37862 0.378 0.37775 0.37712 0.376 0.37575 0.37562 0.37512 0.374 0.37338 0.3725 0.37275 0.369 0.36462 0.36475 0 0 0 0 0 0.2755 0.27537 0.27587 0.27625 0.27637 0.27663 0.27725 0.27713 0.27725 0.27737 0.27737 0.27737 0.2775 0.27763 0.27813 0.27837 0.27837 0.27863 0.27875 0.27887 0.279 0.27925 0.27937 0.27937 0.27937 0.27937 0.2795 0.2795 0.27987 0.27975 0.27987 0.27987 0.28 0.28025 0.28037 0.28037 0.2805 0.28075 0.28075 0.28075 0.281 0.28137 0.28137 0.2815 0.282 0.282 0.28213 0.28225 0.28237 0.2825 0.28287 0.28287 0.28287 0.283 0.28325 0.28375 0.28375 0.28375 0.28375 0.28387 0.28413 0.28425 0.2845 0.28475 0.28487 0.28487 0.285 0.28513 0.28525 0.28525 0.28525 0.28537 0.28537 0.28537 0.2855 0.28563 0.28563 0.28587 0.286 0.28625 0.28663 0.28687 0.28737 0.2875 0.28775 0.28813 0.28813 0.28813 0.28825 0.28825 0.2885 0.28863 0.28875 0.28863 0.28863 0.28863 0.28863 0.28875 0.28887 0.289 0.28925 0.28937 0.28937 0.28937 0.28963 0.28987 0.29 0.29037 0.2905 0.29087 0.29087 0.29113 0.29175 0.29175 0.29175 0.292 0.29213 0.29213 0.292 0.292 0.29213 0.29237 0.2925 0.29287 0.29287 0.29287 0.29275 0 0 0.3895 0.39 0.39 0.39 0.39 0.38938 0.38888 0.38862 0.387 0.387 0.387 0.38675 0.38675 0.38675 0.38675 0.39187 0.39187 0.39237 0.39313 0.38625 0.38625 0.38625 0.38612 0.3865 0.395 0.3955 0.39575 0.395 0.39475 0.39425 0.39425 0.39475 0.39475 0.39475 0.39375 0.39163 0.39263 0.39187 0.39187 0.39213 0.39263 0.39263 0.39375 0.39187 0.39187 0.39213 0.39913 0.39937 0.39913 0.39763 0.39737 0.3945 0.39525 0.396 0.397 0.39237 0.39263 0.39287 0.39263 0.39263 0.3965 0.39675 0.39263 0.39287 0.39937 0.39937 0.39937 0.40037 0.40037 0.40013 0.40013 0.39937 0.39913 0.39625 0.3955 0.39525 0.39575 0.39625 0.397 0.39713 0.397 0.39675 0.397 0.39737 0.39763 0.39287 0.39313 0.39237 0.39263 0.39337 0.39337 0.39337 0.39287 0.39287 0.39475 0.40387 0.39737 0.39737 0.39675 0.3965 0.3965 0.39737 0.39737 0.39737 0.39737 0.39837 0.39787 0.39787 0.39787 0.39887 0.39887 0.40287 0.40387 0.40337 0.40163 0.40087 0.40113 0.40087 0.40163 0.40187 0.40213 0.40237 0.40263 0.40263 0.40263 0.40263 0.40087 0.40087 0.40137 0.40113 0.40263 0.40287 0.40387 0.40413 0.40413 0.40487 0.40463 0.40487 0.40463
0.36725 0.36712 0.3675 0.3685 0.36962 0.36962 0.37238 0.3715 0.3715 0.37125 0.3715 0.3715 0.3715 0.37125 0.3715 0.3715 0.37088 0.37062 0.37088 0.37112 0.37125 0.37125 0.37125 0.37112 0.37112 0.37175 0.37338 0.37275 0.37212 0.37238 0.37212 0.37238 0.373 0.37275 0.3725 0.37188 0.37188 0.37188 0.37212 0.37212 0.37238 0.3725 0.37238 0.37238 0.37325 0.37362 0.374 0.37388 0.37362 0.37338 0.37338 0.373 0.3725 0.37238 0.37125 0.37175 0.3715 0.37125 0.37125 0.37188 0.37112 0.37088 0.37112 0.37175 0.37188 0.37175 0.37188 0.37188 0.37212 0.37912 0.37912 0.37912 0.378 0.37775 0.37688 0.3765 0.37562 0.37512 0.37488 0.374 0.37362 0.37362 0.373 0.37275 0.369 0.36462 0.36475 0 0 0 0 0 0 0 0.2765 0.27637 0.27637 0.2765 0.277 0.277 0.27713 0.27737 0.27737 0.2775 0.2775 0.27763 0.27825 0.2785 0.2785 0.2785 0.27875 0.27887 0.279 0.27913 0.27937 0.27937 0.27925 0.27925 0.2795 0.2795 0.27975 0.27975 0.27987 0.27987 0.28 0.28025 0.28037 0.2805 0.2805 0.28075 0.28087 0.28075 0.28113 0.28137 0.28137 0.28163 0.28187 0.282 0.282 0.28225 0.28225 0.2825 0.28275 0.28275 0.28275 0.283 0.28325 0.28387 0.28387 0.28387 0.28387 0.28387 0.28425 0.28437 0.28463 0.28487 0.28475 0.28475 0.285 0.28513 0.28525 0.28537 0.28525 0.28537 0.28525 0.2855 0.2855 0.28575 0.28563 0.28587 0.286 0.28625 0.2865 0.28675 0.28725 0.2875 0.28763 0.288 0.28813 0.288 0.288 0.28813 0.28837 0.2885 0.2885 0.28863 0.2885 0.2885 0.2885 0.28863 0.28875 0.289 0.28925 0.28925 0.28937 0.28937 0.28975 0.28987 0.29013 0.29025 0.29037 0.291 0.291 0.29125 0.29187 0.29187 0.292 0.29213 0.29237 0.29237 0.29237 0.2925 0.2925 0.29263 0.29275 0.29313 0.29325 0.29337 0.29337 0 0 0.3895 0.38938 0.38938 0.38912 0.38888 0.38838 0.38788 0.38788 0.3875 0.38675 0.38675 0.3865 0.3865 0.3865 0.38675 0.39125 0.391 0.39125 0.39263 0.38625 0.38612 0.38625 0.38612 0.38625 0.39525 0.395 0.39525 0.39475 0.3945 0.39375 0.39375 0.394 0.39375 0.39375 0.39375 0.39163 0.39163 0.39187 0.39187 0.39213 0.39263 0.39237 0.39375 0.39187 0.39187 0.39213 0.39937 0.39913 0.39863 0.39713 0.39737 0.3945 0.3945 0.3945 0.39763 0.39237 0.39263 0.39237 0.39263 0.39263 0.3965 0.39675 0.39263 0.39287 0.39937 0.39937 0.39937 0.40013 0.39963 0.39963 0.39963 0.39937 0.39913 0.396 0.3945 0.39425 0.39475 0.3955 0.39675 0.397 0.397 0.39625 0.396 0.3965 0.397 0.39287 0.39263 0.39237 0.39237 0.39313 0.39313 0.39287 0.39263 0.39287 0.39475 0.40387 0.39737 0.39737 0.39675 0.3965 0.3965 0.39737 0.39737 0.39737 0.39737 0.39787 0.39763 0.39763 0.39787 0.39837 0.39887 0.40313 0.40287 0.40337 0.40163 0.40087 0.40037 0.40013 0.40037 0.40063 0.40113 0.40137 0.40113 0.40113 0.40137 0.40137 0.40087 0.40087 0.40137 0.40113 0.40163 0.40287 0.40287 0.40387 0.40363 0.40437 0.40463 0.40413 0.40437
0.3665 0.36662 0.36662 0.366 0.3665 0.3665 0.3675 0.36838 0.36838 0.37 0.37025 0.37038 0.37038 0.37025 0.37038 0.37062 0.37 0.36962 0.36975 0.36975 0.37 0.37025 0.37025 0.37 0.37 0.36875 0.36938 0.36938 0.37112 0.37112 0.37088 0.36962 0.37062 0.37175 0.37175 0.37125 0.37125 0.37125 0.37125 0.37125 0.37175 0.37175 0.37175 0.37175 0.37275 0.37338 0.37325 0.37325 0.373 0.37275 0.37275 0.3725 0.37212 0.37175 0.37025 0.36912 0.36788 0.36788 0.37062 0.37088 0.37062 0.37038 0.37062 0.37112 0.37125 0.3715 0.37175 0.37188 0.37175 0.3715 0.37175 0.3715 0.3765 0.37712 0.3765 0.37575 0.37488 0.37475 0.37425 0.37388 0.37338 0.37338 0.37275 0.37275 0.369 0.36475 0.36475 0 0 0 0 0 0.27625 0.27625 0.2765 0.2765 0.27637 0.2765 0.27687 0.277 0.27725 0.27737 0.2775 0.27763 0.27763 0.27775 0.27813 0.27837 0.2785 0.2785 0.27875 0.27887 0.279 0.27913 0.27937 0.27925 0.27925 0.27937 0.2795 0.27963 0.27975 0.27987 0.28013 0.28 0.28025 0.2805 0.2805 0.2805 0.28063 0.281 0.281 0.28113 0.28125 0.28163 0.28163 0.28163 0.282 0.282 0.282 0.28213 0.28225 0.28237 0.28275 0.28275 0.28287 0.283 0.28325 0.28413 0.284 0.284 0.284 0.284 0.28425 0.28437 0.28463 0.28475 0.28487 0.28475 0.28487 0.285 0.28513 0.28537 0.28525 0.28537 0.28525 0.28537 0.2855 0.2855 0.28563 0.28575 0.286 0.28613 0.28637 0.2865 0.28713 0.28725 0.2875 0.28763 0.28775 0.28787 0.28787 0.28787 0.28825 0.28837 0.2885 0.2885 0.2885 0.28837 0.2885 0.28863 0.28875 0.289 0.289 0.28925 0.28925 0.28925 0.28963 0.28975 0.28987 0.29013 0.29025 0.29075 0.291 0.29125 0.29163 0.29187 0.292 0.292 0.29213 0.29237 0.29213 0.29237 0.2925 0.29263 0.29263 0.29313 0.29313 0.29325 0.29337 0 0 0.38775 0.38838 0.38838 0.38812 0.38788 0.3875 0.38675 0.3865 0.3865 0.38612 0.38612 0.38612 0.38612 0.38625 0.38538 0.38538 0.38588 0.38512 0.38512 0.38612 0.38612 0.38588 0.38562 0.38488 0.38475 0.38425 0.384 0.384 0.38425 0.3845 0.38475 0.38488 0.39313 0.38475 0.38488 0.38488 0.38488 0.38625 0.38675 0.3865 0.39025 0.39125 0.38975 0.38538 0.38538 0.38625 0.38562 0.38475 0.38475 0.38475 0.38475 0.387 0.38725 0.3875 0.39213 0.39163 0.39213 0.39213 0.39187 0.39137 0.39025 0.39 0.38975 0.3895 0.3895 0.3895 0.3895 0 0 0 0.39937 0.39287 0.39313 0.396 0.39375 0.39337 0.39375 0.39213 0.39213 0.39187 0.39213 0.39337 0.395 0.39625 0.3965 0.39025 0.39163 0.39163 0.39213 0.39263 0.39263 0.39213 0.39137 0.39025 0.3905 0.39187 0.39187 0.39163 0.39075 0.39075 0.3965 0.39163 0.39187 0.39213 0.39213 0.39675 0.39675 0.397 0.39763 0.39787 0.39713 0.39763 0.39787 0.39763 0.39737 0.39713 0.39887 0.39913 0.39937 0.40013 0.40013 0.40013 0.39987 0.39987 0.40013 0.40013 0.39787 0.39763 0.397 0.3965 0.3965 0.39837 0.39837 0.39963 0.39837 0.39813 0.39913 0.39713 0.39713
0.36525 0.36525 0.36525 0.365 0.36525 0.36588 0.36712 0.36712 0.3675 0.36788 0.36812 0.36875 0.3685 0.3685 0.36838 0.3685 0.36812 0.36812 0.36838 0.36838 0.3685 0.3685 0.36875 0.3685 0.36838 0.36812 0.36812 0.36838 0.3685 0.3685 0.3685 0.36725 0.36662 0.3665 0.36688 0.36712 0.36912 0.36975 0.36938 0.36962 0.36962 0.36962 0.36912 0.36912 0.3685 0.37 0.36712 0.36688 0.36725 0.3675 0.36875 0.36912 0.36975 0.3685 0.366 0.36725 0.36712 0.3675 0.3685 0.36875 0.36875 0.369 0.36875 0.36938 0.36975 0.37025 0.37088 0.37088 0.36775 0.3675 0.3675 0.3675 0.3675 0.37512 0.37512 0.37475 0.374 0.37388 0.37338 0.37275 0.37275 0.37275 0.3725 0.37212 0.369 0.36475 0.36475 0 0 0 0 0 0.27625 0.27625 0.27637 0.27637 0.27637 0.27637 0.27687 0.27713 0.27725 0.2775 0.2775 0.27763 0.27775 0.27787 0.27813 0.27825 0.27837 0.2785 0.27863 0.27875 0.279 0.279 0.27937 0.27925 0.27925 0.27937 0.27937 0.2795 0.27987 0.27987 0.28 0.28013 0.28025 0.2805 0.2805 0.2805 0.28075 0.28113 0.28125 0.28137 0.2815 0.28163 0.28163 0.28187 0.282 0.282 0.282 0.282 0.28213 0.28225 0.28237 0.2825 0.28275 0.283 0.28325 0.284 0.28387 0.28387 0.284 0.28413 0.28437 0.28437 0.2845 0.28475 0.28475 0.28463 0.28487 0.285 0.285 0.28513 0.28513 0.28525 0.28513 0.28525 0.28537 0.2855 0.28563 0.28575 0.28587 0.286 0.28613 0.28625 0.28675 0.28675 0.287 0.28737 0.28763 0.28763 0.28775 0.28775 0.28813 0.28825 0.28837 0.28837 0.28837 0.28825 0.28825 0.2885 0.28875 0.289 0.289 0.28887 0.289 0.289 0.2895 0.28963 0.28987 0.29 0.29 0.29063 0.29075 0.29113 0.29163 0.29175 0.29187 0.292 0.29213 0.292 0.292 0.292 0.2925 0.2925 0.29263 0.29313 0.29325 0.29325 0.29337 0 0 0.38675 0.38725 0.38725 0.38062 0.38062 0.38538 0.38138 0.3815 0.3815 0.3815 0.3845 0.38025 0.38038 0.3845 0.38488 0.38488 0.38512 0.38475 0.38475 0.38488 0.38475 0.3845 0.38362 0.38312 0.38312 0.38288 0.38288 0.38288 0.38312 0.384 0.384 0.384 0.38375 0.38375 0.3845 0.38475 0.38475 0.38588 0.38612 0.3845 0.38475 0.384 0.384 0.38488 0.38512 0.38562 0.38512 0.3845 0.38425 0.3845 0.38475 0.38675 0.387 0.3875 0.38812 0.38788 0.39025 0.3905 0.38788 0.38788 0.38425 0.384 0.38375 0.38562 0.38588 0.38475 0.38312 0.38338 0.38238 0.38238 0.38312 0.38375 0.38375 0.38675 0.3865 0.39187 0.39163 0.39163 0.39137 0.39137 0.39163 0.39137 0.391 0.391 0.3905 0.3895 0.39025 0.3905 0.39075 0.39137 0.39125 0.391 0.39075 0.39025 0.39025 0.39025 0.39075 0.3905 0.39 0.38938 0.38938 0.39075 0.39163 0.39163 0.39137 0.39425 0.3945 0.39337 0.39675 0.3965 0.39625 0.39675 0.3965 0.39625 0.39675 0.3965 0.39713 0.39763 0.39837 0.39913 0.39913 0.39863 0.39813 0.39813 0.39813 0.39813 0.39713 0.397 0.3965 0.39575 0.39575 0.3965 0.39763 0.39837 0.397 0.397 0.39675 0.39625 0.3955
0.36462 0.36438 0.36438 0.36438 0.36438 0.36438 0.3665 0.36688 0.36688 0.36725 0.36812 0.36812 0.36812 0.36788 0.36775 0.36775 0.3675 0.3675 0.36775 0.36812 0.36812 0.36838 0.36838 0.36838 0.36775 0.36775 0.3675 0.36725 0.36725 0.3675 0.3675 0.36712 0.36688 0.36662 0.36688 0.36712 0.36812 0.36938 0.36875 0.3685 0.369 0.36812 0.36812 0.3685 0.3685 0.37 0.36712 0.36712 0.36725 0.3675 0.36875 0.369 0.36875 0.3685 0.36712 0.3665 0.3665 0.36688 0.36775 0.36788 0.36775 0.36775 0.36788 0.36812 0.36912 0.36962 0.37038 0.37025 0.36775 0.3675 0.3675 0.3675 0.3675 0.37538 0.37512 0.37425 0.37388 0.37388 0.37275 0.3725 0.37238 0.37238 0.37238 0.37212 0 0 0 0 0 0 0 0 0.27625 0.27625 0.27687 0.27675 0.27675 0.27675 0.277 0.27713 0.27725 0.27737 0.2775 0.2775 0.27763 0.27775 0.27813 0.27825 0.27825 0.2785 0.27863 0.27875 0.27887 0.279 0.27925 0.27925 0.27925 0.27937 0.27937 0.27937 0.27975 0.27987 0.27987 0.28013 0.28013 0.2805 0.28063 0.28075 0.28113 0.2815 0.28163 0.28163 0.28163 0.28175 0.28175 0.28175 0.282 0.282 0.282 0.28213 0.28213 0.28225 0.28237 0.28237 0.28263 0.28287 0.28313 0.28375 0.28363 0.28363 0.28387 0.284 0.2845 0.2845 0.28463 0.28487 0.28475 0.28463 0.28487 0.285 0.28513 0.28513 0.28513 0.28525 0.28525 0.28525 0.2855 0.2855 0.28563 0.28575 0.28587 0.286 0.28613 0.28625 0.28663 0.28675 0.287 0.28737 0.28737 0.2875 0.28775 0.28775 0.28813 0.28837 0.28837 0.2885 0.2885 0.28837 0.2885 0.28863 0.28887 0.28925 0.28925 0.28925 0.289 0.28925 0.28963 0.28975 0.28987 0.29 0.29013 0.29063 0.29087 0.29113 0.29163 0.29175 0.29187 0.29213 0.29213 0.29237 0.29237 0.29237 0.2925 0.29263 0.29287 0.29337 0.2935 0.2935 0.2935 0 0 0.38675 0.38675 0.38675 0.38062 0.38062 0.38538 0.38138 0.3815 0.38138 0.3815 0.3845 0.38025 0.38038 0.3845 0.38475 0.3845 0.38475 0.38425 0.38425 0.3845 0.38425 0.384 0.38262 0.38225 0.38175 0.38175 0.382 0.38225 0.38238 0.38338 0.38375 0.38375 0.38362 0.384 0.384 0.38425 0.3845 0.38538 0.38538 0.38512 0.38475 0.38425 0.38425 0.38488 0.38512 0.38512 0.38475 0.38425 0.384 0.38425 0.3845 0.3865 0.38675 0.3875 0.38788 0.38812 0.38888 0.38975 0.38862 0.38788 0.38425 0.384 0.384 0.3845 0.38588 0.38475 0.38312 0.38312 0.38238 0.38262 0.38312 0.38375 0.38375 0.38675 0.3865 0.39137 0.391 0.39075 0.391 0.391 0.391 0.39125 0.39125 0.3905 0.3905 0.38975 0.38975 0.39 0.39025 0.391 0.39075 0.39025 0.39 0.3895 0.3895 0.3895 0.3895 0.39025 0.38938 0.38938 0.38938 0.39075 0.39075 0.39137 0.39137 0.39337 0.39337 0.39337 0.3965 0.3955 0.39575 0.39625 0.39475 0.39475 0.39625 0.39625 0.39625 0.39837 0.39813 0.39887 0.39887 0.39763 0.39763 0.39787 0.39813 0.39763 0.397 0.3965 0.39575 0.395 0.395 0.3955 0.39625 0.39763 0.39625 0.396 0.39525 0.39525 0.3955
0.364 0.36375 0.36375 0.36362 0.36362 0.3625 0.366 0.3665 0.3625 0.3625 0.36662 0.36788 0.36788 0.36725 0.36712 0.36662 0.36662 0.36688 0.3675 0.36775 0.36775 0.36812 0.36788 0.36812 0.36775 0.3675 0.36725 0.36688 0.36688 0.36712 0.36688 0.3665 0.3665 0.36338 0.36338 0.36338 0.36338 0.36712 0.3615 0.36175 0.3615 0.3615 0.36138 0.3615 0.3615 0.36838 0.36475 0.3665 0.3665 0.36688 0.36812 0.36812 0.36788 0.3675 0.36688 0.366 0.36625 0.3665 0.36725 0.3675 0.3675 0.3675 0.3675 0.36725 0.36838 0.36875 0.36912 0.369 0.36562 0.36662 0.36625 0.36275 0.3625 0.35975 0.36 0.36375 0.36462 0.36475 0.365 0.365 0.37175 0.37125 0.36812 0.36812 0.36812 0.36788 0 0 0 0 0 0 0.2775 0.2775 0.27813 0.2775 0.27737 0.27725 0.27725 0.27725 0.27737 0.27737 0.2775 0.27763 0.27763 0.27787 0.27813 0.27825 0.27837 0.2785 0.2785 0.27863 0.27887 0.27887 0.27913 0.27913 0.27925 0.27925 0.27925 0.27937 0.27975 0.27987 0.27987 0.28013 0.28013 0.2805 0.28063 0.28075 0.28125 0.2815 0.28175 0.28163 0.28175 0.28175 0.28175 0.28187 0.282 0.282 0.282 0.282 0.28213 0.28225 0.28225 0.28237 0.28263 0.28275 0.283 0.2835 0.28337 0.28337 0.28363 0.28375 0.28413 0.28413 0.28437 0.28487 0.28475 0.28487 0.28487 0.28513 0.28525 0.28525 0.28525 0.28525 0.28525 0.28537 0.2855 0.28563 0.28575 0.28587 0.286 0.286 0.28625 0.28637 0.28663 0.28675 0.287 0.28725 0.2875 0.2875 0.28763 0.28763 0.288 0.288 0.28813 0.28837 0.28837 0.28837 0.28863 0.28863 0.28875 0.28925 0.289 0.28925 0.28925 0.28925 0.28963 0.28975 0.28987 0.29013 0.29013 0.29063 0.29087 0.29113 0.29163 0.29175 0.292 0.29213 0.29213 0.29213 0.29237 0.29213 0.2925 0.2925 0.29263 0.29313 0.29313 0.29313 0.29287 0.29375 0.29375 0 0 0.37888 0.37862 0.37888 0.37888 0.37888 0.38038 0.38062 0.37862 0.37888 0.37925 0.37912 0.38112 0.38062 0.38062 0.3795 0.3795 0.37975 0.38112 0.38288 0.38288 0.382 0.3815 0.38088 0.38062 0.38088 0.38112 0.38138 0.38225 0.38238 0.38238 0.38238 0.38262 0.38312 0.38338 0.38362 0.38475 0.38512 0.38425 0.38362 0.38362 0.38375 0.38425 0.3845 0.38475 0.38425 0.38362 0.38338 0.38375 0.384 0.38588 0.38588 0.3865 0.3865 0.38475 0.38488 0.38862 0.38838 0.38788 0.38375 0.38375 0.38375 0.384 0.38238 0.3795 0.37975 0.38225 0.382 0.38175 0.3795 0.37712 0.37738 0.37838 0.38675 0.38675 0.38725 0.38938 0.39 0.38975 0.39 0.391 0.39075 0.39 0.38975 0.38938 0.3895 0.38938 0.3895 0.3905 0.39 0.3895 0.38888 0.384 0.38375 0.38375 0.38788 0.38788 0.38562 0.38775 0.38588 0.38625 0.3865 0.38812 0.38938 0.38912 0.39 0.38975 0.39025 0.38938 0.38838 0.38812 0.3875 0.3875 0.3875 0.3865 0.3865 0.3865 0.3865 0.38725 0.38775 0.3875 0.38862 0.38862 0.38838 0.397 0.3965 0.396 0.3955 0.39475 0.39475 0.395 0.38888 0.38912 0.38838 0.38838 0.3895 0.3895 0.3895
0.36275 0.3625 0.3625 0.36212 0.36212 0.3625 0.36462 0.36662 0.3625 0.3625 0.36662 0.36688 0.3675 0.36625 0.3665 0.36562 0.36538 0.36538 0.36712 0.36725 0.36725 0.36775 0.36775 0.36775 0.36712 0.3675 0.36688 0.36625 0.366 0.3665 0.366 0.36588 0.36588 0.36338 0.36338 0.36338 0.36338 0.36712 0.3615 0.36138 0.36112 0.361 0.36112 0.36112 0.3615 0.36838 0.36475 0.365 0.36588 0.36588 0.36725 0.36725 0.36688 0.36688 0.36562 0.36562 0.36562 0.36588 0.36625 0.3665 0.36662 0.3665 0.3665 0.36625 0.36662 0.36688 0.36688 0.36712 0.36562 0.36562 0.36475 0.36275 0.36075 0.36 0.36 0.36375 0.36462 0.36475 0.365 0.365 0.37088 0.36975 0.36812 0.36812 0.36812 0.36788 0 0 0 0 0 0 0.2775 0.2775 0.27813 0.2785 0.27825 0.27787 0.27763 0.2775 0.27725 0.27737 0.2775 0.27763 0.27775 0.27775 0.27825 0.27837 0.27837 0.2785 0.2785 0.2785 0.2785 0.27863 0.27887 0.27887 0.279 0.27925 0.27925 0.27937 0.2795 0.27963 0.27975 0.28013 0.28025 0.2805 0.28063 0.28087 0.28137 0.28163 0.28175 0.28175 0.28175 0.28175 0.28175 0.28175 0.282 0.282 0.28187 0.282 0.28213 0.28225 0.28237 0.28237 0.28263 0.28275 0.28263 0.28287 0.28275 0.28287 0.283 0.28313 0.2835 0.2835 0.28387 0.2845 0.28463 0.28463 0.28475 0.285 0.28513 0.2855 0.28537 0.28537 0.2855 0.2855 0.28563 0.28575 0.28587 0.28613 0.28613 0.28625 0.28637 0.28663 0.28675 0.28675 0.287 0.28725 0.28737 0.28737 0.28737 0.28737 0.28775 0.28775 0.288 0.28825 0.28837 0.28837 0.28863 0.28863 0.28875 0.28925 0.28925 0.28925 0.28925 0.28937 0.28963 0.28975 0.28975 0.29 0.29 0.2905 0.29075 0.29087 0.29163 0.29175 0.29187 0.29237 0.29237 0.29237 0.29237 0.29213 0.29237 0.29237 0.29237 0.29275 0.29275 0.29275 0.293 0.29337 0.29375 0 0 0.37888 0.378 0.37825 0.37825 0.37862 0.37888 0.37862 0.37838 0.37825 0.37838 0.37925 0.37975 0.38062 0.38062 0.3795 0.3795 0.37975 0.38138 0.38112 0.38175 0.38138 0.38138 0.3795 0.37888 0.37888 0.37912 0.37925 0.37975 0.37975 0.38 0.37975 0.38 0.38038 0.38062 0.38238 0.38375 0.3845 0.38288 0.38138 0.38112 0.38262 0.38362 0.38338 0.3845 0.38312 0.38175 0.38175 0.38225 0.38238 0.38375 0.38375 0.38488 0.38475 0.38475 0.38488 0.38862 0.38788 0.38788 0.38375 0.38225 0.382 0.38175 0.38062 0.3795 0.38 0.38025 0.38025 0.37925 0.37838 0.3775 0.37712 0.37838 0.38675 0.38675 0.3875 0.38725 0.38862 0.38862 0.38862 0.39075 0.38938 0.38938 0.38938 0.38862 0.38888 0.38862 0.38888 0.39025 0.38888 0.38862 0.38888 0.384 0.38375 0.38375 0.38788 0.38788 0.38562 0.38475 0.38488 0.38512 0.38625 0.38812 0.38938 0.38912 0.39 0.38975 0.39025 0.38938 0.38838 0.38812 0.3875 0.3875 0.3875 0.3865 0.38488 0.38512 0.3865 0.38612 0.3865 0.3865 0.38862 0.38862 0.38838 0.397 0.396 0.396 0.3945 0.39425 0.3945 0.394 0.38888 0.38788 0.3875 0.38838 0.38862 0.38888 0.38888
0.36238 0.36212 0.36175 0.36175 0.3615 0.362 0.36238 0.36112 0.36112 0.3625 0.36138 0.36012 0.36 0.36 0.35975 0.3595 0.35913 0.359 0.35813 0.35763 0.35737 0.35675 0.357 0.36725 0.36712 0.36712 0.363 0.36175 0.36175 0.36175 0.36038 0.36038 0.3605 0.3605 0.361 0.3595 0.3595 0.35913 0.35913 0.36075 0.36075 0.36075 0.361 0.361 0.361 0.3615 0.36238 0.3625 0.36312 0.36312 0.36425 0.36275 0.3625 0.36275 0.36212 0.36075 0.3605 0.36538 0.36588 0.366 0.36625 0.366 0.366 0.36588 0.366 0.36625 0.3665 0.3665 0.3595 0.3595 0.36 0.3595 0.35975 0.3595 0.3595 0.35975 0.35975 0.3595 0.36075 0.36462 0.36462 0.36212 0.36238 0.36425 0.36362 0.36362 0 0 0 0 0 0 0 0.28013 0.27913 0.27887 0.27875 0.27813 0.27775 0.2775 0.27725 0.27725 0.27737 0.27763 0.27775 0.27787 0.27825 0.27837 0.27837 0.2785 0.27837 0.27837 0.27837 0.2785 0.27875 0.27875 0.279 0.27913 0.27925 0.27937 0.2795 0.27975 0.27987 0.27987 0.28013 0.28063 0.28063 0.28087 0.2815 0.28175 0.28187 0.28187 0.28175 0.28175 0.28175 0.28175 0.28187 0.28187 0.282 0.282 0.28213 0.28225 0.28225 0.28225 0.2825 0.2825 0.2825 0.2825 0.28263 0.28275 0.28287 0.283 0.28325 0.28325 0.28363 0.28425 0.28437 0.2845 0.28475 0.28487 0.28513 0.28537 0.28537 0.2855 0.2855 0.28563 0.28575 0.28587 0.286 0.28625 0.28625 0.28637 0.2865 0.28663 0.28675 0.28675 0.28687 0.28725 0.28725 0.28725 0.28725 0.28737 0.28763 0.28775 0.28787 0.28825 0.28837 0.28837 0.28863 0.28863 0.28863 0.28925 0.28937 0.28937 0.28937 0.2895 0.28963 0.28963 0.28975 0.28987 0.28987 0.29037 0.29063 0.29087 0.2915 0.29163 0.29187 0.29237 0.29237 0.2925 0.29237 0.29237 0.29237 0.29237 0.29237 0.29263 0.29275 0.29287 0.293 0.29337 0.2935 0 0 0.37738 0.37738 0.3775 0.37775 0.378 0.37838 0.37825 0.378 0.37775 0.378 0.37838 0.37862 0.3745 0.3745 0.37362 0.37338 0.37362 0.3745 0.3745 0.3745 0.3775 0.3775 0.37775 0.378 0.37838 0.37825 0.37838 0.37888 0.37912 0.37912 0.37888 0.37912 0.37925 0.37925 0.37912 0.3795 0.38025 0.37975 0.38 0.37975 0.3795 0.38038 0.38038 0.38062 0.3815 0.38088 0.38088 0.38112 0.3815 0.38288 0.38288 0.38238 0.38088 0.38025 0.38025 0.38 0.38025 0.38088 0.38138 0.3815 0.38112 0.38062 0.38 0.3795 0.3795 0.3795 0.3795 0.37825 0.37775 0.37712 0.37688 0.37712 0.37625 0.37625 0.37688 0.376 0.37625 0.37575 0.37575 0.3775 0.3775 0.37738 0.38138 0.384 0.38425 0.3845 0.38238 0.38262 0.38338 0.38338 0.38338 0.38375 0.38362 0.38362 0.38338 0.38362 0.38338 0.38375 0.38375 0.384 0.38375 0.38425 0.38362 0.38362 0.38375 0.38238 0.38225 0.38225 0.38225 0.384 0.38338 0.38338 0.38362 0.38288 0.38362 0.38375 0.38362 0.38512 0.38562 0.38538 0.38488 0.38375 0.38375 0.387 0.38862 0.38862 0.38725 0.387 0.38725 0.38562 0.38562 0.38675 0.3865 0.38675 0.38812 0.38788 0.38812
0.35425 0.3595 0.35463 0.35487 0.35737 0.35713 0.35737 0.35775 0.35775 0.35775 0.35837 0.35537 0.35537 0.356 0.356 0.356 0.35537 0.35525 0.355 0.35425 0.35463 0.35463 0.35387 0.35363 0.35363 0.35363 0.354 0.3595 0.35975 0.35975 0.35938 0.35938 0.35938 0.3595 0.36 0.35975 0.35875 0.35875 0.359 0.35938 0.3595 0.359 0.359 0.359 0.35913 0.3615 0.361 0.361 0.361 0.36075 0.36338 0.363 0.36275 0.3625 0.36238 0.35775 0.35775 0.35563 0.35563 0.35563 0.359 0.359 0.35875 0.359 0.359 0.35875 0.3585 0.35875 0.35875 0.35938 0.3595 0.359 0.359 0.359 0.35913 0.35938 0.35938 0.35913 0.35938 0.36038 0.36038 0.35913 0.35913 0.36312 0.36362 0.36362 0 0 0 0 0 0 0 0.28013 0.27937 0.27913 0.279 0.27825 0.27787 0.27763 0.27737 0.27737 0.2775 0.27763 0.27787 0.27787 0.278 0.27813 0.27813 0.27825 0.278 0.27787 0.27787 0.278 0.2785 0.27875 0.27887 0.27925 0.27925 0.27937 0.2795 0.27975 0.27987 0.27987 0.28 0.2805 0.2805 0.28063 0.28113 0.28125 0.28137 0.2815 0.2815 0.2815 0.2815 0.28163 0.28175 0.28175 0.28175 0.282 0.282 0.28213 0.28225 0.28237 0.28237 0.28237 0.28225 0.28237 0.28237 0.28237 0.28263 0.28275 0.28313 0.28337 0.2835 0.28413 0.28437 0.2845 0.28475 0.285 0.28513 0.28537 0.2855 0.2855 0.2855 0.2855 0.28575 0.28587 0.28613 0.28625 0.28637 0.2865 0.2865 0.28663 0.28675 0.28675 0.287 0.28725 0.28737 0.28737 0.28725 0.2875 0.28775 0.28787 0.288 0.28813 0.28813 0.28825 0.28837 0.2885 0.28863 0.289 0.289 0.28925 0.289 0.28937 0.28963 0.28963 0.28975 0.28987 0.28987 0.28987 0.29013 0.29025 0.29113 0.29163 0.29187 0.2925 0.29237 0.292 0.29187 0.292 0.29213 0.29237 0.2925 0.29263 0.29263 0.29275 0.29287 0.29313 0.29313 0 0.37388 0.3765 0.37475 0.37562 0.376 0.3765 0.37688 0.37625 0.376 0.37575 0.376 0.37662 0.37662 0.3745 0.37388 0.373 0.373 0.37338 0.37362 0.37388 0.374 0.3765 0.3765 0.37625 0.37625 0.37688 0.37662 0.37688 0.3775 0.3775 0.37775 0.3775 0.37738 0.37712 0.37688 0.37112 0.37112 0.37088 0.37088 0.37088 0.37238 0.37088 0.37088 0.37125 0.37125 0.37275 0.3725 0.37862 0.37888 0.37062 0.37062 0.37838 0.37712 0.37738 0.37712 0.37712 0.3765 0.37662 0.3765 0.378 0.37775 0.37825 0.378 0.37775 0.37775 0.37775 0.37825 0.37825 0.37712 0.37688 0.3765 0.37625 0.37625 0.376 0.37575 0.376 0.37575 0.37562 0.37575 0.376 0.37662 0.37662 0.3765 0.37688 0.38288 0.38338 0.38312 0.38238 0.382 0.382 0.382 0.38288 0.38288 0.38288 0.38288 0.38262 0.38238 0.38238 0.38238 0.38288 0.38262 0.38262 0.38338 0.38288 0.38238 0.38238 0.3815 0.38175 0.38175 0.38225 0.38312 0.38288 0.38262 0.38288 0.38262 0.38262 0.38262 0.38288 0.38362 0.38425 0.38288 0.38238 0.38238 0.382 0.382 0.38138 0.3815 0.38262 0.38262 0.38475 0.38288 0.38338 0.38375 0.38375 0.38362 0.38375 0.38562 0.38625
0.35425 0.3595 0.35463 0.35487 0.35737 0.35713 0.35737 0.35775 0.35775 0.35775 0.35837 0.35537 0.35537 0.356 0.35575 0.35537 0.35525 0.35537 0.355 0.3545 0.35425 0.3545 0.35387 0.35363 0.35363 0.35363 0.354 0.3595 0.35913 0.359 0.35875 0.3585 0.35837 0.35913 0.36 0.35938 0.35938 0.35837 0.3585 0.35938 0.35913 0.35875 0.35875 0.359 0.359 0.3615 0.3605 0.36038 0.36075 0.36075 0.36362 0.36275 0.36275 0.3625 0.36212 0.35775 0.35775 0.35563 0.35525 0.35575 0.359 0.359 0.35875 0.359 0.358 0.358 0.35775 0.35837 0.35837 0.359 0.35913 0.35875 0.35875 0.35875 0.359 0.35938 0.35913 0.35913 0.35913 0.3595 0.35938 0.359 0.35913 0.363 0.36362 0.36362 0 0 0 0 0 0 0 0.28025 0.27963 0.27937 0.27913 0.27837 0.278 0.27775 0.2775 0.27737 0.2775 0.27763 0.27775 0.27787 0.27787 0.278 0.278 0.278 0.27775 0.27763 0.27763 0.27775 0.27837 0.27863 0.27875 0.27925 0.27937 0.27937 0.2795 0.27975 0.27987 0.28 0.28 0.28037 0.2805 0.2805 0.281 0.28113 0.28125 0.2815 0.2815 0.28137 0.2815 0.2815 0.28175 0.28175 0.28175 0.282 0.28213 0.28213 0.28225 0.28237 0.28237 0.28225 0.28225 0.28237 0.28237 0.28237 0.28263 0.28275 0.283 0.28325 0.2835 0.28413 0.2845 0.28475 0.28475 0.285 0.28513 0.28537 0.28537 0.2855 0.2855 0.28563 0.28587 0.286 0.28625 0.28637 0.2865 0.2865 0.28663 0.28675 0.28675 0.28675 0.28675 0.28725 0.2875 0.28775 0.28775 0.28787 0.28813 0.28825 0.28825 0.28825 0.28837 0.28837 0.2885 0.28863 0.28875 0.28887 0.289 0.289 0.289 0.28925 0.2895 0.28963 0.28975 0.28975 0.28975 0.28975 0.28987 0.29013 0.29063 0.29113 0.29175 0.29175 0.29163 0.29163 0.2915 0.29175 0.29187 0.29213 0.29237 0.2925 0.29263 0.29263 0.29287 0.29325 0.29313 0 0.37388 0.37388 0.374 0.37488 0.37512 0.376 0.37625 0.37575 0.37488 0.37488 0.37538 0.37625 0.3765 0.3745 0.3745 0.37275 0.37238 0.37275 0.373 0.373 0.374 0.3765 0.37662 0.376 0.37562 0.376 0.37575 0.376 0.37688 0.37738 0.37738 0.37738 0.37738 0.37712 0.3765 0.37112 0.37088 0.37088 0.37062 0.37112 0.37175 0.37112 0.37112 0.37088 0.37175 0.37212 0.3725 0.37825 0.37862 0.37062 0.37062 0.37838 0.37712 0.37738 0.37712 0.37625 0.376 0.3765 0.3765 0.378 0.37775 0.37775 0.3775 0.3775 0.3775 0.37775 0.378 0.378 0.37688 0.37662 0.37625 0.37625 0.37625 0.37575 0.37575 0.37538 0.37538 0.37512 0.37538 0.37575 0.3765 0.37625 0.37625 0.37688 0.38288 0.38288 0.38312 0.382 0.3815 0.38138 0.3815 0.38238 0.38238 0.38225 0.38225 0.38225 0.38238 0.38225 0.38238 0.38262 0.38262 0.38262 0.38312 0.38225 0.38225 0.38138 0.38138 0.38138 0.38138 0.38175 0.38238 0.38238 0.38225 0.38225 0.38225 0.38225 0.38225 0.38238 0.38288 0.38425 0.38238 0.38238 0.38175 0.382 0.382 0.38138 0.3815 0.38262 0.38262 0.38475 0.38288 0.38312 0.38338 0.38362 0.38362 0.38375 0.38588 0.38562
0.35025 0.35387 0.35387 0.351 0.35113 0.351 0.35 0.35 0.3515 0.3515 0.35363 0.34913 0.34925 0.35525 0.355 0.355 0.35463 0.35063 0.35075 0.34987 0.35 0.34987 0.3495 0.34963 0.35 0.34963 0.34963 0.3585 0.35875 0.3585 0.358 0.35737 0.35713 0.35637 0.357 0.354 0.354 0.355 0.35525 0.35525 0.35463 0.35387 0.35387 0.35575 0.35487 0.35463 0.35463 0.35463 0.35537 0 0 0.35287 0.35313 0.35313 0.3545 0.35463 0.35625 0.3545 0.35463 0.35425 0.35487 0.35487 0.35563 0.35537 0.35675 0.357 0.357 0.35763 0.35775 0.35837 0.3585 0.3585 0.35875 0.3585 0.35875 0.35913 0.35913 0.359 0.359 0.359 0.35875 0.35875 0.35775 0.35775 0.36075 0.36075 0 0 0 0 0 0 0 0.28037 0.27963 0.27913 0.27875 0.27787 0.27775 0.27763 0.27737 0.27737 0.2775 0.27763 0.27763 0.27775 0.27775 0.27787 0.27787 0.27775 0.2775 0.2775 0.2775 0.27763 0.27825 0.27863 0.27863 0.27913 0.27925 0.2795 0.27963 0.27975 0.27987 0.27987 0.28013 0.28025 0.28037 0.2805 0.281 0.28113 0.28125 0.28137 0.28137 0.2815 0.28137 0.2815 0.28175 0.28175 0.28175 0.282 0.28213 0.28225 0.28225 0.28237 0.28225 0.28213 0.28225 0.28225 0.28237 0.28237 0.2825 0.28275 0.28287 0.28325 0.2835 0.28413 0.2845 0.28463 0.28487 0.285 0.28513 0.2855 0.28537 0.2855 0.28563 0.2855 0.28587 0.286 0.28613 0.28637 0.28637 0.28625 0.2865 0.2865 0.28663 0.28663 0.28675 0.28713 0.2875 0.28775 0.288 0.28813 0.2885 0.2885 0.28837 0.28863 0.2885 0.28863 0.28863 0.28863 0.28875 0.28887 0.28887 0.28887 0.28887 0.28925 0.2895 0.28963 0.28975 0.28963 0.28975 0.28963 0.28975 0.28987 0.29025 0.2905 0.29 0.291 0.29087 0.29087 0.29113 0.29137 0.29175 0.29187 0.29187 0.29237 0.2925 0.2925 0.29263 0 0 0.37488 0.37362 0.37388 0.37388 0.37388 0.37388 0.37338 0.37575 0.37512 0.37388 0.37388 0.37475 0.36912 0.36912 0.37025 0.37025 0.37112 0.3715 0.37175 0.37212 0.37212 0.37212 0.37212 0.37212 0.37338 0.37475 0.37512 0.37475 0.37488 0.3765 0.37688 0.37188 0.37188 0.37188 0.3715 0.37175 0.37062 0.37088 0.37062 0.37062 0.37112 0.37125 0.37112 0.37088 0.37088 0.37088 0.37088 0.37212 0.37238 0.37038 0.37025 0.37025 0.36938 0.36962 0.37025 0.37475 0.37512 0.37512 0.37 0.37025 0.37175 0.3715 0.37625 0.37188 0.37188 0.37175 0.37175 0.37038 0.37038 0.37362 0.37388 0.3715 0.3715 0.3715 0.37025 0.37025 0.37488 0.3745 0.37475 0.37488 0.37562 0.376 0.376 0.376 0.37662 0.37775 0.37775 0.38225 0.3815 0.38112 0.38112 0.38112 0.38175 0.382 0.3815 0.38138 0.38175 0.38225 0.37775 0.37775 0.37775 0.37838 0.37825 0.37838 0.37838 0.37838 0.38038 0.38038 0.38062 0.38088 0.38138 0.38175 0.38175 0.38175 0.38175 0.38175 0.3815 0.38175 0.38225 0.38262 0 0.37838 0.37838 0.37688 0.37712 0.37775 0.3775 0.37662 0.37662 0.37825 0.378 0.37975 0.37738 0.37712 0.37662 0.37662 0.38238 0.3815 0.38175
0.35 0.352 0.352 0.35063 0.35063 0.35025 0.34925 0.34837 0.34813 0.34813 0.34837 0.34837 0.34837 0.34813 0.34813 0.34837 0.35287 0.35063 0.35075 0.35 0.34925 0.34925 0.34913 0.34925 0.34925 0.34887 0.3485 0.34813 0.34725 0.34737 0.35075 0.351 0.35075 0.35075 0.351 0.354 0.35387 0.35387 0.35387 0.35387 0.3535 0.3535 0.35387 0.354 0.35387 0.35387 0.35387 0.35325 0.3525 0.352 0.35213 0.35137 0.35213 0.35287 0.35313 0.35287 0.35387 0.354 0.3535 0.35325 0.3535 0.35363 0.35387 0.354 0.354 0.35425 0.3535 0.35363 0.35487 0.354 0.354 0.354 0.354 0.357 0.35763 0.35837 0.35813 0.35837 0.35813 0.358 0.35737 0.35737 0.35737 0.35713 0.35525 0.35137 0.35137 0 0 0 0 0 0 0.28037 0.27687 0.277 0.27713 0.27725 0.27713 0.27725 0.277 0.277 0.277 0.27737 0.2775 0.2775 0.2775 0.2775 0.27725 0.27713 0.277 0.27687 0.27687 0.27713 0.27763 0.278 0.2785 0.27913 0.27937 0.2795 0.27963 0.27975 0.27987 0.27987 0.28 0.28013 0.28025 0.28037 0.28075 0.28087 0.28113 0.281 0.28125 0.28137 0.2815 0.2815 0.2815 0.2815 0.28163 0.28175 0.28187 0.28187 0.28225 0.28225 0.28225 0.28213 0.28213 0.28225 0.28225 0.28237 0.2825 0.28263 0.28287 0.28325 0.28337 0.284 0.28437 0.2845 0.28463 0.28487 0.28487 0.28537 0.28537 0.2855 0.28563 0.28563 0.28575 0.286 0.28613 0.28637 0.28637 0.28625 0.2865 0.2865 0.28663 0.28675 0.28675 0.28713 0.2875 0.28787 0.28813 0.28825 0.2885 0.28863 0.28863 0.28875 0.28875 0.28875 0.28875 0.28863 0.28863 0.28875 0.28875 0.28875 0.28875 0.289 0.28925 0.2895 0.28963 0.28963 0.28963 0.2895 0.28975 0.28975 0.29 0.29013 0.29025 0.29063 0.29063 0.2905 0.29113 0.29125 0.29163 0.29163 0.29187 0.29213 0.29213 0.29213 0.29237 0 0 0.35975 0.35975 0.36138 0.36338 0.36312 0.36438 0.36425 0.36425 0.36875 0.36475 0.36475 0.36475 0.36475 0.36588 0.36725 0.36725 0.36775 0.36712 0.36725 0.369 0.36962 0.37 0.37 0.36975 0.37125 0.37125 0.3715 0.37175 0.37175 0.37175 0.37125 0.37062 0.37112 0.37088 0.37088 0.37062 0.37025 0.36975 0.36962 0.36938 0.37 0.37025 0.37038 0.37025 0.37038 0.37025 0.37038 0.37088 0.37112 0.37025 0.36962 0.36938 0.36912 0.36912 0.36912 0.36962 0.36938 0.36975 0.36962 0.37025 0.37038 0.37 0.36975 0.37038 0.37088 0.37125 0.37112 0.37038 0.37 0.36975 0.36962 0.37088 0.37088 0.37088 0.37025 0.37 0.37025 0.37062 0.37088 0.37112 0.37125 0.37188 0.37425 0.37488 0.37512 0.37538 0.37062 0.37062 0.37712 0.37738 0.37712 0.37662 0.37662 0.3725 0.3725 0.37712 0.37662 0.37662 0.37662 0.37688 0.37688 0.37738 0.37738 0.3775 0.37775 0.37775 0.378 0.37862 0.3795 0.3795 0.37925 0.37862 0.37738 0.37712 0.37912 0.37912 0.37912 0.38088 0.376 0.37425 0.3745 0.37838 0.3775 0.376 0.37575 0.37662 0.3765 0.376 0.37575 0.37625 0.37562 0.376 0.37488 0.37512 0.37362 0.37338 0.37338 0.374 0.374
0.35025 0.35075 0.351 0.35025 0.35 0.34963 0.3485 0.34813 0.348 0.34813 0.34813 0.34813 0.34813 0.34813 0.34813 0.34837 0.35287 0.35063 0.35037 0.34987 0.34887 0.34913 0.34875 0.34887 0.34875 0.3485 0.34813 0.348 0.34763 0.34725 0.35075 0.35063 0.35025 0.35075 0.351 0.354 0.3535 0.35313 0.3535 0.35325 0.35287 0.35313 0.35325 0.35387 0.35325 0.35363 0.3535 0.3525 0.3525 0.352 0.35213 0.35137 0.3515 0.35237 0.35287 0.35287 0.35313 0.35363 0.35313 0.35287 0.35287 0.35287 0.35275 0.35313 0.3535 0.3535 0.3535 0.3535 0.354 0.354 0.354 0.354 0.35525 0.35625 0.357 0.35813 0.358 0.358 0.358 0.357 0.35713 0.35737 0.357 0.35713 0.35525 0.35137 0.35137 0 0 0 0 0 0 0 0.27687 0.27713 0.277 0.277 0.277 0.277 0.277 0.27687 0.277 0.27725 0.2775 0.2775 0.2775 0.27725 0.27713 0.277 0.27687 0.27675 0.27687 0.277 0.27763 0.278 0.2785 0.27937 0.2795 0.2795 0.27963 0.27975 0.27987 0.28 0.28 0.28013 0.28037 0.28037 0.28063 0.28087 0.28087 0.28087 0.28113 0.28125 0.2815 0.28137 0.28137 0.2815 0.2815 0.28175 0.28175 0.28187 0.28213 0.28213 0.28213 0.282 0.28213 0.28225 0.28225 0.28237 0.28263 0.28275 0.28287 0.28337 0.2835 0.28387 0.28425 0.2845 0.28463 0.28475 0.28475 0.28525 0.28525 0.28563 0.28563 0.28575 0.28587 0.28613 0.28625 0.28637 0.28637 0.28637 0.28675 0.28675 0.28687 0.28687 0.28687 0.28725 0.28737 0.28775 0.28813 0.28825 0.28875 0.28887 0.28887 0.28875 0.28887 0.28875 0.28875 0.28875 0.28863 0.2885 0.28863 0.28887 0.28887 0.28875 0.28937 0.2895 0.2895 0.28963 0.28963 0.2895 0.28975 0.28987 0.29 0.29013 0.29025 0.29063 0.291 0.29113 0.2915 0.29163 0.29187 0.29187 0.292 0.29213 0.29213 0.29213 0.29237 0 0 0.35975 0.36 0.36138 0.36338 0.36312 0.36438 0.36425 0.36425 0.36875 0.36475 0.36462 0.36475 0.365 0.36588 0.36625 0.36712 0.36725 0.36688 0.36712 0.369 0.36875 0.369 0.36975 0.36975 0.37125 0.37125 0.3715 0.37175 0.37125 0.37175 0.37125 0.37062 0.37025 0.37025 0.37025 0.37 0.36975 0.369 0.3685 0.36875 0.36938 0.37025 0.36975 0.36975 0.36962 0.36975 0.37 0.37025 0.37125 0.37025 0.36912 0.36938 0.369 0.36912 0.36912 0.36962 0.36938 0.36962 0.36962 0.36975 0.36975 0.36975 0.36975 0.37 0.37025 0.37088 0.37062 0.37 0.37 0.36975 0.37025 0.37062 0.37062 0.37038 0.37 0.37 0.37025 0.37038 0.37088 0.37088 0.37125 0.37188 0.37425 0.3745 0.37425 0.37512 0.37062 0.37062 0.37712 0.37738 0.37712 0.37662 0.37662 0.3725 0.3725 0.37712 0.37662 0.37662 0.37662 0.3765 0.37625 0.37688 0.37712 0.37738 0.37738 0.37712 0.37738 0.378 0.37888 0.37888 0.37825 0.3775 0.37712 0.37712 0.37825 0.37825 0.37825 0.38088 0.376 0.37425 0.3745 0.37838 0.37838 0.37512 0.37538 0.376 0.37575 0.37562 0.37538 0.37562 0.37538 0.37562 0.37488 0.37425 0.37362 0.37325 0.37338 0.37388 0.374
0.34963 0.35 0.35025 0.3495 0.34925 0.34913 0.348 0.34763 0.34763 0.34763 0.34763 0.34775 0.348 0.34775 0.34813 0.34813 0.34875 0.3485 0.34987 0.34925 0.3485 0.3485 0.34837 0.3485 0.34837 0.348 0.34775 0.34763 0.34725 0.34737 0.34837 0.34913 0.34913 0.34737 0.34737 0.34763 0.34737 0.3525 0.35287 0.35287 0.35275 0.3495 0.3495 0.3515 0.3525 0.352 0.35 0.34963 0.3495 0.34925 0.34875 0.34887 0.34987 0.34987 0.34875 0.34875 0.34875 0.35213 0.35275 0.35237 0.35237 0.35213 0.352 0.35237 0.35325 0.35313 0.35275 0.35287 0.35325 0.35363 0.35387 0.35387 0.35463 0.35525 0.35425 0.3545 0.356 0.35425 0.35425 0.352 0.35213 0.35275 0.351 0.35113 0.35113 0.34837 0.3485 0 0 0 0 0 0.27713 0.27713 0.27775 0.27737 0.27713 0.277 0.27687 0.277 0.27687 0.277 0.277 0.27737 0.2775 0.2775 0.2775 0.2775 0.27713 0.27713 0.27687 0.27687 0.27687 0.277 0.27763 0.27787 0.27837 0.27937 0.2795 0.2795 0.27975 0.27987 0.28 0.28 0.28 0.28025 0.28025 0.28037 0.2805 0.28063 0.28075 0.28075 0.28087 0.28113 0.28125 0.28125 0.28125 0.28137 0.28137 0.28163 0.28175 0.28187 0.28213 0.282 0.282 0.282 0.28213 0.28225 0.28237 0.28237 0.2825 0.28263 0.28275 0.28337 0.2835 0.28387 0.28413 0.28437 0.2845 0.28463 0.28475 0.28525 0.28525 0.2855 0.28563 0.28563 0.28587 0.286 0.28625 0.28637 0.28637 0.28637 0.28675 0.28687 0.28687 0.28687 0.28687 0.28713 0.2875 0.28763 0.288 0.28813 0.2885 0.28887 0.28863 0.28863 0.28863 0.28863 0.28863 0.2885 0.28837 0.28837 0.28837 0.28875 0.28875 0.28875 0.289 0.28937 0.28937 0.2895 0.2895 0.2895 0.28963 0.28975 0.29 0.29013 0.29025 0.29063 0.29087 0.29113 0.2915 0.29163 0.29187 0.292 0.292 0.29213 0.29213 0.29213 0.2925 0 0 0.35913 0.35975 0.35975 0.36075 0.361 0.363 0.36112 0.36112 0.36275 0.36275 0.36425 0.36438 0.36462 0.365 0.36538 0.36588 0.366 0.366 0.36525 0.36525 0.36525 0.36625 0.3665 0.36625 0.36625 0.3665 0.36625 0.36975 0.37025 0.36938 0.36788 0.3675 0.369 0.36938 0.36912 0.369 0.36875 0.36788 0.36775 0.36775 0.36662 0.36725 0.3685 0.3685 0.36875 0.369 0.369 0.36912 0.36788 0.36625 0.366 0.366 0.36562 0.36525 0.365 0.36525 0.365 0.3685 0.36875 0.36938 0.36938 0.36938 0.36938 0.36938 0.36975 0.37025 0.37 0.36962 0.36962 0.36962 0.36975 0.37038 0.37025 0.37 0.36975 0.36962 0.36975 0.37025 0.37038 0.37038 0.37062 0.37 0.37 0.37 0.37038 0.37175 0.36875 0.369 0.36775 0.3675 0.36912 0.36788 0.36812 0.36875 0.36875 0.36962 0.36975 0.36975 0.37 0.36875 0.36875 0.36975 0.36962 0.37 0.376 0.37662 0.37688 0.37738 0.37775 0.378 0.37738 0.37662 0.37625 0.376 0.37488 0.373 0.37175 0.37175 0.37025 0.37 0.37062 0.37112 0.37088 0.37475 0.37512 0.37512 0.37512 0.37512 0.37488 0.37488 0.37475 0.37475 0.3745 0.37362 0.373 0.373 0.373 0.37362 0.37362
0.3485 0.34887 0.34913 0.34837 0.34813 0.34775 0.34687 0.3465 0.34625 0.34613 0.34587 0.34587 0.3465 0.3465 0.34663 0.34725 0.34763 0.34763 0.34837 0.34813 0.34775 0.348 0.34775 0.348 0.34763 0.347 0.34663 0.34663 0.3465 0.34687 0.34737 0.34763 0.34763 0.34725 0.347 0.34725 0.347 0.348 0.348 0.34775 0.34813 0.3485 0.34837 0.34963 0.35037 0.35075 0.35025 0.34925 0.34913 0.34913 0.3485 0.3485 0.34875 0.3485 0.34837 0.34813 0.348 0.34925 0.34837 0.3485 0.34837 0.34737 0.34737 0.34725 0.34737 0.3485 0.3485 0.3485 0.3485 0.3485 0.34963 0.352 0.35175 0.35037 0.34837 0.34813 0.354 0.3545 0.35425 0.34463 0.34487 0.34725 0.348 0.34725 0.34725 0.34613 0.34625 0 0 0 0 0 0.27713 0.27713 0.277 0.27675 0.27663 0.27663 0.27663 0.27687 0.27687 0.277 0.27713 0.27737 0.2775 0.2775 0.27763 0.2775 0.27725 0.277 0.27713 0.27687 0.27687 0.27713 0.2775 0.27787 0.27837 0.27937 0.2795 0.2795 0.27963 0.27987 0.28 0.28 0.28 0.28025 0.28025 0.28037 0.2805 0.2805 0.2805 0.2805 0.28075 0.281 0.28113 0.28113 0.28113 0.28113 0.28125 0.28163 0.28163 0.28175 0.282 0.28187 0.28175 0.28175 0.28187 0.28225 0.28225 0.28237 0.2825 0.28263 0.28275 0.28325 0.28337 0.28375 0.284 0.28425 0.28425 0.28437 0.28437 0.285 0.285 0.28525 0.2855 0.2855 0.28575 0.28587 0.286 0.28625 0.28637 0.28637 0.28663 0.28675 0.28687 0.28687 0.28687 0.287 0.28713 0.28737 0.28763 0.28787 0.28813 0.28825 0.28813 0.28825 0.28813 0.28813 0.28825 0.28813 0.288 0.288 0.288 0.2885 0.28863 0.28875 0.28875 0.289 0.289 0.28937 0.28937 0.28937 0.2895 0.28963 0.28987 0.29 0.29013 0.2905 0.29063 0.291 0.29137 0.29163 0.29175 0.292 0.292 0.29213 0.29213 0.29213 0.2925 0.35763 0.35763 0.35713 0.35837 0.35938 0.36 0.3605 0.3615 0.361 0.36112 0.36112 0.36038 0.36212 0.3625 0.3625 0.36275 0.363 0.36338 0.36425 0.36438 0.36462 0.36462 0.362 0.36175 0.36138 0.36038 0.3605 0.3605 0.3605 0.3605 0.362 0.36212 0.36425 0.36425 0.36538 0.366 0.36712 0.36662 0.3665 0.366 0.36588 0.36588 0.366 0.36625 0.36625 0.3665 0.3665 0.36688 0.36688 0.36662 0.36588 0.36538 0.36525 0.36538 0.365 0.36475 0.36462 0.36475 0.36475 0.36688 0.36725 0.36838 0.36838 0.36812 0.36812 0.36812 0.36838 0.36875 0.36838 0.36775 0.36788 0.36812 0.3685 0.369 0.36912 0.36912 0.369 0.36875 0.36912 0.36912 0.369 0.36875 0.36875 0.36875 0.36875 0.369 0.36788 0.36662 0.36662 0.3675 0.36775 0.36775 0.36875 0.36812 0.36812 0.36812 0.36838 0.36875 0.36875 0.36875 0.369 0.3685 0.3685 0.369 0.369 0.3685 0.369 0.363 0.363 0.37662 0.37662 0.37662 0.37512 0.3745 0.374 0.36725 0.3675 0.36725 0.3675 0.37038 0.36975 0.36938 0.36938 0.36962 0.36838 0.36812 0.36788 0.36838 0.3685 0.3685 0.36875 0.36712 0.36712 0.3675 0.36812 0.36788 0.36788 0.36812 0.37188 0.37238 0.37275
0.348 0.34875 0.34875 0.34813 0.34813 0.347 0.34587 0.34575 0.34575 0.34525 0.34525 0.34525 0.34563 0.34575 0.34613 0.3465 0.34663 0.34687 0.34813 0.34737 0.34737 0.34763 0.34763 0.34775 0.34737 0.34663 0.34625 0.34625 0.34625 0.34663 0.34737 0.34725 0.34725 0.347 0.34687 0.347 0.347 0.348 0.348 0.34775 0.34813 0.3485 0.34837 0.34963 0.34963 0.35 0.35 0.34913 0.34875 0.3485 0.34837 0.34813 0.34837 0.348 0.348 0.34775 0.34837 0.34887 0.34875 0.34837 0.3485 0.34763 0.34737 0.34725 0.348 0.34837 0.3485 0.34837 0.3485 0.34875 0.34963 0.352 0.35175 0.35037 0.34837 0.34813 0.354 0.354 0.35425 0.34463 0.345 0.34737 0.34763 0.34737 0.34725 0.34663 0.34613 0 0 0 0 0 0.27713 0.27713 0.27675 0.27625 0.27625 0.27625 0.2765 0.27687 0.277 0.27725 0.27737 0.2775 0.27763 0.2775 0.27775 0.27775 0.27787 0.27763 0.2775 0.27725 0.27787 0.278 0.27863 0.279 0.27913 0.27937 0.2795 0.2795 0.27963 0.27987 0.28 0.28013 0.28 0.28025 0.28025 0.28025 0.2805 0.2805 0.2805 0.2805 0.28075 0.28087 0.281 0.281 0.28113 0.281 0.28113 0.2815 0.28163 0.28175 0.28187 0.28187 0.28163 0.28163 0.28187 0.28225 0.28237 0.28237 0.2825 0.28263 0.28263 0.28337 0.28337 0.28375 0.28387 0.284 0.28425 0.28425 0.28437 0.28487 0.28487 0.28513 0.28537 0.28537 0.28563 0.28587 0.286 0.28625 0.28637 0.28637 0.28663 0.28675 0.28675 0.28687 0.28675 0.28687 0.28687 0.28713 0.2875 0.28763 0.288 0.28813 0.28787 0.28787 0.288 0.288 0.28813 0.288 0.28787 0.28787 0.288 0.28837 0.28863 0.28863 0.28875 0.28887 0.289 0.28925 0.28937 0.2895 0.28963 0.28963 0.28987 0.29 0.29013 0.2905 0.29063 0.29075 0.2915 0.29163 0.292 0.29213 0.29213 0.2925 0.2925 0.2925 0 0.35763 0.35763 0.35737 0.35713 0.35813 0.36038 0.36038 0.3605 0.36038 0.36038 0.36038 0.3605 0.36112 0.36138 0.3615 0.36175 0.36212 0.36238 0.36362 0.36375 0.36425 0.36438 0.362 0.36175 0.36138 0.3605 0.36038 0.3605 0.3605 0.36075 0.362 0.36212 0.36425 0.36425 0.36538 0.366 0.36588 0.36562 0.36538 0.36525 0.36525 0.36525 0.36538 0.36538 0.36538 0.36562 0.36588 0.36588 0.366 0.36538 0.365 0.36462 0.365 0.36475 0.36475 0.36438 0.36425 0.36438 0.36462 0.36588 0.3675 0.3675 0.36788 0.36725 0.36725 0.3675 0.3675 0.36838 0.36688 0.36688 0.36712 0.36725 0.36725 0.3685 0.3685 0.3685 0.36838 0.36838 0.36875 0.36875 0.36788 0.36788 0.36788 0.36775 0.36812 0.36788 0.36788 0.36662 0.36662 0.3665 0.36775 0.36788 0.36838 0.36812 0.36775 0.36775 0.36788 0.36812 0.36812 0.36812 0.36838 0.36788 0.36788 0.36838 0.3685 0.3685 0.369 0.363 0.363 0.37688 0.37662 0.37625 0.37425 0.37425 0.373 0.36725 0.3675 0.36725 0.3675 0.36962 0.36938 0.3685 0.36838 0.3685 0.36812 0.36812 0.36812 0.3685 0.36838 0.3685 0.36838 0.3675 0.36712 0.3675 0.36775 0.36812 0.36788 0.369 0.37112 0.37212 0.37212
0.33813 0.33663 0.33675 0.341 0.34125 0.3435 0.34325 0.34463 0.34463 0.3445 0.3445 0.34463 0.34463 0.34487 0.34525 0.34563 0.34575 0.34425 0.34487 0.34525 0.3465 0.3465 0.3465 0.345 0.34413 0.34375 0.34525 0.34525 0.3435 0.34337 0.3435 0.34375 0.34525 0.34613 0.34613 0.34587 0.34387 0.34387 0.34375 0.34325 0.34337 0.34225 0.34213 0.34587 0.34587 0.3495 0.34913 0.34875 0.34837 0.34837 0.348 0.34775 0.34775 0.34775 0.34775 0.34725 0.34775 0.34813 0.34837 0.348 0.348 0.34725 0.34687 0.34687 0.34737 0.34775 0.34775 0.348 0.34813 0.34813 0.347 0.3465 0.34663 0.34663 0.3465 0.3465 0.34587 0.34587 0.34587 0.34563 0.34537 0.347 0.34725 0.34687 0.34663 0.34625 0.34525 0 0 0 0 0 0.27637 0.27687 0.2765 0.27625 0.27613 0.27613 0.2765 0.27663 0.27675 0.27713 0.27713 0.27737 0.27737 0.2775 0.27763 0.2775 0.27763 0.2775 0.27737 0.27725 0.2775 0.27763 0.27863 0.279 0.27913 0.2795 0.2795 0.2795 0.27963 0.27987 0.28013 0.28013 0.28 0.28025 0.28013 0.28037 0.2805 0.2805 0.28063 0.2805 0.28063 0.281 0.281 0.28113 0.28113 0.28113 0.28125 0.2815 0.28163 0.28163 0.28187 0.28175 0.28163 0.28163 0.28187 0.28237 0.28237 0.2825 0.28263 0.28275 0.28325 0.2835 0.2835 0.28363 0.28387 0.284 0.28425 0.28413 0.28425 0.28475 0.28487 0.285 0.28525 0.28537 0.28563 0.28575 0.28587 0.28625 0.28625 0.28625 0.2865 0.2865 0.28675 0.28663 0.28663 0.28687 0.28687 0.28713 0.28737 0.28775 0.288 0.28813 0.288 0.288 0.28813 0.28813 0.28813 0.288 0.28775 0.28787 0.288 0.28837 0.2885 0.28863 0.28875 0.28887 0.289 0.28937 0.28937 0.2895 0.28963 0.28975 0.28987 0.29 0.29025 0.2905 0.29075 0.29087 0.2915 0.29163 0.292 0.29237 0.29237 0.29287 0 0.35387 0.35387 0.35487 0.35487 0.35425 0.35425 0.35425 0.35363 0.35363 0.36012 0.36012 0.35975 0.3595 0.35975 0.3605 0.361 0.361 0.36112 0.36138 0.36175 0.36275 0.36275 0.3615 0.361 0.35875 0.3585 0.3585 0.36 0.35975 0.36 0.35975 0.359 0.35837 0.35837 0.35875 0.36012 0.36 0.36012 0.36 0.36212 0.36475 0.365 0.365 0.365 0.36525 0.36525 0.36525 0.36538 0.36525 0.36538 0.36538 0.365 0.36438 0.36425 0.36438 0.36462 0.36438 0.36375 0.36362 0.36375 0.36238 0.364 0.36462 0.36438 0.36475 0.366 0.36625 0.36625 0.36438 0.365 0.36462 0.36588 0.366 0.366 0.36438 0.36362 0.36375 0.36362 0.36462 0.36475 0.36475 0.36475 0.36312 0.36312 0.36312 0.36312 0.36362 0.36362 0.36338 0.36338 0.36312 0.36375 0.366 0.36688 0.36688 0.36662 0.36688 0.36688 0.36688 0.36725 0.36712 0.36712 0.36725 0.36725 0.36712 0.36725 0.36725 0.366 0.36475 0.3615 0.3615 0.36112 0.36 0.36012 0.36012 0.36038 0.36138 0.36275 0.36275 0.36562 0.36588 0.3685 0.3685 0.36838 0.36812 0.36812 0.36775 0.3675 0.36725 0.36775 0.36775 0.36775 0.36775 0.36725 0.36712 0.36725 0.36775 0.36775 0.36788 0.36875 0.36788 0.36812 0.36788
0.33813 0.33713 0.33675 0.341 0.34125 0.3435 0.34325 0.34287 0.343 0.34325 0.34325 0.34337 0.3435 0.34337 0.3435 0.3435 0.3435 0.3435 0.345 0.34537 0.34413 0.34425 0.34413 0.3435 0.34337 0.343 0.34325 0.34325 0.343 0.343 0.34287 0.34375 0.34525 0.34413 0.34387 0.34375 0.34325 0.34325 0.343 0.34287 0.3425 0.34225 0.34213 0.34587 0.34587 0.3485 0.34813 0.34775 0.34775 0.34775 0.34763 0.34725 0.347 0.34737 0.347 0.3465 0.34587 0.34625 0.34763 0.348 0.347 0.3465 0.34563 0.34563 0.34563 0.34575 0.34613 0.34687 0.34687 0.3465 0.34625 0.34613 0.34587 0.34587 0.34575 0.34575 0.34525 0.34525 0.34537 0.34525 0.34537 0.34587 0.34563 0.34613 0.34613 0.345 0.34525 0 0 0 0 0 0.27637 0.27687 0.27663 0.2765 0.27637 0.27625 0.27625 0.27637 0.27637 0.27687 0.27713 0.27713 0.277 0.27725 0.2775 0.2775 0.2775 0.27737 0.27725 0.27713 0.27725 0.27737 0.27825 0.27887 0.279 0.2795 0.27963 0.27975 0.27975 0.28 0.28013 0.28013 0.28013 0.28025 0.28025 0.28037 0.2805 0.28063 0.2805 0.28063 0.28063 0.281 0.281 0.28125 0.28113 0.28125 0.28125 0.28137 0.28163 0.28163 0.28187 0.28175 0.28163 0.28175 0.28187 0.28237 0.2825 0.28263 0.28263 0.28275 0.28325 0.28363 0.28363 0.28363 0.28363 0.28363 0.28387 0.28375 0.28387 0.2845 0.2845 0.28487 0.285 0.28513 0.28563 0.28563 0.28575 0.286 0.286 0.286 0.28637 0.28637 0.2865 0.2865 0.2865 0.2865 0.28663 0.28687 0.28713 0.28737 0.28775 0.288 0.28775 0.28787 0.288 0.288 0.28813 0.288 0.28787 0.28787 0.288 0.28825 0.2885 0.2885 0.28863 0.28875 0.28887 0.28925 0.28937 0.2895 0.28963 0.28975 0.29 0.29013 0.29025 0.29075 0.29087 0.291 0.2915 0.29163 0.29213 0.2925 0.29275 0.29287 0 0.35387 0.354 0.3545 0.3545 0.354 0.354 0.35363 0.35325 0.35363 0.35975 0.35975 0.35837 0.35837 0.3595 0.3595 0.36 0.36 0.36 0.36 0.36012 0.36075 0.3605 0.36038 0.36038 0.35813 0.358 0.35775 0.358 0.35813 0.35813 0.35837 0.35813 0.358 0.358 0.35837 0.35875 0.35913 0.35875 0.36012 0.36212 0.36475 0.36475 0.36462 0.36475 0.36462 0.36462 0.36462 0.365 0.36475 0.36475 0.365 0.36375 0.36338 0.36338 0.36438 0.364 0.36375 0.363 0.36275 0.3625 0.36212 0.36362 0.36375 0.36462 0.36475 0.36462 0.36425 0.36425 0.36425 0.36438 0.36425 0.36425 0.36425 0.36438 0.36375 0.36312 0.36312 0.36375 0.364 0.36425 0.36425 0.364 0.363 0.36238 0.36238 0.3625 0.36275 0.36275 0.3625 0.36275 0.36275 0.36362 0.366 0.36438 0.36462 0.36462 0.365 0.36525 0.36525 0.36538 0.36538 0.36538 0.36562 0.36538 0.36525 0.36562 0.36538 0.36475 0.36438 0.3615 0.36112 0.36075 0.36012 0.36 0.36 0.36038 0.36138 0.362 0.36275 0.36562 0.36588 0.3665 0.36712 0.3675 0.36775 0.36725 0.36688 0.36625 0.366 0.366 0.3665 0.366 0.36625 0.36662 0.3665 0.36625 0.36662 0.36712 0.3675 0.36712 0.3675 0.36775 0.36788
0.33637 0.33675 0.33663 0.33663 0.33637 0.337 0.33675 0.3425 0.34263 0.34287 0.343 0.343 0.343 0.343 0.343 0.34287 0.34263 0.3425 0.34187 0.34263 0.34287 0.34325 0.34287 0.34263 0.34225 0.3425 0.3425 0.34263 0.34263 0.3425 0.34225 0.34187 0.34325 0.34337 0.34287 0.34287 0.34263 0.3425 0.3425 0.34213 0.34187 0.34187 0.34175 0.34187 0.34063 0.34063 0.34087 0.341 0.34225 0.34225 0.3425 0.347 0.34687 0.341 0.34125 0.34487 0.345 0.34525 0.34487 0.34563 0.34287 0.34287 0.34463 0.3445 0.34463 0.34487 0.34537 0.34625 0.34625 0.34587 0.34563 0.34575 0.34525 0.34525 0.34537 0.34487 0.34463 0.34463 0.34487 0.345 0.345 0.34525 0.34463 0.34287 0.34287 0.34213 0.34187 0 0 0 0 0 0.27725 0.27725 0.277 0.27663 0.2765 0.27625 0.27613 0.27625 0.27625 0.27687 0.277 0.27713 0.27713 0.27725 0.2775 0.2775 0.2775 0.27737 0.27725 0.27725 0.27713 0.27725 0.27825 0.27887 0.27913 0.2795 0.2795 0.27975 0.27987 0.28013 0.28013 0.28013 0.28013 0.28025 0.28037 0.28037 0.2805 0.28063 0.2805 0.2805 0.28063 0.281 0.281 0.28113 0.28113 0.28113 0.28113 0.28137 0.2815 0.28163 0.28187 0.28175 0.28163 0.28175 0.28187 0.28237 0.2825 0.28263 0.28263 0.28275 0.28325 0.28363 0.2835 0.28363 0.2835 0.28337 0.2835 0.28363 0.28375 0.28437 0.28437 0.28475 0.28487 0.28513 0.28563 0.28563 0.28575 0.286 0.286 0.286 0.28625 0.28625 0.28637 0.28637 0.28637 0.2865 0.2865 0.28663 0.28687 0.28713 0.2875 0.28775 0.28763 0.28775 0.28775 0.28787 0.28813 0.288 0.288 0.28787 0.288 0.28837 0.28837 0.2885 0.28863 0.28875 0.28887 0.28925 0.28937 0.28937 0.28975 0.28987 0.29 0.29013 0.29037 0.29075 0.291 0.29113 0.2915 0.29163 0.29237 0.29263 0.29275 0.293 0 0.35425 0.3545 0.35425 0.35425 0.354 0.35363 0.3535 0.35313 0.35275 0.3525 0.35275 0.3525 0.3545 0.35363 0.35363 0.3545 0.3545 0.3595 0.35938 0.3595 0.35975 0.36 0.3595 0.35938 0.35875 0.35737 0.35713 0.35713 0.35737 0.35737 0.35763 0.35763 0.35763 0.35737 0.358 0.35837 0.35813 0.35737 0.357 0.35775 0.35763 0.35763 0.35775 0.36438 0.36438 0.36462 0.36462 0.36462 0.357 0.357 0.357 0.35737 0.35737 0.35775 0.36425 0.36375 0.36362 0.35737 0.35737 0.36112 0.3615 0.36312 0.36312 0.35837 0.3585 0.36362 0.36375 0.36375 0.364 0.36425 0.36375 0.36362 0.36425 0.36425 0.36338 0.36275 0.36275 0.36312 0.36362 0.36362 0.36362 0.36338 0.36212 0.3615 0.36175 0.36175 0.36175 0.36212 0.362 0.36175 0.362 0.3625 0.36312 0.36362 0.364 0.36425 0.36438 0.36438 0.36475 0.36475 0.365 0.365 0.365 0.36475 0.36462 0.365 0.36475 0.36425 0.364 0.361 0.36075 0.3605 0.36 0.35975 0.36 0.36 0.3615 0.3615 0.3615 0.36312 0.36338 0.36588 0.36662 0.36725 0.36725 0.36712 0.3665 0.366 0.36588 0.36562 0.366 0.36588 0.36588 0.3665 0.36588 0.36562 0.366 0.3665 0.36712 0.3665 0.36712 0.36775 0.363
0.33625 0.3355 0.33537 0.3355 0.33525 0.33537 0.33525 0.34225 0.3425 0.34263 0.34287 0.3425 0.3425 0.34263 0.34263 0.3425 0.34175 0.34163 0.34175 0.34213 0.34263 0.3425 0.34213 0.33925 0.33925 0.34125 0.34175 0.34213 0.34187 0.34175 0.3385 0.338 0.33787 0.33787 0.33787 0.33763 0.33787 0.33787 0.33787 0.33787 0.33937 0.34013 0.34025 0.34 0.33575 0.3355 0.33575 0.33587 0.33575 0.33975 0.33587 0.33587 0.33625 0.33613 0.33625 0.33713 0.33713 0.33787 0.33637 0.33637 0.34287 0.34263 0.34263 0.3425 0.3425 0.34225 0.3445 0.34487 0.34487 0.34175 0.34187 0.34263 0.343 0.3435 0.34425 0.34425 0.34387 0.34375 0.3435 0.34337 0.34325 0.34287 0.34125 0.34137 0.34137 0.34137 0.34125 0 0 0 0 0 0.27713 0.27713 0.27713 0.27675 0.27675 0.27625 0.27625 0.27625 0.27637 0.27687 0.27725 0.27725 0.27713 0.27725 0.27737 0.2775 0.27737 0.27725 0.27725 0.27713 0.27725 0.27725 0.27813 0.27887 0.279 0.27937 0.2795 0.27963 0.27975 0.28 0.28013 0.28 0.28013 0.28025 0.28037 0.2805 0.2805 0.2805 0.2805 0.2805 0.28063 0.281 0.281 0.28113 0.281 0.281 0.281 0.28125 0.28125 0.28125 0.2815 0.28137 0.28137 0.28137 0.28175 0.28225 0.28225 0.28237 0.28263 0.28263 0.28275 0.2835 0.2835 0.2835 0.2835 0.28337 0.2835 0.2835 0.28363 0.28437 0.28437 0.28463 0.28475 0.285 0.28537 0.2855 0.28575 0.28587 0.28587 0.286 0.286 0.28625 0.28637 0.28637 0.28637 0.28637 0.28637 0.28637 0.28675 0.28687 0.287 0.28725 0.28725 0.2875 0.2875 0.28763 0.28787 0.28787 0.28787 0.28787 0.288 0.28825 0.28837 0.28837 0.28863 0.28875 0.28887 0.28925 0.28937 0.28937 0.28975 0.28987 0.29013 0.29025 0.2905 0.291 0.29113 0.29125 0.29163 0.29175 0.29237 0.29263 0.29275 0.293 0.29313 0.29313 0.3545 0.35425 0.35425 0.35425 0.35325 0.35287 0.3525 0.352 0.352 0.352 0.352 0.35275 0.35287 0.35287 0.35213 0.35175 0.352 0.359 0.35913 0.35938 0.35913 0.355 0.355 0.35537 0.35563 0.3545 0.35463 0.3545 0.35363 0.35325 0.3535 0.35363 0.35363 0.35387 0.3535 0.3535 0.35387 0.35387 0.35663 0.35637 0.35637 0.35637 0.35425 0.35425 0.35425 0.3535 0.35325 0.3535 0.35213 0.35213 0.35287 0.35313 0.35563 0.357 0.35675 0.35713 0.357 0.35713 0.358 0.35775 0.35775 0.357 0.35675 0.35663 0.35637 0.35637 0.3585 0.3585 0.3585 0.363 0.36312 0.36375 0.36312 0.36212 0.362 0.3615 0.36175 0.3625 0.3625 0.36238 0.36212 0.35737 0.35763 0.35737 0.35737 0.36075 0.361 0.36112 0.36112 0.357 0.357 0.356 0.356 0.36338 0.36338 0.36338 0.36312 0.36362 0.36362 0.36362 0.36338 0.36362 0.36338 0.36338 0.36312 0.3605 0.3605 0.361 0.36038 0.36012 0.36 0.35938 0.359 0.359 0.359 0.36012 0.36038 0.3615 0.36212 0.3625 0.363 0.36362 0.36275 0.3625 0.3625 0.3625 0.36312 0.364 0.36525 0.36562 0.36525 0.36525 0.363 0.36175 0.3615 0.36175 0.3615 0.3615 0.36112 0.36112 0.36112 0.36075
0.33575 0.33537 0.3345 0.3345 0.33525 0.335 0.33525 0.34225 0.34263 0.34263 0.34263 0.34187 0.34213 0.34225 0.34263 0.34263 0.34137 0.34137 0.34163 0.34263 0.3425 0.3425 0.34175 0.33925 0.33925 0.34125 0.34125 0.34225 0.34175 0.34175 0.3385 0.33763 0.3375 0.3375 0.33725 0.33725 0.3375 0.33725 0.3375 0.33787 0.33887 0.33937 0.33975 0.34 0.33575 0.33537 0.3355 0.3355 0.33575 0.33975 0.33587 0.33587 0.33613 0.33613 0.33637 0.33663 0.33725 0.33787 0.33625 0.33637 0.34287 0.34225 0.34225 0.34213 0.34225 0.34225 0.3445 0.3445 0.34487 0.34175 0.34213 0.34213 0.3425 0.34325 0.34375 0.34387 0.34337 0.34325 0.34325 0.343 0.34225 0.34175 0.34137 0.341 0.34087 0.341 0.34125 0 0 0 0 0 0.27713 0.27725 0.27725 0.277 0.27687 0.27625 0.27625 0.27637 0.27663 0.27725 0.27737 0.2775 0.2775 0.27725 0.2775 0.2775 0.2775 0.2775 0.27737 0.27725 0.27737 0.2775 0.27825 0.27863 0.27887 0.27937 0.2795 0.2795 0.27975 0.28 0.28013 0.28 0.28025 0.28037 0.2805 0.2805 0.2805 0.28063 0.2805 0.2805 0.28063 0.281 0.28113 0.281 0.28113 0.281 0.281 0.28113 0.28113 0.28125 0.28137 0.28137 0.28125 0.28137 0.28175 0.28213 0.28237 0.28237 0.28263 0.28275 0.28275 0.2835 0.2835 0.2835 0.28363 0.28363 0.28363 0.28375 0.28375 0.28437 0.28437 0.28463 0.28475 0.285 0.28525 0.2855 0.28563 0.286 0.28587 0.28587 0.28613 0.28625 0.28637 0.2865 0.28637 0.28637 0.28625 0.28625 0.28675 0.28675 0.287 0.287 0.28713 0.2875 0.28763 0.28775 0.28787 0.28787 0.288 0.28787 0.288 0.28837 0.2885 0.2885 0.28863 0.28863 0.28875 0.28925 0.28925 0.28937 0.28975 0.28975 0.29025 0.29037 0.29063 0.291 0.29125 0.29137 0.29175 0.29175 0.29237 0.29237 0.29263 0.29275 0.29287 0.29313 0 0.35463 0.35425 0.35425 0.35313 0.3525 0.352 0.35137 0.35137 0.35137 0.35137 0.35213 0.35237 0.35213 0.35175 0.3515 0.352 0.359 0.359 0.35938 0.35913 0.355 0.355 0.355 0.3545 0.354 0.354 0.35363 0.3535 0.35313 0.35313 0.35325 0.35325 0.35325 0.35325 0.35325 0.3535 0.35387 0.35575 0.35575 0.35563 0.35637 0.35425 0.35363 0.3535 0.35325 0.35287 0.35287 0.352 0.35213 0.35237 0.35287 0.35563 0.357 0.35675 0.35675 0.35675 0.357 0.35737 0.35713 0.357 0.35663 0.356 0.35575 0.356 0.35637 0.3585 0.3585 0.3585 0.363 0.36312 0.36375 0.36238 0.362 0.36175 0.36075 0.36075 0.3625 0.3625 0.3625 0.36175 0.35737 0.35737 0.35713 0.35737 0.36075 0.361 0.36112 0.36112 0.357 0.35637 0.356 0.356 0.3625 0.3625 0.36338 0.36312 0.36312 0.36375 0.36312 0.36312 0.36338 0.36312 0.36312 0.36312 0.3605 0.3605 0.36038 0.36038 0.35975 0.35975 0.35875 0.35875 0.3585 0.3585 0.3595 0.35975 0.36038 0.36212 0.36212 0.363 0.36362 0.36275 0.3625 0.3625 0.3625 0.36275 0.36475 0.36475 0.36562 0.36525 0.36525 0.363 0.36175 0.361 0.361 0.3605 0.36075 0.3605 0.36038 0.3605 0.36038
0.335 0.33263 0.3335 0.3335 0.33213 0.33213 0.33163 0.33163 0.33163 0.33163 0.33163 0.34175 0.34187 0.34187 0.335 0.33525 0.33387 0.333 0.333 0.33387 0.33387 0.33387 0.33413 0.33363 0.33387 0.338 0.33813 0.33787 0.33713 0.33713 0.33637 0.337 0.33675 0.33675 0.33675 0.33663 0.33675 0.33675 0.33713 0.3375 0.33837 0.33875 0.33913 0.34 0.335 0.33525 0.33525 0.33525 0.33525 0.33525 0.33525 0.33613 0.33613 0.33587 0.33637 0.33625 0.33725 0.33787 0.33575 0.3355 0.33537 0.33537 0.33625 0.33625 0.33625 0.33963 0.3405 0.3405 0.34137 0.34137 0.34175 0.34175 0.34187 0.34287 0.34325 0.34325 0.343 0.34287 0.34263 0.34263 0.34137 0.34125 0.341 0.34087 0.34063 0.3405 0.34013 0 0 0 0 0.27725 0.27737 0.27725 0.27725 0.277 0.277 0.27637 0.27637 0.27637 0.2765 0.27713 0.27725 0.2775 0.2775 0.27737 0.2775 0.27763 0.27763 0.27775 0.2775 0.2775 0.2775 0.27775 0.27837 0.27863 0.27887 0.27913 0.27925 0.2795 0.2795 0.27987 0.28 0.28013 0.28013 0.28037 0.2805 0.2805 0.2805 0.2805 0.2805 0.2805 0.2805 0.281 0.28113 0.281 0.281 0.28087 0.281 0.28113 0.28113 0.28125 0.28137 0.28125 0.28137 0.2815 0.28163 0.28225 0.28225 0.28237 0.28263 0.28275 0.28275 0.28337 0.2835 0.28375 0.28387 0.28375 0.28375 0.28375 0.28387 0.28437 0.28437 0.28463 0.28487 0.28487 0.28525 0.28537 0.2855 0.28575 0.28575 0.28587 0.286 0.28625 0.28637 0.28637 0.28637 0.28637 0.28625 0.28625 0.28663 0.28675 0.28687 0.287 0.28713 0.2875 0.28763 0.28775 0.28787 0.288 0.288 0.288 0.28813 0.28837 0.2885 0.2885 0.28863 0.28863 0.28875 0.28887 0.28925 0.28925 0.2895 0.28975 0.29 0.29025 0.2905 0.291 0.291 0.29125 0.2915 0.29163 0.292 0.292 0.29213 0.29237 0.29237 0.29213 0 0.354 0.354 0.35387 0.35325 0.35175 0.351 0.35075 0.35075 0.35075 0.35075 0.35137 0.35137 0.35137 0.35113 0.351 0.35075 0.35075 0.34813 0.34813 0.35075 0.35063 0.35487 0.3545 0.35387 0.3535 0.3535 0.35313 0.35287 0.35275 0.35275 0.35287 0.35275 0.35287 0.3525 0.35275 0.35287 0.35237 0.35463 0.35487 0.35487 0.354 0.35287 0.35287 0.3525 0.3525 0.35213 0.35213 0.35113 0.35137 0.3515 0.35 0.35 0.3535 0.3535 0.35625 0.35625 0.35637 0.35637 0.35637 0.35625 0.35563 0.355 0.35487 0.35487 0.3545 0.35463 0.35213 0.35213 0.35237 0.3525 0.35275 0.35487 0.35463 0.35575 0.356 0.35525 0.35525 0.35537 0.35525 0.35637 0.35663 0.35675 0.35675 0.35675 0.35713 0.35775 0.35775 0.35713 0.35637 0.35625 0.35575 0.35537 0.36175 0.36175 0.35425 0.35425 0.35287 0.35313 0.35487 0.35763 0.35775 0.35913 0.352 0.35213 0.3605 0.36012 0.36 0.36 0.35938 0.359 0.3585 0.35813 0.35813 0.35813 0.35913 0.35913 0.35763 0.35737 0.3585 0.3585 0.35525 0.35537 0.35537 0.35525 0.35537 0.35675 0.355 0.35487 0.355 0.35463 0.35463 0.35463 0.35463 0.36 0.35975 0.35938 0.3595 0.3595 0.3595 0.35938 0.35975
0.33175 0.33175 0.332 0.332 0.33163 0.3315 0.33125 0.33113 0.33087 0.33087 0.33037 0.33063 0.32937 0.32925 0.33437 0.33213 0.33363 0.3325 0.33263 0.333 0.333 0.33275 0.333 0.333 0.3325 0.337 0.33675 0.33625 0.33575 0.3355 0.3355 0.33537 0.33537 0.33525 0.33487 0.33413 0.33313 0.33313 0.33525 0.33575 0.33537 0.33663 0.33413 0.33413 0.334 0.33437 0.33475 0.33475 0.33487 0.33487 0.33475 0.33525 0.3355 0.33575 0.33625 0.33587 0.33587 0.33537 0.335 0.33525 0.33525 0.33537 0.33575 0.33587 0.33575 0.33837 0.3385 0.33813 0.33925 0.34 0.34025 0.34013 0.34025 0.34125 0.34175 0.34187 0.34175 0.34175 0.34175 0.34175 0.34063 0.34063 0.3405 0.3405 0.34025 0.34025 0.34013 0 0 0 0 0.27725 0.27725 0.27737 0.27725 0.27713 0.27713 0.27637 0.27637 0.27625 0.27637 0.27675 0.27687 0.27725 0.27737 0.27713 0.27737 0.2775 0.27763 0.27763 0.27763 0.2775 0.27763 0.27787 0.2785 0.27863 0.27875 0.279 0.27925 0.27937 0.2795 0.27975 0.27987 0.28 0.28013 0.28025 0.28037 0.28037 0.2805 0.28037 0.28037 0.28037 0.2805 0.28087 0.281 0.28087 0.28087 0.28087 0.28075 0.281 0.28113 0.28125 0.28137 0.28125 0.28137 0.28137 0.28163 0.28213 0.28225 0.28237 0.28275 0.28275 0.283 0.28337 0.2835 0.28375 0.28387 0.28387 0.28387 0.284 0.284 0.28425 0.28425 0.2845 0.2845 0.28475 0.285 0.285 0.28513 0.28563 0.28563 0.28563 0.286 0.286 0.28625 0.28613 0.28625 0.28637 0.28625 0.28625 0.28663 0.28675 0.28687 0.28687 0.28713 0.2875 0.28775 0.28775 0.288 0.288 0.28813 0.288 0.28813 0.28837 0.2885 0.2885 0.2885 0.28863 0.28875 0.28887 0.289 0.28925 0.28925 0.2895 0.28975 0.28987 0.29 0.2905 0.2905 0.2905 0.291 0.29125 0.29175 0.29175 0.29187 0.292 0.29213 0.292 0.29213 0.35425 0.34725 0.34725 0.347 0.34725 0.34775 0.34875 0.34913 0.34913 0.34913 0.34913 0.34887 0.34725 0.34737 0.34725 0.34575 0.34575 0.34575 0.34575 0.348 0.34775 0.34775 0.3485 0.34837 0.35275 0.35113 0.35113 0.35113 0.35137 0.3515 0.352 0.35175 0.35175 0.3515 0.35175 0.352 0.35237 0.35325 0.3535 0.35325 0.3525 0.34763 0.34763 0.34775 0.34725 0.34687 0.34663 0.3465 0.34625 0.34625 0.3465 0.34687 0.34775 0.34525 0.34525 0.34525 0.34537 0.35213 0.35237 0.3525 0.3515 0.3525 0.3525 0.35275 0.35275 0.35237 0.35113 0.35175 0.35175 0.35175 0.35137 0.35175 0.3515 0.35175 0.3535 0.35387 0.3535 0.3535 0.3525 0.35463 0.355 0.35537 0.35537 0.35563 0.35575 0.35625 0.35387 0.35387 0.35213 0.35213 0.351 0.351 0.351 0.35063 0.35037 0.35037 0.35 0.35 0.35037 0.34963 0.34987 0.35037 0.35025 0.35 0.35063 0.34987 0.34963 0.35713 0.358 0.35775 0.35675 0.35637 0.35637 0.354 0.354 0.35387 0.354 0.35463 0.35313 0.35287 0.35425 0.35463 0.35525 0.355 0.35537 0.356 0.35537 0.35487 0.35487 0.35463 0.35463 0.35463 0.3545 0.3545 0.3545 0.3545 0.3545 0.35487 0.35487 0.355 0.35637
0.3315 0.33163 0.33163 0.33163 0.33125 0.33125 0.33113 0.33075 0.33063 0.33037 0.33037 0.33037 0.32937 0.32937 0.33437 0.33213 0.33175 0.332 0.33225 0.3325 0.3325 0.3325 0.3325 0.33225 0.3325 0.337 0.337 0.33537 0.33475 0.33475 0.33487 0.3345 0.3345 0.33437 0.334 0.33387 0.33337 0.33313 0.33525 0.33525 0.33537 0.33663 0.33413 0.33387 0.33387 0.33387 0.33413 0.33437 0.3345 0.33413 0.33413 0.33475 0.33575 0.3355 0.33613 0.3355 0.335 0.335 0.33487 0.33487 0.33487 0.335 0.33537 0.3355 0.33575 0.33787 0.338 0.33813 0.33925 0.33925 0.33975 0.33963 0.33963 0.34063 0.34175 0.34137 0.34137 0.34137 0.34163 0.34163 0.3405 0.3405 0.3405 0.34013 0.34013 0.34 0.34013 0 0 0 0 0.27737 0.27737 0.27737 0.27725 0.27713 0.27713 0.2765 0.27637 0.27625 0.27625 0.27663 0.27687 0.277 0.27713 0.27713 0.27725 0.2775 0.2775 0.2775 0.27763 0.27763 0.27787 0.278 0.2785 0.27863 0.27887 0.27913 0.27937 0.2795 0.27963 0.27975 0.27987 0.28 0.28 0.28013 0.28025 0.28037 0.28037 0.28037 0.28013 0.28025 0.2805 0.28075 0.28087 0.28075 0.28075 0.28063 0.28063 0.28087 0.281 0.28113 0.28137 0.28125 0.28137 0.2815 0.28175 0.28213 0.28225 0.28237 0.28275 0.28287 0.28337 0.2835 0.28363 0.28413 0.28413 0.28413 0.28413 0.28425 0.28425 0.28437 0.28437 0.28437 0.2845 0.28475 0.285 0.285 0.28513 0.2855 0.2855 0.2855 0.28587 0.28587 0.28613 0.28613 0.28625 0.28625 0.28625 0.28625 0.28663 0.28675 0.287 0.287 0.28725 0.2875 0.28775 0.28787 0.288 0.28813 0.288 0.28825 0.28825 0.28863 0.28875 0.2885 0.28863 0.28875 0.28875 0.289 0.289 0.28925 0.28925 0.28937 0.28963 0.28975 0.28987 0.29037 0.29037 0.29037 0.29075 0.29113 0.29175 0.29187 0.29187 0.292 0.292 0.29213 0.29213 0 0.34725 0.34725 0.347 0.34725 0.34775 0.348 0.34837 0.34837 0.34837 0.34813 0.34775 0.34737 0.347 0.34687 0.34575 0.34563 0.34537 0.34575 0.348 0.34775 0.34775 0.3485 0.34837 0.35037 0.35063 0.35063 0.35063 0.35075 0.35137 0.3515 0.3515 0.3515 0.35137 0.35137 0.3515 0.35275 0.35275 0.35325 0.3525 0.3525 0.34763 0.34737 0.34737 0.34725 0.34663 0.34663 0.3465 0.3465 0.34625 0.3465 0.34725 0.34763 0.34563 0.34525 0.34525 0.34525 0.35213 0.35237 0.3525 0.3515 0.35137 0.35175 0.352 0.35213 0.35213 0.35175 0.35113 0.35137 0.35113 0.35137 0.35175 0.3515 0.35175 0.3535 0.35287 0.35287 0.35275 0.3525 0.3545 0.35463 0.35463 0.355 0.355 0.35537 0.35575 0.35387 0.35387 0.35213 0.35113 0.35075 0.351 0.351 0.35063 0.35037 0.35025 0.34987 0.35 0.35025 0.34987 0.34987 0.35025 0.34987 0.35 0.35037 0.34963 0.34987 0.35713 0.35713 0.35763 0.356 0.35625 0.35575 0.35425 0.354 0.35387 0.354 0.3545 0.35313 0.35287 0.35425 0.35425 0.35487 0.35487 0.355 0.35563 0.355 0.35463 0.3545 0.3545 0.3545 0.35425 0.35425 0.35425 0.3545 0.35425 0.3545 0.35463 0.35487 0.355 0.35537
0.33087 0.33125 0.33125 0.33125 0.33113 0.33113 0.33087 0.33037 0.33025 0.32987 0.32975 0.32987 0.32937 0.32925 0.33225 0.33063 0.33125 0.33125 0.33175 0.33213 0.332 0.33213 0.33213 0.33175 0.33087 0.332 0.33213 0.33363 0.33363 0.33363 0.33363 0.33363 0.3335 0.3335 0.33313 0.333 0.33263 0.33175 0.33213 0.33275 0.33275 0.334 0.333 0.3335 0.3335 0.3335 0.33363 0.33363 0.33337 0.33313 0.33313 0.332 0.33175 0.33175 0.33213 0.33363 0.33437 0.33437 0.33413 0.33437 0.33437 0.3345 0.33487 0.33487 0.33437 0.33487 0.33575 0.33537 0.33537 0.33575 0.33575 0.3355 0.33437 0.3345 0.33437 0.33363 0.33363 0.33313 0.33337 0 0.34013 0.3405 0.34025 0.34 0.34 0.33975 0.33963 0 0 0 0 0.27725 0.2775 0.2775 0.27725 0.27713 0.277 0.2765 0.27625 0.27613 0.276 0.2765 0.27675 0.27687 0.277 0.27713 0.27713 0.27737 0.2775 0.27763 0.27763 0.27763 0.27775 0.278 0.2785 0.27875 0.27887 0.279 0.27925 0.27937 0.27963 0.27975 0.27987 0.27987 0.28 0.28013 0.28025 0.28025 0.28037 0.28025 0.28013 0.28013 0.28037 0.28063 0.28075 0.28063 0.2805 0.2805 0.28063 0.28087 0.281 0.28113 0.28125 0.28113 0.28137 0.28137 0.28175 0.282 0.28225 0.28225 0.28287 0.283 0.28313 0.28337 0.28363 0.28413 0.28425 0.28413 0.28413 0.28413 0.28425 0.28437 0.28437 0.28437 0.28463 0.28475 0.285 0.28513 0.28525 0.2855 0.2855 0.28563 0.28575 0.28587 0.28613 0.28613 0.28625 0.28637 0.28637 0.28637 0.28675 0.28687 0.287 0.28713 0.28737 0.28775 0.28787 0.288 0.28813 0.28825 0.28825 0.28825 0.28837 0.28863 0.28875 0.28863 0.28875 0.28875 0.28875 0.28925 0.28925 0.289 0.28937 0.28937 0.28963 0.28987 0.28987 0.29037 0.29037 0.2905 0.29087 0.29125 0.29163 0.29175 0.29187 0.292 0.292 0.29187 0.29175 0 0.34263 0.34287 0.34213 0.34187 0.34737 0.34763 0.348 0.34813 0.34763 0.34763 0.34725 0.34625 0.34587 0.34575 0.34387 0.34463 0.34463 0.34375 0.34375 0.34287 0.343 0.3435 0.34375 0.34613 0.35 0.35037 0.35037 0.35063 0.35137 0.35137 0.35137 0.35137 0.35137 0.35113 0.3515 0.34763 0.34775 0.3525 0.34575 0.34575 0.34563 0.3465 0.347 0.34663 0.34663 0.3465 0.34625 0.34625 0.3465 0.3465 0.34725 0.34763 0.34563 0.345 0.345 0.34487 0.34463 0.34687 0.34687 0.35 0.35075 0.35113 0.35137 0.3515 0.35175 0.35137 0.35075 0.351 0.35 0.34925 0.3465 0.34613 0.34613 0.34613 0.34613 0.34625 0.34613 0.34613 0.35213 0.35137 0.35137 0.3515 0.35137 0.35137 0.35075 0.35025 0.35 0.3495 0.35037 0.35 0.34775 0.34775 0.34563 0.34575 0.3495 0.3495 0.34963 0.34987 0.34963 0.3495 0.3495 0.34963 0.34963 0.34963 0.34963 0.34925 0.3495 0.34925 0.34925 0.34963 0.3495 0.3545 0.35425 0.354 0.354 0.354 0.35463 0.35 0.35025 0.35363 0.3535 0.354 0.35425 0.3545 0.35487 0.3545 0.35425 0.35425 0.354 0.35387 0.35387 0.35387 0.354 0.354 0.354 0.3545 0.3545 0.3545 0.3545 0.355
0.32675 0.32688 0.32725 0.32738 0.32625 0.32612 0.32612 0.32575 0.32575 0.32625 0.32625 0.3255 0.32525 0.32512 0.3245 0.3245 0.3265 0.32712 0.32712 0.32887 0.33037 0.33125 0.33125 0.32775 0.32788 0.32775 0.32775 0.33363 0.33113 0.332 0.33225 0.332 0.33213 0.332 0.332 0.33175 0.33163 0.33125 0.33163 0.33175 0.3325 0.33313 0.33263 0.3325 0.33263 0.3325 0.3325 0.33213 0.33163 0.33125 0.33113 0.33113 0.33113 0.33125 0.33175 0.33225 0.33263 0.33275 0.33263 0.33275 0.333 0.33313 0.33337 0.33337 0.33175 0.332 0.33163 0.33163 0.33163 0.33075 0.33075 0.33113 0.33087 0.33087 0.33063 0.33025 0.33037 0.33013 0.33013 0 0.34013 0.34025 0.34013 0.33963 0.33963 0.33963 0.33963 0 0 0.279 0.27913 0.27725 0.2775 0.2775 0.27725 0.27713 0.27713 0.27637 0.27613 0.27587 0.276 0.27625 0.2765 0.27663 0.27687 0.27687 0.277 0.27725 0.27737 0.27763 0.27763 0.2775 0.27763 0.27787 0.2785 0.27875 0.27875 0.27887 0.27887 0.27913 0.27937 0.2795 0.27963 0.27963 0.27975 0.27975 0.27987 0.27987 0.28013 0.28 0.27987 0.28 0.28013 0.28037 0.28037 0.28037 0.28037 0.28025 0.28037 0.28063 0.28087 0.28087 0.28113 0.28125 0.28125 0.2815 0.28163 0.28187 0.282 0.28225 0.28275 0.28287 0.28313 0.28325 0.2835 0.28413 0.28425 0.28413 0.28425 0.28413 0.28425 0.28425 0.28437 0.28437 0.2845 0.28475 0.285 0.28525 0.28525 0.28537 0.2855 0.28563 0.28575 0.28587 0.28613 0.28613 0.28613 0.28625 0.28625 0.28637 0.28675 0.28687 0.28725 0.28725 0.28737 0.28787 0.288 0.28813 0.28837 0.28837 0.28837 0.2885 0.2885 0.28875 0.28875 0.28863 0.28863 0.28875 0.28887 0.289 0.289 0.289 0.28925 0.28925 0.28963 0.28975 0.29 0.29037 0.2905 0.2905 0.29087 0.29113 0.29163 0.29163 0.29175 0.292 0.29187 0.29175 0.29175 0 0.34263 0.3425 0.34213 0.34063 0.34087 0.341 0.34125 0.3425 0.34213 0.34225 0.34187 0.34187 0.34213 0.34175 0.34287 0.34263 0.34263 0.34225 0.34225 0.34063 0.34063 0.34063 0.34063 0.34187 0.34287 0.34287 0.34463 0.34463 0.34487 0.34425 0.34425 0.34413 0.34525 0.34525 0.34625 0.34563 0.34413 0.34425 0.3445 0.34525 0.34537 0.34537 0.34575 0.34563 0.34563 0.34563 0.34563 0.34563 0.34587 0.34575 0.34537 0.34413 0.34387 0.34425 0.34425 0.34413 0.34375 0.34487 0.345 0.34487 0.345 0.34525 0.35113 0.35025 0.34987 0.34987 0.34987 0.34963 0.34875 0.34775 0.34663 0.34575 0.34575 0.34575 0.34587 0.34613 0.34587 0.34525 0.34525 0.34463 0.34463 0.35 0.35063 0.35037 0.35025 0.3495 0.34925 0.34913 0.3485 0.34837 0.34775 0.34663 0.34563 0.34525 0.34587 0.34663 0.34587 0.34587 0.34563 0.34537 0.34887 0.348 0.34763 0.34525 0.34525 0.3485 0.34875 0.34525 0.34525 0.34525 0.34487 0.34463 0.34813 0.34813 0.348 0.348 0.348 0.34813 0.34813 0.34875 0.35037 0.35037 0.35137 0.35287 0.3535 0.35287 0.3525 0.3525 0.3525 0.35213 0.352 0.35237 0.35287 0.35313 0.35313 0.35325 0.35363 0.351 0.351 0.35113
0.32675 0.32712 0.32725 0.32738 0.3265 0.32612 0.32612 0.326 0.32575 0.32612 0.32575 0.32562 0.32512 0.325 0.32462 0.32475 0.32662 0.32675 0.32712 0.32887 0.32913 0.33075 0.33087 0.32775 0.32788 0.32775 0.32775 0.33475 0.33113 0.33113 0.33175 0.33163 0.3315 0.33175 0.3315 0.3315 0.33125 0.33087 0.33125 0.3315 0.3315 0.33275 0.332 0.332 0.3325 0.33175 0.332 0.33163 0.33113 0.33075 0.33063 0.33037 0.33063 0.33075 0.33125 0.33163 0.332 0.332 0.33175 0.33213 0.3325 0.3325 0.33263 0.33263 0.332 0.332 0.33163 0.33163 0.3315 0.33113 0.33113 0.33113 0.33087 0.33075 0.33063 0.33037 0.33025 0.33025 0.33013 0 0 0 0 0 0 0 0 0 0 0.279 0.27913 0.27887 0.27837 0.278 0.27813 0.27813 0.278 0.27675 0.27637 0.276 0.27587 0.27637 0.2765 0.2765 0.27687 0.27687 0.277 0.27725 0.2775 0.2775 0.27763 0.27763 0.27775 0.278 0.27863 0.27875 0.27887 0.27887 0.27887 0.27887 0.27925 0.27925 0.27937 0.2795 0.2795 0.27975 0.27975 0.27975 0.28 0.27987 0.27975 0.27987 0.28 0.28025 0.28025 0.28025 0.28013 0.28013 0.28025 0.28063 0.28075 0.28087 0.281 0.28125 0.28137 0.28163 0.28163 0.282 0.282 0.28225 0.28275 0.28275 0.28287 0.28325 0.2835 0.28413 0.28437 0.28425 0.28425 0.28437 0.2845 0.2845 0.2845 0.2845 0.28437 0.2845 0.28513 0.28525 0.28537 0.2855 0.2855 0.28563 0.28563 0.28575 0.28613 0.28613 0.28625 0.2865 0.2865 0.2865 0.28687 0.28713 0.28737 0.2875 0.28763 0.28787 0.28813 0.28825 0.28825 0.2885 0.2885 0.28863 0.28863 0.28875 0.28887 0.28863 0.28863 0.28875 0.28875 0.28925 0.28925 0.289 0.289 0.28925 0.28963 0.28987 0.29 0.29025 0.2905 0.29063 0.291 0.29113 0.29163 0.29175 0.29187 0.29187 0.29187 0.29163 0.29163 0 0.34263 0.34287 0.34137 0.34063 0.34087 0.341 0.34125 0.3425 0.34213 0.34213 0.34187 0.34187 0.34187 0.34187 0.34175 0.34175 0.34163 0.34137 0.34125 0.34063 0.34063 0.34063 0.341 0.34225 0.3425 0.34287 0.34463 0.34463 0.34487 0.34425 0.34413 0.34425 0.34525 0.34525 0.34625 0.34563 0.34413 0.34425 0.3445 0.34487 0.345 0.34525 0.34525 0.345 0.34487 0.34525 0.345 0.345 0.34525 0.34537 0.34537 0.34413 0.34387 0.34387 0.34387 0.3435 0.34375 0.34487 0.345 0.34487 0.345 0.34525 0.35137 0.34875 0.34875 0.34913 0.34913 0.34913 0.34875 0.3485 0.34687 0.34563 0.34537 0.34537 0.34563 0.34587 0.34575 0.34537 0.34525 0.34487 0.34463 0.35 0.35025 0.35 0.34925 0.3485 0.34875 0.34837 0.34775 0.34737 0.34763 0.34775 0.34537 0.34537 0.34625 0.3465 0.34613 0.34575 0.34575 0.34563 0.34687 0.34725 0.3465 0.34537 0.34525 0.348 0.34813 0.34525 0.34525 0.34525 0.34487 0.34463 0.34813 0.34813 0.348 0.348 0.348 0.34813 0.34813 0.34875 0.35037 0.35037 0.35137 0.35137 0.35363 0.3515 0.3515 0.3515 0.3515 0.35113 0.35113 0.3515 0.35213 0.35213 0.3525 0.35287 0.35313 0.3515 0.351 0.351
0.32662 0.32675 0.32712 0.32712 0.3265 0.32625 0.326 0.32575 0.32562 0.32575 0.32562 0.32512 0.32475 0.32462 0.3245 0.32475 0.32575 0.326 0.32475 0.32475 0.33013 0.33063 0.33037 0.32775 0.32775 0.32788 0.3255 0.32562 0.3255 0.32562 0.32712 0.32688 0.32712 0.32762 0.32775 0.33125 0.33113 0.32662 0.32675 0.32712 0.32675 0.32662 0.32725 0.32738 0.32738 0.32738 0.32825 0.32975 0.33037 0.33013 0.33013 0.33013 0.33025 0.33025 0.33087 0.33125 0.33125 0.33125 0.3315 0.33125 0.332 0.33213 0.33225 0.33213 0.3315 0.33125 0.33087 0.33075 0.3315 0.33087 0.33075 0.33075 0.33075 0.33063 0.33025 0.33025 0.33013 0.32987 0.32963 0 0 0 0 0.32625 0.3265 0.3265 0.32575 0.32562 0 0 0 0.27913 0.27863 0.27837 0.27813 0.278 0.27787 0.27675 0.27625 0.276 0.276 0.27625 0.2765 0.27663 0.27675 0.27687 0.277 0.27713 0.2775 0.27763 0.27775 0.27763 0.278 0.27813 0.27863 0.27887 0.27875 0.27887 0.27887 0.27887 0.27925 0.27937 0.27937 0.2795 0.2795 0.27975 0.27975 0.27987 0.27987 0.27987 0.27987 0.27975 0.28 0.28 0.28013 0.28025 0.28 0.28013 0.28013 0.2805 0.28063 0.28075 0.281 0.28113 0.2815 0.28163 0.28175 0.282 0.28213 0.28237 0.28263 0.28287 0.28287 0.28325 0.2835 0.28413 0.28437 0.28425 0.28437 0.28437 0.28437 0.2845 0.28437 0.28437 0.28437 0.2845 0.285 0.28525 0.28525 0.28537 0.28537 0.2855 0.28575 0.28587 0.28613 0.28613 0.28625 0.28637 0.2865 0.2865 0.28687 0.287 0.28725 0.2875 0.28763 0.288 0.288 0.28813 0.28825 0.28837 0.2885 0.28863 0.28863 0.28875 0.28887 0.28875 0.28863 0.28875 0.28887 0.289 0.289 0.289 0.28925 0.28925 0.2895 0.28975 0.29 0.29025 0.29037 0.2905 0.291 0.29113 0.2915 0.29163 0.29175 0.29187 0.29187 0.29175 0.292 0 0.33713 0.33713 0.34063 0.33787 0.338 0.338 0.33787 0.33887 0.34175 0.34187 0.34175 0.34163 0.34137 0.34137 0.34137 0.34137 0.34137 0.341 0.34087 0.3405 0.34025 0.34025 0.34063 0.34163 0.34187 0.34137 0.34325 0.34137 0.34137 0.34225 0.34337 0.3425 0.34213 0.34187 0.34263 0.34175 0.341 0.34125 0.34287 0.34413 0.34425 0.34413 0.3425 0.34175 0.34175 0.34175 0.34175 0.34175 0.34187 0.3425 0.3425 0.34225 0.34325 0.34325 0.343 0.34263 0.34163 0.34163 0.34175 0.34425 0.34425 0.34287 0.34225 0.34225 0.34875 0.34887 0.3485 0.34813 0.34813 0.348 0.34525 0.345 0.34487 0.34487 0.345 0.34525 0.345 0.3445 0.34425 0.34425 0.34325 0.343 0.34813 0.34813 0.34537 0.34487 0.34487 0.34537 0.34687 0.34663 0.3465 0.345 0.34425 0.345 0.34575 0.34587 0.34575 0.34563 0.34537 0.34537 0.34613 0.3465 0.34587 0.345 0.34413 0.34425 0.34425 0.34413 0.34487 0.345 0.34463 0.34425 0.34537 0.34725 0.347 0.34725 0.3465 0.345 0.34375 0.34375 0.34987 0.34325 0.34337 0.34287 0.34263 0.34963 0.35075 0.351 0.351 0.35063 0.35063 0.351 0.35137 0.3515 0.35175 0.352 0.35213 0.35113 0.35075 0.35063
