1.8891 1.9114 1.9058 1.9058 1.8946 1.8946 1.8891 1.8836 1.8781 1.8674 1.862 1.8461 1.8409 1.8409 1.8409 1.8514 1.8514 1.8674 1.8674 1.862 1.8674 1.8674 1.8781 1.8836 1.8836 1.8836 1.8781 1.8836 1.8674 1.862 1.8514 1.8514 1.8461 1.8253 1.8151 1.8202 1.8151 1.8253 1.8202 1.8202 1.8202 1.8202 1.8305 1.8356 1.8356 1.8305 1.8202 1.805 1.805 1.81 1.805 1.805 1.8 1.79 1.7851 1.7803 1.7803 1.7803 1.7754 1.79 1.7851 1.7851 1.7851 1.7803 1.7754 1.7657 1.7657 1.7754 1.7705 1.7657 1.7609 1.7561 1.7514 1.7514 1.7514 1.7561 1.7561 1.7514 1.7466 1.7514 1.7514 1.7561 1.7514 1.7514 1.7514 1.7466 1.7466 1.7514 1.7466 1.7374 1.7281 1.7281 1.7235 1.7189 1.7281 1.7281 1.7235 1.7281 1.7281 1.7281 1.7328 1.742 1.7466 1.7466 1.742 1.7374 1.7281 1.7189 1.7189 1.7189 1.7099 1.7054 1.7099 1.6876 1.6745 1.666 1.6575 1.6575 1.6533 1.649 1.6406 1.6406 1.6365 1.6365 1.6406 1.6616 1.6745 1.6965 1.7009 1.7009 1.7009 1.7009 1.7054 1.7144 1.7144 1.7054 1.7054 1.692 1.6876 1.6876 1.6745 1.6703 1.666 1.6575 1.6533 1.6449 1.6406 1.6365 1.6406 1.6365 1.6324 1.6365 1.6365 1.6406 1.6324 1.6365 1.6406 1.6324 1.6324 1.6324 1.6242 1.6242 1.6242 1.6201 1.6201 1.6242 1.6242 1.6242 1.6242 1.6201 1.6161 1.6121 1.6121 1.6041 1.6002 1.6002 1.5885 1.5885 1.5846 1.5808 1.5808 1.5769 1.573 1.5808 1.5808 1.5846 1.5808 1.5885 1.5924 1.5924 1.5885 1.5924 1.5924 1.5924 1.5924 1.5962 1.5962 1.5924 1.5924 1.5924 1.5924 1.5885 1.5846 1.5846 1.5769 1.573 1.5693 1.5617 1.5617 1.5431 1.5431 1.5431 1.5431 1.5468 1.5505 1.5505 1.5505 1.5468 1.5431 1.5431 1.5431 1.5395 1.5395 1.5357 1.5357 1.5321 1.5321 1.5321 1.5321 1.5321 1.525 1.5179 1.5179 1.5143 1.5214 1.5357 1.5321 1.5286 1.5321 1.5321 1.5321 1.5357 1.5357 1.5286 1.525 1.5143 1.5108 1.5143 1.5143 1.5321 1.5286 1.5179 1.5143 1.5143 1.5179 1.5179 1.5143 1.5108 1.5143 1.5072 1.5037 1.5072 1.5072 1.5037 1.5003 1.4969 1.4969 1.4934 1.49 1.49 1.4831 1.4831 1.4797 1.4797 1.473 1.473 1.4697 1.473 1.473 1.4764 1.4797 1.4797 1.4797 1.4831 1.49 1.4934 1.49 1.4865 1.4865 1.4831 1.4831 1.4831 1.4865 1.4831 1.4797 1.4697 1.4697 1.4697 1.4764 1.473 1.473 1.4697 1.4631 1.4598 1.473 1.4697 1.4664 1.4631 1.4532 1.4532 1.4565 1.4565 1.4532 1.4565 1.45 1.45 1.4532 1.4598 1.4565 1.4532 1.45 1.4467 1.4435 1.4435 1.4435 1.4371 1.434 1.4276 1.4276 1.4245 1.4214 1.4214 1.4183 1.4183 1.4183 1.4152 1.4121 1.4152 1.4152 1.4152 1.4183 1.406 1.403 1.3969 1.3999 1.406 1.409 1.3939 1.3909 1.3939 1.3909 1.385 1.3909 1.3969 1.3969 1.3969 1.3999 1.403 1.406 1.406
1.8836 1.9114 1.9114 1.9058 1.9001 1.8946 1.8836 1.8781 1.8781 1.8674 1.8566 1.8409 1.8409 1.8356 1.8356 1.8514 1.8514 1.8674 1.8674 1.862 1.8674 1.8674 1.8674 1.8781 1.8781 1.8727 1.8674 1.8727 1.8674 1.862 1.862 1.8566 1.8461 1.8305 1.8253 1.8253 1.8253 1.8305 1.8305 1.8253 1.8202 1.8253 1.8305 1.8356 1.8305 1.8253 1.8253 1.805 1.805 1.81 1.81 1.81 1.8 1.795 1.79 1.7851 1.7851 1.7851 1.7851 1.79 1.795 1.7851 1.79 1.7803 1.7705 1.7657 1.7657 1.7754 1.7754 1.7705 1.7657 1.7609 1.7514 1.7466 1.7514 1.7561 1.7561 1.7466 1.7466 1.7514 1.7466 1.7561 1.7561 1.7514 1.7514 1.7466 1.7514 1.7514 1.7466 1.742 1.7374 1.7235 1.7281 1.7235 1.7281 1.7328 1.7281 1.7281 1.7281 1.7281 1.7281 1.7328 1.742 1.742 1.7374 1.7328 1.7281 1.7144 1.7144 1.7189 1.7099 1.7054 1.7099 1.6876 1.6789 1.666 1.6533 1.649 1.6533 1.649 1.6406 1.6365 1.6324 1.6324 1.6365 1.6616 1.6745 1.6965 1.7054 1.7099 1.7054 1.7099 1.7099 1.7189 1.7144 1.7099 1.7054 1.692 1.6876 1.6832 1.6745 1.666 1.6575 1.649 1.6449 1.6365 1.6324 1.6324 1.6365 1.6324 1.6284 1.6324 1.6365 1.6365 1.6324 1.6324 1.6406 1.6324 1.6324 1.6324 1.6242 1.6284 1.6242 1.6242 1.6242 1.6284 1.6284 1.6242 1.6201 1.6161 1.6081 1.6002 1.6002 1.6002 1.5924 1.5924 1.5769 1.5769 1.573 1.5769 1.5693 1.5693 1.5617 1.573 1.5769 1.5846 1.5808 1.5808 1.5846 1.5846 1.5808 1.5885 1.5885 1.5885 1.5885 1.5924 1.5924 1.5885 1.5885 1.5962 1.5924 1.5885 1.5846 1.5846 1.5693 1.5655 1.5655 1.558 1.558 1.5357 1.5395 1.5431 1.5431 1.5468 1.5468 1.5505 1.558 1.5505 1.5468 1.5431 1.5431 1.5431 1.5357 1.5321 1.5321 1.5321 1.5286 1.5321 1.5321 1.5286 1.5286 1.5214 1.5214 1.5179 1.525 1.5395 1.5357 1.5321 1.5395 1.5357 1.5357 1.5395 1.5321 1.5321 1.525 1.5108 1.5108 1.5108 1.5143 1.5179 1.5179 1.5143 1.5108 1.5108 1.5143 1.5143 1.5108 1.5143 1.5143 1.5108 1.5072 1.5108 1.5072 1.5003 1.5003 1.4969 1.4969 1.4865 1.4831 1.4797 1.4764 1.473 1.4697 1.473 1.4697 1.4664 1.4664 1.4697 1.4697 1.473 1.4764 1.4797 1.4797 1.4865 1.49 1.4934 1.4865 1.4865 1.4865 1.4797 1.4831 1.4831 1.4797 1.4797 1.4764 1.4697 1.4697 1.473 1.4764 1.473 1.4697 1.4664 1.4631 1.4631 1.4664 1.4664 1.4631 1.4598 1.4565 1.4565 1.4565 1.4565 1.4532 1.4565 1.4532 1.4532 1.4565 1.4565 1.4598 1.4532 1.45 1.4467 1.4435 1.4435 1.4467 1.434 1.4307 1.4276 1.4245 1.4276 1.4214 1.4214 1.4183 1.4152 1.4121 1.409 1.403 1.3969 1.388 1.3939 1.406 1.3999 1.3939 1.388 1.385 1.3909 1.3939 1.385 1.385 1.385 1.382 1.3791 1.382 1.3939 1.3969 1.3909 1.3969 1.3939 1.3969 1.3969
1.8836 1.9058 1.9058 1.9114 1.9058 1.9001 1.8891 1.8836 1.8781 1.8674 1.862 1.8409 1.8409 1.8409 1.8356 1.8514 1.8514 1.8674 1.8727 1.862 1.862 1.8674 1.8727 1.8727 1.8781 1.8674 1.862 1.8727 1.8727 1.8727 1.8781 1.8781 1.862 1.8514 1.8514 1.8514 1.8566 1.8566 1.8514 1.8409 1.8305 1.8356 1.8461 1.8409 1.8305 1.8253 1.8253 1.8202 1.8151 1.81 1.8151 1.8151 1.805 1.805 1.8 1.8 1.8 1.8 1.8 1.8 1.805 1.8 1.8 1.79 1.7803 1.7705 1.7705 1.7754 1.7803 1.7754 1.7657 1.7609 1.7561 1.7561 1.7466 1.7561 1.7609 1.7466 1.7466 1.7514 1.7514 1.7561 1.7609 1.7561 1.7514 1.7514 1.7561 1.7561 1.7514 1.7466 1.742 1.7374 1.7374 1.7374 1.7374 1.742 1.7328 1.7281 1.7328 1.7235 1.7281 1.7328 1.7374 1.7374 1.7374 1.7281 1.7235 1.7189 1.7189 1.7189 1.7099 1.7099 1.7099 1.6876 1.6789 1.6703 1.6533 1.649 1.6533 1.649 1.6406 1.6365 1.6365 1.6365 1.6406 1.6616 1.6789 1.6965 1.7099 1.7099 1.7099 1.7099 1.7099 1.7189 1.7144 1.7099 1.7054 1.692 1.6832 1.6789 1.6703 1.6616 1.6575 1.6449 1.6406 1.6406 1.6242 1.6284 1.6324 1.6365 1.6284 1.6324 1.6406 1.6365 1.6324 1.6324 1.6324 1.6365 1.6324 1.6324 1.6284 1.6242 1.6242 1.6284 1.6284 1.6284 1.6284 1.6242 1.6161 1.6121 1.6041 1.6002 1.6002 1.5962 1.5885 1.5885 1.5808 1.5769 1.573 1.573 1.5693 1.5655 1.5655 1.573 1.5769 1.5769 1.5769 1.5769 1.5808 1.5769 1.5808 1.5846 1.5846 1.5846 1.5885 1.5885 1.5924 1.5885 1.5885 1.5924 1.5962 1.5846 1.5846 1.5808 1.5693 1.5617 1.5617 1.558 1.5542 1.5357 1.5395 1.5395 1.5431 1.5468 1.5468 1.5468 1.558 1.5542 1.5505 1.5505 1.5505 1.5468 1.5357 1.5321 1.5357 1.5321 1.5286 1.5357 1.5321 1.5357 1.5395 1.5357 1.5395 1.5395 1.5431 1.5542 1.5542 1.5468 1.5468 1.5468 1.5468 1.5468 1.5357 1.5321 1.5286 1.5143 1.5143 1.5143 1.5143 1.5179 1.5143 1.5108 1.5143 1.5108 1.5143 1.5179 1.5143 1.5179 1.5179 1.5143 1.5072 1.5108 1.5072 1.5003 1.4969 1.4969 1.4969 1.4865 1.4831 1.4797 1.473 1.4697 1.4697 1.4697 1.4664 1.4664 1.4664 1.4697 1.4697 1.473 1.4764 1.4797 1.4797 1.4865 1.4969 1.4969 1.49 1.4865 1.4831 1.4831 1.4797 1.4831 1.4797 1.4797 1.4764 1.4697 1.4664 1.4697 1.4764 1.4697 1.4697 1.4664 1.4631 1.4598 1.4664 1.4664 1.4631 1.4598 1.4598 1.4598 1.4631 1.4598 1.4598 1.4598 1.4598 1.4565 1.4598 1.4598 1.4598 1.4565 1.4532 1.45 1.4467 1.4467 1.45 1.4404 1.4307 1.4307 1.4307 1.4307 1.4245 1.4214 1.4214 1.4121 1.4121 1.406 1.3939 1.388 1.3761 1.3909 1.403 1.3969 1.3909 1.382 1.382 1.385 1.388 1.382 1.3791 1.382 1.3791 1.3761 1.382 1.3909 1.3939 1.3939 1.3939 1.3939 1.3939 1.3909
1.8781 1.9058 1.9058 1.9058 1.9001 1.9001 1.8946 1.8836 1.8781 1.8674 1.8566 1.8514 1.8461 1.8461 1.8461 1.8514 1.8566 1.862 1.8674 1.8674 1.862 1.8674 1.8727 1.8727 1.8727 1.8674 1.862 1.8674 1.8727 1.8781 1.8781 1.8836 1.8727 1.8566 1.862 1.8566 1.862 1.862 1.8566 1.8356 1.8253 1.8356 1.8409 1.8409 1.8356 1.8305 1.8253 1.8202 1.81 1.8151 1.8151 1.8151 1.805 1.805 1.805 1.8 1.8 1.8 1.8 1.805 1.805 1.795 1.795 1.7851 1.7803 1.7754 1.7754 1.7754 1.7803 1.7705 1.7657 1.7609 1.7561 1.7561 1.7466 1.7514 1.7609 1.7466 1.7466 1.7514 1.7514 1.7657 1.7609 1.7609 1.7561 1.7561 1.7561 1.7561 1.7561 1.7466 1.742 1.742 1.742 1.742 1.7466 1.7466 1.742 1.7374 1.7374 1.7235 1.7281 1.7328 1.7374 1.7374 1.7374 1.7281 1.7189 1.7144 1.7144 1.7189 1.7099 1.7099 1.7054 1.692 1.6832 1.6745 1.6616 1.6575 1.6575 1.6449 1.6406 1.6406 1.6406 1.6406 1.6449 1.6616 1.6745 1.6965 1.7054 1.7054 1.7054 1.7054 1.7099 1.7144 1.7099 1.7099 1.7009 1.6876 1.6745 1.6703 1.666 1.6533 1.649 1.6406 1.6365 1.6365 1.6242 1.6284 1.6324 1.6324 1.6284 1.6284 1.6365 1.6365 1.6324 1.6324 1.6365 1.6324 1.6324 1.6324 1.6284 1.6242 1.6242 1.6284 1.6242 1.6284 1.6284 1.6242 1.6121 1.6081 1.6041 1.5962 1.5962 1.5924 1.5885 1.5885 1.5769 1.5769 1.5769 1.5693 1.5655 1.5655 1.5655 1.573 1.5769 1.5808 1.573 1.5769 1.5769 1.5769 1.5769 1.5846 1.5846 1.5846 1.5885 1.5885 1.5885 1.5885 1.5885 1.5924 1.5924 1.5846 1.5808 1.5769 1.5655 1.5617 1.558 1.5617 1.558 1.5357 1.5357 1.5431 1.5468 1.5468 1.5468 1.5505 1.558 1.5542 1.5542 1.5542 1.5505 1.5431 1.5357 1.5321 1.5321 1.5321 1.5286 1.5321 1.5286 1.5357 1.5395 1.5357 1.5395 1.5395 1.5431 1.558 1.5542 1.5505 1.5505 1.5542 1.5505 1.5468 1.5395 1.5357 1.5321 1.5179 1.5214 1.5179 1.5179 1.5179 1.5143 1.5143 1.5143 1.5143 1.5179 1.5179 1.5179 1.5179 1.5179 1.5108 1.5108 1.5108 1.5037 1.4969 1.4934 1.4934 1.4934 1.4865 1.4831 1.4797 1.473 1.4697 1.473 1.4664 1.4697 1.4631 1.4664 1.4664 1.4697 1.4764 1.4764 1.4797 1.4797 1.4865 1.4969 1.4934 1.49 1.4831 1.4831 1.4831 1.4831 1.4831 1.4797 1.4797 1.4764 1.4664 1.4664 1.4697 1.473 1.4697 1.4664 1.4631 1.4631 1.4598 1.4631 1.4631 1.4598 1.4598 1.4565 1.4598 1.4631 1.4598 1.4598 1.4598 1.4598 1.4565 1.4598 1.4598 1.4598 1.4565 1.4565 1.45 1.4532 1.45 1.4532 1.4404 1.4371 1.4371 1.434 1.4371 1.4276 1.4245 1.4214 1.4152 1.406 1.3999 1.388 1.385 1.3791 1.3733 1.3969 1.3969 1.388 1.3791 1.3791 1.382 1.385 1.3791 1.3791 1.382 1.3791 1.3791 1.382 1.3909 1.3939 1.3939 1.3969 1.3969 1.3909 1.388
1.8727 1.8946 1.9058 1.9001 1.9001 1.9001 1.8891 1.8836 1.8727 1.8674 1.8514 1.8514 1.8409 1.8461 1.8461 1.8514 1.8566 1.8674 1.8674 1.8674 1.8674 1.8674 1.8674 1.8727 1.8781 1.862 1.8674 1.8674 1.8781 1.8781 1.8836 1.8891 1.8781 1.8674 1.8674 1.8674 1.8674 1.8674 1.8566 1.8356 1.8253 1.8305 1.8409 1.8409 1.8356 1.8305 1.8305 1.8202 1.8151 1.81 1.8151 1.8202 1.81 1.81 1.805 1.8 1.805 1.8 1.8 1.8 1.795 1.79 1.7851 1.7851 1.7803 1.7754 1.7705 1.7754 1.7803 1.7705 1.7609 1.7609 1.7561 1.7561 1.7466 1.7514 1.7561 1.7466 1.7466 1.7514 1.7561 1.7657 1.7609 1.7609 1.7609 1.7514 1.7514 1.7561 1.7514 1.7466 1.742 1.7374 1.742 1.742 1.7514 1.7561 1.742 1.7374 1.7328 1.7281 1.7281 1.7328 1.7374 1.7328 1.7328 1.7235 1.7144 1.7099 1.7099 1.7144 1.7099 1.7054 1.7009 1.692 1.6876 1.6789 1.6703 1.6616 1.6575 1.6449 1.6449 1.6449 1.6449 1.6449 1.6449 1.6616 1.666 1.692 1.6965 1.6965 1.7054 1.7054 1.7054 1.7099 1.7054 1.6965 1.6876 1.6745 1.6575 1.6575 1.6533 1.6406 1.6406 1.6324 1.6324 1.6284 1.6242 1.6242 1.6284 1.6324 1.6284 1.6324 1.6324 1.6365 1.6324 1.6324 1.6324 1.6284 1.6284 1.6284 1.6242 1.6242 1.6201 1.6201 1.6161 1.6201 1.6161 1.6121 1.6002 1.5962 1.5924 1.5924 1.5924 1.5846 1.5846 1.5846 1.5808 1.5808 1.5808 1.5693 1.5655 1.5655 1.5693 1.5769 1.5769 1.5769 1.573 1.573 1.5769 1.5769 1.5808 1.5808 1.5808 1.5846 1.5885 1.5885 1.5885 1.5846 1.5846 1.5924 1.5885 1.5846 1.5808 1.573 1.5617 1.5617 1.558 1.558 1.558 1.5357 1.5357 1.5395 1.5468 1.5505 1.5542 1.5505 1.558 1.558 1.5542 1.5542 1.5505 1.5431 1.5357 1.525 1.525 1.525 1.525 1.5286 1.5286 1.5321 1.5357 1.5395 1.5395 1.5431 1.5505 1.5542 1.5542 1.5542 1.5542 1.5542 1.5505 1.5505 1.5395 1.5357 1.5321 1.5214 1.5214 1.5179 1.5179 1.5214 1.5143 1.5108 1.5108 1.5108 1.5143 1.5143 1.5179 1.5179 1.5143 1.5072 1.5037 1.5072 1.5003 1.4934 1.49 1.49 1.4934 1.4865 1.4831 1.4797 1.473 1.4697 1.4697 1.4697 1.4664 1.4664 1.4664 1.4697 1.4697 1.4764 1.4797 1.4797 1.4831 1.4831 1.49 1.4865 1.4831 1.4831 1.4831 1.4797 1.4797 1.4797 1.473 1.473 1.473 1.4664 1.4664 1.4697 1.4664 1.4631 1.4598 1.4598 1.4598 1.4565 1.4598 1.4598 1.4565 1.4565 1.4565 1.4565 1.4598 1.4565 1.4565 1.4565 1.4598 1.4598 1.4598 1.4598 1.4598 1.4565 1.4565 1.4532 1.4532 1.4565 1.4565 1.4467 1.4404 1.4371 1.4404 1.4404 1.434 1.4276 1.4245 1.4121 1.406 1.3969 1.385 1.3791 1.3761 1.3791 1.3909 1.3909 1.3791 1.3704 1.3704 1.3733 1.3733 1.3733 1.3733 1.3791 1.3791 1.3791 1.382 1.3909 1.3939 1.3969 1.3999 1.3969 1.385 1.3791
1.8836 1.8891 1.9001 1.9001 1.9001 1.9001 1.8891 1.8836 1.862 1.8566 1.8514 1.8461 1.8409 1.8409 1.8514 1.8514 1.862 1.8727 1.8727 1.8781 1.8727 1.8727 1.8727 1.8727 1.8836 1.8727 1.8727 1.8727 1.8836 1.8836 1.8891 1.9001 1.8946 1.8836 1.8836 1.8836 1.8836 1.8781 1.8727 1.8514 1.8461 1.8409 1.8409 1.8461 1.8305 1.8305 1.8305 1.8253 1.8253 1.8305 1.8253 1.8253 1.8151 1.81 1.81 1.8 1.8 1.8 1.8 1.8 1.79 1.7851 1.7803 1.7803 1.7803 1.7754 1.7705 1.7754 1.7754 1.7754 1.7705 1.7657 1.7561 1.7561 1.7514 1.7561 1.7561 1.7514 1.7514 1.7561 1.7561 1.7657 1.7609 1.7561 1.7609 1.7514 1.7514 1.7561 1.7466 1.7466 1.742 1.742 1.7466 1.7514 1.7514 1.7561 1.7466 1.742 1.7374 1.7281 1.7328 1.7328 1.742 1.7374 1.7328 1.7235 1.7189 1.7099 1.7144 1.7189 1.7099 1.7054 1.7054 1.7009 1.6965 1.692 1.6876 1.6876 1.6789 1.6616 1.6533 1.6533 1.6533 1.6533 1.6533 1.6616 1.666 1.692 1.7054 1.7009 1.7099 1.7099 1.7099 1.7054 1.7009 1.692 1.6789 1.6703 1.6533 1.6533 1.649 1.6365 1.6365 1.6324 1.6284 1.6284 1.6242 1.6284 1.6284 1.6324 1.6284 1.6284 1.6324 1.6324 1.6365 1.6324 1.6324 1.6284 1.6284 1.6284 1.6242 1.6201 1.6201 1.6121 1.6121 1.6161 1.6121 1.6081 1.5962 1.5962 1.5924 1.5885 1.5924 1.5885 1.5885 1.5924 1.5808 1.5808 1.5846 1.5808 1.5808 1.5846 1.5846 1.5962 1.5962 1.5924 1.5885 1.5846 1.5846 1.5846 1.5846 1.5885 1.5885 1.5885 1.5924 1.5885 1.5885 1.5885 1.5885 1.5924 1.5885 1.5885 1.5846 1.5846 1.5655 1.5617 1.558 1.558 1.558 1.5431 1.5468 1.5468 1.5505 1.5542 1.558 1.5617 1.5655 1.5655 1.5655 1.5617 1.5542 1.5468 1.5357 1.525 1.5214 1.5214 1.525 1.5286 1.5286 1.5357 1.5395 1.5431 1.5468 1.5505 1.5542 1.558 1.558 1.558 1.558 1.558 1.5505 1.5468 1.5395 1.5321 1.5286 1.5214 1.5179 1.5179 1.5179 1.5179 1.5143 1.5108 1.5072 1.5108 1.5108 1.5143 1.5143 1.5179 1.5143 1.5037 1.5037 1.5037 1.5003 1.5003 1.4934 1.4969 1.4934 1.4865 1.4865 1.4831 1.473 1.473 1.473 1.4764 1.4764 1.4764 1.4764 1.473 1.473 1.4764 1.4764 1.4797 1.4831 1.4831 1.4831 1.4865 1.4831 1.4831 1.4831 1.4831 1.4764 1.4764 1.473 1.473 1.4697 1.4664 1.4631 1.4664 1.4631 1.4598 1.4598 1.4565 1.4565 1.4565 1.4598 1.4565 1.4565 1.4532 1.4565 1.4565 1.4598 1.4565 1.4532 1.4565 1.4532 1.4598 1.4598 1.4598 1.4598 1.4565 1.4532 1.4532 1.4532 1.4631 1.4598 1.4532 1.45 1.4467 1.4467 1.4467 1.434 1.434 1.4307 1.4183 1.4121 1.3999 1.388 1.385 1.382 1.3969 1.406 1.3791 1.3733 1.3675 1.3675 1.3704 1.3704 1.3733 1.3704 1.3761 1.382 1.3791 1.382 1.3999 1.406 1.4152 1.4152 1.406 1.385 1.3761
1.8946 1.9001 1.9058 1.9058 1.9058 1.9001 1.8891 1.8836 1.8727 1.862 1.8566 1.8566 1.8566 1.8566 1.8566 1.8674 1.8674 1.8781 1.8836 1.8836 1.8836 1.8727 1.8727 1.8836 1.8836 1.8781 1.8727 1.8781 1.8781 1.8836 1.8891 1.8946 1.8891 1.8836 1.8836 1.8891 1.8781 1.8781 1.8727 1.8566 1.8461 1.8461 1.8461 1.8514 1.8305 1.8305 1.8356 1.8253 1.8253 1.8305 1.8305 1.8253 1.8202 1.81 1.81 1.805 1.805 1.8 1.8 1.805 1.8 1.7851 1.7851 1.7803 1.7851 1.7803 1.7705 1.7705 1.7754 1.7705 1.7705 1.7657 1.7514 1.7514 1.7514 1.7514 1.7561 1.7514 1.7514 1.7514 1.7561 1.7609 1.7609 1.7561 1.7609 1.7514 1.7561 1.7514 1.7466 1.7466 1.742 1.7374 1.742 1.742 1.7514 1.7514 1.7466 1.7374 1.7328 1.7281 1.7328 1.7374 1.742 1.7374 1.7374 1.7235 1.7235 1.7189 1.7235 1.7235 1.7144 1.7099 1.7054 1.7009 1.6965 1.692 1.6876 1.6832 1.6745 1.6616 1.6575 1.6533 1.6533 1.649 1.649 1.6616 1.6703 1.692 1.7054 1.7054 1.7099 1.7144 1.7054 1.7009 1.692 1.6832 1.6703 1.6616 1.649 1.6449 1.6406 1.6365 1.6324 1.6324 1.6284 1.6284 1.6242 1.6284 1.6284 1.6324 1.6324 1.6324 1.6324 1.6365 1.6324 1.6324 1.6284 1.6284 1.6242 1.6242 1.6201 1.6201 1.6161 1.6121 1.6121 1.6161 1.6121 1.6041 1.5962 1.5924 1.5885 1.5885 1.5885 1.5885 1.5885 1.5885 1.5885 1.5885 1.5885 1.5846 1.5846 1.5885 1.5885 1.5962 1.5962 1.5962 1.5924 1.5885 1.5885 1.5885 1.5885 1.5924 1.5885 1.5924 1.5924 1.5924 1.5924 1.5924 1.5924 1.5885 1.5924 1.5885 1.5846 1.5808 1.5769 1.5693 1.5655 1.5655 1.5655 1.5505 1.5542 1.558 1.558 1.5655 1.5617 1.5617 1.573 1.5693 1.5617 1.5617 1.5505 1.5431 1.5357 1.5214 1.525 1.525 1.525 1.5286 1.5286 1.5357 1.5395 1.5431 1.5468 1.5505 1.5542 1.558 1.5542 1.558 1.5617 1.558 1.5542 1.5505 1.5395 1.5357 1.5286 1.5179 1.5179 1.5179 1.5179 1.5143 1.5108 1.5108 1.5072 1.5108 1.5072 1.5143 1.5108 1.5108 1.5108 1.5037 1.5003 1.5037 1.4969 1.4969 1.4934 1.4969 1.4969 1.4831 1.4797 1.4797 1.473 1.4697 1.4697 1.4764 1.4764 1.473 1.473 1.4697 1.473 1.4764 1.4797 1.4831 1.4797 1.4831 1.4831 1.4831 1.4831 1.4831 1.4831 1.4764 1.473 1.4764 1.4664 1.4631 1.4631 1.4598 1.4598 1.4631 1.4631 1.4598 1.4598 1.4565 1.4565 1.4565 1.4598 1.4598 1.4565 1.4565 1.4532 1.4565 1.4598 1.4565 1.4532 1.4532 1.4532 1.4565 1.4565 1.4598 1.4598 1.4532 1.4532 1.4532 1.4565 1.4565 1.4598 1.4532 1.4467 1.4467 1.4467 1.45 1.434 1.4307 1.4307 1.4183 1.409 1.403 1.3909 1.385 1.382 1.3791 1.3909 1.385 1.3675 1.3675 1.3646 1.3733 1.3761 1.3761 1.382 1.385 1.3909 1.3909 1.3939 1.403 1.409 1.4152 1.4152 1.4121 1.3909 1.382
1.9058 1.9114 1.917 1.9058 1.9058 1.9058 1.9001 1.9001 1.8781 1.8781 1.8727 1.8727 1.8781 1.8781 1.8727 1.8836 1.8836 1.8946 1.8946 1.8891 1.8836 1.8781 1.8727 1.8781 1.8836 1.8727 1.8674 1.8727 1.8727 1.8727 1.8727 1.8836 1.8781 1.8781 1.8836 1.8891 1.8836 1.8781 1.8727 1.862 1.8514 1.8514 1.8514 1.8514 1.8305 1.8253 1.8305 1.8253 1.8253 1.8356 1.8356 1.8253 1.8202 1.8202 1.8151 1.81 1.805 1.805 1.805 1.8 1.795 1.79 1.79 1.7851 1.7803 1.7803 1.7657 1.7657 1.7657 1.7657 1.7609 1.7609 1.7514 1.7466 1.7466 1.7466 1.7514 1.7514 1.7514 1.7561 1.7609 1.7609 1.7609 1.7609 1.7609 1.7561 1.7561 1.7561 1.7514 1.7466 1.7374 1.742 1.742 1.742 1.7374 1.742 1.7374 1.7281 1.7235 1.7235 1.7235 1.7328 1.7328 1.7328 1.7328 1.7281 1.7235 1.7235 1.7235 1.7235 1.7144 1.7099 1.7054 1.7009 1.692 1.6876 1.6832 1.6789 1.6703 1.6616 1.6575 1.6533 1.6533 1.6533 1.6533 1.6616 1.6745 1.6965 1.7054 1.7054 1.7054 1.7054 1.6965 1.692 1.6789 1.666 1.6575 1.6533 1.6406 1.6365 1.6324 1.6324 1.6324 1.6284 1.6324 1.6324 1.6284 1.6324 1.6324 1.6324 1.6284 1.6324 1.6365 1.6365 1.6365 1.6324 1.6284 1.6201 1.6201 1.6242 1.6201 1.6201 1.6161 1.6121 1.6121 1.6121 1.6081 1.6002 1.5924 1.5846 1.5846 1.5846 1.5846 1.5846 1.5846 1.5846 1.5885 1.5962 1.5962 1.5962 1.5924 1.5924 1.5962 1.5962 1.6002 1.6002 1.5962 1.5924 1.5885 1.5924 1.5924 1.5962 1.5962 1.5962 1.6002 1.5962 1.5962 1.5924 1.5962 1.5962 1.5962 1.5846 1.5885 1.5808 1.5808 1.5808 1.5769 1.5769 1.5769 1.5655 1.5655 1.5693 1.5693 1.5769 1.573 1.5693 1.5769 1.573 1.5655 1.5617 1.5505 1.5468 1.5395 1.5321 1.5286 1.5286 1.525 1.5321 1.5286 1.5357 1.5395 1.5431 1.5468 1.5505 1.5542 1.558 1.5542 1.5542 1.5617 1.5655 1.558 1.5505 1.5431 1.5357 1.5286 1.5214 1.5179 1.5179 1.5108 1.5072 1.5037 1.5037 1.5037 1.5037 1.5037 1.5072 1.5072 1.5037 1.5037 1.5037 1.5037 1.5037 1.5003 1.5037 1.5037 1.5003 1.5003 1.4865 1.4831 1.4797 1.4764 1.473 1.4764 1.473 1.4764 1.4697 1.473 1.473 1.473 1.4764 1.4764 1.4797 1.4797 1.4797 1.4831 1.4865 1.4797 1.4797 1.4797 1.473 1.4697 1.4697 1.4631 1.4598 1.4598 1.4565 1.4598 1.4598 1.4631 1.4565 1.4565 1.4565 1.4532 1.4565 1.4565 1.4565 1.4565 1.4565 1.4532 1.4565 1.4565 1.4565 1.4565 1.4565 1.4532 1.4565 1.4565 1.4565 1.4565 1.4532 1.4532 1.4532 1.4565 1.4565 1.4565 1.45 1.4467 1.4467 1.4467 1.4467 1.4371 1.4371 1.434 1.4245 1.4152 1.409 1.3999 1.3939 1.3909 1.385 1.3939 1.385 1.3675 1.3646 1.3704 1.3704 1.382 1.3999 1.406 1.409 1.409 1.406 1.409 1.4121 1.4152 1.4152 1.4183 1.4214 1.403 1.3939
1.9001 1.9114 1.9114 1.9058 1.9058 1.9058 1.9058 1.9001 1.8836 1.8836 1.8781 1.8836 1.8836 1.8836 1.8781 1.8836 1.8836 1.8891 1.8946 1.8891 1.8836 1.8727 1.8727 1.8727 1.8727 1.8674 1.862 1.862 1.8674 1.8727 1.8674 1.8727 1.8781 1.8781 1.8781 1.8836 1.8781 1.8781 1.8727 1.8566 1.8461 1.8514 1.8514 1.8514 1.8305 1.8305 1.8253 1.8305 1.8305 1.8356 1.8356 1.8253 1.8202 1.8202 1.8151 1.81 1.805 1.805 1.805 1.8 1.795 1.79 1.79 1.7803 1.7803 1.7754 1.7657 1.7657 1.7657 1.7609 1.7657 1.7609 1.7514 1.7466 1.7466 1.7466 1.7514 1.7466 1.7466 1.7561 1.7609 1.7609 1.7609 1.7609 1.7609 1.7561 1.7561 1.7561 1.7514 1.7466 1.742 1.742 1.7466 1.742 1.7374 1.7328 1.7328 1.7235 1.7189 1.7189 1.7235 1.7281 1.7281 1.7328 1.7328 1.7281 1.7281 1.7235 1.7235 1.7281 1.7144 1.7099 1.7054 1.6965 1.692 1.6876 1.6789 1.6745 1.666 1.6616 1.6575 1.6575 1.6533 1.6533 1.6533 1.6703 1.6789 1.6965 1.7054 1.7009 1.7009 1.6965 1.692 1.6832 1.6745 1.6616 1.6533 1.649 1.6449 1.6406 1.6365 1.6324 1.6365 1.6324 1.6365 1.6365 1.6324 1.6324 1.6365 1.6365 1.6365 1.6365 1.6365 1.6365 1.6365 1.6324 1.6324 1.6201 1.6201 1.6201 1.6201 1.6201 1.6161 1.6121 1.6121 1.6081 1.6081 1.5962 1.5885 1.5846 1.5808 1.5808 1.5808 1.5846 1.5808 1.5846 1.5885 1.6002 1.5962 1.5962 1.5962 1.5962 1.6002 1.6002 1.6002 1.6002 1.5962 1.5885 1.5924 1.5924 1.5924 1.5962 1.5962 1.6002 1.6002 1.6002 1.6002 1.5962 1.6002 1.6002 1.5962 1.5885 1.5885 1.5846 1.5808 1.5769 1.5769 1.5769 1.5769 1.5655 1.5693 1.5693 1.5693 1.5769 1.5769 1.573 1.573 1.5693 1.5655 1.5617 1.5542 1.5505 1.5431 1.5357 1.5321 1.5321 1.5321 1.5321 1.5321 1.5357 1.5357 1.5395 1.5468 1.5505 1.5542 1.558 1.5542 1.5542 1.5617 1.5655 1.5617 1.5542 1.5468 1.5357 1.5321 1.5214 1.5214 1.5179 1.5108 1.5072 1.5037 1.5003 1.5037 1.5003 1.5037 1.5037 1.5037 1.5003 1.5037 1.5072 1.5072 1.5037 1.5072 1.5072 1.5072 1.5072 1.5003 1.49 1.4865 1.4831 1.473 1.473 1.4764 1.4797 1.4764 1.4764 1.4764 1.4697 1.473 1.473 1.4764 1.4764 1.4797 1.4797 1.4831 1.4831 1.4797 1.4764 1.4764 1.4697 1.4664 1.4664 1.4631 1.4598 1.4598 1.4565 1.4598 1.4631 1.4598 1.4598 1.4532 1.4532 1.4532 1.4532 1.4565 1.4565 1.4565 1.4565 1.4532 1.4565 1.4598 1.4598 1.4598 1.4565 1.4565 1.4598 1.4565 1.4565 1.4598 1.4532 1.4532 1.4532 1.4532 1.4598 1.4565 1.4532 1.45 1.4467 1.45 1.45 1.4404 1.4371 1.4371 1.4276 1.4214 1.4152 1.4121 1.409 1.3999 1.406 1.4121 1.3733 1.3704 1.3704 1.3733 1.3909 1.4183 1.4183 1.4152 1.4183 1.4121 1.4121 1.409 1.4152 1.4121 1.4152 1.4214 1.4214 1.4121 1.403
1.9058 1.917 1.9114 1.9058 1.9114 1.9114 1.9114 1.9058 1.8946 1.8891 1.8891 1.8891 1.8891 1.8891 1.8836 1.8836 1.8836 1.8891 1.8891 1.8836 1.8781 1.8727 1.8674 1.8674 1.8727 1.862 1.862 1.862 1.8674 1.8727 1.8674 1.8727 1.8781 1.8836 1.8836 1.8836 1.8836 1.8781 1.8727 1.8514 1.8514 1.8461 1.8514 1.8461 1.8305 1.8305 1.8305 1.8305 1.8253 1.8409 1.8356 1.8253 1.8202 1.8202 1.8151 1.805 1.805 1.805 1.795 1.795 1.79 1.7803 1.7851 1.7705 1.7754 1.7705 1.7514 1.7466 1.7514 1.7514 1.742 1.742 1.7374 1.7328 1.7328 1.742 1.742 1.742 1.7374 1.7374 1.742 1.7466 1.7514 1.7561 1.7561 1.7561 1.7561 1.7609 1.7514 1.7514 1.742 1.742 1.7466 1.742 1.7374 1.7281 1.7235 1.7235 1.7189 1.7144 1.7189 1.7189 1.7235 1.7189 1.7235 1.7189 1.7144 1.7144 1.7144 1.7144 1.7054 1.7054 1.7009 1.692 1.6876 1.6832 1.6789 1.6789 1.6745 1.6616 1.6616 1.6616 1.6616 1.6616 1.666 1.6703 1.6789 1.6876 1.692 1.6832 1.6789 1.6703 1.666 1.6575 1.6575 1.6449 1.6449 1.6449 1.6406 1.6406 1.6365 1.6365 1.6406 1.6365 1.6365 1.6406 1.6324 1.6324 1.6365 1.6406 1.6365 1.6406 1.6365 1.6406 1.6324 1.6284 1.6284 1.6201 1.6161 1.6161 1.6161 1.6161 1.6081 1.6121 1.6121 1.6041 1.6041 1.5962 1.5846 1.5846 1.5808 1.5808 1.5769 1.5808 1.5846 1.5808 1.5846 1.6002 1.6002 1.6002 1.6041 1.6041 1.6002 1.5962 1.6002 1.6002 1.5962 1.5885 1.5924 1.5962 1.5924 1.5924 1.6002 1.6002 1.6041 1.6002 1.6002 1.5962 1.5962 1.6002 1.5962 1.5885 1.5846 1.5808 1.5808 1.5769 1.5769 1.573 1.5769 1.5655 1.5693 1.5693 1.573 1.5769 1.5769 1.573 1.573 1.573 1.5617 1.5617 1.5468 1.5468 1.5431 1.5357 1.5357 1.5357 1.5357 1.5321 1.5321 1.5357 1.5395 1.5395 1.5468 1.5505 1.5542 1.5542 1.5505 1.5505 1.5617 1.5617 1.558 1.5468 1.5357 1.5286 1.525 1.5214 1.5214 1.5214 1.5108 1.5037 1.5003 1.5003 1.5037 1.5003 1.5037 1.5003 1.5037 1.5037 1.5003 1.5003 1.5003 1.4969 1.5003 1.5072 1.5072 1.5072 1.4969 1.49 1.4865 1.4865 1.4797 1.4764 1.4831 1.4831 1.4797 1.4797 1.4764 1.473 1.473 1.473 1.473 1.4764 1.473 1.473 1.473 1.473 1.473 1.473 1.473 1.4631 1.4664 1.4664 1.4631 1.4598 1.4598 1.4565 1.4598 1.4631 1.4631 1.4598 1.4565 1.4565 1.4532 1.4532 1.4565 1.4565 1.4565 1.4565 1.4565 1.4565 1.4598 1.4598 1.4598 1.4598 1.4598 1.4598 1.4598 1.4598 1.4598 1.4565 1.4565 1.4565 1.4565 1.4598 1.4598 1.4532 1.4532 1.45 1.4532 1.4532 1.4404 1.4371 1.4371 1.4276 1.4245 1.4214 1.4183 1.4152 1.409 1.4121 1.4214 1.3733 1.3733 1.3675 1.382 1.3999 1.4121 1.4214 1.4245 1.4214 1.4183 1.4152 1.4121 1.4121 1.4183 1.4183 1.4214 1.4214 1.4183 1.409
1.9226 1.9226 1.917 1.9058 1.917 1.917 1.9284 1.9226 1.9114 1.9114 1.9058 1.9114 1.9058 1.9001 1.8946 1.8891 1.8891 1.8836 1.8836 1.8836 1.8727 1.8727 1.862 1.862 1.8727 1.862 1.862 1.8674 1.8674 1.8727 1.8727 1.8781 1.8891 1.8836 1.8836 1.8891 1.8836 1.8781 1.8727 1.8514 1.8461 1.8461 1.8461 1.8461 1.8305 1.8253 1.8305 1.8305 1.8305 1.8409 1.8356 1.8305 1.8202 1.8202 1.8151 1.805 1.805 1.8 1.795 1.79 1.79 1.7803 1.7803 1.7754 1.7754 1.7754 1.7561 1.7561 1.7514 1.7514 1.7466 1.7466 1.7328 1.7328 1.7374 1.7374 1.7466 1.742 1.7466 1.7466 1.742 1.7514 1.7514 1.7561 1.7561 1.7561 1.7561 1.7609 1.7561 1.7514 1.742 1.742 1.7466 1.742 1.7328 1.7281 1.7235 1.7189 1.7189 1.7189 1.7189 1.7235 1.7189 1.7235 1.7189 1.7189 1.7144 1.7099 1.7099 1.7099 1.7009 1.7009 1.6965 1.6876 1.6832 1.6832 1.6789 1.6745 1.6745 1.6745 1.6703 1.6745 1.6789 1.6832 1.6789 1.6832 1.6876 1.6876 1.692 1.6876 1.6745 1.6703 1.6616 1.6575 1.6533 1.6449 1.6449 1.6449 1.6406 1.6406 1.6406 1.6365 1.6406 1.6449 1.6449 1.649 1.6449 1.649 1.6533 1.6533 1.649 1.649 1.6449 1.6449 1.6365 1.6365 1.6284 1.6201 1.6161 1.6161 1.6161 1.6121 1.6081 1.6121 1.6121 1.6041 1.6041 1.6002 1.5885 1.5846 1.5846 1.5808 1.5808 1.5808 1.5885 1.5885 1.5924 1.6002 1.6041 1.6041 1.6161 1.6121 1.6081 1.6041 1.6002 1.6041 1.6002 1.5924 1.5924 1.5962 1.5962 1.5962 1.6041 1.6081 1.6041 1.6041 1.6002 1.6002 1.6002 1.5962 1.5962 1.5885 1.5846 1.5808 1.5808 1.5808 1.5808 1.5808 1.5808 1.5769 1.5769 1.5769 1.5808 1.5808 1.5769 1.5769 1.573 1.5693 1.5655 1.5617 1.5468 1.5468 1.5468 1.5395 1.5395 1.5395 1.5357 1.5357 1.5357 1.5357 1.5395 1.5431 1.5505 1.5505 1.5542 1.558 1.5542 1.5505 1.5617 1.5617 1.5542 1.5468 1.5357 1.5321 1.525 1.5214 1.525 1.525 1.5108 1.5108 1.5072 1.5072 1.5108 1.5003 1.5003 1.5003 1.5003 1.5037 1.5003 1.4969 1.5037 1.4969 1.5003 1.5037 1.5072 1.5037 1.5003 1.4934 1.4934 1.4934 1.49 1.49 1.49 1.49 1.4865 1.4865 1.4831 1.4764 1.473 1.4697 1.473 1.473 1.473 1.473 1.4697 1.4697 1.4697 1.4697 1.4664 1.4598 1.4631 1.4598 1.4631 1.4598 1.4598 1.4565 1.4598 1.4631 1.4664 1.4664 1.4598 1.4565 1.4565 1.4532 1.4565 1.4532 1.4565 1.4565 1.4598 1.4565 1.4598 1.4631 1.4631 1.4664 1.4631 1.4631 1.4598 1.4631 1.4664 1.4631 1.4631 1.4631 1.4631 1.4664 1.4631 1.4631 1.4598 1.4565 1.4532 1.4532 1.4371 1.4371 1.4371 1.4276 1.4245 1.4276 1.4214 1.4183 1.4152 1.4214 1.4276 1.434 1.4404 1.388 1.3909 1.403 1.4121 1.4214 1.4276 1.4245 1.4183 1.4183 1.4152 1.4152 1.4183 1.4152 1.4214 1.4214 1.4183 1.4152
1.917 1.917 1.9058 1.9058 1.9114 1.917 1.9226 1.9284 1.9058 1.9114 1.9114 1.9114 1.9114 1.9058 1.9001 1.8891 1.8891 1.8836 1.8781 1.8836 1.8727 1.8674 1.862 1.8566 1.862 1.862 1.862 1.8674 1.8727 1.8727 1.8781 1.8781 1.8891 1.8891 1.8891 1.8891 1.8836 1.8727 1.8674 1.8566 1.8461 1.8461 1.8461 1.8409 1.8305 1.8305 1.8305 1.8356 1.8305 1.8356 1.8356 1.8253 1.8202 1.8202 1.8151 1.805 1.8 1.795 1.795 1.79 1.7851 1.7851 1.7851 1.7803 1.7803 1.7803 1.7609 1.7609 1.7609 1.7561 1.7561 1.7466 1.742 1.7374 1.7374 1.742 1.7466 1.7466 1.7514 1.7514 1.7561 1.7561 1.7561 1.7561 1.7609 1.7609 1.7609 1.7561 1.7514 1.7466 1.742 1.742 1.7466 1.742 1.7328 1.7235 1.7235 1.7189 1.7235 1.7189 1.7235 1.7235 1.7189 1.7189 1.7235 1.7144 1.7099 1.7099 1.7054 1.7054 1.7009 1.6965 1.692 1.6832 1.6789 1.6789 1.6745 1.6832 1.6745 1.6745 1.6745 1.6745 1.6832 1.6832 1.692 1.6876 1.692 1.692 1.692 1.6832 1.6789 1.6789 1.666 1.6575 1.6449 1.6449 1.6449 1.6406 1.6406 1.6406 1.6406 1.6406 1.6449 1.6449 1.6533 1.6533 1.6533 1.6533 1.6575 1.6616 1.6575 1.6533 1.649 1.649 1.6406 1.6365 1.6324 1.6161 1.6161 1.6161 1.6121 1.6121 1.6081 1.6081 1.6121 1.6041 1.6041 1.5962 1.5924 1.5885 1.5885 1.5846 1.5846 1.5846 1.5924 1.5924 1.5962 1.6121 1.6121 1.6161 1.6161 1.6161 1.6081 1.6081 1.6081 1.6041 1.6041 1.5924 1.5924 1.5962 1.6002 1.6041 1.6081 1.6081 1.6081 1.6041 1.6041 1.6002 1.6002 1.6002 1.5962 1.5885 1.5846 1.5846 1.5808 1.5808 1.5808 1.5808 1.5808 1.5808 1.5808 1.5846 1.5846 1.5846 1.5808 1.5808 1.5769 1.573 1.5693 1.5655 1.5505 1.5468 1.5468 1.5431 1.5431 1.5395 1.5395 1.5395 1.5395 1.5395 1.5431 1.5468 1.5505 1.5542 1.5542 1.558 1.5542 1.5505 1.5617 1.558 1.5542 1.5431 1.5357 1.5286 1.5286 1.525 1.525 1.525 1.5179 1.5143 1.5108 1.5108 1.5143 1.5072 1.5037 1.5003 1.5003 1.5003 1.5003 1.5003 1.5003 1.4969 1.4969 1.5037 1.5037 1.5072 1.5003 1.4934 1.4934 1.4934 1.4934 1.4934 1.4934 1.4865 1.49 1.4865 1.4831 1.4764 1.473 1.473 1.4764 1.473 1.473 1.4697 1.4664 1.4664 1.4664 1.4664 1.4631 1.4532 1.4532 1.4565 1.4598 1.4598 1.4565 1.4598 1.4598 1.4631 1.4697 1.4664 1.4631 1.4565 1.4532 1.45 1.4532 1.4532 1.4565 1.4565 1.4565 1.4565 1.4565 1.4598 1.4664 1.4664 1.4664 1.4631 1.4664 1.4631 1.4664 1.4631 1.4664 1.4631 1.4631 1.4664 1.4664 1.4631 1.4631 1.4598 1.4532 1.45 1.4371 1.434 1.434 1.4245 1.4245 1.4245 1.4214 1.4183 1.4152 1.4214 1.4276 1.434 1.4467 1.3999 1.3909 1.3969 1.406 1.4152 1.4276 1.4245 1.4183 1.4183 1.4152 1.4152 1.4152 1.4183 1.4183 1.4183 1.4183 1.4152
1.917 1.9114 1.9001 1.8946 1.9058 1.9114 1.917 1.9226 1.9058 1.9058 1.9114 1.917 1.917 1.9114 1.8946 1.8891 1.8891 1.8781 1.8674 1.8674 1.8727 1.862 1.8566 1.8566 1.862 1.8514 1.8514 1.8566 1.8674 1.8674 1.8674 1.8727 1.8836 1.8836 1.8891 1.8836 1.8781 1.8674 1.862 1.8514 1.8461 1.8409 1.8409 1.8356 1.8202 1.8202 1.8253 1.8253 1.8305 1.8356 1.8253 1.8202 1.8151 1.81 1.81 1.795 1.795 1.795 1.79 1.79 1.7803 1.7803 1.7851 1.7851 1.7803 1.7851 1.7705 1.7705 1.7705 1.7657 1.7657 1.7561 1.742 1.742 1.7374 1.742 1.7466 1.7466 1.7561 1.7561 1.7561 1.7561 1.7514 1.7561 1.7561 1.7561 1.7561 1.7514 1.742 1.742 1.7374 1.7328 1.742 1.7328 1.7281 1.7144 1.7144 1.7099 1.7144 1.7144 1.7189 1.7235 1.7189 1.7189 1.7189 1.7144 1.7099 1.7009 1.7009 1.7009 1.6965 1.6965 1.692 1.6832 1.6789 1.6745 1.6745 1.6789 1.6789 1.6745 1.6745 1.6745 1.6832 1.6876 1.692 1.692 1.692 1.692 1.692 1.6832 1.6832 1.6832 1.666 1.6575 1.649 1.6449 1.6449 1.6449 1.6406 1.6406 1.6406 1.649 1.649 1.6533 1.6575 1.6616 1.6533 1.6575 1.666 1.666 1.6616 1.6575 1.649 1.649 1.6406 1.6365 1.6284 1.6201 1.6161 1.6161 1.6121 1.6121 1.6081 1.6121 1.6121 1.6081 1.6041 1.6002 1.5962 1.5924 1.5885 1.5885 1.5885 1.5885 1.5962 1.5962 1.6041 1.6161 1.6161 1.6201 1.6201 1.6201 1.6121 1.6081 1.6081 1.6002 1.6041 1.5962 1.6002 1.5962 1.6002 1.6081 1.6121 1.6161 1.6121 1.6081 1.6081 1.6041 1.6002 1.6002 1.6002 1.5885 1.5885 1.5846 1.5808 1.5846 1.5808 1.5885 1.5846 1.5846 1.5808 1.5846 1.5885 1.5885 1.5885 1.5769 1.5769 1.5769 1.5693 1.5693 1.5505 1.5505 1.5505 1.5468 1.5431 1.5431 1.5395 1.5431 1.5395 1.5431 1.5431 1.5468 1.5542 1.5542 1.5542 1.5542 1.5542 1.5505 1.5505 1.5505 1.5395 1.5321 1.5286 1.525 1.5214 1.525 1.525 1.525 1.5214 1.5179 1.5143 1.5143 1.5179 1.5072 1.5003 1.4969 1.4969 1.4969 1.4969 1.4969 1.5003 1.4969 1.4969 1.5003 1.5037 1.5072 1.5003 1.4969 1.4969 1.4934 1.4934 1.49 1.49 1.4865 1.4831 1.4865 1.4797 1.473 1.4697 1.4697 1.4697 1.4697 1.4697 1.4664 1.4631 1.4631 1.4664 1.4631 1.4598 1.4467 1.4467 1.4532 1.4565 1.4598 1.4565 1.4565 1.4565 1.4598 1.4664 1.4664 1.4598 1.4565 1.4532 1.4467 1.45 1.4532 1.4532 1.4565 1.4565 1.4565 1.4598 1.4598 1.4664 1.4664 1.4664 1.4664 1.4664 1.4664 1.4664 1.4631 1.4664 1.4631 1.4631 1.4664 1.4664 1.4631 1.4631 1.4598 1.4565 1.4532 1.4371 1.434 1.4307 1.4245 1.4214 1.4214 1.4152 1.4152 1.409 1.4152 1.4183 1.4307 1.434 1.4121 1.3909 1.388 1.406 1.4121 1.4307 1.4245 1.4214 1.4183 1.4152 1.4121 1.406 1.409 1.4121 1.409 1.3969 1.3939
1.9114 1.9058 1.9001 1.8946 1.9001 1.9058 1.917 1.917 1.9058 1.9114 1.9114 1.9114 1.917 1.9114 1.9001 1.8946 1.8891 1.8727 1.8674 1.8674 1.8674 1.862 1.8566 1.8566 1.8566 1.8566 1.8566 1.862 1.8674 1.8674 1.8674 1.8727 1.8836 1.8836 1.8891 1.8836 1.8781 1.8674 1.862 1.8514 1.8461 1.8409 1.8409 1.8356 1.8202 1.8253 1.8253 1.8253 1.8305 1.8305 1.8305 1.8151 1.8151 1.81 1.81 1.795 1.795 1.795 1.79 1.7851 1.7851 1.7803 1.79 1.7851 1.7851 1.7851 1.7803 1.7754 1.7754 1.7754 1.7705 1.7657 1.7466 1.7466 1.7374 1.742 1.7466 1.7466 1.7609 1.7609 1.7561 1.7561 1.7561 1.7514 1.7561 1.7561 1.7561 1.7514 1.742 1.7374 1.7328 1.7328 1.7374 1.7328 1.7189 1.7144 1.7099 1.7099 1.7144 1.7099 1.7189 1.7189 1.7189 1.7189 1.7189 1.7189 1.7144 1.7054 1.7009 1.7009 1.6965 1.692 1.692 1.6832 1.6789 1.6789 1.6789 1.6789 1.6789 1.6745 1.6745 1.6789 1.6832 1.692 1.692 1.692 1.692 1.692 1.692 1.6876 1.6876 1.6965 1.6703 1.6616 1.6575 1.6533 1.6533 1.6533 1.6533 1.6533 1.649 1.6533 1.6533 1.6533 1.6616 1.666 1.6616 1.6616 1.666 1.666 1.6616 1.6616 1.6533 1.6533 1.6406 1.6365 1.6365 1.6242 1.6201 1.6161 1.6161 1.6161 1.6161 1.6121 1.6121 1.6121 1.6081 1.6041 1.6041 1.6002 1.5962 1.5962 1.6081 1.6081 1.6081 1.6121 1.6161 1.6201 1.6284 1.6242 1.6242 1.6201 1.6161 1.6121 1.6081 1.6002 1.6002 1.6002 1.5962 1.5962 1.6002 1.6041 1.6121 1.6161 1.6161 1.6121 1.6121 1.6081 1.6081 1.6081 1.6041 1.5962 1.5924 1.5885 1.5846 1.5924 1.5885 1.5924 1.5924 1.5924 1.5924 1.5924 1.5924 1.5885 1.5885 1.5846 1.5808 1.5769 1.5693 1.5655 1.5542 1.5542 1.5542 1.5505 1.5505 1.5468 1.5431 1.5431 1.5431 1.5431 1.5431 1.5468 1.5542 1.5542 1.5542 1.5542 1.5505 1.5505 1.5505 1.5505 1.5357 1.525 1.525 1.525 1.5214 1.5214 1.5286 1.5286 1.5286 1.525 1.525 1.5179 1.5179 1.5072 1.5003 1.4969 1.4969 1.4969 1.4969 1.4969 1.4969 1.5003 1.5003 1.5072 1.5072 1.5072 1.5003 1.4969 1.4969 1.4969 1.49 1.4934 1.49 1.4831 1.4831 1.4831 1.4797 1.473 1.4697 1.4664 1.4697 1.4664 1.4697 1.4664 1.4664 1.4631 1.4664 1.4664 1.4631 1.4435 1.4467 1.4532 1.4565 1.4598 1.4598 1.4565 1.4598 1.4598 1.4697 1.4697 1.4631 1.4565 1.4532 1.45 1.4532 1.4532 1.4565 1.4565 1.4565 1.4565 1.4565 1.4598 1.4664 1.4697 1.4697 1.4664 1.4664 1.4664 1.4631 1.4631 1.4664 1.4664 1.4697 1.4664 1.4664 1.4631 1.4664 1.4664 1.4598 1.4565 1.4404 1.434 1.4307 1.4245 1.4245 1.4214 1.4152 1.4121 1.409 1.4121 1.4152 1.4245 1.4467 1.4435 1.4435 1.4404 1.4404 1.434 1.434 1.4307 1.4245 1.4183 1.4121 1.406 1.403 1.406 1.4121 1.403 1.388 1.385
1.9114 1.9058 1.9001 1.8946 1.9001 1.9058 1.9226 1.917 1.9058 1.9058 1.9114 1.9114 1.9114 1.9058 1.8946 1.8891 1.8836 1.8674 1.862 1.862 1.8674 1.862 1.8566 1.8566 1.862 1.8566 1.8566 1.862 1.8674 1.8674 1.8674 1.8727 1.8781 1.8781 1.8836 1.8836 1.8727 1.8674 1.862 1.8566 1.8461 1.8409 1.8356 1.8305 1.8202 1.8202 1.8202 1.8253 1.8253 1.8253 1.8253 1.8151 1.8151 1.81 1.81 1.795 1.795 1.795 1.79 1.79 1.7851 1.79 1.79 1.79 1.79 1.79 1.7803 1.7803 1.7803 1.7705 1.7657 1.7561 1.742 1.7374 1.7374 1.742 1.742 1.7466 1.7561 1.7561 1.7561 1.7561 1.7561 1.7514 1.7561 1.7561 1.7561 1.7514 1.742 1.742 1.7328 1.7328 1.7374 1.7328 1.7144 1.7099 1.7099 1.7054 1.7054 1.7099 1.7144 1.7189 1.7144 1.7144 1.7144 1.7144 1.7099 1.7099 1.7009 1.6965 1.6965 1.692 1.6876 1.6789 1.6789 1.6789 1.6745 1.6745 1.6789 1.6789 1.6745 1.6789 1.6832 1.6876 1.6965 1.692 1.692 1.692 1.692 1.692 1.692 1.6965 1.6703 1.6616 1.6575 1.6533 1.649 1.6533 1.6533 1.649 1.6533 1.6533 1.6533 1.6575 1.666 1.6703 1.666 1.666 1.6703 1.6703 1.666 1.6616 1.6616 1.6575 1.6449 1.6406 1.6365 1.6242 1.6201 1.6201 1.6161 1.6201 1.6161 1.6161 1.6161 1.6121 1.6121 1.6121 1.6041 1.6041 1.6041 1.6041 1.6081 1.6081 1.6121 1.6121 1.6121 1.6161 1.6242 1.6201 1.6201 1.6161 1.6121 1.6081 1.6041 1.6002 1.6002 1.6002 1.6002 1.5962 1.5962 1.6041 1.6121 1.6121 1.6161 1.6121 1.6121 1.6081 1.6081 1.6081 1.6041 1.5962 1.5924 1.5885 1.5846 1.5885 1.5885 1.5885 1.5924 1.5846 1.5885 1.5885 1.5885 1.5846 1.5846 1.5769 1.5769 1.573 1.5693 1.5655 1.5505 1.5505 1.5542 1.5505 1.5505 1.5505 1.5431 1.5395 1.5431 1.5431 1.5431 1.5468 1.5505 1.5505 1.5505 1.5505 1.5468 1.5431 1.5505 1.5468 1.5357 1.525 1.525 1.525 1.5214 1.5214 1.5321 1.5286 1.5286 1.525 1.5214 1.5214 1.5179 1.5037 1.5003 1.4969 1.4969 1.4934 1.4934 1.4934 1.5003 1.5003 1.5072 1.5072 1.5072 1.5108 1.5037 1.5003 1.4969 1.4934 1.4934 1.49 1.4865 1.4831 1.4831 1.4797 1.4764 1.4697 1.4631 1.4664 1.4664 1.4664 1.4697 1.4697 1.4631 1.4664 1.4697 1.4664 1.4631 1.4532 1.45 1.4565 1.4598 1.4598 1.4598 1.4565 1.4565 1.4631 1.4664 1.4697 1.4664 1.4631 1.4532 1.45 1.45 1.4532 1.4532 1.4532 1.4565 1.4565 1.4565 1.4565 1.4664 1.4697 1.4697 1.4697 1.4664 1.4664 1.4631 1.4631 1.4664 1.4664 1.4664 1.4631 1.4631 1.4598 1.4631 1.4631 1.4598 1.4565 1.4371 1.434 1.4307 1.4245 1.4245 1.4214 1.4152 1.4121 1.409 1.4121 1.4183 1.4245 1.4404 1.4404 1.4404 1.4371 1.434 1.434 1.434 1.4307 1.4121 1.403 1.406 1.406 1.3999 1.403 1.409 1.3969 1.388 1.385
1.9058 1.9001 1.8946 1.8946 1.9001 1.9058 1.917 1.917 1.9001 1.9001 1.9058 1.8946 1.8946 1.8891 1.8836 1.8781 1.8781 1.862 1.862 1.862 1.862 1.862 1.8566 1.8566 1.862 1.862 1.8566 1.8566 1.862 1.8674 1.862 1.8727 1.8727 1.8781 1.8727 1.8727 1.862 1.8566 1.8514 1.8461 1.8409 1.8305 1.8305 1.8253 1.8202 1.8151 1.8202 1.8202 1.8253 1.8253 1.8253 1.8151 1.81 1.805 1.8 1.79 1.79 1.7851 1.7851 1.7803 1.7803 1.7803 1.7851 1.7803 1.7851 1.79 1.7803 1.7754 1.7754 1.7657 1.7561 1.7514 1.7328 1.7328 1.7328 1.7374 1.7374 1.742 1.7514 1.7514 1.7514 1.7561 1.7561 1.7561 1.7609 1.7561 1.7561 1.7514 1.7466 1.742 1.7374 1.7328 1.7328 1.7328 1.7144 1.7054 1.7009 1.7009 1.7054 1.7054 1.7054 1.7099 1.7099 1.7099 1.7099 1.7009 1.6965 1.6965 1.6876 1.6832 1.6832 1.6789 1.6789 1.6703 1.666 1.6703 1.6703 1.6703 1.6745 1.6789 1.6703 1.6703 1.6789 1.6832 1.692 1.692 1.692 1.692 1.6876 1.6876 1.692 1.6965 1.6703 1.6616 1.6575 1.6533 1.649 1.649 1.649 1.6533 1.6533 1.6575 1.6575 1.6575 1.666 1.6703 1.6703 1.6703 1.6745 1.6789 1.6703 1.666 1.666 1.6616 1.649 1.6449 1.6365 1.6284 1.6242 1.6201 1.6161 1.6201 1.6161 1.6161 1.6161 1.6121 1.6121 1.6121 1.6081 1.6081 1.6081 1.6121 1.6121 1.6121 1.6121 1.6161 1.6121 1.6121 1.6161 1.6081 1.6081 1.6041 1.6002 1.5962 1.5962 1.5924 1.5924 1.5924 1.5962 1.5962 1.6002 1.6002 1.6081 1.6081 1.6121 1.6081 1.6081 1.6081 1.6081 1.6041 1.6002 1.5924 1.5846 1.5846 1.5808 1.5808 1.5808 1.5808 1.5846 1.5769 1.5769 1.5769 1.5808 1.5808 1.5808 1.573 1.5693 1.5655 1.5617 1.558 1.5468 1.5505 1.5505 1.5468 1.5431 1.5431 1.5395 1.5357 1.5357 1.5395 1.5395 1.5395 1.5468 1.5468 1.5431 1.5431 1.5431 1.5431 1.5468 1.5468 1.5357 1.525 1.525 1.525 1.525 1.5214 1.5286 1.5286 1.5286 1.525 1.525 1.5179 1.5143 1.5003 1.4969 1.4969 1.4934 1.4934 1.4934 1.4934 1.5003 1.5037 1.5108 1.5108 1.5072 1.5072 1.5037 1.4969 1.4969 1.4934 1.49 1.49 1.4831 1.4797 1.4797 1.4764 1.473 1.4664 1.4598 1.4598 1.4598 1.4598 1.4664 1.4664 1.4664 1.4664 1.4697 1.4664 1.4631 1.4598 1.4565 1.4598 1.4598 1.4598 1.4598 1.4565 1.4598 1.4631 1.4664 1.4697 1.4664 1.4598 1.4532 1.45 1.45 1.45 1.4532 1.4532 1.4532 1.4565 1.4532 1.4565 1.4664 1.4664 1.4664 1.4664 1.4664 1.4664 1.4631 1.4664 1.4664 1.4664 1.4631 1.4631 1.4598 1.4565 1.4631 1.4598 1.4598 1.4532 1.4371 1.434 1.4307 1.4245 1.4276 1.4214 1.4152 1.409 1.403 1.409 1.4152 1.4214 1.434 1.434 1.434 1.434 1.434 1.4307 1.4276 1.4245 1.406 1.3909 1.3939 1.3999 1.3999 1.3999 1.403 1.3939 1.385 1.385
1.9058 1.9001 1.8946 1.8946 1.8946 1.9058 1.917 1.917 1.9058 1.9058 1.9058 1.8946 1.8891 1.8891 1.8727 1.8727 1.8727 1.862 1.862 1.862 1.862 1.862 1.8566 1.862 1.862 1.862 1.8566 1.8566 1.8566 1.862 1.862 1.8674 1.8674 1.8727 1.8727 1.8674 1.8566 1.8566 1.8514 1.8409 1.8356 1.8253 1.8253 1.8202 1.8202 1.8253 1.8253 1.8202 1.8202 1.8202 1.8202 1.8151 1.805 1.8 1.79 1.7851 1.7803 1.7851 1.7754 1.7754 1.7754 1.7754 1.7754 1.7705 1.7851 1.7851 1.7803 1.7754 1.7754 1.7657 1.7561 1.7514 1.7374 1.7328 1.7374 1.7374 1.742 1.742 1.7466 1.7466 1.7514 1.7561 1.7514 1.7561 1.7657 1.7561 1.7561 1.7514 1.742 1.742 1.742 1.7374 1.7374 1.7328 1.7144 1.7054 1.7054 1.7009 1.7054 1.7054 1.7054 1.7054 1.7054 1.7054 1.7054 1.6965 1.692 1.6876 1.6832 1.6789 1.6789 1.6789 1.6789 1.666 1.6703 1.666 1.666 1.6703 1.6703 1.6745 1.6745 1.6703 1.6745 1.6832 1.6876 1.6832 1.692 1.6876 1.6876 1.6832 1.692 1.6965 1.6703 1.6616 1.6575 1.6575 1.6616 1.6575 1.6533 1.666 1.666 1.666 1.666 1.6616 1.6745 1.6745 1.6745 1.6789 1.6789 1.6876 1.6876 1.6789 1.6832 1.6789 1.666 1.6575 1.6533 1.6365 1.6324 1.6324 1.6324 1.6284 1.6284 1.6242 1.6242 1.6242 1.6242 1.6201 1.6201 1.6161 1.6161 1.6121 1.6161 1.6161 1.6201 1.6161 1.6121 1.6081 1.6081 1.6081 1.6041 1.6002 1.5962 1.5962 1.5924 1.5885 1.5885 1.5885 1.5962 1.5962 1.5962 1.6002 1.6041 1.6081 1.6081 1.6081 1.6041 1.6041 1.6041 1.6041 1.6002 1.5885 1.5846 1.5808 1.5769 1.5769 1.5769 1.5808 1.5769 1.5769 1.5769 1.5769 1.5769 1.5769 1.5769 1.5693 1.5655 1.5617 1.5617 1.558 1.5468 1.5505 1.5505 1.5468 1.5431 1.5431 1.5395 1.5395 1.5357 1.5357 1.5357 1.5431 1.5431 1.5431 1.5431 1.5431 1.5431 1.5431 1.5431 1.5431 1.5357 1.525 1.5214 1.525 1.525 1.525 1.525 1.5286 1.525 1.5286 1.5214 1.5179 1.5108 1.5003 1.4969 1.4969 1.4969 1.4934 1.4969 1.4969 1.5003 1.5072 1.5072 1.5072 1.5072 1.5037 1.5003 1.4969 1.4934 1.4934 1.4865 1.49 1.4831 1.4797 1.4764 1.4764 1.473 1.4697 1.4598 1.4598 1.4598 1.4598 1.4697 1.473 1.473 1.4764 1.473 1.4697 1.4664 1.4697 1.4697 1.473 1.4697 1.4697 1.4697 1.4664 1.4631 1.4664 1.473 1.4697 1.4664 1.4565 1.4532 1.45 1.45 1.45 1.4565 1.4565 1.4565 1.4631 1.4598 1.4631 1.4664 1.4697 1.473 1.4697 1.4697 1.4664 1.4664 1.4664 1.473 1.473 1.4664 1.4631 1.4664 1.4631 1.4664 1.4631 1.4631 1.4598 1.4435 1.4371 1.4371 1.4307 1.4307 1.4276 1.4121 1.406 1.403 1.406 1.4152 1.4214 1.4307 1.4307 1.434 1.4307 1.434 1.4307 1.4307 1.4245 1.406 1.3939 1.3939 1.3939 1.3969 1.3969 1.3969 1.3939 1.3909 1.406
1.8946 1.8891 1.8891 1.8836 1.8891 1.9001 1.9114 1.917 1.9001 1.9001 1.9001 1.8891 1.8891 1.8836 1.8727 1.8727 1.8727 1.862 1.862 1.862 1.862 1.862 1.862 1.8674 1.8674 1.8674 1.862 1.8566 1.8514 1.8566 1.8566 1.8674 1.8674 1.862 1.862 1.8566 1.8514 1.8514 1.8461 1.8409 1.8305 1.8253 1.8202 1.8202 1.8202 1.8253 1.8253 1.8202 1.8202 1.8202 1.8151 1.8151 1.8 1.795 1.79 1.7803 1.7803 1.7803 1.7754 1.7705 1.7754 1.7754 1.7754 1.7705 1.7803 1.7851 1.7803 1.7754 1.7803 1.7657 1.7657 1.7514 1.7374 1.7328 1.7374 1.7374 1.7466 1.7466 1.7514 1.7561 1.7561 1.7561 1.7561 1.7561 1.7609 1.7561 1.7514 1.7466 1.7466 1.742 1.7374 1.7374 1.7374 1.7374 1.7189 1.7144 1.7054 1.7054 1.7009 1.7009 1.7054 1.7009 1.7054 1.7009 1.7009 1.6965 1.692 1.692 1.6832 1.6789 1.6789 1.6832 1.6789 1.6703 1.6703 1.6745 1.6703 1.6703 1.6745 1.6789 1.6745 1.6789 1.6789 1.6832 1.6876 1.6832 1.6876 1.6832 1.6832 1.6832 1.6832 1.6965 1.6703 1.666 1.6616 1.6575 1.6616 1.6616 1.6575 1.6703 1.6703 1.666 1.666 1.666 1.6745 1.6745 1.6745 1.6789 1.6789 1.6832 1.6832 1.6789 1.6789 1.6745 1.6703 1.6616 1.6575 1.6406 1.6406 1.6365 1.6324 1.6324 1.6324 1.6242 1.6242 1.6201 1.6201 1.6201 1.6121 1.6161 1.6161 1.6121 1.6161 1.6161 1.6161 1.6161 1.6081 1.6081 1.6081 1.6041 1.6002 1.6002 1.5962 1.5962 1.5924 1.5885 1.5885 1.5885 1.5962 1.5962 1.5962 1.5962 1.6002 1.6041 1.6081 1.6041 1.6002 1.6002 1.6002 1.5962 1.5924 1.5885 1.5808 1.5808 1.573 1.573 1.573 1.5769 1.573 1.573 1.573 1.5693 1.5693 1.573 1.573 1.5655 1.5655 1.5617 1.558 1.5542 1.5468 1.5468 1.5468 1.5468 1.5431 1.5431 1.5395 1.5395 1.5357 1.5395 1.5357 1.5431 1.5431 1.5431 1.5431 1.5431 1.5431 1.5395 1.5468 1.5468 1.5321 1.525 1.525 1.525 1.525 1.525 1.5286 1.525 1.5286 1.525 1.525 1.5179 1.5143 1.5003 1.5003 1.4969 1.4934 1.4934 1.4969 1.4969 1.5003 1.5037 1.5072 1.5072 1.5037 1.5037 1.5003 1.4969 1.5003 1.4934 1.49 1.49 1.4831 1.4831 1.4797 1.4797 1.4797 1.473 1.4664 1.4664 1.4664 1.4631 1.4764 1.4764 1.4764 1.473 1.473 1.4697 1.4697 1.4664 1.4697 1.473 1.473 1.473 1.4697 1.4697 1.4664 1.4697 1.473 1.473 1.4697 1.4631 1.4565 1.45 1.45 1.4532 1.4565 1.4565 1.4598 1.4631 1.4631 1.4631 1.4664 1.473 1.473 1.4697 1.473 1.4697 1.4664 1.4664 1.473 1.4764 1.4664 1.4631 1.4631 1.4631 1.4664 1.4631 1.4598 1.4598 1.4435 1.4371 1.434 1.4307 1.4307 1.4276 1.409 1.406 1.403 1.406 1.409 1.4183 1.4245 1.4276 1.4276 1.4276 1.4276 1.4245 1.4214 1.4152 1.3999 1.388 1.388 1.3909 1.3939 1.3939 1.3909 1.3909 1.3909 1.409
1.8781 1.8727 1.8674 1.8674 1.8836 1.8891 1.9001 1.9001 1.8946 1.8946 1.8891 1.8891 1.8781 1.8781 1.8674 1.862 1.8674 1.8727 1.8674 1.8674 1.8674 1.8674 1.8674 1.8781 1.8781 1.8674 1.8674 1.862 1.8514 1.8514 1.8514 1.8514 1.862 1.8461 1.8409 1.8409 1.8409 1.8409 1.8409 1.8356 1.8305 1.8151 1.8202 1.8202 1.8202 1.8253 1.8253 1.8202 1.8202 1.81 1.81 1.805 1.8 1.79 1.7851 1.7754 1.7705 1.7754 1.7705 1.7705 1.7705 1.7754 1.7754 1.7754 1.7803 1.7851 1.7803 1.7803 1.7851 1.7803 1.7754 1.7609 1.7466 1.742 1.742 1.7466 1.7514 1.7561 1.7561 1.7561 1.7609 1.7561 1.7609 1.7609 1.7657 1.7561 1.7561 1.7466 1.7466 1.7466 1.7466 1.7374 1.7374 1.742 1.7281 1.7189 1.7144 1.7054 1.7099 1.7054 1.7099 1.7054 1.7009 1.7054 1.7054 1.6965 1.6965 1.692 1.6876 1.6832 1.6832 1.6789 1.6745 1.6745 1.6789 1.6876 1.6876 1.6876 1.6876 1.6876 1.6832 1.6832 1.6876 1.6876 1.6832 1.6789 1.6832 1.6789 1.6745 1.6745 1.6745 1.6876 1.6745 1.6703 1.666 1.666 1.6616 1.6616 1.666 1.6703 1.6703 1.666 1.666 1.666 1.6703 1.6703 1.6703 1.6745 1.6703 1.6745 1.6703 1.6745 1.6745 1.666 1.6616 1.6616 1.6575 1.649 1.6449 1.6406 1.6365 1.6324 1.6284 1.6284 1.6242 1.6201 1.6201 1.6201 1.6121 1.6081 1.6121 1.6121 1.6081 1.6161 1.6161 1.6161 1.6081 1.6121 1.6121 1.6041 1.6041 1.6041 1.5962 1.5924 1.5885 1.5846 1.5846 1.5885 1.5924 1.5924 1.5924 1.5924 1.5924 1.5924 1.6002 1.5962 1.5962 1.5924 1.5885 1.5885 1.5846 1.5808 1.5769 1.5769 1.5693 1.573 1.573 1.573 1.5693 1.5693 1.5655 1.5655 1.5655 1.5693 1.5693 1.5655 1.5617 1.5617 1.5542 1.5542 1.5468 1.5468 1.5431 1.5431 1.5431 1.5431 1.5395 1.5395 1.5395 1.5395 1.5431 1.5468 1.5468 1.5468 1.5468 1.5468 1.5468 1.5468 1.5431 1.5431 1.5357 1.5286 1.5286 1.5286 1.5286 1.525 1.5286 1.525 1.5286 1.5286 1.5286 1.5179 1.5143 1.5037 1.5003 1.5003 1.4934 1.4934 1.4969 1.49 1.4969 1.5003 1.5003 1.5037 1.5003 1.5003 1.5003 1.4969 1.5003 1.4934 1.49 1.49 1.4831 1.4831 1.4831 1.4831 1.4865 1.4831 1.473 1.473 1.4697 1.4697 1.4831 1.4797 1.4797 1.4764 1.473 1.4697 1.4664 1.4664 1.4697 1.4697 1.473 1.4764 1.4764 1.4697 1.4664 1.4697 1.473 1.4697 1.4697 1.4697 1.4598 1.4565 1.4565 1.4565 1.4631 1.4598 1.4631 1.4697 1.4664 1.4631 1.4664 1.4697 1.473 1.4697 1.473 1.4697 1.4664 1.4664 1.4697 1.473 1.4664 1.4631 1.4631 1.4631 1.4598 1.4598 1.4532 1.4532 1.4371 1.434 1.4307 1.4245 1.4214 1.4183 1.409 1.403 1.403 1.406 1.403 1.409 1.4152 1.4152 1.4183 1.4183 1.4183 1.4121 1.4121 1.3999 1.3909 1.388 1.382 1.382 1.385 1.385 1.385 1.385 1.388 1.409
1.8781 1.8727 1.8727 1.8727 1.8727 1.8781 1.8946 1.8946 1.8891 1.8946 1.8836 1.8836 1.8836 1.8727 1.8674 1.8674 1.8674 1.8727 1.8674 1.8727 1.8674 1.8674 1.8727 1.8727 1.8781 1.8674 1.862 1.8566 1.8566 1.8514 1.8461 1.8566 1.8566 1.8461 1.8409 1.8409 1.8356 1.8356 1.8356 1.8356 1.8253 1.8202 1.8202 1.8202 1.8202 1.8305 1.8202 1.8202 1.8151 1.81 1.81 1.81 1.795 1.79 1.7803 1.7754 1.7754 1.7754 1.7754 1.7754 1.7754 1.7754 1.7754 1.7754 1.7803 1.7851 1.7803 1.7851 1.79 1.7851 1.7754 1.7657 1.7514 1.7466 1.742 1.7514 1.7561 1.7561 1.7609 1.7561 1.7561 1.7609 1.7609 1.7657 1.7657 1.7609 1.7561 1.7514 1.7466 1.7466 1.7466 1.742 1.742 1.7374 1.7281 1.7235 1.7144 1.7144 1.7099 1.7144 1.7099 1.7099 1.7054 1.7099 1.7054 1.6965 1.6965 1.6965 1.6876 1.6876 1.6832 1.6832 1.6789 1.6745 1.6832 1.6876 1.6965 1.692 1.692 1.6965 1.6876 1.6876 1.6876 1.692 1.6832 1.6789 1.6789 1.6789 1.6789 1.6703 1.6789 1.6876 1.6745 1.6703 1.666 1.666 1.6616 1.666 1.6616 1.6703 1.666 1.666 1.6616 1.6616 1.666 1.666 1.666 1.666 1.666 1.6616 1.666 1.6703 1.666 1.6616 1.6575 1.6533 1.649 1.6449 1.649 1.6406 1.6324 1.6324 1.6324 1.6242 1.6242 1.6242 1.6201 1.6161 1.6121 1.6121 1.6121 1.6121 1.6121 1.6121 1.6201 1.6161 1.6081 1.6081 1.6081 1.6081 1.6081 1.6041 1.5962 1.5885 1.5885 1.5846 1.5808 1.5846 1.5924 1.5885 1.5885 1.5885 1.5885 1.5885 1.5962 1.5962 1.5924 1.5924 1.5885 1.5885 1.5846 1.5808 1.5808 1.5769 1.5693 1.5693 1.573 1.5693 1.5655 1.5693 1.5655 1.5655 1.5617 1.5655 1.5655 1.5617 1.558 1.558 1.5542 1.5542 1.5468 1.5468 1.5468 1.5431 1.5431 1.5395 1.5395 1.5357 1.5395 1.5431 1.5431 1.5431 1.5505 1.5468 1.5505 1.5505 1.5542 1.5468 1.5468 1.5468 1.5357 1.5286 1.5286 1.5286 1.5286 1.525 1.525 1.525 1.525 1.5286 1.525 1.5214 1.5143 1.5037 1.5037 1.5003 1.4969 1.4934 1.4934 1.49 1.49 1.4969 1.5003 1.4969 1.4969 1.4969 1.4969 1.4969 1.4969 1.4934 1.49 1.4865 1.4831 1.4797 1.4797 1.4831 1.4831 1.4797 1.4764 1.473 1.4697 1.473 1.4831 1.4797 1.4797 1.473 1.473 1.4697 1.4631 1.4631 1.4697 1.4697 1.473 1.473 1.4697 1.4697 1.4664 1.4697 1.4697 1.4697 1.4697 1.4697 1.4631 1.4598 1.4565 1.4598 1.4598 1.4598 1.4631 1.4664 1.4631 1.4598 1.4631 1.4664 1.4697 1.4697 1.473 1.4664 1.4631 1.4664 1.4664 1.473 1.4598 1.4565 1.4598 1.4598 1.4565 1.4532 1.45 1.4467 1.4307 1.4276 1.4245 1.4183 1.4152 1.4121 1.406 1.406 1.406 1.406 1.403 1.406 1.4121 1.4121 1.4152 1.4121 1.4121 1.409 1.403 1.3969 1.3909 1.388 1.382 1.382 1.382 1.385 1.385 1.385 1.388 1.4121
1.8781 1.8781 1.8727 1.8674 1.8727 1.8727 1.8781 1.8781 1.8781 1.8781 1.8727 1.8781 1.8727 1.8727 1.8674 1.8674 1.8727 1.8727 1.8674 1.8727 1.8674 1.8674 1.8727 1.8727 1.8727 1.862 1.8566 1.8514 1.8409 1.8461 1.8409 1.8409 1.8514 1.8356 1.8356 1.8356 1.8356 1.8409 1.8461 1.8356 1.8305 1.8202 1.8202 1.8253 1.8253 1.8305 1.8253 1.8151 1.81 1.81 1.805 1.805 1.795 1.7851 1.7803 1.7705 1.7705 1.7657 1.7657 1.7657 1.7657 1.7657 1.7657 1.7657 1.7803 1.7803 1.7803 1.7803 1.7803 1.7803 1.7754 1.7657 1.7561 1.7514 1.7466 1.7514 1.7561 1.7561 1.7561 1.7609 1.7561 1.7609 1.7609 1.7657 1.7657 1.7561 1.7561 1.7514 1.7514 1.7466 1.7466 1.742 1.742 1.7374 1.7281 1.7281 1.7099 1.7189 1.7144 1.7144 1.7144 1.7099 1.7099 1.7099 1.7054 1.7009 1.7009 1.6965 1.692 1.6876 1.6876 1.6832 1.6789 1.6789 1.6832 1.692 1.6965 1.6965 1.6965 1.692 1.692 1.6876 1.6876 1.6876 1.6789 1.6745 1.6745 1.6703 1.6703 1.666 1.6745 1.6789 1.6745 1.6703 1.6703 1.666 1.6616 1.666 1.6616 1.6703 1.6616 1.6575 1.6533 1.6575 1.6575 1.6616 1.6575 1.6575 1.6575 1.649 1.649 1.6575 1.6575 1.6533 1.6449 1.6406 1.6406 1.6406 1.6449 1.6406 1.6324 1.6324 1.6284 1.6242 1.6201 1.6201 1.6201 1.6161 1.6121 1.6161 1.6161 1.6121 1.6121 1.6161 1.6201 1.6161 1.6121 1.6121 1.6121 1.6081 1.6041 1.6041 1.5924 1.5885 1.5885 1.5808 1.5808 1.5808 1.5846 1.5846 1.5846 1.5846 1.5846 1.5885 1.5962 1.5924 1.5924 1.5885 1.5846 1.5846 1.5846 1.5808 1.5769 1.5769 1.5693 1.573 1.573 1.5693 1.5655 1.5617 1.5617 1.5617 1.558 1.558 1.558 1.5542 1.5542 1.5505 1.5468 1.5431 1.5468 1.5431 1.5431 1.5395 1.5431 1.5431 1.5395 1.5395 1.5395 1.5431 1.5431 1.5468 1.5542 1.5505 1.5505 1.5505 1.5505 1.5505 1.5505 1.5505 1.5395 1.5321 1.5286 1.525 1.525 1.5214 1.5214 1.525 1.525 1.525 1.5214 1.5108 1.5037 1.5037 1.4969 1.4969 1.4934 1.49 1.49 1.4865 1.4865 1.4934 1.5003 1.4969 1.4934 1.4934 1.4934 1.4934 1.4934 1.49 1.4831 1.4831 1.4797 1.4764 1.4764 1.4797 1.4831 1.4797 1.4697 1.4664 1.4664 1.4631 1.4764 1.473 1.473 1.4664 1.4664 1.4664 1.4631 1.4664 1.4697 1.4697 1.4697 1.473 1.4664 1.4664 1.4631 1.4664 1.4697 1.4664 1.4664 1.4664 1.4631 1.4598 1.4598 1.4631 1.4631 1.4598 1.4631 1.4631 1.4598 1.4565 1.4598 1.4631 1.4631 1.4631 1.4664 1.4631 1.4565 1.4532 1.4532 1.4532 1.4467 1.4435 1.4435 1.45 1.4467 1.4467 1.4435 1.4435 1.4307 1.4276 1.4276 1.4214 1.4183 1.4152 1.406 1.406 1.406 1.406 1.403 1.409 1.409 1.409 1.4121 1.4121 1.409 1.409 1.403 1.3999 1.388 1.385 1.382 1.382 1.382 1.385 1.388 1.388 1.388 1.406
1.8891 1.8891 1.8836 1.8781 1.8781 1.8781 1.8727 1.8674 1.8727 1.8727 1.8727 1.8727 1.8727 1.8727 1.8674 1.8727 1.8727 1.8781 1.8781 1.8674 1.8674 1.8727 1.8727 1.8781 1.8781 1.8674 1.862 1.8514 1.8461 1.8461 1.8409 1.8409 1.8461 1.8409 1.8356 1.8305 1.8356 1.8461 1.8514 1.8409 1.8356 1.8305 1.8305 1.8305 1.8356 1.8356 1.8305 1.8151 1.8151 1.81 1.805 1.805 1.795 1.7851 1.7754 1.7705 1.7657 1.7657 1.7657 1.7609 1.7657 1.7705 1.7609 1.7657 1.7754 1.7754 1.7803 1.7754 1.7754 1.7754 1.7705 1.7657 1.7561 1.7561 1.7514 1.7561 1.7561 1.7561 1.7514 1.7514 1.7561 1.7609 1.7609 1.7657 1.7657 1.7561 1.7561 1.7561 1.7514 1.7514 1.7514 1.7466 1.742 1.742 1.7281 1.7281 1.7189 1.7189 1.7235 1.7189 1.7189 1.7144 1.7099 1.7054 1.7054 1.7009 1.7054 1.6965 1.6965 1.6876 1.692 1.692 1.6876 1.6876 1.692 1.6965 1.7009 1.7009 1.7009 1.6965 1.6965 1.6876 1.6876 1.6876 1.6745 1.6703 1.6745 1.6703 1.6703 1.666 1.6703 1.6745 1.6745 1.6745 1.6703 1.666 1.6616 1.6616 1.6616 1.666 1.6616 1.6575 1.6575 1.6575 1.6575 1.6533 1.6533 1.6533 1.6533 1.649 1.6449 1.6533 1.6533 1.649 1.6449 1.6449 1.6406 1.6406 1.6406 1.6406 1.6324 1.6284 1.6284 1.6242 1.6201 1.6201 1.6161 1.6161 1.6161 1.6121 1.6161 1.6161 1.6161 1.6201 1.6201 1.6201 1.6121 1.6121 1.6121 1.6081 1.6041 1.6041 1.5962 1.5885 1.5885 1.5769 1.5769 1.5769 1.5846 1.5808 1.5808 1.5846 1.5808 1.5846 1.5924 1.5924 1.5885 1.5885 1.5885 1.5846 1.5846 1.5808 1.5808 1.5769 1.573 1.573 1.573 1.5693 1.5655 1.5617 1.5617 1.5617 1.558 1.558 1.5542 1.5542 1.5505 1.5468 1.5468 1.5431 1.5431 1.5395 1.5357 1.5357 1.5431 1.5395 1.5395 1.5395 1.5431 1.5431 1.5431 1.5468 1.5542 1.5505 1.5542 1.5542 1.5542 1.5542 1.5542 1.5505 1.5431 1.5357 1.5321 1.5286 1.5214 1.5179 1.5179 1.5214 1.5214 1.5214 1.5179 1.5072 1.5037 1.5003 1.5003 1.4969 1.4934 1.49 1.49 1.4865 1.49 1.4934 1.5003 1.4934 1.4934 1.4969 1.4969 1.4934 1.4934 1.49 1.4865 1.4831 1.4831 1.4764 1.4797 1.4865 1.4831 1.4797 1.473 1.4697 1.4664 1.4664 1.473 1.473 1.4697 1.4664 1.4664 1.4631 1.4664 1.4664 1.4697 1.4697 1.473 1.473 1.4697 1.4697 1.4697 1.4664 1.4664 1.4664 1.4631 1.4631 1.4631 1.4631 1.4631 1.4631 1.4631 1.4598 1.4598 1.4631 1.4565 1.4565 1.4565 1.4565 1.4631 1.4631 1.4631 1.4565 1.4532 1.45 1.45 1.45 1.4435 1.4371 1.4404 1.4404 1.4435 1.4404 1.4404 1.4435 1.434 1.434 1.434 1.4307 1.4245 1.4214 1.4121 1.4121 1.409 1.406 1.403 1.409 1.4152 1.4121 1.4121 1.4152 1.4121 1.409 1.406 1.3999 1.3909 1.382 1.385 1.385 1.385 1.385 1.388 1.3909 1.3939 1.406
1.9001 1.9001 1.8891 1.8836 1.8836 1.8781 1.8727 1.8674 1.8674 1.8727 1.8674 1.8674 1.8674 1.8674 1.8674 1.8674 1.8727 1.8727 1.8727 1.8727 1.8727 1.8727 1.8727 1.8781 1.8781 1.8674 1.862 1.8514 1.8461 1.8461 1.8356 1.8409 1.8409 1.8356 1.8356 1.8356 1.8356 1.8461 1.8514 1.8409 1.8305 1.8253 1.8253 1.8305 1.8305 1.8356 1.8253 1.8202 1.8151 1.81 1.81 1.81 1.795 1.7851 1.7754 1.7705 1.7657 1.7657 1.7657 1.7657 1.7705 1.7657 1.7609 1.7609 1.7705 1.7705 1.7705 1.7754 1.7705 1.7657 1.7609 1.7561 1.7514 1.7514 1.7466 1.7514 1.7514 1.7514 1.7466 1.7466 1.7514 1.7561 1.7561 1.7657 1.7657 1.7561 1.7561 1.7561 1.7561 1.7514 1.7561 1.7466 1.7466 1.7374 1.7328 1.7235 1.7235 1.7189 1.7189 1.7189 1.7144 1.7144 1.7054 1.7099 1.7054 1.7009 1.7054 1.7009 1.6965 1.6876 1.692 1.6876 1.6876 1.6832 1.6965 1.7009 1.6965 1.6965 1.7009 1.6965 1.6965 1.6876 1.6832 1.6832 1.6745 1.6703 1.6703 1.6703 1.666 1.6616 1.666 1.6703 1.6703 1.6745 1.6745 1.666 1.666 1.6616 1.6616 1.6616 1.6616 1.6616 1.6575 1.6575 1.6533 1.6533 1.649 1.6533 1.649 1.6449 1.6449 1.6449 1.6533 1.6449 1.6406 1.6406 1.6406 1.6406 1.6449 1.6406 1.6324 1.6284 1.6242 1.6201 1.6201 1.6161 1.6161 1.6161 1.6161 1.6161 1.6161 1.6161 1.6161 1.6201 1.6201 1.6161 1.6121 1.6121 1.6081 1.6041 1.6041 1.6002 1.5924 1.5846 1.5846 1.5769 1.5693 1.573 1.5808 1.5808 1.5808 1.5808 1.5808 1.5808 1.5924 1.5846 1.5885 1.5846 1.5885 1.5846 1.5846 1.5846 1.5808 1.5769 1.5769 1.573 1.573 1.5693 1.5655 1.558 1.558 1.558 1.558 1.5542 1.558 1.5505 1.5468 1.5505 1.5431 1.5431 1.5357 1.5357 1.5357 1.5357 1.5395 1.5357 1.5357 1.5395 1.5357 1.5431 1.5431 1.5468 1.5542 1.5542 1.5542 1.5542 1.5542 1.5542 1.5542 1.5542 1.5431 1.5395 1.5321 1.525 1.5214 1.5179 1.5179 1.5179 1.5179 1.5179 1.5143 1.5037 1.5003 1.5003 1.4969 1.4969 1.49 1.49 1.49 1.49 1.49 1.4969 1.5003 1.4969 1.4934 1.4934 1.4969 1.4969 1.4934 1.4934 1.4865 1.4865 1.4831 1.4831 1.4831 1.49 1.49 1.4865 1.473 1.473 1.473 1.4697 1.473 1.4697 1.4697 1.4664 1.4664 1.4664 1.4664 1.4697 1.473 1.4764 1.4764 1.4764 1.473 1.4697 1.4697 1.4664 1.4664 1.4631 1.4664 1.4598 1.4598 1.4598 1.4631 1.4631 1.4631 1.4598 1.4598 1.4631 1.4565 1.4532 1.4532 1.4598 1.4598 1.4631 1.4598 1.4565 1.4532 1.4467 1.45 1.4467 1.4371 1.434 1.4371 1.4371 1.4404 1.4404 1.4371 1.4404 1.434 1.434 1.434 1.4307 1.4245 1.4214 1.4121 1.4121 1.4121 1.406 1.403 1.409 1.4121 1.4121 1.4121 1.4152 1.4152 1.409 1.409 1.403 1.3909 1.385 1.388 1.3909 1.388 1.3909 1.3909 1.3909 1.3939 1.409
1.9058 1.9058 1.9001 1.8891 1.8836 1.8836 1.8727 1.862 1.8674 1.8727 1.8674 1.862 1.8674 1.8674 1.862 1.862 1.8674 1.8674 1.8727 1.8674 1.8727 1.8727 1.8727 1.8727 1.8727 1.8674 1.862 1.8461 1.8409 1.8409 1.8409 1.8409 1.8409 1.8305 1.8253 1.8305 1.8305 1.8409 1.8409 1.8356 1.8202 1.8202 1.8253 1.8253 1.8253 1.8305 1.8253 1.8202 1.8202 1.8151 1.805 1.805 1.79 1.7851 1.7754 1.7657 1.7657 1.7609 1.7657 1.7657 1.7657 1.7657 1.7561 1.7561 1.7609 1.7609 1.7657 1.7705 1.7657 1.7561 1.7514 1.7466 1.7466 1.7466 1.7466 1.7466 1.7514 1.7466 1.742 1.742 1.742 1.7514 1.7561 1.7657 1.7657 1.7561 1.7609 1.7561 1.7561 1.7561 1.7561 1.7514 1.742 1.7374 1.7328 1.7235 1.7235 1.7189 1.7235 1.7144 1.7144 1.7099 1.7099 1.7054 1.7054 1.7009 1.7009 1.6965 1.692 1.6876 1.6876 1.6876 1.6832 1.6789 1.6965 1.7009 1.6965 1.692 1.6965 1.6965 1.6965 1.6832 1.6789 1.6789 1.6703 1.666 1.666 1.666 1.6616 1.6616 1.6616 1.666 1.666 1.6703 1.6745 1.6616 1.6616 1.6616 1.6575 1.6616 1.6575 1.6533 1.6533 1.649 1.6449 1.6449 1.6449 1.649 1.6449 1.6406 1.6406 1.6406 1.6449 1.6406 1.6406 1.6406 1.6406 1.6406 1.649 1.6406 1.6324 1.6242 1.6242 1.6201 1.6201 1.6161 1.6161 1.6161 1.6121 1.6161 1.6161 1.6201 1.6201 1.6201 1.6121 1.6121 1.6121 1.6081 1.6081 1.6002 1.6002 1.5962 1.5924 1.5885 1.5885 1.5769 1.5655 1.5693 1.5808 1.5769 1.5769 1.5769 1.5769 1.5769 1.5885 1.5846 1.5846 1.5846 1.5846 1.5846 1.5808 1.5769 1.5769 1.573 1.573 1.573 1.573 1.5693 1.5655 1.5617 1.5617 1.558 1.558 1.558 1.558 1.5542 1.5468 1.5468 1.5431 1.5431 1.5357 1.5357 1.5321 1.5321 1.5357 1.5357 1.5357 1.5357 1.5357 1.5431 1.5431 1.5468 1.5542 1.5542 1.558 1.5542 1.5542 1.558 1.5542 1.5542 1.5431 1.5395 1.5321 1.5286 1.5214 1.5179 1.5179 1.5179 1.5179 1.5143 1.5108 1.5072 1.5003 1.5003 1.5003 1.5003 1.49 1.4934 1.49 1.49 1.49 1.4969 1.5003 1.4969 1.49 1.49 1.49 1.4934 1.49 1.49 1.49 1.4865 1.4865 1.4865 1.49 1.4934 1.4934 1.49 1.4764 1.4764 1.4764 1.4697 1.4697 1.473 1.4697 1.4664 1.4664 1.4697 1.473 1.4697 1.4764 1.4764 1.4764 1.4831 1.4764 1.473 1.473 1.4664 1.4697 1.4631 1.4598 1.4598 1.4565 1.4532 1.4565 1.4565 1.4565 1.4565 1.4565 1.4565 1.4565 1.4532 1.4532 1.4598 1.4598 1.4598 1.4565 1.4532 1.45 1.4435 1.4435 1.4435 1.4276 1.4276 1.4276 1.4276 1.4307 1.434 1.4307 1.434 1.4276 1.434 1.434 1.4276 1.4276 1.4214 1.4152 1.4121 1.4121 1.4121 1.403 1.409 1.4152 1.4121 1.4121 1.4121 1.4152 1.4121 1.409 1.406 1.3909 1.388 1.3909 1.3939 1.3939 1.3939 1.3939 1.3969 1.3999 1.406
1.9114 1.9058 1.9058 1.9001 1.8946 1.8891 1.8836 1.8781 1.8727 1.8727 1.8727 1.862 1.862 1.862 1.8674 1.862 1.8674 1.8674 1.8727 1.8727 1.8674 1.8674 1.8674 1.8727 1.8674 1.862 1.8566 1.8409 1.8356 1.8356 1.8356 1.8356 1.8356 1.8253 1.8253 1.8305 1.8305 1.8356 1.8409 1.8305 1.8151 1.8202 1.8202 1.8253 1.8253 1.8305 1.8253 1.8202 1.8151 1.8151 1.81 1.81 1.79 1.7851 1.7754 1.7657 1.7657 1.7657 1.7657 1.7657 1.7657 1.7657 1.7609 1.7609 1.7609 1.7657 1.7609 1.7705 1.7705 1.7561 1.7514 1.7466 1.7374 1.7466 1.7466 1.7514 1.7466 1.7514 1.7466 1.7466 1.7466 1.7561 1.7609 1.7705 1.7657 1.7609 1.7657 1.7657 1.7609 1.7609 1.7609 1.7514 1.7514 1.7466 1.742 1.7374 1.7328 1.7281 1.7328 1.7235 1.7235 1.7189 1.7189 1.7144 1.7099 1.7054 1.7009 1.7009 1.6876 1.6876 1.6876 1.6876 1.6832 1.6789 1.6965 1.6965 1.6965 1.692 1.6965 1.6965 1.6965 1.6832 1.6832 1.6745 1.6703 1.6616 1.6616 1.6616 1.666 1.6616 1.6616 1.6703 1.666 1.6703 1.6745 1.666 1.666 1.6575 1.6575 1.6616 1.6575 1.6533 1.649 1.649 1.6449 1.6449 1.6449 1.6449 1.6406 1.6365 1.6365 1.6406 1.6406 1.6406 1.6449 1.649 1.649 1.6449 1.6575 1.649 1.6406 1.6284 1.6284 1.6201 1.6201 1.6201 1.6161 1.6201 1.6161 1.6161 1.6161 1.6201 1.6201 1.6201 1.6121 1.6121 1.6081 1.6041 1.6041 1.6002 1.5962 1.5962 1.5924 1.5885 1.5885 1.5769 1.5693 1.5693 1.5808 1.5769 1.5769 1.5769 1.5769 1.5769 1.5846 1.5846 1.5808 1.5846 1.5846 1.5846 1.5808 1.5769 1.5769 1.5769 1.573 1.573 1.5769 1.573 1.5693 1.5655 1.5655 1.5693 1.5655 1.5655 1.5655 1.558 1.5505 1.5505 1.5505 1.5468 1.5431 1.5431 1.5468 1.5395 1.5395 1.5395 1.5431 1.5468 1.5468 1.5431 1.5431 1.5505 1.5505 1.5542 1.5542 1.558 1.558 1.5542 1.5542 1.5542 1.5468 1.5431 1.5357 1.5286 1.525 1.5179 1.5179 1.5179 1.5179 1.5179 1.5143 1.5108 1.5072 1.5072 1.5143 1.5143 1.5037 1.5037 1.5003 1.4969 1.4969 1.5003 1.5003 1.4969 1.4865 1.49 1.49 1.49 1.4934 1.49 1.4865 1.4865 1.4865 1.49 1.4934 1.5003 1.5003 1.5003 1.4831 1.4831 1.4831 1.4797 1.4797 1.4764 1.4764 1.473 1.4697 1.473 1.4764 1.4797 1.4831 1.4797 1.4797 1.4797 1.4764 1.473 1.473 1.4697 1.4664 1.4631 1.4598 1.4565 1.4532 1.4565 1.4532 1.4565 1.4565 1.4532 1.4565 1.4532 1.4565 1.4532 1.4532 1.4598 1.4565 1.4598 1.4565 1.4532 1.45 1.4404 1.4404 1.4371 1.4276 1.4245 1.4245 1.4245 1.4307 1.4307 1.4276 1.4276 1.4276 1.4307 1.4307 1.4307 1.4245 1.4214 1.4214 1.4214 1.4214 1.4152 1.4121 1.4152 1.4183 1.4152 1.4152 1.4152 1.4214 1.4152 1.4121 1.406 1.3999 1.3939 1.3999 1.403 1.406 1.406 1.409 1.409 1.406 1.409
1.9114 1.9058 1.9058 1.9001 1.8946 1.8891 1.8836 1.8727 1.8781 1.8727 1.8727 1.8674 1.8674 1.862 1.862 1.8674 1.862 1.8727 1.8727 1.8727 1.8674 1.8674 1.8674 1.8674 1.8674 1.8566 1.8461 1.8409 1.8305 1.8356 1.8305 1.8305 1.8305 1.8253 1.8253 1.8253 1.8253 1.8356 1.8409 1.8253 1.8202 1.8202 1.8202 1.8202 1.8253 1.8305 1.8253 1.8202 1.8151 1.81 1.8151 1.81 1.79 1.7851 1.7803 1.7705 1.7705 1.7657 1.7657 1.7705 1.7705 1.7657 1.7609 1.7609 1.7609 1.7609 1.7609 1.7657 1.7657 1.7609 1.7561 1.7466 1.7466 1.7514 1.7514 1.7514 1.7514 1.7561 1.7514 1.7466 1.7466 1.7609 1.7609 1.7705 1.7705 1.7609 1.7657 1.7609 1.7657 1.7609 1.7657 1.7561 1.7561 1.7514 1.7466 1.742 1.7328 1.7328 1.7328 1.7281 1.7235 1.7189 1.7189 1.7189 1.7144 1.7099 1.7054 1.7009 1.692 1.692 1.692 1.6876 1.6832 1.6832 1.692 1.692 1.6965 1.692 1.692 1.6965 1.692 1.6832 1.6789 1.6703 1.666 1.666 1.6616 1.6616 1.666 1.6616 1.666 1.666 1.6703 1.6789 1.6832 1.6789 1.6745 1.6703 1.6616 1.666 1.6616 1.6533 1.6533 1.649 1.6406 1.6449 1.6406 1.6406 1.6365 1.6324 1.6324 1.6365 1.6365 1.6406 1.6449 1.6449 1.6449 1.649 1.6533 1.649 1.6365 1.6324 1.6324 1.6242 1.6242 1.6201 1.6242 1.6201 1.6161 1.6201 1.6161 1.6242 1.6201 1.6201 1.6161 1.6161 1.6121 1.6121 1.6081 1.6041 1.6041 1.6041 1.6002 1.5962 1.5924 1.5846 1.573 1.5769 1.5808 1.5808 1.5769 1.5769 1.5769 1.5769 1.5846 1.5808 1.5846 1.5846 1.5846 1.5846 1.5808 1.5769 1.5769 1.5769 1.573 1.5769 1.5808 1.573 1.573 1.5693 1.5693 1.5693 1.5693 1.5655 1.5655 1.5617 1.5542 1.558 1.5542 1.5542 1.5505 1.5505 1.5542 1.5431 1.5431 1.5431 1.5431 1.5505 1.5468 1.5468 1.5468 1.5468 1.5505 1.5542 1.5542 1.558 1.558 1.5542 1.5542 1.5505 1.5505 1.5431 1.5357 1.5321 1.5286 1.5214 1.5179 1.5179 1.5179 1.5179 1.5143 1.5143 1.5072 1.5108 1.5143 1.5143 1.5072 1.5037 1.5037 1.4969 1.5003 1.5037 1.5003 1.4969 1.49 1.49 1.4934 1.4934 1.4934 1.4934 1.49 1.4865 1.4865 1.4934 1.4969 1.5003 1.5037 1.4969 1.49 1.4865 1.4865 1.4831 1.4797 1.4797 1.473 1.473 1.473 1.4764 1.4764 1.4797 1.4831 1.4797 1.4797 1.4764 1.4764 1.4697 1.473 1.4664 1.4664 1.4631 1.4565 1.4598 1.4565 1.4532 1.4532 1.4565 1.4532 1.4565 1.4565 1.4565 1.4565 1.4565 1.4565 1.4598 1.4565 1.4565 1.4565 1.4532 1.4467 1.4404 1.4371 1.4371 1.4276 1.4245 1.4245 1.4214 1.4276 1.4245 1.4276 1.4276 1.4245 1.4307 1.4307 1.4276 1.4276 1.4245 1.4276 1.4276 1.4276 1.4214 1.4214 1.4245 1.4276 1.4245 1.4183 1.4152 1.4214 1.4183 1.4121 1.4121 1.3999 1.3999 1.403 1.406 1.403 1.403 1.409 1.409 1.409 1.409
1.9226 1.917 1.917 1.9001 1.9001 1.8891 1.8836 1.8781 1.8781 1.8781 1.8781 1.8674 1.8727 1.8727 1.8727 1.8727 1.8727 1.8727 1.8781 1.8727 1.8727 1.8727 1.8674 1.8674 1.8674 1.8566 1.8461 1.8461 1.8409 1.8461 1.8461 1.8461 1.8461 1.8305 1.8356 1.8305 1.8305 1.8305 1.8356 1.8253 1.8202 1.8151 1.8202 1.8253 1.8253 1.8305 1.8253 1.8202 1.8202 1.8151 1.8151 1.8151 1.8 1.795 1.7851 1.7851 1.7803 1.7803 1.7754 1.7803 1.7754 1.7754 1.7754 1.7657 1.7705 1.7657 1.7705 1.7657 1.7657 1.7657 1.7609 1.7561 1.7514 1.7514 1.7561 1.7609 1.7609 1.7561 1.7561 1.7514 1.7514 1.7657 1.7657 1.7705 1.7754 1.7657 1.7705 1.7705 1.7705 1.7705 1.7705 1.7657 1.7609 1.7561 1.742 1.742 1.7374 1.7374 1.7374 1.7281 1.7235 1.7235 1.7189 1.7235 1.7189 1.7189 1.7144 1.7099 1.6965 1.6965 1.6965 1.6965 1.692 1.6876 1.6876 1.6832 1.6832 1.6876 1.6876 1.692 1.6832 1.6789 1.6703 1.666 1.6616 1.6616 1.6616 1.6616 1.666 1.666 1.6745 1.6745 1.6745 1.6876 1.692 1.692 1.692 1.6876 1.6703 1.6616 1.6575 1.6533 1.649 1.6406 1.6365 1.6365 1.6324 1.6284 1.6284 1.6284 1.6324 1.6324 1.6365 1.6406 1.6449 1.6449 1.649 1.649 1.6575 1.6533 1.6365 1.6324 1.6324 1.6284 1.6284 1.6242 1.6284 1.6201 1.6201 1.6242 1.6242 1.6201 1.6201 1.6161 1.6161 1.6161 1.6121 1.6121 1.6121 1.6081 1.6081 1.6041 1.6002 1.6002 1.5962 1.5846 1.5808 1.5808 1.5808 1.5769 1.5769 1.573 1.573 1.5769 1.5846 1.5808 1.5846 1.5846 1.5885 1.5846 1.5808 1.5769 1.5769 1.5769 1.5769 1.5769 1.5769 1.573 1.573 1.573 1.5693 1.5693 1.5693 1.573 1.5655 1.5617 1.558 1.5617 1.558 1.558 1.558 1.558 1.558 1.5505 1.5468 1.5468 1.5431 1.5505 1.5468 1.5431 1.5431 1.5431 1.5505 1.5505 1.5542 1.5542 1.558 1.5542 1.5542 1.5542 1.5505 1.5505 1.5357 1.5321 1.5286 1.525 1.5214 1.5214 1.5143 1.5143 1.5143 1.5108 1.5108 1.5143 1.5143 1.5179 1.5108 1.5108 1.5072 1.5037 1.5003 1.5037 1.5037 1.5003 1.49 1.49 1.4934 1.4969 1.4934 1.4934 1.49 1.49 1.4934 1.4934 1.4969 1.5037 1.5037 1.5003 1.49 1.4865 1.4831 1.4831 1.4831 1.4831 1.4764 1.473 1.4764 1.4764 1.4797 1.4797 1.4797 1.4797 1.4797 1.4764 1.473 1.4664 1.4697 1.4598 1.4598 1.4598 1.4565 1.4565 1.4565 1.4565 1.4532 1.4565 1.4532 1.4532 1.4532 1.4532 1.45 1.4532 1.45 1.4565 1.4532 1.45 1.45 1.4467 1.4467 1.4371 1.4307 1.4307 1.4276 1.4245 1.4214 1.4183 1.4245 1.4245 1.4245 1.4245 1.4245 1.4276 1.4307 1.4245 1.4276 1.4307 1.4307 1.434 1.434 1.4307 1.4307 1.4307 1.4404 1.4371 1.4183 1.4183 1.4214 1.4152 1.4121 1.4121 1.406 1.403 1.406 1.403 1.403 1.403 1.403 1.403 1.403 1.406
1.9284 1.9226 1.917 1.9058 1.9058 1.8946 1.8781 1.8781 1.8781 1.8836 1.8781 1.8727 1.8727 1.8781 1.8781 1.8781 1.8781 1.8836 1.8781 1.8781 1.8727 1.8727 1.862 1.8674 1.8727 1.862 1.8566 1.8566 1.8514 1.8514 1.8566 1.8566 1.862 1.8409 1.8409 1.8409 1.8305 1.8305 1.8305 1.8253 1.8202 1.8151 1.8202 1.8253 1.8305 1.8305 1.8253 1.8202 1.8202 1.8202 1.8151 1.8151 1.805 1.795 1.795 1.7851 1.7851 1.7851 1.7803 1.7851 1.7851 1.7803 1.7754 1.7754 1.7705 1.7705 1.7705 1.7705 1.7754 1.7609 1.7561 1.7561 1.7514 1.7561 1.7561 1.7657 1.7657 1.7561 1.7561 1.7561 1.7561 1.7657 1.7705 1.7754 1.7754 1.7705 1.7705 1.7754 1.7705 1.7705 1.7705 1.7657 1.7657 1.7514 1.7466 1.742 1.7374 1.7374 1.7374 1.7281 1.7235 1.7235 1.7235 1.7189 1.7235 1.7189 1.7144 1.7009 1.7009 1.7009 1.7009 1.6965 1.692 1.6876 1.6832 1.6832 1.6832 1.6832 1.6876 1.6876 1.6789 1.6703 1.666 1.6616 1.6616 1.6575 1.6616 1.6616 1.666 1.666 1.6745 1.6745 1.6789 1.692 1.692 1.692 1.6965 1.692 1.6745 1.6575 1.6533 1.6449 1.6449 1.6406 1.6324 1.6324 1.6284 1.6284 1.6284 1.6242 1.6365 1.6324 1.6406 1.6406 1.6449 1.649 1.649 1.6533 1.6533 1.6533 1.6365 1.6324 1.6324 1.6324 1.6284 1.6324 1.6242 1.6242 1.6201 1.6242 1.6284 1.6201 1.6201 1.6161 1.6161 1.6121 1.6121 1.6081 1.6081 1.6081 1.6041 1.6041 1.5924 1.5924 1.5924 1.5846 1.5808 1.5808 1.5808 1.5769 1.5769 1.5808 1.5808 1.5808 1.5924 1.5924 1.5924 1.5924 1.5924 1.5885 1.5885 1.5808 1.5808 1.5769 1.5769 1.5769 1.5769 1.5769 1.5769 1.573 1.573 1.5693 1.5693 1.5693 1.5655 1.5617 1.5617 1.5655 1.5617 1.558 1.5617 1.5617 1.5617 1.5542 1.5505 1.5505 1.5468 1.5468 1.5468 1.5431 1.5431 1.5431 1.5505 1.5505 1.5542 1.5542 1.5542 1.5542 1.558 1.558 1.5542 1.5542 1.5395 1.5357 1.5321 1.5286 1.525 1.525 1.5214 1.5179 1.5179 1.5179 1.5179 1.5179 1.5214 1.5214 1.5179 1.5143 1.5143 1.5143 1.5072 1.5072 1.5037 1.4969 1.4969 1.4934 1.4969 1.5003 1.4969 1.4969 1.4969 1.4934 1.4969 1.4969 1.5003 1.5037 1.5037 1.5003 1.4934 1.49 1.4865 1.4831 1.4797 1.4797 1.4797 1.4764 1.4764 1.4797 1.4797 1.4831 1.4831 1.4797 1.4764 1.473 1.4697 1.4664 1.4664 1.4598 1.4598 1.4565 1.4565 1.4598 1.4565 1.4565 1.4565 1.4532 1.4532 1.45 1.45 1.45 1.45 1.45 1.4532 1.4532 1.45 1.45 1.4467 1.4435 1.4435 1.434 1.4307 1.4276 1.4245 1.4214 1.4183 1.4183 1.4245 1.4276 1.4276 1.4276 1.4307 1.4371 1.4371 1.434 1.434 1.4371 1.4371 1.4371 1.4404 1.4404 1.4435 1.4435 1.4435 1.4467 1.4404 1.4404 1.4371 1.4276 1.4214 1.4214 1.4183 1.4152 1.409 1.409 1.403 1.3999 1.403 1.3999 1.403 1.403
1.9341 1.9284 1.9226 1.9114 1.9058 1.9001 1.8781 1.8781 1.8781 1.8781 1.8727 1.8727 1.8727 1.8727 1.8727 1.8727 1.8727 1.8674 1.862 1.8461 1.8461 1.8514 1.8514 1.862 1.862 1.8514 1.8409 1.8409 1.8461 1.8461 1.8514 1.8514 1.8566 1.8409 1.8409 1.8409 1.8356 1.8305 1.8305 1.8305 1.8253 1.8202 1.8253 1.8253 1.8202 1.8202 1.8202 1.8202 1.8202 1.8202 1.8202 1.8151 1.805 1.795 1.795 1.79 1.795 1.79 1.79 1.795 1.795 1.7851 1.7851 1.7803 1.7754 1.7754 1.7657 1.7657 1.7705 1.7561 1.7514 1.7466 1.742 1.7466 1.7514 1.7561 1.7561 1.7561 1.7561 1.7609 1.7561 1.7657 1.7657 1.7754 1.7754 1.7705 1.7705 1.7705 1.7705 1.7705 1.7705 1.7657 1.7609 1.7561 1.7466 1.742 1.7374 1.7374 1.7374 1.7281 1.7281 1.7235 1.7189 1.7189 1.7235 1.7189 1.7144 1.7009 1.6965 1.6965 1.6965 1.6965 1.692 1.6876 1.6876 1.6832 1.6703 1.6703 1.6745 1.666 1.6616 1.6575 1.6533 1.649 1.649 1.6575 1.6575 1.6575 1.666 1.6703 1.6789 1.6789 1.6832 1.6965 1.6965 1.7009 1.6965 1.692 1.6703 1.6533 1.649 1.6449 1.6406 1.6324 1.6284 1.6242 1.6201 1.6242 1.6242 1.6242 1.6324 1.6324 1.6365 1.6365 1.6406 1.6449 1.649 1.6533 1.6533 1.649 1.6365 1.6324 1.6284 1.6284 1.6242 1.6284 1.6284 1.6242 1.6201 1.6201 1.6242 1.6201 1.6201 1.6161 1.6121 1.6121 1.6081 1.6081 1.6081 1.6081 1.6041 1.6041 1.5924 1.5924 1.5885 1.5846 1.5808 1.5808 1.5769 1.5808 1.5769 1.5769 1.5808 1.5846 1.5924 1.5924 1.5924 1.5924 1.5962 1.5962 1.5846 1.5846 1.5808 1.5769 1.5808 1.5769 1.5769 1.5769 1.5769 1.5769 1.573 1.573 1.573 1.573 1.5693 1.5617 1.5655 1.5655 1.5655 1.5617 1.5617 1.5655 1.5655 1.558 1.5505 1.5505 1.5468 1.5468 1.5468 1.5431 1.5431 1.5468 1.5468 1.5542 1.5542 1.5542 1.5542 1.5542 1.558 1.5542 1.558 1.5542 1.5431 1.5431 1.5395 1.5321 1.5321 1.5321 1.5286 1.525 1.5214 1.525 1.5214 1.525 1.525 1.525 1.5179 1.5143 1.5143 1.5143 1.5108 1.5072 1.5072 1.5003 1.4969 1.5003 1.5003 1.4969 1.5003 1.4969 1.4934 1.4969 1.4969 1.5003 1.5003 1.5037 1.5037 1.4969 1.4934 1.49 1.4865 1.4865 1.4831 1.4797 1.4797 1.4797 1.4797 1.4831 1.4831 1.4831 1.4831 1.4797 1.4764 1.4764 1.4697 1.4664 1.4664 1.4565 1.4598 1.4598 1.4565 1.4598 1.4565 1.4565 1.4565 1.4565 1.4532 1.45 1.4532 1.45 1.45 1.45 1.45 1.45 1.4467 1.45 1.4467 1.4435 1.4404 1.434 1.4276 1.4245 1.4245 1.4214 1.4214 1.4183 1.4245 1.4245 1.4307 1.4276 1.434 1.4404 1.4435 1.4404 1.4404 1.4404 1.4435 1.4404 1.4435 1.4435 1.4467 1.4435 1.4435 1.4467 1.4404 1.4371 1.434 1.4307 1.4276 1.4276 1.4214 1.4183 1.4121 1.409 1.406 1.406 1.403 1.403 1.403 1.403
1.9284 1.9284 1.9284 1.917 1.9114 1.9058 1.8836 1.8781 1.8781 1.8727 1.8727 1.8727 1.8727 1.8727 1.8727 1.8727 1.8727 1.862 1.862 1.8514 1.8461 1.8514 1.8514 1.8514 1.8566 1.8514 1.8409 1.8461 1.8409 1.8461 1.8461 1.8514 1.8514 1.8409 1.8409 1.8409 1.8356 1.8409 1.8409 1.8305 1.8305 1.8202 1.8202 1.8253 1.8202 1.8202 1.8202 1.8202 1.8202 1.8202 1.8202 1.8151 1.81 1.805 1.8 1.8 1.805 1.8 1.8 1.805 1.805 1.795 1.8 1.7851 1.7851 1.7803 1.7705 1.7705 1.7657 1.7561 1.7514 1.7466 1.742 1.7514 1.7561 1.7561 1.7561 1.7561 1.7561 1.7561 1.7561 1.7657 1.7705 1.7705 1.7754 1.7705 1.7705 1.7705 1.7705 1.7705 1.7705 1.7705 1.7609 1.7561 1.7514 1.7466 1.742 1.742 1.742 1.7328 1.7281 1.7281 1.7189 1.7189 1.7235 1.7144 1.7099 1.6965 1.6965 1.6965 1.6965 1.7009 1.7009 1.6876 1.6832 1.6789 1.6703 1.666 1.6703 1.666 1.6616 1.6533 1.6533 1.649 1.6449 1.6575 1.6533 1.6575 1.6703 1.6745 1.692 1.692 1.692 1.7009 1.7009 1.7054 1.7009 1.6965 1.6703 1.6533 1.649 1.6449 1.6449 1.6324 1.6284 1.6242 1.6201 1.6201 1.6284 1.6284 1.6365 1.6365 1.6365 1.6365 1.6406 1.649 1.649 1.6533 1.6533 1.649 1.6365 1.6324 1.6324 1.6284 1.6284 1.6284 1.6284 1.6242 1.6242 1.6242 1.6242 1.6201 1.6201 1.6201 1.6121 1.6121 1.6081 1.6041 1.6041 1.6041 1.6002 1.6002 1.5962 1.5962 1.5924 1.5846 1.5808 1.5769 1.5769 1.5769 1.5808 1.5808 1.5846 1.5846 1.5924 1.5924 1.5962 1.5962 1.5962 1.6002 1.5885 1.5846 1.5846 1.5808 1.5769 1.5808 1.5808 1.573 1.573 1.5769 1.5769 1.5769 1.5769 1.5769 1.573 1.5655 1.5617 1.5655 1.5693 1.5693 1.5693 1.573 1.573 1.5617 1.558 1.5542 1.5505 1.5505 1.5468 1.5431 1.5395 1.5431 1.5431 1.5468 1.5505 1.5505 1.5505 1.5505 1.558 1.5542 1.5542 1.5542 1.5468 1.5431 1.5431 1.5431 1.5468 1.5431 1.5395 1.5357 1.5321 1.5357 1.5321 1.5357 1.5321 1.5321 1.5214 1.5214 1.5179 1.5179 1.5179 1.5143 1.5037 1.5037 1.5003 1.5003 1.5037 1.4969 1.4969 1.4934 1.4934 1.4969 1.4969 1.5072 1.5072 1.5003 1.5003 1.5003 1.4969 1.4969 1.4934 1.49 1.49 1.4865 1.4865 1.4865 1.4865 1.4865 1.4865 1.4865 1.4831 1.4797 1.4764 1.4764 1.473 1.4631 1.4631 1.4565 1.4532 1.4565 1.4565 1.4598 1.4598 1.4598 1.4565 1.4565 1.4532 1.45 1.45 1.4532 1.4532 1.4467 1.45 1.45 1.4467 1.4467 1.4467 1.4435 1.4404 1.434 1.4307 1.4245 1.4276 1.4214 1.4183 1.4183 1.4276 1.4276 1.434 1.4371 1.4404 1.4467 1.45 1.4467 1.45 1.45 1.4532 1.45 1.45 1.45 1.45 1.45 1.45 1.45 1.4404 1.4404 1.4371 1.434 1.434 1.4276 1.4276 1.4245 1.4183 1.4183 1.4152 1.409 1.409 1.406 1.406 1.409
1.9341 1.9341 1.9284 1.917 1.917 1.9058 1.8836 1.8727 1.8781 1.8727 1.8727 1.8674 1.8727 1.8727 1.8727 1.8727 1.8674 1.8674 1.862 1.8461 1.8461 1.8514 1.8514 1.8514 1.8566 1.8461 1.8461 1.8409 1.8409 1.8409 1.8409 1.8514 1.8514 1.8461 1.8409 1.8409 1.8409 1.8356 1.8409 1.8305 1.8305 1.8202 1.8253 1.8253 1.8202 1.8202 1.8202 1.8202 1.8253 1.8202 1.8253 1.8202 1.81 1.81 1.805 1.805 1.805 1.805 1.805 1.805 1.805 1.8 1.8 1.79 1.7851 1.7803 1.7754 1.7705 1.7657 1.7561 1.7514 1.7466 1.7466 1.7514 1.7514 1.7561 1.7561 1.7514 1.7514 1.7514 1.7514 1.7657 1.7657 1.7657 1.7705 1.7657 1.7657 1.7657 1.7657 1.7705 1.7657 1.7705 1.7657 1.7609 1.7514 1.7466 1.742 1.742 1.742 1.7281 1.7281 1.7281 1.7189 1.7144 1.7189 1.7189 1.7144 1.7054 1.692 1.6965 1.7009 1.7009 1.7054 1.6876 1.6832 1.6789 1.666 1.6616 1.666 1.6616 1.6575 1.649 1.649 1.6449 1.6449 1.6575 1.6575 1.6575 1.666 1.6745 1.692 1.692 1.6965 1.7009 1.7054 1.7054 1.7054 1.7009 1.6703 1.6533 1.649 1.6449 1.6406 1.6324 1.6284 1.6242 1.6161 1.6242 1.6284 1.6284 1.6365 1.6324 1.6365 1.6365 1.6406 1.6449 1.649 1.6533 1.6533 1.649 1.6365 1.6324 1.6324 1.6284 1.6284 1.6324 1.6284 1.6284 1.6201 1.6242 1.6242 1.6201 1.6201 1.6161 1.6161 1.6121 1.6081 1.6081 1.6081 1.6041 1.6041 1.6002 1.5962 1.6002 1.5962 1.5924 1.5846 1.5808 1.5808 1.5846 1.5808 1.5808 1.5846 1.5885 1.5885 1.5924 1.5962 1.6002 1.6002 1.6002 1.5924 1.5846 1.5846 1.5808 1.5808 1.5808 1.5769 1.5769 1.573 1.5769 1.5769 1.5769 1.5769 1.5769 1.5769 1.5655 1.5617 1.5617 1.5693 1.573 1.573 1.5769 1.5769 1.5693 1.5617 1.558 1.5542 1.5505 1.5505 1.5395 1.5395 1.5395 1.5431 1.5431 1.5431 1.5542 1.5505 1.5505 1.5542 1.5542 1.5542 1.5542 1.5468 1.5468 1.5431 1.5431 1.5468 1.5468 1.5431 1.5395 1.5357 1.5357 1.5357 1.5395 1.5357 1.5357 1.5214 1.525 1.525 1.5214 1.5214 1.5179 1.5072 1.5037 1.5003 1.5003 1.5037 1.4969 1.4969 1.4934 1.4934 1.4969 1.5003 1.5037 1.5072 1.5003 1.4969 1.5003 1.5003 1.5003 1.4969 1.4969 1.49 1.49 1.49 1.49 1.49 1.49 1.49 1.4865 1.4865 1.4831 1.4764 1.4764 1.4764 1.4664 1.4631 1.4565 1.4532 1.4532 1.4532 1.4598 1.4565 1.4598 1.4598 1.4565 1.4532 1.45 1.45 1.4532 1.4532 1.4467 1.4467 1.4467 1.4467 1.4467 1.4435 1.4435 1.4435 1.4307 1.4276 1.4276 1.4276 1.4245 1.4183 1.4214 1.4276 1.434 1.434 1.4371 1.4404 1.45 1.45 1.45 1.45 1.4532 1.4532 1.4532 1.45 1.45 1.4532 1.4532 1.45 1.4532 1.4404 1.4371 1.4371 1.4371 1.434 1.4276 1.4276 1.4276 1.4183 1.4183 1.4183 1.4152 1.4121 1.4121 1.409 1.4121
1.9341 1.9284 1.9226 1.917 1.9114 1.9001 1.8836 1.8727 1.8727 1.8781 1.8727 1.8674 1.8674 1.8674 1.8674 1.8727 1.8674 1.8674 1.862 1.8461 1.8461 1.8461 1.8514 1.8514 1.8566 1.8461 1.8461 1.8461 1.8409 1.8409 1.8409 1.8514 1.8514 1.8409 1.8409 1.8409 1.8409 1.8409 1.8356 1.8356 1.8356 1.8202 1.8202 1.8202 1.81 1.81 1.81 1.81 1.81 1.81 1.81 1.805 1.795 1.795 1.8 1.8 1.81 1.8 1.805 1.81 1.805 1.805 1.805 1.79 1.79 1.7851 1.7705 1.7705 1.7705 1.7561 1.7514 1.7466 1.7514 1.7514 1.7514 1.7561 1.7561 1.7514 1.7514 1.7514 1.7514 1.7609 1.7657 1.7705 1.7657 1.7705 1.7705 1.7705 1.7705 1.7705 1.7705 1.7657 1.7609 1.7561 1.7561 1.7514 1.742 1.742 1.742 1.7281 1.7281 1.7281 1.7144 1.7189 1.7189 1.7189 1.7144 1.692 1.6965 1.7009 1.7009 1.7054 1.7054 1.6965 1.6832 1.6789 1.666 1.6616 1.666 1.6616 1.6533 1.6533 1.649 1.6449 1.6449 1.6575 1.6575 1.6575 1.6745 1.6832 1.692 1.692 1.6965 1.7009 1.7054 1.7054 1.7009 1.6965 1.6703 1.6533 1.6533 1.6449 1.6406 1.6284 1.6242 1.6201 1.6201 1.6242 1.6242 1.6284 1.6365 1.6365 1.6365 1.6406 1.6449 1.6449 1.649 1.649 1.649 1.6406 1.6284 1.6242 1.6242 1.6284 1.6242 1.6242 1.6242 1.6242 1.6201 1.6242 1.6242 1.6242 1.6201 1.6161 1.6121 1.6041 1.6041 1.6041 1.6002 1.6002 1.5962 1.5962 1.5924 1.5924 1.5924 1.5924 1.5885 1.5846 1.5846 1.5885 1.5846 1.5885 1.5885 1.5924 1.5924 1.5924 1.5962 1.6002 1.6002 1.5924 1.5885 1.5808 1.5808 1.5808 1.5769 1.5808 1.5808 1.573 1.573 1.5769 1.5769 1.5808 1.5769 1.5808 1.5769 1.5655 1.5655 1.5655 1.5693 1.5769 1.5808 1.5808 1.5846 1.573 1.5655 1.5617 1.558 1.558 1.5505 1.5431 1.5431 1.5395 1.5431 1.5395 1.5395 1.5468 1.5468 1.5505 1.5505 1.5505 1.5505 1.5505 1.5468 1.5468 1.5468 1.5431 1.5468 1.5468 1.5468 1.5395 1.5395 1.5395 1.5395 1.5395 1.5431 1.5357 1.5286 1.525 1.525 1.5214 1.525 1.5179 1.5072 1.5037 1.4969 1.4969 1.5003 1.5003 1.4969 1.4969 1.4969 1.4969 1.5003 1.5037 1.5072 1.5003 1.5003 1.5037 1.5037 1.5037 1.5037 1.5003 1.5003 1.4969 1.4934 1.4969 1.4934 1.49 1.49 1.49 1.4831 1.4831 1.473 1.473 1.4697 1.4631 1.4565 1.4565 1.4532 1.4532 1.4532 1.4565 1.4565 1.4565 1.4598 1.4565 1.4532 1.45 1.45 1.45 1.45 1.4467 1.4435 1.4435 1.4404 1.4371 1.4371 1.434 1.434 1.4214 1.4183 1.4152 1.4183 1.4214 1.4183 1.4183 1.4245 1.4276 1.434 1.4371 1.4435 1.45 1.4467 1.45 1.45 1.4532 1.4532 1.4532 1.4532 1.4532 1.4532 1.4532 1.4532 1.4565 1.4435 1.4435 1.4404 1.434 1.434 1.4276 1.4245 1.4245 1.4183 1.4183 1.4183 1.4121 1.409 1.409 1.406 1.409
1.9341 1.9226 1.917 1.917 1.9114 1.9001 1.8836 1.8781 1.8781 1.8727 1.8727 1.8674 1.8674 1.862 1.862 1.8727 1.8674 1.862 1.862 1.8461 1.8409 1.8461 1.8461 1.8514 1.8566 1.8461 1.8409 1.8409 1.8409 1.8409 1.8409 1.8461 1.8514 1.8409 1.8461 1.8461 1.8461 1.8461 1.8461 1.8409 1.8409 1.8253 1.8202 1.8151 1.81 1.805 1.805 1.805 1.81 1.81 1.805 1.81 1.79 1.795 1.795 1.8 1.805 1.805 1.8 1.81 1.81 1.81 1.81 1.8 1.8 1.795 1.7803 1.7803 1.7754 1.7705 1.7657 1.7561 1.7561 1.7514 1.7561 1.7561 1.7609 1.7561 1.7561 1.7514 1.7561 1.7609 1.7705 1.7754 1.7754 1.7705 1.7705 1.7705 1.7705 1.7705 1.7754 1.7657 1.7609 1.7514 1.7514 1.7466 1.7466 1.742 1.7374 1.7328 1.7281 1.7235 1.7189 1.7189 1.7235 1.7235 1.7235 1.7054 1.7099 1.7099 1.7144 1.7144 1.7144 1.7009 1.6965 1.6832 1.6745 1.6703 1.6745 1.6616 1.6575 1.6575 1.6533 1.649 1.6533 1.666 1.666 1.666 1.692 1.692 1.6965 1.6965 1.6965 1.7009 1.7054 1.7009 1.7009 1.7009 1.6703 1.6575 1.6533 1.649 1.6449 1.6284 1.6242 1.6242 1.6201 1.6284 1.6284 1.6324 1.6406 1.6365 1.6406 1.6449 1.6449 1.649 1.649 1.649 1.649 1.6406 1.6284 1.6242 1.6242 1.6242 1.6242 1.6284 1.6242 1.6242 1.6242 1.6242 1.6284 1.6242 1.6201 1.6161 1.6121 1.6121 1.6041 1.6041 1.6002 1.6002 1.6002 1.5962 1.5924 1.5962 1.5962 1.6002 1.6002 1.5962 1.5962 1.6002 1.5962 1.6002 1.6002 1.6002 1.6002 1.5962 1.6002 1.6041 1.5962 1.5924 1.5885 1.5808 1.5808 1.5808 1.5769 1.5846 1.5846 1.5769 1.5769 1.5769 1.5808 1.5808 1.5808 1.5808 1.5808 1.5769 1.5693 1.5693 1.5769 1.5846 1.5885 1.5885 1.5885 1.5808 1.573 1.5655 1.558 1.558 1.5542 1.5431 1.5431 1.5395 1.5431 1.5395 1.5395 1.5468 1.5468 1.5468 1.5542 1.5505 1.5542 1.5505 1.5505 1.5468 1.5468 1.5505 1.5468 1.5468 1.5505 1.5468 1.5431 1.5468 1.5468 1.5395 1.5395 1.5357 1.5286 1.525 1.525 1.525 1.5214 1.5179 1.5072 1.5037 1.5003 1.5003 1.5003 1.5003 1.5003 1.4969 1.4969 1.5003 1.5037 1.5037 1.5072 1.5037 1.5037 1.5037 1.5072 1.5143 1.5072 1.5037 1.5072 1.5037 1.5003 1.5003 1.4969 1.4934 1.49 1.49 1.4865 1.4797 1.473 1.4697 1.473 1.4631 1.4565 1.4532 1.4565 1.4532 1.4565 1.4598 1.4598 1.4598 1.4598 1.4598 1.4532 1.4565 1.4532 1.4532 1.4532 1.4435 1.4467 1.4435 1.4404 1.4371 1.434 1.434 1.434 1.4183 1.4152 1.4152 1.4183 1.4214 1.4214 1.4183 1.4276 1.4276 1.434 1.4404 1.4435 1.45 1.45 1.4467 1.4532 1.4532 1.4532 1.4532 1.4532 1.4565 1.4565 1.4532 1.4565 1.4565 1.4467 1.4435 1.4435 1.4371 1.434 1.4307 1.4276 1.4276 1.4183 1.4183 1.4183 1.4121 1.4121 1.409 1.406 1.409
1.9284 1.9226 1.9114 1.9058 1.9001 1.8946 1.8781 1.8727 1.8781 1.8727 1.8674 1.8727 1.8674 1.8674 1.862 1.8727 1.862 1.862 1.862 1.8409 1.8409 1.8409 1.8409 1.8461 1.8514 1.8409 1.8409 1.8356 1.8356 1.8305 1.8305 1.8461 1.8461 1.8409 1.8461 1.8461 1.8514 1.8461 1.8461 1.8461 1.8409 1.8305 1.8253 1.8151 1.805 1.805 1.8 1.8 1.805 1.805 1.805 1.81 1.795 1.8 1.8 1.8 1.805 1.805 1.805 1.81 1.81 1.81 1.81 1.805 1.8 1.795 1.7851 1.7851 1.7851 1.7705 1.7657 1.7609 1.7609 1.7609 1.7609 1.7609 1.7609 1.7609 1.7561 1.7561 1.7561 1.7609 1.7705 1.7754 1.7754 1.7754 1.7705 1.7705 1.7705 1.7754 1.7705 1.7609 1.7609 1.7514 1.7466 1.7466 1.742 1.742 1.7374 1.7328 1.7281 1.7235 1.7189 1.7189 1.7235 1.7235 1.7235 1.7099 1.7099 1.7144 1.7189 1.7144 1.7189 1.7099 1.7009 1.692 1.6745 1.6745 1.6703 1.666 1.6575 1.6575 1.6575 1.6533 1.6575 1.6703 1.6745 1.6832 1.692 1.692 1.6965 1.6876 1.692 1.7009 1.7009 1.7009 1.7009 1.6965 1.6745 1.6616 1.6575 1.649 1.6449 1.6324 1.6284 1.6242 1.6242 1.6284 1.6324 1.6406 1.6406 1.6365 1.6449 1.6449 1.6449 1.6449 1.649 1.649 1.6449 1.6365 1.6284 1.6242 1.6284 1.6242 1.6284 1.6284 1.6284 1.6242 1.6201 1.6284 1.6284 1.6242 1.6201 1.6161 1.6161 1.6121 1.6081 1.6081 1.6041 1.6002 1.6002 1.5962 1.5962 1.5924 1.6002 1.6041 1.6041 1.6002 1.6002 1.6041 1.6002 1.6041 1.6041 1.6002 1.5962 1.5962 1.5962 1.6041 1.5924 1.5924 1.5846 1.5769 1.5808 1.5808 1.5769 1.5846 1.5808 1.5808 1.5769 1.5808 1.5808 1.5808 1.5808 1.5846 1.5846 1.5769 1.5769 1.573 1.5808 1.5846 1.5885 1.5924 1.5885 1.5808 1.5693 1.5655 1.558 1.5542 1.5505 1.5468 1.5395 1.5431 1.5431 1.5395 1.5395 1.5505 1.5505 1.5505 1.5505 1.5542 1.5505 1.5505 1.5468 1.5468 1.5468 1.5468 1.5468 1.5505 1.5468 1.5468 1.5431 1.5431 1.5468 1.5395 1.5395 1.5357 1.525 1.5214 1.5214 1.5214 1.525 1.5179 1.5037 1.5003 1.5003 1.5037 1.5037 1.5003 1.5037 1.5037 1.5003 1.5037 1.5037 1.5072 1.5072 1.5037 1.5037 1.5037 1.5072 1.5143 1.5072 1.5037 1.5072 1.5037 1.5003 1.4969 1.4969 1.4934 1.49 1.4865 1.4831 1.4764 1.473 1.4664 1.4697 1.4631 1.4565 1.4532 1.4532 1.4532 1.4532 1.4631 1.4631 1.4631 1.4631 1.4598 1.4565 1.4565 1.4565 1.4532 1.4532 1.4467 1.4435 1.4435 1.4404 1.4371 1.4371 1.4307 1.434 1.4214 1.4183 1.4152 1.4183 1.4214 1.4214 1.4245 1.4276 1.4307 1.4371 1.4404 1.4435 1.4532 1.45 1.45 1.45 1.4532 1.45 1.45 1.4532 1.4532 1.4532 1.4532 1.4532 1.4565 1.4435 1.4435 1.4404 1.4371 1.4371 1.434 1.4307 1.4276 1.4214 1.4183 1.4214 1.4121 1.409 1.409 1.409 1.409
1.9226 1.917 1.9114 1.9001 1.8946 1.8946 1.8727 1.8727 1.8727 1.8727 1.8674 1.862 1.862 1.862 1.8674 1.862 1.8566 1.8514 1.8514 1.8409 1.8356 1.8305 1.8356 1.8409 1.8409 1.8409 1.8409 1.8356 1.8305 1.8253 1.8253 1.8409 1.8461 1.8409 1.8409 1.8461 1.8461 1.8461 1.8461 1.8461 1.8461 1.8305 1.8253 1.8151 1.8 1.8 1.8 1.795 1.805 1.805 1.8 1.8 1.79 1.79 1.795 1.8 1.805 1.8 1.8 1.805 1.805 1.81 1.81 1.81 1.805 1.795 1.7851 1.7851 1.7851 1.7754 1.7705 1.7657 1.7609 1.7609 1.7609 1.7657 1.7657 1.7561 1.7609 1.7514 1.7561 1.7609 1.7657 1.7754 1.7754 1.7705 1.7705 1.7657 1.7657 1.7657 1.7657 1.7514 1.7466 1.7374 1.7328 1.7281 1.7281 1.7281 1.7235 1.7235 1.7189 1.7189 1.7099 1.7144 1.7189 1.7235 1.7235 1.7189 1.7144 1.7189 1.7189 1.7189 1.7235 1.7099 1.7054 1.692 1.6789 1.6789 1.6745 1.666 1.6575 1.6575 1.6575 1.6533 1.6575 1.6745 1.6745 1.6876 1.6965 1.6965 1.692 1.692 1.6965 1.6965 1.7009 1.6965 1.6965 1.692 1.6745 1.6616 1.6616 1.6533 1.6449 1.6365 1.6284 1.6284 1.6284 1.6284 1.6365 1.6406 1.6449 1.6449 1.6449 1.6449 1.6449 1.6449 1.6449 1.6449 1.6406 1.6324 1.6242 1.6242 1.6242 1.6242 1.6242 1.6284 1.6242 1.6242 1.6242 1.6284 1.6284 1.6242 1.6242 1.6161 1.6121 1.6121 1.6041 1.6041 1.6041 1.5962 1.6002 1.5962 1.5924 1.5924 1.6002 1.6041 1.6041 1.6041 1.6041 1.6041 1.6041 1.6041 1.6041 1.6002 1.6002 1.5962 1.5962 1.6002 1.5924 1.5885 1.5808 1.5808 1.5808 1.5769 1.5769 1.5846 1.5808 1.5808 1.5769 1.5769 1.5808 1.5808 1.5808 1.5808 1.5808 1.5808 1.5769 1.573 1.5808 1.5808 1.5808 1.5808 1.5808 1.5769 1.573 1.5617 1.558 1.5542 1.5505 1.5431 1.5431 1.5395 1.5431 1.5431 1.5431 1.5505 1.5505 1.5505 1.5542 1.5505 1.5468 1.5468 1.5431 1.5431 1.5431 1.5431 1.5431 1.5431 1.5395 1.5395 1.5395 1.5357 1.5395 1.5321 1.5321 1.5321 1.5214 1.5179 1.5179 1.5179 1.5214 1.5143 1.5037 1.5003 1.5003 1.5072 1.5072 1.5037 1.5003 1.5003 1.5003 1.5037 1.5072 1.5072 1.5037 1.5037 1.5037 1.5037 1.5072 1.5108 1.5072 1.5037 1.5037 1.5037 1.4969 1.4934 1.49 1.49 1.4865 1.4831 1.4797 1.4764 1.4697 1.4664 1.4664 1.4631 1.4565 1.4565 1.4532 1.4532 1.4565 1.4631 1.4664 1.4664 1.4631 1.4631 1.4598 1.4565 1.4565 1.4532 1.45 1.4467 1.4435 1.4404 1.4371 1.4371 1.434 1.4307 1.4307 1.4214 1.4183 1.4152 1.4152 1.4214 1.4214 1.4245 1.4307 1.4307 1.4404 1.4404 1.4467 1.4532 1.45 1.45 1.45 1.45 1.45 1.45 1.45 1.45 1.4467 1.4467 1.4467 1.4467 1.4404 1.4404 1.4371 1.4371 1.434 1.4371 1.434 1.4307 1.4245 1.4214 1.4183 1.4121 1.409 1.406 1.406 1.409
1.9284 1.917 1.917 1.9001 1.8946 1.8946 1.8781 1.8781 1.8781 1.8727 1.862 1.862 1.862 1.862 1.862 1.8566 1.8514 1.8514 1.8461 1.8409 1.8409 1.8356 1.8356 1.8356 1.8409 1.8409 1.8409 1.8356 1.8305 1.8253 1.8253 1.8409 1.8461 1.8461 1.8461 1.8461 1.8461 1.8461 1.8514 1.8461 1.8514 1.8305 1.8253 1.8151 1.8 1.795 1.795 1.795 1.8 1.8 1.8 1.8 1.7851 1.79 1.79 1.795 1.805 1.8 1.795 1.805 1.8 1.81 1.805 1.81 1.805 1.795 1.79 1.79 1.7851 1.7803 1.7754 1.7705 1.7657 1.7609 1.7609 1.7609 1.7609 1.7561 1.7561 1.7514 1.7514 1.7561 1.7609 1.7754 1.7754 1.7705 1.7705 1.7657 1.7657 1.7657 1.7609 1.7514 1.742 1.7374 1.7281 1.7281 1.7235 1.7235 1.7235 1.7144 1.7189 1.7144 1.7099 1.7144 1.7189 1.7189 1.7235 1.7189 1.7189 1.7235 1.7235 1.7235 1.7235 1.7144 1.7054 1.692 1.6789 1.6745 1.6745 1.6616 1.6575 1.6616 1.6616 1.6575 1.6616 1.6832 1.6832 1.6876 1.6965 1.6965 1.7009 1.692 1.6965 1.6965 1.7009 1.6965 1.6965 1.6965 1.6789 1.6703 1.666 1.6616 1.6616 1.6449 1.6406 1.6365 1.6324 1.6365 1.6406 1.6449 1.6449 1.649 1.6533 1.6533 1.649 1.6449 1.6449 1.6449 1.6406 1.6284 1.6201 1.6242 1.6201 1.6201 1.6242 1.6242 1.6284 1.6242 1.6242 1.6324 1.6324 1.6242 1.6242 1.6201 1.6161 1.6081 1.6041 1.6041 1.6002 1.5962 1.5962 1.5924 1.5924 1.5924 1.5962 1.6081 1.6041 1.6041 1.6081 1.6081 1.6081 1.6081 1.6081 1.5962 1.5962 1.5924 1.5962 1.5962 1.5924 1.5885 1.5846 1.5808 1.5808 1.5846 1.5808 1.5808 1.5808 1.5808 1.5769 1.5769 1.5808 1.5808 1.5769 1.5808 1.5808 1.5769 1.5769 1.573 1.5769 1.5769 1.5769 1.5769 1.5769 1.573 1.5693 1.5617 1.5542 1.558 1.5542 1.5431 1.5431 1.5431 1.5431 1.5431 1.5468 1.5505 1.5505 1.5505 1.5542 1.5505 1.5468 1.5468 1.5431 1.5431 1.5431 1.5395 1.5395 1.5395 1.5395 1.5395 1.5357 1.5357 1.5357 1.5286 1.5286 1.5286 1.5179 1.5214 1.5179 1.5179 1.5214 1.5143 1.5037 1.5003 1.5003 1.5072 1.5037 1.5072 1.5072 1.5037 1.5003 1.5037 1.5072 1.5072 1.5072 1.5003 1.5003 1.5037 1.5108 1.5108 1.5072 1.5072 1.5037 1.5037 1.4934 1.4934 1.49 1.49 1.4865 1.4831 1.4797 1.4764 1.4697 1.4664 1.4664 1.4664 1.4598 1.4565 1.4565 1.4565 1.4565 1.4664 1.4697 1.473 1.4764 1.473 1.473 1.4664 1.4598 1.4565 1.45 1.4435 1.4435 1.4435 1.4371 1.4371 1.434 1.4307 1.4307 1.4214 1.4214 1.4183 1.4183 1.4214 1.4214 1.4245 1.434 1.434 1.4435 1.4435 1.45 1.4532 1.4532 1.45 1.4532 1.45 1.45 1.4467 1.45 1.4435 1.4435 1.4435 1.4404 1.4404 1.4371 1.4371 1.4371 1.4371 1.434 1.434 1.4307 1.4307 1.4245 1.4245 1.4245 1.4121 1.409 1.406 1.406 1.409
1.9284 1.9226 1.917 1.9058 1.9001 1.8946 1.8836 1.8781 1.8781 1.8727 1.862 1.862 1.8566 1.862 1.8566 1.8566 1.8514 1.8461 1.8514 1.8409 1.8356 1.8356 1.8356 1.8356 1.8356 1.8356 1.8409 1.8356 1.8253 1.8253 1.8305 1.8461 1.8461 1.8514 1.8461 1.8514 1.8514 1.8514 1.8514 1.8461 1.8461 1.8305 1.8253 1.8151 1.8 1.795 1.795 1.795 1.8 1.8 1.795 1.79 1.7851 1.7851 1.7851 1.79 1.8 1.795 1.8 1.8 1.805 1.8 1.81 1.81 1.805 1.8 1.7851 1.7851 1.7851 1.7803 1.7754 1.7705 1.7609 1.7609 1.7561 1.7561 1.7561 1.7514 1.7466 1.7466 1.7466 1.7561 1.7609 1.7657 1.7705 1.7657 1.7705 1.7657 1.7657 1.7657 1.7609 1.7466 1.742 1.7328 1.7281 1.7235 1.7235 1.7281 1.7281 1.7189 1.7144 1.7144 1.7144 1.7099 1.7189 1.7189 1.7189 1.7235 1.7189 1.7189 1.7189 1.7144 1.7189 1.7054 1.6965 1.6876 1.6789 1.6745 1.6703 1.6616 1.6616 1.666 1.666 1.6616 1.666 1.6789 1.6745 1.6745 1.6876 1.6965 1.692 1.6876 1.6876 1.692 1.6965 1.692 1.692 1.692 1.6789 1.6703 1.666 1.6616 1.6616 1.6449 1.6406 1.6406 1.6324 1.6365 1.6449 1.6449 1.649 1.649 1.6533 1.6533 1.649 1.649 1.649 1.6449 1.6449 1.6324 1.6201 1.6242 1.6201 1.6201 1.6242 1.6242 1.6284 1.6284 1.6284 1.6324 1.6284 1.6242 1.6242 1.6201 1.6121 1.6081 1.6041 1.6041 1.6002 1.5962 1.5962 1.5924 1.5885 1.5924 1.5962 1.6041 1.6041 1.6041 1.6081 1.6081 1.6081 1.6081 1.6041 1.5962 1.5962 1.5924 1.5962 1.6002 1.5885 1.5885 1.5846 1.5846 1.5846 1.5808 1.5846 1.5808 1.5808 1.5808 1.5769 1.5769 1.5808 1.5769 1.5769 1.5808 1.5769 1.573 1.5693 1.573 1.5693 1.573 1.5693 1.573 1.573 1.573 1.5655 1.558 1.5542 1.5542 1.5505 1.5468 1.5431 1.5431 1.5431 1.5431 1.5431 1.5505 1.5505 1.5542 1.5505 1.5468 1.5431 1.5431 1.5431 1.5431 1.5395 1.5395 1.5395 1.5395 1.5395 1.5357 1.5357 1.5357 1.5357 1.5321 1.5321 1.525 1.5214 1.5179 1.5179 1.5179 1.5214 1.5179 1.5037 1.5003 1.5037 1.5108 1.5072 1.5072 1.5072 1.5037 1.5003 1.5037 1.5072 1.5072 1.5037 1.5003 1.5003 1.5037 1.5072 1.5108 1.5108 1.5072 1.5072 1.5003 1.4934 1.4934 1.4865 1.4865 1.4831 1.4797 1.4764 1.473 1.473 1.4697 1.4664 1.4664 1.4631 1.4598 1.4598 1.4565 1.4598 1.4697 1.473 1.473 1.473 1.4764 1.4697 1.4631 1.4631 1.4565 1.45 1.4467 1.4435 1.4435 1.4371 1.4371 1.434 1.4307 1.4307 1.4245 1.4214 1.4183 1.4183 1.4214 1.4214 1.4214 1.434 1.434 1.4435 1.4467 1.45 1.45 1.45 1.45 1.45 1.4467 1.4467 1.4467 1.4435 1.4404 1.4371 1.4371 1.434 1.4371 1.434 1.4371 1.4371 1.434 1.434 1.434 1.4307 1.4276 1.4276 1.4245 1.4245 1.4121 1.4121 1.406 1.406 1.409
