3.2695 3.3028 3.354 3.3367 3.3196 3.2531 3.2369 3.2531 3.2695 3.286 3.286 3.286 3.286 3.286 3.286 3.3196 3.3196 3.286 3.2531 3.2369 3.2369 3.2207 3.2049 3.2049 3.2049 3.2049 3.1891 3.1276 3.1276 3.1126 3.1276 3.1126 3.083 3.054 3.054 3.0255 3.0255 3.054 3.0685 3.054 3.054 3.0255 3.0255 2.9838 2.9701 2.9431 2.8908 2.8779 2.8526 2.8526 2.8401 2.8401 2.8526 2.8277 2.8032 2.7912 2.7912 2.7793 2.7674 2.7674 2.744 2.744 2.744 2.744 2.7674 2.7556 2.7793 2.7793 2.7674 2.7674 2.7674 2.7325 2.721 2.721 2.6984 2.6871 2.6434 2.6543 2.6543 2.6326 2.6115 2.6326 2.6326 2.6543 2.6326 2.622 2.622 2.601 2.5906 2.5906 2.56 2.5399 2.5399 2.5104 2.5104 2.5104 2.4911 2.4911 2.4816 2.4816 2.4721 2.4535 2.4442 2.4442 2.435 2.435 2.435 2.435 2.426 2.435 2.435 2.4442 2.435 2.435 2.435 2.426 2.426 2.4169 2.4079 2.399 2.3555 2.3555 2.364 2.364 2.3555 2.3555 2.3555 2.347 2.3385 2.3385 2.347 2.3385 2.347 2.3385 2.3301 2.3218 2.3218 2.3218 2.3385 2.3385 2.3218 2.3218 2.3218 2.3218 2.3135 2.3053 2.3053 2.2971 2.281 2.265 2.2571 2.2571 2.2492 2.2492 2.2339 2.2261 2.2035 2.2035 2.196 2.196 2.1812 2.1812 2.174 2.174 2.174 2.174 2.1812 2.1666 2.1666 2.1595 2.1595 2.1522 2.1522 2.1381 2.1452 2.1381 2.1452 2.1452 2.1381 2.1381 2.1381 2.1241 2.1171 2.1241 2.1035 2.1035 2.0966 2.0899 2.0966 2.0899 2.0833 2.0833 2.0699 2.0699 2.0765 2.0699 2.0699 2.0634 2.0568 2.0568 2.0439 2.0374 2.031 2.0184 2.0121 2.0121 1.9936 1.9936 1.9997 1.9875 1.9875 1.9875 1.9875 1.9754 1.9814 1.9754 1.9694 1.9634 1.9694 1.9575 1.9516 1.9399 1.9341 1.9341 1.9399 1.9284 1.9284 1.9284 1.9226 1.9284 1.9226 1.9226 1.9226 1.9226 1.917 1.917 1.9114 1.917 1.9058 1.9001 1.9001 1.8946 1.8946 1.8946 1.8946 1.8946 1.8946 1.8946 1.8946 1.8836 1.8836 1.8836 1.8836 1.8727 1.8674 1.8727 1.8674 1.8674 1.862 1.862 1.8566 1.8409 1.8356 1.8305 1.8151 1.8202 1.8253 1.8202 1.81 1.8 1.795 1.795 1.795 1.8 1.805 1.8 1.79 1.7851 1.79 1.795 1.79 1.795 1.795 1.795 1.7851 1.7754 1.7561 1.7466 1.742 1.7374 1.7281 1.7235 1.7235 1.7281 1.7144 1.7144 1.7099 1.7054 1.7054 1.7054 1.7054 1.7009 1.6876 1.6832 1.6789 1.6789 1.6832 1.6832 1.6789 1.6789 1.6745 1.6789 1.6832 1.6832 1.6789 1.666 1.649 1.6449 1.6449 1.6324 1.6324 1.6324 1.6284 1.6242 1.6121 1.6041 1.6081 1.6161 1.6201 1.6284 1.6284 1.6284 1.6284 1.6324 1.6284 1.6284 1.6284 1.6242 1.6161 1.6081 1.6002 1.5962 1.5962 1.5924 1.5924 1.5924 1.5962 1.5924 1.5885 1.5769 1.5693 1.5655 1.558 1.558 1.5505 1.5505 1.5468 1.5468 1.5431 1.5431
3.2695 3.3028 3.3367 3.354 3.3196 3.2531 3.2369 3.2369 3.2695 3.2531 3.2695 3.286 3.286 3.286 3.286 3.3196 3.3196 3.3028 3.2531 3.2531 3.2369 3.2207 3.2049 3.2049 3.2049 3.2049 3.1891 3.1276 3.1126 3.0978 3.0978 3.083 3.054 3.054 3.0398 3.0398 3.0398 3.054 3.0685 3.0685 3.054 3.0398 3.0255 2.9976 2.9701 2.9431 2.8779 2.8526 2.8401 2.8277 2.8277 2.8155 2.8032 2.7912 2.7793 2.7793 2.7912 2.7793 2.7674 2.7674 2.7556 2.7556 2.744 2.7674 2.7793 2.7674 2.7912 2.7793 2.7793 2.7793 2.7674 2.744 2.721 2.721 2.7096 2.6984 2.6543 2.6651 2.6651 2.6326 2.622 2.6326 2.6543 2.6651 2.6543 2.6326 2.6434 2.6115 2.6115 2.601 2.5802 2.56 2.5399 2.53 2.5201 2.5104 2.5008 2.5008 2.4721 2.4816 2.4721 2.4628 2.4535 2.4442 2.426 2.426 2.426 2.435 2.435 2.435 2.435 2.4442 2.435 2.435 2.4442 2.426 2.426 2.4169 2.3902 2.3902 2.3555 2.364 2.364 2.3555 2.3555 2.364 2.3555 2.3555 2.347 2.347 2.3555 2.347 2.3385 2.3385 2.3218 2.3218 2.3135 2.3135 2.3301 2.3301 2.3218 2.3218 2.3135 2.3135 2.3053 2.3053 2.2971 2.2971 2.273 2.265 2.2571 2.2492 2.2415 2.2415 2.2185 2.211 2.2035 2.196 2.196 2.1886 2.1812 2.174 2.174 2.174 2.174 2.174 2.1812 2.1595 2.1595 2.1595 2.1595 2.1522 2.1522 2.1452 2.1381 2.1452 2.1522 2.1452 2.1452 2.1381 2.1381 2.1311 2.1311 2.1171 2.1103 2.0966 2.0899 2.0899 2.0899 2.0899 2.0833 2.0833 2.0699 2.0765 2.0765 2.0699 2.0634 2.0634 2.0568 2.0568 2.0439 2.0374 2.031 2.0184 2.0121 2.0121 1.9997 1.9997 1.9936 1.9936 1.9814 1.9875 1.9814 1.9814 1.9754 1.9754 1.9754 1.9634 1.9634 1.9634 1.9516 1.9516 1.9341 1.9341 1.9399 1.9341 1.9284 1.9284 1.9284 1.9226 1.9284 1.9284 1.9341 1.9226 1.917 1.9114 1.9114 1.9058 1.9058 1.9001 1.8946 1.8946 1.8946 1.8946 1.8946 1.8891 1.8946 1.8891 1.8836 1.8836 1.8781 1.8781 1.8781 1.8674 1.862 1.8674 1.862 1.862 1.862 1.862 1.8566 1.8461 1.8356 1.8305 1.8253 1.8253 1.8305 1.8202 1.81 1.8 1.795 1.79 1.795 1.8 1.805 1.795 1.795 1.795 1.795 1.8 1.79 1.79 1.795 1.795 1.7851 1.7803 1.7561 1.7514 1.7466 1.7374 1.7328 1.7281 1.7281 1.7235 1.7189 1.7144 1.7099 1.7099 1.7099 1.7099 1.7009 1.7009 1.6876 1.6789 1.6745 1.6745 1.6789 1.6789 1.6745 1.6745 1.6703 1.6745 1.6789 1.6789 1.6703 1.6616 1.649 1.6449 1.6449 1.6324 1.6284 1.6324 1.6284 1.6284 1.6161 1.6121 1.6161 1.6201 1.6242 1.6324 1.6284 1.6284 1.6324 1.6284 1.6324 1.6284 1.6242 1.6242 1.6121 1.6041 1.6002 1.5962 1.5924 1.5924 1.5924 1.5885 1.5924 1.5962 1.5924 1.5769 1.573 1.5693 1.5617 1.558 1.5542 1.5468 1.5468 1.5468 1.5431 1.5431
3.2695 3.286 3.3028 3.354 3.3196 3.2695 3.2531 3.2531 3.2531 3.2531 3.2531 3.286 3.286 3.2695 3.286 3.3196 3.3028 3.286 3.2695 3.2531 3.2369 3.2207 3.2049 3.2049 3.2049 3.1891 3.1891 3.1276 3.1126 3.0978 3.083 3.083 3.054 3.054 3.0398 3.0255 3.0398 3.054 3.0685 3.0685 3.0398 3.0398 3.0255 2.9976 2.9701 2.9299 2.8779 2.8526 2.8401 2.8155 2.8155 2.8155 2.8032 2.7912 2.7793 2.7793 2.7912 2.7912 2.7793 2.7793 2.7674 2.7674 2.7793 2.7793 2.7912 2.8032 2.8032 2.8032 2.7912 2.7912 2.7793 2.7556 2.744 2.7325 2.7096 2.6984 2.6761 2.6761 2.6761 2.6326 2.6434 2.6543 2.6651 2.6761 2.6651 2.6651 2.6651 2.6543 2.6543 2.6543 2.6115 2.601 2.5802 2.5499 2.5499 2.5399 2.5201 2.5104 2.4911 2.4911 2.4911 2.4721 2.4628 2.4535 2.435 2.435 2.435 2.435 2.4442 2.435 2.4442 2.4442 2.4442 2.4442 2.4442 2.435 2.426 2.426 2.399 2.3902 2.3727 2.3727 2.3727 2.364 2.3555 2.364 2.364 2.3555 2.3555 2.3555 2.364 2.347 2.3555 2.347 2.3301 2.3218 2.3218 2.3218 2.3385 2.3385 2.3301 2.3301 2.3135 2.3135 2.3053 2.3053 2.2971 2.289 2.273 2.265 2.2492 2.2415 2.2339 2.2261 2.211 2.2035 2.196 2.196 2.1886 2.1812 2.1812 2.174 2.1812 2.174 2.174 2.174 2.1812 2.1595 2.1666 2.1595 2.1666 2.1595 2.1595 2.1522 2.1522 2.1522 2.1595 2.1595 2.1522 2.1452 2.1452 2.1311 2.1241 2.1171 2.1035 2.0966 2.0899 2.0899 2.0899 2.0833 2.0833 2.0833 2.0699 2.0699 2.0833 2.0765 2.0699 2.0634 2.0634 2.0568 2.0439 2.031 2.0246 2.0121 2.0059 2.0059 1.9997 1.9997 1.9936 1.9875 1.9814 1.9875 1.9875 1.9814 1.9814 1.9754 1.9814 1.9694 1.9694 1.9634 1.9516 1.9516 1.9399 1.9399 1.9399 1.9341 1.9341 1.9284 1.9284 1.9341 1.9341 1.9341 1.9399 1.9284 1.917 1.9114 1.9114 1.9058 1.9001 1.8946 1.8946 1.8946 1.8891 1.8891 1.8891 1.8836 1.8836 1.8781 1.8781 1.8781 1.8674 1.8674 1.862 1.862 1.8514 1.8514 1.8566 1.8514 1.8514 1.8566 1.8566 1.8461 1.8409 1.8356 1.8356 1.8356 1.8356 1.8305 1.8202 1.81 1.805 1.8 1.8 1.8 1.8 1.795 1.795 1.795 1.8 1.8 1.795 1.8 1.8 1.795 1.79 1.7851 1.7657 1.7609 1.7561 1.7466 1.7374 1.7281 1.7281 1.7281 1.7189 1.7189 1.7189 1.7144 1.7144 1.7144 1.7054 1.7009 1.6789 1.6745 1.666 1.666 1.666 1.666 1.6703 1.6703 1.666 1.6703 1.6745 1.6703 1.6616 1.6575 1.6406 1.6365 1.6365 1.6324 1.6284 1.6242 1.6242 1.6242 1.6242 1.6242 1.6284 1.6324 1.6365 1.6365 1.6324 1.6324 1.6324 1.6324 1.6324 1.6242 1.6201 1.6201 1.6081 1.6041 1.5962 1.5962 1.5962 1.5962 1.5924 1.5962 1.5962 1.5962 1.5924 1.5808 1.5808 1.5769 1.5693 1.5617 1.558 1.5542 1.5505 1.5505 1.5468 1.5505
3.2531 3.2695 3.3028 3.3367 3.3028 3.2531 3.2369 3.2369 3.2531 3.2531 3.2531 3.2695 3.286 3.2695 3.3028 3.3028 3.3028 3.2695 3.2695 3.2369 3.2369 3.2049 3.2049 3.2049 3.2049 3.1891 3.1581 3.1276 3.1126 3.083 3.0685 3.0685 3.054 3.0255 3.0115 3.0255 3.0255 3.0398 3.0685 3.054 3.0398 3.0255 3.0255 2.9976 2.9566 2.9299 2.8779 2.8526 2.8277 2.8155 2.8155 2.8032 2.8032 2.7912 2.7674 2.7793 2.7912 2.7912 2.7793 2.7793 2.7674 2.7674 2.7793 2.7912 2.8032 2.8032 2.8155 2.8032 2.8032 2.7912 2.7793 2.7556 2.7556 2.744 2.721 2.7096 2.6761 2.6761 2.6871 2.6434 2.6434 2.6543 2.6651 2.6761 2.6871 2.6651 2.6761 2.6651 2.6761 2.6651 2.6326 2.622 2.5906 2.5802 2.5701 2.56 2.53 2.53 2.4911 2.5008 2.5008 2.4816 2.4816 2.4628 2.4442 2.435 2.435 2.4442 2.4442 2.435 2.4442 2.4442 2.4442 2.4442 2.4442 2.4442 2.426 2.426 2.4079 2.3902 2.3814 2.3814 2.3727 2.3555 2.364 2.3555 2.3555 2.347 2.347 2.3555 2.3555 2.3555 2.3555 2.3555 2.3385 2.3385 2.3385 2.3385 2.347 2.3385 2.3385 2.3218 2.3218 2.3218 2.3053 2.3053 2.3053 2.2971 2.281 2.273 2.2571 2.2339 2.2261 2.2261 2.2035 2.2035 2.196 2.196 2.1886 2.1812 2.1812 2.174 2.174 2.1812 2.174 2.174 2.1812 2.1595 2.1666 2.1666 2.1666 2.1666 2.1595 2.1522 2.1595 2.1595 2.1595 2.1595 2.1595 2.1452 2.1452 2.1311 2.1311 2.1241 2.1035 2.0899 2.0899 2.0899 2.0899 2.0899 2.0833 2.0833 2.0765 2.0765 2.0765 2.0833 2.0699 2.0634 2.0634 2.0634 2.0439 2.031 2.0184 2.0121 2.0121 2.0059 1.9936 1.9936 1.9936 1.9814 1.9814 1.9814 1.9875 1.9814 1.9814 1.9814 1.9814 1.9754 1.9694 1.9694 1.9575 1.9516 1.9399 1.9399 1.9399 1.9399 1.9341 1.9341 1.9341 1.9399 1.9341 1.9399 1.9399 1.9341 1.9226 1.9114 1.9058 1.9114 1.9001 1.8946 1.8946 1.8891 1.8891 1.8891 1.8891 1.8836 1.8836 1.8781 1.8781 1.8727 1.8674 1.8674 1.8674 1.8566 1.8514 1.8514 1.8514 1.8514 1.8514 1.8566 1.8566 1.8461 1.8461 1.8356 1.8356 1.8409 1.8356 1.8356 1.8305 1.81 1.805 1.8 1.8 1.805 1.8 1.795 1.79 1.79 1.795 1.795 1.8 1.8 1.805 1.795 1.795 1.7851 1.7754 1.7657 1.7609 1.7466 1.742 1.7281 1.7281 1.7235 1.7235 1.7189 1.7189 1.7144 1.7099 1.7144 1.7009 1.7009 1.6745 1.6703 1.666 1.6616 1.6616 1.6616 1.6616 1.666 1.6616 1.6703 1.6745 1.6703 1.666 1.6575 1.6365 1.6324 1.6324 1.6284 1.6242 1.6284 1.6201 1.6201 1.6201 1.6284 1.6365 1.6365 1.6365 1.6365 1.6324 1.6284 1.6324 1.6284 1.6284 1.6242 1.6201 1.6121 1.6121 1.6041 1.6002 1.6002 1.6002 1.6002 1.5924 1.5924 1.5962 1.5962 1.5924 1.5808 1.5808 1.5769 1.5693 1.5617 1.558 1.5542 1.5505 1.5468 1.5468 1.5468
3.2531 3.2695 3.286 3.3196 3.286 3.2369 3.2369 3.2369 3.2695 3.2531 3.2531 3.286 3.286 3.286 3.286 3.3028 3.3028 3.2695 3.2695 3.2531 3.2207 3.1735 3.1581 3.1427 3.1427 3.1276 3.1126 3.0398 3.0255 3.0115 2.9976 2.9976 2.9976 2.9701 2.9566 2.9299 2.9838 2.9976 3.0398 3.0398 3.0398 3.0398 3.0255 2.9976 2.9701 2.9431 2.8779 2.8653 2.8526 2.8155 2.8155 2.8155 2.8032 2.7912 2.7793 2.7793 2.7912 2.7793 2.7674 2.7556 2.7556 2.7556 2.7556 2.7674 2.7793 2.7674 2.7793 2.7674 2.7674 2.7674 2.7793 2.7674 2.7674 2.7325 2.721 2.721 2.6871 2.6871 2.6761 2.6543 2.6543 2.6651 2.6651 2.6651 2.6761 2.6651 2.6651 2.6651 2.6761 2.6651 2.6543 2.6434 2.6115 2.5906 2.5802 2.5701 2.5399 2.5399 2.5104 2.5104 2.5104 2.5008 2.4911 2.4816 2.4535 2.4442 2.435 2.4442 2.4442 2.4442 2.4442 2.4442 2.435 2.4442 2.435 2.435 2.4442 2.426 2.4079 2.3902 2.3902 2.3814 2.3814 2.364 2.364 2.3555 2.3555 2.3555 2.3555 2.3555 2.3555 2.347 2.3555 2.3555 2.347 2.3385 2.3385 2.3385 2.347 2.3385 2.3385 2.3301 2.3218 2.3218 2.3135 2.2971 2.289 2.289 2.281 2.265 2.2492 2.2339 2.2185 2.2185 2.2035 2.196 2.196 2.1886 2.1886 2.1812 2.1812 2.174 2.174 2.174 2.174 2.1666 2.174 2.1666 2.1666 2.1666 2.1666 2.1666 2.1666 2.1595 2.1522 2.1595 2.1595 2.1595 2.1595 2.1452 2.1452 2.1381 2.1241 2.1241 2.1035 2.0966 2.0899 2.0966 2.0966 2.0899 2.0833 2.0833 2.0765 2.0765 2.0833 2.0765 2.0765 2.0699 2.0634 2.0634 2.0503 2.031 2.0246 2.0121 2.0121 2.0059 1.9997 1.9936 1.9875 1.9875 1.9754 1.9814 1.9875 1.9875 1.9814 1.9754 1.9754 1.9694 1.9694 1.9694 1.9575 1.9575 1.9458 1.9399 1.9399 1.9399 1.9341 1.9284 1.9284 1.9399 1.9458 1.9399 1.9399 1.9284 1.917 1.917 1.9114 1.9114 1.9058 1.8946 1.8891 1.8946 1.8891 1.8946 1.8891 1.8836 1.8836 1.8781 1.8727 1.8727 1.8674 1.862 1.8674 1.8514 1.8514 1.8461 1.8461 1.8514 1.8461 1.8514 1.8566 1.8409 1.8409 1.8356 1.8356 1.8409 1.8356 1.8356 1.8356 1.81 1.805 1.805 1.805 1.8 1.795 1.7851 1.7851 1.7851 1.7851 1.7803 1.7754 1.79 1.8 1.8 1.795 1.79 1.7754 1.7657 1.7609 1.742 1.742 1.7281 1.7281 1.7235 1.7235 1.7235 1.7235 1.7144 1.7144 1.7099 1.7054 1.7009 1.6789 1.6745 1.6703 1.666 1.666 1.666 1.6616 1.6703 1.666 1.6703 1.6703 1.666 1.6616 1.6575 1.6365 1.6324 1.6324 1.6284 1.6284 1.6242 1.6161 1.6201 1.6242 1.6324 1.6365 1.6365 1.6365 1.6365 1.6324 1.6284 1.6284 1.6284 1.6242 1.6201 1.6121 1.6081 1.6081 1.6041 1.6002 1.6002 1.6002 1.6002 1.5962 1.5962 1.5962 1.5924 1.5924 1.5846 1.5808 1.5808 1.5693 1.5655 1.5617 1.558 1.5505 1.5505 1.5468 1.5505
3.2695 3.2695 3.286 3.3196 3.286 3.2369 3.2531 3.2369 3.2695 3.286 3.286 3.3196 3.3028 3.286 3.286 3.3028 3.3028 3.3028 3.2695 3.2369 3.2207 3.1581 3.1427 3.1427 3.1126 3.0978 3.0685 2.9976 2.9838 2.9701 2.9838 2.9701 2.9701 2.9431 2.9167 2.9036 2.9566 2.9701 3.0255 3.0255 3.0255 3.0398 3.0255 3.0115 2.9976 2.9701 2.8908 2.8779 2.8653 2.8401 2.8277 2.8155 2.8155 2.8032 2.7793 2.7912 2.8032 2.7793 2.7793 2.7674 2.7556 2.7556 2.7556 2.7674 2.7674 2.7793 2.7793 2.7674 2.7674 2.7674 2.7674 2.7674 2.7674 2.744 2.7325 2.721 2.7096 2.6984 2.6871 2.6761 2.6651 2.6651 2.6651 2.6761 2.6651 2.6761 2.6761 2.6761 2.6761 2.6871 2.6761 2.6651 2.6543 2.622 2.622 2.601 2.56 2.5499 2.53 2.5201 2.5201 2.5104 2.5008 2.4911 2.4816 2.4628 2.4628 2.4535 2.4628 2.4535 2.4535 2.4535 2.435 2.435 2.4442 2.4442 2.4442 2.4442 2.4169 2.399 2.3902 2.3814 2.3814 2.3727 2.3727 2.3727 2.364 2.3555 2.3555 2.3555 2.3555 2.347 2.3555 2.3555 2.3385 2.347 2.3385 2.3385 2.3385 2.3385 2.3301 2.3301 2.3301 2.3135 2.3218 2.289 2.289 2.289 2.273 2.265 2.2571 2.2261 2.2185 2.211 2.2035 2.196 2.2035 2.196 2.1886 2.1886 2.1812 2.1812 2.1812 2.174 2.174 2.1666 2.174 2.1666 2.174 2.1666 2.174 2.1666 2.1666 2.1666 2.1666 2.1666 2.1595 2.1522 2.1595 2.1452 2.1381 2.1311 2.1311 2.1311 2.1103 2.1103 2.1035 2.0966 2.0966 2.0899 2.0899 2.0899 2.0833 2.0833 2.0833 2.0833 2.0765 2.0699 2.0634 2.0634 2.0439 2.0374 2.0246 2.0184 2.0121 2.0121 1.9997 1.9997 1.9936 1.9936 1.9875 1.9875 1.9875 1.9875 1.9754 1.9754 1.9754 1.9694 1.9694 1.9694 1.9634 1.9634 1.9575 1.9575 1.9516 1.9399 1.9341 1.9284 1.9341 1.9399 1.9399 1.9399 1.9399 1.9284 1.9226 1.9114 1.9114 1.9114 1.9114 1.9001 1.8946 1.8946 1.8891 1.8891 1.8891 1.8836 1.8836 1.8781 1.8727 1.8674 1.8674 1.862 1.862 1.8514 1.8514 1.8461 1.8461 1.8461 1.8409 1.8461 1.8461 1.8409 1.8409 1.8356 1.8356 1.8461 1.8409 1.8305 1.8305 1.8202 1.8202 1.8151 1.805 1.805 1.795 1.795 1.79 1.79 1.7851 1.7803 1.7705 1.7851 1.795 1.8 1.8 1.79 1.7754 1.7657 1.7561 1.7466 1.742 1.7328 1.7281 1.7235 1.7281 1.7235 1.7281 1.7235 1.7235 1.7144 1.7099 1.7054 1.6965 1.6876 1.6832 1.6832 1.6789 1.6789 1.6789 1.6745 1.6745 1.6745 1.6745 1.666 1.6616 1.6575 1.6365 1.6365 1.6324 1.6284 1.6324 1.6284 1.6201 1.6201 1.6242 1.6365 1.6406 1.6406 1.6449 1.6449 1.6324 1.6324 1.6284 1.6324 1.6284 1.6201 1.6121 1.6081 1.6041 1.6041 1.6002 1.6002 1.6041 1.6002 1.6002 1.5962 1.6002 1.5962 1.5962 1.5924 1.5846 1.5846 1.5769 1.5693 1.5693 1.5655 1.5617 1.558 1.5542 1.5542
3.2695 3.2695 3.2695 3.3196 3.286 3.2531 3.2369 3.2531 3.2531 3.2695 3.286 3.3028 3.3028 3.286 3.2695 3.286 3.3028 3.286 3.2695 3.2369 3.2207 3.1427 3.1276 3.1126 3.0978 3.083 3.0255 2.9701 2.9566 2.9431 2.9431 2.9299 2.9299 2.9167 2.9036 2.8908 2.9431 2.9701 2.9976 3.0115 3.0115 3.0115 3.0115 3.0115 2.9976 2.9566 2.8779 2.8653 2.8526 2.8277 2.8155 2.8155 2.8032 2.8032 2.7793 2.7912 2.7912 2.7912 2.7793 2.7793 2.7674 2.7674 2.7674 2.7674 2.7793 2.7793 2.7793 2.7793 2.7674 2.7674 2.7674 2.7793 2.7674 2.744 2.7325 2.721 2.6984 2.6984 2.6871 2.6761 2.6651 2.6651 2.6761 2.6761 2.6761 2.6761 2.6761 2.6761 2.6871 2.6871 2.6651 2.6651 2.6543 2.622 2.622 2.601 2.56 2.5499 2.53 2.53 2.5201 2.5201 2.5104 2.5008 2.4816 2.4721 2.4628 2.4628 2.4628 2.4628 2.4535 2.4535 2.435 2.435 2.4442 2.4442 2.4535 2.435 2.4169 2.399 2.3902 2.3814 2.3902 2.3814 2.3727 2.3727 2.3727 2.3555 2.3555 2.364 2.364 2.347 2.347 2.347 2.3385 2.347 2.3385 2.3385 2.3385 2.3385 2.3385 2.3385 2.3218 2.3218 2.3135 2.289 2.289 2.289 2.265 2.2571 2.2492 2.2185 2.2185 2.2185 2.2035 2.2035 2.196 2.196 2.196 2.1812 2.1812 2.1812 2.1812 2.1812 2.174 2.174 2.1666 2.1666 2.174 2.174 2.1666 2.1666 2.174 2.1595 2.1666 2.1666 2.1522 2.1522 2.1452 2.1452 2.1381 2.1241 2.1241 2.1241 2.1103 2.1103 2.1035 2.0966 2.0899 2.0899 2.0833 2.0833 2.0765 2.0833 2.0833 2.0699 2.0699 2.0699 2.0568 2.0634 2.0374 2.031 2.0246 2.0121 2.0121 2.0121 1.9997 1.9997 1.9936 1.9875 1.9875 1.9875 1.9936 1.9875 1.9754 1.9754 1.9694 1.9694 1.9634 1.9634 1.9575 1.9575 1.9575 1.9516 1.9516 1.9458 1.9399 1.9341 1.9341 1.9341 1.9341 1.9399 1.9399 1.9341 1.9284 1.917 1.917 1.917 1.9058 1.9001 1.8946 1.8891 1.8836 1.8891 1.8836 1.8836 1.8836 1.8727 1.8674 1.8674 1.862 1.862 1.862 1.8514 1.8461 1.8461 1.8409 1.8409 1.8409 1.8356 1.8409 1.8305 1.8305 1.8305 1.8305 1.8356 1.8305 1.8253 1.8202 1.8253 1.8202 1.8202 1.805 1.805 1.8 1.795 1.795 1.79 1.79 1.7851 1.7754 1.7803 1.79 1.79 1.79 1.7851 1.7754 1.7705 1.7561 1.742 1.742 1.7281 1.7281 1.7281 1.7235 1.7328 1.7281 1.7235 1.7235 1.7189 1.7189 1.7189 1.7054 1.7009 1.6965 1.6832 1.6832 1.6789 1.6789 1.6745 1.6703 1.6745 1.6703 1.6616 1.6616 1.6575 1.6365 1.6324 1.6284 1.6284 1.6324 1.6324 1.6242 1.6201 1.6324 1.6406 1.6449 1.6449 1.649 1.649 1.6406 1.6365 1.6324 1.6324 1.6284 1.6201 1.6081 1.6041 1.6002 1.6041 1.6002 1.5962 1.6041 1.6041 1.5962 1.5962 1.6002 1.6002 1.5962 1.5962 1.5924 1.5885 1.5808 1.5769 1.573 1.5693 1.5693 1.5617 1.5542 1.558
3.2695 3.2695 3.2695 3.3196 3.3028 3.2531 3.2695 3.2369 3.2531 3.2695 3.286 3.3028 3.3028 3.286 3.2531 3.2695 3.286 3.286 3.2695 3.2207 3.1891 3.1276 3.1276 3.1126 3.083 3.054 3.0115 2.9299 2.9299 2.9167 2.9167 2.9167 2.9167 2.9167 2.8908 2.8908 2.9431 2.9566 2.9838 2.9976 2.9976 3.0115 2.9976 2.9976 2.9838 2.9431 2.8779 2.8526 2.8526 2.8155 2.8032 2.8032 2.8155 2.8032 2.7912 2.7912 2.8032 2.8032 2.7912 2.7793 2.7674 2.7674 2.7674 2.7793 2.7793 2.7793 2.7793 2.7793 2.7674 2.7674 2.7674 2.7674 2.7674 2.7325 2.7325 2.7096 2.6984 2.6871 2.6871 2.6651 2.6651 2.6761 2.6761 2.6761 2.6871 2.6761 2.6761 2.6761 2.6761 2.6871 2.6651 2.6543 2.6543 2.622 2.6115 2.5906 2.56 2.5499 2.5201 2.5201 2.5201 2.5104 2.5008 2.5008 2.4911 2.4816 2.4721 2.4721 2.4628 2.4535 2.4535 2.4442 2.435 2.435 2.435 2.435 2.435 2.435 2.4169 2.4079 2.3902 2.3902 2.3814 2.3814 2.3814 2.3727 2.364 2.364 2.3555 2.364 2.364 2.3385 2.347 2.347 2.3301 2.3301 2.3218 2.3218 2.3301 2.3301 2.3301 2.3301 2.3301 2.3135 2.3135 2.289 2.289 2.281 2.273 2.2571 2.2492 2.2261 2.2185 2.211 2.2035 2.196 2.196 2.1886 2.1812 2.1812 2.1812 2.1812 2.174 2.1812 2.1666 2.1666 2.1595 2.1595 2.1666 2.1666 2.1666 2.1666 2.1666 2.1595 2.1522 2.1522 2.1522 2.1452 2.1381 2.1381 2.1241 2.1103 2.1103 2.1035 2.0966 2.0966 2.0899 2.0833 2.0833 2.0699 2.0765 2.0699 2.0765 2.0765 2.0765 2.0634 2.0634 2.0634 2.0568 2.0568 2.031 2.0246 2.0246 2.0121 2.0121 2.0121 2.0059 1.9997 1.9997 1.9875 1.9875 1.9875 1.9875 1.9875 1.9694 1.9634 1.9634 1.9575 1.9575 1.9575 1.9458 1.9516 1.9458 1.9458 1.9399 1.9399 1.9341 1.9284 1.9226 1.9226 1.9284 1.9284 1.9284 1.9226 1.917 1.9114 1.9114 1.9114 1.9058 1.8891 1.8891 1.8891 1.8836 1.8836 1.8836 1.8781 1.8781 1.8674 1.8674 1.8674 1.862 1.8566 1.862 1.8461 1.8409 1.8409 1.8356 1.8409 1.8253 1.8253 1.8253 1.8202 1.8202 1.8202 1.8202 1.8253 1.8202 1.8151 1.805 1.81 1.8151 1.8202 1.8151 1.81 1.805 1.795 1.79 1.79 1.79 1.79 1.7803 1.7803 1.7803 1.7754 1.7754 1.7754 1.7657 1.7609 1.7514 1.742 1.7374 1.7328 1.7281 1.7235 1.7235 1.7281 1.7235 1.7235 1.7235 1.7189 1.7235 1.7281 1.7099 1.7054 1.6965 1.6876 1.6832 1.6832 1.6789 1.6745 1.6745 1.6703 1.666 1.6616 1.6575 1.6575 1.6365 1.6324 1.6284 1.6284 1.6324 1.6324 1.6284 1.6242 1.6365 1.6449 1.649 1.649 1.649 1.649 1.6406 1.6365 1.6365 1.6284 1.6284 1.6201 1.6002 1.6002 1.5962 1.5924 1.5924 1.5924 1.6002 1.6002 1.5962 1.5924 1.5962 1.6002 1.6002 1.5962 1.5924 1.5924 1.5808 1.5769 1.5769 1.573 1.5655 1.5617 1.5542 1.558
3.286 3.2695 3.2695 3.3367 3.3196 3.286 3.3028 3.2695 3.286 3.3028 3.3196 3.3367 3.3196 3.286 3.2531 3.2695 3.286 3.286 3.2531 3.2207 3.1735 3.1427 3.1276 3.1276 3.083 3.054 3.0115 2.9431 2.9299 2.9431 2.9431 2.9431 2.9299 2.9299 2.9036 2.8908 2.9566 2.9701 3.0115 3.0115 2.9976 3.0115 2.9976 2.9976 2.9976 2.9566 2.8908 2.8653 2.8526 2.8401 2.8155 2.8155 2.8401 2.8277 2.8032 2.8032 2.8155 2.8155 2.8155 2.8032 2.7912 2.7793 2.7793 2.7793 2.7793 2.7793 2.7793 2.7793 2.7674 2.7793 2.7793 2.7793 2.7674 2.7325 2.7325 2.7325 2.6984 2.6871 2.6871 2.6761 2.6651 2.6761 2.6761 2.6761 2.6761 2.6651 2.6761 2.6651 2.6761 2.6761 2.6651 2.6543 2.6434 2.6326 2.622 2.5906 2.5701 2.56 2.5104 2.5201 2.5201 2.5104 2.5008 2.5008 2.4911 2.4911 2.4816 2.4721 2.4721 2.4535 2.4628 2.4442 2.435 2.435 2.435 2.426 2.426 2.426 2.4079 2.399 2.3902 2.3902 2.3814 2.3814 2.3727 2.3814 2.364 2.364 2.364 2.3555 2.364 2.347 2.3385 2.3385 2.3301 2.3301 2.3218 2.3218 2.3301 2.3301 2.3301 2.3301 2.3218 2.3301 2.3218 2.3053 2.3053 2.2971 2.281 2.273 2.2571 2.2339 2.2261 2.2185 2.211 2.2035 2.196 2.196 2.1812 2.1886 2.1812 2.1812 2.1812 2.1812 2.174 2.1595 2.1595 2.1666 2.1666 2.1666 2.1666 2.1666 2.1666 2.1522 2.1522 2.1522 2.1452 2.1452 2.1381 2.1381 2.1241 2.1103 2.1035 2.0966 2.0899 2.0899 2.0833 2.0699 2.0699 2.0634 2.0699 2.0699 2.0765 2.0833 2.0833 2.0634 2.0634 2.0634 2.0634 2.0634 2.0374 2.031 2.0246 2.0121 2.0121 2.0184 2.0059 2.0059 2.0059 1.9997 1.9936 1.9936 1.9875 1.9875 1.9754 1.9634 1.9634 1.9516 1.9516 1.9516 1.9516 1.9516 1.9399 1.9399 1.9399 1.9399 1.9341 1.9226 1.9226 1.9284 1.9226 1.9284 1.9284 1.9114 1.9114 1.9058 1.9114 1.9058 1.9001 1.8891 1.8836 1.8891 1.8836 1.8836 1.8836 1.8781 1.8781 1.8674 1.8674 1.8674 1.8674 1.862 1.8566 1.8461 1.8409 1.8356 1.8356 1.8409 1.8202 1.8202 1.8202 1.8151 1.8151 1.8151 1.8151 1.8202 1.8151 1.81 1.8 1.805 1.81 1.81 1.81 1.81 1.805 1.795 1.79 1.795 1.795 1.795 1.7851 1.7803 1.7803 1.7705 1.7657 1.7657 1.7609 1.7561 1.7466 1.7374 1.7328 1.7281 1.7328 1.7235 1.7235 1.7281 1.7235 1.7189 1.7235 1.7189 1.7235 1.7281 1.7235 1.7144 1.7054 1.692 1.6876 1.6876 1.6876 1.6832 1.6789 1.6745 1.6703 1.6616 1.6575 1.6616 1.6449 1.6406 1.6324 1.6324 1.6324 1.6324 1.6324 1.6284 1.6406 1.649 1.649 1.649 1.649 1.649 1.6449 1.6406 1.6365 1.6242 1.6242 1.6161 1.6002 1.5962 1.5924 1.5924 1.5924 1.5924 1.6002 1.5962 1.5962 1.5924 1.6002 1.6041 1.6041 1.6041 1.6002 1.5962 1.5885 1.5846 1.5846 1.573 1.573 1.5655 1.558 1.558
3.2695 3.2531 3.2531 3.3028 3.286 3.2695 3.2695 3.2531 3.2695 3.286 3.3028 3.3196 3.3028 3.2695 3.2531 3.2531 3.2695 3.2695 3.2531 3.2207 3.1735 3.1581 3.1427 3.1581 3.0978 3.054 3.0115 2.9566 2.9299 2.9431 2.9566 2.9431 2.9431 2.9299 2.9167 2.9036 2.9431 2.9566 3.0115 3.0255 2.9976 3.0115 3.0115 3.0115 3.0115 2.9701 2.9167 2.8908 2.8779 2.8526 2.8277 2.8401 2.8277 2.8277 2.8155 2.8277 2.8155 2.8277 2.8155 2.8032 2.7912 2.7793 2.7793 2.7793 2.7793 2.7793 2.7793 2.7793 2.7674 2.7793 2.7674 2.7674 2.7556 2.744 2.7325 2.721 2.6984 2.6871 2.6871 2.6761 2.6651 2.6651 2.6761 2.6651 2.6651 2.6651 2.6651 2.6651 2.6761 2.6651 2.6651 2.6543 2.6434 2.6434 2.6115 2.601 2.5802 2.56 2.5201 2.5201 2.53 2.5201 2.5104 2.5008 2.5008 2.5008 2.5008 2.4721 2.4721 2.4628 2.4535 2.4442 2.435 2.435 2.426 2.4169 2.4169 2.4169 2.4079 2.3902 2.3902 2.3814 2.3814 2.3727 2.364 2.364 2.364 2.3555 2.3555 2.3555 2.3555 2.3385 2.3385 2.3385 2.3301 2.3301 2.3301 2.3218 2.3218 2.3218 2.3218 2.3301 2.3218 2.3218 2.3218 2.3135 2.3053 2.3053 2.2971 2.281 2.273 2.2415 2.2339 2.2261 2.2185 2.211 2.2035 2.196 2.196 2.196 2.1886 2.196 2.1886 2.1886 2.1812 2.1666 2.1666 2.1595 2.1666 2.1666 2.1666 2.1666 2.1666 2.1595 2.1522 2.1595 2.1522 2.1522 2.1311 2.1311 2.1241 2.1103 2.1035 2.0966 2.0899 2.0899 2.0765 2.0699 2.0634 2.0634 2.0699 2.0765 2.0833 2.0765 2.0833 2.0699 2.0699 2.0699 2.0568 2.0568 2.0439 2.0374 2.0246 2.0184 2.0184 2.0184 2.0121 2.0059 2.0121 1.9936 1.9936 1.9875 1.9936 1.9875 1.9694 1.9634 1.9634 1.9516 1.9516 1.9516 1.9458 1.9516 1.9399 1.9399 1.9399 1.9399 1.9341 1.9284 1.9226 1.9226 1.9226 1.9226 1.9226 1.917 1.9114 1.9058 1.9058 1.9058 1.9001 1.8891 1.8891 1.8836 1.8836 1.8891 1.8836 1.8781 1.8781 1.8727 1.8727 1.8674 1.8674 1.862 1.862 1.8461 1.8409 1.8409 1.8356 1.8305 1.8202 1.8151 1.81 1.805 1.81 1.81 1.805 1.81 1.81 1.8 1.795 1.8 1.805 1.805 1.805 1.805 1.8 1.79 1.795 1.795 1.795 1.795 1.7803 1.7851 1.7754 1.7705 1.7657 1.7705 1.7561 1.7514 1.7466 1.7374 1.7328 1.7328 1.7328 1.7281 1.7235 1.7235 1.7235 1.7189 1.7235 1.7189 1.7189 1.7189 1.7189 1.7099 1.7099 1.692 1.692 1.6876 1.6832 1.6832 1.6789 1.6745 1.666 1.6616 1.6575 1.6575 1.649 1.6406 1.6365 1.6324 1.6324 1.6324 1.6284 1.6365 1.6449 1.649 1.6533 1.6533 1.6533 1.6575 1.6449 1.649 1.6406 1.6284 1.6242 1.6121 1.6041 1.5962 1.5924 1.5924 1.5924 1.5962 1.5962 1.5962 1.5962 1.5962 1.6041 1.6081 1.6081 1.6041 1.6041 1.5962 1.5924 1.5885 1.5846 1.5769 1.5693 1.5655 1.558 1.558
3.3196 3.286 3.286 3.3196 3.3196 3.286 3.286 3.2531 3.286 3.3028 3.3028 3.3028 3.3028 3.2531 3.2531 3.2531 3.2531 3.2531 3.2207 3.2207 3.2049 3.1735 3.1735 3.1581 3.1427 3.1126 3.0685 3.0255 3.0115 3.0115 2.9838 2.9566 2.9299 2.9167 2.9167 2.9167 2.9431 2.9566 2.9976 3.0255 3.0115 3.0255 3.0255 3.0255 3.0115 2.9976 2.9566 2.9299 2.9167 2.8779 2.8653 2.8653 2.8653 2.8653 2.8277 2.8401 2.8277 2.8277 2.8155 2.8032 2.7793 2.7674 2.7674 2.7793 2.7793 2.7674 2.7556 2.7674 2.7556 2.7674 2.7674 2.7556 2.7556 2.744 2.721 2.721 2.6871 2.6871 2.6871 2.6761 2.6871 2.6761 2.6761 2.6761 2.6761 2.6543 2.6543 2.6543 2.6651 2.6543 2.6543 2.6543 2.6434 2.6434 2.6326 2.6115 2.5906 2.5701 2.5499 2.5399 2.53 2.53 2.53 2.5104 2.5104 2.5008 2.5104 2.4816 2.4721 2.4628 2.4628 2.4535 2.435 2.435 2.426 2.4169 2.4169 2.4169 2.4079 2.3902 2.3902 2.3814 2.3727 2.3555 2.3555 2.3555 2.3555 2.347 2.3385 2.3385 2.3385 2.3385 2.3385 2.3385 2.3301 2.3301 2.3218 2.3218 2.3301 2.3301 2.3218 2.3301 2.3301 2.3301 2.3301 2.3218 2.3218 2.3135 2.3053 2.289 2.281 2.2571 2.2415 2.2415 2.2261 2.2261 2.2185 2.211 2.2035 2.2035 2.2035 2.196 2.196 2.1812 2.174 2.1666 2.1666 2.1666 2.1666 2.1666 2.1666 2.1666 2.1595 2.1522 2.1522 2.1522 2.1452 2.1452 2.1311 2.1241 2.1171 2.1035 2.1035 2.0966 2.0966 2.0899 2.0833 2.0634 2.0634 2.0699 2.0765 2.0833 2.0899 2.0899 2.0899 2.0833 2.0765 2.0765 2.0699 2.0634 2.0503 2.0374 2.031 2.0184 2.0184 2.0184 2.0121 2.0059 2.0059 1.9997 1.9875 1.9875 1.9875 1.9875 1.9694 1.9634 1.9634 1.9516 1.9516 1.9516 1.9458 1.9458 1.9458 1.9399 1.9399 1.9284 1.9284 1.9284 1.9226 1.9226 1.917 1.9114 1.917 1.9114 1.9114 1.9114 1.9114 1.9114 1.9058 1.9001 1.9001 1.9001 1.8891 1.8891 1.8891 1.8781 1.8836 1.8727 1.8727 1.8727 1.8674 1.8674 1.862 1.8514 1.8461 1.8356 1.8356 1.8253 1.81 1.805 1.805 1.795 1.795 1.795 1.795 1.795 1.795 1.79 1.7851 1.79 1.805 1.8 1.805 1.805 1.795 1.79 1.79 1.7851 1.79 1.79 1.7803 1.7803 1.7754 1.7705 1.7657 1.7609 1.7561 1.7466 1.7466 1.7374 1.7374 1.7328 1.7281 1.7235 1.7235 1.7235 1.7281 1.7235 1.7328 1.7281 1.7189 1.7144 1.7144 1.7144 1.7144 1.6965 1.6965 1.692 1.6876 1.6876 1.6832 1.6745 1.6703 1.6616 1.6616 1.6575 1.6533 1.649 1.6406 1.6365 1.6365 1.6365 1.6365 1.6365 1.6449 1.6575 1.6575 1.6575 1.6575 1.6616 1.6533 1.649 1.649 1.6324 1.6284 1.6201 1.6081 1.6041 1.6041 1.6041 1.6041 1.6041 1.6041 1.6041 1.6041 1.6041 1.6081 1.6121 1.6121 1.6041 1.6041 1.6002 1.5962 1.5924 1.5885 1.5808 1.5769 1.5693 1.558 1.5542
3.3367 3.3028 3.3028 3.3367 3.3367 3.3196 3.3028 3.286 3.3028 3.3196 3.3028 3.3196 3.286 3.2695 3.2531 3.2531 3.2531 3.2531 3.2207 3.2207 3.2049 3.1891 3.1891 3.1735 3.1581 3.1427 3.0978 3.0398 3.054 3.0255 2.9976 2.9566 2.9299 2.9167 2.9167 2.9167 2.9431 2.9566 2.9976 3.0115 3.0115 3.0255 3.0255 3.0255 3.0255 2.9976 2.9838 2.9566 2.9431 2.9036 2.8779 2.8653 2.8779 2.8653 2.8526 2.8401 2.8277 2.8277 2.8155 2.7912 2.7793 2.7674 2.7674 2.7674 2.7793 2.7674 2.7556 2.7556 2.7556 2.7556 2.7556 2.7556 2.744 2.7325 2.721 2.7096 2.6984 2.6871 2.6984 2.6871 2.6871 2.6761 2.6761 2.6761 2.6761 2.6651 2.6543 2.6543 2.6543 2.6651 2.6434 2.6434 2.6543 2.6434 2.6326 2.622 2.5906 2.5906 2.5499 2.5399 2.5399 2.53 2.5201 2.5104 2.5104 2.5104 2.5104 2.4816 2.4721 2.4628 2.4535 2.4535 2.435 2.435 2.426 2.426 2.4169 2.4169 2.399 2.3902 2.3902 2.3814 2.3727 2.3555 2.3555 2.3555 2.3555 2.347 2.3385 2.3301 2.3301 2.3301 2.3385 2.3301 2.3385 2.3301 2.3218 2.3218 2.3301 2.3301 2.3301 2.3301 2.3301 2.3385 2.347 2.3301 2.3218 2.3218 2.2971 2.289 2.281 2.2571 2.2571 2.2492 2.2339 2.2339 2.2185 2.2185 2.211 2.2035 2.2035 2.2035 2.196 2.1886 2.174 2.1595 2.1595 2.1595 2.1595 2.1666 2.1666 2.1666 2.1595 2.1522 2.1452 2.1522 2.1381 2.1381 2.1241 2.1241 2.1171 2.1035 2.1035 2.1035 2.0966 2.0966 2.0899 2.0833 2.0765 2.0765 2.0833 2.0899 2.0966 2.0899 2.0899 2.0833 2.0899 2.0833 2.0634 2.0634 2.0439 2.0374 2.031 2.0184 2.0121 2.0121 2.0121 2.0059 2.0059 1.9936 1.9875 1.9875 1.9875 1.9814 1.9694 1.9634 1.9575 1.9575 1.9516 1.9458 1.9516 1.9458 1.9458 1.9399 1.9399 1.9284 1.9284 1.9226 1.9226 1.917 1.9114 1.9114 1.9114 1.917 1.9114 1.917 1.9114 1.917 1.9114 1.9058 1.9058 1.9001 1.8946 1.8946 1.8891 1.8836 1.8836 1.8727 1.8727 1.8674 1.8674 1.8674 1.8566 1.8514 1.8461 1.8409 1.8305 1.8253 1.805 1.8 1.795 1.795 1.795 1.795 1.79 1.79 1.795 1.79 1.7851 1.79 1.805 1.805 1.805 1.805 1.8 1.79 1.79 1.7851 1.7851 1.7803 1.7803 1.7754 1.7705 1.7657 1.7657 1.7609 1.7561 1.7561 1.7466 1.742 1.742 1.7328 1.7281 1.7189 1.7189 1.7281 1.7235 1.7328 1.7328 1.7328 1.7235 1.7144 1.7189 1.7144 1.7144 1.7009 1.692 1.6965 1.6876 1.6876 1.6832 1.6789 1.6703 1.6616 1.6616 1.6616 1.6533 1.649 1.6449 1.6406 1.6406 1.6365 1.6365 1.6365 1.6449 1.6533 1.6575 1.6575 1.6616 1.6575 1.6575 1.649 1.6449 1.6365 1.6284 1.6242 1.6121 1.6121 1.6081 1.6081 1.6081 1.6121 1.6121 1.6121 1.6081 1.6081 1.6081 1.6121 1.6081 1.6041 1.6041 1.6002 1.5924 1.5885 1.5885 1.5769 1.573 1.5693 1.558 1.5542
3.3367 3.3196 3.3028 3.354 3.354 3.3196 3.286 3.2531 3.2695 3.3028 3.286 3.286 3.286 3.2369 3.2369 3.2369 3.2369 3.2531 3.2207 3.2049 3.1891 3.1891 3.1735 3.1735 3.1581 3.1427 3.1126 3.0685 3.0685 3.0398 3.0115 2.9701 2.9566 2.9431 2.9431 2.9299 2.9566 2.9566 2.9566 2.9566 2.9701 3.0115 3.0115 2.9976 2.9976 2.9701 2.9566 2.9566 2.9299 2.9036 2.8908 2.8653 2.8653 2.8526 2.8401 2.8401 2.8277 2.8155 2.8032 2.7793 2.744 2.7325 2.7325 2.744 2.744 2.7325 2.7325 2.7325 2.7325 2.744 2.7325 2.721 2.7096 2.6984 2.6761 2.6651 2.6651 2.6651 2.6651 2.6761 2.6761 2.6651 2.6651 2.6543 2.6434 2.6115 2.6115 2.601 2.601 2.601 2.601 2.5906 2.5906 2.601 2.5906 2.5906 2.5701 2.5701 2.53 2.53 2.5201 2.5104 2.5008 2.5008 2.4911 2.5008 2.5008 2.4721 2.4628 2.4535 2.4628 2.4535 2.435 2.4169 2.4079 2.399 2.4079 2.4079 2.399 2.3902 2.3814 2.3814 2.3727 2.3555 2.3555 2.364 2.3555 2.347 2.3385 2.3301 2.3301 2.3218 2.3218 2.3218 2.3218 2.3218 2.3135 2.3053 2.3218 2.3135 2.3218 2.3218 2.3218 2.3301 2.3301 2.3301 2.3301 2.3218 2.289 2.289 2.281 2.265 2.2571 2.2492 2.2339 2.2339 2.2185 2.2185 2.2185 2.2035 2.2035 2.2035 2.1886 2.1812 2.174 2.1666 2.1595 2.1595 2.1666 2.1666 2.1666 2.1666 2.1595 2.1522 2.1452 2.1452 2.1381 2.1311 2.1241 2.1171 2.1171 2.1103 2.1103 2.1035 2.1035 2.0966 2.0899 2.0833 2.0833 2.0765 2.0899 2.0833 2.0899 2.0966 2.0966 2.0833 2.0899 2.0833 2.0699 2.0634 2.0503 2.0439 2.0374 2.0184 2.0121 2.0121 2.0059 2.0059 2.0059 1.9997 1.9997 1.9814 1.9814 1.9814 1.9634 1.9575 1.9575 1.9516 1.9516 1.9516 1.9516 1.9516 1.9399 1.9458 1.9399 1.9341 1.9284 1.9226 1.917 1.9114 1.9114 1.9058 1.9114 1.9114 1.9114 1.9114 1.9114 1.917 1.9114 1.9114 1.9114 1.9058 1.8946 1.8891 1.8891 1.8836 1.8836 1.8727 1.8727 1.8674 1.862 1.862 1.8566 1.8514 1.8461 1.8409 1.8356 1.8305 1.805 1.805 1.795 1.79 1.79 1.79 1.7803 1.7754 1.7803 1.7803 1.7754 1.7803 1.795 1.8 1.79 1.79 1.7851 1.7851 1.7851 1.7851 1.7803 1.7803 1.7754 1.7754 1.7705 1.7705 1.7657 1.7657 1.7561 1.7514 1.7466 1.742 1.7374 1.7328 1.7281 1.7235 1.7189 1.7235 1.7235 1.7235 1.7281 1.7281 1.7189 1.7144 1.7144 1.7144 1.7144 1.6965 1.6876 1.6876 1.6876 1.6832 1.6789 1.6745 1.6703 1.666 1.666 1.666 1.6575 1.6533 1.649 1.6406 1.6365 1.6406 1.6365 1.6365 1.6449 1.6533 1.6533 1.6533 1.6575 1.6575 1.6533 1.649 1.6449 1.6324 1.6284 1.6242 1.6121 1.6121 1.6121 1.6121 1.6121 1.6121 1.6161 1.6121 1.6121 1.6121 1.6121 1.6081 1.6002 1.6002 1.5962 1.5962 1.5885 1.5846 1.5769 1.5693 1.5655 1.5655 1.558 1.558
3.354 3.3196 3.286 3.3367 3.3367 3.3196 3.2531 3.2531 3.2531 3.2695 3.2695 3.286 3.2695 3.2531 3.2369 3.2369 3.2531 3.2531 3.2207 3.1891 3.2049 3.1891 3.1891 3.1891 3.1735 3.1581 3.1276 3.1126 3.1126 3.083 3.054 3.0115 2.9701 2.9701 2.9566 2.9701 2.9838 2.9701 2.9566 2.9566 2.9566 2.9976 2.9838 2.9976 2.9701 2.9566 2.9299 2.9299 2.9167 2.8779 2.8779 2.8779 2.8653 2.8526 2.8401 2.8401 2.8277 2.8155 2.8032 2.7912 2.7556 2.744 2.7556 2.7556 2.7674 2.7556 2.744 2.744 2.7325 2.744 2.744 2.7096 2.6984 2.6871 2.6543 2.6651 2.6651 2.6651 2.6651 2.6651 2.6543 2.6543 2.6543 2.6543 2.6326 2.6115 2.5906 2.5906 2.5802 2.5906 2.5802 2.5802 2.5906 2.5701 2.5802 2.5701 2.56 2.56 2.53 2.53 2.5201 2.5008 2.5008 2.5008 2.4911 2.5008 2.5008 2.4816 2.4628 2.4628 2.4628 2.4628 2.4442 2.426 2.4079 2.4079 2.4079 2.4079 2.399 2.3902 2.3727 2.3727 2.3727 2.3555 2.3555 2.364 2.3555 2.347 2.3385 2.3301 2.3301 2.3218 2.3218 2.3301 2.3135 2.3135 2.3135 2.3053 2.3218 2.3135 2.3218 2.3218 2.3218 2.3301 2.3301 2.3301 2.3218 2.3135 2.289 2.281 2.281 2.265 2.265 2.2571 2.2339 2.2339 2.2261 2.2261 2.2261 2.211 2.211 2.2035 2.196 2.1886 2.1812 2.174 2.1666 2.174 2.1666 2.1666 2.1666 2.1595 2.1522 2.1452 2.1452 2.1452 2.1381 2.1311 2.1241 2.1171 2.1171 2.1171 2.1103 2.1035 2.1103 2.1035 2.0966 2.0899 2.0899 2.0899 2.0966 2.0899 2.0966 2.1035 2.1035 2.0899 2.0899 2.0899 2.0699 2.0568 2.0568 2.0503 2.0439 2.0246 2.0184 2.0184 2.0059 2.0059 2.0059 1.9997 1.9997 1.9875 1.9814 1.9814 1.9634 1.9634 1.9575 1.9575 1.9575 1.9634 1.9575 1.9575 1.9516 1.9516 1.9458 1.9399 1.9399 1.9341 1.917 1.917 1.9114 1.9114 1.917 1.9114 1.917 1.917 1.9114 1.917 1.917 1.9114 1.9114 1.9114 1.8946 1.8891 1.8891 1.8781 1.8781 1.8727 1.8727 1.8674 1.862 1.862 1.862 1.8514 1.8514 1.8514 1.8409 1.8356 1.8151 1.805 1.805 1.795 1.795 1.795 1.79 1.7803 1.7803 1.7803 1.7754 1.7803 1.795 1.8 1.795 1.79 1.7851 1.7851 1.7851 1.7851 1.7803 1.7803 1.7754 1.7705 1.7705 1.7657 1.7657 1.7657 1.7609 1.7514 1.7466 1.742 1.742 1.7328 1.7281 1.7189 1.7189 1.7189 1.7189 1.7235 1.7281 1.7281 1.7189 1.7144 1.7144 1.7144 1.7099 1.6965 1.692 1.6876 1.6876 1.6832 1.6832 1.6745 1.6745 1.666 1.666 1.6703 1.6616 1.6533 1.649 1.6406 1.6406 1.6406 1.6406 1.649 1.6533 1.6533 1.6575 1.6575 1.666 1.6616 1.6575 1.6533 1.649 1.6365 1.6324 1.6284 1.6161 1.6161 1.6161 1.6161 1.6161 1.6161 1.6161 1.6121 1.6161 1.6242 1.6201 1.6081 1.6041 1.5962 1.5962 1.5962 1.5885 1.5846 1.5769 1.5693 1.5655 1.5655 1.558 1.558
3.3367 3.3028 3.2695 3.286 3.3196 3.3028 3.2369 3.2207 3.2369 3.2531 3.2531 3.2695 3.2531 3.2369 3.2369 3.2369 3.2531 3.2695 3.2049 3.1891 3.2049 3.2049 3.2049 3.2049 3.1735 3.1735 3.1427 3.1126 3.1276 3.083 3.0685 3.0255 2.9838 2.9701 2.9566 2.9566 2.9701 2.9566 2.9431 2.9566 2.9566 2.9701 2.9701 2.9701 2.9566 2.9299 2.9167 2.9167 2.8908 2.8779 2.8653 2.8653 2.8653 2.8526 2.8526 2.8401 2.8401 2.8155 2.8032 2.7912 2.7793 2.7674 2.7674 2.7793 2.7793 2.7793 2.7674 2.7556 2.744 2.7325 2.744 2.6984 2.6871 2.6761 2.6434 2.6543 2.6543 2.6543 2.6651 2.6651 2.6543 2.6434 2.6434 2.6434 2.622 2.601 2.5802 2.5701 2.56 2.5701 2.5701 2.5701 2.56 2.56 2.56 2.5499 2.5499 2.5399 2.53 2.5201 2.5104 2.5008 2.5008 2.5008 2.5008 2.5008 2.5008 2.4816 2.4628 2.4628 2.4628 2.4721 2.4442 2.426 2.4169 2.4169 2.4079 2.4169 2.399 2.3902 2.3727 2.3727 2.364 2.3555 2.3555 2.364 2.347 2.3555 2.3301 2.3301 2.3301 2.3218 2.3218 2.3301 2.3135 2.3053 2.3053 2.3053 2.3135 2.3135 2.3218 2.3218 2.3218 2.3301 2.3301 2.3135 2.3218 2.3135 2.289 2.281 2.281 2.265 2.265 2.2415 2.2415 2.2261 2.2261 2.2339 2.2185 2.2185 2.2185 2.211 2.196 2.1886 2.1886 2.174 2.1666 2.1666 2.1666 2.1666 2.1595 2.1595 2.1522 2.1381 2.1381 2.1381 2.1311 2.1241 2.1171 2.1171 2.1171 2.1103 2.1103 2.1103 2.1103 2.1103 2.1035 2.0966 2.1035 2.1035 2.0966 2.1035 2.1035 2.1103 2.1103 2.0966 2.0966 2.0899 2.0699 2.0634 2.0568 2.0503 2.0374 2.0246 2.0121 2.0121 2.0059 2.0121 2.0121 1.9997 1.9997 1.9875 1.9875 1.9814 1.9694 1.9694 1.9634 1.9634 1.9634 1.9575 1.9634 1.9634 1.9516 1.9575 1.9575 1.9516 1.9458 1.9341 1.9284 1.917 1.917 1.917 1.917 1.9114 1.9114 1.9114 1.9114 1.9114 1.9114 1.9058 1.9114 1.9001 1.8946 1.8836 1.8836 1.8727 1.8781 1.8674 1.8727 1.8674 1.8674 1.862 1.8674 1.862 1.862 1.8566 1.8514 1.8461 1.8151 1.81 1.81 1.8 1.8 1.8 1.79 1.7851 1.79 1.7803 1.7754 1.7851 1.795 1.805 1.795 1.79 1.79 1.7851 1.7851 1.7851 1.7803 1.7803 1.7705 1.7657 1.7657 1.7609 1.7657 1.7657 1.7609 1.7561 1.7514 1.7374 1.7374 1.7328 1.7281 1.7189 1.7189 1.7189 1.7144 1.7189 1.7281 1.7235 1.7189 1.7144 1.7144 1.7099 1.7099 1.6965 1.692 1.692 1.6876 1.6876 1.6832 1.6789 1.6703 1.666 1.6616 1.666 1.6616 1.6575 1.649 1.6406 1.6365 1.6406 1.6449 1.649 1.649 1.6616 1.6616 1.6616 1.6703 1.666 1.6575 1.6575 1.6533 1.6406 1.6324 1.6284 1.6161 1.6201 1.6161 1.6201 1.6201 1.6121 1.6161 1.6161 1.6161 1.6242 1.6201 1.6081 1.6081 1.5962 1.5962 1.5962 1.5924 1.5885 1.5808 1.5693 1.5655 1.5617 1.5617 1.558
3.286 3.2695 3.2531 3.286 3.3028 3.3028 3.2369 3.2207 3.2049 3.2369 3.2369 3.2531 3.2531 3.2369 3.2207 3.2369 3.2531 3.2531 3.2049 3.2049 3.2049 3.2049 3.2207 3.2049 3.2049 3.1891 3.1581 3.1276 3.1427 3.0978 3.0685 3.0398 2.9976 2.9838 2.9701 2.9701 2.9701 2.9431 2.9299 2.9299 2.9167 2.9167 2.9167 2.9167 2.9299 2.9036 2.8908 2.9036 2.8908 2.8779 2.8653 2.8779 2.8653 2.8653 2.8526 2.8401 2.8401 2.8277 2.8155 2.8155 2.7912 2.7912 2.7793 2.7912 2.7912 2.7912 2.7793 2.7674 2.744 2.744 2.7325 2.721 2.6871 2.6761 2.6434 2.6434 2.6543 2.6543 2.6651 2.6543 2.6543 2.6434 2.6434 2.6543 2.6326 2.601 2.5802 2.5499 2.5499 2.5499 2.5499 2.56 2.56 2.5499 2.5499 2.5499 2.53 2.53 2.53 2.5201 2.5104 2.4911 2.4816 2.4911 2.4816 2.4911 2.4911 2.4721 2.4535 2.4535 2.4535 2.4535 2.4442 2.435 2.4169 2.4079 2.4079 2.4079 2.399 2.3902 2.3727 2.3727 2.3727 2.3555 2.364 2.3555 2.3555 2.3555 2.3385 2.3301 2.3301 2.3301 2.3218 2.3301 2.3135 2.3053 2.3053 2.3053 2.3218 2.3135 2.3218 2.3218 2.3218 2.3218 2.3301 2.3218 2.3218 2.3135 2.2971 2.281 2.281 2.273 2.265 2.2571 2.2415 2.2339 2.2339 2.2339 2.2261 2.2185 2.2185 2.211 2.196 2.1886 2.1812 2.174 2.174 2.1666 2.1666 2.1666 2.1522 2.1522 2.1452 2.1381 2.1311 2.1311 2.1311 2.1241 2.1103 2.1103 2.1171 2.1103 2.1103 2.1103 2.1035 2.0966 2.0966 2.0899 2.0966 2.0966 2.0966 2.1035 2.1035 2.1035 2.1035 2.0966 2.0966 2.0899 2.0699 2.0634 2.0568 2.0503 2.0374 2.0246 2.0184 2.0121 2.0059 2.0059 2.0121 2.0059 1.9997 1.9936 1.9875 1.9814 1.9754 1.9694 1.9634 1.9634 1.9694 1.9634 1.9575 1.9575 1.9516 1.9575 1.9575 1.9516 1.9458 1.9399 1.9226 1.9226 1.917 1.917 1.9226 1.9114 1.9114 1.9114 1.9114 1.9058 1.9001 1.8946 1.8946 1.8891 1.8781 1.8674 1.8674 1.862 1.8674 1.862 1.8674 1.8674 1.862 1.862 1.862 1.862 1.8674 1.862 1.8514 1.8461 1.8253 1.8253 1.8151 1.81 1.81 1.805 1.795 1.79 1.79 1.7851 1.7803 1.7851 1.79 1.795 1.79 1.7851 1.7803 1.7754 1.7754 1.7705 1.7803 1.7803 1.7705 1.7657 1.7609 1.7561 1.7561 1.7609 1.7561 1.7561 1.7466 1.7328 1.7328 1.7281 1.7281 1.7189 1.7144 1.7144 1.7189 1.7144 1.7235 1.7235 1.7189 1.7099 1.7144 1.7099 1.7099 1.6965 1.692 1.692 1.6876 1.6876 1.6832 1.6789 1.6703 1.666 1.666 1.666 1.6616 1.6533 1.649 1.6406 1.6365 1.6406 1.6449 1.6533 1.6533 1.6575 1.6616 1.6616 1.666 1.6616 1.6533 1.649 1.6449 1.6324 1.6284 1.6242 1.6121 1.6121 1.6121 1.6161 1.6161 1.6121 1.6081 1.6121 1.6121 1.6242 1.6201 1.6121 1.6041 1.5924 1.5924 1.5962 1.5885 1.5846 1.5769 1.5655 1.5617 1.5655 1.558 1.5542
3.3028 3.2369 3.2531 3.286 3.3196 3.3028 3.2531 3.2049 3.2207 3.2369 3.2369 3.2531 3.2531 3.2207 3.2207 3.2207 3.2369 3.2531 3.1891 3.1891 3.2049 3.2207 3.2207 3.2207 3.2049 3.2049 3.2049 3.1581 3.1735 3.1276 3.0978 3.0685 3.0398 3.0255 2.9976 2.9976 2.9838 2.9566 2.9167 2.9167 2.9167 2.9167 2.9036 2.9167 2.9167 2.9036 2.9036 2.9036 2.9036 2.9036 2.9036 2.9036 2.8908 2.8779 2.8653 2.8653 2.8653 2.8401 2.8155 2.8155 2.7912 2.8032 2.7912 2.8032 2.8155 2.8032 2.7912 2.7912 2.7674 2.7674 2.7556 2.721 2.7096 2.6984 2.6651 2.6543 2.6543 2.6651 2.6761 2.6543 2.6543 2.6543 2.6543 2.6651 2.6434 2.5906 2.5802 2.5499 2.5499 2.5499 2.56 2.56 2.56 2.56 2.5499 2.5499 2.53 2.53 2.53 2.5201 2.5104 2.4911 2.4911 2.4816 2.4816 2.4911 2.4816 2.4721 2.4628 2.4442 2.4535 2.4535 2.4442 2.435 2.426 2.4169 2.4169 2.426 2.4079 2.399 2.3902 2.3814 2.3814 2.3727 2.364 2.364 2.3555 2.3555 2.3385 2.3385 2.3385 2.3301 2.3385 2.3385 2.3218 2.3135 2.3135 2.3053 2.3218 2.3218 2.3218 2.3301 2.3218 2.3218 2.3301 2.3218 2.3218 2.3053 2.2971 2.289 2.289 2.273 2.265 2.265 2.2571 2.2492 2.2415 2.2415 2.2339 2.2339 2.2185 2.211 2.196 2.196 2.1886 2.174 2.1812 2.174 2.174 2.1666 2.1595 2.1595 2.1452 2.1452 2.1452 2.1381 2.1381 2.1311 2.1103 2.1103 2.1103 2.1103 2.1103 2.1103 2.1035 2.0966 2.0899 2.0966 2.0966 2.0966 2.0966 2.1035 2.1035 2.1103 2.1035 2.1035 2.0966 2.0966 2.0765 2.0699 2.0568 2.0503 2.0374 2.0184 2.0121 2.0121 2.0121 2.0059 2.0121 2.0059 2.0059 1.9936 1.9936 1.9875 1.9814 1.9754 1.9754 1.9634 1.9694 1.9694 1.9575 1.9634 1.9575 1.9575 1.9575 1.9575 1.9458 1.9399 1.9284 1.9284 1.917 1.9226 1.9226 1.917 1.917 1.9114 1.9058 1.9058 1.9001 1.8891 1.8891 1.8891 1.8727 1.8674 1.8674 1.862 1.862 1.862 1.8674 1.8727 1.8674 1.8674 1.8674 1.8674 1.8727 1.8674 1.862 1.8514 1.8461 1.8409 1.8356 1.8253 1.8202 1.8202 1.8 1.795 1.8 1.79 1.7851 1.7803 1.79 1.795 1.7851 1.7803 1.7803 1.7754 1.7705 1.7705 1.7705 1.7754 1.7657 1.7657 1.7561 1.7561 1.7561 1.7561 1.7561 1.7561 1.742 1.7328 1.7328 1.7281 1.7235 1.7235 1.7144 1.7144 1.7144 1.7144 1.7189 1.7235 1.7189 1.7144 1.7099 1.7099 1.7054 1.692 1.692 1.6876 1.6876 1.6876 1.6832 1.6832 1.6745 1.666 1.6703 1.666 1.6616 1.6575 1.6575 1.6449 1.6406 1.6449 1.649 1.6575 1.6575 1.6616 1.6616 1.666 1.666 1.6616 1.6533 1.649 1.6449 1.6324 1.6284 1.6242 1.6121 1.6161 1.6121 1.6161 1.6161 1.6121 1.6081 1.6081 1.6121 1.6242 1.6242 1.6121 1.6081 1.5962 1.5962 1.5962 1.5885 1.5846 1.5769 1.5617 1.558 1.558 1.558 1.5542
1.8305 3.2531 3.2531 3.2695 3.3196 3.3028 3.2695 3.2207 3.2369 3.2369 3.2369 3.2531 3.2531 3.2049 3.2049 3.2049 3.2049 3.2207 3.1735 3.1735 3.2049 3.2049 3.2369 3.2207 3.2049 3.2049 3.1891 3.1735 3.1735 3.1276 3.1126 3.083 3.0685 3.054 3.0398 2.9976 2.9838 2.9566 2.9167 2.9167 2.9167 2.9167 2.9036 2.9036 2.9036 2.8908 2.8908 2.9036 2.9167 2.9036 2.9036 2.9036 2.8908 2.8653 2.8653 2.8653 2.8526 2.8401 2.8277 2.8032 2.7912 2.7912 2.7912 2.8032 2.8155 2.7912 2.7912 2.7793 2.7556 2.744 2.744 2.721 2.6984 2.6761 2.6651 2.6543 2.6651 2.6651 2.6651 2.6543 2.6434 2.6543 2.6543 2.6434 2.622 2.5802 2.5701 2.5499 2.5399 2.5499 2.5499 2.5701 2.56 2.56 2.56 2.56 2.5399 2.5399 2.53 2.5201 2.5104 2.4911 2.4911 2.4816 2.4816 2.4816 2.4911 2.4628 2.4535 2.4535 2.4535 2.4535 2.4442 2.435 2.435 2.4169 2.4169 2.426 2.4079 2.399 2.3902 2.3814 2.3814 2.364 2.364 2.364 2.3555 2.347 2.347 2.3385 2.3385 2.3385 2.3301 2.3385 2.3218 2.3218 2.3135 2.3135 2.3218 2.3218 2.3218 2.3218 2.3218 2.3301 2.3218 2.3218 2.3218 2.3053 2.2971 2.289 2.281 2.273 2.273 2.2571 2.2571 2.2492 2.2492 2.2492 2.2492 2.2261 2.2261 2.2261 2.2035 2.196 2.196 2.1812 2.1812 2.174 2.174 2.174 2.1595 2.1595 2.1595 2.1452 2.1522 2.1452 2.1381 2.1311 2.1241 2.1241 2.1171 2.1171 2.1103 2.1103 2.1035 2.0966 2.0966 2.0899 2.0966 2.0966 2.1035 2.0966 2.1035 2.1103 2.1103 2.1035 2.1035 2.0966 2.0833 2.0699 2.0568 2.0503 2.0439 2.0184 2.0121 2.0184 2.0121 2.0121 2.0121 2.0121 2.0059 1.9997 1.9936 1.9936 1.9875 1.9814 1.9754 1.9694 1.9634 1.9694 1.9634 1.9575 1.9634 1.9634 1.9634 1.9575 1.9516 1.9399 1.9341 1.9284 1.9226 1.9226 1.9226 1.9114 1.9114 1.9114 1.9058 1.9001 1.9001 1.8891 1.8946 1.8891 1.8727 1.8674 1.8674 1.862 1.862 1.8674 1.8674 1.8727 1.8674 1.8674 1.8727 1.8674 1.8781 1.8727 1.862 1.862 1.8409 1.8409 1.8356 1.8305 1.8253 1.8202 1.805 1.795 1.8 1.79 1.7851 1.7851 1.7851 1.795 1.7803 1.7803 1.7754 1.7754 1.7705 1.7705 1.7705 1.7705 1.7609 1.7609 1.7561 1.7514 1.7514 1.7514 1.7514 1.7514 1.742 1.7328 1.7281 1.7281 1.7189 1.7189 1.7144 1.7144 1.7099 1.7144 1.7189 1.7235 1.7144 1.7099 1.7054 1.7054 1.7009 1.6965 1.692 1.6876 1.6832 1.692 1.6876 1.6789 1.6745 1.666 1.6703 1.6703 1.6616 1.6575 1.6575 1.6449 1.6449 1.6449 1.649 1.6616 1.6616 1.6616 1.666 1.6616 1.6616 1.6575 1.6575 1.6533 1.649 1.6324 1.6284 1.6242 1.6121 1.6161 1.6121 1.6161 1.6121 1.6121 1.6121 1.6081 1.6081 1.6242 1.6201 1.6121 1.6041 1.5962 1.5962 1.5962 1.5885 1.5846 1.573 1.5617 1.5542 1.5542 1.5505 1.5468
1.81 1.8151 3.2207 3.2369 3.3028 3.3028 3.2531 3.2207 3.2049 3.2207 3.2207 3.2369 3.2369 3.2049 3.1891 3.1891 3.1891 3.1891 3.1581 3.1427 3.1581 3.1735 3.1891 3.1735 3.1891 3.1735 3.1581 3.1427 3.1427 3.1126 3.1126 3.0978 3.0685 3.054 3.0398 2.9976 2.9701 2.9431 2.9036 2.9036 2.9036 2.9036 2.9036 2.9036 2.8908 2.8653 2.8653 2.8779 2.8779 2.8908 2.8779 2.8779 2.8653 2.8526 2.8401 2.8401 2.8401 2.8401 2.8277 2.8032 2.7912 2.7793 2.7793 2.7912 2.8032 2.7793 2.7793 2.7674 2.7325 2.7325 2.7325 2.6984 2.6871 2.6761 2.6651 2.6651 2.6651 2.6651 2.6651 2.6326 2.6326 2.622 2.601 2.601 2.5802 2.56 2.56 2.5399 2.5399 2.5499 2.5499 2.56 2.5701 2.56 2.5499 2.5399 2.5399 2.5399 2.53 2.5201 2.5104 2.4911 2.4911 2.4911 2.4816 2.4816 2.4911 2.4628 2.4628 2.4535 2.4628 2.4628 2.4442 2.4442 2.426 2.426 2.4169 2.426 2.4169 2.399 2.3902 2.3902 2.3814 2.364 2.364 2.364 2.3555 2.347 2.3385 2.3301 2.3301 2.3301 2.3301 2.3301 2.3218 2.3135 2.3135 2.3135 2.3218 2.3301 2.3218 2.3218 2.3218 2.3218 2.3218 2.3135 2.3135 2.2971 2.281 2.273 2.273 2.265 2.265 2.2571 2.2571 2.2492 2.2492 2.2492 2.2492 2.2339 2.2339 2.2261 2.211 2.211 2.196 2.1886 2.1812 2.174 2.174 2.174 2.1595 2.1522 2.1522 2.1522 2.1452 2.1452 2.1381 2.1311 2.1171 2.1171 2.1171 2.1171 2.1171 2.1171 2.1035 2.1035 2.0966 2.0966 2.0966 2.1035 2.0966 2.1035 2.1035 2.1103 2.1103 2.1103 2.1035 2.0966 2.0833 2.0699 2.0634 2.0503 2.0374 2.0184 2.0184 2.0121 2.0121 2.0059 2.0059 2.0059 2.0059 1.9936 1.9936 1.9936 1.9814 1.9754 1.9754 1.9634 1.9634 1.9634 1.9634 1.9575 1.9575 1.9634 1.9634 1.9634 1.9575 1.9458 1.9341 1.9341 1.9284 1.9226 1.9226 1.917 1.9114 1.9114 1.9058 1.9001 1.9001 1.8946 1.8946 1.8891 1.8781 1.8727 1.8727 1.8674 1.8674 1.8674 1.8727 1.8781 1.8727 1.8727 1.8727 1.8781 1.8836 1.8674 1.8674 1.862 1.8514 1.8461 1.8409 1.8356 1.8305 1.8253 1.805 1.795 1.795 1.79 1.7803 1.7851 1.7851 1.795 1.7803 1.7754 1.7754 1.7705 1.7705 1.7705 1.7657 1.7657 1.7561 1.7561 1.7514 1.7466 1.7514 1.7466 1.7514 1.7466 1.7374 1.7328 1.7328 1.7235 1.7189 1.7144 1.7144 1.7099 1.7099 1.7144 1.7144 1.7189 1.7054 1.7009 1.6965 1.6965 1.692 1.6876 1.6876 1.6832 1.6789 1.6876 1.6876 1.6832 1.6745 1.6703 1.6703 1.6703 1.6616 1.6616 1.6575 1.649 1.649 1.6449 1.6533 1.6616 1.6616 1.666 1.666 1.666 1.666 1.6575 1.649 1.6449 1.6449 1.6324 1.6284 1.6242 1.6161 1.6161 1.6161 1.6121 1.6161 1.6081 1.6081 1.6081 1.6081 1.6161 1.6121 1.6081 1.6002 1.5962 1.5924 1.5962 1.5846 1.5769 1.5693 1.558 1.5542 1.5505 1.5468 1.5431
1.81 1.8151 3.2369 3.2207 3.3714 3.3028 3.2369 3.2049 3.2049 3.2049 3.2207 3.2531 3.2531 3.1891 3.1735 3.1735 3.1891 3.1891 3.1427 3.1581 3.1581 3.1581 3.1581 3.1735 3.1581 3.1581 3.1427 3.1276 3.1276 3.0978 3.0978 3.0978 3.0685 3.054 3.0398 2.9976 2.9838 2.9299 2.8908 2.9036 2.9036 2.9036 2.8908 2.8908 2.8779 2.8653 2.8653 2.8653 2.8779 2.8653 2.8653 2.8653 2.8526 2.8277 2.8277 2.8401 2.8401 2.8277 2.8277 2.8155 2.7793 2.7674 2.7793 2.7793 2.7912 2.7674 2.7674 2.7556 2.7325 2.721 2.721 2.7096 2.6871 2.6871 2.6761 2.6651 2.6651 2.6543 2.6543 2.6326 2.6115 2.6115 2.5802 2.5701 2.56 2.56 2.56 2.5399 2.5399 2.5499 2.5499 2.56 2.56 2.56 2.56 2.5499 2.53 2.53 2.53 2.5201 2.5104 2.5008 2.4911 2.5008 2.4816 2.4816 2.4911 2.4721 2.4721 2.4721 2.4721 2.4816 2.4535 2.4442 2.4442 2.435 2.426 2.435 2.426 2.4169 2.399 2.3902 2.3902 2.3727 2.364 2.3727 2.3555 2.347 2.347 2.3385 2.3385 2.3301 2.3301 2.3301 2.3135 2.3135 2.3135 2.3135 2.3301 2.3301 2.3301 2.3301 2.3135 2.3135 2.3053 2.3135 2.3053 2.2971 2.273 2.273 2.265 2.265 2.2571 2.2571 2.2571 2.2571 2.2571 2.2492 2.2571 2.2492 2.2492 2.2492 2.2339 2.2261 2.2185 2.2035 2.2035 2.1886 2.1812 2.174 2.1595 2.1595 2.1522 2.1452 2.1522 2.1452 2.1311 2.1381 2.1171 2.1171 2.1171 2.1171 2.1241 2.1241 2.1171 2.1171 2.1171 2.1103 2.1171 2.1103 2.1171 2.1171 2.1171 2.1103 2.1171 2.1103 2.1103 2.0966 2.0833 2.0699 2.0699 2.0568 2.0374 2.0246 2.0184 2.0121 2.0059 2.0059 2.0059 1.9997 1.9997 1.9936 1.9936 1.9875 1.9814 1.9754 1.9694 1.9634 1.9634 1.9634 1.9634 1.9634 1.9634 1.9694 1.9634 1.9634 1.9694 1.9575 1.9516 1.9458 1.9399 1.9341 1.9284 1.9226 1.9226 1.9226 1.9226 1.917 1.9114 1.9058 1.9114 1.9058 1.8946 1.8891 1.8836 1.8781 1.8727 1.8727 1.8781 1.8781 1.8781 1.8781 1.8781 1.8836 1.8891 1.8781 1.8727 1.8674 1.862 1.8514 1.8461 1.8409 1.8356 1.8253 1.8 1.795 1.795 1.7851 1.7803 1.7851 1.7851 1.795 1.7803 1.7754 1.7754 1.7754 1.7705 1.7705 1.7705 1.7657 1.7561 1.7514 1.7514 1.7466 1.7561 1.7514 1.7514 1.7514 1.742 1.7374 1.7374 1.7374 1.7328 1.7281 1.7235 1.7235 1.7144 1.7144 1.7144 1.7099 1.7054 1.6965 1.692 1.692 1.6876 1.6876 1.6832 1.6832 1.6832 1.6832 1.6832 1.6832 1.6832 1.6745 1.6789 1.6789 1.666 1.666 1.6616 1.6616 1.6575 1.6575 1.6575 1.6616 1.6616 1.6703 1.666 1.666 1.6703 1.6575 1.649 1.6449 1.6406 1.6324 1.6284 1.6242 1.6161 1.6201 1.6201 1.6201 1.6201 1.6121 1.6121 1.6121 1.6081 1.6161 1.6121 1.6002 1.5962 1.5924 1.5924 1.5924 1.5808 1.5769 1.573 1.558 1.5542 1.5542 1.5468 1.5468
1.8202 1.8202 1.81 1.8151 3.286 3.286 3.2369 3.2207 3.2049 3.2207 3.2207 3.2531 3.2369 3.2049 3.1735 3.1735 3.1735 3.1891 3.1427 3.1276 3.1276 3.1427 3.1427 3.1427 3.1427 3.1581 3.1276 3.1126 3.1126 3.0978 3.0978 3.0978 3.0685 3.054 3.0398 2.9976 2.9566 2.9299 2.8779 2.8908 2.8779 2.8779 2.8779 2.8779 2.8653 2.8526 2.8526 2.8653 2.8653 2.8653 2.8653 2.8653 2.8526 2.8401 2.8401 2.8401 2.8526 2.8401 2.8401 2.8155 2.7793 2.7793 2.7793 2.7793 2.7912 2.7674 2.7674 2.744 2.7325 2.721 2.721 2.6984 2.6871 2.6871 2.6761 2.6651 2.6651 2.6543 2.6434 2.6326 2.622 2.6115 2.5802 2.5701 2.56 2.5499 2.56 2.53 2.5399 2.5399 2.5499 2.5499 2.5499 2.5499 2.5499 2.5499 2.53 2.53 2.53 2.5201 2.5104 2.5008 2.4911 2.4911 2.4816 2.4816 2.4816 2.4628 2.4628 2.4721 2.4721 2.4721 2.4628 2.4535 2.4442 2.435 2.435 2.435 2.426 2.4169 2.399 2.399 2.3902 2.3727 2.3727 2.3727 2.364 2.3555 2.347 2.347 2.3385 2.3301 2.3301 2.3218 2.3218 2.3135 2.3135 2.3135 2.3301 2.3385 2.3218 2.3218 2.3053 2.3053 2.3053 2.2971 2.2971 2.289 2.281 2.273 2.265 2.265 2.2571 2.2571 2.2571 2.2571 2.2492 2.2492 2.2492 2.2571 2.2571 2.2415 2.2415 2.2261 2.2185 2.211 2.2035 2.196 2.1886 2.174 2.1666 2.1595 2.1595 2.1452 2.1522 2.1452 2.1311 2.1311 2.1171 2.1103 2.1171 2.1171 2.1171 2.1171 2.1171 2.1171 2.1171 2.1171 2.1171 2.1171 2.1103 2.1171 2.1171 2.1103 2.1171 2.1103 2.1103 2.0966 2.0765 2.0634 2.0634 2.0503 2.0374 2.0246 2.0246 2.0184 2.0059 2.0059 2.0059 1.9997 1.9997 1.9936 1.9875 1.9936 1.9754 1.9694 1.9694 1.9634 1.9634 1.9634 1.9634 1.9575 1.9634 1.9634 1.9694 1.9634 1.9634 1.9634 1.9516 1.9516 1.9516 1.9399 1.9399 1.9284 1.9284 1.9284 1.9226 1.9226 1.917 1.9114 1.9114 1.9058 1.9001 1.8891 1.8891 1.8727 1.8674 1.8674 1.8727 1.8781 1.8781 1.8727 1.8727 1.8781 1.8781 1.8781 1.8727 1.8727 1.862 1.8566 1.8409 1.8409 1.8305 1.8253 1.805 1.8 1.8 1.79 1.7851 1.7851 1.79 1.795 1.7803 1.7754 1.7754 1.7705 1.7754 1.7705 1.7705 1.7705 1.7561 1.7561 1.7514 1.7514 1.7561 1.7514 1.7514 1.7514 1.742 1.742 1.7374 1.7374 1.7328 1.7281 1.7189 1.7144 1.7099 1.7099 1.7144 1.7099 1.6965 1.692 1.692 1.692 1.6876 1.6832 1.6832 1.6789 1.6832 1.6832 1.6876 1.6789 1.6789 1.6745 1.6789 1.6789 1.666 1.666 1.6616 1.6575 1.6575 1.6575 1.6575 1.666 1.6616 1.6703 1.6703 1.6703 1.666 1.6533 1.6449 1.6406 1.6365 1.6324 1.6284 1.6242 1.6201 1.6201 1.6201 1.6201 1.6201 1.6161 1.6161 1.6121 1.6121 1.6121 1.6121 1.6041 1.6002 1.5885 1.5885 1.5846 1.5808 1.573 1.5655 1.558 1.5542 1.5505 1.5468 1.5431
1.81 1.8151 1.81 1.81 3.3028 3.286 3.2207 3.2207 3.2049 3.2207 3.2207 3.2531 3.2369 3.2049 3.1891 3.1735 3.1735 3.1891 3.1126 3.1126 3.1276 3.1126 3.1276 3.1276 3.1126 3.1276 3.1126 3.083 3.083 3.083 3.083 3.0978 3.0685 3.0398 3.0115 2.9701 2.9431 2.9036 2.8908 2.9036 2.8653 2.8653 2.8526 2.8653 2.8653 2.8526 2.8526 2.8653 2.8653 2.8526 2.8526 2.8653 2.8526 2.8526 2.8526 2.8526 2.8526 2.8526 2.8401 2.8155 2.8032 2.7912 2.7912 2.7674 2.7674 2.7674 2.7556 2.744 2.721 2.721 2.721 2.6984 2.6871 2.6761 2.6871 2.6761 2.6543 2.6543 2.6434 2.6115 2.601 2.601 2.5802 2.5701 2.5499 2.5499 2.56 2.5399 2.5499 2.5499 2.5499 2.56 2.5701 2.56 2.56 2.56 2.5399 2.53 2.5104 2.5201 2.5104 2.5008 2.4911 2.4911 2.4816 2.4721 2.4628 2.4628 2.4535 2.4628 2.4721 2.4628 2.4535 2.4442 2.4442 2.435 2.435 2.435 2.4169 2.4079 2.3902 2.3902 2.3902 2.3814 2.3727 2.3814 2.364 2.364 2.3555 2.347 2.3555 2.3301 2.3301 2.3301 2.3135 2.3135 2.3135 2.3218 2.3301 2.3301 2.3135 2.3053 2.2971 2.289 2.281 2.289 2.289 2.281 2.273 2.265 2.273 2.265 2.265 2.273 2.265 2.265 2.265 2.265 2.265 2.2571 2.265 2.2492 2.2415 2.2415 2.2339 2.2185 2.211 2.196 2.1886 2.1812 2.1666 2.1522 2.1522 2.1452 2.1452 2.1452 2.1311 2.1241 2.1171 2.1103 2.1171 2.1103 2.1103 2.1171 2.1171 2.1103 2.1171 2.1171 2.1171 2.1241 2.1171 2.1171 2.1171 2.1103 2.1103 2.1035 2.0966 2.0899 2.0765 2.0699 2.0568 2.0568 2.0374 2.0246 2.0184 2.0184 2.0121 2.0121 2.0121 1.9997 2.0059 1.9936 1.9936 1.9936 1.9754 1.9694 1.9694 1.9634 1.9634 1.9634 1.9516 1.9575 1.9575 1.9575 1.9634 1.9634 1.9634 1.9634 1.9575 1.9575 1.9516 1.9458 1.9458 1.9284 1.9284 1.9341 1.917 1.917 1.917 1.9058 1.9114 1.9058 1.9001 1.9001 1.8946 1.8836 1.8781 1.8727 1.8781 1.8836 1.8836 1.8781 1.8781 1.8836 1.8836 1.8781 1.8727 1.8727 1.8566 1.8514 1.8409 1.8356 1.8356 1.8253 1.8151 1.805 1.805 1.8 1.8 1.79 1.795 1.8 1.79 1.7803 1.7803 1.7705 1.7754 1.7705 1.7754 1.7803 1.7609 1.7609 1.7561 1.7561 1.7609 1.7561 1.7561 1.7561 1.7466 1.742 1.7374 1.7328 1.7328 1.7281 1.7189 1.7144 1.7054 1.7009 1.7099 1.7054 1.6965 1.692 1.6876 1.6876 1.6876 1.6832 1.6876 1.6832 1.6832 1.6876 1.6876 1.6789 1.6789 1.6745 1.6745 1.6745 1.6616 1.6616 1.6616 1.6533 1.6533 1.6533 1.6575 1.666 1.6616 1.6703 1.6745 1.6745 1.6703 1.6575 1.6449 1.6406 1.6365 1.6284 1.6284 1.6242 1.6201 1.6201 1.6201 1.6201 1.6201 1.6161 1.6161 1.6081 1.6081 1.6081 1.6041 1.6002 1.5962 1.5885 1.5846 1.5769 1.5693 1.5655 1.558 1.5505 1.5468 1.5431 1.5431 1.5395
1.805 1.81 1.805 1.805 1.805 1.7803 1.7803 3.2049 3.2049 3.2207 3.2369 3.2369 3.2369 3.2207 3.1891 3.1735 3.1735 3.1891 3.1126 3.1126 3.1126 3.1126 3.1126 3.1126 3.1276 3.1126 3.0978 3.0685 3.0685 3.0685 3.083 3.0978 3.054 3.0398 3.0115 2.9431 2.9299 2.8908 2.8908 2.9167 2.8526 2.8526 2.8401 2.8526 2.8653 2.8526 2.8526 2.8653 2.8526 2.8526 2.8526 2.8526 2.8653 2.8526 2.8526 2.8653 2.8653 2.8401 2.8401 2.8155 2.8032 2.7912 2.7912 2.7793 2.7674 2.7674 2.744 2.744 2.7325 2.721 2.721 2.6984 2.6761 2.6761 2.6761 2.6651 2.6543 2.6543 2.6434 2.6115 2.6115 2.5906 2.5802 2.5701 2.5499 2.5499 2.56 2.5499 2.56 2.56 2.56 2.5701 2.5701 2.5802 2.5701 2.5701 2.5399 2.53 2.5104 2.5104 2.5008 2.5008 2.5008 2.4911 2.4816 2.4628 2.4628 2.4535 2.4628 2.4628 2.4628 2.4628 2.4535 2.4535 2.4442 2.435 2.435 2.435 2.4169 2.399 2.3902 2.3814 2.3814 2.3814 2.3727 2.3814 2.364 2.3555 2.3555 2.347 2.347 2.3385 2.3385 2.3301 2.3218 2.3135 2.3135 2.3135 2.3385 2.3301 2.3135 2.3053 2.289 2.281 2.281 2.289 2.289 2.281 2.273 2.265 2.273 2.273 2.273 2.273 2.273 2.273 2.265 2.265 2.265 2.2571 2.265 2.2571 2.2415 2.2415 2.2339 2.2185 2.2185 2.1886 2.1886 2.1812 2.1595 2.1522 2.1522 2.1452 2.1381 2.1381 2.1311 2.1311 2.1103 2.1103 2.1103 2.1103 2.1103 2.1171 2.1103 2.1171 2.1171 2.1171 2.1171 2.1241 2.1241 2.1241 2.1171 2.1171 2.1103 2.1035 2.1035 2.0966 2.0699 2.0699 2.0634 2.0568 2.0439 2.0246 2.0246 2.0184 2.0121 2.0121 2.0059 1.9997 1.9997 1.9936 1.9875 1.9875 1.9754 1.9694 1.9694 1.9634 1.9634 1.9634 1.9575 1.9575 1.9516 1.9634 1.9634 1.9634 1.9694 1.9634 1.9634 1.9575 1.9516 1.9458 1.9458 1.9226 1.9284 1.9284 1.917 1.9114 1.9058 1.9001 1.9114 1.9058 1.9058 1.9058 1.9001 1.8946 1.8891 1.8891 1.8891 1.8946 1.8891 1.8891 1.8891 1.8891 1.8891 1.8727 1.8727 1.8781 1.8566 1.8514 1.8409 1.8356 1.8409 1.8356 1.8151 1.81 1.81 1.805 1.805 1.795 1.8 1.805 1.79 1.7851 1.7803 1.7754 1.7754 1.7705 1.7803 1.7851 1.7657 1.7657 1.7609 1.7609 1.7561 1.7561 1.7561 1.7514 1.7514 1.742 1.7374 1.7374 1.7328 1.7235 1.7189 1.7099 1.7099 1.7009 1.7099 1.7054 1.692 1.692 1.6876 1.692 1.6876 1.6876 1.6876 1.6832 1.6832 1.692 1.6876 1.6832 1.6789 1.6745 1.6745 1.6745 1.6616 1.6575 1.6575 1.6533 1.6533 1.649 1.6575 1.6616 1.666 1.666 1.6703 1.6745 1.6703 1.6575 1.649 1.649 1.6449 1.6324 1.6284 1.6242 1.6161 1.6161 1.6161 1.6161 1.6121 1.6121 1.6081 1.6081 1.6002 1.6002 1.6041 1.5962 1.5962 1.5885 1.5769 1.5693 1.5655 1.5617 1.5542 1.5468 1.5468 1.5431 1.5395 1.5431
1.805 1.805 1.8 1.795 1.79 1.7851 1.7754 1.79 1.79 1.79 3.2207 3.2695 3.2695 3.2369 3.1891 3.1735 3.1891 3.2049 3.1126 3.1126 3.1126 3.083 3.083 3.083 3.0978 3.1126 3.083 3.054 3.054 3.0255 3.0398 3.083 3.0398 3.0255 2.9838 2.9167 2.8908 2.8779 2.8908 2.9036 2.8779 2.8526 2.8401 2.8526 2.8779 2.8779 2.8779 2.8908 2.8779 2.8653 2.8526 2.8653 2.8653 2.8526 2.8526 2.8653 2.8779 2.8526 2.8401 2.8277 2.8032 2.7912 2.7912 2.7793 2.7556 2.7556 2.7325 2.7325 2.721 2.721 2.7325 2.6984 2.6871 2.6871 2.6761 2.6761 2.6543 2.6543 2.6543 2.6115 2.601 2.601 2.5802 2.5701 2.56 2.56 2.5701 2.56 2.5701 2.5701 2.5701 2.5906 2.5906 2.5906 2.5906 2.5802 2.5499 2.5399 2.5201 2.5201 2.5104 2.5008 2.4911 2.4816 2.4721 2.4628 2.4535 2.4535 2.4628 2.4628 2.4628 2.4535 2.4442 2.435 2.435 2.435 2.435 2.435 2.4169 2.399 2.3902 2.3902 2.3902 2.3814 2.3727 2.3727 2.364 2.364 2.3555 2.3385 2.3385 2.3385 2.3301 2.3135 2.3218 2.3218 2.3218 2.3135 2.347 2.347 2.3218 2.3135 2.3053 2.2971 2.2971 2.2971 2.289 2.289 2.265 2.2571 2.265 2.2571 2.265 2.2571 2.265 2.273 2.2571 2.2571 2.2492 2.2492 2.2492 2.2492 2.2339 2.2261 2.2261 2.2035 2.196 2.174 2.1666 2.1666 2.1522 2.1452 2.1381 2.1381 2.1381 2.1381 2.1241 2.1241 2.1103 2.1103 2.1103 2.1103 2.1103 2.1103 2.1035 2.1035 2.1035 2.1171 2.1171 2.1103 2.1171 2.1241 2.1103 2.1103 2.1103 2.0899 2.0833 2.0899 2.0634 2.0568 2.0568 2.0503 2.0374 2.0246 2.0246 2.0184 2.0121 2.0059 2.0059 1.9997 1.9936 1.9936 1.9936 1.9875 1.9754 1.9754 1.9694 1.9634 1.9634 1.9575 1.9575 1.9516 1.9575 1.9575 1.9575 1.9634 1.9694 1.9634 1.9634 1.9634 1.9575 1.9458 1.9399 1.9284 1.9284 1.9284 1.917 1.9114 1.9058 1.9001 1.9058 1.9058 1.9058 1.9058 1.8946 1.8946 1.8836 1.8891 1.8891 1.8946 1.8891 1.8836 1.8836 1.8781 1.8781 1.862 1.8566 1.8514 1.8461 1.8356 1.8202 1.8 1.795 1.795 1.795 1.795 1.8 1.7851 1.7754 1.7705 1.7851 1.795 1.795 1.79 1.7803 1.7803 1.7754 1.7803 1.7803 1.7851 1.7754 1.7657 1.7657 1.7561 1.7561 1.7609 1.7514 1.7561 1.7514 1.742 1.742 1.7374 1.7328 1.7328 1.7189 1.7144 1.7099 1.7054 1.7054 1.7054 1.6965 1.6876 1.692 1.6876 1.6876 1.692 1.692 1.692 1.6876 1.692 1.692 1.6832 1.6832 1.6789 1.6745 1.6745 1.666 1.6616 1.6616 1.6533 1.649 1.649 1.6533 1.6575 1.6616 1.6703 1.6703 1.6703 1.6703 1.6575 1.649 1.6449 1.6449 1.6365 1.6324 1.6242 1.6201 1.6201 1.6161 1.6161 1.6161 1.6121 1.6121 1.6041 1.6041 1.6041 1.6041 1.6041 1.5962 1.5924 1.5808 1.573 1.5617 1.5617 1.558 1.5468 1.5431 1.5431 1.5395 1.5395
1.805 1.805 1.8 1.795 1.79 1.7851 1.7754 1.79 1.79 1.79 3.286 3.3028 3.3196 3.2531 3.2049 3.1735 3.1735 3.1891 3.1126 3.1276 3.1427 3.0978 3.083 3.083 3.0978 3.1276 3.0978 3.0685 3.0685 3.0398 3.054 3.0978 3.054 3.0398 2.9976 2.9431 2.9036 2.8908 2.9036 2.9167 2.8779 2.8779 2.8653 2.8653 2.8779 2.9036 2.9036 2.9299 2.9036 2.8653 2.8526 2.8653 2.8653 2.8526 2.8526 2.8779 2.8653 2.8526 2.8401 2.8277 2.8032 2.8032 2.7912 2.7674 2.7556 2.7325 2.7325 2.744 2.721 2.7325 2.7325 2.6984 2.6761 2.6871 2.6871 2.6871 2.6761 2.6651 2.6543 2.6326 2.622 2.6115 2.6115 2.601 2.5906 2.5906 2.5906 2.5906 2.5906 2.601 2.601 2.6115 2.622 2.601 2.601 2.5906 2.56 2.5499 2.53 2.5201 2.5104 2.5008 2.5008 2.5008 2.4721 2.4721 2.4628 2.4628 2.4628 2.4628 2.4628 2.4628 2.4535 2.4442 2.435 2.435 2.426 2.435 2.4079 2.399 2.3902 2.3902 2.3902 2.3727 2.3727 2.364 2.364 2.364 2.347 2.3385 2.3385 2.3301 2.3301 2.3135 2.3135 2.3218 2.3218 2.3301 2.347 2.3555 2.3385 2.3301 2.3218 2.3135 2.3053 2.3053 2.2971 2.289 2.265 2.2571 2.2571 2.2571 2.2571 2.265 2.265 2.265 2.265 2.2571 2.2492 2.2492 2.2415 2.2492 2.2261 2.2261 2.2185 2.196 2.1886 2.174 2.1666 2.1666 2.1522 2.1452 2.1381 2.1381 2.1452 2.1381 2.1311 2.1241 2.1171 2.1103 2.1103 2.1103 2.1035 2.1103 2.0966 2.1035 2.1035 2.1171 2.1171 2.1103 2.1171 2.1171 2.1103 2.1035 2.1035 2.0966 2.0833 2.0833 2.0634 2.0568 2.0568 2.0503 2.0439 2.031 2.0246 2.0184 2.0184 2.0121 2.0121 1.9997 1.9936 1.9936 1.9936 1.9875 1.9754 1.9694 1.9694 1.9694 1.9634 1.9575 1.9575 1.9575 1.9575 1.9575 1.9575 1.9634 1.9634 1.9575 1.9575 1.9634 1.9575 1.9516 1.9458 1.9341 1.9341 1.9284 1.917 1.917 1.9114 1.9058 1.9114 1.9058 1.9114 1.9114 1.9001 1.8946 1.8891 1.8891 1.8891 1.9001 1.8836 1.8836 1.8781 1.8727 1.8781 1.8727 1.8514 1.8461 1.8409 1.8305 1.8202 1.795 1.795 1.795 1.795 1.795 1.795 1.7851 1.7754 1.7705 1.7803 1.79 1.795 1.795 1.7851 1.7803 1.7803 1.7803 1.79 1.79 1.7754 1.7705 1.7705 1.7609 1.7561 1.7609 1.7561 1.7561 1.7561 1.7466 1.7466 1.742 1.7374 1.7328 1.7235 1.7189 1.7144 1.7099 1.7054 1.7054 1.6965 1.6965 1.6965 1.6965 1.6965 1.692 1.7009 1.6965 1.7009 1.7009 1.7009 1.6965 1.692 1.6832 1.6789 1.6789 1.6703 1.6616 1.6616 1.6533 1.6533 1.6533 1.6533 1.6575 1.6616 1.6745 1.6745 1.6745 1.6703 1.666 1.6533 1.649 1.649 1.6406 1.6406 1.6324 1.6201 1.6201 1.6161 1.6161 1.6161 1.6201 1.6161 1.6081 1.6041 1.6081 1.6041 1.6041 1.5962 1.5924 1.5846 1.5769 1.5617 1.558 1.558 1.5505 1.5468 1.5431 1.5431 1.5431
1.805 1.8 1.8 1.795 1.7851 1.7851 1.7754 1.79 1.79 1.8 3.354 3.354 3.354 3.2531 3.1891 3.1735 3.1581 3.1735 3.0978 3.1126 3.1276 3.0978 3.083 3.083 3.0978 3.1276 3.1126 3.0978 3.0978 3.054 3.0685 3.0978 3.083 3.054 3.0115 2.9566 2.9299 2.9036 2.9167 2.9299 2.8908 2.8779 2.8779 2.8779 2.8908 2.8908 2.8908 2.9167 2.8908 2.8653 2.8526 2.8526 2.8401 2.8277 2.8401 2.8779 2.8653 2.8526 2.8277 2.8277 2.8032 2.8032 2.7912 2.7793 2.744 2.721 2.721 2.721 2.7325 2.721 2.7325 2.6871 2.6761 2.6871 2.6871 2.6984 2.6761 2.6761 2.6651 2.6434 2.6326 2.622 2.622 2.6115 2.6115 2.601 2.601 2.5906 2.5906 2.601 2.601 2.622 2.622 2.601 2.601 2.5906 2.56 2.5499 2.5201 2.5201 2.5104 2.5104 2.5008 2.5008 2.4721 2.4721 2.4628 2.4721 2.4721 2.4628 2.4721 2.4721 2.4535 2.4535 2.4442 2.435 2.435 2.426 2.4079 2.3902 2.3902 2.3814 2.3814 2.3727 2.3727 2.364 2.364 2.3555 2.347 2.3385 2.3385 2.3218 2.3218 2.3053 2.3135 2.3218 2.3218 2.3301 2.3555 2.3555 2.347 2.3385 2.3301 2.3135 2.3053 2.3053 2.2971 2.281 2.265 2.265 2.2571 2.2571 2.2571 2.2571 2.265 2.265 2.2571 2.2571 2.2492 2.2415 2.2415 2.2339 2.2261 2.2185 2.2035 2.1886 2.1886 2.174 2.1666 2.1666 2.1522 2.1522 2.1381 2.1381 2.1452 2.1381 2.1311 2.1311 2.1171 2.1171 2.1103 2.1103 2.1103 2.1035 2.1035 2.1035 2.1035 2.1171 2.1103 2.1171 2.1103 2.1103 2.1103 2.1035 2.1035 2.0899 2.0833 2.0765 2.0634 2.0503 2.0568 2.0503 2.0439 2.031 2.031 2.0246 2.0184 2.0184 2.0121 1.9997 1.9936 1.9936 1.9875 1.9875 1.9694 1.9694 1.9694 1.9634 1.9634 1.9575 1.9575 1.9575 1.9575 1.9575 1.9575 1.9575 1.9575 1.9575 1.9575 1.9634 1.9575 1.9516 1.9458 1.9341 1.9341 1.9284 1.9226 1.917 1.9114 1.9114 1.917 1.9114 1.9114 1.917 1.9058 1.9001 1.8891 1.8946 1.8891 1.8946 1.8836 1.8836 1.8781 1.8674 1.8727 1.8674 1.8514 1.8461 1.8356 1.8253 1.8151 1.8 1.795 1.795 1.795 1.795 1.795 1.7851 1.7754 1.7657 1.7754 1.7851 1.79 1.79 1.7803 1.7754 1.7803 1.7803 1.7851 1.79 1.7803 1.7754 1.7705 1.7609 1.7609 1.7609 1.7561 1.7561 1.7561 1.7514 1.7514 1.742 1.7374 1.7374 1.7235 1.7189 1.7144 1.7099 1.7099 1.7009 1.7009 1.7009 1.692 1.6965 1.6965 1.6965 1.7009 1.7009 1.7009 1.7054 1.7009 1.6965 1.6965 1.6832 1.6832 1.6832 1.6703 1.666 1.666 1.6575 1.6533 1.6533 1.6533 1.6533 1.6616 1.6745 1.6745 1.6789 1.6789 1.6703 1.6575 1.6533 1.6533 1.6449 1.6406 1.6284 1.6201 1.6201 1.6161 1.6161 1.6201 1.6201 1.6161 1.6121 1.6041 1.6081 1.6041 1.6041 1.5962 1.5924 1.5846 1.5769 1.5617 1.558 1.5542 1.5505 1.5468 1.5431 1.5431 1.5431
1.795 1.795 1.795 1.79 1.79 1.7851 1.7754 1.7851 1.79 1.795 1.81 1.81 1.8151 3.1276 3.1427 3.1427 3.1735 3.1735 3.1126 3.1276 3.1276 3.1126 3.0978 3.0978 3.0978 3.1276 3.1126 3.083 3.0978 3.0398 3.054 3.0685 3.0685 3.0398 2.9976 2.9431 2.9167 2.9036 2.9167 2.9299 2.9036 2.8908 2.8779 2.8908 2.8908 2.8908 2.8908 2.8908 2.8653 2.8401 2.8277 2.8155 2.8032 2.7912 2.8032 2.8277 2.8277 2.7912 2.7912 2.8032 2.8155 2.8032 2.7912 2.7674 2.744 2.7096 2.721 2.721 2.721 2.721 2.721 2.6871 2.6651 2.6761 2.6761 2.6761 2.6761 2.6651 2.6651 2.6326 2.6326 2.622 2.622 2.622 2.622 2.6115 2.6115 2.5906 2.601 2.6115 2.6115 2.6115 2.6115 2.601 2.601 2.5906 2.56 2.5399 2.53 2.5201 2.5201 2.5104 2.5008 2.4911 2.4721 2.4535 2.4535 2.4535 2.4721 2.4535 2.4535 2.4535 2.435 2.4442 2.435 2.426 2.4169 2.4079 2.3902 2.3814 2.3814 2.3814 2.3727 2.364 2.364 2.364 2.3555 2.3555 2.347 2.3218 2.3301 2.3135 2.3135 2.3053 2.3053 2.3218 2.3301 2.3301 2.3555 2.364 2.347 2.347 2.3218 2.3218 2.3053 2.2971 2.289 2.281 2.265 2.265 2.2571 2.2571 2.2571 2.265 2.265 2.273 2.2492 2.2492 2.2415 2.2339 2.2339 2.2261 2.211 2.2035 2.196 2.174 2.174 2.1666 2.1595 2.1522 2.1381 2.1381 2.1311 2.1311 2.1381 2.1381 2.1241 2.1171 2.1171 2.1171 2.1171 2.1103 2.1035 2.1035 2.1035 2.1035 2.1035 2.1171 2.1171 2.1171 2.1103 2.1103 2.1035 2.1103 2.1035 2.0899 2.0833 2.0765 2.0634 2.0568 2.0568 2.0503 2.0439 2.031 2.031 2.0246 2.0121 2.0121 2.0121 1.9997 1.9936 1.9814 1.9814 1.9814 1.9634 1.9634 1.9634 1.9575 1.9575 1.9516 1.9516 1.9575 1.9516 1.9516 1.9575 1.9575 1.9575 1.9634 1.9634 1.9634 1.9634 1.9575 1.9516 1.9399 1.9341 1.9399 1.9226 1.9226 1.917 1.917 1.917 1.9114 1.917 1.917 1.9114 1.9001 1.8946 1.8946 1.8946 1.8946 1.8836 1.8781 1.8781 1.8674 1.8674 1.862 1.8514 1.8461 1.8409 1.8305 1.8202 1.805 1.805 1.8 1.8 1.795 1.795 1.79 1.7754 1.7705 1.7754 1.7851 1.79 1.79 1.7851 1.7803 1.7803 1.7851 1.795 1.79 1.7851 1.7803 1.7705 1.7657 1.7657 1.7609 1.7609 1.7609 1.7609 1.7514 1.7514 1.742 1.742 1.7374 1.7189 1.7144 1.7099 1.7099 1.7099 1.7009 1.6965 1.7009 1.6876 1.6876 1.692 1.692 1.6965 1.6965 1.6965 1.7009 1.7009 1.6965 1.6965 1.6876 1.6876 1.6832 1.6745 1.6703 1.666 1.6575 1.6533 1.6533 1.6533 1.6533 1.6616 1.6745 1.6789 1.6789 1.6789 1.6745 1.6616 1.6575 1.6575 1.6449 1.6406 1.6284 1.6242 1.6201 1.6161 1.6161 1.6201 1.6161 1.6121 1.6121 1.6081 1.6041 1.6041 1.6041 1.6002 1.5885 1.5808 1.573 1.5617 1.558 1.558 1.5468 1.5468 1.5431 1.5431 1.5468
1.8 1.795 1.795 1.795 1.79 1.7851 1.7851 1.7851 1.79 1.8 1.81 1.81 1.8151 3.1427 3.1276 3.1581 3.1735 3.2049 3.1276 3.1427 3.1427 3.1276 3.1126 3.1126 3.1276 3.1276 3.0978 3.083 3.0685 3.0255 3.0398 3.0685 3.054 3.0398 2.9838 2.9299 2.9167 2.9036 2.9299 2.9566 2.9167 2.9167 2.9167 2.9036 2.9167 2.9036 2.9036 2.9036 2.8653 2.8401 2.8277 2.8032 2.7912 2.7912 2.8032 2.8401 2.8401 2.8032 2.7912 2.8155 2.8277 2.8277 2.8155 2.7793 2.7556 2.721 2.721 2.7325 2.7325 2.7325 2.7325 2.7096 2.6871 2.6871 2.6761 2.6651 2.6651 2.6651 2.6543 2.622 2.622 2.622 2.622 2.622 2.622 2.622 2.6115 2.6115 2.601 2.6115 2.622 2.6115 2.6115 2.601 2.6115 2.601 2.5701 2.5499 2.53 2.5201 2.5201 2.5201 2.5104 2.5008 2.4721 2.4535 2.4535 2.4535 2.4628 2.4628 2.4535 2.4535 2.435 2.426 2.426 2.426 2.4079 2.4079 2.3902 2.3814 2.3814 2.3727 2.3814 2.364 2.364 2.364 2.3555 2.3555 2.347 2.3218 2.3301 2.3135 2.3053 2.2971 2.3053 2.3218 2.3301 2.3385 2.347 2.3555 2.347 2.3385 2.3301 2.3135 2.3053 2.289 2.281 2.273 2.265 2.2571 2.2571 2.2571 2.2571 2.2571 2.265 2.2571 2.2571 2.2492 2.2415 2.2261 2.2261 2.2261 2.2035 2.196 2.1886 2.174 2.174 2.1666 2.1595 2.1522 2.1311 2.1311 2.1241 2.1311 2.1311 2.1311 2.1241 2.1171 2.1241 2.1171 2.1241 2.1171 2.1171 2.1171 2.1171 2.1171 2.1171 2.1241 2.1241 2.1171 2.1171 2.1171 2.1103 2.1103 2.1035 2.0899 2.0833 2.0765 2.0568 2.0503 2.0503 2.0503 2.0439 2.031 2.031 2.0246 2.0184 2.0184 2.0121 1.9997 1.9875 1.9875 1.9814 1.9814 1.9634 1.9634 1.9634 1.9634 1.9634 1.9575 1.9634 1.9634 1.9516 1.9575 1.9575 1.9634 1.9634 1.9634 1.9634 1.9694 1.9634 1.9634 1.9634 1.9516 1.9516 1.9516 1.9284 1.9284 1.9284 1.917 1.9226 1.9226 1.917 1.917 1.9114 1.9058 1.8946 1.8946 1.8891 1.8946 1.8781 1.8727 1.8727 1.8674 1.8674 1.862 1.8461 1.8461 1.8461 1.8461 1.8356 1.8305 1.8305 1.8253 1.8202 1.8202 1.8151 1.805 1.79 1.7754 1.7803 1.79 1.795 1.795 1.795 1.79 1.79 1.795 1.81 1.81 1.8 1.79 1.7803 1.7754 1.7705 1.7657 1.7657 1.7657 1.7609 1.7561 1.7561 1.7466 1.742 1.7374 1.7189 1.7144 1.7099 1.7099 1.7099 1.7054 1.6965 1.7009 1.6876 1.692 1.692 1.692 1.692 1.6965 1.6965 1.6965 1.6965 1.6965 1.692 1.6876 1.6876 1.6832 1.6745 1.6745 1.6703 1.6575 1.6533 1.649 1.6533 1.6533 1.6575 1.6745 1.6745 1.6789 1.6832 1.6789 1.6703 1.6703 1.666 1.6575 1.6449 1.6324 1.6284 1.6242 1.6201 1.6201 1.6242 1.6161 1.6161 1.6161 1.6081 1.6041 1.6081 1.6041 1.6002 1.5885 1.5808 1.573 1.5617 1.558 1.558 1.5505 1.5505 1.5505 1.5468 1.5542
1.805 1.805 1.8 1.8 1.795 1.795 1.79 1.79 1.795 1.805 1.805 1.81 1.81 1.805 1.8 1.8305 0 3.286 3.1427 3.1427 3.1581 3.1427 3.1276 3.1427 3.1427 3.1427 3.1126 3.083 3.0685 2.9976 3.0115 3.0398 3.0398 3.0115 2.9838 2.9167 2.9036 2.9036 2.9299 2.9701 2.9036 2.9036 2.9036 2.9167 2.9036 2.9167 2.9036 2.9036 2.8653 2.8277 2.8277 2.8155 2.8155 2.8155 2.8277 2.8526 2.8653 2.8155 2.8155 2.8401 2.8401 2.8401 2.8155 2.7912 2.7556 2.7325 2.7325 2.7325 2.7325 2.7325 2.7325 2.7096 2.6984 2.6984 2.6761 2.6761 2.6543 2.6543 2.6543 2.622 2.622 2.622 2.6115 2.6326 2.622 2.622 2.622 2.601 2.6115 2.6115 2.622 2.6115 2.601 2.601 2.6115 2.6115 2.5701 2.56 2.53 2.53 2.53 2.5201 2.5104 2.5008 2.4721 2.4628 2.4535 2.4628 2.4628 2.4535 2.4535 2.4442 2.435 2.435 2.426 2.426 2.4079 2.4079 2.3902 2.3902 2.3814 2.3902 2.3814 2.364 2.364 2.364 2.3555 2.3555 2.3385 2.3301 2.3301 2.3218 2.3135 2.2971 2.3053 2.3218 2.3301 2.3385 2.347 2.347 2.3385 2.3385 2.3301 2.3135 2.3053 2.281 2.281 2.273 2.265 2.2571 2.2571 2.2571 2.2571 2.2571 2.265 2.2492 2.2492 2.2415 2.2339 2.2261 2.2185 2.211 2.2035 2.196 2.1812 2.174 2.1666 2.1595 2.1522 2.1452 2.1311 2.1241 2.1241 2.1241 2.1311 2.1241 2.1241 2.1171 2.1171 2.1241 2.1311 2.1171 2.1241 2.1241 2.1171 2.1171 2.1241 2.1311 2.1311 2.1171 2.1171 2.1171 2.1103 2.1103 2.1035 2.0899 2.0899 2.0765 2.0568 2.0568 2.0503 2.0503 2.0439 2.0374 2.031 2.031 2.0184 2.0184 2.0121 1.9997 1.9875 1.9875 1.9875 1.9814 1.9694 1.9694 1.9694 1.9694 1.9634 1.9634 1.9575 1.9575 1.9575 1.9575 1.9575 1.9634 1.9634 1.9575 1.9634 1.9634 1.9634 1.9575 1.9516 1.9458 1.9458 1.9516 1.9284 1.9226 1.9226 1.917 1.917 1.917 1.9226 1.917 1.9114 1.9001 1.8946 1.8836 1.8836 1.8836 1.8727 1.8674 1.862 1.8566 1.862 1.8514 1.8461 1.8409 1.8409 1.8461 1.8409 1.8356 1.8356 1.8356 1.8253 1.8253 1.8253 1.81 1.8 1.7851 1.7851 1.79 1.795 1.8 1.8 1.795 1.795 1.8 1.8151 1.8202 1.805 1.795 1.79 1.7754 1.7754 1.7754 1.7705 1.7705 1.7657 1.7561 1.7561 1.7466 1.742 1.7374 1.7189 1.7144 1.7099 1.7099 1.7099 1.7054 1.6965 1.7009 1.692 1.692 1.692 1.692 1.6965 1.6965 1.6965 1.7009 1.6965 1.6965 1.692 1.6832 1.6789 1.6789 1.6745 1.6703 1.666 1.6533 1.649 1.649 1.649 1.649 1.6616 1.6703 1.6703 1.6745 1.6832 1.6745 1.6745 1.6703 1.666 1.6533 1.6449 1.6365 1.6284 1.6242 1.6201 1.6201 1.6242 1.6161 1.6201 1.6161 1.6081 1.6041 1.6081 1.6041 1.5962 1.5885 1.5808 1.573 1.558 1.558 1.5542 1.5505 1.5505 1.5505 1.5505 1.5542
1.8 1.8 1.8 1.795 1.795 1.79 1.79 1.79 1.79 1.8 1.8 1.805 1.8 1.795 1.8 1.8151 1.8 1.795 3.1427 3.1581 3.1735 3.1427 3.1427 3.1427 3.1581 3.1581 3.1276 3.083 3.083 2.9167 2.9431 2.9431 2.9566 2.9566 2.9431 2.8908 2.8779 2.8779 2.9036 2.9167 2.8908 2.9036 2.9036 2.9036 2.9036 2.9167 2.9036 2.8908 2.8653 2.8401 2.8401 2.8032 2.8155 2.8277 2.8401 2.8779 2.8779 2.8526 2.8401 2.8526 2.8653 2.8653 2.8277 2.8032 2.7556 2.744 2.7325 2.744 2.744 2.744 2.7325 2.721 2.6984 2.6984 2.6761 2.6651 2.6543 2.6434 2.6434 2.622 2.6115 2.622 2.6115 2.6326 2.6326 2.622 2.6115 2.6115 2.6115 2.622 2.6115 2.6115 2.6115 2.601 2.6115 2.6115 2.5802 2.56 2.5399 2.5399 2.53 2.53 2.5201 2.5008 2.4816 2.4721 2.4628 2.4721 2.4628 2.4535 2.4535 2.435 2.435 2.435 2.435 2.4169 2.4169 2.4079 2.3902 2.3902 2.3902 2.3902 2.3814 2.3727 2.364 2.364 2.3555 2.3555 2.347 2.3218 2.3218 2.3135 2.3135 2.3053 2.3053 2.3135 2.3218 2.3301 2.347 2.347 2.3301 2.3218 2.3218 2.3135 2.3053 2.273 2.273 2.273 2.2571 2.2492 2.2571 2.2571 2.2571 2.2571 2.2492 2.2492 2.2339 2.2339 2.2261 2.211 2.196 2.1886 2.1812 2.1812 2.1666 2.1666 2.1666 2.1522 2.1452 2.1311 2.1241 2.1241 2.1241 2.1241 2.1241 2.1241 2.1171 2.1171 2.1171 2.1171 2.1241 2.1241 2.1171 2.1171 2.1171 2.1171 2.1171 2.1311 2.1311 2.1241 2.1171 2.1103 2.1035 2.1035 2.0966 2.0899 2.0765 2.0699 2.0503 2.0503 2.0503 2.0439 2.0439 2.031 2.031 2.031 2.0184 2.0184 2.0121 2.0059 1.9936 1.9875 1.9814 1.9814 1.9694 1.9694 1.9754 1.9694 1.9694 1.9694 1.9575 1.9634 1.9575 1.9575 1.9575 1.9634 1.9634 1.9634 1.9516 1.9575 1.9575 1.9516 1.9516 1.9341 1.9341 1.9399 1.9226 1.9226 1.9226 1.9226 1.917 1.917 1.917 1.917 1.9058 1.9001 1.8891 1.8836 1.8781 1.8727 1.8674 1.862 1.8566 1.8514 1.8514 1.8461 1.8409 1.8409 1.8409 1.8409 1.8409 1.8409 1.8461 1.8409 1.8305 1.8409 1.8356 1.8151 1.8 1.79 1.79 1.795 1.8 1.805 1.8 1.8 1.8 1.805 1.8151 1.8202 1.81 1.8 1.79 1.7754 1.7705 1.7705 1.7705 1.7657 1.7657 1.7561 1.7561 1.7466 1.742 1.7328 1.7235 1.7144 1.7144 1.7054 1.7054 1.7054 1.7009 1.7009 1.692 1.692 1.692 1.692 1.692 1.692 1.692 1.6965 1.692 1.6876 1.6876 1.6745 1.6745 1.6745 1.666 1.666 1.6616 1.649 1.6449 1.6406 1.6449 1.649 1.6575 1.666 1.666 1.666 1.6745 1.6703 1.666 1.6703 1.666 1.6533 1.6449 1.6365 1.6324 1.6242 1.6242 1.6201 1.6242 1.6201 1.6201 1.6161 1.6121 1.6081 1.6121 1.6041 1.5962 1.5924 1.5808 1.573 1.5617 1.5617 1.558 1.5505 1.5505 1.5505 1.5542 1.5542
1.805 1.8 1.795 1.795 1.795 1.79 1.79 1.79 1.795 1.795 1.795 1.8 1.795 1.795 1.79 1.81 1.805 1.795 3.1735 3.2049 3.2207 3.1891 3.1735 3.1891 3.1891 3.2049 3.1735 3.1427 3.1427 2.9167 2.9167 2.9167 2.9299 2.9167 2.9167 2.8779 2.8779 2.8653 2.8908 2.8908 2.8779 2.8908 2.9036 2.9036 2.9036 2.9036 2.9167 2.9167 2.8908 2.8653 2.8526 2.8401 2.8526 2.8653 2.8779 2.9036 2.9036 2.8779 2.8779 2.8908 2.9036 2.8908 2.8526 2.8155 2.7556 2.7556 2.7556 2.744 2.744 2.7556 2.744 2.721 2.7096 2.7096 2.6761 2.6651 2.6651 2.6543 2.6543 2.6326 2.6326 2.6326 2.6326 2.6326 2.6326 2.6434 2.6434 2.6115 2.6115 2.6326 2.6115 2.622 2.6115 2.622 2.6115 2.6115 2.601 2.5802 2.56 2.56 2.5499 2.5399 2.53 2.5104 2.4911 2.4911 2.4816 2.4816 2.4721 2.4628 2.4535 2.4442 2.426 2.435 2.435 2.426 2.4169 2.4079 2.4079 2.4079 2.3902 2.399 2.3902 2.3727 2.364 2.364 2.3555 2.347 2.3385 2.3301 2.3301 2.3218 2.3218 2.3218 2.3218 2.3218 2.3218 2.3218 2.347 2.347 2.3385 2.3301 2.3218 2.3053 2.2971 2.273 2.273 2.273 2.2571 2.2571 2.2571 2.265 2.265 2.2571 2.2492 2.2339 2.2415 2.2261 2.2261 2.196 2.1886 2.1812 2.174 2.1666 2.1666 2.1595 2.1595 2.1452 2.1452 2.1381 2.1241 2.1241 2.1241 2.1241 2.1241 2.1311 2.1171 2.1171 2.1171 2.1241 2.1241 2.1171 2.1171 2.1241 2.1103 2.1103 2.1241 2.1241 2.1241 2.1241 2.1171 2.1171 2.1035 2.1035 2.0966 2.0833 2.0833 2.0699 2.0503 2.0503 2.0503 2.0503 2.0439 2.031 2.0246 2.0246 2.0184 2.0121 2.0121 1.9997 1.9997 1.9875 1.9936 1.9875 1.9814 1.9754 1.9814 1.9814 1.9814 1.9754 1.9694 1.9694 1.9694 1.9694 1.9694 1.9694 1.9634 1.9575 1.9516 1.9575 1.9516 1.9516 1.9458 1.9399 1.9341 1.9284 1.9284 1.9226 1.9226 1.917 1.917 1.917 1.917 1.917 1.9058 1.9001 1.8946 1.8836 1.8836 1.8781 1.8674 1.8566 1.8566 1.8514 1.8514 1.8461 1.8409 1.8461 1.8409 1.8461 1.8409 1.8461 1.8461 1.8461 1.8409 1.8409 1.8409 1.8253 1.8151 1.8 1.8 1.8 1.805 1.81 1.805 1.805 1.805 1.8151 1.8253 1.8305 1.8151 1.805 1.795 1.7754 1.7705 1.7705 1.7657 1.7657 1.7609 1.7561 1.7514 1.7466 1.742 1.7328 1.7235 1.7189 1.7144 1.7099 1.7054 1.7009 1.7054 1.7009 1.6965 1.6965 1.6965 1.6965 1.6965 1.6965 1.692 1.692 1.692 1.6876 1.6832 1.6745 1.6745 1.666 1.6703 1.666 1.6616 1.649 1.6449 1.6406 1.6406 1.6449 1.6533 1.6616 1.666 1.666 1.6703 1.666 1.6703 1.6703 1.666 1.6575 1.649 1.6406 1.6324 1.6242 1.6242 1.6242 1.6284 1.6284 1.6242 1.6201 1.6201 1.6161 1.6161 1.6121 1.6041 1.5962 1.5924 1.5846 1.5769 1.573 1.5693 1.5693 1.5655 1.5655 1.5617 1.5617
1.8 1.8 1.8 1.795 1.795 1.795 1.79 1.79 1.795 1.795 1.795 1.795 1.79 1.7851 1.79 1.795 1.795 1.79 3.1891 3.2049 3.2207 3.1735 3.1735 3.1735 3.2049 3.2369 3.2049 3.1735 3.1581 2.9566 2.9299 2.9299 2.9167 2.9036 2.8779 2.8526 2.8653 2.8653 2.8779 2.8779 2.8779 2.8908 2.9167 2.9036 2.9036 2.9036 2.9036 2.9167 2.9036 2.8653 2.8526 2.8526 2.8653 2.8653 2.8779 2.9036 2.9036 2.8653 2.8779 2.8908 2.8908 2.8908 2.8401 2.8032 2.7674 2.7556 2.7556 2.7674 2.7556 2.7556 2.744 2.7325 2.7096 2.6984 2.6984 2.6761 2.6651 2.6543 2.6543 2.6434 2.6434 2.6326 2.6326 2.6434 2.6434 2.6434 2.6326 2.622 2.6115 2.622 2.622 2.6115 2.622 2.622 2.622 2.6115 2.601 2.601 2.56 2.56 2.56 2.5399 2.53 2.5201 2.5008 2.5008 2.4911 2.4816 2.4816 2.4535 2.4535 2.4442 2.435 2.435 2.435 2.426 2.4079 2.4079 2.4079 2.399 2.399 2.399 2.3902 2.3727 2.364 2.3555 2.347 2.3555 2.3385 2.3301 2.3301 2.3218 2.3301 2.3301 2.3218 2.3301 2.3301 2.3385 2.347 2.3385 2.347 2.3385 2.3218 2.3053 2.2971 2.273 2.273 2.265 2.265 2.2492 2.2571 2.2571 2.265 2.265 2.2415 2.2339 2.2339 2.2261 2.2185 2.2035 2.1886 2.1812 2.174 2.174 2.1666 2.1595 2.1595 2.1522 2.1452 2.1311 2.1241 2.1241 2.1171 2.1241 2.1311 2.1241 2.1241 2.1103 2.1171 2.1241 2.1241 2.1241 2.1171 2.1241 2.1103 2.1103 2.1171 2.1171 2.1241 2.1171 2.1171 2.1103 2.1035 2.0966 2.0899 2.0833 2.0765 2.0634 2.0568 2.0439 2.0503 2.0503 2.0374 2.0374 2.0246 2.0246 2.0184 2.0121 2.0121 1.9997 1.9936 1.9875 1.9875 1.9814 1.9814 1.9814 1.9814 1.9814 1.9814 1.9754 1.9694 1.9694 1.9694 1.9694 1.9694 1.9694 1.9634 1.9575 1.9575 1.9575 1.9575 1.9516 1.9458 1.9399 1.9399 1.9341 1.9284 1.9226 1.9226 1.9226 1.9226 1.917 1.917 1.917 1.9114 1.9001 1.8946 1.8836 1.8836 1.8836 1.8674 1.862 1.8566 1.8514 1.8514 1.8461 1.8461 1.8409 1.8409 1.8409 1.8409 1.8409 1.8461 1.8461 1.8356 1.8356 1.8356 1.8202 1.81 1.8 1.8 1.795 1.805 1.81 1.81 1.81 1.81 1.8202 1.8202 1.8253 1.8151 1.805 1.795 1.7754 1.7705 1.7705 1.7657 1.7657 1.7609 1.7561 1.7514 1.7466 1.742 1.7374 1.7235 1.7235 1.7189 1.7144 1.7099 1.7054 1.7009 1.7054 1.6965 1.6965 1.6965 1.692 1.6965 1.6965 1.692 1.692 1.6876 1.6832 1.6832 1.6745 1.6745 1.6703 1.666 1.6616 1.6575 1.649 1.6449 1.6406 1.6365 1.649 1.6533 1.6616 1.666 1.666 1.6703 1.6703 1.6703 1.6703 1.666 1.6533 1.649 1.6365 1.6324 1.6242 1.6242 1.6242 1.6284 1.6242 1.6242 1.6201 1.6201 1.6161 1.6201 1.6081 1.6081 1.5962 1.5924 1.5846 1.5846 1.5808 1.5769 1.573 1.573 1.5693 1.5693 1.5693
1.805 1.805 1.805 1.8 1.8 1.8 1.8 1.795 1.795 1.8 1.795 1.79 1.7851 1.7803 1.7803 1.7803 1.7851 1.79 3.1891 3.1891 3.2207 3.1735 3.1581 3.1891 3.2049 3.2369 3.2207 3.2049 3.2049 2.9566 3.0115 2.9976 2.9431 2.9167 2.8779 2.8401 2.8401 2.8526 2.8779 2.8779 2.8908 2.9036 2.9167 2.9167 2.9167 2.9036 2.9167 2.9036 2.9036 2.8908 2.8653 2.8653 2.8779 2.8908 2.8908 2.9036 2.9036 2.8779 2.8779 2.8779 2.8908 2.8779 2.8401 2.8032 2.7793 2.7556 2.7556 2.7556 2.7674 2.7674 2.7556 2.744 2.7325 2.7096 2.7096 2.6984 2.6761 2.6651 2.6651 2.6543 2.6434 2.6326 2.6434 2.6434 2.6434 2.6434 2.6326 2.6115 2.622 2.6115 2.622 2.6115 2.622 2.6115 2.622 2.6115 2.6115 2.6115 2.5701 2.5701 2.56 2.5499 2.5399 2.5201 2.5104 2.5008 2.5008 2.4911 2.4911 2.4721 2.4721 2.4628 2.4442 2.4442 2.4442 2.4169 2.4079 2.4079 2.4079 2.4169 2.4079 2.399 2.3902 2.3727 2.3727 2.3555 2.3555 2.347 2.3385 2.3301 2.3301 2.3218 2.3301 2.3301 2.3301 2.3301 2.3301 2.3301 2.347 2.3385 2.3385 2.3385 2.3135 2.3053 2.289 2.273 2.265 2.2571 2.2571 2.2571 2.2571 2.2571 2.2492 2.2492 2.2492 2.2415 2.2339 2.2261 2.211 2.2035 2.196 2.1886 2.174 2.1812 2.1666 2.1595 2.1595 2.1522 2.1452 2.1381 2.1171 2.1241 2.1171 2.1171 2.1311 2.1241 2.1241 2.1171 2.1103 2.1171 2.1241 2.1241 2.1171 2.1241 2.1103 2.1103 2.1103 2.1103 2.1103 2.1103 2.1035 2.0966 2.0899 2.0899 2.0833 2.0765 2.0699 2.0568 2.0568 2.0503 2.0503 2.0568 2.0439 2.0374 2.031 2.031 2.0246 2.0121 2.0121 1.9936 1.9875 1.9875 1.9814 1.9814 1.9754 1.9814 1.9814 1.9814 1.9875 1.9754 1.9754 1.9694 1.9754 1.9694 1.9694 1.9694 1.9634 1.9575 1.9516 1.9575 1.9575 1.9516 1.9458 1.9458 1.9399 1.9341 1.9284 1.9226 1.9226 1.9226 1.9226 1.9226 1.917 1.917 1.9114 1.9058 1.9001 1.8891 1.8836 1.8836 1.8674 1.8566 1.8566 1.8566 1.8566 1.8461 1.8461 1.8409 1.8409 1.8409 1.8409 1.8461 1.8461 1.8409 1.8356 1.8305 1.8356 1.8202 1.81 1.8 1.805 1.805 1.805 1.8151 1.8151 1.8151 1.8151 1.8202 1.8253 1.8253 1.805 1.805 1.795 1.7803 1.7754 1.7705 1.7705 1.7705 1.7657 1.7609 1.7561 1.7514 1.7466 1.742 1.7328 1.7235 1.7235 1.7144 1.7099 1.7099 1.7009 1.7054 1.6965 1.7009 1.6965 1.692 1.692 1.692 1.692 1.692 1.692 1.6789 1.6789 1.6745 1.6703 1.6703 1.6616 1.6616 1.6575 1.6533 1.649 1.649 1.6406 1.6533 1.6575 1.666 1.6703 1.6703 1.6745 1.6745 1.6703 1.666 1.6616 1.6533 1.649 1.6324 1.6284 1.6242 1.6242 1.6242 1.6242 1.6242 1.6242 1.6242 1.6201 1.6201 1.6242 1.6121 1.6081 1.6002 1.5962 1.5924 1.5846 1.5846 1.5808 1.5846 1.5808 1.5808 1.5769 1.5808
1.81 1.81 1.81 1.805 1.805 1.8 1.8 1.795 1.8 1.795 1.795 1.7851 1.7803 1.7754 1.7754 1.7803 1.7803 1.7803 1.7803 0 3.2049 3.1735 3.1581 3.1735 3.2049 3.2369 3.2207 3.2049 3.1891 3.1126 3.0685 3.0398 2.9838 2.9431 2.8908 2.8526 2.8401 2.8526 2.8779 2.8908 2.8908 2.9167 2.9299 2.9167 2.9167 2.9167 2.9167 2.9167 2.9167 2.8779 2.8779 2.8653 2.8779 2.8908 2.9036 2.9167 2.9036 2.8908 2.8908 2.8908 2.8908 2.8779 2.8277 2.8032 2.7793 2.7556 2.7556 2.7674 2.7674 2.7674 2.7556 2.744 2.7325 2.721 2.7096 2.7096 2.6871 2.6761 2.6651 2.6434 2.6434 2.6434 2.6434 2.6651 2.6543 2.6326 2.622 2.622 2.622 2.6115 2.6115 2.6115 2.6115 2.622 2.6115 2.6115 2.622 2.622 2.5701 2.56 2.56 2.5499 2.5399 2.53 2.5104 2.5104 2.5008 2.4911 2.4911 2.4721 2.4721 2.4721 2.4535 2.4442 2.4442 2.426 2.4169 2.4079 2.4169 2.426 2.4079 2.4079 2.3902 2.3814 2.364 2.364 2.3555 2.3555 2.3385 2.3385 2.3385 2.3301 2.3385 2.3385 2.3301 2.3301 2.3385 2.3301 2.3385 2.3385 2.3301 2.3218 2.3053 2.2971 2.289 2.265 2.2571 2.2571 2.2492 2.2571 2.2492 2.2492 2.2492 2.2492 2.2415 2.2492 2.2339 2.2261 2.211 2.211 2.2035 2.1886 2.1812 2.174 2.1666 2.1595 2.1595 2.1595 2.1452 2.1311 2.1241 2.1241 2.1171 2.1241 2.1241 2.1241 2.1171 2.1103 2.1103 2.1241 2.1241 2.1241 2.1241 2.1241 2.1171 2.1103 2.1103 2.1035 2.1103 2.1035 2.1103 2.0966 2.0833 2.0833 2.0833 2.0765 2.0699 2.0634 2.0503 2.0503 2.0503 2.0568 2.0568 2.0374 2.031 2.031 2.0246 2.0184 2.0121 1.9936 1.9936 1.9875 1.9814 1.9754 1.9754 1.9814 1.9814 1.9814 1.9875 1.9754 1.9754 1.9694 1.9694 1.9694 1.9634 1.9694 1.9575 1.9516 1.9516 1.9634 1.9634 1.9458 1.9458 1.9458 1.9458 1.9341 1.9341 1.9284 1.9226 1.9284 1.9226 1.9226 1.917 1.917 1.9114 1.9058 1.9001 1.8891 1.8836 1.8836 1.8674 1.862 1.8566 1.8566 1.8514 1.8514 1.8461 1.8409 1.8409 1.8409 1.8409 1.8461 1.8514 1.8409 1.8356 1.8305 1.8305 1.8253 1.8151 1.8 1.8 1.805 1.81 1.8151 1.8151 1.8151 1.8151 1.8202 1.8253 1.8253 1.805 1.8 1.795 1.7803 1.7754 1.7754 1.7657 1.7705 1.7657 1.7609 1.7609 1.7561 1.7514 1.742 1.7328 1.7281 1.7235 1.7144 1.7054 1.7054 1.7054 1.7009 1.6965 1.6965 1.6965 1.692 1.6965 1.692 1.6876 1.692 1.6876 1.6832 1.6789 1.6703 1.6703 1.666 1.666 1.6616 1.6575 1.6575 1.6533 1.6533 1.6533 1.6575 1.6616 1.6745 1.6745 1.6789 1.6745 1.6789 1.666 1.666 1.666 1.649 1.649 1.6284 1.6242 1.6201 1.6242 1.6242 1.6242 1.6242 1.6242 1.6242 1.6201 1.6242 1.6242 1.6161 1.6121 1.5962 1.5962 1.5962 1.5924 1.5846 1.5846 1.5808 1.5808 1.5769 1.5769 1.5846
1.805 1.805 1.805 1.805 1.805 1.8 1.795 1.79 1.795 1.8 1.795 1.7851 1.7803 1.7754 1.7754 1.7851 1.7851 1.7803 1.7803 0 3.2049 3.1276 3.1276 3.1581 3.2049 3.2049 3.2049 3.1891 3.1735 3.083 3.054 3.0255 2.9976 2.9566 2.9167 2.8653 2.8653 2.8779 2.8908 2.9036 2.9167 2.9299 2.9431 2.9299 2.9299 2.9299 2.9167 2.9299 2.9167 2.8908 2.8779 2.8653 2.8779 2.8908 2.8908 2.8908 2.8908 2.8653 2.8653 2.8653 2.8653 2.8526 2.8032 2.7793 2.7674 2.7556 2.744 2.7556 2.7556 2.7674 2.7556 2.744 2.7325 2.7325 2.721 2.7096 2.6871 2.6761 2.6761 2.6543 2.6543 2.6434 2.6434 2.6543 2.6543 2.6434 2.6326 2.622 2.622 2.6326 2.6115 2.622 2.622 2.622 2.6115 2.6115 2.601 2.622 2.56 2.5499 2.5499 2.5399 2.53 2.5201 2.5104 2.5008 2.5008 2.4911 2.4816 2.4628 2.4535 2.4535 2.435 2.435 2.426 2.399 2.3902 2.3902 2.399 2.426 2.4079 2.4079 2.3902 2.3814 2.3727 2.3727 2.364 2.364 2.3555 2.3385 2.3385 2.3301 2.3301 2.3301 2.3301 2.3218 2.3218 2.3301 2.3385 2.3218 2.3053 2.2971 2.281 2.273 2.273 2.2571 2.2571 2.2492 2.2492 2.2492 2.2492 2.2492 2.2492 2.2492 2.2415 2.2415 2.2339 2.2339 2.2185 2.211 2.196 2.196 2.1812 2.174 2.1666 2.1666 2.1595 2.1522 2.1452 2.1381 2.1311 2.1241 2.1311 2.1241 2.1241 2.1311 2.1171 2.1171 2.1171 2.1241 2.1311 2.1241 2.1241 2.1241 2.1171 2.1171 2.1103 2.1103 2.1103 2.1103 2.1035 2.0966 2.0833 2.0833 2.0833 2.0699 2.0699 2.0634 2.0503 2.0568 2.0503 2.0439 2.0374 2.031 2.0246 2.0246 2.0184 2.0059 2.0059 1.9814 1.9814 1.9754 1.9754 1.9754 1.9754 1.9814 1.9814 1.9814 1.9814 1.9754 1.9694 1.9694 1.9694 1.9694 1.9634 1.9634 1.9634 1.9516 1.9458 1.9634 1.9575 1.9516 1.9458 1.9516 1.9458 1.9458 1.9399 1.9341 1.9341 1.9284 1.9284 1.9226 1.9226 1.9226 1.9114 1.9058 1.8946 1.8891 1.8836 1.8781 1.862 1.8566 1.8514 1.8514 1.8461 1.8461 1.8356 1.8409 1.8356 1.8409 1.8409 1.8409 1.8461 1.8409 1.8356 1.8305 1.8253 1.8202 1.8151 1.805 1.805 1.805 1.805 1.8151 1.8151 1.8151 1.8151 1.8151 1.8202 1.8202 1.805 1.8 1.795 1.7851 1.7754 1.7754 1.7705 1.7754 1.7705 1.7609 1.7609 1.7609 1.7514 1.742 1.7328 1.7281 1.7235 1.7099 1.7054 1.7054 1.7009 1.7009 1.6965 1.6965 1.692 1.692 1.6876 1.6832 1.6832 1.6876 1.6832 1.6789 1.6789 1.6703 1.6703 1.666 1.666 1.6616 1.6616 1.6575 1.6533 1.6533 1.6533 1.6533 1.6533 1.6575 1.6575 1.6575 1.6575 1.6575 1.649 1.6449 1.6449 1.6324 1.6324 1.6284 1.6242 1.6201 1.6201 1.6242 1.6242 1.6242 1.6284 1.6284 1.6242 1.6284 1.6242 1.6242 1.6161 1.6081 1.6041 1.6002 1.5924 1.5924 1.5846 1.5808 1.5808 1.5808 1.5808 1.5846
1.805 1.805 1.81 1.805 1.81 1.805 1.8 1.8 1.795 1.8 1.8 1.795 1.79 1.7851 1.7803 1.795 1.795 1.795 1.79 0 3.2049 3.1427 3.1276 3.1581 3.2049 3.2049 3.2049 3.1891 3.1891 3.0978 3.0685 3.0398 3.0398 3.0255 2.9838 2.9299 2.9167 2.9299 2.9299 2.9299 2.9299 2.9566 2.9431 2.9431 2.9299 2.9299 2.9299 2.9299 2.9299 2.9167 2.9036 2.8779 2.8908 2.9036 2.9036 2.9036 2.8908 2.8779 2.8653 2.8653 2.8653 2.8526 2.8155 2.7912 2.7674 2.7556 2.7556 2.7556 2.7674 2.7556 2.7556 2.744 2.7325 2.7325 2.721 2.721 2.6871 2.6761 2.6761 2.6651 2.6543 2.6434 2.6434 2.6543 2.6651 2.6543 2.6434 2.6326 2.622 2.6434 2.622 2.622 2.622 2.6115 2.6115 2.6115 2.601 2.6115 2.5701 2.5499 2.5499 2.5399 2.53 2.53 2.5104 2.5104 2.5008 2.4816 2.4816 2.4535 2.4535 2.4442 2.435 2.426 2.4169 2.399 2.3902 2.3902 2.4079 2.435 2.4169 2.4169 2.4169 2.399 2.3902 2.3814 2.3814 2.3727 2.364 2.3555 2.347 2.3385 2.347 2.3385 2.3218 2.3218 2.3301 2.3301 2.3218 2.3218 2.3053 2.289 2.281 2.273 2.273 2.265 2.2571 2.2492 2.2571 2.2492 2.2492 2.2571 2.2571 2.2492 2.2571 2.2492 2.2492 2.2492 2.2339 2.2185 2.2035 2.196 2.1886 2.1886 2.1812 2.174 2.1666 2.1666 2.1595 2.1452 2.1452 2.1381 2.1381 2.1381 2.1311 2.1311 2.1241 2.1241 2.1241 2.1241 2.1311 2.1311 2.1241 2.1311 2.1171 2.1103 2.1103 2.1103 2.1171 2.1103 2.1103 2.0966 2.0899 2.0833 2.0833 2.0699 2.0634 2.0634 2.0568 2.0568 2.0503 2.0439 2.0374 2.0246 2.0246 2.0184 2.0184 2.0059 1.9997 1.9875 1.9814 1.9814 1.9754 1.9754 1.9754 1.9814 1.9814 1.9875 1.9814 1.9814 1.9754 1.9694 1.9694 1.9694 1.9694 1.9634 1.9634 1.9516 1.9516 1.9694 1.9634 1.9634 1.9575 1.9516 1.9458 1.9458 1.9399 1.9341 1.9284 1.9284 1.9284 1.9226 1.917 1.9226 1.917 1.9114 1.9001 1.8946 1.8891 1.8891 1.8674 1.862 1.8566 1.8514 1.8514 1.8461 1.8409 1.8356 1.8409 1.8409 1.8409 1.8409 1.8409 1.8356 1.8253 1.8253 1.8202 1.8151 1.81 1.805 1.805 1.81 1.81 1.8151 1.8151 1.8151 1.8202 1.8151 1.8202 1.8202 1.805 1.8 1.795 1.7851 1.7803 1.7803 1.7754 1.7754 1.7705 1.7705 1.7657 1.7609 1.7561 1.7466 1.7374 1.7281 1.7235 1.7144 1.7099 1.7099 1.7009 1.7009 1.6965 1.6965 1.6965 1.6876 1.692 1.6876 1.6876 1.6876 1.6832 1.6789 1.6789 1.6703 1.6745 1.6703 1.6703 1.6703 1.666 1.666 1.6616 1.6575 1.6575 1.6533 1.6575 1.6533 1.6533 1.6575 1.6533 1.6533 1.6406 1.6365 1.6365 1.6284 1.6284 1.6284 1.6201 1.6201 1.6201 1.6242 1.6242 1.6284 1.6284 1.6324 1.6284 1.6324 1.6284 1.6284 1.6242 1.6161 1.6201 1.6161 1.6121 1.6081 1.6002 1.5962 1.5924 1.5924 1.5885 1.5885
1.81 1.81 1.81 1.81 1.81 1.81 1.8 1.8 1.8 1.805 1.805 1.8 1.795 1.79 1.7851 1.8 1.8 1.8 1.8 0 3.2207 3.1427 3.1276 3.1581 3.1891 3.2049 3.2049 3.2049 3.2049 3.1126 3.0685 3.054 3.0398 3.054 3.0115 2.9701 2.9431 2.9431 2.9431 2.9431 2.9431 2.9701 2.9566 2.9431 2.9299 2.9299 2.9299 2.9299 2.9299 2.9167 2.9036 2.9036 2.9036 2.9167 2.9167 2.9167 2.9036 2.9036 2.8908 2.8908 2.8653 2.8653 2.8155 2.7912 2.7674 2.7556 2.7556 2.7674 2.7556 2.7556 2.7556 2.744 2.744 2.7325 2.721 2.721 2.6761 2.6761 2.6761 2.6651 2.6543 2.6543 2.6434 2.6651 2.6651 2.6543 2.6434 2.6326 2.6326 2.6326 2.622 2.622 2.6115 2.6115 2.601 2.601 2.601 2.601 2.5701 2.56 2.5499 2.5399 2.5399 2.53 2.5201 2.5104 2.5008 2.4816 2.4721 2.4442 2.4442 2.4442 2.426 2.426 2.4169 2.399 2.399 2.3902 2.426 2.435 2.426 2.426 2.426 2.4079 2.399 2.399 2.3902 2.3814 2.3727 2.364 2.364 2.3385 2.347 2.347 2.3301 2.3301 2.3301 2.3218 2.3301 2.3135 2.2971 2.289 2.281 2.273 2.273 2.265 2.2571 2.2571 2.2492 2.2571 2.2571 2.2571 2.265 2.2492 2.2492 2.2492 2.2571 2.2571 2.2492 2.2185 2.2185 2.2035 2.196 2.1886 2.1886 2.1812 2.1812 2.1666 2.1595 2.1522 2.1452 2.1381 2.1381 2.1311 2.1241 2.1241 2.1241 2.1171 2.1171 2.1241 2.1311 2.1241 2.1311 2.1311 2.1171 2.1171 2.1103 2.1103 2.1103 2.1103 2.1103 2.0966 2.0899 2.0833 2.0765 2.0699 2.0634 2.0634 2.0568 2.0568 2.0503 2.0439 2.0374 2.0246 2.0246 2.0184 2.0121 2.0059 1.9997 1.9875 1.9814 1.9814 1.9754 1.9754 1.9754 1.9814 1.9814 1.9875 1.9875 1.9814 1.9814 1.9814 1.9754 1.9694 1.9694 1.9694 1.9634 1.9575 1.9575 1.9634 1.9634 1.9575 1.9575 1.9516 1.9458 1.9399 1.9341 1.9284 1.9226 1.9226 1.917 1.917 1.9226 1.917 1.917 1.917 1.9058 1.9001 1.8946 1.8946 1.8781 1.8674 1.862 1.8566 1.8566 1.8514 1.8409 1.8409 1.8356 1.8356 1.8409 1.8356 1.8356 1.8356 1.8202 1.8202 1.8151 1.81 1.805 1.805 1.81 1.81 1.81 1.8202 1.8151 1.8151 1.8202 1.8202 1.8202 1.8151 1.805 1.8 1.795 1.7851 1.7851 1.7803 1.7754 1.7754 1.7705 1.7705 1.7657 1.7609 1.7514 1.7466 1.7374 1.7281 1.7281 1.7189 1.7144 1.7099 1.7054 1.7054 1.6965 1.6965 1.7009 1.692 1.692 1.692 1.6876 1.6876 1.6876 1.6789 1.6789 1.6703 1.6745 1.6745 1.6745 1.6745 1.666 1.666 1.6616 1.6616 1.6575 1.6575 1.6575 1.6533 1.6533 1.6533 1.6533 1.649 1.6365 1.6324 1.6324 1.6284 1.6242 1.6242 1.6242 1.6161 1.6161 1.6242 1.6242 1.6324 1.6284 1.6324 1.6324 1.6365 1.6284 1.6284 1.6284 1.6201 1.6161 1.6201 1.6161 1.6161 1.6121 1.6002 1.6041 1.6002 1.5924 1.5924
