0.19475 0.19512 0.19537 0.19512 0.195 0 0 0 0 0 0 0 0 0 0 0 0.29825 0.298 0.29738 0.29387 0.294 0.29287 0.29287 0.29313 0.2935 0.29337 0.29337 0.29337 0.29363 0.29387 0.29375 0.294 0.294 0.29375 0.29363 0.2935 0.29325 0.29337 0.29337 0.2935 0.29375 0.29387 0.29413 0 0.29375 0.29375 0.28975 0.28987 0.291 0.29 0.28987 0.28975 0.29037 0.29037 0.29275 0.29287 0.29287 0.293 0.293 0.2935 0.2935 0.2935 0.29375 0.29363 0.29363 0.293 0.29287 0.29313 0.29313 0.29287 0.29263 0.292 0.29213 0.292 0.29175 0.29187 0.2945 0.29313 0.29325 0.294 0.294 0.294 0.2955 0.29563 0.29563 0.29563 0.29575 0.296 0.29587 0.29537 0.29363 0.29363 0.29463 0.29475 0.29487 0.29513 0.295 0.29513 0.29563 0.29575 0.29587 0.29587 0.29613 0.29613 0.29563 0.29563 0.29563 0.2955 0.29525 0.29487 0.29463 0.29463 0.29475 0.29463 0.29463 0.29463 0.295 0.29487 0.29487 0.29513 0.29525 0.29513 0.29513 0.29475 0.29463 0.2945 0.29463 0.29475 0.2945 0.29363 0.29375 0.29375 0.29387 0.29413 0.29675 0.297 0.297 0.29712 0.29762 0.2975 0.29575 0.29575 0.29525 0.29537 0.29537 0.29487 0.29487 0.29475 0.29475 0.29738 0.297 0.29663 0.29675 0.29663 0.297 0.29712 0.29712 0.297 0.29675 0.29537 0.29475 0.29425 0.29375 0.2945 0.29475 0.29475 0.29688 0.297 0 0 0 0 0 0 0 0 0 0 0 0 0 0 0 0 0 0 0 0 0 0 0 0 0 0 0 0 0 0 0 0 0 0 0 0 0 0 0 0 0 0 0 0 0 0 0 0 0 0 0 0 0 0 0 0 0 0 0 0 0 0 0 0 0 0 0 0.17988 0.17988 0.17863 0.1785 0.1785 0.1785 0.1785 0.17838 0.17838 0.17838 0.17863 0.17875 0.179 0.179 0.179 0.17988 0.18 0.18 0.18025 0.18038 0.1805 0.18063 0.18075 0.18088 0.181 0.18113 0.18163 0.18175 0.18213 0.18225 0.18238 0.18288 0.18288 0.18288 0.18325 0.18325 0.1835 0.1835 0.18363 0.18388 0.18388 0.184 0.18438 0.18438 0.1845 0.18463 0.18475 0.185 0.18513 0.18525 0.1855 0.18575 0.18625 0.18625 0.18638 0.1865 0.1865 0.18663 0.18688 0.187 0.187 0.18725 0.18738 0.18775 0.18787 0.188 0.18837 0.18862 0.18875 0.18912 0.18925 0.18962 0.18962 0.18975 0.19 0.19012 0.19025 0.19062 0.19075 0.191 0.19112 0.19112 0.19137 0.1915 0.1915 0.19175 0.19175 0.19187 0.19187 0.19187 0.193 0.193 0.19312 0.1935 0.19362 0.19375 0.19375 0.19387 0.19437 0.19462 0.19475 0.19512 0.19525 0.1955 0.19562 0.19562 0.19587 0.196 0.19612 0.19662 0.19687 0.197 0.19712 0.19725 0.1975 0.19762 0.19787 0.19825 0.19837 0.1985 0.19887 0.199 0.19912 0.19925 0.19925
0.19487 0.19512 0.19512 0.19525 0.195 0.19562 0.19575 0 0 0 0 0 0 0 0.29375 0.29375 0.2935 0.2935 0.29337 0.29175 0.29187 0.29087 0.29125 0.29187 0.29213 0.28987 0.29 0.29 0.28987 0.29313 0.29213 0.29213 0.29213 0.28975 0.28975 0.29025 0.29037 0.2925 0.2925 0.29025 0.29037 0.29387 0.29413 0 0.29375 0.29375 0.28975 0.28975 0.28975 0.28987 0.28975 0.28975 0.29 0.29013 0.29163 0.29163 0.29175 0.29187 0.29187 0.29237 0.29213 0.29263 0.29313 0.29287 0.29275 0.29113 0.2915 0.29213 0.29213 0.29187 0.29187 0.29025 0.28937 0.2895 0.28925 0.289 0.28937 0.28937 0.29163 0.292 0.29213 0.292 0.29213 0.29213 0.29275 0.29175 0.29187 0.294 0.2915 0.2915 0.29363 0.29363 0.29363 0.29375 0.29363 0.29175 0.29137 0.29137 0.29113 0.29113 0.29113 0.29075 0.29087 0.29075 0.29137 0.29125 0.29137 0.29137 0.2915 0.29387 0.29325 0.29275 0.292 0.29187 0.292 0.29363 0.29363 0.29363 0.29363 0.29387 0.294 0.29425 0.29425 0.29387 0.2935 0.29325 0.29337 0.2935 0.2935 0.29325 0.29313 0.293 0.29287 0.29275 0.29275 0.29213 0.292 0.29087 0.29087 0.29075 0.29013 0.29013 0.29237 0.29237 0.29237 0.29263 0.2925 0.29263 0.29087 0.29075 0.29337 0.29337 0.29363 0.29337 0.2935 0.29375 0.29363 0.29375 0.29363 0.2925 0.29263 0.293 0.29313 0.29363 0.29413 0.29213 0.29237 0.297 0 0 0 0 0 0 0 0 0 0 0 0 0 0 0 0 0 0 0 0 0 0 0 0 0 0 0 0 0 0 0 0 0 0 0 0 0 0 0 0 0 0 0 0 0 0 0 0 0 0 0 0 0 0 0 0 0 0 0 0 0 0 0 0 0 0 0 0.17988 0.17988 0.17863 0.1785 0.1785 0.1785 0.1785 0.17838 0.17838 0.17838 0.1785 0.179 0.179 0.179 0.179 0.18 0.18 0.18013 0.18038 0.18038 0.1805 0.18075 0.18075 0.181 0.181 0.18113 0.1815 0.18163 0.182 0.18225 0.18238 0.18288 0.18288 0.183 0.18325 0.18325 0.1835 0.18363 0.18375 0.184 0.184 0.18413 0.18438 0.1845 0.18463 0.18475 0.18488 0.18513 0.18525 0.18538 0.18563 0.18588 0.18625 0.18625 0.18638 0.1865 0.1865 0.18663 0.18688 0.187 0.187 0.18713 0.18725 0.18775 0.18787 0.188 0.18837 0.1885 0.18862 0.18912 0.18925 0.18962 0.18962 0.18962 0.19 0.19012 0.19025 0.19062 0.19075 0.19112 0.19112 0.19112 0.19137 0.1915 0.19162 0.19187 0.19187 0.19212 0.19212 0.19187 0.19312 0.19312 0.19312 0.1935 0.1935 0.19375 0.19375 0.19387 0.19437 0.19462 0.19475 0.19512 0.19537 0.19562 0.19562 0.19575 0.196 0.19612 0.19625 0.19662 0.19675 0.197 0.19712 0.19725 0.1975 0.19762 0.19775 0.198 0.19825 0.19875 0.19887 0.199 0.19912 0.19912 0.19925
0.19487 0.19512 0.19512 0.19525 0.19537 0.19562 0.19562 0 0 0 0 0 0 0 0.29375 0.29375 0.2935 0.293 0.29287 0.29175 0.29187 0.29087 0.291 0.29137 0.29163 0.28987 0.28987 0.28987 0.28987 0.29187 0.292 0.29213 0.29187 0.28975 0.28963 0.28975 0.29037 0.29237 0.29263 0.29025 0.29037 0 0 0 0 0 0.28975 0.289 0.28925 0.2895 0.28963 0.28963 0.28963 0.2905 0.29087 0.291 0.29163 0.29187 0.29175 0.29213 0.292 0.29187 0.29313 0.29287 0.29275 0.29113 0.29113 0.29213 0.292 0.29175 0.29187 0.29025 0.28963 0.28925 0.28925 0.28925 0.28925 0.28937 0.29163 0.292 0.292 0.29175 0.29175 0.292 0.29213 0.29175 0.29187 0.294 0.2915 0.2915 0.29363 0.29363 0.29363 0.29363 0.29363 0.29175 0.29075 0.29137 0.29113 0.29113 0.29113 0.29075 0.29025 0.2905 0.29075 0.291 0.29087 0.291 0.2915 0.29387 0.29263 0.292 0.29175 0.29187 0.292 0.29363 0.2935 0.2935 0.2935 0.29363 0.29387 0.29387 0.29387 0.2935 0.293 0.29275 0.293 0.29313 0.29325 0.293 0.29287 0.29287 0.29263 0.29263 0.2925 0.29213 0.292 0.29087 0.2905 0.2905 0.29013 0.29013 0.29237 0.29163 0.29175 0.292 0.292 0.292 0.29087 0.29075 0.29337 0.29337 0.29363 0.29337 0.2935 0.29375 0.29363 0.29375 0.29363 0.2925 0.29263 0.29313 0.293 0.29325 0.29475 0.29213 0.29237 0 0 0 0 0 0 0 0 0 0 0 0 0 0 0 0 0 0 0 0 0 0 0 0 0 0 0 0 0 0 0 0 0 0 0 0 0 0 0 0 0 0 0 0 0 0 0 0 0 0 0 0 0 0 0 0 0 0 0 0 0 0 0 0 0 0 0 0 0 0 0.17863 0.17875 0.17863 0.17863 0.17863 0.1785 0.1785 0.1785 0.17875 0.17938 0.17975 0.18 0.18 0.18025 0.18025 0.18038 0.1805 0.1805 0.18075 0.18088 0.18088 0.181 0.18113 0.18125 0.1815 0.18163 0.18213 0.18238 0.1825 0.18288 0.183 0.183 0.18338 0.1835 0.18375 0.18388 0.184 0.18425 0.18438 0.1845 0.18463 0.18463 0.18488 0.18488 0.185 0.18538 0.1855 0.18563 0.18588 0.186 0.18625 0.18638 0.18638 0.18663 0.18663 0.18663 0.18688 0.187 0.187 0.18725 0.18738 0.18775 0.18787 0.188 0.18837 0.1885 0.18862 0.18912 0.18925 0.1895 0.18962 0.18975 0.19012 0.19025 0.1905 0.19075 0.19087 0.19112 0.19125 0.19137 0.1915 0.19162 0.19175 0.19212 0.19225 0.19262 0.19275 0.19287 0.19325 0.19325 0.19337 0.19362 0.19362 0.19375 0.19387 0.194 0.19412 0.19487 0.195 0.19537 0.1955 0.19575 0.19575 0.19587 0.19625 0.19625 0.19637 0.19675 0.19687 0.19712 0.19725 0.19737 0.1975 0.19762 0.19775 0.19812 0.19825 0.19875 0.19887 0.199 0.19912 0.19925 0.19925
0.19487 0.195 0.19512 0.19512 0.1955 0.19562 0.19587 0 0 0 0 0 0 0 0 0 0.29287 0.29263 0.29187 0.2905 0.28337 0.2835 0.29063 0.291 0.29113 0.28975 0.28975 0.28963 0.28963 0.28975 0.29013 0.29 0.28987 0.28875 0.28925 0.28925 0.28863 0.28875 0.28837 0.2885 0.2885 0.2885 0.28863 0 0 0 0.28825 0.2885 0.28875 0.28925 0.2895 0.2895 0.28963 0.29013 0.29063 0.29025 0.28975 0.29025 0.28887 0.28887 0.2885 0.288 0.28787 0.28763 0.28763 0.28763 0.28775 0.28837 0.28875 0.28887 0.28987 0.28975 0.28937 0.289 0.289 0.289 0.28925 0.28875 0.28887 0.28963 0.2895 0.29125 0.29137 0.2915 0.29163 0.2895 0.2895 0.28887 0.2885 0.28837 0.28787 0.28763 0.28763 0.28763 0.28775 0.29 0.29025 0.28987 0.28887 0.28863 0.2885 0.28887 0.2895 0.29025 0.29037 0.2905 0.2905 0.2905 0.29037 0.2905 0.29037 0.29125 0.29113 0.28975 0.28963 0.29313 0.29337 0.29325 0.29325 0.29337 0.29363 0.29375 0.29337 0.29313 0.2925 0.29237 0.2925 0.29287 0.293 0.29287 0.29287 0.29263 0.2925 0.29237 0.29237 0.28987 0.28987 0.28975 0.29 0.29013 0.29013 0.29013 0.29037 0.291 0.29125 0.29137 0.29137 0.291 0.29037 0.29037 0.29163 0.291 0.29113 0.2905 0.28975 0.28987 0.28963 0.28963 0.28963 0.28987 0.28987 0.29 0.29 0.29037 0.28987 0.29 0.29037 0.28963 0.2895 0 0 0 0 0 0 0 0 0 0 0 0 0 0 0 0 0 0 0 0 0 0 0 0 0 0 0 0 0 0 0 0 0 0 0 0 0 0 0 0 0 0 0 0 0 0 0 0 0 0 0 0 0 0 0 0 0 0 0 0 0 0 0 0 0 0 0 0 0.17863 0.17875 0.17888 0.17875 0.17863 0.17875 0.17863 0.17863 0.17938 0.17975 0.17988 0.18 0.18013 0.18038 0.18038 0.18038 0.18063 0.18063 0.18075 0.18088 0.181 0.18113 0.18125 0.18125 0.1815 0.18163 0.18213 0.18238 0.18263 0.183 0.183 0.18313 0.18338 0.1835 0.18388 0.18413 0.18413 0.18438 0.1845 0.1845 0.18475 0.18475 0.18488 0.18488 0.185 0.1855 0.18563 0.18588 0.186 0.18613 0.18638 0.18638 0.1865 0.18663 0.18663 0.18675 0.187 0.187 0.187 0.18725 0.18738 0.18775 0.188 0.18812 0.18837 0.1885 0.1885 0.18912 0.18925 0.1895 0.18962 0.18975 0.19012 0.19037 0.19062 0.19087 0.191 0.19125 0.19125 0.19137 0.19162 0.19175 0.19187 0.19225 0.19237 0.19275 0.19287 0.193 0.19325 0.19337 0.19337 0.19362 0.19362 0.19375 0.19387 0.194 0.19412 0.19525 0.19525 0.1955 0.19562 0.19575 0.19587 0.196 0.19625 0.19625 0.19637 0.19675 0.19687 0.19712 0.19725 0.19737 0.19762 0.19762 0.19775 0.19825 0.19837 0.19875 0.199 0.199 0.19925 0.19925 0.19925
0.19487 0.195 0.19487 0.195 0.19537 0.19587 0.19587 0 0 0 0 0 0 0 0 0 0.28225 0.28237 0.28237 0.28275 0.28287 0.28325 0.28413 0.28425 0.28463 0.28463 0.28763 0.28525 0.28525 0.28563 0.28575 0.28587 0.2875 0.28663 0.28675 0.28625 0.28625 0.28625 0.28625 0.28563 0.28563 0.2855 0.28537 0.28537 0 0 0.285 0.28487 0.285 0.28513 0.28513 0.28687 0.28763 0.28763 0.28837 0.28863 0.28863 0.28875 0.28787 0.288 0.28787 0.2875 0.28737 0.28687 0.28537 0.2855 0.2855 0.28563 0.28875 0.28887 0.289 0.28875 0.28837 0.28825 0.28837 0.28813 0.288 0.288 0.28787 0.288 0.2875 0.29037 0.29063 0.29063 0.29075 0.28775 0.28825 0.2885 0.28813 0.288 0.28787 0.28763 0.28763 0.2875 0.2875 0.28775 0.28775 0.28813 0.288 0.288 0.28813 0.28825 0.2885 0.28937 0.2895 0.28975 0.29 0.29 0.29013 0.29013 0.29025 0.29037 0.29025 0.28787 0.288 0.28775 0.28725 0.28725 0.28725 0.28737 0.288 0.28813 0.28813 0.2895 0.2895 0.28975 0.28937 0.28937 0.2905 0.2895 0.28937 0.28875 0.28687 0.28675 0.28675 0.28687 0.2875 0.287 0.28687 0.28737 0.28737 0.28737 0.28737 0.28725 0.2875 0.28963 0.28975 0.28963 0.28963 0.289 0.2895 0.2895 0.28987 0.28963 0.28937 0.289 0.28887 0.28887 0.289 0.289 0.289 0.28925 0.28925 0.28937 0.28925 0.28937 0.28963 0.28975 0.28937 0.28937 0 0 0 0 0 0 0 0 0 0 0 0 0 0 0 0 0 0 0 0 0 0 0 0 0 0 0 0 0 0 0 0 0 0 0 0 0 0 0 0 0 0 0 0 0 0 0 0 0 0 0 0 0 0 0 0 0 0 0 0 0 0 0 0 0 0 0 0.17863 0.17863 0.179 0.17863 0.17875 0.17888 0.17875 0.17863 0.17938 0.17963 0.18 0.18013 0.18025 0.18038 0.1805 0.1805 0.18075 0.18075 0.18088 0.181 0.181 0.18125 0.18125 0.18125 0.1815 0.18163 0.18188 0.182 0.18213 0.18275 0.183 0.18313 0.18338 0.18363 0.18413 0.18413 0.18425 0.1845 0.1845 0.18463 0.18475 0.18475 0.18488 0.185 0.18513 0.1855 0.18563 0.18588 0.186 0.18613 0.18638 0.1865 0.18663 0.18675 0.18675 0.18675 0.187 0.187 0.18713 0.18738 0.1875 0.18775 0.188 0.18812 0.18825 0.18837 0.1885 0.189 0.18912 0.18962 0.18962 0.18975 0.19025 0.1905 0.19062 0.19087 0.191 0.19125 0.19137 0.1915 0.19162 0.19175 0.19187 0.1925 0.19262 0.19287 0.193 0.19312 0.19337 0.19337 0.1935 0.19362 0.19362 0.19387 0.194 0.19412 0.19412 0.19525 0.19525 0.19562 0.19562 0.19587 0.196 0.19612 0.19637 0.19637 0.1965 0.19687 0.19687 0.19725 0.19725 0.19737 0.19762 0.19775 0.19787 0.19837 0.19837 0.19887 0.199 0.19912 0.19925 0.19925 0.19937
0 0 0.19487 0.19487 0.19537 0 0 0 0 0 0 0 0 0 0 0 0.28225 0.28225 0.28237 0.2825 0.28275 0.28325 0.28363 0.28413 0.28437 0.28463 0.28763 0.28525 0.28513 0.28563 0.28563 0.28587 0.28713 0.28675 0.28637 0.28625 0.286 0.286 0.28613 0.28563 0.28537 0.28537 0.28525 0.28537 0 0 0.285 0.28487 0.285 0.285 0.28513 0.28687 0.28763 0.28763 0.28837 0.28837 0.28837 0.28837 0.28787 0.28775 0.2875 0.287 0.28737 0.286 0.2855 0.28525 0.28525 0.28563 0.28887 0.28887 0.28875 0.28825 0.28775 0.28787 0.28787 0.28775 0.28763 0.2875 0.28737 0.28737 0.2875 0.29025 0.29037 0.2905 0.29063 0.28775 0.28775 0.28825 0.28813 0.288 0.28775 0.2875 0.2875 0.2875 0.28725 0.28725 0.28725 0.2875 0.2875 0.28763 0.28775 0.288 0.28825 0.28875 0.28887 0.28937 0.28987 0.28975 0.29 0.29 0.29013 0.29 0.28987 0.28787 0.288 0.28775 0.28725 0.28725 0.28725 0.28737 0.288 0.28787 0.28837 0.28875 0.289 0.28937 0.28925 0.28937 0.2905 0.2895 0.28937 0.28875 0.28687 0.28675 0.28663 0.28687 0.28713 0.287 0.28675 0.28713 0.28713 0.28713 0.28713 0.28725 0.2875 0.28975 0.28937 0.28937 0.28887 0.289 0.2895 0.2895 0.2895 0.2895 0.28887 0.28887 0.28875 0.28863 0.28837 0.2885 0.2885 0.2885 0.28863 0.2885 0.28863 0.28863 0.28937 0.28963 0.28937 0.28937 0 0 0 0 0 0 0 0 0 0 0 0 0 0 0 0 0 0 0 0 0 0 0 0 0 0 0 0 0 0 0 0 0 0 0 0 0 0 0 0 0 0 0 0 0 0 0 0 0 0 0 0 0 0 0 0 0 0 0 0 0 0 0 0 0 0 0 0.18 0.17975 0.17963 0.1795 0.17925 0.17925 0.17925 0.17925 0.17963 0.17975 0.18025 0.18038 0.1805 0.18063 0.18075 0.18075 0.181 0.181 0.18113 0.18113 0.18125 0.18138 0.18138 0.1815 0.18163 0.18163 0.18188 0.182 0.18225 0.18275 0.183 0.18313 0.1835 0.18388 0.18425 0.1845 0.1845 0.18475 0.18475 0.18488 0.18488 0.18488 0.185 0.18513 0.18525 0.18525 0.18588 0.186 0.18613 0.18625 0.18663 0.18663 0.18675 0.18675 0.18688 0.187 0.18725 0.18738 0.18738 0.1875 0.18762 0.18787 0.18812 0.18825 0.18837 0.1885 0.1885 0.18925 0.18937 0.18975 0.18987 0.18975 0.1905 0.19062 0.19075 0.191 0.19112 0.19137 0.1915 0.19162 0.19175 0.192 0.19212 0.19275 0.193 0.19312 0.19325 0.19337 0.19362 0.19362 0.19375 0.19387 0.19387 0.19412 0.19425 0.1945 0.19487 0.19512 0.19537 0.19562 0.19575 0.19612 0.19637 0.1965 0.19662 0.19662 0.19675 0.19712 0.19712 0.19737 0.19737 0.1975 0.19775 0.19787 0.198 0.1985 0.1985 0.19887 0.199 0.19912 0.19925 0.19937 0.19937
0 0 0 0 0 0 0 0 0 0 0 0 0 0 0 0 0.2815 0.28187 0.282 0.28225 0.28237 0.28287 0.28325 0.2835 0.28325 0.2845 0.2845 0.28475 0.28513 0.28525 0.28537 0.28537 0.28625 0.28625 0.286 0.28587 0.28575 0.28575 0.28575 0.28525 0.28513 0.28513 0.28487 0.2845 0.2845 0.2845 0.28425 0.28463 0.28475 0.28475 0.28463 0.28463 0.2845 0.28375 0.28375 0.28587 0.28587 0.28663 0.28525 0.28525 0.2855 0.28625 0.2855 0.285 0.28513 0.28487 0.28487 0.28437 0.28413 0.28413 0.28525 0.28625 0.28687 0.28737 0.2875 0.28737 0.28725 0.287 0.28713 0.287 0.28587 0.28587 0.28587 0.28575 0.28575 0.28575 0.28575 0.28563 0.285 0.285 0.285 0.28513 0.28525 0.28613 0.28663 0.2865 0.28663 0.287 0.28713 0.28713 0.28737 0.2875 0.28763 0.28813 0.28825 0.28763 0.28925 0.28937 0.28975 0.28987 0.29 0.28975 0.28925 0.2875 0.28737 0.28563 0.28463 0.28463 0.286 0.28587 0.28713 0.2875 0.288 0.28813 0.2885 0.28875 0.28863 0.28787 0.28925 0.28787 0.28775 0.28725 0.28637 0.2865 0.2865 0.2865 0.28663 0.2865 0.28637 0.28675 0.28675 0.28675 0.28687 0.28687 0.28675 0.28737 0.28675 0.28675 0.28637 0.2865 0.2865 0.28675 0.28675 0.28637 0.28613 0.28613 0.28663 0.28663 0.28763 0.28787 0.28787 0.28787 0.288 0.288 0.28787 0.28813 0.28875 0.289 0.28925 0.28925 0 0 0 0 0 0 0 0 0 0 0 0 0 0 0 0 0 0 0 0 0 0 0 0 0 0 0 0 0 0 0 0 0 0 0 0 0 0 0 0 0 0 0 0 0 0 0 0 0 0 0 0 0 0 0 0 0 0 0 0 0 0 0 0 0.181 0.18013 0.18013 0.18 0.17988 0.17975 0.1795 0.1795 0.1795 0.1795 0.17963 0.17975 0.17988 0.18025 0.1805 0.1805 0.18075 0.18075 0.18075 0.18113 0.18113 0.18125 0.18125 0.18125 0.1815 0.1815 0.1815 0.18163 0.18175 0.18188 0.18213 0.18225 0.18288 0.183 0.18313 0.18363 0.18388 0.18425 0.1845 0.1845 0.18475 0.18488 0.18488 0.185 0.185 0.18513 0.18525 0.18538 0.18575 0.18625 0.18625 0.18638 0.1865 0.18663 0.18675 0.18675 0.187 0.187 0.187 0.18738 0.18738 0.1875 0.18762 0.18775 0.188 0.18825 0.18825 0.1885 0.18862 0.18875 0.18962 0.18962 0.18987 0.19 0.19012 0.19062 0.19087 0.19112 0.19112 0.19125 0.19137 0.1915 0.19162 0.19187 0.19212 0.19262 0.19287 0.193 0.19325 0.19337 0.1935 0.19375 0.19375 0.19375 0.19387 0.194 0.19412 0.19437 0.1945 0.19487 0.19512 0.19537 0.19562 0.19575 0.19612 0.19637 0.1965 0.19675 0.19675 0.19687 0.19712 0.19725 0.19737 0.1975 0.1975 0.19775 0.19787 0.198 0.1985 0.19862 0.19887 0.19912 0.19912 0.19937 0.1995 0.1995
0 0 0 0 0 0 0 0 0 0 0 0 0 0 0 0 0.2815 0.2815 0.28163 0.28175 0.28187 0.28237 0.2825 0.28263 0.28313 0.2835 0.284 0.28425 0.28437 0.28475 0.28475 0.28487 0.28437 0.28313 0.282 0.28187 0.28187 0.282 0.28187 0.28187 0.2845 0.28437 0.28413 0.28425 0.28413 0.28413 0.28413 0.28413 0.28413 0.28425 0.28413 0.284 0.28375 0.2815 0.2815 0.28187 0.28175 0.28187 0.28187 0.28175 0.28225 0.28187 0.28187 0.28275 0.28225 0.28225 0.28175 0.2815 0.28137 0.282 0.282 0.28313 0.28325 0.28437 0.28487 0.28475 0.28687 0.28613 0.28625 0.28625 0.28575 0.28563 0.28563 0.28513 0.285 0.28487 0.285 0.28563 0.28513 0.2845 0.2845 0.28437 0.284 0.28413 0.28487 0.28413 0.2835 0.2835 0.284 0.28413 0.284 0.2835 0.283 0.28313 0.283 0.28287 0.283 0.28237 0.28225 0.28225 0.28225 0.28213 0.28237 0.28237 0.2825 0.2825 0.2825 0.2825 0.28263 0.2825 0.283 0.28675 0.28713 0.28713 0.28713 0.28737 0.28737 0.28637 0.28625 0.28575 0.28563 0.28563 0.28563 0.28563 0.2855 0.28537 0.28525 0.28537 0.28537 0.28575 0.28563 0.28363 0.28363 0.28275 0.28275 0.28263 0.28237 0.2825 0.2855 0.28587 0.286 0.286 0.286 0.28575 0.28587 0.28587 0.286 0.28613 0.28637 0.28637 0.28637 0.28625 0.28625 0.2865 0.28637 0.28587 0.288 0.28825 0.28837 0.28925 0 0 0 0 0 0 0 0 0 0 0 0 0 0 0 0 0 0 0 0 0 0 0 0 0 0 0 0 0 0 0 0 0 0 0 0 0 0 0 0 0 0 0 0 0 0 0 0 0 0 0 0 0 0 0 0 0 0 0 0 0 0 0 0 0.181 0.18013 0.18013 0.18013 0.17988 0.17975 0.17975 0.17963 0.17963 0.1795 0.17975 0.17988 0.18 0.18025 0.18038 0.1805 0.18075 0.18088 0.181 0.18125 0.18125 0.18125 0.18138 0.18138 0.1815 0.1815 0.18163 0.18175 0.18175 0.18188 0.18213 0.18213 0.183 0.18313 0.18325 0.18363 0.18388 0.18425 0.1845 0.18463 0.18488 0.18488 0.185 0.185 0.18513 0.185 0.1855 0.18563 0.18575 0.18625 0.18638 0.1865 0.18663 0.18688 0.18688 0.18688 0.187 0.187 0.18713 0.18738 0.18738 0.18762 0.18762 0.18775 0.188 0.18825 0.18837 0.18862 0.18875 0.18875 0.18962 0.18975 0.19 0.19012 0.19025 0.19087 0.191 0.19125 0.19112 0.19125 0.1915 0.19162 0.19162 0.19187 0.19212 0.19275 0.193 0.19312 0.19337 0.1935 0.19362 0.19375 0.19375 0.19387 0.194 0.194 0.19412 0.19425 0.1945 0.19487 0.19512 0.19525 0.19562 0.19575 0.19612 0.19637 0.1965 0.19687 0.19687 0.19687 0.19725 0.19737 0.19737 0.1975 0.19762 0.19787 0.198 0.19812 0.1985 0.1985 0.199 0.19912 0.19925 0.19937 0.1995 0.1995
0 0 0 0 0 0 0 0 0 0 0 0 0 0 0 0 0.2815 0.2815 0.28163 0.28163 0.28163 0.282 0.28237 0.28237 0.28313 0.28375 0.28375 0.28387 0.284 0.28437 0.28437 0.2845 0.28437 0.28313 0.282 0.28187 0.28187 0.28187 0.28175 0.28187 0.28437 0.28387 0.284 0.284 0.284 0.284 0.284 0.28387 0.284 0.284 0.28375 0.28375 0.28313 0.2815 0.2815 0.28175 0.28175 0.28175 0.28175 0.282 0.28213 0.28187 0.28213 0.2825 0.28237 0.28225 0.28187 0.2815 0.2815 0.28163 0.2825 0.28287 0.28313 0.28437 0.28487 0.28475 0.28563 0.28575 0.28587 0.28587 0.2855 0.28537 0.28537 0.28437 0.28437 0.2845 0.28437 0.28563 0.28413 0.28413 0.28413 0.284 0.28413 0.28413 0.28413 0.28387 0.28375 0.2835 0.284 0.284 0.28375 0.2835 0.28313 0.28313 0.28287 0.28287 0.28287 0.2825 0.28225 0.28213 0.28225 0.28225 0.28237 0.28237 0.2825 0.2825 0.2825 0.2825 0.28263 0.28263 0.28287 0.28675 0.28675 0.28675 0.28687 0.28687 0.28687 0.28637 0.28625 0.28575 0.28563 0.28563 0.28525 0.28513 0.285 0.28463 0.28463 0.28475 0.285 0.28525 0.28513 0.28425 0.28363 0.28313 0.28263 0.28263 0.2825 0.2825 0.2855 0.28563 0.28575 0.2855 0.2855 0.2855 0.2855 0.28563 0.28575 0.28575 0.28587 0.28587 0.28575 0.28575 0.28575 0.28575 0.28587 0.28587 0.28775 0.28813 0.28813 0.28925 0 0 0 0 0 0 0 0 0 0 0 0 0 0 0 0 0 0 0 0 0 0 0 0 0 0 0 0 0 0 0 0 0 0 0 0 0 0 0 0 0 0 0 0 0 0 0 0 0 0 0 0 0 0 0 0 0 0 0 0 0 0 0 0 0.181 0.18013 0.18013 0.18013 0.18 0.17988 0.17988 0.17975 0.17975 0.17975 0.17988 0.17988 0.18 0.18025 0.18038 0.1805 0.18075 0.181 0.18125 0.18138 0.1815 0.1815 0.1815 0.18163 0.18163 0.18163 0.18163 0.18188 0.18188 0.18188 0.18213 0.18213 0.18325 0.18338 0.1835 0.18388 0.184 0.18438 0.1845 0.18463 0.18488 0.185 0.18513 0.18538 0.1855 0.18588 0.18588 0.186 0.18625 0.1865 0.18663 0.18675 0.18688 0.18713 0.18713 0.18713 0.18738 0.18738 0.1875 0.1875 0.18762 0.18775 0.18787 0.188 0.18825 0.18837 0.18862 0.18887 0.18912 0.1895 0.18975 0.18975 0.19012 0.19012 0.19037 0.191 0.19112 0.19125 0.19125 0.19137 0.19162 0.19162 0.19175 0.192 0.19237 0.193 0.19312 0.19325 0.19362 0.19362 0.19375 0.19387 0.19387 0.19387 0.19412 0.19412 0.19425 0.19437 0.1945 0.19487 0.19512 0.19537 0.19562 0.19575 0.19637 0.19662 0.19687 0.197 0.19712 0.19712 0.1975 0.1975 0.19762 0.19775 0.19787 0.198 0.19812 0.19837 0.19862 0.19875 0.19912 0.19925 0.19937 0.19962 0.19975 0.2
0 0 0 0 0 0 0 0 0 0 0 0 0.27525 0.27525 0.2775 0.2775 0.27837 0.27825 0.27825 0.281 0.28137 0.281 0.27963 0.2795 0.27963 0.28213 0.28313 0.28337 0.28337 0.28363 0.28363 0.28187 0.28175 0.28313 0.28087 0.28137 0.2815 0.28137 0.28137 0.28075 0.28075 0.28413 0.28387 0.28387 0.28387 0.28375 0.28387 0.28375 0.284 0.284 0.28363 0.2835 0.2805 0.28063 0.28125 0.28137 0.2815 0.2815 0.28163 0.28175 0.282 0.28163 0.282 0.28225 0.28225 0.282 0.28175 0.28137 0.28137 0.2815 0.282 0.28225 0.2805 0.2805 0.28363 0.28375 0.28487 0.28513 0.28537 0.2855 0.28525 0.28513 0.285 0.28075 0.28087 0.28013 0.28025 0.28037 0.28337 0.2805 0.2805 0.28337 0.28375 0.28375 0.28363 0.28337 0.28325 0.28313 0.2835 0.28363 0.2835 0.28313 0.28287 0.28275 0.28275 0.28263 0.2825 0.28237 0.28187 0.28187 0.28187 0.28213 0.28225 0.28237 0.28237 0.2825 0.28237 0.28237 0.2825 0.28237 0.2825 0.28137 0.28137 0.2805 0.2805 0.2805 0.28 0.28013 0.281 0.28113 0.281 0.282 0.28487 0.28487 0.2845 0.28425 0.28437 0.2845 0.28475 0.285 0.28487 0.28425 0.28363 0.28313 0.28237 0.28237 0.28225 0.28187 0.28213 0.28087 0.28087 0.28425 0.28225 0.28237 0.28487 0.28487 0.28287 0.283 0.28575 0.28563 0.28563 0.28563 0.2855 0.2855 0.28563 0.28525 0.28513 0.28713 0.287 0 0 0 0 0 0 0 0 0 0 0 0 0 0 0 0 0 0 0 0 0 0 0 0 0 0 0 0 0 0 0 0 0 0 0 0 0 0 0 0 0 0 0 0 0 0 0 0 0 0 0 0 0 0 0 0 0 0 0 0 0 0 0 0 0 0.18138 0.1805 0.18025 0.18025 0.18 0.18 0.17988 0.17975 0.17975 0.17975 0.17988 0.18 0.18013 0.18025 0.18038 0.1805 0.18088 0.181 0.18125 0.1815 0.1815 0.18163 0.18163 0.18175 0.18175 0.18175 0.18175 0.182 0.182 0.1825 0.18288 0.18288 0.18325 0.1835 0.1835 0.18388 0.184 0.1845 0.18463 0.18475 0.18488 0.185 0.18513 0.1855 0.1855 0.18588 0.186 0.186 0.18625 0.1865 0.18663 0.18688 0.187 0.18713 0.18725 0.18725 0.18738 0.1875 0.1875 0.18762 0.18775 0.18787 0.188 0.18812 0.18837 0.1885 0.18862 0.18887 0.18912 0.18962 0.18975 0.18987 0.19012 0.19025 0.1905 0.191 0.19112 0.19125 0.19125 0.19137 0.19162 0.19175 0.19175 0.192 0.19237 0.193 0.19312 0.19325 0.19362 0.19362 0.19375 0.19387 0.19387 0.19387 0.19425 0.19425 0.19437 0.1945 0.19462 0.195 0.19525 0.19537 0.19562 0.19587 0.19637 0.19675 0.19687 0.19712 0.19725 0.19725 0.1975 0.1975 0.19762 0.19775 0.19787 0.19812 0.19812 0.19837 0.19862 0.19875 0.19912 0.19925 0.19937 0.19987 0.2 0.20012
0 0 0 0 0 0 0 0 0 0 0 0 0.27525 0.27525 0.2775 0.2775 0.27787 0.278 0.27825 0.281 0.281 0.28 0.27975 0.27937 0.27963 0.28213 0.28213 0.28263 0.28275 0.28287 0.28263 0.28187 0.28175 0.28313 0.28087 0.28087 0.281 0.28087 0.28075 0.28037 0.28075 0.28413 0.28375 0.28363 0.28363 0.28363 0.28363 0.28363 0.28375 0.284 0.28363 0.2835 0.2805 0.28037 0.2805 0.28063 0.28063 0.2805 0.28063 0.28063 0.28087 0.28075 0.281 0.28125 0.28137 0.28125 0.28113 0.28087 0.28075 0.28087 0.28087 0.28087 0.2805 0.2805 0.28363 0.28375 0.284 0.28463 0.28463 0.285 0.285 0.28487 0.28437 0.28075 0.28087 0.28013 0.28025 0.28037 0.28337 0.2805 0.2805 0.28337 0.28337 0.2835 0.283 0.28287 0.2825 0.2825 0.28313 0.28313 0.28325 0.28275 0.2825 0.2825 0.2825 0.28237 0.28237 0.28187 0.281 0.28087 0.28113 0.28163 0.282 0.282 0.28213 0.28213 0.28225 0.28213 0.28213 0.28213 0.282 0.28163 0.28063 0.28 0.28 0.27975 0.2795 0.28 0.281 0.28113 0.281 0.282 0.28487 0.28487 0.28387 0.28287 0.28375 0.28425 0.28425 0.28475 0.28463 0.28363 0.28363 0.28225 0.28213 0.28213 0.28137 0.2815 0.28137 0.28075 0.28087 0.28425 0.28225 0.28237 0.28487 0.28487 0.28287 0.283 0.28537 0.2855 0.28525 0.28537 0.28525 0.28525 0.28537 0.28525 0.28513 0.28713 0.287 0 0 0 0 0 0 0 0 0 0 0 0 0 0 0 0 0 0 0 0 0 0 0 0 0 0 0 0 0 0 0 0 0 0 0 0 0 0 0 0 0 0 0 0 0 0 0 0 0 0 0 0 0 0 0 0 0 0 0 0 0 0 0 0 0 0.18138 0.1805 0.1805 0.1805 0.18025 0.18025 0.18 0.18 0.18 0.17988 0.18 0.18 0.18013 0.18038 0.18038 0.1805 0.181 0.18125 0.1815 0.18163 0.18175 0.18175 0.18175 0.18188 0.18188 0.18188 0.18175 0.18213 0.18225 0.18263 0.18275 0.183 0.1835 0.1835 0.18363 0.18413 0.18413 0.1845 0.18463 0.18475 0.185 0.18513 0.18513 0.1855 0.18563 0.18588 0.18588 0.186 0.18625 0.1865 0.18663 0.18688 0.187 0.18725 0.18738 0.18738 0.1875 0.18762 0.18775 0.18762 0.18775 0.188 0.18812 0.18825 0.1885 0.18862 0.18875 0.189 0.18912 0.18962 0.18987 0.18987 0.19012 0.19025 0.1905 0.191 0.19112 0.19125 0.19125 0.19137 0.19175 0.19175 0.19187 0.19212 0.19237 0.193 0.19312 0.19337 0.19362 0.19375 0.19375 0.194 0.194 0.194 0.19425 0.19425 0.1945 0.19462 0.19475 0.19512 0.19537 0.1955 0.19575 0.196 0.19662 0.19687 0.197 0.19737 0.19737 0.1975 0.19775 0.19787 0.198 0.19812 0.19825 0.19837 0.1985 0.1985 0.19887 0.19887 0.19925 0.19937 0.1995 0.20012 0.20025 0.20037
0 0 0 0 0 0 0 0 0 0.27563 0.27575 0.27587 0.276 0.276 0.27613 0.276 0.2775 0.27763 0.27813 0.27863 0.27863 0.2795 0.2795 0.27913 0.27913 0.27863 0.27763 0.27763 0.27763 0.2775 0.27837 0.27825 0.27837 0.27875 0.27863 0.27875 0.27875 0.27875 0.27987 0.28013 0.28013 0.2805 0.2805 0.28087 0.28087 0.28075 0.28087 0.28087 0.28087 0.28037 0.27987 0.27987 0.28013 0.28013 0.28025 0.28037 0.28013 0.28 0.28013 0.28013 0.28037 0.28025 0.2805 0.28075 0.28087 0.28087 0.28075 0.2805 0.2805 0.2805 0.2805 0.28037 0.28025 0.28025 0.2795 0.27963 0.27975 0.27963 0.279 0.279 0.27813 0.27737 0.27737 0.2775 0.27737 0.27787 0.278 0.278 0.28037 0.28037 0.28037 0.28 0.28013 0.27975 0.27913 0.27913 0.27925 0.27925 0.2795 0.28 0.2785 0.27863 0.28013 0.28013 0.28025 0.2795 0.2795 0.2805 0.2805 0.2805 0.28075 0.28137 0.28175 0.28187 0.282 0.28213 0.282 0.28213 0.282 0.28163 0.2815 0.28137 0.28037 0.27963 0.27963 0.27925 0.27887 0.27863 0.279 0.279 0.279 0.28063 0.28063 0.28075 0.28187 0.282 0.282 0.28187 0.28187 0.28213 0.28125 0.281 0.281 0.28 0.27987 0.28063 0.28087 0.28087 0.28087 0.2805 0.28037 0.27975 0.27963 0.27975 0.28163 0.28175 0.2795 0.2775 0.2775 0.27725 0.27725 0.27975 0.28013 0.28013 0.28013 0.2805 0.28063 0.28087 0.28087 0 0 0 0 0 0 0 0 0 0 0 0 0 0 0 0 0 0 0 0 0 0 0 0 0 0 0 0 0 0 0 0 0 0 0 0 0 0 0 0 0 0 0 0 0 0 0 0 0 0 0 0 0 0 0 0 0 0 0 0 0 0 0 0 0 0.18138 0.1805 0.1805 0.1805 0.18038 0.18038 0.18013 0.18 0.18 0.18 0.18 0.18013 0.18013 0.18038 0.1805 0.1805 0.18113 0.18125 0.1815 0.18163 0.18175 0.18188 0.18188 0.182 0.182 0.182 0.18188 0.18213 0.18225 0.18263 0.18275 0.183 0.18338 0.1835 0.18363 0.18413 0.18425 0.1845 0.18463 0.18463 0.185 0.18513 0.18513 0.1855 0.18563 0.18588 0.18588 0.186 0.18638 0.1865 0.18663 0.187 0.187 0.18738 0.18738 0.18738 0.1875 0.18762 0.18775 0.18775 0.18775 0.18812 0.18825 0.18837 0.18862 0.18875 0.18875 0.18912 0.18925 0.18975 0.18987 0.18987 0.19025 0.19025 0.1905 0.191 0.19112 0.19125 0.19112 0.19137 0.19175 0.19175 0.19187 0.19225 0.1925 0.193 0.19312 0.19337 0.19362 0.19362 0.19375 0.194 0.194 0.194 0.19437 0.19437 0.1945 0.19462 0.19475 0.19512 0.19537 0.1955 0.19575 0.19612 0.19675 0.19687 0.19712 0.1975 0.1975 0.19762 0.19787 0.198 0.19825 0.19837 0.19837 0.1985 0.19862 0.19862 0.19887 0.199 0.19925 0.19937 0.19962 0.20025 0.20037 0.2005
0 0 0 0 0 0 0 0 0 0.27563 0.276 0.276 0.27575 0.27563 0.27563 0.27563 0.27575 0.27587 0.27575 0.27713 0.277 0.2785 0.27863 0.27825 0.27825 0.278 0.27775 0.2775 0.2775 0.27737 0.27725 0.27725 0.27713 0.27663 0.27663 0.27725 0.27713 0.27687 0.2775 0.27837 0.27837 0.27837 0.27837 0.2785 0.279 0.27887 0.279 0.27963 0.2795 0.27937 0.278 0.278 0.27813 0.27825 0.27825 0.27787 0.27775 0.27763 0.2775 0.2775 0.27763 0.2775 0.27763 0.27787 0.278 0.278 0.27863 0.27887 0.27887 0.27775 0.2775 0.27737 0.27725 0.27713 0.27713 0.27687 0.27687 0.27813 0.27713 0.27725 0.277 0.277 0.27675 0.27687 0.27725 0.27737 0.2775 0.2775 0.27787 0.27787 0.27863 0.27863 0.27863 0.2775 0.27663 0.27663 0.27637 0.27637 0.27813 0.27825 0.27825 0.2785 0.27875 0.279 0.27913 0.27913 0.27937 0.27925 0.27925 0.2795 0.27987 0.28075 0.28125 0.28137 0.2815 0.28163 0.28163 0.28175 0.2815 0.28137 0.28113 0.2805 0.279 0.279 0.27887 0.2785 0.27837 0.27825 0.27837 0.27837 0.27837 0.27913 0.27925 0.27937 0.28025 0.28037 0.2805 0.28075 0.28087 0.28113 0.28087 0.2805 0.28037 0.279 0.27937 0.27963 0.27975 0.27987 0.27987 0.2795 0.27925 0.27913 0.2785 0.27813 0.278 0.2775 0.2775 0.277 0.27713 0.277 0.27713 0.27775 0.27837 0.27863 0.27937 0.27963 0.27987 0.28 0.27987 0.28075 0 0 0 0 0 0 0 0 0 0 0 0 0 0 0 0 0 0 0 0 0 0 0 0 0 0 0 0 0 0 0 0 0 0 0 0 0 0 0 0 0 0 0 0 0 0 0 0 0 0 0 0 0 0 0 0 0 0 0 0 0 0 0 0 0.18138 0.1805 0.18063 0.18063 0.1805 0.18038 0.18025 0.18013 0.18 0.18 0.18013 0.18013 0.18025 0.1805 0.1805 0.18063 0.18113 0.18125 0.18163 0.18175 0.18175 0.182 0.182 0.18213 0.18225 0.18213 0.18188 0.18213 0.1825 0.18288 0.18288 0.183 0.1835 0.18363 0.18375 0.18425 0.18438 0.18463 0.18463 0.18488 0.185 0.18513 0.18525 0.1855 0.18575 0.18588 0.18588 0.18588 0.18625 0.1865 0.18663 0.18688 0.187 0.18725 0.18738 0.18738 0.18762 0.18775 0.18775 0.18787 0.188 0.18825 0.18825 0.18837 0.18875 0.18887 0.189 0.189 0.1895 0.18975 0.18987 0.19 0.19025 0.19037 0.19062 0.191 0.19112 0.19125 0.19125 0.19137 0.19175 0.19187 0.192 0.192 0.19275 0.19312 0.19325 0.19337 0.19362 0.19375 0.19375 0.194 0.19412 0.19425 0.19437 0.1945 0.19462 0.19475 0.19487 0.19525 0.19537 0.19562 0.19587 0.19612 0.19675 0.197 0.19725 0.1975 0.19762 0.19762 0.19812 0.19825 0.19837 0.1985 0.1985 0.19862 0.19875 0.19875 0.199 0.19912 0.19937 0.19937 0.19962 0.20025 0.20037 0.20062
0 0 0 0 0 0 0 0 0 0.2765 0.276 0.276 0.2755 0.2755 0.27537 0.2755 0.27575 0.27587 0.27575 0.27713 0.277 0.27825 0.2785 0.27813 0.27763 0.27763 0.27737 0.27725 0.277 0.27687 0.27675 0.27713 0.27713 0.27663 0.27663 0.27713 0.27687 0.27687 0.2775 0.27837 0.27837 0.27837 0.27837 0.2785 0.279 0.27887 0.279 0.27963 0.27963 0.27925 0.278 0.278 0.27813 0.27813 0.27825 0.27787 0.2775 0.2775 0.27737 0.27737 0.2775 0.27737 0.2775 0.2775 0.2775 0.278 0.27863 0.27863 0.27887 0.27775 0.2775 0.27737 0.27725 0.27713 0.27713 0.27687 0.27687 0.27813 0.27737 0.277 0.27687 0.27663 0.27663 0.27663 0.27687 0.27713 0.27713 0.2775 0.27763 0.27787 0.27825 0.27837 0.27863 0.2775 0.27663 0.27625 0.27625 0.27637 0.27763 0.27775 0.27775 0.27825 0.27837 0.27875 0.27887 0.27887 0.279 0.27875 0.27863 0.27913 0.27937 0.28037 0.2805 0.28125 0.2815 0.28163 0.2815 0.28187 0.28125 0.28125 0.28125 0.27963 0.279 0.27887 0.27863 0.27813 0.27813 0.27813 0.27813 0.2785 0.27837 0.27887 0.27925 0.27937 0.28025 0.28025 0.28025 0.28075 0.2805 0.28113 0.28075 0.2805 0.28037 0.27887 0.27863 0.2795 0.27987 0.27925 0.27925 0.27937 0.27875 0.2785 0.278 0.27775 0.27787 0.2775 0.2775 0.27725 0.27687 0.27687 0.27713 0.27775 0.278 0.27825 0.27913 0.27987 0.27987 0.27987 0.27987 0.28075 0 0 0 0 0 0 0 0 0 0 0 0 0 0 0 0 0 0 0 0 0 0 0 0 0 0 0 0 0 0 0 0 0 0 0 0 0 0 0 0 0 0 0 0 0 0 0 0 0 0 0 0 0 0 0 0 0 0 0 0 0 0 0 0 0.1815 0.1805 0.18063 0.18075 0.18075 0.1805 0.18038 0.18025 0.18013 0.18013 0.18025 0.18025 0.18038 0.18075 0.18075 0.18088 0.18125 0.18138 0.18175 0.18188 0.18188 0.18225 0.18225 0.18238 0.18263 0.18263 0.18263 0.18288 0.183 0.18338 0.18338 0.18325 0.1835 0.18388 0.18388 0.1845 0.18463 0.18488 0.18488 0.185 0.18525 0.18538 0.1855 0.18575 0.18588 0.186 0.18613 0.18613 0.1865 0.18663 0.18675 0.187 0.187 0.18738 0.1875 0.1875 0.18787 0.18787 0.188 0.18825 0.18825 0.1885 0.18862 0.18862 0.18887 0.18925 0.18937 0.1895 0.18975 0.19012 0.19012 0.19012 0.19037 0.1905 0.19062 0.19112 0.19125 0.19137 0.19137 0.19162 0.192 0.19225 0.19237 0.19275 0.193 0.19325 0.19337 0.1935 0.19375 0.19375 0.19387 0.19425 0.19437 0.19462 0.19475 0.19475 0.19487 0.195 0.19512 0.1955 0.19562 0.19562 0.196 0.19625 0.19687 0.19712 0.19725 0.19762 0.19787 0.198 0.19837 0.1985 0.19862 0.19875 0.19875 0.19887 0.19887 0.199 0.19912 0.19912 0.1995 0.1995 0.19962 0.2005 0.20075 0.20087
0 0 0 0 0 0 0 0 0 0.27563 0.27587 0.27575 0.27537 0.275 0.27475 0.27387 0.27387 0.27375 0.27375 0.27375 0.27387 0.27375 0.27613 0.27613 0.27713 0.27713 0.277 0.27675 0.27663 0.27637 0.27613 0.27513 0.27513 0.27387 0.27387 0.27387 0.2735 0.2735 0.27363 0.2735 0.27337 0.27325 0.27363 0.27375 0.27375 0.27375 0.27363 0.27363 0.2735 0.27337 0.27363 0.27363 0.27475 0.275 0.275 0.27663 0.27687 0.27713 0.277 0.277 0.27713 0.27713 0.27713 0.27737 0.277 0.27663 0.27687 0.27687 0.277 0.27513 0.27525 0.27675 0.27437 0.2745 0.2745 0.2745 0.27437 0.2775 0.277 0.27675 0.27675 0.2765 0.27637 0.27637 0.27663 0.27675 0.27675 0.27713 0.2775 0.27787 0.278 0.27813 0.27563 0.27575 0.27537 0.27587 0.276 0.276 0.27713 0.27713 0.27737 0.27787 0.278 0.27863 0.27863 0.27875 0.2785 0.27813 0.27813 0.27863 0.279 0.2795 0.27937 0.27925 0.27925 0.27925 0.27937 0.27963 0.27987 0.2785 0.2785 0.27825 0.27863 0.27863 0.27837 0.27775 0.27763 0.27587 0.27587 0.2775 0.27675 0.27687 0.27587 0.27587 0.276 0.27563 0.27563 0.27925 0.27975 0.27963 0.27925 0.27875 0.27875 0.278 0.27825 0.27775 0.27813 0.2785 0.27837 0.27775 0.278 0.27787 0.27763 0.2775 0.2775 0.2775 0.27737 0.277 0.27675 0.2765 0.27687 0.2775 0.27763 0.27775 0.278 0.2775 0.27763 0.27837 0.27987 0.27987 0 0 0 0 0 0 0 0 0 0 0 0 0 0 0 0 0 0 0 0 0 0 0 0 0 0 0 0 0 0 0 0 0 0 0 0 0 0 0 0 0 0 0 0 0 0 0 0 0 0 0 0 0 0 0 0 0 0 0 0 0 0 0 0 0.18163 0.18138 0.1815 0.181 0.18075 0.18063 0.1805 0.18025 0.18025 0.18013 0.18025 0.18038 0.1805 0.18075 0.18075 0.181 0.18138 0.1815 0.18175 0.18188 0.18213 0.18225 0.18238 0.1825 0.18263 0.18275 0.18288 0.183 0.18313 0.1835 0.1835 0.18363 0.18413 0.18438 0.18438 0.18475 0.18475 0.18488 0.185 0.18513 0.18525 0.1855 0.1855 0.18588 0.186 0.18625 0.18638 0.18638 0.18663 0.18663 0.18688 0.187 0.187 0.18738 0.1875 0.18762 0.18787 0.188 0.188 0.18825 0.18837 0.1885 0.18962 0.18962 0.18975 0.18962 0.1895 0.18962 0.18975 0.19012 0.19012 0.19012 0.1905 0.19062 0.19075 0.19125 0.19137 0.19137 0.1915 0.19175 0.19212 0.19237 0.1925 0.19287 0.193 0.19325 0.19337 0.1935 0.19375 0.19375 0.19387 0.19437 0.1945 0.19475 0.19487 0.19487 0.195 0.19512 0.19525 0.19562 0.19562 0.19562 0.196 0.19625 0.19687 0.19712 0.19737 0.19775 0.19787 0.19825 0.1985 0.1985 0.19862 0.19875 0.19875 0.19887 0.199 0.199 0.19912 0.19925 0.1995 0.19962 0.19962 0.20062 0.20087 0.20112
0 0 0 0 0 0 0 0 0.27637 0.27563 0.2755 0.27487 0.2745 0.27425 0.274 0.27363 0.27363 0.27337 0.27325 0.2735 0.27363 0.27363 0.274 0.274 0.27475 0.27475 0.27437 0.2745 0.27437 0.27387 0.27387 0.27387 0.27387 0.27375 0.27363 0.2735 0.27325 0.27313 0.273 0.273 0.273 0.273 0.27275 0.273 0.273 0.27313 0.27337 0.27337 0.27325 0.27337 0.2735 0.27363 0.27425 0.27425 0.27387 0.27463 0.27475 0.27475 0.276 0.276 0.2755 0.27475 0.27413 0.27413 0.27575 0.276 0.27613 0.27363 0.27375 0.27487 0.27425 0.27425 0.27437 0.27425 0.27413 0.274 0.27375 0.27387 0.274 0.27525 0.27387 0.27375 0.2755 0.2755 0.27563 0.27563 0.2755 0.27537 0.27363 0.2735 0.27487 0.27325 0.27313 0.275 0.27475 0.27475 0.27487 0.27463 0.27487 0.27513 0.27525 0.27775 0.27775 0.27813 0.27825 0.27837 0.278 0.2775 0.2775 0.27813 0.27875 0.27937 0.27925 0.27925 0.27525 0.27525 0.279 0.279 0.27463 0.27475 0.27487 0.27637 0.27613 0.27625 0.2765 0.27663 0.2765 0.27563 0.276 0.27637 0.2765 0.2765 0.27575 0.2755 0.2755 0.27537 0.27425 0.27425 0.27437 0.27425 0.27375 0.27375 0.27537 0.27525 0.27525 0.27525 0.27487 0.275 0.2755 0.2755 0.27663 0.2765 0.27487 0.27487 0.27563 0.2745 0.2745 0.275 0.27475 0.27475 0.27513 0.27513 0.276 0.27587 0.277 0.277 0.27713 0.278 0.2785 0.27887 0 0 0 0 0 0 0 0 0 0 0 0 0 0 0 0 0 0 0 0 0 0 0 0 0 0 0 0 0 0 0 0 0 0 0 0 0 0 0 0 0 0 0 0 0 0 0 0 0 0 0 0 0 0 0 0 0 0 0 0 0 0 0.18175 0.18188 0.18163 0.1815 0.18138 0.18125 0.18088 0.18063 0.1805 0.18025 0.18025 0.18025 0.18025 0.18038 0.1805 0.18075 0.18075 0.181 0.18138 0.1815 0.18188 0.182 0.18213 0.18238 0.1825 0.18263 0.18275 0.18275 0.183 0.18313 0.18325 0.18363 0.18363 0.18375 0.18413 0.18425 0.18463 0.18475 0.18488 0.185 0.18513 0.18513 0.1855 0.1855 0.18588 0.186 0.18613 0.18638 0.1865 0.18663 0.18675 0.18675 0.18688 0.187 0.18713 0.18738 0.1875 0.18775 0.188 0.18812 0.18812 0.18825 0.18837 0.1885 0.18962 0.18975 0.18975 0.18975 0.18962 0.18962 0.18987 0.19012 0.19012 0.19012 0.1905 0.19062 0.19087 0.19137 0.1915 0.19162 0.19162 0.19175 0.19225 0.19237 0.19262 0.193 0.19312 0.19325 0.19337 0.1935 0.19375 0.19387 0.19387 0.1945 0.19462 0.19487 0.19487 0.195 0.19512 0.19525 0.19537 0.19562 0.19575 0.19575 0.19612 0.19637 0.197 0.19725 0.19737 0.19775 0.198 0.19837 0.1985 0.1985 0.19875 0.19875 0.19887 0.199 0.199 0.199 0.19912 0.19925 0.1995 0.19962 0.19962 0.20075 0.20087 0.201
0 0 0 0 0 0 0 0 0.27637 0.276 0.27587 0.27437 0.27425 0.274 0.27375 0.2735 0.27337 0.27313 0.27313 0.27325 0.2735 0.27375 0.27375 0.27413 0.27463 0.27463 0.2745 0.27437 0.27425 0.27387 0.27387 0.27375 0.27387 0.27363 0.2735 0.2735 0.27313 0.273 0.27287 0.27287 0.27237 0.27287 0.2725 0.2725 0.27287 0.27275 0.27313 0.27313 0.27325 0.27325 0.27325 0.2735 0.27387 0.27387 0.274 0.27425 0.27437 0.27475 0.276 0.27563 0.27525 0.275 0.27413 0.27413 0.27575 0.27575 0.27575 0.27363 0.27375 0.27487 0.27425 0.274 0.274 0.274 0.27387 0.27375 0.27375 0.27375 0.27387 0.27525 0.27387 0.27387 0.27487 0.27487 0.27525 0.27525 0.27525 0.27525 0.27363 0.27375 0.27487 0.27325 0.27313 0.27463 0.27437 0.27437 0.27463 0.27463 0.27487 0.27513 0.27525 0.27787 0.27775 0.27775 0.27825 0.27825 0.27825 0.27737 0.27737 0.27763 0.27937 0.27925 0.27925 0.279 0.27525 0.27525 0.279 0.279 0.27463 0.27475 0.27487 0.27637 0.27613 0.27625 0.2765 0.27625 0.276 0.2755 0.27563 0.27575 0.27613 0.27687 0.27537 0.27537 0.27513 0.275 0.27437 0.27413 0.27425 0.274 0.27375 0.27375 0.27513 0.27513 0.27513 0.27513 0.275 0.27513 0.2755 0.27563 0.276 0.27587 0.275 0.275 0.27525 0.27475 0.2745 0.27475 0.27475 0.27463 0.27475 0.27537 0.2755 0.27575 0.27637 0.2765 0.277 0.27787 0.27887 0.27887 0 0 0 0 0 0 0 0 0 0 0 0 0 0 0 0 0 0 0 0 0 0 0 0 0 0 0 0 0 0 0 0 0 0 0 0 0 0 0 0 0 0 0 0 0 0 0 0 0 0 0 0 0 0 0 0 0 0 0 0 0 0 0.18175 0.18188 0.18175 0.18175 0.1815 0.18138 0.18088 0.18075 0.18063 0.18038 0.18038 0.18025 0.18038 0.18038 0.1805 0.18075 0.18088 0.181 0.1815 0.18163 0.18188 0.182 0.18213 0.1825 0.18263 0.18275 0.18288 0.183 0.18325 0.18325 0.1835 0.18363 0.18375 0.18388 0.18425 0.1845 0.18488 0.185 0.185 0.18513 0.18525 0.1855 0.18588 0.18588 0.18613 0.18625 0.18638 0.18663 0.18663 0.18675 0.18688 0.187 0.187 0.18725 0.18738 0.18762 0.18775 0.18787 0.18825 0.18837 0.1885 0.1885 0.1885 0.1885 0.18975 0.18975 0.18987 0.18987 0.18987 0.19 0.19 0.19012 0.19012 0.19012 0.19062 0.19075 0.191 0.19137 0.1915 0.19175 0.192 0.19212 0.1925 0.19275 0.19287 0.19312 0.19312 0.19337 0.1935 0.19362 0.19387 0.19387 0.194 0.1945 0.19475 0.19487 0.195 0.19512 0.19537 0.19562 0.19575 0.196 0.19612 0.19625 0.1965 0.19675 0.19712 0.19725 0.19737 0.19787 0.198 0.1985 0.19862 0.19862 0.19887 0.199 0.199 0.19925 0.19925 0.19925 0.19962 0.19962 0.19987 0.2 0.20025 0.20075 0.20087 0.201
0 0 0 0 0 0 0 0 0.2765 0.276 0.276 0.274 0.27413 0.27387 0.27375 0.27325 0.27313 0.273 0.27287 0.27313 0.27325 0.27363 0.27375 0.27387 0.2745 0.27463 0.27413 0.274 0.274 0.272 0.272 0.2725 0.27263 0.27187 0.27137 0.27125 0.27125 0.27113 0.27113 0.27113 0.27175 0.27113 0.27087 0.271 0.27113 0.27237 0.27287 0.27287 0.27287 0.273 0.27287 0.273 0.27337 0.2735 0.27363 0.27375 0.27375 0.27337 0.27575 0.27387 0.27475 0.27463 0.27213 0.27213 0.27187 0.272 0.27187 0.272 0.2725 0.27287 0.27287 0.27363 0.27375 0.27375 0.27375 0.2735 0.27337 0.27337 0.273 0.27337 0.27337 0.27375 0.27425 0.27437 0.2745 0.27475 0.27487 0.27475 0.27337 0.27363 0.27325 0.27275 0.27237 0.27225 0.27237 0.2725 0.27275 0.27287 0.273 0.27313 0.27313 0.27363 0.27375 0.27187 0.272 0.2725 0.27225 0.27225 0.27237 0.27225 0.27187 0.27137 0.27125 0.27187 0.27175 0.27187 0.27175 0.27063 0.27075 0.27287 0.273 0.27325 0.27125 0.27125 0.27587 0.27575 0.2755 0.27537 0.27513 0.27525 0.27413 0.27413 0.27363 0.2735 0.27437 0.27425 0.274 0.274 0.274 0.27375 0.27363 0.2735 0.27463 0.27487 0.27487 0.27475 0.27475 0.27475 0.27513 0.27525 0.27537 0.27537 0.27475 0.27487 0.27487 0.27463 0.2745 0.2745 0.2745 0.2745 0.2745 0.275 0.27513 0.2755 0.27563 0.27575 0.27425 0.27425 0.278 0.278 0 0 0 0 0 0 0 0 0 0 0 0 0 0 0 0 0 0 0 0 0 0 0 0 0 0 0 0 0 0 0 0 0 0 0 0 0 0 0 0 0 0 0 0 0 0 0 0 0 0 0 0 0 0 0 0 0 0 0 0 0 0 0 0 0.18175 0.18175 0.18163 0.1815 0.181 0.18088 0.18075 0.1805 0.18038 0.18038 0.1805 0.1805 0.18063 0.18075 0.181 0.181 0.1815 0.18163 0.18188 0.182 0.18213 0.1825 0.18275 0.18288 0.183 0.18313 0.18325 0.18338 0.1835 0.18375 0.18388 0.184 0.18425 0.1845 0.18488 0.185 0.18513 0.18525 0.1855 0.18563 0.18588 0.186 0.18625 0.18625 0.18638 0.1865 0.18663 0.18675 0.187 0.187 0.18713 0.18738 0.1875 0.18775 0.18787 0.188 0.18837 0.18862 0.18862 0.18912 0.18975 0.18962 0.18975 0.18975 0.18987 0.18987 0.18987 0.18987 0.19 0.19012 0.19012 0.19012 0.1905 0.19075 0.191 0.1915 0.19162 0.19187 0.19212 0.19225 0.19262 0.19287 0.193 0.19312 0.19312 0.19337 0.19362 0.19375 0.194 0.194 0.19412 0.19462 0.19475 0.195 0.195 0.19512 0.19537 0.19562 0.19575 0.19612 0.19625 0.19662 0.19675 0.19687 0.19712 0.19725 0.1975 0.19787 0.198 0.1985 0.19862 0.19875 0.199 0.19912 0.19925 0.19937 0.19937 0.19937 0.19987 0.19987 0.2 0.20012 0.20025 0.20075 0.20087 0.20112
0 0 0 0 0 0 0 0 0.2765 0.27275 0.27275 0.274 0.27375 0.2735 0.27313 0.2725 0.27237 0.27237 0.27237 0.27237 0.2725 0.27237 0.27187 0.27113 0.27113 0.27237 0.2715 0.2715 0.27213 0.27213 0.27187 0.272 0.27175 0.27137 0.271 0.271 0.271 0.27075 0.27063 0.2705 0.27037 0.27037 0.27025 0.27013 0.26987 0.26913 0.269 0.26787 0.26787 0.27087 0.27075 0.26987 0.26975 0.27013 0.27013 0.27063 0.27013 0.27 0.26975 0.26975 0.26975 0.27 0.26987 0.27 0.27 0.27 0.27 0.27025 0.27025 0.27025 0.27037 0.27237 0.27237 0.27237 0.27287 0.27287 0.27263 0.2725 0.27263 0.27275 0.27275 0.27287 0.27325 0.27325 0.27325 0.27275 0.27275 0.27263 0.27263 0.27275 0.27263 0.27237 0.27187 0.27137 0.27037 0.26975 0.26975 0.26963 0.269 0.269 0.269 0.269 0.27375 0.27137 0.27175 0.272 0.27213 0.272 0.27213 0.27175 0.27163 0.27113 0.27113 0.27125 0.27137 0.27125 0.27113 0.27087 0.2705 0.27037 0.27025 0.26925 0.26875 0.26863 0.26887 0.26887 0.26887 0.27387 0.27413 0.27413 0.2735 0.27313 0.27287 0.27287 0.27313 0.27313 0.27313 0.27337 0.2735 0.27313 0.273 0.27325 0.27375 0.27413 0.27425 0.27413 0.274 0.27375 0.274 0.274 0.27425 0.27425 0.27425 0.274 0.27387 0.27387 0.27387 0.27375 0.27375 0.27413 0.27413 0.27437 0.27437 0.2745 0.27463 0.27463 0.27437 0.27425 0.278 0.278 0 0 0 0 0 0 0 0 0 0 0 0 0 0 0 0 0 0 0 0 0 0 0 0 0 0 0 0 0 0 0 0 0 0 0 0 0 0 0 0 0 0 0 0 0 0 0 0 0 0 0 0 0 0 0 0 0 0 0 0 0 0 0 0 0.18188 0.18163 0.1815 0.1815 0.18113 0.181 0.18075 0.1805 0.1805 0.1805 0.1805 0.18063 0.18063 0.181 0.181 0.18125 0.1815 0.18163 0.18175 0.18188 0.18213 0.1825 0.18275 0.183 0.18313 0.18325 0.18338 0.1835 0.1835 0.18388 0.18388 0.184 0.18438 0.1845 0.18488 0.185 0.18513 0.18538 0.1855 0.18575 0.186 0.186 0.18625 0.18638 0.18625 0.18663 0.18663 0.18675 0.18688 0.187 0.18725 0.1875 0.18762 0.18787 0.188 0.18812 0.1885 0.18875 0.18887 0.18912 0.18937 0.18975 0.18975 0.18975 0.18987 0.18987 0.18987 0.19 0.19 0.19012 0.19012 0.19025 0.1905 0.19062 0.19087 0.19137 0.19162 0.192 0.19212 0.19237 0.19275 0.193 0.19312 0.19312 0.19325 0.19325 0.19375 0.19375 0.194 0.19412 0.19425 0.19462 0.19487 0.195 0.19512 0.19512 0.1955 0.19562 0.19575 0.19625 0.19637 0.19675 0.19687 0.197 0.19725 0.19737 0.1975 0.19787 0.19812 0.1985 0.19875 0.19887 0.19912 0.19925 0.19937 0.1995 0.19962 0.19962 0.2 0.2 0.20025 0.20025 0.2005 0.20075 0.201 0.20112
0 0 0 0 0 0 0 0 0 0.27275 0.27275 0.274 0.27363 0.2735 0.27287 0.27225 0.27213 0.272 0.27213 0.27213 0.27213 0.27187 0.27187 0.27113 0.27113 0.27237 0.2715 0.27163 0.272 0.27175 0.27175 0.27175 0.27125 0.27113 0.271 0.27063 0.27075 0.27037 0.27025 0.27013 0.27 0.26987 0.26987 0.26975 0.26987 0.2695 0.269 0.26787 0.26787 0.27075 0.27075 0.27 0.26987 0.27 0.27013 0.2705 0.27037 0.27013 0.26975 0.26975 0.26975 0.26987 0.26987 0.27 0.27 0.27 0.27 0.27 0.27025 0.27025 0.27025 0.27175 0.272 0.272 0.2725 0.27263 0.2725 0.27237 0.27237 0.27237 0.27237 0.2725 0.27275 0.27275 0.27287 0.27275 0.27275 0.27263 0.27263 0.27237 0.2725 0.27187 0.27137 0.27137 0.27037 0.27 0.26975 0.26963 0.269 0.26887 0.269 0.269 0 0.27137 0.2715 0.272 0.27187 0.27187 0.27187 0.27163 0.27125 0.271 0.27087 0.27113 0.27113 0.271 0.27087 0.2705 0.27037 0.27037 0.26975 0.26913 0.26875 0.26875 0.26887 0.26887 0.26887 0.27387 0.274 0.27375 0.27287 0.27287 0.27237 0.27237 0.27263 0.27275 0.27275 0.27313 0.27313 0.27313 0.27263 0.2725 0.27325 0.274 0.27387 0.27387 0.27363 0.2735 0.2735 0.27375 0.27375 0.27387 0.27387 0.27387 0.2735 0.2735 0.27363 0.27337 0.27337 0.27413 0.274 0.274 0.27425 0.27413 0.27425 0.27425 0.27425 0.27425 0 0 0 0 0 0 0 0 0 0 0 0 0 0 0 0 0 0 0 0 0 0 0 0 0 0 0 0 0 0 0 0 0 0 0 0 0 0 0 0 0 0 0 0 0 0 0 0 0 0 0 0 0 0 0 0 0 0 0 0 0 0 0 0 0 0 0.18263 0.18175 0.1815 0.1815 0.18113 0.181 0.181 0.18075 0.18075 0.18075 0.18075 0.18088 0.18088 0.18125 0.18125 0.18138 0.1815 0.1815 0.18175 0.18188 0.182 0.18238 0.183 0.183 0.18325 0.18325 0.1835 0.1835 0.18363 0.18388 0.18413 0.18425 0.1845 0.18463 0.18488 0.185 0.18513 0.1855 0.18563 0.18575 0.18625 0.18625 0.18663 0.18675 0.18675 0.187 0.187 0.187 0.18713 0.18713 0.18725 0.1875 0.18762 0.18787 0.188 0.18812 0.18862 0.18887 0.189 0.18937 0.18962 0.18987 0.19 0.19 0.19012 0.19012 0.19025 0.19037 0.19037 0.19037 0.19037 0.19037 0.19037 0.19075 0.19075 0.19125 0.192 0.19237 0.1925 0.19275 0.19312 0.19325 0.1935 0.19362 0.19375 0.194 0.19425 0.19437 0.1945 0.19462 0.19462 0.195 0.19512 0.19512 0.19525 0.19525 0.19562 0.19587 0.196 0.19637 0.1965 0.19687 0.197 0.19712 0.19737 0.19737 0.19762 0.19812 0.19837 0.19887 0.199 0.19912 0.19937 0.1995 0.1995 0.19975 0.19975 0.19987 0.20037 0.20037 0.2005 0.2005 0.20062 0.201 0.20112 0.20125
0 0 0 0 0 0 0 0.261 0.261 0.26275 0.26288 0.267 0.26613 0.26613 0.2715 0.272 0.27187 0.27187 0.27175 0.27187 0.27175 0.27175 0.27187 0.26963 0.26963 0.26975 0.26975 0.2715 0.2715 0.27125 0.27125 0.27113 0.271 0.27087 0.27063 0.27037 0.27037 0.27025 0.27 0.26987 0.26975 0.26963 0.26963 0.2695 0.2695 0.26913 0.26713 0.26713 0.27013 0.27037 0.27025 0.26975 0.26987 0.27 0.27013 0.27025 0.27 0.26937 0.26775 0.26775 0.26913 0.26913 0.26725 0.26725 0.269 0.26963 0.26963 0.26975 0.26975 0.26987 0.26925 0.2695 0.26913 0.269 0.269 0.26787 0.26787 0.26937 0.26925 0.26913 0.269 0.26887 0.26887 0.27037 0.27025 0.27275 0.27075 0.27075 0.27025 0.26987 0.27 0.27163 0.26887 0.26887 0.26887 0.26925 0.26863 0.26787 0.26775 0.2685 0.26863 0.26813 0.26887 0.26887 0.26887 0.27187 0.272 0.27187 0.27187 0.27137 0.27113 0.27075 0.2705 0.2685 0.26863 0.2705 0.2705 0.27 0.26987 0.26975 0.26925 0.26887 0.26875 0.26875 0.26863 0.26863 0.26863 0.26863 0.26787 0.26787 0.2685 0.2685 0.2685 0.26863 0.27125 0.26825 0.26825 0.26825 0.26975 0.26787 0.26787 0.26825 0.26825 0.26825 0.26825 0.27113 0.27113 0.27075 0.27087 0.27075 0.27087 0.27113 0.27075 0.27075 0.27263 0.27075 0.27075 0.27275 0.27087 0.271 0.27025 0.27013 0.27013 0.26925 0.26913 0.26937 0.26887 0.26887 0.26637 0.2665 0 0 0 0 0 0 0 0 0 0 0 0 0 0 0 0 0 0 0 0 0 0 0 0 0 0 0 0 0 0 0 0 0 0 0 0 0 0 0 0 0 0 0 0 0 0 0 0 0 0 0 0 0 0 0 0 0 0 0 0 0 0 0 0 0 0.18163 0.18163 0.18138 0.18113 0.181 0.18088 0.18075 0.18075 0.18063 0.18075 0.18075 0.181 0.18125 0.18125 0.18138 0.1815 0.1815 0.18175 0.182 0.18213 0.18225 0.18313 0.183 0.18325 0.18325 0.1835 0.1835 0.18363 0.184 0.18413 0.18438 0.18463 0.18475 0.18488 0.185 0.18513 0.1855 0.18575 0.18588 0.18638 0.1865 0.18663 0.18688 0.18688 0.187 0.187 0.18713 0.18713 0.18725 0.18738 0.18762 0.18775 0.18787 0.188 0.18825 0.18875 0.18887 0.18937 0.1895 0.18962 0.19 0.19 0.19012 0.19025 0.19025 0.19037 0.1905 0.19062 0.19062 0.19062 0.19062 0.191 0.19175 0.19175 0.19225 0.19262 0.1925 0.19262 0.19287 0.19312 0.19325 0.19337 0.19362 0.19375 0.19412 0.19437 0.1945 0.19462 0.19462 0.19475 0.19512 0.19525 0.19537 0.1955 0.19562 0.196 0.196 0.19612 0.1965 0.19662 0.19687 0.197 0.19712 0.19737 0.1975 0.19762 0.19837 0.1985 0.19887 0.199 0.19912 0.1995 0.1995 0.19962 0.2 0.2 0.20025 0.20037 0.2005 0.2005 0.20062 0.20075 0.201 0.20112 0.20125
0 0 0 0 0 0 0 0.261 0.261 0.26275 0.26288 0.267 0.26613 0.26613 0.2715 0.27163 0.27163 0.2715 0.27137 0.2715 0.2715 0.27137 0.27187 0.26963 0.26963 0.26975 0.26975 0.2715 0.271 0.27063 0.27075 0.27063 0.27025 0.27013 0.27 0.27 0.27 0.27 0.27 0.2695 0.26925 0.269 0.269 0.26887 0.26925 0.2685 0.26713 0.26713 0.27013 0.27013 0.26975 0.26937 0.2695 0.26987 0.26987 0.27 0.26925 0.26937 0.26775 0.26775 0.26787 0.26787 0.26737 0.26725 0.269 0.26875 0.26887 0.26887 0.26887 0.26887 0.26887 0.26937 0.26913 0.269 0.269 0.26787 0.26787 0.26937 0.26925 0.26913 0.269 0.26887 0.26887 0.27037 0.27025 0.27275 0.27075 0.27075 0.27025 0.26987 0.27 0.27163 0.26887 0.26813 0.26813 0.26813 0.26787 0.26775 0.2675 0.26763 0.26775 0.26813 0.26887 0.26887 0.26887 0.272 0.27187 0.27187 0.27163 0.27163 0.27075 0.27063 0.2705 0.2685 0.26863 0.27 0.27 0.26913 0.26875 0.26863 0.2685 0.2685 0.26837 0.26825 0.26813 0.26813 0.26813 0.26825 0.26787 0.26787 0.26787 0.268 0.268 0.2685 0.27125 0.26825 0.26775 0.26825 0.26975 0.26787 0.26787 0.268 0.26787 0.26763 0.26825 0.27113 0.27113 0.27075 0.27087 0.27075 0.27087 0.27113 0.27075 0.27075 0.27263 0.27075 0.27075 0.27275 0.27087 0.2705 0.27013 0.26987 0.26987 0.2695 0.26887 0.26887 0.26837 0.26887 0.26637 0.2665 0 0 0 0 0 0 0 0 0 0 0 0 0 0 0 0 0 0 0 0 0 0 0 0 0 0 0 0 0 0 0 0 0 0 0 0 0 0 0 0 0 0 0 0 0 0 0 0 0 0 0 0 0 0 0 0 0 0 0 0 0 0 0 0 0 0.18163 0.18163 0.1815 0.18113 0.18113 0.181 0.18075 0.18075 0.18063 0.18075 0.18075 0.18088 0.18125 0.18125 0.18138 0.18138 0.18138 0.18175 0.182 0.182 0.18225 0.18313 0.18325 0.1835 0.1835 0.1835 0.1835 0.18375 0.18425 0.1845 0.18463 0.18475 0.18488 0.18513 0.18513 0.18525 0.1855 0.18575 0.18588 0.18638 0.1865 0.18675 0.18688 0.18688 0.187 0.18713 0.18725 0.18738 0.1875 0.18762 0.18787 0.18787 0.18812 0.18825 0.18812 0.189 0.18912 0.1895 0.18962 0.18962 0.19 0.19012 0.19012 0.19037 0.1905 0.19062 0.19087 0.191 0.19112 0.19112 0.19112 0.191 0.19175 0.192 0.19237 0.1925 0.19287 0.19287 0.193 0.19325 0.19337 0.1935 0.19375 0.19387 0.19437 0.19462 0.19462 0.19487 0.195 0.19512 0.19537 0.1955 0.19562 0.19575 0.19587 0.19625 0.19637 0.19637 0.19662 0.19675 0.197 0.19712 0.19712 0.19737 0.19762 0.19762 0.19862 0.19875 0.199 0.19912 0.19925 0.19962 0.19975 0.19987 0.20037 0.2005 0.20075 0.20075 0.20087 0.201 0.201 0.20112 0.20137 0.2015 0.20137
0 0 0 0 0 0 0 0.26325 0.26338 0.26362 0.26362 0.26425 0.26538 0.26538 0.2655 0.26637 0.26637 0.26687 0.26675 0.26675 0.26488 0.26488 0.265 0.26787 0.26763 0.26775 0.26787 0.26787 0.26825 0.26825 0.26825 0.26837 0.26825 0.27 0.27 0.27 0.27 0.26737 0.26737 0.26937 0.269 0.269 0.26887 0.26887 0.26887 0.2665 0.266 0.266 0.26575 0.26575 0.26937 0.26913 0.26937 0.26963 0.26575 0.26587 0.26887 0.26625 0.26637 0.26713 0.26725 0.26725 0.26713 0.267 0.26813 0.26825 0.26863 0.2685 0.26863 0.26863 0.26875 0.2685 0.26763 0.26737 0.26725 0.26713 0.267 0.267 0.26687 0.266 0.266 0.26575 0.26575 0.26613 0.26613 0.26613 0.26613 0.26613 0.26613 0.26562 0.26562 0.26787 0.26725 0.2675 0.26763 0.26763 0.2675 0.26725 0.26713 0.2675 0.26763 0.26775 0.26675 0.26663 0.26787 0.26737 0.26737 0.2675 0.26787 0.2675 0.2675 0.26787 0.26787 0.26787 0.26775 0.26787 0.268 0.268 0.26825 0.26813 0.268 0.26813 0.268 0.26787 0.26787 0.26787 0.26787 0.26787 0.26775 0.26763 0.26775 0.26763 0.2675 0.26763 0.26763 0.26763 0.26725 0.267 0.26713 0.26725 0.26775 0.26787 0.26763 0.267 0.2675 0.2675 0.27063 0.267 0.267 0.267 0.26687 0.26675 0.26687 0.26675 0.26675 0.26687 0.26687 0.26887 0.26887 0.27 0.26987 0.26963 0.2695 0.26913 0.26875 0.26863 0.268 0.26787 0.26675 0.26637 0.2665 0 0 0 0 0 0 0 0 0 0 0 0 0 0 0 0 0 0 0 0 0 0 0 0 0 0 0 0 0 0 0 0 0 0 0 0 0 0 0 0 0 0 0 0 0 0 0 0 0 0 0 0 0 0 0 0 0 0 0 0 0.18413 0.18413 0.18413 0.18175 0.18175 0.18163 0.1815 0.18125 0.18113 0.181 0.18075 0.18075 0.18075 0.18075 0.18075 0.18088 0.18125 0.18125 0.18138 0.18138 0.1815 0.18175 0.182 0.182 0.18288 0.18325 0.18338 0.1835 0.18363 0.18363 0.1835 0.18375 0.18438 0.18463 0.18475 0.18488 0.18488 0.18513 0.18513 0.18525 0.1855 0.18575 0.18588 0.1865 0.1865 0.18675 0.18688 0.187 0.187 0.18725 0.18725 0.18738 0.18762 0.18787 0.188 0.188 0.18825 0.18837 0.1885 0.18912 0.18925 0.1895 0.18962 0.18962 0.18987 0.19012 0.19012 0.19037 0.1905 0.19062 0.19087 0.19112 0.19125 0.19125 0.19125 0.19162 0.19212 0.19225 0.1925 0.19262 0.19287 0.193 0.193 0.19325 0.19337 0.1935 0.19387 0.19387 0.19437 0.19462 0.19475 0.195 0.19512 0.19512 0.1955 0.19562 0.19562 0.19575 0.196 0.19637 0.19637 0.1965 0.19675 0.19675 0.197 0.19712 0.19725 0.1975 0.19775 0.19787 0.19862 0.19875 0.19912 0.19925 0.19937 0.19962 0.19987 0.2 0.2005 0.20062 0.20087 0.20087 0.201 0.20112 0.20125 0.20137 0.2015 0.20175 0.202
0 0 0 0 0 0.262 0.262 0.26325 0.26312 0.26288 0.263 0.26325 0.2645 0.26462 0.2645 0.2645 0.2645 0.26488 0.26438 0.26438 0.26475 0.2645 0.26438 0.26388 0.26388 0.2665 0.26663 0.267 0.26725 0.26737 0.26737 0.26438 0.2635 0.2635 0.2635 0.2635 0.267 0.26663 0.26675 0.26587 0.26525 0.26525 0.26538 0.2655 0.26562 0.26438 0.26412 0.264 0.264 0.26412 0.26488 0.26488 0.26525 0.2655 0.26525 0.26525 0.2655 0.26562 0.26613 0.26613 0.26625 0.26625 0.266 0.26575 0.26525 0.26525 0.26787 0.26787 0.26737 0.267 0.2675 0.26775 0.267 0.2665 0.2665 0.2665 0.2665 0.2665 0.26637 0.266 0.26562 0.26562 0.26575 0.26575 0.2655 0.26538 0.26538 0.26538 0.26538 0.2655 0.2655 0.26613 0.26488 0.26488 0.26562 0.2655 0.26613 0.26538 0.26525 0.26675 0.267 0.267 0.26562 0.26575 0.26675 0.26637 0.26625 0.26613 0.26562 0.26562 0.26575 0.26625 0.26663 0.26675 0.2655 0.2655 0.2655 0.2655 0.267 0.267 0.267 0.267 0.267 0.267 0.26713 0.26737 0.26737 0.26737 0.26713 0.26713 0.26713 0.267 0.267 0.267 0.26675 0.26663 0.26637 0.26625 0.26625 0.26625 0.26625 0.26625 0.2665 0.26663 0.2665 0.26625 0.26637 0.26625 0.26625 0.26625 0.266 0.266 0.26613 0.26637 0.26625 0.266 0.26512 0.26887 0.26887 0.26887 0.26813 0.26825 0.26837 0.26825 0.26787 0.26763 0.26725 0.26713 0.26425 0.26238 0.2625 0.26238 0.26 0.26012 0 0 0 0 0 0 0 0 0 0 0 0 0 0 0 0 0 0 0 0 0 0 0 0 0 0 0 0 0 0 0 0 0 0 0 0 0 0 0 0 0 0 0 0 0 0 0 0 0 0 0 0 0 0 0 0 0 0.18413 0.18413 0.18413 0.18175 0.18175 0.18163 0.1815 0.18125 0.18113 0.181 0.18075 0.18075 0.18075 0.18075 0.18075 0.18075 0.18113 0.18125 0.18125 0.18125 0.18138 0.18175 0.18188 0.182 0.1825 0.18338 0.1835 0.18375 0.18388 0.18375 0.1835 0.1835 0.1845 0.18475 0.18488 0.18488 0.185 0.18513 0.18513 0.18525 0.18563 0.18575 0.186 0.18638 0.1865 0.18675 0.18688 0.187 0.187 0.18713 0.18725 0.1875 0.18762 0.188 0.18812 0.18825 0.18837 0.18862 0.18862 0.18912 0.18925 0.18962 0.18962 0.18975 0.18987 0.19 0.19012 0.19037 0.1905 0.19087 0.19112 0.19112 0.1915 0.1915 0.19162 0.19175 0.192 0.19225 0.19262 0.19275 0.19287 0.193 0.19312 0.19325 0.19337 0.1935 0.19387 0.194 0.194 0.19475 0.19487 0.19512 0.19525 0.19537 0.1955 0.19562 0.19575 0.19587 0.19612 0.1965 0.1965 0.1965 0.19675 0.19675 0.19712 0.19712 0.19725 0.19762 0.19787 0.19787 0.19875 0.19887 0.19912 0.19925 0.19937 0.19987 0.2 0.20025 0.20075 0.20075 0.20087 0.201 0.201 0.20125 0.20137 0.2015 0.20162 0.20187 0.20237
0 0 0 0 0 0.262 0.262 0.26338 0.26325 0.26288 0.26275 0.26338 0.2645 0.26412 0.26438 0.26425 0.2645 0.26462 0.26438 0.2645 0.2645 0.26438 0.26412 0.26388 0.26388 0.26625 0.26675 0.26675 0.26725 0.26713 0.26737 0.26438 0.26362 0.2635 0.26362 0.2635 0.267 0.26663 0.26675 0.26587 0.26525 0.26525 0.26538 0.26512 0.26525 0.26462 0.26412 0.264 0.26388 0.26425 0.26462 0.26475 0.265 0.26512 0.26512 0.26512 0.26525 0.26525 0.266 0.266 0.266 0.26613 0.26538 0.26525 0.26512 0.26525 0.26787 0.26763 0.26763 0.267 0.267 0.268 0.26687 0.26613 0.266 0.266 0.26613 0.26613 0.26613 0.26562 0.2655 0.26538 0.26525 0.26525 0.26538 0.2655 0.26525 0.26525 0.265 0.265 0.2655 0.26613 0.26475 0.265 0.26525 0.26538 0.2655 0.26525 0.26538 0.26675 0.267 0.267 0.26562 0.26575 0.26613 0.26587 0.26562 0.26538 0.26525 0.26525 0.26562 0.26625 0.26625 0.26663 0.2655 0.26512 0.26525 0.2655 0.267 0.26687 0.26687 0.26675 0.26675 0.26687 0.26725 0.26713 0.26713 0.26713 0.267 0.267 0.267 0.26687 0.26675 0.2665 0.26625 0.26613 0.26587 0.26575 0.26575 0.26613 0.26625 0.26625 0.26637 0.26663 0.26625 0.26625 0.26637 0.26625 0.26575 0.26575 0.26587 0.26587 0.26625 0.26625 0.26637 0.26512 0.26512 0.26887 0.26887 0.26887 0.26813 0.26813 0.26813 0.268 0.268 0.2675 0.26725 0.26713 0.26425 0.26238 0.2625 0.26238 0.26 0.26012 0 0 0 0 0 0 0 0 0 0 0 0 0 0 0 0 0 0 0 0 0 0 0 0 0 0 0 0 0 0 0 0 0 0 0 0 0 0 0 0 0 0 0 0 0 0 0 0 0 0 0 0 0 0 0 0 0 0.18413 0.18413 0.18413 0 0.18175 0.18163 0.18163 0.18125 0.18113 0.181 0.18088 0.18075 0.18075 0.18075 0.18075 0.18088 0.18125 0.18125 0.18138 0.18138 0.18138 0.1815 0.18188 0.182 0.1825 0.1835 0.18363 0.18413 0.18413 0.1845 0.18463 0.18463 0.18488 0.185 0.18513 0.18513 0.18513 0.18525 0.18525 0.18538 0.18588 0.186 0.18613 0.1865 0.18663 0.18688 0.187 0.187 0.18713 0.18725 0.18738 0.18762 0.18775 0.18825 0.18837 0.18862 0.18875 0.18887 0.18887 0.18937 0.18937 0.18962 0.18975 0.18975 0.18987 0.19 0.19012 0.19037 0.19087 0.19125 0.19137 0.19162 0.19175 0.192 0.192 0.19212 0.19225 0.19237 0.19275 0.19287 0.193 0.19312 0.19312 0.19337 0.19362 0.19375 0.19412 0.19437 0.19437 0.19512 0.19525 0.1955 0.19562 0.19562 0.1955 0.19575 0.19612 0.19625 0.19637 0.19675 0.19687 0.19687 0.19712 0.19712 0.19737 0.1975 0.1975 0.1975 0.19812 0.19837 0.199 0.19912 0.19937 0.19962 0.19975 0.20012 0.20037 0.2005 0.20087 0.201 0.20112 0.20112 0.20125 0.2015 0.20175 0.20187 0.20187 0.20212 0.2025
0 0 0.26238 0.26238 0.26238 0.2615 0.2615 0.26125 0.26125 0.26225 0.2625 0.26225 0.26325 0.26362 0.26388 0.264 0.26412 0.26438 0.26438 0.26438 0.26425 0.26388 0.26362 0.26362 0.26312 0.26325 0.26312 0.26288 0.26288 0.26288 0.263 0.26362 0.26362 0.26362 0.2635 0.26338 0.2635 0.26362 0.26362 0.26375 0.26362 0.26362 0.26412 0.2645 0.26462 0.2645 0.264 0.26375 0.26362 0.264 0.26425 0.26438 0.26462 0.26462 0.26462 0.26462 0.26475 0.265 0.26587 0.26587 0.26575 0.26587 0.26512 0.26488 0.26488 0.26462 0.26538 0.26525 0.26525 0.26575 0.2655 0.2655 0.26538 0.26562 0.2655 0.2655 0.26562 0.26562 0.26562 0.26538 0.26525 0.26512 0.265 0.26488 0.26362 0.26362 0.26325 0.26325 0.26438 0.26438 0.26412 0.265 0.26475 0.26475 0.26475 0.26488 0.26512 0.26488 0.2645 0.265 0.26438 0.26425 0.26438 0.26525 0.26538 0.26538 0.26488 0.26475 0.26475 0.26462 0.26438 0.265 0.26462 0.26462 0.26438 0.26462 0.26475 0.26438 0.26462 0.26425 0.26438 0.26438 0.26438 0.26375 0.26375 0.26687 0.267 0.26687 0.26687 0.26687 0.26687 0.26637 0.26637 0.26613 0.26575 0.26575 0.26525 0.26525 0.265 0.26425 0.26438 0.26462 0.2645 0.26438 0.26438 0.26438 0.26425 0.26412 0.26525 0.26525 0.26412 0.26425 0.26412 0.264 0.26412 0.26425 0.26362 0.26362 0.26288 0.26275 0.26288 0.26288 0.26375 0.26675 0.264 0.26412 0.26475 0.26488 0.26362 0.263 0.263 0.26088 0.25975 0.25975 0 0 0 0 0 0 0 0 0 0 0 0 0 0 0 0 0 0 0 0 0 0 0 0 0 0 0 0 0 0 0 0 0 0 0 0 0 0 0 0 0 0 0 0 0 0 0 0 0 0 0 0 0 0 0 0 0 0 0 0 0 0.18175 0.18163 0.1815 0.18125 0.18113 0.181 0.18075 0.18075 0.18075 0.18075 0.18075 0.181 0.18125 0.18125 0.18138 0.18138 0.18138 0.1815 0.18275 0.18275 0.18325 0.18375 0.18363 0.18413 0.18425 0.1845 0.1845 0.18463 0.18488 0.185 0.18513 0.18513 0.18513 0.18538 0.18538 0.1855 0.18588 0.186 0.18625 0.18663 0.18663 0.18675 0.18688 0.187 0.18713 0.18738 0.18738 0.18775 0.18787 0.18837 0.1885 0.18862 0.189 0.189 0.189 0.18937 0.1895 0.18962 0.18975 0.18975 0.18987 0.19 0.19012 0.19037 0.19137 0.1915 0.19162 0.19175 0.19187 0.192 0.19212 0.19225 0.19237 0.19237 0.19287 0.19287 0.193 0.19312 0.19325 0.1935 0.19362 0.19387 0.19425 0.1945 0.19475 0.19537 0.19537 0.19562 0.19575 0.19575 0.19587 0.19662 0.1965 0.1965 0.19662 0.19687 0.197 0.19712 0.19725 0.19737 0.1975 0.1975 0.1975 0.1975 0.1985 0.1985 0.19912 0.19925 0.19962 0.19975 0.19987 0.20025 0.20037 0.20062 0.20087 0.201 0.20112 0.20125 0.20137 0.20162 0.20187 0.202 0.20212 0.20225 0.2025
0 0 0.2535 0.25362 0.25662 0.25662 0.25675 0.26075 0.26112 0.26138 0.2615 0.26138 0.26188 0.26175 0.26262 0.26288 0.263 0.26338 0.26362 0.26362 0.26362 0.26225 0.2625 0.2625 0.26125 0.26125 0.26088 0.26088 0.26125 0.26162 0.26162 0.26162 0.2615 0.26288 0.26288 0.26275 0.2625 0.26175 0.26188 0.263 0.263 0.26312 0.26338 0.2635 0.26375 0.26362 0.2635 0.26338 0.26312 0.262 0.26212 0.26362 0.26375 0.26362 0.26375 0.264 0.26412 0.26412 0.26488 0.26488 0.26088 0.26088 0.26338 0.26362 0.26362 0.26225 0.26225 0.2615 0.2615 0.26175 0.26475 0.265 0.26488 0.26462 0.26462 0.2645 0.26438 0.2645 0.26462 0.2645 0.26438 0.26412 0.26362 0.26362 0.26262 0.26288 0.26262 0.26275 0.2625 0.26225 0.26225 0.26225 0.26225 0.26238 0.26262 0.26275 0.26288 0.26262 0.2625 0.26275 0.26275 0.263 0.26338 0.26262 0.2625 0.26225 0.26212 0.26225 0.26288 0.26188 0.26188 0.26188 0.26188 0.26212 0.26225 0.26225 0.26238 0.26225 0.26225 0.26225 0.26225 0.26362 0.26362 0.26362 0.26362 0.26438 0.26438 0.2645 0.26438 0.265 0.26462 0.26462 0.265 0.26488 0.26475 0.26475 0.2645 0.26438 0.26412 0.26412 0.26412 0.26412 0.26425 0.26425 0.26412 0.264 0.26388 0.26412 0.26438 0.26425 0.26388 0.26375 0.26362 0.26362 0.26362 0.26375 0.2635 0.26325 0.263 0.26275 0.26288 0.26312 0.26338 0.26325 0.26312 0.26375 0.26375 0.26362 0.26325 0.26288 0.26288 0.2605 0.25988 0.25975 0 0 0 0 0 0 0 0 0 0 0 0 0 0 0 0 0 0 0 0 0 0 0 0 0 0 0 0 0 0 0 0 0 0 0 0 0 0 0 0 0 0 0 0 0 0 0 0 0 0 0 0 0 0 0 0 0 0 0 0 0 0.1815 0.1815 0.18138 0.181 0.181 0.18088 0.18075 0.18075 0.18075 0.18075 0.18088 0.181 0.18125 0.1815 0.1815 0.1815 0.1815 0.1815 0.18275 0.18288 0.18338 0.1835 0.18363 0.18413 0.18425 0.1845 0.1845 0.18475 0.185 0.18513 0.18513 0.18513 0.18525 0.18538 0.1855 0.18563 0.186 0.18613 0.18625 0.18663 0.18663 0.18688 0.187 0.187 0.18725 0.18738 0.18762 0.18775 0.188 0.18837 0.18862 0.18862 0.18887 0.189 0.189 0.18937 0.1895 0.18962 0.18975 0.18975 0.18987 0.19 0.19 0.19037 0.19137 0.19162 0.19175 0.19175 0.192 0.19212 0.19225 0.19237 0.19237 0.1925 0.19287 0.193 0.19312 0.19312 0.19312 0.19337 0.19387 0.19375 0.1945 0.19462 0.195 0.19525 0.1955 0.19562 0.19575 0.19587 0.19587 0.19662 0.19662 0.19675 0.19675 0.197 0.19712 0.19725 0.19737 0.19737 0.19762 0.19762 0.1975 0.1975 0.1985 0.19862 0.19925 0.19937 0.19962 0.19987 0.2 0.20025 0.20037 0.2005 0.20087 0.201 0.20125 0.20137 0.20125 0.20187 0.202 0.20212 0.20225 0.20237 0.20262
0 0 0.2535 0.25362 0.25662 0.25638 0.25675 0.26075 0.26088 0.26125 0.2615 0.26138 0.26188 0.26175 0.26212 0.26225 0.26275 0.263 0.26362 0.26362 0.2635 0.26225 0.262 0.262 0.26138 0.261 0.26088 0.26088 0.26112 0.26125 0.26138 0.2615 0.2615 0.2625 0.26262 0.26225 0.26212 0.26175 0.26188 0.26288 0.26288 0.26288 0.263 0.26312 0.26362 0.26338 0.26325 0.26338 0.26288 0.26225 0.262 0.26362 0.26362 0.2635 0.2635 0.26375 0.26388 0.264 0.26462 0.2645 0.26088 0.26088 0.26338 0.2635 0.26338 0.26225 0.26225 0.2615 0.2615 0.26175 0.26475 0.26475 0.26475 0.26438 0.26412 0.26412 0.26412 0.264 0.26412 0.26438 0.26425 0.26362 0.26312 0.26288 0.26262 0.26225 0.26225 0.26225 0.26225 0.26225 0.26212 0.26212 0.26212 0.26238 0.26238 0.2625 0.2625 0.26238 0.26225 0.2625 0.2625 0.26262 0.26312 0.26288 0.26225 0.26212 0.26212 0.26238 0.26262 0.262 0.26188 0.26188 0.26188 0.26212 0.26212 0.26225 0.26225 0.26225 0.26225 0.26225 0.26238 0.26312 0.26312 0.263 0.26362 0.26438 0.26438 0.2645 0.26438 0.265 0.26462 0.2645 0.26438 0.26438 0.26438 0.2645 0.26425 0.26412 0.264 0.26388 0.26388 0.264 0.264 0.264 0.26388 0.26388 0.26375 0.26388 0.264 0.264 0.26375 0.26362 0.26362 0.26362 0.26362 0.2635 0.26338 0.26325 0.2625 0.2625 0.263 0.26288 0.263 0.263 0.26312 0.26325 0.2635 0.26312 0.26312 0.26288 0.26288 0.2605 0.26 0.26012 0 0 0 0 0 0 0 0 0 0 0 0 0 0 0 0 0 0 0 0 0 0 0 0 0 0 0 0 0 0 0 0 0 0 0 0 0 0 0 0 0 0 0 0 0 0 0 0 0 0 0 0 0 0 0 0 0 0 0 0 0 0.1815 0.18138 0.18125 0.181 0.18088 0.18088 0.18075 0.18075 0.18075 0.18088 0.181 0.18113 0.1815 0.1815 0.18163 0.1815 0.18175 0.18175 0.18275 0.183 0.1835 0.18363 0.18375 0.18425 0.18438 0.18463 0.18463 0.18475 0.18513 0.18525 0.18525 0.18525 0.18538 0.1855 0.18563 0.18575 0.18625 0.18625 0.18638 0.18675 0.18688 0.187 0.18713 0.18738 0.18775 0.18775 0.18775 0.188 0.18812 0.1885 0.18862 0.18862 0.18887 0.189 0.18912 0.18937 0.1895 0.18975 0.18975 0.18987 0.19 0.19087 0.19087 0.19125 0.19137 0.19175 0.19187 0.19187 0.19225 0.19237 0.19237 0.19262 0.19275 0.19275 0.193 0.193 0.19312 0.19312 0.19325 0.19337 0.19475 0.19462 0.19487 0.195 0.19537 0.1955 0.19562 0.19575 0.196 0.19612 0.19625 0.19662 0.197 0.19712 0.19712 0.19725 0.19725 0.19737 0.1975 0.1975 0.19787 0.19787 0.19812 0.19862 0.19887 0.199 0.19937 0.1995 0.19975 0.19987 0.2 0.20037 0.20037 0.20062 0.20087 0.20112 0.2015 0.20162 0.2015 0.2025 0.2025 0.20262 0.20275 0.20275 0.203
0.25512 0.25512 0.2545 0.2545 0.25562 0.25612 0.256 0.25638 0.25638 0.25662 0.25725 0.25725 0.25938 0.25938 0.26162 0.26188 0.26112 0.26125 0.26112 0.26112 0.26312 0.26125 0.26162 0.2615 0.26088 0.26088 0.26075 0.26062 0.26075 0.26088 0.26088 0.26038 0.2615 0.26212 0.262 0.26175 0.2615 0.26125 0.26088 0.26262 0.26062 0.26075 0.26075 0.26025 0.26025 0.26038 0.26025 0.26025 0.262 0.26225 0.262 0.2595 0.2595 0.2595 0.259 0.259 0.25862 0.258 0.25788 0.25788 0.25788 0.259 0.25912 0.259 0.26225 0.2595 0.2595 0.25938 0.25938 0.25962 0.26012 0.26012 0.26 0.263 0.26362 0.26362 0.26338 0.26338 0.2635 0.26262 0.26275 0.2625 0.26262 0.262 0.26138 0.26188 0.262 0.262 0.262 0.26188 0.2615 0.2615 0.2615 0.26175 0.26188 0.262 0.262 0.26188 0.26188 0.26212 0.26212 0.26225 0.26325 0.26275 0.262 0.262 0.262 0.26212 0.26225 0.26188 0.26188 0.26188 0.26175 0.26175 0.26188 0.26225 0.26225 0.26225 0.26212 0.26212 0.26225 0.26275 0.26262 0.26275 0.26288 0.2615 0.26138 0.2615 0.26125 0.26125 0.2635 0.264 0.26412 0.264 0.264 0.26438 0.26425 0.26388 0.26375 0.26362 0.26362 0.26375 0.264 0.26388 0.26388 0.26362 0.26375 0.26375 0.26388 0.26388 0.26362 0.2635 0.2615 0.2615 0.2635 0.26325 0.263 0.26275 0.26 0.26012 0.26 0.26012 0.2625 0.26225 0.26162 0.26288 0.26288 0.26275 0.26225 0.261 0.261 0.26 0.26 0.26 0 0 0 0 0 0 0 0 0 0 0 0 0 0 0 0 0 0 0 0 0 0 0 0 0 0 0 0 0 0 0 0 0 0 0 0 0 0 0 0 0 0 0 0 0 0 0 0 0 0 0 0 0 0 0 0 0 0 0 0 0.18138 0.18125 0.18125 0.18125 0.181 0.181 0.18088 0.18075 0.18075 0.18075 0.181 0.18113 0.18125 0.1815 0.18163 0.18175 0.18175 0.18288 0.18288 0.18338 0.18325 0.1835 0.18363 0.18375 0.18438 0.1845 0.18463 0.18463 0.18488 0.18525 0.18538 0.1855 0.1855 0.18538 0.18563 0.18575 0.18588 0.18625 0.18638 0.1865 0.18675 0.18688 0.18713 0.18725 0.18738 0.18775 0.18775 0.18787 0.188 0.18825 0.1885 0.18862 0.18875 0.18887 0.18912 0.18925 0.1895 0.18962 0.18987 0.19 0.19 0.19025 0.19075 0.19087 0.19137 0.1915 0.19175 0.19187 0.192 0.19225 0.19237 0.1925 0.19275 0.19275 0.193 0.19312 0.19312 0.19325 0.19337 0.1935 0.19375 0.19412 0.19437 0.19487 0.195 0.19537 0.1955 0.19562 0.19587 0.19612 0.19625 0.19637 0.19662 0.197 0.19712 0.19712 0.19725 0.19737 0.1975 0.19762 0.19762 0.19787 0.198 0.19825 0.19875 0.199 0.19912 0.1995 0.19962 0.19987 0.2 0.20012 0.20037 0.2005 0.20062 0.201 0.20112 0.20162 0.20175 0.202 0.20262 0.20275 0.20275 0.20287 0.203 0.20312
0.25512 0.255 0.25475 0.25512 0.25512 0.25525 0.25562 0.25562 0.25575 0.25562 0.25675 0.25675 0.25688 0.257 0.25688 0.25725 0.25725 0.25725 0.25788 0.25775 0.25775 0.2595 0.25938 0.26025 0.26025 0.26025 0.26025 0.26012 0.26012 0.26012 0.26025 0.26025 0.25625 0.25625 0.2605 0.26062 0.2605 0.26038 0.25988 0.25988 0.26012 0.26038 0.26038 0.26 0.26 0.26012 0.26 0.25988 0.25975 0.25788 0.25788 0.258 0.25862 0.25875 0.25862 0.25825 0.25812 0.25788 0.25775 0.25775 0.25775 0.2585 0.25875 0.25875 0.25912 0.2595 0.25938 0.25938 0.25938 0.25962 0.25962 0.25925 0.2585 0.25838 0.2585 0.26288 0.26275 0.2625 0.25825 0.25825 0.25962 0.26225 0.25962 0.25962 0.26088 0.26088 0.261 0.26125 0.2615 0.2615 0.25975 0.25988 0.259 0.259 0.26075 0.26088 0.25812 0.25825 0.25825 0.25825 0.25838 0.25825 0.25838 0.2585 0.2585 0.25862 0.25838 0.25838 0.2585 0.25838 0.26112 0.26112 0.261 0.26088 0.261 0.2615 0.26162 0.26162 0.2615 0.2615 0.2615 0.26162 0.26175 0.26188 0.2625 0.26012 0.26075 0.26075 0.2605 0.26 0.26012 0.26025 0.26025 0.25962 0.25962 0.26162 0.26312 0.26338 0.2635 0.26325 0.26338 0.2635 0.26362 0.26375 0.26362 0.26362 0.2635 0.26062 0.25925 0.25938 0.25962 0.25975 0.25875 0.25888 0.2595 0.25962 0.25962 0.25962 0.25975 0.25988 0.25962 0.26 0.26 0.26025 0.26025 0.26025 0.26038 0.26012 0.26025 0.25975 0.26 0.25962 0.25925 0.25875 0.2575 0.25675 0.25675 0 0 0 0 0 0 0 0 0 0 0 0 0 0 0 0 0 0 0 0 0 0 0 0 0 0 0 0 0 0 0 0 0 0 0 0 0 0 0 0 0 0 0 0 0 0 0 0 0 0 0 0 0 0 0 0 0 0.18138 0.18125 0.18125 0.18113 0.181 0.181 0.18088 0.18075 0.18075 0.18088 0.18113 0.18125 0.18125 0.18163 0.18175 0.18175 0.18175 0.18288 0.18313 0.18325 0.18338 0.18363 0.18363 0.18375 0.18438 0.1845 0.18463 0.18475 0.18488 0.18538 0.1855 0.1855 0.18563 0.1855 0.18575 0.18588 0.186 0.18625 0.18638 0.1865 0.18688 0.187 0.18725 0.18738 0.1875 0.18787 0.18787 0.18787 0.18812 0.18825 0.18862 0.18875 0.18875 0.18912 0.18925 0.1895 0.18962 0.18962 0.19 0.19012 0.19012 0.1905 0.19062 0.19087 0.1915 0.1915 0.19175 0.19187 0.192 0.19237 0.1925 0.19262 0.19287 0.19287 0.19312 0.19312 0.19312 0.19337 0.19337 0.19362 0.19387 0.194 0.19412 0.19487 0.195 0.19525 0.19537 0.19562 0.196 0.19612 0.19625 0.1965 0.19675 0.19712 0.19712 0.19725 0.19725 0.19737 0.1975 0.19762 0.19775 0.198 0.19812 0.19825 0.19887 0.199 0.19925 0.19962 0.19975 0.2 0.20012 0.20012 0.20037 0.2005 0.20062 0.201 0.20125 0.20187 0.202 0.20225 0.20275 0.20287 0.20287 0.203 0.20312 0.20325
0.25512 0.25525 0.25512 0.25512 0.25488 0.25512 0.25512 0.25525 0.25538 0.25575 0.25625 0.25675 0.25675 0.25688 0.257 0.25712 0.25712 0.25725 0.25788 0.25775 0.25775 0.2595 0.25975 0.26012 0.26 0.26 0.26 0.25988 0.25988 0.26 0.26 0.26025 0.25625 0.25625 0.2605 0.26025 0.26025 0.26 0.25988 0.25988 0.26012 0.26012 0.26025 0.25975 0.25975 0.25975 0.25988 0.25988 0.25975 0.25788 0.25788 0.25812 0.258 0.25838 0.25812 0.25788 0.25788 0.25762 0.25762 0.2575 0.25762 0.25825 0.2585 0.25875 0.25912 0.25925 0.25938 0.25925 0.25912 0.25938 0.25938 0.2585 0.2585 0.25838 0.2585 0.26288 0.2625 0.2625 0.25825 0.25825 0.25962 0.26225 0.25962 0.25962 0.26088 0.26088 0.26062 0.26088 0.2615 0.2615 0.25975 0.25962 0.25912 0.259 0.26025 0.26038 0.25812 0.25825 0.25812 0.25825 0.25838 0.25825 0.25838 0.25838 0.2585 0.2585 0.2585 0.25838 0.25838 0.2585 0.26088 0.26088 0.2605 0.26062 0.26062 0.26075 0.2615 0.2615 0.26138 0.26112 0.26112 0.26112 0.2615 0.2615 0.2625 0.26012 0.26012 0.26025 0.26 0.26 0.26012 0.26025 0.26 0.25975 0.25962 0.26162 0.26312 0.26312 0.26338 0.263 0.263 0.26338 0.26338 0.26362 0.26362 0.26338 0.2635 0.26062 0.25925 0.25938 0.25962 0.25938 0.25875 0.259 0.2595 0.25962 0.25962 0.25962 0.25962 0.25962 0.25962 0.25975 0.26012 0.26025 0.26025 0.26038 0.26038 0.26025 0.26012 0.25988 0.25962 0.25938 0.25912 0.25888 0.2575 0.25675 0.25675 0 0 0 0 0 0 0 0 0 0 0 0 0 0 0 0 0 0 0 0 0 0 0 0 0 0 0 0 0 0 0 0 0 0 0 0 0 0 0 0 0 0 0 0 0 0 0 0 0 0 0 0 0 0 0 0 0 0 0.18125 0.18138 0.18138 0.18125 0.181 0.181 0.18088 0.181 0.18113 0.1815 0.1815 0.18163 0.18288 0.18263 0.18263 0.183 0.18313 0.18338 0.1835 0.1835 0.18375 0.18375 0.18388 0.1845 0.18463 0.18488 0.18488 0.185 0.18538 0.1855 0.18563 0.18575 0.18588 0.186 0.18613 0.18625 0.18638 0.1865 0.1865 0.18688 0.187 0.1875 0.18762 0.18775 0.188 0.188 0.18812 0.18825 0.18837 0.18887 0.18912 0.18925 0.18937 0.18962 0.18962 0.18962 0.18975 0.19012 0.19037 0.19025 0.1905 0.19062 0.19075 0.19162 0.19175 0.19187 0.19187 0.192 0.1925 0.19262 0.19275 0.19287 0.19287 0.19312 0.19312 0.19325 0.19337 0.1935 0.19362 0.19387 0.194 0.19425 0.19487 0.195 0.19525 0.19537 0.1955 0.19612 0.19625 0.1965 0.19675 0.19687 0.19712 0.19737 0.19737 0.1975 0.19762 0.19762 0.19787 0.198 0.19837 0.1985 0.19862 0.199 0.19912 0.19937 0.19987 0.20012 0.20037 0.20037 0.2005 0.2005 0.20062 0.20075 0.20112 0.20137 0.20187 0.20212 0.20237 0.20287 0.203 0.203 0.20312 0.20325 0.20338
0.25512 0.25538 0.25525 0.25488 0.25488 0.25488 0.255 0.25512 0.25512 0.25562 0.25588 0.25625 0.25625 0.25638 0.25675 0.25675 0.2565 0.25562 0.25525 0.25462 0.25462 0.2595 0.25962 0.25975 0.25962 0.25962 0.25962 0.25962 0.25962 0.25975 0.25462 0.25462 0.25475 0.25475 0.25475 0.25375 0.25375 0.25462 0.25462 0.25525 0.25525 0.25525 0.256 0.25512 0.25512 0.25725 0.25725 0.25738 0.25825 0.25675 0.25688 0.255 0.255 0.25788 0.25775 0.25762 0.2575 0.25725 0.25725 0.25725 0.25738 0.25788 0.258 0.25825 0.25888 0.259 0.259 0.25888 0.25862 0.25788 0.25675 0.25625 0.25625 0.25612 0.25575 0.25588 0.256 0.25588 0.25588 0.256 0.25662 0.25775 0.25788 0.25788 0.2585 0.25862 0.26062 0.26088 0.26062 0.259 0.25825 0.259 0.25875 0.258 0.25812 0.258 0.25775 0.25788 0.25788 0.258 0.25812 0.258 0.25812 0.25825 0.25825 0.25838 0.25838 0.25825 0.25788 0.25788 0.25788 0.25812 0.25788 0.25788 0.258 0.25775 0.25788 0.25812 0.258 0.258 0.25788 0.25788 0.2575 0.25738 0.258 0.25825 0.25812 0.25812 0.25825 0.25838 0.25875 0.25962 0.25962 0.25938 0.25875 0.25862 0.26025 0.26025 0.26088 0.2605 0.2605 0.261 0.26088 0.26112 0.259 0.259 0.25912 0.2575 0.2575 0.25762 0.25862 0.25888 0.2585 0.25862 0.259 0.25925 0.25912 0.25912 0.25925 0.25938 0.25938 0.2595 0.25988 0.26 0.26012 0.26025 0.26025 0.26012 0.26 0.25975 0.2595 0.25912 0.259 0.25875 0.25662 0.25638 0.256 0 0 0 0 0 0 0 0 0 0 0 0 0 0 0 0 0 0 0 0 0 0 0 0 0 0 0 0 0 0 0 0 0 0 0 0 0 0 0 0 0 0 0 0 0 0 0 0 0 0 0 0 0 0 0 0 0 0 0.18125 0.18138 0.18125 0.18125 0.181 0.181 0.18088 0.181 0.18113 0.1815 0.18163 0.18188 0.18275 0.18275 0.183 0.18313 0.18313 0.18338 0.1835 0.1835 0.18375 0.18375 0.18388 0.1845 0.18463 0.18488 0.18488 0.185 0.18538 0.1855 0.18563 0.18588 0.186 0.18613 0.18625 0.18625 0.1865 0.18663 0.18675 0.187 0.18725 0.18762 0.18775 0.18775 0.18812 0.18812 0.18812 0.18837 0.1885 0.18887 0.18912 0.18937 0.1895 0.18962 0.18962 0.18975 0.18987 0.19012 0.19037 0.19037 0.19062 0.19087 0.19112 0.19162 0.19175 0.19187 0.192 0.19212 0.1925 0.19262 0.19275 0.193 0.193 0.19325 0.19337 0.19337 0.1935 0.19362 0.19375 0.194 0.19412 0.19462 0.19487 0.195 0.19525 0.19537 0.1955 0.196 0.19625 0.1965 0.19675 0.19687 0.19725 0.19737 0.1975 0.1975 0.19775 0.19775 0.198 0.19812 0.1985 0.19862 0.19875 0.19912 0.19925 0.1995 0.2 0.20025 0.2005 0.2005 0.2005 0.20075 0.20075 0.20087 0.20112 0.20137 0.20187 0.20212 0.20237 0.20287 0.203 0.203 0.20325 0.20325 0.20338
0.25525 0.25562 0.25475 0.25462 0.25462 0.25425 0.2545 0.25462 0.25462 0.25488 0.255 0.25512 0.25512 0.25525 0.2555 0.2555 0.25562 0.25562 0.25525 0.25425 0.25462 0.2595 0.2595 0.25938 0.25938 0.25938 0.25938 0.25938 0.25938 0.2595 0.25462 0.25462 0.25475 0.25475 0.25412 0.254 0.254 0.25425 0.25462 0.25525 0.25525 0.25525 0.256 0.25512 0.25512 0.25725 0.25725 0.25738 0.25825 0.25675 0.25688 0.255 0.255 0.25738 0.25712 0.25712 0.25725 0.257 0.25675 0.25662 0.25675 0.25712 0.25725 0.25738 0.25838 0.25875 0.25888 0.25838 0.25788 0.25788 0.25675 0.25612 0.256 0.256 0.25575 0.25562 0.25588 0.25588 0.25588 0.25612 0.25675 0.25775 0.25725 0.25762 0.25788 0.25862 0.26062 0.26062 0.26062 0.259 0.258 0.258 0.25788 0.25775 0.2575 0.25738 0.25725 0.25725 0.25725 0.25712 0.25725 0.25775 0.25788 0.25788 0.25788 0.25825 0.258 0.25788 0.25725 0.25725 0.25738 0.25738 0.2575 0.2575 0.25762 0.2575 0.25738 0.2575 0.258 0.258 0.25788 0.25738 0.25738 0.2575 0.25788 0.25788 0.25788 0.25788 0.25788 0.25812 0.25838 0.25825 0.259 0.259 0.25875 0.25862 0.26025 0.26025 0.26088 0.2605 0.2605 0.261 0.26088 0.26112 0.259 0.259 0.25912 0.2575 0.25725 0.25725 0.25762 0.25788 0.25788 0.25788 0.25812 0.25838 0.25825 0.25825 0.25838 0.25838 0.2585 0.2585 0.25925 0.25988 0.25975 0.25988 0.26 0.25988 0.25962 0.2595 0.25912 0.25888 0.2585 0.25888 0.25675 0.256 0.256 0 0 0 0 0 0 0 0 0 0 0 0 0 0 0 0 0 0 0 0 0 0 0 0 0 0 0 0 0 0 0 0 0 0 0 0 0 0 0 0 0 0 0 0 0 0 0 0 0 0 0 0 0 0 0 0 0 0 0.18125 0.181 0.181 0.181 0.18113 0.181 0.181 0.18113 0.18125 0.18163 0.18175 0.18188 0.18288 0.18288 0.18313 0.18325 0.18325 0.1835 0.1835 0.1835 0.18375 0.18375 0.18388 0.1845 0.18463 0.185 0.185 0.18513 0.1855 0.1855 0.18563 0.18625 0.18625 0.18625 0.18638 0.1865 0.18675 0.18688 0.187 0.18725 0.18738 0.18775 0.18787 0.188 0.18825 0.18825 0.18837 0.18862 0.18862 0.18912 0.18925 0.18937 0.18962 0.18962 0.18975 0.18987 0.19 0.19037 0.19062 0.19062 0.19087 0.19112 0.19125 0.19187 0.19187 0.192 0.19212 0.19212 0.1925 0.19275 0.19287 0.19312 0.19312 0.1935 0.19362 0.19375 0.19387 0.194 0.19412 0.1945 0.1945 0.19487 0.195 0.19512 0.19537 0.19537 0.19562 0.196 0.19625 0.1965 0.19675 0.197 0.1975 0.19762 0.19762 0.19775 0.19787 0.198 0.19812 0.19837 0.19862 0.19875 0.19887 0.19925 0.19937 0.19962 0.20025 0.20037 0.20075 0.20075 0.20075 0.201 0.20112 0.20112 0.20137 0.20137 0.20187 0.20212 0.2025 0.203 0.20312 0.20312 0.2035 0.2035 0.20363
0.257 0 0 0.25412 0.25438 0.25412 0.25425 0.25438 0.2545 0.25462 0.25462 0.25462 0.25475 0.25475 0.25488 0.25488 0.25512 0.25562 0.25388 0.254 0.25388 0.25362 0.25362 0.2535 0.25338 0.25338 0.25338 0.25338 0.2535 0.25338 0.25325 0.25325 0.25325 0.25312 0.25388 0.25362 0.25388 0.25388 0.25362 0.25362 0.254 0.25375 0.25375 0.25375 0.25388 0.25388 0.2545 0.2545 0.2545 0.25412 0.25412 0.25425 0.25412 0.25412 0.25462 0.25462 0.25462 0.25662 0.2565 0.25638 0.2565 0.25675 0.25688 0.257 0.25725 0.2555 0.2555 0.2555 0.25525 0.25538 0.25612 0.25588 0.25575 0.25575 0.25562 0.25562 0.25575 0.25588 0.256 0.256 0.25612 0.25675 0.257 0.25725 0.2575 0.25725 0.25725 0.2585 0.25862 0.25838 0.25788 0.25775 0.25775 0.25712 0.257 0.25688 0.25675 0.25662 0.25662 0.25675 0.25675 0.25562 0.25562 0.25562 0.25562 0.25638 0.25762 0.25638 0.25662 0.25662 0.25688 0.25688 0.257 0.25725 0.25725 0.25712 0.257 0.25712 0.25588 0.256 0.25675 0.25712 0.25725 0.25738 0.25775 0.25775 0.25762 0.25762 0.25762 0.25788 0.258 0.25762 0.25738 0.25725 0.2555 0.2555 0.2565 0.25538 0.2555 0.257 0.25625 0.25625 0.25675 0.25675 0.25712 0.25712 0.25762 0.25688 0.257 0.25712 0.25725 0.2575 0.2575 0.25762 0.25775 0.25788 0.25775 0.25788 0.25788 0.25812 0.25812 0.25812 0.25812 0.2595 0.25962 0.25975 0.26 0.25962 0.25962 0.2595 0.259 0.25888 0.25825 0.25562 0.25575 0.25438 0.25438 0 0 0 0 0 0 0 0 0 0 0 0 0 0 0 0 0 0 0 0 0 0 0 0 0 0 0 0 0 0 0 0 0 0 0 0 0 0 0 0 0 0 0 0 0 0 0 0 0 0 0 0 0 0 0 0 0 0 0.18075 0.18088 0.18088 0.18088 0.18113 0.181 0.18113 0.18113 0.18125 0.18163 0.18175 0.18188 0.18288 0.183 0.18313 0.18325 0.18338 0.1835 0.1835 0.1835 0.18375 0.18388 0.18388 0.1845 0.18463 0.185 0.185 0.18513 0.1855 0.1855 0.1855 0.18625 0.18625 0.1865 0.18663 0.18663 0.18688 0.18688 0.187 0.18738 0.1875 0.18775 0.18787 0.188 0.18825 0.18837 0.18837 0.18875 0.18875 0.18912 0.18925 0.18937 0.18962 0.18975 0.18987 0.19012 0.19012 0.1905 0.19075 0.19075 0.19112 0.19125 0.19137 0.19187 0.19187 0.19212 0.19212 0.19225 0.1925 0.19275 0.19287 0.19312 0.19325 0.1935 0.19375 0.19375 0.194 0.19412 0.19425 0.19462 0.19475 0.195 0.19512 0.19525 0.19537 0.1955 0.19562 0.196 0.19625 0.19675 0.19687 0.19712 0.19762 0.19775 0.19775 0.19787 0.198 0.198 0.19825 0.19837 0.19875 0.19887 0.19887 0.19925 0.1995 0.19962 0.20025 0.2005 0.20075 0.20075 0.20087 0.20112 0.20125 0.20125 0.2015 0.2015 0.20187 0.20212 0.20237 0.20312 0.20312 0.20325 0.2035 0.2035 0.20363
0.257 0 0 0.25325 0.25338 0.25312 0.25262 0.25325 0.2535 0.25362 0.2535 0.2535 0.25412 0.25412 0.25388 0.25375 0.25362 0.25362 0.25338 0.25325 0.25325 0.25325 0.25312 0.25312 0.25312 0.253 0.25312 0.253 0.253 0.25312 0.253 0.253 0.25312 0.253 0.25312 0.25312 0.25325 0.25325 0.25338 0.25362 0.2535 0.25362 0.25362 0.2535 0.2535 0.25362 0.25388 0.254 0.254 0.25362 0.2535 0.25362 0.25362 0.25388 0.25412 0.254 0.25375 0.2535 0.25338 0.25562 0.25562 0.25562 0.255 0.25488 0.255 0.2555 0.2555 0.2555 0.25538 0.25512 0.25512 0.255 0.25525 0.25538 0.25512 0.25512 0.25512 0.25512 0.25512 0.25512 0.25512 0.25538 0.25412 0.25412 0.25312 0.25312 0.25625 0.25462 0.25475 0.25712 0.25625 0.2565 0.2565 0.25562 0.25575 0.25562 0.2555 0.25538 0.25538 0.2555 0.2555 0.25538 0.25525 0.25512 0.25538 0.25588 0.25562 0.25538 0.2555 0.25562 0.25575 0.25575 0.256 0.25638 0.2565 0.25625 0.25625 0.25625 0.256 0.25575 0.25625 0.25675 0.25675 0.257 0.25725 0.25738 0.25738 0.25738 0.25725 0.25725 0.25725 0.257 0.25688 0.25675 0.2555 0.25525 0.25525 0.25512 0.25562 0.256 0.25375 0.25388 0.25388 0.25388 0.25412 0.25412 0.25412 0.255 0.25475 0.25475 0.255 0.25512 0.25612 0.2555 0.2555 0.25575 0.25575 0.25562 0.25562 0.25438 0.25438 0.256 0.25612 0.25625 0.25625 0.25625 0.25688 0.257 0.2585 0.25775 0.257 0.25712 0.256 0.25462 0.25475 0.25362 0.25362 0.25362 0.25362 0 0 0 0 0 0 0 0 0 0 0 0 0 0 0 0 0 0 0 0 0 0 0 0 0 0 0 0 0 0 0 0 0 0 0 0 0 0 0 0 0 0 0 0 0 0 0 0 0 0 0 0 0 0 0 0.18075 0.18075 0.18088 0.18088 0.181 0.18113 0.18113 0.18113 0.18125 0.18138 0.18175 0.18188 0.18188 0.18288 0.183 0.18325 0.18325 0.18338 0.1835 0.1835 0.18363 0.18375 0.18388 0.18388 0.1845 0.18463 0.185 0.18513 0.185 0.18563 0.1855 0.1855 0.18663 0.1865 0.1865 0.18663 0.18663 0.18688 0.18688 0.187 0.18738 0.1875 0.18787 0.188 0.18812 0.18825 0.18837 0.1885 0.18875 0.18887 0.18912 0.18925 0.18937 0.18975 0.18975 0.18987 0.19012 0.19012 0.19012 0.19075 0.191 0.19112 0.19137 0.1915 0.19187 0.192 0.19212 0.19212 0.19225 0.19262 0.19275 0.193 0.19325 0.19337 0.19362 0.19375 0.19387 0.194 0.19425 0.19437 0.19475 0.19475 0.19512 0.19525 0.19525 0.1955 0.19562 0.19562 0.19612 0.19637 0.19687 0.197 0.19725 0.19762 0.19775 0.19787 0.198 0.19812 0.19812 0.19837 0.1985 0.19887 0.19887 0.199 0.19912 0.19962 0.20025 0.20037 0.20062 0.20087 0.20087 0.20087 0.20112 0.20125 0.20137 0.2015 0.2015 0.20175 0.20187 0.20187 0.203 0.20312 0.20325 0.20363 0.20363 0.20375
0.258 0 0 0.25325 0.25312 0.25288 0.25275 0.25288 0.25325 0.25362 0.25338 0.25325 0.254 0.254 0.25375 0.25375 0.25362 0.25362 0.25338 0.25312 0.25275 0.25275 0.25275 0.25275 0.25275 0.25275 0.25275 0.25275 0.25275 0.25275 0.25275 0.25275 0.25275 0.25275 0.25275 0.25275 0.25275 0.25288 0.253 0.25325 0.25312 0.25312 0.25312 0.25312 0.25312 0.25325 0.2535 0.25362 0.25362 0.25325 0.25338 0.25338 0.2535 0.25362 0.25388 0.25362 0.2535 0.25338 0.2535 0.25562 0.25562 0.25562 0.255 0.25488 0.255 0.2555 0.2555 0.2555 0.25525 0.25525 0.25488 0.25475 0.25512 0.25512 0.255 0.25488 0.25475 0.25475 0.25475 0.25475 0.25488 0.25512 0.25425 0.25412 0.25312 0.25312 0.25625 0.25462 0.25475 0.25712 0.25625 0.25638 0.25625 0.25562 0.25562 0.25538 0.25525 0.25525 0.25525 0.25525 0.25538 0.25525 0.25488 0.25475 0.25512 0.25588 0.25562 0.25538 0.255 0.25512 0.25512 0.25512 0.25562 0.25625 0.2565 0.25612 0.25562 0.25575 0.25562 0.25562 0.25675 0.25675 0.25675 0.25675 0.25725 0.25738 0.25738 0.25738 0.25725 0.25725 0.25725 0.257 0.25688 0.25662 0.2555 0.25538 0.255 0.255 0.2555 0.2565 0.25375 0.25388 0.25375 0.254 0.254 0.25412 0.25438 0.25462 0.25462 0.25475 0.25475 0.25488 0.25562 0.2555 0.25538 0.25538 0.25538 0.25538 0.25538 0.25462 0.25438 0.256 0.25612 0.25625 0.25625 0.25625 0.25688 0.257 0.2585 0.25775 0.257 0.25712 0.256 0.25462 0.25475 0.25362 0.25362 0.25362 0.25362 0 0 0 0 0 0 0 0 0 0 0 0 0 0 0 0 0 0 0 0 0 0 0 0 0 0 0 0 0 0 0 0 0 0 0 0 0 0 0 0 0 0 0 0 0 0 0 0 0 0 0 0 0 0 0 0.18075 0.18075 0.18125 0.18113 0.18125 0.18125 0.18138 0.18125 0.18138 0.1815 0.18175 0.182 0.18213 0.183 0.183 0.18325 0.18338 0.1835 0.1835 0.18375 0.18375 0.18388 0.184 0.184 0.18463 0.185 0.18538 0.1855 0.18538 0.18625 0.18638 0.18663 0.18663 0.18663 0.18675 0.18688 0.18688 0.18688 0.187 0.187 0.18738 0.1875 0.18787 0.18812 0.18825 0.18837 0.1885 0.18862 0.189 0.189 0.18925 0.1895 0.18962 0.18975 0.18987 0.18987 0.19012 0.19025 0.19025 0.19112 0.19125 0.1915 0.19162 0.19175 0.192 0.192 0.19212 0.19225 0.19237 0.19275 0.193 0.19312 0.19337 0.1935 0.19387 0.19387 0.194 0.19425 0.19437 0.1945 0.195 0.195 0.19525 0.19537 0.1955 0.19562 0.19575 0.19587 0.19637 0.19662 0.197 0.19712 0.19737 0.19787 0.198 0.19812 0.19825 0.19837 0.1985 0.19875 0.19875 0.19912 0.19925 0.19937 0.2 0.20025 0.20075 0.20087 0.20087 0.20087 0.20087 0.201 0.20137 0.20137 0.2015 0.20162 0.20162 0.20187 0.202 0.20225 0.203 0.20325 0.20338 0.20375 0.20388 0.204
0 0 0 0.25275 0.25275 0.25275 0.2525 0.25225 0.25175 0.25188 0.25188 0.25188 0.25188 0.25188 0.25138 0.25138 0.253 0.25288 0.2515 0.2515 0.25238 0.25238 0.25225 0.25225 0.25225 0.25238 0.2525 0.2525 0.25238 0.25262 0.2525 0.2525 0.25238 0.25225 0.25225 0.25225 0.25238 0.2525 0.25262 0.25262 0.2525 0.25262 0.2525 0.25262 0.25262 0.25275 0.253 0.25325 0.25338 0.25312 0.25325 0.25325 0.25325 0.25338 0.2535 0.25325 0.25325 0.25312 0.25288 0.2535 0.25275 0.25275 0.25275 0.2525 0.25262 0.2525 0.2525 0.25325 0.25362 0.25362 0.25325 0.25325 0.25488 0.255 0.25462 0.2545 0.25462 0.25438 0.25438 0.25438 0.25462 0.25475 0.25412 0.25412 0.252 0.25188 0.252 0.25138 0.25138 0.25138 0.25188 0.25188 0.25225 0.25225 0.25275 0.25225 0.25225 0.2525 0.2525 0.25262 0.25275 0.25438 0.2545 0.25438 0.2535 0.2535 0.2545 0.25412 0.2545 0.25462 0.25462 0.25412 0.25412 0.25412 0.25462 0.25462 0.25525 0.25538 0.25525 0.255 0.25425 0.25438 0.25462 0.2545 0.2545 0.25462 0.25462 0.25462 0.2545 0.25438 0.25438 0.25438 0.25438 0.2545 0.25412 0.25412 0.25375 0.2535 0.25362 0.25362 0.25362 0.25375 0.25362 0.25375 0.25388 0.254 0.25412 0.25438 0.2545 0.2545 0.25462 0.25475 0.25512 0.25512 0.25512 0.255 0.25488 0.25488 0.25488 0.2545 0.25425 0.25438 0.25438 0.2545 0.25412 0.254 0.25412 0.253 0.253 0.25475 0.25412 0.25412 0.253 0.253 0.25312 0.2515 0.25 0.25 0.24838 0.2485 0 0 0 0 0 0 0 0 0 0 0 0 0 0 0 0 0 0 0 0 0 0 0 0 0 0 0 0 0 0 0 0 0 0 0 0 0 0 0 0 0 0 0 0 0 0 0 0 0 0 0 0 0.18413 0.18425 0.18275 0.1815 0.18138 0.18138 0.18138 0.1815 0.1815 0.18138 0.18138 0.1815 0.18188 0.18213 0.18213 0.183 0.183 0.18325 0.18338 0.1835 0.18363 0.18375 0.18388 0.184 0.18413 0.1845 0.18525 0.18525 0.1855 0.18563 0.18588 0.18638 0.1865 0.18663 0.18663 0.18675 0.18675 0.18688 0.18688 0.18688 0.187 0.18713 0.1875 0.18762 0.188 0.18825 0.18825 0.18837 0.1885 0.18862 0.189 0.18912 0.18937 0.18962 0.18962 0.18987 0.19 0.19 0.19025 0.19037 0.19062 0.19137 0.19137 0.19162 0.19175 0.19175 0.192 0.19212 0.19225 0.19225 0.19237 0.19287 0.19312 0.19325 0.1935 0.19362 0.19387 0.194 0.19412 0.19425 0.19437 0.19462 0.195 0.195 0.19537 0.1955 0.1955 0.19562 0.19575 0.19587 0.1965 0.19662 0.197 0.19712 0.19737 0.19787 0.198 0.19812 0.19825 0.19837 0.19862 0.19875 0.19887 0.19912 0.19937 0.1995 0.20012 0.20037 0.20087 0.201 0.201 0.20112 0.20112 0.20125 0.2015 0.20162 0.20162 0.20175 0.20175 0.202 0.20225 0.20237 0.203 0.20325 0.2035 0.20375 0.20388 0.20413
0 0 0 0.24963 0.24963 0.24925 0.24925 0.25188 0.25088 0.251 0.251 0.25125 0.2515 0.2515 0.25125 0.251 0.25088 0.25088 0.25125 0.25138 0.25138 0.25125 0.25112 0.25125 0.25138 0.2515 0.25162 0.25162 0.25175 0.25188 0.25162 0.2515 0.2515 0.25138 0.25138 0.25138 0.2515 0.2515 0.25138 0.25138 0.25112 0.25125 0.25125 0.25138 0.25138 0.25088 0.25075 0.25062 0.25062 0.25112 0.25112 0.25112 0.25088 0.25088 0.25062 0.25012 0.25025 0.25038 0.25038 0.25038 0.25 0.24988 0.25 0.25 0.25012 0.25025 0.25012 0.25038 0.25138 0.25138 0.25212 0.252 0.25188 0.25312 0.253 0.25362 0.25362 0.25362 0.254 0.25375 0.25075 0.25075 0.251 0.25088 0.25075 0.25012 0.25012 0.25038 0.2505 0.25038 0.25138 0.25188 0.25188 0.252 0.25225 0.25212 0.252 0.25212 0.25212 0.25225 0.252 0.25325 0.2535 0.25338 0.25338 0.25362 0.254 0.25362 0.2535 0.25362 0.2525 0.2525 0.25238 0.2525 0.2525 0.2525 0.25325 0.25362 0.25325 0.25338 0.25325 0.25362 0.25362 0.25362 0.25362 0.2535 0.25362 0.2535 0.2535 0.25188 0.25188 0.2515 0.25138 0.25138 0.2515 0.25138 0.25225 0.25188 0.25188 0.25188 0.25188 0.25312 0.253 0.25325 0.25338 0.25362 0.25375 0.254 0.254 0.254 0.254 0.25388 0.25412 0.25412 0.25412 0.25388 0.25388 0.25388 0.25388 0.25375 0.25388 0.25388 0.254 0.25375 0.25362 0.25188 0.25175 0.25162 0.2515 0.25175 0.25175 0.25162 0.25162 0.2505 0.2505 0.2505 0.24988 0.24975 0.24725 0.24725 0.24738 0 0 0 0 0 0 0 0 0 0 0 0 0 0 0 0 0 0 0 0 0 0 0 0 0 0 0 0 0 0 0 0 0 0 0 0 0 0 0 0 0 0 0 0 0 0 0 0 0 0 0 0.18413 0.18425 0.18275 0.1815 0.1815 0.18138 0.1815 0.1815 0.1815 0.1815 0.1815 0.18163 0.18175 0.18213 0.18213 0.183 0.18313 0.18325 0.18338 0.1835 0.18363 0.18375 0.18388 0.184 0.18438 0.1845 0.18525 0.18538 0.18563 0.18588 0.18588 0.1865 0.18663 0.18663 0.18675 0.18675 0.18688 0.18688 0.18688 0.187 0.187 0.18713 0.1875 0.18762 0.188 0.18825 0.18825 0.1885 0.1885 0.18862 0.18912 0.18912 0.1895 0.18962 0.18975 0.19 0.19 0.19012 0.19025 0.1905 0.19062 0.19137 0.1915 0.19175 0.19175 0.19187 0.19212 0.19212 0.19237 0.19237 0.1925 0.193 0.19312 0.19325 0.19362 0.19375 0.194 0.19412 0.19425 0.19437 0.1945 0.19462 0.195 0.19512 0.19537 0.19562 0.19562 0.19562 0.19575 0.19587 0.1965 0.19675 0.197 0.19725 0.19737 0.198 0.198 0.19812 0.19825 0.1985 0.19875 0.19887 0.199 0.19925 0.19937 0.19962 0.20025 0.2005 0.201 0.20112 0.20112 0.20125 0.20125 0.20137 0.20162 0.20175 0.20175 0.20187 0.20187 0.20212 0.20237 0.2025 0.203 0.20312 0.20338 0.20375 0.20375 0.20413
