0,0,0,0,0,0,0,0,1268,1268,1268,1268,1268,1268,1268,1268,1268,1268,1273,1268,1268,1268,1268,1273,1268,1268,1268,1268,1268,1273,1273,1273,1268,1268,1273,1273,1273,1273,1268,1268,1268,1268,1268,1268,1268,1273,1273,1273,1278,1273,1273,1273,1273,1273,1273,1273,1273,1273,1273,1273,1273,1273,1273,1273,1268,1268,1268,1268,1268,1268,1268,1268,1268,1268,1268,1268,1268,1268,1268,1268,1268,1268,1268,1268,1268,1268,1268,1268,1268,1268,1268,1268,1268,1268,1268,1264,1264,1264,1268,1268,1268,1268,1268,1268,1264,1264,1264,1264,1264,1264,1264,998,998,992,992,989,989,987,984,984,981,981,981,981,984,984,987,987,989,989,992,992,995,998,1004,1007,1007,1007,1010,1013,1016,1019,1022,1025,1025,1025,1025,1025,1028,1028,1031,1031,1034,1038,1038,1038,1041,1041,1041,1044,1044,1047,1050,1050,1057,1060,1060,1060,1060,1060,1063,1063,1255,1259,1264,1264,1264,1264,1264,1264,1264,1264,1264,1264,1264,1264,1264,1264,1264,1264,1264,1264,1264,1264,1264,1264,1264,1264,1264,1264,1264,1264,1264,1264,1264,1264,1264,1264,1264,1264,1264,1259,1259,1259,1259,1259,1255,1255,1259,1259,1259,1259,1259,1259,1250,1250,0,0,0,0,0,0,0,0,0,0,0,0,725,725,723,723,722,720,720,719,717,716,714,711,711,710,710,708,708,708,710,710,711,713,714,717,719,720,722,723,725,727,727,728,730,733,0,0,0,1016,1016,1013,1013,1013,1013,1013,1010,1010,1010,1010,1007,1007,1007,1004,1004,1007,1004,1004,1004,1001,1001,1001,998,998,1250,1250,1255,1250,1250,1250,1250,1250,1250,1250,1245,1245,1245,1250,1250,1250,1255,1255,1255,1255,1255,1255,1255,1250,1250,1250,1250,1250,1250,1250,1250,1250,1250,1250,1250,1250,1250,1250,1245,1245,1245,1245,1245,1245,1245,1245,1250,1250,1250,1250,1250,1250,1250,995,995,995,998,998,998,998,998,998,998,998,1004,1004,1007,1007,1007,1010,1010,1013,1016,1019,1022,1025,1028,1034,1038,1041,1044,1044,1054,1084,1084,1084,1080,1080,1080,1080,1080,1080,1080,1084,1087,1090,1094,1094,1094,1241,1241,1245,1241,1241,1241,1241,1241,1241,1241,1236,1236,1236,1236,1236,1236,1241,1241,1241,1241,1236,1236,1236,1236,1236,1236,1236,1236,1236,1236,1236,1236,1236,1236,1236,1236,1236,1236,1236,1236,1236,1236,1236,1236,1236,1236,1236,1236,1236,1236,1236,1236,1236,1236,1236,1236,1236,1232,1232,1236,1236,1236,1232,1232,1232,1232,1232,1232,1232,1227,1227,1232,1227,1227,1227,1227,1227,1232,1227,1227,1227,1227,1227,1227,1223,1223,1223,1223,1227,1227,1232,1232,1232,1232,1232,1232,1232,1227,1227,1227,1227,1227,1227,1223,1223,1227,1227,1227,1227,1227,1227,1227,1227,1223,1223,1223,1223,1223,1223,1223,1219,1219,1219,1219,1219,1219,1214,1214,1214,1214,1214,1214,1214,1214,1214,1214,1214,1214,1214,1219,1219,1219,1219,1219,1219,1219,1219,1219,1219,1219,1227,1232,1232,1232,1232,1232,1197,1197,1206,1202,1202,1202,1202,1206,1202,1202,1202,1202,1206,1206,1206,1206,1210,1210,1210,1210,1210,1210,1210,1214,1202,1202,1202,1202,1202,1202,1202,1087,1087,1084,1084,1080,1077,1077,1073,1070,1067,1063,1057,1054,1050,1050,1044,1044,1041,1038,1038,1038,0,0,0,0,0,0,0,0,0,0,0,0,0,0,0,0,0,0,0,0,0,0,0,0,0,0,0,0,0,0,0,0,0
0,0,0,0,0,0,0,0,1268,1264,1264,1264,1264,1268,1268,1268,1264,1264,1268,1268,1264,1264,1264,1268,1268,1268,1268,1268,1268,1268,1268,1268,1268,1268,1268,1268,1268,1268,1268,1264,1264,1268,1268,1268,1268,1268,1268,1268,1273,1273,1268,1268,1268,1268,1268,1268,1268,1268,1268,1268,1268,1268,1268,1268,1268,1264,1264,1264,1264,1264,1264,1264,1264,1264,1264,1264,1264,1264,1264,1268,1268,1268,1268,1268,1268,1268,1268,1268,1268,1268,1264,1264,1264,1264,1264,1264,1259,1259,1259,1259,1264,1264,1264,1264,1264,1264,1259,1259,1259,1255,1255,0,998,995,992,992,989,987,987,984,984,984,984,984,984,984,987,989,989,989,992,995,998,998,1004,1007,1007,1007,1010,1013,1016,1019,1022,1025,1025,1025,1025,1025,1028,1028,1031,1031,1034,1038,1038,1038,1038,1041,1041,1041,1041,1047,1050,1050,1060,1245,1245,1245,1245,1250,1250,1250,1255,1255,1259,1259,1259,1259,1259,1259,1264,1264,1259,1259,1264,1264,1259,1259,1259,1259,1259,1259,1255,1255,1259,1259,1259,1259,1259,1259,1259,1259,1259,1259,1259,1259,1259,1259,1259,1259,1259,1255,1255,1255,1255,1255,1255,1255,1255,1250,1250,1250,1250,1250,1245,1245,0,0,0,0,0,0,0,0,0,0,0,0,727,727,725,725,723,722,720,720,719,716,714,713,711,711,710,710,710,710,710,711,713,714,714,717,719,720,722,723,725,727,728,730,730,733,733,0,0,1016,1016,1013,1013,1013,1013,1013,1010,1010,1007,1007,1004,1004,1004,1004,1004,1004,1004,1001,1001,1001,1001,998,998,992,992,1250,1255,1250,1250,1245,1245,1245,1245,1245,1245,1245,1245,1250,1250,1250,1250,1250,1250,1250,1250,1250,1250,1250,1250,1250,1250,1250,1250,1250,1250,1250,1250,1250,1245,1245,1245,1245,1241,1241,1241,1241,1241,1241,1245,1245,1245,1245,1245,1250,1250,1250,1250,995,995,995,995,995,998,995,995,995,995,998,998,1001,1004,1004,1007,1010,1010,1013,1016,1019,1025,1025,1031,1034,1038,1038,1041,1041,1090,1087,1087,1084,1084,1080,1080,1080,1080,1080,1084,1084,1087,1090,1094,1094,1094,1241,1241,1241,1236,1236,1236,1236,1236,1236,1236,1236,1236,1236,1236,1236,1236,1236,1236,1236,1236,1236,1236,1236,1236,1232,1232,1232,1232,1232,1232,1232,1232,1232,1236,1236,1232,1232,1232,1232,1232,1232,1232,1232,1232,1232,1232,1232,1232,1232,1232,1232,1232,1232,1232,1232,1232,1232,1232,1232,1232,1232,1232,1232,1232,1232,1232,1227,1227,1227,1227,1227,1227,1223,1223,1223,1223,1227,1227,1227,1223,1223,1223,1223,1223,1219,1219,1219,1219,1223,1223,1223,1227,1227,1227,1227,1227,1227,1223,1223,1223,1223,1223,1223,1223,1223,1223,1223,1223,1223,1223,1223,1223,1223,1219,1219,1219,1219,1219,1219,1219,1219,1219,1219,1219,1214,1214,1214,1214,1214,1214,1214,1214,1214,1214,1214,1214,1214,1210,1210,1214,1214,1214,1214,1214,1214,1214,1219,1219,1219,1219,1219,1169,1169,1173,1181,1185,1185,1185,1193,1197,1197,1197,1197,1197,1202,1197,1197,1202,1202,1202,1202,1202,1206,1210,1210,1206,1206,1206,1206,1206,1202,1202,1202,1202,1202,1202,1090,1087,1087,1084,1084,1080,1077,1073,1070,1067,1063,1060,1054,1050,1047,1047,1044,1041,1041,1038,1038,1038,0,0,0,0,0,0,0,0,0,0,0,0,0,0,0,0,0,0,0,0,0,0,0,0,0,0,0,0,0,0,0,0,0
0,0,0,0,0,0,0,0,1264,1264,1264,1264,1264,1264,1264,1264,1264,1264,1264,1264,1264,1264,1264,1264,1268,1264,1264,1264,1264,1268,1268,1268,1268,1268,1268,1268,1268,1264,1264,1264,1264,1264,1264,1264,1264,1264,1264,1264,1268,1268,1268,1268,1268,1268,1264,1264,1264,1264,1264,1264,1264,1268,1268,1264,1264,1264,1264,1264,1264,1264,1264,1264,1264,1264,1264,1264,1264,1264,1264,1264,1264,1264,1264,1264,1264,1264,1264,1264,1264,1264,1264,1264,1264,1264,1259,1259,1255,1255,1255,1255,1255,1259,1259,1259,1259,1259,1259,1259,1255,1255,1255,0,995,995,995,992,989,989,987,987,984,984,984,984,984,984,987,989,992,992,995,995,998,1001,1004,1007,1007,1010,1010,1016,1016,1019,1022,1025,1025,1028,1028,1028,1028,1031,1031,1034,1034,1038,1038,1038,1038,1038,1038,1041,1041,1250,1250,1245,1245,1245,1245,1245,1245,1250,1250,1250,1250,1255,1255,1255,1255,1259,1259,1255,1255,1255,1250,1250,1259,1259,1259,1255,1255,1255,1255,1255,1250,1250,1255,1255,1255,1255,1255,1255,1255,1255,1255,1255,1255,1255,1255,1255,1255,1255,1250,1250,1250,1250,1250,1250,1250,1250,1250,1250,1250,1245,1245,1245,1241,1241,0,0,0,0,0,0,0,0,0,0,0,0,727,727,725,725,723,722,720,720,719,716,714,713,713,711,710,710,710,710,710,711,713,714,716,719,719,720,722,723,727,728,728,731,731,733,0,0,0,0,1016,1013,1013,1013,1010,1010,1010,1010,1007,1007,1004,1001,1001,1001,1001,1001,1001,1001,998,998,998,995,995,992,989,989,1255,1255,1250,1245,1245,1245,1245,1241,1236,1236,1236,1245,1245,1245,1245,1245,1245,1250,1250,1250,1250,1245,1245,1245,1245,1245,1245,1245,1245,1245,1245,1245,1245,1245,1241,1241,1236,1236,1236,1236,1241,1241,1241,1241,1245,1245,1245,1250,1250,1250,992,992,992,992,992,995,995,995,995,992,992,995,998,998,1001,1001,1004,1007,1010,1013,1016,1019,1025,1028,1031,1034,1038,1038,1041,1041,1094,1090,1087,1087,1084,1084,1084,1084,1084,1084,1084,1087,1090,1090,1094,1094,1094,1236,1236,1236,1236,1236,1236,1232,1232,1232,1232,1232,1232,1232,1232,1232,1232,1232,1232,1232,1232,1232,1232,1232,1232,1232,1232,1232,1232,1232,1227,1227,1227,1227,1232,1232,1232,1232,1232,1227,1227,1227,1227,1227,1227,1227,1227,1227,1227,1227,1227,1227,1232,1232,1232,1227,1227,1232,1227,1227,1227,1227,1227,1227,1227,1227,1227,1227,1227,1223,1223,1223,1223,1223,1223,1219,1219,1223,1223,1219,1219,1219,1219,1219,1219,1219,1219,1219,1219,1219,1219,1219,1223,1223,1223,1223,1223,1223,1223,1219,1219,1219,1219,1219,1219,1219,1219,1219,1219,1219,1219,1219,1219,1219,1219,1219,1219,1219,1219,1219,1219,1214,1214,1214,1214,1214,1214,1210,1210,1210,1210,1210,1210,1210,1210,1210,1206,1206,1206,1185,1185,1214,1210,1210,1214,1214,1173,1169,1169,1169,1169,1169,1169,1169,1173,1181,1181,1181,1185,1185,1189,1193,1193,1197,1197,1197,1197,1197,1197,1197,1202,1202,1202,1202,1206,1206,1202,1202,1202,1202,1202,1202,1202,1202,1202,1202,1202,1090,1087,1087,1080,1080,1077,1073,1070,1067,1063,1060,1057,1050,1047,1047,1044,1041,1041,1038,1038,1034,1034,0,0,0,0,0,0,0,0,0,0,0,0,0,0,0,0,0,0,0,0,0,0,0,0,0,0,0,0,0,0,0,0,0
0,0,0,0,0,0,0,0,1259,1259,1259,1259,1259,1264,1264,1259,1259,1259,1259,1259,1259,1259,1259,1259,1259,1259,1259,1259,1259,1259,1264,1264,1264,1264,1264,1264,1264,1264,1264,1259,1259,1259,1259,1259,1259,1259,1259,1259,1264,1264,1264,1264,1264,1264,1264,1259,1259,1259,1264,1264,1264,1264,1264,1264,1264,1264,1259,1259,1259,1264,1264,1259,1259,1259,1259,1259,1259,1259,1259,1259,1259,1259,1255,1255,1259,1259,1259,1259,1259,1259,1264,1264,1264,1259,1259,1255,1255,1255,1255,1255,1255,1255,1255,1259,1259,1255,1255,1255,1255,1255,1255,1255,998,998,995,992,992,989,987,987,987,987,984,984,984,987,987,989,992,992,995,998,998,1001,1004,1007,1007,1010,1013,1016,1019,1022,1025,1025,1025,1028,1028,1031,1031,1031,1034,1034,1034,1038,1038,1034,1034,1034,1038,1041,1245,1245,1245,1245,1245,1245,1245,1245,1250,1250,1250,1250,1250,1250,1250,1250,1250,1250,1250,1250,1250,1250,1250,1250,1250,1250,1250,1255,1255,1255,1250,1250,1250,1250,1250,1250,1250,1250,1250,1250,1250,1250,1250,1250,1250,1250,1250,1250,1250,1250,1250,1250,1245,1245,1245,1250,1250,1250,1245,1245,1245,1245,1245,1241,1241,1241,1241,0,0,0,0,0,0,0,0,0,0,0,727,727,725,725,723,722,722,720,719,716,714,714,713,711,710,710,710,710,710,711,713,714,716,719,719,720,723,725,727,728,730,731,733,734,734,734,0,1016,1016,1013,1013,1013,1010,1010,1010,1010,1007,1004,1004,1001,1001,1001,1001,998,998,998,998,998,995,995,992,992,989,989,989,989,989,1245,1245,1245,1245,1241,1236,1236,1236,1241,1236,1236,1241,1241,1241,1245,1245,1245,1245,1241,1241,1241,1241,1241,1241,1241,1241,1241,1241,1241,1241,1241,1236,1236,1236,1236,1236,1236,1236,1236,1236,1236,1241,1241,1241,1250,987,987,989,989,989,989,992,992,992,992,992,992,992,992,995,995,998,1001,1004,1007,1010,1013,1016,1022,1025,1028,1031,1031,1034,1038,1038,1041,1094,1090,1090,1087,1087,1084,1084,1084,1084,1084,1084,1087,1090,1090,1094,1094,1232,1232,1232,1232,1232,1232,1232,1232,1232,1232,1232,1227,1227,1223,1223,1223,1223,1223,1227,1227,1227,1227,1227,1227,1227,1227,1227,1227,1227,1227,1227,1227,1223,1223,1227,1227,1223,1223,1227,1227,1227,1223,1223,1223,1223,1223,1223,1223,1223,1223,1223,1223,1227,1227,1227,1227,1227,1227,1227,1227,1227,1227,1227,1227,1223,1223,1223,1223,1223,1219,1219,1219,1219,1219,1219,1219,1219,1219,1219,1219,1219,1214,1214,1214,1214,1214,1214,1214,1214,1219,1219,1219,1219,1219,1219,1219,1219,1219,1219,1214,1214,1219,1214,1214,1219,1219,1219,1219,1214,1214,1214,1214,1214,1214,1214,1214,1214,1214,1214,1219,1214,1214,1214,1214,1214,1214,1210,1206,1206,1202,1202,1206,1206,1189,1185,1185,1185,1185,1181,1181,1181,1181,1181,1181,1173,1173,1173,1169,1169,1169,1169,1169,1169,1169,1173,1173,1177,1177,1181,1181,1181,1185,1185,1185,1189,1193,1193,1193,1197,1197,1197,1197,1197,1202,1202,1202,1202,1202,1202,1202,1202,1202,1202,1202,1202,1202,1202,1090,1087,1087,1080,1077,1073,1070,1067,1063,1063,1060,1057,1050,1047,1044,1041,1041,1038,1038,1034,1031,1031,0,0,0,0,0,0,0,0,0,0,0,0,0,0,0,0,0,0,0,0,0,0,0,0,0,0,0,0,0,0,0,0,0
0,0,0,0,0,0,0,0,1255,1255,1255,1255,1255,1255,1255,1259,1255,1255,1255,1259,1259,1255,1255,1255,1255,1250,1250,1250,1250,1250,1255,1259,1259,1259,1259,1259,1259,1259,1259,1259,1259,1259,1259,1255,1255,1250,1250,1250,1259,1259,1259,1255,1255,1259,1259,1259,1255,1255,1259,1259,1259,1259,1259,1259,1259,1259,1259,1259,1259,1259,1259,1259,1259,1259,1259,1259,1255,1255,1255,1255,1255,1250,1250,1255,1255,1255,1255,1255,1259,1259,1259,1259,1259,1259,1255,1250,1250,1250,1250,1250,1250,1250,1255,1255,1250,1250,1250,1250,1250,1250,1250,1250,1001,1001,998,992,992,989,989,987,987,987,987,987,987,987,989,989,992,992,995,998,998,1001,1004,1007,1007,1010,1013,1019,1019,1022,1025,1025,1025,1028,1031,1031,1031,1031,1034,1034,1034,1034,1034,1031,1031,1034,1038,1241,1241,1241,1241,1245,1245,1245,1245,1245,1245,1245,1250,1250,1250,1250,1250,1250,1245,1245,1245,1245,1245,1245,1245,1245,1250,1250,1245,1245,1245,1245,1245,1245,1245,1245,1245,1245,1245,1245,1245,1245,1245,1245,1245,1250,1250,1250,1245,1245,1245,1245,1245,1245,1241,1241,1245,1245,1245,1245,1245,1245,1245,1241,1241,1236,1236,1236,1236,0,0,0,0,0,0,0,0,0,0,0,0,727,727,725,725,723,722,722,719,717,716,714,713,713,711,710,710,711,711,713,714,716,717,719,719,722,723,725,728,728,730,733,733,733,733,734,0,1013,0,1013,1013,1013,1013,1010,1010,1007,1004,1004,1004,1001,1001,998,998,998,998,995,995,995,992,992,992,989,989,989,989,989,989,987,987,1245,1245,1236,1236,1236,1236,1236,1236,1236,1236,1236,1241,1241,1241,1241,1241,1241,1236,1236,1236,1236,1236,1236,1236,1236,1236,1236,1236,1236,1236,1236,1236,1232,1232,1236,1236,1236,1236,1236,1236,1236,1241,987,987,987,987,987,987,989,989,989,992,992,992,992,992,992,995,995,998,1001,1004,1007,1010,1016,1019,1022,1025,1028,1028,1031,1034,1034,1038,1097,1094,1094,1090,1090,1087,1087,1084,1084,1084,1084,1087,1087,1090,1094,1094,1094,1232,1232,1227,1227,1227,1227,1227,1227,1227,1227,1227,1223,1223,1223,1219,1219,1219,1219,1219,1223,1223,1223,1223,1223,1227,1223,1223,1223,1223,1223,1223,1223,1223,1223,1223,1219,1219,1219,1219,1219,1219,1219,1219,1219,1219,1223,1223,1223,1223,1219,1219,1219,1223,1223,1223,1223,1223,1223,1223,1219,1219,1223,1223,1223,1223,1219,1219,1219,1214,1214,1214,1214,1214,1214,1214,1214,1214,1214,1214,1214,1214,1214,1214,1214,1214,1214,1214,1214,1214,1214,1214,1214,1219,1219,1219,1214,1214,1214,1214,1210,1210,1214,1214,1214,1214,1214,1214,1214,1206,1206,1206,1206,1206,1206,1206,1210,1210,1214,1214,1214,1214,1214,1210,1210,1210,1210,1206,1197,1193,1189,1189,1189,1193,1189,1185,1181,1181,1181,1177,1177,1177,1177,1177,1177,1173,1169,1169,1169,1169,1169,1169,1169,1169,1169,1173,1173,1177,1177,1181,1181,1181,1185,1185,1185,1189,1193,1193,1193,1197,1197,1197,1197,1193,1193,1197,1197,1202,1202,1202,1202,1202,1202,1202,1202,1202,1202,1202,1090,1084,1084,1077,1073,1070,1067,1067,1063,1060,1057,1050,1047,1044,1044,1041,1041,1038,1038,1031,1031,1031,0,0,0,0,0,0,0,0,0,0,0,0,0,0,0,0,0,0,0,0,0,0,0,0,0,0,0,0,0,0,0,0,0
0,0,0,0,0,0,0,0,1255,1255,1250,1250,1255,1250,1250,1255,1250,1250,1255,1255,1255,1250,1250,1250,1250,1250,1250,1250,1250,1250,1250,1255,1255,1255,1255,1255,1255,1255,1255,1250,1250,1255,1255,1255,1250,1250,1245,1245,1250,1250,1250,1250,1250,1250,1250,1250,1250,1255,1255,1255,1255,1255,1259,1255,1255,1255,1255,1255,1255,1255,1255,1255,1255,1255,1255,1255,1250,1250,1250,1250,1250,1250,1250,1250,1250,1250,1250,1255,1255,1255,1255,1255,1255,1255,1250,1250,1245,1245,1245,1245,1245,1245,1250,1250,1250,1245,1245,1245,1232,1232,1250,1250,998,998,998,995,992,992,989,989,987,987,987,987,987,987,989,989,992,995,995,998,1001,1001,1004,1007,1010,1013,1013,1019,1019,1022,1022,1025,1025,1028,1031,1031,1031,1034,1034,1034,1034,1034,1034,1031,1031,1034,1241,1236,1236,1241,1241,1241,1241,1241,1241,1245,1245,1245,1245,1245,1245,1245,1245,1245,1241,1241,1241,1241,1241,1241,1241,1245,1245,1245,1245,1245,1245,1245,1241,1241,1241,1236,1236,1241,1241,1241,1241,1241,1245,1245,1245,1245,1245,1245,1241,1241,1241,1241,1241,1241,1236,1236,1241,1241,1245,1241,1241,1241,1241,1236,1236,1232,1232,1232,1232,0,0,0,0,0,0,0,0,0,0,0,0,728,728,727,725,723,723,722,719,717,716,714,714,713,711,711,711,711,713,714,714,716,717,719,719,723,725,727,728,730,731,733,733,733,733,734,0,0,0,0,1013,1013,1013,1010,1010,1007,1004,1004,1001,1001,998,998,998,995,995,992,992,992,992,992,989,989,987,987,987,987,987,987,987,987,1236,1236,1232,1232,1232,1236,1236,1236,1236,1236,1236,1236,1236,1236,1236,1236,1236,1236,1236,1236,1236,1232,1232,1232,1232,1232,1232,1232,1232,1232,1232,1232,1232,1232,1232,1232,1236,1232,1232,1236,984,984,984,984,984,984,984,984,984,984,989,989,989,989,989,992,992,995,998,1001,1004,1010,1010,1016,1019,1022,1025,1028,1028,1031,1034,1034,1105,1097,1097,1094,1094,1094,1090,1090,1087,1087,1087,1087,1087,1087,1090,1094,1094,1094,1094,1223,1223,1223,1223,1223,1223,1227,1223,1223,1223,1223,1223,1219,1219,1219,1219,1219,1219,1219,1219,1219,1219,1219,1219,1219,1219,1219,1219,1219,1219,1219,1219,1219,1219,1219,1219,1219,1219,1219,1219,1214,1214,1214,1214,1214,1219,1219,1219,1219,1219,1219,1219,1219,1219,1219,1219,1219,1219,1214,1214,1214,1214,1214,1214,1214,1214,1214,1214,1214,1214,1214,1214,1214,1214,1214,1214,1214,1210,1210,1210,1210,1210,1210,1210,1210,1210,1214,1214,1214,1214,1214,1214,1214,1214,1214,1210,1206,1206,1206,1206,1206,1206,1206,1210,1210,1210,1210,1202,1202,1202,1202,1202,1202,1202,1202,1202,1206,1210,1210,1210,1210,1210,1210,1185,1185,1189,1189,1185,1185,1185,1185,1189,1185,1181,1181,1177,1177,1177,1177,1177,1177,1177,1177,1173,1169,1169,1169,1169,1169,1169,1169,1169,1169,1173,1173,1177,1181,1181,1181,1181,1185,1185,1185,1189,1189,1193,1193,1193,1193,1193,1193,1193,1193,1197,1197,1197,1197,1197,1202,1202,1202,1202,1202,1202,1202,1202,1202,1080,1080,1073,1070,1067,1067,1063,1060,1057,1054,1050,1047,1044,1041,1041,1038,1038,1034,1031,1028,1028,0,0,0,0,0,0,0,0,0,0,0,0,0,0,0,0,0,0,0,0,0,0,0,0,0,0,0,0,0,0,0,0,0
0,0,0,0,0,0,0,0,1250,1250,1250,1250,1250,1245,1245,1250,1250,1250,1250,1250,1250,1250,1250,1245,1245,1245,1245,1245,1245,1245,1250,1250,1250,1250,1250,1250,1250,1250,1250,1250,1250,1250,1250,1245,1245,1245,1245,1245,1245,1245,1245,1245,1245,1245,1245,1245,1245,1250,1250,1250,1255,1255,1255,1250,1250,1250,1250,1250,1250,1250,1250,1250,1250,1250,1250,1250,1250,1250,1245,1245,1250,1250,1250,1250,1250,1250,1250,1250,1250,1250,1255,1250,1250,1250,1250,1250,1245,1245,1245,1245,1245,1245,1245,1245,1245,1245,1245,1241,1232,1232,1232,1232,0,998,998,998,995,995,992,989,987,987,987,987,987,987,989,989,992,995,995,998,1001,1001,1004,1007,1010,1013,1013,1019,1019,1022,1022,1025,1025,1028,1031,1031,1034,1034,1034,1034,1034,1034,1034,1034,1236,1236,1236,1236,1236,1236,1241,1241,1241,1241,1241,1241,1241,1245,1245,1245,1245,1241,1241,1241,1236,1236,1236,1236,1236,1236,1236,1241,1241,1241,1241,1241,1241,1241,1241,1236,1236,1236,1236,1236,1236,1236,1236,1236,1236,1241,1241,1241,1241,1241,1236,1236,1236,1236,1236,1236,1236,1236,1236,1241,1241,1241,1236,1236,1236,1236,1236,1232,1232,1232,1232,1232,0,0,0,0,0,0,0,0,0,0,0,728,728,727,727,725,725,723,722,719,716,716,714,714,713,713,713,713,713,714,714,716,717,720,720,725,725,727,728,730,731,733,733,733,733,734,734,0,0,1013,1013,1013,1013,1010,1010,1007,1004,1001,1001,1001,998,998,995,995,992,992,989,989,989,989,989,987,987,987,987,987,987,984,984,981,978,978,981,1232,1232,1232,1232,1236,1236,1236,1232,1232,1232,1232,1232,1232,1232,1232,1232,1232,1232,1227,1227,1232,1227,1227,1227,1227,1227,1227,1232,1232,1232,1232,1232,1232,1232,1227,981,981,981,981,981,981,981,981,984,984,984,984,987,987,989,989,989,992,992,995,998,1004,1004,1010,1013,1016,1019,1022,1025,1028,1028,1031,1108,1108,1105,1101,1097,1094,1094,1094,1090,1090,1090,1087,1087,1087,1090,1090,1090,1094,1094,1094,1094,1219,1219,1219,1219,1219,1219,1219,1219,1219,1219,1219,1219,1219,1219,1219,1219,1219,1219,1219,1214,1214,1214,1214,1219,1219,1219,1219,1219,1219,1214,1214,1214,1214,1214,1214,1214,1214,1214,1214,1214,1214,1214,1214,1214,1214,1214,1214,1214,1214,1214,1214,1214,1214,1214,1214,1214,1214,1214,1214,1214,1214,1210,1210,1210,1210,1210,1210,1210,1206,1206,1206,1206,1206,1210,1210,1210,1210,1206,1206,1206,1206,1206,1206,1206,1206,1206,1206,1206,1206,1206,1206,1206,1206,1210,1206,1202,1202,1202,1202,1202,1202,1202,1202,1202,1202,1206,1202,1197,1197,1197,1197,1197,1197,1197,1197,1197,1202,1202,1206,1206,1202,1197,1189,1185,1185,1185,1185,1185,1185,1185,1185,1185,1181,1181,1181,1177,1177,1177,1177,1177,1177,1177,1177,1173,1173,1173,1169,1169,1169,1169,1173,1173,1173,1173,1177,1177,1181,1181,1181,1181,1185,1185,1185,1189,1189,1193,1193,1193,1193,1193,1193,1189,1189,1193,1193,1193,1193,1193,1197,1197,1197,1197,1197,1197,1197,1197,1197,1077,1077,1070,1067,1067,1063,1063,1060,1057,1054,1047,1044,1041,1041,1038,1038,1034,1034,1028,1028,1028,0,0,0,0,0,0,0,0,0,0,0,0,0,0,0,0,0,0,0,0,0,0,0,0,0,0,0,0,0,0,0,0,0
0,0,0,0,0,0,0,0,1250,1250,1245,1245,1245,1245,1245,1245,1245,1245,1245,1245,1245,1245,1245,1245,1241,1241,1245,1245,1245,1245,1245,1245,1245,1250,1245,1245,1245,1245,1245,1245,1245,1245,1245,1241,1241,1236,1236,1241,1241,1241,1245,1245,1245,1245,1245,1245,1245,1245,1245,1245,1245,1250,1250,1250,1250,1250,1250,1250,1250,1250,1250,1250,1250,1245,1245,1245,1245,1245,1245,1245,1245,1245,1245,1245,1245,1245,1245,1245,1245,1245,1245,1245,1245,1245,1245,1245,1245,1245,1245,1245,1241,1241,1241,1241,1241,1241,1241,1236,1236,1232,1232,0,0,0,998,998,998,998,995,992,989,989,987,987,987,989,989,992,995,995,998,998,1001,1001,1004,1007,1010,1010,1013,1019,1019,1022,1022,1025,1028,1028,1031,1031,1034,1034,1034,1034,1034,1038,1038,1227,1232,1232,1232,1232,1232,1232,1236,1236,1236,1236,1236,1236,1241,1241,1241,1241,1241,1241,1236,1236,1236,1232,1232,1232,1232,1232,1236,1236,1236,1236,1236,1236,1236,1236,1236,1232,1232,1232,1232,1232,1232,1232,1232,1232,1232,1236,1236,1236,1236,1236,1236,1232,1232,1232,1232,1232,1232,1232,1232,1236,1236,1236,1236,1236,1236,1232,1232,1232,1232,1232,1232,1232,1232,0,0,0,0,0,0,0,0,0,0,0,728,727,727,727,725,723,722,722,719,717,716,714,714,714,714,714,714,714,716,716,719,720,722,725,727,727,728,730,733,733,733,734,734,734,734,0,1022,1022,1016,1016,1013,1010,1010,1007,1004,1001,1001,998,998,998,995,992,992,989,989,989,989,989,987,987,987,987,987,987,984,984,981,981,978,978,978,978,978,1232,1232,1236,1236,1232,1232,1227,1227,1227,1227,1227,1227,1227,1227,1227,1227,1227,1227,1227,1223,1223,1223,1223,1227,1227,1227,1227,1232,1232,1232,1232,1232,1227,981,981,981,981,981,981,981,981,981,981,981,981,984,987,989,989,989,992,992,995,998,1004,1004,1010,1013,1016,1019,1022,1025,1028,1028,1112,1108,1108,1105,1101,1097,1094,1094,1094,1090,1090,1090,1090,1090,1090,1090,1090,1094,1094,1094,1094,1097,1214,1214,1214,1214,1214,1214,1214,1214,1214,1214,1214,1219,1219,1219,1214,1214,1214,1214,1214,1214,1214,1214,1214,1214,1214,1214,1214,1214,1214,1214,1214,1214,1214,1214,1214,1210,1210,1210,1210,1210,1210,1210,1210,1210,1210,1210,1210,1210,1210,1210,1210,1210,1210,1210,1210,1210,1210,1210,1210,1210,1210,1206,1206,1206,1206,1206,1206,1206,1202,1202,1202,1202,1206,1206,1206,1206,1206,1206,1206,1206,1202,1202,1202,1202,1202,1202,1202,1202,1202,1202,1202,1197,1197,1202,1202,1197,1197,1197,1197,1197,1197,1197,1193,1193,1193,1193,1193,1193,1193,1193,1197,1197,1197,1197,1197,1197,1197,1197,1197,1197,1193,1189,1185,1185,1185,1185,1181,1181,1181,1181,1181,1181,1181,1181,1181,1177,1177,1177,1177,1177,1177,1177,1177,1177,1173,1173,1173,1173,1173,1173,1173,1173,1173,1177,1181,1181,1181,1181,1181,1181,1185,1185,1185,1185,1189,1189,1193,1193,1193,1193,1193,1189,1189,1189,1189,1189,1189,1193,1193,1197,1197,1197,1197,1197,1197,1197,1197,1077,1070,1067,1067,1063,1063,1060,1057,1054,1047,1044,1041,1041,1038,1038,1034,1031,1031,1028,1025,1025,0,0,0,0,0,0,0,0,0,0,0,0,0,0,0,0,0,0,0,0,0,0,0,0,0,0,0,0,0,0,0,0,0
0,0,0,0,0,0,0,0,1245,1245,1245,1241,1241,1241,1241,1241,1241,1241,1245,1245,1245,1245,1241,1241,1241,1241,1241,1241,1241,1241,1241,1245,1245,1245,1241,1241,1245,1245,1241,1241,1241,1236,1236,1236,1236,1236,1236,1236,1236,1241,1241,1241,1241,1241,1241,1241,1241,1241,1241,1241,1241,1241,1241,1245,1245,1245,1245,1245,1245,1245,1245,1245,1245,1245,1241,1241,1241,1241,1241,1241,1241,1241,1241,1241,1245,1245,1245,1241,1241,1241,1241,1241,1241,1241,1241,1241,1241,1241,1241,1241,1236,1236,1236,1236,1236,1236,1236,1232,1232,1227,1227,1227,0,0,0,998,998,998,998,992,989,989,987,987,987,989,989,992,995,995,998,998,1001,1001,1004,1007,1007,1010,1013,1016,1019,1022,1025,1025,1028,1028,1031,1031,1034,1034,1034,1034,1038,1227,1227,1227,1232,1232,1232,1232,1232,1232,1232,1232,1232,1232,1232,1232,1236,1236,1236,1236,1236,1236,1236,1232,1232,1232,1232,1232,1232,1232,1232,1232,1232,1236,1236,1232,1232,1232,1232,1227,1227,1227,1227,1227,1227,1227,1227,1232,1232,1232,1232,1232,1232,1232,1232,1232,1232,1232,1232,1232,1227,1227,1232,1232,1232,1232,1232,1232,1232,1232,1232,1232,1232,1232,1232,1232,1232,0,0,0,0,0,0,0,0,0,0,0,730,728,728,727,727,725,723,722,719,719,717,716,714,714,714,714,714,714,716,717,719,720,722,725,727,727,730,731,733,734,734,734,734,0,0,0,0,1022,1019,1016,1013,1013,1010,1007,1004,1004,1001,998,998,995,995,992,992,989,989,989,987,987,987,987,987,984,984,984,981,981,981,981,978,978,978,978,978,978,981,981,981,1232,1232,1223,1223,1223,1223,1223,1227,1223,1223,1223,1223,1219,1219,1219,1219,1219,1219,1219,1219,1223,1227,1227,1227,1232,1232,1232,1232,978,978,978,978,978,981,978,978,978,978,978,981,981,984,984,987,989,989,992,995,995,1001,1004,1004,1010,1013,1016,1019,1022,1028,1028,1112,1108,1108,1108,1105,1105,1101,1097,1094,1094,1090,1090,1090,1090,1090,1090,1090,1090,1094,1094,1097,1097,1101,1214,1210,1210,1210,1210,1210,1210,1214,1214,1214,1214,1214,1214,1214,1214,1214,1210,1210,1210,1210,1210,1210,1210,1210,1210,1210,1210,1210,1210,1210,1210,1210,1210,1210,1210,1206,1206,1206,1206,1206,1206,1206,1206,1206,1206,1206,1206,1206,1206,1206,1206,1206,1206,1206,1206,1206,1206,1202,1202,1202,1202,1202,1202,1202,1206,1202,1202,1202,1202,1202,1202,1202,1202,1202,1202,1202,1202,1202,1202,1202,1202,1202,1202,1202,1197,1197,1197,1197,1197,1193,1189,1185,1185,1185,1189,1189,1189,1189,1193,1193,1193,1193,1193,1193,1193,1193,1193,1189,1189,1189,1189,1189,1193,1193,1189,1189,1193,1193,1189,1189,1185,1185,1185,1181,1181,1181,1181,1181,1181,1181,1177,1177,1181,1181,1177,1177,1177,1177,1177,1177,1177,1177,1177,1177,1173,1173,1173,1173,1173,1173,1173,1177,1177,1177,1181,1181,1181,1181,1181,1181,1185,1185,1185,1185,1185,1185,1185,1185,1189,1189,1189,1185,1185,1185,1185,1185,1185,1185,1185,1189,1193,1193,1193,1193,1189,1189,1197,1073,1067,1067,1067,1063,1060,1060,1057,1054,1047,1041,1041,1038,1034,1034,1031,1031,1028,1028,1025,1025,0,0,0,0,0,0,0,0,0,0,0,0,0,0,0,0,0,0,0,0,0,0,0,0,0,0,0,0,0,0,0,0,0
0,0,0,0,0,0,0,0,1241,1241,1241,1236,1236,1236,1236,1236,1236,1236,1241,1241,1241,1241,1241,1241,1241,1241,1241,1241,1241,1241,1241,1241,1241,1241,1236,1236,1236,1236,1236,1236,1236,1236,1236,1232,1232,1232,1232,1232,1232,1236,1236,1236,1241,1241,1236,1236,1236,1236,1236,1236,1236,1236,1236,1236,1236,1241,1241,1241,1241,1241,1241,1241,1236,1236,1236,1236,1236,1236,1236,1236,1236,1236,1236,1236,1236,1236,1236,1236,1236,1236,1236,1236,1236,1236,1236,1236,1236,1236,1236,1232,1232,1232,1232,1232,1232,1232,1232,1232,1227,1227,1227,0,0,0,1001,1001,1001,1001,998,995,989,989,989,987,987,989,989,992,995,998,998,1001,1001,1004,1004,1007,1007,1010,1013,1016,1019,1022,1025,1025,1028,1028,1031,1034,1038,1038,1038,1223,1223,1223,1227,1227,1227,1227,1227,1227,1227,1227,1227,1227,1227,1227,1232,1232,1232,1232,1232,1232,1232,1232,1232,1232,1232,1232,1232,1227,1227,1232,1232,1232,1232,1232,1232,1227,1227,1227,1227,1223,1223,1223,1227,1227,1227,1227,1227,1227,1227,1227,1227,1227,1227,1227,1227,1227,1227,1227,1227,1227,1227,1227,1227,1227,1227,1227,1227,1227,1227,1227,1227,1227,1227,1227,1227,1227,1227,0,0,0,0,0,0,0,0,0,0,733,731,731,730,728,728,727,725,723,722,719,717,716,716,716,716,716,716,716,716,717,719,722,723,725,727,728,730,731,734,734,736,736,736,0,0,0,0,1022,1019,1016,1013,1013,1010,1010,1007,1004,1001,998,998,995,995,992,989,989,989,987,987,987,984,984,984,984,984,981,981,981,978,978,978,978,978,978,978,978,978,978,978,978,1223,1223,1223,1223,1223,1223,1223,1223,1223,1223,1219,1219,1219,1219,1219,1214,1214,1214,1219,1219,1223,1223,1227,1227,1227,1227,1232,975,975,978,978,978,978,978,978,978,978,978,978,978,981,984,987,989,989,992,995,998,1001,1004,1007,1010,1013,1016,1022,1025,1028,1206,1112,1108,1108,1108,1105,1105,1101,1097,1097,1094,1094,1094,1090,1090,1090,1090,1090,1090,1094,1094,1097,1097,1108,1210,1210,1210,1210,1210,1206,1206,1210,1210,1210,1210,1210,1210,1210,1210,1210,1206,1206,1206,1206,1206,1206,1206,1206,1206,1206,1206,1206,1206,1206,1206,1206,1206,1206,1206,1206,1202,1202,1202,1202,1202,1202,1202,1202,1202,1202,1202,1202,1202,1202,1202,1202,1202,1202,1202,1197,1197,1197,1202,1202,1202,1202,1202,1202,1202,1202,1202,1197,1197,1197,1197,1197,1197,1197,1202,1202,1202,1202,1197,1197,1197,1197,1197,1197,1197,1193,1193,1193,1193,1189,1185,1185,1181,1181,1185,1185,1185,1185,1189,1189,1189,1189,1189,1189,1189,1189,1189,1189,1189,1189,1189,1189,1185,1185,1185,1185,1189,1189,1185,1185,1185,1185,1181,1181,1181,1181,1181,1177,1177,1177,1177,1177,1177,1177,1177,1177,1177,1177,1177,1177,1177,1177,1177,1177,1177,1177,1177,1173,1173,1177,1177,1177,1177,1177,1181,1181,1181,1181,1181,1181,1181,1181,1181,1181,1181,1181,1185,1185,1181,1181,1181,1185,1185,1185,1185,1185,1185,1185,1185,1185,1185,1185,1185,1181,1181,1181,1181,1067,1067,1063,1063,1063,1060,1060,1054,1047,1044,1041,1038,1034,1034,1034,1031,1028,1028,1028,1025,1025,0,0,0,0,0,0,0,0,0,0,0,0,0,0,0,0,0,0,0,0,0,0,0,0,0,0,0,0,0,0,0,0,0
0,0,0,0,0,0,0,0,1241,1241,1236,1236,1232,1232,1232,1232,1232,1236,1236,1236,1241,1241,1241,1241,1236,1236,1236,1236,1236,1236,1236,1236,1236,1236,1236,1232,1232,1232,1232,1232,1232,1232,1232,1232,1232,1232,1232,1232,1232,1232,1232,1236,1236,1236,1236,1236,1236,1236,1236,1232,1232,1232,1232,1232,1236,1236,1236,1236,1236,1236,1236,1236,1232,1232,1232,1232,1232,1232,1232,1232,1232,1232,1232,1232,1236,1232,1232,1236,1232,1232,1236,1232,1232,1232,1232,1236,1236,1232,1232,1227,1227,1227,1232,1232,1232,1232,1232,1227,1227,1227,1227,0,0,0,1001,1001,1001,1001,1001,995,992,989,989,989,989,989,989,992,995,998,998,1001,1001,1004,1004,1007,1007,1010,1010,1013,1019,1022,1025,1025,1028,1028,1031,1034,1223,1219,1219,1219,1223,1223,1223,1223,1227,1227,1223,1223,1223,1223,1227,1227,1227,1227,1227,1227,1227,1227,1227,1227,1227,1227,1227,1227,1227,1227,1227,1227,1227,1227,1227,1227,1227,1227,1227,1227,1227,1223,1223,1223,1223,1223,1223,1223,1223,1223,1223,1227,1227,1227,1227,1223,1223,1227,1227,1227,1227,1223,1223,1223,1219,1219,1223,1219,1219,1223,1223,1223,1223,1223,1223,1223,1223,1223,1223,1223,1223,0,0,0,0,0,0,0,0,0,0,733,733,731,731,730,728,727,727,725,722,720,719,717,716,716,716,716,716,716,717,719,720,722,723,725,727,728,730,731,734,734,736,736,736,0,0,0,0,1022,1019,1016,1013,1013,1010,1010,1007,1004,1001,1001,998,995,995,992,989,989,989,987,987,987,984,984,981,981,981,978,978,978,978,978,975,975,978,978,978,978,975,975,973,973,973,973,973,973,1223,1223,1219,1219,1219,1219,1219,1219,1219,1214,1214,1214,1214,1214,1214,1219,1219,1219,1223,1227,1227,970,970,970,970,973,975,975,978,975,975,975,975,975,978,978,981,981,987,989,989,992,995,998,1001,1004,1007,1010,1013,1016,1206,1206,1206,1206,1206,1112,1108,1108,1108,1105,1105,1101,1101,1097,1094,1094,1094,1094,1094,1094,1094,1094,1094,1097,1101,1105,1108,1202,1202,1206,1206,1206,1206,1206,1206,1206,1206,1206,1206,1206,1210,1206,1206,1202,1202,1202,1202,1202,1202,1202,1202,1202,1202,1202,1202,1202,1202,1202,1202,1202,1206,1202,1202,1202,1202,1202,1202,1197,1197,1197,1197,1197,1197,1197,1197,1197,1197,1197,1197,1197,1197,1197,1193,1193,1193,1193,1193,1197,1202,1202,1202,1202,1202,1197,1197,1197,1197,1197,1197,1197,1197,1197,1197,1197,1197,1197,1193,1193,1193,1193,1193,1193,1189,1189,1189,1185,1185,1181,1181,1181,1181,1181,1181,1181,1185,1185,1185,1185,1185,1185,1185,1185,1185,1185,1185,1185,1185,1185,1185,1185,1185,1185,1181,1181,1181,1185,1185,1185,1181,1181,1181,1181,1177,1177,1177,1177,1177,1177,1177,1177,1177,1177,1177,1177,1177,1177,1177,1177,1177,1177,1177,1177,1173,1173,1177,1177,1177,1177,1177,1177,1181,1181,1181,1181,1181,1181,1181,1181,1181,1181,1181,1181,1181,1181,1181,1181,1177,1177,1181,1181,1181,1181,1181,1181,1181,1181,1181,1181,1181,1181,1181,1181,1181,1067,1063,1063,1063,1063,1063,1060,1057,1047,1044,1041,1038,1038,1034,1034,1031,1028,1028,1028,1025,1025,1025,0,0,0,0,0,0,0,0,0,0,0,0,0,0,0,0,0,0,0,0,0,0,0,0,0,0,0,0,0,0,0,0,0
0,0,0,0,0,0,0,0,0,1241,1236,1236,1232,1232,1232,1232,1232,1236,1236,1236,1236,1236,1236,1236,1236,1232,1232,1232,1232,1236,1232,1232,1236,1236,1232,1232,1232,1232,1232,1232,1232,1232,1232,1227,1227,1227,1227,1227,1227,1227,1227,1232,1232,1232,1232,1232,1232,1232,1232,1232,1232,1232,1232,1232,1232,1232,1236,1236,1236,1236,1236,1232,1232,1232,1232,1232,1232,1232,1227,1227,1232,1232,1232,1232,1232,1232,1232,1232,1232,1232,1232,1232,1232,1232,1232,1232,1232,1227,1227,1227,1227,1227,1227,1227,1227,1227,1227,1227,1223,1223,1223,0,1214,0,1007,1004,1004,1004,1001,1001,995,989,989,989,989,989,992,992,995,998,1001,1001,1004,1004,1007,1007,1007,1010,1010,1013,1016,1019,1025,1028,1028,1028,1031,1219,1219,1219,1219,1219,1219,1223,1223,1223,1223,1223,1219,1219,1219,1219,1223,1223,1223,1223,1227,1227,1223,1223,1223,1223,1223,1223,1223,1223,1223,1227,1227,1223,1223,1223,1223,1223,1223,1223,1223,1219,1219,1223,1223,1219,1219,1219,1219,1219,1223,1219,1219,1223,1223,1223,1219,1219,1219,1219,1219,1219,1219,1219,1219,1219,1214,1214,1214,1214,1214,1219,1219,1219,1219,1219,1219,1219,1219,1214,1214,1210,1210,0,0,0,0,0,0,0,0,0,0,0,733,733,731,730,730,728,727,725,723,720,719,717,717,716,716,716,716,716,717,719,722,722,723,725,727,728,731,733,734,734,736,736,736,0,0,0,0,1022,1019,1016,1016,1013,1010,1010,1007,1004,1001,1001,1001,998,995,992,992,989,989,987,987,987,984,981,981,981,978,978,978,975,975,975,975,975,978,978,978,978,975,975,973,973,973,970,970,970,970,970,970,1219,1219,1219,1219,1214,1214,1214,1214,1210,1210,1210,1214,1214,1219,1214,1214,1219,967,967,967,967,967,970,973,973,975,975,975,975,975,975,975,978,981,981,987,989,992,992,995,998,1004,1004,1007,1010,1013,1202,1202,1202,1202,1202,1202,1115,1112,1108,1108,1108,1108,1105,1101,1097,1097,1094,1094,1094,1094,1094,1094,1094,1097,1101,1105,1105,1108,1202,1202,1202,1202,1202,1202,1202,1202,1202,1202,1202,1202,1202,1206,1202,1202,1202,1202,1202,1202,1197,1197,1197,1197,1197,1202,1202,1202,1202,1197,1197,1197,1197,1202,1202,1197,1197,1197,1197,1197,1197,1197,1197,1193,1193,1193,1193,1197,1197,1197,1197,1197,1197,1193,1193,1189,1189,1189,1193,1193,1193,1197,1197,1197,1197,1197,1197,1197,1197,1193,1193,1193,1193,1193,1193,1193,1193,1193,1193,1189,1189,1189,1189,1189,1189,1189,1185,1185,1185,1185,1181,1181,1181,1181,1181,1181,1181,1181,1185,1185,1185,1185,1181,1181,1181,1181,1181,1181,1181,1181,1181,1181,1181,1181,1181,1181,1181,1181,1177,1177,1181,1181,1181,1181,1177,1177,1177,1177,1173,1173,1177,1177,1173,1173,1177,1177,1177,1177,1177,1177,1177,1177,1177,1177,1177,1173,1173,1177,1177,1177,1177,1177,1177,1177,1177,1177,1177,1177,1173,1173,1181,1177,1177,1177,1177,1177,1177,1173,1173,1173,1173,1177,1177,1177,1177,1177,1177,1177,1177,1177,1177,1177,1177,1177,1177,1067,1063,1060,1060,1060,1060,1060,1057,1054,1044,1041,1038,1038,1038,1034,1031,1031,1028,1028,1028,1025,1025,1025,0,0,0,0,0,0,0,0,0,0,0,0,0,0,0,0,0,0,0,0,0,0,0,0,0,0,0,0,0,0,0,0,0
0,0,0,0,0,0,0,0,0,1232,1232,1232,1227,1227,1232,1227,1227,1227,1232,1232,1232,1232,1232,1232,1232,1232,1232,1232,1232,1232,1232,1232,1232,1232,1232,1232,1227,1227,1227,1227,1227,1227,1227,1227,1227,1227,1227,1227,1227,1227,1227,1227,1232,1227,1227,1227,1227,1227,1227,1227,1227,1227,1227,1227,1227,1227,1232,1232,1227,1227,1227,1232,1227,1227,1227,1227,1227,1227,1227,1227,1227,1227,1227,1227,1232,1227,1227,1227,1227,1227,1227,1227,1227,1227,1227,1227,1227,1227,1227,1223,1223,1223,1223,1223,1223,1223,1223,1223,1223,1219,1214,1214,1214,0,1007,1007,1004,1004,1004,1001,995,992,989,989,989,989,992,992,995,998,1001,1001,1004,1004,1007,1007,1010,1010,1010,1013,1016,1019,1031,1031,1031,1219,1219,1219,1219,1219,1214,1214,1214,1214,1219,1219,1219,1214,1214,1214,1214,1219,1219,1219,1219,1219,1223,1223,1223,1219,1219,1223,1223,1219,1219,1219,1223,1223,1223,1223,1223,1223,1219,1219,1219,1219,1219,1219,1219,1219,1219,1214,1214,1219,1219,1219,1219,1219,1219,1219,1219,1219,1214,1214,1214,1214,1214,1214,1214,1214,1214,1214,1214,1214,1214,1214,1214,1214,1214,1214,1214,1219,1219,1214,1214,1214,1214,1210,1210,1210,0,0,0,0,0,0,0,0,0,0,734,734,733,731,730,728,727,727,723,722,720,719,717,717,717,716,716,716,717,720,722,722,723,725,727,728,731,734,736,736,736,738,738,0,0,0,0,0,1019,1016,1016,1013,1013,1010,1010,1004,1004,1001,1001,998,995,995,992,989,989,987,987,987,984,981,981,981,978,978,975,975,975,975,975,975,975,975,975,975,975,973,973,970,970,970,970,970,970,967,967,967,1219,1219,1214,1214,1210,1210,1210,1210,1206,1206,1210,1210,1214,1214,1214,962,962,962,964,964,964,967,970,970,970,970,973,973,973,973,975,978,978,981,987,989,992,995,998,998,1001,1004,1004,1010,1013,1197,1197,1202,1202,1202,1202,1202,1112,1112,1108,1108,1108,1105,1105,1101,1097,1094,1094,1094,1094,1094,1094,1094,1101,1105,1105,1108,1108,1202,1202,1197,1197,1197,1197,1197,1197,1197,1197,1197,1197,1197,1202,1202,1202,1197,1197,1197,1197,1197,1197,1197,1197,1197,1197,1197,1197,1197,1197,1197,1193,1193,1197,1197,1197,1197,1193,1193,1197,1193,1193,1193,1189,1189,1189,1189,1193,1193,1193,1193,1193,1193,1189,1189,1189,1189,1189,1189,1189,1189,1189,1193,1193,1193,1193,1193,1193,1193,1189,1189,1189,1189,1189,1189,1189,1189,1189,1189,1185,1185,1185,1185,1185,1185,1185,1185,1185,1185,1181,1181,1181,1181,1181,1181,1181,1181,1181,1181,1181,1181,1181,1181,1181,1181,1181,1181,1181,1181,1181,1181,1181,1177,1177,1177,1177,1177,1177,1173,1173,1177,1173,1173,1177,1177,1173,1173,1173,1173,1173,1173,1173,1173,1173,1173,1173,1173,1173,1173,1173,1177,1177,1177,1177,1173,1173,1177,1177,1177,1173,1173,1173,1173,1177,1177,1173,1173,1173,1173,1173,1173,1173,1173,1173,1173,1173,1173,1173,1173,1173,1169,1169,1173,1173,1173,1173,1173,1173,1173,1173,1173,1173,1173,1173,1173,1063,1063,1060,1060,1060,1060,1060,1054,1047,1044,1041,1038,1038,1034,1034,1031,1028,1028,1028,1028,1025,1025,1025,0,0,0,0,0,0,0,0,0,0,0,0,0,0,0,0,0,0,0,0,0,0,0,0,0,0,0,0,0,0,0,0,0
0,0,0,0,0,0,0,0,0,1227,1227,1227,1223,1223,1227,1227,1219,1219,1227,1227,1227,1227,1227,1227,1227,1227,1227,1227,1227,1227,1227,1227,1227,1232,1227,1227,1227,1227,1227,1227,1227,1227,1227,1227,1227,1223,1223,1227,1227,1223,1223,1223,1227,1227,1227,1227,1227,1227,1227,1227,1227,1227,1223,1223,1223,1223,1223,1223,1223,1223,1223,1223,1223,1223,1223,1223,1223,1223,1223,1223,1223,1227,1227,1227,1227,1227,1227,1227,1227,1227,1227,1227,1223,1223,1219,1219,1219,1223,1219,1219,1219,1219,1219,1219,1219,1219,1219,1219,1219,1214,1214,1214,1214,1210,1007,1007,1004,1004,1007,1004,998,992,989,989,989,989,992,995,998,998,1001,1001,1004,1004,1007,1007,1010,1010,1010,1013,1019,1022,1214,1214,1214,1214,1214,1214,1219,1214,1214,1214,1214,1214,1214,1214,1214,1214,1214,1214,1214,1214,1214,1214,1214,1214,1219,1219,1219,1219,1219,1214,1214,1214,1214,1214,1214,1214,1214,1214,1214,1214,1214,1214,1214,1214,1214,1214,1214,1214,1214,1214,1214,1214,1214,1219,1214,1214,1214,1214,1214,1214,1214,1214,1214,1214,1214,1214,1214,1214,1214,1214,1210,1210,1210,1210,1210,1210,1210,1210,1210,1210,1214,1210,1210,1214,1210,1210,1210,1210,0,0,0,0,0,0,0,0,0,738,734,734,733,731,730,730,728,727,723,722,720,719,717,717,717,716,716,716,717,720,722,722,723,725,727,730,731,734,736,736,738,739,739,0,0,0,0,0,0,1202,1016,1013,1013,1010,1010,1007,1004,1001,1001,998,998,995,992,989,989,989,987,987,984,984,981,981,981,978,975,975,973,973,973,973,973,973,973,973,973,970,970,970,967,967,967,967,967,967,967,967,1219,1219,1214,1210,1210,1206,1206,1206,1206,1206,1206,956,956,956,959,959,959,959,959,959,962,964,967,967,967,970,970,970,970,973,973,975,978,981,987,989,992,995,998,998,1001,1001,1004,1193,1193,1193,1193,1197,1197,1197,1197,1197,1112,1112,1112,1112,1108,1108,1105,1105,1101,1097,1097,1097,1097,1097,1097,1097,1101,1105,1108,1108,1108,1202,1202,1197,1197,1197,1193,1193,1193,1193,1193,1193,1193,1197,1197,1197,1197,1193,1193,1193,1193,1193,1193,1193,1193,1193,1193,1193,1193,1193,1193,1193,1193,1193,1193,1193,1193,1193,1193,1193,1189,1189,1189,1189,1185,1185,1185,1185,1185,1185,1185,1185,1189,1189,1189,1185,1185,1185,1185,1185,1185,1185,1185,1189,1189,1189,1189,1185,1185,1185,1185,1189,1185,1185,1185,1185,1189,1185,1185,1185,1185,1185,1185,1185,1185,1185,1185,1185,1185,1181,1181,1181,1181,1181,1181,1181,1181,1181,1181,1181,1177,1177,1181,1177,1177,1177,1177,1177,1177,1177,1177,1177,1177,1177,1177,1177,1173,1173,1173,1173,1173,1173,1169,1169,1173,1169,1169,1169,1173,1173,1173,1173,1173,1173,1173,1173,1173,1173,1173,1169,1169,1173,1173,1173,1173,1173,1173,1173,1173,1173,1173,1173,1169,1169,1173,1173,1169,1169,1169,1169,1173,1173,1173,1173,1173,1173,1173,1173,1169,1169,1169,1169,1169,1169,1169,1169,1169,1169,1169,1169,1173,1173,1173,1173,1173,1169,1063,1060,1060,1060,1057,1057,1057,1054,1044,1041,1041,1038,1034,1034,1031,1031,1028,1028,1028,1025,1025,1025,1025,0,0,0,0,0,0,0,0,0,0,0,0,0,0,0,0,0,0,0,0,0,0,0,0,0,0,0,0,0,0,0,0,0
0,0,0,0,0,0,0,0,1223,1223,1223,1223,1219,1219,1219,1214,1214,1214,1214,1223,1227,1223,1223,1223,1223,1223,1223,1223,1223,1223,1223,1223,1223,1227,1227,1227,1223,1223,1223,1223,1223,1223,1223,1223,1223,1223,1223,1223,1223,1219,1219,1219,1223,1219,1219,1219,1219,1223,1223,1223,1223,1223,1219,1219,1219,1219,1219,1219,1219,1219,1219,1219,1219,1219,1219,1223,1223,1219,1219,1219,1223,1223,1223,1223,1227,1227,1227,1223,1219,1219,1219,1219,1219,1219,1219,1219,1219,1219,1219,1219,1214,1214,1214,1214,1214,1214,1214,1214,1214,1214,1210,1210,1210,1210,1210,1004,1004,1004,1007,1004,1001,998,992,989,989,989,992,995,998,998,1001,1001,1004,1007,1007,1010,1010,1010,1013,1016,1019,1210,1210,1214,1214,1214,1214,1214,1214,1214,1214,1210,1210,1210,1210,1210,1206,1206,1210,1210,1210,1214,1214,1214,1214,1214,1214,1214,1214,1214,1214,1214,1214,1214,1214,1214,1214,1214,1214,1214,1214,1214,1214,1214,1214,1214,1214,1214,1214,1214,1214,1214,1210,1210,1210,1214,1214,1210,1210,1210,1210,1214,1210,1210,1210,1210,1210,1210,1210,1210,1210,1210,1210,1210,1210,1210,1210,1210,1210,1210,1210,1210,1210,1210,1210,1206,1206,1206,1206,1202,1202,0,0,0,0,0,0,0,0,738,736,734,734,733,731,730,728,727,723,722,720,719,719,717,717,717,717,717,719,720,722,722,723,727,728,731,733,734,738,738,739,739,739,0,0,0,0,0,0,1202,1202,1016,1013,1013,1010,1010,1007,1004,1001,1001,998,995,992,992,989,989,987,987,984,984,984,981,981,978,975,973,973,970,970,970,970,970,970,970,970,967,967,967,967,967,967,967,967,967,964,962,962,1214,1214,1210,1210,1206,956,956,956,956,956,956,956,956,956,959,959,959,959,959,959,959,959,962,962,967,967,967,970,970,973,975,978,981,987,989,992,995,995,998,1001,1001,1193,1193,1193,1193,1193,1193,1193,1193,1197,1197,1112,1112,1112,1112,1112,1108,1108,1105,1105,1101,1101,1097,1097,1097,1097,1097,1105,1108,1108,1112,1112,1202,1197,1197,1197,1193,1193,1189,1189,1189,1189,1189,1193,1193,1193,1193,1193,1193,1193,1189,1189,1189,1189,1189,1189,1189,1189,1189,1189,1189,1189,1189,1189,1189,1189,1189,1189,1189,1189,1189,1185,1185,1185,1185,1185,1185,1185,1185,1185,1185,1185,1185,1185,1185,1185,1185,1185,1185,1181,1181,1181,1181,1185,1185,1185,1181,1181,1185,1185,1185,1181,1181,1181,1181,1185,1185,1185,1185,1185,1181,1181,1181,1181,1181,1181,1181,1181,1181,1181,1181,1181,1177,1177,1181,1181,1181,1181,1181,1177,1177,1177,1177,1177,1177,1173,1173,1177,1177,1177,1173,1173,1173,1173,1173,1173,1173,1169,1169,1169,1169,1169,1169,1169,1169,1169,1169,1169,1169,1169,1169,1169,1173,1173,1169,1169,1169,1169,1169,1169,1169,1169,1173,1169,1169,1169,1169,1169,1169,1169,1169,1169,1169,1169,1169,1169,1169,1169,1169,1169,1169,1169,1169,1169,1169,1169,1169,1169,1169,1169,1165,1165,1165,1165,1165,1165,1165,1169,1169,1169,1169,1169,1169,1169,1169,1169,1169,1060,1057,1057,1054,1054,1054,1054,1047,1044,1041,1038,1038,1034,1031,1031,1031,1028,1028,1028,1025,1025,1025,0,0,0,0,0,0,0,0,0,0,0,0,0,0,0,0,0,0,0,0,0,0,0,0,0,0,0,0,0,0,0,0,0,0
0,0,0,0,0,0,0,0,1223,1223,1223,1219,1219,1219,1214,1210,1210,1210,1214,1214,1214,1214,1214,1219,1219,1219,1219,1219,1219,1219,1219,1219,1219,1223,1223,1223,1219,1219,1219,1223,1219,1219,1219,1219,1219,1219,1219,1219,1219,1219,1219,1219,1219,1219,1219,1214,1214,1219,1219,1214,1214,1214,1214,1214,1214,1214,1214,1214,1214,1214,1214,1214,1219,1214,1214,1219,1219,1219,1219,1219,1219,1219,1219,1219,1223,1223,1223,1219,1219,1214,1214,1214,1214,1214,1214,1214,1214,1214,1214,1214,1214,1214,1214,1214,1214,1214,1214,1210,1210,1210,1210,1210,1210,1210,1210,1004,1004,1004,1007,1004,1001,1001,998,992,989,989,992,995,998,998,1001,1004,1007,1007,1010,1010,1010,1010,1013,1016,1206,1206,1210,1210,1214,1214,1210,1210,1214,1214,1210,1210,1210,1210,1206,1206,1206,1206,1206,1206,1206,1206,1206,1206,1206,1210,1210,1210,1210,1210,1210,1210,1210,1210,1210,1210,1210,1210,1210,1210,1210,1210,1210,1210,1210,1210,1210,1210,1210,1210,1210,1210,1210,1210,1210,1210,1210,1210,1210,1210,1210,1210,1210,1210,1210,1210,1210,1210,1210,1210,1210,1210,1206,1206,1206,1206,1206,1206,1206,1206,1206,1206,1206,1206,1206,1202,1202,1202,1202,1197,1197,0,0,0,0,0,0,0,0,739,738,736,736,734,733,731,730,728,725,722,722,720,719,719,717,717,717,717,719,720,722,723,725,728,730,731,733,736,738,738,739,739,741,0,0,0,0,0,0,1197,1197,1197,1016,1016,1013,1010,1007,1004,1004,1001,998,998,995,992,992,989,989,987,987,984,984,981,981,978,975,973,973,970,970,970,970,970,970,967,967,967,967,967,964,964,964,964,964,964,962,962,959,959,959,956,956,956,956,956,956,956,956,956,956,956,956,956,956,959,956,956,959,959,959,959,962,964,964,967,967,970,973,975,981,984,987,989,992,992,992,995,1001,1001,1189,1189,1189,1189,1189,1193,1193,1193,1193,1193,1119,1119,1115,1115,1112,1108,1108,1108,1105,1101,1101,1101,1101,1101,1101,1101,1105,1108,1112,1112,1112,1197,1197,1193,1189,1189,1189,1189,1185,1185,1185,1185,1189,1189,1189,1185,1185,1185,1185,1189,1189,1189,1189,1189,1189,1189,1189,1189,1189,1189,1185,1185,1185,1185,1185,1185,1185,1185,1185,1185,1185,1185,1185,1185,1181,1181,1181,1181,1181,1185,1185,1185,1185,1185,1185,1181,1181,1181,1181,1181,1181,1181,1181,1181,1181,1181,1181,1181,1181,1181,1181,1181,1181,1181,1177,1177,1177,1181,1181,1177,1177,1177,1181,1177,1177,1177,1177,1177,1177,1177,1177,1177,1177,1177,1177,1177,1177,1177,1177,1173,1173,1173,1173,1173,1169,1169,1173,1173,1173,1173,1169,1169,1169,1169,1169,1169,1169,1169,1169,1169,1169,1165,1165,1165,1169,1169,1169,1169,1169,1169,1169,1169,1169,1169,1169,1169,1169,1169,1169,1169,1169,1169,1169,1169,1169,1169,1169,1169,1169,1169,1169,1169,1165,1165,1169,1169,1169,1169,1165,1165,1169,1169,1169,1169,1169,1169,1165,1165,1165,1165,1165,1161,1161,1161,1161,1161,1165,1165,1165,1165,1169,1169,1165,1165,1165,1165,1060,1054,1054,1054,1054,1054,1047,1044,1041,1041,1038,1034,1034,1031,1031,1031,1028,1028,1028,918,918,1025,0,0,0,0,0,0,0,0,0,0,0,0,0,0,0,0,0,0,0,0,0,0,0,0,0,0,0,0,0,0,0,0,0,0
0,0,0,0,0,0,0,0,1219,1219,1219,1214,1214,1214,1210,1210,1206,1206,1206,1206,1210,1210,1210,1210,1210,1214,1214,1214,1214,1214,1214,1214,1214,1210,1210,1214,1214,1214,1214,1214,1214,1214,1214,1214,1214,1214,1214,1214,1214,1214,1214,1214,1214,1214,1214,1214,1214,1214,1214,1214,1214,1214,1210,1210,1214,1214,1214,1214,1214,1214,1214,1214,1214,1214,1214,1214,1214,1214,1210,1210,1214,1214,1214,1214,1219,1219,1214,1214,1214,1210,1210,1210,1210,1210,1210,1210,1210,1210,1210,1210,1214,1210,1210,1210,1210,1210,1210,1210,1210,1210,1210,1206,1206,1206,1206,1004,1004,1004,1004,1004,1004,1001,998,995,992,992,995,995,998,1001,1001,1007,1007,1010,1010,1010,1010,1013,1013,1206,1206,1206,1210,1210,1210,1210,1210,1210,1210,1210,1210,1206,1206,1206,1202,1202,1202,1202,1202,1206,1206,1206,1202,1202,1202,1202,1202,1197,1197,1206,1210,1210,1206,1206,1210,1210,1206,1206,1206,1210,1210,1210,1206,1206,1206,1206,1210,1206,1206,1206,1206,1210,1206,1202,1202,1206,1206,1206,1206,1206,1206,1206,1206,1206,1206,1206,1206,1206,1206,1206,1206,1206,1206,1202,1202,1202,1202,1202,1202,1206,1202,1202,1206,1206,1202,1202,1202,1202,1202,1197,1197,0,0,0,0,0,0,0,0,739,738,738,736,734,734,733,731,727,725,723,722,720,720,719,719,717,717,717,720,720,722,723,727,728,730,733,734,736,738,738,739,741,741,0,0,0,0,0,1202,1197,1197,1193,1193,1189,1189,1013,1010,1010,1004,1001,998,998,995,992,992,989,989,987,987,987,984,984,981,978,975,975,973,970,970,970,970,970,967,967,967,964,964,964,964,964,964,962,962,962,962,959,959,959,959,956,956,956,956,956,956,954,954,954,956,956,956,956,956,956,956,956,956,956,956,959,962,964,964,967,967,970,973,975,981,984,987,989,989,992,992,995,1189,1189,1189,1189,1189,1189,1189,1189,1189,1189,1189,1189,1193,1119,1119,1115,1115,1112,1108,1108,1105,1105,1101,1101,1105,1101,1101,1105,1108,1112,1112,1112,1112,1115,1189,1189,1185,1185,1185,1185,1185,1185,1185,1185,1185,1185,1185,1185,1185,1185,1185,1185,1185,1185,1185,1185,1185,1185,1185,1185,1185,1185,1185,1185,1185,1181,1181,1181,1185,1185,1185,1181,1181,1181,1181,1181,1181,1181,1181,1181,1181,1181,1181,1181,1181,1181,1181,1181,1181,1181,1177,1177,1177,1177,1177,1177,1177,1177,1177,1177,1177,1177,1177,1177,1177,1177,1173,1173,1173,1173,1173,1177,1177,1177,1177,1177,1177,1173,1173,1177,1177,1177,1173,1173,1173,1173,1173,1173,1173,1173,1173,1173,1169,1169,1173,1169,1169,1169,1169,1169,1169,1169,1169,1169,1169,1169,1169,1165,1165,1165,1165,1165,1165,1165,1165,1165,1165,1165,1165,1165,1165,1165,1165,1165,1165,1165,1165,1165,1169,1165,1165,1165,1165,1169,1169,1165,1165,1165,1165,1165,1165,1165,1165,1165,1165,1165,1165,1169,1169,1165,1165,1165,1165,1165,1165,1165,1165,1165,1165,1165,1161,1161,1161,1161,1161,1161,1157,1157,1161,1161,1165,1165,1165,1165,1165,1165,1165,1161,1161,1054,1050,1050,1050,1050,1044,1044,1041,1038,1038,1034,1034,1031,1028,1028,1028,1028,1028,918,918,1025,0,0,0,0,0,0,0,0,0,0,0,0,0,0,0,0,0,0,0,0,0,0,0,0,0,0,0,0,0,0,0,0,0,0
0,0,0,0,0,0,0,1214,1214,1214,1214,1214,1210,1210,1210,1206,1206,1206,1206,1202,1202,1206,1210,1210,1210,1210,1210,1210,1210,1210,1214,1210,1210,1206,1206,1206,1206,1210,1210,1210,1210,1210,1210,1210,1210,1210,1210,1210,1214,1214,1214,1214,1214,1214,1214,1210,1210,1210,1210,1210,1210,1210,1210,1210,1210,1206,1206,1210,1210,1210,1210,1210,1210,1210,1210,1210,1210,1210,1210,1210,1210,1210,1210,1210,1210,1214,1210,1210,1210,1210,1206,1206,1206,1206,1206,1206,1206,1206,1206,1206,1206,1202,1202,1210,1210,1206,1206,1206,1206,1206,1206,1206,1206,1206,1206,1004,1004,1004,1004,1004,1004,1004,1001,998,998,995,995,998,998,1001,1004,1007,1010,1010,1010,1010,1013,1013,1016,1019,1022,1210,1210,1206,1206,1206,1206,1206,1206,1206,1206,1206,1202,1202,1202,1202,1197,1197,1197,1202,1202,1202,1202,1202,1202,1197,1197,1197,1197,1197,1197,1197,1202,1202,1206,1206,1202,1202,1206,1206,1206,1206,1206,1206,1206,1206,1206,1206,1202,1202,1202,1206,1202,1197,1197,1202,1202,1202,1202,1202,1202,1202,1202,1202,1202,1202,1206,1206,1206,1206,1202,1202,1197,1197,1197,1197,1197,1197,1197,1197,1197,1197,1197,1197,1197,1197,1197,1197,1197,1202,1202,0,0,0,0,0,0,0,0,741,739,738,738,736,734,733,731,727,725,723,723,722,720,720,720,719,719,719,720,722,723,725,728,730,731,734,734,738,739,739,741,741,744,0,0,0,0,0,1202,1193,1193,1193,1193,1189,1189,1189,1189,1185,1185,1185,998,998,995,992,992,989,989,987,987,987,984,984,981,978,978,975,973,970,970,970,970,970,967,967,964,964,962,962,962,962,962,962,959,959,959,959,956,956,956,956,956,956,954,954,954,954,954,954,954,954,954,954,954,954,954,954,954,954,956,959,962,964,964,967,967,970,973,975,981,984,987,989,989,989,989,1189,1189,1189,1185,1185,1185,1185,1185,1185,1185,1185,1181,1181,1185,1119,1119,1119,1115,1112,1112,1108,1108,1105,1105,1105,1105,1105,1105,1105,1108,1112,1112,1115,1115,1115,1185,1185,1185,1185,1185,1181,1181,1181,1181,1181,1181,1181,1185,1181,1181,1181,1181,1181,1181,1181,1181,1181,1181,1181,1181,1181,1181,1181,1181,1181,1181,1181,1181,1181,1181,1181,1181,1181,1181,1177,1177,1177,1177,1177,1177,1177,1177,1177,1177,1177,1177,1177,1177,1177,1177,1177,1177,1177,1177,1173,1173,1177,1173,1173,1173,1173,1173,1173,1173,1173,1173,1169,1169,1169,1169,1169,1169,1169,1169,1169,1169,1173,1173,1173,1173,1173,1173,1173,1173,1173,1173,1169,1169,1169,1173,1169,1169,1169,1169,1169,1169,1169,1169,1169,1169,1169,1169,1169,1169,1165,1165,1165,1165,1165,1161,1161,1161,1161,1165,1161,1161,1161,1161,1161,1161,1161,1161,1161,1165,1165,1165,1165,1165,1165,1165,1165,1165,1165,1165,1165,1165,1165,1161,1161,1161,1165,1161,1161,1161,1161,1161,1161,1161,1165,1165,1165,1161,1161,1161,1161,1161,1161,1165,1165,1161,1161,1161,1161,1157,1157,1157,1157,1157,1157,1157,1157,1161,1161,1165,1165,1161,1161,1161,1161,1161,1054,1050,1050,1047,1047,1044,1041,1041,1038,1034,1034,1031,1028,1028,1028,1028,1028,918,918,920,0,0,0,0,0,0,0,0,0,0,0,0,0,0,0,0,0,0,0,0,0,0,0,0,0,0,0,0,0,0,0,0,0,0,0
0,0,0,0,0,0,0,1214,1210,1210,1210,1210,1210,1210,1206,1206,1202,1202,1202,1202,1202,1202,1206,1206,1206,1206,1210,1210,1210,1210,1210,1206,1202,1202,1202,1202,1202,1197,1197,1197,1202,1206,1206,1206,1206,1206,1206,1206,1206,1210,1210,1210,1210,1210,1210,1210,1206,1206,1210,1210,1210,1206,1206,1206,1206,1202,1202,1206,1206,1206,1206,1206,1206,1206,1206,1206,1210,1206,1206,1206,1206,1206,1206,1206,1206,1206,1206,1206,1206,1206,1206,1206,1202,1202,1202,1202,1202,1202,1202,1202,1202,1202,1202,1202,1202,1202,1202,1206,1206,1206,1206,1206,1206,1206,1206,0,1010,1007,1007,1007,1007,1004,1001,998,998,998,998,998,1001,1001,1001,1007,1010,1010,1010,1013,1013,1016,1016,1019,1022,1206,1206,1206,1206,1202,1202,1202,1202,1202,1206,1202,1202,1202,1197,1197,1197,1197,1197,1197,1197,1197,1197,1197,1197,1197,1197,1193,1193,1193,1193,1193,1197,1197,1197,1197,1197,1197,1197,1202,1202,1202,1202,1202,1202,1202,1202,1197,1197,1197,1197,1197,1197,1197,1197,1197,1197,1197,1197,1197,1197,1197,1197,1197,1197,1202,1202,1202,1202,1202,1197,1197,1197,1197,1197,1193,1193,1197,1197,1197,1197,1197,1197,1197,1197,1197,1193,1193,1193,1193,1202,0,0,0,0,0,0,0,0,0,739,738,738,736,734,733,731,728,727,725,723,722,722,720,720,720,720,720,722,722,723,725,728,731,733,734,736,738,739,739,741,742,744,0,0,0,0,0,0,1193,1189,1189,1189,1185,1185,1189,1185,1185,1185,1185,1185,1185,995,992,992,989,989,987,987,987,987,984,981,978,978,975,975,973,970,970,970,967,967,964,964,962,962,962,959,959,959,959,959,956,956,959,956,956,956,956,956,956,954,954,951,951,951,951,951,951,951,951,951,951,951,951,951,954,956,959,959,964,964,967,967,970,975,978,981,984,987,989,989,989,989,1181,1181,1185,1185,1185,1185,1185,1181,1181,1181,1181,1177,1177,1181,1123,1119,1119,1115,1112,1112,1108,1108,1105,1105,1105,1105,1105,1105,1108,1112,1115,1115,1115,1115,1115,1181,1181,1181,1181,1181,1181,1181,1181,1181,1181,1181,1181,1181,1181,1181,1177,1177,1177,1177,1177,1177,1177,1177,1177,1177,1177,1177,1177,1177,1177,1177,1177,1177,1177,1177,1177,1177,1177,1173,1173,1173,1173,1173,1173,1173,1173,1173,1177,1177,1177,1177,1177,1177,1177,1173,1173,1173,1173,1173,1173,1173,1173,1173,1173,1169,1169,1173,1169,1169,1169,1169,1169,1169,1169,1169,1169,1169,1169,1169,1169,1169,1165,1165,1165,1169,1169,1169,1169,1169,1169,1169,1165,1165,1165,1165,1165,1165,1165,1165,1169,1169,1169,1165,1165,1165,1165,1165,1169,1165,1165,1165,1165,1161,1161,1157,1157,1157,1157,1161,1161,1161,1161,1157,1157,1161,1157,1157,1157,1157,1161,1161,1161,1161,1161,1161,1161,1157,1157,1157,1157,1161,1161,1157,1153,1153,1157,1157,1157,1157,1157,1157,1157,1157,1157,1157,1157,1157,1157,1157,1161,1157,1157,1161,1161,1157,1157,1157,1157,1153,1153,1153,1153,1153,1153,1153,1153,1157,1157,1161,1161,1161,1157,1157,1157,1161,1161,1050,1047,1047,1044,1041,1038,1038,1038,1034,1031,1031,1028,1025,1025,1028,1028,918,918,918,0,0,0,0,0,0,0,0,0,0,0,0,0,0,0,0,0,0,0,0,0,0,0,0,0,0,0,0,0,0,0,0,0,0,0
0,0,0,0,0,0,0,1210,1210,1210,1210,1210,1210,1210,1206,1202,1202,1202,1202,1202,1202,1202,1202,1202,1206,1206,1206,1206,1206,1206,1206,1202,1202,1197,1197,1197,1197,1197,1197,1197,1202,1202,1202,1202,1202,1202,1202,1202,1202,1206,1206,1206,1206,1206,1206,1206,1206,1206,1206,1206,1206,1202,1202,1202,1202,1202,1202,1202,1202,1202,1206,1206,1206,1206,1206,1206,1206,1202,1202,1202,1202,1202,1202,1202,1202,1202,1202,1202,1202,1202,1202,1202,1202,1202,1197,1197,1197,1197,1197,1197,1197,1197,1197,1197,1197,1197,1197,1197,1197,1197,1197,1202,1202,1202,1206,1206,1007,1007,1007,1007,1007,1004,1004,1001,998,998,998,998,1001,1001,1001,1007,1010,1010,1010,1013,1013,1016,1016,1019,1022,1022,1206,1197,1197,1197,1197,1197,1197,1197,1197,1197,1197,1197,1197,1197,1193,1193,1193,1193,1197,1193,1193,1193,1193,1193,1193,1193,1193,1193,1193,1193,1193,1193,1193,1193,1193,1193,1193,1193,1197,1197,1197,1197,1197,1197,1197,1193,1193,1193,1193,1193,1193,1193,1193,1193,1193,1193,1193,1193,1193,1193,1197,1197,1197,1197,1197,1197,1197,1197,1197,1193,1193,1193,1193,1193,1193,1193,1193,1193,1193,1193,1193,1193,1193,1193,1189,1189,1185,1185,1185,0,0,0,0,0,0,0,0,0,739,738,738,736,734,734,733,731,728,727,725,723,722,720,720,720,720,720,722,722,723,725,728,731,733,734,736,738,739,741,741,742,744,0,0,0,0,0,0,1189,1185,1185,1185,1185,1185,1185,1185,1185,1185,1181,1181,1181,1181,1181,1177,989,987,987,987,987,987,984,981,981,978,975,975,973,970,970,970,967,967,964,964,962,959,959,959,959,959,959,956,956,956,956,956,954,954,954,954,954,951,951,951,948,948,948,948,948,948,948,948,948,948,948,951,951,954,959,959,964,964,967,970,973,975,981,984,987,989,989,989,992,1177,1177,1177,1177,1177,1177,1177,1181,1181,1181,1177,1177,1177,1177,1177,1123,1123,1119,1115,1115,1112,1112,1108,1108,1105,1105,1105,1108,1108,1108,1112,1115,1115,1115,1115,1119,1181,1177,1177,1177,1177,1177,1177,1177,1177,1177,1177,1177,1177,1177,1177,1173,1173,1173,1173,1173,1173,1173,1173,1173,1173,1173,1173,1173,1173,1173,1173,1173,1173,1173,1173,1173,1173,1173,1169,1169,1169,1169,1169,1169,1169,1169,1169,1173,1173,1173,1173,1173,1173,1169,1169,1169,1169,1169,1169,1169,1169,1169,1169,1169,1169,1169,1169,1169,1165,1165,1165,1165,1165,1165,1165,1165,1165,1165,1165,1165,1165,1165,1165,1165,1165,1165,1165,1165,1165,1165,1165,1161,1161,1161,1161,1161,1161,1161,1161,1165,1165,1165,1165,1161,1161,1165,1165,1165,1165,1161,1161,1157,1157,1157,1157,1153,1153,1153,1157,1157,1157,1157,1153,1153,1157,1153,1153,1153,1153,1153,1157,1157,1157,1157,1157,1157,1153,1153,1153,1153,1153,1153,1153,1153,1153,1157,1153,1153,1153,1153,1157,1153,1153,1153,1153,1153,1153,1153,1153,1153,1153,1153,1153,1153,1153,1153,1153,1153,1153,1153,1153,1149,1149,1149,1149,1153,1153,1153,1153,1157,1157,1157,1157,1157,1161,1161,1047,1044,1044,1041,1041,1038,1038,1034,1031,1031,1028,1025,1025,1025,1028,918,918,918,918,0,0,0,0,0,0,0,0,0,0,0,0,0,0,0,0,0,0,0,0,0,0,0,0,0,0,0,0,0,0,0,0,0,0,0
0,0,0,0,0,0,0,1206,1202,1202,1202,1206,1202,1202,1197,1197,1197,1197,1197,1197,1197,1197,1197,1197,1202,1202,1202,1202,1202,1202,1202,1202,1197,1197,1197,1197,1197,1197,1197,1197,1197,1197,1197,1197,1197,1197,1197,1202,1202,1202,1202,1206,1202,1202,1202,1202,1202,1202,1206,1206,1206,1202,1202,1202,1197,1197,1197,1197,1197,1197,1202,1202,1202,1202,1202,1202,1202,1202,1202,1202,1202,1202,1197,1197,1202,1197,1197,1197,1197,1202,1197,1197,1197,1197,1197,1193,1193,1197,1197,1193,1193,1197,1197,1193,1193,1193,1193,1197,1197,1197,1197,1197,1197,1197,1197,1197,1010,1010,1010,1007,1007,1007,1004,1001,1001,1001,1001,1001,1001,1001,1004,1007,1007,1010,1010,1013,1016,1016,1016,1022,1022,1022,1022,1197,1193,1193,1193,1193,1193,1193,1193,1193,1193,1193,1193,1193,1193,1193,1193,1193,1193,1193,1193,1193,1189,1189,1189,1189,1189,1189,1185,1185,1189,1189,1189,1189,1189,1189,1193,1193,1193,1193,1193,1193,1193,1193,1193,1193,1193,1193,1193,1193,1193,1189,1189,1193,1193,1189,1189,1189,1189,1193,1193,1193,1193,1193,1193,1193,1193,1193,1193,1193,1193,1193,1193,1193,1193,1193,1193,1189,1189,1185,1185,1189,1189,1189,1189,1185,1181,1181,1181,0,0,0,0,0,0,0,0,0,741,739,739,738,736,734,734,733,731,728,727,725,723,722,722,722,722,722,722,722,723,727,730,731,733,734,736,738,739,741,742,742,744,0,0,0,0,0,0,1185,1185,1181,1181,1181,1181,1181,1181,1181,1181,1181,1181,1181,1181,1177,1173,989,987,987,987,987,987,984,981,981,978,978,975,973,970,970,970,967,967,967,964,962,959,959,959,959,959,956,956,956,956,956,954,954,954,954,951,951,948,948,948,946,946,946,946,946,946,946,946,946,946,948,948,951,954,959,962,964,964,967,970,973,978,981,984,987,989,992,992,1173,1173,1173,1173,1173,1177,1177,1177,1173,1173,1173,1173,1173,1173,1173,1173,1123,1123,1119,1119,1119,1115,1112,1112,1108,1108,1108,1108,1108,1108,1108,1112,1115,1119,1119,1119,1119,1177,1173,1173,1173,1173,1173,1173,1173,1173,1173,1173,1173,1173,1173,1173,1173,1173,1173,1173,1173,1173,1169,1169,1169,1169,1169,1169,1169,1169,1169,1169,1169,1169,1169,1169,1169,1169,1169,1169,1169,1169,1169,1169,1169,1169,1169,1169,1169,1169,1169,1169,1169,1169,1169,1169,1165,1165,1165,1165,1165,1165,1165,1165,1165,1165,1165,1165,1165,1165,1165,1165,1165,1165,1165,1165,1165,1165,1165,1165,1165,1161,1161,1161,1161,1161,1161,1161,1161,1161,1165,1161,1161,1157,1157,1157,1157,1157,1157,1157,1161,1161,1161,1161,1161,1161,1161,1161,1161,1161,1157,1157,1153,1153,1153,1153,1153,1153,1153,1153,1153,1153,1153,1153,1153,1153,1153,1149,1149,1149,1149,1153,1153,1153,1153,1153,1153,1149,1149,1149,1149,1149,1149,1149,1149,1149,1149,1153,1149,1149,1149,1153,1153,1153,1149,1149,1153,1149,1149,1149,1149,1149,1149,1149,1149,1153,1153,1149,1149,1149,1149,1149,1149,1149,1149,1149,1149,1149,1149,1153,1153,1153,1153,1153,1153,1157,1047,1044,1044,1044,1041,1041,1038,1038,1034,1031,1028,954,954,954,951,951,918,918,918,918,0,0,0,0,0,0,0,0,0,0,0,0,0,0,0,0,0,0,0,0,0,0,0,0,0,0,0,0,0,0,0,0,0,0,0
0,0,0,0,0,0,0,1202,1197,1197,1202,1202,1197,1197,1197,1197,1193,1193,1193,1193,1193,1193,1193,1197,1197,1197,1197,1197,1197,1197,1197,1197,1197,1197,1197,1197,1197,1197,1197,1193,1193,1193,1193,1193,1193,1193,1197,1197,1197,1197,1202,1202,1202,1202,1202,1202,1202,1202,1202,1202,1202,1197,1197,1197,1197,1197,1197,1197,1197,1197,1197,1197,1197,1197,1197,1197,1197,1197,1197,1197,1197,1197,1197,1197,1197,1197,1197,1197,1197,1197,1197,1197,1197,1193,1193,1193,1193,1193,1193,1193,1193,1193,1193,1193,1193,1193,1193,1193,1193,1193,1193,1193,1193,1189,1189,1189,1010,1010,1010,1007,1007,1007,1007,1004,1001,1001,1001,1001,1001,1001,1004,1007,1007,1010,1010,1013,1016,1019,1019,1019,1022,1022,1022,1185,1185,1185,1189,1185,1185,1185,1189,1189,1193,1193,1193,1193,1193,1193,1193,1189,1189,1189,1189,1189,1189,1189,1185,1185,1185,1185,1185,1185,1185,1185,1185,1189,1185,1185,1185,1185,1189,1189,1185,1185,1185,1185,1189,1189,1189,1189,1189,1189,1189,1189,1189,1189,1189,1189,1185,1185,1185,1189,1189,1189,1189,1189,1189,1189,1189,1189,1185,1185,1189,1189,1189,1189,1189,1189,1185,1185,1181,1181,1181,1181,1185,1185,1185,1181,1181,1181,1181,0,0,0,0,0,0,0,0,0,741,741,739,738,736,734,734,733,733,730,728,727,725,723,723,722,722,722,722,723,725,728,731,733,734,736,736,738,739,741,742,742,744,0,0,0,0,0,0,1181,1181,1181,1181,1181,1181,1181,1181,1181,1177,1177,1177,1177,1177,1177,1169,989,987,987,987,987,987,984,981,981,978,978,975,975,973,970,970,970,967,967,964,962,959,959,959,959,959,956,954,954,954,954,951,948,948,948,948,948,946,946,946,946,943,943,943,943,943,943,943,946,946,948,948,951,954,959,962,964,967,967,970,973,975,978,981,987,989,992,1165,1169,1173,1173,1173,1173,1173,1173,1173,1169,1169,1169,1169,1169,1169,1169,1173,1123,1123,1123,1119,1119,1115,1115,1112,1108,1108,1108,1108,1108,1108,1112,1115,1115,1119,1123,1123,1126,1169,1169,1169,1169,1169,1169,1169,1169,1169,1169,1173,1173,1169,1169,1169,1169,1169,1169,1169,1169,1169,1169,1169,1169,1169,1165,1165,1165,1165,1165,1165,1165,1165,1165,1165,1165,1165,1165,1165,1165,1165,1165,1165,1165,1165,1165,1165,1169,1169,1169,1165,1165,1165,1165,1165,1165,1165,1165,1161,1161,1161,1161,1161,1161,1161,1161,1161,1161,1161,1161,1161,1161,1161,1161,1161,1161,1161,1161,1161,1157,1157,1157,1157,1157,1157,1157,1157,1157,1157,1157,1157,1153,1153,1157,1153,1153,1153,1153,1153,1157,1157,1157,1157,1157,1157,1157,1157,1157,1157,1153,1153,1153,1153,1153,1153,1153,1153,1153,1153,1153,1153,1153,1153,1153,1149,1149,1149,1149,1149,1149,1149,1153,1153,1149,1149,1149,1149,1149,1149,1145,1145,1145,1145,1145,1145,1145,1145,1145,1149,1149,1149,1149,1149,1149,1149,1149,1149,1145,1145,1145,1145,1145,1145,1145,1149,1149,1149,1149,1149,1149,1145,1145,1145,1145,1145,1145,1145,1145,1145,1149,1149,1153,1153,1153,1157,1047,1044,1041,1041,1041,1038,1038,1034,1031,1031,956,954,954,951,951,948,918,918,918,918,0,0,0,0,0,0,0,0,0,0,0,0,0,0,0,0,0,0,0,0,0,0,0,0,0,0,0,0,0,0,0,0,0,0,0
0,0,0,0,0,0,0,1197,1197,1197,1197,1197,1197,1197,1193,1193,1189,1189,1189,1189,1193,1193,1193,1193,1193,1193,1193,1193,1193,1193,1193,1193,1197,1193,1193,1193,1193,1193,1193,1193,1193,1189,1189,1193,1193,1193,1193,1193,1193,1193,1197,1197,1197,1197,1197,1197,1197,1197,1197,1197,1197,1197,1197,1193,1193,1193,1193,1193,1193,1193,1193,1193,1197,1197,1197,1197,1197,1193,1193,1193,1193,1193,1193,1193,1193,1193,1193,1193,1193,1193,1193,1193,1193,1193,1189,1189,1193,1193,1189,1189,1189,1189,1189,1189,1189,1189,1189,1189,1189,1189,1189,1189,1189,1189,1189,1189,1022,1013,1013,1010,1010,1010,1007,1004,1001,1001,1001,1001,1001,1001,1004,1007,1007,1010,1010,1013,1016,1019,1019,1019,1019,1019,1019,1185,1185,1185,1185,1185,1185,1185,1185,1189,1189,1189,1189,1189,1189,1189,1189,1189,1189,1189,1185,1185,1185,1185,1185,1185,1185,1185,1185,1185,1181,1181,1181,1185,1181,1181,1181,1181,1181,1185,1185,1185,1185,1185,1185,1185,1185,1185,1185,1185,1185,1185,1185,1185,1185,1185,1185,1185,1185,1185,1185,1185,1185,1185,1185,1185,1185,1185,1181,1181,1185,1185,1185,1185,1181,1181,1181,1181,1181,1181,1181,1181,1181,1181,1181,1181,1181,1177,1177,1177,0,0,0,0,0,0,0,0,741,741,741,739,738,736,734,733,733,731,728,727,725,723,723,723,723,723,723,725,727,728,731,733,734,736,736,738,739,741,742,742,744,0,0,0,0,0,1177,1177,1177,1181,1181,1177,1177,1177,1177,1177,1177,1177,1177,1173,1173,1173,1169,1169,987,987,987,987,987,984,981,981,981,978,978,975,975,973,970,970,967,967,964,962,962,959,959,959,959,956,954,951,951,948,948,946,946,946,943,943,943,943,943,940,940,940,940,940,940,940,943,943,943,946,948,951,954,959,962,964,967,970,970,973,973,978,981,987,1165,1165,1165,1165,1169,1169,1169,1169,1169,1169,1169,1169,1169,1165,1165,1165,1165,1165,1165,1126,1123,1123,1119,1119,1119,1115,1115,1112,1112,1112,1112,1112,1112,1112,1115,1119,1119,1123,1126,1130,1165,1165,1169,1165,1165,1165,1165,1165,1165,1169,1169,1169,1169,1169,1169,1165,1165,1165,1165,1165,1165,1165,1165,1165,1165,1165,1165,1165,1165,1165,1161,1161,1161,1161,1161,1157,1157,1161,1161,1165,1165,1165,1165,1165,1165,1165,1165,1165,1165,1165,1165,1165,1165,1165,1165,1161,1161,1161,1161,1157,1157,1157,1157,1157,1157,1157,1161,1157,1157,1157,1157,1161,1157,1157,1157,1157,1157,1157,1157,1153,1153,1153,1157,1157,1157,1157,1153,1153,1153,1153,1153,1153,1153,1153,1149,1149,1153,1153,1153,1153,1153,1153,1153,1153,1153,1153,1153,1153,1153,1153,1153,1149,1149,1149,1149,1149,1149,1149,1149,1149,1149,1149,1149,1149,1149,1149,1149,1145,1145,1149,1149,1149,1149,1149,1145,1145,1145,1145,1145,1145,1141,1141,1141,1141,1141,1141,1141,1141,1141,1145,1145,1145,1145,1145,1145,1149,1145,1145,1141,1141,1141,1141,1141,1141,1145,1145,1149,1149,1145,1145,1145,1145,1141,1141,1141,1141,1141,1141,1141,1145,1149,1149,1149,1149,1149,1149,1041,1041,1041,1041,1038,1038,959,959,959,956,956,954,951,951,918,918,918,918,918,0,0,0,0,0,0,0,0,0,0,0,0,0,0,0,0,0,0,0,0,0,0,0,0,0,0,0,0,0,0,0,0,0,0,0
0,0,0,0,0,0,0,1193,1193,1197,1197,1193,1193,1193,1189,1189,1185,1185,1185,1185,1189,1189,1193,1189,1189,1193,1193,1189,1189,1189,1189,1189,1193,1189,1189,1189,1189,1189,1189,1189,1189,1189,1189,1189,1189,1189,1189,1189,1189,1193,1193,1193,1193,1193,1193,1193,1193,1193,1193,1189,1189,1189,1189,1193,1193,1193,1193,1193,1193,1193,1193,1193,1193,1193,1193,1193,1193,1189,1189,1189,1189,1189,1189,1189,1189,1189,1193,1189,1189,1189,1189,1189,1189,1189,1189,1189,1189,1189,1189,1189,1189,1185,1185,1185,1185,1185,1185,1185,1185,1185,1185,1185,1185,1185,1185,1185,1022,1022,1013,1010,1010,1010,1010,1004,1004,1001,1001,1001,1001,1001,1004,1007,1007,1010,1013,1013,1019,1019,1019,1019,1019,1019,1019,1181,1181,1181,1185,1181,1181,1181,1181,1185,1185,1185,1185,1185,1185,1185,1185,1185,1185,1185,1185,1185,1185,1181,1181,1181,1181,1181,1181,1181,1181,1181,1181,1181,1181,1181,1181,1181,1181,1181,1181,1181,1181,1181,1181,1181,1181,1181,1181,1181,1181,1181,1181,1185,1185,1181,1181,1181,1181,1181,1181,1181,1181,1181,1181,1181,1181,1181,1181,1181,1181,1181,1181,1181,1181,1181,1181,1177,1177,1177,1177,1177,1177,1177,1177,1177,1177,1177,1177,1177,0,0,0,0,0,0,0,0,742,742,741,739,739,736,736,734,734,733,730,728,727,725,725,725,725,725,725,725,727,728,731,733,734,736,738,739,741,742,742,742,0,0,0,0,0,0,1177,1177,1177,1177,1177,1177,1177,1177,1177,1177,1173,1173,1173,1173,1169,1169,1165,1165,1169,1165,1165,989,987,987,984,981,981,978,978,975,975,973,973,970,967,967,964,964,962,959,959,959,959,956,954,951,948,948,946,946,946,943,940,940,940,940,940,940,938,938,938,938,938,938,940,940,943,946,948,951,956,959,964,964,967,970,970,970,973,978,1161,1161,1161,1161,1161,1161,1165,1165,1165,1165,1165,1165,1165,1165,1165,1165,1165,1165,1161,1161,1161,1126,1126,1123,1123,1119,1119,1119,1115,1112,1112,1112,1112,1112,1112,1115,1115,1119,1123,1123,1130,1138,1161,1165,1165,1165,1165,1165,1161,1161,1161,1165,1165,1165,1165,1165,1165,1165,1161,1161,1161,1161,1165,1161,1161,1161,1161,1161,1161,1161,1161,1161,1161,1157,1157,1157,1157,1157,1157,1157,1153,1153,1157,1157,1161,1161,1161,1161,1161,1161,1161,1161,1161,1161,1161,1161,1161,1157,1157,1157,1157,1153,1153,1153,1153,1153,1153,1157,1157,1153,1153,1153,1153,1153,1153,1153,1153,1153,1153,1153,1153,1153,1153,1153,1153,1153,1153,1153,1153,1153,1149,1149,1149,1149,1149,1149,1149,1149,1149,1149,1149,1149,1149,1149,1149,1149,1149,1149,1149,1149,1149,1149,1149,1149,1149,1149,1149,1149,1149,1149,1149,1149,1149,1149,1149,1145,1145,1145,1145,1145,1145,1145,1145,1145,1145,1145,1145,1145,1145,1145,1141,1141,1141,1141,1141,1141,1138,1138,1138,1138,1138,1138,1141,1138,1138,1141,1145,1145,1145,1141,1141,1141,1141,1141,1141,1141,1141,1141,1145,1145,1145,1145,1141,1138,1138,1138,1141,1141,1141,1138,1138,1145,1145,1145,1145,1149,1149,1149,1041,1041,1041,1038,964,962,959,959,959,956,956,956,956,951,918,918,918,918,918,0,0,0,0,0,0,0,0,0,0,0,0,0,0,0,0,0,0,0,0,0,0,0,0,0,0,0,0,0,0,0,0,0,0,0
0,0,0,0,0,0,0,1185,1185,1193,1193,1193,1189,1189,1189,1185,1185,1185,1181,1181,1185,1185,1185,1185,1185,1189,1189,1189,1189,1189,1189,1189,1189,1189,1189,1189,1185,1185,1185,1185,1185,1185,1185,1185,1185,1185,1185,1185,1185,1189,1189,1189,1189,1189,1189,1189,1185,1185,1189,1185,1185,1185,1185,1189,1189,1189,1189,1189,1193,1193,1189,1189,1189,1189,1189,1189,1189,1185,1185,1185,1185,1185,1185,1185,1185,1185,1185,1185,1185,1185,1185,1185,1185,1185,1185,1185,1185,1185,1185,1185,1185,1185,1185,1185,1181,1181,1181,1181,1181,1181,1181,1181,1181,1177,1177,1177,1022,1022,1016,1013,1013,1010,1010,1007,1004,1004,1004,1004,1004,1004,1004,1007,1010,1010,1013,1016,1019,1019,1019,1019,1019,1019,1019,1181,1181,1181,1181,1181,1181,1181,1181,1181,1181,1181,1181,1181,1181,1181,1181,1181,1181,1181,1181,1181,1181,1181,1177,1177,1177,1177,1177,1177,1177,1177,1177,1177,1177,1177,1177,1177,1177,1177,1177,1177,1181,1181,1181,1181,1181,1181,1181,1177,1177,1177,1177,1177,1177,1177,1177,1177,1177,1177,1177,1177,1177,1177,1177,1177,1177,1177,1177,1177,1177,1177,1177,1177,1177,1177,1177,1177,1177,1177,1177,1173,1173,1177,1177,1173,1173,1173,1173,1177,0,0,0,0,0,0,0,0,746,744,741,741,739,738,738,736,734,733,731,728,728,727,727,727,727,725,725,727,727,730,731,733,734,736,738,739,741,742,744,744,746,0,0,0,0,0,1177,1177,1177,1177,1177,1173,1173,1169,1169,1169,1169,1169,1169,1169,1165,1165,1165,1165,1165,1165,1165,1165,1165,1165,987,984,981,981,978,975,975,973,973,970,970,967,967,964,964,962,959,959,956,954,954,948,948,948,946,943,943,940,938,938,938,938,938,938,938,938,938,938,938,938,938,940,940,946,948,954,956,959,964,967,967,970,970,970,973,1161,1161,1161,1161,1161,1161,1161,1165,1165,1165,1165,1165,1165,1165,1161,1161,1161,1161,1161,1161,1161,1161,1134,1126,1123,1123,1123,1119,1119,1115,1115,1115,1115,1115,1115,1115,1115,1119,1119,1123,1126,1134,1141,1157,1161,1161,1161,1161,1161,1161,1157,1157,1161,1161,1161,1157,1157,1157,1157,1157,1157,1157,1157,1157,1161,1157,1157,1157,1161,1161,1157,1157,1157,1157,1153,1153,1153,1153,1153,1153,1153,1153,1153,1153,1153,1153,1153,1153,1157,1157,1157,1157,1157,1157,1157,1157,1157,1157,1153,1153,1153,1153,1153,1153,1153,1153,1153,1153,1153,1153,1153,1153,1153,1153,1153,1153,1153,1153,1153,1153,1149,1149,1149,1149,1149,1149,1149,1149,1149,1149,1149,1149,1149,1149,1149,1149,1145,1145,1145,1145,1145,1145,1145,1145,1145,1149,1149,1149,1145,1145,1145,1145,1145,1145,1145,1145,1145,1145,1145,1145,1145,1145,1145,1145,1145,1145,1145,1145,1145,1145,1141,1141,1141,1141,1141,1141,1141,1141,1141,1141,1141,1141,1141,1141,1138,1138,1138,1138,1138,1138,1138,1138,1138,1138,1138,1138,1138,1138,1138,1138,1141,1138,1138,1138,1138,1138,1138,1138,1138,1138,1138,1138,1138,1138,1138,1138,1138,1138,1138,1138,1138,1138,1138,1141,1141,1145,1149,1145,1145,1041,1041,1041,967,964,962,962,959,959,956,956,956,956,918,918,918,918,918,918,0,0,0,0,0,0,0,0,0,0,0,0,0,0,0,0,0,0,0,0,0,0,0,0,0,0,0,0,0,0,0,0,0,0,0
0,0,0,0,0,0,0,1181,1181,1189,1193,1189,1185,1185,1185,1185,1181,1181,1181,1181,1181,1181,1181,1181,1181,1185,1185,1185,1185,1185,1185,1185,1185,1185,1185,1185,1185,1185,1181,1181,1181,1181,1181,1181,1181,1181,1181,1185,1185,1185,1185,1185,1185,1185,1185,1185,1181,1181,1181,1181,1181,1181,1181,1185,1185,1185,1185,1189,1189,1189,1185,1185,1189,1189,1189,1185,1185,1185,1185,1185,1181,1181,1181,1181,1181,1181,1185,1185,1181,1181,1181,1181,1181,1181,1181,1181,1181,1181,1181,1181,1181,1181,1181,1181,1181,1181,1181,1181,1181,1181,1177,1177,1177,1173,1173,1031,1031,1025,1022,1016,1016,1013,1010,1007,1004,1004,1004,1004,1004,1004,1004,1007,1010,1013,1013,1016,1019,1019,1019,1019,1019,1019,1019,1177,1177,1177,1177,1177,1177,1177,1177,1177,1181,1181,1177,1177,1177,1177,1177,1177,1177,1177,1177,1177,1177,1177,1177,1177,1177,1177,1177,1177,1177,1177,1173,1173,1177,1173,1173,1173,1173,1173,1173,1177,1177,1177,1177,1177,1177,1177,1177,1177,1173,1173,1173,1177,1177,1173,1173,1173,1173,1173,1173,1173,1173,1173,1177,1177,1177,1173,1173,1169,1169,1173,1173,1173,1173,1173,1177,1177,1177,1173,1173,1173,1173,1169,1169,1169,1169,1169,1169,1173,0,0,0,0,0,0,0,0,746,744,742,741,741,739,738,736,734,733,731,730,728,727,727,727,727,727,727,727,728,730,731,733,734,736,738,739,741,742,744,744,746,0,0,0,0,0,0,1177,1177,1173,1173,1169,1169,1169,1169,1169,1165,1165,1165,1165,1165,1165,1161,1161,1165,1161,1161,1161,1161,1161,1161,1161,1161,1161,978,975,975,975,973,970,970,967,967,964,964,962,959,959,956,954,951,948,946,946,943,940,938,938,935,935,935,935,935,935,935,935,935,935,938,938,938,938,940,940,948,954,956,962,964,964,967,967,970,970,973,1153,1153,1157,1157,1157,1157,1157,1161,1165,1165,1161,1161,1161,1161,1161,1161,1161,1161,1161,1157,1157,1153,1141,1134,1130,1123,1123,1119,1119,1119,1115,1115,1115,1115,1115,1115,1115,1119,1123,1123,1126,1138,1145,1149,1153,1157,1157,1157,1157,1157,1157,1157,1157,1157,1157,1157,1153,1153,1153,1153,1153,1153,1153,1157,1157,1153,1153,1157,1157,1157,1153,1153,1153,1153,1153,1153,1153,1153,1153,1153,1153,1153,1153,1153,1149,1149,1149,1153,1153,1153,1153,1153,1153,1153,1153,1153,1153,1153,1153,1149,1149,1149,1149,1149,1149,1149,1149,1149,1149,1149,1149,1149,1149,1149,1149,1149,1149,1149,1149,1149,1145,1145,1145,1145,1145,1145,1145,1145,1145,1145,1145,1145,1145,1145,1145,1145,1145,1141,1141,1141,1141,1141,1141,1141,1141,1141,1141,1145,1141,1141,1141,1141,1145,1145,1141,1141,1141,1141,1141,1141,1141,1141,1141,1141,1141,1145,1141,1141,1141,1141,1138,1138,1138,1138,1138,1138,1138,1138,1138,1138,1138,1138,1138,1138,1138,1134,1134,1134,1134,1134,1134,1134,1134,1134,1134,1134,1134,1134,1138,1138,1138,1138,1138,1138,1138,1134,1134,1138,1138,1138,1138,1138,1138,1138,1134,1134,1134,1134,1134,1134,1134,1134,1138,1138,1141,1141,1145,1145,1145,967,967,967,967,967,964,964,962,959,959,959,959,918,918,918,918,918,918,918,0,0,0,0,0,0,0,0,0,0,0,0,0,0,0,0,0,0,0,0,0,0,0,0,0,0,0,0,0,0,0,0,0,0,0
0,0,0,0,0,0,0,1181,1181,1181,1189,1185,1181,1181,1185,1185,1181,1181,1181,1181,1181,1181,1177,1177,1177,1181,1181,1181,1181,1181,1181,1181,1181,1181,1181,1181,1181,1181,1181,1181,1181,1181,1181,1181,1181,1181,1181,1181,1181,1181,1181,1181,1181,1181,1181,1181,1181,1181,1177,1177,1177,1177,1177,1177,1177,1177,1181,1181,1181,1181,1181,1181,1181,1181,1185,1181,1181,1181,1181,1181,1181,1181,1181,1181,1181,1181,1181,1181,1181,1181,1181,1181,1181,1181,1181,1181,1181,1181,1181,1177,1177,1177,1177,1177,1177,1177,1177,1177,1177,1177,1177,1177,1173,1173,1034,1031,1031,1028,1022,1022,1019,1016,1016,1010,1007,1004,1004,1004,1004,1004,1004,1007,1010,1013,1013,1016,1019,1022,1022,1022,1019,1019,1019,1173,1173,1173,1177,1177,1177,1177,1177,1177,1177,1177,1177,1177,1177,1173,1173,1173,1173,1173,1173,1177,1177,1177,1177,1177,1177,1173,1173,1173,1173,1173,1169,1169,1173,1173,1173,1169,1169,1173,1173,1173,1173,1173,1173,1173,1173,1173,1173,1173,1173,1173,1173,1173,1169,1169,1169,1169,1169,1169,1169,1169,1169,1169,1173,1173,1173,1169,1169,1169,1169,1169,1169,1169,1169,1173,1173,1173,1173,1173,1169,1169,1169,1169,1169,1165,1165,1165,1165,1165,0,0,0,0,0,0,0,0,746,744,742,741,741,739,738,736,736,733,733,731,730,728,728,727,727,727,727,728,728,730,733,733,734,736,738,741,741,744,746,746,746,0,0,0,0,0,0,1173,1173,1173,1169,1169,1165,1165,1165,1165,1165,1165,1165,1161,1161,1161,1161,1161,1161,1161,1161,1161,1161,1161,1161,1161,1161,1157,1157,975,975,973,973,970,970,967,967,967,964,964,962,959,956,956,951,948,946,943,935,933,933,933,935,935,935,935,935,935,935,935,935,935,935,935,938,938,940,940,948,956,959,962,964,964,967,967,970,970,1153,1153,1153,1157,1157,1157,1157,1157,1157,1161,1161,1157,1157,1157,1157,1157,1157,1153,1153,1157,1157,1153,1153,1141,1134,1134,1130,1123,1123,1119,1119,1119,1119,1119,1119,1119,1119,1119,1119,1123,1126,1130,1141,1145,1149,1153,1153,1153,1153,1153,1153,1153,1153,1153,1153,1153,1153,1153,1153,1153,1153,1153,1153,1153,1153,1153,1153,1153,1153,1153,1153,1153,1153,1153,1153,1153,1149,1149,1149,1149,1149,1149,1149,1149,1149,1145,1145,1149,1149,1149,1149,1149,1149,1149,1149,1149,1149,1149,1149,1149,1149,1149,1149,1149,1149,1149,1149,1145,1145,1149,1149,1149,1145,1145,1145,1145,1145,1145,1145,1145,1145,1141,1141,1141,1141,1141,1141,1141,1141,1141,1141,1141,1141,1141,1141,1141,1141,1141,1141,1141,1141,1141,1141,1141,1141,1138,1138,1138,1138,1138,1138,1138,1141,1141,1141,1138,1138,1138,1138,1141,1141,1138,1138,1138,1138,1141,1141,1138,1138,1141,1138,1138,1138,1138,1138,1138,1134,1134,1134,1134,1138,1138,1138,1134,1134,1134,1134,1134,1130,1130,1130,1130,1130,1134,1134,1134,1134,1134,1134,1134,1134,1134,1134,1134,1134,1134,1134,1134,1134,1134,1134,1134,1134,1134,1134,1134,1134,1134,1134,1134,1134,1134,1134,1134,1134,1138,1138,1145,1149,962,962,964,967,967,967,964,964,962,962,959,959,923,923,918,918,918,918,918,918,0,0,0,0,0,0,0,0,0,0,0,0,0,0,0,0,0,0,0,0,0,0,0,0,0,0,0,0,0,0,0,0,0,0,0
0,0,0,0,0,0,0,1181,1181,1181,1185,1181,1181,1181,1181,1181,1181,1181,1177,1177,1177,1177,1177,1177,1177,1177,1177,1177,1181,1177,1177,1177,1177,1177,1177,1177,1177,1177,1177,1177,1177,1177,1177,1177,1177,1177,1177,1181,1177,1177,1177,1177,1177,1177,1177,1177,1177,1177,1177,1177,1177,1177,1177,1177,1177,1177,1177,1177,1177,1177,1177,1177,1177,1177,1181,1181,1181,1181,1181,1181,1177,1177,1177,1177,1177,1177,1181,1177,1177,1181,1181,1177,1177,1177,1177,1177,1177,1177,1177,1177,1177,1177,1177,1177,1177,1177,1173,1173,1177,1173,1169,1169,1169,1169,1034,1034,1031,1028,1025,1022,1022,1019,1016,1010,1007,1004,1004,1004,1007,1007,1007,1010,1010,1013,1013,1016,1019,1022,1022,1022,1022,1022,1022,1165,1169,1173,1173,1173,1173,1173,1173,1177,1177,1173,1173,1173,1169,1169,1169,1169,1169,1169,1173,1173,1173,1173,1173,1173,1173,1169,1169,1169,1169,1169,1169,1169,1169,1169,1169,1165,1165,1169,1169,1169,1169,1169,1169,1169,1169,1169,1169,1169,1169,1169,1169,1169,1165,1165,1165,1165,1165,1165,1165,1165,1165,1165,1165,1165,1165,1165,1169,1165,1165,1165,1165,1169,1169,1169,1169,1169,1169,1169,1169,1165,1165,1165,1165,1165,1165,1165,1165,1165,0,0,0,0,0,0,0,0,0,744,742,742,741,741,739,738,736,734,733,733,731,730,728,728,728,728,728,728,730,731,733,734,734,736,738,741,742,746,746,747,747,0,0,0,0,0,0,1169,1165,1165,1165,1165,1161,1161,1161,1161,1161,1161,1161,1157,1157,1157,1157,1157,1157,1157,1157,1157,1157,1157,1157,1157,1157,1157,1157,1157,978,973,970,970,967,967,967,967,964,964,962,959,959,956,954,951,946,943,930,928,928,928,928,928,928,933,933,933,933,935,935,935,935,935,938,938,940,943,951,956,959,962,964,964,967,967,970,1153,1153,1153,1153,1153,1153,1153,1153,1153,1153,1153,1157,1153,1153,1153,1153,1153,1153,1153,1153,1153,1153,1149,1149,1145,1138,1138,1134,1130,1123,1123,1119,1119,1119,1119,1119,1119,1119,1119,1123,1123,1126,1130,1141,1145,1149,1149,1153,1153,1153,1153,1153,1149,1149,1149,1149,1149,1149,1149,1149,1149,1149,1153,1149,1149,1153,1153,1153,1153,1153,1153,1153,1149,1149,1149,1149,1149,1149,1149,1149,1149,1149,1149,1145,1145,1145,1141,1141,1141,1145,1145,1145,1145,1145,1145,1145,1141,1141,1141,1145,1145,1145,1145,1145,1145,1145,1145,1145,1145,1145,1145,1145,1145,1145,1145,1141,1141,1145,1145,1141,1141,1141,1141,1141,1141,1138,1138,1138,1138,1138,1138,1138,1138,1138,1138,1138,1138,1138,1138,1138,1138,1138,1138,1138,1138,1138,1138,1138,1138,1138,1134,1134,1134,1134,1134,1138,1138,1138,1138,1138,1138,1138,1138,1138,1134,1134,1138,1138,1138,1138,1138,1138,1134,1134,1134,1134,1134,1134,1134,1134,1134,1134,1134,1134,1134,1134,1130,1130,1130,1126,1126,1126,1126,1126,1130,1130,1130,1130,1130,1130,1126,1126,1126,1126,1130,1130,1130,1130,1130,1130,1134,1130,1130,1134,1134,1134,1134,1130,1130,1130,1130,1130,1130,1126,1126,1126,1134,1134,1141,962,962,962,964,967,967,967,964,964,964,962,962,962,920,920,920,920,918,918,918,918,0,0,0,0,0,0,0,0,0,0,0,0,0,0,0,0,0,0,0,0,0,0,0,0,0,0,0,0,0,0,0,0,0,0,0
0,0,0,0,0,0,0,1181,1181,1181,1185,1181,1181,1181,1181,1181,1177,1177,1177,1177,1177,1173,1173,1173,1173,1173,1173,1173,1177,1177,1177,1177,1177,1177,1177,1177,1177,1177,1177,1177,1177,1177,1177,1173,1173,1173,1173,1177,1177,1173,1173,1173,1173,1173,1173,1173,1173,1173,1173,1173,1177,1177,1177,1177,1177,1177,1177,1177,1177,1177,1173,1173,1169,1169,1177,1177,1177,1177,1177,1177,1177,1177,1177,1177,1177,1177,1177,1177,1177,1177,1177,1177,1177,1177,1177,1177,1173,1173,1173,1173,1173,1173,1173,1173,1173,1173,1173,1173,1169,1169,1169,1169,1169,1165,1034,1034,1031,1028,1025,1022,1022,1022,1019,1016,1010,1007,1007,1007,1007,1007,1010,1010,1013,1013,1016,1016,1019,1022,1022,1022,1022,1022,1161,1161,1165,1169,1169,1169,1169,1169,1169,1169,1169,1169,1169,1169,1169,1169,1169,1165,1165,1165,1169,1169,1169,1169,1169,1169,1165,1165,1165,1165,1165,1165,1165,1165,1165,1165,1165,1165,1165,1165,1165,1165,1165,1165,1165,1165,1165,1165,1165,1165,1165,1165,1165,1165,1165,1165,1165,1165,1165,1165,1165,1161,1161,1165,1165,1165,1165,1165,1165,1165,1165,1165,1165,1165,1165,1165,1169,1169,1165,1165,1165,1165,1165,1161,1161,1161,1161,1161,1161,1161,0,0,0,0,0,0,0,0,0,746,744,742,742,741,741,739,738,734,734,733,733,731,730,728,728,728,728,730,730,731,733,734,734,736,739,741,744,746,747,747,749,750,750,0,0,0,0,1169,1165,1165,1161,1161,1161,1157,1157,1157,1157,1157,1157,1157,1157,1157,1157,1157,1157,1153,1153,1153,1153,1153,1153,1153,1153,1149,1149,1153,978,973,970,970,967,967,967,967,967,964,964,959,959,956,954,913,913,918,920,920,920,923,923,925,925,925,925,928,928,933,933,933,935,935,938,938,940,943,954,956,959,962,964,964,964,967,1149,1149,1149,1149,1149,1149,1153,1153,1153,1153,1153,1153,1153,1153,1149,1149,1149,1149,1149,1149,1149,1153,1153,1149,1145,1145,1141,1138,1134,1134,1126,1123,1123,1123,1123,1119,1119,1123,1123,1123,1123,1123,1126,1134,1138,1141,1145,1149,1149,1149,1149,1149,1149,1149,1149,1149,1149,1149,1149,1149,1149,1149,1149,1149,1149,1149,1149,1149,1149,1149,1149,1149,1149,1149,1149,1149,1149,1149,1145,1145,1145,1145,1145,1145,1141,1141,1141,1141,1141,1141,1141,1141,1141,1141,1141,1141,1141,1141,1138,1138,1138,1138,1138,1141,1141,1141,1141,1141,1141,1141,1141,1141,1141,1141,1141,1141,1141,1141,1141,1141,1141,1141,1138,1138,1138,1138,1138,1138,1134,1134,1138,1138,1134,1134,1134,1134,1134,1134,1134,1134,1134,1134,1134,1134,1134,1138,1138,1134,1134,1134,1134,1134,1134,1134,1134,1134,1134,1130,1130,1134,1134,1134,1134,1134,1134,1130,1130,1130,1134,1134,1134,1134,1134,1134,1134,1130,1130,1130,1130,1130,1130,1130,1130,1130,1130,1130,1130,1130,1130,1126,1126,1126,1126,1126,1126,1126,1130,1126,1126,1126,1126,1123,1123,1123,1123,1126,1126,1126,1126,1126,1126,1126,1126,1126,1130,1130,1130,1130,1126,1126,1130,1126,1126,1126,1123,1123,1123,1126,1130,1138,962,962,962,964,967,967,967,964,964,964,964,964,925,925,920,920,920,918,918,918,918,0,0,0,0,0,0,0,0,0,0,0,0,0,0,0,0,0,0,0,0,0,0,0,0,0,0,0,0,0,0,0,0,0,0,0
0,0,0,0,0,0,0,1177,1177,1177,1181,1177,1177,1177,1177,1177,1177,1177,1173,1173,1173,1173,1173,1173,1173,1169,1169,1169,1173,1173,1173,1173,1173,1173,1173,1173,1173,1173,1173,1173,1173,1173,1173,1173,1173,1173,1173,1173,1169,1169,1169,1169,1169,1169,1169,1169,1169,1169,1169,1169,1173,1173,1173,1173,1173,1173,1173,1173,1173,1169,1169,1169,1169,1169,1169,1169,1169,1169,1173,1173,1173,1173,1173,1173,1173,1173,1173,1173,1173,1173,1173,1173,1173,1173,1173,1173,1173,1169,1169,1173,1169,1169,1173,1173,1169,1169,1169,1169,1169,1169,1165,1165,1165,1165,1034,1034,1031,1028,1025,1025,1022,1022,1019,1019,1010,1010,1010,1010,1010,1010,1010,1010,1013,1016,1016,1019,1022,1022,1022,1022,1022,1022,1161,1161,1161,1161,1165,1165,1165,1165,1169,1165,1165,1165,1165,1165,1165,1165,1165,1165,1165,1165,1165,1165,1165,1165,1165,1165,1165,1165,1165,1165,1165,1165,1161,1161,1161,1161,1161,1161,1161,1161,1161,1161,1161,1161,1161,1161,1161,1161,1165,1161,1161,1161,1161,1161,1161,1161,1161,1161,1161,1161,1161,1161,1161,1161,1161,1161,1161,1161,1161,1161,1161,1161,1161,1161,1161,1165,1165,1165,1165,1165,1161,1161,1161,1161,1161,1157,1157,1157,1157,1157,0,0,0,0,0,0,0,0,0,746,746,744,742,742,741,739,736,736,734,733,733,731,731,730,730,728,728,730,730,733,734,734,736,739,741,742,744,747,749,749,750,750,750,0,0,0,0,0,0,1161,1157,1157,1157,1157,1157,1157,1153,1153,1153,1153,1153,1153,1153,1153,1153,1153,1153,1153,1149,1149,1149,1149,1149,1149,1149,1149,1149,1149,973,970,970,967,967,967,967,967,964,959,959,956,913,913,913,918,918,918,918,918,918,920,923,925,925,925,928,930,933,933,935,935,938,938,940,946,956,959,962,964,964,964,964,1149,1149,1149,1149,1149,1149,1149,1149,1149,1149,1149,1149,1149,1149,1149,1149,1145,1145,1145,1145,1145,1145,1149,1149,1145,1145,1141,1141,1138,1138,1134,1126,1123,1123,1123,1123,1123,1123,1123,1123,1123,1126,1130,1130,1134,1138,1141,1141,1141,1145,1149,1149,1149,1149,1149,1149,1149,1149,1145,1145,1145,1145,1145,1145,1145,1145,1145,1145,1145,1145,1145,1145,1145,1145,1145,1145,1145,1145,1145,1141,1141,1141,1141,1141,1141,1141,1141,1141,1138,1138,1138,1138,1138,1138,1138,1138,1138,1138,1138,1138,1138,1138,1138,1138,1138,1138,1138,1138,1138,1138,1138,1138,1138,1138,1138,1138,1138,1138,1138,1138,1138,1138,1138,1134,1134,1134,1134,1134,1134,1134,1134,1134,1134,1134,1134,1134,1134,1134,1134,1134,1134,1134,1134,1134,1134,1134,1134,1134,1134,1134,1134,1130,1130,1126,1126,1126,1126,1123,1123,1126,1126,1126,1126,1130,1130,1130,1126,1126,1126,1126,1126,1126,1126,1126,1130,1130,1130,1126,1126,1126,1126,1126,1126,1126,1126,1130,1126,1126,1126,1123,1123,1123,1123,1123,1123,1123,1126,1126,1126,1123,1123,1123,1123,1123,1123,1123,1123,1123,1123,1123,1123,1123,1123,1123,1123,1123,1123,1126,1126,1126,1123,1123,1123,1123,1123,1123,1123,1123,1123,1123,964,964,964,964,967,967,967,967,964,964,964,964,964,925,925,923,920,920,918,918,918,918,0,0,0,0,0,0,0,0,0,0,0,0,0,0,0,0,0,0,0,0,0,0,0,0,0,0,0,0,0,0,0,0,0,0,0
0,0,0,0,0,0,0,1169,1169,1173,1173,1173,1173,1173,1173,1173,1173,1173,1173,1169,1169,1169,1169,1169,1169,1169,1169,1169,1169,1169,1169,1169,1169,1169,1169,1169,1169,1169,1169,1169,1169,1169,1169,1169,1169,1169,1169,1169,1165,1165,1169,1169,1165,1165,1165,1165,1165,1165,1165,1169,1169,1169,1169,1173,1169,1169,1173,1169,1169,1165,1165,1165,1165,1165,1169,1165,1165,1165,1165,1165,1169,1169,1169,1169,1169,1169,1169,1169,1169,1173,1169,1169,1169,1169,1169,1169,1169,1169,1169,1169,1165,1165,1169,1165,1165,1165,1165,1165,1165,1165,1165,1165,1165,1165,1034,1034,1161,1028,1025,1025,1022,1022,1022,1019,1016,1010,1010,1010,1010,1010,1010,1010,1013,1016,1016,1019,1022,1022,1022,1025,1025,1025,1161,1157,1157,1157,1161,1161,1161,1161,1161,1161,1161,1165,1165,1165,1165,1161,1161,1161,1161,1161,1161,1161,1165,1165,1165,1161,1161,1161,1161,1161,1161,1161,1161,1161,1161,1161,1161,1161,1157,1157,1157,1157,1157,1157,1157,1157,1161,1161,1161,1157,1157,1161,1157,1157,1157,1157,1157,1157,1157,1157,1161,1157,1157,1157,1157,1157,1157,1157,1153,1153,1157,1157,1161,1161,1157,1157,1157,1157,1161,1161,1161,1157,1157,1157,1157,1157,1153,1153,1153,1157,0,0,0,0,0,0,0,0,0,747,746,746,744,744,741,741,736,736,734,734,733,731,731,730,730,730,730,730,730,733,734,736,738,739,741,742,744,747,749,749,750,750,750,0,0,0,0,0,0,1153,1153,1153,1153,1153,1153,1153,1153,1149,1149,1149,1149,1149,1149,1149,1149,1149,1149,1149,1149,1149,1149,1149,1149,1145,1145,1149,1149,1145,1145,970,967,967,967,967,967,967,964,908,908,910,913,913,915,915,918,918,918,918,918,918,920,923,923,925,928,928,930,933,933,935,938,940,943,951,956,959,962,964,964,964,967,1149,1149,1149,1149,1149,1145,1145,1145,1145,1149,1149,1149,1149,1149,1145,1145,1145,1145,1145,1145,1141,1141,1145,1145,1145,1141,1141,1138,1138,1138,1134,1126,1123,1123,1123,1123,1123,1123,1123,1123,1126,1130,1130,1134,1138,1138,1138,1138,1138,1141,1141,1141,1145,1145,1145,1145,1145,1145,1145,1145,1145,1145,1145,1145,1145,1145,1145,1141,1141,1141,1141,1141,1141,1141,1141,1141,1141,1141,1141,1138,1138,1138,1138,1138,1138,1138,1138,1138,1138,1138,1138,1138,1138,1138,1138,1138,1138,1134,1134,1134,1134,1134,1134,1134,1134,1134,1134,1134,1134,1134,1138,1134,1134,1138,1134,1134,1138,1134,1134,1134,1134,1134,1134,1134,1134,1134,1134,1134,1134,1130,1130,1134,1134,1130,1130,1130,1130,1130,1130,1130,1130,1130,1130,1126,1126,1126,1130,1130,1130,1130,1130,1126,1126,1123,1123,1123,1123,1123,1123,1123,1123,1123,1126,1126,1126,1126,1126,1123,1123,1123,1123,1126,1126,1126,1126,1126,1126,1126,1126,1126,1126,1123,1123,1123,1123,1123,1123,1123,1123,1123,1123,1123,1123,1123,1123,1123,1123,1123,1123,1123,1123,1123,1123,1119,1119,1119,1119,1119,1119,1123,1123,1123,1123,1123,1123,1123,1119,1119,1123,1123,1123,1123,1123,1123,1123,1119,1119,1119,1119,967,964,964,964,964,967,967,967,967,967,964,964,964,925,925,925,923,920,920,918,918,918,918,0,0,0,0,0,0,0,0,0,0,0,0,0,0,0,0,0,0,0,0,0,0,0,0,0,0,0,0,0,0,0,0,0,0,0
0,0,0,0,0,0,0,1165,1165,1165,1169,1169,1169,1165,1165,1165,1169,1169,1165,1165,1165,1165,1165,1165,1165,1165,1165,1165,1165,1165,1165,1165,1165,1165,1165,1165,1165,1165,1165,1165,1165,1165,1165,1165,1165,1161,1161,1161,1161,1161,1165,1165,1165,1165,1165,1165,1165,1165,1165,1165,1165,1169,1169,1169,1169,1169,1165,1165,1165,1165,1165,1165,1161,1161,1165,1165,1161,1161,1161,1161,1161,1161,1161,1161,1165,1165,1165,1165,1165,1165,1165,1165,1165,1165,1165,1165,1165,1165,1165,1165,1165,1165,1165,1165,1165,1165,1165,1165,1165,1165,1165,1165,1165,1161,1161,1161,1161,1161,1161,1025,1025,1025,1022,1019,1019,1013,1013,1013,1010,1010,1010,1013,1013,1016,1019,1019,1022,1025,1025,1025,1025,1028,1028,1157,1153,1153,1157,1161,1161,1157,1157,1157,1157,1157,1157,1157,1157,1157,1157,1157,1157,1161,1161,1161,1161,1161,1161,1161,1161,1161,1161,1161,1157,1157,1157,1157,1157,1157,1157,1157,1157,1153,1153,1153,1153,1157,1157,1157,1157,1157,1157,1153,1153,1157,1157,1157,1153,1153,1157,1157,1157,1157,1157,1157,1157,1153,1153,1153,1153,1153,1153,1153,1153,1153,1153,1157,1157,1157,1157,1153,1153,1153,1153,1153,1153,1153,1153,1153,1149,1149,1149,1149,0,0,0,0,0,0,0,0,0,747,746,746,746,744,742,741,738,736,736,734,733,733,731,730,730,730,730,730,730,733,734,736,738,739,741,742,744,747,749,750,750,750,750,0,0,0,0,0,0,1149,1149,1145,1145,1145,1145,1145,1149,1149,1149,1149,1149,1149,1149,1149,1149,1149,1145,1145,1145,1145,1145,1145,1145,1145,1145,1145,1145,1145,1145,1145,967,967,967,967,967,967,962,908,908,910,913,913,915,915,915,915,915,915,915,918,918,923,923,925,925,928,930,930,933,935,938,940,946,951,954,959,959,964,964,1138,1141,1145,1145,1145,1145,1145,1145,1141,1141,1141,1145,1145,1141,1141,1141,1141,1141,1141,1141,1141,1141,1141,1141,1141,1141,1141,1141,1138,1138,1138,1138,1134,1130,1126,1126,1123,1123,1123,1123,1123,1126,1130,1130,1134,1134,1138,1138,1138,1138,1138,1138,1138,1138,1138,1138,1138,1141,1141,1141,1141,1141,1138,1138,1141,1141,1141,1141,1138,1138,1138,1138,1138,1138,1138,1138,1138,1138,1138,1138,1138,1138,1138,1138,1138,1138,1138,1134,1134,1134,1134,1134,1134,1134,1134,1134,1134,1134,1134,1134,1134,1134,1134,1134,1134,1134,1134,1134,1134,1134,1134,1134,1134,1134,1134,1134,1134,1134,1134,1134,1134,1134,1134,1134,1130,1130,1130,1130,1130,1130,1130,1126,1126,1130,1130,1126,1126,1126,1126,1130,1126,1126,1126,1126,1123,1123,1126,1126,1126,1126,1126,1126,1126,1126,1123,1123,1123,1123,1123,1123,1123,1123,1123,1123,1123,1123,1123,1123,1123,1123,1123,1123,1123,1123,1123,1123,1126,1126,1123,1123,1123,1123,1126,1123,1123,1119,1119,1123,1123,1119,1119,1119,1119,1119,1119,1119,1119,1119,1119,1119,1119,1119,1119,1119,1119,1119,1119,1119,1119,1119,1119,1119,1119,1119,1119,1119,1119,1119,1119,1119,1119,1119,1119,1119,1119,1119,1119,1119,1119,1119,1119,967,967,967,964,964,967,967,967,967,967,967,967,967,0,923,923,920,920,918,918,918,915,915,0,0,0,0,0,0,0,0,0,0,0,0,0,0,0,0,0,0,0,0,0,0,0,0,0,0,0,0,0,0,0,0,0,0,0
