0,0,0,0,1022,1016,1013,1013,1013,1010,1010,1010,1007,1007,1007,1007,1007,1007,1007,1007,1007,1007,1004,1004,1004,1004,1004,1007,1007,1007,1007,1007,1007,1007,1007,1004,1004,1004,1004,1001,1001,1001,1001,1001,1001,1001,1004,1004,1004,1004,1004,1004,1004,1001,1001,1001,1001,1004,1004,1004,1001,1001,1001,1001,1001,1001,1001,998,998,998,998,998,1001,998,998,998,998,998,998,998,998,998,998,998,998,998,998,998,998,998,995,995,998,998,995,995,992,992,992,992,992,992,992,992,995,995,995,995,995,992,992,992,989,989,989,989,989,989,989,989,987,987,989,987,987,989,987,987,989,989,989,987,987,987,987,987,987,987,987,987,987,987,987,987,984,984,984,984,984,984,984,981,981,981,981,981,981,981,981,978,978,978,978,978,978,978,978,978,978,978,975,975,975,975,975,978,978,978,978,978,978,978,978,978,978,978,978,978,978,975,975,975,978,975,975,975,975,975,975,975,975,975,975,975,975,973,973,975,975,975,973,973,973,970,970,970,970,970,970,967,967,967,970,967,967,967,967,967,967,967,967,967,970,970,967,967,967,967,967,964,964,964,970,833,831,831,829,829,827,827,825,823,823,819,819,817,815,813,813,813,813,813,813,817,819,819,821,825,827,833,833,837,839,839,839,839,956,956,956,956,959,956,956,959,959,959,956,956,956,956,956,956,954,954,956,956,954,954,954,954,954,954,954,954,954,954,951,951,951,956,954,954,954,954,956,954,954,954,954,954,954,954,954,954,951,951,951,954,951,948,948,948,948,948,948,948,948,948,948,948,948,948,948,948,948,948,948,948,948,946,946,946,946,948,946,946,946,946,946,946,943,943,943,943,943,943,946,946,946,946,946,946,946,946,946,946,943,943,943,943,943,943,943,943,943,943,943,943,943,943,943,943,940,940,940,940,940,940,938,938,938,938,940,938,938,940,940,940,940,938,938,938,938,938,938,935,935,935,933,933,933,935,935,935,935,935,935,935,935,935,935,933,933,933,933,933,933,933,930,930,930,930,930,930,930,930,930,930,930,930,930,928,928,928,928,928,930,930,930,930,930,930,930,928,928,928,928,928,925,925,925,925,923,923,923,923,925,925,925,923,923,923,923,923,923,923,923,923,923,923,923,923,923,923,923,923,923,920,920,918,918,918,918,918,918,918,918,920,920,920,920,918,918,918,918,918,918,918,918,915,915,915,915,915,915,915,915,915,915,915,918,918,918,918,918,915,915,915,915,915,915,915,915,915,915,913,913,913,915,913,913,913,913,913,910,910,910,913,913,913,915,915,913,913,910,910,908,908,908,908,908,908,908,908,908,908,908,908,908,908,908,908,908,908,908,908,908,908,908,908,906,906,906,906,906,906,906,906,906,906,903,903,903,903,0,0,0,0,0,0,0,0,0,0,0,0,0,0,0,0,0,0,0,0,0,0,0,0,0,0,0,0,0,0,0,0,0,0,0,0
0,0,0,0,0,1013,1010,1010,1010,1010,1007,1007,1007,1007,1007,1007,1004,1004,1004,1004,1004,1004,1004,1004,1001,1001,1001,1001,998,998,998,1001,1001,1001,1001,1004,1001,1001,1001,1001,1001,998,998,1001,1001,1001,1001,1001,1001,1001,1001,1001,1001,1001,1001,1001,1001,1001,1001,1001,1001,1001,1001,1001,998,998,998,998,998,998,998,998,998,998,998,998,998,998,995,995,995,995,995,998,995,995,998,995,995,992,992,992,995,992,992,992,992,992,992,992,992,989,989,992,992,992,992,992,992,992,989,989,989,989,989,989,987,987,987,987,987,987,987,987,987,987,987,987,987,987,987,987,987,987,987,987,987,987,987,987,984,984,984,984,984,984,981,981,981,981,981,981,981,981,981,978,978,978,978,978,978,978,978,978,978,978,978,975,975,975,975,975,973,973,975,975,975,975,978,978,975,975,975,975,975,975,975,975,975,975,975,975,975,975,975,975,975,975,973,973,973,973,973,973,970,970,970,970,970,970,970,970,970,970,970,967,967,967,967,967,967,967,967,967,967,967,967,967,967,964,964,967,967,967,967,967,964,964,964,964,962,962,962,962,833,833,831,829,827,827,825,825,823,821,819,817,817,815,815,813,813,813,815,819,819,821,823,827,829,831,833,837,839,839,841,956,956,956,956,956,954,954,954,954,956,956,954,954,954,954,954,954,954,954,954,954,954,951,951,951,951,951,951,951,951,948,948,948,951,954,954,954,954,954,954,954,951,951,951,954,951,951,951,948,948,948,948,948,948,948,948,948,948,946,946,946,946,946,948,948,946,946,946,946,946,946,946,946,946,946,946,946,946,946,946,946,943,943,943,943,943,943,940,940,940,940,940,943,943,943,943,943,943,943,943,943,943,940,940,940,940,940,940,940,940,940,940,940,940,940,940,940,940,938,938,938,938,938,938,938,938,938,938,938,938,938,938,938,938,938,938,938,935,935,935,933,933,930,930,930,930,930,930,930,933,933,933,933,933,935,933,933,933,933,930,930,930,930,930,930,930,930,930,928,928,930,930,928,928,928,928,928,928,928,928,928,928,928,928,928,928,928,928,928,928,925,925,925,925,925,923,923,923,923,923,920,920,920,920,920,920,920,920,920,920,920,920,920,920,920,920,920,920,920,920,920,920,918,918,918,918,918,915,915,915,918,918,918,918,918,918,918,918,918,918,918,918,918,915,915,915,915,913,913,913,913,913,913,913,910,910,910,913,913,913,915,915,915,915,915,915,915,915,915,913,913,913,913,913,913,913,910,910,910,910,910,910,910,910,910,913,913,913,910,908,908,908,908,908,908,908,908,908,906,906,908,906,906,908,906,906,908,908,908,908,908,908,908,906,906,906,906,906,906,906,906,906,906,903,903,903,903,901,901,0,0,0,0,0,0,0,0,0,0,0,0,0,0,0,0,0,0,0,0,0,0,0,0,0,0,0,0,0,0,0,0,0,0,0,0
0,0,0,0,1013,1013,1010,1010,1010,1007,1004,1004,1004,1004,1004,1004,1004,1004,1001,1001,1001,1004,1001,1001,1001,1001,1001,998,998,998,998,998,998,998,1001,1001,1001,1001,998,998,998,998,998,998,998,998,1001,1001,1001,1001,1001,1001,998,998,998,998,998,1001,998,998,998,998,998,998,995,995,995,995,995,995,995,995,995,995,995,995,995,995,995,995,995,995,995,995,995,995,995,992,989,989,989,992,992,989,989,989,992,989,989,989,989,989,989,989,989,989,989,989,989,989,989,989,987,987,987,987,987,987,987,987,987,987,987,984,984,984,984,984,984,984,987,987,987,984,984,984,984,984,984,984,981,981,981,981,981,981,978,978,978,978,978,978,978,978,978,978,978,978,978,975,975,975,975,978,975,975,975,975,975,975,973,973,973,973,973,973,973,973,973,973,973,973,973,973,975,975,973,973,973,973,973,973,973,973,973,973,973,973,973,970,970,970,970,970,967,967,970,967,967,967,967,967,970,967,967,967,967,967,964,964,964,967,967,964,964,964,964,964,964,962,962,964,964,964,964,964,964,964,962,962,959,959,959,956,956,833,833,831,829,827,827,825,823,821,821,819,817,817,815,815,815,815,817,819,819,821,823,827,831,831,835,837,839,839,841,843,956,954,954,954,954,954,954,954,954,954,951,951,951,951,951,951,951,951,951,951,951,951,951,948,948,948,948,948,948,948,946,946,946,948,951,951,951,951,951,951,948,948,951,951,948,948,948,948,948,948,948,948,946,946,946,946,946,946,946,946,946,946,946,946,946,946,946,946,943,943,943,943,943,943,943,943,943,943,940,940,940,940,940,940,940,940,940,940,938,938,938,938,938,940,943,943,943,943,940,940,940,940,940,940,940,940,938,938,938,938,938,938,938,938,938,938,938,938,935,935,935,935,935,935,935,935,935,935,935,935,935,935,935,935,935,935,933,933,933,930,930,928,928,928,928,928,928,928,928,928,928,930,930,933,930,930,930,930,930,928,928,928,928,928,928,928,928,928,928,928,928,928,928,928,925,925,925,925,925,925,925,925,925,925,925,925,925,925,925,925,923,923,923,923,920,920,920,920,920,920,918,918,920,920,918,918,918,918,918,918,918,918,918,920,918,918,918,918,918,918,918,918,915,915,915,915,915,915,915,915,915,915,915,915,915,915,915,915,915,915,915,915,915,913,913,913,913,913,910,910,913,913,910,908,908,908,908,908,908,910,913,913,915,913,913,913,913,913,913,910,910,910,913,910,908,908,908,908,908,908,908,908,908,908,908,908,908,908,908,908,906,906,908,908,906,906,906,906,906,906,903,903,906,906,906,906,906,906,906,906,906,906,906,906,903,903,903,903,903,903,903,903,903,903,903,901,901,901,0,0,0,0,0,0,0,0,0,0,0,0,0,0,0,0,0,0,0,0,0,0,0,0,0,0,0,0,0,0,0,0,0,0,0,0
0,0,0,0,1013,1010,1010,1007,1007,1004,1004,1004,1001,1001,1001,1001,1001,1001,1001,1001,1001,1001,1001,1001,1001,998,998,998,995,995,995,995,998,998,998,998,998,995,995,998,995,995,995,995,995,998,998,998,998,998,998,998,998,998,998,995,995,995,995,995,995,995,995,995,995,995,992,992,992,992,992,992,992,992,992,992,992,992,995,992,992,992,995,992,992,992,989,989,987,987,987,987,987,987,987,989,989,989,987,987,987,987,987,987,989,989,987,987,987,987,987,987,984,984,984,987,987,987,987,987,984,984,984,984,984,981,981,981,981,981,984,984,984,984,984,984,984,981,981,978,978,978,978,978,978,978,978,978,978,978,978,978,978,978,978,975,975,975,975,975,975,975,975,975,975,975,975,973,973,973,973,973,970,970,970,970,970,970,970,970,970,970,970,970,970,970,973,973,973,973,970,970,970,970,967,967,970,970,970,970,967,967,967,967,967,967,967,967,967,967,967,967,967,967,964,964,964,964,964,964,964,964,964,964,964,962,962,962,962,959,959,962,962,962,962,962,962,962,962,959,959,956,956,954,954,835,833,831,831,829,827,827,825,823,821,819,819,817,817,817,817,817,819,819,821,823,823,829,831,833,835,837,841,841,843,843,956,954,954,954,951,951,951,951,951,951,951,948,948,951,948,948,948,948,948,948,948,948,948,946,946,946,946,946,946,946,946,946,946,948,948,948,946,946,948,948,948,948,948,948,948,948,948,946,946,946,946,946,946,946,946,946,946,946,943,943,943,943,946,943,943,943,943,943,943,943,943,940,940,940,940,940,940,940,940,940,940,940,940,940,938,938,938,938,938,938,938,938,938,938,938,938,938,940,940,940,940,938,938,938,938,938,938,938,938,938,938,938,938,935,935,935,935,935,935,935,935,935,933,933,933,933,935,933,933,933,935,933,933,933,933,933,930,930,930,930,928,928,928,928,928,928,928,928,928,928,928,928,928,928,930,930,930,930,928,928,928,928,928,928,928,928,928,928,928,928,928,925,925,925,925,925,923,923,923,923,923,923,923,923,923,923,923,923,923,923,920,920,920,920,920,920,920,920,920,920,918,918,918,918,918,918,918,918,918,918,918,918,918,918,918,918,918,918,918,918,915,915,913,913,915,915,913,913,913,913,913,910,910,913,913,915,915,915,915,915,915,915,913,913,913,913,910,910,910,910,910,910,908,908,908,908,908,908,908,908,908,910,913,913,913,913,913,913,910,908,908,908,908,908,906,906,906,908,906,906,906,906,906,906,906,906,906,906,906,906,906,906,906,906,903,903,903,901,901,901,901,901,903,903,903,906,906,906,906,903,903,903,903,903,903,901,901,901,901,901,901,901,901,901,901,898,898,898,0,0,0,0,0,0,0,0,0,0,0,0,0,0,0,0,0,0,0,0,0,0,0,0,0,0,0,0,0,0,0,0,0,0,0,0
0,0,0,0,0,1004,1001,1001,1004,1004,1001,1001,1001,1001,1001,998,998,998,998,998,998,998,998,998,998,995,995,995,992,992,992,995,995,995,995,995,998,995,995,992,992,992,992,992,992,995,995,995,998,995,995,995,995,995,992,992,992,992,992,992,992,992,992,992,989,989,989,989,989,989,989,989,989,989,989,989,989,989,989,989,989,989,989,989,987,987,987,987,987,987,987,987,987,987,987,987,987,984,984,984,984,987,987,984,984,987,984,984,984,984,984,984,984,984,984,984,981,981,981,984,984,984,981,981,981,981,981,981,981,981,981,981,984,981,981,981,981,981,978,978,978,975,975,975,975,975,975,975,975,975,975,975,975,975,975,975,975,975,975,973,973,973,973,975,973,973,973,973,973,973,970,970,970,970,970,970,967,967,967,967,967,967,967,967,967,967,967,967,967,970,967,967,967,967,967,967,967,967,967,967,967,967,967,964,964,964,964,964,964,964,964,964,964,964,964,962,962,962,962,962,962,962,962,962,962,959,959,959,959,959,959,959,959,959,959,959,959,959,959,956,956,956,954,954,954,835,833,831,831,829,829,827,827,825,825,821,819,819,817,817,817,817,819,819,821,823,825,831,831,833,835,839,841,841,841,956,956,954,954,951,948,948,948,948,948,948,948,948,948,948,948,946,946,946,946,946,946,946,946,943,943,943,943,943,943,943,943,943,946,946,946,946,943,943,943,943,943,946,946,946,946,946,946,946,946,946,946,946,946,943,943,943,943,943,943,940,940,940,943,940,940,940,940,943,940,940,940,940,940,940,938,938,938,938,938,938,938,938,938,938,938,938,938,938,935,935,935,935,935,935,935,935,935,935,938,938,938,938,938,935,935,935,935,935,935,935,935,935,935,935,933,933,935,933,933,933,933,933,930,930,930,930,930,930,930,930,930,930,930,930,930,930,928,928,928,928,928,928,928,928,928,925,925,925,925,925,925,925,928,928,928,928,928,928,928,925,925,925,925,925,925,925,925,925,925,925,925,925,925,925,923,923,923,920,920,920,920,920,918,918,918,920,920,920,920,918,918,918,918,920,918,918,918,918,918,918,918,918,918,918,918,915,915,915,915,915,915,915,915,918,918,918,915,915,915,915,915,913,913,913,913,913,910,910,910,910,910,910,910,910,910,910,910,913,913,913,913,913,913,910,910,908,908,908,908,908,908,908,908,908,908,908,906,906,906,906,906,906,906,906,908,908,908,908,908,908,908,908,908,906,906,906,906,906,906,906,906,906,903,903,903,901,901,903,903,903,903,903,906,903,903,901,901,898,898,898,898,898,901,901,903,903,903,903,903,901,901,901,898,898,898,901,898,898,898,898,898,898,898,898,898,898,896,896,0,0,0,0,0,0,0,0,0,0,0,0,0,0,0,0,0,0,0,0,0,0,0,0,0,0,0,0,0,0,0,0,0,0,0,0
0,0,0,0,0,1001,1001,1001,1001,1001,1001,1001,998,998,998,998,998,998,998,998,998,998,998,995,995,992,992,992,989,989,989,989,989,992,992,995,995,992,992,992,989,989,989,989,987,987,989,992,992,995,995,992,992,992,989,989,989,989,989,989,989,989,989,989,989,989,989,989,989,989,989,989,989,989,989,989,989,989,989,989,989,989,987,987,984,984,984,984,984,984,984,987,987,984,984,984,984,984,981,981,981,981,981,981,981,984,981,981,981,981,981,981,981,981,981,981,978,978,978,978,978,978,978,978,978,978,978,978,978,978,978,978,981,978,978,978,978,978,978,975,975,975,975,975,973,973,973,975,975,973,973,975,975,975,975,975,973,973,973,973,973,973,973,973,973,973,973,970,970,970,970,970,970,967,967,967,967,967,967,967,967,967,967,967,967,967,967,967,967,964,964,964,964,964,964,964,964,964,964,964,964,964,964,964,964,962,962,962,962,962,962,962,962,962,962,962,962,962,962,962,962,962,962,962,959,959,959,956,956,956,956,956,956,956,956,956,959,959,956,956,956,956,954,954,954,948,835,835,835,831,831,829,827,825,825,823,821,821,819,819,819,819,819,821,823,825,829,831,831,833,835,839,841,841,843,954,954,951,951,948,948,948,948,946,946,946,946,946,946,946,946,946,946,946,946,943,943,943,943,943,943,943,943,943,943,943,943,943,946,943,943,943,940,940,940,940,940,940,940,940,940,943,946,943,943,943,943,943,943,940,940,943,943,940,940,938,938,938,940,938,938,935,935,938,938,938,938,938,938,938,938,938,938,938,938,938,938,938,938,938,935,935,935,935,935,935,933,933,933,933,935,935,935,935,935,935,933,933,933,933,933,933,933,930,930,933,933,933,933,933,930,930,933,930,930,930,930,930,930,930,930,930,930,930,928,928,928,928,928,928,928,928,928,925,925,925,925,925,925,925,925,925,925,925,925,925,925,925,925,925,925,923,923,923,923,923,925,923,923,923,923,923,923,923,923,923,923,923,923,923,923,923,920,920,920,918,918,918,918,918,918,918,918,918,918,918,918,918,918,918,915,915,918,918,918,915,915,915,915,915,915,915,915,915,915,915,913,913,913,915,915,915,913,913,913,913,913,910,908,908,908,908,908,908,908,908,908,908,908,908,908,908,908,908,908,910,908,908,908,908,908,908,908,908,908,906,906,906,906,906,906,906,906,906,906,906,903,903,903,903,903,906,906,906,908,906,906,906,906,906,906,906,906,906,906,903,903,903,903,901,901,901,901,901,901,901,901,901,903,901,901,901,898,898,898,898,898,898,898,898,901,901,901,901,898,898,898,898,898,898,898,898,898,898,898,898,898,898,896,896,896,896,896,896,0,0,0,0,0,0,0,0,0,0,0,0,0,0,0,0,0,0,0,0,0,0,0,0,0,0,0,0,0,0,0,0,0,0,0,0
0,0,0,0,0,1001,1001,1001,1001,1001,998,998,998,998,995,995,998,998,995,995,995,995,995,992,992,992,989,989,989,989,989,989,989,989,989,992,992,989,989,989,989,989,987,987,987,987,987,987,987,987,989,992,992,989,989,989,989,989,989,989,989,989,989,989,989,989,987,987,989,989,987,987,987,987,987,987,987,984,984,987,987,987,984,981,981,981,981,981,981,981,981,984,984,984,984,981,981,981,978,978,978,978,981,981,981,981,978,978,978,981,978,978,978,978,978,981,978,978,978,978,978,978,975,975,975,975,978,975,975,975,975,975,978,975,975,975,975,975,975,975,973,973,973,973,973,973,973,973,973,970,970,973,973,973,973,973,973,973,973,973,973,970,970,970,970,970,970,967,967,967,967,967,967,967,967,967,967,967,964,964,964,964,964,964,964,964,964,967,964,964,964,962,962,962,962,962,964,964,964,964,964,964,964,962,962,959,959,959,959,962,959,959,959,959,959,959,959,959,959,959,959,959,959,959,959,956,956,956,956,956,956,956,956,956,956,956,956,956,956,956,956,956,954,954,954,948,839,837,837,835,835,831,829,827,827,825,823,821,821,819,819,821,821,823,823,825,831,831,831,833,835,841,841,843,843,954,954,951,948,948,946,946,946,946,946,946,946,946,946,943,943,943,943,943,943,943,943,940,940,940,940,940,940,940,940,940,940,940,943,943,940,940,940,938,938,940,940,940,940,940,940,940,940,940,940,940,940,940,940,940,940,940,940,940,938,938,938,938,938,938,935,935,935,938,935,935,935,935,938,938,935,935,935,935,935,935,935,935,935,935,935,935,933,933,933,933,930,930,933,933,933,930,930,933,933,933,930,930,930,928,928,930,930,930,930,930,930,930,930,930,928,928,930,928,928,928,928,930,930,930,930,930,928,928,928,928,928,928,928,928,925,925,925,925,925,925,925,925,925,925,925,925,925,925,923,923,923,923,923,920,920,920,920,920,920,920,920,920,920,923,923,923,920,920,920,920,920,920,920,920,920,920,918,918,918,918,918,918,915,915,915,915,915,915,915,915,915,915,915,915,915,915,915,915,915,915,913,913,913,913,913,913,913,913,913,910,910,910,910,913,910,910,910,910,910,913,910,908,908,908,908,908,908,906,906,908,908,906,906,908,908,906,906,906,906,906,906,906,906,908,906,906,906,906,906,906,906,906,906,906,906,906,906,903,903,903,903,903,903,903,903,903,903,903,903,903,903,903,903,903,903,903,903,903,903,903,903,903,901,901,898,898,898,898,898,898,898,901,901,901,901,898,898,898,896,896,896,896,896,896,896,898,898,898,898,896,896,898,896,896,896,896,896,896,896,896,896,896,896,896,896,896,894,894,0,0,0,0,0,0,0,0,0,0,0,0,0,0,0,0,0,0,0,0,0,0,0,0,0,0,0,0,0,0,0,0,0,0,0,0
0,0,0,0,0,1001,1001,998,998,998,998,998,995,995,992,992,995,995,992,992,992,992,992,989,989,989,989,989,989,989,989,987,987,989,989,989,989,989,989,989,989,987,987,987,987,987,987,987,987,987,987,987,987,987,987,987,987,987,987,987,987,987,987,987,987,987,987,987,987,987,987,987,984,984,984,984,984,984,984,984,984,984,981,978,978,978,978,978,978,978,981,981,981,981,981,981,978,978,978,978,978,978,978,978,978,978,975,975,978,978,978,975,975,975,975,978,978,975,975,975,975,975,975,975,975,975,975,975,973,973,973,973,973,973,973,973,973,975,975,973,970,970,970,970,970,970,970,970,970,970,970,970,970,970,970,970,970,970,970,970,970,967,967,967,967,967,967,967,967,967,967,967,967,964,964,967,964,964,964,964,964,964,964,964,964,964,964,964,962,962,962,962,962,962,962,962,962,962,962,962,962,962,962,962,959,959,959,959,959,959,959,959,959,956,956,956,956,956,956,956,956,956,956,956,956,956,956,956,956,956,956,954,954,954,954,954,954,954,954,954,954,954,954,954,951,948,839,839,839,837,837,833,833,831,829,825,825,823,821,821,821,821,823,823,823,825,831,831,833,835,837,841,843,843,843,849,954,948,948,946,946,946,946,946,946,946,946,943,943,943,943,943,943,940,940,940,940,938,938,940,938,938,940,940,940,940,940,940,940,940,940,938,938,938,938,938,938,938,938,938,938,938,938,938,938,938,938,938,938,938,938,938,938,938,938,938,935,935,935,935,935,935,935,935,935,935,935,935,935,935,935,935,935,935,935,935,933,933,933,933,930,930,930,930,930,930,930,930,930,930,930,930,930,930,930,930,928,928,928,928,928,928,928,928,928,930,928,928,928,928,928,928,928,928,928,928,928,928,928,928,928,928,925,925,925,925,925,925,925,925,925,923,923,925,925,923,923,923,923,923,923,923,923,923,923,923,920,920,920,920,918,918,918,918,920,920,920,918,918,920,920,920,920,920,918,918,918,918,918,918,918,918,918,918,918,918,915,915,915,915,915,915,915,915,915,915,915,915,915,915,913,913,913,913,913,910,910,910,910,910,910,910,910,910,910,908,908,908,908,908,908,908,908,908,908,910,908,908,908,906,906,908,906,906,906,906,906,906,906,906,906,906,903,903,903,903,903,903,906,906,903,903,903,906,903,903,903,903,906,906,906,906,903,903,903,903,901,901,901,901,901,901,901,901,901,901,901,903,901,901,903,903,903,903,903,901,901,901,901,898,898,898,898,898,898,898,898,898,898,898,898,898,896,896,896,896,896,896,894,894,894,896,896,896,894,894,894,894,896,896,896,896,896,896,894,894,894,894,894,894,894,894,894,894,0,0,0,0,0,0,0,0,0,0,0,0,0,0,0,0,0,0,0,0,0,0,0,0,0,0,0,0,0,0,0,0,0,0,0,0
0,0,0,0,1001,998,998,998,998,998,995,992,992,992,992,992,992,992,989,989,989,989,989,989,989,989,989,989,987,987,987,987,987,987,987,987,987,987,987,987,987,987,987,987,984,984,984,987,984,984,987,987,987,987,987,987,987,984,984,987,987,984,984,987,987,987,987,987,987,987,984,984,984,984,984,981,981,981,981,981,981,981,978,978,978,978,978,978,978,978,978,978,978,978,978,978,978,978,975,975,975,975,975,975,975,975,975,975,975,975,975,975,975,975,975,975,975,975,973,973,975,973,973,973,973,973,973,973,973,970,970,970,970,973,973,973,973,973,973,970,970,970,970,967,967,967,967,967,970,967,967,967,967,967,967,967,967,967,967,967,967,964,964,964,964,964,964,964,964,964,964,964,964,964,964,964,964,964,964,964,962,962,962,962,962,962,962,962,959,959,959,959,956,956,959,959,959,959,959,959,959,956,956,956,956,956,956,956,956,959,956,956,956,956,956,956,956,954,954,956,954,954,954,954,954,954,954,954,954,954,954,954,954,954,954,954,954,954,954,954,954,954,951,951,948,948,946,839,839,837,837,835,833,833,831,829,827,827,823,823,823,823,823,823,825,825,831,831,833,835,839,843,843,843,843,849,948,948,946,946,943,943,943,943,943,943,943,943,943,940,940,940,940,938,938,938,938,938,938,938,938,938,938,938,938,938,938,938,938,938,938,938,938,935,935,935,935,935,935,935,935,935,938,938,938,938,935,935,935,935,935,935,935,935,935,935,933,933,935,933,933,933,933,933,933,933,933,933,933,935,933,933,933,933,933,933,930,930,933,930,928,928,928,928,928,928,928,928,928,928,928,928,928,928,928,928,928,925,925,925,925,925,925,925,925,925,925,925,928,928,925,925,925,925,925,925,925,925,925,925,925,925,925,925,925,923,923,923,923,923,923,923,923,923,923,923,923,923,923,920,920,920,920,920,920,920,920,918,918,918,918,918,918,918,918,918,918,918,918,918,918,915,915,915,918,918,918,918,918,918,918,918,915,915,915,915,915,915,913,913,913,913,913,913,913,913,913,913,913,913,913,913,913,910,910,910,908,908,908,908,908,908,908,908,908,908,908,908,908,908,908,908,906,906,908,908,906,906,906,906,906,906,906,906,906,906,906,906,903,903,903,903,901,901,901,901,901,903,903,903,901,901,903,903,901,901,901,901,903,903,903,903,903,903,903,901,901,901,898,898,898,898,898,898,898,898,898,901,901,901,901,901,901,901,901,898,898,898,898,898,898,898,898,898,898,896,896,896,898,898,898,896,896,894,894,894,894,894,894,891,891,891,891,891,891,891,891,894,894,894,894,894,894,894,891,891,891,891,891,891,891,891,891,891,0,0,0,0,0,0,0,0,0,0,0,0,0,0,0,0,0,0,0,0,0,0,0,0,0,0,0,0,0,0,0,0,0,0,0,0
0,0,0,0,989,989,989,995,992,992,992,989,989,989,989,989,989,989,989,989,987,987,987,987,987,987,987,987,987,987,987,984,984,984,984,987,987,987,987,984,984,987,984,984,984,984,984,984,984,984,984,984,984,984,984,987,987,984,984,984,984,981,981,984,984,984,984,984,984,984,981,981,981,981,981,981,981,978,978,981,978,978,978,978,978,978,975,975,978,978,978,978,978,978,978,978,978,978,975,975,975,973,973,973,973,973,973,973,973,973,973,973,973,973,973,975,973,973,973,973,973,973,970,970,970,970,970,970,970,967,967,967,967,967,967,967,967,967,970,967,967,967,967,967,967,967,967,967,967,967,967,967,967,967,967,967,967,967,964,964,964,964,962,959,959,959,962,962,962,962,962,962,962,962,962,962,962,962,964,962,959,959,962,962,959,959,959,959,956,956,956,956,956,956,956,956,956,956,956,956,956,956,956,956,954,954,956,956,956,956,956,956,956,954,954,954,954,954,954,954,954,954,951,951,951,951,951,954,954,954,954,954,951,951,951,948,948,948,948,948,948,951,951,948,948,946,946,841,841,839,837,835,835,833,833,831,829,827,825,825,825,825,825,825,825,827,831,831,833,835,841,843,843,843,845,851,854,854,943,943,943,940,940,940,940,938,938,940,940,938,938,938,938,938,935,935,935,935,935,935,935,935,935,935,935,935,935,935,938,935,935,935,935,935,935,935,935,935,935,935,935,935,935,935,935,935,935,935,935,935,933,933,933,935,935,935,933,933,933,930,930,930,930,930,930,930,930,930,933,933,930,930,930,930,930,930,928,928,928,928,928,928,925,925,925,925,928,928,928,928,928,928,928,925,925,925,925,925,925,925,925,925,925,925,925,925,925,923,923,923,923,923,923,923,923,925,925,925,925,925,925,925,923,923,923,920,920,920,920,923,920,920,920,920,920,920,920,920,920,918,918,918,918,918,918,918,918,918,918,915,915,915,915,915,915,915,915,915,915,918,918,915,915,915,915,915,915,915,915,915,915,915,915,915,915,915,913,913,913,913,910,910,913,910,910,913,913,913,913,910,910,910,910,910,908,908,908,908,908,908,906,906,906,906,906,906,906,906,906,906,906,906,906,906,906,906,903,903,903,903,903,906,906,906,906,906,906,903,901,901,901,901,901,901,901,901,901,901,901,901,901,901,898,898,898,898,898,898,901,898,898,901,901,901,901,898,898,898,898,896,896,896,896,896,898,896,896,898,898,898,898,898,898,898,898,896,896,898,898,896,896,896,896,896,896,896,896,896,896,896,896,896,894,894,894,894,891,891,891,889,889,889,889,889,889,889,889,891,891,891,889,889,889,889,889,889,889,889,889,889,889,889,889,889,0,0,0,0,0,0,0,0,0,0,0,0,0,0,0,0,0,0,0,0,0,0,0,0,0,0,0,0,0,0,0,0,0,0,0,0
0,0,0,0,987,987,987,987,987,989,989,989,989,989,987,987,987,987,987,987,987,987,987,984,984,984,987,987,984,984,984,984,981,981,981,981,984,984,984,981,981,984,984,981,981,981,981,981,981,981,981,978,978,981,981,981,984,984,984,981,981,978,978,978,978,981,981,981,984,984,981,981,978,978,978,978,978,978,978,978,978,975,975,975,975,975,975,975,975,975,975,973,973,975,975,975,975,975,975,975,975,973,973,973,970,970,970,970,970,970,970,970,970,970,970,970,970,970,970,970,970,970,970,967,967,967,967,967,967,967,967,964,964,964,964,964,964,964,964,964,964,964,964,964,964,964,964,964,964,964,964,964,964,964,964,964,964,964,964,964,962,962,959,959,959,959,959,959,959,959,959,959,959,959,959,959,959,962,962,959,959,959,956,956,956,956,956,956,956,956,956,954,954,954,954,954,951,951,951,951,954,954,954,954,954,954,954,954,954,954,954,954,954,954,954,954,954,951,951,951,951,951,948,948,948,951,951,948,948,951,951,951,948,948,946,946,946,946,946,946,946,946,948,948,946,946,943,943,841,839,837,837,835,835,833,833,831,829,827,827,825,825,825,825,825,827,831,831,833,837,841,843,843,843,849,851,854,854,940,940,940,938,938,938,938,935,935,938,938,938,938,935,935,935,935,935,935,935,935,935,935,935,935,935,935,933,933,933,935,933,933,933,933,933,933,933,933,933,933,935,935,935,935,935,935,933,933,933,933,933,930,930,930,930,930,930,930,930,930,930,930,930,928,928,928,928,928,928,930,930,930,928,928,928,928,928,928,928,928,928,925,925,925,925,925,925,925,925,925,925,925,925,925,925,925,925,923,923,923,923,923,923,923,923,923,923,923,920,920,920,920,920,920,920,920,923,923,923,923,923,923,923,920,920,920,920,920,920,920,920,920,920,920,920,920,918,918,918,918,918,918,915,915,915,915,915,915,915,915,915,915,915,915,915,915,915,915,915,915,915,915,913,913,913,910,910,910,910,910,915,915,913,913,913,913,913,910,910,910,910,910,910,910,908,908,910,910,910,910,908,908,908,908,908,908,906,906,906,906,903,903,903,906,906,906,906,906,906,906,903,903,903,903,903,903,903,901,901,901,901,901,901,901,903,903,903,903,901,898,898,901,898,898,898,898,898,898,901,898,898,898,898,898,898,898,898,898,898,898,898,898,898,898,898,898,898,898,898,896,896,896,896,896,896,896,894,894,894,894,891,891,891,891,891,891,894,894,896,896,896,896,896,896,894,894,894,894,894,894,894,894,894,894,894,891,891,889,889,889,887,887,887,887,889,889,889,889,889,889,889,889,887,887,887,887,887,887,887,887,887,887,887,887,887,0,0,0,0,0,0,0,0,0,0,0,0,0,0,0,0,0,0,0,0,0,0,0,0,0,0,0,0,0,0,0,0,0,0,0,0
0,0,0,0,987,987,987,987,987,987,987,987,987,987,987,987,987,987,987,984,984,984,981,981,981,981,984,981,981,981,981,981,981,978,978,978,981,981,981,978,978,978,978,978,978,978,978,978,978,978,978,978,978,978,978,978,978,978,978,978,978,975,975,975,975,975,975,978,978,978,978,978,978,978,978,975,975,975,975,975,975,975,975,975,975,975,973,973,973,973,973,970,970,973,973,973,973,975,973,973,973,970,970,970,967,967,967,967,967,967,967,967,967,967,967,967,967,967,967,967,967,967,967,967,967,967,964,964,967,964,964,964,962,962,962,962,962,962,962,962,962,959,959,959,959,962,962,962,962,962,962,962,962,962,962,962,962,962,959,959,959,959,956,956,956,956,956,956,956,956,956,956,956,956,956,956,956,956,956,956,956,956,956,956,956,954,954,954,954,954,954,954,951,951,951,951,948,948,948,948,948,951,951,951,951,951,951,951,951,951,951,951,951,951,951,951,951,948,948,948,948,948,948,946,946,948,948,946,946,948,946,946,946,946,943,943,943,943,943,943,946,946,946,946,943,943,940,940,843,841,839,839,839,837,835,833,833,829,827,827,827,827,825,825,825,829,831,831,833,839,841,843,843,845,849,851,851,854,938,938,938,935,935,935,935,935,935,935,935,935,935,935,935,935,935,935,935,933,933,933,933,933,933,933,933,930,930,930,933,933,933,933,933,933,933,933,933,933,933,933,933,933,933,933,933,933,930,930,930,930,928,928,928,928,928,928,928,928,928,928,928,928,928,928,928,928,928,928,928,928,928,928,928,928,928,928,925,925,925,925,925,925,925,925,925,925,925,923,923,923,923,925,925,923,923,923,923,920,920,920,920,920,918,918,920,920,918,918,918,918,918,918,918,918,918,920,920,920,920,920,920,920,918,918,918,918,918,918,918,918,918,918,918,918,918,918,918,918,918,915,915,915,915,913,913,913,913,913,913,913,913,913,913,910,910,910,913,913,913,913,913,910,910,910,910,910,910,908,908,910,910,910,910,910,910,910,908,908,908,908,908,908,908,908,908,908,908,908,908,906,906,906,906,906,906,906,906,906,903,903,903,903,903,903,903,903,903,903,903,901,901,901,901,901,901,901,898,898,898,898,898,898,898,898,898,901,901,898,898,898,898,898,898,898,898,898,898,898,898,898,896,896,896,896,896,896,896,896,896,896,896,896,898,898,898,896,896,896,896,894,894,894,894,894,891,891,891,891,891,889,889,889,889,889,889,889,889,891,891,894,894,894,891,891,891,891,891,891,891,891,891,891,891,891,891,889,889,889,889,887,887,887,887,887,887,887,887,887,887,887,887,887,887,885,885,885,885,887,887,887,887,887,887,887,0,0,0,0,0,0,0,0,0,0,0,0,0,0,0,0,0,0,0,0,0,0,0,0,0,0,0,0,0,0,0,0,0,0,0,0
0,0,0,0,987,987,987,987,987,984,984,984,984,984,984,984,984,984,984,984,981,981,978,978,978,978,981,981,981,978,978,981,978,978,978,978,978,978,978,975,975,975,975,975,975,975,975,975,975,975,975,973,973,973,973,973,973,975,975,975,975,973,973,973,973,973,973,973,975,975,975,975,973,973,973,973,973,973,973,973,973,973,973,973,973,973,970,970,970,970,970,970,970,970,970,970,970,970,970,967,967,967,967,967,967,967,967,967,967,967,964,964,964,964,964,964,964,964,964,964,964,964,964,964,964,964,964,964,964,964,964,962,962,962,962,959,959,959,959,962,959,959,959,959,959,959,956,956,956,959,962,959,959,959,959,959,959,959,956,956,956,956,956,956,956,956,956,956,956,956,954,954,954,954,954,954,954,954,954,956,956,954,954,954,954,951,951,951,951,954,954,951,948,948,948,948,946,946,946,946,948,948,948,948,948,948,948,948,948,948,948,948,946,946,946,946,946,946,946,946,946,946,946,946,946,946,946,946,946,946,946,946,943,943,943,943,940,940,940,940,940,940,943,943,940,940,938,938,843,841,841,841,839,837,837,835,833,831,829,829,827,827,827,827,827,829,831,831,835,841,843,843,845,845,849,851,851,935,935,935,935,935,935,935,933,933,933,933,933,933,933,933,933,933,933,933,933,933,933,933,933,930,930,928,928,928,925,925,930,928,928,928,928,928,930,930,930,930,930,930,930,930,930,928,928,928,928,928,928,928,925,925,928,925,925,925,925,925,925,925,925,925,928,928,925,925,925,925,928,925,925,925,925,925,925,925,925,925,925,925,925,923,923,923,923,923,923,923,923,923,923,923,923,923,920,920,920,920,918,918,918,918,918,918,918,918,918,918,918,918,918,918,918,918,918,918,918,918,918,918,918,918,918,918,918,918,918,918,918,918,918,918,915,915,915,915,915,915,915,915,913,913,913,913,910,910,910,910,910,910,910,910,910,908,908,908,910,910,908,908,910,910,908,908,908,908,908,908,908,908,908,906,906,906,906,908,908,908,908,908,908,908,906,906,906,906,906,906,906,903,903,903,903,903,903,903,903,903,903,901,901,901,901,901,901,901,901,901,901,901,901,901,898,898,898,898,898,898,896,896,896,896,896,896,896,896,896,896,896,896,896,896,896,898,896,896,896,896,896,896,896,896,896,896,896,896,896,896,894,894,894,894,896,896,896,894,894,894,894,891,891,891,891,891,891,889,889,889,889,889,889,889,889,887,887,887,889,889,889,889,889,889,889,889,889,889,889,889,889,889,889,891,891,889,889,889,887,887,887,887,885,885,887,887,887,885,885,887,885,885,885,885,885,882,882,882,885,885,885,885,885,885,885,885,0,0,0,0,0,0,0,0,0,0,0,0,0,0,0,0,0,0,0,0,0,0,0,0,0,0,0,0,0,0,0,0,0,0,0,0
0,0,0,0,987,984,984,984,984,981,981,981,981,981,981,981,981,981,981,981,978,978,978,978,978,978,978,978,978,975,975,978,978,978,975,975,975,975,975,973,970,970,973,973,973,973,973,973,973,970,970,970,970,970,970,970,970,973,973,973,973,970,970,970,970,970,970,970,973,973,973,973,970,967,967,967,967,964,964,970,970,970,970,973,973,970,967,967,967,967,967,967,967,967,967,967,967,967,964,964,964,964,964,964,964,964,967,967,964,964,964,964,964,964,962,962,962,964,964,964,964,964,964,964,962,962,962,962,964,964,962,959,959,959,959,956,956,959,959,959,959,956,956,956,956,956,956,956,956,956,956,956,956,956,959,959,956,956,956,956,956,956,954,954,954,954,954,954,954,954,954,951,951,951,951,951,951,948,948,951,954,951,951,951,951,951,951,948,948,951,951,948,948,948,948,946,946,946,946,946,946,946,946,946,946,946,943,943,943,943,943,943,943,943,943,943,943,943,943,943,943,943,943,943,943,943,943,943,943,943,943,943,943,940,940,940,940,940,940,940,940,940,940,938,938,938,935,935,843,843,841,841,841,839,837,835,835,833,831,829,827,827,827,827,827,829,831,831,835,841,843,843,845,849,849,851,851,854,935,935,933,933,933,933,933,933,933,933,930,930,933,930,930,930,930,930,930,930,930,930,930,930,928,928,925,925,925,925,928,928,928,928,928,928,928,928,928,928,928,928,928,928,928,928,925,925,925,925,925,925,925,925,925,925,925,925,925,925,925,923,923,923,923,923,923,925,923,923,925,923,923,923,923,923,923,923,923,923,923,923,923,920,920,920,920,920,920,920,920,920,920,920,920,918,918,918,918,918,918,918,918,918,915,915,915,915,915,915,915,915,915,915,915,915,915,915,915,915,915,915,915,915,915,915,915,915,915,915,915,915,915,915,913,913,913,913,913,913,913,913,913,913,913,910,910,910,910,908,908,908,908,908,908,908,906,906,908,908,908,908,908,908,906,906,906,906,906,906,906,906,906,903,903,903,903,903,903,903,906,906,906,906,906,906,906,903,903,903,903,901,901,901,901,901,901,901,901,901,901,901,898,898,898,901,901,901,901,901,901,901,898,898,898,898,898,898,896,896,896,896,896,896,896,896,894,894,896,896,894,894,894,894,896,896,896,894,894,896,896,894,894,894,894,894,894,894,894,894,891,891,891,891,894,891,891,891,891,891,889,889,889,889,889,889,889,889,889,889,889,889,889,887,887,887,887,887,887,887,887,885,885,887,887,887,887,887,887,887,887,887,887,889,889,889,887,887,887,887,885,885,885,885,885,885,885,885,885,885,882,882,882,882,882,882,882,882,882,882,882,882,882,882,882,882,0,0,0,0,0,0,0,0,0,0,0,0,0,0,0,0,0,0,0,0,0,0,0,0,0,0,0,0,0,0,0,0,0,0,0,0
0,0,0,0,984,984,984,984,981,981,981,981,981,978,978,978,978,978,978,978,978,978,978,975,975,975,975,975,975,975,975,975,975,978,975,975,975,975,973,970,970,970,970,970,970,970,970,970,970,967,967,967,967,967,967,967,967,970,970,970,970,970,967,967,967,967,967,967,967,967,967,967,964,964,964,964,964,964,964,964,964,967,967,967,967,967,967,967,964,964,964,964,964,967,967,967,967,967,964,964,964,964,964,964,964,964,964,964,964,964,962,962,962,959,959,959,959,962,962,962,962,962,962,962,959,959,959,959,959,959,956,956,956,956,956,956,956,956,956,956,959,956,956,956,956,956,956,954,954,954,954,954,954,954,954,954,956,954,954,954,954,954,954,954,954,954,954,954,951,951,951,948,948,948,948,948,948,946,946,948,948,948,948,948,948,948,948,948,948,948,948,948,946,946,946,946,946,946,946,946,946,946,946,943,943,943,943,943,943,943,940,940,943,940,940,943,940,940,940,940,940,940,940,943,943,943,943,943,940,940,940,940,938,938,938,938,938,938,938,938,938,938,938,935,935,935,935,935,935,843,843,841,841,841,839,837,835,833,833,829,829,827,827,827,829,829,831,833,835,841,843,843,845,849,851,854,854,854,933,933,933,930,930,930,928,928,928,930,928,928,930,928,928,928,930,930,930,928,928,928,928,928,925,925,925,925,923,923,928,925,925,925,925,925,925,928,928,928,928,928,925,925,925,925,923,923,923,923,923,923,923,923,923,923,923,923,923,920,920,920,920,920,920,918,918,918,918,918,923,920,920,920,920,920,920,920,920,920,920,920,920,918,918,918,918,918,918,918,918,918,918,918,918,918,918,915,915,915,915,915,915,915,913,913,915,915,915,915,915,915,915,915,915,915,913,913,913,913,915,913,913,913,913,910,910,913,913,913,910,910,910,910,913,910,910,910,910,910,910,910,910,910,910,908,908,908,908,908,908,908,908,906,906,906,906,906,906,906,906,906,906,906,903,903,903,903,903,903,903,901,901,901,901,901,901,901,901,901,903,903,903,903,903,903,903,901,901,901,901,898,898,898,898,898,898,898,898,898,898,898,898,898,898,898,898,898,898,898,898,898,898,898,898,896,896,896,896,894,894,894,894,894,894,894,894,894,894,894,894,891,891,891,894,894,891,891,894,894,891,891,891,891,894,891,891,891,891,891,889,889,889,889,889,889,889,887,887,889,889,887,887,887,887,887,887,887,887,887,887,887,887,887,887,885,885,885,887,885,885,882,882,882,882,882,885,885,885,885,885,885,885,887,887,887,887,887,885,885,885,882,882,882,882,882,882,882,882,882,882,882,882,882,882,880,880,880,880,880,880,880,880,880,880,880,0,0,0,0,0,0,0,0,0,0,0,0,0,0,0,0,0,0,0,0,0,0,0,0,0,0,0,0,0,0,0,0,0,0,0,0
0,0,0,0,981,981,981,981,978,978,978,978,978,978,978,978,978,978,978,978,978,978,975,975,975,975,975,975,973,973,973,975,975,975,973,973,973,973,970,970,967,967,967,967,967,967,967,967,967,967,967,967,967,967,967,967,967,967,967,967,967,967,967,967,967,967,967,967,967,967,967,967,964,964,964,964,962,962,962,962,964,964,964,964,964,964,964,964,964,964,964,964,964,964,964,964,964,962,962,962,962,962,962,962,962,962,962,962,962,962,962,962,959,959,959,959,959,962,959,959,962,962,962,962,959,959,959,959,959,959,956,954,954,954,956,956,956,956,956,956,956,954,954,954,954,954,954,954,954,954,954,951,951,951,951,951,951,951,951,951,951,951,951,951,951,951,951,951,948,948,948,946,946,946,946,946,946,946,946,946,946,946,946,946,946,946,946,946,946,946,946,946,946,946,946,946,946,943,943,943,943,943,943,943,943,943,940,940,940,940,940,940,940,938,938,938,938,938,940,940,940,940,940,940,940,940,938,938,938,938,938,938,938,938,935,935,935,935,935,935,935,935,935,935,935,935,933,933,935,935,845,843,843,841,839,839,837,835,833,831,829,829,827,827,829,831,831,835,839,841,843,843,847,851,851,854,854,856,933,933,930,930,928,928,928,925,925,925,925,925,925,928,928,928,928,928,928,928,925,925,925,925,925,925,923,923,923,923,925,925,925,925,925,925,925,925,925,925,925,925,923,923,923,920,920,923,920,920,920,920,920,920,920,920,920,920,920,920,918,918,918,918,918,918,918,915,915,915,918,918,918,918,920,920,920,920,920,920,920,920,918,918,918,918,918,918,915,915,915,915,915,915,915,915,915,915,915,915,915,915,913,913,910,910,910,913,913,913,913,913,913,913,913,913,910,910,910,910,910,910,908,908,908,910,908,908,908,910,910,910,910,910,910,908,908,908,908,908,908,908,908,908,908,908,908,908,908,906,906,906,906,903,903,903,903,903,903,903,903,903,903,903,901,901,901,903,903,901,901,901,901,898,898,898,898,898,898,898,901,901,898,898,901,901,898,898,898,898,898,898,898,898,898,898,898,898,898,896,896,896,896,896,896,896,896,896,896,896,896,896,896,896,896,896,896,896,891,891,891,891,891,891,891,891,891,891,891,891,891,891,889,889,889,889,889,891,891,891,889,889,889,889,891,889,889,891,889,889,889,887,887,887,887,887,887,885,885,887,887,887,887,887,887,885,885,887,887,885,885,885,887,887,887,885,885,885,885,885,882,882,882,882,882,882,882,882,882,882,882,882,882,885,885,885,887,885,882,882,882,882,882,882,882,882,882,880,880,880,880,880,880,880,880,880,880,880,878,878,878,878,878,878,878,880,0,0,0,0,0,0,0,0,0,0,0,0,0,0,0,0,0,0,0,0,0,0,0,0,0,0,0,0,0,0,0,0,0,0,0,0
0,0,0,0,981,981,978,978,978,978,978,978,978,975,975,975,975,975,978,978,978,978,975,975,975,975,975,973,973,973,973,973,973,973,973,970,970,970,967,967,967,967,967,967,967,967,967,967,967,967,967,967,967,967,967,967,967,967,967,967,967,967,967,967,967,967,964,964,964,964,964,964,962,962,962,962,959,959,959,962,962,964,962,962,962,962,962,959,959,959,962,962,962,962,962,962,962,959,959,959,959,959,959,959,959,959,959,959,959,959,959,959,959,959,959,959,959,959,959,959,959,959,959,959,956,956,959,956,956,956,954,954,954,954,954,954,954,954,954,954,954,951,951,951,951,951,951,951,951,951,951,948,948,948,948,948,948,948,948,946,946,946,946,948,948,948,948,948,946,946,946,946,946,946,946,946,946,946,946,946,946,946,943,943,943,943,943,943,943,946,946,943,943,943,943,943,943,940,940,940,940,940,940,940,940,940,940,940,940,938,938,938,938,938,938,938,935,935,938,938,938,938,938,938,938,938,938,938,935,935,935,938,935,935,935,935,935,935,935,935,933,933,933,933,933,933,933,933,933,935,845,845,843,843,841,839,837,835,833,833,831,829,829,831,831,831,833,837,841,843,843,845,847,851,854,854,854,933,933,930,928,928,925,925,925,925,925,925,925,923,923,925,923,923,925,925,925,925,925,925,923,923,923,923,923,923,923,923,925,923,923,923,923,923,923,923,923,923,923,923,920,920,920,920,920,920,918,918,918,918,918,918,918,918,918,918,918,918,918,918,915,915,915,915,915,915,915,915,915,915,915,915,915,915,918,918,918,918,918,918,918,918,915,915,915,915,915,915,913,913,913,913,913,913,913,913,913,913,913,913,910,910,910,910,910,910,910,910,910,913,913,910,910,910,908,908,908,908,908,908,908,908,908,908,908,908,908,908,908,908,908,908,908,908,908,908,908,908,908,908,908,908,906,906,906,906,906,903,903,903,903,901,901,901,901,901,901,901,901,903,901,901,901,901,901,901,901,898,898,898,898,898,898,898,898,898,898,898,898,898,898,898,898,896,896,896,896,896,896,896,896,896,896,896,896,896,896,896,896,896,896,894,894,894,894,894,894,894,894,894,894,894,894,894,894,891,889,889,889,889,889,889,889,889,891,891,891,891,889,889,889,889,887,887,887,887,887,887,889,889,889,889,889,889,889,889,889,889,887,887,885,885,885,885,882,882,885,887,887,885,885,885,885,885,885,885,885,885,885,885,885,885,885,882,882,882,882,882,882,880,880,880,880,880,880,880,880,880,882,882,882,882,882,882,885,882,882,882,882,880,880,880,880,880,880,880,880,880,880,880,880,880,880,880,878,878,878,878,878,878,878,875,875,0,0,0,0,0,0,0,0,0,0,0,0,0,0,0,0,0,0,0,0,0,0,0,0,0,0,0,0,0,0,0,0,0,0,0,0,0
0,0,0,978,978,978,978,975,975,975,975,975,975,975,975,975,975,975,975,975,975,975,975,975,975,973,973,973,973,970,970,970,970,970,970,970,967,967,967,964,964,964,964,964,964,964,964,964,964,964,964,964,964,964,964,964,964,967,967,967,967,967,964,964,964,964,964,964,964,964,964,962,959,959,959,959,959,959,959,959,962,962,962,962,959,959,959,956,956,956,956,956,956,959,959,962,959,959,959,956,956,956,956,956,956,956,956,956,956,956,956,956,956,956,956,956,956,956,956,956,956,956,956,956,956,954,954,954,954,951,951,951,951,951,951,951,951,951,951,951,951,948,948,948,948,948,948,948,948,948,948,946,946,946,946,946,946,946,946,946,946,946,946,943,943,943,946,946,946,946,946,943,943,943,943,943,943,943,943,943,943,943,943,943,940,940,943,943,943,943,943,943,943,943,940,940,940,940,940,938,938,940,940,938,938,938,938,938,938,935,935,935,935,935,935,935,935,935,935,935,935,935,935,935,935,935,935,935,935,935,935,933,933,935,935,935,933,933,933,933,933,930,930,930,930,930,930,930,930,849,849,845,845,843,843,841,839,837,835,833,833,831,831,831,833,833,835,839,841,843,843,845,849,851,854,854,854,930,930,925,925,925,925,925,925,925,925,923,923,923,923,923,923,923,923,923,923,923,923,923,923,920,920,920,920,920,920,920,923,923,920,920,920,920,920,920,920,920,920,920,918,918,918,918,918,915,915,915,915,915,915,918,918,918,918,918,918,918,915,915,915,915,915,913,913,915,915,915,915,915,915,915,915,915,915,915,915,918,918,918,915,915,915,915,915,915,913,913,913,910,910,910,910,910,910,910,910,910,910,910,910,910,908,908,908,910,910,910,910,910,910,908,908,908,908,908,906,906,906,906,906,906,906,906,906,906,906,906,906,906,903,903,903,906,906,906,906,906,906,906,906,906,906,906,906,906,903,903,903,903,901,901,901,901,898,898,901,901,901,901,898,898,898,898,898,898,898,898,898,898,898,898,898,898,898,898,898,898,898,898,896,896,896,896,896,896,896,896,896,896,896,896,896,896,896,896,894,894,894,894,894,894,894,894,894,891,891,891,891,891,894,894,894,891,891,891,889,889,889,889,889,889,887,887,889,889,889,889,889,887,887,887,887,887,887,887,887,887,887,887,887,887,887,887,887,887,887,887,885,885,885,885,882,882,882,882,882,882,882,882,882,882,882,882,882,885,885,885,882,882,882,882,882,880,880,880,880,880,880,880,880,880,880,880,880,880,880,880,880,880,880,880,880,880,882,880,880,880,880,880,880,880,880,878,878,878,878,878,878,878,878,878,878,878,878,878,875,875,873,873,873,873,873,0,0,0,0,0,0,0,0,0,0,0,0,0,0,0,0,0,0,0,0,0,0,0,0,0,0,0,0,0,0,0,0,0,0,0,0,0
0,0,0,978,978,978,975,975,975,975,975,973,973,973,970,970,970,970,970,973,973,973,975,973,973,970,970,970,970,970,970,967,967,967,967,967,967,967,964,964,964,964,964,964,964,964,964,964,964,964,964,964,964,964,964,964,964,964,964,964,964,964,964,964,964,964,964,962,962,962,962,959,959,959,959,959,956,956,956,959,959,959,959,959,959,959,956,954,954,954,954,956,956,956,956,956,956,956,956,956,956,956,956,954,954,954,954,954,954,954,954,954,954,956,956,956,956,956,956,954,954,954,954,954,954,954,951,951,948,948,948,948,948,948,948,948,948,948,948,948,948,948,946,946,946,946,946,946,946,946,946,946,946,946,946,943,943,943,943,943,943,943,943,943,943,940,940,940,940,940,943,940,940,943,943,943,943,943,943,940,940,940,940,940,940,940,940,940,940,940,940,940,940,940,938,938,938,938,938,935,935,938,938,938,935,935,935,935,935,935,933,933,933,933,933,935,933,933,933,933,933,933,933,933,933,933,933,933,933,933,933,933,933,933,933,933,933,933,933,930,930,930,930,930,930,930,930,930,930,849,849,847,845,843,843,841,841,839,837,835,835,833,833,833,833,835,837,839,841,843,843,847,851,854,854,856,856,858,930,925,923,923,923,923,923,923,923,923,923,920,920,923,920,920,920,920,920,918,918,918,918,918,918,920,920,920,920,920,920,920,920,918,918,918,918,918,918,918,918,918,918,918,915,915,915,915,913,913,913,913,915,915,915,915,915,915,915,915,915,915,913,913,913,913,913,913,913,913,913,913,913,913,913,913,913,913,913,913,913,913,915,913,913,913,913,913,913,910,910,908,908,908,908,908,908,908,908,908,908,908,908,908,908,908,908,908,908,908,908,908,908,908,908,906,906,906,906,906,906,903,903,903,906,906,903,903,903,903,903,903,901,901,901,903,901,901,901,903,903,903,903,903,903,903,903,903,903,901,901,901,901,898,898,898,898,898,898,898,898,898,898,898,898,896,896,898,898,896,896,896,896,896,896,896,896,896,896,896,896,896,896,896,894,894,894,894,894,894,894,894,894,894,894,894,894,894,891,891,891,891,891,891,891,891,891,889,889,889,889,889,889,889,889,889,889,889,887,887,887,887,887,887,887,887,887,887,887,887,887,887,887,885,885,885,885,885,885,885,885,885,885,885,885,887,885,885,885,885,885,885,882,882,882,880,880,880,882,882,882,882,882,882,880,880,880,882,882,882,882,882,880,880,880,880,880,880,880,880,880,878,878,880,878,878,878,878,878,878,878,878,878,878,878,878,880,880,880,880,878,878,878,878,878,878,875,875,875,878,878,878,878,878,878,878,875,875,873,873,871,871,871,871,871,0,0,0,0,0,0,0,0,0,0,0,0,0,0,0,0,0,0,0,0,0,0,0,0,0,0,0,0,0,0,0,0,0,0,0,0,0
0,0,0,975,975,975,975,975,973,973,973,973,970,970,970,970,970,970,970,970,970,970,973,973,970,970,970,967,967,967,967,967,967,964,964,964,964,964,964,962,962,962,964,964,964,964,964,964,964,962,962,962,962,962,962,962,962,962,962,962,962,962,962,962,962,962,962,962,959,959,959,959,956,956,956,956,956,956,956,956,959,959,959,956,956,954,954,954,954,954,954,954,954,956,956,956,954,954,954,954,954,954,954,954,954,954,954,954,954,954,954,954,954,954,954,954,954,954,954,954,954,954,951,951,951,948,948,946,946,946,946,946,946,946,946,946,946,946,946,946,946,946,946,946,946,946,946,946,946,946,946,946,946,946,943,943,943,940,940,940,940,940,940,940,940,940,938,938,938,938,938,938,938,938,940,940,940,940,940,940,940,940,938,938,938,938,938,938,938,938,938,940,940,938,938,935,935,935,935,935,935,935,935,935,935,933,933,933,933,933,933,933,933,933,933,933,933,933,930,930,930,930,930,930,930,933,933,933,933,930,930,930,930,930,930,930,928,928,928,928,928,928,928,930,930,928,928,928,928,928,847,847,845,845,843,843,841,841,839,837,835,835,835,835,835,835,837,841,843,843,845,847,851,854,856,858,858,858,925,923,923,923,923,920,920,923,920,920,920,918,918,920,920,920,920,918,918,918,915,915,915,915,915,915,915,915,918,918,920,918,918,918,918,918,918,918,918,918,918,918,915,915,915,913,913,913,913,910,910,910,910,913,913,913,913,913,913,913,913,913,913,913,913,913,913,913,910,910,910,910,913,913,913,913,913,913,910,910,910,910,910,910,910,913,913,910,910,910,908,908,908,908,908,908,908,908,908,908,908,906,906,906,906,906,906,906,908,906,906,906,906,906,906,906,903,903,903,903,903,903,903,903,903,903,901,901,901,901,901,901,901,898,898,901,901,901,898,898,898,901,901,901,901,901,901,898,898,898,898,898,898,898,898,898,896,896,896,896,896,896,896,896,896,896,896,896,896,896,896,896,896,896,896,896,896,896,896,896,894,894,894,894,891,891,891,891,891,891,891,891,889,889,889,894,894,891,891,891,891,891,889,889,889,889,889,889,889,887,887,887,887,889,887,887,887,887,887,887,885,885,885,885,885,885,885,885,885,882,882,885,885,885,885,885,882,882,882,882,882,882,882,882,882,882,882,885,882,882,882,880,880,880,880,880,880,880,880,880,880,880,880,880,880,880,880,880,880,880,880,880,878,878,878,878,878,878,878,878,878,878,878,878,878,878,878,878,878,878,878,875,875,878,875,875,875,875,875,878,878,875,875,875,875,875,873,873,873,875,875,875,875,875,875,875,873,873,871,871,871,871,869,869,869,0,0,0,0,0,0,0,0,0,0,0,0,0,0,0,0,0,0,0,0,0,0,0,0,0,0,0,0,0,0,0,0,0,0,0,0,0
0,0,0,975,975,975,975,973,973,973,973,970,970,970,967,967,967,967,967,967,967,967,967,967,967,967,967,967,967,967,967,964,964,962,962,962,962,962,962,962,959,959,962,962,962,962,962,962,962,959,959,959,959,956,956,956,956,956,959,959,959,959,959,959,959,959,959,959,956,956,956,956,956,956,956,956,956,956,956,956,956,956,956,954,954,951,951,951,951,951,954,954,954,954,954,954,951,951,951,951,951,951,951,951,951,954,954,951,951,951,951,954,954,954,954,951,951,951,951,951,948,948,948,948,948,946,946,946,946,946,946,943,943,943,943,943,943,943,943,943,943,943,943,943,943,943,943,943,943,943,943,943,943,943,943,940,940,940,940,940,940,940,940,940,938,938,938,938,938,938,935,935,935,935,935,935,935,935,938,938,938,938,935,935,935,935,935,935,938,938,938,938,938,935,935,933,933,933,933,933,933,933,933,933,933,933,930,930,930,930,930,930,930,933,933,933,930,930,928,928,928,928,928,928,928,930,930,930,930,928,928,928,928,928,928,925,925,925,925,925,925,925,925,925,925,925,925,925,925,925,925,847,847,845,845,843,843,841,841,839,837,837,837,837,837,837,837,841,843,843,845,849,854,854,856,858,858,918,918,918,918,918,920,920,920,920,920,920,918,918,918,918,918,918,918,918,918,915,915,913,913,913,913,913,913,913,913,915,918,918,918,918,918,915,915,915,915,915,915,915,915,913,913,910,910,910,910,910,910,910,910,910,910,913,913,913,910,910,910,910,910,910,910,910,910,910,908,908,908,910,910,910,910,910,910,910,908,908,908,908,908,908,908,908,908,908,908,908,908,906,906,906,906,906,906,906,906,906,906,903,903,906,906,903,903,906,906,903,903,903,903,903,903,903,903,903,903,901,901,901,901,901,901,901,898,898,898,898,898,898,898,898,898,898,898,898,898,898,898,898,898,898,898,898,898,898,896,896,896,896,896,896,896,896,896,896,896,894,894,896,896,896,896,896,896,896,896,896,894,894,894,894,894,894,894,894,894,894,894,891,891,891,891,891,891,891,891,889,889,889,889,889,889,889,889,889,889,889,889,889,889,889,889,889,887,887,887,887,887,887,887,887,887,887,887,887,887,885,885,885,885,885,885,885,882,882,882,882,882,880,880,882,882,882,882,880,880,882,882,880,880,880,880,880,880,880,880,880,880,880,880,880,880,880,880,880,880,880,880,880,880,880,880,880,880,880,880,880,878,878,878,875,875,875,875,875,878,878,878,878,878,878,878,878,878,878,878,878,875,875,875,875,873,873,871,871,873,875,875,873,873,873,873,873,873,873,873,873,873,873,873,873,873,873,871,871,871,871,869,869,867,867,867,0,0,0,0,0,0,0,0,0,0,0,0,0,0,0,0,0,0,0,0,0,0,0,0,0,0,0,0,0,0,0,0,0,0,0,0,0
0,0,0,973,973,973,973,973,970,970,964,964,967,967,967,964,964,964,964,964,964,964,964,964,964,964,964,964,964,962,962,964,962,959,959,959,959,959,959,959,956,956,959,959,959,959,959,959,959,959,956,956,956,956,956,956,956,956,956,956,956,956,956,959,956,956,956,956,956,956,956,956,956,956,954,954,954,954,954,954,951,951,951,951,951,948,948,948,948,951,951,951,951,954,951,951,951,948,948,948,948,951,948,948,948,948,948,948,948,948,948,951,951,951,951,948,948,948,948,946,946,946,946,946,946,946,946,946,943,943,943,943,943,943,940,940,940,940,940,940,940,940,940,940,940,940,940,940,940,940,940,940,940,940,938,938,938,938,938,938,938,938,938,938,938,935,935,935,935,935,935,935,935,933,933,933,933,933,933,933,935,935,935,935,935,935,935,935,935,935,935,935,935,935,933,933,933,933,933,933,930,930,930,930,930,930,928,928,928,928,928,928,928,928,928,930,928,928,925,925,925,925,925,925,928,928,928,928,928,928,925,925,925,925,925,925,923,923,923,923,923,923,923,923,923,923,923,923,923,923,923,849,849,849,847,845,843,843,841,841,839,839,837,837,837,839,839,841,843,843,845,851,854,854,856,858,860,918,918,918,918,918,918,918,918,915,915,915,915,915,915,915,915,915,915,915,915,915,913,913,913,913,913,913,913,913,913,913,915,915,915,915,915,915,915,915,915,915,915,913,913,913,910,910,910,908,908,908,908,908,908,908,908,910,910,910,908,908,908,910,910,910,908,908,908,908,908,908,908,908,908,910,908,908,908,908,908,908,908,908,908,908,908,906,906,906,903,903,906,906,906,906,906,906,906,906,903,903,903,903,903,903,903,903,903,903,901,901,901,901,901,901,901,901,901,901,901,901,901,898,898,898,898,898,898,896,896,896,896,896,896,896,896,898,896,896,896,896,896,896,896,896,896,896,896,896,896,896,896,896,896,896,896,894,894,894,894,894,894,894,894,894,894,894,894,894,894,894,894,891,891,891,891,891,889,889,889,889,889,889,889,889,889,889,889,889,889,889,889,889,889,887,887,887,887,887,887,887,887,887,887,887,887,887,887,885,885,885,885,885,885,885,885,885,885,885,885,885,882,882,882,882,882,882,882,880,880,880,880,880,880,880,880,880,880,880,880,880,880,880,880,880,880,880,880,878,878,878,875,875,878,878,878,878,878,878,878,880,880,878,878,878,878,878,878,878,878,878,875,875,875,875,875,875,875,875,875,875,875,875,875,875,875,875,878,875,875,875,873,873,873,873,873,871,869,869,869,869,871,871,871,873,873,871,871,871,873,873,871,871,869,869,869,869,869,869,869,869,869,867,867,864,864,0,0,0,0,0,0,0,0,0,0,0,0,0,0,0,0,0,0,0,0,0,0,0,0,0,0,0,0,0,0,0,0,0,0,0,0,0
0,0,0,970,970,967,967,967,967,964,964,964,964,964,964,962,962,964,964,962,962,962,964,964,962,962,962,962,962,962,962,962,959,959,959,959,959,959,956,956,956,956,956,956,956,956,956,956,956,956,954,954,954,954,954,954,954,954,954,954,954,954,956,956,956,956,956,956,956,954,954,954,954,954,954,951,951,951,951,951,951,951,948,948,948,948,946,946,948,948,948,948,951,951,948,948,948,946,946,946,946,948,948,946,946,946,946,946,946,946,948,948,948,948,948,946,946,946,946,946,943,943,943,943,943,943,943,943,943,943,940,940,938,938,938,938,938,938,938,938,938,940,940,940,940,938,938,938,938,938,935,935,938,938,935,935,935,935,935,938,938,938,938,935,935,935,935,933,933,935,935,933,933,933,933,933,933,933,933,933,933,933,933,933,933,933,933,933,935,935,935,935,935,933,933,930,930,930,930,930,930,930,930,930,928,928,925,925,925,925,925,925,925,925,925,928,925,925,925,925,925,925,925,925,925,925,925,925,925,925,925,923,923,923,923,923,920,920,920,920,920,920,920,920,920,920,918,918,918,915,915,858,854,851,849,847,845,843,843,841,841,839,839,839,839,839,841,843,843,843,845,851,854,854,856,858,860,862,918,915,915,915,915,915,915,915,915,913,913,913,913,913,913,913,913,913,913,913,913,913,910,910,910,910,910,910,910,910,913,913,913,913,913,913,913,913,913,913,913,913,913,910,910,908,908,908,908,908,908,906,906,908,908,908,908,908,908,908,908,908,908,908,908,908,908,908,908,908,908,908,908,908,908,908,906,906,906,906,906,906,906,906,906,903,903,903,903,903,901,901,901,901,903,903,903,903,903,901,901,901,901,901,901,901,901,901,901,901,898,898,898,898,898,898,898,898,898,898,898,898,898,898,898,896,896,896,896,896,896,896,896,896,896,896,896,896,896,896,896,896,896,894,894,894,894,894,894,894,894,894,894,894,891,891,891,891,891,891,891,891,891,891,891,891,891,891,889,889,889,889,889,889,889,889,889,887,887,887,887,887,887,887,887,887,887,887,887,887,887,887,887,887,887,885,885,885,885,887,882,882,885,885,885,885,882,882,882,882,882,882,882,882,882,882,882,882,882,882,880,880,880,880,880,880,880,880,880,880,878,878,880,880,880,880,880,878,878,880,878,878,878,878,880,878,878,878,878,875,875,875,875,875,878,878,878,878,878,878,878,878,878,875,875,875,875,875,875,875,873,873,873,873,873,873,873,873,873,873,873,873,873,873,873,875,875,875,875,873,873,873,871,871,871,869,869,869,869,869,869,869,869,869,871,871,871,871,871,871,869,869,867,867,867,867,867,867,867,867,864,864,864,864,864,0,0,0,0,0,0,0,0,0,0,0,0,0,0,0,0,0,0,0,0,0,0,0,0,0,0,0,0,0,0,0,0,0,0,0,0,0
0,0,0,967,967,964,962,962,962,964,962,962,964,962,962,959,959,959,959,959,959,959,959,962,959,959,959,959,959,959,956,956,956,956,956,954,954,956,956,956,954,954,954,954,954,954,954,951,951,954,954,954,954,954,954,954,954,954,954,951,951,954,954,954,954,954,954,954,954,954,954,954,951,951,951,951,951,948,948,948,948,948,948,948,948,946,946,946,946,948,948,948,948,948,948,946,946,946,946,946,946,946,946,946,946,946,946,946,946,946,946,946,946,946,943,943,943,943,943,943,943,943,943,943,943,943,943,943,943,940,938,938,938,938,938,938,935,935,938,938,938,938,938,938,938,938,938,935,935,935,935,935,935,935,935,935,935,935,935,935,935,935,935,935,935,935,933,933,933,933,933,933,933,933,933,933,933,933,933,933,930,930,930,930,930,928,928,928,933,933,933,933,933,933,930,930,928,928,930,930,928,928,928,928,928,925,925,925,925,925,925,925,925,925,925,925,925,925,925,925,925,925,925,925,925,925,925,923,923,923,923,923,923,923,920,920,920,918,918,918,918,918,918,918,918,918,915,915,915,915,915,858,854,851,851,849,847,843,843,843,841,841,839,839,841,841,841,843,843,843,845,851,854,856,858,860,860,862,915,915,913,913,915,913,913,913,913,913,913,913,910,910,910,910,910,910,910,910,910,910,908,908,908,908,910,910,910,910,913,913,910,910,910,908,908,908,910,910,910,910,910,910,908,908,908,908,906,906,906,906,906,906,906,906,906,906,906,906,906,908,908,908,908,906,906,906,906,906,906,906,906,906,906,906,906,906,906,906,906,903,903,903,903,901,901,901,901,901,898,898,898,898,898,898,898,898,901,898,898,898,898,898,898,898,898,898,898,898,898,898,898,898,898,896,896,896,896,896,896,896,896,896,896,894,894,894,894,894,894,894,894,896,896,896,894,894,894,894,894,894,894,894,891,891,891,891,891,891,891,891,891,891,891,891,891,891,889,889,889,889,889,889,889,889,889,889,889,889,889,887,887,887,887,887,887,887,887,887,887,887,885,885,885,887,885,885,885,887,887,887,887,885,885,885,882,882,882,882,880,880,880,880,880,880,882,880,880,882,882,880,880,880,882,882,880,880,880,880,880,880,880,880,880,880,878,878,878,878,878,878,878,878,880,878,878,878,878,878,878,878,878,878,878,878,878,875,875,873,873,873,873,875,875,875,875,875,875,875,875,875,873,873,873,873,873,873,873,871,871,871,873,873,873,873,873,873,873,873,873,871,871,871,871,871,871,871,871,871,871,871,869,869,869,869,867,867,867,867,869,869,869,869,869,869,869,869,869,869,869,867,867,867,867,867,867,867,864,864,862,862,862,862,862,0,0,0,0,0,0,0,0,0,0,0,0,0,0,0,0,0,0,0,0,0,0,0,0,0,0,0,0,0,0,0,0,0,0,0,0,0
0,0,0,964,964,959,959,956,956,959,959,959,962,962,959,959,959,959,959,959,956,956,956,956,956,956,956,956,956,954,954,954,954,954,954,954,954,954,954,954,954,954,954,954,954,954,954,951,951,951,951,951,951,951,951,951,951,954,951,951,951,951,951,951,951,951,951,951,951,951,951,951,951,948,948,948,948,948,946,946,946,946,946,946,946,946,946,946,946,948,946,946,946,946,946,946,943,943,943,943,943,943,943,943,943,943,943,943,943,943,943,943,943,943,940,940,938,938,938,938,940,940,940,940,940,940,940,940,940,938,938,938,935,935,935,935,935,935,935,935,935,935,935,935,935,935,935,935,935,935,935,935,935,933,933,933,933,933,933,933,933,935,935,933,933,933,933,933,933,933,933,933,933,933,933,930,930,930,930,930,928,928,928,928,928,928,928,928,928,930,928,928,930,930,928,928,928,928,928,928,928,925,925,925,925,925,925,925,925,925,923,923,923,925,925,925,923,923,923,923,923,923,923,923,923,923,923,923,923,923,923,923,920,920,918,918,918,915,915,915,915,915,915,915,915,915,915,915,915,913,913,858,856,856,851,851,849,845,845,843,841,841,841,841,841,841,841,843,843,845,847,854,854,856,858,860,860,862,913,913,913,913,913,913,913,910,910,910,910,910,910,910,910,910,910,908,908,908,908,908,908,906,906,908,908,908,906,906,908,910,908,908,908,908,908,908,908,908,908,908,908,908,908,906,906,906,906,906,906,906,906,906,906,906,903,903,903,903,906,906,906,906,906,906,906,903,903,903,903,901,901,901,901,903,903,903,903,903,903,903,901,901,901,901,898,898,898,898,898,898,898,898,898,896,896,896,896,896,898,896,896,898,898,898,898,898,898,898,898,898,896,896,896,896,896,896,894,894,896,896,896,896,894,894,891,891,891,891,891,891,894,894,894,891,891,891,891,891,891,891,891,891,891,891,891,889,889,889,889,889,889,889,889,889,889,889,887,887,887,889,887,887,889,889,889,887,887,887,887,887,885,885,885,885,885,885,885,882,882,882,882,882,882,885,885,885,885,885,885,885,885,885,885,882,882,880,880,880,880,880,880,878,878,880,880,880,880,880,880,880,880,880,880,880,880,880,880,880,880,880,880,878,878,878,878,878,878,878,875,875,875,875,878,875,875,875,875,875,875,875,875,875,875,875,873,873,873,873,871,871,871,873,873,873,873,871,871,873,873,871,871,871,871,871,871,869,869,871,871,871,871,871,871,871,871,871,871,871,871,871,871,869,869,869,869,869,869,869,869,869,869,867,867,867,864,864,864,864,867,867,867,867,867,867,867,864,864,869,867,867,864,864,864,864,864,864,862,862,862,862,862,862,862,0,0,0,0,0,0,0,0,0,0,0,0,0,0,0,0,0,0,0,0,0,0,0,0,0,0,0,0,0,0,0,0,0,0,0,0,0
0,0,0,959,959,956,956,956,956,956,956,956,959,959,959,956,956,956,956,956,956,954,954,954,954,954,954,954,954,954,954,954,954,954,951,951,951,954,954,954,954,951,951,951,948,948,948,948,948,948,948,948,948,948,948,951,951,951,951,948,948,948,948,948,948,948,948,951,951,948,948,948,948,946,946,946,946,946,946,946,946,946,946,946,946,943,943,943,946,946,946,943,943,943,943,943,943,940,940,940,940,940,940,940,940,943,943,940,940,940,940,940,940,938,938,938,938,938,938,938,938,938,938,938,940,938,938,938,938,938,935,935,935,935,935,935,935,935,935,935,935,935,935,935,935,935,935,935,935,933,933,933,933,933,933,933,933,933,933,933,933,933,933,930,930,930,930,930,930,930,930,930,930,930,930,928,928,928,928,928,925,925,925,925,925,925,925,925,925,928,925,925,925,925,925,925,925,925,925,925,925,925,925,925,925,923,923,923,923,923,923,923,923,923,923,923,923,923,923,923,923,923,923,923,920,920,920,920,920,920,920,920,918,918,915,915,915,915,915,915,915,915,915,915,915,915,913,913,913,913,913,858,856,856,856,851,849,847,845,845,843,841,841,841,841,841,841,843,843,845,851,854,854,858,858,860,862,864,867,913,910,910,910,910,910,910,910,908,908,910,908,908,908,908,908,906,906,906,906,906,906,906,906,906,906,906,906,906,908,906,906,906,906,906,906,906,906,906,906,906,906,906,906,906,906,903,903,906,906,903,903,903,903,903,903,903,903,903,906,906,906,903,903,903,903,903,901,901,901,898,898,898,898,898,901,898,898,901,901,901,898,898,898,898,898,898,896,896,896,896,896,896,896,896,896,896,896,896,896,896,896,896,896,896,896,896,896,896,896,896,896,896,894,894,894,894,891,891,894,894,894,894,891,891,891,889,889,889,889,891,891,891,891,889,889,889,889,889,889,889,889,889,889,889,889,889,889,889,889,889,889,887,887,887,887,887,887,887,887,887,885,885,887,887,887,887,885,885,885,885,885,885,885,885,885,882,882,882,882,882,880,880,880,882,882,882,882,885,885,882,882,882,882,880,880,880,880,880,878,878,878,878,878,878,878,878,878,878,880,880,880,880,880,880,878,878,878,878,878,878,878,878,875,875,875,875,875,875,875,875,873,873,873,873,873,871,871,873,873,873,873,873,873,873,873,871,871,871,871,871,871,871,871,871,871,869,869,871,869,869,871,869,869,869,869,869,869,869,869,869,869,869,869,869,869,869,869,869,871,869,869,869,867,867,867,867,867,867,867,867,867,867,867,864,864,864,862,862,864,864,864,864,864,864,864,864,864,864,864,864,864,864,862,862,862,862,862,862,860,860,860,860,860,0,0,0,0,0,0,0,0,0,0,0,0,0,0,0,0,0,0,0,0,0,0,0,0,0,0,0,0,0,0,0,0,0,0,0,0,0
0,0,0,959,956,956,954,954,954,954,954,954,956,956,956,956,956,956,954,954,954,954,954,951,951,951,951,951,954,954,954,954,951,951,951,951,951,951,951,951,951,951,951,948,946,946,946,946,946,946,946,948,948,946,946,948,948,948,948,946,946,946,946,946,946,946,946,946,946,946,946,946,946,946,946,946,946,943,943,943,943,943,943,943,943,943,943,943,943,943,940,940,940,940,940,940,940,938,938,938,938,938,938,938,938,940,940,938,938,938,938,938,938,935,935,935,935,935,935,935,935,935,935,935,933,933,933,935,935,935,935,935,935,935,935,935,935,933,933,933,935,935,935,935,935,935,935,933,933,933,933,933,933,930,930,930,930,928,928,928,928,928,928,928,928,928,930,930,928,928,930,928,928,928,928,925,925,925,925,925,925,925,925,925,925,925,925,925,925,925,925,923,923,925,923,923,923,923,923,923,923,923,923,923,923,923,923,920,920,923,920,920,920,920,920,920,920,920,920,920,920,920,920,918,918,918,918,918,915,915,918,918,918,918,915,915,915,915,915,915,915,915,915,915,915,913,913,913,910,910,910,858,858,858,858,856,851,849,847,845,843,843,841,841,841,841,843,843,845,845,851,854,854,858,858,862,862,867,867,867,908,908,906,906,908,908,908,906,906,908,906,906,906,906,906,906,906,906,906,906,906,903,903,906,903,903,903,906,906,906,906,906,906,906,906,906,903,903,903,903,903,903,901,901,903,903,903,903,903,903,901,901,903,903,901,901,901,901,903,903,903,903,901,901,901,901,898,898,898,898,898,896,896,898,898,898,898,898,898,898,896,896,896,896,896,896,896,896,896,896,896,894,894,894,894,894,894,894,894,894,894,894,894,896,896,896,896,896,896,896,894,891,891,891,891,891,891,891,891,891,891,891,889,889,889,889,889,889,889,889,889,889,889,889,889,889,887,887,887,887,887,887,889,889,889,887,887,887,887,887,887,887,887,887,885,885,882,882,885,885,882,882,882,882,882,885,882,882,882,882,882,882,882,882,882,882,882,882,880,880,880,880,880,880,880,880,880,880,880,880,880,880,880,880,880,878,878,878,878,878,878,878,878,878,878,875,875,875,875,875,875,878,878,878,878,878,878,878,878,875,875,875,873,873,873,871,871,871,871,871,871,871,871,871,871,871,871,871,871,871,871,871,871,871,871,871,871,871,869,869,869,869,869,869,869,869,869,869,869,869,869,869,869,869,869,869,869,869,867,867,867,867,867,867,867,867,867,867,869,867,867,867,864,864,864,864,864,864,864,864,864,864,864,862,862,862,862,862,862,862,862,862,862,862,862,862,862,862,862,862,862,862,862,862,860,860,860,860,860,860,858,858,860,0,0,0,0,0,0,0,0,0,0,0,0,0,0,0,0,0,0,0,0,0,0,0,0,0,0,0,0,0,0,0,0,0,0,0,0,0
0,0,0,959,956,956,954,954,954,954,954,954,954,954,956,954,954,954,954,954,951,951,951,951,948,948,951,951,951,951,951,948,948,948,948,948,948,946,946,946,946,946,946,946,943,943,946,943,943,943,943,943,943,943,946,943,943,943,946,946,943,943,943,943,943,943,943,943,943,943,943,943,943,943,943,943,943,943,943,943,940,940,940,940,940,940,940,940,940,938,938,938,938,938,938,938,938,938,938,935,935,935,935,935,935,938,938,938,938,935,935,935,935,935,935,935,935,935,935,935,933,933,933,933,930,930,933,933,933,933,933,935,935,933,933,933,933,933,933,933,933,933,933,933,933,933,933,933,933,933,933,930,930,928,928,928,928,928,928,925,925,925,925,925,925,925,925,925,925,925,925,925,925,925,925,925,925,925,925,923,923,925,925,925,925,923,923,923,923,923,923,920,920,923,923,920,920,920,920,920,920,920,920,920,920,920,920,920,920,920,920,920,920,920,920,918,918,918,918,918,918,915,915,915,915,915,915,915,915,915,915,915,915,915,913,913,915,913,913,915,913,913,913,913,913,913,910,910,908,908,908,858,858,858,858,856,856,854,849,847,845,845,843,843,843,843,843,843,845,845,851,854,854,858,860,864,864,867,867,867,906,906,906,906,906,906,906,906,906,906,906,903,903,903,903,903,903,903,903,903,903,903,903,903,903,903,903,903,903,903,903,903,903,903,903,903,903,903,903,903,901,901,901,901,901,898,898,901,901,901,901,901,901,901,901,901,901,901,901,901,898,898,898,898,898,898,898,898,898,896,896,896,896,896,896,896,896,896,896,896,896,896,894,894,894,894,894,894,894,894,894,894,894,891,891,891,894,894,894,891,891,891,891,891,894,894,894,894,894,894,894,889,889,889,889,889,889,889,889,889,889,889,889,889,887,887,887,887,887,887,889,889,889,887,887,887,887,887,887,887,887,887,887,887,887,887,887,887,887,885,885,885,885,885,882,882,882,880,880,880,880,880,880,882,882,882,882,882,882,882,882,880,880,880,880,880,880,880,880,880,880,880,878,878,878,878,878,878,878,878,878,878,878,878,878,878,875,875,878,878,875,875,875,875,875,873,873,873,873,873,873,873,873,875,878,878,878,878,875,875,873,873,871,871,871,871,871,871,871,871,871,871,871,871,871,869,869,869,869,869,869,869,869,869,869,869,869,869,869,869,869,869,867,867,869,867,867,867,867,867,867,867,867,867,867,867,867,864,864,864,864,864,864,864,864,864,864,864,867,864,864,864,862,862,862,862,862,862,864,862,862,862,864,862,862,862,862,862,862,860,860,860,860,860,860,860,860,860,860,860,858,858,858,860,860,858,858,858,858,858,858,858,858,0,0,0,0,0,0,0,0,0,0,0,0,0,0,0,0,0,0,0,0,0,0,0,0,0,0,0,0,0,0,0,0,0,0,0,0,0
0,0,0,959,956,956,954,954,954,954,954,954,954,954,954,954,954,951,951,951,948,948,948,948,948,948,948,948,948,948,948,946,946,946,946,946,946,943,943,943,943,943,943,943,943,943,943,943,943,940,940,940,940,940,940,938,938,938,940,943,940,940,940,940,943,940,940,940,940,940,940,940,940,940,940,940,940,940,940,940,938,938,938,938,938,938,938,938,938,938,938,935,935,935,935,935,935,935,935,935,935,935,935,935,935,935,935,935,935,933,933,933,933,933,933,933,933,933,933,933,933,933,930,930,928,928,930,930,930,930,930,930,933,930,930,933,933,933,933,933,933,933,933,933,933,933,933,933,933,930,930,930,928,928,925,925,925,925,925,925,925,925,925,925,925,923,923,923,923,923,923,925,925,925,925,923,923,923,923,923,923,923,923,923,923,923,923,923,923,920,920,920,920,920,920,920,920,920,920,918,918,915,915,915,918,918,918,918,918,918,918,918,918,918,918,918,918,915,915,915,915,913,913,913,913,913,913,915,913,913,913,913,913,913,913,913,913,913,913,913,913,913,913,913,910,910,908,908,906,906,906,858,858,858,858,858,856,854,851,849,849,845,843,843,843,843,843,845,845,847,851,854,856,858,862,864,867,867,869,869,901,901,901,903,903,903,903,903,906,903,903,903,901,901,903,903,903,903,903,903,903,903,903,903,901,901,901,901,901,901,901,901,901,901,901,901,901,901,901,901,898,898,898,898,898,898,898,898,898,898,898,898,898,898,898,898,898,898,898,898,898,896,896,896,896,896,896,896,896,896,896,896,896,896,896,894,894,894,891,891,894,891,891,891,891,891,891,891,891,891,891,891,891,891,891,891,891,891,891,891,891,891,891,891,891,889,889,889,889,891,889,889,889,889,887,887,887,887,887,887,887,887,887,887,887,887,887,887,887,887,887,887,887,887,887,887,885,885,885,885,885,885,885,885,885,885,885,885,885,885,885,885,885,885,882,880,880,880,880,880,880,880,880,880,880,882,880,880,880,880,880,880,880,880,880,880,880,880,878,878,878,878,878,875,875,875,875,875,875,875,875,875,875,875,875,875,875,875,875,875,875,875,875,875,875,873,873,873,873,873,873,873,873,873,873,873,875,875,875,875,873,871,871,871,869,869,869,869,869,869,869,869,869,869,869,869,869,869,869,869,869,869,869,869,869,869,869,869,869,867,867,867,867,867,867,864,864,864,864,864,864,864,864,864,864,864,864,864,862,862,862,862,862,862,862,862,862,862,862,862,862,862,862,862,862,862,862,862,862,862,862,862,862,862,862,862,860,860,860,860,860,860,860,860,860,860,858,858,858,858,856,856,856,856,858,858,856,856,858,856,856,856,856,0,0,0,0,0,0,0,0,0,0,0,0,0,0,0,0,0,0,0,0,0,0,0,0,0,0,0,0,0,0,0,0,0,0,0,0,0
0,0,0,956,956,954,954,954,954,954,954,951,951,954,954,954,954,951,948,948,948,946,946,946,946,946,946,946,946,946,946,946,943,943,943,943,943,940,940,940,940,940,940,940,940,940,943,940,940,940,940,938,938,938,938,938,938,938,938,938,938,938,938,938,938,938,938,938,938,938,938,938,938,940,938,938,938,935,935,935,935,935,935,935,935,935,935,935,935,935,935,935,935,935,935,935,935,935,935,933,933,935,935,933,933,935,935,933,933,933,933,933,933,933,930,930,933,933,930,930,928,928,928,928,925,925,928,928,928,928,928,928,928,928,928,928,928,928,928,928,928,928,930,930,930,930,930,930,930,928,928,928,928,925,925,925,925,925,923,923,923,923,923,923,923,923,923,923,923,923,923,923,923,923,923,923,920,920,920,920,920,920,923,923,923,920,920,920,918,918,918,918,918,918,918,918,918,918,915,915,915,915,915,915,915,915,915,915,915,915,915,915,915,915,915,915,915,915,913,913,913,913,913,910,910,910,910,913,910,910,910,910,910,910,910,910,910,910,910,913,910,910,910,908,908,908,908,906,906,906,906,858,858,858,860,858,858,856,854,851,849,849,847,847,847,845,845,845,845,849,854,854,856,860,862,864,867,867,869,898,898,898,898,901,901,903,903,903,903,903,901,898,898,898,898,901,901,901,901,901,901,901,901,901,898,898,898,901,898,898,898,898,898,898,898,898,898,898,898,898,898,896,896,898,898,898,898,898,898,898,898,898,898,898,898,896,896,896,896,896,896,896,896,894,894,894,894,894,894,894,894,894,894,894,894,891,891,891,889,889,891,891,889,889,889,889,889,889,889,889,889,889,889,889,889,889,889,889,889,889,889,889,889,889,889,889,887,887,887,887,887,887,887,887,887,887,887,887,887,887,887,887,887,885,885,885,885,885,885,885,885,887,887,885,885,885,885,885,885,885,882,882,882,882,882,882,882,882,882,882,882,882,882,882,880,880,880,880,880,880,878,878,878,878,880,880,880,880,878,878,878,878,878,878,878,878,878,878,878,878,878,878,875,873,873,873,873,873,873,873,873,873,873,873,873,873,873,873,873,873,873,873,873,873,873,871,871,871,871,871,871,871,871,871,871,871,871,871,871,871,871,871,871,869,869,869,869,869,869,869,869,869,869,869,869,869,869,867,867,867,864,864,867,867,867,867,867,867,867,864,864,864,862,862,862,862,862,862,862,862,864,864,864,864,862,862,860,860,860,860,860,860,860,860,862,862,862,862,862,862,862,862,860,860,860,860,860,862,862,862,862,862,862,862,860,860,860,860,860,860,860,858,858,858,858,858,856,856,856,856,854,854,854,854,856,856,856,856,856,856,854,854,854,0,0,0,0,0,0,0,0,0,0,0,0,0,0,0,0,0,0,0,0,0,0,0,0,0,0,0,0,0,0,0,0,0,0,0,0,0
0,0,0,956,954,954,954,954,954,951,951,951,951,951,954,954,951,948,948,948,946,946,943,943,943,943,946,943,943,943,943,943,943,940,940,940,940,940,938,938,940,940,938,938,940,940,940,940,938,938,938,938,938,938,938,938,938,935,935,935,935,935,935,935,935,935,938,938,938,938,938,938,938,938,935,935,935,933,933,933,933,933,933,933,933,933,933,933,933,933,933,933,933,933,933,933,935,933,933,933,933,933,933,933,933,933,933,933,933,930,930,930,930,930,930,930,930,930,928,928,925,925,925,925,925,925,925,925,925,925,925,925,928,925,925,925,925,925,925,925,925,925,925,928,928,928,928,928,928,928,928,925,925,925,923,923,923,923,923,923,923,920,920,920,920,920,920,920,920,920,920,923,920,920,920,918,918,918,918,918,918,918,918,920,918,918,918,918,915,915,915,915,915,915,915,915,915,915,915,915,915,913,913,913,913,915,915,915,913,913,913,913,913,913,913,913,913,913,913,910,910,910,910,908,908,908,908,910,908,908,908,908,908,908,908,908,908,910,910,910,910,908,908,906,906,906,906,906,903,903,903,903,906,860,860,860,860,858,854,851,851,851,849,847,847,847,847,847,847,851,854,854,856,860,864,867,867,867,875,887,887,894,896,898,898,901,901,901,901,898,898,896,896,896,896,896,898,898,898,898,898,898,898,896,896,896,896,898,898,898,898,898,898,898,896,896,898,898,896,896,896,896,896,896,896,896,896,896,896,896,896,896,896,896,896,894,894,896,896,894,894,894,894,894,891,891,891,891,891,891,891,894,894,891,891,889,889,889,889,889,889,889,889,889,889,889,889,889,889,889,887,887,887,887,887,887,889,889,889,889,887,887,887,887,887,887,887,887,885,885,885,885,885,885,885,885,885,885,885,885,885,885,885,882,882,882,882,882,882,882,882,885,885,882,882,882,882,882,882,882,882,882,882,880,880,880,880,880,880,880,880,880,880,880,878,878,878,878,878,878,878,878,878,878,878,878,878,878,878,878,878,878,878,878,878,878,878,878,875,875,875,875,873,871,871,871,871,871,871,871,871,871,871,871,871,871,871,871,871,871,871,873,871,871,871,871,871,869,869,869,869,869,869,869,869,869,869,869,867,867,867,869,869,869,867,867,867,867,867,867,869,869,867,867,867,867,867,864,864,862,862,862,864,864,867,867,867,867,864,862,862,862,860,860,862,862,862,862,862,862,862,862,862,862,862,860,860,858,858,858,858,860,860,860,860,860,860,860,860,860,860,860,860,860,860,860,860,860,860,860,860,860,858,858,858,858,858,858,858,858,858,858,858,856,856,856,856,854,854,854,854,854,854,854,854,854,854,854,854,854,854,854,854,0,0,0,0,0,0,0,0,0,0,0,0,0,0,0,0,0,0,0,0,0,0,0,0,0,0,0,0,0,0,0,0,0,0,0,0,0
0,0,0,954,954,954,951,951,951,951,951,948,948,948,951,948,948,946,946,946,946,943,943,943,943,943,943,943,943,943,943,943,940,940,938,938,938,938,938,938,938,938,938,938,938,938,938,938,935,935,935,935,935,935,935,935,935,935,935,935,933,933,933,935,935,935,935,935,935,935,935,935,935,935,935,935,933,933,933,933,933,933,933,933,933,933,933,933,933,933,933,933,933,933,933,933,933,930,930,930,928,928,930,930,930,930,933,933,930,930,930,928,928,930,928,928,928,928,928,925,925,925,925,925,925,925,925,925,925,925,925,925,925,925,925,923,923,923,923,923,923,923,923,923,923,923,925,925,925,925,925,923,923,923,923,923,923,920,920,920,920,920,918,918,918,918,918,918,918,918,920,920,918,918,918,918,915,915,915,915,915,915,915,918,915,915,915,915,915,915,915,913,913,913,913,913,913,913,913,913,913,913,913,910,910,913,913,913,913,913,910,910,910,910,910,910,910,910,910,908,908,908,908,908,908,908,908,908,906,906,906,906,906,906,908,908,908,908,908,908,906,906,906,906,906,906,906,903,903,903,903,903,903,864,864,862,862,860,856,854,851,851,849,849,849,849,849,849,849,851,856,856,860,862,867,867,869,869,875,880,880,894,896,898,898,898,901,898,898,898,898,896,896,896,896,896,896,896,896,896,896,896,896,896,896,896,896,896,896,896,896,896,896,894,894,894,894,896,894,894,894,894,894,894,894,894,894,894,894,894,894,894,894,894,894,894,891,891,891,891,891,891,891,891,891,891,891,891,891,891,891,891,889,889,889,887,887,889,887,887,889,889,889,889,889,889,889,887,887,887,887,885,885,885,885,887,887,887,887,887,887,887,885,885,885,885,885,885,885,882,882,882,882,882,882,880,880,885,885,885,882,882,882,882,880,880,880,880,880,880,882,882,882,880,880,880,880,880,880,880,880,880,880,880,878,878,878,878,878,878,878,878,878,878,878,878,875,875,875,875,875,875,875,875,875,875,875,873,873,873,873,875,875,875,875,875,875,875,875,873,873,873,871,871,871,871,871,871,871,871,871,871,871,869,869,871,869,869,871,871,871,871,871,871,871,869,869,869,869,869,867,867,867,864,864,864,869,864,864,864,864,867,867,864,864,867,867,867,867,867,867,867,867,867,867,867,864,862,862,862,862,862,862,862,862,864,864,864,864,862,862,860,860,860,860,860,860,860,862,862,862,862,860,860,860,858,856,856,856,856,856,858,858,858,860,860,860,860,858,858,858,858,858,858,858,858,858,858,858,858,856,856,856,856,858,858,858,856,856,858,858,856,856,856,856,856,854,854,854,851,851,851,851,851,851,851,851,851,851,849,849,849,849,0,0,0,0,0,0,0,0,0,0,0,0,0,0,0,0,0,0,0,0,0,0,0,0,0,0,0,0,0,0,0,0,0,0,0,0,0
0,0,0,954,954,951,951,951,948,948,948,946,946,946,946,946,946,943,943,943,943,943,943,940,940,940,943,943,943,943,943,940,940,938,935,935,938,938,935,935,935,938,938,935,935,935,935,935,933,933,933,935,935,935,935,935,935,933,933,933,933,933,933,933,933,933,933,933,933,933,933,933,933,933,935,933,933,930,930,930,930,930,930,930,930,933,930,930,930,930,930,930,930,930,930,930,930,928,928,928,928,928,928,928,928,928,928,928,928,928,928,925,925,925,925,925,925,925,925,925,925,925,925,925,925,925,925,925,925,925,925,925,925,923,923,923,923,923,923,920,920,920,920,920,920,920,920,920,920,920,923,923,923,923,920,920,920,920,918,918,918,918,918,918,918,918,918,918,918,918,918,918,918,915,915,915,915,915,915,915,913,913,915,915,913,913,915,915,913,913,913,913,913,913,910,910,913,910,910,910,910,910,910,910,910,910,910,910,910,908,908,908,908,908,906,906,906,906,906,906,906,906,906,906,906,906,906,906,906,906,906,906,906,906,906,906,906,906,906,906,906,903,903,903,903,903,903,903,903,903,903,903,901,901,867,864,864,862,858,856,851,851,851,849,849,849,849,849,849,851,854,858,860,867,867,867,869,869,873,878,880,889,894,898,898,898,898,898,896,896,896,894,894,894,894,894,894,894,894,894,894,894,894,891,891,891,891,894,894,894,894,894,891,891,891,891,891,889,889,889,891,891,891,891,891,891,894,891,891,891,891,891,891,889,889,889,889,889,889,889,889,889,889,889,889,889,889,889,889,889,889,889,887,887,887,887,887,887,887,887,887,887,887,887,887,887,887,887,887,887,885,882,882,882,882,885,885,885,885,885,885,885,885,885,882,882,882,882,882,880,880,882,880,880,880,880,880,880,880,880,880,880,880,880,880,878,878,878,878,878,880,878,878,878,878,878,878,878,878,878,878,878,878,878,878,875,875,875,875,875,875,875,875,875,875,875,873,873,873,873,873,873,871,871,873,873,871,871,871,871,871,871,871,871,873,873,873,873,871,871,871,871,871,869,869,869,869,869,869,869,869,869,869,869,869,869,869,869,869,869,869,869,869,869,869,869,869,867,867,867,864,864,864,862,862,862,862,862,862,862,862,862,864,862,862,864,864,864,864,864,864,867,864,864,864,864,862,862,862,860,860,860,860,862,862,862,862,862,862,862,862,860,860,860,860,860,860,860,860,860,860,860,858,856,856,856,856,856,854,854,854,856,856,856,856,856,858,858,856,856,856,856,856,858,858,858,856,856,856,856,854,854,854,854,856,856,856,854,854,856,856,854,854,854,854,854,854,851,851,851,851,851,851,851,851,851,851,851,849,849,847,847,847,0,0,0,0,0,0,0,0,0,0,0,0,0,0,0,0,0,0,0,0,0,0,0,0,0,0,0,0,0,0,0,0,0,0,0,0,0
0,0,0,954,951,951,951,951,948,946,946,946,943,943,943,943,943,943,943,943,943,940,940,938,938,938,938,938,938,938,938,938,935,935,935,935,935,935,935,935,935,935,935,933,933,933,930,930,930,930,930,933,933,933,933,933,933,933,933,933,930,930,930,930,930,930,933,933,933,933,933,930,930,930,930,930,930,928,928,930,930,930,930,930,930,930,930,930,930,928,928,930,930,928,928,928,928,925,925,925,925,925,928,928,928,928,925,925,925,925,925,923,923,923,923,923,923,923,923,923,923,923,923,923,923,923,923,923,923,923,923,923,923,923,923,923,920,920,920,920,920,920,920,920,918,918,918,918,918,918,918,918,920,920,920,918,918,918,915,915,915,915,915,915,915,915,915,915,915,915,915,915,915,915,915,915,913,913,913,913,913,913,913,913,910,910,913,913,913,913,910,910,910,910,908,908,910,910,908,908,908,908,908,908,908,908,908,908,908,908,906,906,906,906,906,906,903,903,903,903,903,906,906,906,906,906,906,903,903,903,903,903,903,903,906,906,903,903,903,903,903,901,901,901,901,901,901,901,901,901,901,901,901,901,867,867,864,864,860,858,854,851,851,849,849,849,849,849,851,854,854,858,860,867,867,869,869,871,873,878,880,887,891,894,894,894,896,896,894,894,894,894,894,891,891,891,891,891,891,894,894,891,891,889,889,889,889,891,891,891,891,891,891,889,889,889,889,889,889,889,889,889,889,889,889,889,891,889,889,889,889,889,889,889,889,889,889,889,887,887,887,887,887,887,887,887,887,887,887,887,885,885,885,885,885,885,885,885,885,885,887,887,887,887,887,887,887,885,885,885,882,882,882,882,882,882,882,882,882,885,882,882,882,882,882,880,880,880,880,880,880,880,880,880,880,880,880,880,880,880,880,880,880,878,878,878,878,878,878,878,878,875,875,875,875,875,875,875,875,875,875,875,875,875,875,875,875,875,875,875,875,873,873,873,873,873,871,871,871,871,871,871,871,871,871,871,871,871,871,871,871,869,869,869,869,869,871,871,871,871,871,871,869,869,869,869,869,869,869,869,869,869,867,867,867,867,867,867,867,867,867,869,867,867,867,867,867,864,864,864,862,862,862,862,860,860,860,860,860,860,860,862,862,862,862,862,862,862,862,862,862,862,862,862,862,862,862,860,860,858,858,858,858,860,860,860,862,860,860,860,860,858,858,858,858,858,860,858,858,858,858,858,856,854,854,854,854,854,854,854,854,854,854,854,854,854,854,856,856,856,856,856,856,856,856,856,856,856,854,854,854,854,854,854,854,854,854,854,854,854,854,854,854,854,854,851,851,851,851,849,849,849,849,849,851,851,849,849,847,847,845,845,845,0,0,0,0,0,0,0,0,0,0,0,0,0,0,0,0,0,0,0,0,0,0,0,0,0,0,0,0,0,0,0,0,0,0,0,0,0
0,0,0,946,946,946,946,946,946,946,943,943,943,943,940,940,940,940,940,940,940,938,938,938,935,935,935,935,935,935,935,935,933,933,933,933,935,933,933,933,933,933,933,933,933,933,930,930,930,930,930,930,930,930,930,933,930,930,930,930,928,928,928,928,928,928,928,928,928,928,928,928,928,928,928,928,925,925,925,925,925,928,928,928,928,928,928,928,928,925,925,928,925,925,925,925,925,925,925,925,925,925,925,925,925,925,925,925,923,923,923,920,920,920,920,920,920,920,920,923,920,920,923,923,923,923,923,923,923,923,923,923,920,920,920,920,918,918,918,918,918,918,918,918,918,918,918,915,915,915,915,915,915,915,915,915,915,915,915,915,915,915,913,913,913,913,915,915,915,915,915,915,915,913,913,913,913,913,913,910,910,910,910,910,908,908,910,910,910,910,910,910,910,908,908,908,908,908,908,906,906,906,906,906,906,906,906,906,906,906,906,906,906,903,903,903,903,903,903,903,903,903,901,901,901,903,903,903,903,903,903,903,903,903,903,903,903,903,901,901,901,898,898,898,898,898,901,901,898,898,898,898,898,898,869,869,867,867,862,860,856,854,851,851,851,851,851,851,854,854,856,858,862,864,867,869,871,873,878,880,880,885,889,889,889,891,891,891,894,894,891,891,891,889,889,889,889,889,889,889,891,891,889,889,889,889,889,891,891,889,889,891,889,889,889,887,887,887,887,887,887,887,887,887,887,887,889,889,889,887,887,887,889,887,887,887,887,887,887,887,887,887,887,887,887,885,885,885,885,885,882,882,882,882,885,882,882,882,885,885,885,885,885,885,885,885,885,882,882,882,880,880,880,880,880,880,880,880,880,880,880,880,880,880,880,880,880,880,880,880,878,878,878,878,878,878,878,878,878,878,878,878,878,878,878,878,875,875,875,875,875,873,873,873,873,873,873,873,873,873,873,873,873,873,873,873,873,873,873,873,871,871,871,871,871,871,869,869,869,869,869,869,869,869,867,867,869,869,869,869,869,869,869,867,867,867,867,867,867,869,869,869,869,867,867,867,867,867,867,867,867,867,867,867,867,867,864,864,864,864,864,867,867,864,862,862,862,862,862,860,860,862,862,860,860,860,860,860,860,860,860,860,860,862,860,860,860,860,860,860,862,862,860,860,860,860,860,860,858,858,858,856,856,858,858,858,860,858,856,856,856,856,856,856,856,856,858,856,856,856,856,854,854,854,854,854,854,854,854,854,854,854,854,854,854,854,854,854,854,854,854,854,854,854,856,854,854,854,854,854,851,851,851,851,851,851,854,851,851,851,851,851,851,851,851,851,851,849,849,849,849,849,849,849,849,849,849,847,845,845,845,845,845,0,0,0,0,0,0,0,0,0,0,0,0,0,0,0,0,0,0,0,0,0,0,0,0,0,0,0,0,0,0,0,0,0,0,0,0,0
