0,0,0,0,0,0,0,1322,1322,1322,1317,1317,1322,1322,1322,1322,1322,1322,1328,1322,1322,1317,1317,1312,1312,1312,1312,1312,1312,1312,1312,1317,1312,1312,1312,1317,1317,1317,1317,1317,1317,1317,1317,1317,1317,1322,1322,1322,1322,1322,1322,1322,1322,1322,1322,1328,1328,1328,1328,1328,1328,1328,1328,1328,1328,1328,1322,1322,1322,1322,1322,1322,1322,1322,1322,1322,1322,1322,1317,1317,1317,1322,1322,1328,1328,1328,1328,1328,1328,1322,1322,1322,1322,0,0,0,943,943,940,940,938,935,933,930,930,928,928,928,928,930,930,933,933,935,935,935,938,938,940,943,946,946,948,948,948,1338,1338,1338,1338,1338,1333,1333,1333,1338,1338,1338,1338,1338,1338,1338,1338,1338,1338,1338,1338,1338,1338,1338,1343,1343,1343,1343,1343,1343,1343,1343,1343,1343,1343,1343,1343,1343,1343,1343,1343,1338,1338,1338,1338,1343,1343,1343,1338,1338,1338,1338,1338,1338,1338,1338,1343,1349,1349,1349,1349,1354,1354,1354,1354,1354,1354,1359,1084,1084,1084,1084,1084,1084,1084,1087,1087,1087,1090,1090,1094,1094,1097,1097,1097,1097,1097,1101,1101,1101,1101,1101,1101,1101,1101,1101,0,0,0,0,0,0,0,0,0,0,679,679,679,679,678,678,675,671,670,670,668,668,667,666,664,663,663,662,662,662,663,664,664,667,668,670,671,672,675,678,679,680,680,680,680,682,0,0,0,0,0,0,0,0,1223,1223,1227,1232,1232,1232,1232,1236,1241,1241,1241,1245,1370,1370,1370,1365,1365,1365,1365,1365,1365,1365,1365,1365,1365,1365,1365,1365,1365,1365,1365,1365,1365,1365,1365,1365,1365,1365,1365,1365,1365,1370,1370,1370,1370,1370,1370,1370,1370,1370,1370,1370,1370,1376,1376,1376,1381,1381,1381,1381,1376,1376,1376,1376,1376,1376,1376,1381,1381,1387,1381,1381,1381,1381,1381,1381,1381,1381,1381,1376,1376,1376,1376,1376,1376,1376,1376,1376,1376,1376,1376,1376,1376,1376,1376,1381,1376,1376,0,0,0,1010,1010,1010,1007,1007,1004,1004,1001,1001,998,995,995,992,992,992,992,995,995,998,1001,1004,1013,1013,1013,1013,1016,1016,1376,1376,1376,1381,1381,1387,1387,1387,1387,1387,1387,1387,1387,1387,1387,1387,1387,1387,1387,1381,1381,1381,1381,1381,1381,1381,1381,1387,1387,1387,1387,1387,1392,1387,1381,1381,1381,1381,1381,1381,1381,1381,1387,1381,1381,1387,1387,1387,1387,1387,1387,1387,1387,1387,1392,1392,1392,1392,1392,1392,1392,1392,1392,1387,1387,1392,1392,1387,1387,1387,1387,1387,1387,1387,1387,1392,1392,1392,1392,1387,1387,1387,1387,1387,1387,1392,1392,1392,1392,1387,1387,1381,1381,1381,1376,1376,1376,1376,1376,1370,1370,1370,1370,1370,1365,1359,1359,1359,1354,1354,1354,1354,1349,1349,1343,1343,1338,1338,1338,1338,1333,1333,1333,1333,1333,1333,1333,1328,1328,1328,1322,1322,1317,1317,1317,1312,1312,1312,1312,1307,1307,1307,1302,1302,1302,1292,1292,1292,1292,1288,1288,1288,1288,1288,1283,1283,1283,1278,1273,1273,1278,1273,1273,1268,1268,1268,1268,1268,1268,1268,1264,1264,1259,1259,1255,1255,1255,1255,1250,1250,1245,1245,1245,1241,1241,1236,1236,1236,1236,1232,1232,1232,1232,1227,1227,1227,1223,1223,1219,1219,1214,1214,1090,1087,1087,0,0,0,0,0,0,0,0,0,0,0,0,0,0,0,0,0,0,0,0,0,0,0,0,0,0,0,0,0,0,0,0,0
0,0,0,0,0,0,0,1317,1317,1317,1312,1312,1312,1317,1317,1322,1322,1322,1322,1322,1317,1312,1312,1312,1307,1307,1307,1307,1307,1307,1307,1312,1312,1312,1312,1317,1317,1312,1312,1307,1307,1312,1312,1317,1317,1317,1322,1322,1322,1322,1322,1322,1317,1317,1322,1322,1322,1322,1322,1328,1322,1322,1322,1322,1322,1322,1322,1322,1322,1317,1317,1317,1317,1317,1317,1317,1317,1317,1317,1317,1317,1317,1322,1322,1322,1322,1328,1328,1322,1322,1322,1317,1317,0,0,0,943,940,940,940,940,938,933,930,930,930,930,930,930,930,930,933,933,935,935,935,938,940,940,943,946,946,948,948,948,1338,1338,1338,1333,1333,1333,1328,1328,1333,1333,1333,1333,1333,1333,1338,1333,1333,1333,1333,1333,1333,1338,1338,1338,1338,1338,1343,1343,1343,1343,1338,1338,1343,1343,1338,1338,1338,1338,1338,1338,1338,1338,1338,1338,1338,1343,1338,1338,1338,1338,1338,1333,1333,1333,1333,1338,1343,1343,1343,1349,1354,1354,1354,1080,1080,1354,1084,1080,1080,1080,1080,1084,1084,1084,1087,1087,1087,1090,1090,1090,1094,1094,1094,1094,1094,1094,1097,1097,1101,1101,1101,1101,1101,1101,1101,1101,0,0,0,0,0,0,0,0,0,679,679,679,679,678,678,675,672,671,670,668,668,667,667,666,664,663,663,663,663,663,664,664,667,668,670,671,672,675,676,679,679,680,680,682,682,0,0,0,0,0,0,0,0,0,1227,1227,1232,1232,1232,1232,1236,1241,1241,1241,1245,1370,1365,1365,1359,1359,1359,1359,1359,1359,1359,1359,1359,1359,1359,1365,1365,1365,1365,1365,1365,1365,1359,1359,1359,1359,1365,1365,1365,1365,1365,1365,1365,1365,1365,1365,1365,1365,1365,1365,1370,1370,1370,1376,1376,1376,1376,1376,1376,1376,1376,1370,1370,1370,1376,1376,1376,1376,1376,1381,1381,1376,1376,1381,1381,1376,1376,1376,1376,1376,1376,1376,1370,1370,1370,1370,1370,1370,1370,1370,1370,1370,1370,1370,1376,1376,1376,1376,0,1013,1013,1013,1010,1010,1007,1007,1004,1001,1001,998,995,995,995,992,992,992,995,995,998,1001,1007,1013,1013,1013,1016,1016,1016,1370,1370,1370,1370,1376,1381,1381,1381,1387,1387,1387,1387,1387,1381,1381,1381,1381,1381,1381,1376,1376,1376,1376,1376,1376,1376,1381,1381,1381,1381,1387,1381,1381,1376,1376,1376,1376,1376,1376,1376,1376,1376,1381,1376,1376,1381,1381,1381,1381,1381,1381,1381,1381,1381,1387,1387,1387,1392,1392,1387,1387,1387,1387,1381,1381,1387,1387,1387,1387,1381,1381,1387,1387,1387,1387,1387,1387,1387,1381,1381,1381,1381,1381,1381,1381,1381,1381,1381,1387,1387,1381,1381,1376,1376,1376,1376,1376,1376,1376,1376,1376,1370,1370,1370,1365,1359,1359,1359,1359,1354,1354,1354,1349,1349,1349,1343,1343,1338,1338,1338,1338,1333,1333,1333,1333,1333,1333,1333,1328,1328,1328,1322,1317,1317,1317,1312,1312,1312,1312,1307,1307,1307,1302,1302,1302,1292,1292,1292,1292,1288,1288,1288,1288,1288,1283,1283,1283,1283,1283,1283,1278,1273,1273,1268,1268,1268,1268,1268,1268,1264,1264,1264,1259,1259,1255,1255,1255,1255,1255,1250,1250,1250,1250,1241,1241,1236,1236,1236,1236,1232,1232,1232,1232,1227,1227,1223,1223,1223,1219,1214,1214,1214,1090,1090,1090,0,0,0,0,0,0,0,0,0,0,0,0,0,0,0,0,0,0,0,0,0,0,0,0,0,0,0,0,0,0,0,0,0
0,0,0,0,0,0,0,1312,1312,1312,1307,1307,1312,1312,1312,1317,1317,1317,1317,1312,1307,1307,1302,1302,1302,1302,1302,1307,1307,1307,1307,1312,1312,1312,1312,1312,1312,1307,1307,1307,1307,1307,1307,1307,1307,1312,1317,1317,1317,1317,1317,1317,1312,1312,1317,1317,1317,1317,1317,1322,1322,1317,1317,1322,1322,1317,1317,1317,1317,1317,1312,1312,1317,1312,1312,1317,1317,1317,1312,1312,1312,1317,1322,1322,1322,1322,1322,1322,1322,1317,1317,1312,1312,1312,0,943,943,940,940,940,940,938,933,933,933,933,933,930,930,933,933,933,933,935,935,938,940,943,943,943,946,946,948,948,954,1338,1338,1338,1333,1333,1328,1328,1328,1328,1328,1328,1328,1333,1333,1333,1333,1328,1328,1328,1328,1333,1333,1333,1333,1333,1333,1338,1338,1338,1338,1338,1338,1338,1338,1333,1333,1333,1333,1333,1333,1333,1333,1333,1333,1333,1338,1333,1333,1333,1333,1333,1333,1333,1333,1333,1338,1338,1343,1343,1349,1349,1349,1077,1077,1077,1077,1077,1077,1077,1080,1080,1080,1080,1084,1087,1087,1087,1087,1087,1090,1090,1090,1090,1090,1090,1090,1094,1094,1097,1101,1101,1101,1101,1101,1101,1101,0,0,0,0,0,0,0,0,0,680,680,680,679,678,678,675,672,671,671,670,668,668,667,666,664,664,663,663,663,664,664,664,667,670,671,671,674,675,676,679,679,680,680,682,682,0,0,0,0,0,0,0,0,0,1227,1227,1232,1232,1232,1236,1236,1241,1241,1241,1245,1365,1365,1359,1359,1354,1354,1354,1354,1354,1354,1354,1354,1354,1354,1354,1359,1354,1354,1359,1359,1354,1354,1354,1354,1354,1359,1359,1359,1359,1365,1359,1359,1359,1359,1359,1359,1359,1359,1365,1365,1370,1370,1370,1370,1376,1376,1370,1370,1370,1370,1370,1370,1370,1370,1370,1370,1370,1370,1376,1376,1370,1370,1376,1376,1376,1370,1370,1370,1370,1370,1370,1370,1370,1370,1370,1370,1370,1370,1370,1370,1370,1370,1370,1370,1376,1376,1376,0,1010,1010,1013,1013,1010,1010,1007,1007,1004,1001,1001,998,995,995,995,995,995,995,995,998,1001,1010,1013,1013,1013,1016,1016,1354,1365,1365,1365,1370,1370,1376,1376,1376,1381,1381,1381,1381,1381,1381,1381,1381,1381,1381,1376,1376,1376,1376,1376,1376,1376,1376,1376,1376,1376,1376,1376,1376,1376,1370,1370,1370,1376,1376,1376,1376,1376,1376,1376,1376,1376,1376,1376,1376,1376,1376,1376,1381,1381,1381,1381,1387,1387,1387,1387,1387,1387,1381,1381,1376,1376,1376,1376,1376,1376,1376,1376,1381,1381,1381,1381,1387,1387,1381,1381,1381,1381,1376,1376,1381,1376,1376,1381,1376,1376,1376,1381,1376,1376,1376,1376,1376,1376,1376,1376,1376,1370,1370,1370,1370,1365,1359,1359,1359,1359,1354,1354,1354,1349,1349,1349,1349,1343,1343,1338,1338,1338,1338,1333,1333,1333,1333,1333,1333,1328,1328,1322,1322,1317,1317,1317,1312,1312,1312,1312,1307,1307,1307,1302,1302,1302,1292,1292,1292,1292,1288,1288,1288,1288,1288,1288,1283,1283,1283,1283,1283,1278,1278,1273,1268,1268,1268,1268,1268,1264,1264,1264,1264,1259,1259,1255,1255,1255,1255,1255,1250,1250,1250,1250,1241,1241,1236,1236,1236,1236,1232,1232,1227,1227,1227,1223,1223,1219,1219,1219,1214,1214,1094,1090,1090,1090,0,0,0,0,0,0,0,0,0,0,0,0,0,0,0,0,0,0,0,0,0,0,0,0,0,0,0,0,0,0,0,0,0
0,0,0,0,0,0,0,1312,1307,1307,1307,1307,1307,1312,1312,1312,1312,1312,1312,1307,1307,1302,1302,1302,1302,1302,1302,1307,1302,1302,1307,1307,1307,1307,1307,1307,1307,1307,1307,1307,1307,1302,1302,1307,1307,1307,1307,1307,1307,1307,1307,1312,1307,1307,1307,1312,1312,1307,1307,1317,1317,1317,1317,1317,1317,1312,1312,1307,1307,1307,1307,1307,1312,1307,1307,1312,1312,1312,1312,1312,1312,1312,1317,1317,1317,1317,1317,1317,1317,1312,1312,1312,1312,0,0,946,946,946,943,943,940,938,933,933,933,933,933,933,933,933,933,933,935,935,935,938,940,943,943,943,946,946,948,948,954,1338,1338,1338,1328,1328,1328,1328,1328,1328,1328,1328,1328,1328,1328,1328,1328,1328,1328,1328,1328,1328,1328,1328,1328,1328,1328,1328,1328,1328,1328,1328,1328,1328,1333,1328,1328,1328,1328,1328,1328,1328,1328,1328,1328,1328,1328,1328,1328,1328,1328,1328,1328,1328,1328,1328,1333,1333,1338,1338,1343,1073,1073,1073,1073,1073,1077,1077,1077,1077,1077,1077,1080,1080,1080,1084,1087,1087,1087,1087,1087,1090,1087,1087,1087,1090,1090,1090,1090,1094,1097,1097,1097,1097,1097,1101,1101,0,0,0,0,0,0,0,0,0,680,680,680,679,679,678,676,672,671,671,670,670,668,667,666,664,664,663,663,663,664,664,666,668,670,671,671,674,675,676,679,679,680,680,682,682,0,0,0,0,0,0,0,0,0,1227,1227,1232,1232,1232,1236,1241,1241,1241,1241,1245,1245,1359,1354,1354,1354,1354,1354,1354,1354,1354,1354,1349,1349,1349,1354,1354,1354,1354,1354,1354,1354,1349,1349,1354,1354,1354,1354,1354,1354,1354,1354,1354,1359,1354,1354,1354,1359,1359,1359,1359,1359,1365,1370,1370,1370,1370,1370,1370,1370,1365,1365,1365,1365,1365,1365,1365,1359,1359,1370,1370,1365,1365,1370,1370,1370,1370,1365,1365,1365,1365,1365,1365,1365,1365,1365,1365,1365,1365,1365,1365,1365,1365,1365,1370,1376,1376,0,1010,1010,1010,1013,1013,1013,1010,1010,1007,1004,1004,1001,998,995,995,995,995,995,995,995,998,1004,1013,1013,1016,1016,1016,1354,1354,1354,1359,1365,1365,1370,1370,1370,1370,1376,1376,1381,1381,1381,1376,1376,1376,1376,1376,1376,1376,1376,1376,1370,1370,1370,1370,1370,1370,1370,1370,1370,1370,1370,1370,1370,1370,1370,1370,1370,1370,1370,1376,1376,1376,1376,1376,1376,1376,1376,1370,1370,1376,1376,1376,1376,1381,1381,1387,1381,1381,1381,1381,1376,1376,1376,1376,1376,1370,1370,1370,1370,1376,1376,1376,1376,1381,1381,1376,1376,1376,1376,1376,1376,1376,1376,1376,1376,1376,1376,1376,1376,1370,1370,1370,1370,1376,1376,1370,1370,1370,1370,1370,1365,1365,1365,1359,1359,1359,1359,1354,1354,1354,1354,1354,1349,1349,1343,1343,1343,1338,1338,1338,1333,1333,1333,1333,1333,1333,1328,1328,1322,1322,1317,1317,1317,1317,1312,1312,1312,1307,1307,1307,1307,1302,1302,1297,1297,1292,1292,1292,1292,1288,1288,1288,1288,1288,1283,1283,1283,1283,1278,1278,1273,1268,1268,1268,1268,1268,1264,1264,1264,1264,1259,1259,1255,1255,1255,1255,1255,1255,1250,1250,1250,1245,1241,1236,1236,1236,1236,1232,1232,1227,1227,1223,1223,1219,1219,1219,1219,1219,1219,1094,1090,1090,1090,0,0,0,0,0,0,0,0,0,0,0,0,0,0,0,0,0,0,0,0,0,0,0,0,0,0,0,0,0,0,0,0,0
0,0,0,0,0,0,0,1307,1307,1307,1302,1302,1307,1307,1312,1312,1307,1307,1307,1302,1302,1302,1302,1302,1302,1302,1302,1302,1302,1302,1302,1302,1302,1302,1302,1302,1302,1302,1302,1302,1302,1302,1302,1302,1302,1302,1302,1302,1302,1302,1302,1302,1297,1292,1292,1302,1302,1302,1302,1302,1302,1312,1312,1312,1312,1312,1307,1307,1307,1307,1307,1307,1307,1307,1307,1307,1307,1307,1307,1307,1307,1312,1312,1307,1307,1312,1312,1312,1312,1307,1307,1307,1307,0,0,0,946,946,946,943,940,938,933,933,933,933,933,933,933,933,933,933,935,935,935,938,940,943,943,946,946,946,948,948,954,954,1322,1322,1322,1322,1322,1322,1322,1322,1322,1328,1328,1328,1328,1328,1328,1322,1322,1322,1322,1322,1322,1322,1322,1322,1322,1322,1322,1322,1322,1322,1322,1322,1328,1328,1328,1328,1328,1328,1328,1328,1328,1322,1322,1322,1328,1328,1328,1328,1328,1328,1328,1328,1328,1328,1328,1333,1333,1338,1338,1073,1073,1073,1073,1073,1073,1077,1077,1077,1077,1077,1077,1077,1080,1080,1084,1087,1087,1087,1087,1087,1087,1087,1087,1087,1087,1087,1087,1090,1090,1090,1090,1094,1097,1097,1097,0,0,0,0,0,0,0,686,686,680,680,680,680,679,678,676,672,671,671,670,670,668,667,666,664,664,664,664,664,664,666,667,668,670,671,672,672,675,676,679,679,680,682,682,683,0,0,0,0,0,0,0,0,0,1232,1232,1232,1232,1232,1236,1241,1241,1241,1241,1241,1241,1354,1349,1349,1349,1349,1349,1349,1349,1349,1349,1349,1349,1349,1349,1349,1349,1349,1349,1349,1349,1349,1349,1349,1349,1349,1349,1349,1349,1354,1354,1354,1354,1354,1354,1354,1354,1354,1354,1354,1354,1354,1354,1359,1365,1365,1365,1365,1365,1359,1359,1359,1359,1359,1359,1354,1354,1359,1359,1365,1359,1359,1359,1359,1365,1365,1359,1359,1359,1359,1359,1359,1359,1359,1359,1359,1359,1359,1359,1359,1359,1365,1365,1365,1370,1376,1376,1013,1013,1013,1013,1013,1013,1010,1010,1007,1004,1004,1001,998,998,995,995,995,995,995,995,998,1004,1013,1013,1016,1016,1016,1354,1354,1354,1354,1359,1359,1365,1365,1365,1365,1370,1370,1370,1370,1370,1370,1370,1370,1370,1370,1370,1370,1370,1370,1365,1365,1365,1365,1365,1365,1365,1365,1365,1365,1365,1365,1365,1365,1365,1365,1365,1365,1365,1365,1370,1370,1370,1376,1370,1370,1370,1370,1370,1370,1370,1370,1370,1376,1376,1376,1376,1376,1376,1376,1376,1370,1370,1370,1370,1370,1370,1370,1370,1370,1370,1370,1370,1370,1370,1370,1370,1370,1376,1376,1376,1376,1376,1376,1376,1370,1370,1370,1370,1365,1359,1359,1365,1370,1370,1370,1370,1370,1370,1365,1365,1365,1359,1359,1359,1359,1359,1354,1354,1354,1354,1354,1349,1349,1343,1343,1343,1338,1338,1338,1338,1333,1333,1333,1333,1333,1328,1328,1328,1322,1322,1317,1317,1317,1312,1312,1312,1307,1307,1307,1307,1302,1302,1297,1297,1292,1292,1292,1292,1288,1288,1288,1288,1288,1288,1288,1283,1283,1283,1273,1273,1273,1268,1268,1268,1268,1268,1264,1264,1264,1259,1259,1255,1255,1255,1255,1255,1255,1250,1250,1245,1245,1241,1241,1236,1236,1236,1232,1232,1227,1227,1223,1223,1219,1219,1223,1219,1219,1094,1094,1090,1090,1090,0,0,0,0,0,0,0,0,0,0,0,0,0,0,0,0,0,0,0,0,0,0,0,0,0,0,0,0,0,0,0,0,0
0,0,0,0,0,0,0,1307,1302,1302,1302,1302,1302,1302,1307,1307,1307,1302,1302,1302,1302,1297,1297,1297,1297,1297,1297,1297,1297,1297,1292,1292,1292,1292,1292,1292,1292,1292,1297,1297,1297,1297,1297,1297,1297,1297,1292,1292,1292,1292,1292,1292,1292,1292,1288,1288,1292,1292,1297,1297,1297,1302,1302,1307,1307,1307,1302,1302,1302,1302,1302,1302,1302,1302,1302,1302,1302,1307,1302,1302,1302,1307,1307,1307,1307,1307,1307,1307,1307,1307,1307,1302,1302,0,0,0,946,946,946,943,940,938,938,933,933,933,933,933,933,933,933,933,935,935,938,940,943,943,946,946,946,946,948,948,951,951,1307,1317,1317,1317,1317,1317,1317,1322,1322,1322,1322,1322,1322,1322,1322,1322,1322,1322,1322,1322,1322,1322,1322,1322,1322,1317,1317,1317,1317,1317,1317,1317,1322,1322,1322,1322,1322,1322,1322,1322,1322,1322,1322,1322,1322,1322,1322,1322,1322,1328,1328,1328,1328,1322,1322,1328,1070,1070,1070,1070,1070,1070,1070,1070,1073,1073,1073,1077,1077,1077,1077,1077,1080,1080,1084,1084,1087,1087,1087,1087,1087,1087,1087,1087,1087,1084,1084,1084,1080,1080,1080,1080,1087,1087,1097,0,0,0,0,0,0,0,686,686,686,682,682,680,679,679,675,672,672,671,670,670,668,667,666,666,664,664,664,664,664,666,667,668,670,671,672,672,674,676,679,680,682,682,683,683,684,0,0,0,0,0,0,0,0,1232,1232,1232,1232,1232,1236,1241,1241,1241,1241,1241,1241,1349,1349,1349,1349,1349,1343,1343,1349,1343,1343,1343,1343,1343,1343,1343,1343,1349,1349,1349,1349,1343,1343,1349,1349,1343,1343,1343,1349,1349,1349,1349,1349,1349,1349,1349,1354,1354,1354,1354,1354,1354,1354,1354,1354,1354,1349,1349,1354,1354,1354,1354,1354,1354,1354,1354,1354,1354,1354,1359,1354,1354,1354,1354,1359,1359,1359,1359,1359,1354,1354,1354,1354,1354,1354,1354,1354,1354,1354,1354,1354,1359,1359,1359,1359,1359,1013,1013,1013,1013,1013,1013,1013,1013,1010,1007,1004,1004,1001,1001,998,998,998,995,995,998,998,1001,1004,1013,1013,1016,1016,1016,1354,1354,1354,1354,1359,1359,1359,1359,1359,1359,1365,1365,1365,1365,1365,1365,1365,1365,1365,1365,1365,1365,1365,1365,1359,1359,1359,1359,1359,1359,1359,1359,1359,1359,1359,1365,1365,1365,1359,1359,1365,1359,1359,1359,1359,1365,1365,1370,1370,1370,1370,1365,1365,1365,1359,1359,1365,1370,1370,1370,1370,1370,1370,1370,1370,1365,1365,1370,1370,1370,1365,1365,1365,1365,1365,1365,1365,1365,1365,1370,1370,1370,1370,1370,1370,1370,1370,1370,1370,1370,1365,1365,1365,1359,1359,1359,1359,1365,1365,1370,1370,1370,1365,1365,1365,1359,1359,1359,1359,1359,1359,1354,1354,1354,1354,1354,1349,1349,1343,1343,1343,1338,1338,1338,1338,1333,1333,1333,1333,1333,1328,1328,1328,1322,1322,1317,1317,1317,1312,1312,1312,1307,1307,1307,1307,1302,1302,1297,1297,1292,1292,1292,1292,1288,1288,1288,1288,1288,1288,1288,1283,1283,1283,1273,1273,1273,1268,1268,1268,1268,1268,1264,1264,1264,1259,1259,1255,1255,1255,1255,1255,1255,1250,1250,1245,1245,1241,1241,1236,1236,1236,1236,1232,1232,1227,1227,1227,1219,1219,1223,1219,1219,1094,1094,1090,1087,1087,0,0,0,0,0,0,0,0,0,0,0,0,0,0,0,0,0,0,0,0,0,0,0,0,0,0,0,0,0,0,0,0,0
0,0,0,0,0,0,0,1302,1302,1302,1302,1302,1302,1302,1297,1297,1302,1297,1297,1297,1297,1292,1292,1297,1292,1292,1292,1292,1292,1292,1288,1288,1288,1288,1288,1288,1288,1288,1292,1292,1292,1292,1292,1297,1292,1292,1288,1288,1292,1288,1288,1288,1288,1288,1288,1288,1288,1288,1288,1288,1292,1292,1297,1302,1302,1302,1302,1297,1297,1297,1297,1302,1297,1297,1297,1297,1297,1302,1302,1302,1302,1302,1302,1302,1302,1302,1302,1302,1302,1302,1302,1302,1297,1297,0,0,946,946,946,943,943,940,935,933,933,933,933,933,933,933,933,933,935,935,938,940,943,943,946,946,946,946,948,948,951,1307,1307,1307,1307,1312,1312,1312,1317,1312,1312,1312,1317,1317,1317,1322,1322,1317,1317,1317,1317,1317,1317,1317,1317,1317,1317,1312,1312,1312,1312,1312,1317,1317,1317,1317,1322,1322,1322,1322,1322,1322,1322,1322,1322,1322,1322,1322,1322,1322,1322,1322,1322,1322,1322,1322,1067,1067,1067,1067,1067,1067,1067,1070,1070,1070,1070,1073,1073,1073,1073,1073,1077,1077,1077,1080,1080,1084,1087,1087,1087,1087,1087,1087,1087,1087,1087,1084,1084,1080,1077,1077,1077,1077,1080,1080,0,0,0,0,0,0,0,0,684,684,684,682,682,680,679,679,675,674,672,671,671,670,668,667,666,666,664,664,664,664,664,666,667,668,671,672,672,672,674,676,680,680,682,683,684,684,684,0,0,0,0,0,0,0,0,0,1236,1236,1236,1236,1241,1241,1241,1241,1245,1241,1241,1349,1343,1343,1349,1343,1343,1343,1343,1343,1343,1343,1338,1338,1338,1338,1338,1343,1343,1343,1343,1343,1343,1343,1343,1338,1338,1338,1343,1349,1349,1349,1349,1349,1349,1349,1349,1349,1349,1349,1349,1349,1349,1349,1349,1349,1349,1349,1349,1343,1343,1349,1354,1354,1354,1354,1354,1354,1354,1354,1354,1354,1354,1354,1354,1354,1354,1354,1354,1354,1354,1349,1349,1349,1349,1349,1349,1354,1354,1354,1354,1354,1354,1354,1354,1354,1354,1013,1013,1013,1013,1013,1013,1013,1010,1010,1007,1004,1004,1001,998,998,998,998,998,998,998,1001,1004,1013,1013,1016,1016,1016,1354,1354,1354,1354,1359,1359,1359,1359,1359,1359,1359,1359,1359,1359,1359,1359,1359,1359,1359,1359,1359,1365,1365,1365,1359,1359,1359,1359,1359,1359,1354,1354,1359,1359,1359,1359,1359,1359,1354,1354,1354,1354,1354,1359,1359,1359,1359,1365,1365,1365,1365,1365,1365,1359,1359,1354,1354,1359,1359,1359,1359,1359,1359,1365,1365,1359,1359,1365,1365,1365,1365,1365,1365,1365,1359,1359,1359,1359,1359,1365,1365,1365,1365,1365,1365,1370,1370,1370,1365,1365,1365,1359,1354,1354,1354,1354,1359,1359,1359,1359,1359,1359,1365,1365,1359,1359,1354,1354,1354,1354,1354,1354,1354,1354,1349,1349,1349,1349,1349,1343,1343,1338,1338,1338,1338,1333,1333,1333,1333,1333,1333,1328,1322,1322,1322,1317,1317,1317,1312,1312,1312,1312,1307,1307,1307,1302,1302,1297,1297,1297,1292,1292,1292,1292,1288,1288,1288,1288,1288,1288,1283,1283,1283,1273,1273,1273,1268,1268,1268,1268,1268,1264,1264,1264,1259,1259,1255,1255,1255,1255,1255,1255,1250,1250,1245,1245,1241,1241,1236,1236,1236,1236,1236,1232,1232,1232,1232,1227,1227,1232,1094,1094,1094,1094,1090,1087,1087,0,0,0,0,0,0,0,0,0,0,0,0,0,0,0,0,0,0,0,0,0,0,0,0,0,0,0,0,0,0,0,0,0
0,0,0,0,0,0,0,1302,1302,1302,1297,1297,1302,1297,1297,1297,1292,1292,1292,1292,1292,1292,1292,1292,1292,1288,1288,1288,1288,1288,1288,1288,1288,1283,1283,1283,1288,1288,1288,1292,1292,1292,1292,1292,1288,1288,1288,1288,1288,1288,1288,1288,1288,1288,1288,1288,1288,1288,1288,1288,1292,1292,1292,1292,1292,1297,1297,1297,1292,1292,1292,1292,1292,1292,1292,1292,1297,1297,1297,1297,1297,1297,1297,1297,1297,1297,1297,1297,1302,1297,1297,1297,1297,1297,0,0,0,0,946,946,943,940,935,935,933,933,933,933,933,933,933,933,935,935,938,940,943,943,946,946,946,946,948,948,1302,1302,1302,1302,1302,1302,1307,1307,1307,1307,1307,1307,1312,1312,1312,1312,1312,1312,1312,1317,1317,1312,1312,1312,1312,1312,1312,1307,1307,1307,1307,1307,1312,1312,1312,1317,1317,1317,1322,1322,1322,1322,1322,1317,1317,1322,1322,1322,1322,1322,1322,1322,1322,1322,1322,1063,1063,1063,1063,1063,1063,1063,1063,1067,1067,1067,1067,1070,1070,1073,1073,1073,1073,1077,1077,1077,1080,1084,1087,1087,1087,1087,1087,1087,1084,1084,1084,1080,1080,1077,1077,1077,1077,1077,1077,1077,0,0,0,0,0,0,0,0,684,684,684,682,682,680,679,679,675,674,672,671,671,670,668,668,666,666,664,664,664,664,664,666,667,668,671,672,674,674,675,676,680,680,682,683,684,686,686,0,0,0,0,0,0,0,0,0,1236,1236,1241,1241,1241,1245,1245,1245,1245,1241,1241,1245,1343,1343,1343,1343,1343,1338,1338,1338,1338,1338,1338,1338,1333,1333,1333,1333,1338,1338,1338,1338,1338,1338,1338,1333,1333,1333,1338,1343,1343,1343,1343,1343,1349,1349,1349,1349,1349,1349,1349,1343,1343,1343,1343,1343,1343,1343,1343,1343,1343,1343,1343,1349,1349,1349,1349,1354,1354,1354,1349,1349,1349,1349,1354,1354,1349,1349,1349,1349,1349,1349,1349,1349,1343,1343,1349,1349,1349,1349,1349,1349,1354,1354,1354,1354,1354,1016,1013,1013,1013,1013,1013,1013,1013,1010,1007,1007,1004,1001,1001,1001,1001,998,998,1001,1001,1001,1010,1013,1013,1016,1016,1016,1354,1354,1354,1359,1359,1359,1359,1359,1354,1354,1359,1359,1354,1354,1354,1354,1354,1354,1354,1354,1354,1359,1359,1359,1359,1359,1354,1354,1354,1354,1354,1354,1354,1354,1354,1354,1354,1354,1354,1354,1354,1354,1354,1354,1354,1354,1359,1359,1359,1359,1359,1359,1359,1359,1354,1354,1354,1359,1354,1354,1354,1359,1354,1354,1354,1354,1354,1354,1354,1354,1354,1359,1359,1359,1359,1359,1359,1359,1359,1359,1359,1359,1359,1359,1359,1365,1359,1359,1359,1359,1354,1354,1354,1354,1354,1354,1354,1354,1354,1359,1359,1354,1354,1354,1354,1354,1354,1354,1354,1354,1354,1354,1354,1354,1349,1349,1349,1349,1349,1343,1343,1343,1343,1343,1338,1338,1338,1333,1333,1333,1333,1328,1322,1322,1322,1317,1317,1312,1312,1312,1312,1307,1307,1307,1307,1302,1302,1307,1302,1297,1297,1292,1292,1292,1292,1288,1288,1288,1288,1288,1288,1288,1288,1283,1273,1273,1268,1268,1268,1268,1268,1264,1264,1264,1264,1259,1255,1255,1255,1255,1255,1255,1250,1250,1245,1245,1241,1241,1241,1241,1241,1236,1236,1232,1232,1232,1232,1227,1227,1094,1094,1094,1094,1094,1090,1087,1087,0,0,0,0,0,0,0,0,0,0,0,0,0,0,0,0,0,0,0,0,0,0,0,0,0,0,0,0,0,0,0,0,0
0,0,0,0,0,0,0,1302,1302,1297,1297,1297,1297,1292,1288,1288,1288,1288,1288,1288,1288,1288,1288,1288,1288,1288,1288,1283,1283,1283,1283,1283,1283,1283,1283,1283,1283,1283,1283,1288,1288,1288,1288,1288,1288,1288,1288,1288,1288,1288,1288,1288,1288,1288,1288,1288,1288,1288,1288,1288,1288,1288,1292,1292,1292,1292,1292,1288,1288,1288,1288,1288,1288,1288,1288,1288,1288,1292,1292,1292,1292,1292,1292,1292,1292,1292,1292,1292,1292,1292,1292,1292,1288,1288,0,0,0,946,0,946,943,940,935,935,935,933,933,933,933,933,933,935,935,935,938,940,943,943,946,946,946,946,948,948,0,1302,1302,1302,1302,1302,1302,1302,1302,1302,1302,1302,1307,1307,1307,1307,1307,1307,1307,1307,1307,1307,1307,1307,1307,1312,1307,1307,1307,1307,1307,1307,1307,1307,1307,1312,1317,1317,1317,1317,1317,1317,1317,1317,1317,1317,1322,1317,1050,1050,1047,1047,1050,1050,1054,1057,1060,1063,1063,1063,1063,1063,1063,1063,1063,1063,1063,1067,1070,1070,1073,1073,1073,1077,1077,1077,1080,1084,1087,1087,1087,1087,1087,1084,1080,1080,1080,1077,1077,1073,1073,1073,1073,1073,1073,1077,0,0,0,0,0,0,0,0,686,684,684,684,682,680,680,679,676,675,674,672,671,670,670,668,666,666,664,664,664,664,664,666,667,670,672,672,674,675,676,678,682,682,683,683,684,686,686,0,0,0,0,0,0,0,0,0,1236,1236,1241,1241,1241,1245,1245,1245,1245,1245,1245,1245,1338,1338,1338,1338,1338,1338,1338,1333,1333,1333,1333,1333,1333,1333,1333,1333,1333,1333,1333,1333,1333,1338,1333,1333,1333,1333,1333,1338,1338,1338,1338,1338,1343,1343,1343,1343,1343,1343,1343,1343,1338,1338,1338,1338,1343,1343,1343,1343,1343,1343,1343,1343,1343,1343,1349,1349,1349,1349,1349,1349,1349,1349,1349,1349,1349,1349,1349,1349,1349,1343,1343,1343,1338,1338,1343,1343,1343,1343,1343,1349,1349,1349,1349,1349,1349,1016,1016,1013,1013,1013,1013,1013,1013,1010,1007,1007,1004,1001,1001,1001,1001,1001,1001,1001,1001,1004,1013,1013,1013,1013,1016,1016,1359,1359,1359,1354,1354,1354,1354,1354,1354,1354,1354,1354,1354,1354,1354,1354,1354,1354,1354,1354,1354,1354,1354,1354,1354,1354,1354,1354,1354,1354,1354,1354,1354,1354,1354,1354,1349,1349,1349,1354,1349,1349,1349,1349,1349,1354,1354,1354,1359,1354,1354,1354,1354,1354,1354,1354,1354,1349,1349,1349,1349,1354,1354,1349,1349,1349,1349,1349,1349,1349,1354,1354,1354,1354,1354,1354,1354,1354,1354,1354,1354,1354,1354,1354,1354,1354,1354,1354,1349,1349,1349,1349,1349,1349,1354,1354,1354,1354,1354,1354,1354,1354,1354,1354,1354,1354,1349,1349,1349,1349,1349,1349,1349,1349,1349,1349,1349,1349,1343,1343,1343,1343,1343,1343,1338,1338,1338,1333,1333,1333,1333,1328,1322,1322,1322,1317,1317,1312,1312,1312,1312,1307,1307,1307,1307,1307,1307,1307,1307,1302,1292,1292,1292,1292,1292,1292,1288,1288,1288,1288,1283,1283,1283,1273,1273,1273,1268,1268,1273,1268,1268,1268,1264,1264,1259,1259,1255,1255,1255,1255,1250,1250,1250,1250,1250,1245,1245,1245,1241,1241,1241,1236,1236,1236,1232,1232,1232,1227,1227,1094,1094,1094,1094,1090,1087,1084,1084,0,0,0,0,0,0,0,0,0,0,0,0,0,0,0,0,0,0,0,0,0,0,0,0,0,0,0,0,0,0,0,0,0
0,0,0,0,0,0,0,1297,1297,1292,1292,1288,1288,1288,1288,1288,1283,1283,1283,1283,1288,1288,1283,1283,1283,1283,1283,1283,1283,1283,1283,1283,1283,1283,1283,1283,1283,1283,1283,1283,1283,1283,1283,1283,1283,1283,1283,1283,1283,1283,1283,1283,1283,1283,1283,1283,1283,1283,1288,1288,1288,1288,1288,1288,1288,1292,1288,1288,1288,1283,1283,1283,1283,1283,1283,1288,1288,1288,1288,1288,1288,1288,1288,1288,1288,1288,1288,1288,1288,1288,1288,1288,1283,1283,0,0,0,0,0,946,946,943,938,935,935,933,933,933,933,933,933,935,935,935,938,940,943,943,946,946,946,946,946,948,0,1297,1297,1297,1297,1297,1297,1297,1297,1297,1297,1297,1297,1302,1302,1302,1302,1302,1302,1302,1302,1302,1302,1302,1302,1302,1302,1302,1302,1302,1302,1302,1302,1302,1307,1307,1307,1307,1312,1317,1317,1317,1312,1312,1312,1317,1047,1047,1047,1050,1047,1047,1050,1050,1050,1057,1057,1060,1060,1060,1060,1060,1060,1060,1063,1063,1063,1067,1067,1070,1073,1073,1073,1077,1077,1077,1080,1084,1087,1087,1087,1087,1087,1084,1080,1080,1077,1077,1073,1073,1070,1070,1070,1070,1070,1070,0,0,0,0,0,0,0,0,684,684,686,686,683,682,680,680,676,675,675,674,672,671,670,670,667,666,664,664,664,664,664,666,668,670,672,674,674,675,678,679,682,682,683,683,684,686,686,0,0,0,0,0,0,0,0,0,1241,1241,1241,1241,1241,1245,1245,1245,1245,1245,1245,1245,1333,1333,1333,1333,1333,1333,1333,1328,1328,1328,1328,1328,1328,1328,1328,1328,1328,1328,1328,1328,1328,1328,1328,1328,1328,1328,1328,1333,1333,1333,1333,1338,1338,1338,1338,1338,1338,1338,1343,1338,1338,1333,1333,1338,1338,1338,1338,1338,1338,1338,1343,1338,1338,1338,1338,1338,1338,1343,1343,1343,1343,1343,1349,1349,1343,1343,1343,1343,1343,1338,1338,1338,1338,1338,1338,1338,1338,1338,1338,1338,1343,1343,1343,1349,1349,0,1016,1016,1016,1016,1016,1013,1013,1013,1010,1007,1004,1004,1001,1001,1001,1001,1001,1004,1004,1007,1013,1013,1013,1013,1016,1016,1354,1354,1354,1349,1349,1349,1349,1349,1349,1349,1349,1349,1349,1349,1349,1349,1349,1349,1349,1349,1349,1349,1349,1349,1349,1349,1349,1349,1349,1349,1349,1349,1349,1349,1349,1349,1349,1343,1343,1349,1343,1343,1349,1349,1349,1349,1349,1349,1354,1354,1349,1349,1349,1349,1349,1349,1349,1349,1349,1349,1349,1349,1349,1349,1349,1349,1349,1349,1349,1349,1349,1349,1349,1349,1354,1354,1349,1349,1349,1349,1354,1349,1349,1349,1349,1349,1349,1349,1349,1349,1349,1349,1349,1349,1349,1349,1349,1349,1349,1354,1354,1354,1349,1349,1354,1349,1349,1349,1343,1343,1349,1349,1349,1349,1349,1349,1343,1343,1343,1343,1343,1338,1338,1338,1338,1338,1338,1333,1333,1333,1333,1328,1322,1322,1322,1317,1317,1312,1312,1312,1312,1307,1307,1307,1307,1307,1307,1307,1307,1302,1292,1292,1292,1292,1292,1292,1288,1288,1288,1288,1283,1283,1283,1273,1273,1273,1273,1273,1273,1268,1268,1268,1264,1264,1259,1259,1255,1255,1255,1255,1250,1250,1250,1250,1250,1245,1245,1245,1241,1241,1241,1236,1236,1236,1236,1232,1232,1227,1101,1094,1094,1094,1090,1087,1084,1084,1084,0,0,0,0,0,0,0,0,0,0,0,0,0,0,0,0,0,0,0,0,0,0,0,0,0,0,0,0,0,0,0,0,0
0,0,0,0,0,0,0,1288,1288,1288,1288,1288,1288,1283,1283,1283,1283,1283,1283,1283,1283,1283,1283,1283,1283,1283,1283,1278,1278,1278,1278,1278,1278,1278,1278,1278,1278,1278,1278,1273,1273,1273,1273,1278,1278,1278,1278,1283,1283,1283,1283,1283,1283,1283,1283,1283,1283,1283,1283,1283,1283,1288,1288,1288,1288,1288,1283,1283,1283,1278,1278,1278,1278,1278,1278,1283,1283,1283,1288,1283,1283,1283,1283,1283,1283,1283,1283,1283,1288,1283,1283,1283,1283,1283,0,0,0,0,946,946,946,943,938,938,935,933,933,933,933,933,933,935,935,935,938,940,940,943,946,946,946,946,948,948,951,1288,1288,1288,1292,1292,1292,1292,1297,1297,1297,1297,1297,1297,1297,1297,1297,1297,1297,1297,1297,1297,1297,1297,1297,1297,1297,1297,1297,1297,1302,1302,1302,1302,1302,1302,1307,1307,1312,1312,1312,1312,1307,1044,1044,1047,1047,1047,1047,1047,1047,1047,1050,1050,1050,1054,1054,1057,1057,1060,1060,1060,1060,1060,1063,1063,1063,1067,1067,1070,1073,1073,1073,1077,1077,1077,1080,1084,1087,1087,1087,1087,1087,1084,1080,1077,1077,1077,1073,1070,1070,1070,1067,1067,1067,1063,1063,0,0,0,0,0,0,0,684,684,687,686,682,682,680,680,678,676,675,674,672,671,670,670,670,666,666,666,664,664,666,667,670,671,672,674,675,676,678,680,683,683,683,684,686,687,687,0,0,0,0,0,0,0,0,0,1241,1241,1241,1241,1241,1245,1245,1245,1245,1245,1245,1245,1328,1328,1328,1328,1328,1328,1328,1322,1322,1322,1322,1322,1322,1322,1322,1322,1322,1322,1322,1322,1322,1322,1322,1328,1328,1328,1328,1333,1333,1333,1333,1333,1333,1333,1333,1333,1333,1333,1333,1333,1333,1333,1333,1333,1333,1333,1333,1333,1333,1333,1333,1333,1333,1333,1333,1333,1333,1333,1333,1333,1338,1338,1338,1343,1343,1338,1338,1338,1338,1338,1338,1338,1333,1333,1333,1333,1333,1333,1333,1333,1338,1338,1338,1338,1016,1016,1016,1016,1016,1016,1016,1013,1013,1013,1010,1007,1004,1004,1001,1001,1001,1001,1001,1004,1004,1010,1013,1013,1013,1016,1016,1016,1354,1354,1343,1343,1338,1338,1343,1343,1343,1343,1343,1343,1343,1349,1349,1343,1343,1343,1343,1343,1343,1343,1343,1343,1349,1349,1349,1349,1349,1349,1343,1343,1343,1343,1338,1338,1343,1338,1338,1343,1343,1343,1349,1349,1343,1343,1343,1338,1338,1349,1343,1343,1343,1343,1343,1338,1338,1338,1338,1343,1349,1349,1343,1343,1343,1343,1343,1343,1343,1343,1343,1343,1343,1343,1349,1349,1349,1349,1349,1349,1349,1349,1343,1343,1338,1338,1338,1338,1343,1343,1343,1343,1349,1343,1343,1343,1343,1343,1343,1349,1349,1349,1343,1343,1349,1349,1343,1343,1343,1343,1343,1343,1343,1343,1349,1343,1343,1343,1343,1338,1338,1338,1338,1338,1338,1338,1338,1333,1333,1333,1333,1328,1322,1322,1322,1317,1317,1312,1312,1312,1312,1312,1307,1307,1307,1307,1307,1307,1307,1302,1297,1292,1292,1292,1292,1292,1288,1288,1288,1288,1283,1283,1283,1273,1273,1273,1273,1273,1273,1268,1268,1268,1264,1264,1264,1259,1259,1255,1255,1255,1255,1255,1250,1250,1250,1250,1245,1245,1241,1241,1241,1236,1236,1236,1236,1232,1097,1097,1101,1094,1094,1090,1090,1087,1084,1080,1080,0,0,0,0,0,0,0,0,0,0,0,0,0,0,0,0,0,0,0,0,0,0,0,0,0,0,0,0,0,0,0,0,0
0,0,0,0,0,0,0,1288,1283,1283,1283,1283,1283,1278,1278,1278,1278,1278,1278,1278,1278,1278,1278,1278,1278,1278,1278,1273,1273,1278,1278,1278,1278,1278,1273,1273,1273,1273,1273,1268,1268,1268,1268,1273,1273,1273,1273,1278,1278,1278,1278,1278,1278,1278,1278,1278,1278,1278,1278,1283,1283,1283,1283,1283,1283,1283,1283,1278,1278,1273,1273,1273,1273,1278,1278,1278,1278,1283,1283,1283,1283,1283,1283,1283,1283,1283,1283,1283,1283,1283,1283,1283,1283,1283,0,0,0,0,946,946,946,943,938,938,935,933,933,933,933,933,933,935,935,935,938,940,940,943,946,946,946,946,948,951,951,1288,1288,1288,1288,1288,1292,1292,1292,1292,1292,1292,1292,1292,1292,1292,1292,1292,1292,1292,1292,1292,1297,1292,1292,1292,1292,1292,1292,1292,1297,1297,1297,1297,1302,1302,1307,1307,1312,1312,1044,1044,1041,1041,1044,1047,1047,1047,1047,1047,1047,1047,1047,1047,1050,1050,1054,1054,1054,1057,1057,1057,1057,1060,1060,1063,1063,1067,1067,1073,1073,1073,1077,1077,1080,1080,1080,1084,1087,1087,1087,1087,1087,1084,1080,1077,1077,1077,1073,1070,1070,1067,1067,1067,1063,1063,1060,1060,0,0,0,0,0,0,0,0,0,682,682,682,682,680,678,676,675,675,674,671,671,671,670,668,666,666,666,666,666,667,670,671,674,675,675,676,678,680,683,683,683,684,686,687,687,0,0,0,0,0,0,0,0,0,1241,1241,1241,1241,1241,1245,1245,1245,1245,1245,1245,1317,1317,1317,1317,1322,1322,1322,1322,1322,1322,1322,1322,1322,1322,1322,1317,1317,1317,1317,1322,1322,1322,1317,1317,1322,1322,1322,1328,1328,1328,1333,1333,1328,1328,1328,1328,1328,1328,1328,1328,1333,1328,1328,1328,1328,1328,1328,1328,1328,1328,1328,1328,1328,1328,1328,1328,1328,1333,1328,1328,1328,1328,1328,1333,1333,1333,1333,1333,1338,1338,1333,1333,1333,1333,1333,1333,1333,1333,1333,1333,1333,1333,1333,1333,1333,0,1019,1019,1016,1016,1016,1016,1016,1013,1013,1010,1007,1007,1004,1001,1001,1001,1001,1001,1004,1007,1013,1013,1013,1016,1019,1019,1019,1333,1333,1333,1333,1333,1333,1333,1333,1333,1333,1333,1338,1338,1338,1338,1338,1338,1338,1338,1338,1338,1338,1338,1338,1343,1349,1349,1349,1349,1343,1343,1343,1338,1338,1333,1333,1338,1338,1338,1338,1338,1338,1338,1338,1338,1338,1338,1333,1333,1333,1338,1333,1333,1333,1338,1338,1338,1333,1333,1338,1338,1338,1343,1343,1343,1343,1338,1338,1338,1338,1338,1338,1338,1338,1343,1343,1343,1343,1343,1343,1343,1343,1338,1338,1333,1333,1333,1338,1338,1338,1338,1338,1343,1343,1343,1343,1343,1343,1343,1343,1343,1338,1338,1338,1338,1338,1338,1338,1338,1338,1333,1333,1333,1333,1343,1343,1338,1338,1338,1338,1338,1338,1333,1333,1333,1333,1333,1333,1333,1333,1333,1328,1322,1322,1322,1322,1317,1317,1312,1312,1312,1312,1307,1307,1307,1307,1307,1307,1307,1302,1302,1297,1297,1292,1292,1292,1288,1288,1288,1288,1283,1283,1283,1273,1273,1273,1273,1273,1273,1268,1268,1268,1268,1268,1264,1264,1259,1255,1255,1255,1250,1250,1250,1250,1250,1245,1241,1241,1241,1241,1241,1236,1236,1232,1232,1232,1097,1097,1097,1094,1094,1090,1087,1084,1080,1080,1080,0,0,0,0,0,0,0,0,0,0,0,0,0,0,0,0,0,0,0,0,0,0,0,0,0,0,0,0,0,0,0,0,0
0,0,0,0,0,0,0,1288,1283,1283,1283,1278,1278,1278,1278,1273,1273,1273,1273,1273,1273,1273,1278,1278,1278,1273,1273,1273,1273,1273,1273,1273,1273,1273,1273,1268,1268,1268,1268,1268,1268,1268,1268,1268,1268,1268,1268,1273,1273,1273,1273,1273,1273,1273,1273,1273,1268,1268,1273,1273,1278,1278,1278,1278,1278,1278,1278,1273,1273,1273,1268,1268,1273,1273,1273,1273,1273,1278,1278,1278,1278,1273,1273,1273,1273,1273,1278,1278,1278,1278,1278,1278,1278,1283,0,0,0,0,946,946,946,943,940,938,935,935,935,935,935,935,935,935,935,938,938,940,940,943,946,946,948,948,948,951,951,951,1288,1288,1288,1288,1288,1288,1288,1292,1292,1292,1292,1292,1292,1292,1288,1288,1288,1288,1288,1288,1288,1288,1292,1292,1292,1292,1292,1292,1292,1292,1292,1292,1297,1297,1297,1038,1038,1038,1041,1041,1041,1041,1044,1044,1044,1044,1047,1047,1047,1047,1047,1047,1050,1050,1050,1050,1050,1054,1054,1057,1057,1060,1060,1063,1063,1067,1067,1073,1073,1073,1077,1077,1080,1080,1084,1084,1087,1087,1087,1087,1087,1084,1080,1077,1077,1077,1073,1070,1070,1067,1067,1067,1063,1063,1060,1060,0,0,0,0,0,0,0,0,0,682,682,682,682,680,678,676,676,675,674,672,672,671,670,668,667,667,667,667,667,668,670,671,672,675,676,676,678,680,683,683,683,684,686,687,687,0,0,0,0,0,0,0,0,0,1236,1236,1241,1241,1241,1245,1245,1245,1250,1250,1250,1312,1312,1312,1312,1312,1312,1312,1317,1317,1317,1317,1317,1317,1317,1317,1317,1317,1317,1317,1312,1312,1317,1312,1312,1317,1317,1322,1328,1328,1328,1328,1328,1328,1328,1328,1328,1328,1328,1328,1328,1328,1328,1322,1322,1322,1328,1328,1328,1328,1328,1328,1328,1328,1322,1322,1322,1322,1328,1328,1322,1322,1322,1322,1328,1328,1328,1328,1328,1333,1333,1333,1333,1328,1328,1328,1328,1328,1328,1328,1333,1333,1333,1328,1328,1328,0,1019,1019,1019,1019,1016,1016,1016,1016,1013,1013,1010,1007,1004,1004,1004,1004,1004,1004,1004,1007,1013,1013,1016,1016,1019,1019,1019,0,1328,1328,1328,1333,1328,1328,1328,1328,1328,1328,1333,1333,1333,1333,1333,1333,1333,1338,1338,1338,1333,1333,1333,1333,1333,1333,1333,1333,1333,1333,1333,1333,1333,1333,1333,1333,1333,1333,1333,1338,1338,1333,1333,1333,1333,1333,1333,1328,1328,1333,1328,1328,1333,1333,1333,1333,1333,1333,1333,1333,1333,1333,1333,1333,1338,1338,1333,1333,1333,1333,1333,1333,1333,1338,1338,1338,1338,1338,1338,1338,1338,1338,1338,1333,1333,1333,1333,1338,1338,1338,1338,1338,1338,1338,1338,1338,1338,1333,1333,1338,1338,1338,1338,1338,1338,1333,1333,1333,1333,1333,1333,1333,1333,1333,1338,1338,1338,1338,1333,1333,1333,1333,1333,1333,1333,1333,1328,1328,1333,1333,1328,1322,1322,1322,1322,1317,1317,1312,1312,1312,1312,1312,1312,1307,1307,1307,1307,1307,1302,1302,1297,1297,1297,1292,1292,1292,1288,1288,1288,1283,1283,1283,1283,1273,1273,1273,1273,1273,1268,1268,1268,1268,1268,1264,1264,1264,1255,1255,1255,1250,1250,1250,1250,1250,1245,1241,1241,1236,1236,1236,1236,1236,1232,1232,1232,1097,1097,1097,1094,1094,1090,1087,1084,1080,1080,1080,0,0,0,0,0,0,0,0,0,0,0,0,0,0,0,0,0,0,0,0,0,0,0,0,0,0,0,0,0,0,0,0,0
0,0,0,0,0,0,0,1278,1278,1278,1273,1273,1273,1273,1273,1273,1273,1268,1268,1268,1268,1268,1268,1268,1273,1268,1268,1268,1268,1268,1268,1268,1268,1268,1268,1268,1264,1264,1268,1264,1264,1268,1268,1264,1264,1268,1268,1268,1268,1268,1268,1273,1268,1268,1268,1268,1268,1268,1268,1268,1268,1268,1268,1268,1268,1273,1268,1268,1268,1268,1268,1268,1268,1268,1268,1268,1268,1268,1268,1273,1273,1273,1268,1268,1273,1273,1273,1273,1273,1273,1278,1273,1268,1268,0,0,0,0,0,946,946,943,940,938,935,935,935,935,935,935,935,935,935,938,938,940,940,943,946,948,948,948,951,951,951,954,954,1283,1283,1283,1288,1288,1288,1288,1292,1292,1288,1288,1288,1288,1288,1283,1283,1283,1283,1283,1288,1288,1288,1288,1288,1292,1288,1288,1292,1292,1292,1034,1034,1034,1034,1034,1038,1038,1038,1038,1038,1038,1041,1044,1044,1044,1044,1047,1047,1047,1047,1047,1050,1050,1050,1050,1050,1054,1054,1054,1057,1057,1060,1063,1063,1067,1070,1073,1073,1073,1077,1077,1080,1080,1084,1084,1087,1087,1087,1087,1087,1084,1080,1077,1077,1077,1073,1070,1070,1067,1067,1063,1063,1063,1063,1063,0,0,0,0,0,0,0,0,0,683,682,682,682,682,679,678,676,675,674,672,672,671,670,670,668,668,668,668,668,670,671,671,672,674,676,676,678,680,682,683,683,684,686,686,687,0,0,0,0,0,0,0,0,0,1232,1232,1241,1241,1241,1245,1245,1245,1250,1250,1250,1302,1302,1307,1307,1307,1312,1307,1307,1307,1307,1312,1312,1312,1312,1312,1312,1312,1312,1312,1307,1307,1307,1307,1307,1312,1312,1312,1322,1322,1322,1322,1322,1322,1322,1322,1322,1322,1322,1322,1322,1322,1322,1317,1317,1317,1317,1322,1322,1322,1322,1322,1322,1322,1322,1317,1317,1317,1322,1322,1317,1312,1312,1317,1322,1322,1322,1322,1322,1328,1328,1328,1328,1328,1328,1328,1322,1322,1328,1328,1328,1328,1322,1322,1322,1322,1307,1022,1022,1019,1019,1019,1016,1016,1016,1013,1013,1010,1007,1004,1004,1004,1004,1004,1004,1004,1010,1013,1016,1016,1016,1019,1019,1019,0,1328,1328,1328,1333,1328,1328,1328,1328,1328,1328,1328,1328,1333,1333,1333,1333,1333,1333,1333,1333,1333,1333,1333,1333,1328,1328,1328,1328,1328,1328,1328,1322,1322,1328,1328,1328,1328,1328,1333,1333,1333,1333,1328,1328,1328,1328,1328,1328,1328,1328,1328,1328,1333,1333,1328,1328,1328,1328,1333,1333,1328,1328,1328,1328,1328,1328,1328,1333,1333,1333,1333,1328,1328,1328,1333,1333,1333,1333,1333,1333,1333,1333,1333,1333,1333,1333,1333,1333,1333,1333,1333,1338,1338,1333,1333,1338,1338,1333,1333,1333,1333,1333,1333,1333,1333,1333,1333,1333,1333,1328,1328,1328,1328,1333,1333,1333,1333,1333,1333,1333,1333,1333,1333,1333,1333,1328,1328,1328,1328,1328,1328,1322,1322,1322,1322,1322,1317,1312,1312,1312,1312,1312,1312,1307,1307,1307,1307,1307,1302,1302,1297,1297,1297,1292,1292,1292,1288,1288,1288,1288,1283,1283,1283,1278,1273,1273,1273,1273,1268,1268,1268,1268,1268,1268,1264,1264,1255,1255,1255,1250,1250,1250,1250,1250,1245,1241,1241,1236,1236,1236,1232,1232,1232,1105,1105,1101,1101,1097,1094,1094,1090,1084,1084,1080,1077,1077,0,0,0,0,0,0,0,0,0,0,0,0,0,0,0,0,0,0,0,0,0,0,0,0,0,0,0,0,0,0,0,0,0
0,0,0,0,0,0,0,1268,1268,1268,1268,1268,1268,1268,1268,1268,1268,1268,1268,1268,1268,1268,1264,1264,1268,1268,1264,1264,1268,1268,1268,1268,1268,1268,1268,1268,1264,1264,1264,1264,1264,1264,1264,1264,1264,1268,1268,1264,1264,1264,1264,1268,1268,1264,1264,1268,1264,1264,1264,1264,1264,1268,1268,1268,1268,1268,1268,1264,1264,1264,1264,1264,1268,1264,1264,1264,1264,1264,1264,1264,1264,1268,1268,1268,1268,1268,1268,1268,1268,1268,1268,1268,1268,1268,0,0,0,0,0,946,946,943,940,938,935,935,935,935,935,935,935,935,935,938,938,940,940,943,946,948,951,951,954,954,954,954,954,1283,1283,1283,1283,1283,1283,1283,1288,1288,1283,1283,1283,1283,1283,1283,1283,1283,1283,1283,1283,1283,1283,1288,1288,1288,1288,1288,1292,1038,1034,1034,1031,1031,1031,1031,1031,1031,1031,1034,1038,1038,1041,1041,1044,1044,1044,1044,1047,1047,1047,1047,1050,1050,1050,1050,1050,1050,1054,1054,1054,1057,1060,1063,1067,1067,1070,1073,1073,1077,1077,1077,1080,1080,1084,1084,1087,1087,1087,1087,1087,1084,1080,1077,1077,1077,1073,1073,1070,1070,1067,1063,1063,1060,1060,1063,0,0,0,0,0,0,0,0,686,683,682,682,682,682,679,678,676,675,675,674,672,672,671,670,668,668,668,668,668,670,671,671,672,674,676,676,678,680,682,683,683,684,686,686,687,0,0,0,0,0,0,0,0,0,1232,1232,1241,1241,1245,1245,1245,1250,1250,1255,1264,1268,1302,1302,1302,1302,1307,1302,1302,1302,1302,1302,1302,1302,1307,1307,1307,1307,1307,1307,1307,1307,1307,1307,1307,1307,1307,1307,1317,1317,1317,1317,1317,1317,1317,1317,1317,1317,1317,1317,1317,1317,1317,1312,1312,1312,1312,1317,1317,1317,1317,1317,1317,1317,1322,1317,1317,1317,1317,1317,1312,1312,1312,1312,1317,1317,1317,1317,1317,1317,1317,1317,1317,1317,1322,1322,1317,1317,1322,1322,1322,1322,1317,1317,1312,1307,1307,1022,1022,1022,1019,1019,1019,1016,1016,1013,1013,1010,1007,1007,1004,1004,1004,1004,1004,1004,1013,1013,1016,1019,1019,1022,1022,1022,0,1328,1328,1328,1322,1322,1328,1322,1322,1322,1322,1322,1328,1328,1328,1328,1328,1328,1328,1328,1328,1328,1328,1328,1328,1322,1322,1322,1317,1317,1317,1317,1317,1317,1317,1317,1322,1328,1328,1328,1328,1328,1328,1328,1328,1328,1328,1328,1328,1328,1328,1328,1328,1328,1328,1328,1328,1322,1322,1328,1328,1322,1322,1328,1328,1328,1328,1328,1328,1328,1328,1328,1328,1328,1328,1328,1328,1328,1328,1328,1328,1333,1328,1328,1328,1328,1328,1328,1328,1333,1333,1333,1333,1333,1333,1333,1333,1333,1333,1333,1333,1333,1333,1333,1333,1333,1328,1328,1328,1328,1328,1328,1328,1328,1328,1328,1328,1328,1328,1328,1328,1328,1328,1328,1328,1322,1322,1322,1322,1328,1328,1322,1322,1322,1322,1322,1322,1317,1317,1312,1312,1312,1312,1312,1307,1307,1307,1307,1302,1302,1297,1297,1297,1297,1292,1292,1288,1288,1288,1288,1288,1283,1283,1278,1278,1278,1273,1273,1273,1273,1273,1268,1268,1268,1268,1268,1264,1259,1255,1255,1255,1250,1250,1250,1245,1245,1245,1241,1236,1236,1236,1232,1232,1232,1105,1105,1101,1101,1097,1094,1094,1090,1080,1080,1077,1077,1077,0,0,0,0,0,0,0,0,0,0,0,0,0,0,0,0,0,0,0,0,0,0,0,0,0,0,0,0,0,0,0,0,0
0,0,0,0,0,0,0,1268,1268,1268,1264,1264,1264,1264,1268,1268,1268,1268,1264,1264,1264,1264,1259,1259,1259,1259,1259,1259,1259,1259,1264,1264,1264,1264,1264,1264,1259,1259,1264,1264,1264,1264,1264,1264,1264,1264,1264,1264,1264,1259,1259,1264,1264,1259,1259,1264,1259,1259,1255,1255,1259,1264,1264,1264,1264,1264,1264,1264,1264,1264,1264,1264,1264,1264,1264,1264,1259,1259,1259,1255,1255,1259,1264,1264,1264,1264,1268,1268,1268,1268,1268,1264,1264,1264,1264,0,0,0,0,946,946,943,940,938,935,935,935,935,935,935,935,935,938,938,938,940,940,943,946,948,951,951,954,954,954,954,1278,1278,1278,1278,1278,1278,1278,1278,1278,1278,1278,1278,1278,1278,1283,1283,1283,1283,1283,1283,1283,1283,1283,1283,1283,1288,1288,1028,1028,1028,1031,1031,1031,1028,1028,1031,1031,1031,1031,1031,1031,1034,1034,1041,1041,1041,1041,1041,1044,1047,1047,1047,1050,1050,1050,1050,1050,1050,1054,1054,1054,1057,1060,1063,1067,1067,1070,1073,1073,1077,1077,1077,1080,1080,1084,1084,1087,1087,1087,1084,1084,1084,1080,1077,1077,1077,1073,1073,1070,1070,1067,1063,1063,1060,1060,0,0,0,0,0,0,0,0,0,686,683,683,682,682,682,682,679,676,676,675,674,672,672,671,671,670,670,670,668,668,670,671,671,672,675,676,678,679,682,683,683,683,684,686,686,687,0,0,0,0,0,0,0,0,0,1236,1236,1245,1245,1245,1245,1250,1250,1250,1255,1264,1268,1273,1297,1302,1302,1302,1302,1302,1302,1302,1302,1297,1297,1297,1297,1302,1302,1302,1302,1302,1302,1302,1307,1307,1307,1307,1307,1312,1312,1312,1312,1312,1312,1312,1312,1312,1312,1312,1307,1307,1307,1307,1307,1307,1307,1312,1312,1312,1312,1312,1312,1312,1317,1317,1317,1317,1312,1312,1317,1312,1312,1312,1312,1312,1312,1312,1312,1312,1312,1312,1312,1312,1312,1312,1312,1312,1317,1317,1317,1312,1312,1312,1312,1307,1307,1307,1025,1025,1022,1019,1019,1019,1016,1016,1016,1013,1010,1010,1007,1004,1004,1004,1004,1004,1004,1013,1013,1016,1019,1019,1022,1025,0,0,0,1322,1322,1322,1322,1322,1322,1322,1322,1322,1322,1322,1322,1317,1317,1317,1317,1317,1328,1328,1328,1328,1322,1322,1317,1317,1317,1317,1317,1317,1317,1317,1317,1317,1317,1317,1322,1322,1322,1322,1322,1322,1322,1322,1322,1322,1322,1322,1322,1322,1322,1322,1322,1322,1322,1322,1317,1317,1312,1312,1317,1317,1322,1322,1317,1317,1322,1322,1322,1322,1322,1322,1322,1322,1322,1322,1328,1328,1328,1328,1328,1328,1322,1322,1322,1322,1322,1322,1328,1328,1328,1328,1328,1328,1328,1333,1333,1333,1333,1333,1328,1328,1328,1328,1328,1328,1328,1328,1328,1322,1322,1322,1322,1328,1328,1328,1328,1328,1322,1322,1322,1322,1322,1322,1317,1317,1317,1317,1322,1322,1322,1322,1322,1322,1322,1322,1317,1317,1312,1312,1312,1312,1312,1307,1307,1307,1307,1302,1302,1297,1297,1297,1297,1292,1292,1288,1288,1288,1288,1288,1283,1283,1278,1278,1278,1273,1273,1273,1273,1273,1268,1268,1268,1268,1268,1268,1264,1264,1255,1255,1250,1250,1250,1245,1245,1241,1236,1236,1236,1236,1232,1232,1108,1108,1105,1105,1101,1101,1094,1094,1090,1080,1080,1077,1073,1073,0,0,0,0,0,0,0,0,0,0,0,0,0,0,0,0,0,0,0,0,0,0,0,0,0,0,0,0,0,0,0,0,0
0,0,0,0,0,0,1268,1268,1268,1268,1264,1264,1259,1259,1264,1264,1264,1259,1259,1259,1259,1255,1255,1250,1250,1250,1255,1255,1255,1255,1259,1259,1259,1259,1259,1264,1259,1259,1259,1259,1259,1259,1259,1259,1259,1264,1264,1259,1259,1255,1255,1259,1255,1255,1255,1259,1255,1255,1250,1250,1255,1250,1250,1255,1259,1259,1259,1259,1259,1259,1259,1259,1264,1259,1259,1259,1259,1255,1255,1255,1255,1255,1255,1255,1259,1259,1264,1264,1259,1259,1264,1259,1259,1259,1264,0,0,0,0,946,946,943,940,938,938,935,935,935,935,935,935,935,938,938,938,940,940,943,946,948,951,954,954,954,956,956,956,1268,1268,1268,1268,1273,1273,1273,1273,1273,1273,1273,1273,1273,1278,1278,1278,1278,1278,1022,1022,1022,1022,1022,1022,1022,1022,1025,1025,1025,1028,1025,1025,1028,1028,1028,1028,1031,1031,1031,1031,1034,1034,1034,1038,1038,1038,1041,1041,1044,1044,1047,1050,1050,1050,1050,1050,1050,1054,1054,1054,1057,1060,1063,1067,1070,1073,1073,1073,1077,1077,1077,1080,1080,1084,1084,1087,1087,1087,1084,1084,1084,1080,1077,1077,1077,1073,1073,1070,1070,1067,1063,1063,1063,0,0,0,0,0,0,0,0,0,0,0,683,682,682,682,682,682,679,676,676,675,672,672,671,671,671,670,670,670,670,670,670,671,671,672,675,676,678,679,682,683,684,684,686,687,687,687,0,0,0,0,0,0,0,0,0,1241,1241,1245,1245,1245,1245,1250,1250,1255,1259,1268,1273,1273,1288,1297,1297,1297,1297,1297,1297,1297,1297,1292,1292,1297,1297,1297,1297,1297,1297,1302,1302,1302,1302,1302,1302,1302,1302,1307,1307,1307,1307,1307,1312,1312,1307,1307,1307,1307,1302,1302,1302,1302,1307,1307,1307,1307,1307,1307,1307,1307,1307,1307,1307,1312,1312,1312,1307,1307,1312,1307,1307,1307,1307,1312,1307,1307,1307,1312,1312,1307,1307,1307,1307,1307,1307,1307,1307,1307,1312,1312,1312,1312,1312,1307,1307,1307,1307,1025,1025,1022,1022,1019,1019,1016,1016,1013,1013,1010,1010,1007,1004,1004,1007,1007,1007,1013,1013,1019,1022,1022,1025,1025,0,0,0,1322,1317,1317,1317,1317,1317,1317,1317,1317,1317,1317,1317,1317,1312,1312,1312,1312,1317,1317,1317,1322,1322,1317,1317,1312,1312,1312,1312,1312,1312,1312,1312,1312,1312,1317,1317,1317,1317,1317,1317,1317,1317,1317,1317,1317,1317,1317,1317,1317,1317,1317,1317,1322,1312,1312,1312,1312,1312,1312,1312,1312,1312,1312,1312,1312,1312,1312,1317,1317,1317,1317,1317,1317,1322,1322,1322,1322,1322,1322,1322,1322,1322,1317,1317,1317,1317,1317,1317,1322,1322,1322,1322,1328,1328,1328,1328,1328,1328,1328,1328,1328,1328,1322,1322,1317,1317,1322,1322,1317,1317,1317,1322,1322,1322,1322,1322,1322,1317,1317,1317,1317,1317,1317,1317,1317,1317,1317,1317,1317,1317,1317,1322,1317,1317,1317,1317,1317,1312,1312,1312,1312,1312,1307,1307,1307,1307,1302,1302,1297,1297,1297,1297,1297,1292,1292,1292,1288,1288,1288,1288,1283,1283,1283,1278,1278,1273,1273,1273,1273,1268,1268,1268,1268,1268,1268,1264,1264,1255,1255,1250,1250,1250,1245,1245,1241,1236,1236,1236,1236,1232,1232,1108,1108,1108,1105,1101,1097,1090,1090,1080,1080,1077,1073,1070,1070,0,0,0,0,0,0,0,0,0,0,0,0,0,0,0,0,0,0,0,0,0,0,0,0,0,0,0,0,0,0,0,0,0
0,0,0,0,0,0,1264,1264,1264,1264,1259,1259,1255,1255,1259,1259,1259,1259,1255,1255,1255,1255,1255,1250,1250,1250,1255,1255,1250,1250,1255,1259,1259,1255,1255,1259,1259,1255,1255,1255,1255,1255,1259,1255,1255,1259,1259,1255,1255,1250,1250,1255,1250,1250,1255,1255,1250,1250,1250,1250,1250,1250,1250,1255,1255,1255,1255,1255,1255,1255,1255,1259,1259,1255,1255,1255,1255,1255,1250,1250,1250,1250,1255,1255,1255,1255,1259,1255,1255,1255,1259,1255,1255,1255,0,0,0,0,0,946,946,943,943,938,938,935,935,935,935,935,935,935,938,938,938,940,940,943,946,951,954,954,954,954,956,956,956,1268,1268,1268,1268,1268,1268,1268,1268,1268,1268,1268,1268,1268,1268,1273,1273,1273,1019,1019,1019,1022,1022,1022,1019,1019,1022,1022,1022,1022,1025,1025,1025,1025,1025,1028,1028,1028,1028,1028,1031,1031,1034,1034,1034,1034,1038,1038,1041,1041,1044,1047,1047,1050,1050,1050,1050,1050,1054,1054,1054,1057,1063,1067,1070,1070,1073,1073,1073,1077,1077,1077,1080,1080,1084,1084,1087,1087,1087,1087,1087,1087,1080,1077,1077,1077,1073,1073,1070,1070,1067,1067,1063,1063,0,0,0,0,0,0,0,0,0,0,0,683,682,682,682,682,682,680,678,676,675,672,672,671,671,670,670,670,670,670,670,671,671,672,674,675,678,678,679,682,683,686,686,687,687,687,687,0,0,0,0,0,0,0,0,0,1241,1241,1245,1245,1245,1250,1250,1255,1255,1259,1268,1273,1273,1283,1297,1297,1297,1292,1292,1292,1292,1292,1292,1292,1292,1292,1292,1292,1292,1292,1297,1297,1297,1297,1302,1302,1297,1297,1302,1302,1302,1302,1302,1307,1307,1307,1302,1302,1302,1297,1297,1297,1297,1302,1302,1302,1302,1302,1302,1302,1302,1302,1302,1302,1307,1307,1307,1302,1302,1307,1307,1302,1302,1307,1307,1307,1307,1307,1307,1307,1307,1307,1307,1307,1307,1307,1307,1307,1307,1307,1307,1307,1307,1307,1307,1307,1307,1307,1025,1025,1022,1022,1019,1019,1016,1016,1013,1013,1013,1010,1007,1007,1007,1007,1007,1007,1013,1013,1019,1022,1022,1025,1025,0,0,0,1317,1312,1312,1312,1312,1312,1312,1312,1312,1312,1312,1312,1312,1312,1312,1312,1312,1312,1312,1312,1312,1317,1317,1312,1312,1312,1312,1312,1312,1312,1312,1312,1312,1312,1312,1312,1312,1312,1312,1312,1312,1317,1317,1317,1312,1312,1312,1312,1317,1312,1312,1317,1312,1312,1312,1312,1312,1312,1312,1312,1312,1312,1312,1312,1312,1312,1312,1312,1312,1312,1312,1312,1312,1312,1312,1317,1317,1317,1317,1317,1317,1312,1312,1312,1312,1312,1312,1312,1317,1317,1317,1322,1322,1322,1328,1328,1328,1328,1328,1328,1322,1322,1317,1317,1312,1312,1317,1317,1312,1312,1317,1317,1317,1317,1317,1317,1317,1317,1317,1317,1317,1317,1312,1312,1312,1312,1312,1312,1317,1317,1317,1317,1317,1317,1317,1317,1317,1312,1312,1312,1312,1307,1307,1307,1307,1307,1302,1302,1302,1297,1297,1297,1297,1292,1292,1292,1288,1288,1288,1288,1288,1283,1283,1278,1278,1278,1273,1273,1273,1268,1268,1268,1268,1268,1268,1264,1264,1264,1259,1250,1250,1250,1245,1245,1241,1236,1236,1236,1236,1236,1232,1108,1108,1108,1105,1094,1090,1087,1080,1080,1077,1073,1070,1067,1067,0,0,0,0,0,0,0,0,0,0,0,0,0,0,0,0,0,0,0,0,0,0,0,0,0,0,0,0,0,0,0,0,0
0,0,0,0,0,0,1264,1264,1259,1259,1259,1255,1255,1255,1255,1255,1255,1255,1255,1255,1255,1255,1250,1250,1250,1250,1250,1250,1250,1250,1250,1255,1255,1255,1255,1255,1255,1250,1250,1250,1250,1250,1250,1245,1245,1255,1250,1250,1250,1245,1245,1250,1250,1250,1250,1250,1250,1250,1245,1245,1245,1250,1250,1250,1255,1255,1255,1255,1255,1255,1255,1255,1255,1250,1250,1250,1250,1250,1250,1250,1250,1250,1250,1250,1250,1250,1255,1250,1250,1250,1250,1250,1250,1250,0,0,0,0,0,946,946,946,943,940,938,938,935,935,935,935,935,935,938,938,940,943,943,946,948,951,954,954,954,954,956,956,956,1268,1268,1268,1268,1268,1268,1268,1264,1264,1268,1268,1264,1264,1268,1268,1268,1273,1016,1016,1016,1019,1019,1019,1016,1016,1019,1019,1022,1022,1022,1022,1022,1025,1025,1025,1025,1025,1028,1028,1028,1031,1031,1034,1034,1034,1034,1038,1041,1041,1041,1047,1047,1050,1050,1050,1050,1050,1054,1054,1057,1060,1063,1067,1070,1070,1073,1073,1073,1073,1077,1077,1077,1080,1084,1087,1090,1264,1264,1268,1264,1087,1080,1077,1077,1077,1073,1073,1073,1070,1067,1067,1063,1063,0,0,0,0,0,0,0,0,0,0,0,684,683,682,682,682,682,680,678,676,675,674,672,671,671,670,670,670,670,670,670,671,671,672,675,676,678,678,679,682,683,686,686,687,687,687,687,0,0,0,0,0,0,0,0,0,1245,1245,1245,1245,1245,1250,1250,1255,1255,1264,1268,1273,1273,1278,1292,1292,1292,1292,1292,1292,1292,1288,1288,1288,1288,1288,1288,1288,1288,1292,1292,1292,1292,1292,1292,1292,1297,1297,1297,1297,1297,1297,1297,1302,1297,1297,1297,1297,1297,1297,1292,1292,1297,1297,1297,1297,1297,1297,1297,1297,1297,1297,1297,1297,1297,1297,1302,1297,1297,1297,1297,1297,1297,1302,1302,1302,1302,1302,1302,1302,1302,1302,1302,1302,1302,1302,1302,1302,1302,1302,1302,1302,1302,1302,1302,1302,1302,1302,1025,1025,1022,1022,1019,1019,1016,1016,1013,1013,1013,1013,1010,1010,1010,1010,1010,1010,1013,1013,1019,1022,1025,1025,1028,0,0,0,1312,1307,1307,1307,1307,1307,1307,1307,1307,1307,1307,1307,1307,1307,1307,1307,1307,1307,1307,1307,1307,1312,1312,1312,1307,1307,1307,1307,1307,1307,1307,1307,1307,1307,1312,1312,1307,1307,1312,1312,1312,1312,1312,1312,1312,1312,1312,1312,1312,1312,1312,1312,1312,1312,1312,1312,1307,1307,1312,1307,1307,1307,1312,1312,1312,1312,1312,1312,1312,1312,1312,1312,1312,1307,1307,1307,1307,1307,1312,1312,1312,1312,1312,1307,1307,1307,1307,1307,1312,1312,1312,1317,1322,1322,1322,1322,1322,1322,1322,1322,1317,1317,1312,1312,1312,1312,1312,1312,1312,1312,1312,1312,1312,1312,1312,1312,1312,1312,1312,1312,1312,1312,1312,1312,1312,1312,1312,1312,1312,1312,1312,1312,1312,1312,1317,1312,1312,1312,1312,1312,1312,1307,1307,1302,1302,1302,1302,1302,1302,1297,1297,1297,1297,1292,1292,1292,1288,1288,1288,1288,1288,1283,1283,1283,1278,1278,1273,1273,1273,1268,1268,1268,1268,1268,1264,1264,1264,1259,1255,1250,1250,1250,1245,1245,1241,1236,1236,1236,1236,1236,1112,1112,1108,1105,1101,1094,1090,1084,1077,1077,1073,1073,1063,1063,1067,0,0,0,0,0,0,0,0,0,0,0,0,0,0,0,0,0,0,0,0,0,0,0,0,0,0,0,0,0,0,0,0,0
0,0,0,0,0,0,1259,1259,1259,1259,1255,1255,1250,1250,1255,1255,1250,1250,1250,1250,1250,1250,1245,1245,1245,1250,1245,1245,1245,1245,1245,1250,1250,1250,1250,1250,1250,1250,1245,1245,1241,1241,1241,1241,1241,1236,1236,1236,1241,1241,1241,1245,1245,1245,1245,1245,1245,1245,1245,1245,1245,1245,1245,1245,1250,1250,1250,1250,1250,1250,1250,1250,1250,1250,1250,1250,1250,1250,1250,1250,1250,1250,1250,1250,1250,1250,1250,1250,1245,1245,1250,1245,1245,1245,0,0,0,0,0,951,948,946,946,943,940,938,938,938,935,935,938,938,938,940,940,943,943,946,948,954,954,954,954,954,956,956,956,0,1264,1264,1264,1264,1264,1264,1264,1264,1264,1264,1264,1264,1264,1264,1019,1016,1016,1016,1016,1016,1016,1016,1016,1016,1016,1019,1019,1019,1019,1022,1022,1022,1022,1025,1025,1025,1025,1028,1028,1031,1031,1034,1034,1034,1034,1038,1038,1041,1041,1047,1047,1050,1050,1050,1050,1050,1054,1057,1057,1060,1063,1067,1070,1070,1073,1073,1073,1073,1073,1073,1077,1080,1084,1268,1268,1264,1264,1268,1264,1264,1264,1070,1070,1073,1073,1073,1073,1070,1067,1067,1063,1063,0,0,0,0,0,0,0,0,0,0,0,686,684,683,683,683,682,680,679,676,675,674,672,671,671,671,670,670,670,670,670,671,671,672,675,676,678,679,682,684,684,686,686,687,687,687,687,0,0,0,0,0,0,0,0,1245,1245,1245,1245,1245,1250,1250,1255,1255,1259,1264,1268,1268,1273,1273,1288,1288,1288,1288,1288,1288,1288,1288,1288,1288,1288,1288,1288,1288,1288,1288,1288,1288,1288,1288,1288,1288,1288,1288,1297,1297,1297,1297,1297,1297,1292,1292,1292,1292,1292,1292,1292,1292,1292,1292,1292,1292,1292,1292,1292,1292,1292,1297,1297,1297,1297,1297,1297,1297,1297,1292,1292,1297,1297,1297,1297,1297,1297,1297,1297,1297,1297,1297,1297,1297,1297,1302,1297,1297,1302,1297,1297,1297,1297,1292,1292,1292,1292,1292,1022,1022,1022,1022,1022,1022,1019,1016,1016,1013,1013,1013,1010,1010,1010,1010,1010,1010,1013,1013,1019,1022,1025,1025,1025,0,0,0,1307,1307,1302,1302,1307,1307,1302,1302,1307,1302,1302,1307,1302,1302,1302,1302,1302,1302,1302,1302,1302,1307,1307,1307,1307,1307,1307,1307,1307,1307,1307,1307,1307,1307,1307,1307,1307,1307,1307,1307,1307,1307,1307,1307,1307,1307,1307,1307,1307,1307,1307,1307,1307,1307,1307,1307,1307,1307,1307,1307,1307,1307,1307,1307,1312,1307,1307,1307,1307,1307,1307,1307,1307,1307,1302,1302,1302,1302,1302,1302,1307,1307,1307,1307,1302,1302,1302,1302,1307,1307,1307,1307,1312,1317,1317,1317,1312,1312,1312,1312,1312,1312,1307,1307,1307,1307,1307,1307,1307,1307,1312,1307,1307,1307,1307,1312,1312,1312,1307,1307,1312,1312,1312,1307,1307,1307,1307,1307,1307,1307,1312,1312,1312,1312,1312,1312,1312,1312,1307,1307,1307,1307,1307,1302,1297,1297,1302,1302,1302,1297,1297,1297,1297,1292,1292,1292,1292,1288,1288,1288,1283,1283,1283,1283,1278,1278,1273,1273,1273,1268,1268,1268,1268,1268,1264,1264,1259,1259,1255,1250,1245,1245,1245,1245,1241,1236,1236,1236,1236,1108,1108,1108,1108,1105,1101,1087,1087,1080,1077,1077,1073,1070,1063,1063,0,0,0,0,0,0,0,0,0,0,0,0,0,0,0,0,0,0,0,0,0,0,0,0,0,0,0,0,0,0,0,0,0,0
0,0,0,0,0,0,1259,1255,1255,1250,1250,1250,1250,1250,1250,1250,1250,1245,1245,1245,1245,1245,1241,1241,1245,1245,1245,1245,1245,1245,1245,1245,1245,1245,1245,1250,1245,1245,1245,1241,1236,1236,1236,1236,1232,1232,1232,1236,1236,1236,1236,1241,1241,1241,1241,1241,1245,1245,1241,1241,1236,1236,1245,1245,1245,1245,1245,1245,1245,1245,1245,1245,1245,1245,1245,1245,1245,1245,1245,1245,1245,1245,1245,1245,1245,1245,1245,1245,1245,1245,1245,1245,1241,1241,0,0,0,0,0,951,951,951,946,943,940,940,938,938,938,938,938,938,940,940,943,943,946,946,948,954,954,954,954,954,954,956,956,0,1264,1264,1264,1264,1264,1264,1264,1264,1264,1264,1264,1264,1264,1016,1016,1016,1013,1013,1016,1016,1016,1016,1016,1016,1016,1016,1016,1016,1016,1019,1019,1022,1022,1022,1022,1025,1025,1025,1028,1031,1031,1034,1034,1034,1038,1038,1038,1041,1041,1047,1047,1050,1050,1050,1050,1054,1057,1057,1060,1060,1063,1067,1070,1070,1073,1073,1073,1073,1073,1073,1264,1264,1264,1264,1268,1264,1264,1268,1268,1264,1264,1070,1070,1073,1073,1073,1073,1070,1067,1067,1063,1063,1063,1063,0,0,0,0,0,0,0,0,0,0,686,684,683,683,682,680,679,676,675,674,672,671,671,670,670,670,670,670,670,671,671,672,675,676,679,680,683,684,686,686,687,687,687,688,0,0,0,0,0,0,0,0,0,1245,1245,1245,1250,1250,1250,1250,1255,1259,1259,1264,1268,1268,1273,1273,1283,1288,1288,1288,1288,1288,1288,1288,1283,1283,1283,1283,1283,1283,1283,1288,1288,1288,1288,1288,1288,1288,1288,1288,1292,1292,1292,1292,1292,1292,1288,1288,1288,1288,1288,1288,1288,1292,1292,1292,1292,1292,1292,1292,1292,1292,1292,1292,1292,1292,1292,1292,1292,1292,1292,1292,1292,1292,1292,1292,1292,1297,1297,1297,1297,1297,1297,1297,1292,1292,1297,1292,1292,1292,1292,1292,1292,1292,1292,1288,1288,1288,1288,1288,1022,1022,1022,1025,1025,1022,1019,1016,1016,1013,1013,1013,1010,1010,1010,1010,1010,1010,1013,1013,1019,1022,1025,1025,1025,0,0,1302,1302,1302,1297,1297,1297,1302,1302,1302,1302,1302,1302,1302,1302,1302,1302,1297,1297,1297,1297,1302,1302,1307,1307,1307,1307,1307,1307,1307,1307,1307,1307,1307,1307,1307,1307,1307,1302,1302,1302,1302,1302,1302,1302,1302,1302,1302,1302,1302,1302,1302,1302,1302,1302,1302,1302,1302,1302,1302,1302,1307,1307,1307,1307,1307,1307,1307,1307,1307,1307,1307,1302,1297,1297,1297,1297,1297,1297,1297,1297,1297,1297,1302,1302,1302,1302,1302,1297,1297,1302,1302,1302,1302,1307,1307,1312,1307,1307,1307,1307,1307,1307,1307,1307,1307,1307,1307,1307,1307,1307,1307,1307,1307,1307,1302,1302,1307,1307,1307,1307,1307,1307,1307,1307,1307,1307,1307,1307,1307,1307,1307,1307,1307,1307,1307,1312,1307,1307,1307,1307,1307,1307,1302,1302,1302,1297,1297,1297,1297,1297,1297,1297,1297,1297,1292,1292,1292,1288,1288,1288,1288,1283,1283,1283,1283,1278,1278,1273,1273,1273,1273,1273,1268,1268,1268,1264,1264,1259,1259,1255,1250,1245,1245,1245,1245,1241,1236,1236,1236,1236,1108,1108,1108,1108,1105,1090,1087,1084,1080,1077,1073,1073,1070,1063,1063,0,0,0,0,0,0,0,0,0,0,0,0,0,0,0,0,0,0,0,0,0,0,0,0,0,0,0,0,0,0,0,0,0,0
0,0,0,0,0,0,1255,1250,1250,1250,1245,1245,1245,1245,1245,1245,1245,1245,1241,1241,1241,1241,1241,1241,1245,1245,1245,1245,1241,1241,1241,1236,1236,1241,1236,1236,1232,1232,1236,1236,1232,1232,1232,1232,1227,1227,1227,1232,1232,1232,1232,1236,1236,1241,1236,1236,1241,1241,1236,1236,1232,1232,1232,1236,1241,1241,1241,1241,1241,1241,1241,1241,1245,1241,1241,1241,1236,1236,1241,1241,1241,1245,1245,1245,1245,1245,1245,1245,1241,1241,1236,1236,1232,1232,1232,0,0,0,0,0,951,951,948,946,943,943,938,938,938,938,938,938,940,940,943,943,946,948,951,954,954,954,954,954,954,954,1259,1259,1259,1259,1259,1264,1264,1264,1264,1264,1264,1007,1004,1004,1013,1013,1013,1013,1013,1013,1013,1013,1013,1013,1013,1013,1013,1013,1013,1016,1016,1019,1019,1019,1022,1022,1022,1025,1025,1025,1028,1031,1031,1034,1034,1034,1038,1038,1038,1041,1041,1047,1047,1050,1050,1050,1054,1054,1057,1060,1060,1060,1063,1067,1070,1070,1073,1073,1073,1073,1073,1073,1264,1264,1264,1264,1264,1264,1264,1264,1264,1264,1264,1264,1073,1073,1073,1070,1070,1070,1067,1067,1063,1063,1063,1063,0,0,0,0,0,0,0,0,0,0,686,686,683,683,682,680,679,678,676,675,674,672,671,670,670,670,670,670,671,671,672,674,675,676,679,680,683,684,686,687,687,688,688,688,0,0,0,0,0,0,0,0,0,1245,1245,1250,1250,1250,1250,1250,1255,1259,1259,1264,1268,1268,1268,1273,1283,1283,1283,1283,1278,1278,1283,1283,1283,1283,1283,1283,1283,1283,1283,1278,1278,1278,1278,1283,1283,1283,1283,1283,1288,1288,1288,1283,1283,1283,1283,1288,1288,1288,1288,1288,1288,1288,1288,1288,1292,1292,1292,1292,1292,1292,1292,1288,1288,1288,1288,1288,1288,1288,1288,1288,1288,1288,1288,1292,1292,1292,1292,1292,1292,1292,1292,1292,1292,1292,1288,1288,1288,1288,1288,1288,1288,1288,1288,1283,1283,1283,1278,1278,1025,1025,1025,1025,1025,1022,1019,1016,1016,1016,1013,1013,1013,1010,1010,1010,1010,1010,1013,1013,1016,1022,1025,1028,1028,0,1292,1297,1297,1297,1297,1297,1297,1297,1297,1297,1302,1302,1297,1297,1297,1297,1297,1292,1292,1292,1297,1297,1292,1292,1297,1297,1297,1297,1297,1302,1302,1297,1297,1297,1302,1302,1302,1302,1297,1297,1302,1302,1297,1297,1297,1297,1297,1292,1292,1292,1297,1302,1302,1297,1297,1297,1297,1302,1302,1297,1297,1302,1302,1302,1302,1302,1302,1302,1297,1297,1297,1302,1297,1297,1297,1297,1292,1292,1292,1292,1292,1292,1297,1297,1297,1297,1297,1297,1297,1297,1297,1302,1297,1297,1302,1307,1307,1302,1302,1297,1297,1297,1297,1302,1302,1302,1302,1302,1302,1302,1302,1302,1302,1302,1302,1297,1297,1302,1302,1302,1302,1302,1302,1307,1307,1302,1302,1302,1302,1302,1302,1302,1302,1302,1302,1302,1307,1307,1307,1307,1307,1307,1307,1302,1302,1297,1297,1297,1297,1297,1297,1297,1297,1297,1297,1297,1292,1292,1288,1288,1288,1288,1288,1288,1283,1283,1278,1278,1273,1273,1273,1273,1273,1268,1268,1268,1264,1264,1259,1259,1255,1250,1250,1250,1245,1245,1241,1236,1236,1241,1241,1108,1108,1105,1101,1090,1087,1084,1084,1080,1077,1073,1073,1070,1063,1063,0,0,0,0,0,0,0,0,0,0,0,0,0,0,0,0,0,0,0,0,0,0,0,0,0,0,0,0,0,0,0,0,0,0
0,0,0,0,0,0,1250,1250,1250,1245,1245,1245,1245,1245,1245,1245,1245,1241,1236,1236,1236,1236,1236,1236,1241,1241,1241,1241,1241,1236,1236,1232,1232,1236,1232,1232,1232,1232,1232,1232,1232,1232,1232,1227,1227,1227,1227,1227,1232,1232,1232,1236,1236,1236,1236,1236,1241,1236,1236,1236,1232,1232,1232,1232,1232,1236,1236,1236,1236,1236,1236,1236,1236,1236,1232,1232,1232,1232,1236,1236,1236,1236,1241,1241,1241,1241,1241,1241,1241,1236,1232,1232,1227,1227,1227,0,0,0,0,0,951,951,948,948,946,943,940,940,938,938,938,940,940,940,943,943,946,948,951,954,954,954,954,954,954,954,0,1255,1255,1255,1259,1259,1259,1264,1264,1004,1004,1004,1004,1004,1004,1010,1010,1010,1010,1010,1013,1013,1013,1013,1013,1013,1013,1013,1013,1013,1016,1019,1019,1019,1022,1022,1022,1025,1025,1025,1028,1031,1034,1034,1034,1034,1038,1038,1041,1041,1044,1047,1050,1050,1050,1054,1054,1057,1060,1060,1060,1060,1067,1067,1070,1070,1070,1073,1073,1073,1073,1255,1259,1264,1264,1264,1264,1264,1264,1264,1264,1264,1264,1264,1264,1264,1073,1070,1070,1067,1067,1067,1063,1063,1063,1063,0,0,0,0,0,0,0,0,0,687,686,686,686,683,682,680,679,678,676,675,674,672,671,670,670,670,670,670,671,672,674,675,675,676,679,680,683,684,686,687,688,688,688,688,0,0,0,0,0,0,0,0,0,1245,1245,1250,1250,1250,1250,1250,1255,1259,1264,1264,1264,1268,1268,1273,1273,1273,1273,1283,1273,1273,1278,1278,1278,1278,1278,1278,1278,1278,1278,1273,1273,1273,1273,1273,1273,1273,1278,1278,1283,1283,1283,1278,1278,1278,1278,1278,1278,1278,1283,1283,1283,1288,1288,1288,1288,1288,1288,1288,1288,1288,1288,1288,1288,1288,1288,1283,1283,1283,1283,1283,1283,1283,1283,1288,1288,1288,1288,1288,1288,1288,1288,1288,1288,1288,1288,1288,1288,1288,1283,1283,1283,1283,1283,1283,1278,1278,1278,1278,1028,1028,1028,1028,1025,1025,1022,1019,1016,1016,1016,1013,1013,1013,1013,1013,1013,1013,1013,1013,1016,1019,1025,1025,1025,1283,1292,1292,1292,1292,1292,1292,1292,1292,1297,1297,1297,1297,1292,1292,1292,1292,1292,1292,1292,1292,1292,1292,1288,1288,1292,1292,1292,1292,1292,1292,1292,1292,1292,1292,1292,1292,1292,1292,1292,1297,1292,1292,1292,1292,1292,1292,1292,1292,1292,1292,1292,1292,1292,1297,1297,1297,1297,1297,1292,1292,1297,1302,1302,1297,1297,1302,1302,1297,1297,1297,1297,1297,1292,1292,1292,1292,1292,1292,1292,1292,1292,1292,1292,1292,1292,1292,1292,1292,1292,1292,1292,1297,1297,1297,1297,1302,1302,1297,1292,1292,1292,1292,1292,1292,1292,1292,1292,1302,1302,1302,1302,1297,1292,1292,1297,1292,1292,1297,1297,1297,1297,1297,1302,1302,1302,1302,1297,1297,1297,1297,1297,1297,1297,1297,1297,1302,1302,1302,1302,1307,1307,1307,1307,1302,1297,1297,1297,1297,1297,1297,1297,1297,1297,1297,1297,1297,1292,1292,1288,1288,1288,1288,1288,1288,1283,1283,1278,1273,1273,1273,1273,1268,1268,1268,1268,1268,1264,1264,1259,1259,1255,1250,1250,1250,1245,1245,1241,1236,1236,1236,1236,1101,1101,1097,1094,1084,1084,1084,1080,1080,1077,1073,1073,1070,1063,1063,0,0,0,0,0,0,0,0,0,0,0,0,0,0,0,0,0,0,0,0,0,0,0,0,0,0,0,0,0,0,0,0,0,0
0,0,0,0,0,0,1250,1245,1245,1245,1241,1241,1241,1241,1241,1241,1236,1236,1232,1232,1232,1232,1232,1232,1236,1236,1236,1236,1236,1232,1232,1232,1232,1232,1232,1232,1227,1227,1232,1227,1227,1227,1227,1227,1227,1227,1227,1227,1227,1227,1227,1232,1232,1232,1232,1232,1236,1232,1232,1232,1232,1232,1232,1232,1232,1232,1232,1232,1232,1232,1232,1232,1232,1232,1232,1232,1232,1232,1232,1232,1232,1232,1236,1241,1236,1236,1241,1236,1236,1232,1232,1232,1227,1227,1227,1227,0,0,0,0,954,951,948,948,946,943,940,940,940,940,940,940,940,943,943,946,946,948,951,954,954,954,954,954,954,954,0,1255,1255,1255,1259,1259,1259,1001,1001,1001,1001,1001,1001,1001,1001,1007,1010,1007,1007,1007,1010,1010,1010,1010,1010,1010,1010,1010,1013,1013,1013,1016,1019,1019,1022,1022,1022,1025,1025,1025,1028,1031,1034,1034,1034,1038,1038,1041,1041,1044,1044,1047,1050,1050,1050,1050,1057,1057,1060,1060,1060,1060,1250,1250,1070,1070,1070,1250,1250,1250,1250,1250,1250,1259,1259,1259,1264,1264,1264,1264,1264,1264,1264,1264,1264,1259,1255,1255,1264,1067,1067,1067,1063,1063,1063,1067,0,0,0,0,0,0,0,0,0,687,686,686,686,684,682,680,680,679,678,676,675,672,671,671,671,670,670,671,671,672,674,675,676,678,679,680,683,684,686,687,688,688,688,688,0,0,0,0,0,0,0,0,0,1250,1250,1250,1250,1250,1250,1255,1255,1259,1264,1264,1264,1268,1268,1268,1268,1268,1268,1268,1268,1268,1268,1273,1273,1273,1278,1278,1278,1273,1273,1268,1268,1268,1268,1268,1273,1273,1273,1273,1278,1278,1278,1273,1273,1273,1273,1273,1273,1278,1278,1278,1278,1283,1283,1283,1283,1283,1283,1283,1288,1288,1288,1288,1288,1288,1288,1283,1283,1283,1283,1283,1278,1278,1283,1283,1278,1278,1278,1278,1278,1278,1283,1283,1283,1288,1283,1283,1283,1283,1283,1278,1278,1278,1278,1278,1273,1273,1273,1273,1273,1031,1031,1028,1025,1025,1022,1019,1016,1016,1016,1013,1013,1013,1013,1013,1013,1013,1013,1013,1016,1019,1025,1025,1273,1283,1283,1283,1283,1288,1288,1288,1288,1292,1292,1292,1292,1292,1292,1292,1292,1292,1292,1288,1288,1288,1288,1288,1288,1288,1288,1288,1288,1292,1292,1292,1292,1292,1292,1288,1288,1288,1288,1288,1288,1292,1292,1288,1288,1288,1288,1288,1288,1288,1288,1292,1292,1292,1292,1292,1292,1292,1292,1292,1288,1288,1292,1288,1288,1288,1288,1292,1297,1292,1292,1292,1292,1292,1292,1292,1288,1288,1288,1288,1288,1288,1288,1292,1292,1292,1292,1292,1288,1288,1288,1288,1283,1283,1292,1292,1292,1292,1292,1292,1292,1292,1292,1292,1288,1288,1288,1288,1288,1288,1292,1297,1297,1292,1292,1292,1292,1292,1292,1292,1292,1292,1292,1292,1292,1297,1292,1292,1292,1292,1292,1292,1292,1292,1297,1292,1292,1292,1297,1297,1297,1297,1297,1297,1302,1297,1292,1292,1292,1292,1292,1292,1297,1297,1297,1297,1292,1292,1292,1292,1288,1288,1288,1288,1288,1283,1283,1283,1278,1273,1273,1273,1273,1268,1268,1268,1268,1268,1264,1264,1259,1259,1255,1250,1250,1250,1245,1245,1241,1236,1236,1236,1236,1097,1097,1094,1090,1084,1084,1084,1080,1080,1077,1073,1073,1070,1063,1063,0,0,0,0,0,0,0,0,0,0,0,0,0,0,0,0,0,0,0,0,0,0,0,0,0,0,0,0,0,0,0,0,0,0
0,0,0,0,0,0,1245,1245,1241,1241,1236,1236,1236,1236,1236,1236,1232,1232,1227,1227,1227,1227,1227,1227,1232,1232,1232,1232,1232,1232,1232,1227,1227,1227,1227,1227,1227,1227,1227,1227,1227,1227,1227,1227,1223,1223,1223,1223,1223,1223,1223,1227,1227,1232,1232,1232,1232,1232,1227,1227,1227,1227,1227,1227,1227,1232,1232,1232,1232,1232,1232,1232,1232,1232,1227,1227,1232,1232,1232,1232,1232,1232,1232,1236,1236,1236,1236,1232,1232,1232,1227,1227,1227,1227,1223,1223,0,0,0,0,954,951,951,948,946,946,943,943,940,940,940,940,940,943,943,946,946,948,951,954,954,954,954,954,954,954,987,1255,1255,1255,989,989,998,998,998,998,998,1001,1001,1001,1001,1004,1007,1007,1004,1004,1007,1007,1007,1007,1007,1010,1010,1010,1010,1013,1013,1016,1019,1019,1022,1022,1022,1025,1025,1025,1028,1031,1034,1034,1038,1038,1038,1041,1044,1044,1047,1047,1050,1050,1050,1050,1057,1057,1060,1060,1245,1250,1250,1250,1250,1250,1250,1250,1250,1250,1250,1250,1250,1250,1255,1255,1259,1259,1259,1259,1259,1259,1259,1259,1259,1255,1255,1255,1255,1255,1067,1067,1063,1063,1067,1070,0,0,0,0,0,0,0,0,0,687,686,686,686,684,682,680,680,679,678,676,675,674,671,671,671,670,670,671,671,674,674,675,676,676,679,682,683,686,686,687,688,690,688,688,0,0,0,0,0,0,0,0,0,1250,1250,1250,1250,1250,1250,1255,1255,1259,1264,1264,1264,1264,1264,1264,1268,1264,1264,1264,1264,1264,1268,1268,1268,1268,1268,1268,1268,1268,1268,1264,1264,1264,1264,1264,1268,1268,1268,1268,1273,1273,1273,1273,1273,1273,1273,1273,1273,1273,1273,1273,1273,1273,1273,1273,1278,1283,1283,1283,1283,1283,1283,1283,1283,1283,1278,1278,1278,1278,1278,1278,1278,1278,1278,1278,1278,1273,1273,1273,1273,1273,1273,1278,1278,1278,1278,1278,1278,1278,1278,1278,1273,1273,1273,1273,1273,1273,1268,1268,1268,1034,1034,1028,1025,1025,1022,1022,1016,1016,1016,1013,1013,1013,1013,1013,1013,1013,1013,1016,1016,1022,1028,1031,1273,1273,1273,1278,1283,1288,1288,1288,1288,1288,1288,1288,1288,1288,1288,1288,1288,1288,1288,1288,1288,1288,1283,1283,1283,1283,1288,1283,1283,1288,1288,1288,1288,1288,1288,1288,1288,1283,1283,1283,1283,1283,1288,1288,1288,1288,1288,1288,1283,1283,1288,1288,1288,1288,1288,1288,1288,1288,1288,1288,1283,1283,1288,1283,1283,1288,1288,1288,1288,1292,1292,1288,1288,1288,1288,1288,1288,1288,1288,1288,1288,1288,1288,1288,1288,1288,1288,1288,1288,1283,1283,1278,1278,1278,1278,1278,1278,1283,1288,1288,1288,1288,1288,1288,1288,1288,1288,1288,1288,1288,1292,1292,1292,1292,1288,1288,1288,1288,1288,1288,1288,1288,1288,1288,1288,1292,1292,1292,1292,1292,1288,1288,1292,1292,1292,1292,1292,1292,1292,1292,1292,1292,1292,1292,1292,1292,1292,1292,1292,1292,1292,1292,1297,1297,1292,1292,1292,1292,1292,1292,1288,1288,1288,1288,1288,1283,1283,1283,1278,1278,1273,1273,1273,1268,1268,1268,1268,1268,1264,1264,1264,1259,1255,1250,1250,1250,1250,1250,1245,1241,1241,1241,1241,1094,1094,1094,1090,1087,1084,1080,1080,1077,1077,1077,1073,1067,1063,1063,0,0,0,0,0,0,0,0,0,0,0,0,0,0,0,0,0,0,0,0,0,0,0,0,0,0,0,0,0,0,0,0,0,0
0,0,0,0,0,0,1241,1241,1241,1236,1232,1232,1232,1232,1232,1232,1232,1227,1227,1227,1227,1227,1227,1227,1227,1227,1227,1227,1227,1227,1227,1223,1223,1223,1223,1223,1219,1219,1219,1214,1214,1219,1227,1223,1223,1223,1223,1223,1223,1223,1219,1219,1219,1223,1223,1227,1227,1227,1227,1223,1223,1223,1223,1227,1227,1227,1227,1227,1227,1227,1227,1227,1227,1227,1227,1227,1227,1227,1227,1227,1227,1227,1227,1232,1232,1232,1232,1227,1227,1227,1227,1227,1227,1227,1223,1223,0,0,0,0,0,954,951,948,948,946,943,943,940,940,940,940,940,943,943,946,946,948,951,951,954,954,956,954,954,987,987,987,987,989,989,989,995,995,998,998,998,998,998,998,998,998,1001,1001,1001,1001,1004,1007,1007,1007,1007,1010,1010,1010,1010,1013,1013,1016,1019,1019,1022,1025,1025,1025,1025,1025,1028,1031,1034,1034,1038,1038,1038,1041,1044,1047,1047,1050,1050,1050,1050,1050,1057,1057,1241,1241,1245,1245,1245,1245,1245,1250,1250,1250,1245,1245,1250,1250,1250,1250,1250,1255,1255,1250,1250,1250,1255,1255,1250,1250,1250,1250,1250,1250,1255,1255,1255,1250,1073,1073,1073,1073,0,0,0,0,0,0,0,0,0,0,687,687,687,684,683,680,680,679,678,678,676,675,672,671,671,671,671,671,672,674,675,675,676,676,679,682,684,686,687,687,688,690,690,690,0,0,0,0,0,0,0,0,1250,1250,1250,1250,1250,1250,1250,1255,1255,1259,1264,1264,1264,1264,1264,1264,1264,1264,1259,1259,1264,1264,1264,1264,1264,1264,1264,1264,1264,1264,1264,1264,1264,1259,1259,1264,1264,1264,1264,1264,1268,1268,1268,1268,1268,1268,1268,1268,1273,1273,1273,1273,1268,1268,1268,1273,1268,1268,1268,1278,1278,1278,1278,1278,1278,1278,1273,1273,1273,1273,1273,1273,1273,1273,1273,1273,1273,1273,1273,1273,1273,1273,1273,1273,1273,1273,1273,1273,1273,1273,1273,1273,1273,1273,1273,1268,1268,1268,1264,1264,1264,1034,1034,1028,1028,1025,1025,1022,1019,1016,1016,1013,1013,1013,1013,1013,1013,1013,1013,1016,1016,1025,1028,1031,1273,1273,1273,1278,1278,1283,1283,1283,1283,1283,1283,1283,1283,1283,1283,1283,1283,1283,1283,1283,1283,1283,1283,1283,1283,1283,1283,1283,1283,1288,1288,1283,1283,1288,1273,1273,1273,1273,1273,1283,1278,1278,1278,1278,1278,1283,1283,1283,1283,1283,1283,1283,1283,1283,1283,1288,1288,1288,1288,1283,1278,1278,1278,1278,1278,1278,1278,1278,1278,1288,1288,1283,1283,1283,1283,1283,1273,1273,1278,1273,1273,1273,1273,1283,1288,1283,1283,1283,1283,1283,1283,1278,1278,1278,1278,1278,1278,1278,1283,1288,1288,1288,1288,1288,1288,1288,1288,1288,1288,1288,1288,1288,1288,1288,1288,1288,1288,1288,1288,1288,1288,1288,1288,1288,1288,1288,1288,1288,1288,1288,1288,1288,1288,1288,1288,1288,1288,1288,1288,1292,1288,1288,1288,1288,1292,1288,1288,1288,1288,1288,1288,1288,1292,1292,1292,1292,1292,1288,1288,1292,1288,1288,1288,1288,1288,1283,1283,1283,1278,1278,1273,1273,1273,1268,1268,1268,1268,1268,1268,1268,1264,1264,1255,1255,1250,1250,1250,1250,1245,1241,1241,1241,1094,1094,1094,1090,1090,1087,1084,1080,1080,1077,1077,1077,1073,1067,1063,1063,0,0,0,0,0,0,0,0,0,0,0,0,0,0,0,0,0,0,0,0,0,0,0,0,0,0,0,0,0,0,0,0,0,0
0,0,0,0,0,0,1236,1236,1236,1232,1232,1232,1232,1227,1227,1227,1227,1227,1227,1223,1223,1223,1223,1223,1223,1223,1219,1219,1219,1223,1223,1219,1219,1214,1214,1214,1214,1214,1214,1214,1214,1214,1223,1223,1219,1219,1219,1219,1219,1219,1214,1214,1219,1219,1219,1219,1223,1223,1223,1219,1219,1219,1219,1219,1223,1223,1223,1227,1227,1227,1227,1227,1223,1223,1223,1223,1223,1227,1223,1223,1227,1223,1223,1223,1223,1227,1227,1223,1223,1227,1227,1227,1223,1223,1223,1223,0,0,0,0,956,954,951,948,948,946,943,943,940,940,943,943,943,943,943,946,946,948,951,951,954,956,956,956,956,987,987,987,987,987,989,989,989,992,995,995,995,998,998,995,995,995,998,1001,1001,1001,1001,1004,1004,1004,1007,1007,1010,1010,1010,1013,1013,1016,1019,1022,1022,1025,1025,1025,1028,1028,1031,1031,1034,1034,1038,1038,1038,1041,1044,1047,1047,1050,1050,1050,1050,1054,1236,1236,1236,1236,1236,1241,1245,1245,1245,1245,1245,1245,1245,1245,1245,1245,1245,1245,1245,1250,1250,1250,1245,1241,1241,1245,1245,1245,1245,1245,1250,1250,1250,1250,1250,1250,0,0,0,0,0,0,0,0,0,0,0,0,0,688,687,687,687,684,683,682,680,680,679,678,676,675,674,672,671,671,671,672,672,675,675,675,676,678,682,683,686,686,686,687,688,690,690,0,0,0,0,0,0,0,0,0,1250,1250,1250,1250,1250,1250,1250,1255,1255,1259,1259,1259,1259,1259,1259,1259,1259,1259,1259,1259,1259,1255,1255,1259,1259,1259,1259,1264,1264,1259,1259,1259,1259,1255,1255,1255,1255,1255,1259,1259,1264,1264,1268,1268,1268,1268,1268,1268,1268,1268,1268,1268,1268,1268,1268,1268,1268,1268,1268,1268,1268,1273,1273,1273,1273,1273,1268,1268,1268,1268,1268,1273,1273,1273,1273,1273,1268,1268,1268,1268,1268,1268,1268,1268,1268,1273,1268,1268,1273,1273,1273,1273,1273,1273,1268,1268,1264,1264,1259,1259,1028,1028,1028,1028,1028,1025,1025,1025,1019,1019,1016,1013,1013,1013,1013,1013,1013,1013,1016,1016,1019,1025,1028,1028,1273,1273,1273,1273,1273,1278,1278,1278,1273,1273,1278,1278,1278,1278,1278,1278,1278,1278,1278,1278,1278,1278,1278,1278,1278,1278,1278,1278,1278,1278,1278,1273,1273,1278,1273,1273,1273,1273,1273,1278,1278,1278,1273,1273,1278,1278,1278,1278,1278,1278,1278,1278,1283,1283,1283,1283,1283,1283,1278,1278,1273,1273,1273,1273,1273,1273,1273,1273,1273,1278,1283,1283,1283,1278,1278,1283,1273,1273,1273,1273,1273,1273,1273,1278,1278,1278,1278,1278,1278,1278,1278,1273,1273,1273,1273,1273,1273,1273,1278,1278,1283,1283,1283,1288,1288,1283,1283,1283,1283,1283,1283,1283,1283,1283,1283,1283,1288,1288,1288,1288,1283,1283,1283,1283,1283,1288,1288,1288,1288,1288,1288,1288,1283,1283,1283,1283,1283,1283,1283,1288,1283,1283,1283,1288,1288,1283,1283,1283,1283,1283,1288,1288,1288,1288,1288,1288,1288,1283,1283,1288,1288,1288,1283,1283,1288,1283,1283,1283,1278,1278,1273,1273,1273,1273,1273,1268,1268,1268,1268,1268,1268,1264,1255,1255,1250,1250,1250,1250,1245,1241,1241,1094,1094,1094,1094,1090,1090,1087,1084,1084,1080,1080,1080,1077,1077,1070,1070,0,0,0,0,0,0,0,0,0,0,0,0,0,0,0,0,0,0,0,0,0,0,0,0,0,0,0,0,0,0,0,0,0,0,0
0,0,0,0,0,0,1236,1232,1232,1232,1227,1227,1227,1227,1223,1223,1227,1227,1223,1223,1223,1223,1219,1219,1219,1219,1219,1219,1219,1219,1214,1214,1214,1214,1214,1214,1214,1214,1214,1210,1210,1210,1210,1219,1214,1214,1214,1214,1214,1214,1214,1214,1214,1214,1214,1219,1219,1219,1219,1219,1219,1219,1219,1219,1219,1219,1219,1223,1223,1223,1223,1223,1223,1223,1223,1223,1223,1223,1223,1223,1223,1219,1219,1219,1219,1223,1223,1223,1223,1223,1223,1227,1223,1223,1223,1223,0,0,0,956,956,954,951,948,948,946,943,943,943,943,943,943,943,943,943,946,948,948,951,951,954,956,959,959,959,984,984,987,987,987,987,989,989,989,992,992,992,992,995,995,995,995,995,998,998,998,1001,1004,1004,1004,1007,1007,1010,1010,1010,1013,1013,1016,1019,1022,1022,1025,1025,1025,1028,1028,1031,1034,1034,1034,1034,1038,1038,1041,1044,1047,1047,1050,1050,1050,1050,1232,1236,1232,1232,1232,1236,1236,1241,1241,1245,1245,1241,1241,1241,1241,1241,1241,1241,1241,1241,1241,1245,1245,1241,1236,1236,1241,1241,1241,1241,1241,1245,1245,1250,1250,1250,1250,0,0,0,0,0,0,0,0,0,0,0,0,0,688,688,688,687,686,684,682,682,680,679,679,678,676,674,674,672,672,672,672,674,675,676,676,678,679,682,683,686,686,686,687,690,691,691,0,0,0,0,0,0,0,0,0,1245,1245,1250,1250,1250,1250,1250,1250,1250,1255,1255,1255,1255,1255,1255,1255,1255,1255,1255,1255,1255,1255,1255,1255,1255,1255,1255,1255,1255,1255,1255,1255,1255,1255,1255,1255,1255,1255,1255,1255,1259,1259,1259,1259,1259,1264,1264,1264,1264,1264,1268,1268,1268,1264,1264,1264,1264,1264,1264,1264,1264,1264,1264,1268,1268,1268,1268,1268,1268,1268,1268,1268,1268,1268,1268,1268,1268,1268,1268,1268,1264,1264,1268,1268,1268,1268,1268,1268,1268,1268,1268,1268,1268,1268,1268,1268,1264,1259,1255,1255,1028,1028,1028,1028,1028,1025,1025,1025,1022,1019,1016,1013,1013,1013,1013,1013,1013,1016,1016,1019,1022,1028,1028,1031,1031,1273,1273,1273,1273,1273,1273,1273,1273,1273,1273,1273,1273,1273,1273,1273,1273,1273,1278,1273,1273,1273,1273,1273,1273,1273,1273,1273,1273,1273,1273,1273,1273,1273,1273,1268,1268,1273,1273,1273,1273,1273,1273,1273,1273,1273,1273,1273,1273,1273,1273,1273,1278,1278,1278,1273,1273,1273,1273,1273,1273,1268,1268,1273,1273,1273,1273,1273,1273,1273,1278,1278,1278,1273,1273,1278,1273,1273,1273,1273,1273,1273,1273,1273,1278,1278,1278,1278,1273,1273,1273,1273,1273,1273,1273,1273,1273,1273,1273,1273,1273,1273,1283,1283,1283,1278,1278,1278,1278,1278,1278,1278,1278,1278,1278,1283,1283,1283,1283,1283,1283,1283,1283,1283,1283,1283,1283,1283,1283,1283,1283,1283,1283,1283,1278,1278,1278,1278,1278,1278,1278,1278,1278,1278,1283,1278,1278,1278,1278,1278,1278,1278,1278,1278,1283,1283,1283,1278,1278,1288,1283,1283,1283,1283,1283,1283,1278,1278,1278,1278,1273,1273,1273,1273,1273,1268,1268,1268,1268,1268,1268,1264,1259,1255,1255,1255,1250,1250,1245,1245,1245,1090,1090,1090,1090,1090,1090,1087,1084,1084,1080,1080,1080,1080,1077,1077,0,0,0,0,0,0,0,0,0,0,0,0,0,0,0,0,0,0,0,0,0,0,0,0,0,0,0,0,0,0,0,0,0,0,0,0
0,0,0,0,0,0,1232,1227,1227,1227,1227,1227,1223,1223,1219,1219,1219,1223,1219,1219,1219,1219,1219,1219,1214,1214,1214,1214,1214,1214,1214,1214,1214,1214,1214,1214,1214,1214,1214,1210,1210,1210,1210,1219,1214,1214,1214,1214,1214,1214,1210,1210,1210,1210,1210,1214,1214,1214,1214,1214,1214,1214,1214,1214,1214,1214,1214,1223,1219,1219,1219,1219,1219,1219,1219,1219,1219,1219,1219,1219,1219,1219,1219,1219,1214,1214,1219,1219,1219,1219,1223,1223,1223,1223,1219,1219,1219,0,0,956,956,954,951,948,948,946,943,943,943,943,943,943,943,943,943,946,948,948,951,951,954,956,959,959,962,981,981,984,984,987,987,987,987,989,989,989,989,992,992,992,992,992,995,995,998,998,1001,1004,1004,1004,1004,1007,1010,1010,1013,1013,1013,1019,1019,1022,1022,1025,1025,1025,1028,1028,1031,1034,1034,1034,1034,1038,1038,1041,1044,1047,1050,1054,1232,1232,1232,1232,1236,1232,1232,1232,1232,1236,1241,1236,1236,1241,1241,1236,1236,1236,1236,1236,1236,1236,1236,1236,1236,1236,1236,1232,1232,1236,1236,1236,1236,1236,1236,1236,1241,1241,1245,1245,1245,0,0,0,0,0,0,0,0,0,0,0,0,687,687,688,687,686,684,683,682,680,680,679,678,676,675,675,674,672,672,672,675,675,676,676,678,680,682,683,686,686,687,687,690,691,691,0,0,0,0,0,0,0,0,0,1241,1241,1245,1250,1250,1250,1250,1250,1250,1250,1250,1250,1250,1250,1250,1250,1250,1250,1250,1250,1250,1250,1250,1250,1250,1250,1250,1250,1250,1250,1250,1250,1250,1250,1250,1250,1250,1250,1250,1250,1255,1255,1255,1259,1259,1259,1259,1259,1259,1264,1264,1264,1264,1264,1264,1259,1259,1259,1259,1259,1259,1259,1264,1259,1259,1259,1259,1264,1264,1264,1264,1268,1268,1268,1268,1268,1268,1268,1264,1264,1264,1264,1264,1264,1264,1264,1264,1264,1268,1264,1264,1268,1264,1264,1264,1264,1259,1259,1255,1255,1255,1028,1028,1028,1025,1025,1025,1025,1022,1019,1016,1016,1016,1016,1016,1013,1013,1016,1016,1019,1025,1028,1028,1028,1031,1268,1268,1268,1268,1268,1268,1268,1268,1268,1268,1268,1268,1268,1268,1268,1273,1273,1273,1273,1273,1273,1273,1273,1273,1273,1273,1268,1268,1268,1268,1268,1268,1268,1268,1268,1268,1268,1268,1268,1268,1268,1268,1268,1268,1268,1268,1268,1268,1268,1268,1268,1268,1273,1268,1268,1268,1268,1268,1268,1268,1268,1268,1268,1268,1268,1268,1268,1268,1268,1273,1273,1273,1273,1273,1273,1273,1273,1273,1273,1273,1273,1273,1273,1273,1273,1273,1273,1273,1273,1268,1268,1268,1268,1268,1268,1268,1268,1273,1273,1273,1273,1273,1273,1273,1273,1273,1273,1273,1273,1273,1273,1273,1273,1273,1278,1278,1283,1283,1283,1278,1278,1278,1273,1273,1278,1278,1278,1283,1283,1278,1278,1278,1278,1278,1278,1273,1273,1273,1273,1273,1273,1273,1273,1278,1273,1273,1273,1273,1278,1278,1278,1273,1273,1278,1283,1283,1278,1278,1283,1283,1283,1283,1283,1283,1283,1278,1278,1278,1278,1273,1273,1273,1273,1273,1268,1268,1268,1268,1268,1268,1264,1259,1255,1255,1255,1250,1250,1245,1245,1245,1090,1090,1090,1090,1090,1090,1087,1084,1084,1080,1080,1080,1077,1070,1067,1067,1067,0,0,0,0,0,0,0,0,0,0,0,0,0,0,0,0,0,0,0,0,0,0,0,0,0,0,0,0,0,0,0,0,0,0
0,0,0,0,0,0,1227,1227,1227,1223,1223,1223,1223,1219,1219,1219,1219,1219,1219,1214,1214,1214,1214,1214,1214,1210,1210,1210,1210,1210,1210,1210,1210,1210,1210,1210,1210,1214,1214,1214,1214,1214,1214,1214,1214,1214,1214,1210,1210,1210,1210,1210,1210,1210,1210,1210,1210,1210,1210,1210,1210,1210,1210,1210,1210,1210,1210,1210,1210,1210,1210,1214,1214,1214,1214,1214,1214,1214,1214,1214,1214,1214,1214,1214,1214,1214,1214,1214,1214,1214,1214,1214,1214,1214,1214,1214,1214,0,0,956,956,954,951,948,948,946,946,943,943,943,943,943,943,946,946,946,948,951,951,954,954,956,959,962,964,978,981,981,984,987,987,987,987,987,989,989,989,992,992,992,992,992,992,995,998,998,998,1001,1004,1004,1004,1007,1010,1010,1013,1013,1016,1019,1019,1022,1022,1025,1025,1025,1028,1028,1031,1034,1034,1038,1038,1038,1041,1044,1047,1050,1054,1232,1232,1232,1232,1232,1232,1232,1232,1232,1232,1232,1232,1232,1232,1232,1232,1232,1232,1232,1232,1232,1232,1232,1232,1232,1232,1232,1232,1232,1232,1232,1232,1232,1232,1232,1236,1236,1241,1236,1236,1236,1236,0,0,0,0,0,0,0,0,0,0,0,0,687,687,688,687,686,684,683,682,682,680,679,678,676,675,675,674,674,672,672,675,675,676,676,678,680,682,684,686,686,687,688,690,691,693,0,0,0,0,0,0,0,0,0,1241,1241,1245,1245,1245,1245,1245,1245,1245,1245,1245,1250,1250,1250,1250,1250,1250,1250,1250,1245,1245,1245,1245,1245,1245,1245,1245,1245,1245,1245,1245,1250,1250,1250,1250,1250,1250,1250,1250,1250,1255,1255,1255,1255,1255,1255,1255,1255,1259,1259,1259,1259,1259,1259,1259,1259,1255,1255,1255,1255,1255,1255,1259,1255,1255,1255,1255,1255,1255,1259,1259,1264,1264,1264,1264,1264,1264,1264,1264,1264,1264,1264,1264,1264,1264,1264,1259,1259,1259,1259,1259,1259,1259,1259,1264,1264,1259,1255,1255,1255,1025,1025,1025,1025,1025,1025,1025,1022,1022,1019,1016,1016,1016,1016,1016,1016,1016,1016,1019,1019,1025,1028,1028,1028,1028,1264,1264,1264,1264,1264,1268,1268,1268,1268,1264,1264,1264,1264,1264,1268,1268,1268,1268,1268,1268,1268,1268,1268,1268,1268,1268,1268,1268,1268,1268,1264,1264,1264,1264,1264,1264,1264,1264,1264,1264,1264,1264,1264,1264,1264,1264,1264,1264,1264,1264,1268,1268,1268,1268,1268,1268,1268,1268,1268,1268,1268,1268,1268,1268,1268,1268,1264,1264,1264,1268,1268,1268,1268,1273,1268,1268,1268,1268,1268,1268,1268,1268,1268,1268,1268,1268,1268,1268,1268,1268,1268,1268,1268,1268,1268,1268,1268,1268,1268,1268,1268,1268,1268,1268,1268,1268,1268,1268,1273,1273,1273,1273,1273,1273,1273,1278,1278,1278,1278,1273,1273,1273,1273,1273,1273,1273,1273,1273,1273,1273,1273,1273,1273,1273,1273,1273,1273,1268,1268,1273,1273,1273,1273,1273,1273,1273,1273,1273,1273,1273,1273,1273,1273,1273,1278,1283,1278,1273,1273,1278,1283,1278,1278,1283,1283,1278,1278,1278,1273,1273,1273,1273,1273,1273,1268,1268,1268,1268,1268,1268,1264,1259,1255,1255,1255,1250,1250,1245,1241,1241,1090,1090,1090,1090,1090,1090,1087,1084,1084,1080,1080,1077,1073,1067,1067,1067,1067,0,0,0,0,0,0,0,0,0,0,0,0,0,0,0,0,0,0,0,0,0,0,0,0,0,0,0,0,0,0,0,0,0,0
0,0,0,0,0,0,1223,1223,1223,1223,1223,1223,1219,1214,1214,1214,1214,1214,1214,1214,1214,1214,1214,1214,1214,1210,1210,1210,1210,1206,1206,1206,1206,1206,1206,1206,1206,1210,1210,1210,1210,1210,1210,1210,1210,1210,1210,1210,1210,1210,1210,1206,1206,1206,1206,1206,1206,1206,1206,1206,1206,1206,1206,1206,1206,1206,1206,1206,1206,1206,1206,1206,1206,1210,1214,1214,1214,1214,1214,1210,1210,1210,1210,1210,1210,1210,1210,1210,1210,1210,1210,1210,1210,1210,1210,1210,1210,1206,959,959,956,954,951,948,948,946,946,943,943,943,943,943,943,946,946,948,948,951,954,954,954,956,959,962,967,975,978,981,981,984,987,987,987,987,989,989,989,989,992,992,992,992,992,995,998,998,998,1001,1004,1004,1007,1007,1010,1013,1013,1013,1016,1019,1022,1022,1025,1025,1025,1028,1028,1031,1034,1034,1038,1038,1038,1041,1041,1219,1223,1223,1223,1227,1227,1232,1232,1232,1232,1232,1232,1232,1227,1227,1227,1227,1227,1227,1227,1227,1227,1227,1227,1227,1232,1232,1232,1232,1232,1232,1232,1227,1227,1232,1232,1232,1232,1232,1232,1232,1232,1232,1232,1232,1232,1232,0,0,0,0,0,0,0,0,0,0,0,687,687,688,687,686,686,684,683,682,680,680,679,678,676,675,674,674,674,674,675,675,676,676,678,680,683,684,686,687,687,688,691,693,693,0,0,0,0,0,0,0,0,0,0,1241,1241,1241,1241,1241,1241,1241,1241,1241,1241,1241,1245,1245,1245,1245,1245,1245,1245,1245,1245,1245,1245,1245,1245,1245,1245,1245,1245,1245,1245,1245,1245,1245,1245,1245,1245,1245,1245,1250,1255,1250,1250,1250,1250,1250,1250,1250,1250,1250,1255,1255,1255,1255,1255,1255,1255,1255,1255,1255,1255,1255,1255,1255,1255,1255,1255,1255,1255,1255,1255,1255,1255,1259,1259,1255,1255,1259,1259,1259,1259,1259,1259,1259,1259,1259,1255,1255,1255,1255,1255,1255,1255,1255,1255,1259,1255,1255,1255,1255,1019,1025,1025,1025,1025,1025,1025,1022,1022,1019,1016,1016,1016,1016,1016,1016,1016,1016,1019,1022,1025,1028,1028,1028,1028,1250,1250,1250,1255,1259,1259,1264,1264,1264,1264,1264,1264,1264,1264,1264,1264,1264,1268,1268,1268,1268,1268,1268,1268,1268,1264,1264,1264,1259,1259,1259,1259,1259,1259,1259,1259,1259,1259,1259,1259,1259,1259,1259,1259,1259,1259,1259,1259,1259,1259,1264,1264,1264,1264,1264,1264,1264,1268,1268,1268,1264,1264,1264,1264,1264,1264,1264,1259,1259,1264,1264,1268,1268,1268,1268,1268,1268,1268,1264,1264,1268,1264,1264,1264,1264,1268,1268,1268,1268,1268,1268,1268,1268,1268,1268,1268,1268,1268,1268,1264,1264,1264,1264,1264,1264,1264,1259,1259,1264,1268,1268,1268,1268,1273,1273,1273,1273,1268,1268,1273,1273,1268,1268,1268,1268,1268,1273,1273,1273,1273,1273,1268,1268,1268,1268,1268,1268,1264,1264,1268,1268,1268,1268,1268,1268,1268,1268,1268,1268,1268,1268,1268,1268,1268,1273,1273,1273,1273,1273,1273,1278,1278,1278,1273,1273,1278,1278,1278,1273,1273,1273,1273,1273,1273,1268,1268,1268,1268,1268,1268,1264,1259,1255,1255,1255,1250,1245,1245,1241,1241,1090,1090,1090,1090,1090,1090,1087,1087,1084,1080,1077,1077,1073,1067,1067,1067,1067,0,0,0,0,0,0,0,0,0,0,0,0,0,0,0,0,0,0,0,0,0,0,0,0,0,0,0,0,0,0,0,0,0,0
0,0,0,0,0,0,1219,1219,1223,1223,1219,1219,1214,1214,1214,1210,1210,1214,1214,1214,1214,1214,1210,1210,1210,1210,1210,1210,1206,1206,1206,1206,1206,1206,1206,1206,1206,1206,1197,1197,1197,1197,1197,1197,1197,1197,1206,1206,1206,1206,1206,1206,1206,1206,1206,1206,1206,1202,1202,1206,1202,1202,1202,1202,1202,1202,1202,1202,1202,1202,1202,1202,1202,1202,1206,1210,1210,1210,1210,1210,1210,1210,1210,1206,1202,1202,1202,1202,1206,1206,1206,1206,1210,1206,1206,1206,1206,1206,959,959,956,956,954,948,948,946,946,943,943,943,943,943,946,946,946,948,948,951,954,954,954,956,959,962,970,975,978,978,981,984,984,984,984,987,987,987,989,989,989,992,992,992,992,995,998,998,998,1001,1004,1004,1007,1007,1010,1013,1013,1016,1019,1022,1022,1022,1025,1025,1025,1028,1031,1031,1034,1038,1038,1038,1038,1214,1219,1219,1223,1223,1223,1227,1227,1227,1227,1227,1227,1227,1227,1227,1227,1223,1223,1223,1223,1223,1227,1227,1227,1227,1227,1227,1227,1227,1227,1227,1227,1227,1227,1227,1227,1227,1227,1227,1227,1227,1227,1227,1232,1232,1227,1227,1232,1232,0,0,0,0,0,0,0,0,0,0,0,687,687,688,687,686,686,684,683,682,680,680,679,678,676,675,674,674,674,674,675,675,676,676,679,680,683,684,686,687,688,688,691,693,693,0,0,0,0,0,0,0,0,0,0,1236,1236,1236,1236,1236,1236,1236,1236,1236,1236,1236,1236,1236,1236,1236,1245,1245,1245,1241,1241,1241,1241,1241,1241,1241,1241,1241,1241,1241,1241,1241,1241,1245,1245,1245,1245,1245,1245,1245,1250,1245,1245,1250,1250,1250,1250,1250,1245,1245,1245,1250,1250,1250,1250,1250,1250,1250,1250,1250,1250,1250,1250,1250,1250,1250,1250,1250,1250,1250,1250,1250,1250,1250,1250,1250,1250,1250,1255,1255,1255,1255,1255,1255,1255,1255,1255,1255,1255,1255,1255,1255,1255,1255,1255,1255,1255,1255,1255,1255,1019,1019,1019,1022,1022,1022,1022,1022,1022,1019,1016,1016,1016,1016,1016,1016,1016,1016,1019,1025,1028,1028,1028,1028,1250,1250,1250,1250,1250,1255,1255,1255,1255,1255,1255,1259,1259,1259,1259,1259,1259,1259,1259,1259,1264,1264,1264,1264,1264,1259,1259,1255,1255,1255,1255,1255,1255,1255,1255,1255,1255,1255,1255,1255,1255,1255,1255,1255,1255,1255,1255,1255,1259,1259,1259,1259,1259,1264,1259,1259,1264,1264,1264,1264,1264,1264,1264,1259,1259,1259,1259,1259,1259,1259,1259,1264,1264,1264,1264,1264,1264,1264,1264,1259,1259,1259,1264,1264,1259,1259,1264,1264,1264,1264,1264,1264,1264,1264,1264,1264,1264,1264,1264,1264,1259,1259,1259,1255,1255,1259,1259,1259,1259,1259,1264,1264,1264,1264,1268,1268,1268,1268,1264,1264,1264,1264,1264,1264,1264,1264,1264,1264,1268,1264,1264,1268,1268,1268,1264,1264,1264,1264,1259,1259,1264,1264,1264,1264,1264,1264,1264,1264,1264,1264,1264,1264,1264,1264,1268,1268,1268,1264,1264,1268,1273,1273,1273,1268,1268,1273,1273,1273,1273,1273,1273,1273,1273,1273,1273,1268,1268,1268,1268,1268,1268,1268,1264,1259,1255,1255,1250,1245,1245,1245,1090,1090,1090,1090,1090,1094,1090,1090,1087,1084,1080,1077,1073,1070,1070,1067,1067,1067,0,0,0,0,0,0,0,0,0,0,0,0,0,0,0,0,0,0,0,0,0,0,0,0,0,0,0,0,0,0,0,0,0,0
