0,0,0,0,0,0,0,0,0,0,0,0,0,0,1572,1572,1572,1564,1564,1564,1564,1564,1564,1564,1564,1557,1550,1550,1550,1550,1550,1543,1543,1550,1543,1543,1543,1536,1536,1536,1536,1536,1536,1536,1529,1523,1523,1529,1529,1529,1523,1523,1516,1516,1516,1516,1516,1516,1516,1516,1516,1523,1523,1536,1536,1536,1543,1543,1543,1543,2226,2226,2212,2198,2198,2198,2198,2198,2184,2170,2170,2156,2156,2143,2143,2156,2156,1543,1543,1543,1536,1536,1536,1536,1536,1529,1529,1529,1529,1529,1529,1536,1536,1536,1543,1543,1543,1543,1543,1550,1550,1557,1557,1557,1557,1557,1557,1557,1564,1564,1564,1572,1572,1579,1579,1594,1594,1594,1594,1594,1594,1601,1601,1601,1601,1609,1609,1616,1616,1624,1624,1624,1624,1624,1632,1632,1632,1632,1632,1632,1639,1639,1647,1647,1647,1655,1655,1655,1655,1663,1663,1663,1663,1663,1671,1671,1680,1688,1688,1688,1688,1688,1688,1688,1688,1688,1688,1688,0,0,0,1057,1057,1054,1054,1054,1050,1050,1050,1047,1047,1047,1047,1047,1047,1047,1047,1047,1050,1050,1054,1054,1057,1050,1050,0,0,0,0,0,1680,1680,1680,1680,1671,1671,1663,1663,1663,1663,1655,1655,1655,1647,1647,1639,1632,1632,1632,1632,1624,1624,1616,1616,1616,1609,1609,1601,1601,1601,1594,1594,1594,1594,1586,1579,1579,1572,1572,1572,1564,1564,1564,1557,1557,1557,1550,1550,1550,1543,1543,1536,1536,1536,1529,1523,1523,1523,1523,1523,1516,1516,1516,1516,1509,1503,1503,1496,1489,1489,1483,1483,0,0,0,0,0,0,0,0,0,860,860,858,858,858,858,856,856,851,849,849,847,847,849,847,847,849,849,854,854,856,856,858,860,860,862,862,862,862,0,0,0,0,0,1392,1392,1392,1392,1387,1387,1381,1381,1376,1376,1370,1365,1365,1365,1365,1365,1359,1354,1354,1354,1349,1349,1343,1338,1338,1338,1333,1333,1333,1333,1328,1328,1328,1322,1322,1317,1312,1312,1312,1312,1312,1307,1307,1307,1307,1302,1297,1297,1292,1292,1292,1288,1288,1288,1288,1283,1283,1278,1278,1273,1273,1273,1273,1268,1268,1264,1264,1259,1259,1255,1255,1255,1250,1250,1250,1245,1241,1241,1236,1236,1236,1236,1232,1232,1232,1227,1227,1227,1223,1223,1223,1219,1219,1214,1214,1210,1210,1206,1206,1202,1202,1197,1197,1197,1197,1193,1189,1189,1189,1185,1185,1185,1185,1181,1181,1181,1177,1177,1169,1169,1169,1165,1165,1161,1161,1161,1161,1157,1157,1153,1153,1153,1153,1153,1149,1149,1145,1141,1141,1141,1138,1138,1134,1134,1134,1130,1126,1123,1123,1123,1123,1123,1119,1119,1119,1115,1115,1115,1112,1112,1108,1108,1105,1105,1101,1101,1097,1097,1094,1094,1094,1090,1090,1090,1087,1087,1087,1080,1080,1080,1080,1080,1080,1077,1077,1077,1077,1073,1070,1070,1067,1067,1067,1063,1063,1063,1060,1057,1057,1054,1054,1054,1054,1050,1050,1050,1050,1047,1047,1044,1044,1041,1041,1041,1038,1038,1038,1038,1038,1034,1031,1031,1028,1028,1028,1025,1025,1025,1022,1022,1022,1019,1016,1016,1016,1016,1016,1013,1013,1010,1010,1007,1004,1004,1004,1004,1004,1001,1001,1001,1001,1001,998,995,992,992,989,989,989,987,984,984,981,981,981,978,978,978,975,970,970,970,970,970,967,967,967,967,964,964,962,962,959,959,959,0,0,0,0,0,0,0,0,0,0,0,0,0,0,0,0,0,0,0,0,0,0,0,0,0,0,0,0,0,0
0,0,0,0,0,0,0,0,0,0,0,0,0,0,1572,1572,1572,1572,1564,1564,1564,1564,1557,1557,1557,1557,1550,1550,1550,1550,1550,1550,1550,1550,1543,1543,1543,1536,1536,1536,1536,1536,1529,1529,1529,1523,1523,1529,1529,1529,1523,1523,1523,1523,1516,1516,1516,1516,1516,1516,1523,1523,1529,1536,1536,1536,1536,1543,1543,1550,2226,2226,2212,2198,2198,2198,2198,2184,2170,2170,2170,2156,2156,2156,2156,2156,2156,2156,1543,1543,1536,1536,1536,1536,1536,1536,1529,1529,1529,1529,1529,1536,1536,1536,1536,1536,1536,1543,1543,1550,1550,1557,1557,1564,1564,1564,1564,1564,1564,1564,1564,1572,1572,1579,1579,1594,1594,1594,1594,1594,1594,1601,1601,1601,1609,1609,1616,1616,1616,1616,1616,1624,1624,1624,1632,1632,1632,1632,1639,1639,1639,1639,1647,1647,1647,1647,1655,1655,1655,1663,1663,1663,1663,1663,1671,1680,1680,1688,1688,1688,1696,1696,1688,1688,1688,1688,1688,0,0,0,0,1057,1057,1054,1054,1050,1050,1050,1050,1047,1047,1047,1047,1047,1047,1047,1047,1047,1050,1050,1054,1054,1057,1050,1050,0,0,0,0,0,1680,1680,1680,1680,1680,1671,1663,1663,1663,1663,1655,1655,1655,1647,1647,1639,1639,1632,1632,1632,1632,1624,1624,1616,1616,1609,1609,1601,1601,1601,1594,1594,1594,1594,1586,1586,1579,1579,1572,1572,1564,1564,1564,1564,1557,1557,1550,1550,1550,1543,1543,1536,1536,1536,1529,1523,1523,1523,1523,1523,1516,1516,1516,1516,1516,1509,1503,1503,1496,1496,1489,1489,1496,0,0,0,0,0,0,0,860,860,860,860,858,858,858,856,856,851,849,849,849,849,849,849,849,849,849,854,854,856,856,858,860,862,862,862,864,864,0,0,0,0,0,1392,1392,1392,1392,1392,1387,1387,1381,1376,1376,1370,1370,1365,1365,1365,1365,1359,1354,1354,1354,1349,1349,1343,1343,1338,1338,1338,1333,1333,1333,1333,1328,1328,1328,1322,1317,1317,1312,1312,1312,1312,1307,1307,1307,1307,1302,1302,1297,1292,1292,1292,1292,1288,1288,1288,1283,1283,1278,1278,1278,1273,1273,1273,1268,1268,1268,1264,1264,1259,1259,1259,1255,1255,1255,1250,1250,1241,1241,1236,1236,1236,1236,1232,1232,1232,1232,1227,1227,1227,1223,1223,1219,1219,1214,1214,1210,1210,1206,1206,1202,1202,1202,1197,1197,1197,1193,1193,1189,1189,1185,1185,1185,1185,1181,1181,1181,1177,1177,1173,1169,1169,1169,1165,1165,1165,1161,1161,1161,1157,1157,1157,1153,1153,1153,1153,1149,1145,1141,1141,1138,1138,1138,1134,1134,1134,1130,1130,1126,1123,1123,1123,1123,1123,1119,1119,1115,1115,1115,1112,1112,1112,1108,1108,1105,1105,1101,1097,1097,1094,1094,1094,1090,1090,1090,1090,1087,1087,1084,1080,1080,1080,1080,1080,1077,1077,1077,1077,1073,1070,1070,1070,1067,1067,1063,1063,1063,1063,1060,1057,1054,1054,1054,1054,1050,1050,1050,1050,1050,1047,1044,1044,1044,1041,1041,1041,1038,1038,1038,1038,1034,1031,1031,1028,1028,1028,1025,1025,1025,1025,1022,1022,1019,1016,1016,1016,1016,1016,1013,1013,1013,1010,1007,1007,1004,1004,1004,1004,1004,1004,1001,1001,1001,998,995,992,992,989,989,989,987,987,984,981,981,981,981,978,978,975,975,973,973,970,970,970,970,967,967,967,967,964,964,959,959,959,0,0,0,0,0,0,0,0,0,0,0,0,0,0,0,0,0,0,0,0,0,0,0,0,0,0,0,0,0,0
0,0,0,0,0,0,0,0,0,0,0,0,0,0,1572,1572,1572,1572,1564,1564,1564,1564,1557,1557,1557,1550,1550,1550,1550,1550,1550,1550,1550,1550,1543,1543,1543,1543,1536,1536,1536,1536,1529,1529,1529,1529,1529,1529,1529,1529,1529,1523,1523,1523,1523,1516,1516,1516,1516,1516,1523,1523,1529,1536,1536,1536,1536,1543,1543,1550,1550,2212,2212,2212,2198,2198,2198,2184,2170,2170,2170,2156,2156,2156,2156,2156,2156,2156,1543,1543,1536,1536,1536,1536,1536,1536,1529,1529,1529,1529,1529,1529,1529,1536,1536,1536,1536,1543,1543,1550,1550,1557,1557,1564,1564,1564,1564,1564,1564,1564,1564,1572,1572,1579,1579,1594,1594,1594,1594,1594,1594,1601,1601,1601,1609,1609,1616,1616,1616,1616,1616,1624,1624,1624,1632,1632,1632,1632,1639,1639,1639,1639,1647,1647,1647,1647,1655,1655,1655,1663,1663,1663,1663,1671,1671,1680,1688,1688,1688,1688,1688,1688,1688,1688,1688,1688,1688,1688,0,0,0,1060,1060,1054,1054,1050,1050,1050,1050,1047,1047,1047,1047,1047,1047,1047,1047,1047,1050,1050,1054,1054,1057,1054,1054,1054,0,0,0,0,1688,1680,1680,1680,1680,1671,1671,1663,1663,1663,1655,1655,1655,1647,1647,1639,1639,1632,1632,1632,1632,1624,1624,1616,1616,1616,1609,1601,1601,1601,1594,1594,1594,1594,1586,1586,1579,1579,1572,1572,1572,1564,1564,1564,1557,1557,1557,1550,1550,1543,1543,1543,1536,1536,1529,1529,1523,1523,1523,1523,1523,1516,1516,1516,1516,1509,1509,1509,1503,1503,1503,1496,1496,0,0,0,0,0,0,0,858,858,860,860,860,858,858,856,856,851,849,849,849,849,849,849,849,849,849,854,854,856,856,858,860,862,862,862,864,0,0,0,0,0,1392,1392,1392,1392,1392,1392,1387,1387,1381,1376,1376,1370,1370,1370,1365,1365,1365,1365,1359,1354,1354,1354,1349,1349,1343,1343,1338,1338,1338,1333,1333,1333,1333,1328,1328,1322,1317,1317,1312,1312,1312,1312,1307,1307,1307,1307,1302,1302,1302,1297,1292,1292,1292,1288,1288,1288,1288,1283,1283,1278,1278,1278,1278,1273,1268,1268,1268,1264,1264,1259,1259,1259,1255,1255,1255,1250,1250,1250,1245,1241,1236,1236,1236,1236,1236,1232,1232,1232,1227,1227,1223,1223,1219,1219,1214,1214,1210,1210,1206,1206,1206,1202,1202,1197,1197,1197,1193,1193,1189,1189,1185,1185,1185,1185,1181,1181,1181,1181,1177,1177,1173,1169,1169,1165,1165,1165,1165,1161,1161,1157,1157,1157,1153,1153,1153,1153,1149,1145,1141,1141,1138,1138,1138,1138,1134,1134,1130,1130,1130,1126,1123,1123,1123,1123,1119,1119,1119,1115,1115,1112,1112,1112,1108,1108,1105,1105,1101,1101,1097,1094,1094,1094,1090,1090,1090,1090,1087,1087,1084,1080,1080,1080,1080,1080,1080,1077,1077,1077,1077,1073,1070,1070,1067,1067,1063,1063,1063,1063,1060,1057,1054,1054,1054,1054,1054,1050,1050,1050,1050,1047,1047,1044,1044,1044,1041,1041,1041,1038,1038,1038,1034,1034,1031,1031,1028,1028,1028,1025,1025,1025,1025,1022,1022,1019,1019,1016,1016,1016,1013,1013,1013,1010,1007,1007,1004,1004,1004,1004,1004,1004,1001,1001,1001,998,998,995,992,992,992,989,989,987,987,984,984,981,981,981,978,978,975,975,975,973,973,970,970,967,967,967,967,964,964,962,959,959,0,0,0,0,0,0,0,0,0,0,0,0,0,0,0,0,0,0,0,0,0,0,0,0,0,0,0,0,0,0
0,0,0,0,0,0,0,0,0,0,0,0,0,0,1572,1572,1572,1572,1564,1564,1564,1564,1557,1557,1557,1550,1550,1550,1550,1550,1550,1550,1550,1550,1543,1543,1543,1543,1536,1536,1536,1536,1536,1536,1536,1536,1529,1529,1529,1529,1529,1529,1529,1529,1523,1516,1516,1516,1516,1516,1523,1523,1529,1536,1536,1536,1536,1543,1543,1543,1543,2226,2226,2212,2198,2198,2198,2198,2184,2170,2170,2156,2156,2156,2156,2156,2156,2156,2156,1536,1536,1536,1536,1536,1536,1536,1529,1529,1529,1529,1529,1529,1529,1529,1536,1536,1536,1543,1543,1543,1550,1557,1557,1564,1564,1564,1564,1564,1564,1564,1572,1572,1572,1586,1586,1594,1594,1594,1594,1594,1594,1594,1601,1601,1609,1609,1609,1616,1616,1624,1624,1624,1624,1624,1632,1632,1632,1639,1639,1639,1639,1639,1647,1647,1647,1655,1655,1655,1655,1663,1663,1663,1663,1671,1671,1680,1688,1688,1688,1688,1688,1688,1688,1688,1688,1688,1688,0,0,0,1060,0,1060,1054,1054,1050,1050,1050,1050,1047,1047,1047,1047,1047,1047,1047,1047,1047,1050,1050,1054,1054,1057,1054,1054,1054,0,0,0,0,1696,1680,1680,1688,1680,1671,1671,1663,1663,1663,1655,1655,1655,1655,1647,1639,1639,1639,1639,1632,1632,1624,1624,1624,1616,1616,1609,1609,1601,1601,1601,1594,1594,1594,1594,1586,1586,1579,1572,1572,1572,1564,1564,1564,1557,1557,1557,1550,1550,1543,1543,1543,1536,1536,1529,1529,1523,1523,1523,1523,1523,1516,1516,1516,1516,1516,1509,1509,1509,1503,1503,1509,0,0,0,0,0,0,0,0,858,858,860,860,860,858,858,858,856,851,851,849,849,849,849,849,849,849,849,854,854,856,856,858,860,862,862,862,864,0,0,0,0,0,1392,1392,1398,1392,1392,1392,1392,1387,1381,1376,1376,1370,1370,1370,1365,1365,1365,1365,1359,1359,1354,1354,1349,1349,1349,1343,1343,1338,1338,1333,1333,1333,1333,1328,1328,1322,1317,1317,1312,1312,1312,1312,1307,1307,1307,1307,1307,1307,1302,1297,1292,1292,1292,1288,1288,1288,1288,1283,1283,1283,1278,1278,1273,1273,1268,1268,1264,1264,1264,1259,1259,1259,1255,1255,1255,1255,1250,1250,1245,1241,1241,1241,1236,1236,1236,1232,1232,1232,1232,1227,1227,1227,1223,1223,1219,1214,1214,1210,1210,1210,1206,1202,1202,1197,1197,1197,1197,1193,1193,1189,1185,1185,1185,1185,1181,1181,1181,1181,1177,1177,1173,1169,1169,1169,1165,1165,1165,1161,1161,1161,1157,1157,1153,1153,1153,1153,1149,1145,1141,1141,1141,1138,1138,1138,1134,1134,1130,1130,1130,1126,1123,1123,1123,1123,1119,1119,1119,1119,1115,1115,1112,1112,1112,1108,1105,1105,1101,1101,1101,1097,1097,1094,1094,1090,1090,1090,1090,1087,1084,1080,1080,1080,1080,1080,1077,1077,1077,1077,1077,1073,1070,1070,1070,1067,1067,1063,1063,1063,1060,1060,1057,1054,1054,1054,1054,1050,1050,1050,1050,1047,1047,1044,1044,1044,1041,1041,1041,1038,1038,1038,1034,1034,1031,1031,1028,1028,1028,1028,1025,1025,1025,1022,1022,1019,1019,1016,1016,1016,1013,1013,1013,1010,1010,1007,1007,1004,1004,1004,1004,1004,1001,1001,1001,998,998,995,992,992,989,989,989,987,987,984,984,981,981,981,978,978,978,978,975,973,973,973,973,970,967,967,967,964,964,962,959,959,0,0,0,0,0,0,0,0,0,0,0,0,0,0,0,0,0,0,0,0,0,0,0,0,0,0,0,0,0,0
0,0,0,0,0,0,0,0,0,0,0,0,0,0,1572,1572,1572,1572,1564,1564,1564,1564,1557,1557,1550,1550,1550,1550,1550,1550,1550,1550,1550,1543,1543,1543,1543,1543,1536,1536,1536,1536,1536,1536,1536,1536,1536,1529,1529,1529,1529,1529,1529,1529,1529,1523,1523,1523,1523,1523,1529,1529,1529,1536,1543,1543,1543,1543,1550,1543,1543,1543,2212,2212,2198,2198,2198,2198,2184,2170,2170,2170,2156,2156,2156,2156,2156,2156,2156,1536,1536,1536,1536,1536,1536,1536,1529,1529,1529,1529,1529,1529,1529,1529,1536,1536,1536,1543,1543,1543,1550,1557,1557,1564,1564,1564,1564,1564,1564,1564,1572,1572,1579,1586,1586,1594,1594,1594,1594,1594,1594,1594,1601,1601,1609,1609,1609,1616,1616,1624,1624,1624,1632,1632,1632,1632,1639,1639,1639,1639,1639,1639,1647,1647,1647,1655,1655,1655,1655,1663,1663,1663,1663,1671,1671,1680,1688,1688,1688,1688,1688,1688,1688,1688,1688,1688,1688,1688,0,0,0,0,1063,1057,1054,1054,1050,1050,1050,1047,1047,1047,1047,1047,1047,1047,1047,1047,1050,1050,1054,1054,1057,1057,1057,1057,0,0,0,0,1688,1688,1688,1688,1680,1671,1671,1663,1663,1663,1663,1655,1655,1655,1647,1647,1639,1639,1639,1632,1632,1624,1624,1624,1616,1616,1609,1601,1601,1601,1601,1594,1594,1594,1594,1586,1586,1579,1572,1572,1572,1564,1564,1564,1557,1557,1557,1550,1550,1550,1543,1543,1543,1536,1536,1536,1529,1529,1529,1523,1523,1523,1516,1516,1516,1516,1509,1509,1509,1509,1509,1509,1509,0,0,0,0,0,0,0,858,858,858,860,860,858,858,858,856,851,851,849,849,849,849,849,849,849,849,854,854,856,858,858,860,862,862,862,864,0,0,0,0,0,1398,1398,1398,1398,1398,1392,1392,1387,1381,1381,1376,1370,1370,1370,1370,1365,1365,1365,1359,1359,1354,1354,1349,1349,1349,1349,1343,1343,1338,1338,1333,1333,1333,1328,1328,1322,1322,1317,1317,1312,1312,1312,1307,1307,1307,1307,1307,1307,1302,1302,1302,1292,1292,1292,1292,1288,1288,1288,1283,1283,1283,1278,1273,1273,1268,1268,1264,1264,1264,1259,1259,1259,1255,1255,1255,1255,1250,1250,1250,1245,1241,1241,1236,1236,1236,1236,1232,1232,1232,1232,1227,1227,1223,1223,1219,1214,1214,1210,1210,1210,1206,1202,1202,1202,1202,1197,1197,1197,1193,1189,1189,1185,1185,1185,1185,1181,1181,1181,1181,1177,1177,1173,1169,1169,1165,1165,1165,1161,1161,1161,1157,1157,1153,1153,1153,1153,1149,1145,1141,1141,1141,1138,1138,1138,1138,1134,1134,1130,1130,1130,1126,1126,1123,1123,1123,1119,1119,1119,1115,1115,1112,1112,1112,1108,1105,1105,1105,1101,1101,1097,1097,1094,1094,1094,1094,1090,1090,1090,1087,1084,1080,1080,1080,1080,1077,1077,1077,1077,1077,1073,1070,1070,1067,1067,1067,1063,1063,1063,1060,1060,1057,1054,1054,1054,1054,1054,1050,1050,1050,1047,1047,1047,1047,1044,1041,1041,1041,1038,1038,1038,1034,1034,1031,1031,1028,1028,1028,1028,1025,1025,1025,1022,1022,1019,1019,1019,1019,1016,1013,1013,1013,1010,1010,1007,1007,1007,1004,1004,1004,1004,1001,1001,1001,998,998,995,992,992,989,989,989,989,987,984,984,981,981,981,981,978,978,978,978,975,975,973,970,970,967,967,967,964,964,962,962,962,0,0,0,0,0,0,0,0,0,0,0,0,0,0,0,0,0,0,0,0,0,0,0,0,0,0,0,0,0,0
0,0,0,0,0,0,0,0,0,0,0,0,0,0,1579,1572,1572,1572,1572,1564,1564,1564,1557,1557,1550,1550,1550,1550,1550,1550,1550,1550,1543,1543,1543,1543,1543,1543,1543,1536,1536,1536,1536,1536,1536,1536,1536,1529,1529,1529,1529,1529,1529,1529,1529,1523,1523,1523,1523,1523,1529,1529,1529,1536,1543,1543,1543,1543,1550,1543,1543,1543,1550,2226,2212,2212,2212,2198,2184,2184,2170,2170,2170,2156,2156,2156,2156,2156,2156,2156,1543,1536,1536,1536,1536,1536,1536,1536,1529,1529,1536,1536,1536,1536,1536,1536,1536,1543,1543,1550,1550,1557,1557,1564,1564,1564,1564,1564,1564,1564,1572,1579,1579,1586,1586,1594,1594,1594,1594,1594,1601,1601,1601,1601,1609,1609,1609,1616,1616,1624,1624,1624,1632,1632,1632,1632,1639,1639,1647,1639,1639,1647,1647,1655,1655,1655,1655,1655,1655,1663,1663,1663,1663,1671,1680,1688,1688,1688,1688,1688,1688,1688,1688,1688,1688,1696,1696,0,1705,0,0,0,1060,1057,1057,1054,1050,1050,1050,1047,1047,1047,1047,1047,1047,1047,1050,1050,1050,1050,1054,1057,1057,1060,1060,1060,0,0,0,0,1688,1688,1688,1688,1688,1680,1671,1671,1663,1663,1663,1655,1655,1655,1647,1647,1639,1639,1639,1632,1632,1624,1624,1624,1616,1616,1609,1601,1601,1601,1601,1594,1594,1594,1594,1586,1586,1579,1572,1572,1572,1564,1564,1564,1564,1557,1557,1550,1550,1550,1543,1543,1543,1536,1536,1536,1536,1529,1529,1529,1523,1523,1516,1516,1516,1516,1509,1509,1509,1509,1509,1509,1509,0,0,0,0,0,0,0,858,858,858,860,860,858,858,858,856,851,851,849,849,849,849,849,849,849,849,854,854,856,858,858,860,862,862,864,864,867,0,0,0,0,1398,1398,1398,1398,1398,1392,1392,1392,1381,1381,1376,1376,1370,1370,1370,1365,1365,1365,1359,1359,1354,1354,1354,1349,1349,1349,1349,1343,1343,1338,1338,1333,1333,1333,1328,1328,1328,1322,1322,1317,1312,1312,1307,1307,1307,1307,1307,1307,1307,1302,1302,1297,1292,1292,1292,1288,1288,1288,1283,1283,1283,1278,1273,1273,1268,1268,1264,1264,1264,1264,1259,1259,1259,1255,1255,1255,1250,1250,1250,1245,1241,1241,1236,1236,1236,1236,1232,1232,1232,1227,1227,1227,1223,1219,1219,1219,1214,1214,1210,1210,1206,1206,1202,1202,1202,1202,1197,1197,1193,1189,1189,1189,1185,1185,1185,1181,1181,1181,1181,1177,1177,1177,1173,1169,1169,1165,1165,1165,1161,1161,1161,1157,1157,1153,1153,1153,1149,1145,1145,1145,1141,1141,1138,1138,1138,1134,1134,1130,1130,1130,1126,1126,1126,1126,1123,1123,1119,1119,1115,1115,1112,1108,1108,1108,1105,1105,1105,1105,1101,1101,1097,1094,1094,1094,1094,1090,1090,1090,1090,1087,1084,1080,1080,1080,1080,1077,1077,1077,1077,1073,1070,1070,1067,1067,1067,1063,1063,1063,1063,1060,1060,1057,1054,1054,1054,1054,1050,1050,1050,1050,1047,1047,1047,1044,1044,1041,1041,1038,1038,1038,1034,1034,1031,1031,1028,1028,1028,1028,1025,1025,1025,1022,1022,1022,1022,1019,1019,1016,1013,1013,1013,1010,1010,1007,1007,1007,1004,1004,1004,1004,1001,1001,1001,1001,998,995,995,992,992,989,989,989,987,987,984,984,981,981,981,978,978,978,978,975,975,973,970,970,967,967,967,967,964,962,962,962,0,0,0,0,0,0,0,0,0,0,0,0,0,0,0,0,0,0,0,0,0,0,0,0,0,0,0,0,0,0
0,0,0,0,0,0,0,0,0,0,0,0,0,0,1579,1572,1572,1572,1572,1564,1564,1564,1557,1557,1557,1550,1550,1550,1550,1550,1550,1550,1543,1543,1543,1543,1543,1543,1543,1536,1536,1536,1536,1536,1536,1536,1536,1529,1529,1536,1536,1529,1529,1529,1529,1523,1523,1523,1523,1523,1529,1529,1529,1536,1536,1543,1543,1543,1550,1543,1543,1543,1543,1543,2212,2212,2212,2198,2184,2184,2184,2170,2170,2156,2156,2156,2156,2156,2156,1543,1543,1543,1543,1543,1543,1536,1536,1536,1536,1536,1536,1536,1536,1536,1536,1536,1543,1543,1543,1550,1550,1557,1557,1564,1564,1564,1564,1564,1564,1564,1572,1579,1586,1586,1586,1594,1594,1594,1594,1601,1601,1601,1601,1601,1609,1609,1609,1616,1624,1624,1624,1624,1632,1632,1632,1632,1632,1639,1639,1639,1639,1647,1647,1655,1655,1655,1655,1655,1663,1663,1663,1671,1671,1680,1688,1688,1688,1688,1688,1688,1688,1688,1688,1688,1688,1696,1696,1705,1705,1731,0,1060,1060,1057,1054,1054,1050,1050,1050,1047,1047,1047,1047,1047,1047,1047,1050,1050,1050,1054,1054,1057,1060,1060,1063,1063,0,0,0,0,1696,1688,1688,1688,1688,1680,1680,1671,1671,1663,1663,1663,1655,1655,1647,1647,1639,1639,1639,1632,1632,1624,1624,1624,1616,1616,1609,1609,1601,1601,1601,1594,1594,1594,1594,1594,1586,1579,1579,1572,1572,1572,1564,1564,1564,1557,1557,1550,1550,1550,1550,1543,1543,1536,1536,1536,1536,1529,1529,1529,1523,1523,1516,1516,1516,1509,1509,1509,1509,1509,1509,1509,1509,0,0,0,0,0,0,0,858,858,860,860,860,858,858,858,854,851,851,849,849,849,849,849,849,849,849,854,854,856,858,860,860,862,862,864,867,867,0,0,0,0,0,1398,1398,1398,1398,1392,1392,1392,1381,1381,1376,1376,1370,1370,1370,1370,1365,1365,1359,1359,1354,1354,1354,1354,1349,1349,1349,1349,1343,1343,1338,1338,1333,1333,1333,1328,1328,1322,1322,1317,1317,1312,1312,1312,1307,1307,1307,1307,1307,1302,1302,1297,1292,1292,1292,1288,1288,1288,1283,1283,1283,1278,1278,1273,1268,1268,1268,1264,1264,1264,1259,1259,1259,1255,1255,1255,1250,1250,1250,1245,1241,1241,1236,1236,1236,1232,1232,1232,1232,1227,1227,1223,1223,1219,1219,1219,1214,1214,1210,1210,1206,1206,1202,1202,1202,1202,1197,1197,1193,1193,1189,1189,1185,1185,1185,1181,1181,1181,1181,1181,1177,1173,1173,1169,1169,1165,1165,1165,1165,1161,1161,1157,1153,1153,1153,1153,1149,1149,1145,1145,1141,1141,1141,1138,1138,1138,1134,1134,1130,1130,1130,1126,1126,1126,1123,1123,1119,1119,1115,1115,1112,1108,1108,1108,1105,1105,1105,1105,1101,1101,1097,1094,1094,1094,1094,1094,1090,1090,1090,1090,1087,1084,1084,1080,1080,1080,1077,1077,1077,1073,1073,1070,1067,1067,1067,1067,1067,1063,1063,1060,1060,1057,1057,1057,1054,1054,1054,1050,1050,1050,1047,1047,1047,1044,1044,1041,1041,1038,1038,1038,1034,1034,1031,1031,1028,1028,1028,1028,1028,1025,1025,1025,1025,1022,1022,1022,1019,1019,1016,1013,1013,1013,1010,1010,1010,1007,1004,1004,1004,1004,1001,1001,1001,1001,1001,998,995,992,992,992,989,989,987,987,987,984,984,981,981,981,978,978,978,978,975,973,970,970,970,967,967,967,967,964,962,962,0,0,0,0,0,0,0,0,0,0,0,0,0,0,0,0,0,0,0,0,0,0,0,0,0,0,0,0,0,0
0,0,0,0,0,0,0,0,0,0,0,0,0,0,1579,1572,1572,1572,1572,1572,1564,1564,1564,1557,1557,1557,1557,1550,1550,1550,1557,1550,1550,1543,1543,1543,1543,1543,1543,1536,1536,1536,1536,1536,1536,1536,1529,1529,1529,1536,1536,1529,1529,1529,1529,1529,1529,1529,1523,1523,1529,1529,1529,1536,1536,1543,1543,1543,1550,1543,1543,1543,1543,1543,1543,2212,2212,2198,2198,2184,2184,2170,2170,2156,2156,2156,2156,2156,2156,2156,1543,1543,1543,1543,1543,1543,1543,1536,1536,1536,1536,1536,1536,1536,1536,1543,1543,1543,1550,1550,1550,1564,1564,1564,1564,1564,1564,1564,1572,1572,1579,1586,1586,1594,1594,1594,1594,1601,1601,1601,1601,1601,1601,1601,1609,1609,1609,1616,1616,1624,1624,1624,1632,1632,1632,1632,1632,1639,1639,1639,1647,1647,1647,1655,1655,1655,1655,1663,1663,1663,1671,1671,1671,1680,1688,1688,1688,1688,1688,1688,1688,1688,1688,1688,1688,1696,1705,1705,1731,0,0,1060,1060,1057,1054,1054,1050,1050,1050,1047,1047,1047,1047,1047,1047,1047,1050,1050,1054,1054,1057,1057,1060,1060,1063,0,0,0,0,1696,1696,1696,1688,1688,1688,1680,1680,1671,1671,1671,1663,1663,1663,1655,1647,1647,1639,1639,1639,1632,1632,1632,1624,1624,1624,1624,1616,1609,1609,1601,1601,1594,1594,1594,1594,1594,1586,1586,1579,1572,1572,1572,1564,1564,1564,1557,1557,1550,1550,1550,1550,1543,1543,1543,1536,1536,1536,1529,1529,1529,1523,1523,1516,1516,1516,1509,1509,1509,1509,1509,1509,1509,0,0,0,0,0,0,0,0,0,860,860,860,860,860,858,858,854,851,851,849,849,849,849,849,849,849,849,854,854,856,858,860,862,862,864,864,867,867,0,0,0,0,1404,1404,1398,1398,1398,1398,1392,1392,1387,1381,1376,1376,1376,1376,1370,1370,1370,1370,1365,1359,1354,1354,1354,1354,1354,1349,1349,1349,1349,1343,1343,1338,1333,1333,1333,1333,1328,1328,1322,1322,1322,1317,1312,1312,1312,1312,1307,1307,1307,1302,1302,1302,1297,1292,1292,1292,1288,1288,1283,1283,1283,1278,1273,1273,1273,1268,1268,1268,1264,1264,1264,1259,1259,1255,1255,1255,1250,1250,1250,1245,1241,1241,1236,1236,1236,1232,1232,1232,1232,1227,1227,1223,1223,1223,1219,1219,1219,1214,1214,1210,1210,1206,1206,1202,1202,1202,1197,1197,1197,1193,1193,1193,1189,1185,1185,1181,1181,1181,1181,1181,1177,1173,1173,1169,1169,1169,1165,1165,1165,1161,1161,1157,1153,1153,1153,1149,1149,1149,1145,1145,1141,1141,1141,1138,1138,1138,1138,1134,1134,1134,1130,1130,1126,1126,1123,1123,1119,1119,1115,1115,1112,1112,1112,1108,1105,1105,1105,1105,1101,1101,1097,1097,1094,1094,1094,1094,1094,1090,1090,1090,1090,1087,1084,1084,1080,1080,1077,1077,1077,1077,1073,1070,1070,1067,1067,1067,1067,1063,1063,1063,1060,1057,1057,1057,1054,1054,1054,1054,1054,1050,1050,1047,1047,1044,1044,1041,1041,1041,1038,1038,1034,1034,1034,1031,1031,1031,1028,1028,1028,1028,1025,1025,1025,1022,1022,1022,1022,1019,1016,1016,1013,1013,1010,1010,1010,1007,1007,1004,1004,1004,1001,1001,1001,1001,998,998,995,992,992,992,989,989,989,987,987,984,984,981,981,981,981,981,978,978,975,973,973,970,970,967,967,967,967,964,962,962,0,0,0,0,0,0,0,0,0,0,0,0,0,0,0,0,0,0,0,0,0,0,0,0,0,0,0,0,0,0
0,0,0,0,0,0,0,0,0,0,0,0,0,0,1579,1572,1572,1572,1572,1572,1564,1564,1564,1557,1557,1557,1557,1557,1550,1550,1557,1557,1550,1550,1550,1550,1543,1543,1543,1543,1543,1543,1543,1543,1543,1543,1529,1529,1536,1536,1536,1529,1529,1536,1529,1529,1529,1529,1523,1523,1529,1529,1536,1536,1536,1543,1543,1543,1550,1543,1543,1543,1543,1543,1543,2226,2226,2212,2198,2198,2184,2184,2170,2170,2156,2156,2156,2156,2143,2143,1543,1543,1543,1543,1543,1543,1543,1543,1543,1536,1536,1536,1536,1536,1536,1543,1550,1550,1550,1550,1557,1564,1564,1564,1564,1564,1572,1572,1572,1572,1579,1586,1586,1594,1594,1594,1594,1601,1601,1601,1601,1601,1601,1601,1609,1609,1609,1616,1616,1624,1624,1624,1632,1632,1632,1632,1632,1632,1639,1639,1647,1647,1655,1655,1655,1655,1663,1663,1663,1671,1671,1671,1680,1680,1688,1688,1688,1688,1688,1688,1688,1688,1688,1688,1688,1696,1705,1705,1731,0,0,1060,1060,1057,1057,1054,1054,1050,1050,1050,1050,1050,1050,1050,1050,1050,1050,1050,1054,1057,1057,1060,1060,1060,1063,0,0,0,0,1696,1688,1688,1688,1688,1688,1688,1680,1680,1671,1671,1663,1663,1663,1655,1647,1647,1647,1647,1639,1632,1632,1632,1632,1624,1624,1624,1624,1616,1609,1601,1601,1601,1594,1594,1594,1594,1594,1586,1579,1579,1579,1572,1564,1564,1564,1564,1557,1557,1550,1550,1550,1543,1543,1543,1536,1536,1536,1529,1529,1529,1523,1523,1516,1516,1516,1509,1509,1509,1509,1509,1509,1509,0,0,0,0,0,0,0,0,0,862,862,862,860,860,858,858,854,851,851,851,849,849,849,849,849,849,851,854,854,856,858,860,862,862,864,864,867,867,0,0,0,0,1404,1404,1398,1398,1398,1398,1392,1392,1387,1387,1381,1376,1376,1376,1370,1370,1370,1365,1365,1359,1354,1354,1354,1354,1354,1349,1349,1349,1349,1343,1343,1338,1338,1333,1333,1333,1328,1328,1322,1322,1322,1317,1317,1317,1312,1312,1307,1307,1307,1307,1302,1302,1292,1292,1292,1288,1288,1288,1283,1283,1283,1278,1273,1273,1273,1268,1268,1268,1264,1264,1264,1259,1255,1255,1255,1255,1250,1250,1250,1245,1245,1241,1236,1236,1236,1236,1232,1232,1232,1232,1227,1227,1223,1223,1219,1219,1219,1214,1214,1214,1210,1206,1206,1202,1202,1202,1197,1197,1197,1197,1193,1193,1189,1185,1185,1185,1185,1181,1181,1181,1181,1173,1173,1169,1169,1169,1165,1165,1165,1161,1161,1157,1153,1153,1153,1149,1149,1149,1149,1149,1145,1145,1141,1141,1138,1138,1138,1134,1134,1134,1130,1130,1126,1126,1123,1123,1119,1119,1115,1115,1112,1112,1112,1108,1105,1105,1105,1105,1105,1101,1097,1097,1097,1094,1094,1094,1094,1090,1090,1090,1090,1087,1087,1084,1080,1080,1077,1077,1077,1077,1073,1073,1070,1070,1070,1067,1067,1063,1063,1063,1060,1060,1057,1057,1057,1054,1054,1054,1054,1050,1050,1047,1047,1044,1044,1044,1041,1041,1041,1038,1038,1034,1034,1034,1034,1031,1031,1031,1028,1028,1028,1025,1025,1025,1022,1022,1022,1019,1016,1016,1016,1013,1013,1010,1010,1007,1007,1004,1004,1004,1001,1001,1001,1001,998,998,995,992,992,992,992,989,989,989,987,987,984,981,981,981,981,981,978,978,975,973,973,970,970,970,967,967,967,964,964,964,0,0,0,0,0,0,0,0,0,0,0,0,0,0,0,0,0,0,0,0,0,0,0,0,0,0,0,0,0,0
0,0,0,0,0,0,0,0,0,0,0,0,0,0,1579,1572,1572,1572,1572,1572,1564,1564,1564,1564,1557,1557,1557,1557,1557,1557,1557,1557,1550,1550,1550,1543,1543,1543,1543,1543,1543,1543,1543,1543,1543,1543,1543,1536,1536,1536,1536,1536,1536,1536,1536,1529,1529,1529,1529,1529,1536,1536,1536,1536,1543,1543,1543,1550,1550,1550,1543,1543,1543,1543,2226,2226,2226,2212,2212,2198,2198,2184,2170,2170,2156,2156,2156,2156,2143,2143,2143,1543,1543,1543,1543,1543,1543,1543,1543,1543,1543,1543,1543,1543,1543,1543,1550,1550,1550,1550,1557,1564,1564,1564,1564,1564,1572,1572,1572,1579,1586,1586,1594,1594,1594,1594,1594,1601,1601,1601,1601,1601,1601,1601,1609,1609,1616,1616,1616,1624,1624,1624,1632,1632,1632,1632,1632,1632,1639,1639,1647,1647,1655,1655,1655,1655,1663,1663,1663,1671,1671,1671,1671,1671,1680,1688,1688,1688,1688,1688,1688,1688,1688,1688,1688,1688,1696,1713,1713,1060,1060,1060,1060,1057,1057,1054,1054,1050,1050,1050,1050,1050,1050,1050,1050,1050,1050,1054,1054,1057,1057,1060,1060,1060,1063,0,0,0,0,1696,1688,1688,1688,1688,1688,1688,1688,1680,1680,1671,1663,1663,1663,1655,1655,1647,1647,1647,1639,1632,1632,1632,1632,1632,1624,1624,1624,1624,1616,1609,1601,1601,1601,1601,1594,1594,1594,1594,1586,1579,1579,1579,1572,1564,1564,1564,1557,1557,1550,1550,1550,1543,1543,1543,1543,1536,1536,1536,1529,1529,1529,1523,1516,1516,1516,1509,1509,1509,1503,1503,1509,0,0,0,0,0,0,0,0,0,0,862,862,862,860,860,858,858,854,851,851,851,849,849,849,849,849,849,849,854,856,856,858,860,862,862,864,864,867,867,0,0,0,0,0,1410,1404,1398,1398,1398,1392,1392,1392,1387,1381,1376,1376,1376,1370,1370,1370,1365,1365,1359,1354,1354,1354,1354,1354,1349,1349,1349,1349,1343,1343,1338,1338,1333,1333,1333,1328,1328,1322,1322,1322,1317,1317,1317,1312,1312,1312,1307,1307,1307,1302,1297,1292,1292,1292,1288,1288,1288,1283,1283,1283,1278,1273,1273,1273,1268,1268,1268,1268,1264,1264,1259,1255,1255,1255,1255,1250,1250,1250,1245,1245,1241,1236,1236,1236,1236,1232,1232,1232,1232,1232,1227,1223,1223,1219,1219,1219,1219,1214,1214,1210,1210,1206,1206,1202,1202,1197,1197,1197,1197,1197,1193,1189,1189,1185,1185,1185,1181,1181,1181,1177,1173,1169,1169,1169,1169,1165,1165,1165,1161,1161,1157,1153,1153,1153,1153,1149,1149,1149,1149,1145,1145,1141,1141,1138,1138,1138,1134,1134,1134,1134,1130,1130,1126,1123,1123,1119,1119,1115,1115,1115,1112,1112,1108,1108,1105,1105,1105,1105,1101,1101,1097,1097,1094,1094,1094,1094,1090,1090,1090,1090,1087,1087,1084,1080,1080,1077,1077,1077,1077,1073,1073,1070,1070,1070,1067,1067,1067,1067,1063,1063,1060,1060,1060,1057,1057,1054,1054,1054,1050,1050,1047,1047,1044,1044,1044,1041,1041,1041,1038,1038,1038,1034,1034,1034,1034,1034,1031,1031,1028,1028,1028,1025,1025,1025,1022,1022,1019,1016,1016,1016,1013,1013,1010,1010,1007,1007,1004,1004,1004,1004,1001,1001,1001,998,998,998,995,992,992,992,992,989,989,989,987,987,981,981,981,981,981,978,978,975,973,973,970,970,970,967,967,967,964,964,964,0,0,0,0,0,0,0,0,0,0,0,0,0,0,0,0,0,0,0,0,0,0,0,0,0,0,0,0,0,0
0,0,0,0,0,0,0,0,0,0,0,0,0,0,1579,1572,1572,1572,1572,1572,1572,1572,1564,1564,1564,1564,1564,1557,1557,1557,1557,1557,1543,1543,1550,1543,1543,1543,1543,1543,1543,1543,1543,1543,1543,1543,1536,1536,1536,1536,1536,1536,1536,1536,1536,1529,1529,1529,1529,1529,1536,1536,1536,1536,1543,1543,1543,1550,1550,1543,1543,1543,1550,1550,1550,2226,2226,2212,2212,2198,2198,2184,2170,2170,2170,2156,2156,2156,2143,2143,2143,1543,1543,1543,1543,1543,1543,1543,1543,1543,1543,1543,1543,1543,1543,1550,1550,1550,1550,1557,1557,1564,1564,1564,1564,1572,1572,1572,1579,1579,1586,1586,1594,1594,1594,1594,1594,1594,1594,1601,1601,1601,1601,1601,1609,1609,1616,1616,1616,1624,1624,1624,1632,1632,1632,1632,1632,1632,1639,1639,1647,1647,1655,1655,1655,1655,1663,1663,1663,1671,1671,1680,1671,1671,1680,1688,1688,1688,1688,1688,1688,1688,1688,1688,1688,1688,1696,1696,1696,0,1060,1060,1060,1057,1057,1057,1054,1054,1050,1050,1050,1050,1050,1050,1050,1050,1054,1054,1054,1057,1060,1060,1060,1060,1063,0,0,0,0,1696,1696,1696,1696,1696,1688,1688,1688,1680,1680,1671,1671,1663,1663,1663,1655,1655,1647,1647,1639,1632,1632,1632,1632,1632,1632,1624,1624,1624,1616,1609,1609,1601,1601,1601,1594,1594,1594,1594,1586,1586,1579,1579,1572,1572,1564,1564,1564,1557,1557,1550,1550,1543,1543,1543,1543,1536,1536,1536,1529,1529,1523,1523,1516,1516,1516,1509,1509,1509,1503,1503,0,0,0,0,0,0,0,0,0,0,867,862,862,862,860,860,858,856,854,851,851,851,849,849,849,849,849,849,849,854,856,856,858,862,862,862,864,867,867,867,0,0,0,0,0,1410,1404,1398,1398,1398,1392,1392,1392,1387,1381,1376,1376,1376,1376,1370,1370,1370,1365,1359,1359,1354,1354,1354,1354,1349,1349,1349,1349,1349,1343,1343,1338,1333,1333,1333,1328,1328,1322,1322,1322,1317,1317,1317,1312,1312,1312,1307,1307,1307,1302,1297,1297,1292,1292,1292,1288,1288,1283,1283,1283,1278,1273,1273,1273,1273,1268,1268,1268,1268,1264,1259,1259,1255,1255,1255,1250,1250,1250,1245,1245,1241,1241,1236,1236,1236,1236,1232,1232,1232,1232,1227,1223,1223,1219,1219,1219,1219,1214,1214,1210,1210,1210,1206,1206,1202,1197,1197,1197,1197,1197,1193,1189,1189,1189,1185,1185,1181,1181,1181,1177,1173,1169,1169,1169,1169,1165,1165,1165,1165,1161,1161,1157,1153,1153,1153,1149,1149,1149,1149,1145,1145,1141,1141,1138,1138,1138,1134,1134,1134,1134,1134,1130,1126,1123,1123,1119,1119,1119,1119,1115,1115,1112,1112,1108,1108,1105,1105,1105,1105,1101,1097,1097,1097,1094,1094,1094,1090,1090,1090,1090,1087,1087,1087,1084,1080,1080,1080,1077,1077,1073,1073,1070,1070,1070,1067,1067,1067,1067,1063,1063,1063,1060,1060,1057,1057,1054,1054,1054,1054,1050,1047,1047,1044,1044,1044,1041,1041,1041,1038,1038,1038,1038,1034,1034,1034,1034,1031,1031,1028,1028,1028,1025,1025,1025,1022,1022,1019,1016,1016,1016,1013,1013,1013,1010,1007,1007,1004,1004,1004,1004,1004,1001,1001,1001,998,998,998,992,992,992,992,992,989,989,987,987,981,981,981,981,981,978,975,975,973,973,970,970,970,970,967,967,967,967,967,0,0,0,0,0,0,0,0,0,0,0,0,0,0,0,0,0,0,0,0,0,0,0,0,0,0,0,0,0,0
0,0,0,0,0,0,0,0,0,0,0,0,0,0,1579,1579,1579,1579,1579,1572,1572,1572,1572,1572,1564,1564,1564,1564,1564,1557,1557,1557,1543,1543,1550,1543,1543,1543,1543,1543,1543,1543,1543,1543,1543,1543,1536,1536,1536,1536,1536,1536,1536,1536,1536,1536,1536,1536,1536,1536,1536,1536,1536,1536,1536,1543,1543,1550,1550,1543,1543,1550,1550,1550,1550,1550,2212,2212,2212,2198,2198,2184,2170,2170,2156,2156,2143,2143,2143,2143,2143,1543,1543,1543,1543,1543,1543,1543,1543,1543,1543,1543,1543,1550,1550,1550,1557,1557,1557,1564,1564,1564,1564,1564,1564,1564,1564,1572,1572,1579,1586,1586,1594,1594,1594,1594,1594,1594,1594,1601,1601,1601,1601,1601,1609,1609,1616,1616,1616,1624,1624,1632,1632,1632,1632,1632,1632,1632,1639,1639,1647,1647,1655,1655,1655,1663,1663,1671,1671,1671,1671,1680,1680,1680,1688,1688,1688,1688,1688,1688,1688,1688,1688,1688,1688,1688,1696,1696,0,0,1060,1060,1060,1060,1060,1057,1057,1054,1050,1050,1050,1050,1050,1050,1050,1050,1054,1054,1057,1057,1060,1060,1060,1060,1063,0,0,0,0,0,1696,1696,1696,1696,1696,1688,1688,1680,1680,1671,1671,1671,1663,1663,1655,1655,1647,1647,1639,1639,1639,1632,1632,1632,1632,1624,1624,1624,1616,1609,1609,1601,1601,1601,1601,1601,1594,1594,1586,1586,1579,1579,1572,1572,1564,1564,1564,1564,1557,1557,1550,1543,1543,1543,1543,1536,1536,1536,1529,1529,1523,1523,1516,1516,1516,1509,1509,1509,1509,1509,0,0,0,0,0,0,0,0,0,0,867,864,864,862,860,860,858,856,854,851,851,851,849,849,849,849,849,849,849,854,856,856,858,862,862,864,864,867,867,867,0,0,0,0,0,1410,1404,1398,1398,1398,1392,1392,1392,1387,1381,1376,1376,1376,1376,1370,1370,1370,1365,1365,1359,1354,1354,1354,1354,1349,1349,1349,1349,1349,1343,1343,1338,1333,1333,1333,1328,1328,1328,1322,1322,1322,1322,1317,1312,1312,1312,1307,1307,1307,1302,1297,1297,1292,1292,1292,1292,1288,1283,1283,1283,1278,1278,1273,1273,1273,1273,1268,1268,1268,1264,1259,1259,1255,1255,1255,1255,1250,1250,1245,1245,1241,1241,1236,1236,1236,1236,1232,1232,1232,1232,1227,1227,1223,1223,1219,1219,1219,1214,1214,1214,1210,1210,1206,1206,1202,1197,1197,1197,1197,1197,1193,1189,1189,1189,1185,1185,1185,1185,1181,1181,1173,1173,1169,1169,1169,1169,1165,1165,1165,1161,1161,1161,1157,1153,1153,1149,1149,1149,1149,1145,1145,1141,1141,1138,1138,1138,1138,1134,1134,1134,1134,1130,1126,1123,1123,1123,1119,1119,1119,1115,1115,1115,1112,1108,1108,1105,1105,1105,1105,1101,1101,1101,1097,1097,1094,1094,1090,1090,1090,1090,1087,1087,1087,1084,1080,1080,1080,1080,1080,1077,1073,1073,1073,1070,1067,1067,1067,1067,1063,1063,1063,1063,1060,1060,1057,1057,1054,1054,1054,1050,1047,1047,1044,1044,1044,1041,1041,1041,1041,1038,1038,1038,1038,1034,1034,1034,1031,1031,1028,1028,1028,1025,1025,1022,1022,1022,1019,1016,1016,1016,1013,1013,1013,1010,1010,1007,1007,1007,1004,1004,1004,1001,1001,1001,1001,998,998,995,995,992,992,992,989,989,989,987,984,984,981,978,978,978,975,975,975,973,973,970,970,970,967,967,967,967,967,0,0,0,0,0,0,0,0,0,0,0,0,0,0,0,0,0,0,0,0,0,0,0,0,0,0,0,0,0,0
0,0,0,0,0,0,0,0,0,0,0,0,0,0,1579,1579,1579,1579,1579,1579,1572,1572,1572,1572,1564,1564,1564,1564,1564,1557,1557,1557,1543,1543,1550,1543,1543,1543,1543,1543,1543,1543,1536,1536,1536,1536,1536,1536,1536,1536,1536,1536,1536,1536,1536,1536,1536,1536,1536,1536,1536,1536,1536,1536,1536,1543,1543,1550,1550,1550,1550,1550,1550,1550,1550,1550,2198,2198,2198,2198,2198,2198,2170,2170,2156,2143,2143,2143,2103,2103,2103,1543,1543,1543,1543,1543,1543,1543,1543,1543,1543,1543,1543,1550,1550,1557,1557,1557,1564,1564,1564,1564,1564,1564,1564,1564,1564,1572,1572,1579,1586,1586,1594,1594,1594,1594,1594,1594,1594,1601,1601,1601,1601,1601,1616,1616,1624,1624,1624,1624,1632,1632,1632,1632,1632,1632,1632,1632,1639,1639,1647,1647,1655,1655,1655,1663,1671,1671,1680,1680,1680,1680,1680,1680,1688,1688,1688,1688,1688,1688,1688,1688,1688,1688,1688,1688,1696,1696,1748,1757,1060,1060,1060,1060,1060,1057,1057,1054,1050,1050,1050,1050,1050,1050,1050,1054,1054,1057,1057,1057,1060,1060,1060,1060,1060,0,0,0,0,0,1696,1696,1696,1696,1696,1688,1688,1680,1680,1671,1671,1671,1663,1663,1663,1663,1655,1647,1647,1639,1639,1632,1632,1632,1632,1624,1624,1624,1624,1616,1609,1609,1609,1601,1601,1601,1594,1594,1594,1594,1586,1586,1572,1572,1564,1564,1564,1564,1557,1557,1550,1543,1543,1543,1543,1536,1536,1536,1529,1529,1523,1523,1516,1516,1516,1516,1509,1509,1509,1509,0,0,0,0,0,0,0,0,0,0,867,864,864,862,860,860,858,856,854,851,851,851,849,849,849,849,849,849,851,854,856,858,860,862,862,864,864,867,867,867,0,0,0,0,0,1410,1404,1404,1398,1398,1392,1392,1392,1387,1381,1381,1381,1376,1376,1376,1370,1370,1365,1365,1365,1359,1354,1354,1354,1349,1349,1349,1349,1349,1343,1343,1338,1338,1338,1333,1333,1328,1328,1328,1322,1322,1317,1317,1312,1312,1312,1307,1307,1307,1302,1297,1297,1292,1292,1292,1292,1288,1288,1283,1283,1283,1278,1278,1273,1273,1273,1273,1273,1268,1268,1264,1264,1259,1259,1255,1255,1250,1250,1250,1245,1245,1241,1241,1236,1236,1236,1236,1232,1232,1232,1227,1227,1223,1223,1219,1219,1219,1214,1214,1214,1210,1210,1206,1206,1202,1202,1197,1197,1197,1197,1193,1189,1189,1189,1185,1185,1185,1185,1181,1181,1177,1173,1173,1169,1169,1169,1169,1165,1165,1165,1161,1161,1157,1153,1153,1149,1149,1149,1149,1145,1145,1141,1141,1138,1138,1138,1138,1134,1134,1134,1134,1130,1126,1123,1123,1123,1119,1119,1119,1119,1115,1115,1112,1108,1108,1108,1105,1105,1105,1101,1101,1101,1097,1097,1094,1094,1090,1090,1090,1090,1087,1087,1087,1084,1080,1080,1080,1080,1080,1077,1077,1077,1073,1070,1070,1067,1067,1063,1063,1063,1063,1060,1060,1060,1057,1057,1057,1054,1054,1050,1050,1047,1044,1044,1044,1041,1041,1041,1041,1038,1038,1038,1038,1034,1034,1031,1031,1031,1028,1028,1028,1025,1025,1022,1022,1019,1019,1016,1016,1016,1013,1013,1013,1013,1010,1007,1007,1007,1004,1004,1004,1004,1001,1001,1001,1001,1001,998,998,995,992,992,992,989,989,989,987,984,981,978,978,978,975,975,975,973,973,970,970,970,970,970,967,967,967,0,0,0,0,0,0,0,0,0,0,0,0,0,0,0,0,0,0,0,0,0,0,0,0,0,0,0,0,0,0
0,0,0,0,0,0,0,0,0,0,0,0,0,0,1579,1579,1579,1579,1579,1579,1572,1572,1572,1572,1564,1564,1564,1564,1564,1557,1557,1557,1543,1543,1550,1543,1543,1543,1543,1543,1543,1543,1536,1536,1536,1536,1536,1536,1536,1536,1536,1536,1536,1536,1536,1536,1536,1536,1536,1536,1536,1536,1536,1536,1536,1543,1543,1557,1557,1557,1557,1557,1550,1550,1550,1550,2198,2198,2198,2184,2170,2170,2170,2170,2156,2143,2143,2143,2103,2103,2103,2103,1543,1543,1543,1543,1543,1543,1543,1543,1543,1543,1543,1550,1550,1557,1557,1557,1564,1564,1564,1564,1564,1564,1564,1564,1564,1572,1572,1579,1579,1586,1594,1594,1594,1594,1594,1594,1594,1601,1601,1601,1601,1609,1609,1616,1616,1624,1624,1624,1632,1632,1632,1632,1632,1632,1632,1632,1639,1639,1647,1655,1655,1655,1655,1663,1671,1671,1680,1680,1680,1680,1680,1680,1688,1688,1688,1688,1688,1688,1688,1696,1696,1696,1696,1696,1696,1705,1748,1757,1060,1060,1060,1060,1060,1057,1057,1054,1054,1050,1050,1050,1050,1050,1050,1054,1057,1057,1057,1057,1060,1060,1060,1060,1060,1060,0,0,0,0,1705,1696,1696,1696,1696,1688,1688,1680,1680,1671,1671,1671,1663,1663,1663,1663,1655,1655,1655,1647,1639,1632,1632,1632,1632,1624,1624,1624,1624,1616,1609,1609,1609,1601,1601,1601,1601,1594,1594,1594,1586,1586,1572,1572,1564,1564,1564,1564,1557,1557,1550,1543,1543,1543,1543,1536,1536,1536,1529,1529,1523,1523,1516,1516,1516,1516,1509,1509,1509,1516,0,0,0,0,0,0,0,0,0,0,867,867,864,862,860,860,858,856,854,851,851,851,851,851,849,849,849,849,851,854,856,858,860,862,862,864,867,867,867,867,0,0,0,0,0,1415,1410,1404,1398,1398,1398,1392,1392,1387,1381,1381,1381,1376,1376,1376,1370,1370,1370,1365,1365,1365,1354,1354,1354,1349,1349,1349,1349,1349,1343,1343,1338,1338,1338,1338,1333,1333,1328,1328,1322,1322,1317,1317,1312,1312,1312,1307,1307,1307,1302,1297,1297,1292,1292,1292,1292,1288,1288,1288,1283,1283,1278,1278,1273,1273,1273,1273,1273,1268,1268,1264,1264,1259,1259,1255,1255,1250,1250,1250,1250,1245,1245,1241,1241,1241,1236,1236,1236,1236,1232,1227,1227,1223,1223,1223,1219,1219,1214,1214,1214,1214,1210,1210,1206,1202,1202,1197,1197,1197,1197,1193,1189,1189,1189,1189,1185,1185,1185,1181,1181,1177,1173,1173,1169,1169,1169,1169,1165,1165,1165,1161,1161,1157,1153,1153,1149,1149,1149,1149,1145,1145,1145,1141,1138,1138,1138,1138,1138,1134,1134,1134,1130,1130,1126,1123,1123,1119,1119,1119,1119,1115,1115,1112,1108,1108,1108,1108,1105,1105,1105,1101,1101,1101,1097,1097,1094,1094,1090,1090,1090,1090,1087,1087,1087,1080,1080,1080,1080,1080,1077,1077,1077,1073,1070,1070,1067,1067,1063,1063,1063,1063,1060,1060,1060,1057,1057,1057,1054,1054,1050,1050,1047,1044,1044,1044,1041,1041,1041,1041,1038,1038,1038,1038,1038,1034,1031,1031,1031,1031,1028,1028,1025,1025,1022,1022,1019,1019,1019,1016,1016,1016,1016,1013,1013,1010,1007,1007,1007,1004,1004,1004,1004,1004,1001,1001,1001,1001,1001,998,995,992,992,992,989,989,989,987,987,984,981,981,978,978,975,975,975,973,973,970,970,970,970,967,967,967,0,0,0,0,0,0,0,0,0,0,0,0,0,0,0,0,0,0,0,0,0,0,0,0,0,0,0,0,0,0
0,0,0,0,0,0,0,0,0,0,0,0,0,0,1586,1579,1579,1579,1579,1579,1579,1572,1572,1572,1564,1564,1564,1564,1564,1557,1557,1557,1557,1557,1557,1543,1543,1543,1543,1543,1536,1536,1536,1536,1536,1536,1536,1536,1536,1536,1536,1536,1536,1536,1536,1536,1536,1536,1536,1536,1536,1536,1536,1536,1536,1543,1543,1557,1557,1557,1557,1557,1550,1550,1550,1550,2184,2184,2184,2170,2156,2156,2156,2156,2143,2129,2129,2129,2116,2103,2103,2103,1557,1550,1550,1543,1543,1543,1543,1543,1543,1543,1543,1550,1550,1550,1557,1557,1564,1564,1564,1564,1564,1572,1572,1572,1572,1572,1579,1579,1579,1579,1594,1594,1594,1594,1594,1594,1594,1594,1601,1601,1601,1609,1609,1609,1616,1624,1624,1632,1632,1632,1632,1632,1632,1632,1632,1632,1639,1639,1647,1655,1655,1663,1663,1663,1671,1671,1680,1680,1680,1688,1688,1688,1688,1688,1688,1688,1688,1688,1688,1696,1696,1696,1696,1696,1705,1705,1713,1757,1063,1063,1063,1060,1060,1057,1057,1057,1054,1054,1050,1050,1050,1050,1054,1054,1057,1057,1057,1057,1060,1060,1060,1060,1060,1060,0,0,0,0,1696,1696,1696,1696,1696,1688,1688,1688,1680,1680,1671,1671,1663,1663,1663,1663,1655,1655,1655,1655,1647,1639,1632,1632,1632,1624,1624,1624,1624,1616,1616,1609,1609,1601,1601,1601,1601,1601,1594,1594,1586,1579,1572,1572,1564,1564,1564,1564,1564,1557,1557,1550,1550,1543,1543,1543,1536,1536,1536,1529,1529,1523,1523,1523,1516,1516,1509,1509,1509,1516,0,0,0,0,0,0,0,0,0,0,869,867,864,862,862,860,858,856,854,854,851,851,851,851,849,849,849,851,851,854,856,858,860,862,862,864,867,867,867,867,0,0,0,0,0,1415,1410,1404,1398,1398,1392,1392,1392,1387,1381,1381,1381,1376,1376,1376,1376,1370,1370,1370,1370,1365,1354,1354,1354,1354,1349,1349,1349,1349,1343,1343,1338,1338,1338,1338,1333,1333,1333,1328,1328,1322,1317,1312,1312,1312,1312,1312,1307,1307,1302,1302,1297,1297,1292,1292,1292,1288,1288,1288,1288,1283,1283,1283,1278,1278,1278,1273,1273,1268,1268,1268,1264,1264,1264,1259,1255,1255,1250,1250,1250,1250,1245,1245,1241,1241,1236,1236,1236,1236,1232,1227,1227,1223,1223,1223,1219,1219,1219,1214,1214,1214,1214,1210,1210,1202,1202,1202,1197,1197,1197,1193,1193,1189,1189,1189,1189,1185,1185,1181,1181,1177,1177,1173,1173,1173,1169,1169,1165,1165,1165,1161,1161,1157,1153,1153,1149,1149,1149,1149,1145,1145,1145,1141,1141,1138,1138,1138,1138,1138,1134,1134,1134,1130,1126,1123,1123,1123,1119,1119,1119,1119,1115,1112,1108,1108,1108,1108,1105,1105,1105,1101,1101,1101,1097,1097,1094,1090,1090,1090,1090,1087,1087,1087,1084,1084,1080,1080,1080,1080,1077,1077,1077,1073,1070,1070,1067,1067,1067,1063,1063,1063,1063,1060,1060,1057,1057,1057,1054,1054,1050,1050,1047,1044,1044,1044,1044,1041,1041,1041,1041,1041,1041,1038,1038,1034,1031,1031,1031,1031,1028,1028,1025,1025,1022,1022,1019,1019,1019,1016,1016,1016,1016,1013,1013,1010,1010,1007,1007,1007,1007,1007,1004,1004,1004,1001,1001,1001,1001,998,995,995,992,992,989,989,989,989,987,984,981,981,978,978,975,975,975,975,973,973,970,970,970,967,967,967,0,0,0,0,0,0,0,0,0,0,0,0,0,0,0,0,0,0,0,0,0,0,0,0,0,0,0,0,0,0
0,0,0,0,0,0,0,0,0,0,0,0,0,0,1586,1579,1579,1586,1579,1579,1579,1572,1572,1572,1564,1564,1564,1564,1564,1557,1557,1557,1550,1550,1550,1543,1543,1543,1543,1543,1536,1536,1536,1536,1536,1536,1536,1543,1543,1543,1543,1543,1543,1543,1543,1543,1536,1536,1536,1536,1536,1536,1536,1536,1536,1543,1543,1550,1557,1557,1557,1557,1550,1550,1550,1550,2184,2184,2156,2156,2129,2103,2103,2103,2103,2090,2090,2090,2078,2065,2053,2053,1557,1557,1550,1543,1543,1543,1543,1543,1543,1543,1543,1550,1550,1550,1557,1557,1564,1564,1564,1564,1572,1572,1572,1572,1572,1579,1579,1579,1579,1579,1594,1594,1594,1594,1594,1594,1594,1594,1601,1601,1609,1609,1609,1609,1616,1624,1624,1632,1632,1632,1632,1632,1632,1632,1632,1632,1639,1639,1647,1655,1655,1663,1663,1663,1671,1671,1680,1680,1680,1688,1688,1688,1688,1688,1688,1696,1696,1696,1696,1696,1696,1696,1705,1705,1705,1705,1713,1757,1063,1060,1060,1063,1060,1057,1057,1057,1054,1054,1050,1050,1050,1050,1050,1054,1054,1057,1057,1057,1060,1060,1060,1060,1060,1063,0,0,0,0,1696,1696,1696,1696,1696,1688,1688,1688,1680,1680,1671,1671,1663,1663,1663,1663,1655,1655,1655,1655,1647,1639,1639,1632,1632,1624,1624,1624,1624,1616,1616,1616,1609,1609,1601,1601,1601,1601,1594,1594,1586,1579,1572,1572,1572,1572,1564,1564,1564,1564,1557,1550,1550,1543,1543,1543,1536,1536,1536,1529,1529,1529,1523,1523,1523,1516,1516,1516,1516,1523,0,0,0,0,0,0,0,0,0,0,869,867,864,862,862,860,858,856,856,854,854,851,851,851,851,851,851,851,851,854,856,858,860,862,862,864,867,867,867,867,0,0,0,0,0,1415,1410,1404,1398,1398,1392,1392,1392,1387,1381,1381,1381,1376,1376,1376,1376,1370,1370,1370,1370,1365,1359,1354,1354,1354,1354,1349,1349,1349,1349,1343,1343,1343,1338,1338,1338,1333,1333,1328,1328,1322,1317,1312,1312,1312,1312,1312,1307,1307,1302,1302,1297,1297,1297,1292,1292,1292,1288,1288,1288,1288,1283,1283,1278,1278,1278,1273,1273,1273,1268,1268,1268,1264,1264,1259,1255,1255,1250,1250,1250,1250,1245,1245,1241,1241,1241,1236,1236,1236,1232,1227,1227,1223,1223,1223,1223,1219,1219,1219,1214,1214,1214,1214,1210,1206,1206,1202,1202,1197,1197,1197,1193,1193,1193,1193,1189,1189,1185,1185,1181,1181,1177,1177,1173,1173,1169,1169,1169,1169,1165,1165,1165,1157,1153,1153,1149,1149,1149,1145,1145,1141,1141,1141,1141,1138,1138,1138,1138,1134,1134,1134,1134,1130,1126,1123,1123,1123,1119,1119,1119,1119,1115,1112,1108,1108,1108,1108,1105,1105,1105,1101,1101,1101,1097,1097,1094,1090,1090,1090,1090,1087,1087,1087,1084,1084,1080,1080,1080,1080,1080,1077,1077,1073,1073,1070,1067,1067,1067,1063,1063,1063,1060,1060,1060,1057,1057,1057,1057,1054,1054,1050,1050,1047,1047,1047,1044,1044,1041,1041,1041,1041,1041,1038,1038,1038,1034,1031,1031,1031,1028,1028,1025,1025,1022,1022,1019,1019,1019,1016,1016,1016,1016,1013,1013,1010,1010,1007,1007,1007,1007,1007,1004,1004,1004,1001,1001,1001,1001,998,995,995,992,992,989,989,989,989,987,984,981,981,978,978,978,978,975,975,973,973,973,970,970,967,967,967,0,0,0,0,0,0,0,0,0,0,0,0,0,0,0,0,0,0,0,0,0,0,0,0,0,0,0,0,0,0
0,0,0,0,0,0,0,0,0,0,0,0,0,0,1594,1586,1586,1586,1579,1579,1579,1572,1572,1564,1564,1564,1564,1564,1564,1557,1557,1557,1550,1550,1550,1543,1543,1543,1543,1543,1543,1543,1543,1543,1543,1536,1536,1543,1543,1536,1536,1543,1543,1543,1543,1543,1543,1543,1543,1536,1536,1536,1536,1536,1536,1543,1543,1550,1557,1557,1557,1550,1550,1550,1550,1550,2103,2103,2103,2090,2090,2090,2090,2103,2090,2090,2090,2090,2078,2065,1564,1564,1557,1557,1550,1543,1543,1543,1543,1543,1543,1543,1543,1550,1550,1550,1550,1557,1557,1564,1564,1572,1572,1572,1572,1572,1572,1579,1579,1579,1579,1579,1586,1594,1594,1594,1594,1594,1594,1594,1601,1601,1609,1609,1616,1616,1624,1624,1624,1632,1632,1632,1632,1632,1632,1632,1632,1632,1639,1639,1647,1655,1655,1663,1663,1663,1671,1671,1680,1680,1680,1688,1688,1688,1688,1688,1688,1696,1696,1696,1696,1696,1696,1696,1696,1705,1705,1705,1705,1705,1060,1060,1060,1063,1060,1060,1057,1057,1054,1054,1050,1050,1050,1050,1050,1054,1054,1057,1057,1057,1060,1060,1060,1060,1060,1063,0,0,0,0,0,1696,1696,1696,1696,1688,1688,1688,1680,1680,1671,1671,1663,1663,1663,1663,1663,1655,1655,1655,1647,1639,1639,1639,1632,1632,1624,1624,1624,1616,1616,1609,1609,1601,1601,1601,1601,1601,1594,1594,1594,1579,1579,1572,1572,1572,1572,1564,1564,1564,1557,1557,1550,1550,1543,1543,1543,1536,1536,1536,1529,1529,1523,1523,1523,1516,1516,1516,1516,1523,0,0,0,0,0,0,0,0,0,0,869,867,864,862,862,860,858,858,856,854,854,854,851,851,851,851,851,851,851,856,856,858,860,862,864,864,867,867,867,867,0,0,0,0,1415,1415,1410,1410,1404,1398,1398,1392,1392,1387,1381,1381,1381,1376,1376,1376,1376,1370,1370,1370,1370,1365,1365,1359,1359,1354,1354,1354,1349,1349,1349,1349,1343,1343,1343,1338,1338,1333,1333,1333,1328,1328,1322,1317,1312,1312,1312,1312,1312,1307,1307,1307,1302,1297,1297,1292,1292,1292,1288,1288,1288,1288,1283,1283,1278,1278,1278,1273,1273,1273,1268,1268,1268,1264,1264,1259,1255,1255,1255,1250,1250,1250,1245,1245,1245,1241,1241,1236,1236,1236,1232,1227,1227,1223,1223,1223,1223,1219,1219,1219,1214,1214,1214,1214,1210,1210,1206,1206,1202,1202,1197,1197,1193,1193,1189,1189,1189,1189,1185,1185,1181,1181,1181,1177,1173,1173,1169,1169,1169,1169,1165,1165,1165,1161,1157,1153,1149,1149,1149,1145,1145,1141,1141,1141,1141,1138,1138,1138,1138,1134,1134,1134,1134,1130,1126,1126,1123,1123,1123,1119,1119,1119,1115,1115,1112,1108,1108,1108,1108,1105,1105,1105,1101,1101,1097,1097,1094,1090,1090,1090,1090,1090,1087,1087,1084,1084,1080,1080,1080,1080,1077,1077,1077,1073,1073,1070,1070,1067,1067,1063,1063,1063,1060,1060,1060,1057,1057,1057,1057,1054,1054,1054,1050,1047,1047,1047,1044,1044,1044,1041,1041,1041,1041,1038,1038,1038,1034,1031,1031,1031,1028,1028,1028,1025,1022,1022,1019,1019,1019,1016,1016,1016,1016,1013,1013,1013,1010,1010,1010,1010,1007,1007,1007,1004,1004,1004,1001,1001,1001,998,995,995,992,992,992,992,989,989,987,984,981,981,978,978,978,978,978,975,975,973,973,970,970,967,967,967,0,0,0,0,0,0,0,0,0,0,0,0,0,0,0,0,0,0,0,0,0,0,0,0,0,0,0,0,0,0
0,0,0,0,0,0,0,0,0,0,0,0,0,0,1594,1586,1586,1586,1579,1572,1572,1572,1564,1564,1564,1564,1564,1564,1564,1557,1557,1557,1550,1550,1550,1550,1550,1550,1550,1543,1543,1543,1543,1543,1543,1536,1536,1543,1543,1536,1536,1543,1536,1536,1543,1543,1543,1543,1543,1536,1536,1536,1536,1543,1543,1550,1550,1557,1557,1564,1557,1550,1550,1550,1557,2078,2065,2065,2103,2090,2090,2090,2090,2103,2090,2090,2090,2090,2078,2065,1564,1564,1557,1557,1550,1543,1543,1543,1543,1543,1543,1543,1543,1543,1550,1550,1550,1550,1557,1564,1564,1564,1564,1572,1572,1572,1572,1579,1579,1579,1579,1579,1586,1586,1594,1594,1594,1594,1594,1594,1601,1601,1609,1609,1616,1616,1624,1624,1624,1632,1632,1632,1632,1632,1632,1632,1639,1639,1639,1647,1655,1655,1655,1663,1663,1671,1671,1671,1680,1680,1680,1688,1688,1688,1688,1688,1688,1696,1696,1696,1696,1696,1696,1696,1696,1705,1705,1705,1705,1705,1060,1060,1060,1060,1060,1060,1057,1057,1057,1054,1054,1050,1050,1050,1050,1054,1057,1057,1057,1060,1060,1060,1060,1063,1063,1063,0,0,0,0,0,1696,1696,1696,1696,1688,1688,1688,1688,1680,1671,1671,1663,1663,1663,1663,1663,1655,1655,1655,1655,1647,1647,1639,1632,1632,1624,1624,1624,1616,1616,1609,1609,1601,1601,1601,1601,1601,1594,1594,1594,1579,1579,1572,1572,1572,1572,1572,1564,1564,1564,1557,1557,1550,1550,1543,1543,1536,1536,1536,1529,1529,1523,1523,1523,1523,1516,1516,1523,1523,1529,0,0,0,0,0,0,0,0,0,0,867,867,864,862,860,858,858,856,856,854,854,854,851,851,851,851,851,851,856,856,858,860,862,864,864,867,867,867,0,0,0,0,0,1415,1415,1410,1410,1404,1398,1398,1398,1392,1387,1381,1381,1381,1376,1376,1376,1376,1376,1370,1370,1370,1365,1365,1359,1359,1354,1354,1354,1354,1349,1349,1349,1343,1343,1343,1338,1338,1333,1333,1333,1328,1328,1322,1317,1317,1312,1312,1312,1312,1307,1307,1307,1307,1302,1297,1297,1292,1292,1292,1292,1288,1288,1288,1283,1283,1283,1278,1278,1273,1273,1268,1268,1268,1264,1264,1259,1255,1255,1255,1250,1250,1250,1250,1245,1245,1241,1241,1236,1236,1236,1232,1227,1227,1227,1227,1227,1223,1223,1219,1219,1214,1214,1214,1214,1210,1210,1210,1206,1202,1202,1197,1197,1193,1193,1189,1189,1189,1185,1185,1185,1185,1181,1181,1177,1177,1173,1173,1169,1169,1169,1169,1165,1165,1161,1157,1153,1153,1153,1149,1149,1145,1145,1145,1145,1141,1141,1138,1138,1138,1134,1134,1134,1134,1130,1126,1126,1123,1123,1123,1119,1119,1119,1115,1115,1112,1112,1112,1108,1108,1108,1105,1105,1101,1101,1097,1097,1094,1094,1094,1090,1090,1090,1087,1087,1084,1084,1080,1080,1080,1080,1077,1077,1077,1073,1073,1070,1070,1067,1067,1063,1063,1063,1063,1060,1060,1060,1060,1057,1057,1054,1054,1054,1050,1050,1050,1050,1047,1047,1044,1044,1041,1041,1041,1041,1038,1038,1034,1031,1031,1031,1031,1028,1028,1025,1025,1025,1022,1019,1019,1016,1016,1016,1016,1013,1013,1013,1013,1010,1010,1010,1010,1007,1007,1004,1004,1004,1001,1001,1001,998,995,995,992,992,992,992,989,989,987,984,981,981,981,981,978,978,978,978,975,973,973,970,970,967,967,967,0,0,0,0,0,0,0,0,0,0,0,0,0,0,0,0,0,0,0,0,0,0,0,0,0,0,0,0,0,0
0,0,0,0,0,0,0,0,0,0,0,0,0,0,1586,1586,1586,1579,1572,1572,1572,1572,1564,1564,1564,1564,1564,1564,1564,1557,1557,1557,1550,1550,1550,1550,1550,1550,1550,1543,1543,1543,1543,1543,1543,1543,1543,1543,1543,1536,1536,1543,1536,1536,1543,1543,1543,1543,1543,1536,1536,1536,1543,1543,1543,1550,1550,1557,1557,1564,1564,1550,1550,1550,1550,2078,2065,2065,2078,2078,2090,2090,2090,2090,2090,2090,2090,2090,2078,1564,1564,1564,1557,1557,1550,1550,1543,1543,1543,1543,1543,1543,1543,1543,1543,1550,1550,1550,1557,1557,1557,1564,1564,1572,1572,1572,1572,1579,1579,1579,1579,1579,1579,1586,1594,1594,1594,1594,1594,1601,1601,1601,1609,1616,1616,1616,1624,1624,1632,1632,1639,1639,1639,1639,1639,1639,1639,1639,1639,1647,1655,1655,1655,1663,1663,1671,1671,1671,1680,1680,1680,1688,1688,1688,1688,1688,1688,1696,1696,1696,1696,1696,1696,1696,1696,1705,1696,1696,1696,1060,1060,1060,1060,1060,1060,1060,1057,1057,1057,1054,1050,1050,1050,1050,1050,1050,1057,1057,1057,1060,1060,1063,1063,1063,1063,1063,0,0,0,0,1705,1696,1696,1696,1696,1688,1688,1688,1688,1680,1680,1671,1663,1663,1663,1663,1663,1663,1663,1655,1655,1647,1647,1639,1632,1632,1632,1624,1624,1624,1616,1609,1609,1601,1601,1601,1601,1594,1594,1594,1594,1586,1579,1579,1572,1572,1572,1572,1564,1564,1564,1557,1557,1550,1550,1543,1543,1543,1536,1536,1536,1529,1529,1529,1523,1523,1523,1523,1523,1529,1529,0,0,0,0,0,0,0,0,0,0,867,867,864,864,860,860,858,856,856,854,854,854,851,851,851,851,854,854,858,858,860,860,862,864,864,867,867,867,0,0,0,0,0,1415,1415,1410,1410,1404,1398,1398,1398,1392,1387,1387,1381,1381,1381,1376,1376,1376,1376,1370,1370,1370,1370,1365,1359,1359,1354,1354,1354,1354,1349,1349,1349,1349,1343,1343,1338,1338,1333,1333,1333,1328,1328,1322,1322,1317,1317,1312,1312,1312,1312,1307,1307,1307,1302,1302,1297,1292,1292,1292,1292,1288,1288,1288,1283,1283,1283,1278,1278,1273,1273,1268,1268,1268,1268,1264,1259,1259,1255,1255,1250,1250,1250,1245,1245,1245,1241,1241,1236,1236,1236,1232,1227,1227,1227,1227,1227,1227,1223,1223,1219,1219,1219,1214,1214,1214,1210,1210,1206,1202,1202,1202,1197,1197,1193,1193,1189,1189,1185,1185,1185,1185,1181,1181,1181,1177,1177,1173,1173,1169,1169,1169,1165,1165,1161,1161,1157,1157,1153,1153,1149,1149,1145,1145,1145,1145,1141,1138,1138,1138,1138,1134,1134,1134,1130,1130,1126,1126,1123,1123,1123,1119,1119,1115,1115,1112,1112,1112,1112,1108,1108,1105,1105,1101,1101,1097,1097,1094,1094,1094,1090,1090,1090,1087,1087,1084,1084,1080,1080,1080,1080,1080,1077,1077,1073,1073,1070,1070,1067,1067,1063,1063,1063,1063,1060,1060,1060,1060,1057,1057,1057,1054,1054,1054,1050,1050,1050,1047,1047,1047,1044,1041,1041,1041,1038,1038,1038,1034,1031,1031,1031,1031,1028,1028,1028,1025,1025,1025,1022,1022,1019,1019,1016,1016,1013,1013,1013,1013,1010,1010,1010,1010,1007,1007,1004,1004,1004,1001,1001,1001,998,995,995,995,992,992,992,992,989,989,987,984,984,984,981,978,978,978,978,975,975,973,970,970,970,967,967,0,0,0,0,0,0,0,0,0,0,0,0,0,0,0,0,0,0,0,0,0,0,0,0,0,0,0,0,0,0
0,0,0,0,0,0,0,0,0,0,0,0,0,0,1586,1586,1586,1579,1572,1572,1572,1572,1564,1564,1564,1564,1564,1564,1564,1564,1557,1557,1557,1557,1557,1557,1557,1557,1557,1550,1550,1550,1550,1543,1543,1543,1543,1543,1543,1536,1536,1543,1536,1536,1543,1543,1543,1543,1543,1536,1536,1536,1543,1536,1536,1543,1557,1557,1557,1564,1557,1557,1550,1550,1550,2078,2078,2078,2078,2078,2078,2090,2090,2090,2090,2090,2090,2078,2078,1564,1564,1564,1557,1557,1557,1550,1550,1543,1543,1543,1543,1543,1543,1543,1543,1550,1550,1557,1557,1557,1557,1564,1564,1572,1572,1572,1579,1579,1579,1579,1579,1579,1579,1586,1594,1594,1594,1594,1601,1601,1609,1609,1609,1616,1616,1624,1624,1632,1632,1632,1639,1639,1639,1639,1639,1639,1639,1639,1639,1647,1655,1655,1663,1663,1663,1671,1671,1671,1680,1680,1680,1688,1688,1688,1688,1688,1688,1696,1696,1696,1696,1696,1696,1696,1696,1696,1696,1696,1696,0,1060,1060,1060,1060,1060,1060,1060,1057,1057,1054,1050,1050,1050,1050,1050,1050,1057,1057,1060,1063,1063,1063,1063,1063,1063,0,0,0,1696,0,1705,1705,1696,1696,1696,1696,1688,1688,1688,1688,1680,1671,1663,1663,1663,1663,1663,1663,1663,1655,1655,1647,1647,1639,1639,1632,1632,1624,1624,1624,1616,1616,1609,1601,1601,1601,1601,1594,1594,1594,1594,1586,1579,1579,1572,1572,1572,1572,1564,1564,1564,1564,1564,1557,1557,1550,1543,1543,1543,1536,1536,1529,1529,1529,1523,1523,1523,1523,1523,0,0,0,0,0,0,0,0,0,0,0,0,867,867,867,864,860,860,858,858,856,854,854,854,851,851,851,851,854,854,858,860,862,862,864,864,864,867,867,869,0,0,0,1421,1415,1415,1415,1410,1410,1404,1398,1398,1398,1392,1392,1387,1387,1381,1381,1376,1376,1376,1376,1370,1370,1370,1370,1365,1365,1359,1359,1359,1354,1354,1354,1354,1349,1349,1343,1343,1338,1338,1333,1333,1333,1328,1328,1328,1322,1317,1317,1317,1312,1312,1312,1312,1307,1307,1307,1302,1297,1297,1292,1292,1292,1288,1288,1288,1288,1283,1283,1283,1278,1273,1273,1273,1268,1268,1268,1264,1264,1259,1255,1255,1250,1250,1250,1245,1245,1245,1241,1241,1241,1236,1236,1232,1232,1232,1227,1227,1227,1223,1223,1223,1219,1219,1219,1214,1214,1214,1210,1210,1206,1206,1202,1202,1197,1197,1193,1193,1189,1189,1185,1185,1185,1185,1181,1181,1181,1181,1177,1173,1173,1169,1169,1169,1165,1165,1165,1161,1161,1161,1157,1153,1153,1149,1149,1149,1149,1145,1141,1138,1138,1138,1138,1134,1134,1134,1134,1130,1126,1126,1123,1123,1123,1119,1119,1119,1115,1115,1115,1112,1112,1108,1108,1108,1105,1101,1101,1097,1097,1094,1094,1094,1090,1090,1090,1087,1087,1087,1084,1084,1080,1080,1080,1080,1077,1077,1073,1073,1073,1070,1067,1067,1063,1063,1063,1063,1060,1060,1060,1060,1057,1057,1057,1054,1054,1054,1050,1050,1050,1050,1047,1047,1044,1044,1041,1041,1038,1038,1038,1034,1034,1031,1031,1031,1028,1028,1028,1025,1025,1025,1022,1022,1019,1019,1016,1016,1016,1016,1013,1013,1010,1010,1010,1010,1010,1007,1004,1004,1004,1001,1001,1001,998,995,995,995,992,992,992,992,989,989,987,987,984,984,981,981,978,978,978,978,975,975,973,970,970,967,967,0,0,0,0,0,0,0,0,0,0,0,0,0,0,0,0,0,0,0,0,0,0,0,0,0,0,0,0,0,0
0,0,0,0,0,0,0,0,0,0,0,0,0,0,1586,1586,1579,1579,1572,1572,1572,1572,1572,1572,1564,1564,1564,1564,1564,1564,1557,1557,1557,1557,1557,1557,1557,1557,1557,1550,1550,1550,1550,1543,1543,1543,1543,1543,1543,1543,1543,1543,1543,1543,1543,1543,1543,1543,1543,1536,1536,1536,1536,1536,1536,1543,1557,1557,1557,1557,1557,1557,1557,1557,1557,2078,2078,2078,2078,2078,2078,2090,2090,2090,2078,2078,2090,2078,2078,1572,1564,1564,1557,1557,1550,1550,1550,1543,1543,1543,1543,1543,1543,1543,1543,1550,1550,1557,1557,1557,1557,1564,1564,1572,1572,1579,1579,1579,1586,1586,1586,1586,1586,1586,1594,1594,1594,1594,1601,1601,1609,1609,1609,1616,1616,1624,1624,1624,1624,1632,1632,1632,1639,1639,1639,1639,1639,1639,1647,1647,1655,1655,1663,1663,1663,1671,1671,1671,1671,1671,1680,1680,1688,1688,1688,1696,1696,1696,1696,1696,1696,1696,1696,1696,1696,1696,1696,1696,1696,0,1060,1060,1060,1060,1060,1057,1057,1057,1057,1054,1054,1054,1054,1050,1050,1050,1057,1057,1060,1063,1063,1063,1063,1063,1063,0,0,0,1696,1696,1696,1696,1696,1696,1696,1696,1696,1688,1688,1688,1680,1680,1671,1671,1663,1663,1663,1663,1663,1663,1655,1655,1647,1639,1639,1632,1632,1624,1624,1624,1616,1616,1609,1609,1601,1601,1594,1594,1594,1594,1594,1586,1586,1579,1579,1579,1572,1572,1564,1564,1564,1564,1564,1557,1557,1550,1550,1543,1543,1536,1536,1536,1529,1529,1529,1523,1523,1523,1523,0,0,0,0,0,0,0,0,0,0,0,0,867,867,867,864,862,860,858,858,856,854,854,854,851,851,851,851,854,854,858,860,862,862,864,864,864,867,867,0,0,0,0,1421,1415,1415,1415,1410,1410,1404,1404,1398,1398,1398,1392,1387,1387,1381,1381,1376,1376,1376,1376,1376,1370,1370,1370,1365,1365,1365,1359,1359,1359,1354,1354,1354,1349,1349,1343,1343,1338,1338,1333,1333,1333,1328,1328,1328,1322,1322,1317,1317,1317,1312,1312,1312,1307,1307,1307,1307,1302,1297,1297,1292,1292,1292,1288,1288,1288,1283,1283,1283,1278,1273,1273,1273,1268,1268,1268,1268,1259,1259,1255,1255,1250,1250,1250,1245,1245,1245,1241,1241,1241,1236,1236,1232,1232,1232,1227,1227,1227,1223,1223,1223,1219,1219,1219,1219,1214,1214,1214,1210,1206,1206,1202,1202,1197,1197,1197,1193,1193,1189,1189,1185,1185,1185,1185,1181,1181,1181,1177,1173,1173,1169,1169,1169,1165,1165,1165,1165,1161,1161,1157,1153,1153,1149,1149,1149,1149,1145,1141,1138,1138,1138,1138,1134,1134,1134,1134,1134,1130,1126,1126,1123,1123,1119,1119,1119,1119,1115,1115,1112,1112,1112,1108,1105,1105,1101,1101,1101,1097,1094,1094,1094,1090,1090,1090,1090,1087,1087,1087,1084,1084,1080,1080,1080,1077,1077,1077,1077,1073,1070,1070,1067,1067,1063,1063,1063,1063,1063,1060,1060,1057,1057,1057,1054,1054,1054,1050,1050,1050,1050,1047,1047,1044,1044,1044,1041,1038,1038,1038,1034,1034,1034,1034,1031,1031,1028,1028,1028,1025,1025,1022,1022,1019,1019,1016,1016,1016,1016,1016,1013,1013,1013,1013,1013,1010,1007,1007,1004,1004,1001,1001,1001,998,998,998,995,995,992,992,992,992,989,989,987,987,984,984,981,981,978,978,978,975,975,973,970,970,970,970,0,0,0,0,0,0,0,0,0,0,0,0,0,0,0,0,0,0,0,0,0,0,0,0,0,0,0,0,0,0
0,0,0,0,0,0,0,0,0,0,0,0,0,0,1586,1586,1579,1579,1572,1572,1572,1572,1572,1572,1572,1572,1564,1564,1564,1564,1564,1564,1564,1557,1557,1564,1564,1564,1557,1550,1550,1557,1557,1550,1550,1543,1543,1543,1543,1543,1543,1543,1543,1543,1543,1543,1543,1543,1543,1536,1536,1536,1536,1536,1536,1543,1543,1557,1550,1550,1557,1557,1557,1557,1557,2116,2116,2090,2090,2090,2090,2078,2078,2090,2078,2078,2090,2078,2078,2078,2065,1550,1550,1550,1550,1550,1543,1543,1543,1543,1543,1543,1543,1543,1550,1550,1550,1557,1557,1557,1557,1564,1564,1572,1572,1572,1579,1579,1586,1586,1586,1586,1586,1586,1594,1594,1594,1601,1601,1601,1609,1609,1609,1624,1624,1624,1624,1624,1624,1632,1632,1632,1639,1639,1639,1639,1639,1639,1647,1655,1655,1655,1663,1663,1663,1663,1671,1671,1671,1671,1671,1680,1688,1688,1688,1696,1696,1696,1696,1696,1705,1696,1696,1696,1696,1696,1696,1696,1696,0,1060,1060,1060,1060,1060,1057,1057,1057,1057,1054,1054,1054,1054,1054,1054,1054,1057,1060,1060,1063,1067,1063,1063,1063,0,1063,0,1696,1696,1696,1696,1696,1696,1696,1696,1696,1696,1688,1688,1680,1680,1671,1671,1663,1663,1663,1663,1663,1663,1663,1655,1655,1647,1647,1639,1639,1632,1632,1624,1624,1616,1609,1609,1609,1601,1601,1594,1594,1594,1594,1594,1586,1586,1586,1579,1579,1572,1572,1572,1564,1564,1564,1564,1564,1557,1557,1550,1543,1543,1543,1536,1536,1529,1529,1529,1523,1523,1523,1523,1529,0,0,0,0,0,0,0,0,0,0,0,867,867,867,864,862,860,860,858,856,854,854,854,851,851,851,851,854,856,858,860,862,862,864,864,867,867,867,0,0,0,0,1421,1415,1415,1415,1410,1410,1404,1404,1398,1398,1398,1392,1392,1387,1387,1381,1381,1376,1376,1376,1376,1370,1370,1370,1370,1365,1365,1365,1359,1359,1359,1354,1354,1354,1349,1349,1343,1338,1338,1333,1333,1333,1328,1328,1328,1322,1322,1317,1317,1317,1312,1312,1312,1307,1307,1307,1307,1302,1297,1297,1292,1292,1292,1288,1288,1288,1283,1283,1283,1278,1278,1273,1273,1273,1268,1268,1264,1259,1259,1255,1255,1250,1250,1250,1250,1245,1245,1241,1241,1241,1236,1236,1232,1232,1232,1232,1227,1227,1227,1223,1223,1223,1219,1219,1219,1214,1214,1214,1210,1206,1206,1202,1202,1202,1197,1197,1197,1193,1189,1189,1185,1185,1185,1185,1181,1181,1181,1177,1173,1173,1173,1173,1169,1169,1165,1165,1165,1165,1161,1161,1157,1153,1153,1149,1149,1149,1145,1141,1138,1138,1138,1138,1134,1134,1134,1134,1134,1134,1130,1126,1126,1123,1123,1119,1119,1119,1119,1115,1115,1108,1108,1108,1105,1105,1105,1105,1101,1097,1094,1094,1094,1090,1090,1090,1090,1087,1087,1087,1087,1084,1084,1084,1080,1080,1077,1077,1077,1073,1073,1070,1070,1067,1067,1063,1063,1063,1063,1060,1060,1060,1057,1057,1054,1054,1054,1050,1050,1050,1050,1047,1047,1047,1044,1044,1041,1038,1038,1038,1038,1034,1034,1034,1034,1031,1031,1028,1028,1025,1025,1025,1022,1019,1019,1016,1016,1016,1016,1016,1016,1013,1013,1013,1013,1010,1010,1007,1004,1004,1004,1001,1001,1001,998,998,998,995,995,992,992,992,989,989,987,987,987,984,981,981,978,978,978,978,975,973,973,970,970,970,0,0,0,0,0,0,0,0,0,0,0,0,0,0,0,0,0,0,0,0,0,0,0,0,0,0,0,0,0,0
0,0,0,0,0,0,0,0,0,0,0,0,0,0,1586,1586,1586,1579,1572,1572,1572,1572,1572,1572,1572,1572,1564,1564,1564,1564,1564,1564,1564,1557,1557,1564,1564,1564,1557,1557,1557,1550,1550,1550,1550,1550,1550,1543,1543,1543,1543,1543,1543,1543,1543,1543,1550,1543,1543,1543,1536,1536,1536,1536,1536,1536,1543,1550,1550,1550,1557,1557,1557,1557,1557,1579,2090,2090,2090,2090,2090,2078,2078,2090,2078,2078,2090,2078,2065,2065,2065,1543,1543,1543,1550,1550,1543,1543,1543,1543,1543,1543,1543,1550,1550,1557,1557,1557,1557,1564,1564,1564,1564,1572,1572,1572,1579,1579,1586,1586,1586,1586,1586,1594,1594,1594,1594,1601,1601,1601,1609,1609,1616,1616,1616,1624,1624,1624,1624,1632,1632,1632,1632,1639,1639,1639,1639,1639,1647,1655,1655,1655,1663,1663,1663,1663,1671,1671,1671,1671,1671,1680,1680,1688,1688,1688,1688,1696,1696,1696,1696,1696,1696,1696,1696,1696,1696,1696,1696,0,1063,1063,1060,1060,1060,1060,1057,1057,1057,1054,1054,1054,1054,1054,1054,1054,1057,1060,1063,1063,1067,1067,1067,1067,0,0,0,1696,1696,1696,1696,1696,1696,1696,1696,1696,1688,1688,1688,1680,1680,1671,1671,1663,1663,1663,1663,1663,1663,1663,1663,1655,1655,1647,1639,1639,1632,1632,1632,1624,1616,1609,1609,1609,1601,1601,1594,1594,1594,1594,1594,1586,1586,1586,1586,1579,1572,1572,1572,1564,1564,1564,1564,1564,1557,1557,1550,1543,1543,1543,1536,1536,1529,1529,1529,1523,1523,1523,1523,1529,0,0,0,0,0,0,0,0,0,0,867,867,867,867,864,862,860,860,858,858,856,854,854,851,851,851,851,854,856,860,862,862,864,867,867,867,867,0,0,0,0,0,1421,1415,1415,1415,1415,1410,1410,1404,1398,1398,1398,1398,1392,1392,1387,1387,1381,1381,1376,1376,1376,1370,1370,1370,1370,1370,1365,1365,1365,1359,1359,1354,1354,1354,1349,1349,1343,1338,1338,1333,1333,1333,1328,1328,1328,1322,1322,1322,1322,1317,1317,1312,1312,1312,1312,1307,1307,1302,1297,1297,1292,1292,1292,1288,1288,1288,1288,1283,1283,1278,1278,1273,1273,1273,1268,1268,1264,1264,1264,1255,1255,1255,1250,1250,1250,1250,1245,1245,1241,1241,1236,1236,1236,1232,1232,1232,1232,1227,1227,1223,1223,1219,1219,1219,1214,1214,1214,1214,1210,1210,1206,1206,1202,1202,1202,1197,1197,1193,1189,1189,1189,1185,1185,1185,1185,1181,1181,1177,1177,1173,1173,1173,1169,1169,1165,1165,1165,1165,1161,1161,1157,1157,1153,1153,1149,1149,1145,1141,1141,1138,1138,1138,1138,1138,1134,1134,1134,1134,1134,1130,1126,1123,1123,1119,1119,1119,1119,1115,1115,1108,1108,1108,1108,1105,1105,1105,1101,1101,1097,1094,1094,1094,1094,1090,1090,1090,1090,1087,1087,1084,1084,1084,1080,1077,1077,1077,1077,1073,1073,1070,1070,1067,1067,1067,1063,1063,1063,1060,1057,1057,1057,1057,1054,1054,1054,1054,1050,1050,1050,1047,1047,1047,1044,1044,1041,1038,1038,1038,1038,1038,1034,1034,1034,1031,1031,1028,1028,1028,1025,1025,1022,1019,1019,1019,1016,1016,1016,1016,1016,1013,1013,1013,1013,1013,1010,1007,1004,1004,1004,1004,1001,1001,1001,1001,998,998,995,992,992,992,992,989,989,989,987,984,981,981,981,978,978,978,975,975,973,973,970,970,0,0,0,0,0,0,0,0,0,0,0,0,0,0,0,0,0,0,0,0,0,0,0,0,0,0,0,0,0,0
0,0,0,0,0,0,0,0,0,0,0,0,0,0,1586,1579,1579,1579,1572,1572,1572,1572,1572,1572,1572,1572,1564,1564,1572,1564,1564,1572,1564,1564,1564,1564,1564,1557,1557,1557,1557,1550,1550,1550,1550,1550,1550,1550,1550,1543,1543,1550,1543,1543,1543,1543,1550,1543,1543,1543,1543,1543,1536,1536,1536,1536,1543,1550,1550,1550,1557,1564,1564,1564,1564,1579,1579,2103,2103,2103,2090,2090,2090,2090,2090,2090,1731,1731,1731,1731,1543,1543,1543,1543,1550,1550,1550,1550,1550,1550,1543,1543,1550,1550,1557,1557,1557,1557,1564,1564,1564,1564,1572,1572,1572,1572,1579,1579,1586,1586,1586,1586,1594,1594,1594,1594,1601,1601,1601,1601,1609,1609,1616,1616,1616,1624,1624,1624,1624,1632,1632,1632,1632,1639,1639,1639,1647,1647,1655,1655,1655,1663,1663,1663,1663,1663,1671,1671,1671,1671,1671,1680,1680,1688,1688,1688,1688,1696,1696,1696,1696,1696,1696,1696,1696,1696,1696,1696,1696,0,1063,1063,1060,1060,1060,1057,1057,1057,1057,1057,1054,1054,1057,1057,1057,1057,1057,1060,1063,1063,1067,1067,1067,1067,1073,1073,0,0,1696,1696,1696,1696,1696,1696,1696,1696,1688,1688,1688,1680,1680,1671,1671,1663,1663,1663,1663,1663,1663,1663,1663,1655,1655,1647,1647,1647,1639,1632,1632,1624,1624,1609,1609,1609,1601,1601,1594,1594,1594,1594,1594,1586,1586,1586,1586,1579,1579,946,946,943,943,940,935,935,1564,1557,1550,1543,1543,1543,1543,1536,1536,1536,1529,1523,1523,1523,1523,1529,0,0,0,0,0,0,0,0,0,0,867,867,867,867,864,862,860,860,858,858,854,854,851,851,851,851,854,854,856,860,862,862,864,867,867,867,867,0,0,0,0,0,1421,1421,1421,1415,1415,1410,1410,1404,1404,1398,1398,1398,1392,1392,1387,1387,1387,1381,1381,1376,1376,1376,1376,1370,1370,1370,1365,1365,1365,1359,1359,1354,1354,1354,1349,1349,1343,1338,1338,1333,1333,1333,1328,1328,1328,1328,1322,1322,1322,1317,1317,1312,1312,1312,1312,1307,1307,1302,1297,1297,1292,1292,1292,1288,1288,1288,1288,1283,1283,1278,1278,1273,1273,1273,1268,1268,1264,1264,1264,1259,1255,1255,1255,1250,1250,1250,1245,1245,1245,1241,1236,1236,1236,1232,1232,1232,1232,1227,1227,1223,1223,1219,1219,1219,1214,1214,1214,1214,1210,1210,1206,1206,1202,1202,1202,1197,1197,1193,1189,1189,1189,1185,1185,1185,1185,1181,1181,1177,1177,1177,1173,1173,1169,1169,1169,1165,1165,1165,1161,1157,1157,1157,1153,1153,1149,1149,1145,1141,1141,1138,1138,1138,1138,1138,1134,1134,1134,1134,1134,1130,1126,1123,1123,1119,1119,1119,1119,1115,1115,1112,1108,1108,1108,1108,1105,1105,1101,1101,1097,1097,1094,1094,1094,1094,1090,1090,1090,1087,1087,1087,1087,1084,1080,1077,1077,1077,1077,1073,1073,1070,1070,1067,1067,1067,1063,1063,1063,1060,1057,1057,1057,1057,1054,1054,1054,1054,1050,1050,1050,1047,1047,1047,1044,1044,1041,1038,1038,1038,1038,1038,1034,1034,1034,1031,1031,1028,1028,1028,1025,1025,1022,1019,1019,1019,1019,1016,1016,1016,1016,1016,1013,1013,1013,1013,1010,1007,1007,1004,1004,1004,1001,1001,1001,1001,1001,998,995,992,992,992,992,989,989,989,987,984,981,981,981,978,978,978,975,975,973,973,970,970,0,0,0,0,0,0,0,0,0,0,0,0,0,0,0,0,0,0,0,0,0,0,0,0,0,0,0,0,0,0
0,0,0,0,0,0,0,0,0,0,0,0,0,0,1586,1579,1579,1579,1572,1572,1572,1572,1572,1572,1572,1572,1564,1564,1572,1564,1564,1572,1572,1564,1564,1564,1564,1557,1557,1557,1557,1557,1557,1550,1550,1550,1550,1550,1550,1550,1550,1550,1550,1550,1550,1550,1550,1543,1543,1543,1543,1536,1536,1536,1536,1536,1536,1543,1550,1550,1557,1564,1564,1564,1564,1579,1579,1579,2090,2090,2090,2090,2090,2090,1731,1731,1731,1731,1722,1722,1722,1722,1543,1543,1550,1550,1550,1550,1550,1550,1550,1550,1550,1557,1557,1557,1557,1564,1564,1564,1564,1564,1564,1572,1572,1579,1579,1586,1586,1586,1586,1586,1594,1594,1594,1594,1601,1601,1601,1609,1609,1616,1616,1616,1624,1624,1624,1624,1624,1632,1632,1632,1639,1639,1647,1647,1647,1655,1655,1655,1663,1663,1663,1663,1663,1663,1671,1671,1671,1671,1671,1680,1680,1688,1688,1688,1688,1688,1696,1696,1696,1696,1696,1705,1705,1696,1696,1696,0,1077,1063,1063,1060,1060,1060,1057,1057,1057,1057,1057,1054,1054,1057,1057,1057,1057,1057,1060,1063,1063,1067,1067,1070,1070,1073,1073,1077,1696,1696,1696,1696,1696,1688,1688,1696,1696,1696,1688,1680,1019,1019,1013,1013,1663,1663,1663,1004,1001,1001,1001,998,998,995,989,989,987,987,987,1632,1624,1624,1609,967,967,1601,1601,1594,956,954,954,954,954,954,1586,1586,948,946,943,943,940,940,938,935,933,928,925,925,1543,928,925,925,925,925,1536,1536,1529,1529,1529,1529,1529,0,0,0,0,0,0,0,0,0,0,869,867,864,864,862,862,860,860,858,858,854,854,851,851,851,851,854,854,856,860,862,862,864,867,867,867,869,869,0,0,0,0,1427,1421,1421,1415,1415,1410,1410,1410,1404,1398,1398,1398,1392,1392,1392,1392,1387,1381,1381,1381,1376,1376,1376,1370,1370,1370,1370,1370,1365,1365,1359,1359,1354,1354,1349,1349,1343,1338,1338,1333,1333,1333,1328,1328,1328,1328,1322,1322,1322,1317,1317,1312,1312,1312,1312,1307,1307,1302,1302,1297,1292,1292,1292,1292,1292,1288,1288,1288,1283,1278,1278,1273,1273,1273,1268,1268,1268,1264,1264,1259,1259,1255,1255,1255,1255,1250,1250,1245,1245,1245,1241,1236,1236,1236,1236,1232,1232,1232,1227,1227,1223,1223,1223,1219,1214,1214,1214,1214,1210,1210,1206,1206,1202,1202,1202,1197,1197,1197,1193,1189,1189,1185,1185,1185,1185,1181,1181,1181,1177,1177,1177,1173,1173,1169,1169,1165,1165,1165,1161,1157,1157,1157,1153,1153,1149,1149,1145,1141,1141,1141,1138,1138,1138,1138,1138,1134,1134,1134,1134,1130,1126,1123,1123,1119,1119,1119,1119,1119,1115,1115,1112,1112,1108,1108,1105,1105,1101,1101,1101,1097,1094,1094,1094,1094,1090,1090,1090,1090,1090,1087,1087,1084,1080,1077,1077,1077,1077,1077,1073,1073,1073,1070,1070,1067,1067,1067,1063,1060,1060,1060,1057,1057,1054,1054,1054,1054,1054,1050,1050,1050,1047,1047,1044,1044,1041,1038,1038,1038,1038,1038,1034,1034,1034,1031,1031,1031,1028,1028,1025,1025,1022,1022,1022,1019,1019,1016,1016,1016,1016,1016,1013,1013,1013,1013,1010,1007,1007,1004,1004,1004,1001,1001,1001,1001,998,998,995,995,992,992,992,989,989,989,987,984,981,981,981,978,978,978,978,975,973,973,970,970,0,0,0,0,0,0,0,0,0,0,0,0,0,0,0,0,0,0,0,0,0,0,0,0,0,0,0,0,0,0
0,0,0,0,0,0,0,0,0,0,0,0,0,0,1586,1586,1586,1579,1579,1579,1579,1579,1579,1579,1572,1572,1564,1564,1572,1564,1564,1572,1572,1564,1564,1564,1564,1557,1557,1557,1557,1557,1557,1550,1550,1550,1550,1550,1550,1550,1550,1550,1543,1543,1550,1550,1550,1543,1543,1543,1536,1536,1536,1536,1536,1536,1536,1543,1550,1550,1557,1564,1572,1572,1572,1572,1572,0,0,0,1705,0,1739,0,0,1731,1731,1731,1722,1722,1713,1713,1713,1550,1550,1550,1550,1557,1557,1557,1550,1550,1557,1557,1557,1557,1564,1564,1564,1564,1564,1564,1564,1572,1572,1579,1579,1586,1586,1586,1586,1586,1594,1594,1594,1594,1601,1601,1601,1609,1609,1616,1616,1624,1624,1624,1624,1624,1624,1632,1632,1632,1639,1639,1647,1647,1655,1655,1655,1663,1663,1663,1663,1663,1663,1671,1671,1671,1671,1671,1671,1680,1680,1688,1688,1688,1688,1688,1696,1696,1696,1696,1696,1696,1696,1696,1696,1696,1713,1077,1077,1063,1063,1063,1060,1060,1057,1057,1057,1054,1054,1054,1054,1054,1054,1057,1057,1060,1060,1063,1067,1067,1070,1070,1073,1077,1077,1077,0,1696,1696,1696,1688,1688,1696,1696,1016,1016,1016,1016,1016,1010,1007,1007,1004,1001,1001,1001,1001,1001,998,998,995,989,989,987,987,981,981,978,975,975,967,967,964,962,959,956,954,954,954,954,954,954,951,946,946,943,940,940,940,938,935,930,928,925,925,925,923,923,923,920,920,1536,1536,1536,1536,1536,906,906,0,0,0,0,0,0,0,0,0,869,869,867,864,864,862,860,860,858,858,858,856,854,854,854,851,851,854,854,856,860,862,864,864,867,869,869,869,869,0,0,0,0,0,0,1421,1421,1415,1410,1410,1410,1404,1404,1398,1398,1398,1392,1392,1392,1387,1387,1381,1381,1376,1376,1376,1370,1370,1370,1370,1370,1365,1365,1359,1359,1354,1354,1354,1349,1343,1338,1338,1338,1333,1333,1328,1328,1328,1328,1328,1322,1322,1317,1317,1312,1312,1312,1312,1307,1307,1302,1302,1297,1292,1292,1292,1292,1292,1288,1288,1288,1283,1283,1278,1278,1273,1273,1273,1268,1268,1268,1264,1264,1259,1259,1255,1255,1255,1255,1250,1250,1250,1250,1245,1241,1236,1236,1236,1236,1232,1232,1227,1227,1227,1223,1223,1219,1219,1214,1214,1214,1214,1210,1210,1210,1206,1202,1202,1197,1197,1197,1193,1193,1189,1189,1189,1185,1185,1185,1181,1181,1177,1177,1177,1173,1173,1169,1169,1169,1165,1165,1165,1161,1157,1157,1153,1153,1153,1149,1145,1145,1141,1141,1138,1138,1138,1138,1138,1134,1134,1134,1134,1130,1126,1123,1123,1123,1119,1119,1119,1119,1115,1115,1115,1112,1108,1108,1108,1105,1101,1101,1101,1097,1094,1094,1094,1094,1090,1090,1090,1090,1090,1090,1087,1084,1084,1080,1080,1077,1077,1077,1073,1073,1073,1070,1070,1070,1067,1067,1063,1063,1060,1060,1060,1057,1054,1054,1054,1054,1054,1050,1050,1050,1047,1047,1044,1044,1041,1041,1038,1038,1038,1038,1038,1034,1034,1031,1031,1031,1028,1028,1025,1022,1022,1019,1019,1019,1019,1019,1016,1016,1016,1016,1016,1013,1013,1013,1013,1010,1007,1007,1004,1004,1004,1001,1001,1001,998,998,995,995,992,992,992,992,989,989,987,987,984,981,981,981,978,978,978,978,975,973,973,973,0,0,0,0,0,0,0,0,0,0,0,0,0,0,0,0,0,0,0,0,0,0,0,0,0,0,0,0,0,0
0,0,0,0,0,0,0,0,0,0,0,0,0,0,1586,1586,1586,1586,1586,1579,1579,1579,1572,1572,1572,1572,1572,1572,1572,1572,1572,1572,1572,1564,1564,1564,1564,1564,1564,1557,1557,1557,1557,1550,1550,1550,1550,1550,1550,1550,1550,1550,1543,1543,1543,1543,1543,1543,1543,1543,1536,1536,1536,1536,1536,1536,1536,1543,1550,1550,1557,1564,1572,1572,1572,1572,1572,1572,0,0,0,0,0,1739,1739,1739,1731,1731,1722,1722,1713,1713,1705,1550,1550,1550,1550,1557,1557,1557,1557,1557,1557,1564,1557,1557,1564,1564,1564,1564,1564,1564,1572,1572,1572,1579,1579,1586,1586,1586,1586,1586,1594,1594,1594,1594,1601,1601,1601,1609,1609,1616,1616,1624,1624,1624,1624,1624,1624,1632,1632,1632,1639,1639,1647,1647,1655,1655,1655,1663,1663,1663,1663,1663,1663,1671,1671,1671,1671,1671,1671,1680,1688,1688,1688,1688,1688,1688,1696,1696,1696,1705,1705,1696,1696,1696,1705,1713,0,1073,1073,1063,1063,1063,1060,1060,1057,1057,1057,1054,1054,1054,1054,1054,1054,1057,1057,1060,1060,1063,1067,1067,1070,1070,1073,1077,1077,1077,1696,0,1696,1696,1696,1696,1705,1016,1016,1016,1016,1016,1010,1010,1007,1004,1001,1001,1001,1001,1001,998,998,992,992,989,987,984,984,981,981,978,975,973,967,967,964,962,959,959,956,956,954,954,954,954,951,946,946,943,940,940,940,938,935,930,928,925,925,925,923,923,920,918,918,918,913,913,913,906,906,0,0,0,0,0,0,0,0,875,875,869,869,867,864,864,862,860,860,858,858,858,856,854,854,854,854,854,856,856,856,862,862,864,864,867,869,869,869,869,0,0,0,0,0,0,1421,1421,1415,1415,1410,1410,1410,1404,1398,1398,1398,1392,1392,1392,1387,1387,1387,1381,1376,1376,1376,1376,1370,1370,1370,1370,1365,1365,1365,1359,1359,1354,1354,1349,1349,1343,1338,1338,1333,1333,1328,1328,1328,1328,1328,1328,1322,1322,1317,1317,1317,1312,1312,1307,1307,1307,1302,1297,1297,1292,1292,1292,1292,1288,1288,1288,1283,1283,1283,1278,1273,1273,1273,1268,1268,1268,1268,1264,1264,1259,1259,1259,1255,1255,1255,1250,1250,1250,1245,1241,1241,1241,1236,1236,1236,1232,1232,1227,1227,1223,1223,1219,1219,1219,1214,1214,1214,1210,1210,1210,1206,1202,1202,1197,1197,1197,1193,1193,1189,1189,1189,1185,1185,1185,1185,1181,1181,1177,1177,1177,1173,1169,1169,1169,1165,1165,1165,1161,1157,1157,1153,1153,1153,1153,1149,1145,1145,1141,1138,1138,1138,1138,1138,1138,1134,1134,1134,1130,1130,1123,1123,1123,1123,1119,1119,1119,1115,1115,1115,1112,1108,1108,1108,1105,1105,1105,1101,1101,1097,1094,1094,1094,1094,1094,1090,1090,1090,1090,1087,1084,1080,1080,1080,1077,1077,1077,1073,1073,1073,1070,1070,1070,1067,1067,1063,1063,1063,1060,1060,1057,1054,1054,1054,1054,1054,1050,1050,1050,1047,1047,1047,1044,1044,1041,1041,1038,1038,1038,1038,1038,1038,1034,1034,1031,1031,1028,1025,1022,1022,1019,1019,1019,1019,1019,1019,1016,1016,1016,1016,1016,1013,1013,1013,1010,1010,1007,1007,1004,1004,1001,1001,1001,1001,998,995,995,992,992,992,992,992,989,987,987,984,981,981,981,981,978,978,978,975,973,973,973,0,0,0,0,0,0,0,0,0,0,0,0,0,0,0,0,0,0,0,0,0,0,0,0,0,0,0,0,0,0
0,0,0,0,0,0,0,0,0,0,0,0,0,0,1594,1586,1586,1586,1586,1579,1579,1579,1572,1572,1572,1572,1572,1572,1572,1572,1572,1572,1572,1564,1564,1564,1564,1564,1557,1557,1557,1557,1557,1557,1557,1550,1550,1550,1550,1550,1550,1550,1543,1543,1543,1543,1543,1543,1543,1543,1543,1536,1536,1536,1536,1536,1536,1543,1550,1557,1564,1572,1572,1572,1572,1572,1572,0,1705,1705,1705,0,1722,1739,1739,1739,1731,1731,1722,1722,1713,1713,1705,1550,1550,1557,1557,1550,1550,1557,1557,1557,1564,1564,1564,1564,1564,1564,1564,1564,1564,1564,1572,1572,1572,1572,1579,1579,1586,1594,1594,1594,1594,1594,1594,1601,1601,1601,1601,1609,1609,1616,1616,1624,1624,1624,1624,1624,1624,1632,1632,1632,1639,1639,1647,1647,1655,1655,1655,1663,1663,1663,1663,1663,1663,1671,1671,1671,1671,1671,1671,1680,1680,1688,1688,1688,1688,1696,1696,1696,1696,1705,1705,1705,1705,1705,1705,1713,0,0,1073,1070,1063,1063,1060,1060,1057,1057,1057,1054,1054,1054,1057,1057,1057,1057,1057,1060,1060,1063,1067,1070,1070,1070,1073,1077,1077,1077,1022,1022,1022,1022,1022,1022,1019,1016,1016,1016,1016,1016,1010,1010,1007,1004,1001,1001,1001,1001,1001,998,998,992,989,987,987,984,984,981,978,978,975,973,970,967,967,964,962,959,956,956,956,954,954,951,946,946,946,943,943,940,940,938,935,930,928,925,925,923,923,920,920,918,918,915,913,913,906,906,906,898,0,0,887,887,882,880,880,875,875,871,871,867,864,864,862,860,860,858,858,858,856,854,854,854,854,854,856,856,858,862,862,864,867,867,869,869,869,871,0,0,0,0,0,0,1421,1421,1415,1415,1415,1410,1410,1404,1398,1398,1398,1398,1392,1392,1392,1387,1387,1381,1376,1376,1376,1376,1370,1370,1370,1370,1365,1365,1359,1359,1359,1354,1354,1349,1349,1343,1343,1338,1338,1333,1333,1333,1328,1328,1328,1328,1322,1322,1322,1322,1317,1312,1312,1307,1307,1307,1302,1302,1297,1292,1292,1292,1292,1292,1288,1288,1288,1283,1283,1283,1278,1278,1273,1273,1268,1268,1268,1268,1264,1264,1259,1259,1259,1255,1255,1255,1250,1250,1245,1245,1241,1241,1236,1236,1236,1232,1232,1227,1227,1223,1223,1219,1219,1219,1219,1214,1214,1214,1210,1210,1206,1202,1202,1202,1197,1197,1197,1193,1189,1189,1189,1185,1185,1185,1185,1181,1181,1177,1177,1173,1173,1169,1169,1169,1165,1165,1165,1161,1161,1157,1157,1153,1153,1153,1149,1149,1145,1145,1141,1141,1138,1138,1138,1138,1134,1134,1134,1130,1130,1130,1123,1123,1123,1123,1119,1119,1119,1115,1115,1112,1108,1108,1108,1105,1105,1105,1101,1101,1097,1097,1097,1094,1094,1094,1094,1090,1090,1090,1087,1084,1080,1080,1080,1077,1077,1077,1077,1073,1073,1073,1073,1070,1070,1067,1063,1063,1063,1063,1063,1057,1057,1057,1057,1054,1054,1054,1050,1050,1050,1050,1047,1044,1044,1041,1041,1041,1038,1038,1038,1038,1038,1034,1034,1031,1031,1031,1028,1025,1022,1022,1022,1022,1019,1019,1019,1016,1016,1016,1016,1016,1016,1016,1013,1013,1010,1007,1007,1004,1004,1001,1001,1001,1001,998,998,995,992,992,992,992,992,989,987,987,984,981,981,981,981,978,978,978,975,973,973,973,0,0,0,0,0,0,0,0,0,0,0,0,0,0,0,0,0,0,0,0,0,0,0,0,0,0,0,0,0,0
0,0,0,0,0,0,0,0,0,0,0,0,0,0,1594,1586,1586,1586,1586,1579,1579,1579,1572,1572,1572,1572,1572,1572,1572,1572,1572,1572,1572,1564,1564,1564,1564,1564,1557,1557,1557,1557,1557,1557,1557,1557,1557,1557,1557,1550,1550,1550,1543,1543,1543,1543,1543,1550,1550,1543,1543,1543,1543,1536,1536,1543,1543,1543,1550,1557,1564,1572,1572,1572,1572,1572,1572,1572,1705,1705,1705,1722,1722,1722,1731,1731,1731,1731,1722,1722,1713,1696,1688,1550,1550,1557,1557,1550,1550,1557,1557,1557,1564,1564,1564,1564,1564,1564,1564,1564,1572,1572,1572,1572,1572,1572,1579,1579,1586,1594,1594,1594,1594,1594,1594,1594,1601,1601,1601,1609,1609,1616,1616,1624,1624,1624,1624,1624,1624,1632,1632,1639,1639,1647,1647,1655,1655,1655,1655,1663,1663,1663,1663,1663,1671,1671,1671,1671,1671,1680,1680,1680,1680,1688,1688,1688,1688,1696,1696,1696,1696,1705,1705,1705,1705,1705,1713,1713,0,0,1073,1067,1063,1063,1060,1060,1060,1057,1057,1054,1054,1057,1057,1057,1057,1057,1057,1060,1060,1063,1063,1070,1070,1070,1073,1073,1077,1077,1022,1022,1022,1022,1019,1019,1019,1016,1016,1016,1016,1013,1010,1010,1007,1004,1004,1001,1001,1001,998,998,998,992,989,987,987,984,984,981,978,978,975,975,970,967,967,964,962,962,959,956,956,954,954,951,946,946,946,943,943,940,940,938,935,930,928,925,925,923,920,920,918,915,915,913,913,908,906,903,901,898,896,894,887,887,882,880,880,878,875,871,871,869,864,864,862,860,860,858,858,858,856,854,854,854,854,856,856,856,858,862,862,864,867,867,869,869,869,871,0,0,0,0,0,1427,1421,1421,1415,1415,1415,1410,1410,1404,1398,1398,1398,1392,1392,1392,1392,1387,1387,1381,1381,1376,1376,1376,1376,1370,1370,1370,1365,1365,1359,1359,1354,1354,1354,1349,1349,1343,1343,1343,1338,1338,1333,1333,1328,1328,1328,1328,1322,1322,1322,1322,1317,1317,1312,1307,1307,1307,1302,1302,1297,1292,1292,1292,1292,1292,1288,1288,1288,1288,1283,1283,1278,1278,1273,1273,1273,1268,1268,1268,1264,1264,1264,1259,1259,1255,1255,1255,1250,1250,1250,1245,1241,1241,1241,1236,1236,1236,1232,1232,1232,1223,1223,1219,1219,1219,1219,1214,1214,1214,1210,1210,1206,1202,1202,1202,1197,1197,1197,1193,1189,1189,1189,1185,1185,1185,1185,1181,1181,1181,1181,1173,1173,1173,1169,1169,1165,1165,1165,1165,1161,1157,1157,1153,1153,1153,1149,1149,1145,1145,1141,1141,1138,1138,1138,1138,1134,1134,1134,1130,1130,1130,1123,1123,1123,1123,1119,1119,1119,1115,1115,1112,1108,1108,1108,1105,1105,1105,1101,1101,1097,1097,1097,1094,1094,1094,1094,1090,1090,1090,1087,1084,1080,1080,1080,1077,1077,1077,1077,1073,1073,1073,1073,1073,1070,1070,1067,1067,1063,1063,1063,1060,1057,1057,1057,1054,1054,1054,1054,1050,1050,1050,1047,1047,1044,1041,1041,1041,1041,1038,1038,1038,1038,1034,1034,1031,1031,1031,1028,1025,1025,1022,1022,1022,1022,1019,1019,1016,1016,1016,1016,1016,1016,1016,1013,1010,1010,1007,1007,1004,1004,1001,1001,1001,998,998,998,995,995,995,992,992,992,989,987,987,984,984,981,981,981,978,978,978,975,973,973,973,0,0,0,0,0,0,0,0,0,0,0,0,0,0,0,0,0,0,0,0,0,0,0,0,0,0,0,0,0,0
0,0,0,0,0,0,0,0,0,0,0,0,0,0,1594,1594,1594,1586,1586,1586,1579,1579,1572,1572,1572,1572,1572,1572,1572,1572,1572,1572,1572,1564,1564,1564,1564,1564,1557,1557,1557,1557,1557,1557,1557,1557,1557,1557,1557,1550,1550,1550,1550,1543,1543,1550,1550,1550,1550,1543,1543,1543,1543,1543,1543,1543,1543,1543,1557,1557,1564,1564,1572,1572,1572,1572,1572,1722,1722,1705,1705,1722,1722,1722,1722,1731,1731,1731,1722,1722,1713,1696,1688,1688,1557,1557,1557,1564,1564,1564,1564,1557,1557,1564,1564,1564,1564,1564,1564,1572,1572,1572,1572,1572,1572,1579,1579,1586,1586,1594,1594,1594,1594,1594,1594,1594,1601,1601,1601,1609,1609,1616,1616,1624,1624,1624,1624,1624,1632,1632,1632,1632,1639,1647,1655,1655,1655,1655,1655,1663,1663,1663,1663,1663,1671,1671,1671,1671,1671,1680,1680,1680,1680,1688,1688,1688,1688,1696,1696,1696,1696,1705,1705,1705,1705,1713,1713,1713,0,0,1073,1067,1067,1063,1063,1060,1060,1057,1057,1054,1054,1057,1057,1054,1054,1054,1057,1060,1060,1060,1063,1063,1063,1060,1060,1073,1073,1031,1022,1022,1022,1022,1019,1019,1019,1016,1016,1016,1013,1010,1010,1007,1007,1004,1004,1001,1001,1001,998,998,992,992,989,987,987,984,981,978,978,978,975,970,970,967,967,964,964,962,959,959,956,956,954,954,948,946,946,943,943,940,938,938,933,930,928,925,925,923,920,920,918,915,915,913,913,908,906,903,901,898,896,894,891,891,885,885,882,878,875,873,871,869,864,864,862,862,860,858,858,858,856,854,854,854,854,856,856,858,858,862,862,864,867,867,869,869,871,0,0,0,0,0,0,1427,1421,1421,1421,1415,1415,1410,1410,1404,1398,1398,1398,1392,1392,1392,1392,1387,1387,1381,1381,1376,1376,1376,1376,1370,1370,1370,1365,1365,1359,1359,1354,1354,1354,1349,1349,1343,1343,1343,1338,1338,1338,1333,1333,1328,1328,1328,1328,1322,1322,1322,1317,1317,1312,1312,1307,1307,1307,1302,1297,1297,1292,1292,1292,1292,1292,1288,1288,1288,1288,1283,1278,1278,1273,1273,1273,1268,1268,1268,1264,1264,1264,1259,1259,1255,1255,1255,1250,1250,1250,1245,1241,1241,1241,1236,1236,1236,1236,1232,1232,1227,1227,1223,1219,1219,1219,1214,1214,1214,1214,1210,1210,1206,1202,1202,1202,1197,1197,1197,1193,1189,1189,1185,1185,1185,1185,1181,1181,1181,1181,1177,1177,1173,1169,1169,1165,1165,1165,1165,1161,1157,1157,1153,1153,1153,1153,1149,1149,1149,1145,1141,1138,1138,1138,1138,1134,1134,1134,1134,1130,1130,1123,1123,1123,1123,1123,1119,1119,1115,1115,1112,1108,1108,1108,1105,1105,1105,1105,1101,1101,1097,1097,1094,1094,1094,1094,1090,1090,1090,1087,1084,1084,1080,1080,1077,1077,1077,1077,1077,1073,1073,1073,1070,1070,1070,1067,1067,1067,1063,1063,1060,1060,1057,1057,1054,1054,1054,1054,1050,1050,1050,1047,1047,1044,1044,1041,1041,1041,1038,1038,1038,1038,1034,1034,1034,1031,1031,1028,1025,1025,1025,1025,1022,1022,1019,1019,1019,1016,1016,1016,1016,1016,1016,1013,1010,1010,1007,1007,1004,1004,1001,1001,1001,998,998,998,998,995,995,995,992,992,989,989,987,987,984,981,981,981,978,978,978,975,975,973,973,0,0,0,0,0,0,0,0,0,0,0,0,0,0,0,0,0,0,0,0,0,0,0,0,0,0,0,0,0,0
0,0,0,0,0,0,0,0,0,0,0,0,0,0,1594,1594,1594,1586,1586,1586,1579,1579,1572,1572,1572,1572,1572,1572,1572,1572,1572,1572,1572,1572,1564,1564,1564,1564,1564,1557,1557,1557,1557,1550,1550,1557,1557,1557,1557,1550,1550,1550,1550,1550,1550,1550,1550,1550,1550,1543,1543,1543,1543,1543,1543,1543,1543,1543,1557,1564,1564,1564,1572,1572,1572,1572,1572,1722,1722,1722,1722,1722,1722,1722,1722,1731,1731,1731,1722,1722,1713,1696,1688,1688,1564,1557,1557,1550,1550,1557,1557,1557,1557,1557,1564,1564,1564,1564,1564,1572,1572,1572,1572,1572,1572,1572,1579,1586,1594,1594,1594,1594,1594,1594,1601,1601,1601,1601,1601,1609,1609,1616,1616,1624,1624,1624,1624,1632,1632,1632,1632,1632,1639,1647,1647,1655,1655,1655,1655,1663,1663,1663,1663,1671,1671,1671,1671,1680,1680,1680,1688,1688,1688,1688,1688,1696,1696,1696,1696,1696,1696,1696,1705,1705,1705,1722,1722,0,0,0,1073,1067,1067,1063,1063,1063,1060,1057,1057,1054,1054,1057,1057,1054,1054,1054,1057,1057,1057,1060,1060,1060,1057,1047,1047,1047,1034,1031,1031,1025,1022,1022,1022,1022,1019,1019,1016,1016,1013,1010,1007,1007,1004,1004,1001,1001,1001,998,998,998,992,992,989,987,987,984,981,978,978,978,975,970,970,967,967,964,964,962,962,959,956,956,954,951,948,946,946,943,943,940,938,938,933,930,930,925,925,923,920,920,918,915,915,913,910,908,906,903,903,901,898,896,894,889,887,887,885,880,878,873,871,869,867,864,864,862,860,858,858,858,856,854,854,854,854,856,856,858,858,862,862,864,867,867,869,869,871,0,0,0,0,0,0,1427,1427,1421,1421,1415,1415,1410,1410,1404,1404,1398,1398,1398,1398,1392,1392,1392,1387,1387,1381,1376,1376,1376,1376,1376,1370,1370,1365,1365,1359,1359,1354,1354,1354,1354,1349,1349,1343,1343,1343,1343,1338,1333,1333,1333,1333,1328,1322,1322,1322,1322,1317,1317,1312,1312,1307,1307,1307,1302,1302,1302,1297,1297,1292,1292,1292,1288,1288,1288,1288,1283,1278,1278,1273,1273,1273,1268,1268,1268,1264,1264,1264,1264,1259,1259,1255,1255,1250,1250,1250,1245,1241,1241,1241,1236,1236,1236,1236,1232,1232,1232,1227,1227,1223,1223,1219,1219,1214,1214,1214,1210,1210,1206,1202,1202,1202,1197,1197,1197,1193,1189,1189,1189,1185,1185,1185,1185,1181,1181,1181,1177,1177,1173,1169,1169,1169,1169,1165,1165,1161,1161,1157,1157,1153,1153,1153,1149,1149,1149,1145,1141,1141,1138,1138,1138,1134,1134,1134,1134,1130,1130,1126,1123,1123,1123,1123,1119,1119,1115,1115,1112,1112,1108,1108,1105,1105,1105,1105,1101,1101,1097,1097,1097,1094,1094,1094,1090,1090,1090,1090,1090,1084,1084,1080,1080,1080,1077,1077,1077,1073,1073,1073,1070,1070,1070,1067,1067,1067,1063,1063,1063,1060,1060,1057,1054,1054,1054,1054,1050,1050,1050,1047,1047,1044,1044,1041,1041,1041,1038,1038,1038,1038,1038,1038,1034,1034,1031,1028,1028,1025,1025,1025,1025,1022,1022,1019,1019,1016,1016,1016,1016,1016,1016,1013,1013,1010,1010,1007,1007,1004,1004,1001,1001,1001,998,998,998,995,995,995,992,992,989,989,987,987,984,984,981,981,981,981,978,978,975,975,975,0,0,0,0,0,0,0,0,0,0,0,0,0,0,0,0,0,0,0,0,0,0,0,0,0,0,0,0,0,0
0,0,0,0,0,0,0,0,0,0,0,0,0,0,1594,1594,1594,1586,1586,1586,1586,1579,1572,1572,1572,1572,1572,1572,1572,1572,1572,1572,1572,1564,1564,1564,1564,1564,1564,1557,1557,1557,1557,1550,1550,1557,1557,1557,1557,1557,1550,1550,1557,1550,1550,1557,1557,1557,1557,1550,1543,1543,1543,1543,1543,1543,1543,1543,1550,1557,1564,1564,1572,1572,1572,1572,1572,1722,1722,1722,1722,1722,1722,1722,1722,1722,1722,1731,1722,1722,1713,1696,1696,1564,1564,1564,1564,1550,1550,1557,1557,1557,1557,1557,1564,1564,1564,1564,1564,1572,1572,1572,1572,1572,1572,1572,1579,1586,1594,1594,1594,1594,1594,1594,1601,1601,1601,1601,1601,1609,1609,1609,1616,1624,1624,1624,1624,1632,1632,1632,1632,1632,1639,1647,1647,1655,1655,1655,1655,1663,1663,1663,1663,1671,1671,1671,1671,1680,1680,1688,1688,1688,1688,1688,1688,1696,1696,1696,1696,1696,1696,1696,1705,1705,1705,1722,0,0,0,0,1077,1067,1067,1063,1063,1063,1060,1057,1057,1054,1054,1057,1057,1054,1054,1054,1057,1054,1054,1054,1054,1054,1041,1041,1038,1038,1034,1031,1031,1025,1025,1025,1022,1022,1022,1019,1016,1016,1010,1010,1007,1007,1004,1004,1001,1001,1001,998,998,998,992,989,989,987,987,984,981,978,978,978,975,973,970,967,967,964,964,962,962,959,956,956,954,951,948,946,946,943,943,940,938,935,933,930,928,925,925,923,923,920,918,915,915,913,910,908,906,903,903,901,898,896,894,889,887,887,885,882,878,873,873,869,869,867,864,862,860,858,858,858,856,856,856,856,856,856,858,858,858,862,862,867,867,869,869,869,871,0,0,0,0,0,0,1427,1427,1421,1421,1421,1415,1410,1410,1410,1404,1398,1398,1398,1398,1392,1392,1392,1392,1387,1381,1381,1376,1376,1376,1376,1370,1370,1365,1365,1359,1359,1354,1354,1354,1354,1349,1349,1349,1349,1343,1343,1338,1333,1333,1333,1333,1328,1322,1322,1322,1322,1317,1317,1312,1312,1312,1307,1307,1307,1307,1302,1302,1297,1297,1292,1292,1292,1288,1288,1288,1283,1283,1283,1278,1273,1273,1268,1268,1268,1264,1264,1264,1264,1259,1259,1255,1255,1255,1250,1250,1245,1241,1241,1241,1236,1236,1236,1236,1232,1232,1232,1227,1227,1223,1223,1219,1219,1219,1214,1214,1214,1210,1210,1206,1202,1202,1202,1197,1197,1193,1193,1193,1189,1189,1185,1185,1185,1181,1181,1181,1181,1177,1177,1173,1169,1169,1169,1165,1165,1165,1161,1161,1157,1157,1153,1153,1149,1149,1149,1145,1145,1141,1141,1138,1138,1138,1134,1134,1134,1134,1130,1126,1126,1123,1123,1123,1119,1119,1115,1115,1112,1112,1112,1108,1108,1105,1105,1105,1105,1101,1101,1097,1097,1094,1094,1094,1090,1090,1090,1090,1090,1087,1084,1084,1080,1080,1077,1077,1077,1073,1073,1073,1073,1070,1070,1067,1067,1067,1063,1063,1063,1060,1060,1057,1054,1054,1054,1054,1054,1050,1050,1047,1047,1044,1044,1041,1041,1041,1038,1038,1038,1038,1038,1038,1034,1034,1031,1028,1028,1025,1025,1025,1025,1022,1022,1022,1019,1019,1019,1019,1016,1016,1016,1016,1013,1013,1010,1007,1007,1004,1004,1001,1001,1001,998,998,998,995,995,995,992,992,989,989,989,987,984,984,981,981,981,981,978,978,978,975,975,0,0,0,0,0,0,0,0,0,0,0,0,0,0,0,0,0,0,0,0,0,0,0,0,0,0,0,0,0,0
