0,0,0,0,0,0,0,0,0,0,0,0,0,0,1572,1564,1564,1564,1564,1564,1564,1564,1564,1564,1564,1557,1557,1557,1557,1557,1557,1557,1557,1557,1564,1557,1557,1564,1564,1564,1564,1564,1564,1564,1557,1557,1557,1557,1557,1550,1550,1550,1550,1550,1550,1550,1550,1550,1550,1557,1557,1557,1557,1557,1557,1550,1550,1550,1550,1550,1550,1550,1550,1550,1550,1550,1557,1564,1564,1564,1572,1572,1572,1572,1572,1572,1926,1904,1883,1883,1873,1863,1853,1853,1853,1853,1853,1853,1853,1713,1705,1696,1688,1688,1688,1696,1586,1579,1579,1572,1572,1572,1572,1572,1572,1572,1572,1572,1572,1579,1594,1594,1594,1594,1594,1594,1601,1609,1609,1609,1609,1616,1616,1616,1616,1624,1624,1632,1632,1632,1632,1639,1647,1647,1655,1655,1655,1663,1663,1663,1663,1663,1671,1680,1680,1688,1688,1688,1696,1696,1696,1696,1696,1696,1705,1705,1705,1713,1722,1722,1722,1722,1731,1731,1739,1748,1748,1757,1757,1757,1766,1766,1766,1766,1776,1776,1785,1785,1794,1794,1794,1794,1804,1804,1804,1804,1804,1804,1804,1804,0,0,0,0,0,0,0,0,0,0,1067,1067,1063,1063,1063,1060,1060,1057,1057,1057,1060,1060,1060,1060,1063,1063,1067,1070,1070,1073,1073,1077,1077,1080,1080,0,0,0,1713,1713,1713,1713,1713,1713,1713,1705,1705,1705,1696,1696,1696,1696,1696,1688,1688,1688,1688,1688,1688,1680,1680,1671,1671,1663,1663,1663,1663,1663,1655,1655,1647,1647,1639,1639,1639,1632,1632,1632,1632,1632,1624,1624,1624,1624,1616,1616,1616,1616,1609,1609,1609,1609,1609,1609,1594,1594,1586,1586,1586,1586,1586,1586,1579,1579,1572,1572,1572,1572,1564,1564,1564,1564,1564,1557,1557,1550,1550,1543,1543,1550,1550,1550,1550,1550,1543,1543,1536,1536,1536,1529,1523,1523,0,0,0,0,0,0,0,0,906,901,898,898,898,898,896,896,894,891,889,889,889,889,889,889,889,889,891,894,898,903,906,906,908,908,0,0,0,0,0,1452,1452,1445,1445,1445,1445,1445,1445,1445,1439,1439,1439,1439,1433,1433,1433,1427,1427,1421,1421,1421,1421,1415,1415,1415,1415,1410,1410,1404,1404,1404,1404,1404,1398,1398,1398,1398,1398,1392,1392,1392,1392,1392,1387,1387,1381,1381,1376,1376,1376,1376,1370,1370,1370,1365,1365,1365,1359,1359,1359,1359,1354,1354,1354,1354,1349,1349,1349,1349,1343,1338,1338,1333,1333,1333,1333,1328,1328,1328,1328,1328,1322,1322,1322,1317,1312,1312,1312,1312,1307,1307,1307,1307,1307,1307,1307,1302,1302,1297,1292,1292,1292,1292,1292,1288,1283,1283,1283,1283,1278,1278,1278,1278,1273,1273,1273,1273,1268,1268,1268,1268,1264,1264,1264,1259,1259,1255,1255,1255,1250,1250,1250,1250,1250,1250,1245,1245,1245,1241,1241,1236,1236,1232,1232,1232,1232,1232,1232,1232,1227,1227,1227,1223,1219,1219,1219,1219,1214,1214,1214,1214,1214,1210,1206,1206,1202,1202,1197,1197,1197,1197,1197,1197,1197,1193,1193,1193,1193,1189,1189,1185,1185,1181,1181,1181,1181,1177,1177,1177,1173,1173,1169,1169,1169,1169,1169,1169,1169,1165,1165,1165,1161,1161,1161,1157,1157,1157,1153,1153,1153,1153,1153,1149,1149,1145,1145,1145,1141,1141,1141,1138,1138,1138,1138,1138,1138,1134,1134,1134,1130,1130,1130,1126,1123,1123,1123,1123,1123,1123,1123,0,0,0,0,0,0,0,0,0,0,0,0,0,0,0,0,0,0,0,0,0,0,0,0,0,0,0,0,0
0,0,0,0,0,0,0,0,0,0,0,0,0,0,1572,1564,1564,1564,1564,1564,1564,1564,1564,1564,1564,1564,1557,1557,1564,1557,1557,1564,1564,1564,1564,1564,1564,1564,1564,1564,1564,1564,1564,1564,1557,1557,1557,1557,1557,1557,1557,1550,1550,1550,1550,1550,1550,1550,1557,1557,1557,1557,1557,1557,1557,1550,1550,1550,1550,1550,1550,1550,1557,1550,1550,1557,1564,1564,1564,1564,1572,1579,1572,1572,1572,1572,1883,1883,1863,1853,1853,1843,1843,1843,1843,1843,1843,1833,1722,1713,1713,1696,1696,1696,1696,1696,1688,1579,1579,1579,1579,1579,1579,1572,1572,1572,1579,1579,1586,1586,1586,1594,1594,1594,1594,1594,1601,1609,1609,1609,1609,1616,1616,1616,1616,1624,1624,1632,1632,1632,1639,1639,1655,1655,1655,1655,1655,1663,1663,1663,1663,1663,1671,1680,1680,1688,1688,1688,1696,1696,1696,1696,1696,1696,1705,1705,1705,1713,1722,1722,1722,1722,1731,1731,1739,1748,1748,1757,1757,1757,1766,1766,1766,1776,1776,1785,1785,1785,1794,1794,1794,1804,1804,1804,1804,1804,1804,1804,1804,1804,1804,1804,0,0,0,0,0,0,0,0,1070,1070,1063,1063,1063,1060,1060,1060,1060,1060,1060,1060,1060,1063,1063,1067,1067,1070,1070,1073,1077,1077,1077,1077,1077,1077,0,0,1705,1705,1705,1713,1713,1713,1713,1705,1705,1705,1696,1696,1696,1696,1696,1688,1688,1688,1688,1688,1688,1680,1680,1680,1671,1671,1663,1663,1663,1663,1655,1655,1647,1647,1639,1639,1639,1632,1632,1632,1632,1632,1632,1624,1624,1624,1624,1616,1616,1616,1616,1616,1609,1609,1609,1609,1601,1594,1594,1586,1586,1586,1586,1586,1579,1579,1572,1572,1572,1572,1572,1572,1564,1564,1564,1557,1557,1550,1550,1550,1550,1550,1550,1550,1550,1550,1543,1543,1543,1536,1536,1529,1523,1523,0,0,0,0,0,0,0,903,903,901,901,898,898,898,896,896,896,891,891,889,889,889,889,889,889,889,891,896,898,906,906,908,908,908,908,0,0,0,0,1452,1452,1445,1445,1445,1445,1445,1445,1445,1445,1439,1439,1439,1433,1433,1433,1427,1427,1421,1421,1421,1421,1415,1415,1415,1415,1415,1410,1410,1410,1410,1404,1404,1404,1398,1398,1398,1398,1398,1392,1392,1392,1392,1387,1387,1387,1381,1381,1376,1376,1376,1370,1370,1370,1370,1365,1365,1365,1365,1359,1359,1359,1354,1354,1354,1349,1349,1349,1349,1343,1343,1338,1338,1333,1333,1333,1328,1328,1328,1328,1328,1328,1322,1322,1317,1317,1312,1312,1312,1307,1307,1307,1307,1307,1307,1307,1302,1302,1302,1292,1292,1292,1292,1292,1288,1288,1288,1288,1283,1283,1278,1278,1278,1278,1273,1273,1273,1268,1268,1268,1268,1268,1264,1264,1259,1259,1255,1255,1255,1250,1250,1250,1250,1250,1250,1245,1245,1245,1241,1241,1241,1236,1236,1232,1232,1232,1232,1232,1232,1232,1227,1227,1223,1223,1219,1219,1219,1219,1214,1214,1214,1214,1210,1210,1206,1202,1202,1202,1202,1197,1197,1197,1197,1197,1193,1193,1193,1193,1189,1189,1189,1185,1181,1181,1181,1181,1177,1177,1177,1173,1173,1169,1169,1169,1169,1169,1169,1169,1165,1165,1165,1165,1165,1161,1161,1157,1157,1157,1153,1153,1153,1153,1153,1149,1149,1145,1145,1141,1141,1141,1138,1138,1138,1141,1138,1138,1138,1138,1134,1134,1130,1130,1130,1126,1126,1126,1123,1123,1123,1123,0,0,0,0,0,0,0,0,0,0,0,0,0,0,0,0,0,0,0,0,0,0,0,0,0,0,0,0,0
0,0,0,0,0,0,0,0,0,0,0,0,0,0,1572,1572,1564,1564,1564,1564,1564,1564,1564,1564,1564,1564,1564,1564,1564,1564,1564,1564,1564,1564,1564,1564,1564,1564,1564,1564,1564,1564,1564,1564,1557,1557,1557,1557,1564,1564,1557,1557,1557,1557,1557,1550,1550,1550,1557,1557,1557,1557,1564,1557,1557,1557,1557,1550,1550,1550,1550,1557,1557,1557,1557,1557,1564,1564,1564,1564,1572,1579,1579,1572,1572,1572,1853,1843,1843,1833,1833,1833,1833,1833,1833,1833,1823,1813,1722,1713,1696,1696,1696,1696,1696,1696,1688,1688,1579,1579,1579,1586,1579,1579,1572,1572,1579,1579,1579,1579,1586,1586,1586,1586,1586,1594,1601,1609,1609,1609,1609,1616,1616,1616,1624,1624,1624,1632,1632,1632,1639,1639,1655,1655,1655,1655,1663,1663,1663,1663,1671,1671,1680,1680,1688,1688,1688,1696,1696,1696,1696,1696,1705,1705,1705,1705,1705,1713,1722,1722,1722,1722,1731,1731,1739,1748,1748,1757,1757,1766,1766,1766,1766,1776,1776,1785,1785,1785,1794,1794,1794,1804,1804,1804,1804,1804,1804,1794,1794,1794,1804,1804,0,0,0,0,0,0,0,1073,1070,1070,1063,1063,1063,1060,1060,1060,1060,1060,1060,1060,1060,1063,1063,1067,1067,1067,1070,1073,1077,1077,1077,1077,1070,1070,1070,0,1705,1705,1705,1713,1713,1713,1713,1713,1713,1705,1696,1696,1696,1696,1696,1688,1688,1688,1688,1688,1688,1688,1680,1680,1680,1671,1671,1671,1663,1663,1663,1655,1655,1655,1647,1647,1647,1639,1639,1632,1632,1632,1632,1624,1624,1624,1624,1624,1624,1624,1616,1616,1616,1609,1609,1609,1601,1601,1594,1594,1594,1594,1594,1586,1579,1579,1579,1579,1572,1572,1572,1572,1572,1564,1564,1557,1557,1550,1550,1550,1550,1557,1550,1550,1550,1550,1543,1543,1543,1536,1536,1536,1536,0,0,0,0,0,0,0,0,903,903,901,901,898,898,898,898,896,896,894,891,891,889,889,889,889,889,891,891,896,898,906,908,908,910,908,908,0,0,0,0,0,1452,1452,1452,1452,1445,1445,1445,1445,1445,1439,1439,1439,1439,1433,1433,1427,1427,1427,1421,1421,1421,1421,1415,1415,1415,1415,1415,1415,1415,1410,1410,1410,1404,1404,1404,1398,1398,1398,1398,1392,1392,1392,1387,1387,1387,1381,1381,1376,1376,1376,1376,1370,1370,1370,1370,1365,1365,1365,1365,1365,1359,1359,1354,1354,1354,1349,1349,1349,1343,1343,1338,1338,1338,1333,1333,1333,1328,1328,1328,1328,1328,1322,1322,1317,1317,1312,1312,1312,1312,1312,1312,1307,1307,1307,1307,1302,1302,1302,1297,1292,1292,1292,1292,1288,1288,1288,1288,1283,1283,1283,1278,1278,1278,1273,1273,1273,1268,1268,1268,1268,1268,1264,1264,1259,1259,1255,1255,1255,1255,1255,1250,1250,1255,1250,1250,1250,1245,1245,1241,1241,1236,1236,1236,1236,1236,1232,1232,1232,1232,1232,1227,1223,1223,1219,1219,1219,1219,1219,1214,1214,1214,1214,1210,1206,1202,1202,1202,1202,1197,1197,1202,1197,1197,1197,1197,1193,1193,1193,1189,1185,1185,1185,1185,1181,1181,1181,1177,1177,1177,1177,1173,1173,1169,1169,1169,1169,1169,1169,1165,1165,1165,1165,1161,1161,1161,1157,1157,1157,1153,1153,1153,1153,1149,1149,1149,1149,1145,1145,1141,1141,1141,1141,1141,1138,1138,1138,1138,1134,1134,1134,1134,1134,1130,1130,1126,1123,1123,1123,1123,0,0,0,0,0,0,0,0,0,0,0,0,0,0,0,0,0,0,0,0,0,0,0,0,0,0,0,0,0
0,0,0,0,0,0,0,0,0,0,0,0,0,0,1572,1572,1564,1564,1564,1564,1564,1564,1564,1564,1564,1564,1564,1564,1564,1564,1564,1564,1564,1564,1564,1564,1564,1564,1564,1564,1564,1564,1564,1564,1557,1557,1557,1557,1564,1564,1564,1564,1564,1564,1557,1557,1557,1557,1564,1564,1564,1564,1564,1564,1564,1557,1557,1550,1550,1557,1557,1557,1557,1557,1557,1557,1564,1564,1564,1564,1572,1579,1579,1579,1579,1579,1843,1833,1823,1823,1823,1823,1823,1823,1813,1804,1794,1748,1722,1713,1696,1696,1696,1696,1696,1696,1688,1688,1579,1579,1586,1586,1586,1579,1572,1572,1579,1579,1579,1579,1586,1586,1586,1586,1586,1594,1601,1609,1609,1609,1616,1616,1624,1624,1624,1624,1632,1632,1632,1632,1639,1647,1655,1655,1655,1655,1663,1663,1663,1663,1671,1671,1680,1680,1688,1688,1688,1696,1696,1696,1696,1696,1705,1705,1705,1713,1713,1713,1722,1722,1731,1731,1731,1731,1739,1748,1748,1757,1757,1766,1766,1766,1776,1776,1785,1785,1785,1785,1794,1794,1794,1804,1804,1804,1804,1804,1804,1794,1794,1794,1804,1823,1823,0,0,0,0,0,1073,1073,1070,1070,1067,1063,1063,1063,1060,1060,1060,1060,1060,1060,1063,1063,1063,1067,1067,1067,1070,1073,1077,1073,1073,1073,1070,1070,0,1063,1713,1713,1713,1713,1722,1722,1713,1713,1713,1705,1705,1696,1696,1696,1696,1696,1688,1688,1688,1688,1688,1688,1680,1680,1680,1680,1671,1671,1663,1663,1663,1655,1655,1655,1655,1647,1647,1639,1639,1632,1632,1632,1632,1624,1624,1624,1624,1624,1624,1624,1624,1624,1616,1609,1609,1609,1609,1601,1601,1601,1594,1594,1594,1594,1586,1586,1579,1579,1579,1572,1572,1572,1572,1572,1564,1564,1564,1557,1550,1550,1550,1557,1550,1550,1550,1550,1550,1543,1543,1536,1536,1536,1536,0,0,0,0,0,0,0,0,903,903,901,901,901,898,898,898,896,896,896,891,891,889,889,889,889,891,891,891,898,901,906,908,908,910,910,910,0,0,0,0,0,1452,1452,1452,1452,1452,1445,1445,1445,1445,1439,1439,1439,1439,1433,1433,1427,1427,1427,1421,1421,1421,1421,1415,1415,1415,1415,1415,1415,1415,1415,1410,1410,1410,1404,1404,1398,1398,1398,1398,1398,1392,1392,1387,1387,1387,1381,1381,1376,1376,1376,1376,1370,1370,1370,1370,1370,1370,1365,1365,1365,1359,1359,1359,1354,1354,1354,1349,1349,1343,1343,1343,1338,1338,1333,1333,1333,1333,1333,1328,1328,1328,1322,1322,1317,1317,1317,1312,1312,1312,1312,1312,1312,1312,1307,1307,1307,1302,1302,1302,1292,1292,1292,1292,1292,1288,1288,1288,1283,1283,1283,1278,1278,1278,1273,1273,1273,1273,1268,1268,1268,1268,1264,1264,1259,1259,1255,1255,1255,1255,1255,1255,1255,1255,1255,1250,1250,1250,1245,1245,1241,1236,1236,1236,1236,1236,1232,1232,1232,1232,1232,1227,1227,1223,1219,1219,1219,1219,1219,1214,1214,1214,1214,1210,1206,1206,1206,1202,1202,1202,1202,1197,1197,1197,1197,1197,1193,1193,1193,1189,1185,1185,1185,1185,1181,1181,1181,1177,1177,1177,1177,1173,1173,1169,1169,1169,1169,1169,1165,1165,1165,1165,1165,1161,1161,1161,1161,1157,1157,1153,1153,1153,1153,1153,1149,1149,1149,1145,1145,1141,1141,1141,1141,1141,1138,1138,1138,1138,1134,1134,1134,1134,1134,1130,1130,1130,1123,1123,1123,1123,0,0,0,0,0,0,0,0,0,0,0,0,0,0,0,0,0,0,0,0,0,0,0,0,0,0,0,0,0
0,0,0,0,0,0,0,0,0,0,0,0,0,0,1572,1572,1572,1572,1564,1564,1564,1564,1564,1564,1564,1564,1564,1572,1564,1564,1564,1564,1564,1564,1564,1564,1564,1572,1572,1572,1564,1564,1564,1564,1557,1557,1557,1564,1564,1564,1564,1564,1564,1564,1557,1557,1557,1557,1564,1564,1564,1564,1564,1564,1564,1557,1557,1557,1557,1557,1557,1557,1557,1557,1557,1557,1557,1564,1564,1564,1572,1579,1579,1579,1579,1843,1833,1823,1813,1813,1813,1813,1804,1804,1794,1785,1776,1739,1713,1705,1696,1696,1696,1696,1696,1696,1688,1688,1680,1586,1586,1586,1586,1579,1579,1579,1579,1579,1586,1586,1586,1586,1594,1594,1594,1594,1601,1609,1609,1616,1616,1616,1624,1624,1624,1624,1632,1632,1632,1632,1647,1647,1655,1655,1655,1655,1663,1663,1663,1663,1671,1671,1680,1688,1688,1688,1688,1696,1696,1696,1696,1696,1696,1705,1705,1713,1713,1713,1722,1722,1731,1731,1731,1731,1739,1748,1748,1757,1757,1766,1766,1776,1776,1776,1785,1785,1785,1785,1794,1794,1794,1804,1804,1804,1804,1804,1804,1804,1794,1794,1823,1823,1823,0,0,0,0,0,1073,1073,1070,1070,1067,1067,1067,1063,1063,1063,1063,1063,1060,1060,1063,1063,1063,1067,1067,1067,1070,1073,1073,1070,1070,1070,1063,1063,1063,1063,1731,1731,1731,1722,1722,1722,1713,1713,1713,1705,1696,1696,1696,1696,1696,1696,1696,1696,1696,1688,1688,1688,1680,1680,1680,1680,1671,1671,1663,1663,1663,1663,1655,1655,1655,1655,1655,1647,1639,1639,1639,1632,1632,1632,1632,1624,1624,1624,1624,1624,1624,1624,1616,1616,1616,1609,1609,1601,1601,1601,1601,1594,1594,1594,1586,1586,1586,1586,1586,1579,1579,1572,1572,1572,1564,1564,1564,1557,1557,1550,1550,1557,1557,1557,1557,1550,1550,1543,1543,1543,1536,1536,1536,0,0,0,0,0,0,0,0,903,903,903,901,901,901,898,898,898,896,896,891,891,891,891,891,891,891,891,894,898,901,906,908,908,910,910,910,913,0,0,0,0,1452,1452,1458,1452,1452,1452,1445,1445,1445,1439,1439,1439,1439,1433,1433,1427,1427,1427,1421,1421,1421,1421,1421,1415,1415,1415,1415,1415,1415,1415,1410,1410,1410,1404,1404,1404,1398,1398,1398,1398,1392,1392,1387,1387,1387,1387,1381,1376,1376,1376,1376,1376,1370,1370,1370,1370,1370,1365,1365,1365,1365,1359,1359,1354,1354,1354,1354,1349,1343,1343,1343,1338,1338,1338,1333,1333,1333,1333,1333,1333,1328,1328,1322,1322,1317,1317,1312,1312,1312,1312,1312,1312,1312,1307,1307,1307,1302,1302,1302,1297,1292,1292,1292,1292,1292,1288,1288,1288,1288,1283,1283,1283,1278,1278,1273,1273,1273,1273,1268,1268,1268,1268,1268,1264,1264,1259,1259,1259,1255,1255,1255,1255,1255,1255,1250,1250,1250,1250,1245,1241,1241,1236,1236,1236,1236,1232,1232,1232,1232,1232,1227,1227,1223,1223,1219,1219,1219,1219,1214,1214,1214,1214,1210,1210,1206,1206,1206,1202,1202,1202,1197,1197,1197,1197,1197,1197,1197,1193,1189,1185,1185,1185,1185,1181,1181,1181,1181,1181,1181,1177,1177,1173,1173,1169,1169,1169,1165,1165,1165,1165,1165,1165,1165,1161,1161,1161,1157,1157,1157,1153,1153,1153,1153,1153,1153,1149,1149,1145,1141,1141,1141,1141,1141,1138,1138,1138,1138,1138,1138,1134,1134,1134,1134,1130,1130,1130,1126,1123,1123,0,0,0,0,0,0,0,0,0,0,0,0,0,0,0,0,0,0,0,0,0,0,0,0,0,0,0,0,0
0,0,0,0,0,0,0,0,0,0,0,0,0,0,1572,1572,1572,1572,1564,1564,1564,1564,1564,1564,1564,1564,1564,1572,1572,1572,1572,1572,1564,1564,1572,1572,1572,1572,1572,1572,1572,1564,1564,1564,1557,1557,1564,1564,1564,1564,1564,1564,1564,1564,1557,1557,1557,1564,1564,1564,1564,1564,1564,1564,1564,1564,1564,1557,1557,1557,1557,1557,1557,1557,1557,1557,1557,1564,1564,1564,1572,1586,1586,1586,1586,1823,1823,1813,1813,1804,1804,1804,1794,1794,1785,1776,1776,1739,1713,1696,1696,1688,1688,1688,1696,1688,1688,1680,1663,1594,1594,1594,1586,1579,1579,1579,1579,1579,1586,1586,1594,1594,1594,1594,1594,1601,1601,1609,1609,1616,1616,1616,1624,1624,1624,1624,1632,1632,1632,1639,1647,1655,1655,1655,1655,1655,1663,1663,1663,1671,1671,1671,1680,1688,1688,1688,1688,1696,1696,1696,1696,1696,1696,1705,1705,1713,1713,1722,1722,1722,1731,1731,1731,1739,1739,1748,1748,1757,1766,1766,1766,1776,1776,1776,1785,1785,1785,1785,1794,1794,1794,1804,1804,1804,1813,1804,1804,1804,1804,1804,1804,1823,1823,0,0,0,0,1073,1073,1073,1070,1070,1070,1070,1070,1067,1063,1063,1063,1063,1063,1063,1063,1063,1063,1063,1063,1067,1067,1070,1070,1067,1067,1067,1060,1060,1060,1060,1054,1054,1722,1722,1722,1722,1713,1713,1705,1705,1696,1696,1696,1696,1696,1696,1696,1696,1696,1688,1688,1688,1688,1688,1680,1680,1680,1671,1671,1663,1663,1663,1663,1655,1655,1655,1655,1647,1647,1647,1639,1639,1632,1632,1632,1632,1632,1624,1624,1624,1624,1624,1616,1616,1609,1609,1609,1601,1601,1601,1601,1601,1594,1594,1594,1594,1586,1586,1586,1586,1579,1572,1572,1579,1572,1564,1564,1564,1557,1557,1557,1557,1557,1557,1557,1550,1550,1550,1543,1543,1543,1536,1536,0,0,0,0,0,0,0,0,906,906,903,903,901,901,898,898,898,896,896,896,894,894,891,891,891,891,891,894,898,903,908,908,910,910,910,913,913,0,0,0,0,0,1458,1458,1458,1452,1452,1445,1445,1445,1445,1439,1439,1439,1439,1433,1433,1427,1427,1427,1421,1421,1421,1421,1421,1415,1415,1415,1415,1415,1415,1415,1410,1410,1404,1404,1404,1398,1398,1398,1398,1392,1392,1392,1392,1387,1387,1387,1381,1381,1376,1376,1376,1376,1370,1370,1370,1370,1370,1365,1365,1365,1359,1359,1354,1354,1354,1354,1349,1349,1349,1343,1343,1343,1338,1338,1333,1333,1333,1333,1333,1328,1328,1322,1322,1322,1322,1317,1317,1312,1312,1312,1312,1312,1312,1307,1307,1307,1302,1302,1297,1292,1292,1292,1292,1292,1292,1288,1288,1288,1288,1288,1283,1283,1278,1278,1278,1273,1273,1273,1268,1268,1268,1268,1268,1264,1264,1259,1259,1255,1255,1255,1255,1255,1255,1250,1250,1250,1250,1245,1241,1241,1236,1236,1236,1236,1232,1232,1232,1232,1232,1232,1227,1227,1223,1223,1219,1219,1219,1214,1214,1214,1214,1210,1210,1210,1210,1206,1206,1202,1202,1202,1197,1197,1197,1197,1197,1197,1193,1189,1185,1185,1185,1185,1185,1181,1181,1181,1181,1181,1177,1177,1177,1173,1169,1169,1169,1165,1165,1165,1165,1165,1165,1165,1165,1161,1161,1161,1161,1157,1157,1157,1153,1153,1153,1153,1149,1149,1149,1145,1145,1145,1145,1141,1141,1141,1138,1138,1138,1138,1134,1134,1134,1134,1134,1130,1130,1126,1123,1123,0,0,0,0,0,0,0,0,0,0,0,0,0,0,0,0,0,0,0,0,0,0,0,0,0,0,0,0,0
0,0,0,0,0,0,0,0,0,0,0,0,0,0,1579,1572,1572,1572,1564,1564,1564,1564,1564,1564,1564,1564,1572,1572,1572,1572,1572,1572,1564,1564,1572,1572,1572,1572,1572,1572,1564,1564,1564,1564,1564,1564,1564,1564,1564,1564,1564,1564,1564,1564,1557,1557,1557,1564,1564,1564,1564,1564,1564,1564,1564,1564,1564,1557,1557,1564,1564,1557,1557,1557,1557,1557,1564,1564,1564,1572,1572,1586,1586,1586,1586,1601,1609,1804,1794,1794,1794,1794,1785,1785,1776,1776,1766,1748,1731,1696,1696,1688,1688,1688,1696,1688,1680,1680,1663,1594,1594,1594,1586,1579,1579,1579,1579,1586,1586,1586,1594,1594,1594,1594,1601,1601,1601,1609,1609,1616,1616,1616,1624,1624,1624,1624,1632,1632,1632,1639,1647,1655,1655,1655,1655,1655,1663,1663,1663,1671,1671,1680,1680,1688,1688,1696,1696,1696,1696,1696,1696,1705,1705,1705,1705,1713,1713,1722,1722,1722,1731,1731,1731,1739,1739,1748,1757,1757,1766,1766,1766,1776,1776,1776,1785,1785,1794,1794,1794,1794,1794,1804,1804,1813,1813,1813,1813,1804,1804,1794,1794,1794,0,0,0,0,0,1070,1070,1070,1070,1070,1070,1070,1070,1067,1063,1063,1063,1063,1063,1063,1063,1063,1063,1063,1063,1067,1067,1067,1063,1063,1060,1060,1057,1057,1057,1054,1054,1054,1722,1722,1722,1722,1713,1713,1705,1705,1696,1696,1688,1688,1688,1688,1688,1688,1688,1688,1688,1688,1688,1688,1680,1680,1680,1671,1671,1663,1663,1663,1663,1655,1655,1655,1655,1655,1655,1647,1647,1647,1639,1632,1632,1632,1632,1624,1624,1624,1624,1624,1616,1616,1609,1609,1609,1601,1601,1601,1601,1601,1601,1594,1594,1594,1586,1586,1586,1586,1579,1579,1579,1579,1572,1572,1572,1572,1564,1557,1557,1564,1557,1557,1557,1557,1550,1550,1550,1543,1543,1536,1536,0,0,0,0,0,0,0,0,906,906,903,903,901,901,898,898,898,896,896,896,894,894,891,891,891,894,894,894,898,903,908,910,910,910,910,913,915,0,0,0,0,1464,1464,1458,1458,1458,1452,1452,1445,1445,1445,1445,1439,1439,1439,1439,1433,1433,1433,1427,1427,1427,1421,1421,1421,1415,1415,1415,1415,1415,1415,1415,1415,1410,1410,1410,1404,1398,1398,1398,1398,1392,1392,1392,1392,1392,1387,1387,1381,1381,1376,1376,1376,1376,1370,1370,1370,1370,1370,1370,1370,1365,1365,1359,1359,1354,1354,1354,1349,1349,1349,1349,1343,1343,1338,1338,1338,1333,1333,1333,1333,1328,1328,1322,1322,1322,1322,1317,1317,1312,1312,1312,1312,1312,1312,1307,1307,1307,1307,1302,1302,1292,1292,1292,1292,1292,1292,1292,1288,1288,1288,1288,1283,1283,1278,1278,1278,1273,1273,1273,1268,1268,1268,1268,1268,1268,1264,1264,1259,1255,1255,1255,1255,1255,1255,1255,1250,1250,1250,1245,1241,1241,1236,1236,1236,1236,1232,1232,1232,1232,1232,1232,1232,1227,1223,1223,1219,1219,1219,1214,1214,1214,1214,1210,1210,1210,1210,1210,1206,1202,1202,1202,1197,1197,1202,1197,1197,1197,1197,1189,1185,1185,1185,1185,1185,1185,1185,1181,1181,1181,1181,1181,1177,1173,1173,1173,1169,1169,1169,1165,1165,1165,1165,1165,1165,1165,1165,1161,1161,1161,1157,1157,1153,1153,1153,1153,1153,1149,1149,1149,1145,1145,1145,1145,1141,1141,1141,1141,1138,1138,1138,1138,1134,1134,1134,1134,1130,1130,1126,1126,0,0,0,0,0,0,0,0,0,0,0,0,0,0,0,0,0,0,0,0,0,0,0,0,0,0,0,0,0
0,0,0,0,0,0,0,0,0,0,0,0,0,0,1579,1572,1572,1572,1572,1564,1564,1572,1572,1564,1564,1572,1572,1572,1572,1572,1572,1572,1572,1572,1572,1572,1572,1572,1572,1572,1564,1564,1564,1564,1564,1564,1572,1572,1572,1572,1564,1564,1564,1564,1564,1564,1564,1564,1564,1564,1564,1564,1564,1564,1564,1564,1564,1557,1557,1564,1564,1557,1557,1557,1557,1564,1564,1564,1564,1564,1579,1586,1586,1594,1594,1601,1601,1804,1794,1794,1785,1785,1776,1776,1776,1766,1766,1739,1731,1696,1696,1688,1688,1688,1696,1696,1680,1680,1663,1609,1594,1594,1586,1579,1579,1579,1579,1586,1586,1594,1594,1594,1594,1601,1601,1601,1601,1609,1609,1616,1616,1616,1624,1624,1624,1624,1632,1632,1639,1639,1647,1655,1655,1655,1655,1655,1663,1663,1671,1671,1671,1680,1688,1688,1696,1696,1696,1696,1696,1696,1696,1705,1705,1705,1713,1713,1713,1722,1722,1722,1731,1731,1739,1739,1748,1748,1757,1766,1766,1766,1766,1776,1776,1776,1785,1785,1794,1794,1794,1794,1804,1804,1804,1813,1813,1813,1813,1804,1804,1794,1794,1794,1794,0,1063,0,1067,1067,1067,1067,1067,1067,1067,1067,1067,1063,1063,1063,1063,1063,1060,1060,1060,1063,1063,1063,1063,1063,1063,1063,1060,1060,1057,1057,1054,1054,1054,1050,1050,1050,1050,1038,1722,1722,1713,1713,1705,1705,1713,1696,1688,1688,1688,1688,1688,1688,1688,1688,1688,1688,1688,1688,1680,1680,1680,1671,1671,1663,1663,1663,1663,1655,1655,1655,1655,1655,1655,1655,1655,1647,1639,1639,1632,1632,1632,1632,1632,1624,1624,1624,1624,1616,1616,1609,1609,1609,1601,1601,1601,1601,1601,1601,1594,1594,1594,1594,1594,1586,1586,1586,1579,1579,1572,1572,1572,1572,1564,1564,1564,1564,1564,1564,1564,1557,1557,1550,1550,1550,1543,1536,1536,0,0,0,0,0,0,0,0,906,906,906,906,903,901,901,898,898,898,896,896,894,894,891,891,894,894,894,894,898,903,908,910,913,910,910,913,0,0,0,0,0,1464,1464,1464,1464,1458,1458,1452,1452,1445,1445,1445,1439,1439,1439,1439,1439,1439,1439,1433,1427,1427,1427,1421,1421,1421,1415,1415,1415,1415,1415,1415,1415,1410,1410,1410,1404,1398,1398,1398,1398,1392,1392,1392,1392,1392,1392,1392,1387,1387,1381,1381,1376,1376,1370,1370,1370,1370,1370,1370,1370,1365,1365,1365,1359,1359,1354,1354,1349,1349,1349,1349,1349,1343,1338,1338,1338,1333,1333,1333,1333,1328,1328,1328,1328,1322,1322,1322,1317,1317,1317,1312,1312,1312,1312,1312,1312,1307,1307,1307,1302,1302,1292,1292,1292,1292,1292,1292,1288,1288,1288,1288,1288,1288,1283,1283,1278,1278,1273,1273,1273,1273,1273,1273,1268,1268,1268,1264,1264,1259,1259,1255,1255,1255,1255,1255,1255,1250,1250,1245,1245,1241,1241,1241,1236,1236,1236,1232,1232,1232,1232,1232,1232,1227,1223,1223,1223,1219,1219,1219,1214,1214,1214,1210,1210,1210,1210,1210,1206,1206,1202,1202,1197,1197,1202,1197,1197,1197,1197,1189,1189,1185,1185,1185,1185,1185,1185,1181,1181,1181,1181,1181,1177,1177,1177,1173,1169,1169,1169,1169,1165,1165,1165,1165,1165,1165,1165,1165,1161,1161,1161,1161,1157,1157,1153,1153,1153,1153,1149,1149,1149,1145,1145,1145,1141,1141,1141,1141,1138,1138,1138,1138,1134,1134,1134,1134,1134,1130,1130,1130,0,0,0,0,0,0,0,0,0,0,0,0,0,0,0,0,0,0,0,0,0,0,0,0,0,0,0,0,0
0,0,0,0,0,0,0,0,0,0,0,0,0,0,1579,1579,1579,1579,1572,1572,1572,1572,1572,1572,1572,1572,1572,1572,1572,1572,1572,1572,1572,1572,1572,1572,1572,1572,1572,1572,1564,1564,1564,1572,1572,1572,1572,1572,1572,1572,1564,1564,1564,1564,1564,1564,1564,1564,1564,1564,1564,1564,1564,1564,1564,1564,1564,1564,1564,1564,1564,1564,1564,1564,1564,1564,1564,1564,1564,1564,1572,1586,1586,1594,1601,1601,1601,1794,1785,1785,1776,1776,1766,1766,1766,1757,1748,1739,1731,1696,1696,1688,1688,1696,1696,1696,1688,1680,1655,1609,1594,1594,1586,1579,1579,1579,1579,1586,1586,1594,1594,1594,1594,1601,1601,1601,1601,1609,1609,1616,1616,1616,1624,1624,1624,1624,1632,1632,1639,1639,1647,1655,1655,1655,1655,1663,1663,1671,1671,1671,1680,1680,1688,1688,1696,1696,1696,1696,1696,1696,1696,1705,1705,1705,1713,1713,1713,1722,1722,1731,1731,1731,1739,1748,1748,1757,1757,1766,1766,1766,1766,1766,1776,1776,1785,1785,1794,1794,1794,1034,1034,1034,1038,1044,1044,1044,1050,1050,1047,1047,1047,1047,1060,1060,1063,1063,1063,1063,1067,1067,1067,1067,1067,1067,1067,1063,1063,1060,1060,1060,1060,1060,1060,1060,1063,1060,1060,1060,1060,1054,1054,1050,1050,1050,1050,1050,1047,1047,1044,1044,1038,1038,1038,1038,1713,1713,1705,1705,1713,1696,1688,1688,1688,1034,1031,1031,1031,1031,1031,1688,1688,1688,1688,1688,1688,1680,1671,1671,1663,1663,1663,1663,1655,1655,1655,1655,1655,1655,1655,1647,1647,1639,1639,1639,1632,1632,1632,1632,1624,1624,1624,1624,1616,1616,1616,1609,1601,1601,1601,1601,1601,1601,1594,1594,1594,1594,1594,1594,1586,1586,1579,1579,1579,1572,1572,1572,1564,1564,1564,1572,1572,1564,1564,1557,1557,1557,1550,1550,1543,1543,1543,0,0,0,0,0,0,0,0,906,906,906,906,903,903,901,901,898,898,896,896,894,894,894,894,894,894,894,896,898,903,908,913,913,913,913,913,0,0,0,0,0,1464,1464,1464,1464,1464,1458,1458,1452,1445,1445,1445,1445,1445,1445,1439,1439,1439,1439,1439,1433,1433,1433,1433,1421,1421,1415,1415,1415,1415,1415,1415,1410,1410,1410,1410,1404,1404,1398,1398,1398,1398,1392,1392,1392,1392,1392,1392,1387,1387,1387,1387,1381,1376,1370,1370,1370,1370,1370,1370,1370,1370,1365,1365,1359,1359,1359,1354,1354,1349,1349,1349,1349,1343,1343,1338,1338,1338,1333,1333,1333,1333,1328,1328,1328,1328,1328,1322,1322,1317,1317,1317,1312,1312,1312,1312,1312,1312,1307,1307,1307,1302,1297,1297,1292,1292,1292,1292,1292,1292,1288,1288,1288,1288,1283,1283,1278,1278,1278,1273,1273,1273,1273,1273,1268,1268,1268,1264,1264,1259,1259,1259,1255,1255,1255,1255,1255,1250,1250,1245,1245,1241,1241,1241,1236,1236,1236,1236,1236,1232,1232,1232,1232,1227,1227,1227,1223,1223,1219,1219,1219,1219,1214,1210,1210,1210,1210,1210,1206,1206,1202,1202,1202,1202,1202,1202,1197,1197,1197,1193,1189,1189,1189,1185,1185,1185,1185,1185,1185,1185,1181,1181,1177,1177,1177,1173,1169,1169,1169,1169,1169,1169,1169,1165,1165,1165,1165,1165,1165,1161,1161,1161,1157,1157,1157,1153,1153,1153,1153,1149,1149,1149,1149,1145,1145,1145,1141,1141,1141,1141,1138,1138,1138,1138,1138,1134,1134,1134,1130,1130,0,0,0,0,0,0,0,0,0,0,0,0,0,0,0,0,0,0,0,0,0,0,0,0,0,0,0,0,0
0,0,0,0,0,0,0,0,0,0,0,0,0,0,1579,1579,1579,1579,1572,1572,1572,1572,1572,1572,1572,1572,1572,1572,1572,1572,1572,1572,1572,1572,1572,1572,1579,1579,1572,1572,1572,1572,1572,1572,1572,1572,1572,1572,1572,1572,1564,1564,1564,1564,1564,1564,1564,1564,1564,1564,1564,1564,1564,1564,1564,1564,1564,1564,1564,1564,1564,1564,1564,1564,1564,1564,1564,1564,1564,1564,1572,1579,1586,1594,1601,1601,1609,1609,1785,1776,1776,1766,1766,1766,1757,1748,1739,1731,1722,1713,1696,1696,1696,1696,1696,1696,1688,1680,1655,1647,1601,1594,1586,1579,1579,1579,1579,1586,1586,1594,1594,1594,1601,1601,1601,1601,1601,1609,1609,1616,1616,1624,1624,1624,1624,1632,1632,1632,1639,1639,1647,1655,1655,1655,1655,1663,1663,1671,1680,1680,1680,1688,1688,1688,1696,1696,1696,1696,1696,1696,1696,1705,1705,1713,1713,1713,1722,1722,1722,1731,1731,1739,1748,1748,1757,1757,1757,1766,1766,1766,1766,1766,1776,1776,1785,1785,1794,1804,1034,1034,1034,1034,1038,1041,1041,1044,1047,1047,1047,1047,1047,1047,1047,1060,1060,1060,1060,1060,1063,1063,1063,1063,1067,1067,1067,1063,1060,1060,1060,1057,1057,1060,1060,1060,1060,1060,1060,1057,1054,1047,1044,1044,1041,1041,1047,1047,1047,1044,1041,1041,1034,1034,1038,1038,1038,1034,1034,1034,1041,1034,1025,1022,1022,1031,1031,1028,1028,1031,1031,1028,1028,1028,1028,1696,1688,1680,1671,1671,1671,1663,1663,1663,1663,1663,1663,1655,1655,1655,1655,1647,1647,1647,1639,1639,1632,1632,1632,1632,1632,1624,1624,1624,1624,1624,1616,1609,1609,1601,1601,1601,1601,1601,1594,1594,1594,1594,1594,1594,1586,1586,1586,1579,1579,1579,1572,1572,1572,1564,1564,1572,1572,1572,1564,1564,1564,1557,1557,1550,1543,1543,0,0,0,0,0,0,0,0,0,906,906,906,906,903,903,901,901,898,898,898,896,894,894,894,894,894,894,894,896,898,903,908,913,913,913,913,913,0,0,0,0,0,1464,1464,1464,1464,1464,1458,1458,1452,1452,1452,1445,1445,1445,1445,1439,1439,1439,1439,1439,1439,1439,1433,1433,1427,1427,1421,1421,1415,1415,1415,1415,1410,1410,1410,1410,1404,1404,1404,1398,1398,1398,1398,1392,1392,1392,1392,1392,1392,1387,1387,1387,1381,1376,1376,1376,1370,1370,1370,1370,1370,1370,1365,1365,1365,1359,1359,1354,1354,1349,1349,1349,1349,1349,1343,1343,1338,1338,1338,1333,1333,1333,1333,1328,1328,1328,1328,1328,1322,1322,1322,1317,1312,1312,1312,1312,1312,1312,1312,1307,1307,1302,1302,1297,1297,1292,1292,1292,1292,1292,1288,1288,1288,1288,1288,1288,1283,1278,1278,1278,1273,1273,1273,1273,1268,1268,1268,1268,1264,1264,1259,1259,1259,1255,1255,1255,1255,1250,1250,1245,1245,1241,1241,1241,1236,1236,1236,1236,1236,1232,1232,1232,1232,1232,1227,1227,1227,1223,1223,1219,1219,1219,1214,1214,1210,1210,1210,1210,1206,1206,1202,1202,1202,1202,1202,1202,1197,1197,1197,1193,1193,1189,1189,1189,1185,1185,1185,1185,1185,1185,1181,1181,1181,1181,1177,1177,1173,1169,1169,1169,1169,1169,1169,1169,1165,1165,1165,1165,1165,1161,1161,1161,1161,1157,1157,1157,1153,1153,1153,1149,1149,1149,1149,1145,1145,1145,1141,1141,1141,1141,1138,1138,1138,1138,1138,1134,1134,1134,1130,1130,0,0,0,0,0,0,0,0,0,0,0,0,0,0,0,0,0,0,0,0,0,0,0,0,0,0,0,0,0
0,0,0,0,0,0,0,0,0,0,0,0,0,0,1579,1579,1579,1579,1572,1572,1572,1572,1572,1572,1572,1572,1572,1572,1572,1572,1572,1572,1572,1572,1572,1572,1579,1579,1572,1572,1572,1572,1572,1572,1572,1572,1572,1572,1572,1572,1564,1564,1564,1564,1564,1564,1564,1564,1564,1564,1564,1572,1564,1564,1564,1564,1564,1564,1564,1564,1564,1564,1564,1564,1564,1564,1564,1564,1564,1564,1572,1572,1579,1586,1601,1601,1601,1601,1785,1766,1766,1757,1757,1757,1748,1748,1739,1731,1722,1713,1705,1696,1696,1696,1696,1696,1688,1688,1655,1639,1616,1594,1594,1594,1586,1586,1586,1586,1594,1594,1594,1594,1601,1601,1601,1601,1609,1609,1616,1616,1624,1624,1624,1624,1624,1632,1632,1639,1639,1647,1655,1655,1655,1655,1663,1663,1671,1671,1680,1680,1680,1688,1688,1688,1688,1696,1696,1696,1696,1696,1705,1705,1713,1713,1713,1722,1722,1722,1731,1731,1739,1748,1748,1757,1757,1757,1766,1766,1766,1766,1766,1776,1776,1776,1785,1785,1794,1804,1034,1034,1034,1034,1038,1038,1038,1041,1044,1047,1047,1047,1047,1047,1047,1057,1057,1057,1057,1057,1057,1057,1057,1057,1060,1063,1067,1063,1060,1060,1060,1057,1057,1060,1025,1025,1060,1060,1060,1054,1047,1044,1044,1038,1034,1034,1038,1038,1044,1041,1038,1038,1034,1034,1038,1038,1038,1031,1031,1031,1031,1028,1022,1022,1022,1031,1031,1028,1025,1025,1025,1022,1022,1022,1019,1019,1019,1019,1680,1680,1671,1663,1663,1663,1663,1663,1663,1663,1655,1655,1655,1647,1647,1647,1639,1639,1632,1632,1632,1632,1632,1624,1624,1624,1624,1624,1624,1616,1609,1609,1609,1601,1601,1601,1601,1601,1594,1594,1594,1594,1586,1586,1586,1579,1579,1579,1572,1572,1572,1572,1572,1572,1572,1572,1572,1564,1564,1564,1557,1550,1550,0,0,0,0,0,0,0,0,906,906,906,906,906,906,903,903,901,901,901,898,898,896,894,894,894,894,894,896,896,898,901,906,910,913,913,913,913,915,0,0,0,0,0,1464,1464,1464,1464,1464,1458,1458,1458,1452,1452,1445,1445,1445,1445,1445,1445,1445,1445,1439,1439,1439,1433,1433,1433,1427,1421,1421,1415,1415,1415,1415,1415,1415,1415,1410,1410,1410,1404,1398,1398,1398,1398,1398,1392,1392,1392,1392,1392,1392,1387,1387,1387,1376,1376,1376,1370,1370,1370,1370,1370,1370,1370,1370,1365,1365,1359,1354,1354,1354,1354,1349,1349,1349,1349,1343,1343,1343,1338,1338,1333,1333,1333,1328,1328,1328,1328,1328,1328,1322,1322,1317,1317,1317,1312,1312,1312,1312,1312,1307,1307,1302,1302,1302,1297,1297,1292,1292,1292,1292,1292,1288,1288,1288,1288,1288,1283,1283,1278,1278,1273,1273,1273,1273,1273,1268,1268,1268,1264,1264,1259,1259,1259,1255,1255,1255,1255,1255,1250,1250,1250,1245,1245,1245,1241,1241,1236,1236,1236,1236,1232,1232,1232,1232,1232,1227,1227,1227,1223,1223,1219,1219,1219,1214,1214,1214,1214,1214,1214,1206,1202,1202,1202,1202,1202,1202,1197,1197,1197,1197,1193,1193,1193,1189,1189,1189,1189,1185,1185,1185,1185,1185,1181,1181,1181,1181,1177,1177,1173,1169,1169,1169,1169,1169,1169,1169,1165,1165,1165,1165,1165,1161,1161,1157,1157,1157,1153,1153,1153,1149,1149,1149,1149,1145,1145,1145,1141,1141,1141,1141,1141,1138,1138,1138,1138,1134,1134,1134,1134,1134,0,0,0,0,0,0,0,0,0,0,0,0,0,0,0,0,0,0,0,0,0,0,0,0,0,0,0,0,0
0,0,0,0,0,0,0,0,0,0,0,0,0,0,1586,1579,1579,1579,1572,1572,1579,1579,1579,1579,1572,1572,1572,1572,1572,1572,1572,1572,1572,1579,1579,1579,1579,1572,1572,1572,1572,1572,1572,1572,1572,1572,1572,1572,1572,1572,1564,1564,1564,1564,1564,1564,1564,1564,1564,1564,1564,1572,1572,1572,1564,1564,1564,1564,1564,1564,1564,1564,1564,1564,1564,1564,1564,1564,1564,1564,1572,1572,1579,1586,1601,1601,1601,1601,1601,1757,1748,1748,1748,1748,1739,1739,1739,1731,1722,1722,1705,1705,1696,1696,1696,1696,1688,1688,1647,1632,1616,1594,1594,1594,1586,1586,1594,1594,1594,1594,1594,1594,1601,1601,1601,1601,1609,1609,1616,1616,1624,1624,1624,1624,1632,1632,1639,1639,1639,1647,1655,1655,1655,1655,1663,1671,1671,1671,1680,1680,1680,1688,1688,1688,1688,1696,1696,1696,1696,1705,1705,1705,1713,1713,1722,1722,1722,1722,1731,1731,1739,1748,1748,1757,1757,1757,1766,1766,1766,1766,1776,1776,1776,1785,1785,1794,1804,1028,1028,1031,1031,1031,1034,1034,1034,1038,1038,1041,1044,1044,1044,1038,1028,1028,1031,1031,1038,1038,1038,1038,1044,1044,1060,1063,1067,1063,1025,1025,1022,1022,1025,1025,1022,1022,1022,1060,1060,1038,1038,1038,1038,1034,1028,1028,1031,1031,1031,1031,1034,1034,1031,1031,1034,1034,1034,1028,1025,1025,1025,1022,1022,1019,1019,1013,1013,1022,1019,1019,1016,1016,1016,1016,1016,1016,1013,1013,1013,1013,1013,1013,1013,1013,1013,1013,1663,1663,1663,1663,1655,1655,1655,1647,1647,1639,1639,1632,1632,1632,1632,1632,1632,1624,1624,1624,1624,1616,1609,1609,1609,1601,1601,1601,1601,1601,1601,1594,1594,1594,1594,1586,1586,1579,1579,1579,1572,1572,1572,1572,1572,1572,1572,1572,1572,1564,1564,1564,1557,1557,1557,0,0,0,0,0,0,0,0,906,906,906,906,906,906,906,903,903,901,901,898,898,896,896,894,894,894,894,896,896,898,901,906,910,913,915,915,915,915,0,0,0,0,1470,1470,1464,1464,1464,1464,1458,1452,1452,1458,1452,1445,1445,1445,1445,1445,1445,1445,1445,1439,1439,1439,1439,1439,1433,1427,1421,1421,1421,1421,1421,1415,1415,1415,1415,1415,1410,1410,1410,1398,1398,1398,1398,1398,1392,1392,1392,1392,1392,1392,1387,1387,1387,1376,1376,1376,1376,1376,1370,1370,1370,1370,1370,1370,1365,1365,1359,1354,1354,1354,1354,1349,1349,1349,1349,1343,1343,1343,1338,1338,1333,1333,1333,1328,1328,1328,1328,1328,1328,1328,1328,1322,1317,1317,1317,1312,1312,1312,1312,1312,1307,1302,1302,1302,1297,1297,1297,1292,1292,1292,1292,1292,1288,1288,1288,1288,1283,1283,1283,1278,1278,1278,1273,1273,1273,1268,1268,1268,1268,1264,1264,1259,1259,1255,1255,1255,1255,1255,1250,1250,1250,1250,1245,1245,1241,1241,1236,1236,1236,1236,1236,1236,1232,1232,1232,1232,1227,1227,1223,1223,1219,1219,1219,1214,1214,1214,1214,1214,1214,1210,1206,1206,1202,1202,1202,1202,1202,1197,1197,1197,1197,1197,1193,1193,1193,1189,1189,1189,1185,1185,1185,1185,1181,1181,1181,1181,1177,1177,1177,1173,1169,1169,1169,1169,1169,1169,1169,1165,1165,1165,1165,1165,1161,1161,1157,1157,1157,1153,1153,1153,1149,1149,1149,1149,1145,1145,1145,1145,1141,1141,1141,1138,1138,1138,1138,1134,1134,1134,1134,1134,0,0,0,0,0,0,0,0,0,0,0,0,0,0,0,0,0,0,0,0,0,0,0,0,0,0,0,0,0
0,0,0,0,0,0,0,0,0,0,0,0,0,0,1586,1579,1579,1579,1579,1579,1579,1579,1579,1579,1572,1572,1572,1572,1572,1572,1572,1579,1579,1579,1579,1579,1579,1572,1572,1572,1572,1572,1572,1572,1572,1572,1572,1572,1572,1572,1572,1572,1572,1572,1572,1572,1572,1564,1564,1572,1572,1572,1572,1572,1564,1564,1564,1564,1564,1564,1564,1564,1564,1564,1564,1564,1564,1564,1564,1564,1572,1572,1586,1586,1594,1601,1601,1601,1601,1739,1739,1739,1739,1731,1731,1731,1739,1731,1731,1722,1713,1713,1705,1705,1705,1696,1688,1688,1647,1632,1616,1601,1594,1594,1594,1594,1594,1594,1594,1594,1594,1601,1601,1601,1601,1601,1609,1609,1616,1616,1624,1624,1624,1624,1632,1632,1639,1639,1639,1647,1655,1655,1655,1655,1663,1671,1671,1671,1680,1680,1680,1688,1688,1688,1688,1696,1696,1696,1705,1705,1705,1705,1713,1713,1722,1722,1722,1722,1731,1731,1739,1748,1757,1757,1757,1757,1025,1025,1025,1025,1025,1776,1785,1785,1785,1794,1025,1025,1025,1025,1025,1025,1028,1028,1028,1034,1034,1038,1041,1038,1038,1031,1028,1028,1028,1028,1028,1031,1031,1034,1034,1034,1025,1022,1019,1019,1019,1019,1019,1019,1019,1025,1022,1022,1022,1022,1060,1025,1025,1028,1028,1025,1025,1025,1025,1025,1022,1022,1025,1025,1028,1028,1034,1028,1028,1025,1022,1022,1025,1022,1022,1019,1019,1013,1013,1016,1016,1016,1013,1013,1013,1013,1013,1010,1010,1010,1010,1010,1010,1010,1010,1010,1010,1010,1010,1010,1010,1007,1007,1007,1655,1655,1647,1647,1639,1639,1639,1632,1632,1632,1632,1632,1624,1624,1624,1616,1616,1609,1609,1609,1601,1601,1601,1601,1601,1594,1594,1594,1594,1594,1586,1586,1586,1579,1579,1572,1572,1572,1572,1572,1572,1572,1572,1564,1564,1564,1557,1557,1557,0,0,0,0,0,0,0,0,906,906,906,906,906,906,906,906,903,901,901,898,896,896,896,896,896,896,896,896,896,898,903,906,913,913,915,915,915,0,0,0,0,0,1470,1470,1464,1464,1464,1464,1458,1452,1452,1452,1452,1452,1445,1445,1445,1445,1445,1445,1445,1439,1439,1439,1439,1439,1433,1427,1421,1421,1421,1421,1421,1415,1415,1415,1415,1415,1415,1410,1410,1404,1404,1398,1398,1398,1398,1398,1392,1392,1392,1392,1387,1387,1381,1381,1376,1376,1376,1376,1370,1370,1370,1370,1370,1370,1365,1365,1359,1359,1354,1354,1354,1349,1349,1349,1349,1349,1343,1343,1343,1343,1338,1333,1333,1333,1333,1328,1328,1328,1328,1328,1322,1322,1317,1317,1317,1312,1312,1312,1312,1312,1307,1302,1302,1302,1302,1297,1297,1292,1292,1292,1292,1292,1292,1292,1288,1288,1288,1283,1283,1283,1278,1278,1273,1273,1273,1273,1268,1268,1268,1268,1264,1264,1259,1259,1255,1255,1255,1255,1250,1250,1250,1250,1245,1245,1245,1241,1241,1241,1241,1236,1236,1236,1236,1232,1232,1232,1227,1227,1223,1223,1219,1219,1219,1214,1214,1214,1214,1214,1214,1210,1206,1206,1206,1202,1202,1202,1202,1197,1197,1197,1197,1197,1193,1193,1193,1189,1189,1189,1185,1185,1185,1185,1181,1181,1181,1181,1181,1177,1177,1173,1173,1169,1169,1169,1169,1169,1169,1165,1165,1165,1165,1165,1161,1161,1157,1157,1153,1153,1153,1153,1149,1149,1149,1149,1145,1145,1145,1145,1141,1141,1141,1138,1138,1138,1138,1134,1134,1134,1134,1134,0,0,0,0,0,0,0,0,0,0,0,0,0,0,0,0,0,0,0,0,0,0,0,0,0,0,0,0,0
0,0,0,0,0,0,0,0,0,0,0,0,0,0,1586,1586,1586,1579,1579,1579,1579,1579,1579,1579,1579,1579,1579,1586,1579,1579,1572,1572,1572,1579,1579,1579,1579,1572,1572,1572,1572,1572,1572,1572,1572,1572,1572,1572,1572,1572,1572,1572,1572,1572,1572,1572,1572,1572,1572,1572,1572,1572,1572,1572,1572,1572,1572,1564,1564,1564,1564,1564,1564,1564,1564,1564,1564,1564,1564,1564,1572,1572,1586,1586,1594,1601,1601,1601,1601,1739,1731,1731,1731,1731,1731,1731,1731,1731,1731,1731,1722,1722,1713,1705,1705,1696,1696,1688,1647,1639,1624,1601,1601,1594,1594,1594,1594,1594,1594,1594,1601,1601,1601,1601,1609,1609,1609,1616,1616,1624,1624,1624,1624,1624,1632,1639,1647,1647,1647,1655,1655,1655,1655,1655,1663,1671,1671,1680,1680,1680,1688,1688,1688,1688,1696,1696,1696,1696,1705,1705,1705,1713,1713,1713,1713,1713,1722,1722,1731,1731,1731,1748,1757,1757,1757,1757,1022,1022,1022,1022,1022,1022,1022,1022,1022,1022,1022,1022,1022,1022,1025,1025,1025,1025,1025,1031,1034,1034,1038,1031,1031,1025,1025,1025,1025,1025,1025,1025,1025,1025,1025,1025,1022,1019,1016,1016,1016,1016,1016,1016,1019,1022,1022,1019,1019,1019,1022,1022,1022,1022,1025,1022,1022,1022,1022,1019,1016,1016,1016,1016,1016,1022,1025,1025,1025,1022,1016,1010,1010,1010,1010,1007,1004,998,998,1001,1007,1010,1010,1010,1010,1010,1007,1004,1004,1004,1004,1004,1007,1007,1004,1004,1004,1001,1001,998,998,998,1004,1001,1001,1001,1001,1001,1655,1647,1647,1639,1639,1632,1632,1632,1624,1624,1624,1616,1616,1616,1609,1609,1601,1601,1601,1601,1601,1594,1594,1594,1594,1594,1586,1586,1586,1586,1579,1579,1572,1572,1572,1579,1572,1572,1572,1572,1564,1564,1564,1564,1564,0,0,0,0,0,0,0,0,0,906,906,908,908,906,906,906,903,901,901,898,896,896,896,896,896,896,896,898,898,901,906,908,913,913,915,913,913,0,0,0,0,0,1470,1470,1470,1470,1464,1464,1464,1452,1452,1452,1452,1452,1452,1445,1445,1445,1445,1445,1445,1439,1439,1439,1439,1439,1433,1427,1421,1421,1421,1421,1421,1415,1415,1415,1415,1415,1415,1410,1410,1410,1404,1398,1398,1398,1398,1398,1392,1392,1392,1392,1387,1387,1381,1381,1376,1376,1376,1376,1376,1370,1370,1370,1370,1370,1370,1365,1365,1359,1354,1354,1354,1349,1349,1349,1349,1349,1343,1343,1343,1343,1338,1338,1333,1333,1333,1328,1328,1328,1328,1328,1322,1322,1317,1317,1317,1312,1312,1312,1312,1312,1307,1302,1302,1302,1302,1297,1297,1297,1297,1292,1292,1292,1292,1292,1288,1288,1288,1288,1288,1283,1283,1278,1278,1273,1273,1273,1268,1268,1268,1268,1264,1264,1264,1259,1255,1255,1255,1255,1255,1250,1250,1250,1250,1245,1245,1245,1241,1241,1241,1236,1236,1236,1236,1232,1232,1232,1232,1227,1227,1223,1219,1219,1219,1219,1219,1219,1214,1214,1214,1214,1210,1210,1206,1202,1202,1202,1202,1202,1202,1197,1197,1197,1197,1193,1193,1193,1189,1189,1185,1185,1185,1185,1181,1181,1181,1181,1181,1181,1177,1177,1173,1169,1169,1169,1169,1169,1169,1165,1165,1165,1165,1165,1161,1161,1157,1157,1153,1153,1153,1153,1153,1149,1149,1149,1145,1145,1145,1145,1141,1141,1141,1138,1138,1138,1138,1134,1134,1134,1134,1134,0,0,0,0,0,0,0,0,0,0,0,0,0,0,0,0,0,0,0,0,0,0,0,0,0,0,0,0,0
0,0,0,0,0,0,0,0,0,0,0,0,0,0,1586,1586,1586,1579,1579,1579,1579,1579,1579,1579,1579,1579,1579,1579,1579,1579,1572,1572,1572,1579,1579,1586,1579,1579,1579,1572,1572,1572,1572,1572,1572,1572,1572,1572,1572,1572,1572,1572,1572,1572,1572,1572,1572,1572,1572,1572,1572,1572,1572,1572,1572,1572,1572,1564,1564,1564,1564,1564,1564,1564,1564,1572,1564,1564,1572,1572,1572,1579,1586,1594,1594,1601,1601,1601,1601,1731,1731,1731,1731,1731,1731,1731,1731,1731,1731,1731,1722,1722,1713,1705,1705,1696,1696,1688,1663,1655,1632,1616,1601,1601,1594,1594,1594,1594,1594,1601,1601,1601,1601,1601,1609,1609,1609,1616,1616,1624,1624,1624,1624,1624,1632,1639,1647,1647,1647,1655,1655,1655,1655,1663,1663,1671,1671,1671,1680,1680,1688,1688,1688,1688,1696,1696,1696,1696,1696,1705,1705,1713,1713,1713,1713,1713,1722,1722,1722,1722,1731,1739,1757,1757,1019,1019,1019,1019,1022,1019,1019,1022,1022,1022,1019,1019,1022,1019,1019,1022,1022,1022,1022,1019,1019,1025,1025,1034,1038,1031,1031,1019,1016,1016,1016,1019,1019,1019,1022,1022,1022,1019,1019,1019,1016,1016,1013,1013,1013,1013,1016,1016,1016,1013,1013,1016,1016,1016,1013,1013,1016,1022,1019,1019,1019,1016,1016,1016,1010,1004,1004,995,995,998,998,998,1004,1001,998,998,995,995,998,998,998,998,1004,1007,1007,1007,1007,1007,1007,1001,1001,1001,1001,1001,1001,1001,998,998,998,995,995,992,992,992,992,995,998,998,998,998,995,995,995,978,1639,1639,1632,1632,981,978,978,1624,1616,1616,1609,1609,1601,1601,1601,1601,1601,1594,1594,1594,1594,1594,1594,1586,1586,1586,1579,1579,1572,1572,1572,1579,1579,1572,959,959,959,1572,1572,1572,1572,0,0,0,0,0,0,0,0,0,906,906,908,908,906,906,906,903,903,901,901,898,896,896,896,896,896,896,898,898,903,908,908,913,913,915,913,913,0,0,0,0,0,1477,1470,1470,1470,1470,1464,1464,1464,1452,1452,1452,1452,1452,1452,1445,1445,1445,1445,1445,1439,1439,1439,1439,1433,1433,1427,1427,1421,1421,1421,1421,1421,1421,1421,1415,1415,1415,1415,1410,1410,1410,1404,1404,1398,1398,1398,1398,1392,1392,1392,1392,1387,1381,1381,1381,1376,1376,1376,1376,1370,1370,1370,1370,1370,1370,1365,1365,1365,1359,1354,1354,1354,1354,1349,1349,1349,1349,1349,1343,1343,1338,1338,1338,1333,1333,1328,1328,1328,1328,1328,1328,1322,1322,1322,1317,1317,1317,1312,1312,1312,1307,1307,1307,1307,1302,1302,1302,1297,1297,1297,1292,1292,1292,1292,1288,1288,1288,1288,1288,1283,1283,1283,1278,1278,1273,1273,1273,1268,1268,1268,1268,1264,1264,1264,1255,1255,1255,1255,1255,1255,1250,1250,1250,1250,1250,1250,1245,1245,1241,1241,1236,1236,1236,1236,1236,1232,1232,1232,1227,1227,1223,1223,1219,1219,1219,1219,1219,1219,1214,1214,1210,1210,1206,1206,1202,1202,1202,1202,1202,1197,1197,1197,1197,1197,1193,1193,1189,1189,1189,1185,1185,1185,1185,1185,1181,1181,1181,1181,1177,1177,1173,1173,1169,1169,1169,1169,1169,1165,1165,1165,1165,1165,1161,1161,1161,1157,1153,1153,1153,1153,1153,1153,1149,1149,1149,1149,1145,1145,1145,1145,1141,1141,1138,1138,1138,1134,1134,1134,1134,1134,0,0,0,0,0,0,0,0,0,0,0,0,0,0,0,0,0,0,0,0,0,0,0,0,0,0,0,0,0
0,0,0,0,0,0,0,0,0,0,0,0,0,0,1586,1586,1579,1579,1579,1579,1579,1579,1579,1579,1579,1579,1579,1579,1572,1572,1572,1572,1572,1579,1579,1586,1579,1579,1579,1579,1579,1572,1572,1572,1572,1572,1572,1572,1572,1579,1579,1579,1572,1572,1579,1579,1572,1572,1572,1579,1579,1572,1572,1572,1572,1572,1572,1572,1572,1564,1564,1564,1572,1572,1572,1572,1572,1572,1572,1572,1572,1579,1586,1594,1594,1601,1601,1601,1601,1722,1722,1722,1722,1722,1722,1731,1731,1731,1731,1731,1731,1731,1722,1713,1713,1705,1696,1696,1663,1655,1639,1609,1609,1601,1601,1601,1594,1594,1601,1601,1601,1601,1609,1609,1616,1616,1616,1616,1616,1624,1624,1624,1624,1624,1632,1639,1647,1647,1655,1655,1655,1655,1655,1663,1663,1671,1671,1671,1680,1680,1680,1688,1688,1688,1696,1696,1696,1696,1696,1705,1705,1713,1713,1713,1713,1713,1722,1722,1722,1722,1731,1739,1757,1748,1013,1013,1013,1016,1013,1013,1016,1016,1019,1016,1013,1013,1016,1016,1016,1013,1013,1016,1016,1013,1004,1004,1001,1001,1001,995,1019,1019,1013,1013,1013,1013,1013,1013,1010,1010,1013,1013,1016,1016,1013,1013,1013,1013,1013,1013,1013,1010,1010,1010,1010,1004,1001,1001,1001,1001,1004,1016,1016,1016,1016,1013,1013,1013,1010,1001,1001,992,992,992,992,989,989,995,989,989,989,989,992,992,995,998,1001,1004,1004,1004,1004,1001,1001,998,998,998,998,998,995,989,987,987,989,992,989,989,989,989,989,989,995,995,995,998,987,987,978,978,978,981,981,981,978,978,978,978,984,975,975,975,970,970,967,967,1601,1594,1594,1594,1594,1586,1586,1586,1586,1594,1586,1579,1579,1572,1572,1579,1579,959,959,959,956,956,1572,1572,1579,0,0,0,0,0,0,0,0,0,906,906,906,906,906,906,906,903,903,901,898,898,896,896,896,896,896,898,901,903,906,908,908,913,913,915,915,915,0,0,0,0,0,1477,1477,1477,1470,1470,1470,1464,1464,1464,1458,1458,1458,1458,1452,1452,1452,1445,1445,1445,1439,1439,1439,1439,1433,1433,1427,1427,1421,1421,1421,1421,1421,1421,1421,1421,1415,1415,1415,1410,1410,1410,1404,1404,1404,1398,1398,1398,1392,1392,1392,1392,1392,1387,1381,1381,1381,1376,1376,1376,1376,1370,1370,1370,1370,1370,1365,1365,1365,1359,1354,1354,1354,1354,1354,1349,1349,1349,1349,1349,1343,1343,1343,1338,1333,1333,1333,1333,1328,1328,1328,1328,1328,1322,1322,1317,1317,1317,1312,1312,1312,1307,1307,1307,1307,1302,1302,1302,1302,1297,1297,1292,1292,1292,1292,1292,1288,1288,1288,1288,1283,1283,1283,1278,1278,1273,1273,1273,1273,1268,1268,1268,1268,1264,1264,1259,1255,1255,1255,1255,1255,1255,1250,1250,1250,1250,1250,1250,1245,1245,1241,1241,1236,1236,1236,1236,1232,1232,1232,1232,1227,1227,1223,1223,1223,1219,1219,1219,1219,1214,1214,1214,1210,1210,1206,1202,1202,1202,1202,1202,1202,1202,1197,1197,1197,1197,1193,1189,1189,1189,1185,1185,1185,1185,1185,1185,1181,1181,1181,1181,1177,1173,1173,1173,1173,1169,1169,1169,1169,1165,1165,1165,1165,1165,1161,1161,1157,1157,1153,1153,1153,1153,1153,1149,1149,1149,1149,1149,1145,1145,1145,1141,1141,1138,1138,1138,1134,1134,1134,1134,1134,0,0,0,0,0,0,0,0,0,0,0,0,0,0,0,0,0,0,0,0,0,0,0,0,0,0,0,0,0
0,0,0,0,0,0,0,0,0,0,0,0,0,0,1586,1586,1579,1579,1579,1579,1579,1579,1579,1579,1579,1579,1579,1579,1572,1572,1572,1572,1572,1579,1579,1586,1579,1579,1579,1579,1579,1572,1572,1572,1579,1572,1572,1572,1572,1579,1579,1579,1579,1579,1579,1579,1579,1579,1579,1579,1572,1572,1572,1572,1572,1572,1572,1572,1572,1572,1572,1572,1572,1572,1572,1572,1572,1572,1572,1572,1572,1579,1586,1594,1601,1601,1601,1601,1609,1713,1713,1722,1722,1722,1722,1731,1731,1731,1731,1731,1731,1731,1722,1713,1713,1705,1705,1696,1688,1680,1639,1609,1609,1601,1601,1601,1601,1601,1601,1601,1601,1601,1609,1609,1616,1616,1616,1616,1616,1624,1624,1624,1632,1632,1639,1639,1647,1647,1655,1655,1655,1655,1655,1663,1663,1663,1671,1671,1671,1680,1680,1688,1688,1688,1696,1696,1696,1696,1696,1705,1713,1713,1722,1722,1713,1713,1722,1722,1722,1722,1722,1757,1757,1004,1004,1007,1013,1013,1013,1013,1013,1013,1013,1013,1010,1010,1013,1013,1010,1010,1007,1007,1010,1004,1001,1001,1001,998,995,995,992,989,989,1007,1010,1010,1004,1001,1001,998,998,1007,1007,1013,1010,1010,1007,1007,1004,1004,1004,998,998,1004,1004,1001,1001,998,998,998,998,1001,1010,1013,1016,1013,1013,1013,992,992,992,989,989,987,987,981,981,984,984,984,984,987,987,989,992,995,998,1001,1001,998,998,998,998,995,995,995,992,989,987,987,984,984,987,989,987,987,989,987,987,987,987,987,987,998,981,978,978,978,978,978,975,975,978,978,978,978,984,975,975,975,967,967,967,967,967,970,967,967,973,973,973,1586,1586,1594,1586,1579,1579,1572,1572,959,959,959,959,959,956,956,956,956,956,0,0,0,0,0,0,0,0,0,906,906,906,906,906,906,906,903,903,903,898,898,898,898,896,896,898,898,901,903,906,908,910,913,915,915,915,915,0,0,0,0,0,1477,1477,1477,1470,1470,1470,1470,1470,1464,1458,1458,1458,1458,1452,1452,1452,1445,1445,1445,1439,1439,1439,1439,1433,1433,1427,1427,1421,1421,1421,1421,1421,1421,1421,1421,1415,1415,1415,1410,1410,1410,1404,1404,1404,1404,1398,1398,1392,1392,1392,1392,1392,1387,1387,1387,1381,1376,1376,1376,1376,1376,1370,1370,1370,1370,1365,1365,1365,1365,1354,1354,1354,1354,1354,1354,1349,1349,1349,1349,1349,1343,1343,1338,1338,1333,1333,1333,1328,1328,1328,1328,1328,1322,1322,1322,1317,1317,1317,1317,1312,1312,1307,1307,1307,1307,1307,1302,1302,1302,1297,1297,1292,1292,1292,1292,1288,1288,1288,1288,1283,1283,1283,1278,1278,1273,1273,1273,1273,1273,1268,1268,1268,1268,1268,1264,1259,1259,1255,1255,1255,1255,1250,1250,1250,1250,1250,1250,1245,1245,1241,1241,1236,1236,1236,1236,1232,1232,1232,1232,1232,1227,1227,1223,1223,1223,1219,1219,1219,1219,1214,1214,1214,1210,1206,1206,1206,1202,1202,1202,1202,1197,1197,1197,1197,1197,1197,1193,1189,1189,1185,1185,1185,1185,1185,1185,1185,1181,1181,1181,1177,1177,1173,1173,1173,1169,1169,1169,1169,1165,1165,1165,1165,1165,1165,1161,1161,1157,1153,1153,1153,1153,1153,1153,1153,1149,1149,1149,1145,1145,1145,1141,1141,1138,1138,1138,1138,1134,1134,1134,1134,0,0,0,0,0,0,0,0,0,0,0,0,0,0,0,0,0,0,0,0,0,0,0,0,0,0,0,0,0
0,0,0,0,0,0,0,0,0,0,0,0,0,0,1586,1586,1586,1586,1586,1579,1579,1579,1579,1579,1579,1579,1579,1579,1579,1579,1579,1572,1572,1579,1579,1586,1579,1579,1579,1579,1579,1572,1572,1579,1579,1579,1579,1572,1572,1579,1579,1579,1579,1579,1579,1579,1579,1579,1579,1579,1572,1572,1579,1572,1572,1572,1572,1572,1572,1572,1572,1572,1572,1572,1572,1572,1572,1572,1572,1572,1572,1579,1586,1594,1601,1601,1601,1609,1616,1713,1713,1722,1722,1722,1722,1731,1731,1731,1739,1739,1739,1731,1731,1722,1722,1713,1713,1713,1696,1688,1688,1609,1609,1601,1601,1601,1601,1601,1601,1601,1601,1609,1609,1616,1616,1616,1616,1616,1616,1624,1624,1624,1632,1632,1639,1639,1647,1647,1655,1655,1655,1655,1655,1663,1663,1663,1663,1671,1671,1671,1680,1688,1688,1688,1696,1696,1696,1696,1696,1705,992,992,992,995,998,998,992,992,995,995,995,995,1001,1001,1001,1001,1004,1013,1007,995,995,1013,1013,1013,1010,1010,1010,1010,1007,1004,1004,1004,1004,1001,998,998,995,992,989,989,989,989,989,989,1010,1001,998,998,998,995,992,992,1007,1010,1010,1007,1001,1001,998,995,992,992,995,995,992,992,998,998,998,995,989,987,987,1010,1016,1016,1016,1016,989,989,989,987,987,987,987,981,978,978,978,978,984,981,981,984,987,989,989,995,995,995,989,987,987,989,989,987,987,984,978,978,978,978,978,984,984,984,987,984,984,981,981,978,978,998,981,978,967,967,970,973,973,973,975,978,978,978,984,981,978,975,967,967,964,964,967,967,967,967,967,967,970,967,967,970,1586,1586,1579,959,959,959,959,959,956,956,954,954,954,951,951,951,0,0,0,0,0,0,0,0,906,906,906,906,906,906,906,906,903,903,901,901,898,898,898,898,898,898,901,906,908,910,910,915,915,915,915,915,0,0,0,0,0,1483,1477,1477,1470,1470,1470,1470,1470,1464,1464,1458,1458,1458,1458,1452,1452,1445,1445,1445,1439,1439,1439,1439,1439,1433,1433,1433,1427,1427,1427,1421,1421,1421,1421,1421,1421,1415,1415,1415,1410,1410,1410,1404,1404,1404,1398,1398,1398,1398,1392,1392,1392,1392,1387,1387,1387,1381,1381,1381,1381,1376,1376,1370,1370,1370,1370,1370,1365,1365,1354,1354,1354,1354,1354,1354,1349,1349,1349,1349,1349,1349,1343,1343,1338,1333,1333,1333,1333,1328,1328,1328,1328,1322,1322,1322,1322,1317,1317,1317,1312,1312,1312,1307,1307,1307,1307,1307,1307,1302,1302,1297,1297,1297,1292,1292,1292,1292,1288,1288,1288,1283,1283,1283,1278,1278,1278,1273,1273,1273,1273,1268,1268,1268,1268,1264,1264,1259,1259,1259,1255,1255,1255,1255,1250,1250,1250,1250,1245,1245,1241,1241,1236,1236,1236,1236,1232,1232,1232,1232,1232,1227,1227,1227,1223,1223,1219,1219,1219,1219,1219,1214,1214,1210,1210,1206,1206,1206,1202,1202,1202,1197,1197,1197,1197,1197,1197,1193,1193,1193,1189,1185,1185,1185,1185,1185,1185,1181,1181,1181,1181,1177,1177,1173,1173,1173,1173,1169,1169,1169,1169,1169,1165,1165,1165,1161,1161,1157,1157,1157,1153,1153,1153,1153,1153,1149,1149,1149,1149,1149,1145,1145,1141,1141,1138,1138,1138,1138,1138,1138,1138,0,0,0,0,0,0,0,0,0,0,0,0,0,0,0,0,0,0,0,0,0,0,0,0,0,0,0,0,0
0,0,0,0,0,0,0,0,0,0,0,0,0,0,1586,1586,1586,1586,1586,1586,1586,1579,1579,1579,1586,1586,1586,1586,1586,1586,1579,1579,1579,1579,1579,1586,1586,1586,1579,1579,1586,1579,1579,1579,1579,1579,1579,1579,1579,1579,1586,1586,1586,1586,1586,1586,1586,1586,1586,1586,1579,1579,1579,1579,1579,1579,1579,1579,1579,1572,1572,1572,1572,1572,1572,1572,1572,1579,1579,1579,1579,1579,1586,1594,1601,1601,1601,1609,1616,1713,1713,1713,1722,1722,1731,1731,1731,1731,1739,1739,1739,1731,1731,1722,1722,1722,1713,1713,1705,1705,1688,1671,1609,1601,1601,1601,1601,1601,1601,1601,1601,1609,1609,1616,1616,1616,1616,1616,1616,1624,1624,1632,1632,1632,1639,1639,1647,1647,1655,1655,1655,1655,1655,1663,1663,1663,1663,1671,1671,1671,1680,1688,1688,1688,1696,1696,1696,989,989,989,989,989,989,992,995,992,992,992,995,995,995,995,998,1001,1001,1001,998,998,998,995,992,992,995,984,984,998,998,1010,995,992,992,998,995,995,992,992,992,989,989,989,987,987,989,987,987,995,995,995,995,989,987,987,987,978,978,984,984,987,987,987,987,987,987,987,987,984,984,984,984,987,984,978,978,970,970,978,978,978,984,984,987,987,987,984,984,978,978,978,975,975,975,975,981,984,987,989,989,995,995,987,987,981,981,981,984,981,978,978,975,975,975,973,973,975,978,978,984,984,984,981,981,975,964,964,959,959,964,964,967,970,970,970,970,967,967,970,967,967,964,964,964,964,964,964,964,967,964,964,964,964,964,967,967,967,967,959,959,956,956,956,956,956,954,954,951,951,951,951,946,946,946,946,946,0,0,0,0,0,906,906,906,906,906,906,906,906,903,903,901,901,898,898,898,901,898,898,903,906,908,910,913,915,915,915,915,915,0,0,0,0,0,1477,1477,1477,1477,1477,1470,1470,1470,1464,1464,1464,1458,1458,1458,1452,1452,1445,1445,1445,1445,1439,1439,1439,1439,1439,1433,1433,1427,1427,1427,1427,1421,1421,1421,1421,1421,1415,1415,1415,1410,1410,1410,1410,1404,1404,1404,1398,1398,1398,1392,1392,1392,1392,1392,1392,1392,1387,1381,1381,1381,1376,1376,1376,1370,1370,1370,1370,1365,1365,1354,1354,1354,1354,1354,1354,1354,1349,1349,1349,1349,1349,1343,1343,1338,1333,1333,1333,1333,1333,1328,1328,1328,1322,1322,1322,1322,1317,1317,1317,1317,1312,1312,1307,1307,1307,1307,1307,1307,1307,1302,1302,1297,1297,1292,1292,1292,1292,1288,1288,1288,1283,1283,1283,1278,1278,1278,1273,1273,1278,1273,1273,1273,1268,1268,1264,1264,1264,1259,1259,1259,1255,1255,1255,1255,1255,1250,1250,1245,1245,1241,1241,1236,1236,1236,1236,1232,1232,1232,1232,1232,1227,1227,1227,1227,1223,1219,1219,1219,1219,1219,1214,1214,1210,1210,1206,1206,1206,1202,1202,1202,1202,1202,1197,1197,1197,1197,1193,1193,1193,1189,1185,1185,1185,1185,1185,1185,1185,1181,1181,1181,1177,1177,1177,1173,1173,1173,1169,1169,1169,1169,1169,1165,1165,1165,1161,1161,1157,1157,1157,1153,1153,1153,1153,1153,1153,1149,1149,1149,1149,1145,1145,1145,1141,1141,1138,1138,1138,1138,1138,1138,0,0,0,0,0,0,0,0,0,0,0,0,0,0,0,0,0,0,0,0,0,0,0,0,0,0,0,0,0
0,0,0,0,0,0,0,0,0,0,0,0,0,0,1586,1586,1594,1586,1586,1586,1586,1579,1579,1579,1586,1586,1586,1586,1579,1579,1579,1579,1579,1586,1586,1586,1586,1586,1586,1586,1586,1579,1579,1579,1579,1579,1586,1586,1586,1586,1586,1586,1586,1586,1586,1586,1586,1586,1586,1586,1586,1586,1579,1579,1579,1579,1579,1579,1579,1579,1579,1572,1572,1579,1579,1579,1579,1579,1579,1579,1579,1586,1586,1601,1601,1601,1609,1609,1616,1713,1713,1713,1722,1722,1731,1731,1731,1731,1739,1739,1731,1731,1731,1722,1722,1722,1713,1713,1713,1713,1688,1671,1609,1609,1601,1601,1601,1601,1601,1609,1609,1609,1616,1616,1616,1616,1616,1616,1624,1624,1632,1632,1632,1632,1639,1647,1647,1647,1655,1655,1655,1655,1655,1655,1663,1663,1663,1671,1671,1671,1680,1688,1688,1688,1696,1696,989,989,987,987,989,989,989,989,992,989,989,984,984,984,989,989,992,992,998,998,995,995,995,992,992,989,987,978,978,978,981,978,978,981,981,984,987,987,984,984,987,987,987,984,984,984,987,987,987,989,989,989,989,987,984,981,978,975,975,973,970,970,978,975,975,975,978,978,978,975,975,978,978,975,970,970,970,970,970,975,975,975,975,978,984,984,981,981,981,978,978,975,973,973,970,967,967,967,964,964,959,959,962,962,959,959,970,967,967,978,978,975,975,973,973,967,967,967,967,970,984,987,975,975,970,962,959,959,959,959,962,962,964,967,964,964,964,959,946,946,954,954,959,959,959,956,956,951,951,967,964,964,964,959,959,962,962,959,959,956,956,956,954,954,954,954,951,951,951,951,948,948,946,943,943,943,938,938,943,943,938,938,906,906,906,906,908,906,906,906,906,903,903,901,901,901,901,901,901,901,903,906,908,910,913,915,915,918,918,918,0,0,0,0,0,1477,1477,1477,1477,1477,1470,1470,1470,1470,1464,1464,1464,1458,1458,1452,1452,1452,1452,1445,1445,1445,1439,1439,1439,1439,1433,1433,1433,1427,1427,1427,1427,1421,1421,1421,1421,1415,1415,1415,1415,1410,1410,1410,1404,1404,1404,1398,1398,1398,1398,1398,1392,1392,1392,1392,1392,1387,1387,1381,1381,1381,1376,1376,1370,1370,1370,1370,1370,1365,1359,1359,1354,1354,1354,1354,1354,1349,1349,1349,1349,1349,1349,1343,1338,1338,1333,1333,1333,1333,1328,1328,1328,1322,1322,1322,1322,1317,1317,1317,1317,1312,1312,1312,1312,1307,1307,1307,1307,1307,1302,1302,1302,1297,1297,1292,1292,1292,1292,1288,1288,1283,1283,1283,1283,1278,1278,1278,1278,1278,1273,1273,1273,1268,1268,1268,1264,1264,1264,1259,1259,1255,1255,1255,1255,1255,1250,1250,1250,1245,1245,1241,1236,1236,1236,1236,1236,1232,1232,1232,1232,1232,1232,1227,1227,1223,1223,1219,1219,1219,1219,1214,1214,1210,1210,1206,1206,1206,1202,1202,1202,1202,1202,1197,1197,1197,1197,1193,1193,1193,1189,1189,1189,1185,1185,1185,1185,1185,1181,1181,1181,1181,1177,1177,1177,1173,1173,1173,1169,1169,1169,1169,1165,1165,1165,1165,1161,1161,1157,1157,1153,1153,1153,1153,1153,1153,1149,1149,1149,1149,1149,1149,1145,1145,1145,1141,1138,1138,1138,1138,1138,0,0,0,0,0,0,0,0,0,0,0,0,0,0,0,0,0,0,0,0,0,0,0,0,0,0,0,0,0
0,0,0,0,0,0,0,0,0,0,0,0,0,0,1586,1586,1594,1594,1594,1594,1594,1586,1586,1586,1586,1594,1594,1586,1579,1579,1586,1586,1586,1586,1586,1586,1586,1586,1586,1586,1586,1586,1586,1586,1586,1586,1586,1586,1586,1586,1586,1586,1586,1586,1586,1586,1586,1586,1586,1586,1586,1586,1586,1586,1586,1586,1586,1586,1586,1586,1586,1586,1586,1586,1586,1579,1579,1586,1579,1579,1579,1586,1586,1601,1601,1601,1609,1609,1609,1713,1713,1722,1722,1722,1731,1731,1731,1731,1731,1731,1731,1731,1731,1731,1722,1722,1722,1722,1713,1713,1696,1688,1609,1609,1609,1601,1601,1601,1601,1601,1601,1609,1609,1616,1616,1624,1624,1624,1624,1632,1632,1632,1632,1632,1639,1647,1647,1647,1655,1655,1655,1655,1655,1655,1663,1663,1663,1663,1671,1671,987,984,984,1688,984,984,984,987,987,987,987,989,989,989,992,989,987,981,981,981,981,981,981,981,987,989,989,989,989,987,984,981,981,978,978,978,978,978,978,978,978,978,981,981,981,981,981,981,984,984,984,984,987,984,984,984,984,989,987,984,978,975,975,970,970,970,967,967,970,970,970,970,967,967,967,967,967,967,970,967,967,967,967,967,967,967,973,975,975,975,984,984,978,978,978,975,975,973,967,967,964,964,964,964,964,964,959,959,959,959,956,956,956,956,956,956,956,970,959,959,959,959,954,954,951,951,948,948,948,948,954,956,956,956,954,954,956,956,951,938,938,943,943,943,943,943,943,946,946,946,946,946,948,948,946,946,946,946,948,948,935,935,962,956,956,956,956,954,954,954,951,951,951,948,948,948,948,946,946,943,943,938,938,938,938,943,938,938,906,906,906,906,908,908,906,906,906,903,903,903,901,901,901,901,901,901,903,906,908,910,913,915,915,918,918,918,0,0,0,0,0,1483,1477,1477,1477,1477,1470,1470,1470,1470,1464,1464,1464,1458,1458,1458,1458,1452,1452,1445,1445,1445,1445,1439,1439,1439,1439,1439,1433,1433,1433,1427,1427,1427,1421,1421,1421,1415,1415,1415,1415,1415,1410,1410,1404,1404,1404,1398,1398,1398,1398,1398,1398,1392,1392,1392,1392,1387,1387,1381,1381,1381,1376,1376,1376,1370,1370,1370,1370,1370,1365,1365,1359,1354,1354,1354,1354,1349,1349,1349,1349,1349,1349,1343,1338,1338,1333,1333,1333,1333,1333,1328,1328,1328,1328,1322,1322,1322,1317,1317,1317,1312,1312,1312,1312,1307,1307,1307,1307,1307,1307,1302,1302,1302,1297,1297,1292,1292,1292,1288,1288,1288,1288,1283,1283,1283,1283,1278,1278,1278,1273,1273,1273,1268,1268,1268,1268,1264,1264,1264,1259,1259,1255,1255,1255,1255,1250,1250,1250,1245,1245,1245,1241,1241,1236,1236,1236,1236,1232,1232,1232,1232,1232,1232,1227,1223,1223,1219,1219,1219,1219,1214,1214,1214,1210,1210,1206,1206,1206,1202,1202,1202,1202,1202,1197,1197,1197,1193,1193,1193,1193,1193,1189,1189,1189,1189,1185,1185,1185,1181,1181,1181,1181,1177,1177,1177,1177,1173,1173,1173,1169,1169,1169,1169,1165,1165,1165,1161,1161,1157,1157,1153,1153,1153,1153,1153,1153,1149,1149,1149,1149,1149,1145,1145,1145,1141,1141,1141,1141,1138,1138,0,0,0,0,0,0,0,0,0,0,0,0,0,0,0,0,0,0,0,0,0,0,0,0,0,0,0,0,0
0,0,0,0,0,0,0,0,0,0,0,0,0,0,1594,1594,1594,1594,1594,1594,1594,1594,1594,1594,1594,1594,1594,1586,1579,1579,1586,1586,1586,1586,1586,1586,1594,1586,1586,1586,1586,1586,1586,1586,1586,1586,1586,1586,1586,1594,1586,1586,1586,1586,1586,1586,1586,1586,1586,1594,1586,1586,1586,1586,1586,1586,1586,1586,1586,1586,1586,1586,1586,1586,1586,1586,1586,1586,1586,1586,1586,1594,1594,1601,1601,1601,1609,1609,1609,1616,1713,1722,1722,1722,1731,1731,1731,1731,1731,1731,1731,1731,1731,1731,1722,1722,1722,1722,1713,1713,1705,1696,1663,1609,1609,1609,1601,1601,1601,1601,1601,1609,1609,1609,1616,1624,1624,1624,1624,1632,1632,1632,1632,1639,1647,1647,1655,1655,1655,1655,1655,1655,1655,1655,1663,1663,1663,1663,981,981,981,981,981,978,978,981,981,984,984,984,987,989,989,989,989,987,984,978,978,978,978,978,978,978,978,978,981,987,984,984,978,978,978,978,978,975,975,975,975,975,975,975,975,975,978,978,978,978,978,981,975,959,959,973,970,967,967,967,970,984,978,973,970,967,967,967,967,967,967,967,967,967,967,967,967,964,962,962,964,964,964,964,964,964,964,964,962,956,943,943,943,978,978,978,959,959,973,967,964,964,962,962,962,959,959,956,956,956,956,956,956,956,956,956,956,956,954,954,956,956,956,951,951,951,951,951,948,948,948,948,951,951,954,954,954,951,951,943,940,938,938,940,940,943,940,940,940,938,938,943,940,938,938,938,938,938,938,935,935,935,935,935,956,954,954,954,951,951,951,948,948,946,946,946,946,946,946,946,943,938,938,938,938,938,935,935,940,940,913,906,906,906,908,908,906,906,906,906,906,903,901,901,901,901,901,903,906,906,908,913,915,915,918,918,920,923,0,0,0,0,0,1483,1477,1477,1477,1477,1470,1470,1470,1470,1464,1464,1464,1464,1464,1458,1458,1452,1452,1452,1445,1445,1445,1445,1439,1439,1439,1439,1439,1433,1433,1433,1427,1427,1421,1421,1421,1421,1415,1415,1415,1415,1415,1410,1410,1404,1404,1398,1398,1398,1398,1398,1398,1392,1392,1392,1392,1392,1387,1381,1381,1381,1376,1376,1376,1376,1370,1370,1370,1370,1365,1365,1365,1359,1359,1354,1354,1354,1349,1349,1349,1349,1349,1343,1343,1338,1338,1338,1333,1333,1333,1328,1328,1328,1328,1328,1328,1322,1322,1317,1317,1317,1312,1312,1312,1312,1312,1307,1307,1307,1307,1307,1302,1302,1302,1297,1292,1292,1292,1292,1288,1288,1288,1283,1283,1283,1283,1278,1278,1278,1273,1273,1273,1273,1273,1268,1268,1268,1268,1264,1264,1259,1259,1259,1259,1255,1255,1250,1250,1245,1245,1245,1241,1241,1236,1236,1236,1236,1236,1236,1232,1232,1232,1232,1227,1227,1223,1219,1219,1219,1219,1219,1214,1214,1214,1210,1210,1206,1206,1206,1202,1202,1202,1202,1197,1197,1197,1197,1197,1193,1193,1193,1193,1193,1189,1189,1185,1185,1185,1181,1181,1181,1181,1181,1181,1177,1177,1177,1177,1173,1173,1169,1169,1169,1165,1165,1165,1161,1161,1161,1157,1157,1157,1153,1153,1153,1153,1149,1149,1149,1149,1149,1145,1145,1149,1145,1141,1141,1141,1141,1141,0,0,0,0,0,0,0,0,0,0,0,0,0,0,0,0,0,0,0,0,0,0,0,0,0,0,0,0,0
0,0,0,0,0,0,0,0,0,0,0,0,0,0,1594,1594,1594,1594,1594,1601,1601,1594,1594,1594,1594,1594,1594,1594,1594,1586,1586,1586,1594,1594,1594,1594,1594,1594,1586,1586,1586,1586,1586,1586,1586,1586,1586,1586,1586,1594,1586,1586,1586,1586,1586,1586,1586,1586,1586,1594,1594,1594,1594,1586,1586,1586,1594,1594,1586,1586,1586,1586,1586,1586,1586,1586,1586,1586,1586,1586,1586,1586,1594,1594,1601,1601,1601,1609,1616,1616,1722,1722,1722,1722,1731,1731,1731,1731,1739,1739,1731,1731,1731,1731,1722,1722,1722,1722,1713,1713,1713,1696,1632,1632,1624,1609,1609,1601,1601,1601,1601,1609,1609,1609,1609,1616,1616,1624,1624,1632,1632,1632,1632,1639,1647,1647,1655,1655,1655,1655,1655,1655,1655,1655,1663,1663,975,975,978,978,978,978,978,975,975,978,978,981,981,981,984,987,987,987,987,984,981,975,975,978,978,978,975,975,975,975,975,973,973,973,975,975,975,975,975,973,973,973,973,973,973,973,973,973,975,973,973,973,973,973,964,956,956,959,964,964,964,964,967,967,973,970,967,967,967,967,964,964,964,964,964,964,964,964,964,962,959,959,959,962,959,959,962,964,962,962,959,956,943,943,946,946,946,946,951,951,956,959,962,959,959,959,959,959,954,954,954,954,954,954,951,951,951,951,946,946,946,946,946,946,946,946,946,946,946,946,946,946,946,946,946,946,951,951,948,948,948,943,940,938,938,938,938,940,940,938,938,935,935,935,935,935,933,933,935,935,935,935,935,935,935,935,938,938,948,948,946,946,946,946,946,943,943,943,943,946,946,943,943,935,935,938,935,935,935,933,930,918,913,908,908,908,908,908,908,908,906,906,906,903,901,901,901,901,901,903,906,908,910,913,915,915,918,920,920,923,0,0,0,0,1483,1483,1477,1477,1477,1477,1470,1470,1470,1470,1470,1470,1464,1464,1464,1464,1458,1458,1452,1452,1445,1445,1445,1445,1445,1439,1439,1439,1439,1439,1433,1433,1427,1427,1421,1421,1421,1421,1415,1415,1415,1415,1415,1415,1410,1410,1404,1404,1398,1398,1398,1398,1398,1392,1392,1392,1392,1392,1387,1387,1387,1381,1381,1376,1376,1376,1376,1376,1370,1370,1365,1365,1365,1365,1359,1359,1354,1354,1354,1354,1349,1349,1349,1343,1343,1343,1338,1338,1338,1333,1333,1333,1328,1328,1328,1328,1328,1322,1322,1317,1317,1317,1312,1312,1312,1312,1312,1307,1307,1307,1307,1307,1302,1302,1302,1297,1292,1292,1292,1292,1288,1288,1288,1288,1283,1283,1283,1278,1278,1278,1278,1273,1273,1273,1273,1268,1268,1268,1268,1268,1264,1264,1259,1259,1259,1255,1255,1250,1250,1245,1245,1245,1241,1241,1236,1236,1236,1236,1236,1236,1232,1232,1232,1232,1227,1227,1223,1219,1219,1219,1219,1219,1214,1214,1214,1210,1210,1210,1210,1206,1202,1202,1202,1202,1202,1202,1197,1197,1197,1197,1197,1193,1193,1193,1193,1193,1185,1185,1185,1181,1181,1181,1181,1181,1181,1177,1177,1177,1177,1177,1173,1169,1169,1169,1169,1165,1165,1165,1165,1161,1161,1161,1161,1157,1153,1153,1153,1153,1153,1153,1149,1149,1149,1149,1149,1149,1145,1141,1141,1141,1141,0,0,0,0,0,0,0,0,0,0,0,0,0,0,0,0,0,0,0,0,0,0,0,0,0,0,0,0,0
0,0,0,0,0,0,0,0,0,0,0,0,0,0,1594,1594,1601,1601,1601,1601,1601,1601,1601,1601,1594,1594,1594,1594,1594,1594,1594,1594,1594,1594,1594,1594,1594,1594,1586,1586,1586,1586,1594,1594,1594,1594,1594,1594,1594,1594,1586,1586,1586,1586,1586,1586,1594,1594,1594,1594,1594,1594,1594,1594,1594,1594,1594,1594,1594,1586,1586,1586,1586,1586,1586,1586,1586,1594,1586,1586,1586,1586,1594,1594,1601,1601,1601,1609,1609,1609,1722,1722,1722,1722,1731,1731,1731,1731,1739,1739,1731,1731,1731,1731,1722,1722,1722,1722,1713,1713,1713,1688,1632,1632,1624,1609,1609,1601,1601,1601,1601,1601,1601,1609,1609,1609,1616,1616,1616,1624,1632,1632,1632,1639,967,967,964,964,967,967,967,964,962,962,959,959,967,970,975,975,975,975,975,973,973,975,978,978,978,981,984,984,984,984,984,981,975,973,973,975,975,975,973,973,973,973,973,964,964,964,964,964,967,970,973,970,970,970,970,967,967,967,964,964,973,956,956,956,959,959,956,956,956,956,959,959,959,959,962,967,967,967,967,964,964,964,962,962,962,962,962,962,962,962,962,956,954,954,954,956,956,956,959,962,962,959,956,943,943,943,943,943,943,943,946,948,954,956,956,956,956,956,956,956,954,951,951,951,954,951,948,948,948,946,943,943,943,943,943,943,943,943,946,943,943,943,943,940,940,943,943,943,946,948,946,946,946,943,935,935,935,935,935,938,935,935,938,935,933,933,933,933,933,930,930,933,933,933,933,933,930,930,930,933,933,933,933,933,933,938,940,933,933,933,943,933,928,928,930,925,925,928,933,928,928,920,918,915,913,908,908,908,908,908,908,908,906,906,906,903,901,901,901,901,901,903,906,908,913,913,915,918,918,920,920,0,0,0,0,0,1483,1483,1477,1477,1477,1477,1477,1477,1470,1470,1470,1470,1470,1464,1464,1464,1458,1458,1458,1452,1452,1452,1445,1445,1445,1445,1439,1439,1439,1439,1439,1433,1433,1427,1421,1421,1421,1421,1421,1415,1415,1415,1415,1415,1415,1410,1404,1404,1398,1398,1398,1398,1398,1398,1398,1392,1392,1392,1387,1387,1387,1381,1381,1376,1376,1376,1376,1376,1370,1370,1370,1365,1365,1365,1359,1359,1359,1354,1354,1354,1349,1349,1349,1349,1343,1343,1338,1338,1338,1333,1333,1333,1328,1328,1328,1328,1328,1322,1322,1322,1317,1317,1317,1312,1312,1312,1312,1312,1312,1307,1307,1307,1307,1307,1302,1302,1297,1292,1292,1292,1292,1288,1288,1288,1283,1283,1283,1278,1278,1278,1278,1273,1273,1273,1273,1268,1268,1268,1268,1268,1264,1264,1264,1259,1259,1259,1255,1250,1250,1245,1245,1245,1241,1241,1241,1241,1241,1236,1236,1236,1232,1232,1232,1232,1227,1227,1223,1223,1223,1219,1219,1219,1214,1214,1214,1214,1210,1210,1210,1206,1202,1202,1202,1202,1202,1202,1197,1197,1197,1197,1197,1193,1193,1193,1193,1189,1185,1185,1185,1185,1181,1181,1181,1181,1181,1177,1177,1177,1177,1177,1173,1173,1169,1169,1169,1165,1165,1165,1165,1165,1161,1161,1161,1157,1157,1153,1153,1153,1153,1153,1149,1149,1149,1149,1149,1149,1145,1145,1141,1141,1141,0,0,0,0,0,0,0,0,0,0,0,0,0,0,0,0,0,0,0,0,0,0,0,0,0,0,0,0,0
0,0,0,0,0,0,0,0,0,0,0,0,0,0,1601,1601,1601,1601,1601,1601,1601,1601,1601,1601,1594,1594,1594,1594,1594,1594,1594,1594,1594,1594,1594,1594,1594,1594,1594,1594,1594,1594,1594,1594,1594,1594,1594,1594,1586,1586,1586,1586,1586,1586,1586,1586,1594,1594,1594,1594,1594,1594,1594,1594,1594,1594,1594,1594,1594,1594,1594,1594,1594,1594,1594,1594,1594,1594,1586,1586,1586,1586,1594,1594,1601,1601,1601,1609,1609,1609,1722,1722,1722,1722,1731,1731,1731,1731,1739,1739,1731,1731,1731,1731,1722,1722,1722,1722,1713,1713,1705,1688,1639,1632,1624,1609,1609,1601,1601,1601,1601,1601,1601,1609,1609,1609,1609,1609,1616,1616,967,967,967,964,964,964,964,964,964,964,962,962,954,954,954,956,959,962,964,970,973,973,973,962,962,964,964,964,975,975,984,984,967,967,967,978,975,973,973,973,973,973,973,973,970,970,970,964,964,962,962,962,964,964,964,962,962,964,964,962,959,954,954,956,956,954,954,954,954,954,954,954,954,954,956,956,956,956,959,964,964,964,964,956,956,962,959,956,956,956,956,956,956,956,951,948,948,948,948,948,948,951,959,962,962,959,935,935,935,940,938,938,938,938,938,943,935,935,954,954,954,951,951,951,951,943,943,946,946,946,943,943,943,938,935,935,935,935,938,940,938,938,940,935,935,935,935,935,933,933,925,925,915,915,930,930,930,928,925,925,928,928,925,925,928,930,930,933,930,930,930,930,930,930,930,928,928,925,923,923,923,923,925,925,925,923,923,928,928,928,930,930,930,928,928,930,928,923,923,920,920,920,923,920,918,918,915,913,910,908,908,908,908,908,908,908,906,906,906,903,903,903,901,901,901,903,906,908,913,915,918,918,920,920,920,0,0,0,0,0,1483,1483,1477,1477,1477,1477,1477,1477,1477,1470,1470,1470,1470,1464,1464,1464,1464,1458,1458,1452,1452,1452,1452,1445,1445,1445,1445,1445,1439,1439,1439,1439,1433,1427,1427,1421,1421,1421,1421,1421,1421,1421,1415,1415,1415,1410,1404,1404,1398,1398,1398,1398,1398,1398,1398,1392,1392,1392,1392,1387,1387,1381,1381,1376,1376,1376,1376,1376,1370,1370,1370,1365,1365,1365,1365,1359,1359,1354,1354,1354,1349,1349,1349,1349,1343,1343,1343,1343,1338,1338,1333,1333,1333,1328,1328,1328,1328,1322,1322,1322,1322,1317,1317,1317,1312,1312,1312,1312,1312,1312,1307,1307,1307,1307,1302,1302,1297,1292,1292,1292,1292,1288,1288,1288,1283,1283,1283,1278,1278,1278,1278,1273,1273,1273,1273,1268,1268,1268,1268,1268,1264,1264,1264,1259,1259,1259,1255,1255,1250,1250,1245,1245,1245,1245,1241,1241,1241,1236,1236,1236,1232,1232,1232,1232,1227,1227,1223,1223,1223,1223,1219,1219,1219,1214,1214,1214,1214,1210,1210,1206,1206,1206,1202,1202,1202,1202,1197,1197,1197,1197,1197,1197,1197,1193,1193,1189,1189,1185,1185,1185,1185,1185,1181,1181,1181,1181,1181,1177,1177,1177,1173,1173,1169,1169,1169,1169,1165,1165,1165,1165,1165,1165,1165,1161,1157,1157,1153,1153,1153,1153,1149,1149,1149,1149,1149,1149,1145,1145,1145,1141,1141,0,0,0,0,0,0,0,0,0,0,0,0,0,0,0,0,0,0,0,0,0,0,0,0,0,0,0,0,0
0,0,0,0,0,0,0,0,0,0,0,0,0,0,1601,1601,1601,1594,1594,1601,1601,1601,1601,1601,1594,1594,1594,1594,1594,1594,1594,1594,1594,1594,1594,1594,1594,1594,1594,1594,1594,1594,1594,1594,1594,1594,1594,1594,1586,1586,1586,1586,1586,1586,1586,1594,1594,1594,1594,1594,1594,1594,1594,1594,1594,1594,1594,1594,1594,1594,1594,1594,1594,1594,1594,1594,1594,1594,1586,1586,1594,1594,1594,1594,1601,1601,1601,1609,1609,1609,1616,1722,1722,1722,1731,1731,1731,1731,1739,1739,1731,1731,1731,1731,1722,1722,1722,1722,1713,1713,1705,1688,1639,1632,1624,1609,1609,1601,1601,1601,1601,1601,1601,1609,948,948,1601,1601,951,951,962,962,962,964,964,964,964,964,962,962,956,956,954,954,954,954,954,956,956,956,967,967,962,959,956,956,962,959,959,954,954,959,959,954,954,975,973,967,967,970,973,973,970,967,959,959,956,956,959,959,959,959,959,959,959,954,951,951,954,954,954,951,951,951,948,948,948,948,948,948,948,948,948,951,951,954,954,948,948,938,938,938,940,943,935,935,951,951,954,951,951,954,946,946,946,946,943,943,940,938,935,933,925,925,925,925,928,933,935,938,938,938,938,938,938,938,933,928,928,951,925,925,925,951,938,938,943,940,940,940,938,938,935,935,930,930,930,928,928,933,935,935,935,933,933,933,933,933,930,925,925,925,915,915,918,918,918,918,920,920,920,923,920,920,920,918,918,923,925,925,925,925,925,925,930,928,928,920,915,915,915,918,923,920,920,918,918,918,915,915,928,928,925,918,918,918,925,913,913,913,918,918,918,918,915,915,910,908,908,908,908,908,908,906,906,906,906,906,906,903,903,903,903,903,903,906,906,910,913,915,918,920,923,923,923,0,0,0,0,0,1483,1483,1483,1483,1483,1483,1483,1477,1477,1470,1470,1470,1470,1464,1464,1464,1464,1464,1458,1458,1452,1452,1452,1445,1445,1445,1445,1445,1445,1439,1439,1439,1433,1433,1427,1427,1421,1421,1421,1421,1421,1421,1415,1415,1415,1410,1410,1404,1398,1398,1398,1398,1398,1398,1398,1392,1392,1392,1392,1387,1387,1381,1381,1376,1376,1376,1376,1376,1370,1370,1370,1370,1365,1365,1365,1359,1359,1359,1354,1354,1354,1354,1349,1349,1349,1343,1343,1343,1338,1338,1333,1333,1333,1333,1328,1328,1328,1322,1322,1322,1322,1322,1317,1317,1317,1312,1312,1312,1312,1312,1307,1307,1307,1307,1302,1302,1297,1292,1292,1292,1292,1288,1288,1288,1288,1283,1283,1278,1278,1278,1278,1273,1273,1273,1273,1273,1273,1268,1268,1268,1264,1264,1264,1259,1259,1259,1255,1255,1250,1250,1245,1245,1245,1245,1245,1241,1241,1241,1236,1236,1236,1236,1232,1232,1227,1227,1227,1223,1223,1223,1219,1219,1219,1219,1214,1214,1214,1214,1210,1206,1206,1206,1202,1202,1202,1202,1197,1197,1197,1197,1197,1197,1197,1193,1193,1189,1189,1189,1189,1185,1185,1185,1181,1181,1181,1181,1181,1181,1177,1177,1177,1173,1169,1169,1169,1169,1169,1165,1165,1165,1165,1165,1165,1161,1161,1157,1157,1153,1153,1153,1153,1153,1149,1149,1149,1149,1149,1145,1145,1145,1145,0,0,0,0,0,0,0,0,0,0,0,0,0,0,0,0,0,0,0,0,0,0,0,0,0,0,0,0,0
0,0,0,0,0,0,0,0,0,0,0,0,0,1601,1601,1601,1601,1594,1594,1594,1601,1601,1601,1601,1594,1594,1594,1594,1594,1594,1601,1601,1601,1601,1601,1601,1594,1594,1601,1594,1594,1594,1594,1594,1594,1594,1594,1594,1594,1594,1594,1594,1594,1594,1594,1594,1594,1594,1594,1594,1594,1594,1594,1594,1594,1594,1594,1594,1594,1594,1594,1594,1594,1594,1594,1594,1594,1594,1586,1586,1594,1594,1594,1594,1601,1601,1601,1609,1609,1609,1616,1713,1722,1722,1731,1731,1731,1731,1739,1739,1731,1731,1731,1731,1731,1722,1722,1722,1713,1713,1713,1696,1639,1632,1624,1609,1609,1609,1609,1601,1601,1601,1601,956,948,948,951,951,951,951,954,954,954,956,959,959,959,956,956,956,954,954,951,951,951,948,948,951,948,948,948,948,948,948,954,954,956,954,954,951,951,954,948,948,938,938,938,948,938,935,935,935,933,933,954,954,954,954,956,954,954,954,954,948,948,946,946,948,948,946,946,946,946,948,946,946,943,943,943,943,943,943,946,943,938,938,938,940,935,935,933,933,935,935,933,928,928,925,925,951,935,935,938,938,940,940,938,938,938,935,933,930,925,925,925,925,925,925,928,935,935,938,938,938,938,935,930,928,925,923,923,920,920,920,923,923,923,935,930,930,930,933,933,930,925,925,923,920,920,923,923,923,928,928,928,928,928,928,925,923,918,918,915,915,915,915,915,915,918,915,915,918,918,918,918,915,913,913,915,913,913,923,923,925,925,906,906,906,906,908,910,913,915,915,915,915,918,915,913,910,908,908,910,910,910,908,908,908,908,908,908,906,906,906,906,906,906,906,906,906,906,906,906,906,906,906,906,906,906,903,903,903,901,901,903,906,906,910,915,915,918,920,923,923,923,0,0,0,0,0,1483,1483,1483,1483,1483,1483,1483,1483,1477,1470,1470,1470,1470,1464,1464,1464,1464,1464,1458,1458,1452,1452,1452,1445,1445,1445,1445,1445,1445,1445,1439,1439,1439,1433,1427,1427,1427,1421,1421,1421,1421,1421,1421,1415,1415,1415,1410,1404,1398,1398,1398,1398,1398,1398,1398,1392,1392,1392,1392,1387,1387,1387,1387,1381,1381,1381,1376,1376,1376,1370,1370,1370,1370,1370,1365,1365,1359,1359,1359,1354,1354,1354,1349,1349,1349,1349,1343,1343,1343,1338,1338,1333,1333,1333,1333,1333,1328,1328,1328,1322,1322,1322,1317,1317,1317,1312,1312,1312,1312,1312,1312,1307,1307,1307,1302,1302,1297,1292,1292,1292,1292,1292,1288,1288,1288,1288,1283,1283,1283,1283,1278,1273,1273,1273,1273,1273,1273,1268,1268,1268,1268,1264,1264,1264,1259,1259,1255,1255,1250,1250,1250,1250,1245,1245,1245,1245,1245,1241,1241,1236,1236,1236,1232,1232,1227,1227,1227,1223,1223,1223,1219,1219,1219,1219,1214,1214,1214,1210,1210,1210,1206,1206,1206,1202,1202,1202,1197,1197,1197,1197,1197,1197,1197,1197,1193,1189,1189,1189,1189,1185,1185,1185,1185,1185,1181,1181,1181,1181,1177,1177,1177,1177,1169,1169,1169,1169,1169,1169,1169,1165,1165,1165,1165,1165,1161,1161,1161,1157,1153,1153,1153,1153,1153,1149,1149,1149,1145,1145,1145,1145,1145,0,0,0,0,0,0,0,0,0,0,0,0,0,0,0,0,0,0,0,0,0,0,0,0,0,0,0,0,0
0,0,0,0,0,0,0,0,0,0,0,0,0,1601,1594,1594,1594,1594,1594,1594,1601,1601,1601,1601,1594,1594,1594,1594,1594,1594,1601,1601,1601,1601,1601,1601,1601,1601,1601,1601,1601,1594,1594,1594,1594,1594,1594,1594,1594,1594,1594,1594,1594,1594,1594,1594,1594,1594,1594,1594,1594,1594,1594,1594,1594,1594,1594,1594,1594,1594,1594,1594,1594,1594,1594,1594,1594,1594,1586,1586,1594,1594,1594,1594,1601,1601,1601,1609,1609,1609,1616,1632,1722,1722,1731,1731,1731,1739,1748,1739,1739,1739,1739,1731,1731,1731,1722,1722,1722,1722,1713,1713,1639,1624,1609,1609,1609,1601,1601,1601,1601,1601,956,954,948,948,948,948,948,948,951,951,951,954,951,951,951,951,951,951,954,951,951,951,951,948,948,948,946,946,946,946,946,948,948,948,951,951,948,946,943,935,935,938,935,935,935,935,935,935,935,935,933,933,935,935,935,948,951,951,943,935,935,943,938,938,940,940,943,943,943,943,943,943,940,940,938,938,938,938,938,938,935,935,933,933,928,928,930,930,930,930,930,930,930,925,925,925,923,923,925,925,925,925,925,925,930,930,935,935,933,930,925,923,923,923,920,920,923,928,933,935,935,935,935,933,928,925,925,920,918,918,918,918,915,915,915,915,915,915,925,925,923,923,918,918,915,915,915,915,918,918,923,923,923,923,923,923,920,918,915,913,913,913,913,913,913,913,913,913,913,913,913,913,910,910,908,908,908,908,908,906,906,906,906,906,898,898,898,898,898,898,901,903,906,903,903,906,908,908,906,906,906,908,906,906,903,903,906,903,903,903,903,903,903,903,903,903,903,903,903,903,903,903,903,903,903,903,903,903,903,903,901,901,903,906,908,913,915,918,918,920,923,923,923,0,0,0,0,0,1483,1483,1483,1483,1489,1483,1483,1483,1477,1477,1470,1470,1470,1470,1464,1464,1464,1464,1458,1458,1458,1452,1452,1452,1452,1452,1445,1445,1445,1445,1445,1439,1439,1433,1433,1427,1427,1427,1421,1421,1421,1421,1421,1415,1415,1415,1410,1404,1404,1398,1398,1398,1398,1398,1398,1392,1392,1392,1392,1387,1387,1387,1387,1387,1387,1381,1381,1376,1376,1370,1370,1370,1370,1370,1365,1365,1365,1359,1359,1359,1354,1354,1349,1349,1349,1349,1343,1343,1343,1343,1338,1338,1333,1333,1333,1333,1333,1328,1328,1328,1328,1328,1322,1322,1317,1317,1312,1312,1312,1312,1312,1307,1307,1307,1302,1302,1297,1292,1292,1292,1292,1292,1292,1288,1288,1288,1288,1283,1283,1283,1278,1273,1273,1273,1273,1273,1273,1273,1268,1268,1268,1268,1264,1264,1259,1259,1255,1255,1255,1250,1250,1250,1245,1245,1245,1245,1245,1241,1241,1241,1236,1236,1232,1232,1232,1227,1227,1227,1227,1223,1223,1219,1219,1219,1214,1214,1214,1210,1210,1210,1210,1210,1210,1206,1206,1206,1202,1197,1197,1197,1197,1197,1197,1197,1197,1193,1189,1189,1189,1189,1185,1185,1185,1185,1185,1181,1181,1181,1181,1181,1177,1177,1177,1169,1169,1169,1169,1169,1169,1165,1165,1165,1165,1165,1165,1165,1161,1157,1157,1157,1153,1153,1153,1149,1149,1149,1145,1145,1145,1145,1145,0,0,0,0,0,0,0,0,0,0,0,0,0,0,0,0,0,0,0,0,0,0,0,0,0,0,0,0,0
0,0,0,0,0,0,0,0,0,0,0,0,0,1601,1594,1594,1594,1594,1594,1601,1601,1601,1601,1601,1601,1594,1594,1594,1594,1601,1601,1601,1601,1601,1601,1594,1594,1594,1594,1594,1601,1601,1601,1601,1601,1594,1594,1594,1594,1594,1601,1601,1601,1601,1601,1601,1601,1601,1594,1594,1594,1594,1601,1594,1594,1594,1594,1594,1601,1594,1594,1594,1594,1594,1594,1594,1594,1594,1594,1594,1594,1594,1594,1594,1601,1601,1609,1609,1609,1616,1616,1632,1722,1722,1731,1731,1731,1739,1748,1748,1739,1739,1739,1739,1731,1731,1722,1722,1722,1722,1722,1713,1713,1624,1609,1609,1609,1601,1601,1601,1601,1609,956,946,943,943,946,946,946,946,946,946,946,946,946,946,943,943,946,946,948,948,948,948,948,948,948,948,946,946,946,946,946,946,946,946,946,943,938,938,935,935,935,935,935,935,935,935,935,938,938,938,935,935,935,933,933,933,933,933,933,933,933,933,933,935,935,935,938,938,938,938,940,940,935,930,930,933,933,933,933,935,933,933,930,930,928,928,928,928,928,928,925,925,925,923,923,923,920,920,920,923,923,923,923,923,923,923,925,925,925,918,918,915,915,918,918,915,915,915,920,933,935,935,930,928,925,923,923,918,915,915,915,915,913,913,915,913,913,913,913,910,910,910,913,910,910,910,910,910,908,906,906,906,915,915,915,915,915,915,913,913,913,913,913,913,913,913,910,910,910,910,910,910,908,906,906,906,906,906,903,903,901,901,898,898,896,896,896,896,896,898,898,901,906,901,898,898,906,906,903,903,903,906,906,903,903,898,898,898,898,898,898,901,901,901,901,903,903,901,901,898,898,898,898,898,898,898,903,901,898,898,901,901,903,906,908,913,915,918,920,920,923,923,923,0,0,0,0,0,1483,1483,1489,1489,1489,1489,1489,1489,1483,1477,1477,1477,1470,1470,1470,1464,1464,1464,1464,1458,1458,1452,1452,1452,1445,1445,1445,1445,1445,1445,1445,1439,1439,1433,1433,1427,1427,1427,1421,1421,1421,1421,1421,1421,1415,1415,1410,1410,1404,1398,1398,1398,1398,1398,1398,1398,1398,1392,1392,1392,1392,1387,1387,1387,1387,1381,1381,1376,1376,1370,1370,1370,1370,1370,1365,1365,1365,1365,1365,1359,1359,1354,1354,1349,1349,1349,1349,1343,1343,1343,1338,1338,1338,1333,1333,1333,1333,1333,1328,1328,1328,1328,1322,1322,1322,1317,1317,1312,1312,1312,1312,1307,1307,1307,1307,1302,1302,1297,1297,1297,1297,1292,1292,1292,1288,1288,1288,1288,1283,1283,1278,1278,1278,1273,1273,1273,1273,1273,1273,1268,1268,1268,1264,1264,1259,1259,1255,1255,1255,1255,1250,1250,1250,1250,1250,1245,1245,1245,1241,1241,1241,1236,1232,1232,1232,1232,1232,1232,1227,1227,1223,1223,1219,1219,1214,1214,1214,1214,1214,1214,1210,1210,1210,1210,1206,1206,1202,1202,1202,1202,1197,1197,1197,1197,1197,1193,1189,1189,1189,1189,1185,1185,1185,1185,1185,1181,1181,1181,1181,1181,1177,1177,1177,1173,1169,1169,1169,1169,1169,1169,1169,1169,1169,1165,1165,1165,1165,1161,1157,1157,1153,1153,1153,1149,1149,1149,1149,1149,1149,1145,1145,0,0,0,0,0,0,0,0,0,0,0,0,0,0,0,0,0,0,0,0,0,0,0,0,0,0,0,0,0
0,0,0,0,0,0,0,0,0,0,0,0,0,1601,1601,1601,1601,1594,1594,1601,1601,1601,1601,1601,1601,1601,1601,1601,1601,1601,1601,1601,1601,1601,1601,1594,1594,1594,1594,1594,1601,1601,1601,1601,1601,1601,1601,1601,1601,1601,1601,1601,1601,1601,1601,1601,1601,1601,1594,1594,1594,1594,1601,1594,1594,1594,1594,1601,1601,1601,1601,1601,1601,1601,1601,1601,1594,1594,1594,1601,1594,1594,1594,1601,1601,1609,1609,1609,1609,1616,1624,1624,1713,1722,1731,1731,1731,1739,1748,1748,1739,1739,1739,1731,1731,1731,1722,1722,1722,1722,1722,1722,935,935,933,933,933,933,933,933,1601,1609,940,940,943,943,943,943,943,943,943,940,940,940,940,940,940,940,940,940,943,943,943,946,946,946,946,946,943,943,943,943,943,943,943,943,940,940,935,935,933,933,933,933,933,933,935,935,935,935,935,933,930,930,930,928,928,928,928,925,925,925,925,930,930,930,933,933,935,933,930,925,925,925,925,928,928,930,930,930,928,925,925,928,925,925,923,923,925,925,925,928,918,918,920,920,918,918,915,915,915,920,920,920,920,915,915,918,915,910,910,910,913,913,913,913,913,913,910,910,908,908,908,935,913,913,915,920,915,910,908,908,910,910,908,908,908,906,906,906,906,906,903,903,906,903,903,908,908,906,906,906,903,903,906,906,906,906,908,910,910,910,910,910,910,906,906,901,901,903,903,901,901,903,903,903,903,901,901,903,901,901,898,898,896,896,896,894,894,891,891,896,896,898,896,896,894,894,894,891,891,901,901,903,903,889,889,898,896,894,894,894,894,896,896,898,898,898,898,896,896,894,894,891,891,891,889,889,889,898,898,898,901,901,903,906,908,915,915,918,920,923,923,923,923,925,0,0,0,0,1489,1489,1489,1489,1489,1489,1489,1489,1483,1477,1477,1477,1470,1470,1470,1464,1464,1464,1464,1458,1458,1452,1452,1452,1445,1445,1445,1445,1445,1445,1445,1439,1439,1439,1433,1433,1427,1427,1421,1421,1421,1421,1421,1421,1415,1415,1415,1410,1404,1404,1398,1398,1398,1398,1398,1398,1398,1398,1392,1392,1392,1392,1392,1387,1387,1381,1381,1376,1376,1376,1370,1370,1370,1370,1370,1370,1365,1365,1365,1359,1359,1354,1354,1349,1349,1349,1349,1349,1343,1343,1343,1343,1338,1338,1333,1333,1333,1333,1333,1328,1328,1328,1328,1322,1322,1317,1317,1312,1312,1312,1312,1312,1307,1307,1307,1302,1302,1297,1297,1297,1297,1292,1292,1292,1292,1288,1288,1288,1283,1283,1278,1278,1278,1278,1273,1273,1273,1273,1273,1273,1268,1268,1268,1264,1264,1259,1255,1255,1255,1255,1250,1250,1250,1250,1250,1250,1245,1245,1245,1241,1241,1236,1236,1232,1232,1232,1232,1232,1232,1227,1227,1223,1219,1219,1219,1219,1214,1214,1214,1214,1214,1214,1214,1210,1210,1206,1206,1202,1202,1202,1202,1197,1197,1197,1197,1193,1189,1189,1189,1189,1189,1189,1185,1185,1185,1185,1185,1181,1181,1181,1177,1177,1177,1173,1169,1169,1169,1169,1169,1169,1169,1169,1169,1165,1165,1165,1165,1165,1161,1157,1153,1153,1153,1149,1149,1149,1149,1149,1149,1145,1145,0,0,0,0,0,0,0,0,0,0,0,0,0,0,0,0,0,0,0,0,0,0,0,0,0,0,0,0,0
0,0,0,0,0,0,0,0,0,0,0,0,0,1601,1601,1601,1601,1601,1601,1601,1601,1601,1601,1601,1601,1601,1601,1601,1601,1601,1601,1601,1601,1601,1601,1601,1601,1594,1594,1601,1601,1601,1601,1601,1601,1601,1601,1601,1601,1601,1601,1601,1601,1601,1601,1601,1601,1601,1601,1601,1601,1601,1601,1601,1601,1594,1594,1601,1601,1601,1601,1601,1601,1601,1601,1601,1601,1601,1601,1601,1594,1594,1594,1601,1601,1609,1609,1609,1609,1616,1624,1624,1647,1696,1713,1731,1731,1739,1748,1748,1739,1739,1739,1731,1731,1713,1713,1713,1713,1713,1713,1722,933,933,933,933,933,933,933,933,935,935,935,935,938,930,930,938,940,940,935,935,935,935,935,935,938,938,938,938,938,938,935,935,933,933,943,940,940,940,940,940,938,938,938,935,933,930,930,928,928,928,928,930,930,930,933,933,933,933,930,930,928,928,928,925,925,925,925,923,918,918,918,915,915,920,923,925,915,915,915,920,906,906,923,923,923,925,925,923,923,918,918,920,920,920,920,923,923,923,923,918,915,915,915,915,913,913,913,910,910,913,913,918,918,915,915,915,913,910,910,910,913,913,913,913,910,908,908,903,903,896,894,894,906,906,908,906,906,908,906,906,906,906,906,906,903,903,901,901,901,898,898,898,898,898,898,898,901,901,901,901,901,901,901,901,901,903,903,910,910,910,910,908,908,901,898,896,896,896,896,894,894,896,898,898,898,896,896,898,898,896,896,894,894,891,889,889,889,887,887,891,889,889,891,891,891,889,889,889,889,889,887,887,889,889,871,871,889,889,889,887,887,887,882,880,880,880,880,894,889,889,889,887,887,887,885,885,889,889,891,894,896,898,903,906,908,915,918,920,923,923,923,925,925,925,0,0,0,0,0,1489,1489,1489,1489,1489,1489,1489,1483,1483,1477,1477,1470,1470,1470,1470,1464,1464,1464,1458,1458,1452,1452,1452,1452,1452,1452,1445,1445,1445,1445,1445,1439,1439,1439,1439,1433,1433,1427,1421,1421,1421,1421,1421,1415,1415,1415,1410,1410,1404,1404,1404,1398,1398,1398,1398,1398,1398,1392,1392,1392,1392,1392,1392,1387,1387,1381,1376,1376,1376,1376,1370,1370,1370,1370,1370,1370,1370,1365,1365,1359,1354,1354,1354,1354,1349,1349,1349,1349,1349,1343,1343,1343,1338,1338,1338,1333,1333,1333,1333,1328,1328,1328,1322,1322,1317,1317,1317,1312,1312,1312,1312,1312,1307,1307,1307,1307,1302,1302,1302,1297,1297,1292,1292,1292,1288,1288,1288,1283,1283,1278,1278,1278,1278,1278,1273,1273,1273,1273,1273,1268,1268,1268,1264,1259,1259,1255,1255,1255,1255,1255,1250,1250,1250,1250,1250,1250,1245,1245,1245,1241,1236,1236,1236,1236,1232,1232,1232,1232,1227,1227,1227,1223,1223,1219,1219,1214,1214,1214,1214,1214,1214,1214,1210,1210,1210,1206,1206,1202,1202,1202,1202,1197,1197,1197,1197,1197,1193,1193,1189,1189,1189,1185,1185,1185,1185,1185,1185,1181,1181,1181,1177,1177,1173,1169,1169,1169,1169,1169,1169,1169,1169,1169,1165,1165,1165,1165,1165,1161,1157,1153,1153,1153,1153,1149,1149,1149,1149,1149,1145,1145,0,0,0,0,0,0,0,0,0,0,0,0,0,0,0,0,0,0,0,0,0,0,0,0,0,0,0,0,0
0,0,0,0,0,0,0,0,0,0,0,0,0,1601,1601,1601,1601,1601,1601,1601,1601,1601,1601,1601,1601,1601,1601,1601,1601,1601,1601,1609,1609,1609,1609,1601,1601,1601,1601,1601,1601,1601,1601,1601,1601,1601,1601,1601,1601,1601,1601,1601,1601,1601,1601,1601,1601,1601,1601,1601,1601,1601,1601,1601,1601,1594,1594,1601,1601,1601,1601,1601,1601,1601,1601,1601,1601,1601,1601,1601,1601,1601,1601,1601,1601,1609,1609,1609,1616,1624,1632,1632,1639,1688,1713,1722,1722,1731,1739,1739,1739,1739,1731,1731,1722,1713,1713,1713,1713,1713,1713,1713,930,930,930,930,933,933,933,933,930,930,930,930,930,928,928,928,925,925,928,928,930,933,933,933,933,935,935,935,933,933,930,920,920,920,920,920,925,938,938,938,935,933,930,928,925,923,923,923,920,920,920,923,930,930,930,933,933,933,930,930,925,925,928,925,925,923,923,918,918,915,915,915,915,918,918,918,915,913,908,908,906,906,918,920,920,923,918,915,915,915,915,915,915,918,915,915,915,910,910,913,913,913,910,910,910,910,910,908,908,910,910,913,913,910,908,908,908,906,906,906,908,908,910,910,908,906,903,901,901,896,894,894,889,889,889,887,887,887,898,898,906,903,903,903,898,898,898,898,898,896,896,896,896,896,896,896,898,898,898,898,896,896,896,898,898,896,896,896,910,910,910,896,894,894,896,896,896,896,896,894,894,894,894,896,896,889,889,894,891,891,891,891,887,887,887,887,887,885,885,889,887,887,887,889,889,887,887,887,887,885,878,875,873,871,871,869,869,885,885,882,880,880,880,878,878,878,880,880,880,885,885,885,885,885,882,882,887,887,889,891,896,896,898,906,908,915,918,920,923,923,923,925,925,925,0,0,0,0,0,1489,1489,1489,1489,1489,1489,1489,1483,1483,1477,1477,1470,1470,1470,1470,1470,1464,1464,1464,1464,1452,1452,1452,1452,1452,1452,1452,1452,1445,1445,1445,1445,1439,1439,1439,1439,1433,1433,1427,1427,1421,1421,1421,1415,1415,1415,1415,1410,1410,1404,1404,1404,1404,1398,1398,1398,1398,1392,1392,1392,1392,1392,1392,1392,1387,1381,1381,1376,1376,1376,1376,1370,1370,1370,1370,1370,1370,1365,1365,1359,1354,1354,1354,1354,1354,1349,1349,1349,1349,1349,1349,1343,1343,1338,1338,1338,1333,1333,1333,1333,1328,1328,1328,1322,1322,1317,1317,1317,1312,1312,1312,1312,1312,1307,1307,1307,1302,1302,1302,1302,1297,1297,1292,1292,1292,1288,1288,1288,1283,1283,1278,1278,1278,1278,1273,1273,1273,1273,1273,1268,1268,1268,1264,1259,1259,1255,1255,1255,1255,1255,1255,1250,1250,1250,1250,1250,1245,1245,1245,1241,1241,1236,1236,1236,1232,1232,1232,1232,1232,1232,1227,1227,1223,1223,1219,1219,1219,1219,1219,1214,1214,1214,1214,1214,1210,1210,1206,1202,1202,1202,1202,1202,1202,1202,1197,1197,1193,1193,1193,1189,1189,1189,1185,1185,1185,1185,1185,1181,1181,1181,1181,1177,1177,1173,1169,1169,1169,1169,1169,1169,1169,1169,1165,1165,1165,1165,1165,1161,1157,1153,1153,1153,1153,1153,1149,1149,1149,1149,1145,1145,0,0,0,0,0,0,0,0,0,0,0,0,0,0,0,0,0,0,0,0,0,0,0,0,0,0,0,0,0
