0,0,0,0,0,0,0,0,754,752,747,747,747,744,742,741,741,738,736,734,734,733,731,730,730,730,733,731,731,731,731,731,730,728,728,728,728,728,728,728,727,727,727,727,728,728,727,727,728,728,728,727,727,727,728,727,727,727,727,727,725,725,723,723,725,725,727,727,725,725,725,727,727,727,727,727,725,725,725,725,725,725,725,727,725,725,727,727,727,727,727,727,727,727,727,725,725,725,725,725,725,725,725,725,725,725,725,720,720,719,719,719,719,720,720,720,722,720,720,720,720,722,722,722,722,722,722,722,720,720,720,719,719,719,719,719,719,719,722,722,722,723,723,723,722,722,722,720,720,720,720,720,720,720,720,720,719,719,719,719,720,720,720,720,720,720,723,722,719,719,720,720,722,722,722,720,720,720,719,719,717,717,717,719,719,716,716,716,716,716,716,714,714,716,717,717,717,717,717,717,717,717,717,719,720,720,722,725,727,727,728,728,730,731,734,736,738,738,741,742,744,746,746,747,774,774,774,778,778,780,783,785,787,789,789,789,790,792,798,802,803,803,805,807,811,815,817,819,821,823,825,827,831,833,835,835,837,841,843,845,847,849,851,851,854,854,862,862,867,867,869,1655,1655,1655,1647,1647,1647,0,0,0,0,0,0,0,962,959,956,956,956,956,954,954,954,951,948,948,946,946,946,946,946,946,948,954,956,962,964,967,967,970,970,970,0,0,0,0,0,1609,1609,1609,1609,1609,1609,1601,1601,1601,1601,1594,1594,1586,1586,1586,1579,1579,1579,1579,1572,1572,1572,1564,1564,1557,1557,1550,1550,1550,1550,1550,1543,1543,1543,1543,1543,1536,1536,1529,1529,1523,1523,1523,1523,1523,1516,1516,1516,1516,1516,1509,1509,1509,1503,1503,1496,1496,1489,1489,1489,1489,1489,1483,1483,1483,1477,1477,1477,1470,1470,1470,1470,1464,1464,1464,1464,1458,1458,1458,1458,1452,1452,1445,1445,1445,1445,1445,1439,1439,1439,1439,1439,1439,1439,1433,1427,1427,1421,1421,1421,1415,1415,1415,1415,1415,1410,1410,1404,1404,1404,1404,1404,1398,1398,1392,1392,1392,1392,1387,1387,1387,1381,1381,1381,1376,1376,1376,1376,1376,1370,1370,1370,1370,1370,1365,1365,1359,1359,1359,1354,1354,1349,1349,1349,1349,1349,1349,1349,1343,1343,1343,1338,1333,1333,1333,1333,1328,1328,1322,1322,1317,1317,1317,1312,1312,1312,1312,1312,1307,1307,1307,1307,1302,1302,1297,1292,1292,1292,1292,1292,1292,1288,1288,1288,1288,1283,1283,1278,1278,1273,1273,1268,1268,1268,1268,1268,1264,1264,1264,1259,1259,1255,1255,1255,1255,1250,1250,1250,1250,1245,1245,1245,1241,1236,1236,1236,1236,1236,1236,1232,1232,1232,1227,1227,1223,1219,1219,1219,1094,1090,1087,1087,1080,1073,1073,1070,1070,1067,1067,1067,1067,1067,1067,1063,1063,1063,1060,1060,1057,1057,1054,1054,1050,1050,1050,1047,1047,1047,1044,1041,1041,1038,1038,1038,1038,1038,1038,1063,1063,1067,1067,1063,1063,1063,1063,1063,1063,1063,1063,1004,1004,1001,1001,998,995,992,992,987,987,989,0,0,0,0,0,0,0,0,0,0,0,0,0,0,0,0,0,0,0,0,0,0,0,0,0,0,0,0,0,0,0,0,0
0,0,0,0,0,0,0,0,754,752,747,747,747,746,746,741,741,738,736,734,733,733,731,730,730,730,731,730,730,727,727,723,723,725,725,725,725,727,727,727,725,725,725,725,723,723,723,723,727,725,725,723,723,725,725,725,723,723,723,723,723,723,722,722,723,723,725,725,723,722,722,722,722,722,722,725,723,723,723,723,723,723,723,725,725,725,725,725,725,723,722,722,723,723,722,722,723,723,723,720,720,720,723,722,722,722,720,719,717,717,717,717,717,717,719,720,720,720,720,719,719,720,720,716,716,717,719,719,717,717,717,716,716,716,716,716,716,714,714,716,717,717,722,720,720,720,720,719,719,719,719,720,720,719,719,719,719,719,717,717,717,716,716,716,716,716,716,716,716,716,716,719,722,720,720,719,719,719,719,717,716,716,716,717,716,714,714,714,714,714,716,714,714,714,716,714,714,714,714,716,716,716,716,717,719,719,720,722,725,727,727,728,730,733,734,734,736,738,739,741,746,746,771,771,773,773,774,776,778,780,783,785,787,789,789,789,790,792,798,802,803,805,805,809,811,815,817,819,821,823,825,829,831,833,835,835,839,841,843,845,847,849,851,854,854,0,867,867,867,867,1655,1655,1647,1647,1639,1639,1639,1639,1639,0,0,0,0,0,962,959,959,956,956,956,954,954,954,951,951,948,948,946,946,946,946,948,948,954,956,962,964,967,970,970,973,973,0,0,0,0,0,1616,1616,1616,1609,1609,1609,1609,1601,1601,1601,1601,1594,1594,1586,1586,1586,1579,1579,1579,1572,1572,1572,1564,1564,1557,1557,1557,1550,1550,1550,1550,1550,1543,1543,1543,1543,1536,1536,1529,1523,1523,1523,1523,1523,1523,1516,1516,1516,1516,1516,1516,1509,1509,1503,1503,1496,1496,1489,1489,1489,1489,1489,1489,1483,1483,1483,1477,1477,1477,1470,1470,1470,1464,1464,1464,1464,1464,1458,1458,1452,1452,1452,1452,1445,1445,1445,1445,1445,1439,1439,1439,1439,1439,1439,1439,1433,1427,1427,1421,1421,1415,1415,1415,1415,1415,1410,1410,1410,1410,1410,1410,1404,1398,1398,1398,1392,1392,1392,1392,1392,1387,1387,1381,1381,1376,1376,1376,1376,1376,1370,1370,1370,1370,1370,1365,1365,1359,1359,1359,1354,1354,1354,1354,1354,1349,1349,1349,1349,1343,1343,1343,1338,1338,1333,1333,1333,1328,1328,1328,1322,1322,1322,1317,1312,1312,1312,1312,1312,1312,1307,1307,1307,1307,1302,1297,1297,1292,1292,1292,1292,1292,1292,1288,1288,1288,1283,1283,1278,1278,1273,1273,1273,1268,1268,1268,1268,1264,1264,1264,1264,1259,1259,1255,1255,1255,1250,1250,1250,1250,1245,1245,1245,1241,1241,1236,1236,1236,1236,1236,1232,1232,1232,1227,1227,1223,1223,1219,1219,1094,1090,1087,1084,1080,1073,1073,1073,1070,1070,1070,1070,1070,1070,1067,1067,1063,1063,1060,1060,1057,1057,1054,1054,1050,1050,1050,1050,1047,1047,1044,1044,1041,1041,1041,1041,1041,1041,1063,1067,1067,1067,1067,1067,1067,1063,1063,1063,1063,1063,1007,1004,1004,1001,1001,995,995,992,989,984,984,0,0,0,0,0,0,0,0,0,0,0,0,0,0,0,0,0,0,0,0,0,0,0,0,0,0,0,0,0,0,0,0,0,0
0,0,0,0,0,0,0,0,0,0,747,747,747,747,747,741,741,738,736,734,733,733,731,730,730,730,731,728,727,723,723,723,722,722,723,722,722,723,725,725,723,722,722,722,722,722,722,722,722,723,723,723,723,725,725,725,723,723,722,722,722,722,720,720,722,722,722,722,722,722,722,720,720,720,720,720,719,719,720,720,722,720,720,722,720,720,722,719,719,719,717,717,720,720,720,720,720,720,717,717,717,720,720,717,717,717,716,716,716,716,716,716,716,716,716,716,714,714,714,714,714,716,714,714,714,714,714,714,714,714,714,713,713,713,713,713,713,713,711,711,711,710,710,710,710,710,716,716,710,710,716,717,717,717,717,717,717,717,716,714,714,713,711,710,708,708,708,710,710,708,708,708,708,716,716,714,714,716,716,716,714,714,714,714,714,713,713,713,711,711,713,711,711,710,710,710,710,713,713,713,714,714,714,717,717,719,720,720,725,727,727,728,730,733,734,734,736,736,739,741,746,766,769,771,771,773,774,776,778,780,783,785,787,789,789,790,792,796,800,802,802,805,805,809,811,815,817,819,821,823,827,829,831,833,835,837,837,841,843,845,847,849,851,854,0,0,0,1632,0,0,1647,1647,1647,1639,1639,1632,1632,1632,1632,1632,0,0,0,0,962,962,959,959,956,956,956,954,954,954,951,951,948,948,948,948,948,948,951,954,956,962,964,970,970,970,973,973,973,0,0,0,0,1616,1616,1616,1609,1609,1609,1609,1609,1601,1601,1601,1594,1594,1594,1586,1586,1586,1579,1579,1572,1572,1572,1572,1564,1564,1557,1557,1557,1550,1550,1550,1550,1550,1550,1543,1543,1536,1536,1529,1523,1523,1523,1523,1523,1523,1523,1516,1516,1516,1516,1516,1516,1509,1503,1503,1496,1496,1496,1489,1489,1489,1489,1489,1483,1483,1483,1483,1477,1477,1470,1470,1470,1470,1464,1464,1464,1464,1464,1458,1452,1452,1452,1452,1445,1445,1445,1445,1445,1439,1439,1439,1439,1439,1439,1433,1433,1427,1421,1421,1421,1415,1415,1415,1415,1415,1415,1415,1410,1410,1410,1410,1404,1398,1398,1398,1392,1392,1392,1392,1392,1387,1387,1381,1381,1376,1376,1376,1376,1376,1376,1370,1370,1370,1370,1370,1365,1365,1365,1359,1354,1354,1354,1354,1354,1349,1349,1349,1349,1343,1343,1343,1338,1338,1333,1333,1333,1333,1328,1328,1328,1322,1322,1317,1317,1312,1312,1312,1312,1312,1307,1307,1307,1307,1302,1302,1297,1292,1292,1292,1292,1292,1292,1292,1288,1288,1288,1283,1283,1278,1273,1273,1273,1273,1268,1268,1268,1268,1264,1264,1264,1259,1259,1255,1255,1255,1250,1250,1250,1250,1245,1245,1245,1241,1241,1236,1236,1236,1236,1236,1232,1232,1232,1232,1227,1227,1223,1223,1219,1219,1094,1087,1084,1084,1077,1073,1073,1070,1070,1070,1070,1070,1070,1070,1067,1063,1063,1060,1060,1057,1057,1054,1054,1050,1050,1050,1050,1047,1047,1047,1044,1044,1044,1044,1044,1044,1044,1067,1067,1067,1067,1067,1067,1067,1067,1063,1063,1004,1004,1004,1004,1001,998,998,992,992,989,987,981,981,0,0,0,0,0,0,0,0,0,0,0,0,0,0,0,0,0,0,0,0,0,0,0,0,0,0,0,0,0,0,0,0,0,0
0,0,0,0,0,0,0,0,0,0,0,0,0,0,0,0,0,0,0,734,734,733,731,730,730,728,728,727,725,723,723,722,720,720,722,720,720,720,720,720,720,719,719,720,719,719,719,720,720,722,722,722,722,723,723,723,722,719,719,720,719,717,717,719,719,720,720,720,719,719,719,717,717,716,714,714,714,714,714,714,714,714,719,719,717,716,716,716,716,716,716,716,716,716,716,716,716,716,716,714,714,716,716,716,716,716,716,716,714,714,714,714,713,713,713,713,713,711,711,710,710,711,711,711,710,710,710,710,710,711,711,711,711,711,711,710,710,710,708,708,708,710,708,708,708,708,707,707,707,708,708,708,708,708,710,713,713,714,711,710,710,708,708,708,708,707,707,708,708,708,708,707,707,710,713,711,711,713,713,714,713,710,704,704,706,708,710,710,710,710,711,710,710,708,708,710,710,710,711,713,713,714,714,716,717,719,720,720,725,725,727,728,730,733,734,736,736,736,739,764,764,764,767,769,771,773,773,776,776,780,783,785,787,789,789,790,794,796,800,802,802,805,807,809,811,813,817,819,821,823,827,829,831,833,835,837,837,841,843,843,845,849,851,854,854,0,0,1632,1632,1639,1639,1639,1639,1632,1632,1632,1632,1632,1632,1632,0,0,0,0,0,962,959,959,956,956,956,956,954,954,951,951,951,948,948,948,948,948,951,954,956,962,964,970,970,973,973,973,973,0,0,0,0,0,1616,1616,1616,1609,1609,1609,1609,1601,1601,1601,1601,1594,1594,1586,1586,1586,1579,1579,1572,1572,1572,1572,1564,1564,1564,1564,1564,1557,1557,1550,1550,1550,1550,1543,1543,1543,1536,1529,1523,1523,1523,1523,1523,1523,1523,1523,1523,1516,1516,1516,1516,1509,1503,1503,1496,1496,1496,1489,1489,1489,1489,1489,1489,1489,1483,1483,1483,1477,1477,1470,1470,1470,1470,1464,1464,1464,1464,1464,1458,1458,1452,1452,1452,1445,1445,1445,1445,1445,1439,1439,1439,1439,1439,1433,1433,1427,1421,1421,1421,1415,1415,1415,1415,1415,1415,1415,1415,1415,1410,1410,1404,1404,1398,1398,1398,1392,1392,1392,1392,1387,1387,1381,1381,1381,1376,1376,1376,1376,1376,1370,1370,1370,1370,1370,1365,1365,1365,1365,1359,1354,1354,1354,1354,1349,1349,1349,1349,1349,1343,1343,1338,1338,1333,1333,1333,1333,1328,1328,1328,1322,1322,1322,1317,1317,1312,1312,1312,1312,1312,1312,1312,1307,1302,1302,1297,1297,1297,1297,1292,1292,1292,1292,1288,1288,1288,1288,1283,1278,1278,1273,1273,1273,1268,1268,1268,1268,1264,1264,1264,1259,1259,1255,1255,1255,1255,1250,1250,1250,1250,1245,1245,1245,1241,1236,1236,1236,1236,1236,1232,1232,1232,1232,1232,1227,1227,1223,1219,1219,1090,1087,1084,1080,1077,1077,1073,1073,1073,1073,1073,1073,1073,1070,1067,1063,1063,1060,1057,1057,1054,1054,1054,1050,1050,1050,1050,1047,1047,1047,1047,1047,1047,1050,1050,1057,1067,1067,1070,1067,1067,1067,1067,1067,1067,1067,1004,1004,1004,1004,1004,1001,998,995,992,989,987,981,981,981,0,0,0,0,0,0,0,0,0,0,0,0,0,0,0,0,0,0,0,0,0,0,0,0,0,0,0,0,0,0,0,0,0,0
0,0,0,0,0,0,0,0,0,0,0,0,0,0,0,0,0,0,0,0,734,733,731,730,730,728,727,725,725,723,722,722,720,720,719,719,717,717,717,717,717,716,716,716,717,717,717,719,719,720,720,720,720,720,720,719,716,716,716,716,717,714,714,716,716,717,717,716,716,716,717,716,716,714,711,711,711,711,711,711,711,711,711,711,713,713,713,713,714,714,714,713,713,714,714,714,714,711,710,710,710,711,711,713,713,713,713,713,713,713,713,713,711,711,711,710,708,708,708,707,707,708,710,710,710,708,708,710,710,710,710,710,708,708,708,708,707,707,706,706,706,707,706,706,706,706,706,706,706,706,706,704,704,704,707,708,710,707,707,706,706,704,704,707,707,707,707,707,707,706,706,706,706,706,706,708,708,708,707,707,708,706,704,704,704,706,706,706,707,707,707,708,708,708,708,708,708,708,710,711,713,714,714,716,717,717,720,722,725,725,727,728,731,733,734,736,736,736,759,761,762,764,767,769,771,773,773,774,776,780,783,785,787,789,789,790,794,798,800,802,803,805,807,809,811,813,817,819,823,825,827,829,831,833,835,837,837,841,843,843,845,849,854,0,854,0,0,1632,1632,1632,1632,1632,1632,1632,1632,1624,1624,1624,1624,1632,0,0,0,0,0,962,962,959,959,959,956,956,956,956,954,954,954,948,948,948,948,951,951,954,956,962,964,970,970,973,973,973,975,0,0,0,0,0,1616,1616,1616,1616,1609,1609,1609,1601,1601,1601,1601,1594,1594,1594,1594,1586,1586,1579,1579,1579,1572,1572,1572,1564,1564,1564,1564,1557,1557,1557,1550,1550,1550,1550,1543,1543,1536,1529,1523,1523,1523,1523,1523,1523,1523,1523,1523,1516,1516,1516,1516,1509,1503,1503,1496,1496,1496,1496,1496,1489,1489,1489,1489,1489,1483,1483,1483,1477,1477,1477,1470,1470,1470,1464,1464,1464,1464,1458,1452,1452,1458,1452,1452,1445,1445,1445,1445,1445,1439,1439,1439,1439,1439,1433,1433,1427,1421,1421,1421,1421,1415,1415,1415,1415,1415,1415,1415,1410,1410,1404,1404,1404,1398,1398,1398,1398,1392,1392,1392,1387,1387,1387,1381,1381,1376,1376,1376,1376,1376,1376,1370,1370,1370,1370,1370,1365,1365,1365,1359,1359,1354,1354,1354,1354,1349,1349,1349,1349,1349,1343,1343,1338,1338,1333,1333,1333,1333,1328,1328,1322,1322,1322,1317,1317,1312,1312,1312,1312,1312,1312,1312,1307,1307,1302,1302,1297,1297,1297,1292,1292,1292,1292,1292,1288,1288,1288,1283,1278,1278,1273,1273,1273,1268,1268,1268,1268,1264,1264,1264,1264,1259,1259,1255,1255,1255,1250,1250,1250,1250,1250,1245,1245,1241,1241,1241,1236,1236,1236,1236,1232,1232,1232,1232,1227,1227,1223,1219,1219,1090,1090,1080,1080,1077,1077,1073,1073,1073,1070,1070,1070,1070,1070,1067,1063,1063,1060,1057,1057,1054,1054,1054,1050,1050,1050,1050,1047,1047,1047,1050,1050,1050,1054,1057,1063,1067,1067,1070,1067,1067,1067,1067,1067,1067,1004,1004,1004,1004,1004,1001,998,995,992,989,989,984,981,981,981,0,0,0,0,0,0,0,0,0,0,0,0,0,0,0,0,0,0,0,0,0,0,0,0,0,0,0,0,0,0,0,0,0,0
0,0,0,0,0,0,0,0,0,0,0,0,0,0,0,0,0,0,0,0,0,733,731,730,728,727,727,725,723,722,722,720,720,719,719,717,717,717,716,716,714,714,713,711,711,713,711,711,713,717,717,716,716,714,714,714,713,711,711,713,714,711,711,711,711,711,714,713,711,711,711,711,710,710,710,710,710,710,710,710,710,710,710,710,710,710,710,710,710,710,713,713,713,713,711,711,711,710,710,708,708,708,708,708,710,710,710,710,711,711,711,710,710,710,708,708,707,707,706,706,704,704,704,704,707,707,708,708,708,708,708,707,706,706,706,706,706,704,704,704,704,704,704,704,704,704,704,704,704,704,703,703,703,701,700,700,701,701,704,704,704,704,704,706,706,706,706,706,706,704,704,704,704,703,703,703,704,703,703,704,706,704,704,703,703,704,704,704,704,704,704,704,707,706,704,704,707,707,710,711,713,713,714,716,717,717,720,722,725,727,727,728,731,733,734,736,736,759,759,761,762,762,766,769,771,773,773,774,776,780,783,785,787,789,789,790,794,798,800,802,803,805,807,811,811,815,817,817,819,825,827,829,831,833,835,837,837,841,843,843,843,843,0,0,0,0,0,0,1632,1632,1624,1624,1624,1624,1624,1624,1624,1624,1624,1624,0,0,0,0,0,0,962,962,962,959,959,959,956,956,954,954,954,951,948,948,951,951,951,954,956,962,964,970,970,973,975,975,975,0,0,0,0,0,1616,1616,1616,1616,1609,1609,1609,1601,1601,1601,1601,1594,1594,1594,1594,1586,1586,1579,1579,1579,1572,1572,1572,1564,1564,1564,1564,1557,1557,1557,1550,1550,1550,1550,1543,1543,1536,1536,1529,1523,1523,1523,1523,1523,1523,1523,1523,1516,1516,1516,1516,1509,1503,1503,1496,1496,1496,1496,1496,1489,1489,1489,1489,1489,1489,1483,1483,1477,1477,1477,1470,1470,1470,1464,1464,1464,1464,1458,1452,1452,1452,1452,1452,1445,1445,1445,1445,1445,1439,1439,1439,1439,1439,1439,1433,1427,1421,1421,1421,1421,1421,1415,1415,1415,1415,1415,1415,1410,1410,1404,1404,1404,1398,1398,1398,1398,1392,1392,1392,1387,1387,1387,1387,1381,1376,1376,1376,1376,1376,1376,1370,1370,1370,1370,1370,1370,1365,1365,1359,1359,1354,1354,1354,1354,1349,1349,1349,1349,1349,1343,1343,1338,1338,1338,1333,1333,1333,1328,1328,1328,1328,1322,1322,1317,1317,1317,1312,1312,1312,1312,1312,1307,1307,1302,1302,1297,1297,1297,1297,1292,1292,1292,1292,1288,1288,1288,1283,1278,1278,1273,1273,1273,1273,1268,1268,1268,1268,1268,1268,1264,1264,1259,1255,1255,1255,1255,1250,1250,1250,1250,1250,1245,1245,1245,1241,1241,1236,1236,1232,1232,1232,1232,1227,1227,1223,1223,1219,1219,1219,1077,1077,1077,1073,1073,1073,1073,1073,1070,1070,1070,1070,1070,1067,1063,1063,1060,1057,1057,1054,1054,1054,1050,1050,1050,1050,1050,1050,1050,1050,1050,1054,1060,1067,1067,1067,1070,1070,1067,1067,1067,1067,1067,1067,1004,1004,1004,1001,1001,1001,998,995,992,989,987,984,981,981,981,0,0,0,0,0,0,0,0,0,0,0,0,0,0,0,0,0,0,0,0,0,0,0,0,0,0,0,0,0,0,0,0,0,0
0,0,0,0,0,0,0,0,0,0,0,0,0,0,0,0,0,0,0,0,0,733,733,731,728,727,727,725,723,722,722,720,720,719,717,717,716,716,714,714,713,711,710,710,710,710,710,710,710,711,713,711,711,711,710,708,708,708,708,708,710,710,710,710,710,710,710,710,708,708,708,708,708,708,708,708,708,708,708,708,708,708,708,708,708,708,707,707,707,707,707,706,706,710,710,708,708,708,708,708,708,706,706,706,706,706,706,708,708,708,708,708,708,707,707,706,706,704,704,703,701,700,700,701,703,704,704,704,706,706,706,706,704,704,704,704,703,703,703,701,701,701,701,703,703,703,703,703,703,703,703,703,701,700,698,698,697,697,700,700,701,703,704,704,704,704,704,704,703,703,703,701,701,700,700,700,700,700,700,700,701,703,701,701,701,701,703,703,701,701,701,701,703,703,703,704,704,707,710,710,713,713,714,716,717,717,720,722,725,727,727,730,731,759,759,757,757,759,761,761,762,762,766,769,771,773,774,776,778,781,783,785,787,789,790,792,794,798,800,802,803,807,809,811,811,815,817,817,819,825,827,829,831,833,835,837,837,841,843,843,843,0,0,0,0,0,0,1624,1624,1624,1624,1624,1616,1616,1616,1616,1616,1616,1616,1624,0,0,0,0,0,964,964,964,962,962,962,959,956,956,956,954,954,951,948,948,951,951,951,954,959,964,964,970,973,975,975,975,978,0,0,0,0,0,1609,1609,1609,1609,1609,1609,1609,1601,1601,1601,1601,1594,1594,1594,1594,1586,1586,1579,1579,1579,1572,1572,1572,1564,1564,1564,1564,1557,1557,1557,1557,1557,1550,1550,1550,1543,1543,1536,1529,1529,1523,1523,1523,1523,1523,1523,1523,1516,1516,1516,1516,1509,1509,1503,1503,1496,1496,1496,1496,1496,1496,1489,1489,1489,1489,1489,1483,1483,1477,1477,1477,1470,1470,1470,1470,1464,1464,1464,1458,1458,1452,1452,1452,1445,1445,1445,1445,1445,1445,1439,1439,1439,1439,1439,1439,1433,1427,1427,1421,1421,1421,1421,1415,1415,1415,1415,1415,1415,1415,1410,1410,1404,1404,1398,1398,1398,1392,1392,1392,1387,1387,1387,1387,1381,1381,1376,1376,1376,1376,1376,1376,1370,1370,1370,1370,1370,1365,1365,1365,1359,1359,1354,1354,1354,1354,1349,1349,1349,1349,1343,1343,1338,1338,1338,1333,1333,1333,1333,1333,1328,1328,1328,1322,1322,1317,1317,1312,1312,1312,1312,1312,1307,1307,1307,1302,1297,1297,1297,1297,1292,1292,1292,1292,1288,1288,1288,1283,1278,1278,1273,1273,1273,1273,1268,1268,1268,1268,1268,1268,1264,1264,1264,1259,1255,1255,1255,1250,1250,1250,1250,1250,1245,1245,1245,1245,1241,1236,1236,1232,1232,1232,1227,1227,1227,1223,1223,1219,1219,1219,0,1077,1077,1073,1073,1073,1073,1073,1073,1073,1070,1070,1067,1067,1063,1063,1060,1060,1057,1054,1054,1054,1050,1050,1050,1050,1050,1050,1054,1054,1057,1063,1067,1070,1070,1070,1070,1070,1067,1067,1067,1067,1067,1067,1004,1004,1001,1001,998,995,995,992,992,989,987,981,981,978,978,0,0,0,0,0,0,0,0,0,0,0,0,0,0,0,0,0,0,0,0,0,0,0,0,0,0,0,0,0,0,0,0,0,0
0,0,0,0,0,0,0,0,0,0,0,0,0,0,0,0,0,0,0,0,0,733,733,728,728,727,727,725,723,722,722,720,720,719,717,716,714,714,713,713,711,710,710,710,708,708,708,706,706,707,710,708,708,708,708,706,706,706,704,704,706,706,707,707,707,707,708,707,707,707,707,707,707,707,707,708,708,708,707,707,707,707,706,706,706,706,704,704,704,704,704,703,701,701,704,703,703,704,706,706,706,703,703,701,701,698,698,706,706,706,707,707,707,706,706,704,704,703,703,701,698,698,700,700,701,700,700,703,704,704,703,703,703,703,698,698,701,701,700,700,700,700,700,700,700,701,703,703,701,701,701,701,700,698,697,697,696,696,698,698,698,698,700,700,700,703,703,703,703,701,701,701,700,697,697,697,697,697,697,698,698,701,701,700,700,700,700,700,700,700,700,700,701,703,703,704,704,707,710,710,713,713,714,716,717,717,720,722,725,727,728,728,757,757,757,757,759,759,761,761,762,764,766,769,771,773,774,776,778,781,783,785,787,789,790,794,796,798,800,802,803,807,811,811,813,815,817,819,819,823,827,827,831,831,835,835,835,841,843,843,843,843,0,1624,1624,1616,1616,1616,1616,1616,1616,1616,1616,1616,1616,1609,1609,1616,1616,1616,0,0,0,0,0,964,964,964,964,964,964,962,959,956,956,956,954,951,951,951,951,951,954,954,959,964,964,970,973,975,978,978,978,0,0,0,0,0,1601,1601,1609,1609,1609,1609,1601,1601,1601,1601,1601,1594,1594,1594,1586,1586,1579,1579,1579,1579,1572,1572,1572,1572,1572,1572,1572,1564,1564,1564,1557,1557,1550,1550,1550,1543,1543,1536,1536,1529,1529,1529,1529,1523,1523,1523,1523,1516,1516,1516,1516,1509,1509,1503,1503,1496,1496,1496,1496,1496,1496,1496,1489,1489,1489,1489,1483,1483,1477,1477,1477,1470,1470,1470,1470,1464,1464,1464,1464,1458,1458,1452,1452,1445,1445,1445,1445,1445,1445,1439,1439,1439,1439,1439,1439,1433,1427,1427,1421,1421,1421,1421,1421,1415,1415,1415,1415,1415,1415,1410,1410,1410,1404,1404,1398,1398,1392,1392,1392,1392,1387,1387,1387,1381,1381,1376,1376,1376,1376,1376,1376,1370,1370,1370,1370,1370,1365,1365,1365,1365,1359,1359,1354,1354,1354,1354,1349,1349,1349,1343,1343,1343,1338,1338,1338,1333,1333,1333,1333,1333,1328,1328,1328,1322,1317,1317,1312,1312,1312,1312,1312,1307,1307,1307,1302,1302,1297,1297,1297,1292,1292,1292,1292,1288,1288,1288,1283,1283,1278,1273,1273,1273,1273,1268,1268,1268,1268,1268,1268,1264,1264,1264,1259,1255,1255,1255,1250,1250,1250,1250,1250,1245,1241,1241,1241,1241,1236,1236,1236,1232,1232,1227,1227,1227,1223,1223,1223,1223,1080,1080,1080,1080,1077,1077,1073,1073,1073,1073,1070,1070,1070,1067,1063,1063,1063,1060,1057,1057,1054,1054,1050,1050,1050,1050,1050,1050,1050,1054,1057,1073,1073,1073,1073,1070,1070,1070,1067,1067,1067,1067,1067,1010,1010,1007,1004,1001,1001,998,995,992,992,989,989,984,981,978,978,978,0,0,0,0,0,0,0,0,0,0,0,0,0,0,0,0,0,0,0,0,0,0,0,0,0,0,0,0,0,0,0,0,0,0
0,0,0,0,0,0,0,0,0,0,0,0,0,0,0,0,0,0,0,781,781,781,734,728,728,727,727,725,723,722,722,720,720,719,717,716,714,714,713,711,710,708,708,708,707,706,706,704,704,704,707,706,706,706,706,706,706,704,704,703,703,703,703,704,704,704,704,704,704,704,704,706,707,707,707,707,707,707,707,706,704,704,703,703,703,701,700,700,701,701,700,700,700,700,700,698,698,698,700,701,698,698,700,700,698,698,698,698,703,701,701,701,703,703,704,704,703,701,701,701,698,698,698,698,698,698,698,700,700,700,698,698,698,697,697,697,697,697,698,697,697,698,698,698,696,696,701,700,700,700,698,698,698,697,694,693,693,693,694,696,694,693,693,697,697,693,693,693,693,697,697,697,697,696,696,696,696,696,696,696,696,696,696,697,696,693,693,696,697,697,698,698,700,701,703,704,704,707,708,710,713,713,714,716,717,717,720,723,725,728,746,746,746,749,755,757,757,759,761,761,762,764,766,769,771,773,774,776,780,781,785,785,787,789,790,794,796,798,800,802,803,807,811,813,813,815,819,819,819,823,827,827,831,831,835,835,835,835,835,1601,1601,0,0,1616,1609,1609,1609,1609,1609,1616,1609,1609,1609,1609,1609,1601,1601,1601,1609,1609,0,0,0,0,0,0,964,964,964,964,964,964,962,962,959,956,954,954,951,951,951,954,954,956,959,964,964,970,973,975,978,978,981,0,0,0,0,1601,1601,1601,1601,1609,1609,1601,1601,1601,1601,1594,1594,1594,1594,1586,1586,1586,1579,1579,1579,1579,1572,1572,1572,1572,1572,1572,1572,1564,1564,1564,1557,1557,1550,1550,1550,1543,1543,1543,1536,1536,1529,1529,1529,1523,1523,1523,1523,1516,1516,1516,1516,1509,1509,1503,1503,1496,1496,1496,1496,1496,1496,1496,1489,1489,1489,1489,1483,1483,1483,1477,1477,1470,1470,1470,1470,1470,1464,1464,1464,1464,1464,1458,1452,1452,1445,1445,1445,1445,1445,1439,1439,1439,1439,1439,1439,1433,1433,1427,1421,1421,1421,1421,1421,1421,1421,1415,1415,1415,1415,1410,1410,1410,1404,1404,1398,1398,1398,1392,1392,1392,1392,1392,1392,1387,1381,1381,1381,1376,1376,1376,1376,1370,1370,1370,1370,1370,1365,1365,1365,1365,1359,1354,1354,1354,1354,1354,1349,1349,1349,1343,1343,1343,1338,1338,1338,1338,1333,1333,1333,1333,1328,1328,1328,1322,1317,1317,1317,1312,1312,1312,1312,1307,1307,1307,1302,1302,1297,1297,1297,1292,1292,1292,1292,1292,1288,1288,1288,1283,1283,1273,1273,1273,1273,1273,1268,1268,1268,1268,1268,1268,1264,1264,1259,1259,1255,1255,1255,1250,1250,1250,1250,1245,1241,1241,1241,1241,1236,1236,1236,1232,1232,1232,1232,1232,1227,1227,1227,1227,1080,1080,1080,1080,1077,1077,1077,1077,1073,1070,1070,1070,1067,1067,1063,1063,1063,1060,1057,1054,1054,1054,1050,1050,1050,1050,1050,1054,1054,1057,1070,1077,1073,1073,1073,1070,1070,1070,1067,1067,1067,1010,1010,1010,1007,1007,1004,1001,998,998,995,992,989,878,875,875,875,978,978,978,0,0,0,0,0,0,0,0,0,0,0,0,0,0,0,0,0,0,0,0,0,0,0,0,0,0,0,0,0,0,0,0,0,0
0,0,0,0,0,0,0,0,0,0,0,0,0,0,0,0,0,0,785,781,781,781,780,728,728,727,727,725,723,722,722,720,720,719,717,716,714,714,713,711,710,708,707,707,706,704,703,703,703,703,704,704,704,704,704,704,704,703,703,701,700,700,700,703,701,701,703,703,703,703,703,703,703,703,703,704,704,703,703,703,701,701,701,700,698,697,697,697,697,697,697,698,698,698,697,697,697,697,696,693,693,697,697,697,697,697,697,697,698,698,698,698,698,701,703,703,697,697,697,697,697,698,697,697,697,697,696,696,697,698,697,697,697,696,696,694,694,697,696,696,694,693,693,694,693,693,693,694,696,696,693,693,697,694,693,693,691,691,691,691,693,691,691,693,693,691,691,691,691,691,690,690,693,694,694,694,694,694,693,693,691,691,691,691,691,691,691,694,696,696,697,697,700,700,701,703,704,707,708,710,713,713,714,716,717,717,720,723,723,746,746,746,746,749,754,755,757,759,761,761,762,766,767,771,773,773,774,776,778,781,785,787,789,789,792,794,796,798,800,803,803,807,811,813,813,815,817,819,819,823,827,829,831,831,835,835,835,835,1601,1601,1601,1601,1601,1601,1601,1601,1601,1601,1601,1609,1601,1601,1601,1601,1601,1601,1601,1594,1594,1594,0,0,0,0,0,967,967,967,967,967,967,964,964,962,959,959,956,954,954,954,954,954,956,959,962,964,964,970,970,975,978,978,0,0,0,0,0,1601,1601,1601,1601,1601,1601,1601,1601,1594,1594,1594,1594,1586,1586,1586,1579,1579,1579,1579,1579,1579,1572,1572,1572,1572,1572,1572,1572,1564,1564,1564,1557,1557,1550,1550,1550,1543,1543,1543,1536,1536,1536,1529,1529,1529,1523,1523,1523,1523,1523,1516,1516,1516,1509,1503,1503,1503,1503,1496,1496,1496,1496,1496,1489,1489,1489,1483,1483,1483,1483,1477,1477,1477,1470,1470,1470,1470,1470,1464,1464,1464,1464,1458,1452,1452,1452,1445,1445,1445,1445,1439,1439,1439,1439,1439,1439,1433,1433,1427,1427,1421,1421,1421,1421,1421,1421,1415,1415,1415,1415,1410,1410,1410,1410,1404,1404,1398,1398,1398,1392,1392,1392,1392,1392,1387,1381,1381,1381,1376,1376,1376,1376,1370,1370,1370,1370,1370,1365,1365,1365,1365,1359,1354,1354,1354,1354,1354,1349,1349,1349,1343,1343,1343,1338,1338,1338,1338,1333,1333,1333,1333,1328,1328,1328,1322,1317,1317,1317,1312,1312,1312,1312,1312,1307,1307,1307,1302,1302,1297,1297,1292,1292,1292,1292,1292,1292,1288,1288,1283,1283,1278,1278,1273,1273,1273,1273,1268,1268,1268,1268,1268,1268,1264,1259,1259,1255,1255,1255,1250,1250,1250,1250,1245,1245,1245,1245,1245,1241,1236,1236,1236,1236,1236,1232,1232,1232,1232,0,0,1080,1080,1080,1080,1077,1077,1077,1073,1073,1070,1070,1067,1067,1067,1063,1063,1063,1060,1057,1054,1054,1054,1054,1054,1054,1054,1054,1054,1057,1070,1073,1077,1073,1073,1073,1070,1070,1070,1067,1067,1010,1010,1010,1007,1007,1004,1001,1001,998,995,992,992,989,878,875,875,871,871,978,978,0,0,0,0,0,0,0,0,0,0,0,0,0,0,0,0,0,0,0,0,0,0,0,0,0,0,0,0,0,0,0,0,0,0
0,0,0,0,0,0,0,0,0,0,0,0,0,0,0,0,0,789,785,781,781,781,780,780,776,727,725,725,723,723,722,720,720,719,717,716,714,714,713,710,708,707,707,706,704,704,703,701,701,701,701,701,701,701,701,701,703,703,701,700,698,698,700,700,700,700,700,700,700,698,698,696,696,697,697,697,700,698,698,698,698,698,697,697,697,696,696,696,696,696,696,697,697,696,696,696,696,693,693,691,691,693,693,696,694,694,696,696,696,697,697,696,696,696,696,694,694,694,694,696,696,697,696,696,696,696,693,693,693,693,693,693,691,691,691,691,690,690,688,688,691,691,691,693,691,691,691,693,691,691,691,691,691,691,691,691,691,691,691,691,690,687,687,690,691,690,690,690,690,690,688,688,688,690,690,690,691,693,691,691,688,688,688,691,691,691,691,694,696,696,696,697,698,700,701,703,704,707,708,710,713,713,714,716,716,717,741,741,741,742,744,746,749,750,754,755,757,759,761,761,762,766,767,771,773,773,774,776,778,781,785,787,789,790,792,794,796,798,802,803,803,805,809,813,813,815,817,819,819,821,827,829,831,831,835,835,835,1586,1601,1601,1601,1601,1601,1601,1601,1601,1601,1601,1601,1601,1601,1601,1601,1601,1601,1594,1594,1594,1586,1579,1579,0,0,0,0,967,967,967,967,967,967,967,964,964,962,959,956,956,956,956,956,956,959,959,962,964,964,970,970,975,978,978,0,0,0,0,0,1594,1594,1594,1594,1601,1601,1594,1594,1594,1594,1586,1586,1586,1586,1586,1579,1579,1579,1579,1579,1579,1572,1572,1572,1572,1572,1572,1572,1572,1564,1564,1557,1557,1550,1550,1550,1543,1543,1543,1543,1536,1536,1536,1529,1529,1523,1523,1523,1523,1523,1516,1516,1516,1516,1509,1503,1503,1503,1496,1496,1496,1496,1496,1496,1489,1489,1483,1483,1483,1483,1477,1477,1477,1470,1470,1470,1470,1470,1470,1464,1464,1464,1458,1458,1452,1452,1452,1445,1445,1445,1445,1439,1439,1439,1439,1439,1439,1433,1427,1427,1427,1421,1421,1421,1421,1421,1415,1415,1415,1415,1415,1415,1415,1410,1404,1404,1398,1398,1398,1392,1392,1392,1392,1392,1387,1381,1381,1381,1381,1376,1376,1376,1370,1370,1370,1370,1370,1365,1365,1365,1359,1359,1354,1354,1354,1354,1354,1349,1349,1349,1349,1349,1343,1343,1343,1338,1338,1333,1333,1333,1333,1328,1328,1328,1322,1317,1317,1312,1312,1312,1312,1312,1312,1307,1307,1307,1307,1302,1302,1297,1297,1292,1292,1292,1292,1292,1288,1288,1283,1283,1278,1278,1278,1273,1273,1273,1268,1268,1268,1268,1268,1268,1264,1259,1259,1259,1255,1255,1250,1250,1255,1250,1250,1250,1250,1250,1250,1250,0,0,0,0,0,0,0,0,0,0,0,1080,1080,1080,1080,1077,1077,1073,1073,1073,1070,1070,1067,1067,1067,1063,1063,1063,1060,1057,1054,1054,1054,1054,1054,1054,1054,1057,1060,1073,1073,1077,1077,1073,1073,1073,1070,1070,1070,1067,1067,1010,1010,1010,1007,1004,1004,1001,998,998,995,992,992,880,878,875,873,871,871,0,0,0,0,0,0,0,0,0,0,0,0,0,0,0,0,0,0,0,0,0,0,0,0,0,0,0,0,0,0,0,0,0,0,0,0
0,0,0,0,0,0,0,0,0,0,0,0,0,0,0,0,789,789,785,783,783,781,780,780,778,774,725,725,723,723,722,720,720,720,719,716,714,714,713,710,708,707,706,706,703,703,703,701,701,700,700,700,701,701,700,700,701,701,700,698,697,697,697,698,698,698,698,697,694,693,693,693,693,693,693,693,693,696,696,696,696,696,696,694,693,693,693,693,691,691,693,696,696,696,694,694,694,691,691,690,690,691,693,693,693,693,694,693,693,693,693,691,691,693,693,693,693,693,693,694,694,696,694,694,693,693,691,691,690,690,690,690,688,688,688,688,687,687,688,688,688,688,688,688,691,690,688,688,688,688,690,690,688,688,690,690,690,690,688,687,686,686,686,686,686,688,687,687,688,688,688,688,688,688,688,687,687,688,688,688,688,688,688,688,688,688,690,693,694,694,696,696,698,700,701,703,704,707,708,710,711,713,714,716,716,739,739,741,741,742,744,746,749,750,752,754,757,759,761,761,764,766,769,771,773,774,776,778,780,783,785,787,789,790,792,794,796,800,802,803,805,805,809,813,813,815,817,819,819,821,827,829,829,835,835,835,1594,1586,1586,1586,1586,1586,1594,1594,1594,1594,1594,1594,1594,1594,1594,1594,1594,1594,1594,1594,1586,1586,1586,1579,1579,0,0,0,0,970,970,970,970,967,967,967,964,964,964,959,959,956,956,956,956,959,959,962,964,967,967,970,973,975,978,981,981,0,0,0,0,1594,1586,1586,1586,1594,1594,1586,1586,1586,1586,1579,1579,1579,1579,1579,1579,1579,1579,1579,1579,1579,1572,1572,1572,1572,1572,1572,1572,1572,1564,1564,1557,1557,1550,1550,1550,1543,1543,1543,1543,1543,1543,1536,1536,1529,1529,1523,1523,1523,1523,1516,1516,1516,1516,1509,1509,1509,1503,1503,1496,1496,1496,1496,1496,1489,1489,1483,1483,1483,1483,1477,1477,1477,1477,1470,1470,1470,1470,1470,1470,1464,1464,1464,1458,1458,1452,1452,1445,1445,1445,1445,1445,1445,1439,1439,1439,1439,1433,1427,1427,1427,1421,1421,1421,1421,1421,1421,1421,1415,1415,1415,1415,1415,1410,1404,1404,1398,1398,1398,1392,1392,1392,1392,1392,1387,1381,1381,1381,1381,1376,1376,1376,1370,1370,1370,1370,1365,1365,1365,1365,1359,1359,1354,1354,1354,1354,1354,1349,1349,1349,1349,1349,1343,1343,1343,1343,1338,1333,1333,1333,1333,1333,1328,1328,1322,1317,1317,1312,1312,1312,1312,1312,1312,1312,1307,1307,1307,1302,1302,1297,1297,1292,1292,1292,1292,1292,1288,1288,1283,1283,1283,1283,1278,1278,1273,1273,1273,1268,1268,1268,1268,1268,1264,1259,1259,1259,1255,1255,1255,1255,1255,0,0,1250,1250,0,0,0,0,0,0,0,0,0,0,0,0,0,1084,1080,1080,1080,1080,1077,1077,1073,1073,1073,1070,1070,1067,1067,1063,1063,1063,1063,1060,1057,1057,1054,1054,1054,1054,1054,1057,1073,1073,1077,1077,1077,1077,1073,1073,1073,1070,1070,1070,1067,1067,1010,1010,1007,1004,1004,896,896,896,998,995,992,880,880,878,875,873,873,873,0,0,0,0,0,0,0,0,0,0,0,0,0,0,0,0,0,0,0,0,0,0,0,0,0,0,0,0,0,0,0,0,0,0,0,0
0,0,0,0,0,0,0,0,0,803,803,0,0,0,794,790,789,789,787,785,785,783,781,780,778,774,773,727,725,723,722,720,720,720,717,716,714,713,711,710,708,707,706,704,703,703,701,701,700,698,697,694,694,693,693,694,693,693,691,691,693,694,693,693,696,696,696,694,693,691,691,691,691,691,690,690,688,688,691,690,690,691,691,691,690,690,690,690,690,690,690,690,693,693,691,691,691,690,688,688,688,688,690,690,690,690,690,691,690,690,693,690,688,687,687,688,688,688,691,693,693,693,691,691,690,690,690,688,687,687,686,686,686,686,686,687,686,686,687,687,687,687,687,687,687,687,686,686,687,687,687,687,687,687,687,687,687,687,686,686,684,684,684,684,684,686,686,686,687,687,687,687,686,686,686,686,686,686,686,686,686,686,687,687,688,688,690,693,694,694,696,696,698,700,701,704,704,707,707,708,711,713,716,716,739,739,739,741,741,742,744,746,747,749,752,754,757,759,761,762,764,766,769,773,773,774,776,778,780,783,787,789,790,792,794,796,798,800,802,803,805,805,809,813,815,815,817,819,819,0,819,1579,1579,1579,1579,1579,1579,1579,1579,1579,1579,1586,1586,1586,1586,1586,1586,1586,1586,1594,1594,1594,1586,1586,1594,1586,1586,1579,1579,1572,1572,0,0,0,0,0,970,970,970,970,967,967,967,964,964,962,959,959,956,956,956,959,962,962,964,967,967,973,973,978,978,981,981,0,0,0,0,0,1586,1586,1586,1586,1579,1579,1579,1579,1579,1579,1579,1579,1579,1579,1579,1579,1579,1579,1579,1572,1572,1572,1572,1572,1572,1572,1572,1572,1564,1564,1557,1557,1550,1550,1550,1543,1543,1543,1543,1543,1543,1536,1536,1529,1529,1529,1523,1523,1523,1523,1516,1516,1516,1516,1509,1509,1509,1509,1503,1503,1496,1496,1496,1489,1489,1489,1483,1483,1483,1477,1477,1477,1477,1470,1470,1470,1470,1470,1470,1464,1464,1464,1464,1458,1458,1458,1452,1445,1445,1445,1445,1445,1439,1439,1439,1439,1433,1427,1427,1427,1421,1421,1421,1421,1421,1421,1421,1415,1415,1415,1410,1410,1410,1404,1404,1398,1398,1398,1398,1392,1392,1392,1392,1387,1381,1381,1381,1381,1376,1376,1376,1370,1370,1370,1370,1365,1365,1365,1359,1359,1359,1354,1354,1354,1354,1354,1349,1349,1349,1349,1349,1343,1343,1343,1343,1338,1338,1333,1333,1333,1333,1328,1328,1322,1317,1317,1312,1312,1312,1312,1312,1312,1312,1312,1307,1307,1302,1302,1302,1297,1297,1292,1292,1292,1292,1288,1288,1288,1283,1283,1283,1278,1278,1273,1273,1273,1273,1273,1268,1268,1268,1264,1259,1259,1259,1255,1255,1255,1255,0,0,0,0,0,0,0,0,0,0,0,0,0,0,0,0,0,0,1080,1080,1080,1080,1080,1077,1077,1077,1073,1073,1070,1067,1067,1063,1063,1063,1063,1063,1060,1057,1057,1054,1054,1054,1054,1057,1073,1077,1077,1077,1077,1077,1077,1077,1077,1077,1073,1070,1070,1013,1013,1010,1010,896,896,894,894,894,894,894,885,880,878,875,875,875,873,873,873,0,0,0,0,0,0,0,0,0,0,0,0,0,0,0,0,0,0,0,0,0,0,0,0,0,0,0,0,0,0,0,0,0,0,0,0
0,0,0,0,0,0,0,805,805,803,803,803,802,798,794,790,790,789,787,785,785,781,781,780,778,776,773,771,771,769,769,722,720,720,716,714,713,713,711,710,708,707,706,704,703,701,700,698,697,697,696,694,694,693,693,693,691,691,690,690,693,693,693,693,693,693,693,691,691,690,690,688,688,688,687,686,686,688,688,687,687,687,688,688,687,687,687,687,687,687,683,683,690,690,687,687,687,688,687,687,687,687,688,687,687,687,688,688,686,686,686,687,686,684,684,686,686,684,683,683,687,687,688,690,688,687,687,686,686,683,683,683,683,683,683,684,684,684,684,684,684,684,683,683,683,684,684,684,686,686,686,686,684,684,682,682,682,683,682,682,682,683,682,682,682,682,683,683,684,686,686,684,683,683,682,682,682,682,682,682,684,684,686,686,687,687,690,693,693,694,696,697,698,700,703,704,704,707,707,708,711,713,733,733,738,739,739,741,741,742,744,746,747,749,752,754,757,759,761,762,764,766,769,773,773,774,778,780,781,783,787,789,792,792,794,796,798,800,802,803,803,805,809,811,813,815,819,819,0,0,0,0,1579,1579,1579,1579,1579,1579,1579,1579,1572,1572,1572,1572,1572,1579,1579,1579,1579,1586,1586,1586,1586,1586,1586,1579,1579,1572,1572,1572,1572,0,0,0,0,0,973,973,973,970,970,967,967,964,964,962,962,959,959,959,959,959,962,962,964,967,967,973,973,978,978,981,981,984,0,0,0,0,1594,1586,1586,1579,1579,1572,1572,1564,1564,1572,1572,1572,1572,1572,1579,1572,1572,1572,1572,1572,1572,1564,1564,1572,1564,1564,1564,1564,1564,1564,1557,1557,1550,1550,1543,1543,1543,1543,1543,1543,1543,1543,1536,1536,1529,1529,1529,1523,1523,1523,1516,1516,1516,1516,1516,1509,1509,1509,1503,1503,1503,1503,1496,1489,1489,1489,1489,1483,1483,1483,1483,1477,1477,1477,1477,1470,1470,1470,1470,1470,1464,1464,1464,1464,1458,1458,1458,1452,1445,1445,1445,1445,1445,1439,1439,1439,1433,1427,1427,1427,1421,1421,1421,1421,1421,1421,1421,1415,1415,1415,1410,1410,1410,1404,1404,1398,1398,1398,1398,1392,1392,1392,1392,1387,1387,1387,1381,1381,1376,1376,1376,1376,1370,1370,1370,1365,1365,1365,1359,1359,1354,1354,1354,1354,1354,1354,1349,1349,1349,1349,1349,1343,1343,1343,1343,1338,1338,1333,1333,1333,1333,1328,1328,1322,1317,1317,1317,1317,1312,1312,1312,1312,1312,1312,1307,1307,1307,1302,1302,1302,1297,1297,1292,1292,1292,1288,1288,1288,1288,1283,1283,1278,1278,1278,1273,1273,1273,1273,1268,1268,1264,1264,1259,1259,1259,1259,1259,0,0,0,0,0,0,0,0,0,0,0,0,0,0,0,0,0,0,0,0,1080,1080,1080,1080,1080,1077,1077,1077,1073,1073,1070,1067,1067,1063,1063,1063,1063,1063,1060,1057,1057,1054,1054,1054,1073,1073,1077,1077,1077,1077,1077,1077,1077,1077,1077,1073,1073,1073,896,896,894,894,896,896,894,891,889,887,885,882,880,880,878,875,875,875,873,873,873,0,0,0,0,0,0,0,0,0,0,0,0,0,0,0,0,0,0,0,0,0,0,0,0,0,0,0,0,0,0,0,0,0,0,0,0
0,0,0,0,0,0,0,805,805,803,803,803,802,798,798,794,790,789,787,787,785,781,781,780,778,776,773,769,769,767,766,766,766,766,716,714,713,713,711,710,708,707,707,706,703,701,700,698,697,697,696,694,693,691,691,691,690,688,688,688,690,690,687,687,688,691,691,690,690,687,687,686,686,684,683,683,683,686,686,686,686,686,686,687,686,686,686,686,686,686,682,682,682,682,684,684,684,684,686,686,686,686,686,686,686,686,686,686,683,682,682,684,684,683,683,684,684,684,682,680,678,678,678,682,684,683,683,683,683,682,682,682,682,682,682,682,683,683,683,683,682,682,680,680,680,680,680,680,679,679,680,680,680,680,679,678,678,678,678,679,680,680,679,679,680,680,680,680,680,680,680,680,679,679,679,679,680,680,680,680,683,684,684,686,686,687,690,693,693,694,696,697,698,700,703,704,706,707,707,710,733,733,733,733,736,738,738,739,741,742,744,746,747,749,750,754,757,759,762,762,764,766,769,773,773,776,778,780,781,783,787,789,792,794,796,796,798,800,802,802,803,805,811,811,813,815,0,0,0,0,0,0,1579,1579,1579,1579,1579,1579,1579,1572,1572,1572,1572,1572,1572,1572,1572,1572,1572,1579,1579,1579,1579,1579,1579,1579,1572,1572,1572,1564,1564,1564,0,0,0,0,975,975,975,973,973,970,970,967,967,964,962,962,962,962,962,962,964,964,964,967,967,973,975,978,981,981,981,981,0,0,0,0,0,1586,1579,1579,1572,1564,1564,1564,1564,1564,1564,1564,1564,1564,1572,1572,1564,1564,1564,1564,1564,1564,1564,1564,1564,1564,1564,1564,1557,1557,1550,1550,1550,1550,1543,1543,1543,1543,1543,1543,1543,1543,1536,1536,1536,1529,1529,1529,1523,1523,1523,1523,1516,1516,1516,1516,1509,1509,1503,1503,1503,1503,1496,1496,1496,1489,1489,1489,1483,1483,1483,1483,1477,1477,1477,1477,1470,1470,1470,1470,1470,1464,1464,1464,1464,1458,1458,1452,1445,1445,1445,1445,1445,1439,1439,1439,1433,1433,1427,1427,1421,1421,1421,1421,1421,1421,1421,1415,1415,1415,1415,1415,1410,1404,1404,1404,1398,1398,1398,1392,1392,1392,1392,1387,1387,1387,1381,1381,1376,1376,1376,1376,1370,1370,1370,1370,1365,1365,1354,1354,1354,1354,1354,1354,1354,1354,1354,1354,1349,1349,1349,1349,1343,1343,1343,1338,1338,1333,1333,1333,1328,1328,1328,1322,1317,1317,1317,1317,1312,1312,1312,1312,1312,1312,1307,1307,1307,1307,1307,1302,1302,1297,1297,1297,1292,1288,1288,1288,1288,1283,1283,1283,1278,1278,1273,1273,1273,1273,1268,1268,1264,1264,1259,1259,1259,1259,1259,0,0,0,0,0,0,0,0,0,0,0,0,0,0,0,0,0,0,0,0,1084,1080,1080,1080,1080,1077,1077,1077,1073,1070,1067,1067,1067,1063,1063,1063,1063,1063,1060,1057,1057,1057,1057,1073,1077,1077,1080,1080,1080,1077,1077,1077,1077,1077,1077,1073,1073,1073,896,896,894,894,894,894,889,887,882,882,882,880,880,878,878,875,875,875,875,873,873,0,0,0,0,0,0,0,0,0,0,0,0,0,0,0,0,0,0,0,0,0,0,0,0,0,0,0,0,0,0,0,0,0,0,0,0
0,0,0,0,0,0,807,805,805,805,805,805,803,802,800,796,790,789,787,787,785,783,781,780,778,774,773,769,769,767,766,764,764,762,716,714,710,710,710,708,708,707,707,706,703,701,700,698,697,697,696,694,693,691,691,690,688,686,686,687,687,686,686,686,686,687,687,687,686,686,684,683,682,682,682,682,682,683,684,684,684,684,684,684,684,684,683,683,683,683,680,680,680,682,682,680,680,682,683,684,684,684,684,684,683,683,683,682,680,680,680,682,683,682,682,682,683,683,680,679,676,676,676,678,678,678,679,682,682,682,680,680,680,680,680,680,680,680,682,682,679,679,679,678,678,678,679,679,679,679,679,679,679,678,676,676,676,676,676,676,676,678,678,676,676,675,675,676,676,675,675,679,678,678,678,678,680,680,680,680,682,683,684,686,686,687,690,693,693,694,694,696,697,698,704,706,706,708,708,731,731,731,733,733,736,738,738,739,741,744,744,746,747,749,750,754,757,759,762,762,764,766,769,773,774,778,780,781,781,785,787,789,792,794,796,796,798,800,802,802,803,805,811,811,813,813,0,0,0,0,1564,1564,1572,1572,1572,1572,1572,1572,1572,1572,1572,1572,1572,1572,1572,1564,1564,1564,1572,1572,1572,1572,1579,1579,1579,1572,1572,1572,1572,1564,1564,1564,0,0,0,0,975,975,975,975,973,973,970,967,967,967,964,962,962,962,962,964,964,964,964,967,970,975,975,981,981,981,981,981,0,0,0,0,0,1579,1572,1564,1564,1557,1557,1557,1557,1557,1550,1550,1550,1550,1557,1557,1557,1557,1557,1557,1557,1557,1557,1557,1557,1557,1557,1557,1557,1550,1550,1550,1550,1543,1543,1543,1543,1543,1543,1543,1543,1543,1536,1536,1536,1529,1529,1529,1523,1523,1523,1523,1516,1516,1516,1516,1516,1509,1509,1509,1503,1503,1503,1496,1496,1496,1489,1489,1489,1489,1483,1483,1477,1477,1477,1477,1470,1470,1470,1470,1464,1464,1464,1464,1464,1464,1464,1458,1452,1452,1445,1445,1445,1439,1439,1439,1439,1433,1427,1427,1427,1427,1421,1421,1421,1421,1421,1415,1415,1415,1415,1415,1410,1404,1404,1404,1398,1398,1398,1392,1392,1392,1392,1387,1387,1387,1381,1381,1381,1376,1376,1376,1376,1370,1370,1370,1370,1365,1354,1354,1354,1354,1354,1354,1354,1354,1354,1354,1349,1349,1349,1349,1349,1349,1343,1338,1338,1333,1333,1333,1328,1328,1328,1322,1317,1317,1317,1317,1312,1312,1312,1312,1312,1312,1307,1307,1307,1307,1307,1302,1302,1297,1297,1297,1292,1292,1288,1288,1288,1288,1288,1283,1278,1278,1273,1273,1273,1273,1268,1268,1264,1264,1259,1259,1259,1259,0,0,0,0,0,0,0,0,0,0,0,0,0,0,0,0,0,0,0,0,1080,1080,1080,1080,1080,1077,1077,1073,1073,1073,1070,1067,1067,1067,1063,1063,1063,1063,1063,1063,1057,1057,1057,1077,1080,1080,1080,1080,1080,1080,1077,1077,1077,1077,1077,1077,1077,1077,894,891,891,891,889,889,889,885,882,882,880,880,880,880,878,878,875,875,875,875,873,873,0,0,0,0,0,0,0,0,0,0,0,0,0,0,0,0,0,0,0,0,0,0,0,0,0,0,0,0,0,0,0,0,0,0,0,0
0,0,0,0,0,0,807,807,807,805,805,803,802,802,800,796,792,790,789,787,785,783,781,780,778,774,773,771,769,767,766,764,764,762,761,761,708,708,710,708,708,707,707,706,703,701,700,698,697,697,696,694,693,691,691,690,688,686,684,684,684,683,683,682,682,683,684,686,684,684,683,682,682,682,680,680,682,682,682,682,682,682,682,682,682,682,682,682,682,682,680,680,680,680,680,679,679,680,680,682,680,680,679,679,679,679,678,678,678,678,679,679,679,680,679,679,679,678,676,676,675,675,675,676,676,676,676,678,676,676,679,679,679,679,678,678,678,679,678,678,676,676,676,676,676,674,674,675,675,675,675,675,676,674,674,674,674,674,674,672,672,675,676,675,674,674,674,674,674,672,672,672,674,676,676,676,678,678,679,680,680,682,683,684,686,687,690,691,693,693,693,694,696,698,704,707,708,710,710,727,730,731,733,734,736,736,738,739,741,744,746,747,749,749,752,754,757,759,762,762,764,766,769,773,774,778,780,781,781,785,787,789,792,794,796,796,798,800,802,802,803,807,813,813,813,0,0,0,0,0,1564,1564,1564,1564,1564,1564,1572,1572,1572,1572,1572,1564,1564,1564,1564,1564,1564,1564,1564,1564,1564,1564,1564,1564,1564,1572,1572,1564,1564,1564,1557,1557,1557,0,0,0,975,975,975,975,975,973,973,970,967,967,964,964,962,962,964,964,964,964,967,967,970,975,978,981,981,984,984,984,0,0,0,0,1557,1557,1557,1557,1557,1557,1550,1550,1550,1550,1550,1550,1550,1550,1550,1550,1550,1550,1550,1550,1550,1550,1550,1550,1550,1550,1550,1550,1550,1550,1543,1543,1543,1543,1543,1543,1543,1543,1543,1543,1536,1536,1536,1536,1529,1529,1529,1523,1523,1523,1523,1523,1516,1516,1516,1516,1516,1509,1509,1509,1503,1503,1503,1496,1496,1496,1496,1489,1489,1489,1483,1483,1477,1477,1477,1477,1470,1470,1470,1470,1464,1464,1464,1464,1464,1464,1464,1458,1458,1452,1445,1445,1445,1439,1439,1439,1439,1433,1433,1433,1427,1427,1421,1421,1421,1421,1421,1415,1415,1415,1415,1415,1410,1410,1404,1404,1404,1398,1398,1398,1392,1392,1392,1392,1392,1387,1387,1381,1381,1381,1376,1376,1376,1376,1376,1370,1370,1365,1359,1359,1359,1354,1354,1354,1354,1354,1354,1354,1354,1349,1349,1349,1349,1349,1343,1338,1338,1333,1333,1333,1328,1328,1328,1322,1322,1317,1317,1317,1312,1312,1312,1312,1312,1312,1307,1307,1307,1307,1307,1302,1302,1297,1297,1297,1292,1292,1288,1288,1288,1288,1288,1283,1283,1278,1278,1273,1273,1273,1273,1268,1264,1264,1259,1259,1259,1259,0,0,0,0,0,0,0,0,0,0,0,0,0,0,0,0,0,0,0,0,1080,1080,1080,1080,1080,1077,1073,1073,1073,1070,1070,1067,1067,1067,1063,1063,1063,1063,1063,1063,1067,1077,1080,1080,1080,1080,1080,1080,1080,1080,1077,1077,1077,1077,1077,1077,1077,894,894,891,889,889,887,887,887,885,882,882,880,880,880,880,878,878,875,875,875,875,873,873,0,0,0,0,0,0,0,0,0,0,0,0,0,0,0,0,0,0,0,0,0,0,0,0,0,0,0,0,0,0,0,0,0,0,0,0
0,0,0,0,0,809,807,807,807,805,803,802,802,802,800,796,794,790,789,789,787,785,783,781,780,776,774,773,771,767,766,766,764,764,762,762,708,708,710,708,708,707,707,706,703,703,701,700,698,698,697,696,694,693,691,690,688,686,684,683,683,683,682,682,680,680,680,683,682,680,680,680,679,679,679,679,680,680,680,680,680,679,679,678,678,679,679,680,680,680,680,679,679,679,679,678,678,679,680,680,678,678,676,676,676,675,675,675,676,675,675,675,675,676,676,676,675,675,675,675,675,674,674,674,674,675,675,675,675,675,674,674,675,675,674,674,675,675,675,674,674,674,675,675,674,672,672,672,671,671,671,671,671,671,671,671,671,671,671,671,671,671,671,674,672,672,672,671,671,671,671,672,672,675,675,676,676,678,678,680,680,682,683,684,686,687,688,690,691,693,693,693,696,714,714,713,713,714,716,727,728,730,731,733,736,736,738,739,741,744,746,747,749,749,752,754,759,761,764,764,764,766,769,773,774,778,780,781,783,785,789,789,792,794,796,796,798,800,802,802,803,803,0,0,0,0,0,0,0,1557,1557,1557,1557,1564,1564,1564,1564,1564,1564,1564,1564,1564,1564,1564,1564,1564,1564,1564,1557,1557,1557,1557,1557,1557,1564,1557,1557,1557,1557,1557,1557,1550,1550,0,0,0,0,978,978,975,975,975,975,973,970,970,967,964,964,964,964,964,964,964,967,970,970,975,978,981,984,984,987,987,989,0,0,0,1557,1550,1550,1550,1550,1550,1550,1543,1543,1543,1550,1550,1550,1543,1543,1543,1543,1543,1543,1543,1543,1543,1543,1543,1550,1550,1550,1550,1543,1543,1543,1543,1543,1543,1536,1536,1543,1536,1536,1536,1536,1536,1536,1536,1529,1529,1529,1523,1523,1523,1523,1523,1516,1516,1516,1516,1516,1516,1509,1509,1503,1503,1503,1496,1496,1496,1496,1489,1489,1489,1489,1483,1483,1477,1477,1477,1470,1470,1470,1470,1470,1464,1464,1464,1464,1464,1464,1458,1458,1452,1445,1445,1445,1445,1439,1439,1439,1439,1433,1433,1433,1427,1427,1427,1421,1421,1421,1421,1415,1415,1415,1415,1410,1410,1404,1404,1404,1398,1398,1398,1398,1392,1392,1392,1392,1387,1387,1381,1381,1381,1376,1376,1376,1376,1376,1376,1370,1370,1365,1359,1359,1354,1354,1354,1354,1354,1354,1354,1354,1354,1349,1349,1349,1349,1343,1343,1338,1333,1333,1333,1328,1328,1328,1328,1322,1317,1317,1317,1317,1312,1312,1312,1312,1312,1307,1307,1307,1307,1307,1307,1302,1302,1302,1297,1292,1292,1292,1288,1288,1288,1288,1283,1283,1283,1278,1273,1273,1273,1273,1268,1268,1264,1264,1259,1259,0,0,0,0,0,1123,1123,0,0,0,0,0,0,0,0,0,0,0,0,0,0,0,1080,1080,1080,1080,1077,1073,1073,1073,1070,1070,1067,1067,1063,1063,1063,1063,1063,1063,1070,1073,1084,1084,1084,1080,1080,1080,1080,1080,1080,1077,1077,1073,1073,1073,1073,894,894,894,889,889,889,887,887,887,885,882,882,882,882,880,880,880,878,878,878,878,878,878,878,0,0,0,0,0,0,0,0,0,0,0,0,0,0,0,0,0,0,0,0,0,0,0,0,0,0,0,0,0,0,0,0,0,0,0,0
0,0,0,0,0,807,807,807,805,805,803,802,802,802,800,796,796,792,789,789,787,787,785,781,780,776,776,773,773,769,767,766,766,764,764,762,762,759,757,708,708,707,707,706,703,701,701,698,698,698,697,696,694,693,691,691,688,686,684,683,683,682,682,680,680,678,678,676,676,676,678,678,678,678,678,678,678,678,678,678,678,678,678,676,676,676,676,678,678,678,678,676,676,678,676,676,676,676,678,678,675,675,675,675,674,674,674,674,674,672,672,671,671,672,672,672,672,672,672,674,674,672,672,672,672,672,671,671,671,671,671,670,670,670,670,668,668,668,670,671,672,672,674,674,674,671,671,671,671,671,670,670,670,671,670,670,670,670,670,670,670,670,668,668,670,670,670,670,670,670,671,671,672,674,674,675,676,678,678,680,680,682,683,684,686,687,688,690,691,690,690,693,713,714,714,720,722,723,725,728,728,730,731,733,736,736,738,739,741,744,746,746,747,749,752,755,759,761,764,764,766,767,769,773,776,780,781,781,783,785,789,789,790,792,794,796,798,800,802,802,803,0,0,0,0,0,0,1557,1550,1550,1557,1557,1557,1557,1557,1557,1557,1564,1557,1557,1557,1557,1564,1564,1557,1557,1557,1557,1550,1550,1550,1550,1550,1550,1550,1550,1550,1550,1543,1543,1543,1543,1543,0,0,0,0,0,978,978,975,975,975,973,970,970,967,964,964,964,964,964,964,964,967,970,970,975,978,984,984,987,987,987,989,0,0,0,0,1550,1543,1543,1543,1543,1543,1543,1543,1543,1543,1543,1543,1543,1543,1543,1543,1543,1543,1543,1543,1543,1543,1543,1543,1543,1543,1543,1543,1536,1536,1536,1536,1536,1536,1536,1536,1536,1536,1536,1529,1529,1529,1529,1529,1523,1523,1523,1523,1523,1523,1523,1516,1516,1516,1516,1516,1516,1509,1509,1509,1503,1503,1496,1496,1496,1496,1489,1489,1489,1489,1483,1483,1477,1477,1477,1470,1470,1470,1470,1470,1464,1464,1464,1464,1464,1464,1458,1458,1452,1445,1445,1445,1445,1439,1439,1439,1439,1433,1433,1433,1433,1427,1427,1427,1421,1421,1421,1415,1415,1415,1415,1415,1410,1410,1404,1404,1404,1398,1398,1398,1398,1392,1392,1392,1387,1387,1387,1381,1381,1381,1376,1376,1376,1376,1376,1376,1370,1365,1365,1359,1359,1359,1359,1359,1359,1354,1354,1354,1354,1354,1349,1349,1343,1343,1338,1338,1333,1333,1333,1328,1328,1328,1328,1322,1322,1317,1317,1317,1312,1312,1312,1312,1312,1307,1307,1307,1307,1307,1307,1302,1302,1302,1297,1292,1292,1292,1288,1288,1288,1288,1288,1283,1283,1278,1278,1273,1273,1273,1268,1268,1268,1264,1259,1259,0,0,0,0,0,1119,1115,1115,1112,1112,0,0,0,0,0,0,0,0,0,0,0,0,1080,1080,1080,1077,1073,1073,1073,1070,1070,1067,1067,1063,1063,1063,1063,1063,1067,1067,1087,1087,1087,1084,1084,1080,1080,1077,1077,1077,1077,1077,1073,1070,1070,1073,1073,894,894,891,889,889,889,887,887,887,885,885,882,882,882,882,882,882,880,880,880,880,878,878,878,880,0,0,0,0,0,0,0,0,0,0,0,0,0,0,0,0,0,0,0,0,0,0,0,0,0,0,0,0,0,0,0,0,0,0,0
0,0,0,862,862,807,807,807,805,805,803,802,802,802,802,800,796,794,790,789,787,787,785,783,780,780,776,774,773,771,767,767,766,764,764,762,762,759,755,754,754,754,710,708,703,701,700,698,698,698,697,696,694,693,693,691,688,686,684,683,682,682,682,680,679,678,676,676,675,675,675,675,675,675,676,676,676,676,676,676,675,675,675,675,675,675,675,675,675,675,674,674,674,674,674,674,674,674,674,674,674,672,672,672,672,671,671,671,671,671,671,670,670,670,670,670,670,670,671,672,672,671,671,671,671,670,668,668,668,668,668,667,667,667,667,667,667,667,666,666,667,667,667,670,670,670,670,670,668,668,668,668,668,668,668,668,668,668,668,667,667,667,667,667,668,668,667,667,668,668,670,670,672,672,674,675,676,676,678,680,682,682,683,684,686,686,687,687,688,690,690,713,713,714,720,720,722,723,725,728,728,730,733,733,736,736,739,741,741,744,746,746,747,749,755,759,761,761,764,764,766,767,771,773,776,780,781,781,783,785,789,789,790,790,794,796,800,800,802,802,0,0,0,0,0,1550,1550,1550,1550,1550,1550,1550,1550,1550,1550,1550,1557,1557,1550,1550,1550,1550,1550,1550,1550,1550,1550,1550,1543,1543,1543,1543,1543,1543,1543,1543,1543,1543,1543,1543,1543,1543,1543,0,0,0,0,0,978,978,978,975,975,973,973,970,967,967,964,964,964,964,964,964,967,970,970,978,981,984,987,987,987,987,989,989,0,0,0,1543,1543,1536,1536,1536,1536,1536,1536,1536,1529,1529,1536,1536,1536,1536,1536,1536,1536,1536,1536,1536,1536,1536,1536,1536,1529,1529,1529,1529,1529,1529,1529,1536,1536,1536,1536,1536,1529,1529,1529,1529,1529,1529,1523,1523,1523,1523,1523,1523,1523,1523,1523,1516,1516,1516,1516,1516,1509,1509,1509,1503,1496,1496,1496,1496,1496,1496,1489,1489,1489,1489,1483,1483,1477,1477,1470,1470,1470,1470,1470,1470,1464,1464,1464,1464,1464,1458,1458,1452,1452,1445,1445,1445,1445,1439,1439,1439,1439,1439,1439,1433,1433,1427,1427,1421,1421,1421,1415,1415,1415,1415,1415,1410,1410,1410,1410,1404,1398,1398,1398,1398,1392,1392,1392,1392,1387,1387,1387,1381,1381,1381,1376,1376,1376,1376,1376,1370,1370,1365,1365,1359,1359,1359,1359,1359,1359,1354,1354,1354,1354,1349,1349,1343,1343,1338,1338,1333,1333,1333,1328,1328,1328,1328,1328,1322,1322,1322,1317,1317,1312,1312,1312,1312,1307,1307,1307,1307,1307,1307,1302,1302,1302,1297,1297,1292,1292,1292,1292,1288,1288,1288,1288,1283,1283,1278,1278,1273,1273,1273,1268,1268,1264,1264,1264,1264,0,1119,0,1119,1119,1115,1112,1112,1108,1108,0,0,0,0,0,0,0,0,0,0,0,1080,1080,1077,1077,1073,1073,1073,1070,1070,1067,1067,1063,1063,1063,1063,1067,1067,1067,1087,1087,1087,1084,1084,1080,1080,1077,1077,1077,1077,1077,1073,1070,1070,1070,891,891,889,889,889,889,889,887,887,887,885,885,882,882,882,885,882,882,882,882,882,882,880,880,880,880,0,0,0,0,0,0,0,0,0,0,0,0,0,0,0,0,0,0,0,0,0,0,0,0,0,0,0,0,0,0,0,0,0,0,0
0,0,0,862,862,862,862,862,864,864,867,802,802,802,802,802,796,796,790,789,789,787,785,783,781,780,780,776,774,773,771,769,767,766,764,762,762,759,755,754,754,752,752,710,708,703,700,698,698,698,697,696,694,693,693,690,688,687,684,683,682,682,680,680,679,678,676,676,675,674,674,674,674,674,672,672,672,672,674,672,672,672,674,674,674,674,674,674,672,672,671,671,670,670,671,670,668,668,666,666,666,666,666,670,670,670,670,670,670,670,668,666,666,667,666,666,666,668,668,670,671,670,670,668,668,668,667,666,666,666,666,666,666,664,664,664,664,664,666,666,666,666,664,664,664,666,666,668,667,667,667,667,667,667,667,667,667,666,666,666,666,666,666,666,666,666,666,666,667,667,670,670,671,671,674,674,676,676,678,680,682,682,683,683,684,686,687,687,688,711,713,714,714,719,720,720,722,723,725,728,728,731,733,734,736,736,739,741,742,744,746,746,747,749,755,759,761,762,764,764,767,767,771,774,776,778,780,781,783,787,789,789,790,790,792,792,0,0,0,0,0,0,0,0,1543,1543,1543,1543,1543,1543,1543,1543,1550,1550,1550,1550,1550,1550,1550,1543,1543,1550,1550,1550,1543,1543,1543,1543,1543,1543,1543,1536,1536,1543,1543,1543,1543,1543,1543,1543,1536,1536,1536,0,0,0,978,0,978,978,978,975,975,975,973,973,970,967,967,964,964,967,967,967,967,970,973,978,981,984,987,987,987,987,989,0,0,0,0,1536,1536,1529,1529,1536,1536,1529,1529,1529,1529,1529,1529,1529,1529,1529,1536,1536,1536,1536,1536,1529,1529,1529,1529,1529,1523,1523,1523,1523,1523,1523,1523,1523,1529,1529,1523,1523,1529,1523,1523,1523,1523,1523,1523,1523,1523,1516,1516,1516,1516,1516,1516,1516,1516,1516,1516,1509,1509,1509,1509,1503,1496,1496,1496,1496,1496,1496,1496,1489,1489,1489,1483,1483,1477,1477,1470,1470,1470,1470,1470,1470,1470,1464,1464,1464,1464,1458,1458,1458,1452,1452,1445,1445,1445,1445,1445,1439,1439,1439,1439,1433,1433,1433,1427,1427,1421,1421,1421,1415,1415,1415,1415,1415,1410,1410,1410,1404,1404,1398,1398,1398,1398,1392,1392,1392,1387,1387,1387,1387,1381,1381,1381,1381,1376,1376,1376,1370,1370,1370,1365,1365,1365,1365,1365,1365,1359,1354,1354,1354,1354,1349,1349,1343,1343,1338,1338,1333,1333,1333,1328,1328,1328,1328,1328,1322,1322,1322,1317,1317,1312,1312,1312,1312,1307,1307,1307,1307,1307,1302,1302,1302,1302,1302,1292,1292,1292,1292,1292,1288,1288,1288,1288,1283,1283,1278,1278,1273,1273,1273,1268,1268,1268,1268,1268,1268,1123,1119,1119,1119,1119,1115,1112,1112,1108,1108,0,0,0,0,0,0,0,0,0,1080,1080,1080,1080,1077,1077,1073,1070,1070,1070,1067,1067,1067,1067,1067,1063,1063,1067,1067,1090,1090,1087,1084,1084,1080,1080,1077,1077,1073,1073,1077,1077,896,896,896,896,891,891,889,889,889,889,889,889,889,889,887,885,885,885,885,885,885,885,885,885,885,882,882,882,882,882,0,0,0,0,0,0,0,0,0,0,0,0,0,0,0,0,0,0,0,0,0,0,0,0,0,0,0,0,0,0,0,0,0,0,0
0,0,0,862,862,862,864,864,864,867,867,802,802,802,802,802,796,796,794,790,789,789,787,785,783,781,781,776,774,773,771,769,767,766,766,764,762,759,755,754,752,752,752,750,710,710,701,700,698,698,697,696,694,694,693,690,688,687,684,683,682,682,680,680,678,678,676,676,675,674,674,674,672,672,671,671,671,671,670,668,668,671,671,671,670,670,672,672,671,671,670,670,668,668,668,667,666,666,664,664,664,664,666,667,667,667,667,667,668,667,666,664,664,666,664,664,664,666,666,667,668,668,668,667,667,666,664,663,663,662,662,662,662,663,663,663,663,664,664,664,664,664,663,663,663,663,662,662,662,662,664,664,664,664,664,664,666,664,664,664,663,663,664,664,664,664,664,666,666,666,667,668,670,671,674,674,676,676,676,680,682,682,683,683,684,686,686,686,710,710,711,716,717,719,720,722,722,725,727,728,728,731,733,734,736,738,739,741,742,746,747,747,749,750,755,759,762,762,764,766,767,769,771,774,776,778,780,781,783,787,787,789,789,789,790,792,0,0,0,0,0,0,0,1536,1536,1536,1543,1543,1543,1543,1543,1543,1543,1543,1543,1543,1543,1543,1543,1543,1543,1543,1543,1543,1543,1536,1536,1543,1536,1536,1536,1536,1536,1536,1536,1536,1536,1536,1536,1536,1536,1536,1536,0,0,0,0,978,978,978,978,978,975,975,975,973,970,967,967,967,967,967,967,967,967,970,973,978,981,984,987,987,987,987,989,0,0,0,1536,1536,1529,1529,1529,1529,1529,1529,1529,1529,1529,1529,1529,1529,1529,1529,1529,1529,1529,1529,1529,1529,1523,1523,1523,1523,1523,1523,1523,1516,1516,1516,1516,1516,1516,1516,1516,1516,1523,1523,1523,1523,1523,1523,1523,1516,1516,1516,1516,1516,1516,1516,1516,1516,1516,1516,1509,1509,1509,1509,1509,1503,1503,1503,1496,1496,1496,1496,1496,1489,1489,1489,1489,1483,1477,1477,1470,1470,1470,1470,1470,1470,1470,1470,1464,1464,1464,1464,1458,1458,1452,1452,1445,1445,1445,1445,1445,1445,1439,1439,1439,1439,1433,1433,1427,1427,1421,1421,1421,1415,1415,1415,1415,1415,1410,1410,1410,1410,1404,1398,1398,1398,1398,1392,1392,1392,1392,1387,1387,1387,1381,1381,1381,1381,1376,1376,1376,1376,1370,1370,1370,1365,1365,1365,1365,1365,1359,1354,1354,1354,1354,1354,1349,1343,1343,1338,1338,1333,1333,1333,1328,1328,1328,1328,1328,1322,1322,1317,1317,1317,1312,1312,1312,1312,1307,1307,1307,1307,1307,1302,1302,1302,1302,1297,1292,1292,1292,1292,1292,1288,1288,1288,1288,1288,1283,1283,1278,1273,1273,1273,1273,1268,1268,1268,1268,1134,1123,1123,1119,1115,1115,1112,1112,1108,1108,1105,1105,0,1094,1094,0,0,0,0,1084,1080,1077,1077,1077,1077,1073,1073,1070,1070,1067,1067,1067,1067,1067,1067,1067,1067,1070,1097,1090,1090,1087,1084,1084,1080,1080,1077,1077,1073,1073,1077,896,896,896,896,896,891,891,891,891,891,889,889,889,889,889,887,887,887,887,887,887,887,887,887,887,887,885,885,885,885,885,0,0,0,0,0,0,0,0,0,0,0,0,0,0,0,0,0,0,0,0,0,0,0,0,0,0,0,0,0,0,0,0,0,0,0
0,0,0,862,862,862,864,864,864,867,867,869,869,869,869,796,796,796,794,792,790,789,789,787,785,783,781,781,776,774,773,771,769,767,767,766,764,759,755,754,752,752,752,750,749,749,704,701,700,698,697,696,694,694,693,691,690,687,686,683,682,682,682,680,678,676,676,675,674,674,672,672,671,671,671,670,670,667,667,667,666,666,666,666,666,666,670,670,671,668,667,667,667,666,666,666,664,664,663,663,663,663,663,664,664,664,664,666,666,666,664,664,663,663,663,663,664,664,661,661,667,666,666,664,664,664,663,662,662,661,661,661,661,661,662,662,662,662,662,662,662,662,662,662,662,661,661,661,661,661,659,659,662,662,663,663,664,663,663,662,662,662,662,663,663,663,664,664,664,664,666,667,668,670,672,674,676,676,676,679,680,682,683,683,684,686,684,684,710,710,711,714,717,719,720,722,723,725,727,728,730,731,733,734,738,738,741,741,744,746,747,749,750,754,757,759,762,764,766,766,767,769,771,774,776,778,780,781,781,783,787,789,789,789,790,0,0,0,0,0,0,1529,1529,1529,1529,1536,1536,1543,1543,1543,1543,1543,1543,1543,1543,1543,1543,1543,1543,1536,1536,1536,1536,1536,1536,1536,1536,1536,1536,1536,1536,1529,1529,1529,1529,1529,1529,1529,1529,1529,1529,1529,1529,0,0,0,0,978,978,978,978,978,978,975,975,973,973,970,967,967,967,967,967,967,967,970,973,978,981,984,987,987,987,989,989,0,0,0,0,1523,1523,1523,1523,1523,1523,1523,1523,1523,1523,1523,1523,1523,1523,1523,1523,1523,1523,1523,1523,1523,1523,1523,1523,1516,1516,1516,1516,1516,1516,1509,1509,1509,1509,1509,1509,1509,1516,1516,1516,1516,1516,1516,1516,1516,1516,1516,1516,1516,1516,1516,1516,1516,1516,1516,1509,1509,1509,1509,1503,1503,1503,1503,1496,1496,1496,1496,1496,1496,1489,1489,1489,1483,1483,1477,1477,1477,1470,1470,1470,1470,1470,1470,1464,1464,1464,1464,1458,1458,1452,1452,1452,1452,1445,1445,1445,1445,1439,1439,1439,1439,1439,1433,1433,1427,1427,1421,1421,1415,1415,1415,1415,1415,1415,1410,1410,1410,1404,1398,1398,1398,1398,1398,1392,1392,1392,1392,1387,1387,1381,1381,1381,1381,1376,1376,1376,1376,1370,1370,1370,1370,1370,1365,1365,1365,1359,1359,1354,1354,1354,1354,1349,1343,1343,1338,1338,1333,1333,1333,1333,1333,1328,1328,1328,1322,1322,1317,1317,1317,1312,1312,1312,1312,1307,1307,1307,1307,1307,1302,1302,1302,1302,1297,1292,1292,1292,1292,1292,1292,1288,1288,1288,1288,1283,1283,1278,1278,1278,1273,1273,1273,1268,1268,1134,1134,1130,1123,1119,1115,1112,1108,1105,1105,1105,1101,1097,1094,1094,1094,0,0,0,1080,1080,1077,1077,1077,1077,1077,1073,1070,1070,1070,1067,1067,1067,1067,1067,1067,1067,1097,1097,1097,1094,1087,1084,1084,1080,1080,1080,1077,1077,1073,1073,896,896,896,896,896,896,896,891,891,891,891,889,889,889,889,889,889,887,887,887,889,889,889,889,889,889,889,887,887,887,887,0,0,0,0,0,0,0,0,0,0,0,0,0,0,0,0,0,0,0,0,0,0,0,0,0,0,0,0,0,0,0,0,0,0,0,0
0,0,0,862,860,860,862,864,864,867,869,869,869,869,869,0,796,796,792,790,790,790,789,789,787,787,783,781,778,776,774,773,771,769,767,767,764,759,755,754,752,752,752,750,749,747,746,703,701,700,698,697,696,694,694,691,690,688,687,684,683,682,682,679,678,676,676,675,674,674,672,672,671,671,671,670,670,666,664,664,664,664,663,663,663,663,657,655,655,667,666,666,666,664,663,662,662,663,662,662,662,662,662,662,662,662,662,663,663,662,662,662,661,661,661,661,663,662,661,661,662,663,663,659,659,661,661,659,659,659,659,661,661,661,661,661,661,661,661,661,661,659,659,659,661,655,655,657,657,655,655,654,654,659,661,661,661,661,662,661,661,661,661,661,662,663,663,664,664,664,666,667,668,670,672,674,676,676,678,679,680,682,682,683,683,686,684,684,710,710,711,713,714,717,720,722,723,727,727,728,730,731,733,734,738,739,741,742,744,746,747,749,752,754,757,759,762,764,766,767,769,769,773,773,774,778,778,780,781,783,787,787,789,0,0,0,0,0,0,0,0,1523,1523,1529,1529,1529,1529,1536,1536,1536,1536,1536,1536,1536,1536,1536,1536,1536,1536,1536,1536,1536,1536,1536,1536,1529,1529,1536,1536,1536,1529,1529,1529,1529,1529,1523,1523,1523,1523,1523,1523,1516,1516,0,0,0,0,0,978,978,978,978,978,975,975,975,973,970,967,967,967,967,967,967,970,970,973,978,981,984,987,987,989,989,992,992,0,0,0,1523,1523,1523,1516,1516,1523,1523,1516,1516,1516,1516,1516,1516,1516,1516,1516,1523,1523,1523,1523,1516,1516,1516,1516,1516,1516,1516,1509,1509,1509,1503,1503,1503,1503,1503,1509,1509,1509,1509,1509,1509,1509,1509,1509,1509,1509,1509,1509,1509,1509,1509,1509,1509,1509,1509,1509,1509,1509,1509,1503,1503,1503,1496,1496,1496,1496,1496,1496,1496,1489,1489,1489,1489,1483,1483,1477,1477,1470,1470,1470,1470,1470,1470,1470,1464,1464,1464,1458,1458,1452,1452,1452,1452,1452,1445,1445,1445,1445,1439,1439,1439,1439,1439,1433,1433,1427,1427,1421,1421,1415,1415,1415,1415,1415,1410,1410,1410,1410,1404,1398,1398,1398,1398,1398,1392,1392,1392,1387,1387,1387,1381,1381,1381,1376,1376,1376,1376,1370,1370,1370,1370,1370,1365,1365,1365,1359,1359,1354,1354,1354,1354,1349,1343,1343,1338,1338,1338,1333,1333,1333,1333,1333,1333,1328,1328,1328,1322,1317,1317,1312,1312,1312,1312,1307,1307,1307,1307,1307,1302,1302,1302,1302,1302,1292,1292,1292,1292,1292,1292,1288,1288,1288,1288,1283,1283,1278,1278,1278,1273,1273,1273,1138,1138,1134,1130,1130,1123,1119,1115,1112,1108,1105,1105,1101,1097,1094,1094,1094,1090,1090,0,1080,1080,1080,1077,1077,1077,1077,1077,1073,1070,1070,1070,1067,1067,1067,1067,1067,1067,1105,1101,1101,1097,1094,1087,1084,1084,1080,1080,1077,1077,1077,898,898,898,898,898,896,896,896,896,894,894,894,891,889,889,889,889,889,889,889,889,889,889,891,889,889,889,889,889,889,889,889,889,0,0,0,0,0,0,0,0,0,0,0,0,0,0,0,0,0,0,0,0,0,0,0,0,0,0,0,0,0,0,0,0,0,0,0,0
0,0,0,860,860,860,862,864,864,867,869,869,869,869,869,0,792,0,792,790,789,789,789,789,789,787,785,783,780,778,776,774,773,771,769,767,766,761,757,755,754,754,752,750,749,747,746,746,744,742,741,697,696,694,694,693,691,690,688,686,683,682,682,679,678,678,676,675,675,674,672,672,671,671,670,668,668,664,664,664,663,663,662,662,661,661,657,655,655,655,655,657,658,663,661,661,661,661,659,659,659,661,661,661,661,661,662,662,661,659,658,658,657,657,657,657,661,661,659,659,659,658,655,655,658,658,658,658,659,659,659,659,659,659,659,659,659,659,659,655,655,655,655,658,655,654,654,655,655,655,654,653,653,653,658,659,657,657,658,658,658,658,659,659,661,662,663,664,664,664,666,667,668,670,671,674,675,676,676,678,680,682,682,683,683,707,707,708,710,710,711,713,714,717,720,722,723,727,727,730,730,731,733,734,738,739,741,742,746,747,747,750,752,755,757,759,762,764,766,769,769,771,771,773,774,776,778,780,781,783,787,787,789,0,0,0,0,0,0,1516,1516,1523,1523,1523,1523,1523,1529,1529,1529,1529,1529,1529,1529,1536,1536,1536,1536,1536,1536,1536,1536,1529,1529,1529,1529,1529,1529,1529,1529,1529,1529,1523,1523,1523,1523,1523,1523,1523,1523,1523,1516,1516,1516,0,0,0,0,0,0,978,978,978,978,975,975,975,973,970,970,967,967,967,967,967,970,970,973,978,981,984,987,989,989,992,992,992,0,0,0,0,1523,1516,1516,1516,1516,1516,1509,1509,1509,1509,1509,1509,1509,1509,1516,1516,1516,1516,1516,1516,1516,1516,1509,1509,1509,1503,1503,1503,1503,1503,1503,1496,1496,1496,1503,1503,1503,1503,1503,1503,1503,1503,1503,1496,1496,1496,1503,1503,1503,1503,1503,1503,1503,1503,1503,1503,1503,1503,1503,1503,1496,1496,1496,1496,1496,1496,1496,1489,1489,1489,1489,1489,1483,1483,1477,1477,1470,1470,1470,1470,1470,1470,1470,1464,1464,1464,1464,1458,1458,1458,1452,1452,1452,1445,1445,1445,1445,1445,1439,1439,1439,1439,1433,1433,1427,1427,1421,1421,1415,1415,1415,1415,1415,1415,1410,1410,1410,1404,1404,1398,1398,1398,1398,1392,1392,1392,1392,1387,1387,1387,1381,1381,1381,1376,1376,1376,1376,1370,1370,1370,1370,1370,1365,1365,1359,1359,1359,1354,1354,1354,1349,1349,1343,1338,1338,1338,1338,1333,1333,1333,1333,1333,1328,1328,1328,1322,1322,1317,1317,1312,1312,1312,1312,1307,1307,1307,1307,1302,1302,1302,1302,1302,1292,1292,1292,1292,1292,1292,1288,1288,1288,1288,1283,1283,1278,1278,1278,1273,1273,1138,1138,1134,1134,1130,1130,1119,1115,1115,1112,1108,1105,1105,1101,1097,1094,1090,1090,1087,1087,1080,1080,1080,1077,1077,1077,1077,1077,1077,1073,1070,1070,1067,1067,1067,1067,1070,1070,1108,1105,1101,1101,1097,1094,1087,1084,1084,1080,1080,1077,1077,901,898,898,898,898,898,896,896,896,896,896,896,896,896,894,894,891,891,891,891,891,891,891,891,891,891,891,891,891,891,891,889,889,889,962,962,0,0,0,0,0,0,0,0,0,0,0,0,0,0,0,0,0,0,0,0,0,0,0,0,0,0,0,0,0,0,0,0,0,0
0,0,0,860,860,860,862,864,867,867,869,869,869,873,873,871,0,871,0,0,789,787,787,789,789,787,785,781,780,780,778,774,773,771,771,767,762,761,759,755,755,754,754,752,750,749,747,746,744,742,741,739,736,694,694,693,691,690,688,687,684,682,682,679,678,678,676,675,675,674,672,671,671,671,670,668,668,664,664,663,662,662,661,661,659,657,655,654,654,654,655,655,655,655,655,655,657,659,659,659,659,659,659,659,658,658,658,655,655,655,655,655,655,655,655,655,657,657,655,654,654,655,654,654,654,654,655,655,655,657,657,658,657,657,658,658,657,657,657,654,653,653,652,652,654,652,652,653,653,653,653,652,652,652,653,653,653,654,655,655,655,655,655,657,658,661,662,663,664,666,666,667,668,670,671,674,675,676,676,678,680,682,682,704,706,706,707,707,708,710,711,713,716,719,720,720,723,727,728,731,731,733,734,736,739,739,741,742,746,747,747,750,754,754,757,759,762,764,766,767,769,769,771,773,774,776,778,780,781,783,783,0,0,0,0,0,0,1536,1516,1516,1516,1516,1516,1516,1523,1523,1523,1523,1523,1523,1523,1523,1523,1529,1529,1529,1529,1529,1529,1529,1523,1523,1523,1523,1523,1523,1523,1523,1523,1523,1523,1523,1516,1516,1516,1516,1516,1516,1516,1516,1516,1509,1509,1509,0,0,0,0,0,978,978,981,978,978,975,975,973,973,970,967,967,967,967,967,970,973,973,978,981,984,987,989,989,992,995,995,995,0,0,0,1516,1509,1509,1509,1509,1509,1509,1509,1509,1503,1503,1503,1503,1503,1503,1503,1503,1503,1503,1503,1503,1503,1503,1503,1503,1496,1496,1503,1503,1496,1496,1496,1496,1496,1496,1496,1496,1496,1496,1496,1496,1496,1496,1496,1489,1489,1496,1496,1496,1496,1496,1496,1496,1496,1496,1496,1496,1496,1496,1496,1496,1496,1496,1496,1496,1496,1489,1489,1489,1489,1489,1489,1483,1483,1477,1477,1470,1470,1470,1470,1470,1470,1470,1470,1464,1464,1464,1458,1458,1458,1452,1452,1452,1445,1445,1445,1445,1445,1439,1439,1439,1439,1439,1433,1433,1427,1421,1421,1421,1415,1415,1415,1415,1415,1415,1410,1410,1404,1404,1404,1398,1398,1398,1392,1392,1392,1392,1392,1387,1387,1387,1387,1381,1381,1376,1376,1376,1370,1370,1370,1370,1370,1365,1365,1359,1359,1359,1359,1354,1354,1349,1349,1343,1343,1343,1338,1338,1338,1333,1333,1333,1333,1333,1328,1328,1322,1322,1317,1317,1317,1317,1312,1312,1312,1307,1307,1307,1302,1302,1302,1302,1302,1292,1292,1292,1292,1292,1292,1288,1288,1288,1288,1283,1283,1278,1278,1278,1273,1141,1138,1138,1134,1134,1130,1123,1119,1115,1112,1108,1105,1101,1101,1097,1094,1090,1090,1090,1084,1080,1080,1077,1077,1077,1077,1077,1077,1077,1073,1073,1070,1070,1067,1067,1067,1067,1070,1112,1108,1105,1101,1101,1097,1090,1084,1084,1080,1080,1080,1080,901,901,901,901,901,901,898,898,898,898,896,896,896,896,896,896,896,894,894,896,896,896,894,894,896,896,896,894,894,894,894,894,891,891,891,959,959,0,0,0,0,0,0,0,0,0,0,0,0,0,0,0,0,0,0,0,0,0,0,0,0,0,0,0,0,0,0,0,0,0,0
0,0,0,860,860,860,862,867,867,869,869,871,871,871,871,871,0,0,0,0,787,787,787,789,789,787,785,781,780,780,778,776,773,773,771,769,762,761,759,757,755,755,754,752,750,749,747,746,744,742,739,739,736,734,731,731,691,690,688,687,684,682,682,679,678,678,676,675,674,674,672,671,671,671,670,668,666,664,663,662,662,661,661,659,658,655,654,654,654,654,654,654,653,653,653,653,654,654,654,654,655,657,657,655,653,653,653,653,653,653,654,654,653,653,653,653,653,653,653,652,652,652,652,652,652,652,653,653,654,654,654,654,654,652,652,653,652,650,650,650,650,650,650,650,650,650,650,650,650,652,650,650,650,650,650,650,650,650,652,654,654,655,655,655,658,659,661,663,664,666,666,667,668,668,671,674,675,676,676,678,703,703,703,703,706,706,707,707,708,710,711,713,716,719,720,720,722,725,728,731,731,733,734,736,739,739,741,742,746,747,749,750,754,754,757,759,762,764,766,767,767,769,769,773,774,778,778,781,781,0,0,0,0,0,0,0,1509,1509,1509,1509,1509,1509,1509,1509,1516,1516,1516,1516,1516,1516,1523,1523,1523,1523,1523,1523,1523,1523,1523,1523,1516,1516,1516,1516,1516,1516,1516,1516,1516,1516,1516,1516,1516,1516,1516,1516,1516,1509,1509,1509,1509,1503,1503,1509,0,0,0,0,0,981,981,981,981,978,978,978,975,973,970,970,970,970,970,970,970,973,975,981,981,984,987,989,992,995,998,998,0,0,0,0,1516,1509,1503,1503,1503,1503,1503,1503,1503,1503,1503,1503,1496,1496,1503,1496,1496,1496,1503,1496,1496,1496,1496,1496,1496,1496,1496,1496,1496,1496,1496,1496,1496,1489,1489,1489,1489,1489,1489,1489,1489,1489,1489,1489,1489,1489,1489,1489,1489,1489,1489,1489,1489,1496,1496,1489,1489,1489,1489,1489,1489,1489,1489,1489,1489,1489,1489,1489,1483,1483,1489,1483,1483,1483,1477,1477,1470,1470,1470,1470,1470,1470,1470,1470,1464,1464,1464,1458,1458,1458,1452,1452,1452,1452,1445,1445,1445,1445,1439,1439,1439,1439,1439,1433,1433,1427,1421,1421,1421,1421,1415,1415,1415,1415,1415,1410,1410,1410,1404,1404,1398,1398,1398,1392,1392,1392,1392,1392,1392,1387,1387,1387,1387,1381,1381,1376,1376,1376,1370,1370,1370,1370,1370,1365,1359,1359,1359,1359,1354,1354,1349,1349,1343,1343,1343,1343,1343,1338,1338,1338,1333,1333,1333,1328,1328,1322,1322,1322,1317,1317,1317,1312,1312,1312,1307,1307,1307,1307,1307,1302,1302,1302,1297,1292,1292,1288,1288,1288,1288,1288,1288,1283,1283,1283,1278,1273,1273,1145,1141,1138,1138,1134,1134,1130,1123,1119,1115,1108,1108,1105,1101,1097,1097,1094,1090,1090,1084,1080,1080,1077,1077,1077,1077,1073,1073,1077,1073,1073,1073,1070,1070,1067,1067,1067,1067,1108,1108,1105,1105,1097,1097,1094,1090,1084,1084,1080,1080,1080,901,901,901,901,901,901,901,901,898,898,898,898,896,896,896,896,896,896,896,896,898,898,898,901,898,898,898,898,898,898,898,896,896,891,891,962,959,959,0,0,0,0,0,0,0,0,0,0,0,0,0,0,0,0,0,0,0,0,0,0,0,0,0,0,0,0,0,0,0,0,0,0
0,0,0,862,862,864,864,867,867,869,869,871,871,871,871,871,0,0,0,0,787,787,789,789,787,787,785,781,780,780,778,776,774,773,773,771,766,761,761,759,757,755,754,752,750,749,747,746,744,742,739,739,736,734,731,731,731,730,728,728,725,682,682,678,678,678,676,676,674,674,672,671,671,671,670,668,666,664,663,662,661,661,659,658,657,655,654,654,654,653,653,653,652,652,650,650,652,652,652,652,653,652,652,650,650,652,652,652,652,652,653,653,652,652,650,650,650,650,650,650,650,650,650,650,650,650,650,652,652,650,650,650,652,650,650,649,649,649,649,649,648,648,648,648,648,648,648,648,648,648,648,648,648,649,649,649,649,650,650,652,654,654,655,655,658,659,661,663,664,666,666,666,667,668,671,674,675,676,676,698,698,700,701,703,704,706,707,707,708,710,711,714,716,719,720,720,722,725,728,731,731,733,734,736,739,741,742,744,747,749,750,752,754,755,757,759,762,764,766,767,767,769,769,773,774,0,0,0,0,0,0,0,0,0,1496,1496,1503,1509,1509,1509,1509,1509,1509,1509,1509,1509,1516,1516,1509,1509,1516,1516,1516,1516,1516,1516,1516,1516,1516,1516,1509,1509,1509,1509,1509,1509,1509,1509,1509,1509,1509,1509,1509,1509,1509,1509,1509,1509,1509,1503,1503,1503,1496,1496,0,0,0,0,0,984,984,984,984,981,981,978,975,975,975,973,973,970,970,973,973,975,975,981,981,984,987,989,992,995,998,998,0,0,0,1509,1509,1503,1496,1496,1496,1496,1496,1496,1496,1496,1496,1496,1496,1496,1496,1496,1489,1489,1496,1496,1496,1496,1496,1496,1496,1496,1496,1496,1496,1496,1496,1489,1489,1489,1489,1489,1489,1489,1483,1483,1483,1483,1483,1483,1483,1483,1483,1483,1483,1483,1483,1483,1483,1483,1483,1483,1483,1489,1489,1489,1489,1489,1489,1489,1489,1489,1483,1483,1483,1483,1483,1483,1483,1477,1477,1470,1470,1470,1470,1470,1470,1470,1470,1470,1470,1464,1464,1458,1458,1458,1452,1452,1452,1452,1445,1445,1445,1445,1445,1439,1439,1439,1439,1439,1433,1433,1427,1427,1421,1421,1421,1415,1415,1415,1415,1410,1410,1410,1404,1404,1404,1398,1398,1398,1392,1392,1392,1392,1392,1392,1392,1387,1387,1387,1381,1376,1376,1376,1376,1370,1370,1370,1370,1365,1359,1359,1359,1359,1354,1354,1349,1349,1349,1349,1343,1343,1343,1343,1338,1338,1338,1333,1333,1333,1328,1328,1322,1322,1317,1317,1317,1317,1312,1312,1307,1307,1307,1307,1307,1302,1302,1302,1297,1292,1292,1288,1288,1288,1288,1288,1288,1283,1283,1283,1278,1273,1268,1145,1141,1138,1138,1134,1130,1130,1123,1115,1112,1108,1105,1101,1097,1097,1094,1094,1090,1087,1080,1080,1080,1077,1077,1077,1077,1073,1073,1073,1073,1073,1070,1070,1070,1067,1067,1067,1115,1115,1108,1105,1101,1097,1094,1094,1090,1084,1080,1080,1080,1080,901,901,901,901,901,901,901,901,901,901,898,898,898,898,898,898,898,898,898,898,898,901,901,901,901,903,903,903,901,901,901,898,898,898,964,962,959,959,0,0,0,0,0,0,0,0,0,0,0,0,0,0,0,0,0,0,0,0,0,0,0,0,0,0,0,0,0,0,0,0,0,0
0,0,0,862,862,864,864,867,867,869,869,871,871,871,871,0,0,0,0,0,0,789,789,789,787,787,785,781,781,780,778,776,774,773,773,771,767,764,761,761,759,757,754,754,752,749,749,746,746,742,741,739,736,734,731,731,731,731,728,728,725,682,682,678,678,678,676,676,675,674,672,671,671,671,670,667,666,664,663,662,661,661,659,658,657,655,654,654,654,653,653,652,650,650,649,649,648,648,648,649,649,649,649,649,649,649,649,649,650,650,652,652,650,650,649,648,648,648,648,649,649,649,649,648,647,647,648,649,650,649,649,649,649,649,648,648,648,647,647,647,646,646,644,644,646,646,646,646,646,647,647,648,648,648,648,649,649,650,650,652,653,654,655,655,658,659,661,663,664,666,666,666,667,667,671,675,676,688,697,697,698,698,701,703,704,704,707,707,708,708,710,714,716,719,720,722,722,725,728,731,731,733,734,736,739,741,742,746,747,749,750,752,755,757,759,761,762,762,764,767,767,769,769,773,0,0,0,0,0,0,0,0,1503,1496,1496,1496,1503,1503,1503,1503,1509,1509,1509,1509,1509,1509,1516,1516,1509,1509,1509,1509,1509,1509,1509,1516,1516,1509,1509,1509,1509,1509,1509,1509,1503,1503,1503,1503,1503,1503,1503,1509,1509,1509,1509,1509,1509,1503,1503,1503,1496,1496,1489,1489,0,0,0,0,0,0,987,984,984,981,981,978,978,975,975,975,973,973,973,973,975,975,975,981,984,984,989,989,992,995,998,998,0,0,0,0,1496,1496,1496,1496,1496,1489,1489,1496,1496,1496,1489,1489,1489,1489,1489,1489,1489,1489,1489,1489,1489,1489,1489,1489,1489,1489,1489,1489,1489,1489,1489,1489,1489,1483,1483,1483,1483,1483,1477,1477,1483,1483,1483,1483,1477,1477,1477,1483,1483,1477,1477,1477,1477,1477,1477,1477,1477,1477,1477,1483,1483,1483,1483,1483,1483,1483,1477,1477,1477,1477,1477,1477,1477,1477,1470,1470,1470,1470,1470,1470,1464,1464,1464,1470,1464,1464,1464,1464,1458,1458,1452,1452,1452,1452,1445,1445,1445,1445,1445,1439,1439,1439,1439,1439,1433,1433,1427,1427,1421,1421,1421,1421,1415,1415,1415,1415,1410,1410,1410,1404,1404,1398,1398,1398,1398,1392,1392,1392,1392,1392,1392,1387,1387,1387,1376,1376,1376,1376,1376,1370,1370,1370,1365,1365,1359,1359,1359,1359,1354,1354,1354,1349,1349,1349,1349,1349,1343,1343,1338,1338,1338,1333,1333,1333,1328,1328,1328,1322,1322,1317,1317,1317,1312,1312,1307,1307,1307,1307,1307,1302,1302,1302,1297,1292,1292,1288,1288,1288,1288,1288,1288,1288,1288,1288,1283,1149,1149,1145,1141,1138,1138,1134,1130,1123,1119,1112,1112,1108,1105,1101,1097,1094,1094,1094,1090,1084,1080,1080,1080,1077,1077,1077,1073,1073,1073,1073,1073,1073,1070,1070,1067,1067,1067,1119,1115,1112,1108,1105,1101,1094,1094,1090,1090,1084,1080,1080,1080,903,903,903,903,903,903,903,903,903,903,901,901,901,901,901,901,901,901,901,901,901,901,901,903,903,903,903,903,903,903,903,903,901,901,964,964,962,959,959,0,0,0,0,0,0,0,0,0,0,0,0,0,0,0,0,0,0,0,0,0,0,0,0,0,0,0,0,0,0,0,0,0,0
0,0,862,862,862,864,867,867,867,869,869,871,871,871,871,0,0,0,0,0,0,789,789,787,787,785,783,781,781,780,780,778,774,774,773,773,771,766,764,761,761,759,755,754,752,750,749,746,746,742,741,739,736,734,731,731,731,731,728,728,725,723,682,678,676,676,675,675,674,672,671,671,670,670,668,667,666,664,663,662,661,661,659,658,655,655,654,654,653,652,652,650,648,648,648,647,647,646,646,646,646,646,648,646,646,648,648,648,648,649,648,648,648,648,648,646,646,646,646,646,648,648,648,647,646,646,646,647,647,646,646,647,648,648,646,646,647,646,646,646,644,644,644,644,644,644,644,644,644,644,646,646,647,647,648,648,649,649,650,652,653,654,655,655,658,659,661,663,664,666,666,667,667,667,672,687,687,688,696,697,698,698,701,703,704,704,707,707,708,708,710,716,716,719,720,722,722,725,730,731,733,733,734,736,739,741,744,747,747,749,750,752,755,757,759,761,761,762,764,767,767,767,769,0,0,0,0,0,0,0,1489,1489,1496,1496,1496,1496,1503,1503,1503,1503,1503,1503,1503,1503,1509,1509,1509,1509,1509,1509,1509,1509,1509,1509,1503,1503,1503,1503,1503,1496,1496,1496,1496,1496,1496,1496,1496,1496,1496,1496,1496,1496,1503,1503,1503,1503,1503,1496,1496,1496,1489,1489,1489,1483,1483,0,0,0,0,0,987,987,987,984,984,981,978,978,975,975,975,975,975,975,975,975,978,981,984,987,989,992,992,995,998,998,1001,0,0,0,1496,1496,1496,1496,1496,1489,1489,1489,1489,1489,1489,1489,1489,1489,1489,1489,1489,1489,1489,1489,1489,1483,1483,1483,1483,1483,1483,1483,1483,1483,1483,1483,1483,1477,1477,1477,1477,1477,1470,1470,1477,1477,1477,1477,1477,1477,1477,1477,1477,1470,1470,1470,1470,1470,1470,1470,1470,1470,1470,1470,1470,1470,1470,1477,1477,1477,1470,1470,1470,1470,1470,1470,1470,1470,1470,1470,1470,1464,1464,1464,1464,1464,1464,1464,1464,1464,1458,1458,1452,1452,1452,1445,1445,1445,1445,1445,1445,1445,1445,1439,1439,1439,1439,1439,1433,1433,1433,1427,1427,1421,1421,1421,1421,1421,1415,1415,1415,1410,1410,1410,1404,1404,1398,1398,1398,1392,1392,1392,1392,1392,1392,1392,1387,1387,1376,1376,1376,1376,1370,1370,1370,1370,1365,1365,1359,1359,1359,1359,1354,1354,1354,1354,1349,1349,1349,1349,1343,1338,1338,1333,1333,1333,1333,1333,1333,1328,1328,1328,1322,1322,1322,1317,1312,1312,1312,1307,1307,1307,1307,1307,1302,1302,1297,1292,1292,1292,1292,1292,1292,1288,1288,1288,1288,1288,1149,1149,1145,1145,1141,1138,1134,1134,1126,1119,1115,1112,1108,1105,1101,1097,1094,1094,1094,1090,1090,1084,1080,1080,1077,1077,1077,1077,1073,1070,1070,1070,1073,1073,1070,1070,1067,1067,1115,1115,1112,1108,1105,1101,1097,1094,1094,1090,1090,1084,1084,1084,906,903,903,903,903,903,903,903,903,903,903,903,903,903,903,903,901,901,901,903,903,903,903,903,906,906,906,906,906,906,906,903,903,970,967,964,964,962,959,959,0,0,0,0,0,0,0,0,0,0,0,0,0,0,0,0,0,0,0,0,0,0,0,0,0,0,0,0,0,0,0,0,0,0
0,0,860,860,862,864,867,867,867,869,871,871,871,871,873,0,0,0,0,0,0,0,0,787,787,783,783,781,780,780,780,778,776,774,773,773,771,769,766,764,762,761,759,757,754,752,750,749,746,744,742,739,736,734,733,731,731,731,728,727,725,722,722,722,676,676,675,675,674,672,671,671,670,670,668,667,666,664,663,662,661,661,659,658,655,655,654,653,652,650,649,648,647,647,646,646,646,643,643,644,644,644,643,643,644,644,643,643,648,648,647,646,646,644,644,643,643,644,643,643,643,644,646,644,643,643,643,644,644,644,644,646,648,648,644,644,644,644,642,642,642,642,642,642,643,643,643,643,643,644,644,644,644,647,647,648,648,649,650,652,653,654,655,655,657,659,662,664,666,667,668,668,667,667,687,687,688,690,696,696,697,698,700,701,703,704,706,707,708,710,710,716,716,719,720,720,722,723,730,731,733,734,736,738,739,741,744,747,747,749,750,752,754,757,759,759,761,761,764,767,767,767,0,0,0,0,0,0,0,1489,1489,1489,1496,1496,1489,1489,1496,1496,1496,1496,1496,1503,1503,1503,1503,1503,1509,1509,1503,1503,1503,1503,1503,1503,1503,1503,1503,1496,1489,1489,1489,1489,1496,1496,1496,1489,1489,1496,1496,1496,1496,1496,1496,1496,1496,1496,1496,1489,1489,1489,1483,1483,1483,1483,1477,1477,1477,0,0,0,989,987,987,987,984,984,981,978,978,975,975,975,975,975,975,975,978,981,984,987,989,992,995,998,1001,1001,1001,0,0,0,0,1489,1489,1483,1483,1489,1489,1483,1483,1483,1483,1483,1483,1489,1489,1489,1489,1489,1489,1483,1483,1477,1477,1477,1477,1477,1477,1477,1477,1477,1477,1477,1477,1477,1477,1477,1477,1470,1470,1470,1470,1470,1477,1477,1477,1470,1470,1470,1470,1470,1470,1470,1470,1470,1470,1470,1470,1470,1470,1470,1470,1470,1464,1464,1470,1470,1470,1470,1470,1470,1470,1470,1470,1470,1464,1464,1464,1464,1464,1464,1464,1464,1464,1464,1464,1464,1458,1458,1452,1452,1452,1445,1445,1445,1445,1445,1445,1445,1439,1439,1439,1439,1439,1439,1439,1433,1433,1433,1427,1427,1421,1421,1421,1421,1415,1415,1415,1415,1410,1410,1404,1404,1398,1398,1398,1392,1392,1392,1392,1392,1392,1392,1392,1387,1376,1376,1376,1376,1370,1370,1370,1370,1370,1365,1365,1359,1359,1359,1354,1354,1354,1354,1349,1349,1349,1349,1343,1338,1338,1333,1333,1333,1333,1333,1333,1328,1328,1328,1322,1322,1322,1317,1312,1312,1312,1312,1307,1307,1307,1307,1302,1302,1302,1297,1292,1292,1292,1292,1292,1288,1288,1288,1288,1153,1149,1149,1145,1145,1141,1138,1134,1130,1119,1119,1115,1108,1108,1105,1097,1097,1094,1094,1094,1090,1090,1084,1080,1080,1077,1077,1077,1077,1073,1070,1070,1070,1073,1073,1073,1123,1123,1119,1115,1112,1108,1105,1097,1097,1097,1094,1090,1090,1090,1090,1090,1090,906,906,906,906,906,906,906,906,906,906,906,906,903,903,903,903,903,903,903,903,906,906,906,906,906,906,908,908,908,908,908,908,970,970,967,964,964,962,959,959,0,0,0,0,0,0,0,0,0,0,0,0,0,0,0,0,0,0,0,0,0,0,0,0,0,0,0,0,0,0,0,0,0,0
0,0,860,860,862,864,864,867,867,869,871,871,871,871,873,0,0,0,0,0,0,0,0,0,0,783,781,780,780,780,780,780,776,774,773,771,769,769,766,764,764,762,761,761,755,754,752,750,747,746,744,741,738,734,733,733,733,731,730,727,725,722,722,722,720,719,717,716,716,672,671,670,670,670,668,667,666,664,664,662,661,659,659,657,655,655,653,652,650,649,649,647,647,646,646,646,644,642,642,641,641,641,640,640,640,641,641,641,641,641,641,643,643,643,643,642,641,641,641,641,642,642,642,642,642,642,642,642,643,642,642,643,646,644,643,643,643,642,641,641,640,640,640,640,641,641,642,641,641,641,644,643,643,646,647,648,648,649,650,652,653,654,655,655,657,659,662,664,666,670,671,670,670,687,687,688,688,690,691,696,697,698,700,701,703,704,706,707,710,710,710,716,716,719,720,720,722,723,728,731,733,734,736,738,739,741,744,746,747,749,750,752,754,757,759,759,761,761,764,767,767,0,0,0,0,0,0,0,1483,1483,1489,1489,1489,1489,1489,1489,1496,1496,1496,1496,1496,1496,1496,1496,1496,1496,1496,1496,1496,1496,1496,1496,1489,1489,1489,1489,1489,1489,1489,1489,1489,1489,1489,1489,1489,1489,1489,1489,1489,1489,1489,1496,1496,1489,1489,1489,1489,1489,1483,1483,1483,1483,1477,1477,1477,1477,1477,1464,0,0,989,989,987,987,987,984,984,978,978,978,978,975,975,975,975,978,978,981,984,987,989,995,995,998,1001,1001,1004,0,0,0,0,1489,1483,1483,1477,1477,1477,1477,1477,1477,1477,1477,1483,1483,1483,1483,1483,1483,1483,1477,1477,1470,1470,1470,1477,1470,1470,1470,1470,1470,1470,1470,1470,1470,1470,1470,1470,1470,1464,1464,1470,1470,1470,1470,1470,1470,1470,1470,1470,1470,1464,1464,1464,1464,1464,1464,1464,1464,1464,1464,1464,1464,1464,1464,1464,1464,1464,1464,1464,1464,1464,1464,1464,1464,1464,1464,1458,1458,1458,1458,1458,1458,1458,1458,1458,1458,1458,1458,1452,1452,1445,1445,1445,1445,1445,1445,1445,1439,1439,1439,1439,1439,1439,1439,1439,1433,1433,1433,1427,1427,1427,1421,1421,1421,1415,1415,1415,1415,1410,1410,1410,1404,1398,1398,1398,1392,1392,1392,1392,1392,1392,1392,1387,1387,1381,1376,1376,1376,1376,1370,1370,1370,1370,1370,1365,1365,1365,1359,1359,1354,1354,1354,1354,1349,1349,1349,1343,1343,1338,1338,1333,1333,1333,1333,1333,1333,1328,1328,1328,1322,1322,1317,1312,1312,1312,1312,1312,1312,1307,1307,1307,1302,1302,1297,1292,1292,1292,1292,1292,1288,1288,1288,1288,1149,1149,1149,1145,1145,1138,1138,1134,1126,1119,1115,1112,1108,1105,1101,1097,1094,1094,1090,1090,1090,1087,1080,1080,1080,1077,1077,1077,1077,1073,1073,1070,1070,1070,1070,1123,1123,1123,1112,1112,1112,1108,1101,1094,1094,1090,1087,1087,1090,1090,1090,906,906,906,906,906,906,906,906,906,906,906,906,906,906,906,906,906,906,906,906,906,906,906,906,906,908,908,908,910,910,910,908,908,908,970,970,967,964,964,962,959,959,0,0,0,0,0,0,0,0,0,0,0,0,0,0,0,0,0,0,0,0,0,0,0,0,0,0,0,0,0,0,0,0,0,0
0,0,860,860,862,862,864,867,867,869,869,871,871,873,875,0,0,0,0,0,0,0,0,0,0,0,781,780,780,780,780,780,776,774,773,771,769,769,767,766,764,764,762,761,759,757,754,752,749,749,746,742,739,738,736,734,733,733,730,728,725,723,722,722,720,719,717,716,716,714,671,670,668,668,667,666,666,664,664,662,661,659,659,657,655,655,653,652,650,649,649,647,647,646,644,644,642,641,641,640,640,640,638,638,638,638,638,638,638,638,640,640,640,640,640,640,638,638,638,638,638,638,638,638,641,641,641,641,637,637,636,636,637,640,641,640,640,640,640,638,637,637,637,637,637,637,638,640,640,641,642,642,643,646,647,648,648,649,650,652,653,654,655,655,655,659,663,664,667,674,674,674,686,686,687,687,688,688,691,696,697,698,698,700,701,704,706,707,710,710,714,716,717,719,720,722,722,725,728,731,733,734,736,739,739,741,744,746,747,749,750,752,754,757,759,759,761,761,764,0,0,0,0,0,0,0,1483,1483,1483,1483,1483,1489,1489,1489,1489,1489,1489,1489,1489,1489,1489,1489,1489,1489,1489,1489,1489,1489,1489,1489,1489,1483,1483,1483,1483,1483,1483,1483,1489,1483,1483,1489,1489,1489,1483,1483,1483,1489,1483,1483,1489,1489,1489,1489,1483,1483,1483,1483,1483,1477,1477,1477,1477,1477,1470,1464,1464,1464,0,989,989,989,989,987,987,987,984,981,978,978,978,975,975,978,978,978,978,981,984,987,989,995,995,998,1001,1001,1004,0,0,0,1483,1483,1483,1477,1477,1470,1470,1470,1470,1470,1470,1470,1477,1483,1483,1483,1483,1483,1483,1477,1470,1470,1470,1470,1470,1470,1470,1470,1470,1470,1470,1470,1470,1470,1470,1464,1464,1464,1464,1464,1464,1464,1464,1470,1470,1470,1470,1470,1464,1464,1464,1464,1464,1464,1464,1464,1464,1464,1464,1464,1458,1458,1458,1458,1458,1458,1458,1458,1458,1458,1458,1458,1458,1458,1458,1458,1458,1452,1452,1452,1452,1452,1452,1458,1458,1458,1452,1452,1452,1445,1445,1445,1445,1445,1445,1445,1439,1439,1439,1439,1439,1439,1439,1439,1433,1433,1433,1433,1427,1427,1427,1427,1421,1421,1421,1415,1415,1415,1410,1410,1410,1404,1398,1398,1398,1392,1392,1392,1392,1392,1392,1392,1387,1381,1376,1376,1376,1376,1376,1376,1370,1370,1370,1365,1365,1365,1365,1359,1359,1359,1354,1354,1354,1349,1349,1349,1343,1343,1338,1338,1338,1333,1333,1333,1333,1333,1333,1328,1328,1322,1322,1317,1312,1312,1312,1312,1312,1312,1307,1307,1307,1307,1302,1297,1292,1292,1292,1292,1292,1288,1288,1288,1149,1149,1149,1149,1145,1145,1138,1134,1130,1123,1115,1115,1108,1105,1101,1097,1094,1094,1090,1090,1090,1090,1087,1080,1080,1080,1077,1077,1073,1073,1073,1070,1070,0,1070,0,0,1123,1123,1112,1112,1108,1105,1101,1094,1094,1090,1084,1084,1084,1090,906,906,906,906,906,906,906,908,908,908,908,908,908,908,906,906,906,906,906,906,906,906,906,906,908,908,910,910,910,913,915,915,913,913,970,970,967,964,962,962,962,959,959,0,0,0,0,0,0,0,0,0,0,0,0,0,0,0,0,0,0,0,0,0,0,0,0,0,0,0,0,0,0,0,0,0,0
0,0,860,860,862,862,864,867,869,869,869,869,871,871,875,0,0,0,0,0,0,0,0,0,0,0,0,0,0,0,0,0,0,774,771,771,769,769,767,766,766,764,762,761,761,757,755,754,749,749,747,744,742,739,738,736,734,733,730,728,725,723,723,722,720,719,717,716,714,714,714,670,667,667,666,666,666,664,664,663,661,659,659,655,655,655,653,653,650,649,649,647,647,646,644,642,641,640,640,638,638,638,637,637,637,637,637,637,637,637,637,637,637,637,638,638,637,637,637,637,637,637,636,636,636,635,635,636,636,635,634,632,631,631,638,638,637,637,638,637,636,636,636,636,636,637,637,637,640,641,641,641,642,644,647,648,648,649,650,652,653,654,655,655,655,676,675,675,675,675,676,678,683,686,687,687,688,688,694,696,697,697,698,700,701,704,707,708,711,713,714,716,717,719,720,722,723,725,728,731,733,734,736,739,741,742,744,746,747,749,750,752,754,757,759,759,761,761,0,0,0,0,0,0,0,1483,1483,1483,1483,1483,1483,1483,1489,1489,1489,1489,1489,1489,1489,1489,1489,1489,1489,1489,1489,1489,1489,1483,1483,1483,1483,1483,1483,1477,1477,1477,1477,1483,1483,1483,1483,1483,1483,1483,1483,1483,1483,1483,1483,1483,1483,1477,1477,1483,1483,1477,1477,1477,1477,1477,1470,1470,1470,1470,1464,1458,1458,1458,1458,992,992,989,989,987,987,987,987,984,978,978,978,978,978,978,978,978,978,981,984,987,989,995,998,1001,1001,1001,1004,0,0,0,1477,1477,1477,1470,1470,1470,1464,1464,1464,1464,1464,1464,1464,1464,1464,1470,1483,1477,1477,1470,1470,1470,1470,1470,1470,1464,1464,1464,1464,1464,1464,1464,1464,1464,1464,1464,1464,1464,1464,1464,1464,1464,1464,1464,1464,1464,1464,1464,1464,1464,1458,1458,1458,1458,1458,1458,1458,1458,1458,1458,1452,1452,1452,1452,1452,1452,1452,1452,1452,1452,1458,1452,1452,1452,1452,1452,1452,1452,1452,1452,1452,1452,1452,1452,1452,1452,1452,1452,1445,1445,1445,1445,1445,1445,1439,1439,1439,1439,1439,1439,1439,1439,1439,1439,1433,1433,1433,1433,1427,1427,1427,1427,1421,1421,1421,1415,1415,1415,1415,1410,1410,1404,1398,1398,1398,1398,1392,1392,1392,1392,1392,1387,1387,1381,1376,1376,1376,1376,1376,1376,1370,1370,1370,1365,1365,1365,1365,1359,1359,1359,1354,1354,1354,1349,1349,1349,1343,1343,1343,1338,1338,1333,1333,1333,1333,1333,1333,1328,1328,1328,1322,1317,1312,1312,1312,1312,1312,1312,1312,1307,1307,1307,1302,1297,1292,1292,1292,1292,1292,1288,1288,1288,1145,1145,1145,1145,1141,1138,1134,1134,1126,1119,1112,1112,1108,1101,1101,1097,1094,1094,1090,1090,1090,1090,1087,1080,1080,1080,1077,1077,1073,1073,1070,1070,1070,0,0,0,0,1115,1115,1108,1108,1108,1105,1097,1094,1090,1087,1084,1084,1084,906,906,906,906,906,906,908,908,908,908,908,908,908,908,908,906,906,906,906,906,908,908,908,908,908,908,908,910,913,913,915,915,915,918,975,970,970,967,962,962,962,959,959,959,0,0,0,0,0,0,0,0,0,0,0,0,0,0,0,0,0,0,0,0,0,0,0,0,0,0,0,0,0,0,0,0,0,0
