0,0,0,0,0,0,0,0,0,1312,1307,1307,1307,1307,1302,1302,1302,1302,1302,1302,1302,1302,1302,1302,1302,1302,1302,1302,1302,1297,1297,1297,1302,1302,1302,1302,1302,1302,1302,1297,1292,1292,1292,1292,1292,1297,1297,1302,1297,1297,1297,1297,1297,1297,1292,1292,1297,1297,1297,1297,1297,1297,1297,1297,1297,1292,1292,1288,1288,1288,1288,1288,1288,1288,1288,1288,1288,1288,1288,1288,1288,1288,1292,1288,1288,1292,1292,1292,1288,1288,1288,1288,1288,1288,1288,1288,1288,1288,0,0,0,0,989,987,987,984,981,978,978,978,978,978,978,978,978,978,981,981,987,987,989,992,995,995,998,998,1001,1007,1010,1013,1013,1013,1019,1022,1022,1025,1025,1025,1028,1028,1031,1031,1031,1031,1034,1038,1041,1041,1044,1047,1047,1047,1050,1050,1054,1054,1057,1264,1264,1268,1268,1268,1268,1268,1268,1268,1268,1268,1268,1268,1268,1264,1264,1264,1264,1264,1264,1264,1264,1264,1264,1264,1268,1268,1264,1264,1264,1264,1259,1259,1259,1264,1264,1264,1264,1264,1264,1264,1259,1259,1259,1259,1259,1255,1255,1255,1259,1259,1259,1259,1259,1259,1255,1255,1255,1255,1245,1245,0,0,0,0,0,0,0,0,0,0,0,731,731,731,731,728,728,725,723,722,722,722,720,719,716,716,717,717,717,719,720,722,723,725,727,728,730,731,733,734,736,738,738,739,0,0,0,0,0,1025,1025,1022,1019,1016,1013,1013,1010,1010,1007,1007,1004,1001,1001,1001,998,995,995,995,992,992,989,989,989,989,989,989,989,989,987,987,987,987,987,987,984,984,981,981,981,978,978,978,981,978,978,1227,1227,1223,1223,1223,1227,1227,1227,1227,1227,1227,1227,1227,1227,1227,1227,1232,1236,1236,978,978,978,978,978,978,978,978,975,975,975,975,975,978,981,984,987,989,992,995,995,998,1010,1013,1013,1013,1016,1016,1210,1210,1210,1210,1210,1206,1206,1119,1119,1119,1119,1119,1119,1119,1115,1115,1115,1112,1112,1112,1112,1112,1112,1112,1115,1115,1119,1119,1206,1206,1206,1206,1202,1202,1202,1202,1202,1202,1206,1206,1206,1206,1206,1206,1202,1202,1202,1202,1202,1202,1202,1202,1202,1202,1202,1197,1197,1197,1197,1197,1197,1202,1202,1202,1197,1197,1197,1197,1197,1197,1193,1193,1193,1193,1193,1193,1193,1193,1193,1189,1189,1189,1189,1189,1189,1193,1193,1193,1189,1189,1185,1185,1185,1185,1185,1185,1185,1185,1185,1185,1185,1185,1185,1185,1185,1185,1185,1185,1185,1185,1185,1185,1185,1185,1185,1185,1185,1185,1185,1185,1181,1181,1181,1181,1177,1177,1181,1177,1177,1177,1177,1177,1177,1177,1177,1177,1177,1177,1177,1177,1173,1173,1173,1173,1173,1169,1169,1169,1169,1169,1169,1165,1165,1165,1165,1165,1165,1165,1165,1165,1165,1165,1169,1169,1169,1165,1165,1165,1169,1165,1165,1165,1165,1165,1165,1165,1165,1165,1165,1165,1165,1165,1165,1165,1165,1165,1165,1161,1161,1161,1157,1157,1157,1157,1157,1157,1157,1157,1157,1157,1157,1153,1153,1153,1153,1153,1153,1153,1161,1165,1165,981,984,984,981,981,981,981,978,975,973,973,975,975,938,938,938,935,935,935,935,933,933,933,933,933,933,933,935,935,935,935,935,935,935,938,0,0,0,0,0,0,0,0,0,0,0,0,0,0,0,0,0,0,0,0,0,0,0,0,0,0,0,0,0,0,0,0,0,0
0,0,0,0,0,0,0,0,0,1302,1302,1307,1307,1307,1302,1302,1302,1302,1302,1302,1302,1302,1302,1302,1297,1297,1297,1297,1297,1297,1297,1297,1297,1297,1302,1302,1302,1302,1297,1292,1288,1288,1288,1288,1292,1292,1297,1297,1292,1292,1292,1292,1292,1292,1288,1288,1292,1292,1292,1292,1297,1292,1292,1292,1292,1292,1288,1288,1288,1288,1288,1288,1288,1288,1288,1283,1283,1283,1283,1288,1288,1288,1288,1288,1288,1288,1288,1288,1288,1288,1288,1288,1288,1283,1283,1283,1278,1278,0,0,0,0,989,987,987,987,984,981,981,978,978,978,978,978,978,978,981,981,987,987,989,992,995,995,998,1001,1001,1007,1010,1013,1013,1013,1019,1022,1022,1025,1025,1025,1028,1031,1031,1031,1034,1034,1034,1038,1041,1044,1047,1047,1047,1050,1050,1054,1057,1060,1264,1264,1264,1264,1268,1268,1268,1268,1268,1268,1268,1268,1264,1264,1264,1264,1264,1259,1259,1259,1259,1259,1259,1259,1259,1264,1264,1264,1264,1264,1264,1259,1259,1255,1255,1259,1259,1259,1259,1259,1259,1259,1255,1255,1255,1255,1255,1250,1250,1250,1250,1250,1250,1250,1255,1255,1250,1250,1250,1250,1245,1245,0,0,0,0,0,0,0,0,0,0,0,733,733,733,733,730,730,728,727,725,723,722,720,719,717,717,717,719,719,720,720,722,723,727,728,728,730,733,734,736,738,738,738,739,739,0,0,0,0,1025,1025,1022,1019,1019,1016,1013,1010,1010,1010,1007,1004,1004,1001,1001,998,995,995,995,992,989,989,989,989,989,989,987,987,987,987,987,984,984,987,984,981,981,981,978,978,978,978,978,981,978,978,978,975,975,1223,1223,1227,1227,1227,1227,1227,1227,1227,1227,1223,1223,1223,1223,970,970,970,970,973,975,975,975,975,975,975,973,973,975,975,978,984,984,987,989,992,995,995,998,1010,1013,1013,1013,1016,1206,1206,1206,1206,1206,1206,1206,1202,1119,1119,1119,1119,1119,1119,1119,1119,1115,1115,1112,1112,1112,1112,1112,1112,1112,1115,1119,1119,1119,1206,1206,1206,1206,1202,1202,1202,1197,1197,1197,1197,1197,1197,1202,1202,1202,1202,1202,1197,1197,1197,1197,1197,1197,1197,1197,1197,1197,1197,1197,1197,1197,1197,1197,1197,1197,1197,1197,1193,1193,1193,1193,1189,1189,1189,1189,1189,1189,1189,1189,1185,1185,1185,1185,1185,1185,1185,1185,1189,1189,1185,1185,1181,1181,1181,1185,1181,1181,1181,1181,1181,1181,1181,1181,1181,1185,1185,1185,1185,1181,1181,1185,1181,1181,1181,1181,1185,1181,1181,1181,1181,1181,1181,1181,1177,1177,1177,1177,1173,1173,1173,1173,1173,1173,1173,1173,1173,1173,1173,1173,1173,1169,1169,1169,1169,1169,1169,1169,1169,1169,1169,1169,1165,1165,1161,1161,1165,1165,1165,1165,1165,1165,1165,1165,1165,1165,1165,1165,1165,1165,1165,1165,1161,1161,1161,1161,1161,1161,1161,1157,1157,1161,1161,1161,1161,1161,1161,1161,1157,1157,1157,1157,1153,1153,1153,1153,1153,1153,1153,1153,1153,1153,1153,1153,1153,1153,1153,1153,1153,1153,1161,1161,981,981,981,981,981,981,981,981,981,978,975,975,978,981,938,938,938,935,935,935,935,933,933,933,933,933,933,933,935,935,935,935,935,935,935,938,0,0,0,0,0,0,0,0,0,0,0,0,0,0,0,0,0,0,0,0,0,0,0,0,0,0,0,0,0,0,0,0,0,0
0,0,0,0,0,0,0,0,0,1288,1288,1292,1292,1292,1297,1302,1302,1302,1302,1302,1302,1297,1297,1297,1297,1297,1297,1297,1297,1297,1297,1297,1297,1297,1297,1297,1297,1297,1297,1292,1288,1288,1288,1288,1288,1288,1292,1292,1292,1292,1288,1288,1288,1288,1288,1288,1288,1288,1288,1288,1292,1292,1288,1288,1288,1288,1288,1283,1283,1283,1283,1283,1283,1283,1283,1283,1283,1283,1283,1283,1283,1283,1283,1283,1283,1283,1288,1288,1283,1283,1283,1283,1283,1283,1283,1278,1273,1273,1273,1268,0,0,989,989,989,987,984,981,981,978,978,978,978,978,978,981,981,984,987,989,989,992,995,995,998,1001,1004,1007,1010,1013,1013,1016,1019,1022,1022,1025,1025,1028,1031,1031,1031,1034,1034,1034,1038,1038,1041,1044,1047,1050,1050,1050,1050,1054,1060,1060,1259,1259,1259,1259,1259,1264,1264,1259,1259,1264,1264,1264,1264,1264,1259,1259,1259,1255,1255,1255,1255,1255,1255,1255,1255,1259,1259,1259,1259,1259,1259,1259,1255,1255,1255,1255,1255,1255,1259,1259,1255,1255,1250,1250,1250,1250,1250,1250,1250,1250,1250,1250,1250,1250,1250,1245,1245,1245,1245,1245,1245,1245,0,0,0,0,0,0,0,0,0,0,0,733,733,733,733,730,730,728,727,727,725,723,722,720,719,719,719,720,720,720,722,722,725,727,728,730,731,733,734,736,738,738,739,739,739,0,0,0,0,0,1025,1022,1022,1019,1016,1013,1013,1013,1010,1010,1007,1004,1001,1001,998,998,995,992,992,989,989,989,989,989,987,987,987,987,984,984,984,984,984,984,981,981,981,978,978,978,978,978,978,978,978,978,975,975,975,1227,1227,1227,1227,1227,1227,1227,1227,1227,1223,1223,1223,967,967,967,967,970,970,970,970,970,970,973,973,973,973,973,973,975,981,981,984,992,992,995,995,995,1010,1013,1013,1013,1202,1202,1202,1202,1202,1202,1206,1202,1202,1202,1119,1119,1123,1119,1119,1123,1123,1119,1119,1115,1115,1115,1112,1112,1115,1115,1115,1119,1119,1119,1206,1206,1206,1206,1202,1197,1197,1193,1193,1193,1193,1193,1193,1197,1197,1197,1197,1197,1197,1197,1193,1193,1193,1197,1197,1193,1193,1193,1193,1193,1189,1189,1193,1193,1193,1193,1193,1189,1189,1189,1189,1189,1189,1185,1185,1185,1185,1185,1185,1185,1185,1185,1185,1185,1185,1185,1185,1185,1185,1185,1185,1185,1181,1181,1181,1181,1181,1181,1181,1181,1181,1181,1177,1177,1177,1177,1177,1181,1181,1181,1181,1181,1181,1181,1181,1181,1181,1181,1181,1181,1177,1177,1177,1177,1173,1173,1173,1173,1169,1169,1169,1169,1169,1169,1169,1169,1169,1169,1169,1169,1169,1169,1169,1169,1165,1165,1165,1165,1165,1165,1165,1165,1165,1161,1161,1161,1161,1161,1161,1165,1165,1165,1165,1161,1161,1161,1157,1157,1157,1157,1161,1161,1161,1157,1157,1157,1157,1157,1153,1153,1153,1157,1153,1153,1157,1161,1157,1157,1153,1153,1153,1153,1153,1149,1149,1149,1153,1149,1149,1149,1149,1149,1149,1149,1149,1149,1149,1149,1149,1153,1153,987,987,981,981,981,981,981,981,981,981,978,978,978,978,938,935,935,935,935,935,935,933,933,933,933,933,933,933,933,935,935,935,935,935,935,938,938,0,0,0,0,0,0,0,0,0,0,0,0,0,0,0,0,0,0,0,0,0,0,0,0,0,0,0,0,0,0,0,0,0,0
0,0,0,0,0,0,0,0,0,1288,1288,1288,1288,1288,1288,1288,1288,1292,1292,1297,1297,1297,1297,1292,1292,1292,1292,1292,1292,1292,1292,1292,1292,1292,1297,1297,1292,1292,1292,1288,1288,1288,1283,1283,1283,1288,1288,1288,1288,1288,1288,1288,1288,1288,1288,1288,1288,1288,1283,1283,1288,1283,1283,1283,1283,1278,1278,1283,1283,1283,1283,1283,1283,1283,1278,1278,1273,1273,1278,1278,1278,1273,1273,1273,1278,1278,1283,1283,1283,1283,1283,1278,1278,1273,1273,1273,1268,1268,1268,1268,1268,992,992,989,989,989,987,984,984,981,981,978,978,978,981,981,984,984,987,989,989,992,995,995,998,1001,1004,1010,1013,1013,1013,1016,1019,1022,1025,1025,1028,1031,1031,1034,1034,1034,1034,1034,1038,1041,1041,1047,1047,1050,1050,1050,1054,1057,1060,1070,1255,1255,1255,1255,1255,1259,1259,1255,1255,1255,1259,1259,1259,1255,1255,1255,1255,1255,1250,1250,1250,1255,1255,1255,1255,1255,1259,1259,1259,1259,1259,1255,1255,1250,1250,1255,1255,1255,1255,1255,1255,1255,1250,1250,1250,1250,1250,1250,1245,1245,1245,1245,1245,1245,1245,1245,1245,1245,1245,1245,1245,1241,1241,0,0,0,0,0,0,0,0,0,0,734,734,733,733,731,730,730,728,727,725,723,723,722,719,719,720,720,720,720,722,723,725,727,728,730,731,733,734,736,738,739,739,739,741,0,0,0,0,0,1025,1025,1025,1022,1019,1016,1013,1013,1013,1010,1010,1007,1004,1001,998,998,995,992,992,989,989,989,989,989,987,987,987,984,984,984,981,981,981,981,978,978,978,978,978,978,978,978,978,978,975,975,975,973,970,970,970,1227,1227,1223,1223,1223,1223,1223,1227,964,964,964,967,967,967,967,967,967,967,967,967,970,970,970,970,973,973,975,981,981,984,992,992,995,995,995,1007,1013,1013,1202,1202,1202,1202,1202,1202,1202,1202,1202,1202,1202,1202,1123,1123,1123,1123,1123,1123,1123,1119,1119,1119,1115,1115,1115,1115,1115,1119,1119,1119,1123,1126,1206,1202,1202,1197,1193,1189,1189,1189,1189,1189,1189,1189,1193,1189,1189,1189,1189,1189,1189,1193,1193,1193,1193,1193,1193,1189,1189,1189,1185,1185,1185,1189,1189,1189,1189,1189,1189,1189,1189,1189,1185,1185,1185,1185,1185,1185,1185,1181,1181,1181,1181,1181,1181,1185,1185,1185,1185,1181,1181,1181,1181,1181,1181,1181,1181,1181,1177,1177,1177,1177,1177,1177,1173,1173,1177,1177,1177,1177,1177,1177,1177,1177,1177,1177,1177,1177,1177,1177,1177,1173,1173,1173,1173,1169,1169,1169,1169,1169,1169,1169,1169,1169,1169,1169,1169,1169,1169,1169,1169,1165,1165,1165,1165,1165,1165,1165,1165,1165,1165,1161,1161,1161,1157,1157,1157,1157,1157,1157,1161,1161,1161,1161,1161,1157,1157,1157,1153,1153,1153,1157,1157,1157,1157,1157,1157,1153,1153,1153,1149,1149,1153,1149,1149,1149,1153,1153,1153,1153,1153,1153,1153,1149,1149,1149,1149,1149,1149,1149,1149,1149,1149,1149,1149,1149,1149,1149,1149,1149,1153,1153,987,987,987,984,984,984,984,984,984,981,981,981,981,984,938,935,935,933,933,935,935,933,933,933,933,933,933,933,933,935,935,935,935,935,935,938,938,0,0,0,0,0,0,0,0,0,0,0,0,0,0,0,0,0,0,0,0,0,0,0,0,0,0,0,0,0,0,0,0,0,0
0,0,0,0,0,0,0,0,0,1283,1283,1283,1288,1288,1288,1283,1283,1288,1288,1288,1288,1288,1292,1288,1288,1288,1288,1288,1288,1288,1288,1283,1283,1283,1288,1288,1288,1288,1288,1288,1283,1283,1283,1283,1283,1283,1283,1283,1283,1283,1288,1283,1283,1283,1283,1283,1283,1283,1283,1283,1283,1283,1278,1278,1278,1273,1273,1278,1278,1278,1278,1278,1278,1278,1278,1273,1273,1273,1273,1273,1273,1273,1273,1273,1273,1273,1273,1273,1273,1273,1278,1273,1273,1268,1268,1268,1268,1268,1268,1268,1268,992,992,992,989,989,987,987,984,984,981,981,981,981,981,981,984,984,987,987,989,992,995,995,998,1001,1004,1010,1013,1013,1016,1019,1022,1022,1025,1025,1028,1031,1031,1034,1034,1034,1034,1038,1038,1041,1041,1044,1044,1050,1050,1054,1054,1063,1070,1073,1245,1245,1250,1250,1250,1255,1255,1250,1250,1250,1255,1255,1250,1250,1250,1250,1250,1250,1250,1250,1250,1250,1250,1250,1250,1250,1250,1250,1250,1250,1255,1250,1250,1250,1250,1250,1250,1250,1250,1250,1250,1250,1250,1245,1245,1245,1245,1245,1245,1245,1245,1245,1245,1245,1245,1245,1241,1241,1241,1241,1236,1236,1236,0,0,0,0,0,0,0,0,0,0,0,734,734,734,733,731,730,730,728,727,725,723,722,720,720,720,720,720,722,722,723,727,727,728,730,731,733,734,738,739,739,741,741,741,0,0,0,0,0,1025,1025,1025,1025,1022,1019,1016,1013,1013,1013,1010,1010,1007,1004,1001,998,998,995,992,989,989,989,989,989,987,987,984,984,981,981,978,978,978,978,978,978,975,975,975,975,975,975,978,975,975,973,973,970,967,967,967,967,959,956,956,1223,1223,1223,962,962,962,964,964,964,962,962,962,962,964,964,967,967,967,970,970,973,975,978,981,981,987,992,992,992,995,998,1007,1202,1202,1202,1197,1197,1197,1197,1202,1202,1202,1202,1197,1197,1202,1123,1123,1123,1123,1123,1123,1123,1123,1119,1119,1115,1115,1115,1115,1119,1119,1123,1123,1123,1126,1206,1202,1197,1193,1189,1189,1189,1189,1185,1185,1185,1189,1189,1189,1185,1185,1185,1185,1185,1185,1185,1185,1185,1189,1189,1185,1185,1185,1185,1185,1185,1185,1185,1185,1185,1185,1185,1185,1185,1185,1185,1185,1185,1185,1181,1181,1181,1181,1181,1181,1181,1181,1181,1181,1181,1181,1181,1181,1181,1181,1177,1177,1177,1177,1177,1177,1177,1173,1173,1173,1173,1173,1169,1169,1169,1173,1173,1173,1173,1173,1173,1173,1173,1173,1177,1177,1173,1173,1173,1173,1169,1169,1169,1169,1169,1169,1165,1165,1165,1165,1165,1169,1165,1165,1165,1169,1169,1165,1165,1165,1165,1165,1165,1165,1165,1165,1165,1165,1161,1161,1157,1157,1153,1153,1153,1153,1153,1157,1157,1157,1157,1157,1157,1153,1153,1153,1153,1149,1149,1153,1153,1153,1153,1153,1153,1153,1153,1149,1149,1149,1149,1145,1145,1145,1149,1149,1149,1149,1149,1149,1149,1149,1149,1149,1149,1149,1145,1145,1145,1145,1145,1145,1145,1145,1145,1145,1149,1149,1153,989,989,987,987,987,987,987,987,984,984,981,981,981,981,938,938,935,935,933,933,935,935,933,933,933,933,933,933,933,933,935,935,935,935,935,935,935,938,0,0,0,0,0,0,0,0,0,0,0,0,0,0,0,0,0,0,0,0,0,0,0,0,0,0,0,0,0,0,0,0,0,0
0,0,0,0,0,0,0,0,0,1283,1283,1283,1283,1283,1283,1283,1283,1283,1283,1283,1283,1283,1283,1283,1283,1283,1283,1283,1283,1283,1283,1283,1278,1278,1283,1283,1288,1288,1288,1288,1283,1283,1283,1278,1278,1283,1283,1283,1283,1283,1283,1283,1283,1283,1283,1283,1283,1283,1283,1278,1278,1278,1273,1273,1273,1273,1273,1278,1278,1273,1273,1273,1273,1273,1268,1268,1268,1268,1268,1273,1268,1268,1268,1268,1268,1268,1268,1268,1268,1268,1264,1264,1264,1268,1268,1268,1268,1268,1268,1268,1268,1268,992,992,992,989,989,989,987,984,984,981,981,981,981,984,984,984,987,987,989,992,995,995,998,1001,1007,1010,1013,1013,1016,1019,1022,1022,1025,1025,1031,1031,1034,1034,1034,1034,1038,1038,1038,1038,1041,1044,1044,1054,1054,1250,1250,1245,1245,1245,1245,1245,1245,1250,1250,1250,1250,1250,1250,1250,1250,1250,1250,1250,1250,1250,1245,1245,1245,1245,1245,1245,1245,1245,1245,1245,1245,1245,1245,1245,1245,1245,1245,1245,1245,1245,1245,1245,1245,1245,1245,1245,1245,1245,1245,1245,1245,1241,1241,1241,1241,1241,1241,1241,1241,1241,1241,1241,1241,1236,1236,1232,1227,1227,0,0,0,0,0,0,0,0,0,0,734,734,734,733,733,731,731,730,728,727,725,723,722,720,720,720,720,722,722,723,727,728,730,731,733,734,736,738,739,741,741,742,742,746,0,0,0,0,0,1025,1025,1025,1022,1019,1019,1016,1013,1013,1013,1010,1010,1007,1004,1001,998,998,995,992,992,989,989,989,987,987,984,981,981,978,978,978,978,978,975,975,975,975,975,973,973,975,975,975,973,973,973,970,967,967,967,964,959,956,956,959,959,959,959,959,959,962,962,962,962,962,962,962,962,962,964,967,967,970,970,973,975,978,981,981,987,992,992,992,992,998,1202,1202,1202,1197,1197,1197,1197,1197,1197,1197,1197,1197,1197,1197,1197,1123,1123,1123,1126,1126,1126,1123,1123,1123,1119,1119,1119,1119,1119,1119,1119,1123,1123,1123,1123,1210,1193,1193,1189,1185,1185,1185,1185,1185,1185,1185,1185,1185,1185,1185,1185,1185,1185,1185,1185,1185,1185,1185,1181,1181,1181,1181,1181,1181,1181,1181,1181,1181,1181,1181,1181,1181,1181,1181,1181,1181,1181,1181,1181,1181,1181,1181,1181,1181,1181,1181,1181,1181,1181,1181,1181,1177,1177,1177,1177,1173,1173,1173,1173,1173,1173,1173,1169,1169,1169,1169,1169,1169,1169,1169,1169,1169,1169,1169,1169,1169,1169,1169,1169,1169,1169,1169,1169,1169,1169,1169,1169,1169,1165,1165,1165,1165,1165,1165,1165,1165,1165,1165,1165,1165,1165,1165,1165,1165,1165,1165,1161,1161,1161,1161,1161,1161,1161,1157,1157,1153,1153,1153,1153,1153,1153,1153,1153,1153,1153,1153,1153,1153,1153,1149,1149,1149,1149,1149,1149,1149,1149,1149,1149,1149,1149,1149,1149,1149,1149,1145,1145,1145,1145,1145,1145,1145,1145,1145,1145,1145,1149,1145,1145,1145,1145,1141,1141,1141,1141,1141,1141,1145,1145,1145,1145,1149,1149,1153,992,989,989,989,987,987,987,987,984,984,981,981,938,938,938,938,935,935,933,933,935,933,933,933,933,933,933,933,933,933,933,935,935,935,935,935,935,938,0,0,0,0,0,0,0,0,0,0,0,0,0,0,0,0,0,0,0,0,0,0,0,0,0,0,0,0,0,0,0,0,0,0
0,0,0,0,0,0,0,0,0,1283,1283,1283,1283,1283,1283,1283,1283,1278,1278,1278,1278,1278,1278,1278,1278,1278,1278,1278,1273,1273,1278,1278,1273,1273,1278,1278,1283,1283,1283,1283,1283,1278,1278,1278,1278,1278,1278,1278,1278,1278,1283,1283,1283,1283,1283,1283,1283,1278,1278,1273,1273,1273,1273,1268,1268,1268,1268,1273,1273,1273,1273,1268,1268,1268,1268,1264,1264,1264,1268,1268,1268,1268,1268,1268,1268,1268,1264,1264,1264,1264,1259,1259,1264,1264,1264,1264,1264,1268,1268,1268,1268,1268,992,992,992,989,989,989,989,987,984,984,984,984,984,984,984,987,987,989,989,992,995,995,998,1001,1007,1010,1013,1013,1019,1022,1022,1025,1025,1028,1031,1031,1034,1034,1034,1034,1038,1038,1038,1038,1038,1038,1245,1245,1245,1245,1245,1245,1245,1245,1245,1245,1245,1245,1245,1245,1245,1245,1250,1250,1250,1250,1245,1245,1245,1245,1245,1245,1241,1241,1241,1241,1241,1241,1241,1241,1241,1241,1241,1241,1241,1241,1241,1241,1241,1241,1241,1241,1241,1241,1241,1241,1241,1241,1241,1236,1236,1241,1236,1236,1236,1236,1236,1236,1236,1236,1236,1236,1232,1232,1232,1232,1227,1227,0,0,0,0,0,0,0,0,0,0,736,734,734,734,733,733,733,731,730,728,727,723,722,722,722,722,722,722,722,723,727,730,731,733,734,734,738,739,741,741,742,744,746,746,0,0,0,0,0,0,0,1214,1025,1019,1019,1016,1013,1013,1013,1013,1010,1010,1007,1004,1001,998,998,995,992,992,989,989,989,987,984,981,981,978,978,978,978,975,975,975,973,973,970,970,970,970,973,973,970,970,970,967,967,967,964,962,959,959,959,959,959,959,959,959,959,959,959,959,959,959,959,959,959,962,964,964,967,970,970,975,978,981,981,981,987,989,989,989,992,1197,1197,1197,1197,1197,1193,1193,1193,1193,1193,1193,1193,1193,1193,1193,1193,1193,1130,1130,1130,1130,1126,1126,1123,1123,1123,1119,1119,1119,1119,1119,1123,1123,1123,1123,1123,1189,1189,1189,1185,1185,1185,1185,1185,1185,1181,1181,1181,1185,1185,1181,1181,1185,1185,1185,1181,1181,1181,1181,1181,1181,1177,1177,1181,1181,1181,1181,1181,1181,1181,1181,1181,1181,1181,1181,1181,1181,1181,1181,1181,1177,1177,1177,1177,1177,1177,1177,1177,1177,1177,1177,1177,1177,1173,1173,1173,1173,1173,1173,1173,1173,1173,1169,1169,1169,1169,1169,1165,1165,1165,1165,1165,1165,1165,1165,1165,1165,1165,1165,1169,1169,1165,1165,1165,1165,1165,1161,1161,1165,1165,1165,1165,1161,1161,1161,1161,1161,1161,1161,1161,1161,1165,1161,1161,1161,1161,1161,1161,1157,1157,1157,1157,1157,1153,1153,1153,1153,1153,1153,1149,1149,1149,1149,1149,1149,1149,1149,1149,1149,1149,1149,1145,1145,1145,1145,1149,1149,1149,1149,1149,1149,1145,1145,1145,1141,1141,1141,1138,1138,1141,1141,1141,1141,1141,1141,1141,1141,1145,1145,1141,1141,1141,1141,1141,1141,1141,1141,1141,1141,1141,1145,1145,1149,1149,995,992,989,989,989,989,987,987,987,987,987,948,948,938,938,938,938,935,933,933,933,933,933,933,933,933,933,933,933,933,933,933,933,933,935,935,935,935,938,0,0,0,0,0,0,0,0,0,0,0,0,0,0,0,0,0,0,0,0,0,0,0,0,0,0,0,0,0,0,0,0,0,0
0,0,0,0,0,0,0,0,0,1283,1278,1278,1278,1278,1283,1278,1278,1273,1273,1273,1273,1273,1273,1273,1273,1273,1273,1273,1268,1268,1273,1268,1268,1268,1273,1273,1278,1273,1273,1278,1278,1278,1278,1273,1273,1278,1278,1278,1278,1278,1278,1278,1283,1278,1278,1278,1283,1278,1273,1273,1273,1273,1268,1268,1268,1268,1268,1268,1268,1268,1268,1268,1264,1264,1264,1264,1264,1264,1264,1264,1264,1264,1264,1264,1264,1264,1264,1264,1264,1259,1259,1259,1259,1259,1259,1259,1264,1264,1264,1259,1259,1259,989,989,989,989,989,989,989,987,987,984,984,984,984,987,987,987,989,989,989,992,995,995,998,1001,1010,1013,1013,1016,1019,1022,1022,1025,1025,1028,1031,1031,1034,1034,1034,1038,1038,1038,1038,1041,1038,1038,1245,1245,1245,1245,1245,1245,1245,1241,1241,1241,1241,1245,1245,1245,1245,1245,1245,1245,1245,1245,1245,1245,1241,1241,1241,1241,1241,1241,1236,1236,1241,1236,1236,1236,1236,1236,1236,1236,1236,1236,1236,1236,1236,1236,1236,1236,1236,1236,1236,1236,1236,1236,1236,1236,1236,1236,1236,1236,1236,1236,1236,1236,1236,1236,1232,1232,1232,1227,1227,1227,1223,1214,1214,0,0,0,0,0,0,0,0,0,0,738,736,734,734,733,733,731,730,728,727,727,723,722,722,722,722,722,723,725,727,730,731,733,734,736,738,739,741,742,744,746,747,747,0,0,0,0,0,0,0,1214,1214,1214,1206,1206,1016,1013,1013,1013,1010,1010,1007,1007,1004,1001,998,998,995,992,989,989,989,987,984,981,981,978,978,978,975,975,975,973,970,970,967,967,967,967,970,970,967,967,967,967,964,964,964,962,959,959,959,959,956,956,956,959,959,959,959,959,959,959,959,959,959,959,964,964,967,970,973,975,978,981,981,984,987,989,989,989,989,1197,1197,1193,1189,1189,1189,1189,1189,1189,1189,1193,1193,1189,1189,1189,1189,1189,1134,1134,1134,1134,1130,1130,1126,1126,1123,1119,1119,1119,1119,1119,1123,1123,1123,1123,1123,1181,1181,1181,1185,1181,1181,1181,1181,1181,1181,1181,1181,1181,1181,1181,1181,1181,1181,1181,1181,1177,1177,1177,1177,1177,1173,1173,1177,1173,1173,1173,1173,1173,1177,1177,1177,1177,1177,1177,1177,1177,1177,1177,1177,1173,1173,1173,1173,1173,1173,1173,1173,1173,1177,1177,1173,1173,1173,1169,1169,1169,1169,1169,1169,1169,1169,1169,1169,1165,1165,1165,1165,1165,1165,1165,1165,1165,1165,1165,1165,1165,1165,1165,1165,1165,1165,1161,1161,1161,1161,1161,1161,1161,1157,1157,1161,1157,1157,1161,1157,1157,1161,1161,1161,1161,1161,1161,1157,1157,1157,1157,1157,1157,1157,1153,1153,1153,1153,1153,1153,1153,1149,1149,1149,1149,1149,1149,1149,1149,1145,1145,1145,1145,1145,1145,1145,1145,1145,1145,1141,1141,1145,1141,1141,1141,1141,1141,1141,1138,1138,1138,1138,1138,1138,1138,1138,1138,1138,1141,1138,1138,1138,1138,1138,1138,1138,1138,1138,1138,1138,1138,1138,1141,1141,1145,1145,1149,998,995,995,992,989,989,989,989,987,987,987,948,948,948,946,940,938,938,938,933,933,933,933,933,933,933,933,933,933,933,933,933,933,933,933,933,935,935,935,938,0,0,0,0,0,0,0,0,0,0,0,0,0,0,0,0,0,0,0,0,0,0,0,0,0,0,0,0,0,0,0,0,0,0
0,0,0,0,0,0,0,0,0,1283,1278,1278,1278,1278,1273,1273,1268,1268,1268,1268,1273,1273,1273,1273,1273,1273,1273,1268,1268,1268,1268,1268,1268,1268,1268,1268,1268,1273,1273,1273,1273,1273,1273,1273,1273,1273,1273,1273,1273,1273,1273,1273,1273,1273,1273,1278,1273,1273,1273,1268,1268,1268,1268,1268,1268,1268,1264,1264,1264,1264,1264,1264,1264,1264,1259,1259,1259,1259,1259,1264,1264,1259,1259,1259,1259,1259,1259,1259,1259,1259,1259,1259,1259,1259,1259,1259,1259,1259,1259,1255,1255,1259,989,989,989,989,989,989,989,987,987,987,987,987,987,987,987,987,989,989,992,992,995,995,1001,1007,1010,1013,1013,1016,1019,1022,1022,1025,1025,1028,1031,1031,1034,1034,1034,1038,1038,1038,1038,1041,1241,1241,1241,1245,1241,1241,1241,1245,1245,1241,1241,1241,1241,1241,1241,1241,1241,1241,1241,1241,1241,1241,1236,1236,1241,1241,1236,1236,1236,1236,1236,1236,1232,1232,1232,1232,1232,1232,1232,1232,1232,1236,1232,1232,1232,1232,1232,1232,1232,1232,1232,1232,1232,1232,1232,1232,1232,1232,1232,1232,1232,1232,1232,1232,1232,1232,1232,1227,1227,1227,1227,1223,1223,1214,1214,0,0,0,0,0,0,0,0,0,0,741,738,736,736,734,733,733,731,730,728,727,723,723,722,722,722,723,723,725,728,731,731,733,734,736,738,739,742,744,746,747,747,747,0,0,0,0,0,0,0,1219,1219,1214,1202,1202,1202,1013,1013,1013,1013,1010,1010,1007,1004,1001,1001,998,998,992,992,989,989,987,984,981,981,978,978,978,975,975,975,973,970,970,967,967,967,967,967,967,967,967,964,964,962,962,962,962,959,959,956,956,956,956,956,956,956,956,956,956,956,956,956,956,959,959,962,964,964,967,973,975,978,981,981,984,987,984,984,989,1189,1189,1189,1189,1189,1185,1185,1185,1185,1185,1185,1189,1189,1189,1185,1185,1185,1185,1134,1134,1134,1134,1134,1130,1130,1126,1123,1123,1123,1123,1123,1123,1123,1123,1126,1126,1130,1181,1181,1181,1181,1181,1181,1177,1177,1177,1177,1177,1177,1177,1177,1177,1177,1177,1177,1177,1177,1177,1177,1173,1173,1173,1173,1173,1173,1169,1169,1169,1169,1169,1169,1169,1169,1169,1173,1169,1169,1173,1173,1173,1169,1169,1169,1169,1169,1169,1169,1169,1169,1169,1169,1169,1169,1169,1169,1169,1169,1169,1169,1169,1169,1165,1165,1165,1165,1165,1165,1165,1161,1161,1161,1161,1161,1161,1161,1161,1161,1161,1161,1161,1161,1161,1161,1157,1157,1157,1157,1157,1157,1153,1153,1153,1153,1149,1149,1153,1153,1153,1153,1157,1157,1157,1157,1153,1153,1153,1153,1153,1153,1153,1153,1153,1153,1149,1149,1149,1149,1149,1149,1149,1149,1149,1149,1149,1149,1145,1145,1145,1145,1145,1145,1145,1141,1141,1141,1141,1138,1138,1138,1138,1138,1138,1138,1138,1138,1138,1138,1134,1134,1134,1134,1134,1134,1134,1134,1138,1138,1138,1138,1138,1138,1138,1134,1134,1134,1134,1134,1134,1138,1138,1138,1141,1141,998,998,995,995,992,992,992,989,989,989,989,989,0,948,948,946,940,938,938,938,933,933,933,933,930,930,933,933,930,930,930,933,933,933,933,933,933,935,935,935,938,0,0,0,0,0,0,0,0,0,0,0,0,0,0,0,0,0,0,0,0,0,0,0,0,0,0,0,0,0,0,0,0,0,0
0,0,0,0,0,0,0,0,0,1278,1278,1273,1273,1268,1268,1268,1268,1264,1264,1264,1268,1268,1268,1268,1268,1268,1268,1268,1268,1268,1268,1264,1264,1264,1264,1264,1264,1264,1264,1264,1264,1268,1268,1268,1268,1273,1273,1268,1268,1268,1268,1268,1268,1268,1268,1273,1268,1268,1268,1268,1268,1264,1264,1264,1264,1264,1264,1264,1264,1264,1264,1264,1259,1259,1259,1259,1259,1259,1259,1259,1259,1259,1259,1259,1259,1259,1259,1259,1259,1259,1259,1259,1259,1259,1255,1255,1259,1259,1255,1250,1250,1250,1250,1250,992,992,992,992,989,989,989,987,987,987,987,987,987,987,989,989,992,995,995,998,1001,1007,1010,1013,1013,1016,1019,1022,1022,1025,1025,1028,1031,1031,1034,1034,1034,1038,1038,1038,1038,1236,1236,1236,1241,1241,1241,1241,1241,1241,1241,1241,1236,1236,1236,1236,1236,1236,1236,1241,1236,1236,1236,1236,1236,1236,1236,1232,1232,1232,1232,1232,1232,1232,1232,1232,1232,1232,1232,1227,1227,1232,1232,1232,1232,1232,1232,1232,1227,1227,1227,1227,1227,1227,1227,1227,1227,1227,1227,1232,1232,1232,1232,1232,1232,1227,1227,1227,1227,1227,1227,1223,1223,1223,1219,1219,0,0,0,0,0,0,0,0,0,0,0,741,741,738,738,736,734,733,733,731,731,728,725,723,723,723,723,723,725,727,728,731,733,733,734,736,739,741,742,744,746,747,749,749,0,0,0,0,0,0,1214,1214,1214,1210,1202,1202,1202,1202,1197,1013,1013,1010,1010,1007,1004,1001,1001,998,998,995,992,992,989,987,987,984,981,981,978,978,978,975,975,973,970,967,967,967,964,964,967,967,964,964,962,962,962,962,959,959,959,956,956,954,954,954,954,954,954,954,954,954,954,956,956,956,956,959,962,964,964,967,973,975,978,981,981,984,987,984,984,1189,1189,1185,1185,1185,1185,1185,1185,1185,1185,1185,1185,1185,1185,1181,1181,1181,1181,1177,1138,1138,1138,1134,1134,1130,1130,1126,1123,1123,1123,1123,1123,1123,1123,1126,1126,1130,1134,1149,1177,1177,1177,1177,1177,1177,1173,1173,1173,1173,1173,1173,1173,1173,1173,1173,1173,1173,1173,1169,1169,1169,1169,1169,1169,1169,1169,1169,1169,1169,1169,1169,1169,1169,1169,1165,1165,1165,1165,1169,1169,1169,1169,1169,1169,1169,1169,1169,1169,1165,1165,1169,1169,1169,1169,1169,1169,1165,1165,1165,1165,1165,1165,1165,1165,1165,1165,1161,1161,1161,1161,1161,1157,1157,1161,1161,1161,1161,1161,1161,1161,1161,1157,1157,1157,1157,1157,1157,1157,1153,1153,1153,1153,1153,1149,1149,1149,1149,1149,1149,1153,1153,1153,1153,1153,1153,1153,1153,1149,1149,1149,1149,1149,1149,1145,1145,1145,1145,1145,1145,1145,1145,1145,1145,1145,1145,1145,1145,1141,1141,1141,1141,1141,1141,1138,1138,1138,1138,1138,1134,1134,1134,1134,1134,1134,1134,1134,1134,1134,1134,1134,1134,1134,1130,1130,1130,1130,1134,1130,1130,1130,1134,1134,1134,1134,1134,1134,1130,1130,1134,1134,1138,1138,1141,1141,1004,1001,998,998,998,995,992,992,989,989,989,0,0,948,948,946,940,940,940,938,933,933,933,930,930,930,930,930,930,930,930,930,930,933,933,933,933,935,935,935,938,0,0,0,0,0,0,0,0,0,0,0,0,0,0,0,0,0,0,0,0,0,0,0,0,0,0,0,0,0,0,0,0,0,0
0,0,0,0,0,0,0,0,0,1278,1268,1268,1264,1264,1264,1264,1264,1264,1264,1264,1264,1268,1268,1268,1268,1268,1264,1264,1264,1264,1264,1264,1264,1264,1259,1259,1255,1255,1255,1259,1259,1259,1259,1264,1264,1268,1268,1268,1268,1264,1264,1264,1264,1264,1264,1264,1268,1268,1264,1264,1264,1259,1259,1259,1259,1259,1259,1259,1259,1259,1259,1259,1259,1259,1255,1255,1255,1255,1255,1255,1255,1250,1250,1255,1255,1255,1255,1255,1255,1255,1255,1255,1255,1255,1255,1255,1255,1250,1250,1250,1245,1245,1245,1245,992,992,992,992,992,989,989,989,989,987,987,987,987,989,989,992,995,995,998,998,1004,1007,1010,1013,1013,1016,1019,1022,1022,1025,1028,1031,1031,1034,1034,1034,1034,1038,1232,1227,1227,1232,1232,1236,1236,1236,1236,1236,1236,1236,1236,1236,1232,1232,1232,1232,1232,1232,1232,1232,1232,1232,1232,1232,1232,1232,1232,1232,1232,1232,1227,1227,1227,1227,1227,1227,1227,1227,1227,1227,1227,1227,1227,1227,1227,1227,1227,1223,1223,1223,1223,1223,1223,1219,1219,1223,1227,1227,1227,1227,1227,1227,1227,1227,1227,1227,1227,1227,1223,1223,1223,1223,1223,1219,1219,1219,0,0,0,0,0,0,0,0,0,0,0,744,742,741,739,738,736,734,734,733,731,730,728,727,723,723,723,725,725,727,730,731,733,734,734,736,739,741,744,746,747,749,749,750,0,0,0,0,0,0,1214,1214,1214,1202,1202,1202,1202,1202,1197,1197,1193,1193,1010,1007,1004,1001,1001,998,998,995,995,992,989,989,987,987,984,981,981,978,978,975,975,973,970,967,967,967,964,964,967,964,964,962,962,962,959,959,959,959,956,956,954,954,951,951,951,951,951,951,951,951,954,954,954,956,956,959,962,964,964,970,975,978,978,981,981,984,987,987,1185,1185,1185,1185,1185,1185,1185,1185,1185,1181,1181,1181,1181,1181,1181,1181,1177,1177,1173,1173,1141,1138,1138,1134,1134,1134,1130,1126,1123,1123,1123,1123,1123,1123,1126,1130,1134,1134,1138,1149,1165,1169,1177,1177,1177,1173,1173,1173,1173,1173,1173,1173,1169,1169,1169,1169,1169,1169,1169,1169,1169,1165,1165,1165,1165,1165,1165,1165,1165,1165,1165,1165,1165,1165,1165,1165,1165,1165,1165,1165,1165,1165,1169,1169,1169,1169,1169,1165,1165,1165,1165,1165,1165,1165,1165,1165,1165,1165,1161,1161,1161,1161,1161,1157,1157,1161,1161,1157,1157,1157,1157,1157,1157,1157,1157,1157,1157,1157,1157,1157,1157,1157,1153,1153,1153,1153,1153,1153,1153,1153,1153,1149,1149,1149,1149,1149,1145,1145,1145,1145,1145,1145,1145,1145,1149,1149,1149,1149,1149,1145,1145,1145,1145,1145,1141,1141,1141,1141,1141,1141,1141,1145,1145,1145,1141,1141,1141,1141,1138,1138,1138,1138,1138,1138,1138,1138,1138,1134,1134,1134,1134,1134,1134,1130,1130,1134,1134,1134,1134,1130,1130,1130,1130,1126,1126,1126,1126,1130,1126,1126,1126,1126,1126,1126,1130,1130,1126,1126,1130,1130,1130,1134,1138,1004,1004,1004,1004,1001,1001,1001,1001,998,995,995,995,995,0,0,948,948,946,943,940,940,938,933,933,930,930,928,928,930,930,930,930,930,930,930,933,933,933,933,935,935,935,938,0,0,0,0,0,0,0,0,0,0,0,0,0,0,0,0,0,0,0,0,0,0,0,0,0,0,0,0,0,0,0,0,0,0
0,0,0,0,0,0,0,0,0,0,1264,1264,1264,1264,1264,1264,1264,1259,1259,1259,1259,1264,1264,1259,1259,1264,1264,1264,1264,1264,1264,1259,1259,1259,1255,1255,1255,1255,1255,1255,1255,1255,1255,1259,1264,1259,1259,1259,1259,1259,1255,1255,1259,1259,1259,1259,1259,1264,1259,1259,1259,1250,1250,1259,1259,1259,1259,1259,1259,1255,1255,1255,1255,1255,1250,1250,1250,1250,1250,1250,1250,1250,1250,1250,1250,1250,1250,1250,1250,1250,1250,1250,1250,1250,1250,1245,1245,1245,1245,1245,1245,1245,1245,1245,1245,1245,992,992,992,989,989,989,989,989,989,989,989,989,992,995,995,995,998,1001,1004,1010,1010,1013,1013,1016,1019,1022,1022,1025,1025,1031,1031,1034,1034,1034,1227,1227,1227,1227,1227,1232,1232,1232,1232,1232,1232,1232,1232,1236,1232,1232,1232,1232,1227,1227,1227,1227,1227,1227,1227,1227,1232,1232,1227,1227,1227,1227,1227,1227,1223,1223,1223,1223,1223,1223,1223,1219,1219,1223,1223,1223,1227,1227,1227,1227,1227,1223,1219,1219,1219,1219,1219,1214,1214,1219,1219,1219,1219,1223,1223,1223,1223,1223,1223,1223,1223,1223,1219,1219,1219,1214,1214,1214,1210,1210,0,0,0,0,0,0,0,0,0,0,0,0,742,741,739,738,738,736,734,733,733,731,730,727,725,725,725,727,727,728,731,733,733,734,736,738,739,741,744,746,747,749,750,750,752,0,0,0,0,0,0,1214,1202,1202,1197,1197,1197,1197,1197,1197,1197,1193,1193,1193,1193,1004,1001,1001,998,995,995,995,989,989,989,987,987,984,984,981,978,978,975,975,970,967,967,967,964,964,967,964,964,962,959,959,959,959,956,956,954,954,951,951,951,948,948,948,948,948,948,948,951,951,954,954,956,959,962,964,964,970,975,978,978,981,981,981,981,1181,1181,1181,1181,1181,1181,1181,1181,1181,1181,1181,1181,1181,1177,1177,1181,1177,1173,1173,1169,1161,1141,1141,1138,1138,1134,1134,1134,1130,1126,1126,1123,1123,1126,1126,1126,1134,1134,1138,1141,1153,1157,1165,1169,1169,1169,1169,1169,1169,1169,1169,1169,1169,1169,1169,1169,1165,1165,1165,1165,1165,1165,1165,1165,1165,1165,1165,1161,1161,1161,1161,1165,1165,1165,1165,1165,1165,1165,1161,1161,1161,1161,1161,1161,1161,1161,1161,1165,1165,1161,1161,1161,1161,1161,1161,1161,1161,1161,1161,1161,1161,1161,1157,1157,1153,1153,1157,1157,1157,1157,1157,1157,1157,1153,1153,1153,1153,1153,1153,1153,1153,1153,1153,1153,1153,1153,1149,1149,1149,1149,1149,1145,1145,1149,1145,1145,1145,1145,1145,1145,1145,1145,1141,1141,1141,1141,1141,1141,1141,1141,1141,1141,1141,1141,1141,1141,1138,1138,1138,1138,1138,1138,1138,1138,1141,1138,1138,1138,1138,1138,1138,1138,1138,1134,1134,1134,1134,1134,1134,1130,1130,1130,1130,1130,1130,1130,1130,1130,1130,1130,1130,1130,1130,1126,1123,1123,1123,1123,1126,1123,1123,1123,1123,1123,1123,1123,1123,1123,1126,1001,1001,1004,1004,1004,1004,1004,1004,1004,1004,1004,1004,1004,1001,1001,998,998,998,998,0,946,946,946,943,940,938,933,930,930,930,930,928,928,930,930,930,930,930,930,930,933,933,933,933,935,935,935,938,0,0,0,0,0,0,0,0,0,0,0,0,0,0,0,0,0,0,0,0,0,0,0,0,0,0,0,0,0,0,0,0,0,0
0,0,0,0,0,0,0,0,0,0,1264,1259,1259,1259,1259,1259,1259,1259,1259,1259,1259,1259,1259,1255,1255,1259,1259,1259,1259,1259,1259,1255,1255,1255,1255,1255,1250,1250,1250,1250,1250,1250,1255,1255,1259,1255,1255,1255,1255,1255,1250,1250,1255,1255,1255,1255,1255,1255,1250,1250,1250,1250,1250,1250,1250,1250,1250,1255,1255,1250,1250,1250,1250,1250,1250,1250,1250,1250,1250,1250,1250,1245,1245,1250,1250,1245,1245,1245,1245,1250,1245,1245,1250,1250,1245,1245,1241,1241,1245,1245,1241,1241,1241,1245,0,0,0,992,992,992,992,992,992,989,989,989,989,992,995,995,995,998,998,1001,1004,1010,1010,1013,1013,1016,1019,1022,1025,1025,1025,1031,1034,1034,1223,1223,1227,1227,1227,1227,1227,1227,1227,1232,1232,1232,1232,1232,1232,1232,1232,1232,1227,1227,1223,1223,1223,1227,1227,1227,1227,1227,1227,1227,1227,1227,1227,1227,1227,1223,1223,1223,1219,1219,1219,1219,1219,1219,1219,1214,1214,1219,1219,1223,1223,1227,1223,1219,1219,1214,1214,1214,1214,1214,1214,1214,1214,1214,1214,1219,1219,1219,1219,1219,1219,1219,1219,1219,1214,1214,1214,1214,1214,1210,1210,1206,1206,0,0,0,0,0,0,0,0,0,0,0,0,742,741,739,738,738,736,734,733,733,731,727,727,727,727,727,728,730,731,733,734,734,736,738,739,741,744,746,747,749,750,752,752,0,0,0,0,0,0,0,1202,1197,1197,1197,1197,1197,1197,1193,1193,1193,1193,1193,1193,1193,1193,1001,998,998,998,995,989,989,989,987,987,987,984,981,981,978,978,975,973,970,967,967,967,967,967,964,964,962,959,959,959,956,954,954,951,951,951,948,948,948,948,948,948,948,948,948,948,951,954,954,956,959,962,967,967,970,975,978,978,981,981,981,981,1177,1177,1177,1181,1181,1177,1177,1177,1177,1177,1177,1177,1173,1173,1173,1173,1173,1173,1169,1169,1161,1149,1141,1138,1138,1138,1134,1134,1130,1130,1126,1126,1126,1126,1126,1134,1138,1138,1141,1145,1153,1157,1161,1165,1165,1165,1169,1169,1169,1169,1169,1169,1169,1165,1165,1165,1165,1161,1161,1161,1161,1161,1161,1161,1161,1161,1161,1161,1161,1161,1161,1161,1161,1161,1161,1161,1161,1161,1157,1157,1157,1161,1161,1157,1157,1161,1161,1161,1157,1157,1157,1157,1157,1157,1157,1157,1157,1157,1157,1157,1157,1157,1153,1153,1153,1153,1153,1153,1153,1153,1153,1153,1153,1153,1153,1153,1153,1153,1153,1153,1153,1153,1153,1149,1149,1149,1149,1145,1145,1145,1145,1141,1141,1141,1141,1141,1141,1141,1141,1141,1141,1141,1141,1141,1141,1141,1141,1138,1138,1138,1141,1141,1141,1138,1138,1138,1138,1138,1138,1138,1138,1138,1134,1134,1138,1134,1134,1134,1134,1134,1134,1134,1134,1134,1134,1134,1134,1130,1130,1130,1126,1126,1126,1126,1126,1126,1126,1126,1126,1126,1126,1126,1123,1123,1123,1123,1123,1123,1123,1119,1119,1119,1119,1119,1119,1119,1119,1119,1001,1001,1001,1004,1004,1004,1004,1004,1004,1004,1004,1004,1004,1004,1004,1001,1001,998,998,998,992,992,992,943,943,938,938,933,930,930,930,928,928,928,928,928,930,930,930,930,930,933,933,933,935,935,935,935,938,0,0,0,0,0,0,0,0,0,0,0,0,0,0,0,0,0,0,0,0,0,0,0,0,0,0,0,0,0,0,0,0,0,0
0,0,0,0,0,0,0,0,0,0,1255,1255,1259,1259,1259,1259,1259,1255,1255,1255,1255,1255,1255,1255,1255,1255,1255,1255,1255,1255,1255,1255,1255,1250,1250,1250,1250,1250,1250,1250,1250,1250,1250,1250,1250,1250,1255,1255,1250,1250,1250,1250,1250,1250,1250,1250,1250,1250,1250,1245,1245,1245,1245,1245,1245,1245,1245,1250,1250,1250,1250,1250,1250,1250,1245,1245,1245,1245,1245,1245,1245,1245,1245,1245,1241,1241,1241,1241,1241,1241,1241,1241,1241,1245,1241,1241,1236,1236,1236,1236,1232,1232,1232,1232,1232,0,0,995,995,995,995,995,992,989,989,992,992,992,995,995,998,998,998,1001,1004,1010,1013,1013,1013,1016,1019,1022,1025,1025,1025,1210,1210,1214,1223,1223,1227,1227,1227,1227,1227,1227,1227,1227,1227,1227,1227,1227,1227,1227,1227,1227,1227,1223,1223,1223,1223,1223,1223,1223,1223,1223,1227,1227,1227,1227,1227,1227,1223,1223,1219,1219,1219,1219,1219,1214,1214,1214,1214,1214,1214,1214,1214,1214,1214,1214,1219,1214,1214,1214,1214,1214,1214,1210,1210,1214,1214,1214,1214,1214,1214,1214,1214,1214,1214,1214,1214,1214,1214,1214,1214,1210,1210,1210,1210,1206,1206,0,0,0,0,0,0,0,0,0,0,0,0,742,742,741,741,739,738,736,734,733,731,728,728,728,728,728,728,730,731,733,734,736,736,739,739,742,744,747,749,750,752,752,754,0,0,0,0,0,0,0,1197,1197,1193,1193,1193,1193,1193,1193,1193,1193,1193,1193,1193,1193,1189,1189,1189,1185,1185,1185,992,989,989,987,987,987,984,984,984,981,978,975,975,973,973,967,967,967,967,967,962,959,959,959,959,956,954,951,951,948,948,948,946,946,946,946,946,946,946,946,948,948,951,951,954,959,962,967,967,970,978,978,978,981,981,981,1173,1169,1169,1173,1177,1177,1177,1173,1173,1173,1173,1173,1173,1169,1169,1169,1169,1169,1169,1169,1165,1161,1157,1149,1141,1138,1138,1134,1134,1134,1130,1130,1130,1130,1130,1130,1134,1138,1141,1145,1149,1153,1157,1161,1161,1161,1165,1165,1165,1165,1165,1165,1165,1165,1165,1165,1161,1161,1157,1157,1157,1157,1157,1161,1157,1157,1157,1157,1157,1157,1157,1157,1157,1157,1157,1157,1157,1157,1157,1157,1157,1157,1157,1157,1153,1153,1157,1157,1157,1153,1153,1153,1153,1153,1153,1153,1153,1153,1153,1153,1153,1153,1153,1153,1153,1149,1149,1149,1149,1153,1153,1153,1153,1153,1153,1153,1149,1149,1149,1149,1149,1149,1149,1149,1149,1145,1145,1145,1141,1141,1141,1141,1141,1141,1141,1138,1138,1138,1138,1138,1138,1138,1138,1138,1138,1138,1138,1138,1138,1138,1138,1138,1134,1134,1134,1138,1134,1134,1134,1134,1134,1134,1134,1134,1134,1134,1134,1134,1130,1126,1126,1130,1130,1130,1130,1130,1130,1130,1130,1126,1126,1126,1126,1126,1126,1126,1126,1126,1126,1126,1123,1123,1123,1123,1123,1119,1119,1119,1119,1119,1119,1119,1119,1119,1115,1115,1115,1115,1115,1001,1001,1001,1004,1004,1004,1004,1004,1004,1007,1007,1004,1004,1004,1004,1001,1001,998,998,995,992,992,992,992,938,938,935,930,930,930,928,928,928,928,928,928,930,930,930,930,930,933,933,933,935,935,935,935,938,0,0,0,0,0,0,0,0,0,0,0,0,0,0,0,0,0,0,0,0,0,0,0,0,0,0,0,0,0,0,0,0,0,0
0,0,0,0,0,0,0,0,0,1250,1250,1250,1255,1255,1255,1255,1255,1250,1250,1250,1250,1250,1250,1245,1245,1245,1250,1250,1250,1250,1250,1250,1250,1250,1250,1250,1245,1245,1250,1250,1250,1250,1245,1245,1250,1250,1250,1250,1250,1250,1250,1245,1245,1250,1245,1245,1245,1245,1241,1241,1241,1241,1241,1245,1245,1245,1245,1250,1250,1250,1250,1250,1250,1250,1245,1245,1245,1245,1245,1245,1245,1241,1241,1245,1241,1241,1236,1236,1236,1236,1236,1236,1236,1236,1236,1236,1232,1232,1236,1236,1232,1232,1232,1232,1232,1227,0,0,998,998,998,998,995,992,992,995,995,995,995,995,998,998,1001,1004,1004,1010,1010,1013,1013,1016,1016,1019,1022,1025,1214,1210,1210,1214,1223,1223,1227,1227,1223,1223,1223,1223,1223,1223,1223,1223,1223,1223,1223,1227,1223,1223,1223,1223,1219,1219,1219,1219,1223,1223,1223,1223,1223,1223,1219,1214,1214,1214,1214,1214,1214,1214,1214,1214,1214,1214,1214,1214,1214,1214,1214,1214,1210,1210,1210,1214,1214,1210,1210,1210,1210,1210,1210,1210,1210,1210,1210,1210,1210,1210,1210,1210,1210,1210,1214,1214,1210,1210,1210,1210,1210,1210,1206,1206,1206,1206,1206,0,0,0,0,0,0,0,0,0,0,0,0,0,742,741,741,739,739,739,738,736,734,731,728,728,728,728,730,731,733,734,734,736,738,739,739,742,746,747,749,752,752,754,754,0,0,0,0,0,0,0,1193,1193,1193,1193,1193,1189,1189,1189,1189,1189,1189,1189,1189,1189,1185,1185,1185,1185,1185,1181,1181,989,989,989,987,987,987,984,984,981,978,978,975,975,973,973,970,970,970,967,962,959,959,959,956,951,951,948,946,946,946,946,946,943,943,943,943,943,946,946,948,948,948,951,954,959,962,964,967,973,975,978,978,978,978,1169,1169,1169,1169,1169,1173,1169,1169,1169,1169,1169,1169,1169,1169,1169,1169,1165,1165,1165,1165,1165,1165,1157,1157,1153,1145,1141,1138,1138,1138,1134,1134,1134,1130,1130,1130,1134,1134,1138,1141,1145,1149,1153,1157,1157,1157,1157,1157,1161,1161,1161,1161,1161,1165,1165,1161,1161,1157,1157,1153,1153,1153,1153,1157,1157,1157,1157,1157,1157,1157,1153,1153,1153,1153,1157,1153,1153,1153,1157,1153,1153,1153,1153,1153,1153,1153,1153,1153,1153,1153,1149,1149,1149,1149,1149,1149,1149,1149,1149,1153,1153,1149,1149,1149,1149,1149,1149,1145,1145,1149,1149,1149,1149,1149,1149,1149,1149,1149,1145,1145,1145,1145,1145,1145,1145,1145,1145,1141,1141,1138,1138,1138,1138,1138,1138,1138,1138,1138,1138,1138,1138,1138,1134,1134,1134,1134,1134,1134,1134,1134,1134,1134,1134,1134,1134,1134,1130,1130,1126,1126,1126,1126,1130,1130,1130,1130,1130,1130,1130,1126,1123,1123,1126,1126,1126,1126,1126,1126,1126,1126,1126,1123,1123,1123,1123,1123,1123,1123,1123,1123,1123,1123,1123,1123,1119,1119,1115,1115,1115,1115,1115,1115,1115,1115,1115,1115,1115,1115,1115,1001,1001,1001,1001,1004,1004,1007,1007,1007,1007,1007,1007,1004,1004,1004,1001,1001,1001,998,998,995,992,992,992,992,933,933,933,930,928,928,928,928,928,928,928,928,930,930,930,930,930,933,933,933,935,935,935,935,935,0,0,0,0,0,0,0,0,0,0,0,0,0,0,0,0,0,0,0,0,0,0,0,0,0,0,0,0,0,0,0,0,0,0
0,0,0,0,0,0,0,0,0,1245,1245,1250,1250,1255,1255,1250,1250,1250,1250,1245,1245,1245,1245,1241,1241,1241,1245,1245,1245,1245,1245,1245,1245,1245,1245,1245,1245,1245,1245,1245,1245,1245,1245,1245,1245,1245,1245,1245,1245,1245,1245,1245,1245,1245,1241,1241,1236,1236,1236,1241,1241,1241,1241,1241,1245,1245,1245,1245,1245,1245,1245,1245,1245,1245,1241,1241,1241,1241,1241,1241,1241,1236,1236,1236,1236,1236,1232,1232,1232,1232,1232,1232,1232,1232,1232,1232,1232,1232,1232,1232,1232,1227,1227,1227,1227,1227,0,0,1001,1001,1001,998,998,995,995,995,995,995,998,998,998,1001,1001,1004,1004,1010,1010,1013,1013,1013,1016,1019,1022,1214,1214,1214,1214,1223,1223,1223,1223,1223,1223,1223,1223,1223,1223,1223,1219,1219,1219,1219,1219,1219,1219,1219,1219,1219,1219,1219,1219,1219,1219,1219,1219,1219,1214,1214,1214,1214,1214,1214,1210,1210,1214,1214,1214,1214,1214,1214,1214,1214,1214,1210,1210,1210,1210,1206,1206,1210,1210,1210,1210,1210,1210,1210,1210,1210,1210,1210,1210,1210,1210,1210,1210,1210,1210,1210,1210,1210,1210,1210,1210,1210,1210,1206,1206,1206,1206,1206,1202,1202,0,0,0,0,0,0,0,0,0,0,0,0,742,742,741,741,739,739,739,738,736,733,731,731,731,730,730,731,733,734,736,736,738,739,741,742,746,747,750,752,752,754,755,0,0,0,0,0,0,0,1193,1193,1189,1189,1189,1189,1189,1189,1189,1185,1185,1185,1185,1185,1185,1185,1185,1181,1181,1181,1181,1181,1181,1181,987,987,987,984,984,981,978,978,975,975,975,973,973,973,970,967,964,962,959,959,948,946,940,940,938,938,938,943,940,940,940,940,940,940,943,943,948,948,948,951,956,962,964,964,967,973,975,975,978,978,1169,1169,1169,1169,1169,1169,1169,1169,1169,1169,1169,1169,1169,1169,1169,1165,1165,1165,1165,1165,1165,1165,1161,1157,1157,1153,1149,1141,1141,1138,1138,1138,1138,1134,1134,1134,1134,1134,1138,1141,1141,1149,1149,1153,1153,1153,1157,1157,1157,1157,1157,1157,1157,1157,1161,1161,1157,1157,1153,1153,1153,1153,1153,1153,1153,1153,1153,1153,1153,1153,1153,1153,1153,1153,1153,1153,1153,1153,1153,1153,1153,1153,1153,1153,1153,1153,1149,1149,1149,1149,1149,1145,1145,1145,1145,1149,1149,1149,1149,1149,1145,1145,1145,1145,1149,1145,1145,1145,1145,1145,1145,1145,1149,1149,1149,1149,1145,1145,1145,1141,1141,1141,1141,1141,1141,1141,1141,1141,1141,1138,1138,1138,1138,1138,1138,1138,1138,1134,1134,1134,1134,1134,1134,1134,1134,1134,1134,1134,1134,1134,1134,1130,1130,1134,1130,1130,1130,1130,1126,1126,1126,1123,1123,1126,1126,1126,1126,1126,1126,1123,1123,1123,1123,1123,1123,1123,1123,1123,1123,1123,1123,1123,1123,1123,1123,1123,1123,1123,1123,1123,1123,1119,1119,1119,1119,1115,1115,1112,1112,1115,1112,1112,1112,1112,1112,1112,1108,1108,1112,1112,1001,1001,1001,1004,1004,1007,1007,1007,1007,1007,1007,1007,1004,1004,1004,1001,1001,998,998,998,995,992,992,992,995,930,930,930,928,928,928,928,928,928,928,928,930,930,930,930,930,930,930,930,933,933,933,935,935,935,0,0,0,0,0,0,0,0,0,0,0,0,0,0,0,0,0,0,0,0,0,0,0,0,0,0,0,0,0,0,0,0,0,0
0,0,0,0,0,0,0,0,0,1245,1245,1250,1250,1250,1250,1250,1250,1250,1245,1245,1245,1245,1245,1241,1241,1241,1245,1245,1245,1245,1245,1245,1245,1245,1245,1245,1245,1241,1241,1245,1241,1241,1241,1236,1236,1241,1241,1241,1245,1245,1245,1241,1241,1241,1236,1236,1236,1232,1232,1232,1232,1232,1236,1236,1241,1241,1241,1245,1241,1241,1241,1241,1241,1241,1236,1236,1236,1236,1236,1236,1236,1236,1236,1236,1232,1232,1232,1227,1227,1232,1232,1232,1232,1232,1232,1227,1227,1227,1227,1227,1227,1227,1223,1223,1223,1223,1214,1210,1001,1001,1001,1001,998,998,998,998,998,998,998,998,998,1001,1001,1004,1007,1010,1010,1013,1013,1013,1016,1016,1019,1214,1214,1214,1214,1219,1219,1219,1219,1219,1219,1214,1214,1219,1219,1219,1219,1219,1214,1214,1214,1214,1214,1214,1214,1214,1214,1214,1214,1214,1214,1214,1214,1214,1214,1214,1214,1214,1214,1210,1210,1210,1210,1210,1210,1210,1210,1210,1210,1210,1210,1210,1210,1210,1206,1206,1206,1206,1206,1206,1206,1206,1206,1206,1206,1206,1206,1206,1206,1206,1210,1206,1206,1206,1206,1206,1206,1206,1202,1202,1202,1206,1202,1202,1202,1202,1202,1202,1197,1197,1202,0,0,0,0,0,0,0,0,0,0,0,0,744,742,741,741,739,739,738,738,734,733,731,731,731,731,733,734,734,736,736,738,739,741,744,747,749,750,752,752,754,755,757,0,0,0,0,0,0,1189,1189,1189,1185,1185,1185,1185,1185,1185,1185,1181,1181,1185,1181,1181,1181,1181,1181,1181,1181,1177,1177,1177,1177,1177,1177,1177,1177,1181,981,981,978,975,975,975,975,973,973,973,970,967,962,959,946,938,938,935,935,935,935,935,935,935,935,935,938,938,938,940,940,946,948,948,951,959,964,964,964,967,973,975,975,978,1169,1169,1169,1169,1165,1165,1169,1165,1165,1165,1165,1165,1165,1165,1165,1165,1165,1165,1165,1165,1165,1165,1161,1157,1157,1153,1153,1149,1145,1141,1141,1141,1138,1138,1138,1138,1138,1138,1138,1138,1141,1141,1149,1149,1153,1153,1153,1153,1153,1153,1153,1153,1153,1153,1153,1157,1153,1153,1153,1153,1153,1149,1149,1149,1153,1153,1153,1153,1153,1153,1153,1149,1149,1149,1149,1149,1149,1145,1145,1145,1145,1145,1145,1145,1145,1149,1149,1149,1145,1145,1145,1141,1141,1141,1141,1141,1145,1145,1145,1145,1145,1141,1141,1141,1141,1141,1138,1138,1141,1141,1141,1141,1141,1141,1141,1145,1145,1141,1141,1141,1138,1138,1138,1138,1138,1138,1138,1138,1138,1138,1138,1134,1134,1134,1134,1134,1134,1134,1134,1134,1134,1134,1134,1134,1130,1130,1130,1130,1130,1130,1126,1126,1126,1126,1126,1126,1126,1126,1126,1126,1123,1123,1123,1123,1123,1123,1123,1123,1123,1123,1123,1119,1119,1119,1119,1119,1119,1119,1119,1119,1119,1119,1119,1119,1119,1119,1123,1119,1119,1119,1119,1119,1119,1115,1115,1115,1112,1112,1112,1112,1112,1112,1112,1108,1108,1108,1108,1108,1108,1108,1108,1001,1001,1001,1004,1004,1007,1007,1007,1010,1010,1010,1007,1004,1004,1004,1004,1001,998,998,998,998,995,995,995,995,930,930,928,928,928,928,928,928,928,928,928,930,930,930,930,930,930,930,930,933,933,933,935,935,935,0,0,0,0,0,0,0,0,0,0,0,0,0,0,0,0,0,0,0,0,0,0,0,0,0,0,0,0,0,0,0,0,0,0
0,0,0,0,0,0,0,0,0,1245,1245,1245,1250,1250,1250,1245,1245,1245,1245,1241,1241,1241,1241,1241,1241,1241,1241,1241,1241,1241,1241,1241,1241,1241,1241,1241,1241,1241,1241,1241,1241,1236,1236,1236,1236,1241,1236,1236,1241,1241,1241,1241,1236,1236,1236,1232,1232,1232,1232,1227,1227,1232,1236,1236,1236,1236,1236,1236,1236,1236,1232,1232,1236,1236,1232,1232,1232,1232,1232,1232,1232,1232,1232,1232,1232,1232,1227,1227,1227,1227,1227,1227,1227,1227,1227,1227,1223,1223,1227,1227,1223,1223,1223,1219,1219,1214,1214,1210,1007,1004,1001,1001,1001,998,998,998,998,998,998,998,1001,1001,1004,1007,1010,1010,1010,1013,1013,1013,1016,1016,1019,1210,1210,1210,1210,1214,1214,1214,1214,1214,1214,1214,1214,1214,1214,1219,1214,1214,1214,1214,1214,1214,1210,1210,1210,1214,1214,1214,1214,1214,1214,1214,1214,1214,1214,1210,1210,1214,1210,1210,1210,1210,1210,1210,1210,1210,1210,1210,1210,1210,1210,1206,1206,1206,1206,1202,1202,1202,1202,1206,1206,1206,1206,1206,1206,1206,1206,1206,1206,1206,1202,1202,1202,1202,1202,1202,1202,1202,1202,1202,1202,1202,1202,1202,1202,1202,1197,1197,1197,1197,1197,0,0,0,0,0,0,0,0,0,0,746,746,746,744,742,741,741,739,739,738,736,734,733,733,733,733,734,734,736,738,739,739,741,741,746,747,749,750,752,754,754,757,757,0,0,0,0,0,1189,1189,1185,1185,1181,1181,1181,1181,1181,1181,1181,1181,1181,1181,1181,1177,1177,1177,1177,1177,1177,1177,1177,1177,1177,1173,1173,1173,1177,1177,1169,981,978,978,975,975,975,975,975,975,970,967,964,962,938,935,935,935,933,933,933,933,933,933,933,935,935,935,935,938,940,946,948,948,954,962,964,964,964,967,973,975,975,1165,1165,1165,1165,1165,1165,1165,1165,1165,1161,1161,1161,1165,1165,1165,1165,1161,1161,1161,1161,1161,1161,1161,1157,1157,1153,1153,1153,1149,1149,1145,1145,1145,1141,1141,1138,1138,1138,1138,1138,1141,1145,1145,1149,1149,1149,1153,1153,1149,1149,1149,1153,1153,1153,1153,1153,1153,1153,1153,1149,1149,1149,1149,1149,1149,1149,1149,1149,1149,1149,1149,1149,1149,1149,1149,1145,1145,1145,1145,1141,1141,1141,1141,1141,1145,1145,1145,1145,1145,1145,1145,1141,1141,1141,1141,1141,1141,1141,1141,1141,1141,1138,1138,1138,1138,1138,1138,1138,1138,1138,1138,1138,1138,1138,1138,1138,1141,1141,1138,1138,1138,1138,1138,1138,1138,1138,1138,1138,1134,1134,1138,1134,1134,1134,1134,1134,1130,1130,1130,1130,1130,1130,1130,1130,1130,1130,1126,1126,1126,1126,1126,1126,1126,1126,1123,1123,1126,1123,1123,1123,1123,1123,1123,1119,1119,1123,1119,1119,1119,1119,1119,1119,1119,1119,1119,1119,1119,1115,1115,1115,1115,1115,1115,1115,1115,1115,1115,1119,1119,1119,1119,1119,1119,1115,1115,1112,1112,1112,1108,1108,1108,1108,1108,1108,1108,1108,1108,1105,1105,1105,1105,998,998,1001,1001,1004,1004,1007,1010,1010,1010,1013,1010,1010,1010,1101,1101,1101,1004,1001,1001,1001,998,995,995,998,998,998,930,928,928,928,925,925,925,928,928,928,930,930,930,930,930,930,930,930,933,933,933,935,935,935,0,0,0,0,0,0,0,0,0,0,0,0,0,0,0,0,0,0,0,0,0,0,0,0,0,0,0,0,0,0,0,0,0,0
0,0,0,0,0,0,0,0,1245,1245,1245,1245,1245,1245,1245,1241,1241,1241,1241,1236,1236,1241,1236,1236,1236,1236,1236,1236,1236,1236,1236,1236,1236,1236,1236,1241,1236,1236,1236,1236,1236,1236,1232,1232,1232,1236,1236,1236,1236,1236,1236,1236,1232,1232,1232,1232,1232,1232,1232,1227,1227,1232,1232,1232,1232,1232,1232,1232,1232,1232,1227,1227,1227,1227,1227,1227,1232,1232,1232,1232,1232,1232,1232,1232,1227,1227,1227,1223,1223,1223,1223,1227,1227,1223,1223,1223,1223,1223,1223,1223,1223,1223,1219,1219,1214,1214,1214,1210,1007,1004,1001,1001,1001,998,998,998,998,998,998,998,1001,1001,1004,1007,1010,1010,1010,1013,1013,1013,1016,1016,1019,1181,1181,1197,1210,1210,1210,1210,1210,1210,1210,1214,1214,1214,1214,1214,1214,1210,1210,1214,1210,1210,1210,1210,1210,1210,1210,1210,1210,1210,1210,1210,1210,1210,1210,1210,1210,1210,1210,1206,1206,1206,1206,1206,1206,1206,1206,1206,1206,1206,1206,1202,1202,1202,1197,1197,1197,1197,1197,1197,1202,1202,1202,1202,1202,1202,1202,1202,1202,1202,1202,1202,1197,1197,1197,1197,1197,1202,1197,1197,1197,1197,1197,1197,1197,1197,1197,1193,1189,1189,1193,0,0,0,0,0,0,0,0,0,746,746,746,746,744,742,742,741,741,739,738,736,734,733,733,733,733,734,734,736,738,739,741,742,744,747,747,749,750,752,754,754,757,757,0,0,0,0,0,1189,1181,1181,1181,1181,1177,1177,1177,1177,1177,1177,1177,1177,1177,1177,1177,1177,1177,1177,1177,1173,1173,1173,1173,1173,1173,1173,1173,1173,1169,1169,1165,978,978,978,975,975,975,975,975,973,970,964,964,933,933,933,933,930,930,930,930,930,930,930,933,935,935,935,938,940,946,951,951,956,964,964,964,967,970,970,975,1165,1165,1165,1165,1165,1165,1165,1165,1165,1161,1161,1161,1161,1161,1161,1161,1161,1161,1161,1157,1157,1157,1157,1157,1153,1153,1153,1153,1153,1149,1149,1149,1145,1145,1141,1141,1138,1138,1138,1138,1138,1141,1145,1145,1149,1149,1149,1149,1149,1149,1149,1149,1149,1149,1145,1145,1149,1149,1149,1149,1149,1149,1149,1149,1149,1149,1149,1149,1149,1149,1149,1149,1149,1149,1145,1145,1141,1141,1141,1141,1138,1138,1138,1138,1138,1138,1141,1141,1141,1141,1141,1141,1141,1138,1138,1138,1138,1138,1138,1138,1138,1138,1134,1134,1134,1134,1134,1134,1134,1134,1134,1134,1134,1134,1134,1134,1134,1138,1138,1138,1134,1134,1134,1134,1134,1134,1134,1134,1134,1134,1134,1134,1134,1130,1130,1130,1130,1126,1126,1126,1126,1126,1126,1126,1126,1126,1126,1126,1123,1123,1123,1123,1123,1123,1123,1123,1123,1123,1123,1123,1119,1119,1119,1119,1119,1119,1119,1119,1119,1119,1119,1119,1115,1115,1115,1115,1115,1115,1112,1112,1112,1112,1115,1115,1112,1112,1112,1112,1115,1115,1115,1115,1115,1115,1112,1112,1112,1108,1108,1108,1108,1108,1108,1108,1108,1108,1105,1105,1105,1105,1101,1101,998,998,1001,1001,1004,1007,1007,1010,1010,1013,1013,1013,1013,1013,1097,1101,1101,1101,1101,1101,1101,998,995,995,998,998,998,1001,928,928,925,925,925,925,928,928,928,928,930,930,930,930,930,930,930,933,933,933,935,935,935,0,0,0,0,0,0,0,0,0,0,0,0,0,0,0,0,0,0,0,0,0,0,0,0,0,0,0,0,0,0,0,0,0,0
0,0,0,0,0,0,0,0,1241,1241,1241,1241,1236,1236,1241,1236,1236,1236,1236,1236,1236,1236,1236,1236,1236,1232,1232,1232,1232,1232,1232,1232,1232,1232,1236,1236,1236,1232,1232,1236,1236,1232,1232,1232,1232,1232,1232,1232,1232,1232,1232,1232,1232,1232,1232,1232,1232,1232,1232,1232,1232,1232,1232,1232,1232,1232,1232,1232,1232,1227,1227,1227,1227,1227,1227,1227,1227,1227,1227,1227,1232,1227,1227,1227,1227,1227,1227,1223,1223,1223,1223,1223,1219,1219,1214,1214,1219,1219,1219,1219,1219,1219,1219,1219,1214,1214,1210,1210,1206,1004,1001,1001,1001,1001,998,998,998,998,998,1001,1001,1001,1004,1007,1010,1010,1013,1013,1013,1013,1016,1016,1181,1181,1177,1177,1197,1210,1210,1210,1210,1210,1210,1210,1210,1210,1210,1210,1210,1210,1210,1210,1210,1210,1206,1206,1206,1206,1210,1210,1210,1210,1210,1210,1210,1206,1206,1206,1206,1206,1206,1202,1202,1202,1197,1197,1197,1197,1197,1202,1202,1202,1202,1197,1197,1197,1197,1193,1193,1193,1193,1197,1197,1197,1197,1197,1197,1197,1197,1197,1197,1197,1197,1197,1193,1193,1193,1193,1193,1193,1193,1193,1193,1197,1197,1197,1197,1197,1193,1189,1185,1185,1189,0,0,0,0,0,0,0,0,0,746,746,746,746,746,744,742,741,741,739,739,738,734,734,734,734,734,734,734,736,738,739,741,744,746,747,749,750,752,754,754,754,757,757,0,0,0,0,0,1169,1169,1169,1173,1173,1173,1177,1177,1177,1177,1177,1177,1173,1173,1173,1173,1173,1173,1173,1173,1173,1169,1169,1169,1169,1169,1169,1169,1169,1169,1165,1165,1165,978,978,978,978,975,975,978,973,970,967,928,928,930,930,930,928,928,928,928,928,928,930,933,935,935,935,938,940,946,948,954,962,964,964,967,967,967,970,970,1165,1165,1165,1165,1165,1161,1161,1161,1161,1161,1161,1161,1161,1161,1161,1161,1157,1157,1157,1153,1153,1153,1153,1153,1153,1153,1153,1149,1149,1149,1149,1149,1149,1149,1145,1145,1141,1141,1138,1138,1138,1141,1145,1145,1149,1149,1149,1149,1149,1145,1145,1145,1145,1145,1145,1145,1145,1145,1145,1145,1145,1145,1145,1145,1145,1145,1145,1145,1145,1145,1145,1145,1145,1145,1141,1141,1138,1138,1138,1138,1138,1138,1138,1138,1138,1138,1138,1138,1138,1138,1138,1138,1138,1138,1138,1138,1138,1138,1134,1134,1134,1134,1134,1130,1130,1130,1130,1134,1134,1134,1134,1134,1134,1134,1130,1130,1130,1130,1130,1130,1134,1134,1130,1130,1130,1130,1130,1130,1130,1130,1130,1130,1130,1126,1126,1126,1126,1126,1126,1126,1123,1123,1126,1123,1123,1123,1123,1123,1123,1119,1119,1119,1119,1119,1119,1119,1119,1119,1119,1119,1119,1119,1119,1119,1119,1119,1115,1115,1115,1115,1115,1115,1112,1112,1112,1112,1112,1108,1108,1108,1108,1108,1112,1112,1108,1108,1108,1108,1108,1108,1108,1108,1108,1112,1112,1108,1108,1108,1108,1108,1108,1105,1105,1105,1105,1105,1105,1105,1101,1097,1094,1001,1001,1001,1001,1001,1007,1007,1010,1013,1013,1013,1013,1016,1097,1097,1097,1101,1101,1097,1097,1097,1097,1001,995,995,998,998,1001,1001,928,925,925,925,925,925,925,928,928,928,928,930,930,930,930,930,933,933,933,933,935,935,935,0,0,0,0,0,0,0,0,0,0,0,0,0,0,0,0,0,0,0,0,0,0,0,0,0,0,0,0,0,0,0,0,0,0
0,0,0,0,0,0,0,0,1241,1236,1236,1232,1232,1232,1232,1232,1232,1232,1232,1232,1232,1232,1232,1232,1232,1232,1232,1232,1232,1232,1232,1232,1232,1232,1232,1232,1232,1232,1232,1232,1232,1232,1227,1227,1227,1227,1227,1227,1227,1227,1227,1232,1232,1232,1232,1227,1227,1227,1227,1227,1227,1227,1227,1227,1227,1227,1227,1227,1227,1227,1227,1227,1227,1219,1219,1219,1223,1223,1223,1223,1223,1223,1223,1223,1219,1219,1219,1219,1219,1219,1219,1219,1219,1214,1214,1214,1214,1214,1214,1214,1219,1219,1219,1214,1214,1214,1210,1210,1206,1206,1001,1001,1001,1004,1001,1001,998,998,1001,1001,1004,1007,1007,1010,1010,1010,1013,1013,1013,1013,1016,1016,1019,1181,1177,1177,1193,1206,1206,1206,1206,1206,1206,1206,1206,1206,1202,1202,1206,1206,1206,1206,1206,1206,1202,1202,1202,1202,1210,1210,1210,1206,1206,1206,1206,1202,1202,1202,1202,1202,1202,1197,1197,1197,1197,1197,1197,1193,1193,1193,1202,1202,1197,1197,1197,1197,1193,1193,1193,1193,1193,1193,1193,1193,1193,1193,1193,1193,1193,1193,1193,1197,1193,1193,1193,1193,1193,1193,1189,1189,1193,1193,1193,1193,1193,1193,1193,1189,1189,1185,1185,1185,1185,0,0,0,0,0,0,0,0,0,0,0,0,747,746,744,742,741,741,741,739,738,736,734,734,734,734,734,734,736,738,739,741,744,746,749,749,750,752,754,754,754,757,0,0,0,0,0,0,1169,1169,1169,1169,1169,1169,1169,1169,1169,1173,1173,1173,1173,1173,1173,1169,1169,1169,1169,1169,1169,1165,1165,1165,1169,1169,1169,1169,1169,1169,1165,1165,1165,1165,1169,978,978,978,978,978,975,973,923,923,925,925,928,928,928,928,928,928,928,928,930,933,935,935,935,940,943,948,948,954,962,964,964,967,967,967,970,1157,1157,1161,1161,1161,1161,1157,1157,1157,1157,1157,1157,1157,1157,1157,1157,1153,1153,1153,1153,1149,1149,1149,1149,1149,1149,1149,1149,1149,1149,1149,1149,1145,1145,1145,1145,1145,1141,1138,1138,1138,1138,1141,1141,1141,1145,1145,1145,1145,1145,1145,1145,1145,1141,1141,1141,1141,1141,1141,1141,1141,1141,1141,1145,1145,1145,1145,1141,1141,1141,1141,1141,1141,1141,1141,1141,1138,1138,1138,1138,1138,1134,1134,1134,1134,1134,1134,1138,1138,1138,1138,1138,1138,1134,1134,1134,1134,1134,1134,1130,1130,1134,1130,1130,1130,1126,1126,1130,1130,1130,1130,1130,1130,1130,1130,1130,1126,1126,1126,1126,1126,1126,1126,1123,1123,1126,1126,1126,1126,1126,1126,1126,1126,1126,1126,1126,1126,1123,1123,1123,1123,1119,1119,1123,1123,1123,1123,1119,1119,1119,1119,1119,1119,1115,1115,1115,1119,1119,1115,1115,1115,1115,1115,1115,1115,1115,1115,1115,1112,1112,1112,1112,1112,1112,1108,1108,1108,1108,1108,1105,1105,1105,1105,1105,1105,1108,1108,1108,1108,1105,1105,1105,1105,1105,1105,1108,1108,1108,1105,1105,1105,1105,1105,1105,1105,1105,1105,1101,1101,1097,1097,1094,1001,1001,1001,1001,1004,1007,1010,1010,1013,1013,1013,1094,1097,1094,1094,1094,1097,1097,1097,1097,1097,1097,1097,995,995,1001,1001,1001,1004,928,923,923,923,923,923,925,928,928,928,928,930,930,930,930,930,930,930,930,933,935,935,935,0,0,0,0,0,0,0,0,0,0,0,0,0,0,0,0,0,0,0,0,0,0,0,0,0,0,0,0,0,0,0,0,0,0
0,0,0,0,0,0,0,0,1236,1232,1232,1227,1227,1227,1227,1227,1227,1227,1227,1227,1227,1227,1227,1227,1227,1227,1227,1227,1227,1227,1227,1227,1227,1227,1232,1232,1232,1232,1232,1232,1232,1227,1227,1227,1227,1227,1227,1223,1223,1227,1227,1227,1227,1227,1227,1227,1223,1223,1223,1223,1223,1223,1223,1223,1223,1223,1223,1227,1223,1223,1223,1214,1214,1214,1219,1219,1219,1219,1219,1219,1219,1219,1219,1219,1214,1214,1214,1214,1219,1214,1214,1214,1214,1214,1214,1214,1214,1214,1214,1214,1214,1214,1214,1214,1210,1210,1210,1210,1210,1210,1210,1004,1004,1004,1001,1001,1001,1001,1001,1001,1004,1007,1007,1010,1010,1010,1013,1013,1016,1016,1016,1019,1019,1022,1181,1181,1193,1193,1202,1202,1202,1202,1202,1202,1197,1197,1197,1197,1202,1202,1197,1197,1197,1197,1202,1197,1197,1197,1197,1202,1202,1202,1202,1202,1202,1202,1197,1197,1197,1197,1197,1197,1197,1197,1197,1197,1197,1193,1193,1193,1197,1193,1193,1193,1193,1193,1193,1189,1189,1189,1189,1189,1189,1189,1185,1185,1185,1185,1189,1189,1193,1193,1193,1193,1189,1189,1189,1189,1185,1185,1189,1189,1189,1189,1189,1189,1185,1185,1181,1181,1181,1181,1181,1181,0,0,0,0,0,0,0,0,0,0,0,749,747,746,744,742,741,741,739,738,736,734,734,734,734,734,734,736,738,739,742,744,747,749,750,750,752,754,754,755,757,0,0,0,0,0,0,1165,1165,1165,1165,1165,1165,1165,1165,1165,1165,1165,1165,1165,1169,1169,1169,1165,1165,1165,1165,1165,1165,1165,1165,1165,1165,1165,1165,1165,1165,1165,1165,1165,1165,1169,1169,981,981,981,978,923,923,923,923,923,923,923,923,923,925,925,925,928,928,930,933,935,935,935,940,946,948,948,954,962,964,964,967,967,967,1153,1153,1153,1153,1153,1153,1153,1153,1153,1153,1153,1153,1153,1153,1153,1153,1153,1153,1149,1149,1149,1145,1145,1145,1149,1149,1149,1149,1145,1145,1145,1145,1145,1145,1145,1145,1145,1145,1141,1138,1138,1138,1138,1138,1138,1138,1141,1141,1141,1141,1141,1141,1141,1141,1138,1138,1138,1138,1138,1138,1138,1138,1138,1138,1138,1138,1138,1138,1138,1138,1138,1138,1138,1138,1138,1138,1138,1138,1138,1134,1134,1134,1134,1134,1134,1134,1134,1134,1134,1134,1134,1134,1134,1134,1130,1130,1130,1130,1130,1130,1130,1130,1130,1126,1126,1126,1126,1126,1126,1126,1126,1126,1126,1126,1126,1126,1123,1123,1123,1123,1123,1123,1123,1123,1123,1123,1123,1123,1123,1123,1123,1123,1123,1123,1123,1123,1123,1123,1123,1123,1119,1119,1119,1119,1119,1119,1119,1119,1119,1119,1119,1115,1115,1115,1112,1112,1115,1115,1115,1115,1115,1112,1112,1112,1112,1112,1112,1112,1112,1112,1108,1108,1108,1108,1108,1108,1105,1105,1105,1105,1105,1105,1105,1105,1105,1105,1101,1101,1105,1105,1101,1101,1101,1101,1101,1101,1105,1105,1105,1105,1105,1101,1101,1101,1101,1101,1101,1101,1101,1097,1097,1094,1094,1001,1001,1001,1004,1004,1010,1010,1010,1013,1094,1094,1094,1094,1094,1094,1094,1094,1094,1094,1094,1094,1094,1094,1090,1090,1090,1001,1001,1001,1010,923,923,923,923,923,925,928,928,928,928,930,930,930,930,930,930,930,930,933,933,935,935,0,0,0,0,0,0,0,0,0,0,0,0,0,0,0,0,0,0,0,0,0,0,0,0,0,0,0,0,0,0,0,0,0,0
0,0,0,0,0,0,0,0,1236,1232,1232,1227,1227,1227,1227,1227,1223,1223,1223,1223,1223,1227,1227,1227,1227,1227,1227,1223,1223,1227,1227,1227,1227,1227,1227,1227,1227,1227,1227,1232,1227,1227,1227,1227,1227,1227,1223,1223,1223,1223,1223,1227,1227,1227,1227,1223,1223,1219,1219,1219,1219,1219,1219,1219,1219,1219,1219,1219,1219,1219,1219,1214,1214,1214,1214,1214,1214,1214,1214,1214,1214,1214,1214,1210,1210,1210,1210,1210,1210,1210,1210,1214,1214,1214,1210,1210,1214,1210,1210,1210,1210,1210,1210,1210,1210,1210,1210,1210,1210,1210,1210,1010,1010,1004,1001,1001,1001,1001,1001,1004,1004,1007,1010,1010,1010,1013,1013,1013,1016,1019,1019,1022,1022,1022,1189,1189,1189,1189,1197,1197,1197,1197,1197,1197,1193,1193,1193,1193,1197,1197,1197,1197,1197,1197,1197,1197,1197,1197,1197,1197,1197,1197,1197,1197,1197,1197,1197,1193,1193,1193,1193,1193,1193,1193,1193,1193,1193,1193,1193,1193,1189,1189,1189,1189,1189,1189,1189,1189,1189,1189,1185,1185,1185,1185,1185,1185,1185,1185,1185,1185,1185,1185,1185,1185,1185,1185,1185,1185,1181,1181,1185,1185,1185,1185,1185,1185,1185,1181,1181,1177,1177,1177,1177,1177,1181,0,0,0,0,0,0,0,0,0,0,750,749,747,746,746,742,741,741,739,738,736,734,734,736,736,736,736,738,739,742,744,747,749,750,752,752,754,754,755,757,0,0,0,0,0,0,1161,1161,1161,1165,1165,1165,1165,1161,1161,1165,1161,1161,1161,1161,1161,1161,1161,1165,1165,1165,1165,1161,1161,1161,1161,1161,1161,1165,1165,1165,1165,1165,1165,1165,1169,1169,918,918,918,918,920,920,920,920,923,923,923,923,923,923,925,925,928,928,930,933,935,935,935,940,946,948,948,956,959,964,964,1153,1149,1149,1149,1149,1149,1149,1149,1149,1145,1145,1145,1145,1153,1153,1153,1153,1153,1153,1149,1149,1145,1145,1145,1145,1141,1141,1145,1145,1145,1145,1145,1145,1145,1145,1145,1141,1141,1141,1141,1141,1138,1138,1138,1138,1138,1138,1138,1138,1138,1138,1138,1138,1138,1138,1138,1138,1138,1138,1138,1138,1138,1134,1134,1134,1134,1138,1134,1134,1134,1134,1134,1134,1130,1130,1134,1134,1134,1134,1134,1134,1134,1134,1130,1130,1134,1134,1134,1130,1130,1130,1134,1134,1130,1130,1130,1130,1130,1130,1126,1126,1126,1126,1126,1126,1126,1126,1123,1123,1123,1123,1123,1123,1123,1123,1123,1123,1123,1123,1123,1123,1123,1123,1123,1123,1123,1123,1119,1119,1119,1119,1119,1119,1119,1119,1123,1123,1119,1119,1119,1119,1119,1119,1115,1115,1119,1119,1119,1115,1115,1115,1115,1115,1115,1112,1112,1112,1108,1108,1112,1112,1112,1112,1112,1112,1108,1108,1108,1108,1108,1108,1108,1108,1108,1108,1105,1105,1105,1105,1105,1105,1105,1101,1101,1101,1101,1101,1101,1101,1101,1101,1101,1101,1101,1101,1097,1097,1097,1101,1097,1097,1101,1101,1097,1097,1097,1097,1097,1097,1097,1097,1097,1097,1094,1094,1090,1090,1001,1001,1007,1010,1010,1013,1013,1013,1094,1094,1094,1094,1094,1094,1090,1090,1090,1090,1090,1090,1090,1090,1087,1087,1087,995,995,1001,925,925,925,923,923,925,928,928,928,928,930,930,930,930,930,930,933,930,930,933,933,935,935,0,0,0,0,0,0,0,0,0,0,0,0,0,0,0,0,0,0,0,0,0,0,0,0,0,0,0,0,0,0,0,0,0,0
0,0,0,0,0,0,0,0,1232,1227,1227,1227,1227,1223,1223,1223,1223,1223,1223,1223,1223,1223,1223,1219,1219,1223,1223,1223,1223,1223,1223,1223,1223,1223,1223,1223,1227,1227,1227,1227,1227,1223,1223,1223,1223,1223,1219,1219,1219,1219,1219,1223,1223,1223,1223,1223,1219,1219,1214,1214,1214,1214,1214,1214,1214,1214,1214,1219,1214,1214,1214,1210,1210,1210,1214,1214,1214,1214,1214,1214,1210,1210,1210,1210,1210,1210,1210,1206,1206,1206,1206,1206,1206,1206,1206,1210,1210,1210,1210,1210,1210,1210,1206,1206,1197,1197,1206,1206,1202,1202,1202,1010,1010,1007,1004,1004,1001,1001,1004,1004,1007,1007,1010,1010,1010,1013,1013,1013,1016,1019,1019,1022,1022,1022,1189,1189,1189,1189,1189,1185,1185,1193,1193,1193,1193,1193,1193,1193,1193,1193,1197,1197,1193,1193,1193,1193,1193,1189,1189,1189,1189,1193,1193,1193,1193,1193,1193,1193,1189,1189,1185,1185,1189,1189,1189,1189,1189,1189,1185,1185,1181,1181,1185,1185,1185,1185,1185,1185,1185,1185,1185,1181,1181,1181,1181,1181,1181,1181,1181,1181,1181,1181,1181,1181,1181,1181,1181,1181,1181,1181,1181,1181,1181,1181,1181,1181,1181,1181,1177,1177,1177,1177,1177,1177,1177,0,0,0,0,0,0,0,0,0,0,754,752,750,749,747,746,742,741,739,738,736,736,736,736,736,738,738,739,741,742,744,747,749,750,752,754,755,755,757,759,0,0,0,0,0,0,1161,1161,1161,1161,1161,1161,1161,1161,1161,1161,1161,1161,1157,1157,1161,1161,1157,1157,1157,1157,1161,1157,1157,1161,1161,1161,1161,1161,1161,1161,1161,1161,1161,1161,1169,1169,918,918,918,918,918,918,920,920,920,920,920,920,920,920,920,923,925,928,930,933,935,935,935,943,948,948,951,956,959,959,1149,1149,1145,1145,1145,1145,1145,1145,1145,1145,1145,1145,1145,1145,1145,1145,1145,1149,1149,1149,1149,1145,1145,1141,1141,1141,1141,1141,1141,1141,1141,1141,1141,1141,1141,1141,1141,1138,1138,1138,1138,1141,1138,1138,1138,1134,1134,1134,1134,1134,1134,1134,1134,1134,1134,1134,1134,1134,1134,1134,1134,1134,1134,1134,1134,1134,1134,1134,1130,1130,1130,1130,1130,1130,1130,1130,1130,1126,1126,1130,1130,1130,1130,1130,1130,1130,1130,1130,1130,1130,1130,1130,1130,1130,1130,1130,1130,1126,1126,1126,1126,1126,1123,1123,1123,1123,1123,1123,1123,1123,1123,1123,1123,1123,1123,1123,1123,1123,1123,1123,1119,1119,1119,1119,1119,1119,1119,1119,1119,1119,1119,1119,1119,1115,1115,1119,1115,1115,1115,1119,1119,1119,1115,1115,1115,1115,1115,1112,1112,1112,1112,1112,1112,1112,1112,1108,1108,1108,1108,1108,1108,1108,1108,1108,1108,1108,1105,1105,1105,1105,1105,1105,1105,1105,1105,1105,1105,1101,1101,1101,1101,1101,1101,1097,1097,1097,1097,1097,1097,1097,1097,1097,1097,1097,1097,1094,1094,1094,1094,1097,1094,1094,1094,1094,1094,1094,1094,1094,1094,1094,1094,1094,1094,1094,1094,1090,1090,1004,1004,1007,1007,1010,1010,1013,1013,1013,1090,1090,1094,1094,1094,1090,1090,1090,1087,1087,1090,1090,1090,1087,1084,1084,1087,995,995,1084,1084,925,925,925,925,925,928,928,928,928,930,930,930,930,930,930,930,930,930,933,935,935,935,0,0,0,0,0,0,0,0,0,0,0,0,0,0,0,0,0,0,0,0,0,0,0,0,0,0,0,0,0,0,0,0,0,0
0,0,0,0,0,0,0,0,1227,1227,1227,1227,1223,1223,1223,1223,1219,1219,1219,1219,1219,1219,1219,1219,1214,1214,1214,1214,1214,1219,1219,1219,1219,1219,1219,1223,1223,1223,1223,1223,1223,1223,1219,1219,1219,1219,1214,1214,1214,1214,1214,1219,1219,1219,1219,1214,1214,1214,1214,1214,1214,1214,1214,1214,1214,1214,1214,1214,1214,1210,1210,1210,1210,1210,1210,1210,1210,1210,1210,1210,1206,1206,1210,1206,1206,1206,1206,1202,1202,1202,1202,1202,1202,1206,1206,1206,1210,1210,1210,1210,1197,1197,1197,1197,1197,1197,1197,1197,1197,1197,1197,1197,1010,1010,1010,1007,1004,1004,1004,1007,1007,1007,1010,1010,1010,1013,1013,1013,1016,1019,1022,1022,1022,1022,1025,1189,1189,1185,1185,1181,1181,1181,1181,1185,1189,1189,1189,1193,1193,1193,1193,1193,1193,1193,1189,1189,1189,1189,1185,1185,1185,1185,1189,1185,1185,1189,1193,1189,1185,1185,1185,1185,1189,1185,1185,1185,1189,1189,1181,1181,1177,1177,1181,1181,1181,1181,1181,1181,1181,1181,1181,1181,1181,1181,1181,1181,1177,1177,1177,1177,1177,1181,1181,1181,1181,1181,1181,1181,1177,1177,1177,1177,1177,1177,1177,1177,1177,1177,1177,1173,1173,1173,1173,1173,1169,1169,0,0,0,0,0,0,0,0,0,754,752,752,750,749,747,744,742,741,739,738,736,736,738,738,738,739,739,741,744,744,747,749,750,752,754,755,755,759,759,761,0,0,0,0,0,1161,1157,1157,1157,1161,1157,1157,1157,1157,1157,1157,1157,1153,1153,1157,1157,1153,1153,1153,1153,1153,1153,1153,1153,1153,1157,1157,1157,1161,1157,1157,1157,1161,1161,1169,913,913,913,918,918,918,918,918,918,918,918,918,918,918,918,920,920,925,928,933,935,935,935,943,948,948,951,951,956,959,1141,1141,1141,1138,1138,1141,1138,1138,1138,1138,1138,1141,1141,1141,1141,1141,1141,1141,1141,1141,1141,1141,1141,1141,1141,1138,1138,1138,1138,1138,1138,1138,1138,1138,1138,1138,1138,1138,1134,1134,1138,1138,1138,1134,1134,1134,1134,1134,1134,1134,1134,1134,1130,1130,1130,1130,1130,1130,1130,1130,1130,1130,1130,1130,1130,1130,1130,1130,1130,1130,1130,1126,1126,1126,1126,1126,1126,1126,1123,1123,1123,1123,1123,1126,1126,1126,1126,1126,1126,1130,1126,1126,1126,1126,1126,1126,1126,1126,1123,1123,1123,1123,1123,1123,1123,1123,1123,1123,1123,1123,1123,1123,1123,1123,1123,1119,1119,1119,1119,1119,1119,1119,1119,1119,1119,1115,1115,1115,1115,1115,1115,1115,1115,1115,1115,1115,1115,1112,1112,1112,1112,1112,1112,1112,1115,1112,1112,1112,1112,1112,1108,1108,1108,1108,1108,1108,1108,1108,1108,1108,1108,1108,1108,1108,1105,1105,1105,1105,1105,1105,1105,1105,1101,1101,1101,1101,1101,1101,1097,1097,1097,1097,1097,1097,1097,1094,1094,1094,1094,1094,1094,1094,1094,1094,1097,1094,1094,1094,1090,1090,1090,1090,1090,1090,1090,1090,1090,1090,1090,1090,1090,1094,1094,1094,1090,1090,1090,1090,1004,1004,1010,1010,1010,1013,1013,1013,1090,1090,1090,1090,1090,1090,1090,1090,1087,1087,1087,1087,1087,1087,1084,1084,1084,1084,1084,1084,1080,1080,935,935,933,930,930,930,930,930,930,930,930,930,928,928,928,930,930,930,933,933,935,935,0,0,0,0,0,0,0,0,0,0,0,0,0,0,0,0,0,0,0,0,0,0,0,0,0,0,0,0,0,0,0,0,0,0
0,0,0,0,0,0,0,0,1227,1223,1223,1223,1219,1219,1219,1214,1214,1214,1214,1214,1214,1214,1214,1214,1214,1214,1214,1214,1214,1214,1214,1214,1214,1219,1219,1219,1219,1219,1219,1219,1214,1214,1214,1214,1214,1214,1214,1214,1214,1214,1214,1214,1210,1210,1214,1214,1214,1210,1210,1210,1210,1210,1210,1210,1210,1210,1210,1210,1210,1210,1210,1210,1210,1210,1210,1210,1206,1206,1206,1202,1202,1202,1202,1202,1202,1202,1202,1197,1197,1197,1197,1197,1197,1202,1202,1206,1206,1206,1202,1202,1197,1197,1197,1197,1197,1193,1193,1193,1193,1193,1197,1197,1010,1010,1010,1007,1007,1007,1007,1007,1007,1010,1010,1010,1010,1013,1013,1016,1019,1022,1022,1022,1022,1022,1025,1185,1185,1185,1185,1181,1181,1181,1181,1185,1185,1185,1185,1189,1189,1189,1189,1189,1189,1189,1185,1185,1185,1185,1185,1181,1181,1181,1185,1185,1185,1185,1185,1185,1181,1181,1181,1181,1181,1181,1181,1181,1181,1181,1181,1181,1177,1177,1181,1181,1181,1181,1181,1181,1181,1181,1181,1181,1177,1177,1177,1177,1177,1177,1177,1177,1177,1177,1177,1177,1177,1177,1177,1177,1177,1177,1177,1173,1173,1173,1173,1173,1177,1177,1177,1173,1173,1173,1173,1169,1169,1169,0,0,0,0,0,0,0,0,0,755,754,754,752,750,747,746,744,742,739,739,738,738,738,738,738,739,739,742,744,746,749,750,752,754,755,757,757,759,759,761,0,0,0,0,0,0,1157,1157,1157,1157,1157,1153,1153,1153,1157,1157,1153,1153,1153,1153,1153,1153,1153,1153,1153,1149,1149,1149,1149,1149,1149,1149,1149,1157,1157,1157,1157,1157,1165,908,908,908,910,915,915,915,915,918,918,918,918,918,918,918,918,920,920,925,930,933,935,935,938,946,948,948,948,951,956,1138,1138,1138,1138,1138,1138,1138,1138,1138,1138,1138,1138,1138,1138,1138,1138,1138,1138,1138,1138,1138,1138,1138,1138,1138,1138,1138,1138,1138,1138,1138,1138,1134,1134,1134,1134,1134,1134,1134,1134,1134,1134,1134,1134,1134,1134,1134,1130,1130,1130,1130,1130,1130,1130,1130,1130,1126,1126,1126,1126,1126,1126,1126,1126,1126,1126,1126,1126,1126,1126,1126,1126,1126,1126,1126,1123,1123,1123,1123,1123,1123,1119,1119,1119,1119,1119,1119,1119,1123,1123,1123,1123,1123,1123,1123,1123,1123,1123,1123,1123,1123,1123,1123,1123,1119,1119,1119,1119,1119,1119,1119,1119,1119,1119,1119,1119,1119,1119,1119,1119,1119,1119,1115,1115,1115,1115,1115,1112,1112,1112,1112,1112,1112,1112,1112,1112,1112,1112,1108,1108,1108,1108,1108,1108,1108,1108,1108,1108,1108,1108,1108,1108,1108,1108,1108,1105,1105,1105,1105,1105,1105,1105,1105,1105,1105,1105,1105,1101,1101,1101,1101,1101,1101,1097,1097,1097,1097,1097,1097,1097,1094,1094,1094,1094,1094,1094,1094,1094,1094,1094,1094,1094,1094,1094,1094,1094,1094,1090,1090,1090,1090,1087,1087,1087,1087,1087,1087,1090,1090,1090,1090,1090,1090,1090,1090,1087,1087,1087,1013,1010,1010,1010,1010,1013,1013,1013,1013,1084,1084,1087,1087,1087,1087,1087,1087,1084,1084,1084,1084,1084,1084,1084,1084,1084,1084,1084,1080,1080,938,938,935,935,935,933,933,933,930,930,930,928,928,928,928,928,928,930,930,930,933,935,935,0,0,0,0,0,0,0,0,0,0,0,0,0,0,0,0,0,0,0,0,0,0,0,0,0,0,0,0,0,0,0,0,0,0
0,0,0,0,0,0,0,0,0,1214,1214,1219,1219,1219,1214,1214,1214,1214,1214,1214,1214,1214,1214,1210,1210,1210,1210,1210,1210,1210,1210,1210,1210,1210,1214,1214,1214,1214,1214,1214,1214,1214,1210,1210,1210,1210,1210,1210,1210,1210,1210,1210,1210,1210,1210,1210,1210,1210,1210,1210,1210,1210,1210,1210,1210,1210,1210,1210,1210,1206,1206,1202,1202,1206,1202,1202,1202,1202,1202,1197,1197,1197,1202,1197,1197,1197,1197,1197,1197,1197,1197,1197,1197,1197,1202,1202,1202,1193,1193,1197,1197,1197,1193,1193,1193,1189,1189,1189,1189,1193,1193,1193,1013,1013,1010,1010,1007,1007,1007,1007,1007,1010,1010,1010,1010,1013,1013,1016,1019,1022,1025,1025,1025,1025,1025,1185,1185,1185,1185,1181,1181,1181,1181,1181,1185,1185,1185,1185,1185,1185,1185,1185,1185,1185,1181,1181,1181,1181,1181,1181,1181,1181,1181,1181,1181,1181,1181,1181,1177,1177,1177,1177,1177,1177,1181,1181,1181,1181,1181,1181,1177,1177,1181,1181,1181,1181,1177,1177,1177,1177,1177,1177,1177,1177,1177,1177,1173,1173,1173,1173,1173,1173,1173,1173,1173,1177,1177,1177,1173,1173,1173,1169,1169,1169,1169,1173,1173,1173,1173,1173,1173,1173,1173,1169,1169,1169,0,0,0,0,0,0,0,0,0,755,754,752,752,750,749,747,746,744,742,741,741,739,739,739,739,739,741,744,746,747,750,750,752,754,755,757,757,759,761,761,0,0,0,0,0,0,1153,1153,1153,1153,1153,1153,1153,1153,1153,1153,1149,1149,1149,1149,1149,1149,1149,1149,1149,1149,1149,1149,1149,1145,1145,1145,1145,1145,1149,1153,1157,1157,908,908,908,908,910,915,915,915,915,915,915,915,915,915,915,918,918,920,920,925,930,933,935,935,938,946,948,948,948,954,1138,1138,1138,1138,1138,1138,1138,1138,1138,1134,1134,1134,1134,1134,1134,1138,1138,1138,1134,1134,1134,1134,1134,1134,1134,1134,1134,1134,1134,1134,1134,1134,1134,1134,1134,1130,1130,1130,1130,1130,1130,1130,1130,1130,1130,1130,1130,1130,1126,1126,1126,1126,1126,1126,1126,1126,1126,1126,1126,1126,1123,1123,1123,1123,1123,1123,1123,1123,1123,1123,1123,1123,1123,1123,1123,1123,1123,1123,1123,1119,1119,1119,1119,1119,1115,1115,1115,1119,1119,1119,1119,1119,1119,1119,1119,1119,1119,1119,1119,1123,1123,1123,1123,1119,1119,1119,1119,1119,1115,1115,1115,1115,1115,1119,1115,1115,1119,1115,1115,1115,1115,1115,1115,1112,1112,1112,1112,1112,1112,1108,1108,1108,1108,1108,1108,1108,1108,1108,1108,1108,1108,1105,1105,1105,1105,1105,1105,1105,1105,1105,1105,1105,1105,1105,1105,1105,1105,1105,1105,1105,1105,1105,1105,1105,1101,1101,1101,1101,1097,1097,1097,1097,1097,1097,1094,1094,1094,1094,1094,1094,1094,1094,1094,1094,1094,1094,1094,1090,1090,1090,1090,1090,1090,1090,1090,1090,1090,1090,1090,1087,1087,1087,1084,1084,1084,1084,1084,1084,1084,1087,1087,1087,1087,1087,1087,1087,1084,1084,1084,1010,1010,1010,1010,1010,1013,1013,1013,1013,1080,1080,1080,1080,1080,1084,1084,1084,1084,1080,1080,1084,1084,1084,1084,1084,1084,1084,1084,1080,1080,938,938,938,935,935,935,935,935,933,933,930,928,928,928,928,928,928,928,928,928,933,935,935,0,0,0,0,0,0,0,0,0,0,0,0,0,0,0,0,0,0,0,0,0,0,0,0,0,0,0,0,0,0,0,0,0,0
0,0,0,0,0,0,0,0,0,1214,1210,1210,1214,1214,1214,1210,1210,1214,1214,1210,1210,1210,1210,1210,1210,1210,1206,1206,1210,1210,1210,1210,1206,1206,1206,1206,1206,1206,1210,1210,1210,1210,1210,1206,1206,1210,1210,1210,1210,1206,1206,1210,1206,1206,1210,1210,1210,1210,1210,1210,1210,1210,1210,1210,1210,1210,1210,1206,1206,1202,1202,1197,1197,1197,1197,1197,1197,1197,1197,1197,1197,1197,1197,1197,1193,1193,1193,1193,1193,1193,1193,1193,1193,1193,1197,1193,1193,1193,1193,1197,1193,1193,1193,1193,1189,1185,1185,1185,1185,1185,1193,1022,1016,1016,1013,1010,1010,1010,1010,1010,1010,1010,1010,1010,1013,1013,1013,1016,1019,1022,1025,1025,1025,1025,1025,1185,1185,1185,1181,1181,1181,1181,1181,1181,1181,1181,1181,1181,1181,1181,1181,1181,1181,1181,1181,1181,1181,1181,1181,1177,1177,1181,1177,1177,1177,1177,1177,1177,1177,1173,1173,1173,1173,1173,1177,1173,1173,1173,1177,1177,1177,1177,1177,1177,1177,1177,1177,1177,1177,1177,1177,1177,1173,1173,1173,1173,1173,1169,1169,1169,1169,1169,1169,1169,1169,1169,1169,1169,1169,1169,1169,1165,1165,1165,1165,1165,1165,1169,1169,1169,1165,1165,1165,1165,1165,1165,0,0,0,0,0,0,0,0,0,754,754,752,752,750,749,747,747,746,744,742,742,741,741,741,741,741,741,744,746,747,750,752,752,754,755,757,759,761,761,762,0,0,0,0,0,0,1149,1149,1149,1149,1149,1149,1149,1149,1149,1149,1149,1145,1145,1149,1145,1145,1145,1145,1145,1145,1145,1145,1145,1145,1145,1145,1145,1145,1149,1153,906,906,906,906,908,908,908,913,913,913,913,915,915,915,915,915,915,918,918,920,920,925,930,933,935,935,938,948,948,951,951,1134,1134,1134,1134,1134,1138,1134,1134,1134,1134,1134,1134,1134,1134,1134,1134,1134,1134,1134,1134,1134,1134,1134,1130,1130,1130,1130,1130,1130,1130,1130,1130,1126,1126,1126,1126,1130,1126,1126,1126,1126,1126,1126,1126,1126,1126,1126,1126,1126,1126,1126,1126,1126,1126,1126,1126,1126,1123,1123,1123,1123,1123,1123,1119,1119,1123,1123,1123,1119,1119,1123,1123,1119,1119,1119,1119,1119,1119,1119,1119,1119,1119,1119,1115,1115,1115,1115,1115,1115,1115,1115,1115,1115,1115,1112,1112,1112,1115,1119,1119,1119,1119,1119,1119,1119,1119,1115,1115,1115,1115,1112,1112,1112,1112,1115,1112,1112,1115,1115,1112,1112,1112,1112,1112,1112,1108,1108,1108,1108,1108,1108,1105,1105,1105,1105,1105,1105,1105,1105,1105,1105,1105,1105,1101,1101,1101,1101,1101,1101,1101,1101,1101,1101,1101,1097,1097,1101,1101,1101,1101,1101,1101,1101,1101,1101,1097,1097,1097,1097,1097,1097,1094,1094,1094,1094,1094,1094,1094,1090,1090,1090,1090,1090,1090,1090,1090,1090,1090,1090,1090,1090,1090,1090,1087,1087,1087,1087,1087,1087,1087,1087,1087,1084,1084,1084,1084,1084,1084,1084,1084,1084,1084,1084,1084,1087,1084,1084,1084,1080,1080,1010,1010,1010,1013,1013,1013,1013,1013,1077,1077,1077,1077,1080,1080,1080,1080,1080,1080,1080,1080,1080,1080,1084,1084,1084,1084,1084,1084,1084,1080,938,938,938,938,938,938,938,935,935,935,933,930,930,930,928,928,928,928,925,925,933,935,935,0,0,0,0,0,0,0,0,0,0,0,0,0,0,0,0,0,0,0,0,0,0,0,0,0,0,0,0,0,0,0,0,0,0
0,0,0,0,0,0,0,0,0,1202,1202,1202,1202,1210,1210,1210,1210,1210,1210,1210,1210,1206,1206,1206,1206,1206,1206,1206,1206,1206,1206,1206,1202,1202,1202,1206,1206,1206,1206,1206,1206,1206,1202,1202,1202,1206,1206,1206,1206,1206,1206,1206,1206,1202,1202,1202,1206,1206,1206,1206,1206,1206,1210,1206,1206,1206,1206,1202,1202,1197,1197,1193,1193,1193,1193,1197,1197,1197,1193,1193,1193,1193,1193,1193,1193,1193,1193,1193,1193,1193,1193,1193,1193,1193,1193,1193,1193,1193,1193,1193,1193,1189,1189,1189,1185,1185,1181,1181,1181,1181,1181,1022,1019,1016,1016,1013,1013,1010,1010,1010,1010,1010,1010,1013,1013,1013,1013,1016,1019,1022,1025,1025,1025,1025,1025,1181,1181,1181,1181,1181,1181,1181,1181,1181,1181,1181,1177,1177,1177,1177,1177,1177,1177,1177,1177,1177,1177,1177,1177,1177,1177,1177,1177,1177,1177,1173,1173,1173,1173,1173,1173,1173,1173,1173,1173,1173,1173,1173,1173,1173,1173,1173,1173,1173,1173,1173,1173,1173,1173,1173,1173,1169,1169,1173,1173,1169,1169,1169,1169,1169,1165,1165,1169,1165,1165,1169,1169,1169,1165,1165,1165,1165,1165,1165,1165,1161,1161,1165,1165,1165,1161,1161,1161,1161,1161,1161,0,0,0,0,0,0,0,0,0,754,754,754,752,750,750,749,747,746,744,744,742,742,741,741,741,741,742,746,747,747,750,752,752,754,755,757,759,761,762,762,0,0,0,0,0,0,1149,1149,1149,1149,1149,1149,1149,1145,1145,1145,1145,1145,1145,1145,1145,1145,1145,1145,1145,1145,1145,1145,1145,1145,1141,1141,1145,1145,903,903,903,903,906,906,906,906,906,910,910,910,910,910,910,915,915,915,915,918,918,920,920,925,930,933,935,935,943,948,948,954,954,1130,1130,1130,1134,1134,1134,1134,1134,1134,1134,1134,1134,1134,1130,1130,1130,1130,1130,1130,1130,1130,1130,1130,1130,1126,1126,1126,1126,1126,1126,1126,1126,1126,1123,1123,1123,1123,1123,1123,1123,1123,1123,1123,1123,1123,1123,1123,1123,1123,1123,1123,1123,1123,1123,1123,1123,1123,1123,1123,1119,1119,1119,1119,1119,1119,1119,1119,1119,1119,1119,1119,1119,1119,1119,1119,1119,1119,1119,1119,1119,1119,1115,1115,1115,1115,1112,1112,1112,1112,1112,1112,1112,1112,1112,1112,1108,1108,1108,1112,1112,1115,1115,1115,1115,1115,1115,1112,1112,1112,1112,1112,1112,1112,1112,1112,1108,1108,1112,1108,1108,1108,1108,1108,1108,1108,1108,1108,1108,1105,1105,1105,1101,1101,1101,1101,1101,1101,1101,1101,1101,1101,1101,1101,1101,1101,1097,1097,1097,1097,1097,1097,1097,1097,1094,1094,1094,1094,1094,1094,1094,1097,1097,1097,1097,1097,1094,1094,1094,1094,1094,1094,1094,1094,1094,1094,1090,1090,1090,1090,1090,1090,1087,1087,1087,1087,1087,1087,1087,1087,1087,1087,1087,1087,1087,1087,1084,1084,1087,1084,1084,1087,1084,1084,1084,1084,1080,1080,1080,1080,1080,1080,1080,1080,1080,1080,1077,1077,1077,1080,1077,1010,1010,1010,1010,1013,1013,1013,1013,1077,1073,1073,1077,1077,1077,1077,1080,1080,1080,1080,1080,1080,1080,1084,1084,1080,1080,946,946,1084,940,938,938,938,938,938,938,938,938,935,935,935,933,930,928,928,928,925,925,925,925,933,0,0,0,0,0,0,0,0,0,0,0,0,0,0,0,0,0,0,0,0,0,0,0,0,0,0,0,0,0,0,0,0,0,0,0,0
0,0,0,0,0,0,0,0,1202,1202,1202,1202,1202,1206,1206,1206,1210,1210,1210,1206,1206,1202,1202,1202,1202,1202,1202,1202,1202,1202,1206,1202,1202,1202,1197,1197,1197,1197,1197,1197,1206,1206,1202,1202,1202,1202,1202,1202,1202,1202,1202,1202,1202,1197,1197,1197,1197,1197,1197,1197,1202,1202,1206,1202,1202,1202,1202,1197,1197,1193,1193,1193,1193,1193,1193,1193,1193,1193,1193,1193,1189,1189,1189,1189,1189,1189,1189,1189,1189,1189,1189,1189,1189,1193,1193,1189,1189,1189,1189,1193,1189,1185,1185,1185,1185,1181,1181,1181,1181,1181,1181,1025,1022,1019,1019,1019,1016,1013,1013,1010,1010,1010,1010,1013,1013,1013,1013,1016,1019,1022,1025,1025,1025,1025,1181,1181,1181,1181,1181,1181,1181,1181,1181,1181,1177,1177,1177,1177,1177,1177,1177,1177,1177,1177,1177,1177,1173,1173,1173,1173,1173,1173,1173,1173,1173,1169,1169,1169,1169,1169,1169,1169,1169,1169,1169,1169,1169,1169,1169,1169,1169,1169,1169,1169,1169,1173,1173,1169,1169,1169,1169,1165,1165,1169,1169,1165,1165,1165,1165,1165,1165,1165,1165,1165,1165,1165,1165,1165,1165,1165,1165,1161,1161,1161,1161,1161,1161,1161,1161,1161,1161,1161,1157,1157,1157,1157,0,0,0,0,0,0,0,0,0,755,755,754,752,752,750,749,747,747,746,746,744,744,742,742,742,742,744,746,747,749,750,752,752,754,755,759,761,762,764,764,0,0,0,0,0,0,1149,1149,1149,1149,1149,1145,1145,1145,1145,1141,1141,1141,1141,1141,1141,1141,1141,1141,1141,1141,1141,1141,1141,1141,1141,1141,1141,901,903,903,903,903,903,903,903,903,903,906,908,908,908,908,908,910,910,913,913,918,920,920,923,928,930,935,935,938,943,948,948,954,1126,1126,1130,1130,1130,1134,1134,1134,1134,1134,1134,1134,1134,1130,1130,1130,1130,1130,1126,1126,1126,1126,1126,1126,1126,1126,1126,1123,1123,1123,1123,1123,1123,1123,1123,1123,1123,1123,1123,1123,1123,1123,1119,1119,1119,1119,1119,1119,1119,1119,1119,1119,1123,1119,1119,1119,1119,1119,1119,1119,1119,1119,1119,1115,1115,1115,1115,1115,1115,1115,1115,1115,1115,1115,1115,1115,1115,1115,1115,1115,1115,1112,1112,1112,1112,1112,1112,1112,1112,1112,1112,1112,1108,1108,1108,1108,1108,1108,1108,1108,1108,1108,1108,1108,1112,1112,1112,1112,1108,1108,1108,1108,1108,1108,1108,1108,1108,1108,1108,1108,1108,1105,1105,1105,1105,1105,1105,1105,1105,1105,1101,1101,1101,1101,1097,1097,1097,1097,1097,1097,1097,1101,1101,1101,1101,1097,1097,1097,1097,1097,1097,1094,1094,1094,1094,1094,1094,1094,1094,1094,1094,1094,1094,1094,1094,1094,1094,1094,1094,1094,1090,1090,1090,1094,1090,1090,1090,1090,1090,1087,1087,1087,1084,1084,1084,1084,1084,1084,1084,1084,1084,1084,1084,1084,1084,1084,1084,1084,1084,1080,1080,1084,1080,1080,1080,1080,1080,1080,1080,1077,1077,1077,1077,1077,1077,1077,1077,1077,1077,1077,1077,1077,1010,1010,1010,1013,1013,1013,1013,1077,1073,1073,1073,1077,1077,1077,1077,1077,1077,1077,1077,1077,1080,1087,1087,1080,1080,946,946,946,940,938,938,938,938,938,938,938,938,938,938,938,933,930,928,925,925,925,925,0,0,0,0,0,0,0,0,0,0,0,0,0,0,0,0,0,0,0,0,0,0,0,0,0,0,0,0,0,0,0,0,0,0,0,0,0,0,0
0,0,0,0,0,0,0,0,1202,1197,1197,1197,1197,1202,1202,1202,1206,1206,1206,1202,1202,1202,1197,1197,1197,1202,1197,1197,1197,1202,1202,1202,1197,1197,1197,1193,1189,1189,1185,1185,1197,1197,1197,1197,1197,1197,1197,1197,1197,1197,1197,1197,1197,1197,1193,1193,1193,1193,1193,1193,1193,1193,1197,1197,1197,1197,1197,1193,1193,1189,1189,1189,1189,1189,1189,1189,1189,1193,1189,1189,1189,1189,1189,1185,1185,1185,1185,1185,1189,1189,1189,1189,1189,1189,1189,1185,1185,1185,1185,1185,1185,1181,1181,1181,1181,1181,1181,1181,1177,1177,1177,1025,1022,1022,1019,1019,1019,1016,1016,1013,1013,1013,1013,1013,1013,1013,1016,1016,1019,1022,1025,1025,1025,1025,1177,1177,1177,1177,1177,1181,1177,1177,1177,1177,1177,1173,1173,1173,1173,1173,1173,1173,1173,1173,1173,1173,1173,1173,1173,1169,1169,1173,1173,1169,1169,1165,1165,1165,1165,1165,1165,1165,1165,1165,1165,1165,1165,1165,1165,1165,1165,1165,1165,1165,1165,1165,1165,1165,1165,1165,1165,1165,1165,1165,1165,1165,1161,1161,1161,1161,1161,1161,1161,1161,1161,1161,1161,1165,1161,1161,1161,1161,1161,1161,1161,1157,1157,1157,1157,1157,1157,1157,1153,1153,1153,1153,0,0,0,0,0,0,0,0,0,0,755,754,754,752,752,750,749,747,746,746,744,744,742,742,742,742,746,747,749,750,750,752,752,754,755,759,761,764,764,764,766,0,0,0,0,0,1149,1145,1145,1145,1145,1145,1145,1141,1141,1141,1141,1141,1141,1141,1141,1138,1138,1138,1138,1138,1138,1141,1141,1141,1141,1141,898,901,901,901,901,901,901,901,901,901,901,903,903,903,906,906,908,908,908,910,913,918,920,920,923,928,930,935,935,938,943,948,948,1123,1123,1123,1126,1126,1130,1130,1130,1130,1130,1130,1130,1134,1130,1130,1126,1126,1126,1126,1123,1123,1126,1126,1126,1123,1123,1123,1123,1123,1123,1123,1123,1123,1123,1123,1119,1119,1119,1119,1119,1119,1119,1119,1119,1119,1119,1119,1119,1119,1119,1119,1119,1119,1119,1119,1119,1119,1119,1115,1115,1115,1115,1115,1115,1115,1112,1112,1112,1112,1112,1112,1112,1112,1112,1115,1112,1112,1112,1112,1112,1112,1112,1108,1108,1108,1108,1108,1108,1108,1108,1108,1108,1108,1108,1108,1108,1105,1105,1105,1105,1108,1108,1105,1105,1108,1108,1105,1105,1105,1108,1108,1105,1105,1105,1105,1105,1105,1105,1105,1105,1105,1105,1105,1101,1101,1101,1105,1101,1101,1101,1101,1101,1097,1097,1097,1094,1094,1094,1097,1097,1097,1097,1097,1097,1097,1097,1094,1094,1094,1094,1094,1094,1094,1090,1090,1090,1090,1090,1090,1090,1090,1090,1090,1090,1090,1090,1090,1090,1090,1090,1090,1090,1090,1090,1090,1090,1090,1087,1087,1087,1084,1084,1084,1084,1084,1080,1080,1080,1084,1084,1080,1080,1080,1080,1080,1080,1080,1080,1080,1080,1080,1080,1080,1080,1080,1080,1080,1077,1077,1077,1077,1077,1077,1077,1073,1073,1073,1073,1073,1073,1073,1073,1077,1010,1010,1010,1013,1013,1013,1077,1073,1073,1070,1070,1073,1073,1073,1070,1070,1073,1073,1073,1073,0,0,1090,1080,1080,946,946,946,943,940,940,938,938,938,938,938,938,938,938,938,938,938,925,925,925,925,0,0,0,0,0,0,0,0,0,0,0,0,0,0,0,0,0,0,0,0,0,0,0,0,0,0,0,0,0,0,0,0,0,0,0,0,0,0,0,0
0,0,0,0,0,0,0,0,1197,1197,1197,1197,1197,1197,1197,1202,1202,1202,1202,1197,1197,1197,1197,1197,1197,1197,1197,1197,1197,1197,1197,1197,1193,1193,1189,1189,1185,1185,1181,1181,1185,1189,1189,1189,1193,1193,1193,1193,1193,1193,1193,1193,1193,1189,1185,1185,1189,1189,1189,1189,1189,1189,1193,1193,1193,1193,1193,1189,1189,1189,1189,1185,1185,1185,1185,1185,1189,1189,1189,1189,1189,1189,1185,1185,1181,1181,1181,1181,1185,1185,1185,1185,1185,1185,1189,1185,1185,1181,1181,1181,1181,1181,1181,1181,1177,1177,1177,1177,1173,1173,1165,1165,1022,1022,1022,1022,1022,1019,1016,1016,1013,1013,1013,1013,1013,1013,1016,1019,1022,1025,1025,1025,1025,1025,1177,1177,1177,1177,1177,1177,1177,1177,1177,1177,1173,1173,1173,1169,1169,1173,1169,1169,1169,1169,1169,1169,1165,1165,1169,1165,1165,1165,1165,1165,1165,1165,1161,1161,1161,1161,1161,1165,1165,1161,1161,1165,1165,1161,1161,1161,1161,1161,1161,1161,1161,1161,1161,1161,1161,1161,1161,1161,1161,1161,1161,1161,1161,1161,1161,1161,1161,1161,1157,1157,1157,1157,1157,1161,1161,1161,1157,1157,1157,1157,1157,1153,1153,1153,1153,1153,1153,1153,1149,1149,1149,1149,0,0,0,0,0,0,0,0,0,0,755,755,754,754,754,752,750,749,747,746,746,744,742,742,744,744,746,747,749,750,752,752,754,754,755,759,762,764,764,764,766,0,0,0,0,0,1145,1145,1145,1145,1141,1141,1138,1138,1138,1134,1134,1138,1138,1138,1138,1138,1138,1138,1138,1138,1138,1138,1141,1141,1141,1141,898,898,898,898,901,898,898,898,898,901,901,901,901,903,903,906,906,906,908,910,915,918,920,920,923,928,930,935,935,938,938,1123,1123,1123,1123,1123,1123,1123,1126,1126,1126,1126,1126,1126,1126,1130,1126,1126,1123,1123,1123,1123,1123,1123,1123,1123,1123,1123,1123,1119,1119,1119,1119,1119,1119,1119,1119,1119,1115,1115,1115,1115,1115,1115,1115,1115,1119,1115,1115,1115,1115,1115,1115,1115,1115,1115,1119,1119,1119,1115,1115,1115,1112,1112,1112,1112,1112,1112,1112,1112,1112,1112,1112,1112,1108,1108,1112,1112,1112,1112,1108,1108,1108,1108,1108,1108,1108,1108,1108,1108,1108,1105,1105,1105,1105,1105,1105,1105,1105,1105,1105,1105,1105,1105,1105,1105,1105,1105,1105,1105,1105,1105,1101,1101,1101,1105,1105,1101,1101,1101,1101,1101,1101,1101,1101,1101,1097,1097,1097,1101,1101,1101,1101,1097,1097,1094,1094,1094,1094,1094,1094,1094,1094,1094,1094,1094,1094,1094,1094,1094,1094,1090,1090,1090,1090,1090,1090,1090,1087,1087,1087,1087,1087,1090,1087,1087,1087,1087,1090,1087,1084,1084,1087,1087,1087,1087,1090,1090,1090,1087,1087,1084,1084,1084,1084,1080,1080,1080,1080,1080,1080,1080,1080,1080,1080,1080,1080,1080,1080,1080,1080,1080,1080,1080,1080,1080,1077,1077,1077,1077,1077,1077,1077,1077,1077,1073,1070,1070,1070,1070,1070,1070,1073,1073,1073,1077,1010,1010,1010,1013,1013,1013,1013,1013,1073,1070,1070,1070,1070,1070,1070,1070,1070,1070,1073,1073,0,0,0,0,0,948,948,946,943,940,940,940,938,938,940,938,938,940,940,943,943,1038,1038,1038,1038,0,0,0,0,0,0,0,0,0,0,0,0,0,0,0,0,0,0,0,0,0,0,0,0,0,0,0,0,0,0,0,0,0,0,0,0,0,0,0,0,0
