0,0,0,0,0,0,0,0,0,0,0,0,0,1843,1843,1843,1843,1843,1843,1843,1843,1853,1853,1853,1863,1863,1863,1863,1863,1863,1863,1853,1853,1853,1853,1843,1843,1843,1843,1853,1853,1853,1863,1863,1863,1863,1863,1863,1873,1863,1863,1863,1863,1853,1853,1853,1853,1853,1853,1843,1843,1853,1853,1853,1853,1853,1853,1853,1853,1853,1853,1863,1863,1863,1863,1863,1863,0,0,0,0,0,0,0,0,0,0,0,0,0,0,0,0,0,0,0,0,0,0,733,733,733,733,733,734,736,738,738,738,738,734,734,733,733,733,733,733,734,733,733,734,734,736,734,733,733,733,734,733,733,733,733,733,733,733,733,733,733,733,733,733,730,727,727,727,727,728,728,728,728,731,731,733,733,733,734,734,734,734,734,734,730,728,728,730,733,731,731,731,733,733,733,731,731,731,731,731,731,731,733,733,736,733,733,733,733,733,736,733,733,733,733,731,731,731,733,733,733,733,733,733,731,730,730,731,731,730,730,731,731,731,731,733,733,733,734,734,734,736,738,739,739,741,741,741,741,742,742,744,746,746,747,747,747,749,750,750,750,752,752,754,754,755,755,757,759,759,761,761,762,764,766,767,767,767,769,769,773,776,780,781,781,783,783,783,787,792,794,794,794,796,798,798,800,803,803,803,805,805,807,809,809,809,811,811,813,815,815,817,819,819,821,821,823,825,825,825,827,827,829,829,831,831,831,833,835,835,837,839,843,843,845,845,845,847,849,849,851,854,854,854,856,858,858,860,862,862,862,864,867,867,869,869,871,871,871,875,875,878,878,880,880,880,880,882,882,882,882,882,882,882,882,885,887,887,887,889,889,891,894,894,896,896,896,898,898,898,898,0,0,0,0,0,0,1722,1713,1713,1705,1705,1705,1696,1696,1688,1680,1671,1671,1663,1663,1655,1655,1647,1647,1639,1639,1639,1632,1632,1616,1616,1609,1609,1601,1601,1601,1594,1594,1586,1586,1579,1572,1572,1564,1557,1557,1557,1550,1550,1550,1543,1543,1543,1536,1523,1523,1516,1516,1516,1516,1509,1503,1503,1503,1496,1489,1489,1483,1477,1477,1470,1470,1464,1464,1458,1458,1452,1445,1445,1445,1439,1439,1439,1433,1427,1421,1421,1415,1415,1410,1410,1404,1398,1398,1398,1398,1392,1392,1387,1376,1376,1376,1370,1370,1365,1365,1359,1354,1354,1354,1349,1349,1343,1343,1343,1333,1333,1328,1322,1322,1317,1317,1312,1307,1307,1307,1307,1302,1302,1297,1292,1288,1288,1283,1283,1278,1278,1273,1273,1268,1268,1264,1264,1259,1255,1250,1250,1245,1245,1241,1236,1236,1232,1232,1232,1232,1227,1223,1219,1214,1214,1214,1210,1206,1206,1202,1197,1197,1197,1193,1193,1185,1185,1185,1185,1181,1177,1177,1173,1169,1169,1165,1165,1165,1161,1157,1157,1153,1153,1149,1149,1145,1141,1141,1138,1138,1134,1134,1134,1134,1130,1126,1123,1123,1123,1119,1119,1115,1115,1112,1108,1105,1105,1105,1101,1097,1094,1094,1094,1090,1090,1087,1084,1084,1080,1080,1077,1077,1073,1073,1070,1067,1067,1063,1063,1063,1060,1060,1057,1057,0,0,0,0,0,0,0,0,0,0,0,0,0,0,0,0,0,0,0,0,0,0,0,0,0,0,0,0,0,0,0,0
0,0,0,0,0,0,0,0,0,0,0,0,0,1843,1843,1843,1833,1833,1843,1843,1843,1843,1843,1843,1843,1843,1853,1853,1853,1853,1853,1853,1843,1843,1843,1843,1843,1833,1833,1833,1833,1843,1853,1853,1853,1853,1853,1853,1863,1863,1853,1853,1853,1853,1853,1843,1843,1853,1843,1843,1843,1843,1843,1843,1843,1843,1843,1843,1843,1853,1853,1853,1853,1853,1843,1843,1843,0,0,0,0,0,0,0,0,0,0,0,0,0,0,0,0,0,0,0,0,0,0,731,731,731,731,730,730,731,731,731,730,730,734,733,733,731,731,731,733,733,733,733,733,734,734,733,733,733,733,733,733,731,731,731,730,730,730,730,731,731,731,731,731,730,727,727,723,723,725,725,725,725,728,730,730,730,730,730,728,728,727,727,728,725,725,725,725,730,728,728,728,728,730,727,727,727,727,730,730,728,728,731,733,734,730,730,730,730,728,728,728,728,728,728,728,728,728,727,727,727,727,730,728,728,728,730,730,730,730,730,730,730,730,730,731,731,733,733,734,734,736,738,738,739,739,741,741,741,742,742,744,746,747,747,747,747,749,750,750,750,752,752,754,754,755,755,759,759,761,762,762,762,764,766,767,767,767,769,771,780,780,783,783,783,787,787,789,792,794,794,796,796,798,798,798,800,803,803,803,805,805,807,809,809,811,811,813,813,815,817,817,819,819,821,821,823,825,825,827,827,829,829,831,831,831,831,833,835,835,839,839,843,843,845,845,847,847,849,851,851,854,854,856,856,858,860,860,862,862,864,864,867,869,869,869,871,871,871,875,875,878,878,880,880,880,882,882,882,882,882,882,882,882,885,887,887,887,887,889,889,891,894,894,896,896,898,898,901,898,898,898,0,0,0,0,0,1722,1713,1713,1713,1705,1705,1705,1696,1688,1680,1671,1671,1671,1663,1655,1655,1647,1647,1639,1639,1639,1632,1632,1616,1616,1609,1609,1609,1601,1601,1601,1594,1594,1586,1586,1572,1572,1564,1557,1557,1557,1550,1550,1550,1543,1543,1543,1536,1523,1523,1516,1516,1516,1516,1509,1503,1503,1503,1496,1489,1489,1483,1477,1477,1470,1470,1464,1464,1464,1458,1452,1445,1445,1445,1439,1439,1439,1433,1427,1421,1421,1415,1415,1415,1410,1404,1398,1398,1398,1398,1392,1392,1387,1381,1376,1376,1370,1370,1370,1365,1359,1359,1354,1354,1349,1349,1349,1349,1343,1338,1333,1333,1328,1322,1322,1317,1312,1307,1307,1307,1307,1302,1302,1297,1292,1292,1288,1288,1283,1283,1278,1273,1273,1273,1268,1268,1264,1259,1255,1250,1250,1250,1245,1241,1236,1236,1236,1232,1232,1232,1227,1223,1219,1214,1214,1214,1210,1210,1206,1202,1202,1197,1197,1197,1193,1189,1185,1185,1185,1181,1177,1177,1173,1169,1169,1165,1165,1165,1161,1157,1157,1153,1153,1153,1149,1149,1145,1141,1141,1138,1138,1134,1134,1134,1130,1130,1123,1123,1123,1119,1119,1119,1115,1112,1108,1108,1105,1105,1105,1097,1097,1097,1094,1090,1090,1090,1087,1084,1084,1080,1080,1077,1073,1073,1070,1067,1067,1063,1063,1063,1060,1057,1057,1057,0,0,0,0,0,0,0,0,0,0,0,0,0,0,0,0,0,0,0,0,0,0,0,0,0,0,0,0,0,0,0,0
0,0,0,0,0,0,0,0,0,0,0,0,0,1843,1843,1843,1833,1833,1833,1833,1833,1833,1843,1843,1843,1843,1843,1843,1843,1843,1843,1843,1843,1843,1833,1833,1833,1833,1833,1833,1833,1833,1843,1843,1843,1843,1843,1843,1843,1843,1843,1843,1843,1843,1843,1843,1843,1843,1843,1833,1833,1843,1843,1843,1843,1843,1843,1843,1843,1843,1843,1843,1843,1843,1833,1833,1833,0,0,0,0,0,0,0,0,0,0,0,0,0,0,0,0,0,0,0,0,0,0,728,728,730,730,728,728,730,730,731,728,728,728,728,728,728,730,730,731,731,731,731,731,731,731,731,730,730,730,730,728,728,728,727,727,728,728,728,728,728,727,727,727,723,722,722,722,722,722,722,722,723,723,725,725,725,727,725,723,723,723,722,722,723,723,723,723,727,727,725,725,725,727,725,722,722,722,723,722,720,720,723,723,725,725,727,727,727,727,728,728,728,727,727,727,727,723,723,723,723,723,727,727,727,727,728,728,728,728,728,728,730,730,730,731,731,733,733,734,734,736,736,738,739,739,739,741,742,742,744,744,746,747,747,747,749,749,750,750,750,752,754,754,754,754,755,759,759,761,762,762,764,764,767,769,769,773,776,781,783,783,785,787,787,789,789,792,792,794,794,796,798,798,800,800,802,803,805,805,805,807,807,809,809,811,811,813,815,817,817,817,819,819,821,823,823,825,827,827,829,829,831,831,831,833,833,833,835,837,839,841,843,845,845,847,847,849,849,851,851,854,854,856,856,860,860,862,862,864,864,867,867,869,869,871,871,871,871,875,875,878,878,880,882,882,882,885,885,885,885,885,885,885,885,887,887,889,889,889,891,894,894,896,896,898,898,898,901,898,898,898,0,0,0,0,0,0,1722,1713,1713,1705,1705,1705,1696,1688,1688,1680,1671,1671,1663,1663,1655,1647,1647,1639,1639,1639,1632,1632,1624,1616,1609,1609,1609,1601,1601,1601,1601,1594,1594,1586,1572,1572,1572,1564,1557,1557,1550,1550,1550,1543,1543,1543,1536,1523,1523,1523,1516,1516,1516,1509,1509,1503,1503,1496,1489,1489,1483,1483,1477,1470,1470,1464,1464,1464,1458,1452,1445,1445,1445,1439,1439,1439,1433,1427,1421,1421,1421,1415,1415,1415,1404,1398,1398,1398,1392,1392,1392,1387,1381,1376,1376,1376,1370,1370,1365,1359,1359,1354,1354,1354,1349,1349,1349,1343,1338,1333,1333,1328,1322,1322,1317,1312,1307,1307,1307,1307,1307,1302,1297,1292,1292,1288,1288,1283,1283,1278,1273,1273,1273,1268,1268,1264,1259,1259,1255,1250,1250,1245,1241,1236,1236,1236,1232,1232,1232,1232,1227,1223,1219,1214,1214,1214,1210,1206,1202,1202,1202,1197,1197,1193,1189,1189,1185,1185,1181,1177,1177,1173,1169,1169,1169,1165,1161,1161,1157,1153,1153,1153,1153,1149,1149,1149,1145,1145,1141,1138,1134,1134,1134,1130,1123,1123,1123,1123,1119,1119,1119,1115,1112,1112,1108,1108,1105,1105,1101,1097,1097,1094,1090,1090,1087,1087,1084,1084,1080,1080,1077,1077,1073,1070,1067,1067,1063,1063,1063,1060,1057,1057,1057,0,0,0,0,0,0,0,0,0,0,0,0,0,0,0,0,0,0,0,0,0,0,0,0,0,0,0,0,0,0,0,0
0,0,0,0,0,0,0,0,0,0,0,0,0,1833,1833,1833,1833,1833,1833,1833,1833,1833,1833,1833,1833,1833,1833,1833,1833,1833,1833,1833,1833,1833,1833,1823,1823,1823,1823,1823,1823,1823,1833,1833,1833,1833,1833,1843,1843,1843,1833,1833,1833,1833,1833,1833,1833,1833,1833,1833,1833,1833,1833,1833,1833,1833,1833,1833,1833,1833,1833,1833,1833,1833,1833,1833,1833,1833,0,0,0,0,0,0,0,0,0,0,0,0,0,0,0,0,0,0,0,0,730,728,728,730,728,728,728,727,727,728,727,727,728,727,725,723,722,722,722,730,730,728,728,728,728,728,728,728,728,727,725,725,725,725,725,725,725,725,725,723,722,722,722,720,720,720,720,720,720,720,720,720,722,722,722,720,720,720,720,720,720,720,720,720,722,719,717,717,720,719,719,720,720,720,720,720,720,722,720,720,719,719,720,720,720,723,723,723,723,727,727,725,725,723,723,725,722,722,722,722,723,723,723,723,725,727,727,727,727,728,728,728,730,730,731,731,733,733,734,734,736,736,738,739,739,739,741,742,742,744,744,747,747,747,747,749,750,752,752,752,754,754,754,754,754,755,759,761,762,764,764,766,766,773,774,774,780,781,783,785,785,787,787,789,789,790,792,794,794,794,796,798,798,800,800,803,803,805,805,805,807,807,809,809,811,811,813,815,817,817,819,819,819,821,823,823,825,827,827,829,829,831,831,833,833,833,835,837,837,841,841,845,845,847,847,849,849,851,851,854,854,856,856,858,860,860,862,862,862,864,867,867,869,869,871,871,871,873,875,875,878,878,882,882,885,885,887,887,887,885,885,885,885,887,887,887,889,889,889,891,894,894,896,898,898,898,898,901,898,898,0,0,0,0,0,0,0,1722,1722,1713,1713,1705,1705,1696,1696,1680,1671,1671,1671,1663,1663,1655,1655,1647,1639,1639,1639,1632,1632,1624,1624,1616,1609,1609,1601,1601,1601,1601,1594,1594,1586,1579,1572,1572,1564,1564,1557,1550,1550,1550,1543,1543,1543,1543,1529,1523,1523,1516,1516,1516,1509,1509,1503,1503,1496,1489,1489,1489,1483,1477,1470,1470,1470,1464,1464,1458,1452,1445,1445,1445,1445,1439,1439,1433,1427,1421,1421,1421,1421,1415,1415,1404,1398,1398,1398,1392,1392,1392,1387,1381,1381,1376,1376,1370,1370,1365,1359,1359,1354,1354,1354,1349,1349,1349,1343,1343,1333,1333,1328,1322,1322,1317,1312,1312,1307,1307,1307,1307,1302,1297,1292,1292,1288,1288,1283,1283,1278,1273,1273,1273,1268,1268,1264,1259,1255,1255,1250,1250,1245,1245,1241,1236,1236,1236,1232,1232,1232,1227,1223,1219,1214,1214,1214,1210,1206,1202,1202,1202,1197,1197,1193,1189,1189,1185,1185,1181,1181,1177,1173,1173,1169,1169,1165,1161,1161,1157,1153,1153,1153,1153,1153,1149,1149,1145,1145,1141,1138,1134,1134,1134,1130,1123,1123,1123,1123,1119,1119,1119,1115,1115,1112,1108,1108,1105,1105,1101,1097,1097,1094,1090,1090,1087,1087,1084,1084,1080,1080,1077,1077,1073,1070,1067,1067,1063,1063,1063,1060,1057,1057,1057,0,0,0,0,0,0,0,0,0,0,0,0,0,0,0,0,0,0,0,0,0,0,0,0,0,0,0,0,0,0,0,0
0,0,0,0,0,0,0,0,0,0,0,0,0,1833,1823,1823,1823,1823,1823,1823,1823,1823,1823,1823,1823,1823,1823,1823,1823,1823,1833,1833,1823,1823,1823,1823,1823,1813,1813,1813,1813,1823,1823,1833,1823,1823,1833,1833,1833,1833,1833,1833,1833,1833,1833,1823,1823,1823,1823,1823,1823,1823,1823,1823,1823,1823,1823,1823,1823,1823,1823,1833,1833,1833,1823,1823,1813,1813,0,0,0,0,0,0,0,0,0,0,0,0,0,0,0,0,0,0,0,0,730,728,728,730,728,728,728,725,725,727,725,725,723,720,720,720,720,719,716,716,714,714,714,727,725,725,725,725,725,722,722,722,722,722,722,722,722,720,720,720,719,719,720,717,717,717,719,719,719,719,719,720,720,719,717,717,717,717,717,717,719,719,719,719,720,717,717,717,717,719,719,719,719,720,720,720,720,720,720,719,717,717,716,716,716,714,714,714,717,717,717,717,717,716,716,720,720,720,720,720,720,722,722,722,725,727,727,727,727,727,728,728,730,730,731,731,733,733,734,734,736,736,738,739,739,741,741,742,744,746,746,747,747,749,749,750,752,754,754,754,755,755,755,755,773,762,762,764,767,771,769,769,769,778,778,778,781,785,785,787,787,787,789,789,790,792,794,794,794,796,796,798,798,800,802,803,803,805,805,805,807,807,809,811,811,813,815,817,817,817,819,819,821,823,823,825,825,827,827,829,831,831,833,833,833,833,835,837,841,841,843,845,847,847,849,849,851,851,854,854,854,856,858,858,860,860,862,862,862,864,867,869,869,869,871,871,871,873,875,875,875,878,882,887,887,887,887,887,887,887,887,887,887,887,887,889,889,889,889,891,894,894,896,898,898,898,901,901,898,898,898,0,0,0,0,0,0,1722,1722,1713,1713,1713,1705,1696,1696,1680,1671,1671,1671,1663,1663,1663,1655,1647,1647,1639,1639,1632,1632,1632,1624,1616,1609,1609,1609,1601,1601,1601,1601,1594,1586,1579,1579,1572,1564,1564,1557,1557,1550,1550,1543,1543,1543,1543,1529,1523,1523,1516,1516,1516,1516,1509,1509,1503,1496,1496,1489,1489,1483,1477,1470,1470,1470,1464,1464,1464,1452,1452,1445,1445,1445,1439,1439,1439,1433,1427,1421,1421,1421,1415,1410,1404,1398,1398,1398,1392,1392,1392,1387,1381,1381,1376,1376,1370,1370,1365,1365,1359,1354,1354,1354,1349,1349,1349,1343,1343,1333,1333,1328,1322,1317,1317,1312,1312,1307,1307,1307,1307,1302,1297,1292,1292,1292,1288,1288,1288,1283,1278,1278,1273,1268,1268,1264,1264,1255,1255,1250,1250,1250,1245,1241,1236,1236,1236,1236,1232,1232,1227,1223,1219,1214,1214,1210,1210,1206,1202,1202,1202,1197,1197,1193,1189,1189,1185,1185,1185,1181,1177,1177,1173,1169,1169,1165,1165,1161,1161,1153,1153,1153,1153,1153,1149,1149,1149,1145,1141,1141,1138,1138,1134,1134,1130,1123,1123,1123,1119,1119,1119,1119,1115,1112,1108,1108,1105,1101,1101,1097,1094,1094,1090,1090,1090,1087,1084,1084,1084,1080,1077,1077,1073,1073,1070,1067,1067,1063,1063,1060,1057,1057,1057,0,0,0,0,0,0,0,0,0,0,0,0,0,0,0,0,0,0,0,0,0,0,0,0,0,0,0,0,0,0,0,0
0,0,0,0,0,0,0,0,0,0,0,0,0,1833,1823,1813,1813,1813,1823,1813,1813,1813,1823,1813,1813,1813,1813,1813,1823,1823,1823,1823,1823,1823,1823,1813,1813,1813,1813,1804,1804,1813,1813,1823,1823,1823,1823,1823,1813,1813,1813,1813,1823,1813,1813,1813,1813,1813,1813,1813,1813,1813,1813,1813,1813,1813,1813,1813,1813,1813,1813,1823,1823,1823,1823,1813,1813,1813,0,0,0,0,0,0,0,0,0,0,0,0,0,0,0,0,0,0,0,0,730,728,728,730,728,728,727,722,719,719,722,719,719,717,717,716,716,716,714,713,711,710,710,710,710,711,714,716,716,719,719,719,719,717,716,716,716,716,716,717,717,716,716,716,716,716,717,717,719,719,719,720,719,717,716,716,714,714,716,716,716,717,716,716,717,716,716,716,716,716,716,717,717,720,720,719,719,719,719,716,716,716,714,714,713,711,711,713,713,713,714,714,716,716,716,716,717,717,717,720,720,720,720,720,723,723,725,725,727,727,728,728,730,730,731,731,733,734,734,734,736,736,738,739,741,741,742,742,744,746,747,747,747,750,750,752,754,755,755,755,761,762,769,769,773,771,771,773,773,774,776,778,780,780,780,781,783,785,787,787,787,789,789,790,792,792,794,794,794,796,798,798,800,800,802,803,803,805,805,807,807,809,809,811,811,813,815,817,817,819,819,821,821,823,823,825,827,827,829,829,831,831,833,833,833,835,837,839,841,843,845,847,847,849,849,851,851,851,854,854,854,856,858,858,860,860,862,862,862,867,867,869,869,869,869,871,871,873,873,875,875,880,891,891,891,889,889,887,887,887,887,887,887,887,889,889,889,889,889,894,894,896,896,898,898,898,901,901,901,898,898,0,0,0,0,0,0,1713,1713,1713,1713,1713,1705,1705,1696,1680,1671,1671,1671,1663,1663,1663,1655,1655,1647,1647,1639,1639,1632,1632,1624,1624,1616,1609,1609,1601,1601,1601,1601,1601,1586,1579,1579,1572,1564,1564,1557,1557,1550,1550,1543,1543,1543,1536,1529,1523,1523,1523,1516,1516,1516,1509,1509,1503,1496,1496,1496,1489,1489,1483,1477,1470,1470,1464,1464,1464,1452,1452,1445,1445,1445,1439,1439,1439,1433,1427,1421,1421,1421,1415,1410,1410,1404,1398,1398,1398,1392,1392,1387,1381,1381,1376,1376,1370,1370,1365,1365,1359,1354,1354,1354,1354,1349,1349,1343,1343,1338,1333,1328,1322,1317,1317,1312,1312,1307,1307,1307,1307,1302,1297,1292,1292,1292,1288,1288,1288,1283,1278,1273,1273,1273,1268,1268,1264,1255,1255,1255,1250,1250,1245,1241,1241,1236,1236,1236,1232,1232,1227,1223,1219,1214,1214,1210,1210,1206,1202,1202,1202,1197,1197,1197,1189,1189,1185,1185,1185,1181,1181,1177,1173,1169,1169,1165,1165,1165,1161,1157,1153,1153,1153,1153,1149,1149,1149,1145,1141,1141,1138,1138,1134,1134,1130,1123,1123,1123,1123,1119,1119,1119,1115,1112,1112,1108,1105,1101,1101,1097,1094,1094,1090,1090,1090,1087,1087,1084,1084,1080,1077,1077,1077,1073,1067,1067,1067,1063,1063,1060,1060,1057,1057,0,0,0,0,0,0,0,0,0,0,0,0,0,0,0,0,0,0,0,0,0,0,0,0,0,0,0,0,0,0,0,0
0,0,0,0,0,0,0,0,0,0,0,0,0,1823,1813,1804,1804,1804,1813,1804,1804,1804,1813,1804,1804,1804,1804,1804,1813,1813,1804,1804,1813,1813,1813,1813,1804,1804,1804,1804,1804,1804,1804,1813,1813,1813,1813,1813,1804,1804,1804,1804,1804,1804,1804,1804,1804,1804,1804,1804,1804,1804,1804,1804,1804,1804,1804,1804,1804,1804,1813,1813,1813,1813,1804,1804,1804,1804,0,0,0,0,0,0,0,0,0,0,0,0,0,0,0,0,0,0,0,0,728,728,727,727,727,727,725,720,717,714,714,716,714,714,714,713,713,713,711,711,710,708,708,708,708,708,710,710,711,711,716,716,714,714,714,714,714,714,714,714,714,713,713,713,713,714,714,716,716,716,716,716,714,714,714,714,713,713,714,714,714,716,716,716,716,714,714,713,713,713,713,714,714,717,719,719,717,717,717,714,714,713,713,711,711,711,711,711,713,713,713,714,714,716,716,716,716,716,716,719,719,720,720,720,723,723,725,725,727,727,728,728,730,730,731,731,733,734,734,736,738,738,739,739,741,741,742,742,744,746,747,747,749,750,754,754,755,761,761,767,767,767,769,771,773,773,773,773,774,776,778,780,780,781,781,781,783,785,787,787,787,789,789,790,792,792,794,794,794,796,798,800,800,800,802,803,805,805,805,807,809,809,809,811,813,815,815,817,819,819,819,821,821,825,825,827,827,829,829,831,831,833,833,833,835,835,839,841,843,843,845,847,849,849,851,851,851,854,854,854,854,856,858,858,860,860,862,862,864,867,867,869,869,869,869,871,871,873,873,875,875,903,898,896,894,891,891,889,889,887,887,887,887,889,889,889,889,889,891,894,894,896,898,898,898,901,901,901,901,901,0,0,0,0,0,0,1705,1705,1705,1713,1713,1713,1705,1705,1696,1688,1680,1671,1671,1671,1663,1663,1655,1655,1647,1647,1639,1639,1632,1632,1632,1624,1616,1616,1609,1609,1601,1601,1601,1601,1586,1586,1579,1572,1572,1564,1557,1557,1550,1550,1550,1550,1543,1536,1529,1523,1523,1523,1516,1516,1516,1509,1509,1503,1496,1496,1496,1489,1489,1483,1477,1470,1470,1470,1464,1464,1458,1452,1445,1445,1445,1439,1439,1439,1433,1427,1421,1421,1421,1415,1410,1410,1404,1404,1398,1398,1392,1392,1387,1387,1381,1376,1376,1376,1370,1370,1365,1359,1359,1354,1354,1354,1349,1349,1349,1343,1338,1333,1333,1328,1322,1317,1312,1312,1312,1307,1307,1307,1302,1297,1292,1292,1292,1288,1288,1288,1283,1278,1273,1273,1273,1268,1268,1264,1259,1255,1255,1255,1250,1245,1241,1241,1236,1236,1236,1232,1232,1227,1223,1219,1214,1214,1214,1210,1210,1206,1206,1202,1202,1202,1197,1197,1189,1189,1185,1185,1181,1181,1177,1173,1169,1169,1169,1165,1165,1161,1157,1157,1153,1153,1153,1153,1149,1149,1145,1145,1141,1138,1138,1134,1134,1130,1123,1123,1123,1119,1119,1119,1119,1115,1112,1112,1108,1105,1101,1101,1097,1094,1094,1090,1090,1090,1087,1087,1084,1084,1080,1080,1077,1077,1073,1067,1067,1067,1063,1063,1063,1060,1057,1057,0,0,0,0,0,0,0,0,0,0,0,0,0,0,0,0,0,0,0,0,0,0,0,0,0,0,0,0,0,0,0,0
0,0,0,0,0,0,0,0,0,0,0,0,0,1813,1804,1804,1804,1804,1804,1804,1804,1804,1804,1804,1804,1794,1794,1794,1804,1804,1804,1804,1804,1794,1794,1804,1804,1804,1804,1804,1804,1804,1804,1804,1804,1804,1804,1804,1804,1804,1804,1804,1804,1804,1794,1794,1794,1794,1804,1804,1804,1804,1804,1804,1804,1804,1794,1794,1794,1794,1804,1804,1804,1804,1794,1794,1785,1785,0,0,0,0,0,0,0,0,0,0,0,0,0,0,0,0,0,0,0,0,728,728,727,727,727,727,725,720,717,710,710,710,711,711,710,710,710,711,711,710,708,706,706,706,706,707,708,708,708,710,710,710,710,710,713,713,713,713,713,713,711,711,711,711,711,711,711,713,713,714,714,714,714,713,713,713,711,711,711,713,713,714,713,713,714,713,711,710,710,710,708,708,710,717,710,710,711,711,713,713,713,711,711,710,710,710,710,711,711,711,711,713,714,714,714,716,716,716,716,719,719,720,720,722,722,723,725,725,727,727,728,728,730,731,731,733,734,734,736,736,738,739,739,741,741,741,742,744,746,747,747,749,749,754,755,762,764,764,764,767,767,769,771,773,773,773,773,774,774,778,780,780,780,781,781,783,785,787,787,787,789,789,790,790,792,794,794,796,796,796,798,800,802,802,803,803,805,807,807,809,809,809,811,811,813,815,817,817,819,819,819,821,823,825,825,827,827,829,829,831,831,833,833,835,835,837,839,841,843,843,845,847,849,851,851,854,854,854,856,856,856,856,858,858,860,860,862,862,864,867,867,869,869,869,869,871,871,871,908,908,906,903,901,901,896,894,891,889,889,889,889,889,889,889,889,889,891,891,894,896,896,896,898,898,901,901,901,901,901,0,0,0,0,0,0,0,1705,1705,1705,1705,1705,1705,1705,1696,1696,1688,1680,1671,1671,1671,1663,1663,1663,1655,1655,1647,1639,1639,1632,1632,1632,1624,1624,1616,1609,1609,1609,1601,1601,1601,1586,1586,1579,1579,1572,1572,1557,1557,1550,1550,1550,1550,1543,1536,1529,1529,1523,1523,1523,1516,1516,1509,1509,1503,1496,1496,1496,1489,1489,1483,1477,1470,1470,1470,1464,1464,1458,1452,1452,1445,1445,1445,1439,1439,1433,1433,1427,1421,1421,1415,1410,1410,1410,1404,1398,1398,1392,1392,1387,1387,1381,1376,1376,1376,1370,1370,1365,1359,1359,1354,1354,1354,1349,1349,1349,1343,1338,1338,1333,1328,1322,1317,1312,1312,1312,1307,1307,1307,1302,1297,1292,1292,1292,1288,1288,1288,1283,1278,1278,1273,1273,1268,1268,1264,1259,1259,1255,1255,1250,1245,1241,1241,1236,1236,1236,1232,1232,1227,1223,1219,1214,1214,1214,1210,1210,1206,1206,1202,1202,1202,1197,1197,1189,1189,1185,1185,1185,1181,1181,1177,1173,1169,1169,1165,1165,1161,1157,1157,1157,1153,1153,1153,1149,1149,1145,1145,1141,1138,1138,1134,1134,1130,1123,1123,1123,1119,1119,1119,1119,1115,1112,1108,1108,1105,1101,1101,1097,1094,1094,1094,1094,1090,1090,1087,1087,1084,1080,1080,1077,1077,1073,1067,1067,1067,1063,1063,1060,1060,1057,1057,0,0,0,0,0,0,0,0,0,0,0,0,0,0,0,0,0,0,0,0,0,0,0,0,0,0,0,0,0,0,0,0
0,0,0,0,0,0,0,0,0,0,0,0,0,1794,1794,1785,1785,1804,1794,1794,1794,1794,1794,1794,1794,1794,1794,1794,1794,1794,1794,1794,1794,1794,1794,1804,1804,1804,1804,1804,1804,1804,1804,1804,1804,1804,1804,1804,1804,1804,1804,1794,1794,1794,1794,1794,1794,1794,1794,1794,1794,1794,1794,1794,1794,1794,1794,1785,1785,1785,1794,1794,1794,1785,1785,1785,1776,1776,0,0,0,0,0,0,0,0,0,0,0,0,0,0,0,0,0,0,0,0,0,728,727,727,727,710,710,710,708,708,706,706,708,710,710,710,710,710,708,708,707,703,703,703,703,704,704,704,704,704,706,707,707,707,708,708,710,710,711,711,710,708,708,708,708,708,708,708,708,710,711,710,710,710,710,710,710,710,710,710,710,710,708,708,707,707,708,707,706,706,704,701,701,701,704,704,704,704,707,708,708,708,708,708,708,710,710,710,711,711,711,713,713,714,714,716,716,716,717,719,719,720,720,722,722,723,725,725,727,728,728,730,731,731,733,733,734,734,736,738,739,739,741,741,741,742,742,746,747,749,749,754,757,759,761,762,764,766,766,767,769,771,773,773,774,774,774,774,774,778,780,780,781,781,783,783,787,787,787,789,789,790,790,792,794,794,796,796,796,798,800,800,802,802,803,805,805,807,807,809,809,809,811,813,813,815,817,817,819,819,821,823,823,825,825,827,827,829,829,831,831,833,833,835,835,839,841,841,843,843,845,847,849,851,851,854,854,856,856,856,856,856,858,858,860,860,862,864,864,867,869,869,869,869,869,869,871,871,908,906,906,903,903,898,896,894,891,891,889,889,889,889,889,889,889,889,891,891,894,896,896,896,898,901,901,901,901,903,903,0,0,0,0,0,0,0,1705,1705,1705,1705,1705,1705,1696,1696,1696,1688,1680,1671,1671,1671,1663,1663,1663,1655,1655,1647,1639,1639,1639,1632,1632,1624,1624,1616,1609,1609,1609,1601,1601,1601,1594,1586,1579,1579,1572,1572,1557,1557,1550,1550,1550,1550,1543,1543,1536,1529,1523,1523,1516,1516,1516,1509,1509,1503,1496,1496,1496,1489,1489,1483,1477,1477,1470,1470,1464,1464,1464,1452,1452,1445,1445,1445,1439,1439,1439,1433,1427,1427,1421,1415,1415,1410,1410,1404,1398,1398,1392,1392,1387,1387,1381,1381,1376,1376,1370,1370,1370,1365,1359,1354,1354,1354,1354,1349,1349,1343,1343,1338,1333,1328,1322,1317,1312,1312,1312,1307,1307,1307,1302,1297,1292,1292,1292,1288,1288,1288,1283,1278,1278,1273,1273,1268,1268,1264,1259,1259,1255,1255,1250,1245,1245,1241,1241,1236,1236,1232,1232,1232,1223,1219,1219,1214,1214,1210,1210,1206,1206,1202,1202,1202,1197,1197,1189,1189,1185,1185,1185,1181,1181,1177,1173,1173,1169,1165,1165,1161,1161,1157,1157,1157,1153,1153,1149,1149,1149,1145,1141,1138,1138,1134,1134,1126,1123,1123,1123,1123,1119,1119,1119,1115,1112,1108,1108,1105,1105,1105,1101,1094,1094,1094,1094,1090,1090,1087,1087,1087,1080,1080,1077,1077,1073,1067,1067,1067,1063,1063,1060,1060,1057,1057,0,0,0,0,0,0,0,0,0,0,0,0,0,0,0,0,0,0,0,0,0,0,0,0,0,0,0,0,0,0,0,0
0,0,0,0,0,0,0,0,0,0,0,0,0,1785,1785,1785,1785,1785,1785,1785,1785,1785,1794,1794,1794,1785,1785,1785,1785,1794,1794,1794,1794,1794,1794,1794,1794,1794,1794,1794,1794,1794,1804,1804,1804,1804,1804,1794,1794,1794,1794,1785,1785,1785,1785,1785,1785,1785,1785,1785,1785,1794,1794,1794,1785,1785,1785,1785,1785,1785,1785,1785,1785,1785,1776,1776,1766,1766,1766,0,0,0,0,0,0,0,0,0,0,0,1001,1001,1001,1001,0,0,0,0,0,0,0,0,0,0,708,708,707,704,704,704,707,707,707,707,707,707,707,703,701,700,700,701,701,701,701,701,701,703,704,704,704,704,704,706,707,707,706,706,707,707,707,706,704,704,704,701,701,703,704,703,703,704,706,707,707,707,707,707,707,706,706,706,703,703,704,704,703,703,703,700,700,700,703,703,703,703,704,706,706,707,708,708,708,708,710,710,711,711,711,713,713,714,714,716,716,717,719,719,719,720,720,722,723,725,725,727,727,728,730,730,731,733,733,733,734,734,736,739,739,741,741,741,742,744,746,747,757,759,759,759,761,761,762,764,766,766,767,767,771,771,773,773,774,774,774,774,776,778,780,780,781,781,783,785,787,787,787,789,789,790,792,792,794,794,796,796,796,798,800,800,802,802,803,805,805,807,807,809,809,809,811,813,813,815,817,817,819,819,821,823,823,825,825,827,827,829,829,831,833,833,835,835,835,839,841,843,843,843,845,847,849,851,851,854,854,856,856,856,856,856,856,858,858,860,862,867,867,869,869,869,869,869,869,869,871,0,908,906,906,903,903,898,896,894,891,891,889,889,889,889,889,889,889,891,894,894,896,896,896,898,898,901,903,903,903,903,903,0,0,0,0,0,0,0,1705,1705,1705,1705,1705,1705,1696,1696,1696,1688,1680,1680,1671,1671,1663,1663,1663,1663,1655,1647,1639,1639,1639,1632,1632,1624,1624,1616,1609,1609,1609,1601,1601,1594,1594,1586,1579,1579,1572,1572,1564,1557,1557,1550,1550,1550,1543,1543,1536,1529,1523,1523,1516,1516,1516,1509,1503,1503,1496,1496,1489,1489,1489,1489,1483,1477,1470,1470,1470,1464,1464,1458,1452,1452,1445,1445,1439,1439,1439,1433,1433,1427,1421,1415,1415,1415,1410,1404,1404,1398,1398,1392,1392,1387,1387,1381,1376,1376,1370,1370,1370,1365,1359,1359,1354,1354,1354,1349,1349,1349,1343,1338,1333,1328,1322,1317,1317,1312,1312,1307,1307,1307,1302,1302,1292,1292,1292,1288,1288,1288,1283,1278,1278,1273,1273,1268,1268,1264,1259,1259,1255,1250,1250,1245,1245,1241,1241,1236,1236,1236,1232,1232,1223,1219,1219,1214,1214,1214,1210,1206,1206,1202,1202,1202,1197,1197,1197,1189,1185,1185,1185,1181,1181,1181,1177,1173,1169,1165,1165,1165,1161,1157,1157,1157,1153,1153,1149,1149,1149,1145,1141,1141,1138,1134,1134,1126,1126,1123,1123,1123,1119,1119,1119,1115,1112,1112,1108,1105,1105,1105,1101,1097,1094,1094,1094,1090,1090,1090,1087,1087,1084,1080,1080,1077,1073,1070,1067,1067,1063,1063,1060,1060,1057,1057,0,0,0,0,0,0,0,0,0,0,0,0,0,0,0,0,0,0,0,0,0,0,0,0,0,0,0,0,0,0,0,0
0,0,0,0,0,0,0,0,0,0,0,0,1785,1776,1776,1776,1776,1776,1776,1776,1776,1776,1776,1785,1785,1785,1785,1785,1785,1785,1785,1785,1785,1785,1785,1785,1785,1785,1785,1785,1785,1794,1794,1794,1794,1794,1785,1785,1785,1785,1785,1776,1776,1785,1776,1776,1776,1785,1785,1785,1785,1785,1785,1785,1785,1785,1776,1776,1776,1776,1776,1776,1776,1776,1776,1776,1766,1766,1766,0,0,0,0,0,0,0,0,0,1001,998,998,1001,1001,1001,0,0,0,0,0,0,0,0,0,706,706,706,706,704,704,704,704,704,704,704,701,701,700,700,700,700,700,700,700,700,700,700,700,701,701,703,703,700,700,701,703,698,698,700,700,701,701,701,701,701,701,700,700,700,697,697,697,697,701,703,703,703,701,698,698,698,698,698,698,698,698,700,700,700,700,700,700,700,701,703,703,703,704,704,706,706,707,707,708,708,710,710,711,711,711,713,713,714,714,716,716,717,719,720,720,720,722,723,723,725,727,727,728,728,730,731,733,733,733,734,734,736,739,741,741,741,742,742,746,747,749,757,759,759,759,761,761,762,762,764,766,766,767,767,771,771,773,773,774,774,774,776,776,778,780,780,781,783,783,785,787,787,789,789,790,792,792,794,794,794,796,796,798,800,800,802,802,802,803,805,805,807,809,809,809,811,811,815,815,817,817,819,819,819,821,823,825,827,827,827,829,829,829,831,833,833,835,835,837,839,841,843,843,843,845,847,849,851,851,851,854,854,856,856,856,856,856,858,858,860,864,867,869,869,871,871,871,869,869,869,0,0,908,908,906,906,903,898,898,894,891,891,891,889,889,889,889,889,891,891,894,896,896,898,898,898,898,903,903,903,903,903,0,0,0,0,0,0,0,1705,1705,1705,1705,1705,1705,1696,1696,1696,1696,1688,1680,1680,1671,1671,1671,1663,1663,1663,1655,1647,1639,1639,1639,1632,1632,1632,1624,1616,1616,1609,1609,1601,1601,1594,1594,1586,1579,1579,1572,1572,1564,1557,1557,1550,1550,1550,1543,1543,1536,1529,1529,1523,1523,1516,1516,1509,1503,1503,1496,1496,1489,1489,1489,1483,1483,1477,1470,1470,1470,1464,1464,1464,1452,1452,1445,1445,1439,1439,1439,1433,1433,1427,1421,1421,1415,1415,1415,1410,1404,1398,1398,1392,1392,1387,1387,1381,1376,1376,1370,1370,1370,1365,1359,1359,1354,1354,1354,1349,1349,1349,1343,1338,1333,1328,1328,1322,1317,1312,1312,1312,1307,1307,1302,1302,1297,1292,1292,1292,1288,1288,1283,1278,1278,1273,1273,1273,1268,1268,1264,1259,1255,1250,1250,1245,1245,1241,1241,1236,1236,1236,1232,1232,1223,1219,1219,1214,1214,1214,1210,1206,1206,1202,1202,1202,1197,1197,1197,1189,1185,1185,1185,1181,1181,1181,1177,1173,1169,1169,1165,1165,1161,1161,1157,1157,1153,1153,1149,1149,1149,1145,1145,1141,1138,1138,1134,1130,1126,1123,1123,1123,1119,1119,1119,1115,1112,1112,1108,1108,1105,1105,1101,1097,1097,1094,1094,1090,1090,1090,1087,1087,1084,1080,1080,1080,1073,1070,1067,1067,1067,1063,1060,1060,1060,1060,0,0,0,0,0,0,0,0,0,0,0,0,0,0,0,0,0,0,0,0,0,0,0,0,0,0,0,0,0,0,0,0
0,0,0,0,0,0,0,0,0,0,0,0,1776,1776,1766,1766,1766,1766,1766,1766,1766,1766,1766,1766,1776,1776,1776,1776,1776,1776,1776,1776,1776,1776,1776,1766,1766,1776,1776,1776,1776,1776,1776,1785,1785,1785,1776,1776,1776,1776,1776,1766,1766,1766,1766,1766,1776,1776,1776,1776,1776,1776,1785,1776,1776,1776,1766,1766,1766,1766,1766,1766,1766,1776,1766,1766,1757,1757,1757,1757,0,0,0,0,0,0,0,0,998,998,998,1001,1001,1001,0,0,0,0,0,0,0,0,0,706,706,704,704,704,703,703,694,694,694,694,697,697,698,698,698,698,698,698,698,698,698,698,698,700,700,698,698,698,697,697,694,694,696,696,696,698,698,700,698,698,697,696,696,697,696,696,696,696,696,696,696,697,697,697,697,696,696,696,697,697,697,700,700,700,700,700,700,700,701,701,703,703,703,704,706,706,707,707,708,708,710,710,711,711,711,713,714,714,716,716,716,719,720,720,720,722,723,723,725,727,727,727,728,730,731,731,733,733,734,734,736,739,744,746,746,746,746,750,750,752,754,757,759,759,759,761,761,762,764,764,766,767,767,769,771,771,773,773,774,774,774,776,778,780,780,781,781,783,785,785,787,789,789,790,790,792,792,794,794,796,796,798,798,802,802,802,803,803,803,805,805,807,809,809,811,811,815,815,817,817,817,819,819,821,823,825,825,827,827,829,829,829,831,833,833,835,835,837,839,841,841,843,843,843,845,847,849,849,851,851,854,854,856,856,856,856,856,856,858,860,864,867,869,871,871,871,0,0,0,0,0,0,0,908,908,906,903,901,898,896,894,894,891,891,889,889,891,891,891,894,896,896,898,898,898,898,901,903,903,903,906,906,0,0,0,0,0,0,0,1696,1696,1696,1696,1696,1696,1696,1696,1696,1688,1688,1688,1680,1671,1671,1671,1663,1663,1663,1655,1647,1639,1639,1639,1632,1632,1632,1624,1624,1616,1609,1609,1609,1601,1594,1594,1586,1579,1579,1572,1572,1564,1564,1557,1557,1550,1550,1543,1543,1536,1536,1529,1523,1523,1516,1516,1509,1509,1503,1503,1496,1489,1489,1483,1483,1483,1477,1470,1470,1464,1464,1464,1464,1458,1452,1445,1445,1439,1439,1439,1433,1433,1427,1421,1421,1415,1415,1415,1410,1404,1404,1398,1398,1392,1392,1392,1387,1381,1376,1370,1370,1370,1365,1359,1359,1354,1354,1354,1349,1349,1349,1343,1333,1333,1328,1328,1322,1317,1317,1312,1312,1307,1307,1302,1302,1297,1292,1292,1292,1288,1288,1288,1283,1278,1278,1273,1273,1268,1268,1264,1259,1255,1255,1250,1245,1245,1241,1241,1236,1236,1236,1232,1232,1227,1223,1219,1219,1214,1214,1210,1206,1206,1202,1202,1202,1197,1197,1197,1189,1185,1185,1185,1181,1181,1181,1177,1173,1169,1169,1165,1165,1165,1161,1161,1157,1153,1153,1149,1149,1149,1145,1141,1141,1138,1138,1134,1130,1126,1126,1123,1123,1119,1119,1119,1119,1115,1112,1108,1108,1105,1105,1105,1101,1097,1097,1094,1094,1094,1090,1087,1087,1084,1080,1080,1080,1077,1073,1070,1070,1067,1067,1063,1063,1060,1060,0,0,0,0,0,0,0,0,0,0,0,0,0,0,0,0,0,0,0,0,0,0,0,0,0,0,0,0,0,0,0,0
0,0,0,0,0,0,0,0,0,0,0,0,1766,1766,1766,1766,1757,1757,1757,1757,1757,1757,1757,1757,1757,1766,1766,1766,1766,1766,1766,1766,1766,1766,1766,1757,1757,1766,1766,1766,1766,1776,1776,1776,1776,1776,1776,1776,1776,1776,1766,1766,1766,1766,1766,1766,1766,1766,1766,1766,1766,1766,1776,1766,1766,1766,1766,1766,1766,1766,1766,1766,1766,1766,1766,1757,1757,1757,1748,1748,0,0,0,0,0,0,0,0,998,998,998,1001,1001,1001,0,0,0,0,0,0,0,0,0,706,706,704,704,703,697,697,693,693,694,694,694,696,696,696,696,697,697,697,697,697,697,697,697,698,698,698,698,698,697,696,693,691,691,693,693,696,696,696,696,696,694,693,693,693,693,691,691,693,693,694,694,696,696,696,696,696,694,694,696,696,696,698,698,698,700,700,700,700,701,701,703,703,703,704,704,706,707,707,708,708,708,710,711,711,713,713,714,714,716,716,716,719,720,720,720,722,723,725,727,728,730,731,733,733,733,733,733,733,734,734,742,747,747,749,749,749,749,752,752,755,757,759,759,759,761,761,762,762,764,766,766,767,767,769,771,773,773,773,774,774,776,778,778,780,780,781,781,783,785,787,787,789,789,790,790,792,794,794,796,796,796,798,800,802,802,803,803,803,805,807,807,807,809,809,811,811,815,817,817,817,819,819,821,823,825,825,825,827,827,829,829,829,831,833,833,835,837,837,839,841,841,841,843,843,843,847,847,849,849,851,854,854,856,856,856,856,856,856,858,860,860,1705,1705,1705,1713,0,0,0,0,0,0,0,0,910,908,906,906,901,898,896,894,894,891,891,891,891,891,891,894,894,896,898,898,898,898,901,903,903,906,906,906,906,0,0,0,0,0,0,0,1696,1696,1696,1696,1696,1696,1696,1696,1688,1688,1688,1688,1680,1680,1671,1671,1663,1663,1663,1655,1647,1639,1639,1639,1632,1632,1632,1624,1616,1616,1609,1609,1609,1601,1594,1594,1586,1579,1579,1572,1572,1564,1564,1557,1557,1550,1550,1543,1543,1543,1536,1529,1523,1523,1516,1516,1509,1509,1503,1503,1496,1489,1489,1483,1483,1483,1477,1470,1470,1464,1464,1464,1464,1458,1452,1452,1445,1439,1439,1439,1433,1433,1427,1421,1421,1415,1415,1415,1410,1410,1404,1398,1398,1392,1392,1392,1387,1376,1376,1370,1370,1370,1365,1365,1359,1354,1354,1354,1354,1349,1349,1343,1333,1333,1328,1328,1322,1322,1317,1312,1312,1307,1307,1307,1302,1297,1292,1292,1292,1292,1288,1288,1283,1283,1278,1273,1273,1268,1268,1264,1259,1255,1255,1250,1245,1245,1241,1241,1236,1236,1236,1236,1232,1227,1223,1223,1219,1219,1214,1214,1210,1206,1206,1202,1202,1202,1197,1197,1193,1189,1185,1185,1181,1181,1181,1177,1177,1173,1169,1165,1165,1165,1165,1161,1161,1157,1153,1149,1149,1149,1145,1141,1141,1138,1138,1134,1130,1126,1126,1126,1123,1123,1119,1119,1119,1115,1112,1108,1108,1105,1105,1105,1101,1101,1097,1094,1094,1094,1090,1087,1087,1084,1084,1084,1080,1077,1077,1073,1070,1067,1067,1063,1063,1060,1060,0,0,0,0,0,0,0,0,0,0,0,0,0,0,0,0,0,0,0,0,0,0,0,0,0,0,0,0,0,0,0,0
0,0,0,0,0,0,0,0,0,0,0,0,1757,1757,1757,1757,1757,1757,1757,1757,1757,1757,1757,1748,1748,1766,1766,1766,1766,1766,1766,1766,1757,1757,1757,1757,1757,1766,1766,1766,1766,1766,1766,1766,1766,1766,1766,1766,1766,1766,1766,1766,1766,1766,1766,1766,1766,1766,1766,1766,1766,1766,1766,1766,1766,1766,1766,1766,1766,1766,1766,1757,1757,1757,1757,1748,1748,1748,1748,1748,0,0,0,0,0,0,0,0,0,0,1001,1001,1001,1001,1004,0,0,0,0,0,0,0,0,0,706,704,703,701,694,694,693,693,693,693,693,693,693,693,693,694,694,693,693,693,693,693,693,693,696,696,696,696,696,694,693,690,690,690,690,690,690,690,693,693,687,687,690,690,690,691,691,691,691,690,690,694,694,694,694,694,694,694,694,696,696,696,697,697,698,698,698,700,701,701,703,703,703,704,704,706,707,707,708,708,708,710,711,711,713,714,714,716,716,716,717,720,720,720,722,723,727,728,730,730,733,733,734,734,734,734,736,736,738,747,747,749,749,750,750,750,752,754,754,757,757,759,759,761,761,762,762,764,764,766,766,767,769,771,773,773,774,774,774,776,776,778,780,780,781,781,783,785,785,787,789,789,789,790,792,792,794,794,796,796,798,800,800,802,802,803,803,805,805,807,809,809,811,813,813,815,815,817,817,819,819,819,821,823,825,825,825,827,827,829,829,831,831,833,833,835,837,837,839,841,841,841,841,843,843,847,847,849,849,851,854,854,856,856,856,856,856,1696,1696,1696,1696,1705,1705,1705,1713,1713,0,0,0,0,0,0,0,0,910,908,906,903,901,898,896,894,894,891,891,891,894,894,894,896,896,898,898,898,898,901,903,903,906,906,906,906,0,0,0,0,0,0,0,1688,1688,1688,1688,1688,1688,1688,1688,1688,1688,1688,1688,1680,1671,1671,1671,1663,1663,1663,1655,1647,1639,1639,1639,1632,1632,1632,1624,1616,1616,1609,1609,1609,1601,1601,1594,1586,1579,1579,1572,1572,1572,1564,1557,1557,1550,1550,1543,1543,1543,1536,1536,1529,1523,1523,1516,1516,1509,1503,1503,1496,1489,1489,1489,1489,1483,1477,1470,1470,1470,1464,1464,1464,1464,1452,1452,1445,1445,1439,1439,1439,1433,1427,1421,1421,1415,1415,1415,1410,1410,1404,1398,1398,1392,1392,1392,1387,1376,1376,1376,1370,1370,1370,1365,1359,1359,1354,1354,1349,1349,1349,1343,1338,1333,1333,1328,1328,1322,1322,1317,1312,1312,1307,1307,1302,1297,1292,1292,1292,1292,1288,1288,1283,1283,1278,1273,1273,1268,1268,1264,1259,1255,1255,1250,1250,1245,1241,1241,1236,1236,1236,1236,1232,1227,1223,1223,1219,1219,1214,1214,1210,1206,1206,1202,1202,1202,1197,1197,1193,1189,1185,1185,1181,1181,1181,1177,1177,1173,1169,1169,1169,1165,1165,1161,1161,1157,1153,1153,1149,1149,1145,1145,1141,1138,1138,1134,1134,1130,1126,1126,1123,1123,1119,1119,1119,1115,1115,1112,1108,1108,1105,1105,1101,1101,1097,1094,1094,1094,1090,1090,1087,1087,1084,1084,1080,1077,1077,1073,1070,1067,1067,1063,1063,1063,1063,0,0,0,0,0,0,0,0,0,0,0,0,0,0,0,0,0,0,0,0,0,0,0,0,0,0,0,0,0,0,0,0
0,0,0,0,0,0,0,0,0,0,0,0,1757,1757,1757,1757,1748,1748,1748,1748,1748,1757,1757,1748,1748,1757,1757,1757,1757,1757,1757,1757,1757,1757,1757,1757,1757,1757,1757,1757,1757,1757,1757,1757,1757,1757,1757,1757,1766,1766,1766,1766,1766,1766,1757,1757,1757,1757,1757,1757,1757,1766,1766,1766,1766,1766,1766,1766,1757,1757,1757,1757,1757,1748,1748,1748,1739,1739,1739,1739,1739,0,0,0,0,0,0,0,0,0,1004,1004,1004,1004,1004,1004,1007,0,0,0,0,0,0,0,0,703,701,693,693,693,691,691,691,690,690,690,690,690,690,691,691,691,691,691,691,691,688,688,687,686,686,686,682,682,691,687,687,687,687,686,686,684,683,683,683,684,686,687,690,690,690,688,688,688,688,688,690,690,691,693,693,693,694,694,696,696,697,697,698,698,698,700,701,701,703,703,703,704,704,706,707,707,708,708,710,710,711,711,713,714,714,716,716,716,717,720,720,722,723,727,730,730,731,731,734,736,736,736,736,739,741,742,747,749,749,750,750,750,752,752,752,754,755,757,757,759,759,761,761,762,762,764,766,766,767,767,769,769,773,773,774,774,776,776,778,780,780,780,781,781,783,785,787,787,789,789,790,790,792,794,794,796,796,796,798,800,800,802,802,803,805,805,807,809,809,811,813,813,815,817,817,819,819,819,819,821,821,823,825,825,825,827,827,829,831,831,833,833,835,835,837,839,839,841,841,841,841,843,843,843,843,1688,1696,1696,1696,1696,1688,1688,1696,1696,1696,1696,1696,1696,1696,1696,1705,1705,1705,1705,0,0,0,0,0,0,0,0,0,908,908,906,903,901,898,896,896,896,891,891,894,894,896,896,896,898,898,898,901,901,903,906,906,906,906,906,906,0,0,0,0,0,0,1688,1680,1680,1680,1680,1680,1688,1680,1680,1680,1680,1680,1680,1671,1671,1671,1663,1663,1663,1655,1647,1647,1639,1639,1639,1632,1632,1624,1616,1616,1609,1609,1609,1601,1601,1601,1594,1586,1579,1579,1572,1572,1564,1564,1557,1557,1550,1543,1543,1543,1543,1536,1529,1523,1523,1516,1516,1509,1503,1503,1496,1489,1489,1489,1489,1483,1483,1477,1470,1470,1470,1464,1464,1458,1452,1452,1445,1445,1439,1439,1433,1433,1427,1421,1421,1415,1415,1415,1410,1410,1404,1398,1398,1398,1392,1392,1387,1381,1376,1376,1370,1370,1370,1365,1365,1359,1354,1354,1349,1349,1349,1343,1338,1333,1333,1328,1328,1322,1322,1317,1312,1312,1307,1307,1302,1302,1297,1292,1292,1292,1288,1288,1283,1283,1278,1273,1273,1268,1268,1264,1259,1255,1255,1250,1250,1245,1245,1241,1236,1236,1236,1232,1232,1232,1227,1223,1223,1219,1219,1214,1210,1206,1206,1202,1202,1202,1197,1197,1193,1189,1185,1185,1181,1181,1181,1177,1177,1173,1169,1169,1169,1165,1165,1161,1161,1157,1153,1153,1149,1149,1145,1145,1141,1138,1138,1134,1134,1130,1126,1126,1123,1123,1119,1119,1119,1115,1115,1112,1108,1108,1105,1105,1101,1101,1097,1094,1094,1094,1090,1090,1087,1087,1084,1080,1080,1077,1077,1073,1070,1067,1067,1063,1063,1063,1063,0,0,0,0,0,0,0,0,0,0,0,0,0,0,0,0,0,0,0,0,0,0,0,0,0,0,0,0,0,0,0,0
0,0,0,0,0,0,0,0,0,0,0,0,1757,1757,1757,1757,1748,1748,1748,1748,1748,1748,1748,1748,1748,1748,1748,1748,1748,1748,1748,1748,1748,1748,1748,1748,1748,1748,1748,1748,1748,1748,1748,1748,1757,1757,1757,1757,1757,1757,1757,1757,1757,1757,1757,1757,1757,1757,1757,1748,1748,1757,1757,1757,1757,1757,1757,1757,1757,1757,1757,1757,1748,1748,1739,1739,1739,1739,1739,1739,1739,0,0,0,0,0,0,0,0,0,1007,1004,1004,1004,1004,1004,1007,0,0,0,0,0,0,0,0,703,701,691,691,691,690,687,686,686,686,687,687,687,687,687,688,690,691,691,691,688,687,684,684,682,682,682,680,680,680,684,684,684,683,683,683,682,682,682,682,683,684,686,686,687,687,687,687,688,688,688,688,690,691,691,691,691,693,694,694,696,697,697,698,698,698,700,701,701,703,703,703,704,704,706,707,707,708,708,710,711,711,711,713,716,716,716,717,717,720,720,722,722,727,730,730,733,734,734,738,738,738,739,741,741,742,744,747,749,749,750,752,752,752,752,754,754,755,757,757,759,759,761,761,762,764,766,766,767,767,767,769,769,773,773,774,774,776,776,778,780,780,780,781,781,783,785,787,787,789,789,790,790,792,794,794,796,796,798,798,802,802,802,803,803,805,805,807,809,809,811,813,815,817,817,817,819,819,819,819,821,823,823,825,825,827,827,827,829,831,831,833,833,835,835,837,839,839,839,841,841,841,1663,1663,1663,1688,1688,1688,1688,1688,1688,1688,1688,1696,1696,1696,1696,1696,1696,1696,1696,1696,1705,1705,1705,0,0,0,0,0,0,0,0,0,0,910,908,903,901,901,898,898,896,896,896,896,896,896,896,898,898,898,901,901,903,906,906,906,906,906,906,906,0,0,0,0,0,0,0,1671,1671,1671,1671,1671,1671,1671,1671,1671,1680,1680,1671,1671,1671,1671,1663,1663,1663,1655,1647,1647,1639,1639,1639,1632,1632,1624,1616,1616,1609,1609,1609,1601,1601,1601,1594,1586,1579,1579,1572,1572,1572,1564,1564,1557,1550,1550,1550,1543,1543,1536,1529,1523,1523,1516,1516,1516,1509,1503,1496,1489,1489,1489,1489,1483,1483,1477,1477,1470,1470,1464,1464,1458,1452,1452,1445,1445,1439,1439,1433,1433,1427,1421,1421,1415,1415,1415,1410,1410,1404,1398,1398,1398,1392,1392,1387,1381,1376,1376,1370,1370,1370,1365,1365,1359,1354,1354,1354,1349,1349,1343,1338,1333,1333,1328,1328,1328,1322,1317,1317,1312,1312,1307,1307,1302,1297,1292,1292,1292,1288,1288,1288,1283,1278,1278,1273,1268,1268,1268,1264,1259,1255,1255,1250,1250,1245,1241,1241,1236,1236,1232,1232,1232,1227,1223,1223,1219,1219,1214,1214,1210,1206,1202,1202,1202,1197,1197,1193,1189,1185,1185,1181,1181,1181,1177,1177,1173,1169,1169,1169,1165,1165,1161,1161,1157,1153,1153,1149,1149,1149,1145,1141,1141,1138,1134,1134,1130,1126,1126,1123,1123,1119,1119,1119,1115,1115,1112,1108,1108,1105,1105,1105,1101,1097,1094,1094,1094,1090,1090,1087,1084,1084,1080,1080,1077,1077,1073,1070,1067,1067,1063,1063,1063,1063,0,0,0,0,0,0,0,0,0,0,0,0,0,0,0,0,0,0,0,0,0,0,0,0,0,0,0,0,0,0,0,0
0,0,0,0,0,0,0,0,0,0,0,0,1748,1748,1748,1748,1748,1739,1739,1739,1739,1739,1739,1739,1731,1731,1731,1739,1739,1731,1731,1731,1731,1739,1739,1739,1739,1739,1748,1748,1748,1748,1739,1739,1739,1739,1739,1757,1757,1757,1757,1757,1757,1748,1748,1748,1748,1748,1739,1739,1739,1739,1739,1739,1748,1748,1757,1748,1748,1748,1748,1748,1739,1739,1739,1739,1731,1731,1731,1731,1731,0,0,0,0,0,0,0,0,0,1004,1004,1004,1004,1004,1007,1007,0,0,0,0,0,0,0,0,0,0,690,690,690,690,687,686,686,686,686,686,686,686,686,686,687,690,690,690,687,684,683,683,682,682,680,680,680,680,682,682,682,680,680,682,682,682,682,682,682,683,684,686,686,686,687,687,687,687,687,688,688,690,691,691,691,693,694,694,696,696,697,698,698,698,700,700,701,703,703,704,704,704,706,707,708,708,710,710,711,713,713,714,716,717,717,717,720,722,722,723,725,730,731,734,736,736,738,739,739,739,739,742,744,744,747,747,749,749,750,752,752,752,754,754,755,755,757,759,759,761,761,761,762,764,766,766,767,767,769,769,771,773,773,774,776,778,778,778,780,780,781,781,781,785,785,787,787,789,789,790,792,792,794,796,796,798,798,800,802,802,803,803,803,805,807,809,809,811,813,813,815,817,817,817,819,819,819,821,821,823,825,825,827,827,827,829,829,831,831,833,833,835,835,837,839,839,839,839,839,0,1663,1663,1663,1688,1688,1688,1688,1688,1680,1680,1680,1688,1688,1688,1688,1696,1696,1688,1688,1696,1696,1705,1705,0,0,0,0,0,0,0,0,0,0,0,910,908,903,901,898,898,898,896,896,896,896,898,898,898,898,901,901,901,903,906,906,906,906,906,906,906,0,0,0,0,0,0,1671,1671,1671,1671,1671,1671,1671,1671,1671,1671,1671,1671,1671,1671,1663,1663,1663,1663,1655,1655,1647,1647,1639,1639,1639,1632,1632,1624,1624,1616,1616,1609,1609,1601,1601,1601,1594,1586,1579,1579,1579,1572,1572,1572,1564,1557,1550,1550,1550,1543,1543,1543,1536,1529,1523,1523,1516,1516,1509,1503,1496,1496,1489,1489,1489,1489,1483,1477,1477,1470,1470,1464,1464,1458,1452,1452,1445,1445,1439,1439,1433,1433,1427,1421,1421,1415,1415,1415,1410,1410,1404,1404,1398,1398,1392,1392,1387,1381,1381,1376,1376,1370,1370,1365,1365,1359,1359,1354,1354,1349,1349,1343,1338,1333,1333,1328,1328,1328,1322,1322,1317,1312,1312,1312,1307,1302,1297,1292,1292,1292,1288,1288,1288,1283,1278,1278,1273,1273,1268,1268,1264,1259,1255,1255,1250,1250,1245,1245,1241,1241,1236,1236,1232,1232,1227,1223,1223,1219,1219,1214,1214,1210,1206,1206,1202,1202,1202,1197,1193,1189,1185,1185,1185,1181,1181,1181,1177,1177,1169,1169,1169,1165,1165,1161,1161,1157,1153,1153,1149,1149,1149,1145,1145,1141,1138,1138,1134,1130,1126,1126,1123,1123,1123,1119,1119,1119,1115,1112,1108,1108,1105,1105,1105,1101,1097,1094,1094,1094,1090,1090,1087,1084,1084,1080,1080,1077,1077,1073,1073,1070,1067,1067,1067,1063,1063,0,0,0,0,0,0,0,0,0,0,0,0,0,0,0,0,0,0,0,0,0,0,0,0,0,0,0,0,0,0,0,0
0,0,0,0,0,0,0,0,0,0,0,0,1739,1739,1748,1748,1739,1739,1739,1731,1731,1731,1731,1731,1722,1713,1713,1722,1722,1722,1722,1722,1731,1731,1731,1731,1739,1739,1739,1739,1739,1739,1731,1731,1731,1731,1731,1731,1731,1731,1731,1739,1739,1739,1739,1739,1731,1731,1731,1731,1731,1731,1731,1739,1739,1739,1739,1739,1739,1739,1739,1739,1731,1731,1731,1731,1731,1731,1731,1731,1731,0,0,0,0,0,0,0,0,0,1004,1004,1004,1004,1004,1007,1007,1010,0,0,0,0,0,0,0,0,0,690,690,686,686,686,682,682,682,682,684,684,683,683,682,682,690,688,687,684,682,679,679,680,680,679,679,678,678,678,678,679,679,679,679,680,680,680,680,682,683,683,683,684,684,686,686,687,687,687,687,687,690,691,691,691,693,694,696,696,696,698,698,698,698,700,700,701,703,703,704,704,706,706,707,708,708,710,711,713,714,714,716,717,719,720,720,722,723,723,730,731,733,734,736,738,738,739,739,739,739,741,744,744,744,747,747,749,750,752,752,754,754,754,754,755,757,757,759,759,761,761,762,764,764,766,767,767,767,769,771,771,773,773,774,776,778,778,780,780,781,781,781,783,785,785,787,789,789,790,792,792,792,794,796,796,798,800,802,802,803,803,803,803,807,807,809,809,811,813,813,815,817,817,819,819,819,819,821,821,823,823,825,827,827,827,829,829,831,831,833,833,835,835,837,837,837,837,1647,1647,1655,1663,1663,1663,1663,1680,1680,1680,1680,1680,1680,1680,1688,1688,1680,1680,1688,1688,1680,1680,1680,1688,1705,1705,0,0,0,0,0,0,0,0,0,0,913,910,908,903,901,901,898,898,896,896,896,896,898,898,898,898,901,901,903,906,906,906,906,908,908,908,0,0,0,0,0,0,0,1671,1663,1663,1663,1663,1663,1663,1663,1663,1663,1663,1663,1663,1663,1663,1663,1655,1655,1655,1655,1647,1647,1639,1639,1639,1632,1632,1624,1624,1616,1616,1609,1609,1609,1601,1601,1594,1586,1579,1579,1579,1572,1572,1572,1564,1557,1550,1550,1550,1543,1543,1543,1536,1529,1523,1523,1516,1516,1516,1503,1496,1496,1489,1489,1489,1489,1489,1483,1477,1470,1470,1464,1464,1458,1452,1452,1445,1445,1439,1439,1433,1433,1427,1421,1421,1415,1415,1415,1410,1410,1404,1404,1398,1398,1392,1392,1387,1381,1381,1376,1376,1370,1370,1370,1365,1359,1359,1354,1354,1349,1349,1343,1338,1333,1333,1333,1333,1328,1328,1322,1317,1317,1312,1312,1307,1302,1297,1292,1292,1292,1288,1288,1288,1283,1283,1278,1273,1268,1268,1268,1264,1259,1255,1255,1250,1250,1245,1245,1241,1241,1236,1236,1232,1232,1227,1227,1223,1219,1219,1214,1214,1210,1210,1206,1202,1202,1202,1197,1197,1189,1189,1185,1185,1181,1181,1181,1181,1177,1169,1169,1169,1165,1165,1161,1161,1157,1153,1153,1149,1149,1149,1145,1145,1141,1141,1138,1134,1130,1126,1126,1123,1123,1123,1119,1119,1119,1115,1112,1108,1108,1105,1105,1105,1101,1097,1094,1094,1094,1090,1090,1087,1087,1084,1080,1080,1077,1077,1073,1073,1070,1067,1067,1067,1063,1063,0,0,0,0,0,0,0,0,0,0,0,0,0,0,0,0,0,0,0,0,0,0,0,0,0,0,0,0,0,0,0,0
0,0,0,0,0,0,0,0,0,0,0,0,1731,1731,1739,1739,1739,1731,1731,1731,1731,1722,1722,1722,1713,1705,1705,1705,1713,1713,1713,1713,1722,1722,1722,1731,1731,1731,1731,1731,1731,1731,1731,1731,1722,1722,1731,1731,1722,1722,1722,1731,1722,1722,1722,1731,1731,1731,1731,1731,1731,1731,1731,1731,1731,1731,1731,1731,1731,1731,1731,1731,1722,1722,1722,1722,1722,1722,1713,1713,1713,0,0,0,0,0,0,0,0,0,1007,1007,1007,1010,1007,1007,1007,1010,0,0,0,0,0,0,0,0,0,0,690,682,682,682,682,680,679,678,678,682,679,678,678,678,676,676,676,678,678,678,678,679,678,678,678,676,676,676,676,678,678,678,678,679,679,680,680,682,682,683,683,684,684,686,686,687,687,687,687,687,690,691,691,691,694,694,696,696,697,698,698,698,700,700,701,703,703,704,704,704,706,706,708,708,710,711,713,714,716,716,719,720,722,722,723,725,730,733,733,733,734,734,736,738,738,739,739,739,741,742,744,744,746,747,747,749,750,752,752,754,754,754,755,755,757,759,759,761,761,762,762,764,766,766,767,767,769,769,771,771,773,774,774,778,778,780,780,781,781,781,783,783,787,787,787,789,789,790,792,792,794,794,796,798,800,800,802,803,803,803,803,805,807,807,809,809,811,813,815,815,817,817,819,819,819,819,821,821,823,823,825,827,827,827,829,831,831,833,833,833,835,835,837,837,837,1647,1647,1647,1655,1655,1655,1663,1663,1671,1671,1671,1671,1671,1671,1671,1680,1680,1671,1671,1671,1671,1671,1671,1671,1680,0,0,0,0,0,0,0,0,0,0,0,918,913,910,908,906,903,901,898,898,898,898,896,896,898,898,898,901,901,903,906,906,906,908,908,908,908,908,0,0,0,0,0,0,0,1671,1663,1663,1663,1655,1655,1663,1663,1663,1663,1655,1655,1655,1663,1655,1655,1655,1655,1647,1647,1647,1647,1639,1639,1639,1632,1632,1624,1624,1616,1616,1609,1609,1609,1601,1601,1594,1586,1579,1579,1579,1572,1572,1572,1564,1557,1550,1550,1550,1543,1543,1543,1536,1529,1523,1523,1516,1516,1509,1503,1503,1496,1496,1489,1489,1489,1489,1489,1483,1477,1470,1464,1464,1458,1452,1452,1445,1445,1445,1439,1439,1433,1427,1427,1421,1415,1415,1415,1410,1404,1404,1398,1398,1398,1392,1392,1387,1381,1381,1376,1376,1376,1370,1370,1365,1359,1359,1354,1354,1349,1349,1343,1343,1338,1333,1333,1333,1328,1328,1328,1322,1317,1312,1312,1307,1302,1297,1292,1292,1292,1288,1288,1288,1283,1283,1278,1273,1268,1268,1268,1264,1264,1255,1255,1250,1250,1250,1245,1241,1241,1236,1236,1232,1232,1232,1227,1223,1219,1219,1214,1214,1210,1210,1206,1206,1202,1197,1197,1193,1189,1189,1185,1185,1185,1181,1181,1181,1177,1169,1169,1169,1165,1165,1161,1157,1157,1153,1153,1153,1149,1149,1145,1145,1141,1141,1138,1134,1130,1130,1126,1126,1123,1123,1119,1119,1119,1115,1112,1108,1108,1105,1105,1105,1101,1097,1094,1094,1094,1090,1090,1087,1087,1084,1080,1080,1077,1077,1073,1073,1070,1067,1067,1067,1063,1063,0,0,0,0,0,0,0,0,0,0,0,0,0,0,0,0,0,0,0,0,0,0,0,0,0,0,0,0,0,0,0,0
0,0,0,0,0,0,0,0,0,0,0,0,1722,1722,1731,1731,1731,1731,1731,1722,1722,1713,1713,1713,1696,1696,1696,1696,1705,1705,1705,1705,1713,1722,1722,1722,1722,1731,1731,1722,1722,1731,1722,1722,1722,1722,1722,1722,1722,1722,1722,1722,1722,1722,1722,1713,1713,1722,1722,1722,1722,1722,1722,1722,1731,1722,1722,1722,1722,1722,1722,1722,1722,1722,1722,1722,1722,1722,1713,1713,1713,0,0,0,0,0,0,0,0,0,1007,1007,1007,1010,1010,1010,1010,1010,0,0,0,0,0,0,0,0,0,0,0,682,678,678,679,678,678,675,675,678,676,676,675,675,672,672,675,672,672,675,675,675,676,676,676,676,676,676,676,676,676,678,678,678,678,680,680,682,682,682,683,684,684,686,686,687,687,687,687,688,690,691,691,691,694,694,696,696,697,698,698,700,700,701,701,703,704,704,706,706,707,707,708,708,710,713,714,716,717,719,722,722,723,723,727,730,733,733,733,734,736,736,736,738,739,739,739,741,741,744,746,746,746,747,749,749,750,752,752,754,754,754,755,757,757,759,759,761,761,762,764,766,766,767,767,767,769,769,771,771,773,774,776,778,778,780,780,781,781,781,783,785,787,787,787,789,789,790,792,792,794,794,796,798,800,802,802,803,803,803,803,805,807,809,809,809,811,813,815,815,817,817,819,819,819,821,821,821,823,823,825,827,827,829,831,831,831,833,1663,835,835,1663,1655,1655,1655,1655,1647,1647,1655,1655,1655,1663,1663,1663,1663,1663,1663,1663,1663,1663,1671,1671,1671,1671,1671,1671,1671,1663,1663,1663,0,0,0,0,0,0,0,0,0,0,0,918,915,913,910,906,903,901,901,898,898,898,898,898,898,898,898,901,903,903,906,908,908,908,910,910,910,910,915,0,0,0,0,0,0,1671,1663,1655,1655,1647,1647,1647,1647,1647,1655,1655,1655,1655,1655,1655,1655,1647,1647,1647,1647,1639,1639,1639,1639,1639,1632,1632,1624,1624,1624,1616,1609,1609,1609,1601,1601,1594,1586,1586,1579,1579,1572,1572,1572,1572,1564,1557,1550,1550,1543,1543,1543,1536,1529,1529,1523,1516,1516,1509,1509,1503,1496,1496,1496,1496,1489,1489,1489,1483,1477,1470,1470,1464,1458,1452,1452,1445,1445,1445,1439,1439,1433,1427,1427,1421,1415,1415,1415,1410,1404,1404,1398,1398,1398,1392,1392,1392,1387,1387,1376,1376,1376,1370,1370,1365,1359,1359,1354,1354,1349,1349,1343,1343,1338,1333,1333,1333,1328,1328,1328,1322,1317,1317,1312,1312,1302,1297,1292,1292,1292,1292,1288,1288,1288,1283,1278,1273,1268,1268,1268,1264,1264,1259,1255,1255,1250,1250,1245,1245,1241,1236,1236,1232,1232,1232,1227,1223,1219,1219,1214,1214,1210,1210,1210,1206,1202,1197,1197,1193,1189,1189,1185,1185,1185,1185,1181,1181,1177,1169,1169,1169,1165,1165,1161,1157,1157,1153,1153,1153,1149,1149,1145,1145,1141,1141,1138,1134,1134,1130,1130,1126,1123,1123,1119,1119,1119,1115,1115,1112,1108,1108,1105,1105,1101,1097,1097,1094,1094,1090,1090,1087,1087,1080,1080,1080,1077,1077,1073,1073,1070,1067,1067,1067,1063,1063,0,0,0,0,0,0,0,0,0,0,0,0,0,0,0,0,0,0,0,0,0,0,0,0,0,0,0,0,0,0,0,0
0,0,0,0,0,0,0,0,0,0,0,0,1705,1705,1713,1713,1713,1713,1713,1713,1713,1705,1705,1705,1696,1696,1696,1696,1705,1705,1705,1705,1705,1713,1713,1713,1713,1722,1722,1722,1722,1722,1722,1722,1713,1713,1722,1713,1713,1722,1722,1713,1713,1713,1713,1713,1713,1713,1713,1713,1722,1713,1713,1722,1722,1713,1713,1713,1713,1705,1705,1713,1713,1713,1713,1713,1713,1713,1713,1705,1705,0,0,0,0,0,0,0,0,0,1010,1010,1010,1010,1010,1010,1010,1010,0,0,0,0,0,0,0,0,0,0,0,0,678,678,679,676,676,672,672,672,672,671,671,671,671,671,672,672,672,672,672,672,675,675,675,675,676,676,676,676,676,678,678,676,676,679,680,682,682,682,683,684,684,686,686,687,687,687,687,688,690,691,691,691,694,696,696,697,698,698,700,700,700,701,703,704,704,704,706,707,708,711,711,711,716,716,719,720,720,722,722,723,725,727,728,731,733,733,733,734,736,738,738,738,739,739,741,741,741,744,746,746,747,747,747,749,750,752,752,754,754,754,755,757,759,759,761,761,761,762,764,766,766,767,767,767,769,769,771,771,773,774,776,778,778,780,781,781,781,783,785,785,787,787,789,790,790,792,792,792,794,796,796,798,800,802,802,803,803,803,803,805,807,809,809,811,811,813,815,815,817,817,819,819,819,821,821,821,823,823,823,1210,1210,1680,1680,1671,1671,1671,1663,1663,1663,1655,1655,1655,1655,1655,1655,1655,1655,1655,1655,1655,1655,1663,1663,1663,1663,1655,1655,1655,1663,1663,1663,1663,1663,1671,1663,1663,1655,1655,1647,1647,0,0,0,0,0,0,0,0,0,918,918,915,913,908,903,903,901,898,898,898,898,898,898,901,901,903,903,906,906,908,908,910,910,913,913,915,915,0,0,0,0,0,0,0,1647,1647,1647,1647,1639,1639,1639,1639,1639,1639,1639,1639,1647,1647,1647,1647,1647,1647,1639,1639,1639,1639,1639,1632,1632,1624,1624,1624,1616,1616,1609,1609,1609,1601,1601,1594,1594,1586,1579,1579,1572,1572,1572,1572,1564,1557,1550,1550,1543,1543,1543,1536,1529,1529,1523,1516,1516,1509,1509,1503,1496,1496,1496,1496,1489,1489,1489,1483,1477,1470,1470,1464,1458,1452,1452,1445,1445,1445,1439,1439,1433,1427,1427,1427,1415,1415,1415,1410,1404,1404,1398,1398,1398,1392,1392,1392,1387,1387,1381,1376,1376,1370,1370,1365,1359,1359,1354,1354,1349,1349,1343,1343,1338,1333,1333,1333,1328,1328,1328,1322,1317,1317,1312,1307,1302,1302,1297,1292,1292,1292,1288,1288,1288,1283,1278,1273,1268,1268,1268,1264,1264,1259,1255,1255,1250,1250,1250,1245,1245,1236,1236,1232,1232,1232,1227,1223,1219,1219,1214,1214,1214,1210,1210,1206,1202,1202,1197,1197,1193,1189,1185,1185,1185,1185,1181,1181,1177,1169,1169,1169,1165,1165,1161,1157,1157,1153,1153,1153,1149,1149,1149,1145,1141,1141,1138,1138,1134,1134,1130,1126,1126,1123,1119,1119,1119,1115,1115,1112,1112,1108,1105,1105,1101,1097,1097,1094,1094,1090,1090,1087,1084,1080,1080,1080,1077,1077,1077,1073,1070,1067,1067,1067,1067,1067,0,0,0,0,0,0,0,0,0,0,0,0,0,0,0,0,0,0,0,0,0,0,0,0,0,0,0,0,0,0,0,0
0,0,0,0,0,0,0,0,0,0,0,0,1696,1696,1696,1705,1705,1705,1705,1705,1696,1696,1705,1696,1696,1696,1696,1696,1696,1696,1696,1705,1705,1705,1705,1705,1705,1713,1713,1713,1713,1713,1713,1713,1713,1713,1713,1713,1713,1713,1713,1713,1713,1705,1705,1705,1705,1713,1713,1713,1713,1713,1713,1713,1713,1713,1713,1705,1705,1705,1705,1705,1705,1705,1705,1705,1705,1696,1696,1696,1705,0,0,0,0,0,0,0,0,1010,1010,1010,1010,1010,1010,1010,1010,1013,1013,0,0,0,0,0,0,0,0,0,0,0,0,678,678,675,672,670,668,667,667,670,670,670,670,670,670,670,671,672,672,672,675,675,675,675,676,676,676,676,676,676,678,676,676,679,680,680,682,682,683,684,684,686,686,687,687,687,688,688,691,691,691,694,694,696,696,697,698,700,700,701,701,703,704,708,710,711,713,711,711,716,716,719,720,720,720,722,722,723,723,725,725,727,730,731,733,733,734,734,736,738,738,739,739,741,741,741,742,746,746,746,747,747,747,749,750,752,752,754,754,754,755,757,759,761,761,761,762,762,764,766,766,767,767,767,769,771,771,773,774,776,778,778,780,781,781,781,781,783,785,787,787,789,789,790,790,792,794,794,794,796,796,798,800,802,802,803,803,803,803,805,807,809,809,811,811,813,813,815,817,817,819,819,821,821,821,821,821,1210,1210,1210,1210,1210,1680,1680,1671,1663,1663,1663,1663,1655,1655,1655,1655,1655,1655,1655,1655,1655,1655,1655,1655,1655,1655,1655,1655,1655,1655,1655,1663,1663,1663,1663,1663,1663,1655,1655,1655,1655,1647,1647,0,0,0,0,0,0,0,0,0,918,918,915,915,908,906,906,903,901,898,898,898,898,901,901,903,903,906,906,908,908,908,910,910,913,913,915,915,918,0,0,0,0,0,0,1647,1639,1639,1639,1639,1639,1639,1639,1639,1639,1639,1639,1639,1632,1632,1639,1639,1639,1639,1639,1639,1632,1632,1632,1632,1624,1624,1616,1616,1609,1609,1609,1609,1601,1601,1601,1594,1586,1579,1579,1572,1572,1572,1572,1564,1557,1550,1550,1543,1543,1543,1536,1529,1529,1523,1516,1516,1516,1509,1509,1503,1496,1496,1496,1489,1489,1489,1483,1477,1477,1470,1464,1458,1458,1452,1445,1445,1445,1439,1439,1433,1433,1427,1427,1415,1415,1415,1410,1404,1404,1404,1398,1398,1392,1392,1392,1392,1387,1381,1376,1376,1370,1370,1365,1365,1359,1354,1354,1349,1349,1343,1343,1338,1338,1333,1333,1333,1328,1328,1322,1322,1317,1312,1307,1307,1302,1297,1292,1292,1292,1288,1288,1288,1283,1278,1273,1268,1268,1268,1264,1264,1259,1255,1255,1250,1250,1250,1245,1241,1236,1236,1232,1232,1232,1227,1227,1223,1219,1219,1214,1214,1210,1210,1206,1202,1202,1197,1197,1193,1189,1189,1189,1185,1185,1185,1181,1181,1169,1169,1169,1169,1165,1161,1161,1157,1153,1153,1153,1149,1149,1149,1141,1141,1141,1138,1138,1134,1134,1130,1126,1126,1123,1123,1119,1119,1119,1115,1112,1112,1108,1105,1105,1101,1101,1097,1094,1094,1090,1090,1090,1084,1084,1080,1080,1077,1077,1077,1077,1073,1070,1067,1067,1067,1067,0,0,0,0,0,0,0,0,0,0,0,0,0,0,0,0,0,0,0,0,0,0,0,0,0,0,0,0,0,0,0,0
0,0,0,0,0,0,0,0,0,0,0,0,1696,1696,1696,1696,1696,1696,1696,1696,1696,1696,1696,1696,1696,1696,1696,1696,1696,1696,1696,1696,1696,1696,1696,1696,1696,1705,1705,1705,1705,1713,1713,1705,1705,1705,1705,1705,1705,1705,1705,1705,1705,1705,1705,1705,1705,1705,1705,1713,1713,1713,1705,1705,1705,1705,1696,1696,1696,1696,1696,1705,1705,1705,1705,1705,1705,1696,1688,1688,0,0,0,0,0,0,0,0,0,1010,1010,1010,1010,1010,1013,1013,1013,1013,1013,0,0,0,0,0,0,0,0,0,0,0,0,678,676,675,671,668,667,667,667,667,667,667,668,670,670,670,670,670,671,672,672,674,674,675,675,676,676,676,676,676,678,678,678,679,680,680,682,682,683,684,684,686,686,687,687,687,688,688,691,691,693,696,696,696,697,698,700,701,701,703,704,706,708,711,713,714,716,716,719,719,720,720,720,722,722,723,725,725,725,725,727,728,731,731,733,734,734,736,736,738,739,739,741,741,741,741,744,746,746,746,747,747,747,749,750,752,754,754,754,755,757,759,759,761,761,761,762,764,766,766,767,767,769,769,769,771,773,774,776,778,778,780,781,781,781,783,783,785,787,787,787,789,789,790,792,792,794,794,794,796,796,798,800,802,803,803,803,803,805,805,807,809,809,811,811,813,813,815,817,819,819,819,821,823,823,1206,1210,1210,1210,1210,1210,1210,1671,1671,1663,1663,1655,1655,1655,1655,1655,1647,1647,1647,1647,1647,1647,1647,1647,1647,1647,1647,1647,1655,1655,1655,1655,1655,1655,1655,1655,1655,1655,1655,1655,1647,1639,1639,1639,1639,1639,0,0,0,0,0,0,0,0,920,918,918,913,908,906,906,903,901,901,901,898,898,901,901,903,903,906,906,908,908,908,910,913,915,915,915,918,918,0,0,0,0,0,0,1639,1639,1639,1639,1632,1632,1639,1632,1632,1632,1632,1632,1632,1632,1632,1632,1632,1632,1632,1632,1632,1632,1632,1632,1624,1616,1616,1616,1616,1609,1609,1609,1609,1601,1601,1601,1594,1586,1579,1579,1572,1572,1572,1572,1564,1557,1550,1550,1543,1543,1543,1536,1529,1529,1523,1523,1516,1516,1516,1509,1503,1503,1496,1496,1496,1489,1489,1483,1483,1477,1470,1464,1464,1458,1452,1445,1445,1445,1439,1439,1439,1433,1427,1427,1421,1415,1415,1410,1404,1404,1404,1398,1398,1392,1392,1392,1392,1392,1381,1381,1376,1376,1376,1370,1365,1365,1354,1354,1349,1349,1349,1343,1338,1338,1333,1333,1333,1328,1328,1328,1322,1317,1312,1307,1307,1302,1297,1292,1292,1292,1288,1288,1288,1283,1278,1278,1273,1273,1268,1264,1264,1259,1255,1255,1250,1250,1250,1245,1241,1236,1236,1232,1232,1232,1227,1227,1223,1219,1219,1214,1214,1214,1210,1206,1202,1202,1197,1197,1193,1193,1189,1189,1185,1185,1185,1181,1181,1177,1169,1169,1169,1165,1161,1161,1157,1153,1153,1153,1149,1149,1149,1141,1141,1141,1138,1138,1134,1134,1130,1130,1126,1123,1123,1119,1119,1119,1115,1112,1112,1108,1108,1105,1105,1101,1097,1094,1094,1090,1090,1090,1084,1084,1080,1080,1077,1077,1077,1077,1073,1070,1070,1067,1067,1067,0,0,0,0,0,0,0,0,0,0,0,0,0,0,0,0,0,0,0,0,0,0,0,0,0,0,0,0,0,0,0,0
0,0,0,0,0,0,0,0,0,0,0,0,1696,1696,1696,1696,1696,1696,1696,1696,1696,1696,1696,1696,1696,1696,1696,1696,1696,1696,1696,1696,1696,1696,1696,1696,1688,1688,1696,1696,1696,1705,1705,1696,1696,1696,1696,1696,1696,1696,1696,1696,1696,1696,1696,1696,1696,1705,1705,1705,1705,1696,1696,1696,1696,1696,1696,1696,1696,1696,1696,1696,1696,1696,1705,1688,1688,1688,1688,1688,1688,0,0,0,0,0,0,0,0,0,0,1013,1013,1013,1013,1013,1013,1013,1013,0,0,0,0,0,0,0,0,0,0,0,0,678,676,674,670,667,666,666,666,667,667,667,667,667,668,668,670,670,671,672,672,672,672,674,675,675,676,676,676,676,678,678,679,680,680,682,682,682,683,684,686,686,687,687,688,688,688,690,691,693,693,696,696,697,698,700,701,704,704,704,708,710,713,713,713,714,717,717,719,720,720,722,723,723,723,725,725,725,725,727,727,728,731,733,733,734,734,736,736,738,739,739,741,741,741,741,744,746,746,746,747,747,749,750,752,754,754,755,755,755,757,759,759,761,761,762,762,764,766,767,767,767,769,769,769,771,773,774,776,778,778,780,781,781,783,783,783,785,787,787,789,789,789,790,792,792,794,794,796,796,796,798,800,802,802,803,803,805,805,805,807,809,809,811,811,813,813,815,815,1206,1206,1206,1206,1206,1206,1206,1210,1210,1210,1210,1210,1210,1663,1663,1663,1663,1655,1655,1655,1647,1647,1639,1639,1639,1639,1639,1639,1639,1639,1639,1639,1639,1639,1647,1647,1639,1639,1647,1647,1647,1639,1639,1639,1639,1647,1639,1639,1639,1639,1639,1632,1632,0,0,0,0,0,0,0,0,918,918,913,910,908,906,903,901,901,901,901,901,901,901,903,906,906,906,908,908,910,910,915,915,915,915,918,918,0,0,0,0,0,0,1624,1624,1632,1632,1624,1624,1632,1632,1632,1632,1632,1632,1632,1624,1624,1624,1624,1624,1624,1624,1624,1624,1624,1624,1624,1616,1616,1609,1609,1609,1609,1609,1609,1601,1601,1601,1594,1586,1579,1579,1572,1572,1572,1572,1564,1564,1557,1550,1550,1543,1543,1536,1529,1529,1523,1523,1516,1516,1516,1509,1503,1503,1496,1496,1496,1489,1489,1483,1483,1477,1470,1464,1464,1458,1452,1452,1445,1445,1439,1439,1439,1433,1433,1427,1421,1415,1415,1410,1410,1404,1404,1398,1398,1398,1392,1392,1392,1392,1381,1381,1376,1376,1370,1370,1365,1365,1359,1354,1349,1349,1343,1343,1338,1338,1333,1333,1333,1328,1328,1328,1322,1322,1317,1307,1307,1302,1297,1292,1292,1292,1288,1288,1288,1288,1283,1278,1273,1273,1268,1264,1264,1259,1255,1255,1250,1250,1250,1245,1241,1236,1236,1232,1232,1232,1227,1227,1223,1219,1219,1219,1214,1214,1210,1210,1206,1202,1197,1197,1193,1193,1189,1189,1185,1185,1185,1185,1181,1177,1173,1169,1169,1165,1165,1161,1157,1153,1153,1153,1149,1149,1149,1141,1141,1138,1138,1138,1134,1134,1130,1130,1126,1123,1123,1119,1119,1119,1115,1112,1112,1108,1108,1105,1105,1101,1097,1094,1094,1090,1090,1090,1084,1084,1084,1080,1080,1077,1077,1077,1073,1070,1070,1067,1067,1067,0,0,0,0,0,0,0,0,0,0,0,0,0,0,0,0,0,0,0,0,0,0,0,0,0,0,0,0,0,0,0,0
0,0,0,0,0,0,0,0,0,0,0,0,1688,1688,1688,1688,1688,1688,1688,1688,1688,1688,1688,1688,1688,1688,1688,1688,1688,1696,1696,1696,1696,1696,1688,1688,1688,1688,1680,1680,1696,1696,1696,1696,1696,1696,1696,1688,1688,1688,1688,1688,1688,1696,1696,1696,1696,1696,1696,1696,1696,1696,1696,1696,1688,1688,1688,1688,1688,1688,1688,1688,1688,1688,1688,1680,1680,1680,1680,1680,1680,0,0,0,0,0,0,0,0,0,0,0,1013,1013,1013,1013,1013,1016,1013,1013,0,0,0,0,0,0,0,0,0,0,0,0,676,672,670,667,666,666,666,666,666,666,667,667,667,668,670,670,670,671,672,672,672,674,675,675,676,676,676,678,678,678,679,680,680,682,682,683,684,686,686,687,687,688,688,688,690,691,693,693,693,697,697,698,700,701,704,704,707,707,710,713,713,714,714,716,717,717,719,720,720,722,723,723,723,725,725,727,727,728,728,730,731,733,734,734,734,736,738,739,739,739,741,741,741,742,746,746,747,747,747,749,749,750,752,754,754,755,755,757,759,759,759,761,761,762,762,766,767,767,767,769,769,769,771,773,774,776,778,778,780,781,781,781,783,783,785,787,787,789,789,789,790,790,792,794,794,794,796,796,796,798,800,802,802,803,803,803,805,807,809,809,811,811,811,813,813,1210,1206,1206,1206,1206,1206,1206,1206,1210,1210,1210,1210,1210,1210,1210,1663,1663,1655,1655,1655,1647,1647,1647,1639,1639,1639,1639,1639,1639,1632,1632,1632,1639,1632,1632,1632,1639,1639,1632,1632,1632,1639,1639,1632,1632,1632,1632,1639,1639,1632,1632,1639,1632,1632,1632,0,0,0,0,0,0,0,0,918,918,915,913,910,908,906,903,903,903,901,901,901,903,903,906,906,908,908,908,910,910,915,915,915,918,918,918,0,0,0,0,0,0,1624,1624,1624,1624,1616,1616,1616,1616,1616,1624,1624,1624,1624,1624,1624,1616,1616,1616,1616,1616,1616,1616,1616,1616,1609,1609,1609,1609,1609,1609,1609,1609,1609,1601,1601,1601,1594,1586,1579,1579,1572,1572,1572,1572,1572,1564,1557,1550,1550,1543,1543,1536,1536,1529,1523,1523,1516,1516,1516,1509,1503,1503,1496,1496,1496,1489,1489,1483,1483,1477,1470,1464,1464,1458,1458,1452,1452,1445,1445,1439,1439,1433,1433,1427,1421,1415,1415,1410,1410,1404,1404,1398,1398,1398,1392,1392,1392,1392,1381,1381,1376,1376,1370,1370,1365,1365,1359,1354,1349,1349,1343,1343,1338,1338,1333,1333,1333,1328,1328,1328,1328,1322,1317,1312,1307,1307,1302,1297,1292,1292,1292,1288,1288,1288,1283,1278,1273,1273,1268,1264,1264,1259,1259,1255,1255,1250,1250,1245,1241,1236,1236,1236,1232,1232,1232,1227,1223,1219,1219,1219,1214,1214,1210,1206,1206,1202,1202,1197,1197,1193,1193,1189,1189,1185,1185,1185,1181,1177,1173,1169,1169,1165,1165,1161,1157,1157,1153,1153,1149,1149,1149,1141,1141,1138,1138,1138,1134,1134,1134,1130,1126,1123,1123,1119,1119,1119,1119,1115,1112,1112,1108,1108,1105,1101,1097,1094,1094,1094,1094,1090,1084,1084,1084,1080,1080,1077,1077,1077,1077,1073,1070,1067,1067,1067,0,0,0,0,0,0,0,0,0,0,0,0,0,0,0,0,0,0,0,0,0,0,0,0,0,0,0,0,0,0,0,0
0,0,0,0,0,0,0,0,0,0,0,0,1688,1688,1688,1688,1688,1688,1688,1688,1688,1688,1688,1688,1688,1688,1688,1688,1688,1688,1688,1688,1688,1688,1688,1680,1671,1671,1671,1671,1680,1688,1696,1688,1688,1688,1688,1688,1680,1680,1680,1680,1680,1688,1688,1688,1688,1688,1696,1696,1688,1688,1688,1688,1688,1688,1688,1680,1680,1680,1680,1680,1680,1680,1680,1680,1671,1671,1671,1671,1671,1671,0,0,0,0,0,0,0,0,0,0,1013,1013,1013,1013,1013,1016,1013,1013,0,0,0,0,0,0,0,0,0,0,0,0,0,671,670,666,666,666,666,666,666,666,666,667,667,668,670,670,670,671,672,672,672,675,675,675,676,676,676,678,678,679,679,680,680,682,682,683,684,686,687,687,688,690,690,690,690,691,693,693,703,700,700,701,703,706,706,707,708,710,713,713,714,714,716,717,717,719,719,720,722,722,723,723,725,725,727,727,727,728,728,731,733,734,734,734,736,738,738,739,739,739,741,741,742,744,746,747,747,747,747,749,749,750,752,754,754,755,757,757,759,759,761,761,762,762,764,766,767,769,769,769,771,771,773,773,776,778,778,778,780,781,783,783,783,785,785,787,787,789,789,790,790,792,792,794,794,796,796,798,798,800,800,802,802,803,803,803,805,807,809,809,811,813,813,1206,1210,1210,1206,1206,1206,1206,1206,1206,1210,1210,1210,1210,1210,1210,1210,1210,1663,1663,1655,1655,1647,1639,1639,1639,1639,1632,1632,1632,1632,1632,1632,1632,1632,1632,1632,1632,1632,1632,1632,1632,1632,1632,1632,1632,1632,1624,1624,1624,1624,1632,1632,1632,1632,1632,1632,1632,0,0,0,0,0,0,0,0,920,918,915,915,913,910,908,906,906,903,903,903,903,903,903,906,906,908,908,908,910,910,915,915,915,918,920,920,0,0,0,0,0,0,1616,1616,1616,1616,1609,1609,1609,1609,1609,1616,1616,1616,1616,1616,1616,1609,1609,1609,1609,1609,1609,1609,1609,1609,1609,1601,1601,1601,1601,1601,1609,1601,1601,1601,1601,1594,1594,1586,1579,1579,1579,1572,1572,1572,1572,1564,1557,1550,1550,1543,1543,1543,1536,1529,1523,1523,1516,1516,1516,1509,1509,1503,1503,1496,1496,1489,1489,1483,1483,1477,1470,1464,1464,1464,1458,1452,1452,1445,1445,1439,1439,1439,1433,1421,1421,1421,1415,1410,1410,1410,1404,1398,1398,1398,1398,1392,1392,1392,1387,1381,1376,1376,1370,1370,1370,1365,1359,1354,1349,1349,1349,1343,1343,1338,1333,1333,1333,1328,1328,1328,1322,1322,1312,1312,1307,1307,1302,1297,1292,1292,1292,1288,1288,1288,1283,1278,1278,1273,1268,1268,1264,1264,1259,1255,1255,1250,1250,1245,1241,1236,1236,1236,1232,1232,1232,1227,1223,1219,1219,1219,1214,1214,1210,1206,1206,1202,1197,1197,1197,1193,1193,1189,1189,1189,1185,1185,1181,1177,1173,1169,1169,1165,1165,1161,1161,1157,1157,1153,1153,1153,1149,1145,1145,1141,1138,1138,1138,1134,1134,1130,1126,1126,1123,1123,1119,1119,1119,1112,1112,1108,1108,1108,1105,1105,1101,1097,1094,1094,1094,1090,1090,1084,1084,1080,1080,1077,1077,1077,1077,1073,1070,1067,1067,1067,0,0,0,0,0,0,0,0,0,0,0,0,0,0,0,0,0,0,0,0,0,0,0,0,0,0,0,0,0,0,0,0
0,0,0,0,0,0,0,0,0,0,0,0,1688,1688,1680,1680,1680,1680,1680,1680,1680,1680,1680,1680,1680,1680,1680,1688,1688,1688,1680,1680,1680,1680,1680,1671,1663,1663,1663,1671,1680,1680,1688,1688,1680,1680,1680,1680,1671,1671,1671,1671,1671,1671,1680,1680,1680,1680,1680,1680,1680,1680,1680,1680,1680,1680,1680,1680,1680,1680,1671,1671,1671,1671,1671,1671,1663,1663,1663,1663,1663,1655,1655,1655,0,0,0,0,0,0,0,0,1016,1016,1013,1013,1013,1016,1016,1016,0,0,0,0,0,0,0,0,0,0,0,0,0,671,670,666,666,666,666,666,666,666,666,667,667,668,670,670,671,671,672,672,672,675,675,676,676,676,676,678,679,679,680,680,682,682,683,684,686,687,687,688,690,691,690,690,691,693,693,693,704,703,703,704,706,707,707,708,710,711,713,713,714,714,716,717,719,720,720,720,722,722,723,725,725,725,727,727,728,728,730,733,733,734,734,736,736,738,738,739,739,739,741,742,742,746,746,747,747,747,749,749,750,752,752,754,754,755,757,759,759,759,761,761,762,764,766,767,767,769,769,769,771,771,773,774,776,778,778,780,781,781,783,783,785,785,785,787,787,789,789,790,792,792,794,794,796,796,796,798,800,802,802,802,802,803,803,805,805,807,809,809,809,1219,1206,1206,1206,1210,1206,1206,1206,1206,1206,1206,1210,1210,1210,1210,1210,1210,1210,1210,1210,1655,1655,1655,1647,1639,1632,1632,1632,1632,1632,1632,1632,1624,1624,1624,1624,1624,1624,1624,1624,1624,1624,1624,1624,1624,1624,1624,1624,1616,1616,1616,1616,1624,1624,1624,1624,1624,1624,0,0,0,0,0,0,0,0,0,920,918,915,915,913,913,910,908,906,906,903,903,903,903,906,906,906,908,908,910,910,913,915,915,918,918,920,920,0,0,0,0,0,0,1616,1609,1609,1609,1609,1601,1601,1601,1601,1609,1609,1609,1609,1609,1609,1609,1609,1609,1601,1601,1601,1601,1601,1601,1601,1601,1601,1601,1601,1601,1601,1601,1601,1601,1594,1594,1594,1586,1579,1579,1579,1572,1572,1572,1572,1572,1564,1557,1550,1550,1543,1543,1536,1529,1529,1523,1516,1516,1516,1509,1509,1503,1503,1496,1496,1489,1489,1483,1483,1477,1470,1470,1464,1464,1458,1458,1452,1445,1445,1445,1439,1439,1433,1421,1421,1421,1415,1415,1410,1410,1410,1404,1398,1398,1398,1398,1392,1392,1387,1381,1376,1376,1370,1370,1370,1365,1359,1354,1349,1349,1349,1343,1343,1338,1338,1333,1333,1333,1328,1328,1322,1322,1312,1312,1307,1307,1302,1297,1297,1292,1292,1288,1288,1288,1283,1278,1278,1273,1268,1268,1264,1264,1259,1255,1255,1255,1250,1250,1241,1236,1236,1236,1232,1232,1232,1227,1223,1219,1219,1219,1214,1214,1210,1206,1206,1202,1197,1197,1197,1197,1193,1189,1189,1189,1185,1185,1181,1177,1173,1169,1169,1169,1165,1165,1161,1157,1157,1153,1153,1153,1149,1145,1145,1141,1138,1138,1138,1134,1134,1130,1126,1126,1123,1123,1119,1119,1119,1112,1112,1108,1108,1108,1105,1105,1101,1097,1097,1094,1094,1090,1090,1087,1084,1080,1080,1077,1077,1077,1077,1073,1073,1070,1070,1070,0,0,0,0,0,0,0,0,0,0,0,0,0,0,0,0,0,0,0,0,0,0,0,0,0,0,0,0,0,0,0,0
0,0,0,0,0,0,0,0,0,0,0,0,1680,1680,1680,1671,1671,1671,1663,1663,1663,1671,1671,1671,1671,1671,1671,1671,1671,1680,1671,1671,1671,1671,1671,1671,1663,1663,1663,1663,1671,1671,1671,1680,1680,1680,1671,1671,1671,1663,1663,1663,1663,1671,1671,1671,1671,1671,1671,1671,1671,1671,1671,1671,1671,1671,1671,1671,1671,1671,1663,1663,1663,1663,1663,1663,1663,1663,1663,1663,1663,1655,1655,1655,0,0,0,0,0,0,0,0,0,1016,1013,1013,1013,1016,1016,1016,1019,0,0,0,0,0,0,0,0,0,0,0,0,0,667,666,666,664,664,666,666,666,667,667,667,668,670,670,671,671,671,672,672,674,675,676,676,676,676,679,679,680,680,682,682,682,683,686,686,687,688,690,691,693,693,693,697,697,700,703,704,704,704,707,707,708,708,710,711,713,713,713,714,714,717,719,720,720,720,722,722,723,725,725,727,727,727,728,728,730,731,733,733,734,734,736,736,738,738,739,739,741,741,742,744,746,746,747,747,747,749,750,752,754,754,754,755,757,757,759,759,761,762,762,764,766,767,767,767,769,769,771,771,773,774,774,778,778,778,780,781,781,783,783,785,785,785,787,787,789,789,790,792,792,794,794,796,796,796,798,800,800,800,800,802,802,803,805,807,807,807,1227,1219,1219,1214,1206,1206,1206,1206,1206,1206,1206,1206,1206,1210,1210,1210,1210,1210,1210,1214,1210,1210,1210,1647,1647,1639,1632,1632,1632,1624,1624,1624,1624,1624,1624,1624,1624,1624,1624,1616,1616,1616,1616,1616,1616,1616,1616,1616,1616,1616,1616,1616,1616,1616,1616,1616,1616,1616,1616,1624,0,0,0,0,0,0,0,0,0,920,918,915,915,913,913,910,908,906,906,906,903,903,906,906,906,908,908,908,910,910,913,915,915,918,918,920,920,0,0,0,0,0,0,1609,1601,1601,1601,1601,1601,1601,1601,1601,1601,1609,1609,1601,1601,1601,1601,1601,1601,1601,1601,1601,1601,1601,1594,1594,1594,1594,1594,1594,1594,1594,1594,1594,1594,1586,1586,1586,1579,1579,1579,1579,1572,1572,1572,1572,1572,1572,1564,1557,1550,1543,1543,1536,1529,1529,1523,1523,1516,1516,1509,1509,1503,1503,1496,1496,1489,1489,1483,1483,1477,1470,1470,1470,1464,1458,1458,1452,1445,1445,1445,1439,1439,1433,1421,1421,1421,1415,1415,1415,1410,1410,1404,1398,1398,1398,1398,1392,1392,1387,1381,1376,1376,1370,1370,1370,1365,1359,1354,1354,1349,1349,1343,1343,1338,1338,1333,1333,1333,1328,1328,1322,1322,1312,1312,1312,1307,1307,1302,1297,1292,1292,1288,1288,1288,1288,1283,1278,1273,1268,1268,1264,1264,1259,1255,1255,1255,1250,1250,1241,1241,1236,1236,1232,1232,1232,1227,1223,1223,1219,1219,1214,1214,1210,1206,1206,1202,1202,1197,1197,1197,1193,1189,1189,1189,1185,1185,1181,1177,1177,1169,1169,1169,1165,1165,1161,1161,1157,1153,1153,1153,1149,1145,1145,1141,1138,1138,1138,1134,1134,1130,1126,1126,1123,1123,1123,1119,1119,1112,1112,1108,1108,1108,1105,1105,1105,1097,1097,1094,1094,1090,1090,1087,1084,1084,1080,1080,1080,1077,1077,1077,1073,1073,1070,1070,0,0,0,0,0,0,0,0,0,0,0,0,0,0,0,0,0,0,0,0,0,0,0,0,0,0,0,0,0,0,0,0
0,0,0,0,0,0,0,0,0,0,0,0,1663,1663,1663,1663,1663,1663,1663,1663,1663,1655,1655,1663,1663,1663,1663,1663,1663,1663,1663,1663,1663,1663,1663,1663,1663,1655,1655,1663,1663,1663,1671,1671,1671,1671,1671,1671,1663,1663,1663,1663,1663,1663,1663,1663,1663,1663,1663,1663,1663,1663,1663,1663,1663,1663,1663,1663,1663,1663,1663,1655,1655,1655,1655,1655,1663,1663,1663,1663,1663,1655,1655,1655,1655,0,0,0,0,0,0,0,0,1016,1016,1016,1016,1016,1019,1019,1019,1022,0,0,0,0,0,0,0,0,0,0,0,0,667,666,666,664,664,666,666,666,667,667,667,668,670,670,671,671,671,672,674,674,675,676,678,678,678,680,680,682,682,682,683,683,684,686,687,688,690,693,693,694,696,697,698,700,701,703,704,706,706,707,707,708,708,710,711,713,713,713,714,716,719,720,720,720,722,722,722,723,725,727,727,727,728,728,730,731,731,733,733,734,734,736,736,738,739,739,741,741,742,744,744,746,747,747,747,749,749,750,752,754,754,755,755,757,759,759,761,761,762,764,766,766,767,767,769,769,771,771,773,773,774,776,778,778,780,780,781,781,783,783,785,785,787,787,787,789,789,790,792,792,794,794,796,796,798,798,800,800,800,800,800,802,803,803,803,1223,1223,1227,1227,1219,1214,1210,1210,1206,1206,1206,1206,1206,1206,1206,1210,1210,1210,1210,1210,1210,1210,1210,1210,1210,1647,1647,1632,1624,1624,1624,1624,1624,1624,1624,1624,1616,1616,1616,1616,1616,1609,1609,1609,1609,1609,1609,1609,1616,1616,1616,1616,1609,1609,1609,1609,1609,1609,1609,1609,1609,1609,0,0,0,0,0,0,0,0,0,925,920,918,918,915,915,913,908,908,906,906,906,906,906,906,906,908,910,910,910,910,915,915,915,918,920,923,923,0,0,0,0,0,0,1609,1601,1601,1601,1601,1601,1601,1601,1601,1601,1601,1601,1594,1594,1594,1601,1594,1594,1594,1594,1594,1594,1586,1586,1586,1586,1586,1586,1586,1586,1586,1594,1586,1586,1586,1579,1579,1579,1579,1572,1572,1572,1572,1572,1572,1572,1572,1564,1557,1550,1550,1543,1536,1536,1529,1523,1523,1516,1516,1509,1509,1503,1503,1496,1496,1489,1489,1489,1483,1477,1477,1470,1470,1464,1458,1458,1452,1452,1445,1445,1445,1439,1433,1427,1421,1421,1421,1415,1415,1415,1410,1404,1404,1398,1398,1398,1392,1387,1387,1376,1376,1376,1376,1370,1370,1365,1359,1354,1354,1349,1349,1349,1343,1338,1338,1333,1333,1333,1333,1328,1328,1317,1317,1312,1312,1307,1307,1302,1297,1297,1292,1292,1288,1288,1288,1283,1273,1273,1268,1268,1264,1264,1259,1255,1255,1255,1250,1250,1241,1241,1236,1236,1236,1232,1232,1227,1223,1223,1219,1219,1214,1214,1210,1210,1206,1202,1202,1202,1197,1197,1193,1189,1189,1189,1185,1185,1181,1177,1173,1173,1169,1169,1169,1165,1165,1161,1157,1157,1153,1153,1149,1145,1145,1141,1138,1138,1138,1134,1134,1130,1126,1126,1123,1123,1123,1119,1119,1112,1112,1108,1108,1108,1108,1105,1105,1101,1097,1094,1094,1094,1090,1090,1087,1084,1080,1080,1080,1077,1077,1077,1073,1073,1070,1070,0,0,0,0,0,0,0,0,0,0,0,0,0,0,0,0,0,0,0,0,0,0,0,0,0,0,0,0,0,0,0,0
0,0,0,0,0,0,0,0,0,0,0,0,1655,1655,1655,1655,1655,1655,1655,1655,1655,1655,1655,1655,1655,1655,1655,1655,1655,1663,1663,1663,1663,1655,1655,1663,1655,1655,1655,1655,1655,1663,1663,1663,1663,1663,1671,1663,1663,1663,1663,1663,1663,1663,1663,1663,1663,1663,1663,1663,1663,1663,1663,1663,1663,1663,1663,1663,1655,1655,1655,1655,1655,1655,1655,1655,1655,1655,1655,1663,1663,1655,1655,1655,1655,1655,0,0,0,0,0,0,0,1019,1016,1016,1019,1019,1019,1019,1019,1022,1022,0,0,0,0,0,0,0,0,0,0,0,667,667,666,666,666,667,667,667,667,667,668,668,670,671,671,671,671,672,674,674,675,676,678,679,680,682,682,683,683,683,684,684,686,687,690,693,694,696,696,697,697,698,700,701,703,704,704,706,706,707,707,708,708,710,711,713,713,714,714,717,719,720,720,720,722,723,723,725,727,727,727,728,728,728,730,731,731,733,733,734,734,736,738,738,739,739,741,741,742,744,746,746,747,747,747,749,750,752,754,754,755,757,757,759,759,761,761,762,764,764,766,767,767,767,769,771,771,771,773,773,774,778,778,778,780,780,781,781,783,783,785,785,785,787,787,789,789,790,792,794,794,796,796,798,798,800,800,800,800,800,800,802,802,802,0,1223,1223,1223,1227,1223,1219,1214,1214,1210,1210,1210,1210,1210,1210,1210,1210,1210,1210,1210,1210,1210,1210,1210,1210,1210,1210,1624,1624,1616,1616,1616,1609,1609,1616,1616,1616,1609,1609,1609,1609,1609,1601,1601,1601,1601,1601,1601,1601,1609,1609,1609,1609,1609,1609,1609,1609,1601,1601,1601,1601,1601,1601,0,0,0,0,0,0,0,0,0,933,923,918,918,915,915,913,910,908,908,906,906,906,906,908,908,908,910,910,910,910,915,915,918,918,923,925,925,0,0,0,0,0,0,1609,1601,1601,1601,1601,1594,1594,1594,1594,1594,1594,1594,1586,1586,1594,1594,1594,1594,1586,1586,1586,1586,1586,1579,1579,1579,1579,1586,1586,1586,1586,1586,1579,1579,1579,1579,1579,1579,1572,1572,1572,1572,1572,1572,1572,1572,1564,1564,1557,1550,1550,1543,1536,1536,1529,1523,1523,1516,1516,1509,1509,1503,1503,1496,1496,1496,1489,1489,1483,1483,1477,1470,1470,1464,1464,1458,1452,1452,1445,1445,1445,1439,1433,1427,1421,1421,1421,1415,1415,1415,1410,1410,1404,1398,1398,1398,1392,1387,1381,1376,1376,1376,1370,1370,1370,1365,1359,1354,1354,1349,1349,1349,1343,1338,1338,1338,1333,1333,1328,1328,1322,1317,1317,1312,1312,1307,1307,1302,1297,1297,1292,1292,1288,1288,1288,1283,1273,1273,1273,1268,1264,1264,1259,1259,1255,1255,1250,1250,1241,1241,1236,1236,1236,1232,1232,1227,1227,1223,1219,1219,1214,1214,1210,1210,1206,1202,1202,1202,1197,1197,1193,1189,1189,1189,1185,1185,1181,1177,1173,1173,1169,1169,1169,1165,1165,1161,1161,1157,1153,1153,1149,1145,1145,1145,1141,1138,1138,1138,1134,1130,1130,1126,1123,1123,1123,1119,1119,1115,1112,1112,1108,1108,1108,1105,1105,1101,1101,1094,1094,1094,1090,1090,1087,1084,1080,1080,1080,1077,1077,1077,1077,1073,1070,1070,0,0,0,0,0,0,0,0,0,0,0,0,0,0,0,0,0,0,0,0,0,0,0,0,0,0,0,0,0,0,0,0
0,0,0,0,0,0,0,0,0,0,0,1647,1647,1647,1647,1647,1639,1639,1647,1647,1647,1639,1639,1647,1647,1647,1647,1647,1647,1655,1647,1647,1655,1655,1655,1655,1655,1655,1655,1655,1655,1655,1663,1663,1663,1663,1671,1663,1663,1663,1663,1663,1663,1663,1655,1655,1655,1655,1655,1655,1655,1655,1655,1655,1655,1655,1655,1655,1655,1647,1647,1647,1647,1647,1655,1655,1655,1655,1655,1655,1655,1639,1639,1632,1632,1632,0,0,0,0,0,0,0,1019,1019,1019,1019,1019,1019,1019,1019,1022,1022,1022,1022,0,0,0,0,0,0,0,0,0,671,667,666,666,666,667,667,667,668,668,668,668,670,671,671,672,672,672,674,675,676,678,679,680,682,683,683,684,686,686,686,687,687,688,691,696,696,698,698,698,698,700,701,701,703,704,704,707,707,707,708,708,710,711,713,713,714,714,716,717,719,720,720,720,722,723,723,727,727,727,728,728,728,730,731,731,733,733,733,734,734,736,738,738,739,739,741,741,742,744,746,747,747,747,747,750,752,752,754,755,755,757,757,759,759,761,761,762,764,764,766,767,767,767,769,771,771,773,773,773,774,778,778,778,780,780,781,781,783,783,785,785,785,785,787,787,789,790,792,794,794,796,796,798,798,800,800,800,798,798,800,800,1609,1609,1601,1223,1223,1223,1227,1223,1214,1214,1214,1214,1210,1210,1210,1210,1210,1210,1214,1214,1214,1214,1214,1214,1214,1214,1214,1214,1609,1609,1609,1609,1609,1609,1601,1601,1601,1601,1609,1601,1601,1601,1601,1601,1601,1601,1601,1601,1601,1601,1601,1609,1609,1601,1601,1609,1601,1601,1601,1601,1601,1601,1594,1586,1586,1586,0,0,0,0,0,0,0,0,933,928,923,920,918,915,915,910,908,908,908,908,908,908,908,908,910,913,913,913,913,915,918,918,920,925,925,925,0,0,0,0,0,0,1601,1594,1594,1594,1594,1594,1594,1594,1594,1594,1586,1586,1586,1586,1586,1586,1586,1586,1579,1579,1579,1579,1579,1579,1579,1579,1579,1579,1579,1579,1579,1579,1579,1579,1579,1572,1572,1572,1572,1572,1572,1564,1564,1572,1564,1564,1564,1564,1557,1550,1550,1543,1543,1536,1536,1523,1523,1516,1516,1509,1509,1503,1503,1496,1496,1496,1489,1489,1483,1483,1477,1470,1470,1464,1464,1458,1452,1452,1445,1445,1445,1439,1433,1427,1421,1421,1421,1415,1415,1415,1410,1410,1404,1398,1398,1398,1392,1387,1381,1376,1376,1376,1370,1370,1370,1365,1365,1354,1354,1349,1349,1349,1343,1343,1338,1338,1333,1333,1328,1328,1322,1317,1317,1312,1312,1307,1307,1302,1302,1297,1292,1292,1288,1288,1288,1283,1273,1273,1273,1268,1268,1264,1259,1259,1255,1255,1255,1250,1250,1241,1241,1236,1236,1236,1232,1232,1227,1227,1223,1219,1214,1214,1210,1210,1206,1202,1202,1202,1197,1197,1193,1189,1189,1189,1185,1185,1181,1177,1173,1173,1169,1169,1169,1165,1165,1165,1161,1157,1157,1153,1153,1145,1145,1145,1141,1138,1138,1138,1134,1134,1130,1126,1123,1123,1123,1119,1119,1115,1112,1112,1108,1108,1108,1105,1105,1101,1101,1097,1094,1094,1094,1090,1090,1084,1080,1080,1080,1077,1077,1077,1077,1073,1070,1070,0,0,0,0,0,0,0,0,0,0,0,0,0,0,0,0,0,0,0,0,0,0,0,0,0,0,0,0,0,0,0,0
0,0,0,0,0,0,0,0,0,0,0,1639,1639,1639,1639,1639,1639,1639,1639,1639,1639,1639,1639,1639,1639,1639,1647,1647,1647,1647,1647,1647,1639,1639,1647,1647,1655,1647,1647,1647,1647,1655,1655,1655,1655,1655,1663,1663,1663,1655,1655,1655,1655,1655,1655,1655,1655,1655,1647,1647,1647,1655,1655,1655,1655,1655,1655,1655,1647,1639,1639,1639,1639,1647,1647,1647,1647,1647,1647,1647,1647,1632,1632,1632,1632,1632,0,0,0,0,0,0,0,1019,1019,1019,1019,1019,1019,1019,1019,1022,1022,1022,1022,1025,1025,1025,1025,0,0,0,0,0,0,667,667,666,666,668,668,668,668,670,670,670,671,672,672,672,672,674,675,675,676,679,680,680,682,684,684,686,686,687,687,687,688,691,696,697,697,698,698,700,700,701,701,703,703,704,704,707,707,708,708,708,711,711,713,713,714,716,716,719,719,720,720,722,722,723,725,727,727,727,728,728,728,730,731,731,733,733,733,734,736,738,738,739,739,739,741,742,744,746,746,747,747,747,750,752,752,754,755,757,757,759,759,759,761,762,762,764,764,766,766,767,767,769,769,771,773,773,773,774,776,778,778,778,780,781,781,781,783,783,785,785,785,785,785,785,789,789,792,794,794,796,796,798,798,800,800,800,798,798,1609,1609,1609,1609,1601,1601,1601,1601,1223,1223,1214,1214,1214,1214,1214,1210,1210,1210,1210,1214,1214,1214,1214,1214,1214,1214,1214,1214,1214,1214,1601,1601,1601,1601,1601,1601,1601,1601,1601,1601,1601,1601,1594,1594,1594,1594,1594,1594,1594,1594,1594,1594,1594,1601,1601,1601,1601,1601,1601,1601,1601,1594,1594,1586,1586,1579,1579,1586,0,0,0,0,0,0,0,0,0,928,925,923,923,918,915,913,910,908,908,908,908,908,908,908,910,913,913,913,915,915,918,918,920,925,925,925,0,0,0,0,0,0,1594,1586,1586,1586,1594,1594,1586,1586,1586,1586,1586,1579,1579,1579,1579,1579,1579,1579,1579,1572,1572,1572,1572,1572,1572,1572,1572,1579,1579,1572,1572,1572,1572,1572,1572,1572,1572,1572,1572,1572,1564,1564,1564,1564,1564,1564,1557,1557,1557,1550,1550,1543,1543,1536,1536,1523,1523,1516,1516,1509,1509,1503,1503,1496,1496,1496,1489,1489,1489,1483,1477,1470,1470,1464,1464,1458,1452,1452,1445,1445,1445,1439,1433,1427,1421,1421,1421,1421,1415,1415,1415,1410,1404,1398,1398,1398,1392,1387,1381,1376,1376,1376,1376,1370,1370,1365,1365,1354,1354,1349,1349,1349,1343,1343,1338,1338,1333,1333,1333,1328,1322,1317,1317,1312,1312,1307,1307,1302,1297,1297,1292,1292,1292,1292,1288,1283,1278,1273,1273,1268,1268,1268,1264,1259,1255,1255,1255,1250,1250,1245,1241,1241,1236,1236,1232,1232,1227,1227,1223,1219,1219,1214,1210,1210,1210,1206,1202,1202,1197,1197,1193,1189,1189,1189,1185,1185,1181,1177,1173,1173,1169,1169,1169,1165,1165,1165,1161,1157,1157,1157,1153,1149,1145,1145,1141,1138,1138,1138,1134,1134,1130,1126,1123,1123,1123,1119,1119,1115,1112,1112,1108,1108,1108,1105,1105,1101,1101,1097,1094,1094,1094,1090,1090,1084,1084,1080,1080,1077,1077,1077,1073,1073,1070,1070,0,0,0,0,0,0,0,0,0,0,0,0,0,0,0,0,0,0,0,0,0,0,0,0,0,0,0,0,0,0,0,0
0,0,0,0,0,0,0,0,0,0,0,1632,1632,1632,1632,1632,1632,1632,1632,1632,1632,1632,1632,1632,1639,1639,1639,1639,1639,1639,1639,1639,1639,1639,1639,1639,1639,1639,1639,1639,1647,1655,1655,1655,1655,1655,1655,1655,1655,1647,1647,1647,1647,1647,1647,1647,1647,1647,1647,1647,1647,1647,1647,1647,1647,1647,1647,1647,1639,1632,1632,1632,1632,1639,1639,1639,1639,1639,1639,1647,1647,1632,1632,1632,1632,1632,1663,0,0,0,0,0,0,1019,1019,1019,1019,1019,1019,1019,1019,1022,1022,1022,1022,1025,1025,1025,1025,0,0,0,0,0,0,0,670,668,668,668,668,668,670,670,670,671,672,672,674,674,674,675,676,676,679,680,682,683,686,686,686,687,687,687,687,688,690,693,696,698,700,700,701,701,701,703,703,704,704,706,707,707,708,708,708,710,711,713,713,714,714,716,717,719,720,720,720,722,723,723,725,727,727,728,728,730,730,730,731,733,733,734,734,736,738,738,738,739,739,741,741,742,744,746,747,747,747,747,750,752,752,754,755,757,759,759,759,761,761,762,762,764,764,766,766,767,767,769,769,771,773,773,773,774,776,778,778,778,780,781,781,781,783,783,785,785,785,785,785,785,789,789,789,789,1594,1594,1601,1601,1601,1601,1601,1601,1609,1609,1609,1609,1609,1601,1601,1601,1601,1601,1227,1227,1223,1214,1214,1214,1214,1214,1210,1210,1214,1214,1214,1214,1214,1214,1214,1214,1214,1214,1214,1214,1594,1594,1594,1601,1601,1594,1594,1594,1594,1594,1594,1594,1594,1594,1586,1586,1594,1586,1586,1586,1586,1586,1594,1594,1594,1594,1594,1601,1601,1594,1594,1594,1586,1586,1579,1579,1572,1572,0,0,0,0,0,0,0,0,0,0,928,925,923,920,918,915,910,910,910,908,908,908,910,910,913,913,913,913,915,918,920,920,923,925,923,923,923,0,0,0,0,0,1594,1579,1572,1572,1579,1579,1579,1579,1579,1579,1579,1579,1572,1572,1572,1572,1572,1572,1572,1572,1572,1572,1572,1572,1572,1572,1572,1572,1572,1572,1572,1572,1572,1572,1572,1564,1564,1564,1564,1564,1557,1557,1557,1557,1557,1557,1557,1557,1550,1550,1550,1543,1543,1536,1536,1523,1523,1516,1516,1516,1509,1503,1503,1503,1496,1496,1489,1489,1489,1483,1483,1477,1470,1470,1464,1458,1452,1452,1445,1445,1445,1439,1439,1433,1427,1421,1421,1421,1415,1415,1415,1410,1410,1404,1398,1398,1392,1387,1381,1376,1376,1376,1376,1370,1370,1365,1365,1354,1354,1349,1349,1349,1343,1343,1338,1338,1333,1333,1333,1328,1322,1317,1317,1312,1312,1307,1307,1302,1297,1297,1297,1292,1292,1292,1288,1283,1278,1273,1273,1273,1268,1268,1264,1264,1259,1255,1255,1250,1250,1245,1241,1241,1236,1236,1236,1232,1232,1227,1223,1223,1219,1214,1214,1214,1210,1206,1206,1202,1197,1197,1193,1189,1189,1189,1185,1185,1181,1177,1173,1173,1169,1169,1165,1165,1165,1165,1161,1157,1157,1157,1153,1149,1149,1145,1141,1141,1138,1138,1134,1134,1130,1130,1126,1123,1123,1119,1119,1115,1112,1112,1108,1108,1108,1105,1105,1105,1101,1097,1097,1094,1094,1094,1090,1087,1084,1080,1080,1077,1077,1077,1073,1073,1070,1070,0,0,0,0,0,0,0,0,0,0,0,0,0,0,0,0,0,0,0,0,0,0,0,0,0,0,0,0,0,0,0,0
0,0,0,0,0,0,0,0,0,0,0,1624,1624,1632,1632,1624,1624,1624,1624,1624,1624,1624,1624,1632,1632,1632,1639,1639,1639,1632,1632,1632,1624,1624,1624,1624,1624,1632,1632,1632,1632,1647,1647,1647,1647,1647,1647,1647,1647,1639,1639,1639,1639,1639,1639,1647,1647,1647,1639,1639,1639,1647,1639,1639,1639,1639,1639,1639,1632,1632,1632,1632,1632,1632,1632,1632,1632,1632,1632,1639,1639,1632,1624,1624,1624,1624,1624,0,0,0,0,0,0,1019,1019,1019,1019,1022,1022,1022,1022,1022,1022,1022,1025,1025,1025,1025,1025,0,0,0,0,0,0,0,670,668,668,668,668,670,670,671,671,671,672,674,674,675,675,676,679,680,680,680,682,684,686,686,687,687,687,687,687,688,690,693,696,698,700,700,701,703,703,703,704,704,704,706,707,707,708,708,710,710,711,713,714,714,716,716,717,719,720,720,720,722,723,725,727,727,728,728,728,730,730,731,733,733,733,734,734,736,738,738,739,739,739,741,741,744,744,747,747,747,747,749,750,752,754,754,757,759,759,759,761,761,761,762,762,764,764,766,767,767,767,769,769,771,773,773,774,774,778,778,778,780,780,781,781,783,783,783,785,785,785,785,785,1586,1586,1586,1586,1586,1594,1594,1594,1594,1601,1601,1601,1601,1601,1601,1601,1601,1601,1601,1594,1594,1594,1594,1227,1227,1223,1214,1214,1214,1214,1214,1210,1210,1214,1214,1214,1214,1214,1214,1214,1219,1219,1219,1219,1223,1594,1594,1594,1594,1594,1594,1594,1586,1586,1586,1586,1579,1579,1586,1579,1579,1586,1579,1579,1579,1579,1579,1579,1586,1586,1586,1586,1594,1594,1594,1594,1586,1586,1586,1579,1579,1572,1572,0,0,0,0,0,0,0,0,0,0,930,928,923,920,918,915,913,910,910,910,910,910,910,910,913,915,915,915,918,918,920,920,923,923,923,920,920,0,0,0,0,0,0,1572,1564,1564,1564,1572,1572,1572,1572,1572,1572,1572,1572,1572,1572,1572,1564,1564,1564,1564,1564,1564,1564,1564,1572,1572,1564,1564,1564,1564,1564,1564,1564,1564,1564,1564,1564,1557,1557,1557,1557,1557,1557,1557,1550,1550,1550,1550,1550,1550,1550,1543,1543,1536,1536,1529,1523,1523,1516,1516,1509,1509,1503,1503,1496,1496,1496,1489,1489,1483,1483,1477,1470,1470,1464,1458,1458,1452,1445,1445,1445,1439,1439,1433,1427,1421,1421,1421,1415,1415,1415,1410,1410,1404,1404,1398,1392,1392,1387,1381,1376,1376,1376,1370,1370,1370,1365,1354,1354,1349,1349,1349,1343,1343,1338,1338,1333,1333,1328,1328,1322,1322,1317,1312,1312,1307,1307,1302,1297,1297,1297,1292,1292,1292,1288,1283,1278,1278,1273,1273,1273,1268,1264,1264,1259,1259,1255,1250,1250,1250,1245,1241,1236,1236,1236,1232,1232,1227,1223,1223,1219,1214,1214,1214,1210,1206,1206,1202,1197,1197,1193,1189,1189,1189,1185,1185,1181,1177,1177,1173,1173,1169,1165,1165,1165,1165,1161,1157,1157,1157,1153,1149,1149,1145,1141,1141,1138,1138,1138,1134,1130,1130,1126,1126,1123,1119,1119,1115,1115,1112,1112,1108,1108,1105,1105,1105,1101,1097,1097,1094,1094,1090,1087,1087,1084,1080,1080,1080,1077,1077,1077,1073,1070,1070,0,0,0,0,0,0,0,0,0,0,0,0,0,0,0,0,0,0,0,0,0,0,0,0,0,0,0,0,0,0,0,0
