0,0,0,0,0,0,0,0,0,0,0,0,0,0,1536,1536,1529,1529,1529,1529,1529,1523,1523,1523,1516,1516,1516,1516,1516,1516,1516,1516,1516,1516,1516,1516,1509,1509,1509,1509,1509,1509,1509,1509,1509,1509,1509,1509,1509,1509,1509,1509,1509,1509,1509,1509,1509,1509,1509,1509,1509,1509,1503,1503,1503,1503,1509,1509,1516,1516,1516,1516,1516,1523,1523,1516,1516,1536,1543,1776,1776,1776,1776,1776,1766,1766,1766,1757,1757,1757,1757,1748,1748,1748,1748,1748,1748,1757,1516,1516,1523,1523,1523,1523,1523,1523,1516,1516,1516,1516,1523,1523,1529,1536,1536,1543,1543,1543,1543,1543,1543,1543,1550,1557,1564,1564,1564,1564,1572,1572,1579,1579,1579,1586,1594,1594,1594,1594,1594,1601,1601,1609,1609,1609,1616,1616,1616,1624,1624,1624,1632,1639,1639,1639,1647,1647,1647,1655,1655,1655,1655,1663,1663,1663,1671,1671,1671,1680,1680,1688,1688,1688,1688,1696,1696,1696,1705,1713,1713,1713,1722,1722,1722,1731,1731,1731,1731,1739,1748,1748,1757,1757,1757,1757,1757,1757,1757,1757,1757,1757,1748,1748,1739,1739,1739,1739,1748,1748,1748,0,0,0,0,1054,1050,1050,1050,1050,1047,1047,1047,1044,1044,1041,1041,1038,1038,1038,1038,1038,1038,1038,1038,1038,1038,1034,1034,1034,1034,1031,1025,1025,1025,1022,1022,1019,1019,1019,1016,1016,1013,1013,1013,1010,1010,1010,1010,1007,1007,1004,1004,1001,1001,1001,1001,1001,998,998,998,995,995,992,989,989,989,987,987,984,984,981,978,978,978,978,975,975,975,975,973,973,970,967,967,964,964,962,962,959,959,956,956,954,954,954,951,948,946,946,943,940,940,938,938,940,938,938,938,935,933,933,928,928,928,925,925,923,920,920,918,918,918,915,915,913,910,908,908,906,906,903,901,901,898,898,894,891,889,889,887,887,885,885,880,880,878,878,878,878,875,875,873,873,873,873,873,875,878,880,882,885,887,887,889,889,891,0,0,0,0,0,1392,1392,1387,1387,1387,1387,1381,1381,1376,1376,1370,1370,1370,1370,1370,1370,1365,1365,1365,1359,1354,1354,1354,1349,1349,1349,1349,1349,1349,1349,1343,1343,1338,1333,1333,1333,1328,1328,1328,1328,1328,1328,1328,1328,1322,1322,1317,1317,1317,1312,1312,1312,1307,1307,1307,1302,1297,1297,1297,1297,1292,1292,1292,1292,1288,1288,1288,1288,1283,1283,1283,1283,1278,1278,1278,1273,1268,1268,1268,1268,1264,1259,1259,1259,1259,1255,1255,1255,1255,1250,1250,1250,1250,1250,1245,1245,1241,1241,1236,1236,1236,1232,1232,1232,1232,1232,1232,1227,1227,1227,1223,1219,1219,1219,1219,1214,1214,1214,1214,1206,1206,1206,1202,1202,1202,1202,1197,1197,1197,1197,1197,1197,1197,1193,1189,1189,1189,1185,1185,1185,1181,1181,1181,1181,1177,1177,1177,1177,1177,1173,1173,1173,1173,1173,1169,1169,1169,1165,1165,1161,1161,1161,1161,1157,1157,1153,1153,1153,1153,1153,1149,1149,1149,1149,1145,1141,1141,1141,1138,1138,1138,1138,1138,1134,1134,1134,1134,1134,1134,1134,1134,1130,1130,1130,1126,1123,1123,1123,1119,1119,1119,1119,1119,1115,1115,1115,1115,1115,1112,1112,1108,1108,1108,1105,1105,1105,1105,1105,1101,1101,1097,1097,1094,1094,1094,1090,1090,1090,1090,1087,1087,1087,0,0,0,0,0,0,0,0,0,0,0,0,0,0,0,0,0,0,0,0,0,0,0,0,0,0,0,0
0,0,0,0,0,0,0,0,0,0,0,0,0,0,1536,1536,1536,1536,1529,1529,1529,1523,1523,1523,1523,1516,1516,1516,1516,1516,1516,1516,1516,1516,1516,1516,1509,1509,1509,1509,1509,1509,1509,1509,1509,1509,1509,1516,1509,1509,1509,1509,1509,1509,1509,1509,1509,1509,1509,1509,1509,1509,1503,1503,1503,1503,1503,1509,1509,1509,1516,1516,1516,1523,1523,1529,1529,1536,1543,1543,1776,1776,1776,1776,1766,1766,1766,1757,1757,1757,1757,1757,1757,1748,1748,1748,1757,1757,1523,1523,1523,1529,1529,1523,1523,1523,1516,1516,1516,1516,1523,1523,1529,1536,1536,1543,1543,1543,1543,1543,1543,1550,1550,1557,1564,1564,1564,1564,1572,1572,1579,1579,1579,1586,1594,1594,1594,1594,1594,1601,1601,1609,1609,1616,1616,1616,1624,1624,1632,1632,1639,1639,1639,1639,1647,1647,1655,1655,1655,1655,1655,1655,1663,1663,1663,1671,1671,1680,1680,1688,1688,1688,1696,1696,1696,1696,1705,1713,1713,1713,1722,1722,1731,1731,1731,1731,1739,1748,1748,1757,1757,1757,1757,1757,1757,1757,1757,1757,1757,1757,1757,1757,1748,1748,1748,1748,1757,1748,1748,0,0,0,0,1054,1050,1050,1050,1047,1047,1047,1044,1044,1044,1041,1041,1041,1041,1041,1041,1041,1041,1038,1038,1038,1038,1038,1038,1038,1034,1031,1028,1025,1025,1022,1022,1019,1019,1019,1016,1016,1013,1013,1013,1010,1010,1010,1010,1007,1007,1004,1004,1004,1001,1001,1001,1001,998,998,998,998,995,992,992,989,989,987,987,987,984,984,978,978,978,978,975,975,975,975,973,973,970,967,967,967,964,962,962,959,959,956,956,954,954,954,951,948,946,943,943,940,940,940,940,940,938,938,938,935,933,933,930,928,928,925,925,923,920,920,918,918,918,915,915,913,910,908,908,906,906,903,903,901,898,898,894,891,889,889,887,887,885,882,880,880,880,878,878,878,878,875,875,875,875,875,875,875,878,880,882,885,887,887,889,889,889,0,0,0,0,0,1392,1392,1392,1387,1387,1387,1381,1381,1376,1376,1376,1376,1370,1370,1370,1370,1370,1365,1365,1359,1354,1354,1354,1349,1349,1349,1349,1349,1349,1349,1343,1343,1338,1333,1333,1333,1333,1328,1328,1328,1328,1328,1328,1328,1322,1322,1322,1317,1317,1312,1312,1312,1307,1307,1307,1307,1302,1302,1297,1297,1297,1292,1292,1292,1288,1288,1288,1288,1283,1283,1283,1283,1278,1278,1278,1273,1273,1268,1268,1268,1264,1259,1259,1259,1259,1255,1255,1255,1255,1250,1250,1250,1250,1250,1250,1250,1245,1241,1236,1236,1236,1236,1236,1232,1232,1232,1232,1227,1227,1227,1223,1223,1219,1219,1219,1214,1214,1214,1214,1210,1210,1210,1206,1202,1202,1202,1202,1202,1197,1197,1197,1197,1197,1193,1189,1189,1189,1185,1185,1185,1181,1181,1181,1181,1181,1177,1177,1177,1177,1177,1177,1177,1169,1169,1169,1169,1169,1165,1165,1161,1161,1161,1161,1157,1157,1153,1153,1153,1153,1153,1149,1149,1149,1149,1145,1145,1141,1141,1141,1138,1138,1138,1138,1138,1134,1134,1134,1134,1134,1134,1134,1130,1130,1130,1126,1126,1123,1123,1119,1119,1119,1119,1119,1119,1119,1115,1115,1115,1112,1112,1112,1108,1108,1105,1105,1105,1105,1105,1101,1101,1101,1097,1094,1094,1094,1094,1090,1090,1090,1087,1087,1087,0,0,0,0,0,0,0,0,0,0,0,0,0,0,0,0,0,0,0,0,0,0,0,0,0,0,0,0
0,0,0,0,0,0,0,0,0,0,0,0,0,0,1536,1536,1536,1529,1529,1529,1529,1529,1529,1529,1523,1523,1516,1516,1516,1516,1516,1516,1516,1516,1516,1516,1516,1509,1509,1509,1509,1509,1509,1509,1509,1509,1509,1516,1509,1509,1509,1509,1509,1509,1509,1509,1509,1509,1509,1509,1509,1509,1503,1503,1503,1503,1503,1509,1509,1509,1516,1516,1516,1523,1523,1529,1529,1536,1543,1543,1785,1776,1776,1776,1766,1766,1766,1766,1757,1757,1757,1757,1757,1757,1748,1748,1748,1748,1757,1529,1529,1529,1529,1529,1523,1523,1523,1523,1523,1523,1529,1529,1529,1536,1543,1543,1543,1543,1543,1543,1543,1550,1557,1557,1564,1564,1564,1572,1572,1572,1579,1579,1586,1594,1594,1594,1594,1594,1594,1601,1601,1609,1609,1616,1616,1616,1624,1624,1632,1632,1632,1632,1647,1647,1647,1647,1655,1655,1647,1647,1655,1655,1663,1663,1663,1671,1680,1680,1680,1688,1688,1688,1696,1696,1705,1705,1713,1713,1713,1722,1722,1731,1731,1731,1731,1731,1739,1748,1757,1757,1757,1757,1766,1766,1766,1757,1757,1757,1757,1757,1757,1757,1748,1748,1748,1748,1757,1757,1766,0,0,0,0,1054,1050,1050,1050,1047,1047,1047,1044,1044,1044,1041,1041,1041,1041,1041,1041,1041,1041,1041,1041,1041,1041,1041,1038,1038,1038,1034,1028,1025,1025,1025,1022,1022,1022,1019,1019,1016,1013,1013,1013,1010,1010,1010,1010,1007,1007,1007,1004,1004,1001,1001,1001,1001,1001,998,998,998,995,992,992,989,989,989,987,987,987,984,984,978,978,978,975,975,975,975,975,973,970,967,967,967,964,962,962,959,959,956,956,954,954,954,951,948,946,943,943,940,940,940,940,940,938,938,938,933,933,933,930,928,928,925,925,925,920,920,918,918,918,915,915,913,910,908,908,906,906,903,903,903,901,898,896,891,889,889,887,887,885,882,882,880,880,878,878,878,878,875,875,875,875,875,875,878,878,880,882,885,887,887,889,889,889,0,0,0,0,0,1398,1392,1392,1387,1387,1387,1381,1381,1381,1376,1376,1376,1376,1370,1370,1370,1370,1365,1365,1359,1354,1354,1354,1349,1349,1349,1349,1349,1349,1349,1343,1343,1338,1333,1333,1333,1333,1333,1333,1328,1328,1328,1328,1328,1328,1328,1322,1317,1317,1312,1312,1312,1312,1307,1307,1307,1302,1302,1302,1297,1297,1292,1292,1292,1292,1288,1288,1288,1288,1283,1283,1283,1278,1278,1278,1273,1273,1273,1268,1268,1264,1264,1264,1264,1259,1259,1255,1255,1255,1255,1250,1250,1250,1250,1250,1250,1250,1245,1245,1241,1241,1236,1236,1232,1232,1232,1232,1232,1232,1227,1223,1223,1219,1219,1219,1214,1214,1214,1214,1214,1214,1210,1206,1206,1202,1202,1202,1202,1197,1197,1197,1197,1197,1197,1193,1189,1189,1189,1185,1185,1185,1185,1181,1181,1181,1181,1181,1177,1177,1177,1177,1177,1169,1169,1169,1169,1169,1165,1165,1165,1165,1161,1161,1161,1157,1153,1153,1153,1153,1153,1149,1149,1149,1149,1145,1145,1141,1141,1141,1138,1138,1138,1138,1138,1138,1134,1134,1138,1134,1134,1134,1134,1134,1130,1126,1126,1123,1123,1123,1123,1123,1119,1119,1119,1119,1115,1115,1115,1115,1112,1112,1108,1108,1105,1105,1105,1105,1105,1105,1101,1101,1097,1097,1094,1094,1094,1094,1090,1090,1090,1090,1090,0,0,0,0,0,0,0,0,0,0,0,0,0,0,0,0,0,0,0,0,0,0,0,0,0,0,0,0
0,0,0,0,0,0,0,0,0,0,0,0,0,0,1536,1536,1536,1529,1529,1529,1529,1529,1529,1529,1523,1523,1516,1516,1516,1516,1516,1516,1516,1516,1516,1516,1516,1516,1516,1509,1509,1516,1516,1509,1509,1509,1509,1516,1516,1516,1509,1509,1509,1516,1509,1509,1509,1509,1509,1509,1509,1509,1503,1503,1503,1503,1503,1509,1509,1516,1516,1516,1523,1523,1523,1529,1536,1536,1536,1543,1543,1785,1785,1776,1776,1776,1766,1766,1766,1766,1757,1757,1757,1757,1748,1748,1748,1748,1757,1536,1529,1529,1529,1529,1529,1523,1523,1523,1523,1529,1529,1529,1536,1536,1543,1543,1543,1543,1543,1543,1543,1550,1557,1557,1564,1564,1564,1572,1572,1572,1579,1579,1586,1594,1594,1594,1594,1601,1601,1601,1601,1609,1609,1616,1616,1616,1624,1624,1632,1632,1632,1632,1639,1639,1647,1647,1647,1647,1647,1647,1655,1655,1663,1663,1663,1671,1680,1680,1680,1688,1688,1688,1696,1696,1705,1705,1713,1713,1713,1722,1722,1731,1731,1731,1739,1739,1739,1748,1757,1757,1757,1757,1766,1766,1766,1766,1766,1766,1757,1757,1757,1757,1757,1757,1757,1757,1757,1757,1757,0,0,0,0,1054,1050,1050,1050,1047,1047,1047,1047,1044,1044,1041,1041,1041,1041,1041,1041,1044,1044,1044,1044,1044,1044,1044,1041,1041,1038,1034,1028,1028,1025,1025,1022,1022,1022,1019,1019,1016,1016,1013,1013,1010,1010,1010,1010,1010,1010,1007,1004,1004,1004,1001,1001,1001,1001,998,998,998,995,992,992,989,989,989,987,987,987,987,984,978,978,978,978,978,975,975,975,973,970,967,967,967,967,964,962,962,959,956,956,954,954,954,951,948,946,946,943,943,940,940,940,940,938,938,938,933,933,933,930,928,928,925,925,925,923,920,920,918,915,915,915,913,910,908,908,906,906,903,903,903,901,898,896,891,889,889,889,887,885,882,882,880,880,880,878,878,878,875,875,875,875,875,875,878,878,880,882,885,887,887,889,889,889,0,0,0,0,0,1398,1392,1392,1392,1392,1387,1381,1381,1381,1376,1376,1376,1376,1376,1370,1370,1370,1370,1365,1365,1359,1354,1354,1354,1349,1349,1349,1349,1349,1349,1349,1343,1343,1338,1333,1333,1333,1333,1333,1333,1333,1328,1328,1328,1328,1328,1322,1317,1317,1312,1312,1312,1312,1307,1307,1307,1307,1302,1302,1297,1297,1292,1292,1292,1292,1288,1288,1288,1288,1283,1283,1283,1283,1278,1278,1273,1273,1273,1273,1268,1268,1264,1264,1264,1259,1259,1259,1255,1255,1255,1250,1250,1250,1250,1250,1250,1250,1245,1245,1241,1241,1236,1236,1236,1232,1232,1232,1232,1232,1227,1223,1223,1223,1219,1219,1219,1219,1219,1214,1214,1214,1210,1210,1206,1206,1202,1202,1202,1202,1197,1197,1197,1197,1193,1193,1193,1193,1189,1185,1185,1185,1185,1181,1181,1181,1181,1181,1177,1177,1177,1177,1177,1177,1173,1173,1169,1169,1169,1165,1165,1165,1161,1161,1161,1157,1153,1153,1153,1153,1153,1149,1149,1149,1149,1149,1145,1145,1145,1141,1141,1138,1138,1138,1138,1138,1138,1138,1138,1134,1134,1134,1134,1134,1130,1126,1126,1126,1126,1123,1123,1123,1123,1119,1119,1119,1119,1119,1115,1115,1112,1112,1108,1108,1108,1108,1105,1105,1105,1105,1105,1101,1101,1097,1097,1094,1094,1094,1090,1090,1087,1087,1087,0,0,0,0,0,0,0,0,0,0,0,0,0,0,0,0,0,0,0,0,0,0,0,0,0,0,0,0
0,0,0,0,0,0,0,0,0,0,0,0,0,0,1536,1536,1529,1529,1529,1529,1529,1529,1529,1529,1529,1523,1523,1516,1516,1523,1523,1523,1516,1516,1516,1516,1516,1516,1516,1509,1509,1509,1509,1509,1509,1509,1509,1516,1516,1516,1509,1509,1516,1516,1516,1516,1516,1509,1509,1509,1509,1509,1503,1503,1503,1503,1503,1509,1509,1509,1509,1516,1523,1523,1529,1529,1536,1536,1536,1543,1543,1794,1785,1776,1776,1776,1776,1766,1766,1766,1766,1766,1757,1757,1748,1748,1748,1748,1748,1748,1536,1536,1536,1529,1529,1529,1529,1529,1529,1529,1529,1536,1536,1536,1536,1543,1543,1543,1543,1550,1550,1557,1557,1564,1564,1564,1572,1572,1572,1572,1579,1579,1586,1594,1594,1594,1594,1601,1601,1601,1609,1609,1609,1616,1616,1616,1624,1624,1632,1632,1639,1639,1639,1639,1647,1647,1647,1647,1647,1655,1655,1655,1663,1663,1663,1671,1680,1680,1688,1688,1688,1688,1696,1696,1705,1705,1713,1713,1722,1722,1722,1731,1731,1731,1739,1739,1739,1748,1757,1757,1757,1766,1766,1766,1766,1766,1766,1766,1766,1766,1757,1757,1757,1757,1757,1757,1766,1757,1757,0,0,0,0,1054,1050,1050,1050,1050,1047,1047,1047,1044,1044,1041,1041,1041,1041,1044,1044,1044,1047,1047,1050,1050,1050,1057,1057,1054,1041,1038,1028,1028,1025,1025,1022,1022,1022,1022,1016,1016,1013,1013,1013,1010,1010,1010,1010,1010,1010,1007,1004,1004,1004,1001,1001,1001,1001,998,998,998,995,992,992,989,989,989,987,987,987,987,984,981,978,978,978,978,975,975,973,973,970,970,967,967,967,964,962,962,959,956,956,954,954,954,951,948,946,946,943,943,940,940,940,940,938,938,938,933,933,933,930,928,928,925,925,925,923,923,920,920,915,915,915,913,910,908,908,906,906,903,903,903,901,898,896,891,889,889,889,887,885,885,882,880,880,880,878,878,878,875,875,875,875,875,875,878,880,880,882,885,887,887,889,889,889,0,0,0,0,1398,1398,1392,1392,1392,1392,1387,1387,1381,1381,1381,1376,1376,1376,1376,1370,1370,1370,1370,1370,1365,1359,1359,1354,1354,1354,1354,1349,1349,1349,1349,1349,1349,1343,1338,1338,1333,1333,1333,1333,1333,1333,1328,1328,1328,1328,1328,1322,1317,1317,1312,1312,1312,1312,1307,1307,1307,1307,1307,1302,1297,1297,1292,1292,1292,1292,1288,1288,1288,1288,1288,1283,1283,1283,1278,1278,1273,1273,1273,1273,1268,1268,1268,1264,1264,1259,1259,1259,1255,1255,1255,1255,1250,1250,1250,1250,1250,1250,1245,1245,1241,1241,1236,1236,1236,1232,1232,1232,1232,1232,1227,1227,1227,1223,1223,1219,1219,1214,1214,1214,1214,1214,1210,1210,1210,1206,1206,1206,1202,1202,1202,1202,1197,1197,1193,1193,1193,1193,1189,1189,1189,1185,1185,1185,1181,1181,1181,1181,1177,1177,1177,1177,1177,1173,1173,1173,1173,1169,1169,1165,1165,1165,1165,1161,1161,1157,1153,1153,1153,1153,1153,1153,1153,1149,1149,1149,1149,1145,1145,1145,1141,1141,1138,1138,1138,1138,1138,1138,1138,1138,1134,1134,1134,1134,1134,1130,1126,1126,1126,1123,1123,1123,1123,1123,1123,1123,1119,1119,1119,1115,1115,1115,1112,1108,1108,1108,1105,1105,1105,1105,1105,1101,1101,1097,1097,1094,1094,1094,1090,1090,1087,1087,1087,0,0,0,0,0,0,0,0,0,0,0,0,0,0,0,0,0,0,0,0,0,0,0,0,0,0,0,0
0,0,0,0,0,0,0,0,0,0,0,0,0,0,1536,1536,1529,1529,1529,1529,1529,1529,1529,1529,1523,1523,1523,1523,1523,1523,1523,1523,1523,1523,1523,1516,1516,1516,1516,1509,1509,1509,1509,1509,1509,1509,1516,1516,1516,1516,1509,1509,1516,1509,1509,1509,1509,1516,1509,1509,1503,1503,1503,1503,1503,1503,1503,1509,1509,1509,1509,1516,1523,1523,1529,1536,1536,1536,1543,1543,1794,1794,1794,1785,1785,1785,1776,1776,1776,1766,1766,1766,1757,1757,1757,1757,1748,1748,1748,1748,1536,1536,1536,1536,1536,1529,1529,1529,1529,1529,1529,1529,1536,1536,1536,1543,1543,1543,1557,1557,1557,1557,1557,1564,1564,1564,1572,1572,1572,1579,1579,1586,1594,1594,1594,1601,1601,1601,1601,1601,1609,1609,1609,1616,1616,1616,1624,1624,1632,1632,1632,1647,1647,1647,1647,1647,1647,1655,1655,1655,1655,1655,1663,1663,1663,1671,1680,1680,1680,1688,1688,1688,1696,1696,1705,1705,1713,1713,1722,1722,1722,1731,1731,1731,1739,1739,1739,1739,1748,1757,1757,1757,1766,1766,1766,1766,1766,1766,1766,1766,1766,1766,1757,1757,1766,1766,1766,1766,1766,0,0,0,0,1054,1050,1050,1050,1050,1047,1047,1044,1044,1044,1044,1044,1044,1044,1044,1047,1047,1047,1050,1050,1054,1057,1057,1060,1060,1060,1063,1028,1028,1025,1025,1025,1022,1022,1647,1647,1647,1013,1013,1010,1010,1010,1010,1010,1007,1007,1007,1004,1004,1001,1001,1001,1001,1001,998,998,998,995,995,992,989,989,989,987,987,987,987,984,984,981,978,978,978,975,975,973,973,970,970,967,967,967,964,964,962,959,956,956,954,954,954,951,948,948,946,943,943,943,940,940,940,940,938,938,938,935,933,930,928,928,925,925,925,923,923,923,920,918,915,915,913,910,908,908,906,906,903,903,903,901,898,896,891,889,889,889,887,887,885,882,880,880,880,880,878,878,878,878,875,875,878,878,878,880,882,882,885,887,887,889,889,0,0,0,0,0,1398,1398,1392,1392,1392,1392,1387,1387,1381,1381,1381,1376,1376,1376,1376,1370,1370,1370,1370,1370,1365,1359,1359,1359,1354,1354,1354,1354,1354,1349,1349,1349,1349,1343,1343,1338,1338,1333,1333,1333,1333,1333,1333,1333,1328,1328,1328,1322,1322,1317,1312,1312,1312,1312,1312,1307,1307,1307,1307,1302,1302,1302,1297,1297,1292,1292,1292,1288,1288,1288,1288,1288,1288,1283,1283,1278,1278,1273,1273,1273,1268,1268,1268,1268,1268,1264,1264,1259,1259,1255,1255,1255,1250,1250,1250,1250,1250,1250,1245,1245,1241,1241,1236,1236,1236,1236,1236,1232,1232,1232,1227,1227,1227,1227,1223,1219,1219,1214,1214,1214,1214,1214,1210,1210,1210,1206,1206,1206,1202,1202,1202,1202,1202,1197,1197,1197,1193,1193,1193,1189,1189,1189,1185,1185,1185,1185,1181,1181,1181,1177,1177,1177,1177,1173,1173,1173,1173,1169,1169,1169,1165,1165,1165,1165,1161,1161,1157,1153,1153,1153,1153,1153,1153,1153,1153,1149,1149,1149,1149,1145,1145,1141,1138,1138,1138,1138,1138,1138,1138,1138,1138,1134,1134,1134,1134,1130,1130,1126,1126,1123,1123,1123,1123,1123,1123,1123,1119,1119,1119,1119,1115,1115,1112,1112,1108,1108,1108,1105,1105,1105,1105,1105,1101,1101,1097,1097,1097,1094,1094,1090,1090,1090,1090,0,0,0,0,0,0,0,0,0,0,0,0,0,0,0,0,0,0,0,0,0,0,0,0,0,0,0,0
0,0,0,0,0,0,0,0,0,0,0,0,0,0,1536,1536,1529,1529,1529,1529,1529,1529,1529,1529,1523,1523,1523,1523,1523,1523,1523,1523,1523,1523,1523,1523,1516,1516,1516,1516,1516,1516,1516,1516,1516,1516,1516,1516,1516,1516,1516,1509,1509,1509,1509,1509,1509,1509,1509,1509,1503,1503,1503,1503,1503,1503,1503,1509,1509,1509,1516,1516,1523,1529,1529,1536,1536,1543,1543,1794,1794,1794,1794,1794,1785,1785,1776,1766,1766,1766,1766,1766,1766,1757,1757,1757,1757,1748,1748,1748,1536,1536,1536,1536,1536,1529,1529,1529,1529,1529,1529,1529,1536,1536,1536,1543,1543,1543,1557,1557,1557,1557,1557,1564,1564,1564,1572,1572,1572,1579,1579,1586,1594,1594,1594,1601,1601,1601,1601,1601,1609,1609,1609,1616,1624,1624,1632,1632,1632,1632,1632,1639,1639,1639,1647,1647,1647,1655,1655,1655,1655,1655,1663,1663,1671,1671,1680,1680,1680,1688,1688,1696,1696,1696,1696,1705,1705,1713,1722,1722,1731,1731,1731,1731,1739,1739,1739,1739,1748,1757,1757,1757,1766,1766,1766,1766,1766,1766,1766,1766,1766,1766,1766,1757,1757,1757,1757,1757,1766,0,0,0,0,1050,1050,1050,1050,1050,1047,1047,1044,1044,1044,1044,1044,1044,1044,1044,1047,1047,1050,1050,1050,1057,1057,1060,1060,1063,1063,1063,1063,1655,1655,1655,1025,1025,1655,1647,1647,1647,1639,1632,1010,1010,1010,1010,1010,1007,1007,1632,1004,1004,1001,1001,1001,1001,1001,1001,998,998,998,995,992,989,989,989,989,987,987,987,987,984,978,978,975,975,975,975,973,973,970,970,967,967,967,964,964,962,962,959,956,956,954,954,954,948,948,946,946,943,943,943,943,943,940,938,938,938,935,933,930,928,928,925,925,925,925,925,923,918,918,918,915,913,913,910,908,906,906,906,903,903,901,898,896,891,889,889,889,887,887,885,882,880,880,880,880,878,878,878,878,878,878,878,878,878,880,882,882,887,887,889,889,889,0,0,0,0,0,1398,1398,1398,1392,1392,1392,1392,1387,1387,1381,1381,1376,1376,1376,1376,1376,1370,1370,1370,1370,1365,1365,1365,1359,1359,1354,1354,1354,1354,1349,1349,1349,1349,1343,1343,1343,1338,1338,1333,1333,1333,1333,1333,1333,1328,1328,1328,1322,1322,1317,1317,1312,1312,1312,1312,1307,1307,1307,1307,1307,1302,1302,1297,1297,1292,1292,1292,1292,1288,1288,1288,1288,1288,1283,1283,1278,1278,1273,1273,1273,1273,1268,1268,1268,1268,1264,1264,1259,1259,1259,1255,1255,1250,1250,1250,1250,1250,1250,1245,1245,1241,1241,1236,1236,1236,1236,1236,1236,1232,1232,1227,1227,1227,1227,1223,1219,1219,1219,1214,1214,1214,1214,1210,1210,1210,1206,1206,1206,1206,1202,1202,1202,1202,1197,1197,1197,1193,1193,1193,1193,1189,1189,1189,1185,1185,1185,1181,1181,1181,1181,1181,1181,1177,1177,1173,1173,1173,1169,1169,1169,1165,1165,1165,1165,1165,1161,1157,1153,1153,1153,1153,1153,1153,1153,1153,1149,1149,1149,1149,1145,1141,1141,1138,1138,1138,1138,1138,1138,1138,1138,1138,1134,1134,1134,1134,1130,1130,1130,1126,1126,1123,1123,1123,1123,1123,1123,1119,1119,1119,1119,1119,1115,1112,1112,1108,1108,1108,1108,1105,1105,1105,1105,1105,1101,1101,1101,1097,1097,1094,1094,1090,1090,1090,0,0,0,0,0,0,0,0,0,0,0,0,0,0,0,0,0,0,0,0,0,0,0,0,0,0,0,0
0,0,0,0,0,0,0,0,0,0,0,0,0,0,1536,1536,1529,1529,1529,1529,1529,1529,1529,1529,1529,1529,1523,1523,1523,1523,1523,1523,1529,1523,1523,1523,1516,1516,1516,1516,1516,1516,1516,1516,1516,1516,1516,1516,1516,1516,1516,1509,1509,1509,1509,1509,1509,1509,1509,1509,1503,1503,1503,1503,1503,1503,1503,1509,1509,1516,1516,1523,1529,1529,1536,1536,1536,1543,1543,1550,1564,1804,1804,1794,1785,1785,1776,1766,1766,1766,1766,1766,1766,1766,1757,1757,1757,1757,1757,1757,1536,1536,1543,1536,1536,1536,1536,1529,1529,1529,1529,1536,1536,1536,1536,1543,1543,1550,1557,1557,1557,1557,1557,1564,1564,1564,1572,1572,1572,1579,1579,1586,1594,1594,1594,1601,1601,1601,1601,1601,1609,1609,1616,1616,1624,1624,1632,1632,1632,1639,1639,1639,1639,1639,1647,1647,1647,1655,1655,1655,1655,1663,1663,1663,1671,1671,1680,1680,1688,1688,1688,1696,1696,1696,1696,1705,1705,1713,1722,1722,1731,1731,1731,1731,1739,1739,1739,1739,1748,1748,1757,1757,1766,1766,1776,1776,1776,1766,1766,1766,1766,1766,1757,1757,1757,1757,1757,1757,0,0,0,0,0,1050,1050,1050,1050,1050,1047,1047,1044,1044,1044,1044,1044,1044,1044,1044,1047,1047,1050,1050,1054,1057,1060,1060,1063,1063,1063,1063,1063,0,1655,1655,1655,1655,1655,1647,1647,1647,1639,1632,1632,1632,1010,1010,1010,1010,1624,1624,1624,1624,1616,1001,1001,1004,1004,1001,998,998,998,995,992,989,989,989,989,989,989,987,984,984,978,978,975,975,975,975,973,973,970,970,967,967,967,967,964,964,962,959,959,956,956,954,954,951,951,946,946,943,943,943,943,943,940,938,938,938,935,933,930,928,928,928,925,925,925,925,923,918,918,918,915,915,913,910,908,906,906,906,903,903,901,898,896,891,889,889,889,887,887,885,882,882,882,880,880,878,878,878,878,878,878,878,878,878,880,882,885,887,889,889,889,889,0,0,0,0,0,1398,1398,1398,1392,1392,1392,1392,1392,1387,1381,1381,1381,1376,1376,1376,1376,1370,1370,1370,1370,1370,1365,1365,1365,1365,1359,1359,1354,1354,1354,1349,1349,1349,1349,1349,1343,1343,1338,1338,1333,1333,1333,1333,1333,1328,1328,1328,1328,1322,1322,1317,1312,1312,1312,1312,1307,1307,1307,1307,1307,1302,1302,1297,1297,1292,1292,1292,1292,1288,1288,1288,1288,1288,1283,1283,1278,1278,1273,1273,1273,1273,1268,1268,1268,1268,1268,1264,1264,1264,1259,1259,1255,1255,1255,1255,1250,1250,1250,1245,1245,1245,1241,1241,1241,1236,1236,1236,1236,1236,1232,1232,1232,1232,1227,1223,1219,1219,1219,1219,1219,1214,1214,1214,1214,1214,1210,1210,1210,1206,1206,1202,1202,1202,1197,1197,1197,1197,1193,1193,1193,1193,1189,1189,1189,1185,1185,1185,1185,1181,1181,1181,1181,1177,1177,1177,1177,1173,1169,1169,1169,1165,1165,1165,1165,1165,1165,1161,1157,1157,1157,1157,1153,1153,1153,1153,1153,1149,1149,1149,1145,1141,1141,1138,1138,1138,1138,1138,1138,1138,1138,1138,1138,1138,1134,1134,1130,1130,1130,1130,1126,1126,1123,1123,1123,1123,1123,1119,1119,1119,1119,1119,1115,1112,1112,1108,1108,1108,1108,1105,1105,1105,1105,1105,1101,1101,1101,1097,1097,1097,1094,1090,1090,1090,0,0,0,0,0,0,0,0,0,0,0,0,0,0,0,0,0,0,0,0,0,0,0,0,0,0,0,0
0,0,0,0,0,0,0,0,0,0,0,0,0,0,1536,1536,1529,1529,1529,1529,1529,1529,1529,1529,1529,1529,1523,1523,1529,1529,1529,1529,1529,1523,1523,1523,1516,1516,1516,1516,1516,1516,1516,1523,1523,1523,1523,1523,1516,1516,1516,1509,1509,1509,1509,1509,1509,1509,1509,1509,1503,1503,1509,1503,1503,1509,1509,1509,1516,1516,1516,1516,1529,1529,1536,1536,1536,1543,1543,1550,1564,1804,1804,1794,1785,1785,1776,1776,1776,1776,1766,1766,1766,1766,1766,1757,1757,1757,1757,1757,1536,1536,1543,1536,1536,1536,1536,1536,1536,1529,1529,1536,1536,1536,1536,1543,1543,1543,1550,1557,1557,1564,1564,1564,1564,1564,1572,1572,1572,1579,1579,1586,1594,1594,1594,1601,1601,1601,1601,1609,1609,1609,1616,1616,1624,1624,1632,1632,1632,1632,1639,1639,1639,1647,1647,1647,1647,1655,1655,1655,1655,1663,1663,1663,1671,1671,1680,1680,1688,1688,1688,1696,1696,1696,1696,1705,1705,1713,1722,1722,1731,1731,1731,1739,1739,1739,1739,1748,1748,1748,1757,1757,1766,1766,1776,1776,1776,1766,1766,1766,1766,1766,1757,1757,1757,1757,1757,1757,0,0,0,0,1060,1057,1050,1050,1050,1050,1047,1047,1044,1044,1044,1044,1044,1044,1044,1044,1047,1050,1050,1050,1057,1057,1060,1060,1063,1063,1067,1067,0,0,1655,1655,1655,1655,1655,1647,1647,1647,1639,1632,1632,1632,1632,1624,1624,1624,1624,1624,1624,1616,1616,1616,1609,1004,1004,1004,1004,1594,1594,995,995,992,989,989,989,989,989,987,984,984,978,978,975,975,975,975,973,973,970,970,967,967,967,967,964,964,964,962,959,956,956,956,954,954,951,948,946,946,943,943,943,943,940,938,938,935,935,933,930,930,928,928,925,925,925,925,923,920,918,918,915,915,913,910,910,908,906,906,906,906,898,896,894,891,891,889,889,887,887,885,882,882,882,880,880,878,878,878,878,878,878,878,878,878,880,882,885,887,889,891,889,889,0,0,0,0,0,1398,1398,1398,1398,1392,1392,1392,1392,1387,1387,1387,1387,1381,1376,1376,1376,1376,1376,1376,1370,1370,1370,1370,1365,1365,1359,1359,1354,1354,1354,1349,1349,1349,1349,1349,1343,1343,1343,1338,1338,1338,1333,1333,1333,1328,1328,1328,1328,1322,1322,1317,1317,1312,1312,1312,1307,1307,1307,1307,1307,1307,1302,1302,1302,1292,1292,1292,1292,1288,1288,1288,1288,1288,1283,1283,1283,1278,1278,1278,1273,1273,1268,1268,1268,1268,1268,1264,1264,1264,1264,1259,1259,1255,1255,1255,1250,1250,1250,1250,1245,1245,1245,1245,1241,1241,1241,1236,1236,1236,1232,1232,1232,1232,1227,1223,1219,1219,1219,1219,1219,1219,1214,1214,1214,1214,1214,1214,1210,1210,1206,1202,1202,1202,1197,1197,1197,1197,1193,1193,1193,1193,1189,1189,1189,1189,1185,1185,1185,1185,1181,1181,1181,1177,1177,1177,1177,1173,1173,1173,1169,1169,1169,1169,1165,1165,1165,1165,1157,1157,1157,1157,1157,1157,1153,1153,1153,1153,1149,1149,1149,1145,1145,1141,1141,1141,1138,1138,1138,1138,1138,1138,1138,1138,1138,1134,1134,1134,1130,1130,1126,1126,1123,1123,1123,1123,1123,1123,1123,1119,1119,1119,1119,1112,1112,1112,1108,1108,1108,1105,1105,1105,1105,1105,1101,1101,1101,1097,1097,1097,1094,1094,1094,1094,0,0,0,0,0,0,0,0,0,0,0,0,0,0,0,0,0,0,0,0,0,0,0,0,0,0,0,0
0,0,0,0,0,0,0,0,0,0,0,0,0,0,1536,1536,1529,1529,1529,1529,1529,1529,1529,1529,1529,1529,1523,1523,1529,1529,1529,1529,1529,1523,1523,1523,1523,1516,1516,1516,1516,1516,1516,1523,1523,1523,1523,1523,1516,1516,1516,1509,1509,1509,1509,1509,1516,1516,1516,1509,1509,1509,1509,1509,1509,1509,1509,1509,1516,1516,1516,1516,1529,1529,1536,1536,1536,1543,1543,1550,1794,1794,1794,1794,1794,1785,1776,1776,1776,1776,1776,1766,1766,1766,1766,1766,1766,1757,1757,1757,1543,1543,1543,1536,1536,1536,1536,1536,1536,1536,1536,1536,1536,1536,1536,1543,1543,1543,1550,1557,1557,1564,1564,1564,1564,1564,1572,1572,1572,1579,1579,1586,1594,1594,1594,1601,1601,1601,1601,1609,1609,1616,1624,1624,1624,1624,1632,1632,1632,1632,1639,1639,1639,1639,1647,1655,1655,1655,1655,1655,1663,1663,1663,1663,1671,1671,1680,1680,1688,1688,1688,1696,1696,1696,1696,1705,1705,1713,1722,1722,1731,1731,1731,1739,1739,1748,1748,1748,1748,1748,1757,1757,1766,1766,1766,1776,1776,1776,1766,1766,1766,1766,1757,1757,1757,1757,1757,1757,0,0,0,0,1060,1057,1054,1050,1050,1050,1047,1047,1044,1044,1044,1044,1044,1044,1044,1047,1050,1050,1050,1050,1057,1060,1060,1063,1063,1063,1063,1063,0,0,1663,1663,1655,1655,1655,1655,1647,1647,1639,1639,1632,1632,1632,1624,1624,1624,1624,1624,1624,1616,1616,1616,1609,1601,1601,1594,1594,1594,1594,1586,1586,1586,989,989,989,989,989,989,1572,1572,978,978,975,975,975,975,973,973,970,967,967,967,967,967,967,964,964,962,959,959,959,956,954,954,954,948,948,946,943,943,943,943,940,938,938,935,935,933,933,930,930,928,928,925,925,925,923,920,918,918,918,915,915,910,910,908,908,906,906,906,898,896,894,891,889,889,889,887,887,885,885,882,882,880,880,878,878,878,878,878,878,878,878,878,880,882,885,889,889,891,889,889,0,0,0,0,0,1398,1398,1398,1398,1398,1398,1392,1392,1392,1387,1387,1387,1381,1381,1376,1376,1376,1376,1376,1370,1370,1370,1370,1365,1365,1365,1359,1359,1354,1354,1354,1349,1349,1349,1349,1349,1349,1343,1343,1343,1338,1338,1333,1333,1328,1328,1328,1328,1328,1322,1317,1317,1317,1312,1312,1312,1307,1307,1307,1307,1307,1302,1302,1302,1292,1292,1292,1292,1288,1288,1288,1288,1288,1288,1283,1283,1283,1278,1278,1273,1273,1268,1268,1268,1268,1268,1268,1264,1264,1264,1259,1259,1255,1255,1255,1255,1250,1250,1250,1250,1245,1245,1245,1241,1241,1241,1236,1236,1232,1232,1232,1232,1232,1232,1223,1223,1223,1219,1219,1219,1219,1219,1214,1214,1214,1214,1214,1210,1210,1206,1202,1202,1202,1202,1197,1197,1197,1197,1193,1193,1193,1189,1189,1193,1189,1189,1185,1185,1185,1185,1181,1181,1181,1177,1177,1177,1173,1173,1173,1169,1169,1169,1169,1169,1169,1165,1165,1165,1161,1161,1161,1157,1157,1157,1153,1153,1153,1149,1149,1149,1149,1145,1145,1141,1141,1141,1138,1138,1138,1138,1138,1138,1138,1138,1134,1134,1134,1134,1130,1126,1126,1123,1123,1123,1123,1123,1123,1123,1119,1119,1119,1119,1115,1112,1112,1112,1108,1108,1105,1105,1105,1105,1105,1101,1101,1101,1101,1097,1097,1094,1094,1094,0,0,0,0,0,0,0,0,0,0,0,0,0,0,0,0,0,0,0,0,0,0,0,0,0,0,0,0,0
0,0,0,0,0,0,0,0,0,0,0,0,0,0,1536,1536,1529,1529,1529,1529,1529,1529,1529,1529,1529,1529,1529,1529,1523,1523,1523,1523,1529,1523,1523,1529,1523,1516,1516,1516,1516,1523,1523,1523,1523,1523,1523,1523,1516,1516,1516,1516,1516,1516,1516,1516,1516,1516,1516,1509,1509,1509,1509,1509,1509,1509,1509,1509,1516,1516,1516,1516,1523,1529,1529,1529,1536,1543,1543,1794,1794,1794,1794,1794,1785,1785,1776,1776,1776,1776,1776,1766,1766,1766,1766,1766,1766,1757,1757,1757,1543,1543,1543,1536,1536,1536,1536,1536,1536,1536,1536,1536,1536,1536,1536,1543,1543,1543,1557,1557,1557,1564,1564,1564,1564,1564,1572,1572,1579,1579,1579,1586,1594,1594,1594,1601,1601,1601,1601,1609,1609,1616,1624,1624,1624,1624,1632,1632,1632,1632,1639,1639,1639,1639,1647,1655,1655,1655,1655,1663,1663,1663,1663,1663,1671,1671,1680,1680,1688,1688,1688,1696,1696,1696,1696,1705,1705,1713,1722,1731,1731,1731,1731,1739,1739,1739,1739,1748,1748,1748,1757,1757,1766,1766,1766,1776,1776,1776,1766,1766,1766,1766,1757,1757,1757,1757,1757,1757,0,0,0,0,1060,1057,1054,1054,1050,1050,1047,1047,1044,1044,1044,1044,1044,1044,1047,1047,1050,1050,1050,1050,1057,1060,1060,1063,1063,1063,1063,1063,0,0,0,1663,1655,1655,1655,1655,1647,1647,1647,1639,1632,1632,1632,1632,1624,1624,1624,1624,1624,1616,1616,1616,1616,1609,1601,1601,1601,1601,1594,1594,1594,1586,1586,1586,1586,1586,1579,1579,1579,1572,1572,1572,1572,1564,975,975,973,973,970,967,967,967,967,967,967,967,964,964,962,962,962,954,954,954,954,948,948,946,946,943,943,943,940,938,938,935,935,933,933,933,930,928,928,928,925,925,923,920,918,918,918,915,915,913,910,908,908,906,906,903,898,898,894,891,889,889,889,887,887,885,885,882,882,880,880,878,878,878,878,878,878,878,878,878,880,882,885,891,891,894,891,891,0,0,0,0,0,1398,1398,1398,1398,1398,1398,1392,1392,1392,1392,1387,1387,1387,1381,1381,1376,1376,1376,1376,1370,1370,1370,1370,1370,1365,1365,1359,1359,1359,1354,1354,1354,1349,1349,1349,1349,1349,1343,1343,1343,1338,1338,1333,1333,1333,1328,1328,1328,1328,1328,1322,1317,1317,1317,1312,1312,1312,1312,1307,1307,1307,1307,1302,1302,1292,1292,1292,1292,1292,1292,1288,1288,1288,1288,1288,1283,1283,1283,1278,1273,1273,1268,1268,1268,1268,1268,1268,1268,1264,1264,1264,1259,1255,1255,1255,1255,1250,1250,1250,1250,1245,1245,1245,1241,1241,1241,1241,1236,1232,1232,1232,1232,1232,1232,1223,1223,1223,1219,1219,1219,1219,1219,1219,1214,1214,1214,1214,1214,1210,1206,1202,1202,1202,1202,1202,1197,1197,1197,1197,1193,1193,1193,1193,1193,1193,1189,1189,1185,1185,1185,1185,1181,1181,1177,1177,1181,1177,1177,1173,1169,1169,1169,1169,1169,1169,1165,1165,1165,1161,1161,1161,1157,1157,1157,1157,1153,1153,1153,1149,1149,1149,1145,1145,1145,1141,1141,1141,1138,1138,1138,1138,1138,1138,1138,1134,1134,1134,1134,1130,1130,1126,1123,1123,1123,1123,1123,1123,1123,1119,1119,1119,1119,1115,1115,1112,1112,1108,1108,1108,1108,1105,1105,1105,1105,1101,1101,1101,1097,1097,1094,1094,1094,0,0,0,0,0,0,0,0,0,0,0,0,0,0,0,0,0,0,0,0,0,0,0,0,0,0,0,0,0
0,0,0,0,0,0,0,0,0,0,0,0,0,0,1536,1536,1529,1529,1529,1529,1529,1529,1529,1529,1529,1529,1529,1529,1523,1523,1523,1523,1529,1523,1523,1529,1529,1523,1523,1523,1523,1523,1523,1523,1523,1523,1523,1523,1516,1516,1516,1516,1516,1516,1516,1516,1516,1516,1516,1509,1509,1509,1509,1509,1509,1509,1509,1509,1509,1509,1516,1516,1516,1516,1529,1529,1536,1543,1543,1564,1572,1794,1794,1794,1785,1785,1776,1776,1776,1776,1776,1766,1766,1766,1766,1766,1766,1757,1757,1757,1543,1543,1543,1543,1543,1543,1536,1536,1536,1536,1536,1536,1536,1536,1536,1536,1543,1550,1557,1564,1564,1564,1564,1564,1572,1572,1572,1572,1579,1579,1579,1586,1594,1594,1594,1601,1601,1601,1601,1609,1609,1616,1624,1624,1624,1624,1632,1632,1632,1639,1639,1639,1639,1647,1647,1655,1655,1655,1655,1663,1663,1663,1663,1663,1671,1671,1680,1680,1688,1688,1688,1696,1696,1696,1696,1705,1713,1722,1722,1731,1731,1739,1739,1739,1739,1739,1739,1748,1748,1748,1757,1757,1766,1766,1766,1776,1776,1776,1766,1766,1766,1766,1757,1757,1757,1757,1757,1757,0,0,0,0,1060,1060,1057,1054,1054,1050,1047,1047,1047,1047,1044,1044,1044,1044,1047,1047,1050,1050,1050,1054,1057,1060,1060,1063,1063,1063,1063,0,0,0,0,1663,1655,1655,1655,1655,1655,1655,1647,1647,1639,1632,1632,1632,1632,1624,1624,1624,1624,1624,1616,1616,1616,1609,1601,1601,1601,1601,1601,1594,1594,1594,1594,1594,1586,1586,1586,1579,1579,1579,1572,1572,1572,1572,1572,1572,1564,1564,1564,1564,1557,967,967,967,967,967,967,967,1536,1536,1529,1529,1529,1529,1523,948,948,946,946,946,946,943,940,938,938,935,933,930,930,930,930,928,928,928,925,925,923,920,918,918,918,915,915,913,913,910,908,906,906,903,901,898,894,894,891,889,889,887,887,887,885,882,882,880,880,880,878,878,878,878,878,878,878,878,880,882,887,891,891,894,891,891,0,0,0,0,1398,1398,1398,1398,1398,1398,1398,1398,1392,1392,1392,1392,1387,1387,1381,1381,1376,1376,1376,1376,1370,1370,1370,1370,1370,1365,1365,1365,1359,1359,1354,1354,1349,1349,1349,1349,1349,1349,1343,1343,1343,1338,1338,1333,1333,1333,1333,1328,1328,1328,1328,1328,1322,1322,1322,1317,1312,1312,1312,1307,1307,1307,1307,1302,1302,1302,1297,1297,1292,1292,1292,1292,1292,1292,1288,1288,1288,1283,1283,1278,1278,1278,1273,1273,1268,1268,1268,1268,1268,1268,1264,1264,1264,1259,1255,1255,1255,1255,1250,1250,1250,1250,1245,1245,1241,1241,1241,1241,1241,1236,1232,1232,1232,1232,1232,1227,1227,1223,1223,1219,1219,1219,1219,1219,1214,1214,1214,1214,1214,1214,1206,1206,1202,1202,1202,1202,1202,1197,1197,1197,1193,1193,1193,1193,1193,1193,1189,1189,1189,1185,1185,1185,1185,1181,1181,1181,1181,1177,1177,1173,1169,1169,1169,1169,1169,1169,1165,1165,1165,1161,1161,1161,1161,1157,1157,1157,1157,1153,1153,1149,1149,1149,1149,1145,1145,1145,1141,1141,1141,1138,1138,1138,1138,1138,1138,1134,1134,1134,1134,1130,1130,1126,1123,1123,1123,1123,1123,1119,1119,1119,1119,1119,1119,1119,1115,1112,1112,1108,1108,1108,1108,1105,1105,1105,1105,1101,1101,1101,1097,1097,1094,1094,1094,0,0,0,0,0,0,0,0,0,0,0,0,0,0,0,0,0,0,0,0,0,0,0,0,0,0,0,0,0
0,0,0,0,0,0,0,0,0,0,0,0,0,0,1536,1536,1529,1529,1529,1529,1529,1529,1529,1529,1529,1529,1536,1536,1536,1529,1529,1529,1529,1529,1529,1529,1529,1529,1529,1523,1523,1523,1523,1523,1523,1523,1523,1523,1516,1516,1516,1516,1516,1516,1516,1516,1516,1516,1516,1516,1516,1509,1509,1509,1509,1509,1509,1509,1509,1509,1516,1516,1516,1516,1516,1523,1529,1543,1550,1564,1572,1794,1794,1794,1794,1785,1785,1776,1776,1776,1776,1766,1766,1766,1766,1766,1757,1757,1757,1757,1536,1536,1543,1543,1543,1543,1543,1536,1536,1536,1536,1536,1536,1536,1536,1536,1543,1550,1557,1564,1564,1564,1564,1564,1572,1572,1572,1572,1579,1579,1586,1586,1594,1594,1594,1601,1601,1601,1609,1609,1609,1616,1624,1624,1624,1624,1632,1632,1632,1639,1639,1639,1639,1647,1647,1655,1655,1663,1663,1663,1663,1663,1663,1671,1671,1680,1680,1688,1688,1688,1688,1696,1696,1696,1696,1705,1713,1722,1722,1731,1731,1739,1739,1739,1739,1739,1748,1748,1748,1748,1757,1757,1766,1766,1766,1766,1776,1776,1766,1766,1766,1766,1757,1757,1757,1757,1757,1757,0,0,0,0,1063,1060,1057,1057,1054,1050,1050,1047,1047,1047,1044,1044,1044,1044,1047,1047,1050,1050,1050,1054,1057,1060,1060,1063,1063,1063,1063,1063,0,0,0,1663,1663,1655,1655,1655,1655,1655,1647,1639,1639,1632,1632,1632,1632,1632,1632,1624,1624,1624,1616,1616,1616,1609,1609,1601,1601,1601,1601,1601,1594,1594,1594,1594,1594,1586,1586,1579,1579,1579,1572,1572,1572,1572,1572,1572,1564,1564,1564,1564,1557,1557,1550,1543,1543,1543,1536,1536,1536,1536,1529,1529,1529,1529,1529,1529,1523,1523,1516,1516,1516,1516,1516,1509,1509,1509,933,930,930,930,930,928,928,928,925,925,923,920,918,918,918,915,915,913,913,910,908,908,906,903,901,898,896,894,891,889,889,889,887,887,887,885,882,880,880,880,878,878,878,878,878,878,878,880,882,885,887,891,894,894,894,0,0,0,0,0,1398,1398,1398,1398,1398,1398,1398,1398,1398,1392,1392,1392,1392,1387,1387,1381,1381,1376,1376,1376,1370,1370,1370,1370,1370,1365,1365,1365,1359,1359,1359,1354,1349,1349,1349,1349,1349,1349,1349,1343,1343,1338,1338,1333,1333,1333,1333,1333,1328,1328,1328,1328,1328,1322,1322,1317,1317,1312,1312,1312,1312,1307,1307,1307,1307,1302,1302,1297,1297,1297,1292,1292,1292,1292,1292,1288,1288,1288,1283,1278,1278,1278,1273,1273,1273,1273,1273,1268,1268,1268,1268,1264,1264,1259,1255,1255,1255,1255,1250,1250,1250,1250,1245,1245,1241,1241,1241,1241,1236,1236,1232,1232,1232,1232,1232,1227,1227,1227,1223,1223,1219,1219,1219,1219,1214,1214,1214,1214,1214,1214,1210,1210,1206,1206,1202,1202,1202,1197,1197,1197,1193,1193,1193,1193,1193,1193,1193,1189,1189,1185,1185,1185,1185,1181,1181,1181,1181,1177,1177,1169,1169,1173,1169,1169,1169,1169,1165,1165,1165,1165,1161,1161,1161,1161,1157,1157,1157,1153,1153,1149,1149,1149,1149,1145,1145,1145,1141,1141,1141,1141,1141,1134,1134,1134,1138,1138,1134,1134,1134,1130,1130,1126,1126,1123,1123,1123,1123,1119,1119,1119,1119,1119,1119,1119,1115,1112,1112,1112,1108,1108,1108,1108,1105,1105,1105,1101,1101,1101,1097,1097,1094,1094,1094,0,0,0,0,0,0,0,0,0,0,0,0,0,0,0,0,0,0,0,0,0,0,0,0,0,0,0,0,0
0,0,0,0,0,0,0,0,0,0,0,0,0,0,1536,1536,1536,1536,1529,1529,1529,1529,1529,1536,1529,1529,1536,1536,1536,1529,1529,1529,1529,1529,1529,1529,1529,1529,1529,1529,1529,1529,1529,1523,1523,1523,1523,1523,1523,1523,1523,1523,1523,1516,1516,1516,1516,1516,1516,1516,1516,1516,1516,1516,1516,1509,1509,1509,1516,1516,1516,1516,1516,1516,1516,1523,1529,1536,1543,1564,1572,1794,1794,1794,1794,1794,1785,1785,1785,1776,1776,1766,1766,1766,1766,1757,1757,1757,1757,1757,1536,1536,1543,1543,1543,1543,1543,1543,1543,1536,1536,1536,1536,1536,1536,1536,1543,1543,1557,1564,1564,1564,1564,1572,1572,1572,1572,1572,1579,1579,1586,1586,1586,1594,1594,1601,1601,1601,1609,1609,1609,1616,1624,1624,1624,1624,1632,1632,1632,1639,1639,1639,1647,1647,1655,1655,1655,1663,1663,1663,1663,1663,1663,1671,1680,1680,1688,1688,1688,1688,1688,1696,1696,1696,1705,1705,1722,1722,1731,1731,1731,1739,1739,1739,1739,1739,1748,1748,1748,1748,1757,1757,1766,1766,1766,1766,1776,1776,1776,1766,1766,1766,1766,1757,1757,1757,1757,1757,0,0,0,0,1063,1060,1057,1057,1054,1050,1050,1047,1047,1047,1047,1047,1044,1044,1047,1050,1050,1050,1054,1057,1057,1060,1060,1063,1063,1063,1063,1063,0,0,0,1663,1663,1663,1655,1655,1655,1655,1647,1639,1639,1632,1632,1632,1632,1632,1632,1624,1624,1624,1624,1616,1616,1609,1609,1609,1609,1609,1609,1601,1601,1601,1601,1594,1594,1594,1586,1586,1579,1579,1572,1572,1572,1572,1572,1572,1572,1564,1564,1564,1564,1557,1550,1550,1543,1543,1543,1543,1536,1536,1536,1536,1536,1529,1529,1529,1529,1523,1516,1516,1516,1516,1516,1509,1509,1509,1516,930,930,930,1516,928,928,928,925,923,918,918,918,918,918,915,915,915,913,910,908,908,906,903,901,896,894,891,891,889,889,889,887,887,887,885,882,882,880,880,880,878,878,878,878,878,880,880,882,887,889,891,894,894,894,0,0,0,0,0,1398,1398,1398,1398,1398,1398,1398,1398,1398,1392,1392,1392,1392,1387,1387,1387,1381,1376,1376,1376,1376,1370,1370,1370,1370,1365,1365,1365,1359,1359,1359,1354,1349,1349,1349,1349,1349,1349,1349,1343,1343,1338,1338,1338,1333,1333,1333,1333,1328,1328,1328,1328,1328,1328,1322,1317,1317,1312,1312,1312,1312,1312,1307,1307,1307,1302,1302,1297,1297,1297,1292,1292,1292,1292,1292,1288,1288,1288,1288,1283,1278,1278,1278,1273,1273,1273,1273,1273,1268,1268,1268,1268,1264,1259,1259,1255,1255,1255,1255,1250,1250,1250,1245,1245,1245,1245,1241,1241,1236,1236,1236,1232,1232,1232,1232,1227,1227,1227,1223,1223,1219,1219,1219,1219,1214,1214,1214,1214,1214,1214,1214,1210,1206,1206,1206,1202,1202,1197,1197,1197,1193,1193,1193,1193,1193,1193,1193,1189,1189,1189,1185,1185,1185,1185,1181,1181,1181,1177,1177,1169,1169,1173,1169,1169,1169,1169,1165,1165,1165,1165,1165,1161,1161,1161,1157,1157,1153,1153,1153,1149,1149,1149,1149,1145,1145,1145,1141,1141,1141,1138,1138,1134,1134,1134,1138,1138,1134,1134,1134,1130,1130,1126,1126,1123,1123,1123,1123,1119,1119,1119,1119,1119,1119,1119,1115,1112,1112,1112,1108,1108,1108,1108,1108,1108,1105,1105,1101,1101,1097,1097,1094,1094,1094,0,0,0,0,0,0,0,0,0,0,0,0,0,0,0,0,0,0,0,0,0,0,0,0,0,0,0,0,0
0,0,0,0,0,0,0,0,0,0,0,0,0,0,1543,1536,1536,1536,1536,1529,1529,1529,1529,1536,1529,1529,1536,1536,1536,1529,1529,1529,1529,1529,1529,1529,1529,1529,1529,1529,1529,1529,1529,1529,1523,1523,1523,1523,1523,1523,1523,1523,1523,1523,1523,1523,1523,1523,1516,1516,1516,1516,1516,1516,1516,1516,1509,1509,1516,1516,1516,1516,1516,1516,1516,1523,1529,1536,1543,1557,1564,1794,1794,1794,1794,1794,1785,1785,1785,1785,1776,1766,1766,1766,1766,1757,1757,1757,1757,1757,1536,1536,1543,1543,1543,1543,1543,1543,1543,1536,1536,1543,1543,1536,1536,1536,1543,1543,1557,1564,1564,1564,1564,1572,1572,1572,1572,1572,1579,1579,1586,1586,1586,1594,1594,1601,1601,1601,1609,1609,1609,1609,1624,1624,1624,1624,1632,1632,1632,1639,1639,1647,1647,1655,1655,1655,1663,1663,1663,1671,1671,1671,1671,1671,1680,1688,1688,1688,1688,1696,1696,1696,1696,1696,1705,1713,1722,1722,1731,1731,1731,1739,1739,1739,1739,1739,1748,1748,1748,1757,1757,1757,1766,1766,1766,1766,1776,1776,1776,1766,1766,1766,1766,1766,1766,1757,1757,1766,0,0,0,0,1063,1060,1057,1057,1054,1050,1050,1047,1047,1047,1047,1047,1047,1047,1047,1050,1050,1050,1054,1057,1060,1060,1063,1060,1060,1060,1060,1060,0,0,0,1663,1663,1663,1655,1655,1655,1655,1647,1647,1639,1639,1632,1632,1632,1632,1632,1632,1624,1624,1624,1616,1616,1616,1616,1609,1609,1609,1609,1609,1601,1601,1601,1594,1594,1594,1586,1586,1586,1579,1572,1572,1572,1572,1572,1572,1572,1564,1564,1564,1564,1557,1557,1557,1550,1550,1550,1543,1543,1543,1536,1536,1536,1536,1529,1529,1529,1523,1516,1516,1516,1516,1516,1509,1509,1516,1516,1516,1516,1516,1516,1516,1516,928,925,923,918,918,918,918,918,915,915,915,915,913,910,908,906,903,901,896,894,891,889,889,889,889,887,887,887,885,882,882,880,880,880,878,878,878,878,878,880,880,882,887,889,891,894,894,896,896,0,0,0,0,1398,1398,1398,1398,1398,1398,1398,1398,1398,1392,1392,1392,1392,1387,1387,1387,1381,1381,1376,1376,1376,1370,1370,1370,1370,1365,1365,1365,1359,1359,1359,1354,1354,1349,1349,1349,1349,1349,1349,1349,1343,1338,1338,1338,1333,1333,1333,1333,1333,1328,1328,1328,1328,1328,1322,1322,1317,1312,1312,1312,1312,1312,1312,1307,1307,1307,1302,1297,1297,1297,1292,1292,1292,1292,1292,1288,1288,1288,1283,1283,1278,1278,1278,1273,1273,1273,1273,1273,1268,1268,1268,1268,1268,1259,1259,1259,1255,1255,1255,1255,1250,1250,1250,1245,1245,1245,1241,1241,1236,1236,1232,1232,1232,1232,1232,1227,1227,1227,1223,1223,1219,1219,1219,1219,1214,1214,1214,1214,1214,1214,1214,1210,1210,1206,1206,1202,1202,1202,1202,1197,1197,1197,1193,1193,1193,1193,1189,1189,1189,1189,1185,1185,1185,1185,1181,1181,1181,1177,1177,1177,1173,1173,1169,1169,1169,1169,1165,1165,1165,1165,1165,1161,1161,1161,1157,1157,1153,1153,1153,1153,1149,1149,1149,1149,1145,1145,1141,1141,1141,1138,1138,1138,1138,1138,1138,1138,1134,1134,1134,1130,1130,1130,1126,1123,1123,1123,1123,1123,1123,1119,1119,1119,1119,1119,1115,1112,1112,1112,1108,1108,1108,1108,1108,1108,1105,1105,1101,1101,1097,1097,1097,1097,1097,0,0,0,0,0,0,0,0,0,0,0,0,0,0,0,0,0,0,0,0,0,0,0,0,0,0,0,0,0
0,0,0,0,0,0,0,0,0,0,0,0,0,0,1543,1543,1536,1536,1536,1529,1529,1536,1536,1536,1536,1536,1536,1536,1536,1529,1529,1529,1529,1529,1529,1529,1529,1529,1529,1529,1529,1529,1529,1529,1523,1523,1523,1523,1516,1516,1523,1523,1523,1523,1523,1523,1523,1523,1516,1516,1516,1516,1516,1516,1516,1516,1516,1516,1516,1516,1516,1516,1516,1516,1523,1523,1529,1536,1543,1557,1564,1794,1794,1794,1794,1794,1794,1794,1794,1785,1785,1776,1776,1766,1766,1766,1757,1757,1757,1757,1748,1543,1543,1543,1543,1543,1543,1543,1543,1536,1536,1536,1536,1536,1536,1543,1543,1550,1557,1564,1564,1564,1564,1572,1572,1572,1572,1572,1579,1579,1579,1586,1586,1594,1594,1601,1601,1601,1609,1609,1609,1609,1624,1624,1624,1624,1632,1632,1632,1639,1639,1647,1647,1655,1655,1655,1663,1663,1663,1671,1671,1671,1671,1680,1680,1688,1688,1688,1688,1696,1696,1696,1705,1705,1713,1713,1722,1731,1731,1731,1731,1739,1739,1739,1739,1739,1748,1748,1757,1757,1757,1766,1766,1766,1766,1766,1785,1785,1785,1776,1776,1766,1766,1766,1766,1766,1766,1766,1766,0,0,1060,1060,1060,1057,1057,1057,1054,1050,1050,1047,1047,1047,1047,1047,1047,1047,1050,1050,1050,1057,1057,1060,1060,1063,1060,1060,1060,1060,1060,0,0,0,1663,1663,1663,1663,1655,1655,1655,1655,1647,1647,1639,1639,1639,1639,1632,1632,1632,1632,1624,1624,1624,1616,1616,1616,1616,1616,1616,1616,1609,1601,1601,1601,1594,1594,1594,1586,1586,1586,1579,1572,1572,1572,1572,1572,1572,1564,1564,1564,1564,1564,1564,1557,1557,1550,1550,1550,1543,1543,1543,1543,1536,1536,1536,1536,1536,1529,1523,1523,1523,1516,1516,1516,1516,1516,1516,1516,1523,1516,1516,1516,1516,1516,1509,1503,1503,920,918,915,915,918,918,918,915,915,913,913,908,906,903,901,896,894,891,889,889,889,889,887,887,887,885,885,882,882,880,880,880,880,878,878,880,880,880,885,887,889,894,894,896,896,896,0,0,0,0,0,1398,1398,1404,1398,1398,1398,1398,1398,1398,1392,1392,1392,1392,1387,1387,1381,1376,1376,1376,1376,1370,1370,1370,1370,1365,1365,1365,1359,1359,1359,1354,1354,1349,1349,1349,1349,1349,1349,1349,1343,1343,1343,1338,1338,1333,1333,1333,1333,1333,1328,1328,1328,1328,1322,1322,1317,1317,1312,1312,1312,1312,1312,1312,1307,1307,1302,1302,1297,1297,1297,1292,1292,1292,1292,1288,1288,1288,1283,1283,1278,1278,1278,1278,1273,1273,1273,1273,1268,1268,1268,1268,1268,1259,1259,1259,1255,1255,1255,1255,1250,1250,1250,1245,1245,1245,1241,1236,1236,1236,1232,1232,1232,1232,1232,1232,1227,1227,1223,1223,1219,1219,1219,1219,1214,1214,1214,1214,1214,1214,1214,1214,1210,1210,1206,1206,1206,1202,1202,1197,1197,1197,1193,1193,1193,1189,1189,1189,1189,1189,1185,1185,1185,1185,1181,1181,1181,1181,1177,1177,1173,1173,1169,1169,1169,1169,1165,1165,1165,1165,1165,1161,1161,1161,1157,1157,1157,1153,1153,1153,1149,1149,1149,1149,1145,1145,1141,1141,1141,1141,1141,1141,1138,1138,1138,1138,1134,1134,1134,1130,1130,1130,1126,1123,1123,1123,1123,1123,1123,1119,1119,1119,1119,1119,1115,1112,1112,1112,1108,1108,1108,1108,1108,1108,1105,1105,1105,1105,1101,1101,1101,1097,1097,0,0,0,0,0,0,0,0,0,0,0,0,0,0,0,0,0,0,0,0,0,0,0,0,0,0,0,0,0
0,0,0,0,0,0,0,0,0,0,0,0,0,0,1543,1543,1536,1536,1536,1536,1536,1536,1536,1536,1536,1536,1536,1536,1536,1536,1536,1529,1529,1536,1536,1529,1529,1529,1529,1523,1523,1529,1529,1529,1523,1523,1523,1523,1516,1516,1523,1523,1523,1523,1523,1523,1516,1516,1523,1516,1516,1516,1516,1516,1516,1516,1516,1516,1516,1516,1516,1516,1516,1523,1523,1529,1529,1543,1543,1557,1564,1804,1804,1804,1794,1794,1794,1794,1794,1794,1785,1785,1776,1776,1776,1766,1757,1757,1757,1757,1757,1550,1543,1543,1543,1543,1543,1543,1543,1543,1543,1536,1536,1536,1536,1543,1543,1550,1557,1564,1564,1564,1564,1564,1572,1572,1572,1572,1579,1579,1579,1586,1594,1594,1594,1601,1601,1609,1609,1609,1609,1616,1624,1624,1632,1632,1632,1639,1639,1639,1647,1647,1655,1655,1655,1655,1663,1663,1663,1671,1671,1680,1680,1680,1680,1688,1688,1688,1688,1696,1696,1705,1705,1705,1713,1722,1722,1731,1731,1731,1731,1739,1739,1739,1739,1739,1748,1748,1757,1757,1757,1766,1766,1766,1766,1766,1785,1785,1785,1776,1776,1776,1766,1766,1766,1766,1766,1766,1766,0,0,1060,1060,1060,1057,1057,1057,1054,1050,1050,1050,1047,1047,1047,1047,1047,1047,1050,1050,1050,1057,1060,1060,1063,1063,1060,1060,1063,1063,1063,0,0,0,1671,1663,1663,1663,1655,1655,1655,1655,1655,1647,1647,1639,1639,1639,1639,1632,1632,1632,1632,1624,1624,1624,1624,1624,1624,1616,1616,1616,1609,1601,1601,1601,1601,1594,1594,1594,1586,1586,1579,1579,1572,1572,1572,1572,1572,1564,1564,1564,1564,1564,1564,1557,1557,1557,1557,1550,1550,1543,1543,1543,1543,1536,1536,1536,1536,1529,1523,1523,1523,1523,1516,1516,1516,1516,1516,1516,1523,1516,1516,1516,1516,1516,1509,1503,1503,1496,918,915,915,918,918,918,915,915,915,913,908,906,906,906,898,894,891,891,891,889,889,889,887,887,885,885,882,882,880,880,880,880,880,880,880,880,882,885,889,891,896,896,896,898,898,0,0,0,0,0,1398,1398,1404,1404,1398,1398,1398,1398,1398,1392,1392,1392,1392,1387,1387,1381,1376,1376,1376,1376,1370,1370,1370,1370,1365,1365,1365,1359,1359,1359,1354,1354,1354,1349,1349,1349,1349,1349,1349,1343,1343,1343,1343,1338,1338,1338,1333,1333,1333,1328,1328,1328,1328,1322,1322,1317,1317,1312,1312,1312,1312,1312,1312,1307,1307,1307,1302,1302,1302,1297,1292,1292,1292,1292,1292,1292,1288,1283,1283,1283,1283,1278,1278,1278,1273,1273,1273,1268,1268,1268,1268,1264,1259,1259,1259,1255,1255,1255,1250,1250,1250,1250,1245,1245,1245,1241,1236,1236,1236,1236,1236,1232,1232,1232,1232,1232,1227,1227,1227,1223,1223,1219,1219,1219,1219,1214,1214,1214,1214,1214,1214,1210,1210,1210,1206,1206,1202,1202,1197,1197,1197,1193,1193,1193,1189,1189,1189,1189,1189,1185,1185,1185,1185,1181,1181,1181,1181,1177,1177,1173,1173,1173,1169,1169,1169,1165,1165,1165,1165,1161,1161,1161,1161,1157,1157,1157,1153,1153,1153,1149,1149,1149,1149,1145,1145,1141,1141,1141,1141,1141,1141,1138,1138,1138,1138,1134,1134,1134,1130,1130,1130,1126,1123,1123,1123,1123,1123,1123,1119,1119,1119,1119,1119,1119,1115,1115,1112,1112,1112,1108,1108,1108,1108,1105,1105,1105,1105,1101,1101,1101,1097,1097,0,0,0,0,0,0,0,0,0,0,0,0,0,0,0,0,0,0,0,0,0,0,0,0,0,0,0,0,0
0,0,0,0,0,0,0,0,0,0,0,0,0,0,1543,1543,1543,1543,1543,1536,1536,1543,1543,1543,1536,1536,1536,1536,1536,1536,1536,1529,1529,1536,1529,1529,1529,1529,1523,1523,1523,1523,1523,1523,1523,1523,1529,1529,1523,1523,1523,1523,1523,1523,1523,1523,1516,1516,1523,1516,1516,1516,1516,1516,1516,1523,1516,1516,1516,1516,1516,1516,1523,1523,1529,1529,1536,1543,1543,1557,1564,1804,1804,1804,1794,1794,1794,1794,1794,1794,1785,1785,1785,1776,1776,1766,1766,1757,1757,1757,1757,1757,1543,1543,1543,1543,1543,1543,1543,1543,1543,1536,1536,1543,1543,1543,1550,1550,1564,1564,1564,1564,1564,1564,1572,1572,1572,1579,1579,1586,1586,1586,1594,1594,1594,1601,1601,1609,1609,1609,1616,1616,1624,1624,1632,1632,1632,1639,1639,1647,1647,1655,1655,1655,1655,1655,1663,1663,1663,1671,1671,1680,1680,1680,1680,1688,1688,1688,1688,1696,1696,1705,1705,1713,1713,1722,1722,1731,1731,1731,1731,1739,1739,1739,1739,1739,1748,1757,1757,1757,1757,1766,1766,1766,1766,1776,1785,1785,1785,1776,1776,1776,1766,1766,1766,1766,1766,1766,1766,0,0,1063,1063,1060,1060,1057,1057,1057,1054,1050,1050,1047,1047,1047,1047,1047,1047,1050,1050,1054,1057,1060,1063,1063,1063,1063,1063,1063,1063,1063,0,0,0,1671,1663,1663,1663,1663,1663,1655,1655,1655,1655,1647,1647,1647,1647,1639,1639,1632,1632,1632,1624,1624,1624,1624,1624,1624,1616,1616,1616,1609,1601,1601,1601,1601,1594,1594,1594,1594,1586,1586,1579,1572,1572,1572,1572,1572,1572,1564,1564,1564,1564,1564,1564,1557,1557,1557,1557,1550,1550,1543,1543,1543,1543,1536,1536,1536,1529,1523,1523,1523,1523,1516,1516,1516,1516,1516,1516,1516,1516,1516,1516,1516,1516,1509,1509,1503,1503,1503,918,918,918,918,920,918,918,915,913,913,0,913,0,894,891,891,891,891,889,889,889,887,887,885,885,882,882,880,880,880,880,880,880,880,882,882,887,889,891,896,896,896,898,898,0,0,0,0,1410,1404,1404,1404,1404,1398,1398,1398,1398,1398,1398,1392,1392,1392,1387,1387,1381,1381,1381,1376,1376,1376,1370,1370,1370,1365,1365,1365,1365,1365,1365,1359,1354,1354,1349,1349,1349,1349,1349,1349,1343,1343,1343,1343,1338,1338,1338,1333,1333,1333,1328,1328,1328,1328,1322,1322,1317,1317,1312,1312,1312,1312,1312,1312,1307,1307,1307,1302,1302,1302,1297,1297,1292,1292,1292,1292,1292,1288,1283,1283,1283,1283,1278,1278,1278,1273,1273,1273,1273,1268,1268,1268,1264,1259,1259,1259,1255,1255,1255,1250,1250,1250,1250,1250,1245,1245,1245,1241,1236,1236,1236,1236,1236,1236,1232,1232,1232,1232,1227,1227,1223,1223,1223,1219,1219,1219,1214,1214,1214,1214,1214,1214,1214,1210,1210,1206,1206,1202,1202,1202,1197,1197,1193,1193,1193,1189,1189,1189,1189,1189,1185,1185,1185,1185,1181,1181,1181,1181,1177,1177,1173,1173,1173,1169,1169,1169,1165,1165,1165,1165,1161,1161,1161,1161,1157,1157,1153,1153,1153,1153,1149,1149,1149,1149,1149,1145,1145,1145,1141,1141,1141,1141,1138,1138,1138,1138,1134,1134,1134,1134,1130,1130,1130,1126,1126,1123,1123,1123,1123,1119,1119,1119,1119,1119,1119,1115,1115,1112,1112,1112,1108,1108,1108,1108,1105,1105,1105,1105,1105,1101,1101,1101,1101,0,0,0,0,0,0,0,0,0,0,0,0,0,0,0,0,0,0,0,0,0,0,0,0,0,0,0,0,0
0,0,0,0,0,0,0,0,0,0,0,0,0,0,1543,1543,1543,1543,1543,1536,1536,1543,1543,1543,1536,1536,1536,1536,1536,1536,1536,1529,1529,1536,1529,1529,1529,1529,1523,1523,1523,1523,1523,1523,1523,1523,1529,1529,1523,1523,1529,1529,1523,1523,1523,1523,1523,1523,1523,1523,1523,1523,1523,1523,1523,1523,1523,1523,1523,1523,1523,1523,1529,1529,1529,1529,1536,1543,1543,1550,1564,1804,1804,1804,1804,1804,1794,1794,1794,1794,1794,1785,1785,1785,1776,1776,1766,1766,1757,1757,1766,1766,1766,1550,1550,1550,1543,1543,1543,1543,1543,1543,1543,1543,1543,1550,1550,1557,1564,1564,1564,1564,1564,1572,1572,1572,1579,1579,1579,1586,1586,1594,1594,1594,1601,1601,1609,1609,1616,1616,1616,1624,1624,1632,1632,1632,1632,1639,1639,1647,1647,1655,1655,1655,1655,1663,1663,1663,1663,1671,1671,1680,1680,1680,1688,1688,1688,1688,1696,1696,1696,1705,1705,1705,1713,1722,1722,1722,1731,1731,1731,1739,1739,1739,1748,1748,1757,1757,1757,1757,1766,1766,1766,1766,1766,1776,1785,1785,1785,1776,1776,1776,1766,1766,1766,1766,1766,1766,1766,1063,1063,1063,1063,1060,1060,1060,1057,1057,1054,1054,1050,1047,1047,1047,1047,1047,1050,1050,1050,1057,1060,1060,1063,1063,1063,1063,1063,1063,1063,1063,0,0,0,1671,1671,1671,1663,1663,1663,1663,1655,1655,1655,1647,1647,1647,1647,1639,1639,1639,1632,1632,1632,1624,1624,1624,1624,1624,1616,1616,1616,1609,1601,1601,1601,1601,1601,1594,1594,1594,1586,1586,1579,1579,1572,1572,1572,1572,1572,1572,1564,1564,1564,1564,1564,1557,1557,1557,1557,1550,1550,1543,1543,1543,1543,1543,1536,1536,1536,1536,1523,1523,1523,1516,1516,1516,1516,1516,1516,1516,1516,1516,1516,1516,1516,1509,1509,1509,1503,1503,1496,918,918,1489,923,923,923,1470,1470,1470,1470,0,898,894,894,894,891,891,891,889,889,889,887,887,885,885,882,880,880,880,880,880,880,880,882,885,887,891,894,896,896,898,898,0,0,0,0,0,1410,1410,1410,1410,1410,1404,1404,1404,1398,1398,1398,1392,1392,1392,1392,1387,1387,1381,1381,1376,1376,1376,1370,1370,1370,1365,1365,1365,1365,1365,1365,1359,1359,1354,1354,1354,1354,1349,1349,1349,1349,1343,1343,1343,1338,1338,1338,1333,1333,1333,1333,1328,1328,1328,1322,1322,1322,1317,1317,1317,1312,1312,1312,1312,1307,1307,1307,1302,1302,1302,1302,1297,1297,1297,1297,1292,1292,1288,1283,1283,1283,1283,1283,1283,1278,1278,1273,1273,1273,1268,1268,1268,1268,1264,1264,1259,1259,1255,1255,1255,1255,1250,1250,1250,1250,1250,1245,1241,1241,1241,1241,1236,1236,1236,1232,1232,1232,1232,1232,1227,1223,1223,1223,1219,1219,1219,1219,1214,1214,1214,1214,1214,1214,1210,1210,1206,1206,1202,1202,1202,1202,1197,1197,1193,1193,1189,1189,1189,1189,1189,1185,1185,1185,1185,1185,1185,1181,1181,1177,1177,1173,1173,1173,1169,1169,1169,1165,1165,1165,1165,1165,1165,1165,1161,1157,1157,1153,1153,1153,1153,1149,1149,1149,1149,1149,1149,1145,1145,1145,1145,1141,1141,1138,1138,1138,1138,1134,1134,1134,1134,1130,1130,1130,1126,1126,1126,1123,1123,1123,1119,1119,1119,1119,1119,1119,1115,1115,1115,1112,1112,1108,1108,1108,1108,1105,1105,1105,1105,1105,1101,1101,1101,1101,0,0,0,0,0,0,0,0,0,0,0,0,0,0,0,0,0,0,0,0,0,0,0,0,0,0,0,0,0
0,0,0,0,0,0,0,0,0,0,0,0,0,0,1543,1543,1543,1543,1543,1543,1543,1543,1543,1543,1536,1536,1536,1536,1536,1536,1536,1536,1536,1536,1536,1529,1529,1529,1536,1529,1523,1523,1523,1523,1536,1536,1529,1529,1529,1529,1529,1529,1523,1523,1523,1529,1523,1523,1523,1523,1523,1523,1523,1523,1523,1523,1523,1523,1523,1529,1529,1529,1529,1529,1529,1536,1536,1543,1543,1550,1804,1804,1804,1804,1804,1804,1804,1804,1794,1794,1794,1794,1785,1785,1776,1776,1766,1766,1766,1766,1766,1766,1766,1766,1557,1557,1550,1543,1543,1543,1543,1543,1543,1543,1543,1550,1550,1564,1564,1564,1564,1564,1564,1572,1572,1579,1579,1586,1586,1586,1586,1594,1594,1594,1601,1601,1609,1616,1616,1616,1616,1624,1624,1632,1632,1632,1632,1639,1639,1647,1647,1647,1655,1655,1655,1663,1663,1663,1663,1671,1671,1680,1680,1680,1688,1688,1688,1688,1696,1696,1705,1705,1705,1705,1713,1722,1722,1722,1731,1731,1731,1739,1739,1739,1748,1748,1757,1757,1757,1757,1766,1766,1766,1766,1766,1776,1785,1785,1785,1785,1785,1776,1776,1766,1766,1766,1766,1794,1794,0,1063,1060,1060,1060,1060,1060,1057,1057,1054,1054,1050,1050,1047,1047,1047,1047,1050,1050,1050,1057,1060,1060,1063,1063,1063,1063,1063,1063,1063,1063,0,0,0,1671,1671,1671,1671,1663,1663,1663,1663,1655,1655,1655,1655,1647,1647,1647,1639,1639,1632,1632,1632,1624,1624,1624,1624,1624,1616,1616,1616,1609,1609,1601,1601,1601,1601,1594,1594,1594,1586,1586,1586,1579,1579,1579,1572,1572,1572,1572,1564,1564,1564,1564,1564,1557,1557,1557,1557,1550,1550,1543,1543,1543,1543,1543,1536,1536,1536,1536,1529,1523,1523,1523,1516,1516,1516,1516,1516,1516,1516,1516,1516,1516,1516,1509,1509,1509,1503,1503,1496,1496,1496,1496,1489,1483,1483,1489,0,0,0,0,0,898,894,894,891,891,891,889,889,889,887,887,885,885,882,880,880,880,880,880,880,880,882,885,889,894,896,896,898,898,898,0,0,0,0,1415,1415,1415,1415,1410,1410,1410,1404,1404,1398,1398,1398,1398,1398,1392,1392,1392,1387,1381,1381,1381,1376,1376,1376,1370,1370,1370,1370,1365,1365,1365,1365,1365,1359,1354,1354,1354,1354,1354,1349,1349,1349,1343,1343,1343,1338,1338,1338,1333,1333,1333,1333,1328,1328,1328,1322,1322,1322,1317,1317,1317,1312,1312,1312,1312,1312,1312,1307,1307,1302,1302,1302,1302,1297,1297,1297,1292,1288,1288,1288,1288,1288,1283,1283,1283,1283,1278,1278,1273,1273,1268,1268,1268,1268,1264,1264,1259,1259,1255,1255,1255,1255,1250,1250,1250,1250,1250,1245,1245,1241,1241,1241,1236,1236,1236,1236,1236,1236,1232,1232,1227,1227,1223,1223,1223,1219,1219,1219,1214,1214,1214,1214,1214,1214,1214,1210,1210,1210,1206,1202,1202,1202,1197,1197,1197,1197,1193,1193,1193,1193,1189,1189,1185,1185,1185,1185,1185,1185,1181,1177,1177,1177,1177,1173,1169,1169,1169,1165,1165,1165,1165,1165,1165,1161,1161,1157,1157,1153,1153,1153,1153,1153,1153,1149,1149,1149,1149,1145,1145,1145,1145,1145,1141,1141,1138,1138,1138,1134,1134,1134,1134,1130,1130,1130,1126,1126,1126,1123,1123,1123,1119,1119,1119,1119,1119,1119,1115,1115,1115,1115,1112,1112,1108,1108,1108,1108,1105,1105,1105,1105,1101,1101,1101,1101,0,0,0,0,0,0,0,0,0,0,0,0,0,0,0,0,0,0,0,0,0,0,0,0,0,0,0,0,0
0,0,0,0,0,0,0,0,0,0,0,0,0,0,1543,1543,1543,1543,1543,1543,1543,1543,1543,1543,1536,1536,1536,1536,1536,1536,1536,1536,1536,1536,1536,1529,1529,1536,1536,1536,1529,1529,1536,1536,1536,1536,1529,1529,1529,1529,1529,1529,1529,1523,1523,1529,1523,1523,1523,1523,1523,1523,1523,1523,1523,1523,1523,1523,1523,1529,1529,1529,1536,1536,1536,1543,1543,1543,1543,1550,1804,1804,1804,1804,1813,1813,1804,1804,1804,1804,1794,1794,1794,1785,1785,1776,1766,1766,1766,1766,1766,1766,1766,1766,1564,1557,1557,1550,1550,1543,1543,1543,1543,1543,1550,1550,1557,1564,1564,1564,1564,1564,1572,1572,1572,1579,1579,1594,1594,1594,1594,1594,1594,1594,1601,1601,1609,1616,1616,1616,1616,1624,1632,1632,1632,1632,1632,1639,1639,1647,1647,1647,1655,1655,1655,1655,1663,1663,1663,1671,1671,1680,1680,1680,1688,1688,1688,1688,1696,1696,1705,1705,1705,1705,1713,1722,1722,1722,1731,1731,1731,1739,1739,1739,1748,1748,1757,1757,1757,1766,1766,1766,1766,1766,1766,1785,1785,1785,1785,1785,1785,1776,1776,1766,1766,1766,1766,1785,1785,1060,1060,1060,1060,1063,1060,1060,1060,1057,1054,1054,1050,1050,1047,1047,1047,1047,1050,1050,1050,1057,1060,1060,1063,1063,1067,1067,1067,1067,1067,1067,0,0,0,1671,1671,1671,1671,1663,1663,1663,1663,1655,1655,1655,1655,1655,1647,1647,1639,1639,1632,1632,1632,1624,1624,1624,1624,1624,1616,1616,1616,1609,1601,1601,1601,1601,1601,1594,1594,1594,1594,1594,1586,1586,1579,1579,1579,1579,1572,1572,1572,1572,1572,1564,1564,1564,1564,1564,1557,1550,1550,1550,1550,1550,1543,1543,1536,1536,1536,1536,1529,1523,1523,1523,1516,1516,1516,1516,1516,1516,1516,1516,1516,1516,1516,1509,1509,1509,1503,1503,1496,1496,1496,1496,1489,1489,1489,1489,0,0,0,0,0,898,896,894,894,891,891,889,889,887,887,885,885,885,882,880,880,880,880,880,882,882,885,887,889,894,896,896,898,898,0,0,0,0,0,1415,1415,1415,1415,1410,1410,1410,1404,1404,1404,1398,1398,1398,1398,1392,1392,1392,1392,1392,1387,1381,1381,1376,1376,1376,1370,1370,1370,1370,1365,1365,1365,1365,1359,1354,1354,1354,1354,1354,1349,1349,1349,1343,1343,1343,1343,1338,1338,1338,1333,1333,1333,1328,1328,1328,1328,1322,1322,1322,1317,1317,1317,1312,1312,1312,1312,1312,1307,1307,1307,1307,1307,1302,1302,1302,1302,1292,1288,1288,1288,1288,1288,1288,1283,1283,1283,1278,1278,1273,1273,1268,1268,1268,1268,1264,1264,1264,1259,1259,1255,1255,1255,1250,1250,1250,1250,1250,1250,1250,1245,1245,1241,1241,1236,1236,1236,1236,1236,1232,1232,1232,1227,1227,1227,1223,1223,1219,1219,1214,1214,1214,1214,1214,1214,1210,1210,1210,1210,1206,1202,1202,1202,1197,1197,1197,1197,1193,1193,1193,1193,1189,1189,1185,1185,1185,1185,1185,1185,1181,1177,1177,1177,1177,1177,1173,1169,1169,1169,1165,1165,1165,1165,1165,1161,1161,1157,1157,1157,1153,1153,1153,1153,1153,1153,1149,1149,1149,1149,1149,1145,1145,1145,1145,1141,1138,1138,1138,1138,1134,1134,1134,1134,1134,1130,1130,1126,1126,1126,1123,1123,1119,1119,1119,1119,1119,1119,1119,1115,1115,1115,1112,1112,1108,1108,1108,1108,1108,1105,1105,1105,1105,1101,1101,1101,0,0,0,0,0,0,0,0,0,0,0,0,0,0,0,0,0,0,0,0,0,0,0,0,0,0,0,0,0
0,0,0,0,0,0,0,0,0,0,0,0,0,0,1543,1543,1543,1543,1543,1543,1543,1543,1543,1543,1536,1536,1536,1536,1536,1536,1536,1536,1536,1536,1536,1529,1529,1536,1529,1529,1529,1529,1536,1536,1536,1536,1529,1529,1529,1529,1529,1529,1529,1523,1523,1523,1523,1523,1523,1523,1523,1523,1523,1529,1529,1523,1523,1523,1523,1529,1536,1536,1536,1536,1536,1543,1543,1543,1543,1804,1804,1804,1794,1794,1804,1804,1804,1804,1804,1804,1794,1794,1794,1794,1785,1785,1776,1766,1766,1766,1766,1766,1766,1766,1564,1550,1550,1550,1550,1543,1543,1543,1543,1543,1550,1550,1557,1564,1564,1564,1564,1564,1572,1572,1572,1579,1586,1594,1594,1594,1594,1594,1594,1594,1594,1601,1609,1616,1616,1624,1624,1632,1632,1632,1632,1632,1639,1647,1647,1647,1647,1647,1647,1655,1655,1655,1655,1663,1663,1671,1671,1671,1680,1680,1680,1688,1688,1688,1696,1696,1696,1705,1705,1705,1713,1722,1722,1722,1731,1731,1731,1739,1739,1739,1748,1748,1757,1757,1757,1766,1766,1766,1766,1776,1776,1785,1785,1785,1785,1776,1776,1776,1776,1766,1766,1766,1766,1785,1785,1060,1060,1060,1063,1063,1060,1060,1060,1057,1057,1057,1054,1050,1047,1047,1047,1050,1050,1050,1050,1057,1060,1060,1063,1063,1067,1067,1067,1067,1067,1067,0,0,0,1671,1671,1671,1671,1663,1663,1663,1663,1655,1655,1655,1655,1655,1647,1647,1639,1639,1632,1632,1632,1632,1624,1624,1624,1624,1616,1616,1616,1609,1601,1601,1601,1601,1601,1594,1594,1594,1594,1594,1586,1586,1579,1579,1579,1579,1572,1572,1572,1572,1572,1572,1564,1564,1564,1564,1557,1557,1550,1550,1550,1550,1543,1543,1543,1536,1536,1536,1529,1529,1523,1523,1523,1516,1516,1516,1516,1523,1516,1516,1516,1516,1516,1509,1509,1509,1503,1503,1496,1496,1496,1496,1489,1489,1483,1483,0,0,0,0,0,898,896,894,894,891,889,889,889,887,887,885,885,885,882,882,880,880,880,882,882,882,885,889,891,894,896,898,898,898,0,0,0,0,0,1415,1415,1415,1415,1415,1410,1410,1410,1404,1404,1398,1398,1398,1398,1392,1392,1392,1392,1392,1387,1387,1381,1376,1376,1376,1370,1370,1370,1370,1370,1370,1365,1365,1365,1359,1354,1354,1354,1354,1349,1349,1349,1343,1343,1343,1343,1343,1338,1338,1333,1333,1333,1328,1328,1328,1328,1322,1322,1322,1317,1317,1317,1317,1312,1312,1312,1312,1307,1307,1307,1307,1307,1302,1302,1302,1302,1297,1292,1288,1288,1288,1288,1288,1283,1283,1283,1283,1278,1273,1273,1273,1268,1268,1268,1264,1264,1264,1264,1259,1259,1255,1255,1255,1255,1250,1250,1250,1250,1250,1245,1245,1241,1241,1241,1236,1236,1236,1236,1232,1232,1232,1232,1227,1227,1223,1223,1219,1219,1214,1214,1214,1214,1214,1214,1210,1210,1210,1210,1206,1206,1202,1202,1197,1197,1197,1197,1193,1193,1193,1193,1193,1189,1189,1185,1185,1185,1185,1185,1181,1177,1177,1177,1177,1173,1173,1169,1169,1169,1169,1165,1165,1165,1165,1161,1161,1157,1157,1157,1157,1153,1153,1153,1153,1153,1153,1149,1149,1149,1149,1149,1145,1145,1145,1141,1138,1138,1138,1138,1134,1134,1134,1134,1134,1134,1130,1130,1130,1126,1126,1123,1123,1119,1119,1119,1119,1119,1119,1115,1115,1115,1112,1112,1108,1108,1108,1108,1108,1105,1105,1105,1105,1101,1101,1101,0,0,0,0,0,0,0,0,0,0,0,0,0,0,0,0,0,0,0,0,0,0,0,0,0,0,0,0,0
0,0,0,0,0,0,0,0,0,0,0,0,0,0,1550,1550,1550,1543,1543,1543,1543,1543,1543,1543,1543,1543,1543,1543,1543,1536,1536,1536,1536,1536,1536,1536,1536,1536,1529,1529,1529,1529,1536,1536,1536,1536,1536,1536,1529,1529,1529,1529,1529,1529,1523,1523,1523,1523,1523,1523,1529,1529,1529,1529,1529,1529,1529,1529,1529,1529,1536,1536,1536,1536,1543,1543,1543,1543,1543,1557,1823,1823,1794,1794,1804,1804,1804,1804,1804,1804,1794,1794,1794,1794,1785,1785,1776,1776,1776,1776,1766,1766,1766,1766,1766,1550,1550,1550,1550,1543,1543,1543,1543,1543,1550,1550,1557,1564,1564,1564,1572,1572,1572,1572,1579,1579,1586,1594,1594,1594,1594,1594,1594,1594,1594,1601,1609,1616,1616,1624,1624,1624,1624,1632,1632,1639,1639,1647,1647,1647,1647,1647,1647,1655,1655,1655,1655,1663,1663,1671,1671,1671,1680,1680,1680,1688,1688,1696,1696,1696,1696,1705,1705,1705,1713,1722,1722,1722,1731,1731,1731,1739,1748,1748,1748,1757,1757,1757,1757,1766,1766,1766,1766,1776,1785,1785,1785,1785,1785,1776,1776,1776,1766,1766,1766,1766,1766,1785,1785,1060,1060,1060,1063,1063,1060,1060,1060,1060,1057,1057,1054,1050,1050,1050,1050,1050,1050,1050,1054,1057,1060,1060,1063,1067,1067,1070,1070,1070,1070,0,0,0,1671,1671,1671,1671,1671,1663,1663,1663,1663,1663,1655,1655,1655,1655,1655,1647,1647,1639,1632,1632,1632,1632,1624,1624,1624,1624,1616,1616,1616,1609,1609,1609,1601,1601,1601,1601,1601,1594,1594,1594,1594,1586,1586,1586,1586,1579,1572,1572,1572,1572,1572,1572,1564,1564,1564,1564,1557,1557,1550,1550,1550,1550,1543,1543,1543,1536,1536,1536,1536,1529,1529,1523,1523,1516,1516,1516,1516,1523,1516,1516,1516,1516,1516,1516,1509,1509,1503,1503,1496,1496,1496,1496,1489,1489,1483,1483,0,0,0,0,898,898,896,896,894,891,889,889,889,887,887,887,885,885,882,882,882,882,882,882,885,885,887,889,891,896,896,898,898,898,0,0,0,0,0,1415,1415,1415,1415,1415,1410,1410,1410,1404,1404,1398,1398,1398,1398,1392,1392,1392,1392,1392,1392,1392,1387,1381,1381,1376,1376,1370,1370,1370,1370,1370,1365,1365,1365,1365,1359,1354,1354,1354,1354,1349,1349,1349,1343,1343,1343,1343,1338,1338,1333,1333,1333,1328,1328,1328,1328,1322,1322,1322,1317,1317,1317,1312,1312,1312,1312,1312,1307,1307,1307,1307,1307,1302,1302,1302,1302,1292,1292,1292,1288,1288,1288,1288,1288,1288,1283,1283,1278,1278,1273,1273,1273,1268,1268,1268,1268,1264,1264,1259,1259,1255,1255,1255,1255,1255,1250,1250,1250,1250,1250,1250,1245,1245,1241,1241,1236,1236,1236,1236,1232,1232,1232,1227,1227,1227,1227,1219,1219,1219,1219,1214,1214,1214,1214,1214,1214,1210,1210,1210,1206,1202,1202,1202,1197,1197,1197,1193,1193,1193,1193,1193,1189,1189,1185,1185,1185,1185,1181,1181,1181,1181,1181,1177,1173,1173,1173,1169,1169,1169,1169,1169,1165,1165,1165,1165,1161,1161,1157,1157,1153,1153,1153,1153,1153,1153,1149,1149,1149,1149,1149,1145,1145,1145,1141,1141,1138,1138,1138,1138,1134,1134,1134,1134,1134,1134,1130,1130,1126,1126,1123,1123,1123,1119,1119,1119,1119,1119,1115,1115,1115,1115,1112,1112,1112,1108,1108,1108,1108,1105,1105,1105,1101,1101,1101,0,0,0,0,0,0,0,0,0,0,0,0,0,0,0,0,0,0,0,0,0,0,0,0,0,0,0,0,0
0,0,0,0,0,0,0,0,0,0,0,0,0,0,1550,1550,1550,1543,1543,1543,1543,1543,1543,1543,1543,1543,1543,1543,1543,1543,1536,1536,1536,1536,1536,1536,1536,1536,1536,1536,1536,1536,1536,1536,1536,1536,1536,1536,1536,1536,1529,1529,1529,1529,1529,1529,1529,1529,1529,1529,1529,1529,1536,1536,1536,1529,1529,1529,1529,1536,1536,1536,1536,1543,1543,1543,1543,1550,1550,1557,1813,1813,1804,1804,1804,1804,1804,1804,1804,1804,1804,1794,1794,1794,1785,1785,1785,1785,1776,1776,1766,1766,1776,1776,1766,1557,1550,1550,1550,1543,1543,1543,1543,1543,1550,1550,1557,1557,1564,1564,1572,1572,1572,1579,1579,1579,1586,1594,1594,1594,1594,1594,1594,1594,1601,1601,1601,1609,1616,1624,1624,1624,1624,1632,1639,1639,1639,1647,1647,1647,1647,1647,1647,1655,1655,1655,1663,1663,1663,1671,1671,1671,1680,1680,1680,1688,1688,1696,1696,1696,1705,1705,1705,1705,1713,1722,1722,1722,1731,1731,1739,1739,1748,1748,1748,1757,1757,1757,1757,1766,1766,1766,1776,1776,1785,1785,1785,1785,1785,1785,1776,1776,1766,1766,1766,1757,1757,1757,1757,1060,1060,1060,1063,1063,1060,1060,1060,1060,1057,1057,1054,1050,1050,1050,1050,1050,1050,1050,1054,1057,1060,1063,1063,1067,1067,1070,1070,1070,1070,0,0,0,0,1671,1671,1671,1671,1663,1663,1663,1663,1663,1663,1655,1655,1655,1655,1647,1647,1639,1639,1632,1632,1632,1624,1624,1624,1624,1616,1616,1616,1616,1609,1609,1601,1601,1609,1601,1601,1601,1594,1594,1594,1594,1586,1586,1586,1579,1579,1572,1572,1572,1572,1572,1564,1564,1564,1564,1564,1557,1550,1550,1550,1550,1543,1543,1543,1543,1543,1536,1536,1536,1529,1529,1523,1523,1516,1516,1516,1523,1523,1516,1516,1516,1516,1516,1509,1509,1503,1503,1503,1503,1496,1496,1496,1489,1489,0,0,0,0,0,898,896,896,896,891,891,889,889,889,887,887,887,885,885,882,882,882,882,882,882,885,885,887,889,891,894,896,898,898,898,0,0,0,0,0,1415,1415,1415,1415,1415,1415,1410,1410,1404,1404,1398,1398,1398,1398,1398,1392,1392,1392,1392,1392,1392,1387,1381,1381,1381,1376,1370,1370,1370,1370,1370,1365,1365,1365,1359,1359,1354,1354,1354,1354,1349,1349,1349,1349,1349,1343,1343,1343,1338,1338,1333,1333,1328,1328,1328,1328,1322,1322,1322,1322,1317,1317,1312,1312,1312,1312,1312,1307,1307,1307,1307,1307,1302,1302,1302,1302,1292,1292,1292,1292,1288,1288,1288,1288,1288,1288,1283,1278,1278,1278,1273,1273,1273,1273,1268,1268,1268,1264,1259,1259,1255,1255,1255,1255,1255,1250,1250,1250,1250,1250,1250,1245,1245,1241,1241,1236,1236,1236,1236,1232,1232,1232,1232,1232,1227,1227,1223,1223,1219,1219,1214,1214,1214,1214,1214,1214,1214,1210,1210,1206,1202,1202,1202,1202,1197,1197,1197,1197,1197,1197,1193,1193,1189,1189,1185,1185,1185,1181,1181,1181,1181,1181,1177,1177,1173,1173,1173,1173,1169,1169,1169,1169,1165,1165,1165,1161,1161,1157,1157,1153,1153,1153,1153,1153,1153,1149,1149,1149,1149,1149,1149,1145,1145,1141,1141,1138,1138,1138,1138,1138,1138,1134,1134,1134,1134,1134,1130,1130,1126,1126,1123,1123,1123,1119,1119,1119,1119,1115,1115,1115,1115,1112,1112,1112,1108,1108,1108,1108,1105,1105,1105,1105,1101,1101,0,0,0,0,0,0,0,0,0,0,0,0,0,0,0,0,0,0,0,0,0,0,0,0,0,0,0,0,0
0,0,0,0,0,0,0,0,0,0,0,0,0,0,1557,1557,1550,1543,1543,1543,1543,1543,1543,1543,1543,1543,1543,1543,1543,1543,1543,1536,1536,1536,1536,1536,1536,1536,1536,1536,1536,1536,1536,1536,1536,1536,1536,1529,1529,1529,1529,1529,1529,1529,1529,1529,1529,1529,1529,1529,1529,1529,1536,1536,1536,1529,1529,1536,1536,1536,1536,1536,1536,1543,1543,1543,1550,1550,1550,1550,1813,1813,1804,1804,1804,1804,1804,1804,1804,1804,1804,1794,1794,1794,1794,1794,1785,1785,1785,1776,1776,1776,1776,1776,1776,1557,1557,1550,1550,1543,1543,1543,1543,1543,1550,1550,1557,1557,1564,1564,1572,1572,1572,1579,1579,1579,1586,1594,1594,1594,1594,1594,1594,1601,1601,1601,1601,1609,1616,1624,1624,1624,1624,1639,1639,1639,1639,1647,1647,1647,1647,1647,1647,1655,1655,1655,1663,1663,1671,1671,1671,1680,1680,1680,1688,1688,1688,1696,1696,1696,1705,1705,1705,1705,1713,1722,1722,1722,1731,1731,1739,1739,1739,1748,1748,1757,1757,1757,1757,1766,1766,1766,1776,1776,1785,1785,1785,1785,1785,1785,1785,1776,1766,1766,1766,1757,1757,1757,1757,1060,1060,1060,1063,1063,1060,1060,1060,1060,1057,1057,1054,1054,1050,1050,1050,1054,1054,1054,1057,1057,1060,1063,1063,1067,1070,1070,1070,1070,1070,1070,0,0,0,1671,1671,1671,1671,1663,1663,1663,1663,1663,1663,1655,1655,1655,1655,1647,1647,1639,1639,1632,1632,1632,1632,1624,1624,1624,1616,1616,1616,1616,1609,1609,1601,1601,1609,1601,1601,1601,1594,1594,1594,1594,1594,1594,1586,1586,1579,1572,1572,1572,1572,1572,1572,1564,1564,1564,1564,1557,1550,1550,1550,1550,1543,1543,1543,1543,1543,1536,1536,1536,1529,1529,1523,1523,1516,1516,1516,1523,1523,1516,1516,1516,1516,1509,1509,1509,1503,1503,1503,1503,1503,1503,1496,1489,1489,0,0,0,0,0,0,896,896,896,891,891,889,889,889,887,887,887,887,885,885,882,882,882,885,885,885,887,887,889,891,894,896,898,901,901,0,0,0,0,0,1415,1415,1415,1415,1415,1410,1410,1410,1404,1404,1404,1398,1398,1398,1398,1392,1392,1392,1392,1392,1392,1387,1381,1381,1381,1376,1376,1376,1376,1370,1370,1370,1365,1365,1359,1359,1354,1354,1354,1354,1349,1349,1349,1349,1349,1343,1343,1343,1338,1338,1338,1333,1333,1328,1328,1328,1328,1328,1322,1322,1322,1317,1312,1312,1312,1312,1312,1312,1312,1307,1307,1307,1302,1302,1302,1302,1292,1292,1292,1292,1288,1288,1288,1288,1288,1288,1283,1278,1278,1278,1278,1273,1273,1273,1268,1268,1268,1264,1264,1259,1255,1255,1255,1255,1255,1250,1250,1250,1250,1250,1250,1245,1245,1245,1241,1241,1236,1236,1236,1236,1232,1232,1232,1232,1227,1227,1223,1223,1219,1219,1219,1214,1214,1214,1214,1214,1214,1210,1210,1206,1206,1202,1202,1202,1197,1197,1197,1197,1197,1197,1193,1193,1193,1189,1185,1185,1185,1181,1181,1181,1181,1181,1177,1177,1177,1177,1173,1173,1173,1169,1169,1169,1165,1165,1165,1161,1161,1161,1157,1157,1157,1153,1153,1153,1153,1149,1149,1149,1149,1149,1149,1145,1145,1145,1141,1141,1138,1138,1138,1138,1138,1134,1134,1134,1134,1134,1134,1130,1130,1130,1123,1123,1123,1119,1119,1119,1119,1115,1115,1115,1115,1112,1112,1112,1108,1108,1108,1108,1105,1105,1105,1105,1105,1105,0,0,0,0,0,0,0,0,0,0,0,0,0,0,0,0,0,0,0,0,0,0,0,0,0,0,0,0,0
0,0,0,0,0,0,0,0,0,0,0,0,0,0,1557,1557,1557,1550,1550,1543,1543,1543,1543,1543,1543,1543,1543,1543,1543,1543,1543,1543,1536,1536,1536,1536,1536,1529,1529,1529,1529,1529,1529,1536,1536,1536,1536,1529,1529,1529,1529,1529,1529,1529,1529,1529,1529,1529,1529,1529,1529,1529,1536,1536,1536,1536,1536,1536,1536,1536,1536,1536,1536,1536,1543,1543,1550,1550,1550,1550,1543,1543,1833,1813,1813,1813,1813,1804,1804,1804,1804,1804,1794,1794,1794,1794,1794,1785,1785,1776,1776,1776,1776,1766,1766,1557,1557,1543,1543,1543,1543,1543,1543,1550,1550,1550,1550,1557,1557,1564,1572,1572,1579,1579,1579,1586,1586,1594,1594,1594,1594,1594,1601,1601,1601,1601,1601,1609,1616,1624,1624,1624,1624,1632,1639,1639,1639,1647,1647,1647,1647,1647,1647,1655,1655,1655,1663,1663,1671,1671,1671,1680,1680,1688,1688,1688,1688,1696,1696,1696,1705,1705,1705,1705,1713,1722,1722,1722,1731,1731,1739,1739,1739,1748,1748,1748,1757,1757,1757,1766,1766,1766,1776,1776,1785,1785,1794,1794,1794,1785,1785,1776,1776,1766,1766,1766,1757,1757,0,0,1060,1060,1063,1063,1060,1060,1060,1060,1060,1057,1057,1054,1054,1054,1054,1054,1054,1054,1057,1057,1060,1063,1063,1070,1070,1070,1070,1067,1067,0,0,0,1671,1671,1671,1671,1671,1663,1663,1663,1663,1663,1663,1655,1655,1655,1655,1647,1647,1639,1639,1639,1632,1632,1632,1632,1624,1624,1624,1616,1616,1616,1609,1609,1609,1609,1609,1601,1601,1601,1594,1594,1594,1594,1594,1594,1594,1586,1579,1579,1572,1572,1572,1572,1572,1572,1564,1564,1564,1557,1550,1550,1550,1550,1543,1543,1543,1543,1543,1543,1536,1536,1536,1536,1529,1523,1523,1516,1516,1523,1523,1523,1516,1516,1516,1509,1509,1509,1503,1503,1503,1503,1503,1503,1496,1496,0,0,0,0,0,0,0,0,896,896,894,891,891,891,889,889,887,887,887,887,885,885,885,885,885,885,887,887,887,889,891,896,898,901,901,903,0,0,0,0,0,1421,1421,1415,1415,1415,1410,1410,1410,1404,1404,1404,1398,1398,1398,1398,1398,1392,1392,1392,1392,1392,1387,1387,1381,1381,1376,1376,1376,1376,1370,1370,1370,1370,1370,1359,1359,1359,1354,1354,1354,1354,1349,1349,1349,1349,1343,1343,1343,1338,1338,1338,1333,1333,1333,1333,1328,1328,1328,1328,1322,1322,1317,1317,1312,1312,1312,1312,1312,1312,1307,1307,1307,1307,1307,1302,1302,1297,1292,1292,1292,1288,1288,1288,1288,1288,1288,1283,1283,1278,1278,1278,1273,1273,1273,1268,1268,1268,1264,1264,1259,1255,1255,1255,1255,1255,1250,1250,1250,1250,1250,1250,1245,1245,1245,1241,1241,1241,1241,1236,1236,1236,1232,1232,1232,1227,1227,1223,1223,1219,1219,1219,1219,1219,1214,1214,1214,1214,1210,1210,1206,1206,1202,1202,1202,1202,1197,1197,1197,1197,1197,1193,1193,1193,1189,1185,1185,1185,1181,1181,1181,1181,1181,1181,1181,1177,1177,1177,1173,1173,1173,1169,1169,1165,1165,1165,1165,1161,1161,1157,1157,1157,1157,1153,1153,1153,1153,1149,1149,1149,1149,1149,1145,1145,1145,1141,1141,1141,1141,1138,1138,1138,1134,1134,1134,1134,1134,1134,1134,1130,1130,1126,1123,1123,1123,1123,1119,1119,1119,1119,1119,1115,1115,1112,1112,1108,1108,1108,1108,1105,1105,1105,1105,1105,1105,0,0,0,0,0,0,0,0,0,0,0,0,0,0,0,0,0,0,0,0,0,0,0,0,0,0,0,0,0
0,0,0,0,0,0,0,0,0,0,0,0,0,0,1557,1557,1557,1550,1550,1543,1543,1543,1543,1543,1543,1543,1543,1543,1543,1543,1543,1543,1536,1536,1536,1536,1536,1529,1529,1529,1529,1529,1529,1536,1536,1536,1536,1536,1536,1529,1529,1529,1529,1529,1529,1529,1529,1529,1529,1529,1536,1536,1536,1536,1536,1536,1536,1536,1536,1536,1536,1536,1536,1536,1543,1543,1550,1550,1550,1550,1543,1543,1823,1823,1813,1813,1813,1813,1813,1804,1804,1804,1804,1794,1794,1794,1794,1794,1785,1785,1776,1776,1776,1766,1766,1564,1564,1543,1543,1543,1543,1543,1543,1550,1550,1550,1550,1557,1557,1564,1572,1572,1579,1579,1579,1586,1586,1594,1594,1594,1594,1601,1601,1601,1601,1601,1609,1609,1616,1624,1624,1624,1624,1632,1639,1647,1647,1647,1647,1647,1647,1647,1647,1655,1655,1655,1663,1663,1671,1671,1680,1680,1680,1688,1688,1688,1696,1696,1696,1705,1705,1705,1713,1713,1722,1722,1722,1731,1731,1731,1739,1739,1739,1748,1748,1748,1757,1757,1757,1766,1766,1766,1776,1776,1794,1794,1794,1794,1794,1785,1785,1776,1776,1766,1766,1766,1757,1757,0,0,1063,1063,1063,1063,1063,1060,1060,1060,1060,1060,1057,1057,1057,1054,1054,1054,1054,1057,1057,1060,1060,1063,1063,1070,1070,1070,1070,1067,1067,0,0,0,1663,1663,1663,1671,1671,1663,1663,1663,1663,1663,1663,1663,1655,1655,1655,1655,1647,1647,1639,1639,1639,1632,1632,1632,1632,1624,1624,1624,1624,1616,1616,1616,1609,1609,1609,1601,1601,1601,1601,1601,1594,1594,1594,1594,1594,1586,1579,1579,1572,1572,1572,1572,1572,1572,1564,1564,1564,1564,1557,1557,1550,1550,1550,1550,1543,1543,1543,1543,1536,1536,1536,1536,1529,1523,1523,1516,1516,1523,1523,1523,1516,1516,1516,1516,1509,1509,1503,1503,1503,1503,1503,1503,1496,1496,0,0,0,0,0,0,0,0,896,896,894,894,891,891,889,889,887,887,887,887,885,885,885,885,885,885,887,887,889,889,894,896,898,901,903,903,903,0,0,0,0,1421,1421,1415,1415,1415,1410,1410,1410,1404,1404,1404,1404,1398,1398,1398,1398,1398,1392,1392,1392,1392,1387,1387,1381,1381,1381,1376,1376,1376,1376,1370,1370,1370,1370,1365,1365,1359,1359,1354,1354,1354,1349,1349,1349,1349,1349,1343,1343,1343,1343,1338,1338,1333,1333,1333,1333,1328,1328,1328,1322,1322,1317,1317,1312,1312,1312,1312,1312,1312,1312,1307,1307,1307,1307,1302,1302,1297,1292,1292,1292,1292,1288,1288,1288,1288,1288,1288,1283,1283,1283,1278,1278,1278,1273,1273,1273,1268,1268,1268,1259,1255,1255,1255,1255,1255,1255,1255,1250,1250,1250,1250,1245,1245,1245,1241,1241,1241,1241,1236,1236,1236,1236,1232,1232,1227,1227,1227,1223,1219,1219,1219,1219,1219,1214,1214,1214,1214,1210,1210,1206,1206,1202,1202,1202,1202,1202,1197,1197,1197,1197,1197,1193,1193,1193,1189,1185,1185,1181,1181,1181,1181,1181,1181,1181,1181,1181,1177,1173,1173,1173,1169,1169,1165,1165,1165,1165,1161,1161,1161,1157,1157,1157,1153,1153,1153,1153,1149,1149,1149,1149,1149,1145,1145,1145,1145,1145,1141,1141,1138,1138,1138,1138,1138,1134,1134,1134,1134,1134,1134,1130,1130,1126,1126,1123,1123,1123,1119,1119,1119,1119,1119,1115,1115,1112,1108,1108,1108,1108,1105,1105,1105,1105,1105,1105,0,0,0,0,0,0,0,0,0,0,0,0,0,0,0,0,0,0,0,0,0,0,0,0,0,0,0,0,0
0,0,0,0,0,0,0,0,0,0,0,0,0,0,1557,1550,1550,1550,1550,1543,1543,1543,1543,1543,1543,1543,1543,1543,1543,1543,1543,1543,1543,1543,1543,1536,1536,1536,1536,1536,1536,1536,1536,1536,1536,1536,1536,1536,1536,1536,1529,1529,1529,1529,1529,1529,1529,1529,1529,1536,1536,1536,1536,1536,1543,1536,1536,1536,1536,1536,1536,1536,1536,1536,1543,1543,1550,1550,1557,1550,1543,1543,1843,1843,1823,1823,1823,1813,1813,1813,1813,1813,1804,1804,1804,1804,1794,1794,1794,1785,1776,1776,1776,1776,1776,1572,1572,1557,1557,1557,1550,1550,1550,1550,1550,1550,1557,1557,1557,1564,1572,1579,1579,1579,1579,1586,1586,1594,1594,1594,1594,1601,1601,1601,1601,1601,1609,1609,1616,1624,1624,1624,1632,1639,1639,1647,1647,1647,1647,1647,1647,1647,1655,1655,1655,1663,1663,1663,1671,1680,1680,1680,1680,1688,1688,1688,1696,1696,1696,1705,1705,1705,1713,1713,1722,1722,1722,1731,1731,1731,1739,1739,1739,1748,1748,1748,1757,1757,1757,1766,1766,1766,1776,1785,1794,1794,1794,1794,1794,1794,1785,1785,1776,1766,1766,1766,1766,0,0,0,0,0,1067,1063,1063,1063,1060,1060,1060,1060,1057,1057,1057,1057,1054,1054,1054,1057,1057,1060,1063,1063,1067,1070,1070,1070,1070,1070,0,0,0,0,1663,1663,1663,1671,1671,1663,1663,1663,1663,1663,1663,1663,1663,1655,1655,1655,1655,1647,1647,1639,1639,1639,1632,1632,1632,1624,1624,1624,1624,1624,1624,1616,1609,1609,1609,1601,1601,1601,1601,1601,1594,1594,1594,1594,1594,1594,1586,1579,1579,1579,1572,1572,1572,1572,1564,1564,1564,1564,1557,1557,1557,1557,1550,1550,1543,1543,1543,1543,1536,1536,1536,1536,1529,1523,1523,1516,1516,1523,1523,1523,1516,1516,1516,1516,1516,1509,1509,1509,1503,1503,1503,1503,1503,0,0,0,0,0,0,0,0,0,896,896,896,894,891,891,889,889,887,887,887,887,887,885,885,885,885,887,887,889,889,891,894,896,898,901,903,903,903,906,0,0,0,0,1421,1421,1415,1415,1415,1410,1410,1404,1404,1404,1404,1398,1398,1398,1398,1398,1398,1392,1392,1392,1387,1387,1381,1381,1381,1376,1376,1376,1376,1370,1370,1370,1370,1370,1365,1365,1359,1359,1359,1354,1354,1349,1349,1349,1349,1349,1343,1343,1343,1338,1338,1333,1333,1333,1333,1328,1328,1328,1322,1322,1317,1317,1312,1312,1312,1312,1312,1312,1312,1307,1307,1307,1307,1302,1302,1297,1292,1292,1292,1292,1288,1288,1288,1288,1288,1288,1283,1283,1283,1283,1278,1278,1273,1273,1273,1268,1268,1268,1264,1259,1259,1259,1255,1255,1255,1255,1255,1255,1250,1250,1245,1245,1245,1241,1241,1241,1241,1236,1236,1236,1236,1236,1232,1227,1227,1227,1223,1223,1219,1219,1219,1219,1219,1214,1214,1214,1214,1210,1206,1206,1202,1202,1202,1202,1202,1197,1197,1197,1197,1197,1193,1193,1193,1189,1189,1185,1181,1181,1181,1181,1181,1181,1181,1181,1181,1177,1177,1177,1173,1173,1169,1169,1165,1165,1165,1161,1161,1161,1161,1161,1157,1157,1157,1153,1153,1153,1153,1149,1149,1149,1149,1145,1145,1145,1145,1145,1141,1138,1138,1138,1138,1138,1134,1134,1134,1134,1134,1134,1130,1130,1126,1126,1123,1123,1123,1123,1119,1119,1119,1119,1115,1115,1112,1108,1108,1108,1108,1105,1105,1105,1105,1105,1105,0,0,0,0,0,0,0,0,0,0,0,0,0,0,0,0,0,0,0,0,0,0,0,0,0,0,0,0,0
0,0,0,0,0,0,0,0,0,0,0,0,0,0,1557,1550,1550,1543,1543,1543,1543,1543,1543,1543,1543,1543,1543,1543,1543,1543,1543,1543,1543,1543,1543,1543,1536,1536,1536,1536,1536,1536,1536,1536,1536,1536,1536,1536,1536,1536,1536,1536,1536,1529,1529,1529,1529,1529,1529,1536,1536,1536,1536,1536,1543,1543,1536,1536,1536,1536,1536,1536,1536,1536,1543,1543,1550,1550,1557,1557,1543,1529,1529,1853,1823,1823,1823,1823,1823,1823,1823,1823,1823,1813,1813,1813,1804,1804,1794,1785,1785,1776,1776,1776,1776,1572,1572,1564,1557,1557,1550,1550,1550,1550,1550,1557,1557,1557,1564,1564,1572,1579,1579,1579,1586,1586,1594,1594,1594,1594,1594,1601,1601,1601,1601,1609,1609,1609,1616,1624,1624,1624,1632,1639,1639,1647,1647,1647,1647,1647,1647,1647,1655,1655,1663,1663,1663,1663,1671,1680,1680,1688,1688,1688,1688,1696,1696,1696,1696,1705,1705,1705,1713,1722,1722,1722,1731,1731,1731,1731,1739,1739,1739,1748,1748,1748,1757,1757,1757,1766,1766,1766,1776,1785,1785,1794,1794,1794,1794,1794,1785,1785,1785,1766,1766,1766,1766,0,0,0,0,0,1067,1063,1063,1063,1060,1060,1060,1060,1057,1057,1057,1054,1054,1054,1054,1057,1060,1060,1063,1067,1067,1070,1070,1070,1070,1070,0,0,0,0,1663,1663,1671,1671,1671,1671,1671,1671,1663,1663,1663,1663,1663,1663,1655,1655,1655,1655,1647,1647,1639,1639,1632,1632,1632,1632,1624,1624,1624,1624,1624,1624,1609,1609,1609,1601,1601,1601,1601,1601,1594,1594,1594,1594,1594,1594,1586,1586,1579,1579,1572,1572,1572,1572,1564,1564,1564,1564,1564,1557,1557,1557,1557,1550,1550,1550,1543,1543,1543,1543,1536,1536,1529,1523,1523,1523,1523,1523,1523,1523,1523,1516,1516,1516,1516,1509,1509,1509,1509,1509,1509,1509,1509,0,0,0,0,0,0,0,0,0,898,898,896,896,894,891,891,889,889,887,887,887,887,885,885,885,887,887,887,889,889,894,896,898,901,903,906,906,906,906,0,0,0,0,0,1421,1415,1415,1415,1410,1410,1410,1410,1404,1404,1404,1398,1398,1398,1398,1398,1392,1392,1392,1387,1387,1381,1381,1381,1381,1376,1376,1376,1376,1370,1370,1370,1370,1370,1365,1365,1359,1359,1359,1354,1354,1354,1354,1349,1349,1343,1343,1343,1338,1338,1338,1333,1333,1333,1333,1328,1328,1328,1322,1317,1317,1317,1312,1312,1312,1312,1312,1312,1307,1307,1307,1307,1302,1302,1302,1297,1292,1292,1292,1292,1288,1288,1288,1288,1288,1283,1283,1283,1283,1278,1278,1273,1273,1273,1273,1268,1268,1264,1264,1259,1259,1255,1255,1255,1255,1255,1255,1250,1250,1250,1245,1245,1245,1245,1241,1241,1236,1236,1236,1236,1236,1232,1227,1227,1227,1227,1223,1223,1219,1219,1219,1219,1219,1214,1214,1214,1210,1210,1206,1206,1206,1202,1202,1202,1202,1197,1197,1197,1197,1197,1193,1193,1193,1189,1185,1185,1185,1181,1181,1181,1181,1181,1181,1181,1181,1177,1177,1177,1173,1169,1169,1169,1165,1165,1165,1161,1161,1161,1161,1157,1157,1157,1153,1153,1149,1149,1149,1149,1149,1149,1145,1145,1145,1145,1145,1141,1141,1138,1138,1138,1138,1138,1138,1134,1134,1134,1134,1134,1130,1126,1126,1123,1123,1123,1123,1123,1123,1119,1119,1119,1115,1112,1108,1108,1108,1108,1105,1105,1105,1105,1105,1105,0,0,0,0,0,0,0,0,0,0,0,0,0,0,0,0,0,0,0,0,0,0,0,0,0,0,0,0,0
0,0,0,0,0,0,0,0,0,0,0,0,0,0,1557,1550,1550,1543,1543,1543,1543,1543,1543,1543,1543,1543,1543,1543,1543,1543,1543,1543,1543,1543,1543,1543,1536,1536,1536,1536,1536,1536,1536,1536,1536,1536,1536,1536,1536,1536,1536,1536,1536,1536,1536,1536,1529,1529,1536,1536,1536,1536,1543,1543,1543,1543,1543,1543,1543,1536,1536,1536,1536,1536,1543,1543,1543,1550,1557,1557,1536,1529,1529,1823,1823,1823,1823,1823,1823,1823,1823,1823,1823,1813,1813,1804,1804,1794,1794,1785,1776,1776,1766,1766,1572,1572,1572,1564,1564,1557,1557,1557,1557,1550,1550,1557,1557,1564,1564,1572,1572,1579,1579,1579,1579,1586,1586,1594,1594,1594,1594,1601,1601,1601,1601,1609,1609,1609,1616,1624,1624,1624,1624,1639,1639,1639,1647,1647,1655,1655,1655,1655,1655,1663,1663,1663,1671,1680,1680,1680,1688,1688,1688,1688,1696,1696,1696,1696,1696,1705,1705,1713,1713,1722,1722,1722,1731,1731,1731,1731,1739,1739,1739,1748,1748,1748,1757,1757,1757,1766,1766,1766,1776,1785,1785,1794,1794,1794,1794,1794,1794,1785,1785,1776,1776,1785,0,0,0,0,0,0,1070,1063,1063,1063,1060,1060,1060,1060,1057,1057,1057,1054,1054,1054,1054,1057,1060,1060,1063,1067,1070,1070,1070,1073,1070,1070,1073,0,0,0,1671,1671,1680,1680,1680,1671,1671,1671,1671,1663,1663,1663,1663,1663,1663,1655,1655,1655,1655,1647,1639,1639,1632,1632,1632,1632,1632,1624,1624,1624,1624,1624,1609,1609,1609,1601,1601,1601,1601,1601,1601,1594,1594,1594,1594,1594,1586,1586,1579,1579,1572,1572,1572,1572,1564,1564,1564,1564,1564,1564,1557,1557,1557,1557,1550,1550,1543,1543,1543,1543,1536,1536,1529,1529,1529,1523,1523,1529,1529,1523,1523,1516,1516,1516,1516,1516,1509,1509,1509,1509,1509,1509,1509,1516,0,0,0,0,0,0,0,0,901,898,896,896,896,891,891,891,889,889,887,887,887,887,887,887,887,887,889,891,891,894,896,898,903,903,906,906,906,906,0,0,0,0,0,1421,1415,1415,1415,1410,1410,1410,1410,1410,1404,1404,1398,1398,1398,1398,1398,1392,1392,1392,1387,1387,1381,1381,1381,1381,1376,1376,1376,1376,1376,1370,1370,1370,1370,1365,1365,1365,1359,1359,1354,1354,1354,1354,1349,1349,1349,1343,1343,1343,1338,1338,1333,1333,1333,1333,1328,1328,1328,1322,1322,1322,1317,1317,1312,1312,1312,1312,1312,1307,1307,1307,1307,1302,1302,1302,1297,1292,1292,1292,1292,1288,1288,1288,1288,1288,1288,1283,1283,1283,1283,1278,1278,1273,1273,1273,1268,1268,1268,1264,1259,1259,1259,1255,1255,1255,1255,1255,1250,1250,1250,1245,1245,1245,1245,1241,1241,1236,1236,1236,1236,1236,1232,1227,1227,1232,1227,1227,1223,1223,1223,1223,1219,1219,1219,1214,1214,1210,1210,1210,1206,1206,1206,1202,1202,1202,1202,1197,1197,1197,1197,1197,1193,1193,1193,1189,1185,1185,1185,1185,1181,1181,1181,1181,1181,1181,1177,1177,1177,1173,1169,1169,1169,1169,1165,1165,1165,1161,1161,1161,1157,1157,1157,1153,1153,1149,1149,1149,1149,1149,1149,1145,1145,1145,1145,1145,1141,1141,1138,1138,1138,1138,1138,1138,1134,1134,1134,1134,1134,1130,1126,1126,1123,1123,1123,1123,1123,1123,1123,1119,1119,1119,1112,1112,1112,1108,1108,1105,1105,1105,1105,1105,1105,0,0,0,0,0,0,0,0,0,0,0,0,0,0,0,0,0,0,0,0,0,0,0,0,0,0,0,0,0
0,0,0,0,0,0,0,0,0,0,0,0,0,0,1550,1550,1550,1550,1550,1543,1543,1543,1543,1543,1543,1543,1543,1543,1543,1543,1543,1543,1543,1543,1543,1543,1543,1543,1543,1543,1543,1536,1536,1543,1543,1543,1536,1536,1536,1536,1536,1536,1536,1536,1536,1536,1536,1536,1536,1543,1543,1543,1543,1543,1543,1543,1543,1543,1543,1536,1536,1536,1536,1536,1543,1543,1543,1550,1550,1550,1536,1529,1523,1523,1823,1823,1823,1823,1823,1823,1813,1813,1813,1804,1804,1794,1794,1794,1785,1785,1776,1776,1766,1766,1572,1572,1572,1572,1564,1564,1557,1557,1557,1550,1550,1557,1557,1564,1564,1572,1572,1572,1572,1579,1579,1586,1586,1594,1594,1594,1594,1601,1601,1601,1601,1609,1609,1616,1624,1624,1624,1624,1624,1632,1639,1639,1647,1647,1655,1655,1655,1655,1663,1663,1663,1663,1671,1680,1680,1680,1688,1688,1688,1696,1696,1696,1696,1705,1705,1705,1705,1713,1713,1722,1722,1722,1731,1731,1739,1739,1739,1739,1748,1748,1748,1757,1757,1757,1766,1766,1766,1766,1776,1785,1785,1794,1794,1794,1794,1794,1794,1794,1794,1785,1785,1785,1794,0,0,0,0,0,0,1063,1063,1063,1063,1060,1060,1060,1057,1057,1057,1057,1057,1057,1057,1060,1060,1060,1063,1067,1070,1070,1070,1073,1073,1073,1073,0,0,0,1680,1680,1680,1680,1680,1680,1680,1680,1671,1663,1663,1663,1663,1663,1663,1655,1655,1655,1655,1647,1647,1647,1639,1632,1632,1632,1632,1632,1624,1624,1624,1616,1616,1609,1609,1601,1601,1601,1601,1601,1601,1601,1594,1594,1594,1594,1586,1586,1586,1579,1579,1579,1579,1572,1572,1572,1564,1564,1564,1564,1557,1557,1557,1557,1557,1550,1543,1543,1543,1543,1543,1536,1536,1529,1529,1529,1529,1536,1529,1529,1523,1523,1523,1516,1516,1516,1509,1509,1509,1509,1509,1509,1509,1516,1516,0,0,0,0,0,0,0,901,898,898,896,896,891,891,891,889,889,889,887,887,887,887,887,887,887,889,891,894,896,898,898,903,906,906,906,906,906,0,0,0,0,0,1421,1415,1415,1415,1415,1415,1410,1410,1410,1404,1404,1398,1398,1398,1398,1398,1398,1392,1392,1392,1387,1387,1387,1381,1381,1376,1376,1376,1376,1376,1370,1370,1370,1370,1370,1365,1365,1359,1359,1359,1354,1354,1354,1349,1349,1349,1343,1343,1343,1338,1338,1338,1333,1333,1333,1333,1328,1328,1322,1322,1322,1317,1317,1312,1312,1312,1312,1312,1307,1307,1307,1307,1307,1302,1302,1302,1297,1297,1292,1292,1292,1292,1288,1288,1288,1288,1288,1283,1283,1283,1278,1278,1273,1273,1273,1268,1268,1268,1264,1264,1259,1259,1259,1255,1255,1255,1255,1250,1250,1250,1250,1250,1245,1245,1250,1241,1241,1236,1236,1236,1236,1232,1232,1232,1232,1232,1227,1227,1227,1227,1223,1219,1219,1219,1219,1214,1214,1210,1210,1206,1206,1206,1202,1202,1202,1202,1197,1197,1197,1197,1197,1197,1193,1193,1189,1189,1185,1185,1185,1185,1181,1181,1181,1181,1181,1181,1177,1177,1173,1169,1169,1169,1169,1165,1165,1165,1161,1161,1161,1157,1157,1161,1157,1153,1153,1153,1149,1149,1149,1149,1145,1145,1145,1145,1145,1141,1141,1138,1138,1138,1138,1138,1138,1134,1134,1134,1134,1134,1130,1126,1126,1123,1123,1123,1123,1123,1123,1123,1119,1119,1115,1112,1112,1108,1108,1108,1105,1105,1105,1108,1105,1105,0,0,0,0,0,0,0,0,0,0,0,0,0,0,0,0,0,0,0,0,0,0,0,0,0,0,0,0,0
0,0,0,0,0,0,0,0,0,0,0,0,0,0,1550,1550,1550,1550,1550,1543,1543,1543,1543,1543,1543,1543,1543,1543,1543,1543,1543,1543,1543,1543,1543,1543,1543,1543,1543,1543,1543,1536,1536,1543,1543,1543,1543,1536,1536,1543,1536,1536,1536,1536,1536,1536,1536,1536,1536,1543,1543,1543,1543,1543,1550,1543,1543,1543,1543,1543,1536,1536,1536,1536,1536,1543,1543,1543,1550,1550,1550,1536,1523,1523,1853,1853,1833,1833,1823,1823,1804,1804,1804,1794,1794,1785,1785,1785,1785,1776,1776,1776,1766,1766,1757,1572,1572,1572,1564,1564,1557,1557,1557,1557,1557,1564,1564,1564,1572,1572,1572,1572,1572,1579,1579,1586,1586,1594,1594,1594,1594,1601,1601,1601,1601,1609,1616,1616,1624,1624,1624,1624,1632,1632,1639,1647,1647,1647,1655,1655,1655,1655,1655,1655,1663,1663,1671,1671,1680,1680,1688,1688,1688,1688,1696,1696,1696,1705,1705,1705,1705,1713,1713,1722,1722,1722,1731,1731,1739,1739,1739,1739,1748,1748,1748,1757,1757,1757,1766,1766,1766,1766,1776,1785,1785,1794,1794,1794,1794,1804,1794,1794,1794,1794,1794,1794,1794,0,0,0,0,0,0,1063,1063,1063,1063,1060,1060,1060,1057,1057,1057,1057,1057,1057,1057,1060,1060,1060,1063,1067,1070,1073,1073,1073,1073,1073,1073,0,0,0,0,1680,1680,1680,1680,1680,1680,1680,1680,1671,1671,1671,1663,1663,1663,1663,1655,1655,1655,1647,1647,1647,1639,1639,1639,1639,1632,1632,1632,1632,1624,1616,1616,1616,1609,1609,1609,1601,1601,1601,1601,1601,1594,1594,1594,1594,1594,1594,1594,1586,1579,1579,1579,1572,1572,1572,1564,1564,1564,1564,1557,1557,1557,1557,1557,1550,1550,1550,1543,1543,1543,1536,1536,1536,1536,1529,1529,1536,1536,1529,1523,1523,1523,1516,1516,1516,1509,1509,1509,1509,1509,1509,1509,1516,1516,0,0,0,0,0,0,901,901,898,898,896,896,896,894,891,889,889,889,887,887,887,887,887,887,887,889,891,894,896,898,901,903,906,906,908,908,908,0,0,0,0,1421,1421,1415,1415,1415,1415,1415,1410,1410,1410,1410,1404,1404,1404,1398,1398,1398,1398,1392,1392,1392,1387,1387,1387,1387,1381,1381,1376,1376,1376,1376,1376,1376,1370,1370,1370,1370,1370,1365,1359,1359,1354,1354,1354,1354,1349,1349,1343,1343,1343,1343,1338,1338,1338,1333,1333,1333,1333,1328,1328,1328,1322,1322,1317,1317,1317,1317,1312,1312,1307,1307,1307,1307,1307,1307,1302,1302,1302,1297,1297,1292,1292,1292,1288,1288,1288,1288,1288,1288,1283,1283,1278,1278,1278,1273,1273,1273,1273,1268,1264,1264,1264,1259,1259,1259,1255,1255,1255,1250,1250,1250,1250,1250,1245,1245,1245,1241,1241,1236,1236,1236,1236,1232,1232,1232,1232,1232,1232,1227,1227,1227,1227,1223,1219,1219,1219,1214,1214,1214,1214,1210,1210,1206,1206,1202,1202,1202,1197,1197,1197,1197,1197,1197,1197,1197,1189,1189,1185,1185,1185,1185,1181,1181,1181,1181,1181,1181,1177,1177,1173,1169,1169,1169,1169,1165,1165,1165,1165,1165,1161,1157,1157,1161,1157,1153,1153,1153,1149,1149,1149,1149,1149,1149,1145,1145,1145,1141,1141,1141,1141,1138,1138,1138,1138,1134,1134,1134,1134,1130,1130,1126,1126,1123,1123,1123,1123,1123,1123,1123,1119,1119,1115,1112,1112,1108,1108,1108,1108,1108,1108,1108,1108,1108,0,0,0,0,0,0,0,0,0,0,0,0,0,0,0,0,0,0,0,0,0,0,0,0,0,0,0,0,0
