0,0,0,0,873,869,869,867,867,867,867,869,871,873,873,873,873,875,875,878,878,878,878,880,882,882,882,882,882,0,0,0,0,0,0,1427,1427,1433,1427,1427,1427,1427,1427,1427,1427,1433,1433,1433,1433,1433,1433,1433,1427,1427,1427,1421,1421,1427,1427,1427,1427,1427,1427,1427,1421,1421,1421,1415,1415,1421,1421,1421,1421,1421,0,1410,1410,0,0,727,727,727,725,725,722,720,717,716,714,714,714,713,713,711,708,708,707,704,704,703,703,701,698,697,693,691,690,688,688,686,686,683,682,679,678,676,675,674,672,671,670,668,667,666,663,662,661,659,658,658,658,647,647,618,618,618,618,618,618,619,619,619,619,619,621,622,623,628,629,630,631,635,637,638,640,640,641,642,644,646,647,648,649,649,650,652,652,668,668,670,670,671,672,672,674,675,676,682,684,684,686,687,688,690,691,693,694,697,700,701,704,704,704,706,707,710,711,713,714,716,716,716,0,0,0,0,0,0,0,1223,1219,1219,1227,1227,1415,1415,1410,1410,1415,1415,1415,1415,1415,1415,1415,1415,1415,1415,1410,1410,1415,1415,1415,1415,1415,1415,1415,1415,1415,1415,1415,1415,1415,1410,1410,1410,1410,1410,1410,1410,1410,1410,1415,1410,1410,1410,1410,1410,1410,1410,1410,1410,1410,1410,1415,1415,1415,1415,1415,1415,1415,1415,1410,1410,1410,1410,1410,1410,1410,1410,1410,1410,1410,1410,1404,1404,1404,1404,1404,1404,1404,1404,1404,1410,0,0,0,0,0,1010,1010,1007,1007,1007,1004,1001,1001,1001,1001,1001,1001,1001,1001,1001,1001,1004,1007,1007,1010,1013,1013,1016,1019,1019,1421,1421,1421,1415,1415,1410,1404,1404,1404,1404,1398,1398,1404,1404,1404,1404,1404,1404,1404,1398,1398,1398,1398,1398,1398,1398,1398,1398,1398,1398,1398,1398,1398,1398,1398,1398,1398,1398,1398,1398,1398,1398,1398,1392,1392,1392,1392,1392,1392,1392,1392,1392,1392,1392,1392,1392,1392,1392,1392,1392,1392,1392,1398,1398,1398,1398,1398,1398,1398,1398,1398,1398,1398,1398,1392,1392,1392,1392,1392,1392,1392,1392,1392,1392,1392,1392,1392,1387,1387,1387,1381,1381,1387,1387,1387,1387,1387,1387,1387,1387,1387,1381,1381,1381,1381,1381,1381,1381,1381,1381,1381,1381,1381,1381,1381,1381,1381,1381,1381,1381,1387,1387,1387,1387,1387,1387,1387,1381,1381,1381,1381,1376,1376,1376,1376,1376,1376,1376,1376,1376,1376,1376,1376,1370,1370,1370,1370,1370,1370,1370,1370,1370,1365,1365,1365,1365,1359,1354,1354,1354,1349,1349,1349,1349,1349,1343,1343,1338,1338,1333,1333,1333,1333,1328,1328,1328,1328,1328,1322,1322,1322,1317,1317,1312,1312,1161,1157,1153,1149,1145,1141,1138,1134,1134,1130,1123,1123,1123,1119,1119,1115,1115,1112,1108,1105,1105,1101,1101,1101,1097,1097,1097,1105,1108,1108,1108,1108,1097,1094,1090,1087,1087,1084,1084,1080,1077,1070,1067,1067,1063,1063,1063,928,928,928,928,928,928,928,928,928,928,928,928,928,928,928,928,928,928,928,928,928,928,928,928,928,930,930,930,933,933,935,935,935,933,933,975,975,973,973,970,970,967,967,964,964,962,959,956,956,0,0,0,0,0,0,0,0,0,0,0,0,0,0,0,0,0,0,0,0,0,0,0,0,0,0,0,0,0,0,0,0,0,0,0
0,0,0,873,873,869,869,867,867,869,869,871,873,873,875,875,875,875,878,878,878,878,878,880,882,885,885,885,885,0,0,0,0,0,0,1427,1427,1427,1427,1427,1427,1427,1427,1427,1427,1427,1427,1427,1427,1427,1427,1427,1427,1421,1421,1421,1415,1415,1421,1421,1421,1427,1427,1427,1421,1421,1421,1415,1415,1415,1415,1415,1415,1410,1410,1410,1410,1410,1410,727,727,727,727,0,0,720,717,716,714,714,714,713,713,711,710,708,707,706,704,704,703,703,700,697,694,693,691,691,690,688,687,686,684,682,678,676,676,675,674,672,671,670,668,667,663,662,661,659,658,658,648,648,646,643,643,642,642,618,618,619,619,619,621,621,623,628,631,631,631,632,634,635,637,638,640,640,641,643,644,646,647,648,649,649,650,652,652,670,670,670,670,671,672,674,674,675,678,682,684,686,687,687,690,690,691,693,694,697,700,700,703,704,704,704,706,707,710,711,714,716,716,0,0,0,0,0,1219,1219,1219,1223,1223,1223,1227,1227,1415,1415,1410,1410,1410,1410,1410,1410,1410,1410,1410,1410,1410,1410,1410,1410,1410,1410,1410,1410,1415,1415,1415,1410,1410,1415,1410,1410,1410,1410,1410,1410,1410,1410,1410,1410,1410,1410,1410,1410,1404,1404,1404,1404,1404,1404,1404,1404,1404,1404,1404,1404,1410,1410,1410,1410,1410,1404,1404,1404,1404,1404,1404,1404,1404,1404,1404,1404,1404,1404,1398,1398,1398,1398,1398,1398,1398,1398,1398,1404,1404,0,0,0,0,0,1010,1010,1010,1010,1007,1004,1004,1004,1001,1001,1001,1001,1001,1001,1001,1004,1007,1010,1010,1013,1016,1016,1016,1016,0,1415,1415,1415,1410,1404,1398,1398,1398,1398,1398,1398,1398,1398,1398,1398,1398,1398,1398,1398,1398,1398,1398,1398,1398,1398,1398,1398,1398,1398,1392,1392,1392,1392,1392,1392,1392,1392,1392,1392,1392,1392,1392,1392,1387,1387,1387,1387,1392,1392,1392,1392,1392,1392,1392,1392,1392,1392,1392,1392,1387,1387,1387,1387,1387,1392,1392,1392,1392,1392,1392,1392,1392,1392,1387,1387,1387,1387,1387,1381,1381,1387,1387,1387,1387,1387,1387,1381,1381,1381,1381,1381,1381,1381,1381,1381,1381,1381,1381,1381,1381,1376,1376,1376,1376,1376,1376,1376,1376,1376,1376,1376,1376,1376,1376,1376,1376,1376,1376,1376,1376,1376,1376,1381,1381,1381,1381,1376,1376,1376,1376,1376,1376,1376,1376,1376,1376,1376,1376,1370,1370,1370,1370,1370,1370,1370,1370,1370,1370,1370,1370,1365,1365,1365,1365,1365,1359,1354,1354,1354,1354,1349,1349,1349,1349,1349,1343,1343,1338,1338,1333,1333,1333,1333,1333,1328,1328,1328,1328,1322,1322,1322,1317,1312,1312,1157,1153,1149,1145,1141,1138,1138,1134,1134,1130,1130,1123,1123,1119,1119,1119,1115,1115,1112,1108,1105,1101,1101,1105,1101,1101,1105,1105,1108,1108,1108,1108,1105,1094,1094,1090,1087,1084,1084,1080,1073,1067,1067,1067,1063,1063,928,928,928,928,928,928,928,928,928,928,928,928,928,928,928,928,928,928,928,928,928,928,928,930,930,930,930,933,933,935,935,935,935,935,938,978,975,975,973,973,970,967,967,962,962,962,962,956,956,956,0,0,0,0,0,0,0,0,0,0,0,0,0,0,0,0,0,0,0,0,0,0,0,0,0,0,0,0,0,0,0,0,0,0,0
0,0,0,873,871,871,871,871,871,869,869,871,873,873,875,875,875,875,875,878,878,878,880,882,882,885,885,885,887,0,0,0,0,0,0,1421,1421,1421,1421,1415,1415,1421,1421,1421,1421,1421,1421,1421,1421,1421,1421,1421,1421,1415,1415,1415,1415,1415,1415,1415,1415,1415,1415,1415,1421,1421,1415,1415,1415,1415,1415,1415,1415,1410,1410,1410,1404,1404,1404,0,1398,0,0,0,0,0,0,716,714,714,714,714,714,711,710,710,708,707,706,704,704,703,700,698,697,694,693,691,691,690,688,687,686,684,683,679,676,675,674,672,671,670,668,667,664,663,662,661,659,659,646,646,644,643,643,642,642,641,641,640,638,636,635,634,631,631,631,632,632,632,634,636,637,638,640,641,642,643,644,647,648,649,649,650,650,652,652,670,668,668,670,671,672,674,675,676,678,682,684,686,687,688,690,691,693,694,696,697,700,700,701,703,703,704,704,706,710,711,0,0,0,0,0,0,1214,1214,1214,1219,1219,1223,1223,1223,1227,1227,1227,1415,1410,1410,1410,1410,1410,1410,1410,1410,1410,1410,1410,1410,1404,1404,1404,1404,1404,1404,1410,1410,1410,1410,1410,1410,1410,1404,1404,1404,1404,1404,1404,1404,1404,1404,1404,1404,1404,1404,1404,1398,1398,1398,1404,1398,1398,1404,1404,1404,1404,1398,1398,1398,1398,1398,1398,1398,1398,1398,1398,1398,1398,1398,1398,1398,1398,1398,1398,1398,1398,1392,1392,1392,1392,1392,1392,1392,1392,1398,1398,0,0,0,0,0,1013,1013,1010,1010,1007,1004,1004,1004,1004,1001,1001,1001,1001,1001,1004,1004,1007,1010,1013,1013,1016,1016,1016,1016,0,1415,1415,1398,1398,1392,1392,1392,1392,1392,1392,1392,1392,1392,1392,1392,1392,1398,1392,1392,1392,1392,1392,1392,1392,1392,1398,1392,1392,1392,1387,1387,1387,1387,1387,1392,1392,1392,1392,1392,1392,1387,1387,1387,1387,1387,1387,1387,1387,1387,1387,1387,1387,1387,1387,1387,1387,1387,1387,1387,1387,1387,1381,1381,1387,1387,1381,1381,1387,1387,1381,1381,1387,1387,1381,1381,1381,1381,1381,1381,1381,1381,1381,1381,1381,1381,1381,1376,1376,1376,1376,1376,1376,1376,1376,1376,1376,1381,1381,1376,1376,1376,1376,1376,1376,1376,1376,1376,1376,1376,1376,1376,1376,1376,1370,1370,1376,1376,1376,1376,1376,1376,1376,1370,1370,1370,1370,1376,1370,1370,1370,1370,1370,1370,1370,1370,1370,1370,1370,1370,1370,1370,1370,1370,1370,1370,1370,1370,1370,1365,1365,1365,1359,1359,1359,1359,1359,1354,1354,1354,1354,1349,1349,1349,1349,1349,1349,1343,1343,1338,1338,1338,1333,1333,1333,1333,1328,1328,1328,1322,1322,1322,1317,1312,1312,1153,1153,1149,1145,1141,1138,1138,1134,1134,1130,1130,1126,1123,1119,1119,1119,1115,1115,1112,1108,1108,1105,1105,1105,1105,1105,1108,1108,1112,1112,1108,1108,1105,1097,1094,1090,1087,1084,1080,1077,1067,1063,1063,1063,928,928,928,928,928,928,928,930,930,930,930,930,928,928,928,928,928,928,928,928,928,930,930,930,930,930,930,933,933,933,935,935,935,935,935,935,938,978,975,975,973,970,970,967,964,962,959,959,956,956,954,954,0,0,0,0,0,0,0,0,0,0,0,0,0,0,0,0,0,0,0,0,0,0,0,0,0,0,0,0,0,0,0,0,0,0,0
0,0,0,871,871,871,871,871,871,871,869,869,873,875,875,875,875,875,875,878,878,878,880,882,885,885,885,887,887,891,0,0,0,0,0,1421,1415,1415,1415,1415,1415,1415,1415,1415,1415,1415,1415,1415,1415,1415,1415,1415,1415,1415,1410,1410,1410,1410,1410,1410,1410,1415,1415,1415,1410,1410,1410,1410,1410,1410,1415,1415,1415,1410,1410,1410,1404,1404,1404,1398,0,0,0,0,0,0,0,0,0,714,714,714,714,711,710,710,708,707,706,704,704,703,700,698,698,697,693,693,691,691,688,687,687,686,684,682,679,678,675,674,671,670,668,667,666,664,663,663,659,659,661,644,644,643,643,642,642,641,640,640,638,636,635,634,634,634,634,634,634,634,634,636,637,638,640,641,642,643,646,647,648,649,649,650,650,652,652,670,668,668,671,672,672,674,675,676,679,683,684,686,687,687,690,691,693,694,696,697,698,700,701,703,703,703,703,703,0,0,0,0,0,0,0,1214,1214,1214,1214,1219,1219,1223,1223,1227,1227,1227,1227,1410,1410,1410,1410,1410,1404,1404,1404,1404,1404,1398,1398,1398,1398,1398,1398,1398,1398,1398,1398,1404,1404,1404,1404,1404,1404,1404,1398,1398,1398,1398,1398,1398,1398,1398,1398,1398,1398,1398,1392,1392,1398,1398,1398,1392,1392,1398,1398,1398,1398,1392,1392,1392,1392,1392,1392,1392,1392,1392,1392,1392,1392,1392,1392,1392,1392,1392,1392,1392,1392,1392,1392,1392,1392,1392,1387,1387,1392,1392,1392,0,0,0,0,0,1013,1013,1013,1010,1010,1007,1007,1004,1004,1001,1001,1001,1001,1001,1004,1004,1007,1010,1013,1016,1016,1016,1016,1016,1016,1387,1387,1387,1387,1387,1387,1381,1381,1387,1387,1387,1387,1387,1392,1392,1392,1392,1392,1392,1392,1392,1392,1392,1392,1392,1392,1392,1387,1387,1381,1381,1381,1387,1387,1387,1387,1387,1387,1387,1387,1381,1381,1381,1381,1381,1376,1376,1381,1381,1381,1381,1381,1387,1387,1381,1381,1381,1381,1381,1381,1381,1381,1381,1381,1381,1381,1376,1376,1376,1376,1381,1381,1381,1376,1376,1376,1376,1376,1376,1376,1376,1376,1376,1376,1376,1376,1376,1376,1376,1376,1376,1376,1376,1376,1376,1376,1376,1376,1376,1376,1376,1376,1376,1376,1376,1370,1370,1370,1370,1370,1370,1370,1370,1370,1370,1370,1370,1370,1370,1370,1370,1370,1365,1365,1365,1365,1365,1365,1370,1370,1370,1370,1370,1370,1370,1370,1370,1370,1370,1370,1370,1370,1370,1370,1365,1365,1365,1365,1359,1359,1359,1359,1354,1354,1354,1354,1354,1354,1354,1354,1349,1349,1349,1349,1349,1343,1343,1343,1338,1338,1338,1333,1333,1333,1333,1328,1328,1328,1322,1322,1317,1312,1312,1312,1149,1149,1149,1145,1141,1138,1138,1138,1134,1134,1130,1126,1123,1123,1119,1119,1119,1115,1115,1112,1112,1112,1112,1112,1108,1108,1108,1108,1108,1108,1108,1108,1105,1097,1094,1090,1087,1084,1080,1077,1063,1063,1063,930,928,928,928,928,928,928,930,930,930,930,930,930,928,928,928,928,928,928,930,930,930,930,930,933,933,933,933,933,935,935,935,935,935,935,935,935,978,978,975,975,973,970,967,964,962,959,959,959,954,954,951,951,0,0,0,0,0,0,0,0,0,0,0,0,0,0,0,0,0,0,0,0,0,0,0,0,0,0,0,0,0,0,0,0,0,0,0
0,0,0,871,871,871,871,871,871,871,869,869,875,875,878,875,875,875,875,878,878,878,885,885,885,887,887,889,889,889,0,0,0,0,0,0,1410,1410,1410,1410,1410,1415,1415,1415,1415,1415,1415,1415,1410,1410,1410,1410,1410,1410,1410,1410,1410,1410,1410,1410,1410,1415,1410,1410,1410,1410,1410,1410,1404,1404,1404,1410,1410,1410,1410,1410,1404,1398,1398,1398,0,0,0,0,0,0,0,0,0,0,714,714,714,711,710,710,708,707,706,704,704,701,700,698,697,697,694,693,693,691,690,688,687,686,686,683,682,679,678,675,672,671,670,667,666,664,663,662,661,657,654,644,644,643,643,643,642,641,640,640,636,635,635,635,634,634,634,634,634,634,635,636,637,640,640,641,642,644,646,647,648,649,650,650,652,653,654,670,670,670,671,672,674,675,676,678,680,683,684,686,687,687,690,691,693,694,696,697,698,700,701,703,703,703,703,703,0,0,0,0,0,0,0,1214,1214,1214,1214,1219,1219,1223,1223,1227,1227,1227,1227,1227,1410,1404,1404,1398,1398,1398,1398,1398,1398,1392,1392,1392,1392,1392,1392,1392,1392,1392,1392,1392,1392,1398,1398,1404,1398,1398,1398,1392,1392,1392,1392,1392,1392,1392,1392,1392,1398,1392,1392,1392,1392,1392,1392,1392,1392,1392,1392,1392,1392,1392,1392,1392,1387,1387,1387,1387,1387,1387,1392,1392,1392,1392,1392,1392,1392,1387,1387,1387,1387,1387,1387,1387,1387,1387,1387,1387,1387,1387,1387,1387,0,0,0,1016,1016,1013,1013,1013,1010,1010,1010,1007,1004,1004,1001,1001,1001,1001,1004,1004,1007,1010,1013,1016,1016,1016,1016,1016,1016,0,1381,1381,1381,1381,1381,1381,1381,1381,1381,1381,1381,1381,1381,1387,1387,1387,1387,1387,1387,1387,1387,1387,1387,1387,1387,1387,1381,1381,1381,1376,1376,1381,1381,1381,1381,1381,1381,1381,1381,1376,1376,1376,1376,1376,1376,1376,1376,1376,1376,1376,1376,1376,1376,1376,1376,1376,1376,1376,1376,1376,1376,1376,1376,1376,1376,1376,1376,1376,1376,1376,1376,1376,1376,1376,1376,1376,1376,1376,1376,1376,1376,1376,1376,1376,1376,1376,1376,1376,1370,1370,1370,1370,1370,1376,1376,1376,1376,1370,1370,1370,1370,1370,1370,1370,1370,1370,1370,1370,1365,1365,1365,1365,1365,1365,1365,1365,1365,1365,1365,1365,1365,1359,1359,1359,1359,1359,1359,1359,1359,1359,1365,1365,1365,1365,1365,1365,1365,1365,1365,1365,1365,1365,1365,1365,1365,1365,1359,1359,1359,1359,1354,1354,1354,1354,1354,1354,1354,1354,1349,1349,1349,1349,1349,1349,1343,1343,1338,1338,1338,1338,1338,1333,1333,1333,1333,1333,1328,1322,1322,1317,1312,1312,1307,1149,1149,1149,1145,1141,1141,1138,1138,1134,1134,1130,1126,1123,1123,1119,1119,1119,1123,1123,1119,1119,1119,1119,1115,1112,1108,1108,1108,1108,1108,1105,1101,1097,1097,1094,1090,1087,1080,1077,1063,1060,1060,1060,930,928,928,928,928,928,930,930,930,930,930,930,930,930,928,928,928,928,930,930,930,930,930,933,933,933,933,935,935,935,935,935,935,935,935,935,935,978,975,975,973,970,967,964,964,956,954,954,954,948,943,940,940,0,0,0,0,0,0,0,0,0,0,0,0,0,0,0,0,0,0,0,0,0,0,0,0,0,0,0,0,0,0,0,0,0,0,0
0,0,0,0,871,871,871,871,871,871,869,869,875,875,873,873,873,875,875,878,878,880,885,885,885,887,887,889,889,889,0,0,0,0,0,0,1404,1404,1404,1404,1404,1410,1410,1410,1410,1410,1410,1410,1410,1404,1404,1404,1404,1404,1404,1404,1404,1410,1410,1410,1410,1410,1410,1410,1410,1410,1410,1404,1398,1398,1404,1404,1398,1398,1398,1398,1398,1398,1392,1392,1392,1392,0,0,0,0,0,0,0,0,0,0,714,714,710,710,708,707,706,704,704,701,698,698,697,697,696,694,694,693,691,688,687,687,686,684,682,679,678,676,674,672,671,667,666,666,664,662,661,655,653,646,646,644,644,643,643,641,640,638,636,635,635,635,634,634,634,634,634,634,635,636,637,638,640,641,642,644,646,648,649,649,650,650,652,653,654,670,670,670,671,672,675,675,676,679,680,683,684,686,687,687,690,691,693,694,696,697,698,700,701,703,703,703,703,0,0,0,0,0,0,1214,1214,1214,1214,1214,1214,1214,1219,1219,1223,1227,1227,1227,1227,1227,1227,1404,1398,1398,1392,1392,1392,1392,1392,1392,1392,1392,1392,1392,1392,1392,1392,1392,1392,1392,1392,1392,1392,1392,1392,1392,1392,1392,1392,1392,1392,1392,1392,1392,1392,1392,1392,1392,1392,1392,1392,1392,1392,1387,1387,1387,1387,1392,1392,1387,1387,1387,1387,1387,1387,1387,1387,1387,1387,1387,1387,1387,1387,1387,1387,1387,1387,1387,1387,1387,1387,1387,1387,1387,1387,1387,1387,1387,1387,1387,1387,0,1022,1022,1016,1016,1013,1013,1010,1010,1010,1007,1007,1004,1004,1004,1004,1004,1004,1007,1010,1010,1013,1016,1016,1016,1016,1016,1016,0,1376,1376,1376,1376,1376,1376,1376,1376,1376,1376,1376,1376,1376,1376,1376,1376,1381,1381,1381,1381,1381,1387,1387,1387,1387,1381,1381,1381,1376,1376,1376,1376,1376,1376,1376,1376,1381,1376,1376,1376,1376,1376,1376,1376,1370,1370,1376,1376,1376,1370,1370,1370,1370,1370,1370,1370,1370,1370,1370,1370,1370,1370,1376,1376,1370,1370,1370,1370,1370,1370,1370,1370,1370,1370,1370,1370,1370,1370,1370,1370,1370,1370,1370,1370,1370,1370,1370,1370,1370,1370,1370,1370,1370,1370,1370,1370,1370,1370,1370,1370,1370,1370,1370,1370,1370,1370,1365,1365,1365,1359,1359,1359,1359,1359,1359,1359,1359,1359,1365,1359,1354,1354,1354,1354,1354,1354,1354,1354,1354,1354,1354,1354,1354,1359,1359,1359,1359,1365,1359,1359,1359,1359,1359,1359,1359,1359,1354,1354,1354,1354,1354,1354,1354,1349,1349,1354,1349,1349,1349,1349,1349,1349,1349,1343,1343,1338,1338,1338,1338,1338,1338,1333,1333,1333,1333,1333,1333,1328,1328,1328,1312,1312,1145,1145,1145,1149,1145,1141,1141,1138,1138,1138,1134,1130,1126,1123,1123,1123,1123,1126,1126,1126,1126,1126,1123,1123,1119,1115,1112,1112,1108,1108,1108,1101,1101,1094,1094,1090,1087,1084,1077,1070,1063,1057,1057,930,930,928,928,928,928,930,930,930,930,930,933,930,930,930,930,928,928,928,930,930,930,930,933,933,935,935,935,935,935,935,935,935,935,938,933,933,978,975,975,973,973,967,964,959,951,951,951,951,943,940,938,935,935,0,0,0,0,0,0,0,0,0,0,0,0,0,0,0,0,0,0,0,0,0,0,0,0,0,0,0,0,0,0,0,0,0,0,0
0,0,0,0,0,871,871,873,873,873,871,871,873,873,873,873,873,875,878,878,878,880,885,885,885,885,887,889,889,889,0,0,0,0,0,1404,1404,1404,1404,1404,1404,1404,1410,1410,1410,1404,1404,1404,1404,1398,1398,1398,1398,1398,1398,1398,1398,1404,1404,1404,1404,1404,1404,1404,1404,1404,1398,1398,1398,1398,1398,1398,1398,1398,1398,1398,1392,1392,1392,1392,1392,1392,1392,0,0,0,0,0,0,0,0,0,0,0,711,710,708,708,707,706,704,701,698,698,697,696,696,694,694,693,691,690,688,687,686,684,683,680,679,676,675,674,672,668,667,666,664,664,663,655,653,649,646,644,644,644,643,641,640,638,636,636,635,635,635,634,634,634,634,635,635,636,637,638,640,641,642,644,646,648,649,649,650,652,652,653,653,670,671,671,672,674,675,676,678,679,680,682,684,686,687,688,690,691,693,694,696,697,698,698,700,704,704,0,0,0,0,0,0,1223,1219,1214,1214,1214,1214,1214,1214,1214,1219,1219,1223,1227,1227,1227,1227,1227,1227,1392,1392,1392,1392,1387,1387,1387,1387,1387,1387,1387,1387,1387,1387,1387,1387,1387,1387,1387,1387,1387,1387,1387,1387,1387,1387,1387,1387,1387,1387,1387,1387,1387,1387,1387,1387,1387,1387,1387,1387,1387,1387,1387,1387,1387,1387,1387,1387,1387,1387,1381,1381,1381,1381,1381,1381,1381,1381,1381,1381,1381,1381,1381,1381,1381,1381,1381,1381,1381,1381,1381,1381,1381,1381,1381,1381,1381,1381,1381,1381,0,1022,1022,1019,1016,1016,1013,1010,1010,1010,1010,1007,1004,1004,1004,1004,1004,1004,1007,1010,1013,1013,1016,1016,1016,1019,1019,1019,0,1370,1370,1370,1370,1370,1376,1376,1376,1376,1376,1376,1376,1376,1376,1376,1376,1376,1370,1370,1376,1376,1376,1376,1376,1376,1376,1376,1376,1370,1370,1370,1370,1376,1376,1376,1376,1376,1376,1370,1370,1370,1370,1370,1370,1370,1370,1370,1370,1370,1370,1370,1370,1370,1365,1365,1365,1365,1365,1370,1370,1370,1370,1370,1370,1370,1370,1370,1370,1370,1365,1365,1365,1365,1365,1365,1365,1365,1365,1365,1370,1370,1370,1370,1370,1370,1370,1370,1370,1370,1365,1365,1365,1365,1365,1365,1365,1365,1365,1365,1365,1365,1365,1365,1365,1365,1365,1359,1359,1359,1359,1359,1359,1354,1354,1354,1354,1354,1354,1354,1354,1354,1354,1349,1349,1354,1354,1354,1354,1354,1354,1354,1354,1354,1354,1349,1349,1349,1354,1354,1354,1354,1354,1354,1354,1354,1354,1354,1354,1354,1354,1354,1349,1349,1349,1349,1354,1349,1349,1349,1349,1349,1343,1343,1343,1338,1338,1338,1338,1338,1338,1333,1333,1333,1333,1333,1333,1328,1328,1328,1322,1317,1317,1145,1145,1145,1149,1145,1141,1141,1141,1138,1138,1134,1130,1130,1123,1123,1123,1123,1130,1130,1130,1130,1126,1126,1123,1119,1119,1115,1112,1112,1112,1108,1097,1097,1090,1090,1084,1084,1084,1077,1067,1063,1057,1057,930,930,928,928,928,928,930,930,933,933,933,933,933,930,930,930,928,928,928,930,930,930,933,933,933,935,935,935,935,935,938,938,938,938,938,933,933,978,975,973,970,967,964,951,951,951,948,946,943,938,938,935,933,933,0,0,0,0,0,0,0,0,0,0,0,0,0,0,0,0,0,0,0,0,0,0,0,0,0,0,0,0,0,0,0,0,0,0,0
0,0,0,0,0,0,873,873,873,873,871,871,873,873,875,875,875,875,878,878,878,885,885,885,885,885,887,889,889,891,0,0,0,0,0,1404,1398,1398,1398,1398,1398,1398,1404,1404,1404,1398,1398,1398,1398,1392,1392,1392,1392,1398,1392,1392,1398,1404,1404,1398,1398,1398,1398,1398,1398,1398,1392,1392,1392,1392,1398,1398,1392,1392,1392,1392,1392,1392,1387,1387,1392,1387,1387,1387,0,0,0,0,0,0,0,0,0,0,0,710,710,708,708,708,704,701,698,698,697,696,696,694,693,693,691,691,690,688,688,686,684,682,680,678,676,675,674,670,667,666,664,664,663,663,654,649,647,646,646,644,643,642,641,638,636,636,636,635,635,634,634,634,635,635,635,636,637,640,640,641,642,644,646,648,649,649,650,652,652,653,653,670,671,671,672,674,675,676,678,679,680,682,683,686,687,688,690,691,693,693,696,697,697,698,700,0,0,0,0,0,0,0,1227,1223,1219,1219,1214,1214,1214,1214,1214,1219,1219,1223,1227,1227,1227,1227,1227,1227,1227,1236,1387,1381,1381,1381,1387,1381,1381,1381,1387,1387,1387,1387,1387,1387,1387,1387,1387,1387,1387,1387,1387,1387,1381,1381,1387,1387,1387,1387,1387,1387,1387,1387,1387,1387,1387,1387,1387,1387,1387,1387,1387,1387,1387,1387,1381,1381,1381,1381,1381,1381,1381,1381,1376,1376,1376,1376,1376,1376,1376,1376,1376,1376,1376,1376,1376,1376,1370,1370,1376,1376,1376,1376,1376,1376,1376,1370,1370,1376,0,0,0,1019,1019,1016,1016,1013,1013,1010,1010,1010,1007,1007,1004,1004,1004,1004,1007,1007,1010,1013,1016,1016,1019,1019,1019,1022,1022,0,1370,1370,1370,1370,1370,1370,1370,1370,1370,1370,1370,1370,1370,1370,1370,1370,1370,1370,1370,1370,1365,1365,1365,1370,1370,1370,1370,1370,1370,1370,1370,1370,1370,1370,1370,1370,1370,1370,1370,1370,1365,1365,1365,1365,1365,1365,1370,1370,1370,1365,1365,1365,1359,1359,1359,1359,1359,1359,1359,1359,1365,1365,1359,1359,1359,1359,1359,1365,1365,1359,1359,1359,1359,1359,1359,1359,1359,1365,1365,1365,1359,1359,1365,1365,1365,1365,1365,1365,1365,1365,1359,1359,1359,1359,1359,1359,1359,1359,1359,1359,1359,1359,1359,1354,1354,1359,1354,1354,1354,1354,1354,1354,1354,1354,1349,1349,1354,1354,1349,1349,1349,1349,1349,1349,1349,1349,1349,1349,1349,1349,1349,1349,1349,1349,1349,1349,1349,1349,1349,1349,1349,1349,1349,1349,1349,1349,1349,1349,1349,1349,1349,1349,1349,1349,1349,1349,1343,1343,1343,1343,1343,1343,1343,1338,1338,1338,1338,1338,1338,1333,1333,1333,1333,1333,1333,1333,1328,1328,1322,1317,1312,1312,1145,1145,1145,1149,1145,1145,1141,1141,1138,1138,1134,1130,1123,1123,1123,1123,1130,1134,1134,1134,1130,1130,1126,1123,1119,1119,1115,1115,1112,1108,1105,1094,1094,1087,1084,1080,1080,1080,1073,1067,1067,1067,928,928,928,928,928,928,930,930,933,933,933,933,933,933,930,930,930,930,930,930,930,930,933,933,933,935,935,935,935,938,938,938,938,938,938,943,943,973,975,973,970,964,959,951,951,948,946,946,943,940,938,938,935,933,933,0,0,0,0,0,0,0,0,0,0,0,0,0,0,0,0,0,0,0,0,0,0,0,0,0,0,0,0,0,0,0,0,0,0,0
0,0,0,0,0,0,875,873,873,873,873,875,875,875,875,875,875,878,878,880,880,882,885,885,887,887,887,889,889,889,889,0,0,0,0,1404,1392,1392,1392,1392,1392,1392,1392,1392,1392,1392,1392,1392,1392,1392,1392,1392,1392,1392,1392,1392,1392,1398,1398,1392,1392,1392,1392,1392,1392,1392,1387,1387,1387,1387,1392,1392,1392,1387,1387,1387,1387,1387,1387,1387,1387,1387,1387,1381,1381,1381,0,0,0,0,0,0,0,0,0,0,0,0,0,0,0,0,0,698,697,696,696,694,693,693,691,691,690,688,688,686,684,683,682,679,678,676,675,671,668,667,666,664,663,663,649,649,648,647,647,646,646,643,641,638,637,637,636,636,635,635,635,635,635,635,635,636,638,640,640,641,642,643,646,648,649,650,650,652,653,654,654,670,671,671,672,674,676,678,679,679,680,682,683,686,687,688,690,691,693,693,696,697,697,698,0,0,0,0,0,0,0,1227,1227,1227,1223,1219,1219,1214,1214,1214,1214,1219,1219,1223,1227,1227,1227,1232,1232,1232,1232,1236,1381,1381,1376,1376,1376,1376,1376,1376,1381,1381,1381,1381,1381,1381,1381,1381,1381,1381,1381,1381,1381,1376,1376,1376,1381,1381,1381,1381,1381,1381,1381,1381,1381,1381,1381,1381,1381,1381,1381,1381,1381,1381,1381,1381,1381,1381,1376,1376,1376,1370,1370,1370,1370,1370,1370,1370,1370,1370,1370,1370,1370,1370,1370,1370,1370,1370,1370,1370,1370,1370,1370,1370,1370,1370,1370,1370,1370,1370,1370,1370,0,1019,1019,1019,1016,1013,1013,1013,1013,1013,1010,1007,1007,1007,1007,1007,1007,1010,1010,1013,1016,1016,1019,1019,1022,1025,1025,0,1365,1365,1365,1365,1365,1370,1370,1370,1370,1370,1370,1365,1365,1370,1370,1370,1365,1365,1365,1365,1359,1359,1359,1359,1359,1365,1370,1370,1365,1365,1365,1365,1365,1365,1365,1365,1365,1365,1365,1365,1365,1365,1365,1359,1359,1359,1365,1365,1365,1365,1359,1359,1359,1354,1354,1354,1354,1354,1359,1359,1359,1359,1359,1359,1359,1359,1359,1359,1359,1354,1354,1354,1354,1354,1354,1354,1354,1359,1359,1354,1354,1354,1354,1354,1354,1359,1359,1359,1359,1359,1354,1354,1354,1354,1354,1354,1354,1354,1354,1354,1354,1354,1354,1354,1354,1354,1354,1354,1349,1349,1349,1349,1349,1349,1349,1349,1349,1349,1349,1349,1349,1349,1349,1349,1343,1343,1349,1349,1349,1343,1343,1343,1343,1343,1343,1343,1343,1343,1343,1343,1338,1338,1343,1349,1349,1349,1349,1343,1343,1343,1343,1343,1343,1343,1343,1349,1343,1343,1343,1338,1338,1338,1338,1338,1338,1333,1333,1333,1338,1333,1333,1333,1333,1333,1333,1333,1328,1322,1312,1312,1312,1312,1145,1145,1145,1149,1149,1145,1145,1141,1141,1138,1134,1130,1123,1123,1123,1126,1126,1134,1134,1134,1134,1126,1123,1123,1119,1119,1115,1108,1108,1105,1094,1090,1090,1084,1080,1080,1077,1077,1073,1067,1067,930,928,928,928,928,928,928,930,930,933,933,933,933,933,933,933,933,930,930,930,930,930,930,933,933,933,935,935,938,938,938,938,940,940,940,943,948,956,964,967,967,962,956,951,948,946,946,946,943,943,938,938,935,935,933,933,0,0,0,0,0,0,0,0,0,0,0,0,0,0,0,0,0,0,0,0,0,0,0,0,0,0,0,0,0,0,0,0,0,0,0
0,0,0,0,0,0,0,873,873,873,873,875,875,875,875,875,875,878,878,880,880,882,885,885,885,887,887,889,889,889,889,0,0,0,0,0,1387,1387,1387,1387,1387,1387,1387,1381,1381,1381,1381,1381,1387,1387,1387,1387,1387,1392,1387,1387,1392,1392,1392,1392,1392,1392,1392,1387,1387,1387,1387,1387,1381,1381,1387,1387,1381,1381,1381,1381,1381,1381,1381,1381,1387,1387,1381,1381,1381,1376,1376,1370,1370,0,0,0,0,0,0,0,0,0,0,0,0,0,0,0,697,696,696,694,693,693,691,691,690,688,688,686,684,683,682,679,678,676,676,675,671,668,667,664,664,664,649,649,648,648,648,647,646,644,642,640,638,637,637,636,636,635,635,635,635,635,635,636,640,640,640,641,642,642,646,648,650,650,652,653,654,655,655,670,671,672,674,675,676,678,679,680,680,682,683,684,688,688,691,691,693,694,697,697,697,0,0,0,0,0,0,0,1232,1227,1227,1227,1223,1223,1219,1219,1219,1219,1219,1219,1219,1223,1227,1227,1232,1232,1232,1232,1236,1241,1376,1376,1376,1376,1370,1370,1370,1370,1370,1370,1370,1370,1376,1376,1376,1376,1376,1376,1376,1376,1376,1376,1370,1370,1376,1376,1376,1376,1376,1376,1381,1376,1376,1376,1376,1376,1376,1376,1376,1376,1376,1376,1376,1376,1376,1376,1370,1370,1370,1370,1370,1370,1370,1370,1365,1365,1365,1365,1365,1365,1365,1365,1365,1365,1365,1365,1365,1365,1365,1365,1365,1365,1365,1365,1359,1359,1365,1365,1370,1370,0,1019,1019,1019,1016,1013,1013,1013,1013,1013,1013,1010,1010,1007,1007,1007,1007,1010,1013,1013,1016,1019,1019,1025,1025,1025,1025,0,1365,1365,1365,1365,1365,1365,1365,1365,1365,1365,1365,1365,1365,1365,1365,1365,1365,1359,1359,1359,1354,1354,1354,1354,1354,1359,1359,1359,1359,1359,1359,1359,1359,1359,1359,1359,1359,1359,1359,1359,1359,1359,1359,1359,1359,1359,1359,1359,1359,1359,1359,1359,1354,1354,1354,1354,1354,1354,1354,1354,1354,1354,1354,1354,1354,1354,1354,1354,1354,1354,1349,1349,1354,1354,1354,1354,1354,1354,1354,1354,1349,1349,1349,1349,1349,1349,1349,1349,1354,1354,1354,1354,1354,1354,1354,1354,1354,1354,1354,1349,1349,1354,1349,1349,1349,1349,1349,1349,1349,1349,1349,1349,1343,1343,1343,1343,1343,1343,1343,1343,1343,1343,1343,1343,1343,1343,1343,1343,1343,1343,1343,1343,1343,1343,1343,1338,1338,1338,1338,1338,1333,1333,1338,1338,1338,1343,1343,1338,1338,1338,1338,1343,1338,1338,1338,1338,1338,1338,1338,1333,1333,1333,1333,1333,1333,1333,1333,1333,1333,1333,1333,1333,1333,1333,1333,1333,1328,1312,1312,1312,1312,1312,1149,1145,1145,1149,1149,1145,1145,1141,1138,1138,1130,1126,1123,1123,1123,1126,1126,1134,1134,1134,1134,1126,1123,1123,1119,1115,1108,1105,1105,1090,1090,1090,1087,1084,1080,1077,1077,1073,1067,1067,1067,928,928,928,928,928,928,928,930,930,933,933,933,933,933,933,933,933,933,933,933,933,933,933,933,935,935,935,938,938,938,938,940,940,940,943,946,951,959,962,962,962,962,956,948,946,946,946,943,940,938,935,935,935,933,930,930,0,0,0,0,0,0,0,0,0,0,0,0,0,0,0,0,0,0,0,0,0,0,0,0,0,0,0,0,0,0,0,0,0,0,0
0,0,0,0,0,0,0,0,0,873,873,875,873,873,875,875,875,878,880,880,880,882,885,885,885,887,887,889,889,891,891,0,0,0,0,0,1381,1381,1381,1381,1381,1381,1381,1376,1376,1376,1376,1376,1381,1381,1381,1387,1387,1387,1387,1381,1381,1381,1381,1387,1387,1387,1387,1387,1387,1387,1381,1381,1381,1381,1381,1381,1376,1376,1376,1376,1376,1376,1376,1376,1381,1381,1381,1376,1376,1370,1370,1370,1370,1370,1370,1370,0,0,0,0,0,0,0,0,0,0,0,0,0,696,696,694,694,693,691,691,690,688,687,686,684,683,682,680,679,678,676,675,675,671,670,667,667,672,649,649,649,648,648,647,646,644,644,641,640,638,637,636,636,635,635,635,635,635,635,638,638,640,640,641,642,642,648,649,650,650,653,654,654,655,655,670,672,674,674,675,676,678,679,680,680,682,682,683,687,688,691,693,694,694,697,698,0,0,0,0,0,1359,1359,1359,1232,1232,1232,1227,1227,1223,1223,1223,1219,1219,1219,1219,1223,1223,1227,1227,1232,1232,1232,1232,1236,1241,1376,1376,1370,1370,1370,1370,1370,1370,1370,1370,1370,1370,1365,1365,1365,1370,1370,1370,1370,1370,1370,1370,1370,1370,1370,1370,1370,1370,1370,1370,1370,1370,1370,1370,1370,1370,1370,1370,1370,1370,1370,1370,1370,1370,1370,1370,1365,1365,1365,1365,1365,1365,1365,1365,1365,1365,1365,1365,1365,1365,1359,1359,1359,1359,1359,1359,1359,1365,1365,1359,1359,1359,1359,1354,1354,1354,1349,1349,1354,1354,1349,1019,1019,1019,1016,1016,1013,1013,1013,1013,1013,1013,1010,1010,1010,1010,1010,1013,1013,1016,1016,1019,1019,1025,1025,1028,1028,1031,1359,1359,1359,1359,1359,1359,1359,1359,1359,1359,1359,1359,1359,1359,1359,1359,1359,1359,1354,1354,1354,1354,1354,1354,1354,1354,1354,1354,1354,1354,1354,1354,1354,1354,1354,1354,1354,1354,1354,1354,1354,1354,1354,1354,1354,1354,1359,1359,1354,1354,1354,1354,1354,1349,1349,1349,1349,1349,1349,1349,1349,1349,1349,1349,1349,1349,1354,1349,1349,1349,1349,1349,1349,1349,1349,1349,1349,1349,1349,1349,1349,1349,1349,1343,1343,1343,1343,1343,1343,1343,1343,1349,1349,1349,1349,1349,1349,1349,1349,1349,1349,1349,1349,1349,1349,1349,1349,1349,1349,1349,1343,1343,1343,1343,1343,1343,1343,1343,1343,1343,1343,1338,1338,1338,1338,1338,1338,1338,1338,1338,1338,1338,1338,1338,1338,1333,1333,1333,1333,1333,1333,1333,1333,1333,1333,1333,1333,1333,1338,1338,1338,1338,1338,1338,1338,1333,1333,1333,1333,1333,1333,1333,1328,1328,1328,1328,1328,1328,1333,1333,1333,1333,1328,1328,1328,1328,1322,1312,1307,1307,1312,1312,1149,1149,1149,1149,1149,1145,1145,1141,1138,1134,1130,1126,1123,1123,1123,1134,1134,1134,1134,1134,1134,1126,1123,1123,1108,1105,1105,1094,1094,1090,1087,1087,1084,1080,1077,1073,1073,1070,1067,1067,928,928,928,928,928,928,928,928,930,930,933,933,933,933,933,933,933,933,933,933,933,933,933,933,933,935,935,935,938,938,938,940,940,943,943,946,948,956,959,959,959,959,956,956,948,946,943,943,940,938,935,935,933,930,930,930,930,0,0,0,0,0,0,0,0,0,0,0,0,0,0,0,0,0,0,0,0,0,0,0,0,0,0,0,0,0,0,0,0,0,0,0
0,0,0,0,0,0,0,0,0,0,878,875,873,873,875,875,875,878,880,880,880,882,882,885,885,887,887,889,891,891,891,894,0,0,0,0,1381,1381,1376,1370,1370,1376,1376,1376,1376,1376,1376,1376,1376,1376,1381,1381,1381,1381,1381,1381,1376,1376,1376,1381,1381,1381,1381,1381,1381,1381,1376,1376,1376,1376,1376,1376,1376,1376,1376,1376,1376,1376,1376,1376,1376,1376,1376,1376,1376,1370,1370,1370,1370,1370,1370,1370,1370,1376,1376,1376,0,0,0,0,0,0,0,0,0,0,696,696,694,693,691,691,690,688,687,686,683,683,682,680,679,679,678,676,676,675,672,671,671,672,672,649,649,649,648,648,647,646,644,641,641,640,638,637,636,635,635,635,635,636,636,638,638,640,640,641,642,643,648,649,650,650,653,654,655,657,657,658,672,674,674,675,676,678,679,680,680,682,682,683,687,688,691,0,0,697,697,0,0,0,0,1359,1359,1359,1359,1359,1232,1232,1232,1227,1227,1223,1223,1223,1223,1219,1219,1219,1223,1227,1227,1227,1232,1232,1232,1232,1236,1241,1370,1370,1370,1370,1365,1365,1365,1365,1365,1365,1365,1365,1365,1359,1359,1359,1359,1365,1365,1370,1370,1365,1365,1365,1365,1365,1365,1365,1365,1365,1365,1365,1365,1365,1365,1365,1365,1365,1359,1359,1359,1359,1359,1359,1359,1359,1359,1359,1359,1359,1359,1354,1354,1359,1359,1359,1359,1359,1359,1359,1354,1354,1354,1354,1354,1354,1359,1359,1359,1354,1354,1354,1354,1354,1349,1349,1349,1349,1349,1349,1349,1019,1019,1019,1016,1016,1016,1013,1013,1016,1013,1013,1013,1013,1013,1013,1013,1013,1013,1016,1019,1019,1022,1025,1025,1028,1031,1031,1354,1354,1354,1354,1354,1359,1354,1354,1354,1354,1354,1354,1354,1354,1354,1354,1354,1354,1354,1354,1349,1349,1349,1349,1349,1349,1354,1354,1349,1349,1349,1349,1349,1349,1349,1349,1349,1349,1349,1354,1349,1349,1349,1354,1354,1354,1354,1354,1354,1354,1354,1354,1349,1349,1349,1349,1349,1349,1349,1349,1349,1349,1349,1349,1349,1349,1349,1349,1349,1343,1343,1343,1343,1343,1343,1343,1343,1343,1349,1343,1343,1343,1343,1338,1338,1338,1338,1338,1338,1338,1338,1343,1343,1338,1338,1343,1343,1343,1343,1343,1343,1343,1343,1343,1343,1349,1343,1343,1343,1343,1343,1338,1338,1338,1338,1338,1338,1338,1338,1338,1338,1338,1338,1338,1333,1333,1333,1333,1333,1333,1333,1333,1333,1333,1333,1333,1333,1333,1333,1333,1333,1333,1333,1333,1333,1333,1328,1328,1328,1328,1328,1333,1333,1328,1328,1333,1333,1333,1333,1328,1328,1328,1328,1328,1328,1328,1328,1328,1333,1333,1333,1328,1328,1322,1317,1317,1322,1312,1307,1307,1312,1149,1149,1149,1149,1145,1145,1145,1145,1138,1134,1130,1123,1123,1123,1123,1126,1134,1134,1134,1134,1134,1130,1123,1123,1105,1105,1105,1097,1094,1090,1087,1084,1084,1084,1080,1077,1073,1073,1070,1067,1067,928,928,928,928,928,928,928,928,930,930,933,933,933,933,933,933,933,933,933,933,933,935,935,935,935,935,938,938,938,938,940,940,943,946,948,951,954,956,959,959,956,956,954,948,946,943,940,938,938,938,935,933,930,930,928,928,928,0,0,0,0,0,0,0,0,0,0,0,0,0,0,0,0,0,0,0,0,0,0,0,0,0,0,0,0,0,0,0,0,0,0,0
0,0,0,0,0,0,0,0,0,0,0,875,875,875,875,875,878,880,880,880,882,882,882,885,885,887,887,889,891,894,894,894,0,0,0,0,0,1376,1370,1370,1370,1370,1370,1370,1370,1370,1370,1370,1370,1376,1376,1376,1376,1376,1376,1376,1376,1376,1376,1376,1376,1376,1376,1376,1376,1376,1370,1370,1370,1370,1370,1370,1370,1370,1370,1370,1370,1370,1370,1370,1376,1376,1370,1370,1370,1370,1370,1370,1370,1370,1365,1365,1365,1365,1365,1359,1354,1354,1354,0,0,0,0,0,0,0,0,0,694,693,691,691,690,688,688,686,683,683,682,680,679,679,678,678,676,675,674,672,672,672,672,672,650,649,649,648,647,646,644,642,641,641,640,638,637,636,636,636,636,636,637,638,638,640,640,641,642,646,648,648,650,650,653,654,655,657,657,658,674,674,675,675,676,678,679,680,680,680,682,682,686,0,0,0,0,0,0,0,0,0,0,1359,1359,1359,1359,1359,1236,1232,1232,1232,1227,1223,1223,1223,1223,1219,1219,1219,1223,1227,1227,1227,1232,1232,1232,1236,1241,1245,1370,1370,1365,1365,1365,1365,1365,1359,1359,1359,1359,1359,1354,1354,1354,1354,1354,1359,1359,1359,1359,1359,1359,1365,1359,1359,1359,1359,1359,1359,1359,1359,1365,1365,1359,1359,1359,1359,1354,1354,1354,1354,1354,1354,1354,1354,1354,1354,1354,1354,1354,1354,1354,1354,1354,1354,1354,1354,1359,1359,1354,1354,1349,1349,1349,1349,1349,1349,1354,1349,1349,1354,1349,1349,1349,1349,1349,1349,1349,1349,1349,1025,1022,1022,1019,1019,1016,1016,1016,1016,1016,1013,1013,1013,1013,1013,1013,1013,1016,1016,1019,1022,1025,1028,1028,1031,1031,1031,0,1354,1354,1354,1354,1354,1354,1354,1349,1349,1349,1349,1349,1349,1349,1349,1349,1349,1349,1349,1349,1349,1349,1349,1349,1349,1349,1349,1349,1349,1349,1343,1343,1349,1343,1343,1343,1343,1343,1349,1349,1349,1349,1349,1349,1349,1349,1349,1349,1349,1349,1349,1349,1349,1349,1349,1349,1349,1343,1343,1343,1343,1343,1343,1343,1343,1343,1343,1343,1343,1338,1338,1338,1338,1338,1338,1343,1343,1343,1343,1343,1343,1343,1338,1333,1333,1333,1333,1333,1333,1338,1338,1338,1338,1338,1338,1338,1338,1338,1338,1338,1338,1343,1338,1338,1343,1343,1343,1343,1338,1338,1338,1333,1333,1333,1333,1333,1338,1338,1333,1333,1333,1333,1333,1333,1333,1333,1333,1333,1333,1333,1333,1333,1333,1333,1328,1328,1328,1328,1328,1328,1328,1328,1328,1328,1328,1328,1328,1328,1328,1322,1322,1328,1328,1328,1328,1328,1328,1328,1328,1328,1328,1328,1328,1328,1328,1328,1328,1333,1214,1214,1214,1214,1214,1214,1317,1312,1312,1312,0,1149,0,1149,1149,1149,1145,1145,1145,1141,1138,1134,1130,1123,1123,1123,1123,1126,1134,1134,1134,1134,1130,1126,1119,1105,1105,1105,1097,1094,1090,1087,1084,1080,1080,1080,1080,1077,1077,1073,1073,1067,930,928,928,928,928,928,928,928,928,930,930,930,933,933,933,933,933,933,933,933,933,935,935,935,935,935,938,938,938,940,940,940,943,946,948,954,956,956,959,959,959,954,954,948,948,943,943,940,938,938,935,933,930,930,928,928,928,928,0,0,0,0,0,0,0,0,0,0,0,0,0,0,0,0,0,0,0,0,0,0,0,0,0,0,0,0,0,0,0,0,0,0,0
0,0,0,0,0,0,0,0,0,0,0,880,878,878,878,878,878,880,880,880,882,882,882,885,887,887,889,891,894,894,894,894,0,0,0,0,0,1349,1349,1365,1365,1365,1370,1370,1370,1370,1370,1370,1370,1370,1370,1370,1370,1370,1370,1370,1370,1370,1370,1370,1370,1370,1370,1370,1370,1370,1370,1370,1370,1370,1365,1365,1365,1365,1365,1365,1370,1370,1370,1370,1370,1370,1370,1370,1370,1365,1365,1365,1365,1365,1365,1365,1365,1365,1365,1359,1354,1354,1354,1354,1354,0,0,0,0,0,0,0,0,0,0,0,690,688,688,686,684,683,682,680,680,679,679,678,676,675,674,672,672,672,672,672,650,649,649,648,648,646,644,642,642,641,640,638,638,636,636,636,636,637,638,640,640,640,641,642,642,647,648,648,650,652,653,655,655,657,657,658,674,674,675,675,676,678,678,679,680,680,680,680,686,0,0,0,0,0,0,0,0,0,1354,1354,1354,1359,1359,1359,1359,1232,1232,1232,1227,1227,1227,1223,1223,1223,1223,1223,1223,1227,1227,1232,1232,1232,1236,1241,1245,1245,1370,1370,1365,1365,1359,1359,1359,1354,1354,1354,1354,1354,1354,1349,1349,1349,1349,1354,1354,1354,1354,1354,1354,1354,1354,1354,1354,1354,1354,1354,1354,1359,1359,1359,1354,1354,1354,1354,1349,1349,1349,1349,1349,1349,1349,1354,1354,1354,1354,1354,1354,1349,1349,1354,1354,1354,1354,1354,1354,1354,1349,1349,1349,1349,1343,1343,1349,1349,1349,1349,1349,1349,1349,1349,1349,1343,1343,1343,1343,1349,1349,1025,1025,1022,1022,1022,1019,1019,1019,1016,1016,1016,1016,1013,1013,1013,1013,1016,1016,1016,1019,1022,1028,1028,1031,1031,1031,1031,1354,1354,1349,1349,1349,1349,1349,1343,1343,1343,1343,1343,1338,1338,1343,1343,1343,1343,1343,1343,1343,1343,1343,1343,1343,1343,1343,1343,1343,1343,1343,1343,1343,1343,1343,1343,1343,1338,1338,1343,1338,1338,1343,1349,1349,1343,1343,1349,1349,1343,1343,1343,1343,1343,1343,1343,1343,1343,1343,1338,1338,1338,1338,1338,1338,1338,1338,1338,1338,1338,1338,1338,1338,1338,1338,1338,1338,1338,1343,1343,1343,1338,1338,1333,1333,1333,1333,1333,1333,1333,1333,1333,1333,1333,1333,1333,1333,1333,1333,1333,1338,1338,1338,1338,1338,1338,1338,1338,1338,1333,1333,1333,1333,1333,1333,1333,1333,1333,1333,1333,1333,1333,1333,1333,1328,1328,1328,1328,1328,1328,1328,1322,1322,1328,1328,1328,1322,1322,1322,1322,1328,1322,1322,1322,1322,1322,1322,1322,1322,1317,1317,1317,1322,1322,1322,1322,1322,1322,1322,1317,1317,1322,1322,1322,1328,1328,1328,1328,1210,1210,1214,1214,1214,1210,1210,1317,1312,1312,1312,0,0,0,1149,1149,1145,1141,1141,1141,1138,1134,1130,1126,1123,1123,1123,1126,1130,1130,1130,1126,1126,1126,1123,1112,1105,1097,1094,1090,1090,1087,1084,1080,1080,1080,1077,1077,1077,1073,1073,1073,933,930,928,928,928,928,928,928,928,928,930,930,930,930,930,930,933,933,933,933,933,935,935,935,935,935,938,938,938,940,940,940,943,948,951,951,956,956,959,959,959,956,954,951,948,946,940,940,938,938,935,935,933,930,928,928,928,925,925,0,0,0,0,0,0,0,0,0,0,0,0,0,0,0,0,0,0,0,0,0,0,0,0,0,0,0,0,0,0,0,0,0,0,0
0,0,0,0,0,0,0,0,0,0,882,880,880,878,878,878,878,880,880,882,882,882,885,885,887,889,891,891,894,894,894,894,0,0,0,0,0,1349,1349,1365,1365,1365,1365,1365,1365,1370,1365,1365,1365,1365,1365,1365,1365,1365,1365,1365,1365,1370,1370,1370,1370,1370,1370,1370,1370,1370,1370,1370,1370,1365,1365,1365,1365,1365,1365,1365,1365,1365,1365,1365,1365,1365,1365,1365,1365,1365,1365,1365,1365,1365,1365,1359,1359,1365,1365,1359,1359,1359,1354,1354,1349,1349,1349,1349,0,0,0,0,0,0,0,0,0,688,687,686,684,683,682,680,679,679,679,678,676,675,674,672,672,672,672,671,671,650,649,649,648,647,646,644,642,641,640,640,638,637,637,637,637,637,638,640,640,641,641,642,643,647,648,648,650,652,653,655,657,657,658,659,671,672,675,675,675,676,678,679,679,680,680,680,0,0,0,0,0,0,0,0,0,1354,1354,1354,1354,1354,1354,1354,1354,1232,1232,1227,1227,1227,1227,1227,1227,1227,1227,1227,1227,1227,1232,1232,1236,1236,1236,1241,1245,1245,1365,1365,1359,1359,1354,1354,1354,1354,1354,1354,1349,1349,1349,1349,1349,1349,1349,1349,1349,1349,1349,1349,1349,1349,1349,1349,1349,1349,1349,1349,1349,1349,1349,1349,1349,1349,1349,1349,1349,1349,1349,1349,1349,1349,1349,1349,1349,1349,1349,1349,1349,1349,1349,1349,1349,1349,1349,1349,1349,1349,1349,1349,1349,1343,1343,1343,1343,1343,1343,1343,1343,1343,1343,1343,1343,1343,1343,1343,1343,1343,1343,1025,1025,1022,1022,1022,1022,1019,1019,1019,1019,1016,1016,1016,1013,1013,1016,1016,1016,1016,1019,1022,1028,1031,1031,1031,1031,1031,1349,1349,1349,1349,1349,1343,1343,1338,1338,1338,1338,1338,1338,1338,1338,1338,1338,1338,1338,1338,1338,1338,1338,1338,1338,1338,1343,1343,1343,1343,1343,1343,1343,1343,1338,1338,1338,1338,1338,1338,1333,1333,1338,1338,1338,1338,1338,1343,1343,1343,1343,1343,1343,1343,1338,1338,1338,1338,1333,1333,1338,1338,1338,1333,1333,1333,1333,1333,1333,1333,1333,1333,1333,1333,1333,1333,1333,1333,1338,1338,1338,1333,1333,1333,1333,1328,1328,1328,1328,1328,1328,1328,1328,1328,1328,1328,1328,1328,1328,1328,1322,1322,1322,1333,1333,1333,1333,1333,1333,1333,1328,1328,1328,1328,1328,1328,1328,1328,1328,1328,1328,1328,1328,1328,1328,1322,1322,1322,1322,1322,1322,1317,1317,1322,1322,1322,1322,1322,1317,1317,1322,1317,1317,1317,1317,1312,1312,1317,1317,1317,1312,1312,1317,1317,1317,1312,1312,1312,1317,1317,1317,1317,1317,1322,1322,1328,1214,1210,1210,1210,1210,1210,1210,1210,1210,1210,1210,0,0,1202,0,0,0,1149,1145,1141,1141,1138,1138,1134,1130,1126,1126,1126,1126,1126,1130,1130,1126,1123,1123,1119,1115,1108,1105,1097,1094,1087,1084,1084,1080,1080,1077,1077,1077,1077,1077,1073,1073,1073,933,930,930,930,928,928,928,928,928,928,928,930,930,930,930,930,933,933,933,933,935,935,935,935,938,938,938,938,938,940,940,943,946,948,951,954,956,959,959,956,954,954,954,948,946,946,938,938,935,935,933,930,930,928,928,925,925,925,925,0,0,0,0,0,0,0,0,0,0,0,0,0,0,0,0,0,0,0,0,0,0,0,0,0,0,0,0,0,0,0,0,0,0,0
0,0,0,0,0,0,0,0,0,885,882,882,880,878,878,878,878,880,880,882,882,882,885,887,887,889,891,891,894,894,894,894,0,0,0,0,0,1343,1343,1354,1354,1365,1365,1365,1365,1365,1365,1365,1365,1359,1359,1359,1359,1359,1359,1365,1365,1365,1365,1365,1365,1365,1365,1365,1365,1365,1365,1365,1365,1365,1365,1365,1365,1359,1359,1359,1359,1359,1359,1365,1365,1365,1365,1365,1365,1365,1365,1365,1359,1359,1359,1359,1359,1359,1359,1359,1359,1354,1354,1349,1349,1349,1343,1343,0,0,0,0,0,0,0,0,0,0,687,684,684,683,682,680,679,679,679,678,676,675,674,672,672,671,671,671,670,650,650,649,648,648,646,644,642,642,641,640,638,637,637,637,637,638,638,640,640,641,641,642,643,648,648,648,650,653,653,655,657,657,658,659,670,670,674,674,675,676,678,679,679,680,680,0,0,0,0,0,0,0,0,0,1354,1349,1349,1349,1349,1354,1354,1354,1354,1232,1232,1227,1227,1227,1227,1227,1227,1227,1227,1227,1227,1227,1232,1232,1236,1236,1241,1241,1245,1245,1245,1359,1359,1354,1349,1349,1349,1349,1349,1349,1349,1349,1349,1349,1349,1349,1349,1349,1349,1349,1349,1349,1349,1349,1343,1343,1343,1343,1343,1343,1343,1343,1343,1349,1349,1349,1349,1349,1349,1349,1343,1343,1343,1343,1343,1343,1349,1349,1349,1349,1349,1343,1343,1349,1349,1349,1349,1349,1349,1343,1343,1343,1343,1343,1338,1338,1338,1338,1333,1333,1333,1333,1338,1343,1343,1343,1338,1338,1343,1343,0,1025,1025,1025,1022,1022,1022,1022,1022,1022,1019,1019,1016,1016,1016,1016,1016,1016,1016,1016,1019,1025,1028,1031,1031,1031,1031,1031,1343,1343,1343,1343,1343,1338,1338,1338,1338,1338,1338,1333,1333,1333,1333,1333,1338,1338,1338,1338,1338,1338,1338,1333,1333,1333,1333,1338,1338,1338,1338,1333,1333,1338,1333,1333,1333,1333,1333,1333,1333,1333,1333,1333,1333,1333,1333,1333,1333,1338,1333,1333,1338,1338,1338,1333,1333,1333,1333,1333,1333,1333,1328,1328,1328,1328,1328,1328,1328,1328,1328,1328,1328,1328,1328,1333,1333,1333,1333,1333,1333,1333,1333,1328,1328,1328,1328,1322,1322,1322,1322,1322,1322,1322,1322,1322,1322,1322,1322,1322,1317,1317,1317,1322,1317,1317,1328,1328,1328,1322,1322,1322,1322,1322,1322,1328,1328,1328,1328,1328,1322,1322,1322,1322,1322,1322,1322,1317,1317,1317,1317,1317,1317,1317,1317,1317,1317,1317,1312,1312,1317,1312,1312,1312,1312,1312,1312,1312,1312,1312,1312,1312,1312,1312,1312,1312,1312,1312,1312,1312,1312,1312,1312,1317,1317,1322,1214,1210,1210,1210,1210,1210,1210,1206,1206,1206,0,0,0,0,0,0,0,0,1145,1141,1141,1134,1134,1130,1126,1126,1126,1126,1126,1130,1130,1130,1126,1123,1119,1119,1112,1105,1101,1094,1094,1084,1080,1080,1077,1077,1073,1073,1073,1073,1073,1070,1070,1073,933,930,930,930,928,928,928,928,928,928,928,930,930,930,930,930,933,933,933,935,935,935,935,938,938,938,938,940,940,940,943,943,948,951,954,956,959,959,956,956,954,951,948,946,940,938,938,938,935,933,933,930,928,925,925,925,925,923,923,0,0,0,0,0,0,0,0,0,0,0,0,0,0,0,0,0,0,0,0,0,0,0,0,0,0,0,0,0,0,0,0,0,0,0
0,0,0,0,0,0,0,0,0,885,885,882,880,878,878,878,878,880,880,880,882,882,885,887,887,889,891,891,894,894,894,894,896,0,0,0,0,1343,1343,1349,1354,1359,1354,1354,1359,1359,1359,1359,1354,1354,1354,1354,1354,1354,1354,1354,1359,1365,1365,1365,1365,1365,1365,1365,1365,1365,1365,1365,1365,1365,1359,1359,1359,1359,1359,1354,1354,1359,1359,1359,1359,1359,1365,1365,1365,1359,1359,1359,1359,1354,1354,1354,1354,1354,1354,1359,1354,1354,1349,1349,1349,1349,1343,1343,1343,1343,1349,0,0,0,0,0,0,0,0,684,684,683,682,682,680,680,679,678,676,675,674,672,672,671,671,670,670,668,650,649,649,648,647,646,644,643,642,641,640,638,638,638,638,638,638,640,640,641,641,642,644,648,649,649,650,653,653,655,657,657,659,661,667,667,671,672,674,676,676,679,680,680,0,0,0,0,0,0,0,1349,1343,1343,1343,1349,1349,1349,1349,1349,1349,1349,1349,1349,1349,1227,1227,1227,1227,1227,1227,1227,1227,1227,1227,1232,1232,1232,1236,1236,1241,1245,1245,1245,1245,1359,1354,1349,1349,1349,1349,1343,1343,1343,1349,1349,1343,1343,1343,1343,1343,1343,1343,1343,1343,1343,1343,1343,1343,1343,1343,1343,1343,1343,1338,1338,1338,1338,1338,1338,1343,1343,1343,1343,1343,1343,1343,1343,1343,1343,1343,1343,1343,1343,1343,1343,1343,1343,1343,1343,1343,1343,1343,1343,1343,1338,1338,1338,1333,1333,1333,1333,1333,1333,1333,1333,1333,1338,1338,1338,1333,1333,1338,1343,1343,1025,1025,1025,1025,1025,1025,1022,1022,1022,1022,1019,1016,1016,1016,1016,1016,1016,1016,1019,1022,1025,1028,1031,1031,1031,1031,1034,1338,1338,1338,1338,1338,1333,1333,1333,1333,1333,1333,1333,1333,1333,1333,1333,1333,1333,1333,1333,1333,1333,1333,1333,1333,1333,1333,1333,1333,1333,1333,1333,1333,1333,1333,1333,1333,1328,1328,1328,1328,1328,1328,1328,1328,1328,1328,1328,1328,1328,1328,1328,1333,1333,1333,1333,1328,1328,1328,1328,1328,1328,1328,1322,1322,1322,1322,1322,1328,1328,1328,1328,1328,1328,1328,1328,1328,1328,1328,1328,1328,1328,1328,1328,1322,1322,1322,1317,1317,1317,1317,1317,1317,1317,1317,1317,1317,1317,1317,1317,1317,1317,1317,1317,1312,1312,1312,1312,1312,1312,1317,1317,1317,1317,1317,1322,1322,1322,1322,1322,1322,1322,1322,1322,1322,1317,1317,1312,1312,1312,1312,1312,1312,1312,1312,1317,1312,1312,1312,1312,1312,1312,1312,1307,1307,1307,1307,1312,1312,1312,1307,1307,1307,1307,1307,1307,1307,1312,1307,1307,1307,1307,1307,1307,1307,1317,1214,1210,1210,1210,1210,1210,1210,1206,1202,1202,1202,0,0,0,0,0,0,0,1149,1141,1138,1134,1130,1126,1126,1126,1126,1126,1126,1130,1130,1130,1126,1123,1119,1115,1108,1101,1101,1094,1090,1084,1080,1080,1077,1073,1073,1070,1067,1067,1070,935,935,935,933,930,930,930,928,928,928,928,928,928,928,930,930,930,930,930,930,933,933,935,935,935,935,938,938,938,940,940,940,943,943,946,948,956,956,959,959,956,954,951,948,948,946,943,940,938,935,935,933,930,930,928,925,925,923,923,923,920,920,0,0,0,0,0,0,0,0,0,0,0,0,0,0,0,0,0,0,0,0,0,0,0,0,0,0,0,0,0,0,0,0,0,0,0
0,0,0,0,0,0,0,0,0,882,882,882,880,880,880,880,880,880,880,880,882,882,887,887,887,889,891,891,894,894,894,896,896,0,0,0,0,0,1349,1349,1349,1349,1349,1349,1349,1349,1349,1349,1349,1349,1354,1349,1349,1349,1349,1354,1354,1354,1359,1359,1359,1359,1359,1359,1359,1359,1359,1365,1359,1359,1359,1354,1354,1354,1349,1349,1349,1349,1354,1354,1354,1359,1359,1359,1359,1354,1354,1354,1354,1354,1349,1349,1354,1354,1354,1354,1354,1349,1349,1349,1349,1349,1343,1343,1343,1343,1349,1349,1349,0,0,0,0,0,0,0,0,0,683,682,680,680,679,678,675,675,674,672,671,671,670,670,670,658,652,650,649,648,647,646,644,643,642,642,641,640,638,638,638,638,640,640,640,641,641,642,644,648,649,649,650,653,653,655,657,658,659,661,663,666,670,671,672,675,676,679,680,0,0,0,0,0,0,0,1343,1343,1343,1343,1343,1343,1343,1343,1343,1343,1343,1343,1343,1343,1343,1227,1227,1227,1227,1227,1227,1227,1227,1227,1227,1232,1232,1236,1236,1236,1241,1245,1245,1245,1245,1354,1349,1349,1343,1343,1343,1343,1343,1343,1343,1343,1343,1343,1343,1343,1343,1343,1343,1343,1343,1343,1343,1338,1338,1338,1338,1338,1338,1338,1333,1333,1333,1333,1333,1333,1333,1338,1338,1338,1343,1343,1343,1343,1338,1338,1338,1338,1338,1338,1343,1343,1338,1338,1338,1338,1338,1338,1338,1338,1338,1338,1338,1333,1333,1333,1328,1328,1328,1328,1328,1328,1333,1333,1333,1333,1328,1328,1328,1328,1328,1028,1028,1028,1025,1025,1025,1025,1025,1025,1025,1022,1019,1016,1016,1016,1016,1016,1016,1019,1022,1028,1028,1031,1031,1031,1034,1034,1338,1338,1333,1333,1333,1333,1328,1328,1328,1328,1328,1328,1328,1328,1328,1328,1328,1328,1328,1328,1328,1328,1328,1328,1328,1328,1328,1328,1328,1328,1328,1328,1328,1328,1328,1328,1328,1328,1328,1328,1328,1328,1328,1328,1328,1322,1322,1322,1322,1322,1322,1322,1322,1322,1322,1328,1328,1328,1328,1322,1322,1322,1322,1317,1317,1317,1317,1317,1317,1322,1322,1322,1328,1322,1322,1322,1322,1322,1322,1317,1317,1317,1317,1322,1317,1317,1317,1317,1312,1312,1312,1312,1312,1312,1312,1312,1312,1312,1317,1317,1312,1312,1312,1312,1312,1312,1312,1312,1312,1312,1312,1312,1312,1312,1312,1317,1317,1317,1317,1317,1322,1322,1317,1317,1317,1317,1312,1312,1307,1307,1307,1307,1307,1307,1312,1312,1312,1312,1307,1307,1307,1307,1307,1307,1307,1307,1307,1307,1307,1307,1307,1307,1307,1302,1302,1307,1307,1307,1307,1302,1302,1302,1297,1292,1292,1317,1214,1214,1214,1210,1210,1206,1206,1202,1202,1202,1197,1197,0,0,0,0,0,0,1138,1138,1134,1126,1126,1126,1126,1126,1126,1126,1126,1130,1130,1130,1126,1123,1119,1115,1108,1101,1097,1090,1090,1084,1080,1077,1077,1073,1070,1067,1067,1067,1067,935,935,935,933,930,930,930,928,928,928,928,928,928,928,928,928,930,930,930,930,933,933,935,935,935,935,938,938,938,940,940,940,943,943,946,948,956,956,959,956,956,954,951,948,946,943,940,938,935,935,933,930,930,928,925,923,923,920,920,918,918,918,0,0,0,0,0,0,0,0,0,0,0,0,0,0,0,0,0,0,0,0,0,0,0,0,0,0,0,0,0,0,0,0,0,0,0
0,0,0,0,0,0,0,0,0,882,880,880,880,880,880,880,880,880,880,880,882,885,887,889,889,889,891,894,894,894,894,896,898,0,0,0,0,0,1349,1349,1349,1349,1343,1343,1343,1343,1343,1343,1343,1343,1343,1349,1349,1349,1349,1349,1349,1349,1354,1354,1349,1349,1349,1354,1359,1354,1354,1359,1359,1354,1354,1349,1349,1349,1343,1343,1343,1349,1349,1349,1349,1354,1354,1349,1349,1349,1349,1349,1349,1349,1349,1349,1349,1349,1349,1349,1349,1349,1349,1349,1349,1349,1343,1343,1343,1343,1343,1343,1343,1343,0,0,0,0,0,0,0,0,0,0,679,679,678,678,675,675,674,671,671,671,670,668,668,657,654,653,650,649,648,647,646,644,643,643,641,641,640,640,640,640,640,640,640,641,641,642,646,648,649,649,652,653,654,655,657,658,659,661,662,663,667,668,668,675,0,0,0,0,0,0,0,0,0,0,1338,1338,1338,1338,1338,1338,1338,1338,1338,1338,1338,1338,1343,1343,1343,1227,1227,1227,1227,1227,1227,1227,1227,1227,1227,1232,1232,1236,1236,1236,1241,1245,1245,1245,1245,1354,1349,1343,1338,1338,1338,1338,1338,1338,1338,1338,1343,1343,1343,1343,1343,1343,1338,1338,1338,1338,1338,1338,1333,1333,1333,1338,1333,1333,1333,1328,1328,1333,1328,1328,1328,1333,1333,1333,1333,1333,1333,1338,1338,1338,1333,1333,1333,1338,1338,1338,1338,1333,1333,1333,1333,1333,1333,1333,1333,1333,1333,1333,1328,1328,1328,1328,1328,1328,1328,1328,1328,1328,1328,1328,1328,1328,1328,1328,1328,0,1028,1028,1028,1025,1025,1025,1025,1025,1025,1022,1019,1016,1016,1016,1016,1016,1019,1019,1022,1028,1028,1031,1031,1034,1034,1034,1034,1333,1333,1333,1333,1328,1328,1328,1328,1328,1328,1328,1328,1328,1328,1328,1328,1328,1328,1328,1322,1322,1322,1322,1322,1322,1322,1322,1328,1328,1322,1322,1322,1322,1322,1322,1322,1322,1322,1322,1322,1322,1317,1317,1317,1317,1317,1317,1317,1317,1317,1317,1317,1322,1322,1322,1322,1328,1322,1322,1322,1322,1317,1317,1317,1317,1317,1317,1317,1317,1317,1317,1317,1317,1317,1312,1312,1312,1312,1312,1312,1312,1312,1317,1312,1312,1312,1312,1312,1312,1312,1312,1312,1312,1312,1312,1312,1312,1312,1312,1312,1312,1312,1312,1307,1307,1307,1307,1307,1307,1307,1307,1307,1307,1307,1312,1312,1312,1312,1317,1317,1317,1317,1312,1312,1312,1312,1307,1307,1307,1307,1307,1307,1307,1307,1307,1307,1307,1307,1307,1307,1307,1307,1307,1307,1302,1302,1307,1302,1302,1302,1302,1297,1297,1297,1302,1302,1302,1302,1302,1297,1297,1292,1292,1292,1292,1214,1214,1214,1210,1210,1206,1202,1202,1197,1197,1197,1197,1197,0,0,0,0,1134,1130,1130,1130,1123,1123,1123,1123,1126,1126,1126,1126,1130,1130,1126,1123,1119,1115,1112,1108,1097,1094,1087,1084,1080,1077,1077,1073,1070,1067,1063,948,946,940,935,935,935,933,930,930,930,928,928,928,928,928,928,928,928,928,930,930,930,933,933,933,935,935,935,938,938,938,938,940,940,943,943,946,946,948,956,956,959,956,954,951,948,946,943,940,940,938,935,933,930,928,925,925,925,923,920,918,918,915,915,915,0,0,0,0,0,0,0,0,0,0,0,0,0,0,0,0,0,0,0,0,0,0,0,0,0,0,0,0,0,0,0,0,0,0,0
0,0,0,0,0,0,0,0,0,0,880,880,880,880,878,878,880,880,880,880,882,887,887,889,889,889,891,894,894,894,896,898,898,0,0,0,0,0,1349,1349,1349,1343,1338,1338,1338,1338,1338,1343,1338,1338,1343,1343,1343,1343,1343,1343,1343,1343,1349,1349,1343,1343,1343,1343,1349,1349,1349,1354,1354,1349,1349,1343,1343,1343,1343,1343,1343,1343,1343,1343,1343,1343,1343,1343,1343,1343,1343,1343,1343,1343,1343,1343,1349,1349,1349,1349,1349,1349,1349,1343,1343,1343,1343,1343,1338,1338,1343,1338,1338,1338,1338,0,0,0,0,0,0,0,0,0,679,679,675,675,676,675,674,671,671,671,670,668,661,655,655,654,652,650,649,647,646,646,644,643,642,641,641,640,640,640,640,641,641,641,641,642,647,649,649,650,652,653,654,657,657,658,659,659,661,662,667,668,668,0,0,0,0,0,0,0,0,1322,1322,1322,1333,1333,1333,1333,1333,1333,1338,1338,1338,1338,1338,1338,1333,1333,1333,1227,1227,1232,1232,1232,1232,1227,1227,1227,1227,1232,1232,1236,1236,1241,1241,1245,1250,1250,1250,1250,1349,1343,1338,1333,1333,1333,1333,1333,1333,1333,1338,1333,1333,1338,1338,1338,1338,1333,1333,1333,1333,1333,1333,1333,1333,1333,1333,1333,1328,1328,1328,1328,1328,1328,1328,1328,1328,1328,1328,1328,1328,1328,1328,1328,1328,1328,1328,1328,1328,1328,1328,1328,1328,1328,1328,1328,1328,1328,1328,1328,1328,1328,1328,1328,1322,1322,1322,1322,1322,1322,1322,1322,1322,1322,1322,1322,1322,1322,1322,1328,1034,1034,1034,1028,1025,1025,1025,1025,1025,1022,1019,1016,1016,1016,1016,1016,1019,1022,1022,1028,1031,1031,1031,1034,1034,1034,1034,1333,1333,1333,1328,1328,1328,1328,1322,1322,1322,1322,1322,1322,1322,1322,1322,1322,1322,1322,1322,1322,1322,1322,1322,1322,1322,1322,1317,1317,1322,1317,1317,1317,1317,1317,1317,1317,1317,1317,1317,1317,1317,1317,1317,1317,1317,1317,1317,1312,1312,1317,1317,1317,1317,1317,1317,1317,1317,1317,1317,1317,1317,1312,1312,1312,1312,1312,1312,1312,1312,1312,1312,1312,1312,1307,1307,1312,1312,1312,1312,1312,1312,1312,1312,1312,1307,1307,1307,1307,1307,1307,1307,1307,1307,1307,1307,1307,1307,1307,1307,1307,1307,1307,1307,1307,1307,1307,1307,1307,1307,1307,1307,1307,1302,1302,1307,1307,1312,1312,1312,1312,1312,1307,1307,1307,1307,1302,1302,1302,1302,1302,1302,1302,1302,1302,1307,1307,1302,1302,1302,1302,1302,1302,1302,1302,1302,1302,1302,1302,1297,1297,1297,1297,1297,1297,1297,1297,1297,1297,1292,1292,1292,1288,1288,1292,1214,1214,1210,1206,1206,1202,1202,1197,1197,1197,1193,1193,1197,0,0,0,0,1130,1126,1126,1126,1123,1123,1123,1123,1126,1126,1126,1126,1130,1130,1126,1123,1115,1115,1105,1105,1094,1090,1084,1084,1080,1077,1073,1070,1070,1067,1060,946,946,940,935,935,935,935,930,930,930,928,928,928,928,928,928,928,928,930,930,930,930,933,933,933,935,935,935,938,938,938,940,940,943,943,946,946,948,951,956,959,956,954,951,948,946,943,940,938,938,935,933,930,928,928,925,923,923,920,918,915,915,915,913,913,0,0,0,0,0,0,0,0,0,0,0,0,0,0,0,0,0,0,0,0,0,0,0,0,0,0,0,0,0,0,0,0,0,0,0
0,0,0,0,0,0,0,0,0,0,880,880,880,880,878,878,878,880,880,882,882,887,889,889,889,889,891,891,894,896,898,901,901,903,0,906,0,0,1349,1343,1343,1338,1338,1338,1333,1333,1333,1338,1338,1338,1338,1343,1343,1343,1343,1343,1338,1338,1338,1338,1338,1338,1338,1338,1343,1343,1343,1343,1349,1343,1343,1343,1343,1338,1338,1338,1338,1343,1343,1338,1338,1338,1338,1338,1338,1338,1338,1338,1343,1343,1343,1343,1343,1343,1343,1343,1343,1343,1343,1338,1338,1338,1338,1338,1338,1338,1338,1338,1333,1333,1333,1322,1322,1322,0,0,0,0,0,0,0,0,675,675,0,0,674,671,671,671,670,668,657,655,655,654,653,652,650,649,647,646,644,644,643,642,641,641,641,641,641,641,641,641,641,643,648,649,650,650,652,653,654,657,657,658,659,659,661,662,0,0,0,0,0,0,0,0,0,0,0,1322,1322,1322,1328,1328,1333,1328,1328,1333,1333,1333,1333,1333,1333,1333,1333,1328,1328,1232,1232,1232,1232,1232,1232,1232,1232,1232,1232,1232,1232,1236,1236,1241,1241,1245,1250,1250,1250,1250,1343,1338,1333,1333,1328,1328,1328,1328,1328,1328,1333,1328,1328,1333,1333,1333,1328,1328,1328,1328,1328,1328,1328,1328,1328,1328,1328,1328,1328,1328,1328,1328,1328,1322,1322,1328,1328,1328,1328,1328,1328,1328,1322,1322,1322,1322,1328,1328,1328,1328,1328,1328,1328,1328,1328,1328,1328,1328,1328,1322,1322,1322,1322,1322,1322,1322,1322,1322,1322,1322,1322,1322,1322,1322,1317,1317,1322,1322,1328,1328,1044,1038,1038,1028,1028,1025,1025,1025,1025,1025,1022,1019,1016,1016,1016,1016,1019,1022,1028,1028,1031,1031,1031,1034,1034,1034,1034,1322,1322,1322,1328,1322,1322,1322,1322,1317,1317,1317,1317,1317,1317,1317,1317,1317,1322,1322,1317,1317,1317,1317,1317,1317,1317,1317,1312,1312,1312,1312,1312,1312,1312,1312,1312,1312,1312,1312,1317,1317,1312,1312,1312,1312,1312,1312,1312,1312,1312,1312,1312,1312,1312,1312,1312,1312,1312,1312,1312,1312,1312,1312,1312,1312,1312,1312,1312,1307,1307,1307,1307,1307,1307,1307,1307,1307,1307,1307,1307,1307,1307,1307,1307,1307,1302,1302,1302,1302,1307,1307,1307,1307,1302,1302,1302,1307,1307,1307,1307,1307,1307,1307,1307,1307,1302,1302,1302,1302,1302,1302,1302,1302,1302,1302,1302,1302,1302,1297,1297,1307,1307,1302,1302,1302,1302,1297,1297,1297,1302,1297,1297,1297,1297,1297,1302,1302,1297,1297,1302,1297,1297,1302,1297,1297,1297,1297,1297,1297,1297,1297,1292,1292,1292,1292,1292,1292,1292,1288,1288,1288,1288,1288,1288,1292,1214,1210,1210,1206,1206,1202,1197,1197,1197,1193,1193,1193,1197,0,0,0,0,1130,1126,1126,1123,1123,1123,1123,1123,1126,1126,1126,1130,1130,1126,1123,1119,1112,1112,1105,1097,1094,1090,1084,1080,1077,1077,1073,1070,1067,1067,1060,946,946,946,938,935,935,933,930,930,930,930,928,928,928,928,928,928,928,930,930,930,933,933,933,933,935,935,935,935,938,940,940,943,943,943,946,948,951,954,959,959,956,954,948,946,943,940,938,938,938,933,930,928,928,925,925,923,920,918,915,915,913,913,913,913,0,0,0,0,0,0,0,0,0,0,0,0,0,0,0,0,0,0,0,0,0,0,0,0,0,0,0,0,0,0,0,0,0,0,0
0,0,0,0,0,0,0,0,0,0,880,880,880,880,878,878,878,880,880,882,882,887,889,889,889,889,891,891,894,896,901,903,903,903,906,0,0,0,0,1343,1343,1338,1333,1333,1333,1333,1333,1333,1333,1333,1333,1338,1338,1338,1338,1338,1333,1333,1333,1333,1333,1333,1333,1333,1338,1343,1343,1343,1343,1343,1343,1338,1338,1338,1338,1338,1338,1338,1338,1338,1338,1333,1333,1333,1333,1333,1333,1333,1338,1338,1343,1343,1343,1343,1343,1343,1343,1343,1338,1333,1333,1338,1333,1333,1333,1333,1333,1333,1333,1328,1322,1322,1322,1317,1317,0,0,0,0,0,0,0,0,0,0,0,675,674,672,671,671,657,657,657,655,654,653,652,650,650,648,647,646,644,643,642,641,641,641,641,641,641,641,641,642,644,648,649,650,650,652,654,654,657,657,658,659,659,661,662,0,0,0,0,0,0,0,0,0,0,0,1322,1322,1322,1322,1328,1328,1328,1328,1328,1328,1328,1328,1328,1328,1328,1328,1328,1322,1232,1232,1232,1232,1232,1232,1232,1232,1232,1232,1232,1232,1236,1236,1241,1241,1245,1250,1250,1250,1250,1343,1333,1333,1328,1328,1328,1322,1322,1322,1322,1322,1322,1322,1322,1322,1322,1322,1322,1322,1322,1322,1322,1322,1322,1328,1328,1322,1322,1322,1322,1322,1322,1322,1322,1322,1322,1322,1322,1322,1322,1322,1322,1322,1317,1317,1322,1322,1322,1322,1322,1322,1322,1322,1322,1322,1322,1322,1322,1322,1322,1322,1322,1322,1322,1322,1322,1322,1322,1317,1317,1317,1317,1317,1317,1317,1317,1317,1317,1322,1322,1044,1044,1041,1031,1028,1028,1028,1028,1028,1025,1022,1019,1019,1019,1019,1019,1022,1022,1028,1028,1031,1031,1031,1034,1034,1034,1034,1312,1312,1312,1317,1317,1317,1317,1317,1317,1312,1312,1312,1312,1312,1312,1312,1312,1317,1317,1317,1312,1312,1312,1312,1312,1312,1312,1312,1312,1312,1312,1307,1307,1307,1312,1312,1312,1312,1312,1312,1312,1312,1312,1312,1312,1307,1307,1312,1307,1307,1312,1312,1312,1312,1307,1307,1307,1307,1307,1307,1307,1307,1307,1307,1307,1307,1307,1307,1307,1307,1307,1307,1302,1302,1307,1307,1307,1307,1307,1307,1307,1307,1302,1302,1302,1302,1302,1302,1302,1302,1302,1302,1302,1302,1302,1302,1302,1302,1302,1302,1302,1302,1302,1302,1302,1302,1302,1302,1302,1302,1302,1297,1297,1297,1297,1297,1297,1297,1292,1292,1297,1297,1297,1297,1297,1297,1297,1297,1297,1297,1292,1292,1292,1292,1292,1292,1297,1297,1297,1297,1297,1297,1292,1292,1292,1292,1292,1292,1292,1292,1292,1292,1292,1292,1288,1288,1288,1288,1288,1283,1283,1288,1288,1288,1288,1214,1210,1210,1206,1206,1202,1197,1197,1193,1193,1193,1193,1197,0,0,0,0,1126,1126,1126,1123,1123,1123,1123,1123,1126,1126,1126,1126,1126,1123,1123,1119,1108,1105,1105,1097,1090,1087,1080,1080,1077,1073,1070,1070,1067,1063,1060,946,946,1067,938,935,935,933,933,933,930,930,930,930,928,928,928,930,930,930,930,930,933,933,933,933,935,935,935,935,938,940,940,943,943,946,948,948,954,956,959,959,959,954,948,943,940,938,938,938,935,933,930,928,925,925,923,920,918,918,915,913,913,908,908,0,0,0,0,0,0,0,0,0,0,0,0,0,0,0,0,0,0,0,0,0,0,0,0,0,0,0,0,0,0,0,0,0,0,0,0
0,0,0,0,0,0,0,0,0,882,880,880,880,880,880,878,878,880,880,880,885,889,889,889,889,891,891,894,894,898,903,903,903,903,903,0,0,0,0,1343,1343,1338,1333,1333,1333,1328,1328,1328,1328,1328,1333,1333,1333,1333,1333,1338,1333,1333,1333,1333,1333,1328,1328,1328,1328,1328,1328,1328,1333,1333,1338,1338,1338,1333,1333,1333,1333,1333,1333,1333,1333,1333,1333,1333,1333,1333,1333,1333,1333,1333,1338,1338,1338,1343,1343,1338,1338,1338,1338,1333,1333,1328,1328,1328,1333,1333,1333,1328,1328,1328,1322,1322,1322,1317,1312,1312,0,0,0,0,0,0,0,0,0,0,0,0,0,0,0,0,657,657,655,655,653,652,650,650,648,648,647,646,644,643,642,641,641,641,641,641,641,641,642,647,648,649,650,652,653,654,654,657,658,658,659,659,661,662,0,0,0,0,0,0,0,0,0,0,0,1322,1322,1322,1322,1322,1322,1322,1322,1322,1328,1328,1328,1328,1322,1322,1322,1322,1317,1317,1241,1236,1236,1236,1236,1232,1232,1232,1232,1232,1236,1236,1241,1241,1245,1245,1250,1250,1250,1250,1328,1328,1322,1322,1322,1322,1322,1322,1317,1317,1317,1317,1317,1317,1317,1317,1317,1317,1322,1322,1322,1322,1322,1322,1322,1322,1322,1322,1322,1322,1322,1317,1317,1317,1317,1322,1322,1317,1317,1317,1317,1317,1317,1312,1312,1317,1317,1317,1317,1317,1317,1322,1317,1317,1317,1322,1322,1322,1322,1317,1317,1317,1317,1317,1317,1317,1317,1317,1312,1312,1312,1312,1312,1312,1312,1307,1307,1307,1312,1312,1044,1044,1044,1034,1034,1031,1031,1028,1028,1025,1025,1022,1022,1022,1022,1022,1022,1025,1028,1028,1031,1031,1031,1034,1034,1034,1034,1307,1307,1307,1307,1312,1312,1312,1312,1312,1312,1312,1312,1312,1312,1312,1312,1307,1307,1312,1312,1312,1312,1312,1312,1312,1312,1307,1307,1307,1307,1307,1307,1307,1307,1307,1307,1307,1307,1307,1307,1307,1307,1307,1307,1307,1307,1307,1307,1307,1307,1307,1307,1307,1307,1307,1307,1307,1307,1307,1307,1307,1307,1307,1307,1307,1302,1302,1302,1302,1302,1302,1302,1302,1302,1302,1302,1302,1302,1307,1302,1302,1302,1297,1297,1297,1297,1297,1297,1297,1297,1297,1297,1297,1297,1297,1297,1297,1297,1297,1297,1297,1297,1297,1297,1297,1297,1297,1297,1297,1297,1297,1292,1292,1292,1292,1292,1292,1292,1292,1292,1292,1292,1292,1292,1292,1292,1292,1292,1292,1292,1292,1292,1292,1292,1292,1292,1292,1292,1292,1292,1292,1292,1292,1292,1292,1288,1288,1288,1288,1288,1288,1288,1288,1288,1288,1283,1283,1283,1283,1278,1278,1283,1283,1283,1283,1283,1210,1210,1206,1206,1206,1202,1197,1193,1193,1193,1193,1197,0,0,1130,1130,1126,1126,1126,1123,1123,1123,1123,1123,1126,1126,1126,1123,1123,1123,1119,1108,1108,1105,1105,1094,1087,1084,1080,1077,1073,1070,1070,1067,1063,1060,1057,1050,1050,938,938,935,935,935,933,933,933,930,930,930,930,928,928,930,930,930,930,930,933,933,933,933,935,935,935,935,938,938,943,943,946,946,948,951,956,956,959,959,956,948,943,940,938,938,938,935,933,930,928,925,925,925,923,920,918,918,915,913,913,908,908,0,0,0,0,0,0,0,0,0,0,0,0,0,0,0,0,0,0,0,0,0,0,0,0,0,0,0,0,0,0,0,0,0,0,0,0
0,0,0,0,0,0,0,0,0,882,882,882,885,880,880,885,882,880,880,880,887,887,889,889,889,891,891,894,894,898,903,903,903,903,903,0,0,0,0,1338,1338,1333,1328,1328,1328,1328,1328,1328,1328,1328,1328,1328,1328,1328,1328,1333,1328,1328,1328,1328,1328,1328,1328,1328,1322,1322,1322,1322,1322,1322,1328,1328,1328,1333,1333,1333,1333,1333,1333,1328,1328,1328,1328,1328,1328,1328,1328,1328,1328,1328,1333,1333,1333,1338,1338,1333,1333,1333,1333,1328,1328,1328,1328,1328,1328,1328,1328,1328,1328,1328,1322,1322,1317,1317,1312,1312,0,0,0,0,0,0,0,0,0,0,0,0,0,0,0,0,0,657,655,655,653,653,652,650,649,648,647,646,644,643,642,641,641,641,641,641,641,642,643,647,648,649,650,652,652,653,654,657,658,658,659,661,661,662,0,0,0,0,0,0,0,0,0,0,0,1312,1312,1317,1322,1322,1322,1322,1322,1322,1322,1322,1322,1322,1322,1322,1322,1322,1312,1312,1245,1245,1245,1245,1236,1236,1236,1232,1232,1236,1236,1236,1241,1241,1245,1245,1250,1250,1250,1250,1322,1322,1322,1322,1317,1317,1317,1317,1312,1312,1312,1312,1312,1312,1312,1312,1312,1312,1317,1317,1317,1317,1317,1317,1317,1317,1317,1317,1317,1317,1317,1312,1312,1312,1312,1312,1317,1312,1312,1312,1312,1312,1312,1307,1307,1312,1312,1312,1317,1312,1312,1317,1317,1312,1312,1312,1312,1312,1317,1312,1312,1312,1312,1312,1307,1307,1307,1307,1307,1307,1307,1312,1307,1307,1307,1307,1307,1307,1307,1307,1044,1044,1038,1034,1034,1031,1031,1031,1028,1025,1025,1025,1025,1022,1022,1022,1025,1025,1028,1028,1031,1031,1034,1034,1034,1034,1034,1302,1302,1302,1307,1307,1307,1307,1307,1307,1307,1307,1307,1307,1307,1307,1307,1307,1307,1307,1307,1307,1307,1307,1307,1307,1307,1307,1307,1307,1307,1302,1302,1302,1302,1302,1302,1307,1307,1307,1307,1307,1307,1307,1307,1302,1302,1302,1302,1302,1302,1297,1297,1302,1302,1297,1297,1302,1302,1302,1302,1302,1302,1302,1302,1302,1302,1302,1297,1297,1297,1297,1297,1297,1297,1297,1297,1297,1297,1302,1302,1297,1292,1292,1292,1292,1292,1292,1292,1292,1292,1292,1292,1292,1292,1292,1292,1292,1292,1292,1292,1292,1292,1292,1292,1292,1292,1292,1292,1292,1292,1292,1288,1288,1292,1292,1292,1292,1292,1292,1292,1292,1292,1288,1288,1288,1288,1288,1288,1288,1288,1288,1288,1288,1288,1288,1288,1288,1288,1288,1288,1288,1288,1288,1288,1288,1288,1288,1288,1288,1288,1283,1283,1283,1283,1283,1283,1283,1278,1278,1278,1278,1278,1283,1283,1283,1283,1214,1214,1210,1206,1206,1202,1202,1197,1197,1197,1202,1202,0,0,1134,1130,1130,1130,1130,1123,1123,1123,1123,1123,1126,1126,1126,1123,1119,1115,1108,1108,1105,1105,1101,1090,1084,1080,1077,1077,1073,1070,1067,1067,1063,1057,1054,1050,1050,938,935,935,935,935,933,933,933,933,933,933,930,930,930,930,930,930,930,933,933,933,935,935,935,935,938,938,938,938,943,943,946,948,951,954,956,956,956,956,954,946,943,940,938,938,935,933,933,930,928,925,925,923,920,918,918,915,915,913,910,908,908,0,0,0,0,0,0,0,0,0,0,0,0,0,0,0,0,0,0,0,0,0,0,0,0,0,0,0,0,0,0,0,0,0,0,0,0
0,0,0,0,0,0,0,0,0,0,885,885,885,882,882,885,885,885,885,885,887,887,889,889,889,891,891,894,896,901,903,903,903,903,903,906,0,0,0,1338,1328,1328,1328,1328,1322,1322,1322,1322,1322,1322,1322,1322,1322,1322,1322,1328,1328,1328,1328,1328,1322,1322,1322,1322,1322,1322,1322,1322,1322,1322,1322,1322,1328,1328,1328,1328,1328,1328,1328,1328,1328,1328,1328,1328,1328,1328,1322,1322,1322,1322,1328,1328,1328,1328,1328,1328,1328,1328,1328,1328,1322,1322,1322,1322,1328,1328,1328,1322,1322,1322,1317,1317,1317,1317,1312,1312,0,0,0,0,0,0,0,0,0,0,0,0,0,0,0,0,0,657,657,657,654,654,653,652,649,649,648,647,644,643,642,641,641,641,641,641,641,642,643,647,648,649,650,652,652,653,654,657,658,659,659,661,662,663,664,666,0,0,0,0,0,0,0,0,0,1312,1312,1317,1317,1317,1317,1317,1317,1317,1317,1317,1317,1317,1317,1317,1317,1317,1312,1307,1307,1245,1245,1245,1245,1241,1241,1236,1236,1236,1236,1236,1241,1245,1245,1245,1250,1250,1250,1250,1317,1312,1312,1317,1312,1312,1312,1312,1307,1307,1307,1312,1307,1307,1307,1312,1312,1312,1312,1312,1312,1312,1312,1312,1312,1312,1312,1312,1312,1312,1312,1312,1312,1312,1312,1312,1312,1312,1312,1312,1307,1307,1307,1307,1307,1307,1307,1307,1307,1312,1312,1312,1312,1307,1307,1307,1307,1307,1307,1302,1302,1302,1307,1302,1302,1302,1307,1307,1307,1307,1307,1307,1307,1307,1307,1307,1307,1307,1302,1302,1307,1044,1038,1038,1034,1034,1034,1031,1031,1028,1025,1025,1025,1025,1025,1025,1025,1025,1028,1028,1031,1031,1038,1038,1038,1038,1038,1302,1302,1302,1302,1302,1302,1302,1307,1307,1302,1297,1297,1297,1297,1297,1297,1302,1302,1302,1302,1302,1307,1307,1307,1307,1302,1302,1302,1302,1302,1297,1297,1297,1297,1297,1297,1302,1302,1302,1302,1302,1302,1302,1302,1302,1297,1297,1297,1297,1297,1292,1292,1297,1297,1297,1297,1297,1297,1297,1297,1297,1297,1297,1297,1297,1297,1292,1292,1292,1292,1292,1292,1292,1292,1292,1292,1292,1292,1297,1297,1297,1292,1292,1292,1292,1292,1292,1292,1292,1292,1292,1292,1288,1288,1288,1292,1288,1288,1288,1288,1288,1288,1288,1292,1292,1288,1288,1288,1288,1288,1288,1288,1288,1288,1288,1288,1292,1288,1288,1292,1288,1288,1288,1288,1288,1288,1283,1283,1283,1283,1283,1283,1283,1283,1283,1288,1288,1288,1288,1288,1283,1283,1283,1283,1283,1283,1283,1283,1283,1283,1283,1283,1283,1283,1283,1278,1278,1278,1278,1273,1273,1273,1278,1273,1273,1273,1232,1223,1214,1210,1210,1206,1202,1197,1197,1197,1202,1202,1134,0,1134,1130,1130,1130,1130,1130,1126,1126,1126,1126,1126,1126,1123,1119,1115,1112,1108,1105,1105,1101,1094,1090,1084,1080,1077,1077,1070,1067,1067,1063,1060,1057,1050,1047,1047,935,935,933,933,935,935,935,933,933,933,933,933,933,933,930,930,933,933,933,935,935,935,935,935,935,938,938,940,940,943,943,946,948,954,954,956,956,956,956,954,946,940,938,938,935,935,933,930,928,928,925,923,923,920,918,915,915,913,913,910,908,908,0,0,0,0,0,0,0,0,0,0,0,0,0,0,0,0,0,0,0,0,0,0,0,0,0,0,0,0,0,0,0,0,0,0,0,0
0,0,0,0,0,0,0,0,0,0,0,885,885,885,885,885,885,885,885,885,887,887,889,891,891,891,894,896,898,901,903,903,903,903,903,903,0,0,0,0,1322,1322,1322,1322,1322,1322,1322,1322,1317,1317,1317,1317,1317,1317,1322,1322,1322,1322,1322,1322,1322,1322,1322,1322,1322,1322,1322,1322,1322,1322,1317,1317,1322,1322,1322,1322,1322,1322,1322,1322,1322,1322,1322,1322,1322,1322,1322,1322,1322,1322,1322,1322,1322,1322,1328,1322,1322,1322,1322,1322,1322,1317,1317,1317,1322,1322,1322,1317,1317,1317,1317,1317,1317,1317,1312,1312,0,0,0,0,0,0,0,0,0,0,0,0,0,0,0,0,0,658,658,658,655,655,654,653,652,649,649,648,646,644,642,642,642,642,642,641,641,642,644,647,648,649,650,652,652,653,654,657,658,659,661,662,663,664,664,666,0,0,0,0,0,0,0,0,0,0,1307,1307,1312,1312,1312,1312,1312,1312,1312,1312,1312,1312,1312,1312,1312,1312,1307,1307,1307,1250,1245,1245,1245,1245,1241,1241,1241,1241,1241,1241,1245,1245,1245,1245,1250,1250,1250,1250,1307,1307,1307,1312,1312,1312,1307,1307,1307,1307,1307,1307,1307,1307,1307,1307,1307,1307,1307,1307,1307,1307,1307,1307,1307,1307,1307,1307,1307,1307,1307,1307,1307,1307,1307,1307,1307,1307,1307,1307,1307,1307,1307,1302,1302,1307,1307,1307,1307,1307,1307,1302,1302,1302,1297,1297,1302,1302,1302,1297,1297,1297,1297,1292,1292,1297,1302,1302,1302,1302,1307,1307,1307,1307,1307,1302,1302,1302,1302,1302,1307,1038,1038,1038,1034,1034,1034,1034,1031,1028,1028,1025,1025,1025,1025,1025,1025,1025,1028,1031,1031,1034,1038,1038,1038,1038,1041,1302,1302,1297,1297,1297,1297,1297,1297,1297,1297,1292,1292,1292,1292,1292,1292,1292,1292,1292,1297,1297,1302,1302,1302,1302,1302,1297,1297,1297,1292,1292,1292,1292,1292,1292,1292,1292,1292,1297,1297,1297,1297,1297,1297,1297,1292,1292,1292,1292,1292,1292,1292,1292,1292,1292,1292,1292,1292,1292,1292,1292,1292,1292,1292,1292,1292,1292,1292,1292,1292,1292,1292,1288,1288,1288,1288,1288,1288,1292,1292,1292,1288,1288,1288,1292,1288,1288,1288,1288,1288,1288,1288,1288,1288,1288,1288,1288,1288,1288,1288,1288,1288,1288,1288,1288,1288,1288,1288,1288,1288,1288,1283,1283,1288,1288,1288,1288,1288,1288,1288,1288,1288,1288,1288,1288,1283,1283,1283,1278,1278,1278,1278,1273,1273,1278,1283,1283,1283,1283,1283,1278,1278,1278,1278,1278,1278,1278,1278,1278,1278,1278,1278,1278,1278,1278,1273,1273,1273,1273,1273,1273,1273,1273,1268,1268,1250,1232,1232,1227,1214,1210,1206,1202,1202,1202,1202,1202,1202,0,1138,1138,1134,1134,1130,1126,1126,1126,1126,1126,1126,1126,1126,1119,1119,1115,1112,1108,1105,1105,1101,1090,1087,1084,1080,1077,1073,1070,1067,1067,1063,1060,1054,1050,1047,930,930,930,930,930,933,933,933,933,933,933,933,933,933,933,933,933,933,933,935,935,935,935,935,935,938,938,938,940,943,943,943,946,951,954,956,956,959,956,954,948,943,940,938,938,935,935,933,930,928,928,925,923,920,918,918,915,915,913,913,908,908,908,0,0,0,0,0,0,0,0,0,0,0,0,0,0,0,0,0,0,0,0,0,0,0,0,0,0,0,0,0,0,0,0,0,0,0,0
0,0,0,0,0,0,0,0,0,0,0,885,885,885,885,885,885,885,885,885,887,887,889,891,891,891,894,896,898,903,903,903,903,903,903,903,0,0,0,0,1317,1317,1317,1317,1317,1317,1317,1317,1312,1312,1312,1312,1312,1312,1317,1317,1317,1317,1317,1317,1317,1317,1317,1317,1317,1317,1317,1317,1317,1317,1312,1312,1317,1317,1317,1322,1317,1317,1317,1317,1317,1312,1312,1312,1317,1317,1317,1317,1317,1317,1322,1322,1322,1322,1322,1322,1322,1317,1317,1317,1317,1312,1312,1312,1312,1312,1312,1312,1312,1312,1317,1317,1317,1317,1312,1312,0,0,0,0,0,0,0,0,0,0,0,0,0,0,0,0,0,0,659,659,657,655,654,653,652,650,649,649,647,644,643,642,642,642,642,642,642,643,646,647,648,649,650,652,652,653,655,658,658,659,662,663,664,664,664,666,0,0,0,0,0,0,0,0,0,1302,1302,1307,1307,1312,1307,1307,1312,1307,1307,1307,1307,1307,1307,1307,1307,1307,1307,1302,1297,1268,1250,1250,1250,1245,1245,1241,1241,1241,1241,1241,1245,1245,1245,1250,1250,1250,1250,1250,1264,1302,1302,1302,1307,1307,1307,1307,1307,1307,1307,1307,1307,1307,1307,1307,1302,1302,1307,1307,1307,1307,1307,1307,1307,1307,1307,1307,1302,1302,1302,1302,1302,1302,1302,1302,1302,1302,1302,1307,1302,1302,1302,1302,1302,1302,1302,1302,1302,1302,1302,1297,1297,1297,1297,1297,1297,1297,1297,1292,1292,1292,1292,1292,1292,1292,1292,1292,1302,1302,1302,1302,1302,1302,1302,1302,1302,1302,1302,1302,1302,1038,1038,1038,1034,1034,1034,1034,1031,1028,1028,1028,1028,1025,1025,1025,1025,1028,1028,1031,1031,1034,1038,1041,1041,1041,1041,1297,1297,1292,1292,1297,1292,1292,1292,1292,1292,1292,1292,1292,1292,1292,1292,1292,1288,1288,1292,1292,1292,1292,1297,1297,1297,1297,1292,1292,1292,1292,1288,1288,1292,1292,1292,1292,1292,1292,1292,1292,1292,1292,1292,1292,1292,1288,1288,1288,1288,1288,1288,1288,1288,1288,1288,1288,1288,1292,1292,1292,1292,1288,1288,1288,1288,1288,1288,1288,1288,1288,1288,1288,1288,1288,1283,1283,1278,1278,1278,1278,1283,1283,1283,1288,1288,1288,1288,1288,1288,1288,1288,1283,1283,1288,1288,1288,1288,1283,1283,1283,1283,1283,1283,1283,1283,1283,1283,1283,1283,1283,1278,1278,1283,1283,1283,1283,1283,1283,1283,1283,1283,1278,1278,1278,1278,1278,1278,1278,1278,1278,1278,1273,1273,1273,1273,1273,1273,1278,1278,1278,1278,1278,1273,1273,1278,1278,1278,1273,1273,1273,1273,1273,1273,1273,1273,1273,1268,1268,1268,1268,1268,1268,1268,1264,1241,1236,1236,1232,1214,1210,1206,1202,1202,1202,1202,1202,1202,0,1138,1138,1134,1134,1130,1126,1126,1126,1126,1126,1126,1126,1123,1119,1119,1115,1112,1108,1105,1101,1097,1090,1087,1080,1077,1073,1073,1070,1067,1063,1063,1054,1054,1050,928,928,928,930,930,930,933,933,933,933,933,933,933,933,933,933,933,935,935,935,935,935,935,935,938,938,938,940,940,943,943,943,946,948,951,956,956,956,956,956,951,948,943,940,938,938,935,935,930,930,928,925,923,923,920,918,918,915,915,913,913,908,908,908,0,0,0,0,0,0,0,0,0,0,0,0,0,0,0,0,0,0,0,0,0,0,0,0,0,0,0,0,0,0,0,0,0,0,0,0
0,0,0,0,0,0,0,0,0,0,0,887,887,887,885,885,885,885,885,885,887,887,891,891,891,894,894,896,898,901,903,903,903,903,903,903,0,0,0,0,1307,1307,1312,1312,1312,1312,1312,1312,1312,1307,1307,1307,1307,1312,1312,1312,1317,1317,1317,1317,1312,1312,1312,1312,1312,1312,1317,1312,1312,1312,1312,1312,1312,1312,1317,1317,1317,1317,1317,1312,1312,1307,1307,1307,1307,1307,1307,1307,1312,1312,1317,1317,1312,1312,1317,1312,1312,1312,1312,1312,1312,1312,1312,1312,1307,1307,1312,1307,1307,1307,1312,1312,1312,1312,1317,1317,0,0,0,0,0,0,0,0,0,0,0,0,0,0,0,0,0,662,661,661,659,657,655,654,653,652,650,649,648,646,644,644,643,643,643,643,643,646,647,647,648,649,650,652,652,653,655,658,658,659,663,663,664,664,666,666,0,0,0,0,0,0,0,0,0,1302,1302,1302,1307,1307,1307,1307,1307,1307,1307,1307,1307,1307,1307,1307,1302,1302,1302,1297,1292,1268,1250,1250,1250,1250,1245,1245,1241,1241,1241,1245,1245,1245,1250,1250,1255,1255,1255,1255,1264,1297,1302,1302,1302,1302,1302,1302,1307,1307,1307,1302,1302,1302,1302,1302,1302,1302,1302,1302,1302,1307,1302,1302,1302,1302,1302,1302,1302,1302,1302,1302,1302,1302,1302,1302,1302,1302,1302,1302,1302,1302,1302,1302,1302,1297,1297,1297,1297,1297,1297,1292,1292,1297,1292,1292,1292,1292,1292,1292,1292,1292,1288,1288,1288,1288,1288,1288,1288,1292,1292,1297,1302,1302,1302,1302,1297,1297,1297,1297,1297,1041,1038,1038,1034,1034,1034,1034,1034,1031,1031,1028,1028,1028,1028,1028,1028,1028,1031,1031,1034,1041,1041,1041,1041,1041,1041,1292,1292,1292,1292,1292,1292,1292,1292,1292,1292,1292,1292,1292,1292,1292,1288,1288,1288,1288,1288,1288,1288,1288,1288,1292,1292,1292,1292,1292,1292,1288,1288,1288,1288,1288,1288,1288,1288,1288,1288,1288,1288,1288,1288,1288,1288,1283,1283,1283,1283,1283,1283,1283,1283,1283,1288,1288,1288,1288,1288,1288,1288,1288,1283,1283,1283,1283,1283,1283,1283,1283,1283,1283,1283,1283,1283,1278,1278,1278,1278,1278,1278,1278,1278,1288,1288,1283,1283,1283,1283,1283,1283,1278,1278,1283,1283,1283,1283,1283,1283,1278,1278,1278,1278,1278,1278,1273,1273,1273,1273,1273,1273,1273,1278,1278,1278,1278,1278,1278,1278,1278,1278,1273,1273,1273,1273,1273,1273,1273,1273,1273,1273,1268,1268,1268,1268,1268,1273,1273,1273,1273,1273,1273,1273,1273,1273,1273,1273,1273,1273,1273,1273,1273,1273,1268,1268,1268,1268,1268,1268,1268,1268,1264,1264,1255,1241,1236,1236,1232,1227,1219,1210,1206,1202,1202,1202,1202,1227,0,1134,1134,1134,1130,1130,1126,1126,1126,1123,1123,1123,1119,1119,1119,1119,1112,1108,1105,1105,1101,1094,1087,1084,1080,1073,1070,1070,1067,1067,1063,1063,1054,1050,928,928,928,928,928,930,930,933,933,933,933,933,933,933,933,933,935,935,935,935,935,935,935,938,938,938,940,940,940,943,943,943,943,946,948,954,956,956,956,956,954,948,946,940,940,938,938,935,933,930,928,928,925,923,920,918,918,918,915,915,913,908,908,906,906,0,0,0,0,0,0,0,0,0,0,0,0,0,0,0,0,0,0,0,0,0,0,0,0,0,0,0,0,0,0,0,0,0,0,0,0
0,0,0,0,0,0,0,0,0,0,891,889,887,887,887,887,885,885,885,885,889,889,891,891,891,894,894,896,898,901,903,903,903,903,903,903,0,0,0,1307,1307,1307,1307,1307,1307,1307,1307,1307,1307,1307,1307,1307,1307,1307,1307,1307,1312,1312,1307,1307,1307,1307,1307,1312,1312,1312,1312,1312,1312,1312,1307,1307,1307,1307,1307,1307,1307,1307,1312,1307,1307,1307,1307,1307,1307,1307,1307,1307,1307,1307,1307,1307,1307,1307,1307,1307,1307,1307,1307,1307,1307,1307,1307,1307,1307,1307,1307,1307,1307,1307,1307,1307,1307,1312,1312,1063,1063,1063,1063,1060,1060,0,0,0,0,0,0,0,0,0,0,0,0,662,661,661,658,657,655,654,653,652,652,649,649,647,646,644,644,644,644,644,644,646,647,647,648,649,650,652,653,654,655,658,659,661,664,664,666,666,666,666,0,0,0,0,0,0,0,0,0,1302,1302,1302,1302,1302,1302,1302,1302,1302,1302,1302,1302,1302,1302,1302,1302,1302,1297,1292,1288,1278,1259,1255,1255,1250,1250,1245,1241,1241,1241,1245,1245,1245,1250,1250,1255,1255,1255,1259,1283,1292,1297,1297,1302,1302,1297,1297,1297,1297,1297,1297,1302,1302,1302,1302,1302,1302,1302,1302,1302,1302,1297,1297,1302,1302,1302,1302,1297,1297,1297,1297,1297,1297,1297,1302,1302,1302,1302,1302,1302,1297,1297,1297,1297,1292,1292,1292,1292,1292,1292,1288,1288,1288,1288,1288,1288,1288,1288,1288,1288,1288,1288,1288,1288,1288,1288,1288,1288,1288,1288,1292,1292,1292,1292,1297,1297,1297,1292,1292,1288,1041,1038,1038,1038,1034,1034,1038,1034,1031,1031,1028,1028,1028,1028,1028,1028,1028,1031,1031,1034,1041,1041,1041,1041,1044,1292,1292,1292,1288,1288,1288,1288,1288,1288,1288,1288,1288,1288,1288,1288,1288,1288,1288,1288,1288,1288,1288,1288,1288,1288,1288,1288,1288,1288,1288,1288,1288,1288,1288,1283,1283,1283,1283,1278,1278,1283,1283,1283,1283,1283,1283,1283,1283,1283,1283,1283,1283,1283,1283,1283,1283,1283,1283,1283,1283,1283,1283,1283,1283,1283,1283,1283,1278,1278,1278,1278,1283,1283,1278,1278,1278,1278,1278,1273,1273,1273,1273,1273,1273,1273,1273,1273,1273,1278,1278,1278,1278,1278,1278,1278,1278,1278,1278,1278,1278,1278,1278,1278,1278,1273,1273,1273,1273,1273,1268,1268,1273,1273,1273,1273,1273,1273,1273,1273,1273,1273,1273,1273,1273,1273,1273,1268,1268,1268,1268,1268,1268,1268,1268,1268,1268,1268,1268,1268,1268,1268,1268,1268,1268,1273,1268,1268,1268,1273,1273,1268,1268,1268,1268,1268,1268,1268,1268,1264,1264,1264,1264,1264,1259,1259,1250,1241,1236,1236,1236,1232,1232,1214,1210,1202,1202,1227,1227,1227,1236,1134,1134,1134,1130,1123,1123,1123,1126,1123,1123,1119,1119,1119,1115,1112,1112,1108,1105,1101,1097,1090,1087,1080,1077,1073,1070,1067,1067,1067,1063,1063,1057,1050,928,928,928,928,928,930,930,930,933,933,933,933,933,933,933,933,935,935,935,935,935,935,938,938,938,940,940,943,943,943,943,946,946,946,951,954,956,956,954,954,951,948,946,940,938,938,938,933,933,928,928,925,925,923,920,918,918,915,915,915,913,908,908,906,906,0,0,0,0,0,0,0,0,0,0,0,0,0,0,0,0,0,0,0,0,0,0,0,0,0,0,0,0,0,0,0,0,0,0,0,0
0,0,0,0,0,0,0,0,0,0,891,889,889,889,887,885,885,885,885,887,887,889,889,891,894,894,896,896,898,901,903,903,903,903,903,903,0,0,0,0,1307,1307,1302,1302,1307,1307,1307,1307,1307,1307,1307,1307,1307,1307,1307,1307,1307,1307,1307,1307,1307,1307,1307,1307,1307,1307,1312,1312,1312,1307,1307,1307,1302,1302,1302,1302,1302,1302,1302,1302,1302,1302,1302,1302,1302,1302,1302,1302,1302,1302,1302,1302,1302,1302,1302,1307,1307,1302,1302,1302,1302,1302,1302,1302,1307,1307,1307,1307,1307,1307,1307,1307,1307,1307,1060,1060,1060,1057,1057,1057,1057,1060,1063,0,0,0,0,0,0,0,0,0,0,662,661,661,658,657,655,654,654,653,652,650,649,649,647,646,644,644,644,644,644,646,647,648,649,649,650,652,653,654,658,658,659,662,664,664,666,666,666,666,0,0,0,0,0,0,0,0,0,1292,1292,1292,1292,1297,1297,1297,1302,1302,1302,1302,1302,1302,1302,1302,1297,1297,1292,1292,1288,1278,1268,1259,1255,1250,1250,1245,1241,1241,1241,1245,1245,1245,1250,1250,1255,1255,1255,1264,1273,1288,1292,1292,1297,1297,1297,1297,1297,1292,1292,1292,1297,1297,1297,1297,1297,1297,1297,1297,1297,1297,1297,1297,1297,1297,1297,1297,1292,1292,1292,1292,1292,1297,1297,1297,1297,1297,1297,1297,1297,1297,1292,1292,1292,1288,1288,1288,1288,1288,1288,1288,1288,1288,1288,1288,1288,1288,1288,1288,1288,1288,1288,1288,1288,1283,1283,1283,1283,1283,1283,1288,1283,1283,1283,1283,1283,1278,1278,1283,1283,1288,1041,1038,1038,1038,1038,1038,1038,1034,1031,1031,1028,1028,1028,1028,1028,1031,1031,1034,1038,1041,1044,1044,1047,1050,1292,1292,1292,1288,1288,1288,1288,1288,1288,1283,1283,1288,1288,1288,1288,1283,1283,1283,1283,1283,1283,1283,1283,1283,1283,1288,1283,1283,1283,1283,1283,1278,1278,1283,1283,1283,1283,1278,1278,1278,1278,1278,1278,1278,1278,1278,1278,1278,1278,1278,1278,1278,1278,1278,1278,1278,1278,1278,1278,1278,1278,1278,1283,1278,1278,1278,1278,1278,1273,1273,1278,1278,1278,1278,1278,1278,1278,1273,1273,1273,1273,1273,1273,1273,1273,1273,1273,1273,1273,1273,1273,1273,1273,1273,1273,1273,1273,1273,1273,1273,1273,1273,1273,1273,1273,1268,1268,1268,1268,1268,1268,1268,1268,1268,1268,1268,1268,1268,1268,1268,1268,1268,1268,1268,1268,1268,1268,1268,1268,1268,1268,1268,1264,1264,1264,1264,1264,1264,1268,1264,1264,1268,1264,1264,1264,1264,1264,1268,1268,1268,1264,1264,1264,1268,1264,1259,1259,1259,1259,1259,1259,1259,1259,1255,1255,1245,1241,1236,1236,1232,1232,1232,1227,1227,1227,1227,1227,1227,1232,1236,1236,1134,1134,1130,1123,1123,1123,1123,1123,1119,1115,1115,1112,1112,1108,1108,1105,1101,1101,1097,1087,1084,1080,1073,1070,1067,1067,1067,1063,1063,1060,1060,928,928,928,928,928,928,930,930,930,933,933,933,933,933,933,933,933,935,935,935,935,935,938,938,938,938,940,943,943,946,946,946,946,946,946,951,954,956,954,954,951,948,946,946,940,938,938,938,930,930,928,925,925,923,920,920,918,918,915,915,915,913,908,908,906,906,0,0,0,0,0,0,0,0,0,0,0,0,0,0,0,0,0,0,0,0,0,0,0,0,0,0,0,0,0,0,0,0,0,0,0,0
0,0,0,0,0,0,0,0,0,0,894,891,891,891,889,885,885,885,885,887,887,889,889,891,894,894,896,898,898,901,903,903,903,903,903,903,903,0,0,0,1307,1307,1302,1302,1302,1302,1302,1302,1302,1302,1302,1302,1302,1302,1302,1302,1302,1302,1302,1302,1302,1302,1302,1302,1302,1307,1307,1307,1307,1307,1302,1302,1297,1297,1297,1297,1302,1302,1302,1302,1302,1302,1302,1302,1302,1302,1302,1302,1302,1302,1302,1302,1302,1297,1297,1297,1297,1297,1297,1297,1302,1302,1302,1302,1302,1302,1302,1302,1302,1302,1307,1307,1054,1054,1054,1057,1057,1057,1057,1057,1057,1060,1060,0,0,0,0,0,0,0,0,0,0,0,0,661,658,657,655,654,654,653,652,650,649,649,648,647,646,646,646,646,646,646,647,648,649,650,652,652,653,654,658,658,661,663,664,666,666,666,667,667,0,0,0,0,0,0,0,0,0,1283,1283,1288,1288,1292,1292,1297,1297,1297,1297,1297,1302,1297,1297,1297,1297,1292,1292,1288,1288,1278,1268,1264,1259,1255,1250,1245,1245,1245,1245,1245,1245,1245,1250,1250,1255,1255,1259,1264,1273,1283,1288,1288,1292,1292,1292,1292,1292,1292,1288,1288,1292,1292,1292,1292,1292,1292,1292,1292,1292,1292,1292,1292,1292,1292,1292,1292,1288,1288,1292,1288,1288,1288,1292,1292,1292,1292,1292,1292,1292,1292,1288,1288,1288,1288,1288,1288,1283,1283,1283,1283,1283,1283,1283,1283,1283,1283,1283,1283,1283,1283,1283,1283,1283,1283,1283,1283,1283,1283,1283,1283,1278,1278,1278,1278,1273,1273,1273,1273,1273,1283,1041,1038,1038,1038,1038,1038,1038,1038,1034,1031,1031,1031,1028,1028,1031,1031,1031,1034,1038,1041,1044,1044,1047,1050,1054,1292,1292,1288,1288,1288,1283,1283,1283,1283,1283,1283,1283,1283,1283,1278,1278,1278,1278,1278,1278,1278,1278,1278,1278,1278,1278,1278,1278,1278,1278,1273,1273,1273,1273,1273,1278,1278,1273,1273,1273,1278,1273,1273,1273,1273,1278,1273,1273,1273,1273,1273,1273,1273,1273,1273,1273,1273,1273,1273,1273,1273,1278,1273,1273,1273,1273,1273,1273,1273,1273,1273,1273,1273,1273,1273,1273,1273,1273,1273,1273,1268,1268,1268,1268,1268,1268,1268,1268,1268,1268,1268,1268,1268,1273,1273,1268,1268,1268,1268,1268,1268,1268,1268,1268,1264,1264,1264,1264,1264,1264,1268,1268,1268,1268,1268,1268,1264,1264,1264,1264,1264,1264,1264,1264,1264,1264,1264,1264,1264,1264,1264,1259,1259,1259,1259,1259,1259,1259,1259,1259,1259,1259,1259,1259,1255,1255,1255,1255,1255,1259,1259,1264,1264,1259,1255,1255,1255,1255,1255,1255,1259,1255,1255,1255,1241,1241,1236,1236,1232,1232,1232,1227,1227,1227,1227,1232,1232,1232,1236,1236,1134,1134,1130,1130,1236,1241,1123,1119,1119,1112,1112,1112,1108,1108,1105,1101,1097,1094,1090,1087,1084,1080,1073,1070,1067,1067,1067,1063,1063,1060,1060,928,928,928,928,928,928,930,930,930,933,933,933,933,933,933,933,933,935,935,935,935,938,938,938,938,940,940,943,943,946,946,946,946,948,948,954,954,956,954,954,951,948,946,943,940,938,938,933,930,928,925,925,925,923,920,918,918,915,915,915,913,913,908,908,906,906,0,0,0,0,0,0,0,0,0,0,0,0,0,0,0,0,0,0,0,0,0,0,0,0,0,0,0,0,0,0,0,0,0,0,0,0
0,0,0,0,0,0,0,0,0,0,896,894,891,891,889,887,885,885,887,887,889,889,891,894,894,896,896,896,898,901,903,903,903,906,906,906,0,0,0,1307,1307,1302,1302,1302,1302,1302,1302,1302,1302,1302,1302,1302,1302,1302,1302,1302,1302,1302,1302,1302,1297,1297,1297,1297,1297,1297,1302,1302,1302,1302,1302,1297,1297,1297,1297,1297,1297,1297,1297,1297,1297,1297,1297,1297,1297,1297,1297,1297,1297,1297,1297,1297,1297,1297,1297,1297,1297,1297,1297,1297,1297,1297,1297,1297,1302,1302,1302,1302,1302,1302,1054,1054,1054,1054,1054,1054,1054,1054,1054,1054,1054,1054,1057,0,0,0,0,0,0,0,0,0,0,0,0,661,658,657,655,655,654,653,652,650,650,649,648,647,647,646,646,646,646,647,648,648,649,650,652,653,654,655,658,659,661,662,664,666,666,666,667,0,0,0,0,0,0,0,0,0,0,1283,1283,1283,1283,1288,1288,1288,1288,1292,1297,1297,1297,1292,1292,1292,1292,1288,1288,1288,1283,1273,1268,1264,1259,1255,1250,1245,1245,1245,1245,1245,1245,1250,1250,1255,1259,1259,1259,1264,1268,1273,1278,1283,1288,1288,1288,1288,1288,1288,1288,1288,1288,1288,1288,1288,1288,1288,1288,1288,1288,1288,1288,1288,1288,1288,1288,1288,1283,1283,1283,1283,1283,1283,1283,1288,1288,1288,1288,1288,1288,1288,1283,1283,1283,1283,1283,1283,1278,1278,1278,1278,1278,1278,1278,1278,1278,1278,1283,1283,1283,1278,1278,1283,1283,1278,1278,1278,1278,1278,1278,1278,1273,1273,1273,1273,1273,1268,1268,1268,1268,1273,1044,1041,1041,1038,1038,1041,1041,1038,1038,1034,1034,1031,1031,1031,1031,1031,1034,1038,1041,1044,1047,1047,1047,1050,1054,1054,1288,1288,1283,1283,1278,1278,1278,1278,1278,1283,1278,1278,1278,1273,1273,1273,1273,1273,1273,1278,1273,1273,1278,1278,1273,1273,1273,1273,1273,1268,1268,1273,1273,1273,1273,1273,1273,1273,1273,1273,1273,1273,1273,1273,1273,1273,1273,1273,1273,1273,1273,1273,1273,1273,1273,1273,1273,1273,1273,1273,1273,1273,1268,1268,1268,1268,1268,1268,1268,1273,1273,1273,1273,1273,1273,1273,1268,1268,1268,1268,1268,1264,1264,1264,1264,1264,1264,1264,1264,1268,1268,1268,1268,1264,1264,1268,1268,1264,1264,1264,1264,1264,1264,1259,1259,1264,1264,1264,1264,1264,1264,1264,1264,1264,1264,1259,1259,1259,1259,1259,1259,1259,1259,1259,1259,1259,1259,1259,1259,1259,1255,1255,1255,1255,1255,1255,1255,1255,1255,1255,1255,1255,1255,1255,1255,1250,1250,1250,1250,1250,1255,1255,1255,1255,1255,1255,1255,1255,1255,1255,1255,1255,1250,1241,1241,1236,1236,1232,1232,1232,1227,1227,1227,1232,1232,1232,1236,1241,1241,1241,1241,1241,1236,1236,1236,1123,1119,1115,1112,1112,1108,1108,1108,1105,1097,1094,1090,1084,1080,1077,1073,1070,1067,1067,1067,1063,1060,1060,1067,928,928,928,928,928,928,928,930,930,930,933,933,933,933,933,933,933,933,935,935,935,935,938,938,938,940,940,940,943,943,946,946,946,948,954,956,956,956,956,954,951,948,948,946,943,940,938,935,933,928,928,925,925,923,920,920,918,918,915,915,915,913,910,908,906,906,906,0,0,0,0,0,0,0,0,0,0,0,0,0,0,0,0,0,0,0,0,0,0,0,0,0,0,0,0,0,0,0,0,0,0,0,0
0,0,0,0,0,0,0,0,0,0,896,894,894,894,891,887,887,887,887,889,889,889,891,894,894,896,896,896,898,901,903,903,903,906,906,906,906,0,0,1307,1307,1302,1302,1302,1302,1302,1302,1297,1297,1297,1297,1297,1297,1297,1297,1297,1297,1297,1297,1297,1292,1292,1292,1292,1292,1292,1297,1297,1297,1297,1302,1297,1297,1292,1292,1297,1297,1297,1297,1297,1297,1297,1292,1292,1292,1292,1292,1292,1292,1292,1292,1292,1292,1292,1292,1292,1292,1292,1297,1297,1297,1297,1297,1297,1302,1302,1302,1302,1302,1050,1050,1050,1050,1050,1050,1050,1054,1054,1050,1050,1050,1054,1050,1050,0,0,0,0,0,0,0,0,0,0,0,661,659,657,655,655,654,653,653,652,650,649,648,647,647,646,646,646,647,647,648,649,650,650,652,653,654,655,658,659,661,662,664,666,666,666,667,0,0,0,0,0,0,0,0,0,0,1283,1283,1283,1283,1283,1288,1283,1283,1288,1288,1288,1288,1288,1288,1288,1288,1288,1288,1283,1283,1273,1268,1264,1259,1255,1250,1250,1250,1250,1250,1250,1250,1250,1250,1255,1259,1259,1264,1264,1268,1273,1273,1273,1278,1283,1288,1288,1283,1283,1283,1283,1283,1283,1283,1283,1283,1283,1283,1283,1283,1278,1278,1278,1278,1278,1283,1283,1278,1278,1278,1278,1278,1278,1278,1278,1278,1278,1283,1283,1283,1283,1283,1278,1278,1273,1273,1273,1273,1273,1273,1273,1273,1273,1273,1273,1273,1278,1278,1278,1278,1278,1278,1278,1278,1273,1273,1273,1273,1273,1273,1273,1268,1268,1268,1268,1268,1268,1268,1268,1268,1268,1047,1041,1041,1041,1041,1041,1041,1038,1038,1038,1034,1034,1031,1031,1031,1031,1034,1038,1041,1044,1047,1050,1050,1054,1054,1054,1283,1283,1283,1278,1273,1273,1273,1273,1273,1273,1273,1268,1268,1268,1268,1268,1268,1268,1273,1273,1273,1273,1273,1273,1268,1268,1268,1268,1268,1264,1264,1268,1268,1268,1268,1268,1268,1268,1268,1268,1273,1273,1273,1273,1273,1268,1268,1268,1268,1268,1268,1268,1273,1273,1268,1268,1268,1268,1268,1268,1268,1268,1268,1268,1268,1268,1268,1268,1268,1268,1268,1268,1268,1273,1268,1268,1268,1268,1268,1264,1264,1264,1259,1259,1259,1259,1259,1259,1259,1259,1259,1264,1264,1259,1259,1259,1259,1259,1259,1259,1259,1259,1259,1259,1259,1259,1259,1259,1259,1259,1259,1259,1259,1259,1259,1259,1255,1255,1255,1255,1255,1255,1255,1255,1255,1255,1255,1255,1255,1255,1255,1255,1250,1250,1250,1250,1250,1250,1250,1250,1255,1250,1250,1250,1250,1245,1245,1245,1245,1245,1245,1245,1250,1250,1250,1250,1250,1250,1255,1255,1255,1250,1250,1241,1241,1236,1232,1232,1232,1232,1227,1227,1227,1232,1232,1232,1236,1241,1236,1236,1241,1241,1236,1236,1236,1241,1245,1115,1112,1108,1108,1108,1105,1101,1097,1094,1084,1080,1077,1073,1070,1067,1067,1067,1063,1063,1060,1060,1063,928,928,928,928,928,928,928,928,930,930,933,933,933,933,933,933,933,933,935,935,935,935,938,938,938,940,940,943,946,946,948,948,948,951,954,956,956,956,956,954,951,948,948,946,943,940,938,935,933,928,928,925,923,923,920,918,918,915,915,915,913,913,908,906,906,903,903,0,0,0,0,0,0,0,0,0,0,0,0,0,0,0,0,0,0,0,0,0,0,0,0,0,0,0,0,0,0,0,0,0,0,0,0
