0,0,0,0,0,0,0,0,0,0,0,1586,1579,1579,1579,1579,1579,1572,1564,1564,1564,1564,1564,1564,1564,1564,1564,1572,1572,1564,1564,1572,1572,1572,1572,1572,1572,1572,1572,1572,1572,1572,1572,1579,1579,1579,1572,1572,1572,1572,1564,1564,1564,1564,1572,1572,1572,1572,1564,1564,1564,1557,1550,1543,1543,1543,1543,0,0,0,0,0,0,1041,1041,1038,1038,1038,1038,1038,1041,1041,1041,1041,1044,1044,1047,1047,1047,1047,1047,1047,1047,1050,0,0,0,0,0,0,0,0,0,0,0,0,0,0,0,710,707,706,706,706,706,706,706,707,707,707,708,710,710,711,713,714,714,714,716,716,716,717,719,720,722,722,723,723,727,0,0,0,0,0,0,0,0,1516,1516,1516,1516,1516,1516,1516,1516,1516,1516,1516,1516,1516,1516,1516,1516,1516,1516,1516,1516,1516,1516,1516,1516,1516,1516,1516,1516,1516,1516,1516,1516,1516,1516,1516,1516,1516,1516,1516,1516,1516,1516,1509,1509,1509,1516,1516,1516,1516,1516,1516,1516,1197,1197,1197,1197,1202,1202,1202,1202,1202,1206,1206,1210,1210,1210,1210,1210,1210,1210,1210,1214,1214,1214,1214,1219,1219,1223,1223,1223,1223,1227,1227,1227,1227,1227,1232,1232,1232,1236,1236,1241,1241,1245,1245,1245,1245,1245,1250,1250,1250,1250,1250,1250,1250,1255,1255,1259,1264,1264,1268,1268,1268,1268,1268,1268,1268,1268,1268,1273,1273,1273,1278,1278,1278,1283,1283,1458,1458,1464,1464,1464,1464,1464,1464,1464,1464,1464,1464,1464,1458,1458,1458,1458,1458,1458,1458,1458,1458,1458,1458,1458,1458,1458,1458,1458,1458,1458,1458,1458,1458,1452,1452,1452,1452,1452,1452,1452,1445,1445,0,1433,0,0,0,998,992,989,987,984,981,981,978,975,975,975,975,978,978,978,978,981,981,984,987,987,987,987,987,989,989,989,0,1433,1433,1427,1427,1427,1427,1433,1433,1433,1427,1427,1427,1427,1427,1427,1427,1427,1427,1427,1427,1427,1421,1421,1421,1421,1421,1421,1421,1415,1415,1415,1415,1415,1415,1415,1415,1415,1415,1415,1415,1415,1415,1415,1410,1410,1410,1410,1410,1410,1410,1410,1410,1404,1404,1404,1404,1404,1404,1404,1404,1404,1404,1404,1404,1404,1404,1404,1404,1404,1404,1410,1404,1404,1404,1404,1404,1404,1404,1404,1398,1398,1398,1398,1398,1398,1392,1392,1392,1392,1398,1398,1392,1392,1392,1392,1392,1392,1392,1392,1392,1392,1392,1392,1392,1387,1387,1387,1387,1387,1381,1381,1381,1387,1387,1381,1381,1381,1381,1381,1376,1376,1370,1370,1370,1370,1370,1370,1370,1365,1365,1359,1359,1354,1354,1354,1349,1343,1338,1338,1333,1333,1328,1328,1328,1322,1317,1312,1312,1312,1307,1307,1307,1302,1302,1297,1292,1292,1292,1288,1288,1288,1283,1283,1278,1273,1268,1268,1264,1264,1259,1255,1255,1255,1255,1250,1250,1245,1241,1241,1236,1236,1232,1232,1227,1227,1223,1219,1219,1219,1214,1214,1214,1210,1206,1206,1202,1202,1197,1197,1197,1193,1189,1185,1185,1185,1185,1181,1181,1177,1173,1169,1169,1169,1169,1165,1165,1161,1161,1157,1153,1153,1153,1153,1149,1149,1149,1145,1141,1141,1138,1134,1134,1130,1130,1130,1123,1123,1123,1123,1119,1119,1115,1115,1115,1112,1112,1108,1108,1105,1105,1097,1097,1094,1090,1090,1080,1077,1077,0,0,0,0,0,0,0,0,0,0,0,0,0,0,0,0,0,0,0,0,0,0,0,0,0,0,0,0,0,0,0,0
0,0,0,0,0,0,0,0,0,0,0,1579,1579,1579,1572,1572,1572,1572,1564,1564,1564,1564,1564,1564,1564,1564,1557,1557,1564,1564,1557,1557,1557,1564,1564,1564,1564,1564,1572,1572,1572,1564,1564,1572,1572,1572,1564,1564,1564,1564,1564,1564,1564,1564,1564,1564,1564,1564,1564,1564,1557,1557,1550,1543,1543,1543,1543,0,0,0,0,1050,1050,1047,1044,1041,1041,1038,1038,1038,1041,1041,1041,1041,1044,1047,1047,1047,1047,1047,1047,1047,1047,1050,1050,0,0,0,0,0,0,0,0,0,0,0,0,0,0,0,708,707,707,706,706,706,707,707,707,708,708,710,711,711,714,714,714,714,716,716,717,719,719,720,720,722,722,723,0,0,0,0,0,0,0,0,0,1509,1509,1516,1516,1516,1509,1509,1509,1516,1516,1516,1516,1516,1516,1516,1509,1509,1509,1509,1509,1516,1516,1516,1516,1509,1509,1509,1509,1509,1516,1516,1509,1509,1509,1509,1516,1516,1509,1509,1509,1509,1509,1509,1509,1509,1509,1509,1509,1516,1516,1516,1197,1197,1197,1197,1197,1197,1197,1202,1202,1202,1202,1202,1206,1206,1210,1210,1210,1210,1210,1210,1214,1214,1214,1214,1219,1219,1219,1223,1223,1223,1227,1227,1227,1227,1232,1232,1232,1232,1236,1236,1241,1241,1245,1245,1245,1245,1250,1250,1250,1250,1250,1250,1250,1255,1255,1259,1259,1268,1268,1268,1268,1268,1268,1268,1268,1268,1273,1273,1273,1273,1278,1278,1278,1278,1283,1283,1458,1458,1458,1458,1458,1458,1458,1458,1458,1458,1458,1458,1458,1458,1458,1452,1452,1445,1445,1445,1445,1452,1452,1452,1452,1452,1452,1452,1452,1452,1452,1452,1452,1452,1452,1445,1445,1445,1445,1445,1445,1445,1433,1433,1433,1404,0,0,998,995,989,989,984,984,981,978,978,978,978,978,978,978,978,981,981,984,987,989,989,989,989,989,989,989,0,0,0,1427,1427,1421,1421,1421,1421,1421,1421,1427,1427,1427,1427,1427,1427,1421,1421,1427,1421,1421,1421,1421,1421,1421,1421,1421,1421,1415,1415,1415,1415,1415,1415,1415,1415,1415,1415,1415,1415,1410,1410,1410,1410,1410,1404,1404,1404,1404,1404,1404,1404,1404,1404,1398,1398,1398,1398,1398,1398,1398,1398,1398,1398,1398,1398,1398,1398,1398,1398,1398,1398,1398,1398,1398,1398,1398,1398,1398,1398,1398,1392,1392,1392,1392,1392,1392,1392,1392,1392,1392,1392,1392,1392,1392,1392,1392,1392,1392,1392,1392,1387,1387,1387,1387,1381,1381,1387,1387,1387,1381,1381,1381,1381,1381,1381,1381,1376,1376,1376,1376,1370,1370,1370,1370,1370,1370,1370,1365,1365,1365,1359,1359,1354,1354,1354,1349,1343,1338,1338,1333,1333,1333,1328,1328,1328,1322,1317,1312,1312,1307,1307,1307,1307,1302,1297,1297,1292,1292,1288,1288,1288,1288,1283,1278,1278,1273,1268,1268,1264,1259,1259,1255,1255,1255,1250,1250,1250,1245,1241,1241,1236,1236,1232,1227,1227,1223,1223,1219,1219,1214,1214,1210,1210,1206,1206,1202,1202,1197,1197,1197,1193,1193,1189,1185,1185,1185,1181,1181,1177,1173,1173,1169,1169,1169,1165,1165,1165,1161,1161,1157,1153,1153,1153,1149,1145,1145,1145,1141,1138,1138,1134,1134,1134,1134,1130,1123,1123,1123,1123,1123,1119,1119,1115,1115,1112,1112,1108,1108,1105,1105,1101,1097,1094,1090,1090,1080,1077,1077,0,0,0,0,0,0,0,0,0,0,0,0,0,0,0,0,0,0,0,0,0,0,0,0,0,0,0,0,0,0,0,0
0,0,0,0,0,0,0,0,0,0,0,1572,1572,1572,1572,1572,1572,1564,1564,1564,1557,1557,1557,1557,1557,1557,1557,1557,1557,1557,1557,1557,1557,1557,1557,1557,1557,1557,1557,1564,1564,1564,1564,1564,1564,1564,1564,1564,1564,1564,1564,1564,1564,1564,1564,1564,1564,1564,1557,1557,1550,1550,1543,1536,1536,1543,0,0,0,0,0,1050,1050,1050,1047,1044,1041,1041,1041,1041,1041,1041,1041,1044,1044,1047,1047,1047,1047,1047,1047,1047,1047,1050,1050,0,0,0,0,0,0,0,0,0,0,0,0,0,0,714,708,708,707,706,706,707,707,707,708,708,710,710,711,713,714,714,714,714,716,716,717,719,720,720,720,722,722,723,0,0,0,0,0,0,0,0,0,1509,1509,1509,1509,1509,1509,1509,1509,1509,1509,1509,1509,1509,1509,1509,1503,1503,1503,1503,1509,1509,1503,1503,1509,1509,1509,1509,1509,1509,1509,1509,1509,1509,1509,1509,1509,1509,1509,1509,1509,1509,1509,1509,1509,1509,1509,1509,1509,1516,1516,1193,1193,1197,1197,1197,1197,1197,1197,1197,1197,1202,1202,1202,1206,1206,1210,1210,1210,1210,1210,1210,1214,1214,1214,1219,1219,1219,1219,1223,1223,1223,1227,1227,1227,1232,1232,1232,1236,1236,1236,1236,1241,1245,1245,1245,1245,1250,1250,1250,1250,1250,1250,1250,1250,1255,1255,1259,1259,1268,1268,1268,1268,1268,1268,1268,1268,1268,1273,1273,1273,1278,1278,1278,1283,1283,1283,1288,1458,1458,1458,1458,1458,1458,1458,1458,1452,1452,1452,1452,1452,1452,1452,1445,1445,1445,1445,1439,1439,1439,1439,1439,1439,1445,1445,1445,1445,1445,1445,1445,1445,1445,1445,1445,1445,1439,1439,1445,1445,1427,1404,1404,1404,1404,0,0,998,995,992,989,987,987,984,981,978,978,978,978,978,981,981,981,984,987,987,989,989,992,992,992,989,989,0,0,0,1427,1421,1421,1421,1421,1421,1421,1421,1421,1421,1421,1421,1421,1421,1421,1421,1421,1421,1421,1421,1421,1421,1421,1415,1415,1415,1410,1410,1410,1410,1410,1410,1410,1410,1410,1410,1410,1410,1410,1404,1404,1404,1404,1398,1398,1398,1398,1398,1398,1398,1398,1398,1398,1398,1398,1398,1398,1398,1398,1392,1392,1392,1392,1392,1392,1392,1392,1392,1392,1392,1392,1392,1392,1392,1392,1392,1392,1392,1392,1392,1387,1387,1387,1387,1387,1387,1387,1387,1392,1392,1392,1387,1387,1387,1387,1387,1387,1387,1387,1381,1381,1381,1381,1381,1376,1376,1381,1381,1381,1376,1376,1381,1381,1376,1376,1376,1370,1370,1370,1370,1365,1365,1370,1365,1365,1365,1365,1359,1359,1359,1359,1354,1354,1349,1349,1343,1338,1338,1338,1333,1333,1333,1328,1328,1322,1317,1317,1312,1312,1307,1307,1307,1302,1302,1297,1292,1292,1292,1288,1288,1288,1283,1278,1273,1273,1268,1268,1268,1264,1259,1255,1255,1255,1255,1250,1250,1250,1245,1241,1236,1236,1232,1227,1227,1223,1223,1219,1219,1219,1214,1210,1210,1206,1206,1202,1202,1197,1197,1197,1193,1193,1189,1189,1185,1185,1181,1181,1177,1173,1173,1169,1169,1169,1165,1165,1165,1161,1161,1157,1153,1153,1153,1149,1145,1145,1145,1141,1138,1138,1138,1134,1134,1134,1130,1126,1123,1123,1123,1123,1119,1119,1115,1115,1112,1112,1108,1108,1105,1105,1101,1101,1097,1090,1090,0,0,0,0,0,0,0,0,0,0,0,0,0,0,0,0,0,0,0,0,0,0,0,0,0,0,0,0,0,0,0,0,0,0,0
0,0,0,0,0,0,0,0,0,0,0,1572,1572,1572,1564,1564,1572,1564,1564,1557,1557,1557,1557,1557,1550,1550,1550,1550,1550,1550,1550,1550,1550,1550,1550,1550,1550,1550,1550,1550,1550,1550,1550,1564,1564,1557,1557,1557,1557,1557,1557,1557,1557,1557,1564,1550,1550,1550,1550,1550,1543,1543,1536,1536,1536,1543,0,0,0,0,1054,1050,1050,1050,1047,1047,1047,1044,1044,1044,1041,1041,1044,1044,1044,1047,1047,1047,1047,1047,1047,1047,1047,1050,1050,0,0,0,0,0,0,0,0,0,0,0,0,0,722,714,708,708,708,707,707,707,707,708,708,708,710,710,713,713,714,714,714,716,716,716,717,719,720,720,722,722,723,723,0,0,0,0,0,0,0,0,0,0,1509,1509,1509,1509,1503,1503,1509,1509,1509,1509,1503,1503,1503,1503,1503,1503,1503,1503,1503,1503,1503,1496,1496,1496,1496,1496,1503,1503,1503,1509,1503,1503,1503,1503,1503,1503,1503,1503,1503,1503,1509,1503,1503,1503,1189,1189,1193,1193,1193,1193,1193,1197,1197,1197,1197,1197,1197,1197,1197,1202,1202,1202,1206,1206,1210,1210,1210,1210,1210,1210,1214,1214,1214,1219,1219,1223,1223,1223,1223,1223,1227,1227,1232,1232,1232,1232,1236,1236,1236,1236,1241,1241,1245,1245,1245,1245,1250,1250,1250,1250,1250,1250,1255,1255,1259,1259,1259,1273,1273,1273,1273,1273,1273,1273,1273,1273,1273,1278,1278,1278,1278,1283,1283,1283,1283,1288,1458,1458,1458,1458,1458,1452,1452,1452,1452,1452,1445,1445,1445,1445,1445,1445,1439,1439,1439,1439,1439,1439,1439,1439,1439,1433,1433,1439,1439,1439,1439,1439,1439,1439,1439,1439,1439,1439,1439,1439,1439,1427,1404,1404,1404,1404,1398,0,998,998,992,992,989,987,984,981,981,978,978,978,981,981,981,984,984,987,989,989,992,992,992,992,989,989,989,0,1427,1427,1421,1421,1421,1421,1415,1415,1415,1415,1415,1415,1415,1415,1415,1415,1415,1415,1415,1415,1415,1415,1415,1415,1415,1410,1410,1404,1404,1404,1404,1404,1404,1404,1404,1404,1404,1410,1404,1404,1404,1398,1398,1398,1398,1398,1398,1398,1398,1398,1392,1392,1392,1392,1392,1392,1392,1392,1392,1392,1392,1392,1392,1392,1387,1387,1387,1392,1392,1387,1387,1387,1392,1392,1387,1387,1387,1387,1387,1387,1387,1381,1381,1387,1387,1387,1387,1387,1387,1387,1387,1387,1387,1387,1381,1381,1381,1381,1381,1381,1376,1376,1376,1376,1376,1376,1376,1376,1376,1376,1376,1376,1376,1376,1376,1370,1370,1365,1365,1365,1365,1365,1365,1365,1365,1365,1365,1359,1359,1359,1359,1354,1354,1354,1349,1349,1343,1343,1338,1338,1333,1333,1333,1333,1328,1322,1322,1317,1312,1312,1307,1307,1307,1307,1302,1297,1297,1292,1292,1292,1288,1288,1283,1283,1273,1273,1268,1268,1268,1264,1259,1259,1255,1255,1255,1250,1250,1250,1245,1241,1241,1236,1232,1232,1227,1223,1223,1219,1219,1219,1214,1214,1210,1206,1206,1206,1202,1202,1197,1197,1197,1193,1189,1189,1185,1185,1181,1181,1177,1173,1173,1169,1169,1169,1165,1165,1165,1165,1161,1157,1153,1153,1153,1149,1145,1145,1145,1141,1138,1138,1138,1134,1134,1134,1134,1130,1126,1123,1123,1123,1119,1119,1115,1115,1112,1108,1108,1108,1105,1105,1101,1101,1094,1094,1094,0,0,0,0,0,0,0,0,0,0,0,0,0,0,0,0,0,0,0,0,0,0,0,0,0,0,0,0,0,0,0,0,0,0,0
0,0,0,0,0,0,0,0,0,0,0,1564,1564,1564,1564,1564,1564,1564,1557,1557,1550,1550,1550,1550,1550,1543,1543,1543,1543,1550,1543,1543,1543,1543,1543,1543,1543,1543,1543,1550,1550,1550,1550,1550,1550,1550,1550,1550,1550,1550,1550,1550,1550,1550,1557,1550,1550,1543,1543,1543,1543,1536,1536,1529,1529,1536,0,0,0,0,1054,1050,1050,1050,1047,1047,1047,1047,1044,1044,1044,1044,1044,1044,1047,1047,1047,1047,1047,1050,1050,1050,1050,1050,1050,0,0,0,0,0,0,0,0,0,0,0,0,0,722,722,711,710,708,708,708,708,708,708,708,710,710,711,713,713,714,714,714,716,716,717,717,719,720,722,722,723,723,723,0,0,0,0,0,0,0,0,0,1509,1503,1503,1503,1503,1503,1503,1503,1503,1503,1496,1496,1496,1496,1496,1496,1496,1496,1496,1496,1496,1496,1496,1496,1496,1489,1489,1489,1489,1496,1496,1503,1503,1503,1496,1496,1496,1496,1496,1496,1503,1503,1189,1189,1189,1189,1189,1193,1193,1193,1193,1193,1197,1197,1197,1197,1197,1197,1197,1197,1197,1202,1202,1202,1206,1210,1210,1210,1210,1210,1214,1214,1214,1219,1219,1223,1223,1223,1227,1227,1227,1227,1227,1232,1232,1232,1236,1236,1236,1236,1236,1241,1241,1245,1245,1245,1245,1250,1250,1250,1250,1250,1458,1458,1458,1458,1458,1278,1278,1278,1278,1273,1273,1273,1273,1273,1273,1273,1278,1278,1278,1283,1283,1283,1283,1283,1288,1458,1458,1458,1452,1452,1452,1445,1445,1445,1445,1445,1439,1439,1439,1439,1439,1439,1433,1433,1433,1433,1433,1433,1433,1433,1433,1433,1433,1433,1433,1433,1433,1439,1439,1439,1439,1439,1433,1433,1439,1439,1427,1415,1404,1398,1398,1398,0,998,998,995,992,992,989,987,984,981,981,981,981,981,981,981,984,987,989,989,992,992,992,992,992,989,989,989,0,1421,1421,1415,1415,1415,1415,1415,1415,1415,1415,1410,1410,1410,1410,1410,1410,1410,1410,1410,1410,1415,1415,1410,1410,1410,1410,1404,1404,1398,1398,1398,1398,1398,1398,1398,1398,1404,1404,1404,1404,1398,1398,1398,1398,1398,1392,1392,1392,1392,1392,1392,1392,1392,1392,1392,1392,1392,1392,1392,1392,1392,1387,1387,1387,1381,1381,1387,1387,1387,1387,1387,1387,1387,1387,1381,1381,1381,1381,1381,1376,1376,1376,1376,1381,1381,1381,1381,1381,1381,1387,1381,1381,1381,1381,1381,1381,1376,1376,1376,1376,1376,1376,1370,1370,1370,1370,1370,1370,1370,1370,1370,1370,1370,1370,1370,1365,1365,1359,1359,1359,1365,1359,1359,1359,1359,1359,1359,1359,1354,1354,1354,1354,1354,1354,1349,1349,1343,1343,1343,1338,1338,1333,1333,1333,1328,1328,1322,1317,1312,1312,1307,1307,1307,1307,1302,1297,1297,1292,1292,1292,1288,1288,1288,1283,1273,1273,1273,1268,1268,1264,1264,1259,1255,1255,1255,1250,1250,1250,1245,1241,1241,1236,1232,1232,1227,1227,1223,1223,1219,1219,1214,1214,1210,1206,1206,1206,1202,1202,1202,1197,1197,1193,1189,1189,1185,1185,1181,1181,1177,1173,1173,1169,1169,1169,1165,1165,1165,1165,1161,1157,1153,1153,1153,1149,1145,1145,1141,1141,1138,1138,1138,1134,1134,1134,1134,1130,1126,1123,1123,1123,1119,1119,1115,1115,1112,1108,1108,1108,1105,1105,962,962,1094,1094,959,959,0,0,0,0,0,0,0,0,0,0,0,0,0,0,0,0,0,0,0,0,0,0,0,0,0,0,0,0,0,0,0,0,0,0
0,0,0,0,0,0,0,0,0,0,0,1557,1557,1557,1557,1557,1557,1557,1550,1550,1550,1543,1543,1543,1543,1543,1543,1543,1543,1543,1543,1536,1536,1536,1543,1543,1543,1543,1543,1543,1543,1543,1543,1550,1543,1543,1536,1536,1536,1536,1543,1536,1536,1543,1543,1543,1543,1536,1536,1536,1536,1536,1536,1529,1529,1536,1536,1536,0,1047,1047,1047,1047,1050,1047,1047,1047,1047,1044,1044,1044,1044,1044,1047,1047,1047,1047,1050,1050,1050,1050,1050,1050,1050,1050,0,0,0,0,0,0,0,0,0,0,0,0,0,0,0,0,710,710,708,708,708,708,708,710,710,711,713,713,714,714,714,716,716,717,717,719,720,720,722,722,723,723,0,0,0,0,0,0,0,0,0,0,1503,1503,1503,1496,1496,1496,1496,1496,1496,1496,1489,1489,1489,1489,1489,1489,1489,1489,1489,1496,1489,1489,1489,1489,1489,1489,1489,1489,1489,1489,1489,1489,1489,1489,1496,1496,1496,1185,1185,1185,1185,1185,1189,1185,1185,1189,1189,1189,1193,1189,1189,1193,1193,1193,1197,1197,1197,1197,1197,1197,1197,1197,1202,1202,1206,1210,1210,1210,1210,1210,1214,1214,1214,1219,1219,1223,1223,1223,1227,1227,1227,1227,1227,1232,1232,1232,1236,1236,1236,1236,1236,1241,1241,1245,1245,1245,1245,1250,1250,1250,1458,1458,1458,1458,1458,1458,1458,1283,1278,1278,1278,1278,1278,1278,1273,1273,1273,1273,1278,1278,1283,1283,1283,1283,1283,1283,1288,1452,1452,1452,1445,1439,1439,1439,1439,1439,1439,1439,1439,1439,1439,1439,1433,1433,1433,1433,1433,1433,1433,1433,1433,1433,1433,1427,1427,1427,1433,1433,1433,1427,1427,1427,1433,1433,1433,1433,1433,1433,1421,1415,1404,1398,1398,1398,1001,1001,998,995,995,992,992,989,987,984,981,981,981,981,981,984,987,987,989,989,992,992,992,992,992,992,992,992,0,0,1415,1415,1415,1410,1410,1410,1410,1410,1410,1410,1410,1410,1404,1404,1404,1404,1398,1398,1404,1404,1404,1398,1398,1404,1404,1398,1398,1398,1398,1398,1392,1392,1392,1392,1392,1398,1398,1398,1398,1398,1398,1392,1392,1392,1392,1392,1387,1387,1387,1387,1387,1387,1387,1387,1387,1387,1387,1387,1387,1387,1387,1381,1381,1381,1381,1381,1381,1381,1381,1381,1381,1387,1381,1381,1376,1376,1376,1376,1376,1376,1370,1370,1370,1370,1370,1376,1376,1376,1381,1376,1376,1376,1376,1376,1376,1370,1370,1370,1370,1370,1370,1370,1370,1370,1370,1370,1370,1370,1370,1370,1365,1359,1359,1359,1359,1359,1359,1359,1359,1359,1359,1359,1359,1359,1359,1354,1354,1354,1354,1354,1349,1349,1349,1349,1343,1343,1343,1343,1343,1338,1333,1333,1333,1328,1328,1322,1322,1312,1312,1312,1307,1307,1307,1302,1297,1297,1292,1292,1292,1288,1288,1288,1283,1273,1273,1273,1268,1268,1268,1264,1259,1259,1255,1255,1255,1250,1250,1250,1245,1241,1236,1236,1232,1232,1227,1227,1223,1223,1219,1214,1214,1210,1206,1206,1206,1202,1202,1202,1202,1197,1197,1193,1189,1189,1185,1181,1181,1177,1173,1173,1173,1169,1169,1165,1165,1165,1165,1161,1157,1153,1153,1153,1149,1145,1145,1141,1141,1138,1138,1138,1134,1134,1134,1134,1130,1126,1123,1123,1123,1119,1119,1115,1115,1112,1112,1108,1108,1108,964,962,962,962,962,959,959,0,0,0,0,0,0,0,0,0,0,0,0,0,0,0,0,0,0,0,0,0,0,0,0,0,0,0,0,0,0,0,0,0,0
0,0,0,0,0,0,0,0,0,0,0,1550,1543,1543,1550,1550,1550,1550,1550,1550,1550,1543,1543,1543,1543,1536,1536,1536,1536,1536,1536,1536,1536,1536,1536,1536,1536,1536,1536,1543,1543,1536,1536,1536,1536,1536,1536,1536,1536,1529,1529,1536,1529,1529,1536,1536,1536,1536,1529,1529,1529,1529,1529,1529,1529,1529,1529,0,0,0,0,1047,1047,1047,1050,1050,1047,1047,1047,1047,1044,1044,1047,1047,1047,1047,1047,1050,1050,1050,1050,1050,1050,1054,1054,1054,0,0,0,0,0,0,0,0,0,0,0,0,0,0,0,710,710,710,708,708,710,710,710,711,713,713,713,714,714,714,716,716,717,719,719,720,722,722,723,723,725,725,0,0,0,0,0,0,0,0,0,1503,1496,1496,1496,1489,1489,1489,1489,1489,1489,1489,1489,1483,1483,1483,1483,1483,1489,1489,1489,1489,1489,1489,1489,1489,1489,1489,1489,1489,1489,1489,1489,1489,1181,1181,1181,1181,1181,1181,1181,1181,1185,1185,1185,1185,1189,1189,1189,1193,1189,1189,1193,1193,1193,1193,1197,1197,1197,1197,1197,1197,1197,1202,1202,1206,1210,1210,1210,1210,1210,1214,1214,1214,1219,1219,1223,1223,1223,1227,1227,1227,1227,1232,1232,1232,1232,1236,1236,1236,1236,1236,1241,1241,1245,1245,1245,1245,1458,1452,1452,1458,1458,1458,1458,1452,1452,1452,1445,1445,1283,1278,1278,1278,1278,1273,1273,1273,1273,1278,1278,1283,1283,1283,1283,1283,1288,1288,1288,1452,1445,1439,1439,1439,1433,1433,1433,1433,1433,1433,1433,1433,1433,1433,1433,1433,1433,1433,1427,1427,1427,1427,1427,1427,1427,1427,1427,1427,1427,1427,1427,1421,1421,1421,1421,1421,1421,1427,1427,1421,1410,1404,1398,1392,1392,1001,1001,998,995,995,992,992,989,987,984,984,981,981,984,984,984,987,987,989,989,992,992,992,992,992,992,992,992,992,1410,1410,1410,1410,1410,1410,1404,1404,1404,1404,1404,1404,1398,1398,1398,1398,1398,1392,1392,1398,1398,1398,1398,1398,1398,1398,1392,1392,1392,1392,1392,1392,1392,1392,1392,1392,1392,1392,1392,1392,1392,1392,1392,1392,1392,1387,1387,1387,1387,1387,1381,1381,1381,1381,1381,1381,1381,1381,1381,1381,1381,1381,1376,1376,1376,1376,1376,1376,1376,1376,1376,1376,1381,1376,1376,1376,1376,1376,1376,1370,1370,1370,1370,1370,1365,1365,1370,1370,1370,1370,1376,1376,1376,1370,1370,1370,1370,1370,1365,1365,1365,1365,1365,1365,1365,1365,1365,1365,1365,1365,1365,1359,1359,1359,1359,1359,1354,1354,1354,1359,1359,1354,1354,1354,1354,1354,1354,1354,1354,1354,1349,1349,1349,1343,1343,1343,1343,1343,1338,1338,1338,1338,1333,1333,1333,1328,1328,1322,1312,1312,1312,1307,1307,1307,1302,1302,1297,1297,1292,1292,1288,1288,1288,1283,1278,1273,1273,1268,1268,1268,1264,1259,1259,1255,1255,1255,1250,1250,1250,1245,1241,1236,1236,1232,1232,1232,1227,1227,1223,1219,1214,1214,1210,1210,1210,1210,1206,1202,1202,1202,1197,1197,1193,1193,1189,1185,1181,1181,1177,1177,1173,1173,1169,1169,1169,1165,1165,1165,1161,1157,1153,1153,1153,1149,1145,1145,1141,1141,1138,1138,1138,1134,1134,1134,1134,1130,1126,1123,1123,1123,1119,1119,1115,1115,1112,1112,1108,1108,1108,964,964,964,962,959,956,956,0,0,0,0,0,0,0,0,0,0,0,0,0,0,0,0,0,0,0,0,0,0,0,0,0,0,0,0,0,0,0,0,0,0
0,0,0,0,0,0,0,0,0,0,0,1536,1536,1536,1536,1536,1543,1543,1543,1543,1543,1543,1543,1536,1536,1536,1529,1529,1529,1529,1529,1529,1529,1529,1529,1529,1529,1536,1536,1536,1536,1536,1536,1529,1529,1529,1529,1529,1529,1529,1523,1523,1523,1523,1523,1523,1523,1523,1523,1523,1529,1529,1523,1523,1523,1523,1523,1523,0,1516,0,1047,1047,1047,1050,1050,1050,1047,1047,1047,1047,1047,1047,1047,1050,1050,1050,1050,1050,1054,1054,1054,1054,1057,1054,1054,0,0,0,0,0,0,0,0,0,0,0,0,0,0,0,0,710,710,708,708,708,710,710,711,713,713,713,714,716,716,717,717,719,719,720,720,722,723,723,725,725,725,0,0,0,0,0,0,0,0,0,1489,1489,1489,1489,1489,1489,1489,1489,1483,1483,1483,1483,1483,1483,1483,1483,1483,1483,1483,1483,1483,1483,1489,1483,1483,1173,1169,1169,1173,1177,1177,1177,1177,1177,1177,1177,1177,1177,1181,1181,1181,1185,1185,1185,1185,1189,1189,1189,1193,1193,1193,1193,1193,1193,1193,1197,1197,1197,1197,1197,1197,1202,1202,1202,1206,1210,1210,1210,1210,1214,1214,1214,1214,1219,1219,1223,1223,1223,1227,1227,1227,1227,1232,1232,1232,1236,1241,1241,1241,1458,1458,1458,1458,1458,1458,1452,1452,1452,1445,1445,1452,1452,1452,1445,1445,1445,1445,1439,1439,1439,1278,1278,1278,1278,1278,1278,1278,1278,1278,1283,1283,1283,1283,1283,1283,1288,1288,1288,1445,1439,1439,1433,1433,1433,1427,1427,1427,1433,1433,1433,1433,1433,1433,1427,1427,1427,1427,1427,1421,1421,1421,1421,1421,1421,1421,1421,1421,1421,1421,1421,1415,1415,1415,1415,1415,1421,1415,1415,1410,1404,1398,1398,1392,1392,1392,1001,1001,998,995,995,992,989,987,987,984,984,984,984,984,987,989,989,989,989,992,992,992,995,992,992,992,992,992,1410,1410,1404,1404,1404,1404,1398,1398,1398,1398,1398,1398,1392,1392,1392,1392,1392,1387,1387,1392,1392,1392,1392,1392,1392,1392,1392,1392,1387,1387,1387,1387,1387,1387,1387,1387,1387,1387,1392,1392,1392,1392,1387,1387,1381,1381,1381,1381,1381,1381,1376,1376,1376,1376,1376,1376,1376,1376,1376,1376,1376,1376,1376,1376,1370,1370,1370,1376,1376,1376,1376,1376,1376,1376,1370,1370,1370,1370,1370,1370,1370,1370,1370,1365,1365,1365,1365,1365,1365,1365,1365,1365,1365,1370,1365,1365,1365,1365,1359,1359,1359,1359,1359,1359,1359,1359,1359,1359,1354,1354,1359,1354,1354,1354,1354,1354,1354,1354,1354,1354,1354,1354,1354,1354,1354,1354,1349,1349,1349,1349,1349,1349,1349,1343,1343,1338,1338,1338,1338,1338,1333,1333,1333,1333,1328,1328,1322,1322,1312,1312,1312,1307,1307,1307,1307,1302,1297,1297,1292,1292,1288,1288,1288,1283,1278,1278,1273,1273,1268,1268,1264,1264,1259,1255,1255,1255,1250,1250,1245,1245,1241,1236,1236,1232,1232,1232,1227,1227,1223,1223,1214,1214,1210,1210,1210,1210,1206,1202,1202,1202,1197,1197,1193,1193,1189,1185,1181,1181,1181,1177,1177,1173,1169,1169,1169,1165,1165,1165,1165,1161,1157,1153,1153,1149,1149,1145,1141,1141,1138,1138,1138,1134,1134,1134,1134,1130,1126,1123,1123,1123,1119,1119,1115,1115,1112,1112,1108,1108,967,962,962,962,959,959,956,956,0,0,0,0,0,0,0,0,0,0,0,0,0,0,0,0,0,0,0,0,0,0,0,0,0,0,0,0,0,0,0,0,0,0
0,0,0,0,0,0,0,0,0,0,0,1536,1529,1529,1523,1523,1536,1536,1536,1536,1536,1536,1536,1529,1529,1529,1529,1529,1523,1523,1523,1523,1523,1523,1523,1529,1529,1529,1529,1529,1529,1529,1529,1529,1523,1523,1523,1523,1523,1523,1516,1516,1516,1516,1516,1516,1516,1516,1516,1516,1523,1523,1523,1523,1523,1516,1516,1516,1516,0,1509,1047,1047,1047,1050,1050,1050,1050,1047,1047,1047,1047,1047,1050,1050,1050,1050,1050,1050,1054,1054,1054,1057,1057,1057,1057,0,0,0,0,0,0,0,0,0,0,0,0,0,0,0,0,0,710,708,708,708,710,711,711,713,713,713,714,716,716,717,719,720,720,720,722,722,723,725,725,725,725,0,0,0,0,0,0,0,0,0,1489,1489,1483,1483,1483,1483,1483,1483,1483,1483,1483,1483,1483,1477,1477,1477,1477,1483,1483,1483,1483,1483,1483,1483,1169,1169,1169,1169,1169,1173,1173,1173,1173,1173,1177,1177,1177,1177,1177,1177,1181,1181,1181,1185,1185,1185,1189,1189,1193,1193,1193,1193,1193,1193,1193,1193,1197,1197,1197,1197,1197,1202,1202,1206,1210,1210,1210,1210,1210,1214,1214,1214,1219,1219,1219,1223,1223,1223,1227,1227,1227,1227,1227,1232,1232,1236,1241,1241,1241,1439,1439,1445,1445,1445,1445,1445,1445,1439,1439,1445,1445,1445,1445,1445,1439,1439,1433,1433,1433,1427,1283,1283,1283,1283,1278,1278,1278,1278,1278,1283,1283,1283,1283,1283,1283,1288,1288,1288,1288,1439,1433,1433,1427,1427,1427,1427,1427,1427,1427,1427,1427,1421,1421,1421,1421,1421,1415,1415,1415,1415,1415,1415,1415,1415,1415,1415,1415,1415,1415,1415,1410,1410,1410,1410,1410,1415,1410,1410,1410,1404,1398,1398,1392,1392,1392,1001,1001,1001,1001,998,995,992,989,987,984,984,984,984,984,987,989,989,989,992,992,992,995,995,995,995,992,992,992,1398,1398,1398,1398,1398,1398,1398,1398,1398,1398,1392,1392,1392,1392,1392,1392,1387,1387,1387,1387,1387,1387,1387,1387,1387,1387,1387,1387,1381,1381,1381,1376,1376,1376,1381,1381,1381,1381,1387,1387,1387,1387,1381,1381,1381,1376,1376,1376,1376,1376,1376,1370,1370,1370,1370,1376,1376,1376,1376,1376,1370,1370,1370,1370,1370,1370,1370,1370,1370,1370,1370,1370,1370,1370,1370,1365,1365,1370,1370,1370,1365,1365,1365,1365,1359,1359,1359,1359,1359,1365,1365,1359,1359,1365,1359,1354,1354,1359,1359,1354,1354,1359,1354,1354,1354,1354,1354,1354,1349,1349,1349,1354,1354,1354,1354,1354,1354,1354,1354,1349,1349,1349,1349,1349,1349,1349,1349,1349,1349,1349,1343,1343,1343,1338,1338,1338,1338,1338,1333,1333,1333,1333,1333,1333,1328,1328,1322,1317,1312,1312,1312,1307,1307,1307,1307,1302,1297,1297,1292,1292,1288,1288,1288,1283,1278,1278,1273,1273,1273,1268,1268,1264,1264,1255,1255,1255,1250,1250,1245,1245,1241,1236,1236,1236,1232,1232,1227,1227,1223,1223,1214,1214,1214,1210,1210,1210,1206,1202,1202,1202,1197,1197,1193,1193,1189,1185,1185,1181,1181,1177,1177,1173,1169,1169,1169,1165,1165,1165,1165,1165,1161,1157,1153,1153,1149,1145,1141,1141,1138,1138,1138,1138,1134,1134,1134,1130,1126,1123,1123,1123,1119,1119,1115,1115,1112,1112,1108,970,967,962,962,962,959,959,956,956,0,0,0,0,0,0,0,0,0,0,0,0,0,0,0,0,0,0,0,0,0,0,0,0,0,0,0,0,0,0,0,0,0,0
0,0,0,0,0,0,0,0,0,0,0,1523,1523,1523,1516,1516,1523,1523,1529,1529,1529,1529,1529,1529,1523,1523,1523,1523,1523,1523,1523,1523,1523,1523,1523,1523,1516,1516,1523,1523,1516,1516,1523,1523,1523,1516,1516,1516,1523,1523,1516,1516,1516,1516,1516,1516,1516,1516,1516,1516,1516,1516,1516,1516,1516,1509,1509,1509,1509,1509,0,1503,0,1050,1050,1054,1050,1050,1050,1050,1050,1050,1050,1050,1050,1050,1050,1050,1054,1057,1057,1060,1060,1060,1057,1057,0,0,0,0,0,0,0,0,0,0,0,0,0,0,0,0,0,710,710,710,710,710,711,713,713,713,714,714,716,717,717,720,720,720,722,722,723,723,725,725,725,725,0,0,0,0,0,0,0,0,0,1489,1489,1483,1483,1483,1483,1483,1483,1477,1477,1477,1477,1477,1477,1477,1477,1477,1483,1483,1483,1483,1483,1165,1165,1169,1169,1169,1169,1169,1169,1169,1173,1173,1173,1177,1177,1177,1177,1177,1177,1177,1181,1181,1181,1181,1181,1185,1189,1193,1193,1193,1193,1193,1193,1193,1193,1197,1197,1197,1197,1197,1202,1202,1210,1210,1210,1210,1210,1214,1214,1214,1214,1219,1219,1219,1223,1223,1223,1227,1227,1227,1227,1227,1232,1232,1433,1433,1433,1433,1433,1433,1439,1439,1439,1439,1439,1439,1439,1439,1439,1439,1439,1439,1439,1439,1433,1433,1427,1427,1427,1421,1288,1288,1283,1283,1283,1283,1283,1283,1283,1283,1283,1283,1283,1288,1288,1288,1288,1288,1433,1433,1427,1421,1421,1421,1421,1415,1415,1421,1421,1421,1421,1415,1415,1415,1415,1415,1415,1415,1415,1415,1415,1415,1415,1415,1415,1410,1410,1410,1410,1410,1410,1410,1410,1410,1410,1404,1404,1404,1398,1398,1398,1392,1392,1392,1004,1004,1001,1001,1001,998,995,992,989,987,987,987,987,987,987,989,989,989,992,992,995,995,998,995,995,998,998,1004,1398,1398,1398,1392,1392,1392,1392,1392,1392,1392,1392,1387,1387,1387,1387,1387,1387,1381,1381,1381,1381,1387,1381,1381,1381,1381,1381,1381,1376,1376,1376,1376,1376,1376,1376,1376,1376,1376,1376,1381,1376,1376,1376,1376,1376,1376,1370,1370,1370,1370,1370,1370,1370,1370,1370,1370,1370,1370,1370,1370,1370,1370,1370,1370,1365,1365,1370,1370,1370,1370,1370,1370,1365,1365,1365,1365,1365,1365,1365,1365,1359,1359,1359,1359,1354,1354,1354,1354,1354,1359,1359,1359,1359,1359,1354,1354,1354,1349,1349,1349,1354,1354,1354,1354,1354,1354,1349,1349,1349,1349,1349,1349,1349,1349,1349,1349,1349,1349,1349,1349,1349,1343,1343,1343,1343,1343,1343,1343,1343,1343,1343,1343,1338,1338,1338,1333,1333,1333,1333,1333,1333,1333,1333,1328,1328,1328,1322,1317,1312,1312,1312,1307,1307,1307,1307,1302,1302,1297,1292,1292,1288,1288,1288,1283,1283,1278,1273,1273,1268,1268,1268,1264,1264,1259,1255,1255,1250,1250,1245,1245,1241,1241,1236,1236,1232,1232,1227,1227,1227,1223,1214,1214,1214,1210,1210,1210,1206,1206,1202,1202,1197,1197,1193,1193,1189,1185,1185,1181,1181,1181,1177,1173,1173,1169,1169,1169,1165,1165,1165,1165,1161,1157,1153,1153,1149,1145,1145,1141,1141,1138,1138,1138,1134,1134,1134,1130,1130,1126,1123,1123,1119,1119,1115,1115,1112,1112,973,970,967,962,962,959,959,959,956,956,0,0,0,0,0,0,0,0,0,0,0,0,0,0,0,0,0,0,0,0,0,0,0,0,0,0,0,0,0,0,0,0,0,0
0,0,0,0,0,0,0,0,0,0,0,1523,1523,1516,1516,1516,1516,1516,1523,1523,1529,1523,1523,1523,1523,1523,1523,1523,1523,1523,1523,1523,1516,1516,1516,1516,1516,1516,1516,1516,1516,1516,1516,1516,1516,1516,1516,1516,1516,1516,1516,1516,1516,1516,1516,1509,1509,1509,1516,1516,1516,1516,1516,1516,1509,1509,1509,1503,1503,1503,1503,1503,1489,0,1057,1057,1054,1050,1050,1050,1050,1050,1050,1050,1050,1050,1050,1054,1057,1057,1057,1060,1060,1060,1060,1060,1063,0,0,0,0,0,0,0,0,0,0,0,0,0,0,0,0,711,711,711,711,711,711,713,713,713,714,714,716,717,717,720,720,722,722,722,723,725,725,725,725,725,727,0,0,0,0,0,0,0,0,1489,1483,1483,1483,1477,1477,1477,1477,1477,1477,1477,1477,1477,1477,1477,1470,1470,1149,1149,1157,1157,1165,1165,1165,1169,1169,1165,1165,1169,1169,1169,1169,1173,1173,1177,1177,1177,1177,1177,1177,1177,1177,1177,1177,1177,1177,1181,1181,1189,1189,1193,1193,1193,1193,1193,1197,1197,1197,1197,1197,1202,1202,1206,1210,1210,1210,1210,1210,1214,1214,1214,1214,1219,1219,1223,1223,1223,1227,1227,1227,1227,1433,1439,1433,1433,1433,1433,1433,1433,1433,1433,1433,1433,1433,1439,1439,1439,1433,1433,1433,1433,1433,1433,1433,1433,1433,1427,1427,1421,1421,1415,1288,1288,1288,1288,1283,1283,1283,1283,1283,1283,1283,1288,1288,1288,1288,1288,1288,1292,1433,1427,1421,1415,1415,1415,1415,1415,1415,1415,1415,1415,1415,1415,1415,1410,1410,1410,1410,1410,1410,1410,1410,1410,1410,1410,1410,1410,1410,1404,1404,1404,1404,1404,1398,1398,1404,1404,1404,1404,1398,1398,1392,1392,1392,1010,1010,1010,1004,1004,1001,1001,998,995,989,989,987,987,987,987,989,989,989,992,992,992,995,995,998,998,998,1001,1004,1004,0,1398,1392,1387,1387,1387,1387,1387,1387,1387,1387,1381,1381,1381,1381,1381,1381,1376,1376,1376,1376,1376,1376,1376,1376,1376,1376,1376,1376,1376,1376,1376,1376,1376,1370,1370,1370,1370,1370,1376,1370,1370,1376,1370,1370,1370,1370,1370,1370,1370,1370,1365,1365,1365,1370,1370,1370,1370,1370,1370,1365,1365,1365,1365,1359,1359,1365,1365,1365,1365,1365,1365,1365,1359,1359,1359,1359,1359,1359,1359,1359,1354,1354,1354,1354,1354,1354,1354,1354,1354,1354,1354,1354,1354,1354,1349,1349,1343,1343,1343,1343,1343,1343,1343,1349,1349,1349,1349,1349,1349,1349,1349,1349,1349,1349,1349,1349,1343,1343,1343,1343,1338,1338,1338,1338,1338,1338,1338,1338,1338,1338,1338,1333,1333,1333,1333,1333,1333,1333,1333,1333,1333,1328,1328,1328,1328,1322,1317,1312,1312,1312,1307,1307,1307,1307,1302,1302,1302,1297,1292,1292,1288,1288,1283,1283,1278,1273,1273,1268,1268,1268,1264,1264,1259,1255,1255,1250,1250,1245,1245,1241,1241,1236,1236,1232,1232,1227,1227,1227,1223,1214,1214,1214,1214,1210,1210,1210,1206,1206,1202,1197,1197,1193,1193,1189,1185,1185,1181,1181,1181,1177,1177,1173,1169,1169,1169,1169,1165,1165,1165,1161,1157,1153,1153,1153,1149,1145,1145,1141,1138,1138,1138,1134,1134,1134,1130,1130,1126,1123,1119,1119,1119,1115,1115,1112,1112,973,970,967,962,962,959,956,956,954,954,0,0,0,0,0,0,0,0,0,0,0,0,0,0,0,0,0,0,0,0,0,0,0,0,0,0,0,0,0,0,0,0,0,0
0,0,0,0,0,0,0,0,0,0,0,1516,1516,1516,1516,1516,1516,1516,1516,1516,1516,1516,1516,1516,1516,1516,1516,1516,1516,1516,1516,1516,1516,1516,1516,1516,1516,1509,1509,1509,1509,1509,1509,1509,1516,1509,1509,1509,1509,1516,1509,1509,1509,1509,1509,1509,1509,1509,1509,1509,1509,1509,1509,1509,1503,1503,1503,1503,1496,1496,1489,1489,0,0,0,1057,1054,1054,1050,1050,1050,1050,1050,1050,1050,1050,1050,1054,1057,1057,1060,1060,1060,1063,1063,1063,1063,1067,0,0,0,0,0,0,0,0,0,0,0,0,0,0,716,713,711,711,711,713,713,713,714,714,714,716,716,717,719,720,720,722,722,723,725,725,727,727,727,727,727,728,0,0,0,0,0,0,0,0,1483,1477,1477,1477,1477,1470,1470,1470,1470,1470,1470,1470,1470,1470,1470,1149,1149,1149,1153,1157,1165,1165,1165,1165,1165,1165,1165,1165,1169,1169,1169,1173,1173,1173,1177,1177,1177,1177,1177,1177,1177,1177,1173,1173,1173,1177,1181,1185,1189,1189,1193,1193,1193,1193,1197,1197,1197,1197,1202,1202,1206,1206,1210,1210,1210,1210,1210,1214,1214,1214,1219,1219,1219,1223,1223,1223,1433,1433,1433,1433,1433,1439,1433,1433,1433,1433,1433,1433,1433,1433,1433,1433,1433,1433,1433,1433,1427,1427,1427,1427,1427,1427,1427,1427,1427,1421,1421,1415,1415,1415,1297,1292,1288,1288,1288,1288,1283,1283,1283,1288,1288,1288,1288,1288,1288,1288,1292,1292,1421,1421,1415,1415,1415,1415,1410,1410,1410,1410,1410,1410,1410,1410,1410,1410,1410,1410,1410,1410,1404,1404,1404,1404,1404,1404,1404,1404,1404,1398,1398,1398,1398,1398,1392,1392,1398,1398,1398,1398,1398,1392,1392,1392,1392,1387,1010,1010,1007,1007,1004,1001,998,995,989,989,989,989,989,989,989,989,989,992,992,995,995,998,1001,1001,1001,1004,1004,1004,1387,1387,1387,1387,1387,1387,1381,1381,1381,1381,1376,1376,1376,1376,1376,1376,1376,1376,1376,1376,1376,1376,1376,1376,1376,1376,1376,1376,1370,1370,1370,1370,1370,1370,1370,1370,1370,1370,1370,1370,1370,1370,1365,1365,1365,1370,1370,1365,1365,1365,1365,1365,1365,1365,1365,1365,1365,1365,1365,1365,1359,1359,1359,1359,1354,1354,1359,1359,1359,1359,1359,1359,1359,1354,1354,1354,1354,1354,1354,1354,1354,1354,1354,1349,1349,1349,1349,1349,1349,1349,1349,1349,1349,1349,1349,1343,1343,1338,1338,1343,1343,1338,1338,1338,1338,1338,1338,1338,1343,1343,1343,1343,1343,1343,1338,1338,1343,1338,1338,1338,1338,1338,1338,1333,1333,1338,1333,1333,1333,1333,1333,1333,1333,1333,1333,1328,1328,1328,1328,1328,1328,1328,1328,1328,1322,1322,1322,1317,1312,1312,1312,1307,1307,1307,1307,1307,1302,1302,1297,1292,1292,1292,1288,1283,1283,1278,1278,1273,1273,1268,1268,1264,1264,1259,1255,1255,1255,1250,1250,1245,1241,1241,1236,1236,1232,1232,1227,1227,1227,1223,1219,1219,1214,1214,1214,1214,1210,1210,1206,1202,1202,1197,1197,1193,1189,1185,1185,1185,1181,1181,1181,1177,1173,1173,1169,1169,1169,1165,1165,1165,1165,1157,1153,1153,1153,1149,1145,1145,1141,1141,1138,1138,1138,1134,1134,1130,1130,1126,1123,1119,1119,1119,1115,1115,1115,975,973,970,967,962,959,956,954,954,951,951,0,0,0,0,0,0,0,0,0,0,0,0,0,0,0,0,0,0,0,0,0,0,0,0,0,0,0,0,0,0,0,0,0,0
0,0,0,0,0,0,0,0,0,0,0,1516,1516,1516,1516,1516,1516,1516,1516,1516,1516,1516,1516,1516,1516,1516,1516,1516,1516,1516,1516,1516,1516,1516,1516,1516,1509,1509,1509,1509,1503,1503,1503,1503,1509,1509,1509,1509,1509,1509,1509,1503,1503,1503,1503,1503,1503,1503,1503,1503,1503,1503,1503,1503,1503,1496,1496,1496,1496,1496,1489,1489,1489,0,1060,1060,1057,1054,1050,1050,1050,1050,1050,1050,1050,1050,1054,1054,1057,1057,1060,1060,1063,1063,1063,1063,1063,1067,0,0,0,0,0,0,0,0,0,0,0,0,0,0,716,714,713,713,713,713,713,713,714,714,716,716,716,717,719,720,720,722,723,723,725,727,727,727,727,727,727,728,0,0,0,0,0,0,0,0,0,1470,1464,1464,1470,1470,1470,1470,1464,1464,1165,1161,1157,1157,1149,1149,1149,1149,1153,1161,1165,1165,1165,1165,1165,1165,1165,1165,1165,1169,1169,1173,1173,1173,1173,1173,1177,1177,1173,1173,1173,1173,1169,1169,1169,1173,1173,1181,1185,1189,1193,1193,1193,1197,1197,1197,1197,1202,1202,1206,1206,1210,1210,1210,1210,1210,1214,1214,1214,1214,1219,1219,1219,1223,1227,1427,1427,1433,1433,1427,1427,1433,1433,1433,1433,1433,1433,1433,1427,1427,1427,1427,1427,1427,1427,1427,1427,1427,1427,1421,1421,1421,1421,1421,1421,1415,1415,1415,1410,1410,1297,1297,1292,1292,1292,1288,1288,1288,1288,1288,1288,1288,1288,1288,1288,1292,1292,1292,1297,1297,1415,1415,1410,1410,1410,1410,1410,1410,1410,1410,1410,1410,1410,1410,1410,1410,1404,1404,1404,1404,1404,1404,1398,1398,1398,1398,1398,1398,1398,1392,1392,1392,1392,1392,1398,1398,1398,1398,1392,1392,1387,1387,1387,1387,1013,1013,1010,1007,1004,1004,998,995,992,989,989,989,989,989,989,989,989,992,992,995,998,998,1001,1004,1004,1004,1007,1007,1013,1387,1387,1387,1381,1381,1381,1376,1376,1376,1376,1376,1376,1376,1376,1376,1376,1370,1370,1370,1370,1370,1370,1370,1370,1370,1370,1370,1370,1365,1365,1365,1365,1365,1365,1365,1359,1359,1359,1365,1365,1365,1359,1359,1359,1359,1359,1359,1359,1359,1359,1359,1359,1359,1359,1359,1359,1359,1359,1359,1354,1354,1354,1354,1354,1354,1354,1354,1354,1359,1354,1354,1354,1354,1354,1354,1354,1354,1349,1349,1349,1349,1349,1349,1349,1349,1343,1343,1343,1343,1343,1343,1343,1338,1338,1338,1338,1333,1333,1338,1338,1333,1333,1333,1333,1333,1333,1333,1333,1333,1333,1333,1338,1338,1338,1338,1338,1333,1333,1333,1333,1333,1333,1333,1333,1333,1333,1333,1333,1328,1328,1328,1328,1328,1328,1328,1328,1328,1328,1328,1328,1328,1322,1322,1322,1322,1317,1312,1312,1312,1312,1307,1307,1307,1307,1302,1302,1297,1297,1292,1292,1288,1288,1283,1283,1283,1278,1273,1273,1273,1268,1264,1264,1259,1255,1255,1255,1250,1250,1245,1245,1241,1236,1236,1232,1232,1232,1232,1227,1227,1223,1219,1219,1214,1214,1214,1210,1210,1206,1202,1202,1197,1197,1197,1189,1189,1185,1185,1185,1181,1181,1177,1177,1173,1169,1169,1169,1165,1165,1165,1165,1157,1157,1153,1153,1149,1149,1149,1145,1145,1138,1138,1138,1138,1134,1134,1130,1126,1123,1119,1119,1119,1115,978,978,975,973,970,967,962,959,956,954,954,948,948,0,0,0,0,0,0,0,0,0,0,0,0,0,0,0,0,0,0,0,0,0,0,0,0,0,0,0,0,0,0,0,0,0,0
0,0,0,0,0,0,0,0,0,0,0,1516,1516,1516,1509,1509,1509,1509,1509,1509,1509,1509,1509,1509,1509,1509,1509,1509,1509,1509,1509,1509,1509,1509,1509,1509,1503,1503,1496,1496,1496,1496,1503,1503,1503,1503,1503,1503,1503,1503,1503,1496,1496,1496,1496,1496,1496,1496,1496,1496,1503,1503,1503,1496,1496,1496,1496,1489,1489,1489,1489,1489,1489,0,1060,1060,1057,1054,1050,1050,1050,1050,1050,1050,1050,1050,1054,1057,1057,1057,1060,1060,1063,1063,1063,1063,1067,1067,1070,0,0,0,0,0,0,0,0,0,0,0,0,0,716,716,714,714,714,714,714,714,714,716,716,717,717,719,719,720,722,722,723,725,725,727,727,727,727,728,728,730,730,0,0,0,0,0,0,0,0,1470,1458,1458,1464,1464,1464,1464,1464,1464,1161,1161,1157,1157,1149,1149,1149,1149,1161,1161,1161,1161,1165,1165,1165,1165,1165,1165,1165,1165,1165,1169,1169,1173,1173,1173,1173,1173,1173,1169,1169,1169,1165,1165,1165,1165,1169,1169,1177,1189,1189,1193,1197,1197,1197,1197,1197,1202,1206,1206,1206,1210,1210,1210,1210,1214,1214,1214,1219,1219,1219,1219,1219,1223,1427,1427,1427,1427,1427,1427,1427,1433,1433,1433,1427,1427,1427,1427,1427,1427,1427,1421,1421,1421,1421,1421,1421,1421,1421,1415,1415,1415,1415,1415,1415,1415,1415,1415,1410,1410,1297,1297,1297,1292,1292,1292,1288,1288,1288,1288,1288,1288,1288,1288,1292,1292,1292,1292,1297,1297,1410,1410,1410,1410,1410,1404,1404,1404,1404,1404,1404,1404,1404,1404,1404,1404,1398,1398,1398,1398,1398,1398,1398,1398,1398,1398,1398,1392,1392,1392,1392,1392,1387,1387,1392,1392,1392,1392,1392,1392,1387,1387,1387,1387,1013,1013,1013,1010,1007,1004,1001,998,992,992,989,989,989,989,989,989,992,992,992,995,998,1001,1001,1004,1004,1004,1007,1013,1013,1387,1387,1381,1381,1381,1376,1376,1376,1376,1376,1370,1370,1370,1370,1370,1370,1370,1370,1370,1365,1365,1365,1365,1365,1365,1365,1365,1365,1365,1365,1359,1359,1359,1359,1359,1359,1359,1359,1359,1359,1359,1354,1354,1354,1354,1354,1354,1354,1354,1354,1354,1354,1354,1354,1354,1354,1354,1354,1354,1354,1354,1354,1349,1349,1349,1349,1349,1349,1354,1349,1349,1354,1349,1349,1349,1349,1349,1349,1349,1349,1349,1349,1343,1343,1343,1338,1338,1338,1338,1338,1338,1333,1333,1338,1333,1333,1333,1333,1333,1333,1333,1333,1333,1333,1333,1333,1333,1328,1328,1328,1328,1328,1328,1333,1333,1333,1333,1333,1333,1333,1333,1333,1328,1328,1328,1328,1328,1328,1328,1328,1328,1322,1322,1322,1322,1322,1322,1322,1322,1322,1317,1317,1322,1317,1317,1312,1312,1312,1307,1307,1307,1307,1302,1302,1302,1297,1297,1297,1292,1292,1288,1288,1283,1283,1283,1278,1278,1273,1273,1268,1264,1264,1259,1255,1255,1255,1250,1250,1245,1245,1241,1236,1236,1232,1232,1232,1232,1227,1227,1223,1219,1219,1214,1214,1214,1210,1210,1206,1202,1202,1197,1197,1197,1189,1189,1185,1185,1185,1181,1181,1177,1177,1173,1173,1169,1169,1169,1165,1165,1161,1161,1157,1153,1153,1153,1149,1149,1149,1145,1141,1138,1138,1138,1134,1134,1130,1130,1123,1119,1119,1119,978,978,975,975,970,967,962,959,956,954,951,951,948,948,0,0,0,0,0,0,0,0,0,0,0,0,0,0,0,0,0,0,0,0,0,0,0,0,0,0,0,0,0,0,0,0,0,0
0,0,0,0,0,0,0,0,0,0,0,1509,1509,1509,1509,1509,1509,1509,1509,1509,1509,1509,1509,1509,1509,1509,1503,1503,1509,1503,1503,1509,1509,1509,1503,1503,1496,1496,1496,1496,1496,1496,1496,1496,1496,1496,1496,1496,1496,1496,1489,1489,1489,1489,1489,1489,1489,1489,1489,1489,1489,1496,1496,1489,1489,1489,1489,1489,1483,1483,1464,1464,1464,0,1057,1057,1057,1054,1050,1050,1050,1050,1050,1050,1050,1050,1054,1057,1057,1057,1060,1060,1060,1063,1063,1063,1067,1067,1070,0,0,0,0,0,0,0,0,0,0,0,0,0,717,716,716,714,714,714,714,714,714,716,716,717,719,719,720,720,722,722,723,725,727,727,727,727,728,728,728,730,730,0,0,0,0,0,0,0,0,0,1458,1458,1464,1157,1157,1161,1161,1161,1161,1161,1157,1157,1157,1157,1153,1153,1161,1161,1161,1161,1165,1165,1165,1165,1165,1165,1165,1165,1165,1169,1169,1173,1173,1173,1173,1173,1173,1169,1169,1165,1165,1161,1161,1165,1165,1165,1169,1177,1185,1193,1197,1197,1197,1202,1202,1202,1206,1206,1210,1210,1214,1214,1214,1214,1214,1219,1219,1219,1219,1219,1421,1427,1421,1421,1421,1421,1421,1421,1421,1427,1427,1427,1427,1427,1421,1421,1421,1421,1415,1415,1421,1421,1415,1415,1415,1415,1415,1415,1415,1415,1415,1415,1415,1415,1415,1415,1410,1410,1410,1297,1297,1297,1292,1292,1292,1288,1288,1288,1288,1288,1288,1292,1292,1292,1292,1292,1297,1297,1404,1404,1404,1404,1404,1404,1404,1404,1404,1398,1398,1398,1398,1398,1398,1398,1398,1398,1398,1398,1398,1398,1398,1392,1392,1392,1392,1392,1392,1392,1387,1387,1387,1387,1392,1387,1387,1387,1387,1387,1381,1381,1381,1381,0,1013,1013,1010,1007,1007,1004,1001,992,992,992,992,989,989,989,992,992,995,995,998,998,1001,1001,1004,1004,1004,1007,1013,1013,1381,1381,1381,1376,1376,1376,1370,1370,1370,1370,1370,1370,1370,1370,1370,1370,1365,1365,1365,1365,1359,1359,1365,1365,1365,1359,1359,1359,1359,1359,1354,1354,1354,1354,1354,1354,1354,1354,1354,1354,1354,1354,1354,1354,1349,1349,1349,1349,1349,1349,1349,1349,1349,1349,1349,1349,1349,1349,1349,1349,1349,1349,1349,1349,1343,1343,1343,1343,1349,1349,1349,1349,1349,1349,1349,1343,1343,1343,1338,1338,1338,1338,1338,1338,1338,1338,1333,1333,1333,1333,1333,1333,1333,1333,1333,1333,1328,1328,1328,1328,1328,1328,1328,1328,1328,1328,1328,1328,1328,1328,1328,1328,1328,1328,1328,1328,1328,1328,1328,1328,1328,1328,1328,1328,1328,1322,1322,1322,1322,1322,1322,1317,1317,1317,1317,1317,1317,1317,1312,1312,1312,1312,1312,1312,1312,1312,1312,1312,1307,1307,1307,1307,1302,1302,1297,1297,1297,1292,1292,1292,1288,1288,1283,1283,1283,1278,1278,1273,1273,1268,1268,1264,1259,1259,1255,1255,1250,1250,1245,1245,1241,1241,1236,1232,1232,1232,1232,1227,1227,1223,1219,1219,1214,1214,1214,1214,1210,1206,1202,1202,1197,1197,1197,1193,1189,1185,1185,1185,1181,1181,1181,1181,1177,1173,1169,1169,1169,1165,1165,1161,1161,1157,1153,1153,1153,1149,1149,1149,1145,1141,1141,1138,1138,1134,1134,1134,1130,1123,1123,1119,981,978,978,975,975,970,967,959,959,956,951,951,948,948,948,0,0,0,0,0,0,0,0,0,0,0,0,0,0,0,0,0,0,0,0,0,0,0,0,0,0,0,0,0,0,0,0,0,0
0,0,0,0,0,0,0,0,0,0,0,1503,1503,1503,1503,1503,1503,1503,1503,1503,1503,1503,1503,1503,1503,1503,1503,1503,1503,1503,1503,1503,1503,1503,1503,1496,1496,1489,1489,1489,1489,1489,1489,1489,1489,1489,1489,1489,1489,1489,1489,1489,1489,1489,1489,1483,1483,1483,1483,1483,1483,1489,1489,1483,1483,1483,1483,1483,1483,1477,1458,1458,1458,1445,0,1060,1060,1054,1050,1050,1050,1050,1050,1050,1050,1050,1054,1057,1057,1057,1060,1060,1060,1063,1063,1063,1063,1067,1067,0,0,0,0,0,0,0,0,0,0,0,0,0,717,717,716,716,714,714,716,716,716,716,717,717,719,719,720,720,722,722,723,723,727,727,728,728,728,728,728,730,733,734,736,0,0,0,0,0,1145,1145,1141,1141,1145,1149,1153,1157,1157,1157,1157,1157,1153,1153,1157,1157,1157,1157,1157,1157,1161,1161,1161,1165,1165,1165,1165,1165,1165,1165,1169,1169,1169,1173,1173,1173,1173,1173,1169,1169,1165,1165,1161,1161,1161,1161,1161,1161,1161,1165,1169,1193,1197,1197,1197,1202,1202,1202,1206,1206,1210,1210,1214,1214,1214,1214,1219,1219,1219,1219,1415,1415,1421,1421,1421,1421,1421,1421,1421,1421,1421,1421,1421,1421,1421,1421,1421,1415,1415,1415,1415,1415,1415,1415,1415,1415,1415,1415,1410,1410,1410,1410,1410,1410,1410,1410,1410,1410,1410,1410,1410,1297,1297,1297,1292,1292,1292,1292,1292,1292,1292,1292,1292,1292,1297,1297,1302,1297,1297,1297,1404,1404,1398,1398,1392,1392,1398,1398,1398,1398,1392,1392,1392,1392,1392,1392,1392,1392,1392,1392,1392,1392,1392,1392,1392,1387,1387,1387,1387,1387,1381,1381,1387,1387,1387,1387,1381,1381,1381,1381,1381,1376,1376,1376,0,1013,1013,1013,1010,1007,1004,1001,998,995,992,992,992,992,992,992,992,995,995,998,1001,1001,1001,1004,1004,1004,1007,1013,1013,0,1376,1376,1376,1370,1370,1370,1370,1370,1370,1370,1370,1370,1370,1365,1365,1365,1359,1359,1359,1359,1359,1359,1359,1359,1359,1354,1354,1354,1354,1354,1354,1354,1349,1349,1354,1354,1354,1349,1349,1349,1349,1349,1349,1349,1349,1349,1349,1349,1349,1349,1343,1343,1343,1338,1338,1338,1338,1349,1343,1343,1343,1343,1343,1343,1343,1343,1343,1343,1343,1343,1343,1343,1343,1343,1338,1338,1338,1333,1333,1333,1333,1333,1333,1333,1333,1333,1333,1333,1333,1333,1333,1328,1328,1328,1328,1328,1328,1328,1328,1328,1328,1328,1328,1328,1328,1322,1322,1322,1322,1322,1322,1322,1322,1322,1322,1322,1322,1322,1322,1322,1322,1322,1322,1322,1322,1322,1317,1317,1317,1317,1312,1312,1312,1312,1312,1312,1312,1312,1312,1312,1312,1312,1312,1312,1307,1307,1307,1307,1307,1307,1302,1302,1297,1297,1297,1297,1292,1292,1292,1288,1288,1283,1283,1283,1278,1278,1273,1273,1268,1268,1264,1264,1259,1259,1255,1250,1250,1245,1245,1245,1241,1236,1236,1232,1232,1232,1232,1227,1223,1219,1219,1219,1214,1214,1214,1210,1210,1202,1202,1202,1197,1197,1193,1193,1189,1185,1185,1185,1181,1181,1181,1177,1173,1169,1169,1169,1165,1165,1165,1161,1157,1153,1153,1153,1149,1149,1149,1145,1141,1141,1138,1138,1138,1134,1134,1130,1123,981,981,981,978,978,975,975,970,962,956,956,954,951,948,946,946,946,0,0,0,0,0,0,0,0,0,0,0,0,0,0,0,0,0,0,0,0,0,0,0,0,0,0,0,0,0,0,0,0,0,0
0,0,0,0,0,0,0,0,0,0,0,1489,1489,1496,1496,1496,1496,1496,1489,1489,1489,1489,1489,1489,1489,1496,1496,1496,1496,1496,1496,1496,1496,1496,1489,1489,1489,1489,1489,1489,1489,1483,1483,1483,1483,1483,1489,1489,1489,1489,1483,1483,1483,1483,1483,1483,1483,1477,1477,1483,1483,1483,1483,1483,1483,1483,1483,1483,1483,1477,1458,1458,1445,1445,0,1427,0,1050,1050,1050,1050,1050,1050,1050,1050,1054,1054,1057,1057,1057,1060,1060,1063,1063,1063,1063,1063,1067,1067,1067,0,0,0,0,0,0,0,0,0,0,0,0,717,717,716,716,716,716,716,716,716,716,717,717,719,719,720,720,722,722,723,723,725,728,728,728,728,731,731,733,734,734,736,0,0,0,0,0,1145,1145,1141,1141,1145,1149,1149,1153,1153,1153,1153,1153,1149,1149,1153,1153,1157,1157,1157,1157,1161,1161,1161,1161,1165,1165,1165,1165,1165,1165,1169,1169,1169,1173,1173,1173,1173,1173,1169,1165,1165,1161,1161,1157,1157,1157,1157,1157,1157,1157,1161,1189,1193,1197,1197,1202,1202,1202,1206,1206,1415,1415,1415,1415,1415,1415,1415,1415,1410,1410,1415,1415,1415,1415,1415,1415,1415,1415,1415,1415,1415,1415,1421,1415,1415,1415,1415,1415,1415,1415,1410,1410,1410,1410,1410,1410,1410,1404,1404,1410,1410,1410,1410,1410,1410,1410,1404,1404,1404,1404,1404,1297,1297,1297,1297,1297,1297,1292,1292,1292,1292,1292,1292,1297,1297,1297,1302,1302,1302,1302,1398,1398,1392,1392,1392,1387,1387,1387,1387,1387,1392,1392,1392,1392,1387,1387,1387,1392,1387,1387,1387,1387,1387,1387,1387,1387,1381,1381,1381,1381,1381,1381,1381,1381,1381,1381,1381,1381,1381,1381,1376,1376,1376,1376,0,1013,1013,1013,1010,1010,1007,1004,1001,998,992,992,992,992,992,995,995,998,998,1001,1001,1001,1004,1004,1004,1007,1007,1013,1013,1016,1376,1376,1376,1370,1365,1359,1359,1359,1365,1365,1359,1359,1359,1359,1359,1354,1354,1354,1354,1354,1354,1354,1354,1354,1354,1354,1354,1354,1354,1349,1349,1349,1349,1349,1349,1349,1349,1343,1343,1343,1343,1343,1343,1343,1343,1343,1343,1343,1343,1343,1338,1338,1338,1338,1333,1333,1333,1338,1338,1338,1338,1338,1338,1338,1338,1338,1338,1338,1338,1338,1338,1338,1338,1338,1338,1338,1333,1333,1333,1333,1333,1333,1333,1333,1333,1333,1328,1328,1328,1328,1328,1328,1328,1328,1328,1328,1328,1328,1328,1328,1328,1322,1322,1322,1322,1317,1317,1317,1317,1317,1317,1317,1317,1317,1317,1317,1317,1317,1317,1317,1312,1312,1312,1317,1317,1317,1317,1317,1312,1312,1312,1312,1307,1307,1307,1307,1307,1307,1307,1307,1307,1312,1307,1307,1307,1307,1307,1307,1302,1302,1302,1302,1297,1297,1292,1292,1292,1292,1288,1288,1288,1283,1283,1283,1278,1278,1273,1273,1268,1268,1264,1264,1259,1259,1255,1255,1250,1245,1245,1245,1241,1236,1236,1232,1232,1232,1232,1227,1223,1223,1219,1219,1214,1214,1214,1210,1210,1206,1202,1202,1197,1197,1197,1193,1189,1189,1185,1185,1181,1181,1181,1177,1173,1169,1169,1169,1165,1165,1165,1161,1161,1157,1153,1153,1153,1153,1149,1149,1145,1141,1138,1138,1138,1138,1134,981,981,981,981,981,978,978,975,973,967,959,954,954,951,948,946,940,940,940,0,0,0,0,0,0,0,0,0,0,0,0,0,0,0,0,0,0,0,0,0,0,0,0,0,0,0,0,0,0,0,0,0,0
0,0,0,0,0,0,0,0,0,0,1489,1483,1483,1483,1483,1483,1483,1483,1483,1483,1483,1483,1483,1483,1483,1483,1483,1483,1489,1489,1489,1489,1489,1489,1489,1489,1489,1489,1483,1483,1483,1483,1483,1483,1483,1483,1483,1483,1489,1489,1483,1483,1483,1483,1483,1483,1477,1477,1477,1477,1477,1477,1477,1477,1477,1483,1477,1477,1477,1470,1458,1458,1439,1433,1427,1427,0,0,1054,1054,1050,1050,1054,1054,1054,1054,1057,1057,1057,1057,1060,1060,1063,1063,1063,1063,1067,1067,1067,1067,0,0,0,0,0,0,0,0,0,0,0,0,719,717,716,716,716,716,716,716,716,717,717,719,719,720,720,720,722,722,723,723,725,728,728,730,731,731,733,733,734,734,0,0,0,0,0,0,1145,1145,1145,1145,1145,1149,1149,1149,1149,1149,1149,1153,1149,1149,1153,1153,1157,1157,1157,1157,1161,1161,1161,1161,1165,1165,1165,1165,1165,1169,1169,1169,1173,1173,1173,1173,1173,1173,1169,1165,1161,1161,1157,1153,1153,1153,1149,1149,1149,1149,1161,1189,1193,1197,1197,1197,1197,1202,1206,1415,1415,1415,1415,1415,1415,1415,1415,1410,1410,1410,1410,1415,1415,1415,1415,1415,1415,1415,1415,1415,1415,1415,1415,1415,1415,1410,1410,1410,1410,1410,1410,1410,1410,1404,1404,1404,1398,1398,1398,1404,1404,1404,1404,1404,1404,1404,1398,1398,1398,1398,1398,1302,1297,1297,1297,1297,1297,1292,1292,1292,1292,1292,1297,1297,1297,1302,1302,1302,1302,1302,1392,1392,1387,1387,1387,1387,1387,1381,1381,1376,1376,1381,1381,1387,1381,1381,1381,1387,1387,1387,1387,1387,1381,1381,1381,1381,1376,1376,1376,1376,1370,1370,1376,1376,1376,1376,1376,1376,1376,1376,1370,1370,1370,1370,0,1013,1013,1013,1013,1010,1010,1004,1001,998,998,992,992,992,995,995,998,998,1001,1001,1001,1001,1004,1004,1004,1007,1007,1010,1016,1016,1370,1370,1370,1359,1359,1354,1354,1354,1354,1354,1354,1354,1354,1354,1354,1354,1354,1354,1354,1354,1354,1354,1354,1354,1354,1354,1349,1349,1349,1349,1349,1349,1349,1349,1349,1343,1343,1338,1338,1343,1343,1343,1343,1338,1338,1338,1338,1338,1338,1338,1338,1338,1333,1333,1333,1333,1333,1333,1333,1333,1333,1333,1333,1333,1333,1333,1333,1333,1333,1333,1333,1333,1333,1333,1333,1333,1333,1328,1328,1328,1328,1328,1328,1328,1328,1328,1328,1328,1328,1328,1328,1322,1322,1322,1322,1322,1322,1322,1322,1322,1322,1322,1317,1317,1317,1317,1312,1312,1312,1312,1312,1312,1312,1312,1312,1312,1312,1312,1312,1312,1312,1312,1307,1307,1307,1307,1312,1312,1312,1312,1307,1307,1307,1302,1302,1302,1307,1302,1302,1307,1307,1307,1307,1307,1307,1307,1307,1302,1302,1302,1302,1297,1297,1292,1292,1292,1292,1288,1288,1288,1288,1288,1283,1283,1278,1278,1273,1273,1273,1268,1268,1264,1264,1259,1255,1255,1250,1250,1250,1245,1241,1236,1236,1236,1232,1232,1232,1227,1223,1223,1219,1219,1214,1214,1214,1210,1210,1206,1202,1202,1202,1197,1197,1197,1197,1189,1185,1185,1185,1181,1181,1177,1177,1173,1169,1169,1169,1165,1165,1161,1161,1157,1153,1153,1153,1153,1149,1149,1145,1141,1141,1138,1138,1138,1134,981,981,981,981,978,978,975,973,970,959,954,951,951,948,946,943,938,935,935,0,0,0,0,0,0,0,0,0,0,0,0,0,0,0,0,0,0,0,0,0,0,0,0,0,0,0,0,0,0,0,0,0,0
0,0,0,0,0,0,0,0,0,0,1483,1483,1483,1483,1483,1483,1483,1483,1477,1477,1477,1477,1483,1483,1483,1483,1483,1483,1483,1483,1483,1489,1489,1489,1483,1483,1489,1483,1483,1483,1483,1477,1477,1483,1483,1483,1483,1483,1483,1483,1483,1483,1483,1483,1477,1477,1470,1470,1470,1470,1470,1470,1470,1477,1477,1477,1477,1477,1470,1464,1464,1458,1439,1427,1427,1427,0,0,1050,1050,1050,1050,1050,1054,1054,1054,1057,1057,1057,1060,1060,1060,1063,1063,1063,1063,1067,1067,1067,0,0,0,0,0,0,0,0,0,0,0,0,0,719,719,717,717,717,717,717,717,717,717,717,719,720,720,720,722,722,722,723,723,727,728,728,730,731,731,733,733,734,734,0,0,0,0,0,0,1149,1149,1149,1149,1149,1149,1149,1149,1149,1149,1149,1149,1149,1149,1153,1157,1157,1157,1157,1157,1161,1161,1161,1165,1165,1165,1165,1165,1169,1169,1169,1169,1173,1173,1173,1173,1173,1173,1169,1165,1157,1153,1153,1149,1149,1149,1149,1149,1145,1145,1145,1193,1193,1193,1197,1197,1197,1410,1410,1415,1415,1410,1410,1410,1410,1410,1410,1410,1410,1410,1410,1410,1410,1410,1410,1410,1410,1410,1410,1410,1410,1410,1410,1410,1410,1410,1404,1404,1404,1404,1404,1404,1404,1404,1398,1398,1398,1398,1398,1398,1398,1398,1398,1392,1392,1398,1392,1392,1392,1392,1392,1392,1297,1297,1297,1297,1297,1297,1297,1297,1292,1292,1297,1297,1302,1302,1302,1302,1302,1307,1392,1387,1387,1381,1381,1381,1376,1376,1376,1376,1376,1376,1370,1370,1376,1376,1376,1381,1381,1381,1381,1381,1376,1376,1376,1376,1370,1370,1370,1370,1370,1370,1370,1370,1370,1370,1370,1370,1370,1370,1370,1365,1365,0,0,0,1013,1013,1013,1010,1010,1007,1004,1001,1001,995,995,995,998,998,1001,1001,1001,1004,1004,1004,1004,1007,1007,1007,1010,1010,1016,1016,1370,1370,1354,1354,1354,1354,1354,1354,1354,1354,1349,1349,1349,1349,1349,1349,1349,1343,1343,1349,1349,1349,1349,1349,1349,1349,1349,1349,1349,1349,1349,1343,1343,1343,1343,1343,1338,1338,1338,1338,1338,1338,1338,1338,1333,1333,1333,1333,1333,1333,1333,1333,1333,1333,1333,1333,1333,1333,1333,1333,1328,1328,1328,1328,1328,1328,1328,1328,1333,1333,1333,1333,1333,1333,1333,1328,1328,1328,1328,1328,1328,1328,1328,1322,1322,1322,1322,1322,1322,1322,1322,1322,1322,1322,1322,1317,1317,1317,1317,1317,1317,1317,1317,1312,1312,1312,1312,1312,1307,1307,1312,1312,1312,1312,1307,1307,1307,1307,1307,1307,1307,1307,1307,1307,1307,1307,1307,1307,1302,1302,1307,1302,1302,1302,1302,1302,1302,1302,1302,1302,1307,1307,1302,1302,1302,1302,1302,1302,1297,1297,1297,1292,1292,1292,1292,1292,1288,1288,1288,1288,1288,1288,1283,1283,1278,1278,1273,1273,1273,1268,1268,1268,1264,1259,1259,1255,1255,1250,1250,1250,1245,1241,1241,1236,1236,1236,1232,1232,1227,1223,1219,1219,1214,1214,1214,1210,1210,1206,1202,1202,1202,1197,1197,1197,1197,1189,1185,1185,1185,1181,1181,1181,1177,1173,1169,1169,1169,1165,1165,1165,1161,1157,1157,1153,1153,1153,1149,1149,1145,1141,1141,1138,1138,1138,1134,981,981,981,981,978,978,975,973,962,956,951,948,948,946,943,938,933,930,930,0,0,0,0,0,0,0,0,0,0,0,0,0,0,0,0,0,0,0,0,0,0,0,0,0,0,0,0,0,0,0,0,0,0
0,0,0,0,0,0,0,0,0,0,1483,1477,1477,1470,1470,1470,1470,1477,1470,1470,1470,1470,1477,1477,1477,1477,1477,1477,1477,1477,1477,1477,1477,1483,1483,1483,1483,1483,1483,1483,1477,1477,1477,1483,1483,1477,1477,1477,1483,1483,1483,1483,1483,1477,1477,1477,1470,1470,1470,1470,1470,1464,1464,1470,1470,1470,1470,1464,1464,1458,1458,1452,1439,1427,1427,1427,1427,0,1050,1050,1050,1050,1050,1054,1057,1057,1057,1060,1060,1060,1060,1063,1063,1063,1067,1067,1067,1067,1067,0,0,0,0,0,0,0,0,0,0,0,0,0,720,720,719,719,717,717,717,717,717,717,719,719,720,720,722,722,722,723,723,725,727,728,728,730,733,733,733,733,734,734,0,0,0,0,0,0,1145,1145,1145,1145,1145,1145,1145,1149,1149,1149,1149,1149,1149,1149,1149,1149,1157,1157,1157,1157,1161,1161,1161,1165,1165,1165,1165,1165,1169,1169,1169,1169,1173,1173,1177,1177,1173,1173,1169,1165,1157,1153,1149,1149,1145,1145,1145,1145,1141,1141,1141,1141,1141,1193,1197,1197,1197,1415,1410,1410,1410,1410,1410,1410,1410,1410,1410,1410,1404,1404,1404,1410,1410,1410,1410,1410,1410,1410,1410,1410,1404,1404,1404,1404,1398,1398,1404,1404,1404,1404,1404,1398,1398,1398,1398,1398,1392,1392,1392,1392,1392,1392,1392,1392,1392,1392,1392,1392,1387,1387,1387,1387,1302,1302,1302,1297,1297,1297,1297,1297,1292,1292,1297,1297,1302,1302,1302,1302,1302,1307,1307,1381,1381,1376,1376,1376,1370,1370,1370,1370,1370,1370,1370,1370,1370,1370,1370,1370,1370,1370,1376,1376,1370,1370,1370,1370,1370,1370,1365,1365,1365,1365,1365,1365,1370,1370,1370,1370,1365,1365,1365,1359,1359,0,0,0,1013,1013,1010,1010,1010,1010,1007,1004,1001,998,998,998,998,1001,1001,1001,1001,1004,1004,1004,1007,1007,1007,1010,1010,1013,1016,1016,1354,1354,1354,1349,1349,1349,1349,1349,1349,1349,1349,1349,1343,1343,1343,1343,1343,1343,1343,1343,1343,1343,1343,1343,1343,1343,1343,1343,1343,1343,1343,1343,1338,1338,1338,1338,1338,1333,1333,1333,1333,1333,1333,1333,1333,1333,1333,1333,1333,1333,1333,1328,1328,1328,1328,1328,1328,1328,1328,1328,1322,1322,1322,1322,1322,1322,1322,1322,1322,1322,1322,1328,1328,1328,1328,1328,1328,1328,1322,1322,1322,1322,1322,1317,1317,1317,1317,1317,1317,1317,1317,1317,1317,1317,1317,1317,1317,1317,1317,1317,1312,1312,1312,1312,1312,1307,1307,1307,1307,1307,1307,1307,1307,1307,1307,1307,1307,1307,1302,1302,1302,1302,1297,1297,1302,1302,1302,1297,1297,1297,1297,1292,1292,1297,1297,1297,1297,1297,1297,1297,1302,1302,1297,1297,1297,1297,1297,1297,1292,1292,1292,1292,1292,1288,1288,1288,1288,1288,1288,1283,1283,1283,1283,1278,1278,1273,1273,1273,1268,1268,1268,1268,1264,1259,1259,1255,1255,1250,1250,1250,1245,1241,1241,1236,1236,1236,1232,1232,1227,1223,1219,1219,1214,1214,1214,1214,1210,1206,1202,1202,1202,1197,1197,1197,1193,1189,1185,1185,1185,1181,1181,1181,1177,1173,1173,1173,1169,1165,1165,1165,1161,1157,1157,1153,1153,1153,1149,1149,1149,1145,1141,1138,1138,1138,1134,984,981,981,981,978,978,975,973,959,954,948,946,943,938,938,935,933,930,930,0,0,0,0,0,0,0,0,0,0,0,0,0,0,0,0,0,0,0,0,0,0,0,0,0,0,0,0,0,0,0,0,0,0
0,0,0,0,0,0,0,0,0,0,1477,1470,1470,1470,1470,1470,1470,1470,1470,1470,1470,1470,1477,1477,1477,1477,1477,1477,1477,1477,1477,1470,1470,1477,1470,1470,1470,1477,1477,1477,1477,1477,1477,1483,1477,1477,1477,1477,1477,1477,1477,1477,1477,1477,1470,1470,1464,1464,1464,1464,1464,1464,1464,1464,1464,1464,1464,1464,1464,1458,1458,1452,1439,1433,1427,1427,0,0,0,1050,1050,1050,1054,1054,1057,1057,1057,1060,1060,1060,1060,1063,1063,1063,1067,1067,1067,1067,1067,0,0,0,0,0,0,0,0,0,0,0,0,0,0,722,720,719,717,717,717,717,717,717,719,720,722,722,722,722,723,723,725,727,727,728,728,731,733,733,733,733,734,734,0,0,0,0,0,0,1145,1145,1145,1145,1145,1145,1145,1149,1149,1149,1149,1149,1149,1149,1149,1149,1157,1157,1161,1161,1161,1161,1161,1165,1165,1165,1165,1169,1169,1169,1173,1173,1173,1177,1177,1177,1177,1177,1173,1165,1157,1153,1149,1149,1145,1145,1141,1141,1138,1138,1138,1138,1134,1134,1134,1427,1415,1415,1410,1410,1410,1410,1410,1410,1404,1404,1404,1404,1404,1404,1404,1404,1404,1404,1404,1404,1404,1404,1404,1398,1398,1398,1404,1398,1398,1398,1392,1392,1392,1392,1392,1392,1392,1392,1392,1392,1392,1387,1387,1387,1387,1387,1387,1387,1387,1387,1387,1387,1387,1387,1381,1376,1376,1307,1302,1302,1302,1297,1297,1297,1297,1297,1297,1297,1302,1302,1307,1307,1307,1307,1307,1370,1370,1370,1370,1370,1370,1370,1370,1370,1370,1370,1370,1370,1370,1365,1365,1365,1365,1365,1365,1365,1365,1365,1370,1370,1365,1365,1365,1365,1359,1359,1359,1359,1365,1365,1365,1365,1359,1359,1354,1354,1354,1354,1354,0,1010,0,1010,1010,1010,1010,1010,1004,1001,1001,998,998,1001,1001,1001,1001,1004,1004,1004,1004,1007,1007,1010,1010,1010,1013,1016,1016,1349,1349,1349,1349,1343,1343,1343,1343,1343,1343,1343,1338,1338,1343,1338,1338,1338,1338,1338,1338,1338,1338,1338,1338,1338,1338,1333,1333,1338,1338,1338,1333,1333,1333,1333,1333,1333,1333,1333,1328,1328,1328,1328,1328,1328,1328,1328,1328,1328,1328,1328,1328,1328,1328,1328,1328,1322,1322,1322,1322,1322,1322,1322,1317,1317,1317,1317,1317,1317,1317,1317,1317,1317,1317,1317,1322,1322,1322,1322,1317,1317,1317,1317,1312,1312,1312,1312,1312,1312,1312,1312,1312,1312,1312,1312,1312,1312,1312,1312,1312,1312,1312,1312,1307,1307,1307,1307,1307,1307,1307,1307,1307,1307,1307,1302,1302,1302,1302,1297,1297,1297,1297,1297,1297,1297,1297,1297,1292,1292,1292,1292,1288,1288,1288,1288,1288,1288,1292,1292,1292,1292,1292,1292,1292,1292,1292,1292,1292,1292,1292,1292,1288,1288,1288,1288,1288,1288,1288,1288,1283,1283,1283,1278,1278,1273,1273,1273,1273,1268,1268,1268,1268,1268,1259,1259,1255,1255,1250,1250,1250,1245,1245,1245,1241,1236,1236,1236,1232,1227,1223,1219,1219,1219,1214,1214,1214,1210,1210,1206,1202,1202,1197,1197,1197,1193,1189,1185,1185,1185,1181,1181,1181,1177,1177,1173,1173,1169,1165,1165,1165,1161,1161,1157,1157,1153,1153,1153,1149,1149,1145,1141,1138,1138,984,984,984,981,981,981,978,978,975,973,956,951,946,943,940,938,935,935,933,930,930,0,0,0,0,0,0,0,0,0,0,0,0,0,0,0,0,0,0,0,0,0,0,0,0,0,0,0,0,0,0,0,0,0,0
0,0,0,0,0,0,0,0,0,0,1470,1470,1470,1464,1464,1470,1470,1470,1470,1470,1470,1470,1470,1470,1470,1470,1470,1477,1470,1470,1470,1464,1464,1464,1464,1464,1458,1458,1464,1464,1464,1464,1464,1477,1477,1470,1470,1470,1470,1470,1470,1470,1470,1470,1464,1464,1464,1464,1464,1464,1458,1458,1458,1464,1458,1458,1458,1458,1458,1458,1452,1452,1439,1439,1427,1427,0,0,0,1054,1054,1054,1054,1057,1057,1057,1057,1060,1060,1060,1060,1063,1063,1063,1067,1067,1067,1067,1070,0,0,0,0,0,0,0,0,0,0,0,0,0,0,723,722,720,717,717,717,717,717,717,719,720,722,722,722,722,723,725,727,727,727,728,730,731,733,734,734,734,734,734,0,0,0,0,0,0,1149,1149,1149,1149,1145,1145,1149,1149,1149,1149,1149,1149,1149,1149,1153,1157,1157,1161,1161,1161,1161,1161,1161,1165,1165,1165,1165,1169,1169,1169,1173,1173,1173,1177,1177,1177,1177,1177,1173,1165,1153,1153,1149,1145,1145,1141,1141,1138,1134,1134,1134,1134,1130,1130,1130,1415,1415,1415,1410,1410,1404,1404,1404,1404,1398,1398,1404,1404,1398,1398,1398,1398,1398,1398,1398,1398,1398,1398,1398,1398,1398,1398,1398,1398,1392,1392,1392,1392,1392,1392,1392,1392,1392,1392,1387,1387,1387,1387,1387,1387,1387,1387,1387,1387,1387,1387,1387,1381,1381,1381,1376,1370,1365,1307,1302,1302,1302,1302,1302,1297,1297,1297,1297,1302,1302,1302,1307,1307,1307,1307,1312,1365,1365,1365,1370,1370,1365,1365,1365,1365,1365,1365,1365,1365,1365,1365,1365,1365,1365,1365,1365,1365,1365,1365,1365,1359,1359,1365,1359,1359,1359,1359,1354,1354,1359,1359,1359,1359,1359,1354,1354,1354,1349,1349,1354,0,0,0,0,1013,1013,1010,1010,1007,1001,1001,1001,1001,1001,1001,1001,1001,1004,1004,1004,1007,1007,1010,1010,1010,1013,1013,1016,1016,1343,1343,1338,1338,1338,1338,1338,1338,1338,1338,1338,1333,1333,1333,1333,1333,1333,1333,1333,1333,1333,1333,1333,1333,1333,1333,1333,1333,1333,1333,1333,1328,1328,1328,1328,1328,1333,1328,1328,1328,1328,1328,1328,1322,1322,1328,1322,1322,1322,1328,1322,1322,1322,1322,1317,1317,1317,1317,1317,1317,1317,1317,1317,1317,1312,1312,1312,1312,1312,1312,1312,1312,1312,1312,1312,1312,1312,1317,1317,1317,1317,1317,1317,1312,1312,1312,1312,1312,1307,1307,1307,1312,1312,1312,1312,1312,1307,1307,1307,1307,1307,1307,1302,1302,1302,1302,1302,1302,1302,1302,1302,1302,1302,1302,1302,1302,1302,1297,1297,1297,1292,1292,1292,1292,1292,1292,1292,1292,1292,1292,1288,1288,1288,1288,1288,1288,1288,1288,1288,1292,1292,1288,1288,1288,1292,1292,1288,1288,1288,1288,1288,1288,1288,1283,1283,1283,1283,1283,1283,1283,1283,1283,1278,1278,1273,1273,1273,1268,1268,1268,1268,1268,1264,1259,1259,1259,1255,1255,1255,1250,1250,1245,1245,1245,1241,1241,1236,1232,1227,1227,1223,1219,1219,1219,1214,1214,1214,1210,1206,1206,1202,1202,1197,1197,1197,1189,1189,1185,1185,1181,1181,1181,1181,1177,1177,1173,1169,1165,1165,1165,1161,1161,1157,1157,1153,1153,1153,1149,1149,1145,1141,1138,1138,984,981,981,981,981,978,978,978,975,962,951,946,940,938,938,935,935,933,933,930,930,0,0,0,0,0,0,0,0,0,0,0,0,0,0,0,0,0,0,0,0,0,0,0,0,0,0,0,0,0,0,0,0,0,0
0,0,0,0,0,0,0,0,0,0,1470,1464,1464,1464,1464,1464,1464,1464,1464,1464,1464,1464,1470,1464,1464,1470,1470,1464,1464,1464,1458,1458,1452,1452,1452,1452,1452,1445,1445,1452,1452,1452,1452,1458,1458,1458,1458,1464,1464,1464,1464,1464,1464,1464,1464,1464,1458,1458,1458,1458,1458,1452,1452,1458,1452,1452,1452,1452,1452,1452,1452,1445,1433,1433,1421,1421,0,1415,0,1057,0,1057,1057,1057,1060,1060,1060,1060,1060,1060,1060,1063,1063,1067,1067,1067,1067,1070,1070,1070,0,0,0,0,0,0,0,0,0,0,0,0,733,725,722,722,717,717,719,717,717,717,719,720,722,722,722,723,727,727,727,728,728,730,730,731,734,734,734,734,734,734,0,0,0,0,0,0,1149,1149,1149,1149,1145,1145,1149,1149,1149,1149,1149,1149,1149,1149,1153,1157,1157,1161,1161,1161,1165,1165,1165,1165,1165,1169,1169,1169,1169,1173,1173,1173,1177,1177,1177,1177,1177,1177,1173,1165,1153,1153,1149,1145,1141,1138,1138,1134,1134,1130,1130,1130,1126,1126,1126,1126,1415,1415,1410,1410,1404,1404,1404,1404,1398,1398,1398,1398,1398,1392,1392,1392,1392,1392,1392,1392,1392,1392,1392,1392,1392,1392,1392,1392,1387,1387,1387,1387,1387,1387,1387,1387,1387,1387,1387,1387,1381,1381,1381,1381,1381,1381,1381,1381,1381,1381,1381,1376,1376,1370,1370,1370,1365,1312,1307,1307,1302,1302,1302,1302,1302,1302,1302,1302,1302,1302,1307,1307,1307,1312,1317,1328,1359,1365,1365,1365,1365,1365,1365,1365,1365,1365,1365,1359,1359,1359,1359,1359,1359,1359,1359,1359,1359,1359,1359,1359,1359,1354,1354,1354,1354,1354,1354,1354,1354,1354,1359,1354,1354,1354,1354,1349,1349,1349,1349,0,0,0,1013,1013,1013,1013,1013,1010,1004,1004,1001,1001,1001,1001,1001,1004,1004,1004,1004,1007,1010,1013,1013,1013,1013,1016,1016,1016,1338,1338,1333,1333,1338,1338,1338,1338,1338,1338,1333,1333,1333,1333,1328,1328,1328,1328,1328,1328,1333,1333,1333,1333,1333,1328,1328,1328,1328,1328,1328,1328,1328,1328,1328,1328,1328,1328,1328,1328,1328,1322,1322,1322,1322,1322,1317,1317,1322,1322,1317,1317,1317,1312,1312,1312,1312,1312,1312,1312,1312,1312,1312,1312,1312,1312,1312,1312,1312,1312,1312,1312,1312,1312,1312,1312,1312,1312,1312,1312,1312,1312,1312,1307,1307,1307,1307,1307,1307,1307,1307,1307,1307,1307,1307,1307,1307,1307,1302,1302,1302,1302,1302,1302,1302,1302,1302,1302,1302,1302,1302,1302,1302,1302,1297,1297,1292,1292,1292,1292,1292,1292,1292,1292,1292,1292,1288,1288,1288,1288,1288,1283,1283,1283,1283,1283,1278,1278,1278,1278,1278,1278,1278,1288,1288,1288,1288,1283,1283,1283,1283,1278,1278,1278,1278,1278,1283,1283,1278,1278,1278,1278,1273,1273,1273,1273,1268,1268,1268,1268,1268,1264,1264,1259,1259,1259,1255,1255,1255,1250,1250,1250,1250,1245,1241,1241,1236,1236,1232,1227,1223,1219,1219,1219,1214,1214,1214,1210,1206,1206,1202,1202,1202,1197,1193,1189,1189,1185,1185,1181,1181,1181,1181,1181,1177,1177,1169,1169,1165,1165,1165,1161,1161,1157,1157,1153,1153,1149,1149,1145,1145,992,989,984,981,981,981,978,978,975,975,973,951,946,940,938,938,938,935,935,933,933,930,930,0,0,0,0,0,0,0,0,0,0,0,0,0,0,0,0,0,0,0,0,0,0,0,0,0,0,0,0,0,0,0,0,0,0
0,0,0,0,0,0,0,0,0,0,1464,1464,1464,1464,1464,1464,1464,1464,1464,1464,1464,1464,1464,1458,1458,1464,1464,1458,1458,1458,1458,1452,1445,1445,1452,1452,1445,1445,1445,1445,1445,1452,1445,1445,1458,1458,1458,1452,1452,1458,1458,1458,1458,1452,1452,1458,1452,1452,1452,1452,1452,1452,1452,1452,1445,1445,1445,1445,1445,1452,1445,1439,1433,1433,1421,1415,1415,0,0,0,0,1054,1054,1057,1060,1060,1060,1060,1060,1060,1063,1063,1067,1067,1070,1070,1070,1070,1070,1070,1073,0,0,0,0,0,0,0,0,0,0,0,733,731,723,723,719,719,719,719,719,719,720,722,722,723,723,725,727,727,728,728,730,731,733,733,734,734,734,734,734,734,736,0,0,0,0,0,1149,1149,1149,1149,1145,1145,1149,1149,1149,1149,1149,1149,1153,1153,1153,1157,1157,1161,1161,1161,1165,1165,1165,1165,1169,1169,1169,1169,1173,1173,1173,1173,1177,1177,1177,1177,1177,1177,1173,1165,1157,1157,1153,1145,1141,1138,1134,1134,1130,1130,1130,1126,1123,1123,1123,1119,1119,1115,1115,1115,1404,1404,1398,1398,1392,1392,1392,1398,1392,1392,1392,1392,1392,1392,1392,1392,1392,1392,1392,1387,1387,1387,1387,1387,1387,1387,1387,1387,1387,1387,1381,1381,1381,1381,1376,1376,1381,1376,1376,1376,1376,1376,1381,1381,1381,1376,1376,1370,1370,1370,1370,1365,1365,1354,1312,1307,1307,1307,1302,1302,1302,1302,1302,1302,1302,1302,1307,1307,1312,1312,1322,1328,1359,1359,1365,1365,1365,1359,1359,1359,1359,1359,1359,1359,1359,1359,1359,1359,1354,1354,1354,1354,1354,1354,1354,1354,1354,1349,1349,1349,1349,1349,1349,1349,1354,1354,1354,1354,1354,1349,1349,1349,1349,1349,1349,1349,1338,0,1013,1013,1013,1013,1013,1010,1007,1004,1004,1001,1001,1001,1004,1004,1004,1007,1007,1007,1010,1013,1013,1013,1016,1016,1016,1016,1333,1333,1333,1333,1333,1333,1333,1333,1333,1333,1333,1328,1328,1328,1328,1328,1322,1322,1322,1322,1322,1322,1322,1322,1328,1328,1328,1328,1328,1322,1322,1322,1322,1322,1322,1322,1322,1322,1322,1322,1322,1317,1317,1317,1317,1317,1317,1317,1317,1317,1312,1312,1307,1307,1307,1307,1312,1312,1312,1312,1312,1312,1307,1307,1307,1307,1307,1307,1307,1307,1307,1307,1307,1307,1307,1307,1307,1307,1307,1307,1307,1307,1307,1302,1302,1302,1302,1302,1302,1302,1302,1302,1307,1307,1302,1302,1302,1302,1302,1297,1297,1297,1297,1297,1297,1297,1297,1297,1297,1297,1297,1297,1297,1297,1292,1292,1292,1292,1292,1288,1288,1288,1288,1288,1288,1288,1288,1288,1288,1283,1283,1278,1278,1278,1278,1278,1278,1278,1278,1273,1273,1278,1273,1273,1278,1278,1283,1283,1278,1278,1278,1278,1278,1278,1278,1278,1278,1278,1273,1273,1273,1273,1268,1268,1268,1268,1268,1268,1264,1264,1264,1264,1259,1259,1255,1255,1255,1255,1255,1250,1250,1250,1250,1245,1241,1241,1236,1236,1232,1227,1223,1223,1219,1219,1219,1214,1214,1210,1210,1206,1202,1202,1197,1197,1193,1193,1189,1185,1185,1185,1185,1181,1181,1181,1181,1177,1177,1169,1169,1165,1165,1161,1161,1157,1157,1153,1153,1149,1149,1149,992,992,989,984,981,981,978,978,978,975,975,970,948,943,940,938,938,938,935,935,933,933,930,930,0,0,0,0,0,0,0,0,0,0,0,0,0,0,0,0,0,0,0,0,0,0,0,0,0,0,0,0,0,0,0,0,0,0
0,0,0,0,0,0,0,0,0,0,1464,1464,1464,1464,1464,1464,1464,1464,1464,1458,1458,1458,1458,1458,1458,1458,1458,1452,1452,1452,1452,1452,1445,1445,1445,1445,1445,1439,1439,1439,1439,1445,1439,1439,1452,1452,1452,1445,1445,1445,1445,1439,1439,1439,1445,1452,1439,1439,1439,1439,1439,1445,1445,1445,1445,1439,1439,1439,1439,1445,1445,1439,1433,1433,1421,1415,1415,1415,0,0,0,1054,1054,1057,1060,1060,1060,1060,1060,1063,1063,1063,1067,1070,1070,1070,1070,1070,1073,1070,1070,0,0,0,0,0,0,0,0,0,0,0,733,731,727,725,723,720,720,720,720,720,720,722,723,723,725,727,727,728,728,730,730,731,733,734,734,734,734,734,734,734,736,0,0,0,0,0,0,1145,1145,1145,1145,1145,1149,1149,1149,1149,1149,1153,1153,1153,1157,1157,1161,1161,1161,1165,1165,1165,1165,1165,1169,1169,1169,1169,1173,1173,1173,1177,1177,1177,1177,1177,1177,1177,1173,1165,1161,1157,1153,1145,1141,1138,1134,1130,1130,1130,1126,1126,1123,1123,1119,1119,1115,1115,1115,1115,1115,1115,1398,1398,1392,1392,1392,1392,1392,1387,1387,1387,1387,1387,1387,1387,1387,1387,1387,1381,1381,1381,1387,1381,1381,1381,1381,1381,1381,1381,1376,1376,1376,1376,1370,1370,1370,1370,1370,1376,1376,1376,1376,1370,1370,1370,1370,1370,1370,1370,1370,1365,1365,1354,1349,1317,1307,1307,1307,1302,1302,1302,1302,1302,1307,1307,1307,1307,1312,1312,1312,1338,1359,1359,1359,1359,1359,1359,1359,1354,1354,1354,1359,1354,1354,1354,1354,1354,1349,1349,1349,1349,1349,1349,1349,1349,1349,1349,1349,1349,1349,1349,1343,1343,1354,1349,1349,1349,1349,1349,1349,1343,1343,1343,1338,1338,1338,0,1016,1016,1016,1016,1013,1013,1007,1007,1004,1004,1004,1004,1004,1004,1004,1007,1007,1010,1013,1013,1013,1016,1016,1016,1019,1019,1333,1333,1328,1328,1328,1328,1328,1328,1328,1328,1322,1322,1322,1322,1322,1322,1317,1317,1317,1317,1317,1317,1317,1317,1322,1322,1322,1322,1322,1317,1317,1317,1317,1317,1317,1317,1317,1312,1312,1312,1317,1317,1312,1312,1312,1312,1312,1312,1312,1312,1312,1307,1307,1307,1307,1307,1307,1307,1307,1307,1307,1307,1307,1307,1302,1302,1302,1302,1302,1302,1302,1302,1302,1302,1302,1302,1307,1302,1302,1302,1302,1302,1302,1302,1297,1297,1297,1297,1297,1297,1297,1302,1302,1302,1297,1297,1297,1297,1292,1292,1292,1292,1292,1292,1297,1297,1297,1292,1292,1292,1292,1292,1292,1292,1292,1292,1288,1288,1288,1288,1288,1288,1288,1288,1288,1283,1283,1283,1283,1283,1278,1278,1278,1273,1273,1278,1273,1273,1273,1273,1273,1273,1273,1273,1273,1273,1273,1273,1273,1273,1273,1273,1273,1273,1273,1273,1273,1273,1273,1273,1273,1268,1268,1268,1264,1264,1264,1264,1264,1264,1264,1259,1259,1259,1255,1255,1255,1255,1250,1250,1250,1250,1245,1245,1241,1241,1236,1236,1232,1232,1227,1223,1223,1219,1219,1214,1214,1214,1210,1210,1202,1202,1197,1197,1193,1193,1189,1185,1185,1185,1185,1185,1181,1181,1181,1177,1177,1169,1169,1165,1165,1161,1161,1157,1157,1153,1153,1149,1149,1149,992,987,987,984,981,981,978,978,975,975,975,948,946,943,940,938,935,935,935,935,935,933,933,933,0,0,0,0,0,0,0,0,0,0,0,0,0,0,0,0,0,0,0,0,0,0,0,0,0,0,0,0,0,0,0,0,0,0
0,0,0,0,0,0,0,0,0,0,1458,1458,1458,1458,1458,1458,1458,1458,1458,1458,1458,1458,1458,1458,1458,1458,1452,1452,1452,1452,1445,1445,1445,1445,1445,1445,1439,1439,1439,1439,1439,1439,1439,1439,1445,1445,1445,1445,1445,1445,1445,1439,1439,1439,1439,1439,1439,1439,1439,1439,1439,1439,1439,1439,1439,1439,1439,1439,1439,1439,1439,1439,1433,1433,1427,1421,1421,1433,0,0,0,1057,1057,1060,1060,1060,1060,1063,1063,1063,1063,1063,1070,1070,1070,1070,1073,1073,1073,1070,1070,1073,0,0,0,0,0,0,0,0,0,0,734,733,730,728,727,722,722,720,720,720,722,722,723,725,725,727,728,728,730,731,731,733,733,733,734,734,734,734,734,736,736,738,0,0,0,0,0,1145,1145,1145,1145,1145,1149,1149,1149,1149,1149,1153,1153,1157,1157,1161,1161,1161,1165,1165,1165,1165,1165,1165,1169,1169,1169,1169,1173,1173,1173,1177,1177,1177,1177,1177,1177,1177,1173,1165,1161,1157,1153,1145,1141,1138,1134,1130,1130,1126,1123,1123,1119,1119,1115,1115,1115,1115,1115,1115,1112,1112,1112,1392,1392,1387,1387,1392,1387,1387,1387,1387,1387,1387,1381,1381,1381,1381,1381,1381,1376,1376,1376,1376,1376,1370,1370,1376,1376,1376,1370,1370,1370,1370,1370,1370,1370,1370,1370,1370,1370,1370,1370,1370,1370,1365,1365,1365,1365,1365,1365,1365,1365,1354,1343,1328,1317,1312,1307,1307,1307,1302,1302,1307,1307,1307,1307,1307,1312,1312,1312,1333,1343,1354,1354,1359,1359,1354,1354,1354,1354,1354,1354,1354,1349,1349,1349,1349,1349,1349,1349,1349,1343,1343,1343,1343,1343,1343,1343,1343,1343,1343,1343,1343,1349,1349,1349,1343,1343,1343,1343,1343,1343,1343,1333,1333,1333,1333,0,0,1016,1016,1016,1013,1010,1007,1004,1004,1004,1004,1004,1004,1007,1007,1010,1010,1013,1013,1016,1016,1016,1016,1019,1019,1333,1333,1322,1322,1322,1328,1322,1322,1317,1317,1317,1317,1317,1317,1317,1317,1312,1312,1312,1312,1312,1312,1312,1312,1317,1317,1317,1317,1312,1312,1317,1312,1312,1312,1312,1312,1312,1312,1312,1312,1312,1312,1312,1312,1312,1312,1312,1312,1307,1307,1307,1307,1302,1302,1302,1302,1302,1307,1307,1307,1307,1307,1302,1302,1302,1302,1302,1297,1297,1297,1302,1302,1302,1297,1297,1297,1297,1297,1297,1297,1297,1297,1297,1297,1297,1297,1292,1292,1292,1292,1292,1292,1297,1297,1292,1292,1292,1292,1292,1292,1292,1292,1292,1292,1292,1292,1292,1292,1292,1292,1292,1292,1288,1288,1288,1288,1288,1288,1283,1283,1283,1283,1283,1283,1283,1278,1278,1278,1278,1278,1273,1273,1273,1273,1273,1273,1273,1273,1273,1273,1268,1268,1268,1268,1268,1273,1268,1268,1268,1268,1264,1264,1268,1268,1268,1268,1268,1268,1268,1268,1268,1264,1264,1264,1259,1259,1259,1259,1259,1259,1259,1259,1259,1255,1255,1255,1255,1250,1250,1250,1250,1245,1245,1245,1241,1241,1236,1236,1232,1232,1227,1223,1223,1219,1219,1219,1214,1214,1210,1210,1206,1202,1202,1197,1197,1193,1189,1189,1185,1185,1185,1185,1181,1181,1181,1177,1177,1169,1169,1165,1165,1161,1161,1157,1157,1153,1153,1149,1149,1149,987,987,987,984,981,981,978,978,975,975,948,946,943,940,938,938,935,935,935,935,935,935,935,935,0,0,0,0,0,0,0,0,0,0,0,0,0,0,0,0,0,0,0,0,0,0,0,0,0,0,0,0,0,0,0,0,0,0
0,0,0,0,0,0,0,0,0,0,1452,1452,1452,1452,1452,1452,1452,1452,1452,1445,1445,1445,1445,1452,1452,1452,1452,1445,1445,1445,1445,1445,1439,1439,1439,1439,1439,1439,1433,1433,1433,1433,1433,1433,1439,1439,1439,1439,1439,1439,1439,1433,1433,1433,1427,1427,1433,1433,1433,1433,1433,1433,1439,1439,1439,1439,1439,1433,1433,1439,1439,1433,1433,1427,1427,1427,1427,1427,0,0,0,1060,1060,1060,1060,1060,1063,1063,1063,1063,1063,1067,1070,1070,1073,1073,1073,1073,1073,1073,1073,1073,0,0,0,0,0,0,0,0,0,0,734,734,731,731,730,727,727,720,720,720,722,722,725,725,725,727,728,730,730,731,733,733,733,733,734,734,734,736,736,736,738,738,0,0,0,0,0,0,1145,1145,1145,1145,1149,1149,1149,1149,1149,1153,1153,1157,1157,1161,1161,1161,1165,1165,1165,1169,1169,1169,1169,1169,1169,1169,1173,1173,1173,1173,1177,1177,1177,1381,1381,1381,1376,1376,1376,1161,1157,1153,1141,1138,1134,1130,1126,1126,1123,1119,1119,1119,1115,1115,1115,1115,1115,1112,1112,1108,1108,1108,1387,1387,1387,1387,1387,1381,1381,1381,1381,1381,1381,1381,1376,1376,1376,1376,1370,1370,1370,1370,1370,1370,1370,1370,1370,1370,1370,1370,1370,1370,1365,1365,1365,1365,1365,1365,1365,1365,1365,1365,1365,1359,1359,1359,1359,1359,1359,1359,1359,1354,1338,1333,1322,1317,1312,1307,1307,1307,1307,1307,1307,1307,1307,1307,1312,1312,1322,1328,1333,1343,1349,1349,1349,1349,1349,1349,1349,1349,1349,1349,1349,1349,1349,1349,1343,1343,1343,1343,1343,1343,1343,1343,1343,1338,1338,1338,1338,1338,1338,1338,1343,1343,1343,1343,1338,1338,1338,1333,1333,1333,1328,1328,1333,1333,1317,1019,1019,1019,1019,1016,1016,1010,1007,1007,1004,1004,1004,1007,1007,1007,1010,1010,1013,1013,1016,1016,1016,1016,1019,1019,1019,1317,1317,1317,1317,1322,1322,1317,1317,1317,1317,1312,1312,1312,1312,1312,1312,1312,1312,1312,1312,1312,1312,1312,1312,1312,1312,1312,1312,1312,1312,1312,1307,1307,1307,1307,1307,1307,1307,1307,1307,1307,1307,1307,1307,1307,1307,1307,1307,1307,1302,1302,1297,1297,1297,1297,1302,1302,1302,1302,1302,1302,1302,1297,1297,1297,1297,1297,1297,1297,1297,1297,1297,1297,1297,1297,1297,1292,1292,1292,1292,1292,1292,1292,1292,1292,1292,1292,1292,1292,1292,1292,1288,1288,1288,1288,1288,1288,1288,1288,1288,1288,1288,1288,1288,1288,1288,1288,1288,1288,1288,1283,1283,1283,1283,1283,1283,1283,1278,1278,1278,1278,1278,1278,1278,1278,1273,1273,1273,1273,1273,1273,1273,1273,1268,1268,1268,1268,1268,1268,1268,1268,1268,1268,1268,1268,1268,1264,1264,1264,1264,1259,1259,1259,1264,1264,1268,1264,1264,1264,1264,1259,1259,1259,1255,1255,1255,1255,1255,1255,1255,1255,1255,1255,1255,1255,1255,1250,1250,1250,1250,1245,1245,1245,1241,1236,1236,1232,1232,1232,1227,1227,1223,1223,1219,1219,1214,1214,1214,1210,1206,1206,1202,1197,1197,1197,1193,1193,1185,1185,1185,1185,1185,1181,1181,1177,1177,1169,1169,1169,1165,1165,1161,1161,1157,1153,1153,1149,1149,989,987,987,987,984,981,981,978,975,975,951,948,946,943,940,938,938,935,935,935,935,935,935,935,935,0,0,0,0,0,0,0,0,0,0,0,0,0,0,0,0,0,0,0,0,0,0,0,0,0,0,0,0,0,0,0,0,0,0
0,0,0,0,0,0,0,0,0,0,1445,1445,1452,1452,1452,1452,1445,1445,1445,1439,1439,1439,1439,1439,1439,1439,1445,1445,1445,1439,1439,1439,1439,1439,1439,1439,1433,1433,1433,1433,1433,1433,1433,1433,1439,1439,1439,1439,1439,1433,1433,1427,1427,1427,1427,1427,1427,1427,1427,1427,1427,1427,1427,1427,1427,1433,1433,1433,1433,1433,1433,1433,1427,1427,1421,1421,1427,1427,0,0,0,1063,1063,1063,1063,1063,1063,1063,1063,1063,1063,1067,1070,1070,1073,1073,1073,1073,1073,1073,1073,1077,0,0,0,0,0,0,0,0,0,0,738,736,733,733,731,730,728,723,722,722,723,725,725,727,727,728,728,730,731,731,733,733,733,734,734,734,734,736,738,738,738,739,0,0,0,0,0,0,1145,1145,1145,1145,1149,1149,1149,1149,1149,1153,1153,1157,1157,1161,1161,1161,1165,1165,1165,1169,1169,1169,1169,1169,1169,1169,1173,1173,1173,1173,1177,1177,1381,1376,1376,1376,1370,1370,1370,1161,1161,1157,1145,1138,1134,1130,1126,1126,1123,1119,1119,1119,1115,1115,1112,1112,1108,1108,1108,1105,1105,1101,1101,1376,1376,1370,1370,1370,1370,1376,1376,1376,1376,1370,1370,1370,1370,1370,1370,1370,1370,1370,1370,1365,1365,1370,1370,1365,1365,1365,1365,1365,1365,1365,1365,1365,1365,1365,1365,1359,1359,1359,1359,1359,1359,1359,1359,1354,1354,1354,1349,1343,1338,1333,1328,1322,1312,1312,1307,1307,1307,1307,1307,1307,1307,1312,1312,1317,1322,1328,1333,1333,1343,1349,1349,1349,1349,1349,1349,1349,1349,1343,1343,1343,1343,1343,1343,1338,1338,1338,1338,1338,1338,1338,1338,1338,1338,1338,1333,1333,1333,1333,1338,1338,1338,1338,1333,1333,1333,1328,1328,1328,1322,1322,1317,1317,1317,1022,1022,1022,1019,1019,1016,1013,1010,1007,1007,1007,1007,1007,1007,1007,1010,1013,1013,1013,1016,1016,1019,1019,1019,1019,1019,1312,1312,1312,1312,1317,1317,1317,1312,1312,1312,1312,1312,1312,1312,1307,1307,1307,1307,1307,1307,1307,1307,1307,1307,1307,1307,1307,1307,1307,1307,1307,1302,1302,1302,1302,1302,1302,1302,1302,1302,1302,1302,1302,1302,1302,1307,1307,1302,1302,1302,1297,1297,1297,1297,1297,1297,1297,1297,1297,1297,1297,1297,1292,1292,1292,1292,1292,1292,1292,1292,1292,1292,1292,1292,1292,1292,1292,1292,1288,1288,1288,1288,1288,1288,1288,1288,1288,1288,1288,1288,1288,1288,1288,1283,1283,1283,1283,1283,1283,1283,1288,1288,1288,1288,1288,1283,1283,1278,1278,1278,1278,1278,1278,1278,1278,1278,1278,1273,1273,1273,1273,1273,1273,1273,1273,1273,1273,1273,1273,1268,1268,1268,1268,1268,1268,1268,1268,1268,1268,1264,1264,1264,1264,1264,1264,1264,1259,1259,1259,1259,1259,1255,1255,1259,1259,1259,1259,1259,1259,1259,1255,1255,1255,1255,1255,1255,1255,1255,1255,1255,1255,1255,1250,1250,1250,1250,1250,1250,1250,1245,1245,1245,1241,1241,1236,1236,1232,1232,1227,1227,1223,1223,1223,1219,1219,1219,1214,1214,1214,1210,1206,1206,1202,1197,1197,1197,1193,1189,1185,1185,1185,1185,1181,1181,1177,1173,1169,1169,1169,1165,1161,1161,1161,1157,1153,1153,1149,1149,989,984,984,984,984,978,978,978,967,951,948,948,946,943,940,938,938,935,935,935,935,935,935,935,935,0,0,0,0,0,0,0,0,0,0,0,0,0,0,0,0,0,0,0,0,0,0,0,0,0,0,0,0,0,0,0,0,0,0
0,0,0,0,0,0,0,0,0,0,1445,1445,1445,1445,1452,1445,1445,1439,1439,1439,1439,1439,1439,1439,1439,1439,1439,1439,1439,1439,1439,1439,1433,1433,1433,1433,1433,1433,1427,1427,1427,1427,1427,1427,1433,1433,1433,1433,1433,1427,1427,1421,1421,1421,1421,1421,1421,1421,1421,1427,1421,1421,1427,1427,1427,1421,1421,1421,1421,1427,1433,1427,1421,1421,1421,1421,1421,1427,0,0,0,0,0,1070,1067,1067,1067,1067,1067,1067,1067,1067,1073,1073,1073,1073,1073,1073,1073,1073,1073,1077,0,0,0,0,0,0,0,0,0,0,739,733,731,731,733,731,728,723,723,723,725,725,725,727,727,728,730,731,731,733,733,733,733,734,734,734,738,738,738,739,739,739,0,0,0,0,0,0,1145,1145,1145,1145,1149,1149,1149,1149,1153,1153,1157,1157,1161,1161,1161,1165,1165,1165,1169,1169,1169,1169,1169,1169,1169,1169,1387,1387,1381,1177,1177,1376,1376,1376,1376,1370,1370,1370,1370,1370,1370,1157,1145,1138,1134,1134,1130,1126,1123,1119,1119,1115,1115,1115,1112,1112,1108,1108,1105,1105,1101,1101,1101,1370,1370,1370,1370,1370,1370,1370,1370,1370,1370,1370,1365,1365,1365,1365,1365,1365,1365,1365,1365,1365,1365,1365,1365,1359,1359,1359,1359,1359,1359,1359,1359,1359,1359,1359,1354,1354,1354,1354,1354,1354,1354,1354,1354,1354,1354,1354,1349,1343,1338,1333,1328,1322,1312,1312,1307,1307,1307,1307,1307,1307,1307,1312,1317,1317,1322,1328,1328,1328,1338,1343,1338,1338,1343,1343,1343,1343,1343,1343,1338,1338,1338,1338,1338,1338,1333,1333,1333,1333,1333,1333,1333,1333,1333,1333,1328,1328,1328,1328,1333,1333,1333,1333,1333,1328,1328,1328,1322,1322,1322,1322,1317,1312,1312,1022,1022,1022,1019,1019,1016,1016,1013,1010,1010,1007,1007,1007,1010,1010,1010,1013,1013,1016,1016,1019,1019,1019,1022,1022,1022,1312,1312,1312,1312,1317,1312,1312,1312,1312,1312,1307,1307,1307,1307,1307,1307,1307,1307,1307,1307,1302,1302,1302,1302,1302,1302,1302,1302,1302,1307,1307,1302,1302,1302,1297,1297,1297,1297,1292,1292,1297,1297,1297,1297,1297,1297,1302,1297,1297,1297,1297,1292,1292,1292,1292,1292,1292,1292,1292,1292,1292,1292,1292,1292,1288,1288,1288,1288,1288,1288,1288,1288,1288,1288,1288,1288,1288,1288,1288,1288,1283,1283,1283,1283,1283,1288,1288,1288,1288,1288,1283,1283,1283,1283,1278,1278,1278,1278,1278,1278,1278,1283,1283,1283,1283,1283,1278,1278,1278,1278,1273,1273,1273,1273,1273,1273,1273,1273,1273,1273,1273,1268,1268,1268,1268,1268,1268,1268,1268,1268,1268,1268,1268,1268,1268,1268,1268,1264,1264,1259,1259,1259,1259,1259,1259,1259,1255,1255,1255,1255,1255,1255,1255,1255,1255,1255,1255,1255,1255,1255,1250,1250,1250,1250,1250,1250,1250,1250,1250,1250,1250,1250,1250,1250,1250,1250,1250,1245,1245,1245,1241,1241,1241,1236,1236,1232,1232,1232,1227,1227,1223,1223,1223,1219,1219,1219,1214,1214,1214,1210,1210,1202,1202,1197,1197,1197,1193,1189,1189,1185,1185,1185,1181,1181,1177,1173,1169,1169,1169,1165,1161,1161,1161,1157,1153,1153,1149,1149,989,984,984,984,984,975,973,959,951,948,948,946,946,946,943,940,938,935,935,935,935,935,935,935,0,0,0,0,0,0,0,0,0,0,0,0,0,0,0,0,0,0,0,0,0,0,0,0,0,0,0,0,0,0,0,0,0,0,0
0,0,0,0,0,0,0,0,0,0,1439,1439,1445,1445,1445,1439,1439,1439,1439,1433,1433,1433,1427,1427,1427,1433,1433,1433,1433,1433,1433,1433,1433,1433,1427,1427,1427,1427,1427,1421,1421,1421,1421,1421,1421,1427,1427,1427,1427,1427,1421,1421,1421,1421,1421,1421,1421,1421,1421,1421,1415,1415,1421,1415,1415,1415,1415,1421,1421,1421,1427,1421,1421,1421,1415,1415,1410,1410,0,0,0,0,0,1070,1070,1067,1067,1067,1067,1067,1067,1070,1073,1073,1073,1073,1073,1077,1077,1077,1077,1077,0,0,0,0,0,0,0,0,0,0,0,733,731,731,731,731,728,727,725,725,725,725,725,727,728,728,730,731,731,733,733,733,734,734,736,738,738,738,739,739,739,739,0,0,0,0,0,1145,1145,1145,1149,1149,1149,1149,1149,1149,1153,1153,1157,1157,1161,1161,1161,1165,1165,1165,1169,1169,1169,1169,1169,1169,1169,1370,1376,1376,1381,1376,1376,1376,1376,1376,1370,1370,1370,1370,1370,1370,1365,1365,1153,1141,1138,1134,1130,1126,1123,1119,1119,1112,1112,1112,1112,1108,1108,1105,1105,1105,1101,1097,1097,1370,1370,1370,1370,1365,1365,1370,1370,1365,1365,1365,1365,1365,1365,1365,1359,1359,1359,1359,1359,1359,1359,1359,1359,1359,1359,1354,1354,1354,1354,1354,1354,1354,1354,1354,1354,1354,1354,1349,1349,1349,1349,1349,1349,1349,1349,1349,1349,1343,1338,1333,1328,1322,1317,1312,1312,1307,1307,1307,1307,1307,1307,1312,1317,1317,1322,1322,1328,1328,1328,1333,1333,1333,1338,1338,1343,1338,1338,1338,1333,1333,1333,1333,1333,1333,1333,1333,1333,1328,1328,1328,1328,1328,1328,1328,1328,1328,1328,1328,1328,1328,1328,1328,1328,1328,1328,1322,1322,1322,1317,1317,1317,1312,1312,1022,1022,1022,1022,1019,1016,1016,1013,1013,1010,1010,1010,1010,1010,1010,1013,1013,1013,1016,1016,1019,1019,1019,1022,1022,1022,1312,1312,1312,1312,1312,1307,1307,1307,1307,1307,1307,1307,1307,1307,1307,1302,1302,1302,1302,1302,1302,1302,1297,1297,1297,1297,1297,1297,1297,1302,1302,1302,1297,1297,1297,1297,1297,1292,1292,1292,1292,1292,1292,1292,1292,1297,1297,1297,1292,1292,1292,1292,1292,1292,1292,1292,1292,1292,1292,1292,1288,1288,1288,1288,1288,1288,1288,1283,1283,1288,1283,1283,1283,1288,1288,1288,1288,1283,1283,1283,1283,1278,1278,1278,1283,1283,1283,1283,1283,1283,1278,1278,1273,1273,1273,1273,1273,1273,1273,1273,1273,1273,1273,1273,1273,1278,1273,1273,1273,1273,1273,1273,1273,1273,1273,1268,1268,1268,1268,1268,1268,1268,1268,1268,1268,1268,1268,1268,1264,1264,1264,1264,1264,1264,1264,1264,1264,1259,1259,1255,1255,1255,1255,1255,1255,1255,1255,1255,1255,1250,1250,1250,1250,1250,1250,1250,1250,1250,1250,1250,1245,1245,1245,1245,1245,1245,1245,1245,1245,1245,1245,1245,1245,1245,1245,1245,1245,1245,1241,1241,1241,1241,1236,1236,1236,1232,1232,1227,1227,1227,1223,1223,1223,1223,1219,1219,1219,1219,1214,1210,1210,1202,1202,1202,1197,1197,1193,1193,1189,1189,1189,1185,1181,1181,1177,1173,1169,1169,1169,1165,1165,1161,1161,1157,1153,1153,978,978,981,981,981,981,981,970,962,956,951,948,948,946,946,946,943,940,938,938,935,935,935,0,0,0,0,0,0,0,0,0,0,0,0,0,0,0,0,0,0,0,0,0,0,0,0,0,0,0,0,0,0,0,0,0,0,0,0,0,0
0,0,0,0,0,0,0,0,0,0,1439,1439,1433,1433,1433,1433,1433,1433,1433,1433,1427,1427,1427,1427,1427,1427,1427,1427,1427,1427,1427,1427,1427,1427,1421,1421,1427,1421,1421,1421,1421,1421,1421,1421,1421,1421,1427,1421,1421,1421,1421,1421,1421,1415,1415,1415,1415,1415,1415,1415,1415,1415,1415,1410,1410,1415,1415,1415,1415,1415,1415,1415,1415,1415,1415,1415,1410,1410,0,0,0,0,0,1073,1070,1067,1067,1067,1067,1067,1067,1070,1070,1073,1073,1073,1077,1077,1077,1077,1077,1077,0,0,0,0,0,0,0,0,0,0,0,0,0,731,731,731,728,727,725,725,725,727,727,728,728,728,730,731,731,733,733,733,734,734,736,738,738,739,739,739,739,0,0,0,0,0,0,1145,1145,1149,1149,1149,1149,1149,1149,1149,1157,1157,1157,1157,1161,1161,1161,1165,1165,1165,1169,1169,1169,1169,1370,1370,1370,1370,1370,1370,1376,1370,1370,1370,1370,1370,1365,1365,1365,1365,1365,1359,1354,1354,1354,1141,1138,1134,1130,1126,1123,1119,1119,1112,1112,1112,1108,1105,1105,1105,1105,1101,1101,1097,1094,1094,1370,1365,1365,1365,1365,1365,1365,1365,1365,1365,1359,1359,1359,1354,1354,1359,1354,1354,1354,1354,1354,1359,1354,1354,1354,1354,1349,1349,1349,1349,1349,1349,1349,1349,1349,1349,1349,1343,1343,1343,1343,1343,1343,1343,1343,1343,1343,1338,1338,1333,1328,1322,1317,1317,1312,1312,1307,1307,1307,1307,1307,1317,1317,1322,1322,1322,1328,1328,1328,1328,1328,1328,1333,1338,1338,1333,1333,1328,1328,1328,1328,1328,1328,1328,1328,1328,1328,1328,1328,1328,1322,1322,1322,1322,1322,1322,1322,1328,1328,1328,1328,1322,1322,1322,1322,1317,1317,1317,1312,1312,1307,1307,1312,1025,1025,1025,1022,1019,1019,1016,1013,1013,1013,1010,1010,1010,1010,1010,1013,1013,1016,1016,1016,1019,1022,1022,1025,1025,1025,1307,1307,1307,1307,1307,1307,1307,1302,1302,1302,1302,1302,1307,1302,1302,1302,1302,1297,1297,1297,1297,1297,1292,1292,1292,1292,1292,1292,1297,1297,1297,1297,1297,1297,1292,1292,1292,1292,1292,1288,1288,1288,1288,1288,1288,1292,1292,1292,1292,1292,1292,1292,1292,1288,1288,1288,1288,1288,1288,1288,1288,1288,1288,1288,1283,1283,1283,1283,1283,1283,1278,1278,1283,1283,1283,1283,1283,1283,1278,1278,1278,1273,1273,1273,1278,1278,1283,1283,1278,1278,1273,1268,1268,1268,1268,1268,1268,1268,1268,1273,1268,1268,1268,1268,1268,1268,1268,1268,1268,1268,1268,1268,1268,1268,1268,1268,1264,1264,1264,1264,1264,1264,1264,1264,1264,1264,1264,1264,1259,1259,1259,1259,1259,1259,1259,1259,1259,1259,1255,1255,1255,1255,1255,1255,1255,1255,1250,1250,1250,1250,1250,1245,1245,1250,1245,1245,1245,1245,1245,1245,1241,1241,1241,1241,1241,1241,1236,1236,1245,1245,1245,1241,1241,1241,1241,1241,1241,1241,1236,1236,1236,1236,1236,1236,1232,1232,1232,1227,1227,1227,1223,1223,1223,1219,1219,1219,1219,1219,1214,1214,1210,1206,1202,1202,1197,1197,1193,1193,1189,1189,1189,1189,1185,1181,1177,1173,1169,1169,1169,1165,1165,1161,1161,1157,1153,973,973,973,973,981,978,975,975,964,959,954,951,948,948,946,946,946,943,940,938,938,938,938,0,0,0,0,0,0,0,0,0,0,0,0,0,0,0,0,0,0,0,0,0,0,0,0,0,0,0,0,0,0,0,0,0,0,0,0,0,0,0
0,0,0,0,0,0,0,0,0,0,1427,1427,1427,1427,1427,1427,1427,1427,1427,1427,1427,1427,1421,1421,1421,1427,1421,1421,1421,1421,1421,1427,1421,1421,1421,1421,1421,1421,1415,1415,1415,1415,1415,1415,1415,1415,1415,1415,1415,1415,1415,1415,1415,1415,1415,1415,1415,1415,1415,1415,1410,1410,1415,1410,1410,1410,1410,1410,1410,1410,1415,1415,1415,1410,1410,1410,1404,1404,0,0,0,0,0,1080,1070,1070,1070,1070,1067,1067,1067,1070,1070,1073,1073,1073,1077,1077,1077,1077,1077,1080,1084,1084,0,0,0,0,0,0,0,0,0,0,0,0,733,731,728,727,727,727,727,727,727,728,728,730,731,733,733,733,733,734,734,734,736,738,738,739,739,739,739,0,0,0,0,0,0,1149,1149,1149,1149,1149,1149,1149,1149,1149,1153,1157,1157,1157,1157,1161,1165,1165,1165,1165,1169,1365,1370,1365,1365,1370,1370,1370,1370,1370,1370,1370,1365,1365,1365,1365,1365,1359,1359,1359,1359,1354,1349,1349,1349,1145,1141,1138,1134,1126,1123,1119,1115,1112,1112,1108,1105,1105,1101,1097,1097,1097,1094,1094,1094,1090,1087,1087,1365,1365,1359,1359,1365,1359,1359,1359,1359,1354,1354,1354,1354,1354,1354,1354,1354,1354,1354,1349,1349,1349,1349,1349,1349,1349,1349,1349,1349,1349,1343,1343,1343,1343,1343,1343,1343,1338,1338,1343,1343,1343,1343,1343,1338,1338,1333,1328,1328,1322,1322,1317,1317,1312,1312,1307,1307,1307,1312,1317,1317,1322,1322,1322,1322,1322,1328,1328,1328,1328,1328,1328,1333,1328,1328,1328,1328,1328,1322,1322,1328,1328,1328,1322,1322,1322,1322,1322,1322,1322,1322,1322,1322,1322,1322,1328,1322,1322,1322,1317,1317,1317,1317,1312,1312,1312,1312,1307,1307,1307,1307,1307,1028,1028,1025,1022,1019,1019,1013,1013,1013,1010,1010,1010,1013,1013,1013,1013,1016,1016,1019,1022,1022,1022,1025,1025,1025,1307,1307,1302,1302,1302,1302,1302,1302,1302,1302,1302,1302,1302,1297,1297,1297,1297,1292,1292,1292,1292,1292,1292,1292,1292,1292,1292,1292,1292,1292,1292,1292,1292,1292,1292,1292,1292,1288,1288,1288,1288,1288,1288,1288,1288,1288,1288,1288,1288,1288,1288,1288,1288,1288,1288,1288,1283,1283,1283,1283,1283,1283,1283,1283,1278,1278,1278,1278,1278,1278,1278,1278,1278,1278,1278,1278,1278,1278,1273,1273,1273,1273,1273,1273,1273,1273,1273,1273,1273,1268,1268,1268,1268,1268,1268,1268,1268,1268,1268,1268,1268,1268,1264,1264,1264,1264,1264,1264,1259,1259,1259,1264,1264,1264,1264,1264,1264,1264,1264,1259,1259,1259,1259,1259,1259,1259,1259,1255,1255,1255,1255,1255,1255,1255,1255,1255,1255,1250,1250,1250,1250,1250,1250,1250,1250,1250,1250,1250,1250,1245,1245,1241,1241,1241,1241,1241,1241,1241,1241,1241,1241,1236,1236,1236,1236,1236,1236,1236,1236,1236,1236,1236,1236,1236,1236,1236,1236,1236,1236,1236,1236,1236,1236,1232,1232,1232,1227,1223,1223,1223,1223,1223,1219,1219,1219,1219,1219,1219,1214,1214,1214,1206,1206,1202,1197,1197,1197,1193,1193,1193,1189,1189,1185,1181,1181,1177,1173,1169,1169,1169,1165,1165,1161,1157,1153,973,973,973,973,975,973,970,970,962,959,954,951,948,948,946,946,946,943,940,940,938,938,938,0,0,0,0,0,0,0,0,0,0,0,0,0,0,0,0,0,0,0,0,0,0,0,0,0,0,0,0,0,0,0,0,0,0,0,0,0,0,0
