0,0,0,0,0,0,0,0,0,0,0,1464,1464,1464,1458,1458,1458,1458,1458,1452,1452,1452,1452,1452,1452,1452,1452,1452,1452,1452,1452,1458,1458,1458,1458,1458,1458,1458,1458,1458,1464,1458,1458,1458,1458,1458,1458,1458,1458,1458,1458,1458,1458,1458,1458,1458,1458,1458,1458,1458,1458,1458,1458,1458,1458,1458,1458,1458,1458,1458,1458,1458,1458,1458,1458,1458,1452,1452,1452,1452,1452,1452,1452,1452,1452,1452,1452,1445,1439,1439,1439,1439,1439,0,0,0,0,954,954,954,954,954,951,946,946,943,940,940,940,940,940,943,943,946,948,948,951,954,954,956,956,956,956,956,962,962,0,0,0,1445,1445,1445,1445,1445,1439,1439,1439,1439,1439,1439,1439,1439,1439,1439,1439,1439,1439,1433,1433,1439,1433,1433,1433,1433,1433,1433,1433,1433,1433,1433,1433,1439,1433,1433,1433,1433,1433,1433,1433,1433,1439,1439,1439,1439,1439,1433,1433,1433,1433,1433,1433,1433,1433,1439,1433,1433,1433,1433,1433,1433,1433,1433,1433,1433,1433,1433,1433,1433,1433,1433,1433,1433,1433,1433,1433,1433,1134,1134,1138,1138,1141,1141,1141,1145,1145,1145,1145,1141,1141,0,0,0,0,0,0,0,0,0,0,0,0,700,700,698,698,697,696,694,693,691,690,687,686,686,686,686,686,686,686,687,687,688,690,691,693,696,697,700,700,701,703,704,0,0,0,0,0,0,0,0,0,1259,1259,1259,1264,1264,1268,1268,1268,1273,1278,1278,1278,1278,1278,1410,1410,1410,1410,1410,1410,1410,1404,1404,1404,1404,1404,1404,1410,1410,1404,1404,1404,1404,1410,1410,1410,1410,1410,1410,1410,1404,1404,1404,1404,1410,1410,1410,1410,1410,1410,1410,1410,1410,1404,1404,1404,1404,1404,1404,1398,1398,1398,1398,1398,1398,1404,1398,1398,1398,1398,1398,1398,1398,1398,1398,1398,1398,1398,1398,1398,1392,1392,1392,1392,1392,1392,1392,1392,1392,1392,1392,1392,1392,1392,1387,1387,1387,1387,1050,1050,1050,1050,1050,1050,1047,1047,1044,1041,1041,1041,1038,1038,1038,1038,1038,1038,1041,1044,1047,1050,1050,1054,1054,1054,1381,1387,1387,1381,1381,1381,1381,1381,1381,1376,1376,1376,1376,1376,1376,1376,1376,1376,1376,1376,1376,1381,1376,1376,1376,1376,1376,1376,1376,1376,1376,1381,1381,1381,1381,1381,1376,1376,1376,1376,1376,1376,1376,1376,1381,1376,1376,1376,1376,1376,1376,1376,1376,1376,1376,1376,1376,1376,1376,1376,1370,1370,1376,1376,1376,1370,1370,1370,1376,1376,1370,1370,1370,1370,1370,1370,1370,1370,1370,1370,1370,1370,1370,1370,1370,1370,1370,1365,1365,1365,1365,1365,1365,1365,1365,1365,1365,1365,1365,1365,1365,1359,1359,1359,1359,1359,1365,1359,1359,1359,1359,1359,1359,1354,1354,1354,1354,1354,1354,1354,1354,1354,1354,1359,1354,1354,1354,1354,1354,1354,1354,1354,1354,1354,1349,1349,1349,1349,1349,1349,1349,1349,1349,1343,1343,1343,1343,1343,1338,1338,1338,1338,1338,1333,1333,1333,1338,1333,1333,1333,1333,1328,1328,1328,1328,1328,1328,1322,1322,1317,1317,1312,1312,1312,1312,1307,1307,1307,1307,1153,1149,1145,1145,1141,1141,1138,1138,1138,1134,1134,1130,1123,1123,1123,1123,1123,1123,1123,1123,1123,1123,1123,1123,1119,1115,1112,1105,1101,1094,1090,1090,1087,1087,0,0,0,0,0,0,0,0,0,0,0,0,0,0,0,0,0,0,0,0,0,0,0,0,0,0,0,0,0,0,0,0
0,0,0,0,0,0,0,0,0,0,0,1458,1458,1458,1458,1458,1458,1458,1458,1452,1452,1452,1452,1452,1452,1452,1452,1445,1445,1445,1445,1452,1452,1452,1452,1452,1452,1452,1452,1452,1452,1452,1458,1458,1452,1452,1452,1452,1452,1452,1458,1458,1458,1458,1458,1458,1452,1452,1452,1452,1452,1452,1445,1445,1445,1452,1452,1452,1452,1452,1458,1458,1458,1452,1452,1452,1452,1445,1445,1445,1445,1445,1445,1445,1445,1445,1445,1439,1439,1439,1439,1439,1439,0,0,0,0,954,954,954,954,954,951,946,946,943,943,943,940,940,940,943,943,946,948,948,954,954,954,956,956,956,956,956,962,962,0,0,0,0,1445,1445,1445,1439,1439,1439,1439,1439,1439,1439,1439,1433,1433,1433,1433,1433,1433,1427,1427,1433,1433,1427,1427,1427,1427,1427,1433,1433,1433,1433,1433,1433,1433,1433,1433,1433,1433,1433,1427,1427,1427,1427,1427,1427,1433,1427,1427,1433,1433,1433,1433,1433,1433,1433,1433,1433,1433,1427,1421,1421,1421,1427,1421,1421,1427,1427,1433,1433,1433,1433,1433,1433,1433,1433,1427,1134,1134,1134,1134,1138,1138,1138,1141,1141,1145,1141,1141,1138,1138,1138,0,0,0,0,0,0,0,0,0,0,0,700,700,698,698,697,696,694,693,693,691,688,687,686,686,686,686,686,686,687,687,688,690,691,694,696,697,700,700,701,703,704,707,0,0,0,0,0,0,0,0,1259,1259,1264,1264,1268,1268,1273,1273,1273,1278,1278,1278,1278,1278,1410,1410,1410,1410,1410,1404,1404,1404,1398,1398,1398,1398,1398,1398,1398,1398,1398,1398,1398,1404,1404,1404,1404,1404,1404,1404,1404,1404,1404,1404,1404,1404,1404,1404,1404,1404,1398,1398,1404,1404,1404,1404,1398,1398,1398,1398,1398,1398,1398,1398,1398,1398,1398,1398,1398,1392,1392,1398,1398,1392,1392,1392,1392,1392,1392,1392,1392,1392,1392,1392,1392,1392,1387,1387,1387,1387,1387,1387,1381,1381,1381,1381,1381,1387,1387,1050,1050,1050,1050,1050,1050,1047,1047,1044,1041,1041,1041,1038,1038,1038,1038,1041,1041,1044,1047,1050,1050,1054,1054,1054,1381,1381,1381,1381,1381,1376,1376,1376,1376,1376,1376,1376,1376,1376,1376,1376,1376,1376,1376,1370,1370,1376,1376,1376,1376,1370,1370,1376,1376,1376,1376,1376,1376,1376,1376,1376,1376,1376,1376,1376,1376,1376,1376,1376,1376,1376,1376,1376,1376,1376,1370,1370,1370,1370,1370,1370,1370,1370,1370,1370,1370,1370,1370,1370,1370,1370,1370,1370,1370,1370,1365,1365,1365,1365,1365,1365,1365,1365,1365,1365,1365,1365,1365,1365,1365,1365,1359,1359,1359,1359,1359,1359,1359,1359,1359,1359,1359,1359,1359,1359,1359,1354,1354,1354,1359,1359,1359,1359,1354,1354,1354,1354,1354,1354,1354,1354,1354,1354,1354,1354,1354,1354,1354,1354,1354,1354,1354,1349,1349,1349,1349,1349,1349,1349,1343,1343,1343,1343,1343,1338,1338,1343,1343,1343,1338,1338,1338,1338,1338,1333,1333,1333,1333,1333,1333,1333,1333,1333,1333,1333,1333,1328,1328,1328,1328,1328,1328,1322,1322,1317,1317,1312,1312,1312,1312,1312,1307,1307,1307,1153,1149,1145,1145,1145,1141,1141,1138,1138,1134,1134,1130,1123,1123,1123,1123,1123,1123,1123,1123,1123,1123,1123,1119,1119,1112,1108,1105,1097,1094,1090,1087,1087,1087,0,0,0,0,0,0,0,0,0,0,0,0,0,0,0,0,0,0,0,0,0,0,0,0,0,0,0,0,0,0,0,0
0,0,0,0,0,0,0,0,0,0,0,1458,1458,1458,1458,1458,1458,1458,1452,1445,1445,1445,1445,1445,1445,1445,1445,1445,1445,1445,1445,1445,1445,1439,1439,1445,1445,1445,1445,1445,1445,1445,1445,1445,1445,1445,1445,1445,1445,1445,1452,1452,1452,1452,1452,1452,1452,1445,1445,1445,1445,1445,1439,1439,1439,1445,1445,1445,1445,1452,1452,1452,1452,1445,1445,1445,1445,1445,1439,1439,1439,1439,1445,1439,1439,1439,1439,1439,1439,1439,1439,1439,1439,1439,0,0,0,954,954,954,954,954,954,951,948,946,943,943,943,943,943,943,946,946,948,954,954,954,956,956,956,956,959,959,962,964,0,0,0,0,1439,1439,1439,1439,1433,1433,1433,1433,1433,1433,1433,1427,1427,1433,1427,1427,1427,1421,1421,1427,1427,1421,1421,1427,1427,1427,1427,1427,1427,1427,1427,1427,1427,1427,1427,1427,1427,1427,1427,1427,1421,1421,1421,1415,1415,1415,1415,1421,1421,1427,1427,1427,1427,1427,1427,1427,1427,1421,1421,1421,1421,1421,1421,1421,1421,1421,1427,1427,1427,1427,1433,1427,1427,1427,1138,1134,1134,1134,1134,1134,1134,1134,1138,1138,1141,1141,1138,1138,1138,1134,1134,0,0,0,0,0,0,0,0,0,703,703,700,700,700,698,697,696,694,693,691,690,688,686,686,687,687,687,687,687,688,688,690,691,694,696,697,700,701,703,704,706,706,708,0,0,0,0,0,0,0,1264,1264,1268,1268,1268,1273,1273,1273,1278,1278,1283,1283,1283,1283,1410,1404,1404,1404,1404,1398,1398,1398,1392,1392,1392,1392,1392,1392,1392,1392,1392,1392,1392,1392,1392,1398,1398,1398,1398,1398,1398,1398,1398,1398,1404,1398,1398,1398,1398,1398,1398,1398,1398,1398,1398,1398,1398,1398,1398,1398,1398,1398,1398,1398,1398,1398,1398,1392,1392,1392,1392,1392,1392,1392,1392,1392,1392,1387,1387,1387,1381,1381,1381,1387,1387,1387,1387,1381,1381,1381,1381,1381,1376,1376,1376,1376,1376,1387,1387,1054,1054,1054,1050,1050,1050,1050,1047,1044,1044,1041,1041,1041,1038,1038,1041,1041,1041,1044,1047,1050,1054,1054,1057,1057,1376,1376,1376,1376,1376,1376,1376,1376,1376,1376,1376,1376,1376,1376,1376,1376,1376,1370,1370,1370,1370,1370,1370,1370,1370,1370,1370,1370,1370,1370,1370,1370,1370,1370,1370,1370,1370,1370,1370,1370,1370,1370,1370,1370,1370,1370,1370,1370,1370,1370,1370,1370,1370,1370,1370,1365,1365,1365,1365,1365,1365,1365,1365,1370,1365,1365,1365,1365,1365,1365,1359,1359,1359,1359,1359,1359,1359,1359,1359,1359,1359,1359,1359,1359,1359,1359,1359,1354,1354,1354,1354,1354,1354,1354,1359,1359,1354,1354,1354,1349,1349,1354,1354,1354,1354,1354,1354,1354,1354,1354,1349,1349,1349,1349,1349,1349,1349,1349,1349,1349,1349,1349,1349,1349,1349,1349,1349,1349,1349,1349,1349,1349,1343,1338,1338,1338,1338,1338,1338,1338,1338,1338,1338,1338,1333,1333,1333,1333,1333,1333,1333,1333,1333,1333,1333,1333,1333,1333,1333,1328,1328,1328,1328,1328,1328,1328,1328,1322,1322,1322,1317,1312,1312,1312,1312,1312,1312,1307,1307,1307,1149,1149,1149,1145,1141,1141,1138,1138,1134,1134,1130,1123,1123,1123,1123,1123,1123,1123,1123,1123,1123,1119,1119,1119,1112,1108,1105,1097,1090,1087,1084,1084,1084,0,0,0,0,0,0,0,0,0,0,0,0,0,0,0,0,0,0,0,0,0,0,0,0,0,0,0,0,0,0,0,0
0,0,0,0,0,0,0,0,0,0,1445,1445,1452,1452,1452,1452,1452,1452,1445,1445,1439,1439,1439,1439,1439,1439,1439,1439,1439,1439,1439,1439,1439,1439,1439,1439,1439,1439,1445,1445,1445,1445,1439,1439,1445,1439,1439,1439,1439,1439,1445,1445,1445,1445,1445,1445,1439,1439,1439,1439,1439,1439,1439,1439,1439,1439,1439,1439,1439,1439,1439,1439,1439,1439,1439,1439,1439,1439,1439,1439,1439,1439,1439,1439,1439,1439,1439,1433,1433,1433,1433,1433,1427,1427,0,0,0,954,954,954,954,954,954,954,951,948,946,946,943,943,943,946,946,948,948,954,954,956,956,956,956,959,959,959,964,964,967,0,0,0,1439,1433,1433,1433,1433,1433,1433,1433,1433,1427,1427,1421,1421,1421,1421,1421,1421,1415,1415,1421,1421,1421,1421,1421,1421,1421,1421,1421,1421,1421,1421,1421,1421,1421,1421,1421,1421,1421,1421,1421,1421,1415,1415,1415,1415,1415,1415,1415,1415,1415,1415,1427,1421,1421,1421,1421,1421,1415,1415,1415,1415,1415,1415,1415,1421,1421,1427,1427,1427,1427,1123,1123,1130,1134,1134,1134,1134,1134,1134,1134,1134,1134,1134,1134,1138,1138,1138,1138,1138,1134,1134,0,0,0,0,0,0,0,0,0,703,703,701,700,700,698,697,697,696,694,693,690,688,687,687,687,687,687,687,688,688,690,691,693,694,696,698,700,701,703,704,706,706,707,0,0,0,0,0,0,0,0,1268,1268,1268,1268,1273,1273,1273,1278,1283,1283,1283,1283,1283,1404,1404,1398,1398,1398,1392,1392,1392,1392,1392,1392,1392,1392,1392,1392,1392,1392,1392,1392,1392,1392,1392,1392,1392,1392,1392,1392,1392,1392,1392,1398,1398,1398,1392,1392,1392,1392,1392,1392,1392,1392,1392,1392,1392,1398,1398,1392,1392,1392,1392,1392,1392,1392,1387,1387,1387,1387,1387,1387,1387,1387,1381,1381,1381,1381,1381,1376,1376,1376,1381,1381,1381,1381,1381,1381,1376,1376,1376,1376,1376,1376,1376,1376,1054,1054,1057,1057,1054,1054,1054,1054,1054,1050,1047,1044,1041,1041,1041,1041,1041,1041,1041,1044,1047,1050,1054,1054,1057,1060,1060,1376,1376,1376,1376,1376,1370,1370,1370,1370,1370,1370,1370,1370,1370,1370,1370,1370,1370,1370,1365,1365,1365,1365,1365,1365,1365,1365,1370,1370,1370,1370,1370,1370,1370,1370,1365,1365,1365,1365,1365,1365,1365,1365,1370,1370,1365,1365,1365,1365,1365,1365,1365,1365,1365,1365,1359,1359,1359,1359,1359,1359,1359,1359,1359,1359,1359,1359,1359,1354,1354,1354,1354,1354,1354,1354,1354,1354,1354,1354,1354,1354,1354,1354,1354,1354,1354,1354,1354,1354,1354,1354,1354,1354,1354,1354,1354,1354,1354,1349,1349,1349,1343,1343,1349,1349,1349,1354,1354,1354,1349,1349,1349,1349,1343,1343,1349,1349,1349,1349,1349,1349,1349,1343,1343,1343,1343,1343,1343,1343,1343,1343,1343,1338,1333,1333,1333,1333,1333,1333,1333,1333,1333,1333,1333,1333,1333,1333,1333,1333,1333,1333,1333,1333,1333,1333,1328,1328,1328,1328,1328,1328,1328,1328,1328,1328,1328,1328,1322,1322,1322,1322,1317,1312,1312,1312,1312,1312,1307,1307,1307,1153,1149,1149,1149,1141,1141,1138,1134,1134,1134,1130,1123,1123,1123,1123,1123,1119,1119,1123,1119,1119,1119,1115,1115,1108,1108,1105,1090,1087,1084,1080,1080,1080,0,0,0,0,0,0,0,0,0,0,0,0,0,0,0,0,0,0,0,0,0,0,0,0,0,0,0,0,0,0,0,0
0,0,0,0,0,0,0,0,0,0,1439,1439,1439,1439,1439,1439,1439,1439,1439,1439,1433,1433,1439,1439,1439,1439,1439,1439,1433,1433,1433,1433,1433,1433,1433,1439,1439,1439,1439,1439,1439,1439,1439,1439,1439,1433,1433,1433,1433,1439,1433,1433,1439,1439,1439,1439,1439,1433,1433,1433,1433,1433,1433,1433,1433,1433,1433,1439,1439,1439,1433,1433,1433,1433,1433,1433,1433,1433,1433,1433,1433,1433,1433,1433,1427,1427,1433,1433,1433,1433,1433,1433,1427,1427,0,0,0,954,954,954,954,954,954,954,954,948,948,946,946,946,946,946,946,948,948,954,954,956,956,959,959,962,962,962,964,964,967,967,0,1427,0,1427,1427,1427,1427,1427,1427,1421,1421,1421,1421,1421,1421,1421,1415,1415,1415,1415,1415,1415,1415,1415,1415,1415,1415,1415,1415,1415,1415,1415,1415,1415,1415,1415,1415,1415,1415,1415,1415,1415,1415,1415,1415,1415,1415,1415,1415,1415,1415,1415,1415,1415,1415,1415,1415,1415,1415,1415,1415,1415,1415,1415,1415,1415,1421,1421,1421,1427,1427,1123,1123,1123,1126,1130,1130,1130,1130,1130,1130,1130,1130,1130,1130,1134,1134,1138,1138,1138,1138,1138,1138,0,0,0,0,0,0,0,0,0,703,703,701,701,700,698,698,697,696,694,693,690,690,688,687,687,687,687,687,688,688,691,693,693,696,697,698,700,701,703,704,706,707,707,710,0,0,0,0,0,0,0,0,1268,1268,1273,1273,1273,1278,1278,1283,1283,1283,1283,1283,1404,1404,1398,1398,1392,1392,1392,1392,1392,1392,1392,1392,1392,1387,1387,1387,1387,1387,1387,1387,1387,1387,1387,1387,1387,1387,1387,1387,1387,1387,1398,1392,1392,1392,1392,1392,1387,1387,1387,1387,1387,1387,1387,1392,1392,1392,1392,1392,1392,1392,1387,1387,1387,1381,1381,1381,1381,1381,1381,1381,1381,1376,1376,1376,1376,1376,1376,1376,1376,1376,1376,1376,1376,1376,1376,1376,1376,1376,1370,1370,1376,1057,1057,1054,1054,1057,1057,1057,1054,1054,1054,1054,1054,1050,1047,1047,1041,1041,1041,1041,1044,1044,1047,1047,1050,1054,1054,1057,1060,1060,1370,1370,1370,1370,1370,1370,1370,1370,1365,1365,1365,1365,1365,1365,1365,1365,1365,1365,1365,1359,1359,1359,1359,1359,1359,1359,1359,1359,1365,1365,1365,1365,1365,1365,1365,1359,1359,1359,1359,1359,1359,1359,1359,1359,1359,1359,1359,1359,1359,1359,1359,1359,1359,1359,1359,1359,1354,1354,1354,1354,1354,1354,1354,1354,1354,1354,1354,1354,1354,1354,1354,1354,1354,1354,1354,1354,1354,1354,1354,1354,1354,1354,1354,1354,1354,1349,1349,1349,1349,1349,1349,1349,1349,1349,1349,1349,1349,1349,1349,1343,1343,1343,1343,1343,1343,1343,1343,1343,1349,1343,1343,1343,1343,1343,1343,1343,1343,1343,1343,1343,1343,1343,1338,1338,1338,1338,1338,1338,1338,1338,1338,1338,1333,1333,1333,1333,1333,1333,1333,1333,1328,1328,1333,1328,1328,1328,1328,1328,1328,1328,1328,1328,1328,1328,1328,1328,1328,1322,1322,1328,1322,1322,1322,1322,1322,1322,1322,1322,1322,1322,1322,1317,1317,1312,1312,1312,1312,1312,1312,1312,1312,1149,1149,1145,1141,1138,1138,1134,1134,1130,1123,1123,1123,1123,1123,1123,1119,1119,1119,1119,1119,1115,1112,1112,1105,1101,1094,1087,1084,1080,1080,1077,1077,0,0,0,0,0,0,0,0,0,0,0,0,0,0,0,0,0,0,0,0,0,0,0,0,0,0,0,0,0,0,0,0
0,0,0,0,0,0,0,0,0,0,1433,1433,1433,1433,1433,1421,1421,1427,1427,1433,1433,1433,1433,1433,1433,1433,1433,1433,1427,1427,1427,1427,1427,1427,1427,1433,1433,1433,1433,1433,1433,1433,1433,1433,1433,1433,1433,1427,1427,1433,1433,1433,1427,1427,1427,1427,1427,1433,1433,1433,1433,1433,1433,1433,1433,1433,1433,1433,1433,1433,1433,1433,1427,1427,1427,1427,1427,1427,1427,1427,1427,1427,1427,1427,1421,1421,1427,1427,1427,1427,1427,1427,1427,1427,0,0,0,0,0,0,954,954,954,954,954,954,951,948,946,946,946,946,946,948,948,954,954,956,956,959,959,962,962,964,964,964,967,967,0,0,0,1421,1421,1421,1421,1421,1415,1415,1415,1415,1415,1415,1410,1410,1415,1415,1415,1410,1410,1410,1415,1415,1415,1415,1415,1415,1415,1415,1415,1410,1410,1410,1410,1410,1410,1410,1410,1410,1410,1410,1410,1410,1410,1410,1410,1410,1410,1410,1410,1410,1410,1410,1410,1410,1410,1410,1410,1410,1410,1415,1415,1415,1415,1415,1421,1421,1123,1123,1119,1119,1123,1123,1123,1126,1130,1130,1130,1130,1130,1130,1130,1130,1130,1130,1134,1134,1134,1134,1134,1134,1134,0,0,0,0,0,0,0,0,0,704,704,703,703,701,700,698,697,697,696,693,691,690,688,687,687,687,687,687,688,688,691,693,694,696,697,698,701,701,703,704,706,707,708,710,0,0,0,0,0,0,0,0,1278,1278,1278,1278,1278,1278,1283,1283,1283,1283,1283,1283,1404,1398,1398,1392,1392,1392,1392,1387,1387,1387,1387,1387,1387,1387,1387,1387,1387,1381,1381,1381,1381,1381,1381,1381,1381,1381,1381,1381,1381,1381,1387,1387,1387,1387,1381,1381,1381,1381,1381,1381,1381,1381,1381,1381,1387,1387,1387,1387,1387,1387,1381,1381,1381,1376,1376,1376,1376,1376,1376,1376,1376,1376,1376,1376,1376,1376,1376,1376,1376,1376,1376,1376,1370,1370,1370,1370,1370,1370,1370,1370,1370,1057,1057,1060,1057,1057,1060,1057,1057,1057,1057,1054,1054,1050,1050,1047,1044,1044,1041,1041,1044,1044,1047,1047,1050,1054,1054,1057,1060,1067,1370,1370,1359,1359,1365,1365,1365,1365,1359,1359,1359,1359,1359,1359,1359,1359,1359,1359,1359,1354,1354,1354,1354,1354,1354,1354,1354,1354,1359,1359,1359,1359,1359,1359,1365,1359,1359,1359,1354,1354,1354,1354,1354,1354,1354,1354,1354,1354,1354,1354,1354,1354,1354,1354,1354,1354,1354,1354,1354,1354,1354,1354,1354,1349,1349,1349,1349,1349,1349,1349,1349,1354,1354,1354,1354,1354,1354,1354,1349,1349,1349,1349,1349,1349,1349,1349,1349,1349,1349,1343,1343,1343,1349,1349,1343,1343,1349,1343,1343,1338,1338,1338,1338,1338,1338,1338,1338,1338,1338,1338,1338,1338,1338,1338,1338,1343,1343,1338,1338,1343,1338,1338,1333,1333,1333,1333,1333,1333,1333,1333,1333,1333,1333,1328,1328,1328,1328,1328,1328,1328,1328,1328,1328,1328,1322,1322,1328,1328,1328,1328,1328,1328,1328,1328,1322,1322,1322,1317,1317,1322,1322,1322,1322,1322,1322,1322,1322,1202,1202,1322,1328,1322,1317,1317,1317,1317,1317,1312,1312,1312,1153,1149,1149,1145,1141,1138,1138,1134,1130,1126,1123,1123,1123,1123,1123,1119,1119,1119,1119,1119,1115,1115,1108,1108,1101,1097,1090,1087,1084,1080,1077,1077,1077,0,0,0,0,0,0,0,0,0,0,0,0,0,0,0,0,0,0,0,0,0,0,0,0,0,0,0,0,0,0,0,0
0,0,0,0,0,0,0,0,0,0,1427,1427,1427,1427,1421,1415,1415,1415,1421,1427,1427,1427,1433,1433,1427,1427,1427,1427,1421,1421,1421,1421,1421,1421,1421,1427,1427,1427,1427,1427,1433,1427,1421,1421,1427,1427,1427,1421,1421,1427,1427,1427,1421,1421,1421,1427,1427,1427,1427,1427,1427,1427,1427,1427,1427,1427,1427,1427,1427,1427,1421,1421,1421,1421,1421,1421,1421,1421,1421,1421,1421,1421,1421,1421,1421,1421,1421,1421,1421,1421,1421,1421,1421,1415,1415,0,0,0,0,0,0,954,954,954,954,954,951,951,948,948,948,948,948,948,951,954,954,956,959,962,962,962,964,964,967,967,967,967,0,0,0,1415,1415,1415,1415,1415,1415,1415,1415,1415,1410,1410,1410,1410,1410,1410,1410,1410,1410,1410,1410,1410,1410,1410,1410,1410,1410,1410,1410,1404,1404,1404,1404,1404,1404,1404,1404,1404,1404,1404,1404,1404,1404,1404,1410,1410,1410,1410,1404,1404,1404,1404,1404,1404,1404,1404,1410,1410,1410,1410,1415,1415,1415,1415,1415,1119,1119,1119,1119,1119,1119,1119,1123,1123,1126,1126,1130,1130,1130,1130,1130,1130,1130,1130,1130,1134,1134,1134,1134,1134,1134,0,0,0,0,0,0,0,0,0,0,706,704,703,703,701,700,698,697,696,694,691,690,688,688,688,688,687,687,688,690,691,694,696,697,698,700,703,703,704,706,707,708,708,710,0,0,0,0,0,0,0,0,1278,1278,1278,1278,1278,1278,1283,1283,1283,1283,1283,1283,1283,1283,1392,1387,1387,1387,1381,1381,1381,1381,1381,1387,1381,1381,1381,1381,1381,1381,1381,1376,1376,1376,1376,1370,1370,1376,1376,1376,1370,1370,1376,1381,1381,1376,1376,1376,1381,1376,1376,1381,1381,1381,1381,1381,1381,1381,1381,1381,1381,1376,1376,1376,1376,1376,1376,1370,1370,1370,1370,1370,1370,1370,1370,1370,1370,1370,1370,1370,1370,1370,1370,1370,1365,1365,1365,1365,1365,1365,1365,1365,1365,1063,1063,1063,1063,1063,1063,1060,1057,1057,1057,1057,1054,1054,1050,1050,1047,1044,1044,1044,1047,1047,1047,1047,1050,1054,1057,1060,1063,1067,1067,1354,1354,1354,1354,1359,1354,1354,1354,1354,1359,1359,1354,1354,1359,1359,1354,1354,1354,1354,1354,1354,1354,1354,1354,1354,1354,1354,1354,1354,1354,1354,1354,1354,1354,1354,1354,1354,1354,1354,1354,1354,1354,1354,1354,1354,1354,1354,1354,1349,1349,1349,1349,1349,1349,1349,1349,1349,1349,1349,1349,1349,1349,1343,1343,1343,1343,1343,1343,1343,1349,1349,1349,1349,1349,1349,1349,1349,1349,1349,1349,1349,1349,1343,1343,1343,1343,1343,1343,1338,1338,1338,1343,1343,1338,1338,1338,1338,1338,1333,1333,1333,1333,1333,1333,1333,1333,1333,1333,1333,1333,1333,1333,1333,1333,1333,1333,1333,1333,1333,1333,1333,1333,1333,1333,1333,1333,1328,1328,1333,1328,1328,1328,1328,1328,1328,1328,1328,1328,1328,1328,1328,1328,1322,1322,1322,1322,1322,1322,1322,1322,1328,1322,1322,1317,1317,1317,1317,1317,1312,1312,1312,1317,1317,1317,1206,1206,1202,1202,1206,1206,1202,1202,1202,1202,1317,1317,1317,1317,1317,1153,1153,1149,1149,1141,1138,1138,1134,1123,1123,1123,1123,1123,1123,1123,1119,1119,1119,1119,1119,1112,1112,1108,1101,1097,1094,1087,1084,1080,1077,1077,1070,1070,0,0,0,0,0,0,0,0,0,0,0,0,0,0,0,0,0,0,0,0,0,0,0,0,0,0,0,0,0,0,0,0
0,0,0,0,0,0,0,0,0,0,1427,1421,1421,1421,1415,1410,1410,1415,1415,1421,1421,1421,1421,1421,1421,1421,1421,1421,1415,1415,1415,1415,1421,1421,1421,1421,1421,1421,1421,1421,1421,1415,1415,1421,1421,1421,1421,1421,1421,1421,1421,1421,1415,1415,1421,1421,1421,1421,1421,1421,1421,1427,1427,1427,1427,1427,1421,1421,1421,1421,1415,1415,1415,1415,1421,1421,1415,1415,1415,1415,1415,1415,1415,1415,1415,1415,1415,1415,1415,1415,1415,1415,1415,1415,1415,0,0,0,0,0,0,0,956,956,956,956,954,951,951,948,948,948,948,948,951,954,954,956,959,962,962,964,964,964,967,967,967,967,970,0,1415,1415,1410,1410,1410,1410,1410,1410,1410,1404,1404,1404,1404,1404,1404,1404,1404,1404,1410,1410,1410,1410,1410,1410,1410,1410,1404,1404,1404,1404,1398,1398,1398,1398,1398,1398,1398,1398,1398,1398,1398,1398,1398,1398,1404,1404,1404,1404,1404,1404,1404,1404,1404,1404,1404,1404,1404,1410,1410,1410,1115,1115,1119,1415,1119,1119,1119,1119,1119,1119,1119,1119,1119,1123,1123,1126,1126,1126,1126,1126,1126,1126,1126,1126,1130,1130,1130,1126,1126,1130,1134,0,0,0,0,0,0,0,0,0,0,0,704,703,703,701,701,698,698,697,696,691,691,688,688,688,688,688,688,690,690,691,694,696,697,698,700,703,703,706,707,707,708,710,710,0,0,0,0,0,0,0,0,1283,1283,1283,1283,1283,1283,1283,1283,1288,1288,1283,1283,1283,1283,1387,1381,1381,1381,1381,1381,1381,1381,1381,1381,1381,1376,1376,1376,1376,1376,1376,1370,1370,1370,1370,1370,1370,1370,1370,1370,1370,1370,1376,1376,1376,1376,1376,1376,1376,1376,1376,1376,1376,1376,1376,1376,1376,1376,1376,1376,1376,1370,1370,1370,1370,1370,1370,1370,1370,1370,1370,1370,1370,1365,1365,1365,1365,1365,1370,1365,1365,1365,1365,1365,1359,1359,1359,1359,1359,1359,1359,1359,1359,1063,1063,1067,1063,1060,1060,1060,1060,1060,1060,1057,1054,1054,1054,1050,1047,1047,1044,1044,1047,1047,1047,1047,1050,1054,1060,1063,1067,1067,1067,1349,1349,1349,1349,1354,1354,1354,1354,1354,1354,1354,1354,1354,1354,1354,1354,1354,1354,1354,1354,1354,1354,1354,1354,1354,1354,1354,1354,1354,1349,1349,1349,1349,1349,1349,1349,1349,1349,1349,1349,1349,1349,1349,1349,1349,1349,1349,1349,1349,1343,1343,1338,1338,1343,1343,1343,1343,1343,1343,1343,1338,1338,1338,1338,1338,1338,1338,1338,1338,1343,1343,1343,1343,1343,1343,1343,1343,1343,1343,1343,1343,1343,1343,1343,1343,1343,1338,1338,1338,1338,1338,1338,1338,1333,1333,1338,1333,1333,1333,1333,1333,1333,1328,1328,1328,1328,1328,1328,1328,1328,1328,1328,1328,1328,1328,1328,1328,1328,1333,1328,1328,1328,1328,1328,1328,1322,1322,1322,1322,1322,1322,1322,1322,1322,1328,1328,1328,1328,1328,1328,1322,1322,1322,1317,1317,1322,1322,1322,1322,1322,1322,1322,1317,1312,1312,1312,1312,1312,1312,1307,1307,1312,1312,1202,1202,1202,1202,1202,1202,1202,1202,1202,1202,1202,1197,1197,1317,1317,1153,1153,1149,1145,1141,1138,1134,1130,1130,1123,1123,1123,1123,1123,1123,1123,1123,1123,1119,1119,1115,1112,1108,1105,1097,1094,1090,1084,1080,1077,1077,1073,1067,1067,0,0,0,0,0,0,0,0,0,0,0,0,0,0,0,0,0,0,0,0,0,0,0,0,0,0,0,0,0,0,0,0
0,0,0,0,0,0,0,0,0,0,1421,1421,1421,1415,1415,1410,1410,1415,1415,1415,1415,1415,1415,1415,1415,1415,1415,1415,1415,1415,1415,1415,1415,1415,1415,1415,1415,1415,1415,1415,1415,1415,1415,1415,1421,1421,1415,1415,1421,1421,1415,1415,1415,1415,1415,1415,1415,1415,1415,1421,1421,1421,1421,1421,1415,1415,1415,1415,1421,1415,1415,1415,1415,1415,1415,1415,1415,1415,1415,1415,1415,1410,1410,1410,1410,1410,1410,1410,1410,1410,1410,1410,1410,1398,1398,0,0,0,0,0,0,0,956,956,956,956,954,954,951,951,951,951,951,951,954,954,956,956,959,962,962,964,964,967,967,967,967,970,0,0,0,1415,1392,1392,1404,1404,1398,1398,1398,1398,1398,1398,1398,1398,1404,1404,1404,1404,1404,1404,1404,1404,1404,1404,1404,1404,1404,1404,1398,1398,1398,1398,1398,1398,1398,1398,1398,1398,1398,1398,1392,1392,1392,1392,1398,1398,1398,1404,1398,1398,1398,1398,1398,1398,1398,1398,1112,1112,1112,1112,1112,1112,1112,1115,1115,1115,1115,1119,1119,1119,1119,1119,1119,1119,1123,1123,1123,1126,1126,1126,1126,1126,1126,1126,1126,1126,1126,1123,1123,1126,0,0,0,0,0,0,0,0,0,0,0,0,704,704,703,701,700,700,698,697,697,694,693,691,690,690,688,688,690,690,690,693,694,696,697,698,701,703,704,706,707,707,708,710,710,0,0,0,0,0,0,0,0,1283,1283,1283,1283,1283,1283,1283,1288,1288,1288,1288,1288,1283,1283,1288,1376,1376,1376,1376,1376,1376,1376,1376,1376,1376,1370,1370,1370,1370,1370,1370,1370,1370,1370,1365,1365,1365,1365,1365,1365,1365,1365,1370,1376,1376,1376,1370,1370,1370,1370,1370,1370,1370,1370,1370,1370,1370,1370,1370,1370,1370,1365,1365,1365,1365,1365,1365,1365,1365,1365,1365,1365,1359,1359,1359,1359,1359,1359,1365,1365,1365,1359,1359,1359,1359,1354,1354,1354,1354,1354,1354,1354,1354,1359,1354,1070,1067,1060,1060,1060,1060,1060,1060,1057,1057,1057,1057,1054,1054,1047,1047,1047,1047,1047,1047,1047,1050,1057,1063,1067,1067,1067,1067,1349,1349,1349,1349,1354,1349,1349,1349,1349,1354,1354,1354,1354,1354,1349,1349,1349,1349,1349,1349,1349,1349,1349,1349,1349,1349,1349,1349,1349,1343,1343,1343,1343,1343,1349,1349,1349,1349,1349,1349,1349,1349,1349,1349,1349,1349,1349,1343,1343,1338,1338,1333,1333,1338,1338,1338,1338,1338,1338,1338,1338,1338,1338,1338,1338,1338,1338,1338,1333,1333,1338,1338,1338,1338,1338,1338,1338,1338,1338,1338,1338,1338,1338,1338,1338,1338,1333,1333,1333,1333,1333,1333,1333,1333,1333,1333,1333,1333,1328,1328,1328,1328,1328,1328,1328,1328,1328,1322,1322,1328,1328,1328,1328,1322,1322,1322,1322,1317,1317,1317,1322,1322,1322,1322,1322,1322,1322,1317,1317,1317,1317,1317,1322,1322,1322,1322,1322,1322,1322,1322,1317,1317,1317,1317,1317,1317,1317,1317,1317,1317,1317,1317,1312,1312,1312,1312,1307,1307,1307,1307,1307,1307,1307,1202,1202,1202,1202,1202,1202,1202,1202,1202,1202,1202,1197,1197,1197,1138,1138,1138,1149,1145,1138,1134,1130,1130,1123,1123,1123,1123,1123,1123,1123,1123,1123,1123,1119,1119,1115,1112,1108,1101,1097,1094,1087,1084,1080,1077,1073,1070,1067,1067,0,0,0,0,0,0,0,0,0,0,0,0,0,0,0,0,0,0,0,0,0,0,0,0,0,0,0,0,0,0,0,0
0,0,0,0,0,0,0,0,0,0,1421,1421,1415,1415,1415,1410,1410,1415,1415,1415,1415,1415,1415,1410,1410,1410,1410,1410,1415,1415,1415,1415,1415,1415,1415,1415,1415,1410,1410,1410,1410,1410,1410,1410,1415,1415,1415,1415,1415,1415,1415,1415,1410,1410,1415,1415,1415,1415,1415,1415,1415,1415,1415,1415,1415,1410,1410,1410,1410,1410,1410,1410,1415,1415,1415,1410,1410,1410,1410,1410,1410,1410,1410,1410,1410,1410,1410,1410,1410,1410,1410,1410,1410,1398,1398,1398,0,0,0,0,0,0,0,959,959,956,956,954,954,951,951,951,951,951,954,954,956,956,959,962,962,964,967,967,967,967,967,970,0,0,0,1392,1392,1392,1392,1392,1392,1392,1398,1398,1398,1392,1392,1398,1398,1398,1398,1398,1398,1398,1398,1398,1398,1398,1398,1398,1398,1398,1392,1392,1392,1392,1392,1392,1392,1392,1392,1392,1392,1392,1392,1392,1387,1387,1392,1392,1392,1392,1392,1392,1392,1392,1392,1392,1392,1112,1112,1112,1112,1108,1108,1108,1108,1108,1112,1112,1115,1115,1115,1115,1115,1115,1119,1119,1119,1123,1123,1126,1123,1123,1123,1123,1123,1123,1123,1123,1123,1119,1119,1115,1115,0,0,0,0,0,0,0,0,0,0,0,706,704,703,701,700,700,698,697,697,696,694,693,691,691,690,690,691,691,691,693,696,697,697,698,700,703,703,706,707,708,710,710,710,0,0,0,0,0,0,0,0,1283,1283,1283,1283,1283,1283,1283,1288,1288,1288,1288,1288,1283,1283,1288,1370,1370,1370,1370,1370,1370,1370,1370,1370,1370,1370,1370,1370,1370,1370,1370,1365,1365,1365,1365,1365,1365,1359,1359,1359,1359,1359,1365,1370,1370,1370,1370,1370,1370,1365,1365,1365,1365,1365,1365,1365,1359,1359,1359,1365,1365,1359,1359,1359,1359,1359,1359,1359,1359,1359,1359,1359,1354,1354,1354,1354,1359,1359,1359,1359,1359,1359,1354,1354,1354,1354,1354,1354,1354,1354,1354,1354,1354,1354,1354,1070,1067,1067,1063,1063,1063,1063,1063,1060,1060,1057,1057,1057,1054,1054,1047,1047,1050,1047,1047,1050,1054,1057,1067,1067,1067,1070,1070,1349,1349,1349,1349,1349,1349,1349,1349,1349,1349,1349,1349,1349,1349,1349,1349,1349,1343,1343,1343,1349,1349,1349,1349,1349,1349,1343,1343,1338,1338,1338,1338,1338,1338,1338,1338,1343,1343,1343,1343,1343,1343,1343,1343,1343,1343,1343,1343,1338,1333,1333,1333,1333,1333,1333,1333,1333,1333,1333,1333,1333,1333,1338,1333,1333,1333,1333,1333,1333,1333,1333,1333,1333,1333,1333,1333,1333,1333,1333,1333,1333,1333,1333,1333,1328,1328,1328,1328,1328,1328,1328,1328,1328,1328,1328,1328,1328,1328,1328,1328,1328,1322,1322,1322,1322,1322,1322,1317,1317,1322,1322,1317,1317,1317,1317,1317,1317,1317,1317,1317,1317,1312,1312,1317,1317,1317,1317,1317,1317,1317,1317,1317,1317,1312,1312,1312,1312,1312,1317,1312,1312,1312,1312,1312,1312,1312,1312,1312,1312,1312,1312,1307,1307,1302,1302,1307,1307,1302,1302,1302,1302,1302,1210,1210,1206,1206,1206,1206,1202,1202,1202,1202,1202,1202,1202,1134,1134,1134,1134,1130,1130,1134,1134,1130,1126,1126,1123,1123,1123,1123,1123,1123,1123,1123,1123,1123,1119,1115,1115,1108,1105,1097,1094,1090,1087,1084,1080,1077,1073,1070,1067,1067,0,0,0,0,0,0,0,0,0,0,0,0,0,0,0,0,0,0,0,0,0,0,0,0,0,0,0,0,0,0,0,0
0,0,0,0,0,0,0,0,0,0,1415,1415,1415,1415,1415,1410,1410,1410,1410,1410,1410,1410,1410,1410,1410,1410,1410,1410,1410,1410,1410,1415,1415,1415,1415,1410,1410,1410,1404,1404,1404,1404,1404,1410,1410,1410,1410,1410,1410,1410,1410,1410,1410,1410,1410,1410,1410,1410,1410,1410,1410,1410,1415,1410,1410,1410,1410,1404,1404,1404,1404,1404,1404,1404,1404,1404,1410,1410,1410,1404,1404,1404,1404,1404,1404,1404,1404,1404,1410,1410,1410,1404,1404,1398,1392,1387,1387,0,0,0,0,0,962,962,962,959,959,956,954,951,951,951,951,951,954,954,956,956,962,962,964,967,967,967,967,970,970,970,970,0,1387,1387,1387,1387,1387,1387,1387,1392,1392,1392,1392,1392,1392,1392,1392,1392,1392,1392,1392,1392,1392,1392,1392,1398,1392,1392,1392,1392,1392,1392,1392,1392,1392,1392,1392,1392,1392,1392,1392,1392,1392,1387,1387,1387,1387,1387,1387,1392,1387,1387,1392,1392,1392,1392,1392,1108,1108,1108,1105,1105,1105,1105,1105,1105,1108,1108,1112,1112,1115,1115,1115,1115,1115,1119,1119,1119,1119,1123,1123,1123,1123,1123,1119,1119,1119,1119,1115,1112,1112,1108,1108,0,0,0,0,0,0,0,0,0,0,0,708,706,703,703,701,700,698,698,697,696,694,693,691,691,691,691,691,693,693,694,696,697,698,698,700,703,703,706,708,708,710,711,711,0,0,0,0,0,0,0,0,1288,1288,1283,1283,1283,1283,1288,1288,1288,1288,1292,1292,1288,1288,1288,1370,1370,1370,1370,1370,1370,1370,1370,1370,1365,1365,1365,1365,1365,1365,1365,1365,1365,1365,1365,1359,1359,1359,1359,1359,1354,1354,1359,1365,1365,1365,1365,1365,1365,1359,1359,1359,1359,1359,1359,1359,1359,1359,1359,1354,1354,1354,1354,1354,1354,1354,1354,1359,1359,1359,1354,1354,1354,1354,1354,1354,1354,1354,1354,1354,1354,1354,1354,1354,1354,1349,1349,1349,1349,1349,1349,1349,1349,1349,1349,1349,1349,1349,1063,1063,1063,1063,1063,1060,1060,1057,1057,1057,1054,1054,1050,1050,1050,1050,1050,1050,1054,1063,1070,1070,1070,1070,1343,1343,1338,1338,1343,1349,1349,1349,1349,1349,1349,1349,1349,1349,1343,1343,1343,1343,1338,1338,1338,1343,1343,1343,1343,1343,1343,1343,1343,1338,1338,1338,1333,1333,1333,1333,1333,1338,1338,1338,1338,1333,1333,1333,1338,1338,1338,1338,1333,1333,1333,1333,1328,1328,1328,1328,1328,1328,1328,1328,1328,1328,1328,1328,1328,1328,1328,1328,1328,1328,1328,1328,1328,1328,1328,1328,1328,1328,1328,1328,1328,1328,1328,1328,1328,1328,1328,1328,1328,1328,1322,1322,1322,1322,1322,1322,1322,1322,1322,1322,1322,1317,1317,1317,1317,1317,1317,1317,1317,1317,1317,1312,1312,1312,1312,1312,1312,1312,1312,1312,1312,1312,1312,1312,1312,1312,1307,1307,1312,1312,1312,1312,1312,1312,1312,1312,1312,1312,1312,1312,1307,1307,1312,1312,1312,1312,1312,1312,1312,1307,1307,1307,1307,1302,1297,1297,1302,1302,1297,1297,1297,1297,1297,1210,1210,1206,1206,1206,1206,1202,1202,1197,1197,1202,1202,0,1134,1134,1134,1130,1130,1130,1134,1134,1130,1126,1126,1123,1123,1123,1123,1123,1123,1123,1123,1119,1119,1119,1115,1112,1105,1101,1097,1094,1090,1087,1084,1080,1077,1073,1070,1063,1063,0,0,0,0,0,0,0,0,0,0,0,0,0,0,0,0,0,0,0,0,0,0,0,0,0,0,0,0,0,0,0,0
0,0,0,0,0,0,0,0,0,0,1410,1410,1415,1415,1415,1410,1410,1410,1410,1410,1410,1410,1410,1410,1410,1410,1410,1410,1410,1410,1410,1410,1410,1410,1410,1410,1410,1404,1404,1404,1398,1398,1404,1404,1404,1410,1410,1410,1410,1404,1404,1404,1404,1404,1404,1404,1404,1404,1404,1404,1404,1410,1410,1410,1410,1404,1404,1398,1398,1398,1398,1398,1398,1398,1398,1398,1398,1404,1398,1398,1398,1404,1404,1404,1404,1404,1404,1404,1404,1404,1404,1398,1398,1392,1392,1387,1387,0,0,0,0,0,962,962,962,959,959,956,954,954,954,954,954,954,954,954,956,959,962,962,964,967,967,967,967,970,973,973,0,0,1387,1387,1387,1387,1387,1387,1387,1387,1387,1387,1387,1387,1387,1387,1387,1387,1387,1387,1387,1392,1387,1387,1387,1392,1392,1392,1392,1392,1387,1387,1387,1387,1387,1387,1387,1392,1392,1392,1387,1387,1387,1387,1381,1381,1381,1387,1387,1387,1387,1387,1387,1392,1094,1094,1094,1101,1105,1105,1105,1105,1105,1105,1105,1105,1105,1108,1112,1112,1112,1115,1115,1115,1115,1119,1119,1119,1119,1123,1123,1123,1123,1119,1119,1119,1115,1115,1112,1112,1108,1108,1108,1108,0,0,0,0,0,0,0,0,0,0,708,707,706,703,703,701,700,698,698,697,696,694,693,691,691,691,693,693,693,694,696,698,698,700,703,704,704,707,708,710,710,711,713,0,0,0,0,0,0,0,0,1288,1288,1283,1283,1283,1288,1288,1288,1288,1292,1292,1292,1292,1292,1292,1365,1365,1365,1365,1365,1365,1365,1365,1365,1365,1365,1365,1365,1365,1365,1365,1365,1365,1359,1359,1359,1354,1354,1354,1354,1354,1354,1359,1359,1359,1359,1359,1359,1359,1354,1354,1354,1354,1354,1354,1354,1354,1354,1354,1354,1349,1349,1349,1349,1349,1349,1354,1354,1354,1354,1354,1354,1354,1354,1354,1354,1349,1349,1349,1349,1349,1349,1349,1349,1349,1349,1349,1349,1349,1349,1349,1349,1349,1349,1349,1349,1343,1343,1067,1063,1063,1067,1063,1063,1063,1060,1060,1057,1057,1054,1054,1050,1050,1050,1050,1054,1063,1067,1070,1070,1070,1070,1343,1343,1333,1333,1338,1338,1338,1338,1343,1343,1343,1343,1343,1343,1338,1338,1338,1338,1333,1333,1333,1333,1338,1338,1338,1338,1338,1343,1338,1338,1333,1333,1333,1333,1333,1333,1333,1333,1333,1333,1333,1333,1333,1333,1333,1333,1333,1333,1333,1333,1328,1328,1328,1328,1328,1328,1328,1322,1322,1328,1328,1322,1322,1322,1322,1322,1322,1322,1322,1328,1328,1328,1328,1322,1322,1328,1328,1328,1328,1328,1328,1322,1322,1322,1317,1317,1322,1317,1317,1317,1317,1317,1317,1317,1317,1317,1317,1317,1317,1317,1312,1312,1312,1312,1312,1312,1312,1312,1312,1312,1312,1312,1312,1312,1307,1307,1307,1307,1307,1312,1312,1312,1307,1307,1307,1307,1307,1307,1307,1307,1307,1307,1307,1307,1307,1307,1307,1307,1307,1307,1302,1302,1307,1307,1307,1307,1307,1307,1307,1302,1302,1302,1297,1297,1292,1292,1297,1297,1297,1292,1292,1292,1297,1214,1214,1210,1210,1206,1206,1202,1202,1197,1197,1197,1189,0,1134,1134,1130,1130,1130,1130,1130,1130,1130,1126,1123,1123,1123,1123,1123,1123,1123,1123,1119,1119,1119,1115,1112,1108,1105,1101,1094,1094,1087,1087,1084,1077,1077,1073,1067,1063,1063,0,0,0,0,0,0,0,0,0,0,0,0,0,0,0,0,0,0,0,0,0,0,0,0,0,0,0,0,0,0,0,0
0,0,0,0,0,0,0,0,0,0,1404,1404,1410,1410,1410,1410,1410,1410,1410,1410,1410,1404,1404,1410,1404,1404,1404,1404,1404,1410,1410,1410,1410,1404,1404,1404,1404,1398,1398,1398,1398,1398,1398,1398,1398,1404,1404,1404,1404,1404,1398,1398,1398,1398,1398,1398,1398,1398,1398,1398,1398,1404,1404,1404,1404,1398,1398,1398,1398,1392,1392,1398,1398,1398,1398,1392,1392,1398,1392,1392,1392,1392,1392,1398,1398,1398,1398,1398,1398,1398,1398,1392,1392,1387,1387,1387,1387,0,0,0,0,0,967,964,964,962,959,956,956,954,954,954,954,954,956,956,956,959,962,964,964,967,967,967,970,973,973,973,975,0,1387,1387,1387,1376,1376,1376,1376,1381,1381,1381,1387,1387,1387,1387,1387,1387,1381,1381,1381,1387,1387,1387,1387,1387,1387,1387,1387,1387,1387,1381,1381,1381,1381,1381,1381,1387,1387,1387,1387,1381,1381,1381,1381,1376,1376,1381,1387,1387,1387,1387,1090,1090,1094,1094,1094,1101,1101,1101,1101,1101,1101,1101,1105,1105,1105,1105,1108,1112,1112,1115,1115,1115,1119,1119,1119,1119,1123,1123,1123,1123,1119,1119,1119,1115,1112,1112,1108,1108,1105,1105,1105,1105,1105,0,0,0,0,0,0,0,0,0,0,708,708,704,703,703,701,700,698,698,696,696,693,693,693,693,693,693,693,694,697,698,700,701,703,704,706,707,710,710,711,711,713,0,0,0,0,0,0,0,0,1288,1288,1283,1283,1288,1288,1288,1288,1292,1292,1292,1297,1297,1302,1302,1365,1365,1365,1365,1359,1359,1365,1359,1359,1359,1359,1359,1365,1365,1359,1359,1359,1359,1359,1354,1354,1354,1349,1349,1349,1349,1349,1354,1354,1354,1354,1354,1354,1354,1354,1349,1349,1349,1349,1349,1349,1349,1349,1349,1349,1349,1349,1343,1343,1349,1349,1349,1349,1349,1349,1349,1349,1349,1349,1349,1349,1349,1349,1349,1349,1349,1349,1349,1349,1349,1349,1349,1349,1349,1349,1343,1343,1343,1343,1343,1343,1338,1338,1067,1067,1067,1067,1067,1063,1063,1060,1060,1057,1057,1054,1054,1054,1054,1054,1054,1057,1063,1067,1070,1070,1070,1070,1070,1333,1333,1333,1333,1333,1333,1333,1333,1333,1333,1333,1333,1333,1333,1333,1333,1333,1333,1333,1333,1333,1333,1333,1333,1333,1333,1333,1333,1333,1333,1333,1333,1333,1328,1328,1328,1328,1328,1328,1328,1328,1328,1328,1328,1328,1328,1328,1328,1328,1328,1328,1322,1322,1322,1322,1322,1322,1322,1322,1322,1322,1322,1317,1317,1317,1317,1317,1317,1317,1317,1317,1317,1322,1322,1322,1322,1322,1322,1322,1322,1322,1317,1317,1317,1317,1317,1317,1317,1312,1312,1312,1312,1312,1312,1312,1312,1312,1312,1312,1312,1307,1307,1312,1312,1312,1312,1312,1312,1307,1307,1307,1307,1307,1307,1307,1307,1307,1307,1307,1307,1307,1307,1307,1307,1307,1302,1302,1302,1302,1302,1307,1307,1302,1302,1307,1302,1302,1302,1297,1297,1297,1302,1302,1302,1307,1307,1302,1302,1297,1297,1297,1297,1292,1292,1292,1292,1292,1292,1292,1292,1292,1292,1214,1214,1210,1210,1206,1202,1197,1197,1193,1189,1189,1189,1193,1134,1134,1130,1130,1130,1130,1130,1130,1126,1126,1123,1123,1123,1123,1123,1123,1123,1119,1119,1119,1115,1112,1108,1105,1101,1101,1094,1090,1087,1087,1080,1077,1073,1070,1067,1060,1060,0,0,0,0,0,0,0,0,0,0,0,0,0,0,0,0,0,0,0,0,0,0,0,0,0,0,0,0,0,0,0,0
0,0,0,0,0,0,0,0,0,0,1398,1398,1404,1404,1404,1404,1404,1404,1398,1398,1404,1404,1404,1404,1404,1404,1404,1404,1404,1404,1404,1404,1404,1404,1404,1398,1398,1398,1398,1392,1392,1392,1392,1392,1392,1398,1398,1398,1398,1398,1398,1398,1398,1398,1398,1392,1392,1392,1392,1392,1392,1398,1398,1392,1392,1392,1392,1392,1392,1392,1392,1392,1392,1392,1392,1387,1387,1392,1392,1392,1392,1392,1392,1392,1392,1392,1392,1392,1392,1392,1392,1387,1381,1381,1381,1381,1387,0,0,0,0,0,967,964,964,962,962,959,956,956,954,954,954,954,956,956,959,959,962,964,964,967,967,967,970,973,975,975,975,1376,1376,1376,1376,1376,1376,1370,1370,1376,1376,1376,1376,1376,1381,1381,1381,1381,1376,1376,1376,1376,1376,1376,1376,1381,1387,1381,1381,1381,1381,1376,1376,1376,1376,1376,1376,1376,1381,1381,1381,1381,1381,1381,1381,1376,1376,1381,1090,1090,1090,1090,1090,1090,1090,1090,1094,1097,1097,1097,1101,1101,1101,1101,1101,1101,1105,1105,1105,1108,1112,1112,1115,1115,1119,1119,1119,1123,1123,1123,1123,1123,1119,1119,1115,1115,1112,1112,1108,1108,1105,1105,1105,1105,1105,0,0,0,0,0,0,0,0,0,710,710,710,706,704,703,701,700,700,698,697,696,694,693,693,693,693,693,694,694,697,698,700,701,703,704,706,707,710,710,711,711,713,714,0,0,0,0,0,0,0,1288,1288,1283,1283,1288,1288,1288,1288,1292,1292,1297,1302,1302,1302,1307,1349,1354,1359,1359,1359,1359,1359,1354,1354,1354,1354,1354,1359,1359,1359,1354,1354,1354,1354,1354,1349,1349,1349,1349,1349,1349,1349,1349,1349,1354,1349,1349,1349,1349,1349,1349,1349,1349,1349,1349,1349,1349,1349,1349,1349,1343,1343,1343,1343,1343,1343,1343,1343,1343,1343,1343,1343,1343,1343,1343,1343,1343,1343,1343,1349,1349,1349,1349,1349,1343,1343,1343,1343,1343,1343,1343,1343,1343,1343,1338,1338,1338,1338,1067,1067,1067,1067,1067,1067,1067,1063,1060,1060,1057,1054,1054,1054,1054,1054,1057,1060,1063,1067,1070,1070,1070,1070,1070,1328,1328,1328,1328,1328,1333,1328,1328,1328,1328,1328,1328,1328,1333,1333,1328,1328,1328,1328,1328,1328,1328,1328,1328,1328,1333,1333,1328,1328,1328,1328,1328,1328,1328,1328,1328,1328,1328,1328,1328,1328,1328,1328,1328,1328,1328,1322,1322,1322,1322,1322,1322,1322,1322,1322,1322,1322,1322,1322,1322,1317,1317,1312,1312,1312,1312,1317,1317,1317,1317,1317,1317,1317,1317,1317,1317,1317,1317,1317,1317,1317,1317,1312,1312,1312,1312,1312,1312,1312,1312,1312,1312,1312,1312,1312,1312,1312,1312,1307,1307,1307,1307,1307,1307,1307,1307,1307,1307,1307,1307,1307,1302,1302,1302,1302,1302,1302,1302,1302,1307,1307,1307,1307,1302,1302,1302,1297,1297,1297,1297,1302,1302,1302,1302,1302,1297,1297,1297,1292,1292,1297,1297,1297,1297,1302,1302,1302,1297,1292,1292,1292,1292,1292,1292,1292,1292,1292,1292,1288,1288,1288,1288,1219,1214,1214,1210,1206,1202,1197,1193,1193,1189,1189,1193,1193,1134,1134,1134,1130,1130,1130,1130,1130,1126,1126,1123,1123,1123,1123,1123,1119,1119,1119,1115,1115,1115,1112,1108,1105,1101,1097,1094,1090,1084,1084,1077,1073,1070,1067,1063,1060,1060,0,0,0,0,0,0,0,0,0,0,0,0,0,0,0,0,0,0,0,0,0,0,0,0,0,0,0,0,0,0,0,0
0,0,0,0,0,0,0,0,0,0,1392,1392,1392,1392,1392,1392,1392,1392,1392,1392,1392,1392,1392,1398,1398,1398,1398,1398,1398,1398,1398,1398,1398,1392,1392,1392,1392,1392,1392,1392,1392,1392,1392,1392,1392,1392,1392,1392,1398,1398,1398,1398,1398,1398,1398,1392,1392,1392,1392,1392,1392,1392,1392,1392,1392,1392,1392,1392,1392,1392,1392,1392,1392,1387,1387,1387,1387,1387,1387,1387,1387,1387,1387,1387,1387,1387,1387,1387,1381,1381,1381,1381,1376,1376,1376,1376,0,0,1365,0,0,0,967,967,964,962,962,959,956,956,956,954,954,956,956,956,959,959,962,964,964,967,967,967,970,973,975,975,0,1376,1376,1376,1376,1376,1370,1370,1370,1370,1370,1370,1370,1370,1376,1376,1370,1370,1370,1370,1370,1370,1370,1370,1370,1370,1370,1370,1370,1370,1370,1376,1370,1370,1370,1370,1370,1370,1370,1370,1376,1376,1376,1376,1376,1376,1087,1087,1087,1087,1087,1090,1090,1090,1090,1090,1090,1094,1094,1094,1097,1097,1101,1101,1101,1101,1105,1105,1105,1108,1112,1112,1115,1115,1119,1119,1119,1123,1123,1123,1123,1123,1119,1119,1115,1115,1112,1112,1108,1108,1105,1105,1105,1105,1105,1108,1112,0,0,0,0,0,0,0,710,710,708,708,704,704,701,701,700,698,697,697,694,694,693,693,694,694,694,696,697,700,701,703,703,704,706,708,710,711,711,713,714,714,0,0,0,0,0,0,0,0,1288,1288,1288,1288,1288,1288,1288,1292,1292,1297,1302,1302,1307,1307,1322,1343,1349,1349,1349,1349,1349,1349,1349,1349,1349,1354,1354,1354,1354,1354,1354,1349,1349,1349,1349,1343,1343,1343,1343,1343,1343,1349,1349,1349,1349,1349,1349,1349,1343,1343,1343,1338,1338,1338,1338,1343,1343,1343,1343,1338,1338,1338,1338,1338,1338,1338,1338,1338,1338,1338,1338,1338,1338,1338,1338,1333,1333,1343,1343,1343,1343,1343,1343,1338,1333,1333,1333,1333,1338,1338,1333,1333,1338,1333,1333,1333,1333,1067,1067,1067,1067,1067,1067,1067,1063,1063,1060,1057,1057,1054,1054,1054,1057,1057,1060,1063,1067,1070,1070,1070,1070,1070,1322,1322,1322,1322,1322,1322,1322,1322,1322,1322,1322,1322,1322,1322,1322,1322,1322,1322,1322,1322,1322,1322,1322,1322,1328,1328,1328,1328,1328,1328,1328,1328,1328,1328,1328,1322,1322,1322,1322,1322,1322,1322,1322,1322,1322,1322,1317,1317,1317,1317,1317,1317,1317,1317,1317,1317,1317,1317,1312,1312,1312,1312,1312,1312,1312,1312,1312,1312,1312,1312,1312,1312,1312,1312,1312,1312,1312,1312,1312,1312,1312,1312,1312,1312,1312,1312,1312,1307,1307,1307,1307,1307,1307,1307,1307,1307,1307,1307,1307,1307,1307,1307,1307,1307,1307,1307,1307,1307,1307,1307,1302,1302,1302,1297,1297,1297,1297,1297,1302,1302,1302,1302,1302,1302,1297,1297,1292,1292,1292,1292,1297,1297,1297,1297,1297,1292,1292,1292,1292,1292,1292,1292,1292,1292,1292,1297,1297,1292,1292,1292,1292,1292,1292,1288,1288,1288,1288,1288,1288,1288,1288,1288,1219,1219,1214,1210,1206,1202,1193,1193,1193,1193,1193,1193,1138,1138,1134,1134,1130,1130,1130,1130,1130,1130,1126,1123,1123,1123,1123,1123,1119,1119,1115,1115,1112,1108,1105,1105,1101,1097,1097,1090,1084,1084,1080,1077,1070,1067,1067,1063,1060,1060,0,0,0,0,0,0,0,0,0,0,0,0,0,0,0,0,0,0,0,0,0,0,0,0,0,0,0,0,0,0,0,0
0,0,0,0,0,0,0,0,0,0,1392,1387,1387,1387,1381,1381,1381,1381,1387,1381,1381,1387,1387,1387,1387,1387,1387,1392,1392,1392,1387,1387,1392,1392,1392,1392,1387,1387,1387,1387,1387,1387,1387,1387,1387,1387,1387,1392,1392,1392,1392,1392,1392,1392,1392,1392,1392,1392,1387,1387,1387,1387,1387,1387,1387,1387,1387,1387,1387,1387,1387,1387,1381,1381,1381,1381,1387,1387,1387,1387,1387,1387,1387,1381,1381,1381,1376,1376,1376,1376,1376,1370,1370,1370,1376,1370,1365,1365,1365,0,0,0,967,967,964,962,962,962,959,956,956,956,956,956,956,956,959,962,962,964,964,967,967,967,970,973,975,975,0,1370,1370,1370,1370,1370,1370,1370,1370,1370,1370,1370,1370,1370,1370,1370,1370,1370,1370,1370,1370,1365,1365,1365,1365,1365,1365,1365,1365,1365,1365,1365,1370,1370,1370,1370,1370,1370,1370,1370,1370,1370,1370,1370,1087,1087,1084,1084,1084,1084,1084,1087,1087,1087,1090,1090,1090,1090,1090,1090,1094,1094,1097,1101,1101,1101,1105,1105,1105,1108,1112,1112,1115,1115,1119,1119,1123,1123,1126,1126,1123,1123,1123,1119,1119,1115,1115,1112,1108,1108,1105,1105,1105,1105,1105,1108,1112,0,0,0,0,0,0,0,710,710,708,708,706,706,703,703,701,700,698,697,696,696,694,694,694,694,696,697,698,700,701,703,704,706,707,708,710,711,713,713,714,716,0,0,0,0,0,0,0,0,1292,1292,1292,1292,1292,1292,1292,1297,1297,1302,1302,1302,1307,1307,1322,1338,1338,1343,1343,1349,1349,1349,1349,1349,1349,1349,1349,1349,1349,1349,1349,1343,1343,1343,1343,1343,1343,1343,1343,1343,1343,1343,1343,1343,1343,1343,1343,1343,1338,1338,1338,1338,1338,1333,1333,1338,1338,1338,1338,1338,1338,1333,1333,1333,1333,1333,1333,1333,1333,1333,1333,1333,1333,1333,1333,1328,1328,1333,1333,1333,1333,1333,1333,1333,1333,1333,1333,1333,1333,1333,1333,1333,1333,1328,1328,1328,1328,1067,1067,1067,1067,1067,1067,1067,1063,1063,1060,1057,1057,1054,1054,1054,1057,1060,1060,1063,1067,1070,1070,1070,1073,1073,1317,1317,1317,1317,1322,1317,1317,1317,1322,1322,1317,1317,1317,1317,1317,1317,1317,1317,1317,1317,1317,1322,1322,1322,1322,1322,1322,1322,1322,1322,1322,1322,1322,1317,1317,1317,1317,1317,1317,1317,1317,1317,1317,1317,1317,1317,1317,1312,1312,1312,1312,1312,1312,1312,1312,1312,1312,1312,1312,1312,1307,1307,1307,1307,1307,1307,1307,1307,1307,1307,1307,1307,1307,1307,1307,1307,1307,1307,1307,1307,1307,1307,1307,1307,1307,1307,1307,1307,1302,1302,1302,1302,1302,1302,1302,1302,1307,1307,1302,1302,1302,1302,1302,1302,1307,1307,1307,1302,1302,1302,1297,1297,1297,1292,1292,1292,1292,1297,1297,1297,1297,1297,1297,1292,1292,1292,1292,1292,1292,1292,1292,1292,1292,1292,1292,1292,1292,1292,1288,1288,1288,1288,1288,1292,1292,1292,1292,1292,1292,1292,1288,1288,1288,1288,1288,1288,1288,1288,1283,1283,1283,1283,1219,1219,1214,1210,1206,1202,1193,1193,1193,1193,1193,1193,1193,1138,1138,1134,1134,1134,1134,1130,1130,1130,1126,1123,1123,1123,1123,1123,1119,1119,1115,1112,1108,1105,1105,1101,1097,1094,1090,1087,1084,1080,1077,1070,1067,1063,1063,1060,1060,1060,0,0,0,0,0,0,0,0,0,0,0,0,0,0,0,0,0,0,0,0,0,0,0,0,0,0,0,0,0,0,0,0
0,0,0,0,0,0,0,0,0,0,1392,1387,1387,1381,1381,1376,1376,1376,1381,1376,1376,1381,1381,1381,1387,1381,1381,1381,1387,1381,1381,1381,1381,1387,1387,1387,1387,1387,1387,1387,1387,1387,1387,1387,1387,1387,1387,1387,1392,1392,1392,1392,1392,1392,1392,1387,1387,1387,1387,1381,1381,1381,1381,1381,1387,1387,1387,1387,1387,1387,1387,1381,1381,1381,1376,1376,1381,1381,1381,1381,1381,1381,1381,1381,1370,1370,1376,1370,1370,1370,1370,1370,1370,1370,1365,1365,1359,1359,1359,1317,1317,0,970,967,964,962,962,962,959,956,956,956,956,956,956,959,959,962,964,964,964,967,967,967,970,973,975,975,978,1370,1370,1370,1370,1370,1370,1365,1365,1365,1365,1365,1365,1365,1370,1365,1365,1365,1365,1365,1365,1365,1365,1365,1365,1359,1359,1359,1365,1365,1365,1365,1365,1365,1365,1365,1365,1365,1365,1365,1370,1365,1087,1087,1087,1087,1084,1084,1084,1084,1084,1087,1087,1087,1087,1087,1090,1090,1090,1090,1094,1094,1097,1097,1101,1101,1105,1105,1105,1108,1112,1112,1115,1115,1119,1123,1123,1123,1126,1126,1126,1126,1123,1123,1119,1115,1115,1112,1112,1112,1108,1105,1105,1105,1105,1105,1115,0,0,0,0,0,0,0,710,710,710,708,707,707,704,703,703,701,700,698,697,697,696,696,696,696,696,697,698,701,703,703,704,707,708,710,711,713,713,714,716,716,0,0,0,0,0,0,0,0,1292,1292,1292,1292,1292,1297,1297,1297,1302,1302,1302,1307,1307,1312,1322,1333,1338,1338,1338,1343,1343,1343,1343,1343,1343,1343,1343,1343,1343,1343,1343,1338,1338,1338,1338,1338,1338,1338,1338,1338,1338,1338,1338,1338,1338,1338,1338,1338,1333,1333,1333,1333,1333,1333,1333,1333,1333,1333,1333,1333,1333,1333,1333,1333,1333,1328,1328,1333,1333,1328,1328,1328,1328,1328,1328,1328,1328,1328,1328,1322,1322,1328,1328,1328,1328,1328,1328,1328,1328,1322,1322,1322,1322,1322,1322,1322,1322,1067,1067,1067,1067,1067,1067,1067,1063,1063,1060,1060,1057,1054,1054,1054,1057,1060,1060,1063,1067,1070,1070,1073,1073,1073,1317,1317,1317,1317,1317,1317,1317,1317,1317,1317,1317,1317,1317,1317,1317,1317,1312,1312,1312,1317,1317,1312,1312,1317,1317,1317,1317,1312,1312,1317,1317,1317,1317,1317,1312,1312,1312,1312,1312,1317,1317,1317,1317,1317,1317,1312,1312,1312,1312,1312,1312,1312,1312,1312,1312,1312,1312,1312,1307,1307,1307,1307,1307,1307,1302,1302,1307,1307,1307,1302,1302,1302,1302,1302,1307,1307,1302,1302,1302,1302,1302,1302,1302,1302,1302,1302,1307,1302,1302,1302,1302,1302,1302,1297,1297,1297,1302,1302,1302,1302,1302,1302,1302,1302,1302,1302,1302,1297,1297,1297,1292,1292,1292,1292,1292,1292,1292,1292,1292,1292,1292,1292,1292,1292,1288,1288,1288,1288,1288,1288,1288,1288,1292,1292,1292,1292,1288,1288,1288,1288,1288,1283,1283,1288,1288,1283,1283,1283,1283,1288,1283,1283,1283,1283,1288,1288,1283,1283,1283,1283,1278,1268,1268,1223,1223,1214,1210,1202,1197,1193,1193,1193,1193,1193,1193,1138,1134,1134,1134,1134,1134,1130,1130,1126,1126,1123,1123,1123,1123,1119,1119,1119,1115,1112,1108,1105,1105,1101,1097,1094,1084,1080,1077,1073,1073,1067,1063,1063,1060,1060,1057,1057,0,0,0,0,0,0,0,0,0,0,0,0,0,0,0,0,0,0,0,0,0,0,0,0,0,0,0,0,0,0,0,0
0,0,0,0,0,0,0,0,0,0,1387,1381,1381,1376,1376,1370,1370,1370,1376,1376,1376,1376,1376,1376,1376,1376,1376,1376,1376,1376,1376,1376,1376,1381,1381,1381,1381,1381,1387,1387,1381,1381,1381,1381,1387,1381,1381,1387,1387,1387,1387,1387,1387,1387,1387,1387,1387,1381,1381,1381,1381,1381,1381,1381,1381,1381,1381,1381,1381,1381,1381,1376,1376,1376,1370,1370,1376,1376,1376,1376,1376,1376,1376,1376,1370,1370,1370,1370,1370,1370,1370,1370,1370,1370,1365,1365,1354,1354,1349,1317,1317,0,973,970,967,964,964,962,962,959,956,956,956,956,959,959,962,962,964,964,967,967,967,970,973,973,975,978,978,1370,1370,1370,1365,1365,1365,1365,1365,1365,1365,1365,1359,1359,1365,1365,1359,1359,1359,1365,1359,1359,1359,1359,1359,1354,1354,1354,1359,1359,1359,1365,1365,1365,1365,1365,1365,1365,1365,1365,1365,1087,1084,1084,1084,1084,1084,1084,1084,1084,1084,1084,1084,1087,1087,1087,1087,1090,1090,1090,1090,1094,1097,1097,1101,1101,1105,1105,1105,1108,1108,1112,1115,1119,1119,1123,1123,1126,1126,1130,1126,1126,1123,1123,1119,1119,1115,1115,1112,1112,1112,1105,1105,1105,1105,1105,0,0,0,0,0,0,0,0,711,711,710,708,708,707,706,704,704,703,701,698,698,697,697,696,696,696,697,698,700,701,703,704,704,707,708,710,711,714,714,714,716,719,720,0,0,0,0,0,0,0,0,1292,1292,1292,1297,1297,1297,1297,1302,1302,1302,1307,1307,1312,1322,1328,1333,1333,1338,1338,1333,1333,1333,1333,1338,1338,1338,1338,1343,1338,1338,1333,1333,1333,1333,1333,1333,1333,1333,1333,1333,1333,1333,1333,1333,1333,1333,1333,1333,1333,1333,1328,1328,1328,1328,1328,1328,1333,1328,1328,1328,1328,1328,1328,1328,1328,1328,1328,1328,1328,1328,1328,1328,1328,1322,1322,1322,1322,1322,1322,1322,1322,1322,1322,1322,1322,1322,1322,1322,1322,1322,1322,1317,1317,1317,1317,1317,1063,1063,1063,1063,1063,1063,1067,1063,1063,1063,1060,1057,1057,1057,1057,1057,1060,1063,1063,1067,1070,1073,1073,1073,1073,1312,1312,1312,1312,1312,1312,1312,1312,1312,1312,1312,1312,1312,1312,1312,1312,1312,1312,1312,1312,1312,1312,1312,1312,1312,1312,1312,1312,1312,1312,1312,1312,1312,1312,1312,1312,1312,1312,1312,1312,1307,1307,1312,1312,1312,1312,1312,1312,1312,1307,1307,1307,1307,1307,1307,1307,1307,1307,1307,1302,1302,1302,1302,1302,1302,1302,1302,1302,1302,1302,1297,1297,1297,1297,1297,1297,1297,1297,1297,1297,1297,1297,1297,1297,1297,1297,1292,1292,1292,1297,1297,1297,1297,1297,1297,1297,1297,1297,1297,1297,1297,1297,1297,1297,1297,1297,1297,1292,1292,1292,1292,1292,1292,1288,1288,1288,1288,1288,1288,1288,1288,1288,1288,1288,1288,1288,1283,1283,1283,1288,1288,1288,1288,1288,1288,1288,1288,1288,1283,1283,1283,1278,1278,1283,1283,1278,1273,1273,1273,1278,1278,1278,1278,1278,1283,1283,1283,1278,1278,1278,1278,1268,1264,1232,1223,1223,1214,1202,1197,1197,1197,1193,1193,1193,1197,1134,1134,1134,1134,1134,1134,1130,1130,1126,1126,1123,1123,1123,1119,1119,1119,1115,1112,1108,1108,1105,1101,1101,1094,1090,1080,1080,1077,1070,1067,1063,1063,1063,1060,1057,1057,1057,0,0,0,0,0,0,0,0,0,0,0,0,0,0,0,0,0,0,0,0,0,0,0,0,0,0,0,0,0,0,0,0
0,0,0,0,0,0,0,0,0,0,1381,1376,1376,1376,1370,1370,1370,1370,1370,1370,1370,1376,1376,1376,1376,1376,1376,1376,1376,1376,1370,1370,1376,1376,1376,1376,1376,1376,1381,1381,1381,1381,1381,1381,1381,1381,1381,1381,1381,1381,1381,1381,1381,1381,1381,1381,1381,1381,1381,1381,1376,1376,1376,1376,1381,1381,1376,1376,1376,1376,1376,1370,1370,1370,1370,1370,1370,1370,1370,1370,1370,1370,1370,1370,1370,1370,1370,1370,1370,1365,1365,1370,1365,1365,1365,1365,1354,1354,1349,1317,1317,975,975,973,970,967,967,964,962,959,959,959,959,959,959,962,962,964,964,967,967,967,967,970,973,973,975,978,978,1365,1365,1365,1365,1365,1365,1365,1365,1365,1365,1359,1359,1359,1359,1359,1354,1354,1359,1359,1359,1354,1354,1354,1354,1354,1354,1354,1359,1359,1359,1359,1359,1359,1365,1365,1365,1365,1365,1365,1365,1077,1077,1077,1077,1084,1084,1080,1080,1084,1084,1084,1084,1084,1087,1087,1087,1087,1087,1090,1090,1094,1097,1097,1101,1101,1105,1105,1105,1108,1108,1112,1115,1115,1119,1123,1126,1126,1130,1130,1126,1126,1123,1123,1119,1119,1115,1115,1115,1115,1112,1112,1105,1105,1101,1101,0,0,0,0,0,0,0,0,711,711,710,710,708,708,707,706,704,703,701,700,698,698,697,697,697,697,697,700,701,703,703,704,706,707,708,711,713,714,714,716,717,719,720,0,0,0,0,0,0,0,0,1297,1297,1297,1297,1297,1297,1297,1302,1302,1307,1307,1307,1312,1322,1328,1328,1333,1333,1333,1333,1333,1333,1333,1333,1333,1333,1333,1333,1333,1333,1328,1328,1328,1328,1328,1328,1328,1328,1328,1328,1333,1333,1333,1333,1333,1333,1328,1328,1328,1328,1328,1328,1328,1328,1328,1328,1328,1328,1328,1328,1328,1328,1328,1322,1322,1322,1322,1322,1322,1322,1322,1322,1322,1317,1317,1317,1317,1317,1317,1317,1317,1317,1317,1317,1317,1317,1317,1317,1317,1317,1317,1317,1317,1317,1317,1317,1060,1060,1063,1063,1063,1063,1063,1063,1063,1060,1060,1057,1057,1057,1057,1060,1063,1063,1067,1070,1073,1073,1073,1073,1073,1312,1312,1312,1312,1307,1307,1312,1307,1307,1312,1307,1307,1307,1307,1307,1312,1307,1307,1307,1307,1307,1307,1307,1307,1307,1307,1307,1307,1307,1307,1307,1307,1307,1307,1307,1307,1307,1307,1307,1307,1302,1302,1307,1307,1307,1307,1307,1307,1307,1307,1307,1307,1307,1307,1307,1307,1307,1302,1302,1297,1297,1297,1297,1297,1297,1297,1297,1297,1297,1297,1297,1297,1297,1292,1292,1292,1292,1292,1292,1292,1292,1292,1292,1292,1292,1292,1292,1288,1288,1288,1288,1288,1288,1292,1292,1292,1292,1292,1292,1292,1292,1292,1292,1292,1292,1292,1292,1288,1288,1288,1288,1288,1288,1288,1288,1288,1288,1288,1288,1288,1283,1283,1283,1283,1283,1283,1278,1278,1278,1283,1278,1278,1283,1283,1278,1278,1278,1278,1278,1278,1278,1273,1273,1278,1273,1273,1273,1273,1273,1273,1273,1273,1273,1273,1278,1278,1273,1273,1273,1273,1273,1268,1264,1245,1223,1223,1223,1206,1202,1197,1197,1197,1193,1193,1193,1134,1134,1134,1134,1134,1134,1134,1130,1130,1126,1123,1123,1123,1119,1119,1115,1115,1112,1108,1105,1105,1101,1097,1090,1084,1080,1077,1073,1070,1067,1063,1060,1060,1057,1057,1054,1054,0,0,0,0,0,0,0,0,0,0,0,0,0,0,0,0,0,0,0,0,0,0,0,0,0,0,0,0,0,0,0,0
0,0,0,0,0,0,0,0,0,0,1376,1370,1370,1370,1365,1365,1365,1370,1370,1370,1370,1370,1370,1376,1376,1370,1370,1370,1370,1370,1370,1370,1370,1370,1370,1370,1370,1370,1370,1370,1370,1370,1376,1376,1376,1376,1376,1376,1376,1376,1376,1376,1376,1376,1376,1376,1376,1376,1376,1376,1370,1370,1370,1370,1376,1376,1370,1370,1376,1376,1376,1370,1370,1370,1365,1365,1365,1365,1365,1365,1365,1365,1365,1365,1365,1365,1365,1365,1365,1365,1365,1365,1365,1365,1365,1365,1359,1349,1349,1328,1328,1328,973,973,973,970,967,967,962,962,959,959,959,962,962,962,962,964,964,967,967,970,970,970,975,975,975,978,978,0,1365,1365,1365,1365,1365,1359,1359,1359,1359,1354,1354,1354,1354,1354,1354,1354,1354,1359,1354,1354,1354,1354,1354,1354,1354,1354,1354,1354,1354,1354,1354,1359,1359,1067,1063,1063,1067,1067,1077,1077,1077,1077,1077,1077,1080,1080,1080,1084,1084,1084,1084,1084,1087,1087,1087,1087,1087,1090,1090,1094,1097,1101,1101,1105,1105,1105,1105,1108,1112,1112,1115,1115,1119,1123,1126,1126,1130,1130,1126,1126,1123,1123,1119,1119,1115,1115,1115,1115,1115,1112,1112,1105,1101,1101,0,0,0,0,0,0,0,0,714,713,713,711,710,710,708,707,706,704,703,701,700,698,698,698,698,698,698,700,701,703,703,704,706,708,710,711,714,714,716,716,719,719,719,0,0,0,0,0,0,0,0,1297,1297,1297,1297,1297,1297,1302,1302,1302,1307,1307,1312,1317,1322,1322,1328,1328,1333,1333,1328,1328,1328,1328,1328,1328,1328,1328,1328,1328,1328,1328,1328,1328,1328,1328,1322,1322,1322,1322,1328,1328,1328,1328,1328,1328,1328,1328,1328,1328,1328,1328,1328,1322,1322,1322,1322,1322,1322,1322,1322,1328,1322,1322,1322,1322,1322,1322,1317,1317,1317,1317,1317,1317,1317,1312,1312,1312,1312,1312,1312,1312,1312,1312,1312,1312,1312,1312,1312,1312,1312,1312,1312,1312,1317,1054,1054,1054,1057,1060,1060,1060,1060,1060,1063,1060,1060,1060,1057,1057,1057,1057,1060,1063,1063,1067,1070,1073,1073,1073,1073,1073,1307,1307,1307,1307,1307,1307,1307,1302,1302,1307,1302,1302,1302,1302,1302,1307,1307,1307,1307,1307,1307,1307,1307,1307,1307,1302,1302,1302,1302,1302,1302,1302,1302,1302,1307,1307,1307,1307,1307,1302,1302,1302,1302,1302,1297,1297,1302,1302,1302,1302,1302,1302,1302,1302,1302,1297,1297,1297,1297,1297,1297,1292,1292,1292,1292,1297,1297,1297,1297,1297,1297,1297,1292,1292,1292,1292,1292,1292,1292,1292,1292,1292,1292,1292,1292,1288,1288,1288,1283,1283,1283,1283,1283,1283,1283,1288,1288,1288,1288,1288,1288,1288,1288,1288,1288,1288,1288,1288,1288,1288,1288,1288,1288,1288,1283,1283,1283,1283,1283,1283,1278,1278,1278,1278,1278,1278,1278,1273,1273,1278,1273,1273,1278,1278,1273,1273,1273,1273,1273,1273,1273,1273,1273,1273,1268,1268,1268,1268,1268,1268,1268,1268,1268,1268,1268,1268,1268,1268,1273,1273,1268,1268,1264,1236,1227,1227,1223,1214,1206,1202,1202,1197,1197,1202,1202,1134,1134,1134,1134,1134,1134,1134,1130,1130,1126,1123,1123,1119,1119,1115,1115,1112,1108,1108,1105,1101,1101,1094,1084,1080,1077,1073,1070,1067,1063,1063,1060,1060,1057,1054,1050,1050,0,0,0,0,0,0,0,0,0,0,0,0,0,0,0,0,0,0,0,0,0,0,0,0,0,0,0,0,0,0,0,0
0,0,0,0,0,0,0,0,0,0,1370,1365,1365,1365,1365,1365,1365,1365,1365,1365,1365,1370,1370,1370,1370,1370,1370,1370,1370,1370,1365,1365,1365,1365,1365,1359,1359,1359,1354,1354,1359,1359,1365,1365,1365,1365,1370,1370,1370,1370,1370,1370,1365,1365,1370,1370,1370,1370,1370,1370,1370,1370,1365,1365,1370,1370,1370,1370,1370,1370,1370,1365,1365,1365,1365,1365,1365,1359,1359,1359,1359,1359,1359,1359,1365,1365,1365,1365,1365,1365,1365,1365,1365,1365,1359,1359,1349,1349,1343,1322,1322,1322,978,978,975,973,970,967,967,962,962,962,962,962,962,962,962,964,964,967,967,970,970,973,975,975,975,978,978,0,1365,1365,1365,1359,1359,1349,1349,1349,1349,1349,1349,1349,1349,1349,1349,1349,1349,1354,1349,1349,1349,1349,1349,1349,1349,1349,1349,1349,1349,1349,1063,1063,1063,1063,1063,1063,1067,1067,1073,1077,1077,1077,1077,1077,1077,1077,1077,1077,1080,1080,1080,1084,1084,1087,1087,1087,1087,1090,1090,1094,1097,1101,1105,1105,1105,1105,1105,1108,1112,1112,1115,1119,1123,1123,1126,1126,1130,1130,1126,1126,1123,1123,1119,1119,1119,1115,1115,1115,1115,1115,1112,1105,1105,1105,0,0,0,0,0,0,0,0,714,714,714,713,711,710,708,708,707,706,704,703,701,700,698,698,698,698,698,701,701,703,704,704,706,708,710,713,714,716,716,717,719,719,719,0,0,0,0,0,0,0,0,1297,1297,1297,1297,1302,1302,1302,1302,1302,1307,1307,1312,1317,1317,1322,1322,1328,1328,1328,1328,1328,1328,1322,1322,1322,1322,1322,1322,1322,1322,1322,1322,1322,1322,1322,1322,1322,1322,1322,1328,1328,1328,1328,1328,1322,1322,1322,1322,1322,1322,1322,1322,1322,1322,1322,1322,1317,1317,1322,1322,1322,1317,1317,1317,1317,1317,1317,1312,1312,1317,1317,1312,1312,1312,1312,1312,1312,1312,1312,1312,1312,1312,1312,1312,1312,1312,1312,1312,1312,1312,1312,1312,1312,1312,1050,1050,1050,1054,1057,1057,1057,1057,1057,1060,1057,1057,1057,1060,1060,1060,1060,1063,1063,1067,1067,1073,1073,1077,1077,1077,1077,1302,1302,1302,1302,1302,1302,1302,1302,1302,1302,1297,1297,1302,1297,1297,1302,1302,1302,1302,1302,1302,1302,1302,1302,1302,1302,1302,1302,1297,1297,1297,1297,1297,1297,1297,1297,1302,1302,1302,1297,1297,1297,1297,1297,1292,1292,1297,1297,1297,1297,1297,1297,1297,1292,1292,1292,1292,1292,1292,1292,1292,1292,1292,1292,1292,1292,1292,1292,1292,1292,1292,1292,1292,1292,1288,1288,1288,1288,1288,1288,1288,1288,1288,1288,1288,1288,1288,1283,1283,1278,1278,1283,1278,1278,1278,1278,1278,1278,1278,1283,1283,1283,1283,1283,1283,1283,1278,1278,1278,1283,1283,1283,1283,1283,1283,1283,1283,1278,1278,1278,1278,1278,1278,1273,1273,1273,1273,1273,1273,1273,1273,1273,1273,1273,1273,1273,1273,1273,1273,1273,1273,1268,1268,1268,1268,1264,1264,1264,1264,1264,1264,1264,1264,1268,1268,1264,1264,1264,1264,1268,1268,1264,1259,1236,1227,1227,1232,1227,1227,1227,1227,1232,1232,1245,1245,1245,1134,1134,1134,1134,1134,1134,1130,1130,1126,1123,1123,1119,1115,1112,1112,1108,1105,1105,1101,1101,1094,1094,1080,1080,1077,1073,1070,1067,1063,1060,1057,1057,1054,1050,1050,1050,0,0,0,0,0,0,0,0,0,0,0,0,0,0,0,0,0,0,0,0,0,0,0,0,0,0,0,0,0,0,0,0
0,0,0,0,0,0,0,0,0,0,1365,1365,1365,1365,1365,1365,1365,1365,1365,1365,1365,1365,1365,1365,1365,1365,1365,1370,1365,1365,1365,1365,1365,1359,1359,1354,1354,1354,1354,1354,1354,1354,1359,1359,1359,1359,1359,1359,1354,1354,1365,1359,1359,1359,1359,1365,1365,1365,1365,1370,1365,1365,1365,1365,1365,1365,1365,1365,1365,1365,1365,1365,1359,1359,1359,1359,1359,1354,1354,1354,1354,1354,1354,1354,1359,1359,1359,1359,1359,1359,1359,1359,1354,1354,1354,1354,1343,1343,1343,1322,1322,1322,978,978,978,975,973,970,967,964,962,962,962,962,962,962,964,964,967,967,970,973,973,975,975,975,978,978,978,978,1359,1359,1359,1349,1349,1349,1349,1349,1349,1349,1349,1349,1349,1349,1349,1343,1343,1349,1343,1343,1349,1349,1349,1349,1349,1349,1349,1349,1343,1343,1063,1063,1063,1063,1063,1063,1067,1067,1073,1073,1073,1073,1073,1073,1073,1077,1077,1077,1077,1077,1080,1080,1084,1084,1087,1087,1087,1090,1090,1094,1097,1101,1105,1105,1105,1105,1105,1108,1112,1112,1115,1119,1123,1123,1123,1126,1126,1126,1126,1126,1126,1123,1123,1119,1119,1119,1119,1119,1115,1115,1112,1105,1105,1105,0,0,0,0,0,0,0,0,714,714,714,713,711,710,710,708,708,707,706,704,703,701,700,700,700,700,700,701,703,704,704,704,706,708,710,713,714,716,716,717,719,720,720,0,0,0,0,0,0,0,0,1297,1297,1297,1302,1302,1302,1302,1302,1307,1307,1312,1312,1317,1317,1317,1322,1322,1322,1322,1322,1322,1322,1322,1322,1322,1322,1322,1322,1322,1317,1317,1317,1317,1317,1317,1317,1317,1317,1317,1322,1322,1317,1317,1317,1317,1317,1317,1317,1317,1317,1317,1317,1317,1317,1317,1317,1317,1317,1317,1317,1317,1317,1312,1312,1312,1312,1312,1312,1312,1312,1312,1312,1312,1312,1312,1307,1307,1307,1312,1307,1307,1307,1307,1307,1307,1312,1307,1307,1307,1307,1312,1312,1312,1047,1047,1047,1047,1050,1054,1054,1054,1054,1057,1057,1057,1057,1057,1057,1060,1060,1060,1063,1067,1067,1070,1073,1077,1077,1073,1073,1073,1302,1302,1302,1302,1297,1297,1297,1297,1297,1297,1292,1292,1297,1297,1297,1297,1297,1297,1297,1292,1292,1297,1292,1292,1297,1297,1297,1297,1292,1292,1292,1292,1297,1297,1297,1297,1292,1292,1292,1292,1292,1292,1292,1292,1292,1292,1292,1292,1292,1292,1292,1292,1292,1292,1292,1292,1292,1292,1292,1292,1292,1292,1292,1292,1292,1292,1292,1292,1292,1292,1292,1292,1288,1288,1288,1288,1283,1283,1283,1283,1288,1283,1283,1283,1283,1283,1283,1278,1278,1278,1278,1278,1273,1273,1273,1273,1273,1273,1273,1273,1273,1273,1278,1278,1278,1278,1278,1273,1273,1278,1278,1278,1278,1278,1278,1278,1278,1273,1273,1273,1273,1273,1273,1273,1268,1268,1273,1268,1268,1268,1268,1268,1268,1268,1268,1268,1268,1268,1268,1268,1268,1268,1268,1264,1264,1264,1264,1264,1264,1264,1264,1264,1264,1264,1264,1259,1259,1259,1259,1259,1259,1255,1245,1236,1232,1232,1232,1227,1227,1227,1227,1232,1232,1245,1245,1245,1134,1134,1134,1134,1134,1134,1130,1123,1123,1123,1119,1115,1112,1112,1108,1108,1105,1105,1101,1097,1094,1084,1080,1077,1077,1073,1070,1063,1063,1060,1057,1054,1047,1047,1047,1050,0,0,0,0,0,0,0,0,0,0,0,0,0,0,0,0,0,0,0,0,0,0,0,0,0,0,0,0,0,0,0,0
0,0,0,0,0,0,0,0,0,0,1359,1359,1359,1359,1359,1354,1354,1359,1359,1359,1359,1359,1359,1359,1359,1359,1365,1365,1365,1365,1365,1359,1359,1354,1354,1354,1354,1354,1349,1349,1349,1354,1354,1354,1354,1354,1359,1354,1354,1354,1354,1354,1354,1354,1354,1354,1359,1359,1359,1359,1359,1359,1359,1359,1359,1359,1359,1359,1359,1359,1359,1359,1359,1354,1354,1354,1354,1354,1349,1349,1354,1354,1354,1354,1354,1354,1359,1359,1354,1354,1354,1354,1354,1354,1349,1349,1343,1343,1333,1322,1322,1322,978,978,978,975,975,973,967,967,962,962,962,962,962,964,964,964,967,967,970,973,975,975,975,975,978,978,978,978,0,1354,1354,1349,1349,1343,1343,1343,1349,1343,1343,1343,1343,1343,1343,1343,1343,1343,1343,1343,1343,1343,1343,1343,1349,1349,1349,1343,1063,1063,1063,1063,1063,1063,1063,1063,1063,1063,1063,1063,1073,1073,1073,1073,1073,1073,1073,1073,1077,1077,1077,1080,1084,1084,1087,1087,1087,1090,1090,1094,1101,1101,1105,1105,1108,1105,1105,1105,1108,1108,1112,1115,1119,1119,1123,1126,1126,1126,1126,1333,1328,1123,1123,1119,1119,1119,1119,1119,1115,1115,1112,1105,1105,0,0,0,0,0,0,0,0,0,0,714,714,714,714,711,710,710,708,707,706,704,703,701,700,700,700,700,701,703,703,704,704,706,707,708,710,713,714,716,717,719,719,720,720,0,0,0,0,0,0,0,0,1302,1297,1297,1302,1302,1302,1302,1302,1307,1307,1312,1312,1317,1317,1317,1322,1322,1322,1322,1317,1317,1317,1317,1317,1317,1317,1317,1317,1317,1312,1312,1312,1312,1312,1312,1312,1312,1312,1312,1317,1317,1317,1317,1312,1312,1312,1312,1312,1312,1312,1312,1312,1312,1312,1312,1312,1312,1312,1312,1312,1312,1312,1312,1312,1312,1307,1307,1307,1307,1307,1307,1307,1307,1307,1307,1307,1307,1307,1307,1307,1302,1302,1307,1307,1307,1307,1302,1302,1307,1307,1307,1307,1044,1044,1044,1047,1044,1044,1047,1047,1047,1050,1054,1054,1054,1054,1054,1057,1060,1060,1063,1067,1067,1070,1073,1073,1077,1077,1073,1073,1302,1302,1297,1297,1297,1297,1297,1297,1292,1292,1292,1292,1292,1292,1292,1292,1292,1292,1292,1292,1292,1292,1292,1292,1292,1292,1292,1292,1292,1292,1292,1292,1292,1292,1292,1292,1292,1292,1292,1292,1288,1288,1288,1288,1288,1288,1288,1292,1292,1292,1292,1292,1292,1292,1288,1288,1288,1288,1288,1288,1288,1292,1288,1288,1288,1288,1288,1288,1288,1288,1288,1288,1288,1288,1288,1283,1283,1283,1283,1283,1283,1283,1278,1278,1278,1278,1278,1278,1273,1273,1273,1273,1273,1273,1273,1273,1273,1273,1273,1273,1273,1273,1273,1273,1273,1273,1273,1273,1273,1273,1273,1273,1273,1273,1273,1273,1273,1273,1273,1268,1268,1268,1268,1268,1268,1268,1268,1268,1268,1268,1268,1268,1268,1268,1268,1268,1264,1264,1264,1264,1264,1264,1259,1259,1259,1259,1259,1259,1259,1259,1259,1259,1259,1259,1259,1259,1255,1255,1255,1255,1255,1255,1250,1241,1236,1232,1232,1232,1232,1232,1232,1236,1236,1241,1245,1245,1245,1250,1250,1134,1134,1134,1134,1130,1123,1119,1119,1119,1115,1112,1108,1108,1105,1101,1101,1097,1094,1090,1084,1077,1077,1073,1070,1067,1063,1060,1057,1054,1047,1047,1044,1044,0,0,0,0,0,0,0,0,0,0,0,0,0,0,0,0,0,0,0,0,0,0,0,0,0,0,0,0,0,0,0,0,0
0,0,0,0,0,0,0,0,0,1354,1354,1354,1354,1354,1354,1354,1354,1354,1354,1354,1354,1354,1354,1354,1359,1359,1359,1365,1359,1359,1359,1359,1354,1354,1349,1349,1349,1349,1349,1349,1349,1349,1349,1349,1349,1349,1354,1354,1349,1349,1349,1349,1349,1349,1349,1349,1349,1354,1354,1354,1354,1354,1354,1354,1354,1354,1359,1354,1354,1354,1359,1359,1354,1349,1349,1349,1354,1349,1349,1349,1349,1349,1349,1349,1349,1349,1354,1354,1349,1349,1349,1349,1349,1349,1349,1343,1338,1338,1328,1322,1322,1322,978,978,978,975,975,975,973,973,967,964,962,962,962,964,964,967,967,970,973,973,975,975,978,978,978,978,978,978,0,1349,1349,1343,1343,1338,1338,1343,1343,1343,1343,1338,1338,1338,1338,1338,1338,1338,1338,1338,1343,1343,1054,1050,1050,1054,1057,1057,1060,1063,1063,1063,1063,1063,1063,1063,1063,1063,1063,1063,1063,1070,1070,1073,1073,1073,1073,1073,1077,1077,1077,1080,1084,1084,1087,1087,1087,1090,1094,1097,1101,1105,1105,1105,1108,1105,1105,1105,1108,1108,1108,1115,1119,1119,1123,1126,1126,1126,1328,1328,1328,1328,1328,1123,1119,1119,1119,1115,1115,1112,1112,1105,1105,0,0,0,0,0,0,0,0,0,0,714,714,714,714,714,710,710,708,708,707,706,704,703,701,701,701,701,701,703,703,704,706,706,707,708,711,713,716,717,717,719,720,720,720,0,0,0,0,0,0,0,0,1302,1302,1302,1302,1302,1302,1302,1302,1307,1307,1307,1312,1312,1317,1317,1317,1317,1317,1317,1317,1317,1312,1312,1312,1312,1312,1312,1312,1312,1307,1307,1307,1307,1307,1307,1307,1307,1307,1307,1312,1312,1312,1312,1307,1307,1312,1312,1312,1312,1312,1312,1312,1312,1312,1312,1312,1307,1307,1312,1312,1312,1307,1307,1307,1307,1307,1302,1302,1302,1302,1302,1302,1302,1302,1302,1302,1302,1302,1302,1302,1297,1297,1302,1302,1302,1302,1297,1297,1302,1302,1044,1044,1044,1044,1044,1044,1044,1044,1044,1044,1044,1044,1047,1050,1050,1054,1054,1057,1063,1063,1067,1067,1067,1073,1073,1077,1077,1077,1077,1077,1297,1297,1297,1297,1292,1292,1292,1292,1292,1292,1292,1292,1292,1292,1292,1292,1292,1292,1292,1288,1288,1288,1288,1288,1288,1288,1288,1288,1288,1288,1288,1288,1288,1288,1288,1288,1288,1288,1288,1288,1288,1288,1288,1288,1288,1288,1288,1288,1288,1288,1288,1288,1288,1283,1283,1283,1283,1283,1283,1283,1283,1288,1288,1288,1283,1283,1283,1283,1283,1278,1278,1283,1283,1283,1283,1278,1278,1278,1278,1278,1278,1278,1273,1273,1273,1273,1273,1273,1273,1273,1273,1273,1273,1273,1273,1273,1273,1268,1268,1268,1268,1268,1268,1268,1268,1268,1268,1264,1264,1268,1268,1268,1268,1268,1268,1268,1268,1268,1268,1264,1264,1264,1268,1264,1264,1264,1264,1264,1264,1264,1264,1264,1264,1264,1264,1264,1264,1259,1259,1264,1259,1259,1259,1259,1259,1259,1255,1255,1255,1255,1255,1255,1255,1255,1255,1255,1255,1255,1255,1255,1255,1250,1245,1241,1236,1232,1227,1227,1227,1227,1232,1232,1236,1241,1241,1245,1245,1245,1245,1245,1245,1134,1134,1126,1123,1119,1115,1115,1112,1108,1108,1105,1101,1097,1097,1094,1090,1084,1080,1077,1073,1070,1067,1063,1060,1057,1054,1054,1047,1044,1041,1041,0,0,0,0,0,0,0,0,0,0,0,0,0,0,0,0,0,0,0,0,0,0,0,0,0,0,0,0,0,0,0,0,0
0,0,0,0,0,0,0,0,0,1349,1349,1349,1349,1349,1349,1349,1349,1349,1349,1349,1349,1349,1349,1349,1349,1354,1359,1359,1359,1359,1354,1354,1349,1349,1349,1349,1349,1349,1343,1343,1349,1349,1349,1349,1349,1349,1349,1349,1349,1349,1349,1349,1343,1343,1343,1343,1343,1349,1349,1349,1349,1354,1349,1349,1349,1354,1354,1354,1349,1349,1354,1354,1349,1349,1349,1349,1349,1349,1349,1349,1343,1343,1349,1349,1349,1349,1349,1349,1343,1343,1343,1343,1343,1343,1343,1343,1338,1338,1328,1322,1322,1322,978,978,978,975,975,975,975,973,970,964,964,964,964,964,967,967,967,970,973,975,975,975,978,978,978,978,978,978,981,1349,1349,1343,1338,1333,1333,1338,1338,1338,1338,1338,1333,1333,1333,1333,1333,1333,1333,1333,1050,1050,1050,1050,1050,1054,1054,1057,1060,1060,1063,1063,1063,1063,1063,1063,1063,1063,1063,1063,1063,1067,1067,1070,1070,1073,1073,1077,1077,1077,1080,1084,1084,1087,1087,1090,1090,1090,1094,1097,1101,1105,1105,1108,1108,1105,1105,1105,1108,1108,1108,1115,1119,1119,1123,1322,1322,1322,1328,1328,1322,1322,1322,1322,1322,1119,1119,1115,1115,1112,1112,1112,0,0,0,0,0,0,0,0,0,0,0,0,716,716,716,714,713,711,710,710,707,707,704,703,701,701,701,701,701,703,703,704,706,707,708,710,711,714,716,717,719,719,720,719,719,0,0,0,0,0,0,0,0,1302,1302,1302,1302,1302,1302,1302,1302,1302,1302,1307,1307,1307,1312,1312,1312,1312,1312,1312,1307,1307,1312,1312,1312,1312,1312,1307,1307,1307,1307,1307,1302,1302,1302,1302,1302,1302,1302,1302,1307,1307,1307,1307,1307,1307,1307,1302,1302,1307,1307,1307,1307,1307,1307,1307,1307,1307,1307,1307,1307,1307,1307,1307,1302,1302,1302,1302,1297,1297,1297,1297,1297,1297,1297,1297,1297,1297,1297,1297,1297,1297,1297,1297,1297,1297,1292,1292,1297,1297,1297,1041,1041,1041,1041,1041,1044,1041,1041,1041,1041,1041,1041,1044,1050,1050,1050,1054,1054,1060,1063,1067,1067,1070,1073,1073,1077,1077,1077,1080,1302,1302,1297,1292,1292,1292,1292,1288,1288,1288,1288,1288,1288,1288,1288,1288,1288,1288,1288,1288,1288,1288,1288,1288,1288,1283,1283,1283,1283,1283,1283,1283,1283,1283,1283,1283,1283,1283,1283,1283,1283,1283,1283,1283,1283,1283,1283,1283,1283,1283,1283,1283,1283,1283,1283,1278,1278,1278,1278,1278,1278,1278,1283,1283,1283,1283,1283,1283,1283,1278,1278,1278,1278,1278,1278,1278,1273,1273,1273,1273,1273,1273,1273,1273,1273,1273,1273,1268,1268,1268,1268,1268,1268,1268,1268,1268,1268,1268,1268,1268,1268,1264,1264,1268,1268,1264,1264,1264,1264,1259,1259,1259,1264,1264,1268,1268,1268,1268,1268,1264,1259,1259,1259,1259,1259,1259,1259,1259,1259,1259,1259,1259,1259,1259,1259,1259,1264,1259,1259,1259,1259,1259,1259,1259,1255,1255,1255,1250,1250,1250,1250,1250,1250,1255,1255,1255,1255,1250,1250,1250,1250,1250,1250,1245,1241,1232,1232,1227,1227,1227,1227,1227,1232,1232,1241,1241,1245,1245,1245,1245,1245,1245,1245,1241,1126,1126,1236,1105,1105,1108,1105,1105,1101,1097,1094,1094,1090,1084,1084,1080,1073,1070,1067,1063,1063,1060,1057,1054,1047,1044,1041,1041,1041,0,0,0,0,0,0,0,0,0,0,0,0,0,0,0,0,0,0,0,0,0,0,0,0,0,0,0,0,0,0,0,0,0
0,0,0,0,0,0,0,0,0,1349,1349,1349,1349,1349,1349,1343,1343,1343,1343,1343,1343,1343,1343,1343,1349,1349,1349,1354,1354,1354,1349,1349,1349,1349,1343,1343,1343,1343,1343,1343,1343,1343,1343,1343,1343,1343,1349,1349,1349,1349,1343,1343,1343,1343,1343,1343,1343,1343,1343,1343,1343,1343,1349,1349,1349,1349,1349,1349,1343,1343,1349,1349,1349,1343,1343,1343,1343,1343,1343,1343,1343,1343,1343,1343,1338,1338,1338,1343,1343,1338,1338,1343,1343,1338,1333,1333,1333,1333,1328,1322,1322,1322,978,978,978,975,975,975,975,975,973,967,967,964,964,964,967,967,970,973,975,975,975,975,978,978,978,978,978,981,981,1349,1349,1333,1333,1328,1328,1333,1333,1333,1333,1333,1328,1328,1328,1328,1328,1328,1328,1050,1050,1050,1050,1050,1050,1054,1054,1057,1057,1060,1060,1060,1060,1060,1060,1063,1063,1063,1063,1063,1063,1063,1067,1070,1070,1073,1073,1077,1077,1080,1084,1084,1087,1087,1090,1090,1090,1094,1094,1097,1101,1105,1105,1108,1108,1105,1105,1105,1108,1108,1328,1328,1328,1322,1322,1322,1322,1322,1322,1322,1322,1322,1322,1322,1322,1317,1317,1115,1115,1115,0,0,0,0,0,0,0,0,0,0,0,0,0,0,716,716,716,714,713,711,710,710,708,708,707,704,703,703,703,703,703,703,704,706,707,707,708,710,711,714,716,717,719,719,720,716,716,0,0,0,0,0,0,0,0,1302,1302,1302,1302,1302,1302,1302,1302,1302,1302,1302,1307,1307,1307,1307,1307,1307,1307,1307,1307,1307,1307,1307,1307,1307,1307,1307,1307,1307,1302,1302,1302,1302,1302,1302,1302,1302,1302,1302,1307,1307,1302,1302,1302,1302,1302,1302,1302,1302,1302,1302,1302,1307,1307,1302,1302,1302,1302,1302,1302,1302,1302,1302,1302,1297,1297,1297,1297,1292,1292,1292,1292,1292,1292,1292,1292,1292,1292,1292,1292,1292,1292,1292,1292,1292,1292,1292,1292,1292,1038,1038,1038,1038,1041,1041,1041,1041,1041,1041,1041,1041,1041,1044,1047,1050,1050,1054,1054,1060,1063,1067,1067,1070,1073,1077,1077,1080,1080,1080,1297,1297,1292,1292,1292,1288,1288,1288,1288,1288,1288,1288,1288,1288,1288,1283,1283,1283,1288,1283,1283,1283,1283,1278,1278,1278,1278,1278,1278,1278,1278,1283,1278,1278,1278,1278,1278,1278,1278,1278,1278,1273,1273,1278,1278,1278,1278,1278,1278,1278,1278,1278,1278,1273,1273,1273,1273,1273,1273,1273,1273,1273,1278,1278,1278,1278,1273,1273,1273,1273,1273,1273,1273,1273,1273,1273,1273,1273,1268,1268,1268,1268,1268,1268,1268,1268,1268,1268,1268,1268,1268,1268,1268,1268,1268,1268,1268,1268,1264,1264,1264,1264,1264,1264,1264,1259,1259,1259,1259,1259,1255,1255,1259,1259,1259,1259,1259,1264,1264,1259,1255,1255,1255,1255,1255,1255,1255,1255,1255,1259,1255,1255,1259,1259,1259,1259,1259,1259,1259,1255,1255,1255,1255,1255,1255,1250,1250,1250,1250,1250,1245,1245,1245,1250,1250,1250,1250,1250,1250,1250,1250,1250,1250,1245,1236,1232,1232,1227,1227,1227,1227,1227,1232,1232,1236,1236,1241,1241,1245,1245,1245,1245,1245,1241,1241,1236,1236,1105,1105,1105,1101,1101,1097,1097,1094,1090,1090,1084,1080,1077,1070,1067,1063,1063,1060,1057,1054,1047,1047,1041,1041,1041,1041,0,0,0,0,0,0,0,0,0,0,0,0,0,0,0,0,0,0,0,0,0,0,0,0,0,0,0,0,0,0,0,0,0
0,0,0,0,0,0,0,0,0,1349,1349,1343,1343,1343,1343,1343,1343,1343,1338,1338,1343,1343,1343,1343,1343,1343,1343,1349,1349,1349,1349,1343,1343,1343,1343,1343,1343,1343,1338,1338,1338,1338,1338,1338,1338,1338,1343,1343,1343,1343,1343,1338,1338,1338,1338,1338,1338,1343,1343,1343,1343,1343,1343,1343,1338,1338,1338,1338,1343,1343,1343,1343,1343,1338,1338,1338,1338,1343,1343,1343,1338,1338,1343,1338,1338,1338,1338,1338,1338,1338,1338,1338,1338,1333,1333,1328,1328,1328,1322,1322,1322,1322,0,975,975,975,975,978,978,975,975,967,967,967,967,967,967,970,970,973,975,975,975,978,978,978,978,978,978,981,981,981,1333,1333,1333,1328,1328,1328,1328,1328,1328,1328,1328,1328,1328,1328,1328,1328,1328,1050,1050,1050,1050,1050,1050,1054,1054,1054,1054,1057,1057,1060,1060,1060,1060,1060,1060,1063,1063,1063,1063,1063,1067,1070,1070,1073,1073,1077,1080,1080,1084,1084,1087,1087,1090,1090,1094,1094,1097,1097,1101,1105,1105,1108,1108,1105,1105,1108,1322,1328,1328,1322,1322,1322,1322,1322,1322,1322,1322,1322,1322,1322,1317,1317,1317,1317,1317,1317,1312,1312,1317,0,0,0,0,0,0,0,0,0,0,0,0,0,0,716,716,714,714,711,711,710,708,708,707,706,704,703,703,703,703,704,704,706,707,707,710,710,711,714,716,717,719,719,720,716,716,0,0,0,0,0,0,0,1307,1302,1302,1302,1302,1302,1302,1297,1297,1302,1302,1302,1302,1302,1307,1307,1307,1302,1302,1302,1302,1302,1302,1302,1302,1302,1302,1302,1302,1302,1297,1297,1297,1297,1297,1297,1297,1297,1297,1297,1302,1302,1297,1297,1297,1297,1297,1297,1297,1297,1297,1297,1297,1297,1297,1292,1292,1297,1297,1297,1297,1297,1297,1297,1292,1292,1292,1292,1292,1292,1292,1292,1292,1292,1292,1292,1292,1292,1292,1292,1292,1292,1292,1292,1292,1292,1292,1292,1028,1028,1038,1038,1038,1038,1038,1038,1038,1038,1038,1038,1038,1041,1041,1044,1047,1050,1050,1054,1060,1063,1067,1067,1070,1073,1073,1077,1077,1080,1080,1080,1297,1297,1292,1288,1288,1288,1283,1283,1283,1283,1283,1283,1283,1283,1283,1283,1278,1278,1283,1283,1278,1278,1278,1278,1278,1278,1273,1273,1273,1273,1273,1273,1273,1273,1273,1273,1273,1273,1273,1273,1273,1273,1273,1273,1273,1273,1273,1273,1273,1273,1273,1273,1273,1273,1273,1268,1268,1268,1268,1268,1273,1273,1273,1273,1273,1273,1273,1273,1273,1268,1268,1273,1273,1273,1268,1268,1268,1268,1268,1268,1268,1268,1268,1264,1264,1264,1264,1264,1264,1264,1264,1264,1264,1264,1264,1268,1264,1264,1259,1259,1259,1259,1259,1259,1259,1259,1259,1255,1255,1255,1255,1255,1255,1255,1255,1255,1255,1255,1255,1255,1255,1255,1255,1255,1255,1255,1250,1250,1255,1255,1255,1255,1255,1255,1255,1255,1255,1255,1255,1255,1255,1255,1250,1250,1250,1245,1245,1245,1245,1245,1245,1245,1245,1250,1245,1245,1245,1245,1245,1250,1250,1245,1245,1241,1236,1232,1223,1223,1223,1227,1227,1227,1227,1232,1236,1236,1236,1236,1236,1236,1241,1241,1241,1236,1236,1101,1101,1101,1101,1101,1097,1097,1094,1094,1090,1090,1084,1080,1077,1073,1067,1067,1063,1060,1060,1057,1054,1047,1044,1041,1041,1038,1038,0,0,0,0,0,0,0,0,0,0,0,0,0,0,0,0,0,0,0,0,0,0,0,0,0,0,0,0,0,0,0,0,0
0,0,0,0,0,0,0,0,0,1343,1343,1343,1343,1338,1338,1338,1338,1338,1338,1338,1338,1338,1338,1338,1333,1333,1343,1343,1343,1343,1343,1343,1343,1343,1338,1338,1338,1338,1338,1338,1333,1333,1333,1333,1333,1333,1338,1338,1338,1338,1338,1338,1338,1333,1333,1333,1333,1338,1338,1338,1338,1338,1338,1338,1333,1333,1333,1333,1333,1328,1328,1333,1333,1333,1333,1333,1333,1333,1338,1338,1333,1333,1333,1333,1333,1333,1333,1333,1333,1333,1333,1333,1333,1328,1328,1328,1328,1322,1322,1322,1322,1322,0,975,975,975,975,978,978,978,975,970,967,967,967,967,970,970,970,973,975,975,975,978,978,981,981,981,981,981,981,981,1338,1338,1333,1328,1322,1322,1322,1322,1328,1328,1328,1328,1328,1328,1328,1038,1038,1044,1047,1050,1050,1050,1050,1054,1054,1054,1054,1057,1057,1060,1060,1060,1060,1060,1060,1063,1063,1063,1063,1063,1067,1067,1070,1073,1073,1077,1080,1084,1084,1087,1087,1087,1090,1094,1094,1094,1097,1097,1101,1101,1105,1108,1112,1317,1317,1317,1317,1322,1322,1322,1322,1317,1317,1317,1317,1317,1317,1317,1317,1317,1317,1317,1317,1317,1312,1312,1312,1312,1317,0,0,0,0,0,0,0,0,0,0,0,0,0,0,717,716,716,714,713,711,710,710,708,708,707,706,704,704,704,704,704,706,707,707,708,710,711,711,716,716,719,720,720,720,720,0,0,0,0,0,0,0,0,1302,1302,1302,1302,1302,1302,1297,1297,1297,1297,1297,1297,1297,1297,1302,1302,1302,1297,1297,1297,1297,1297,1297,1297,1297,1297,1297,1297,1297,1292,1292,1292,1292,1297,1292,1292,1292,1292,1292,1292,1297,1297,1297,1297,1292,1292,1292,1292,1292,1292,1292,1292,1292,1292,1292,1292,1292,1292,1292,1292,1292,1292,1292,1292,1292,1292,1292,1288,1288,1288,1288,1288,1288,1288,1288,1288,1288,1288,1288,1288,1288,1288,1288,1288,1292,1292,1022,1022,1028,1028,1031,1034,1034,1034,1034,1038,1038,1038,1038,1038,1038,1038,1041,1041,1047,1050,1050,1054,1063,1063,1067,1067,1070,1073,1077,1077,1080,1080,1084,1087,1292,1292,1292,1288,1283,1283,1278,1278,1278,1278,1278,1278,1278,1278,1278,1278,1278,1278,1278,1278,1278,1273,1273,1273,1273,1273,1273,1273,1273,1273,1273,1273,1268,1268,1273,1273,1273,1273,1273,1273,1273,1273,1273,1273,1273,1273,1273,1273,1268,1268,1268,1268,1268,1268,1268,1268,1268,1268,1268,1268,1268,1268,1268,1268,1273,1273,1268,1268,1268,1268,1268,1268,1268,1268,1268,1264,1264,1268,1264,1264,1264,1264,1264,1264,1259,1259,1259,1259,1259,1259,1259,1264,1259,1259,1259,1264,1259,1259,1255,1255,1255,1255,1255,1255,1255,1255,1255,1255,1255,1255,1250,1250,1250,1250,1250,1250,1250,1250,1250,1250,1250,1250,1250,1250,1250,1250,1250,1250,1250,1250,1250,1250,1250,1250,1250,1250,1250,1250,1250,1250,1250,1250,1250,1250,1241,1241,1241,1241,1241,1241,1241,1241,1241,1245,1245,1245,1245,1245,1245,1245,1245,1245,1241,1236,1236,1227,1223,1223,1223,1223,1223,1223,1227,1232,1232,1232,1232,1232,1232,1232,1236,1236,1232,1232,1236,1101,1101,1101,1101,1101,1097,1094,1094,1094,1090,1087,1084,1077,1073,1070,1067,1063,1060,1057,1057,1054,1047,1044,1041,1041,1041,1038,1038,0,0,0,0,0,0,0,0,0,0,0,0,0,0,0,0,0,0,0,0,0,0,0,0,0,0,0,0,0,0,0,0,0
0,0,0,0,0,0,0,0,0,1338,1338,1338,1338,1333,1333,1338,1338,1338,1333,1333,1333,1333,1333,1333,1333,1333,1333,1333,1333,1333,1338,1338,1338,1333,1333,1333,1333,1333,1333,1333,1333,1328,1328,1333,1333,1333,1333,1333,1338,1338,1333,1333,1333,1333,1333,1333,1333,1333,1333,1333,1333,1333,1333,1333,1328,1328,1328,1328,1328,1328,1328,1328,1328,1328,1328,1328,1328,1333,1333,1333,1333,1333,1333,1333,1328,1328,1328,1328,1328,1328,1328,1328,1328,1328,1328,1322,1322,1322,1322,1322,1322,1322,1322,975,975,975,975,978,978,978,975,970,967,967,967,970,970,973,973,975,975,978,978,978,981,981,984,984,984,984,984,984,984,1333,1333,1328,1322,1322,1322,1322,1322,1317,1317,1317,1322,1328,1038,1038,1038,1044,1044,1047,1047,1050,1050,1054,1054,1054,1054,1054,1057,1060,1060,1060,1060,1060,1060,1060,1063,1063,1063,1067,1067,1067,1070,1073,1077,1080,1084,1084,1084,1087,1087,1087,1090,1090,1094,1094,1097,1097,1097,1101,1105,1112,1112,1312,1312,1312,1312,1317,1317,1317,1317,1312,1312,1312,1312,1312,1307,1307,1312,1312,1312,1312,1312,1312,1307,1307,1307,1307,1307,1307,0,0,0,0,0,0,0,0,0,0,0,0,719,719,717,716,716,714,713,711,710,710,708,707,706,704,704,704,704,704,706,707,708,710,711,711,713,716,716,717,720,720,720,722,0,0,0,0,0,0,0,0,1302,1302,1297,1297,1297,1297,1297,1292,1292,1292,1292,1292,1292,1297,1297,1297,1297,1292,1292,1292,1292,1292,1292,1292,1292,1292,1292,1292,1292,1288,1288,1288,1288,1288,1288,1288,1288,1288,1288,1288,1292,1292,1292,1292,1292,1292,1288,1288,1288,1288,1292,1292,1292,1292,1292,1292,1288,1288,1288,1288,1288,1288,1288,1288,1288,1288,1288,1288,1288,1288,1288,1288,1288,1288,1288,1288,1288,1283,1283,1283,1283,1283,1283,1288,1288,1288,1022,1022,1025,1025,1028,1031,1031,1031,1034,1034,1034,1034,1034,1038,1038,1038,1041,1041,1047,1050,1050,1057,1063,1067,1067,1067,1073,1077,1077,1080,1084,1084,1084,1087,1094,1094,1292,1283,1278,1278,1278,1278,1278,1278,1273,1273,1273,1273,1273,1273,1273,1273,1273,1273,1273,1273,1273,1268,1268,1268,1268,1268,1268,1268,1268,1268,1268,1268,1268,1268,1268,1268,1268,1268,1268,1268,1268,1268,1268,1268,1268,1268,1264,1264,1264,1264,1264,1264,1264,1264,1264,1264,1264,1264,1264,1264,1259,1259,1259,1264,1264,1264,1264,1264,1264,1264,1264,1264,1259,1259,1259,1259,1259,1259,1259,1259,1259,1259,1255,1255,1255,1255,1255,1255,1255,1259,1259,1255,1255,1255,1255,1255,1255,1255,1255,1255,1250,1250,1255,1255,1255,1250,1250,1250,1250,1250,1250,1245,1245,1245,1245,1245,1250,1250,1245,1245,1245,1245,1245,1241,1241,1245,1245,1245,1245,1245,1245,1245,1245,1245,1245,1250,1250,1250,1250,1250,1245,1245,1241,1241,1241,1241,1241,1241,1241,1241,1241,1241,1241,1241,1241,1241,1245,1245,1245,1241,1236,1232,1232,1223,1223,1219,1219,1219,1219,1223,1223,1227,1227,1227,1232,1232,1232,1232,1232,1232,1232,1232,1227,1105,1101,1101,1097,1097,1097,1094,1094,1090,1090,1084,1080,1077,1070,1067,1063,1063,1057,1057,1054,1047,1044,1041,1041,1041,1038,1038,1038,0,0,0,0,0,0,0,0,0,0,0,0,0,0,0,0,0,0,0,0,0,0,0,0,0,0,0,0,0,0,0,0,0
0,0,0,0,0,0,0,0,0,1333,1333,1328,1328,1333,1333,1333,1333,1333,1333,1333,1333,1333,1333,1333,1328,1328,1333,1333,1328,1328,1333,1333,1333,1333,1333,1328,1328,1328,1333,1333,1328,1328,1328,1328,1328,1328,1328,1328,1328,1333,1333,1328,1328,1328,1328,1328,1328,1333,1333,1333,1328,1328,1328,1328,1328,1328,1328,1328,1328,1322,1322,1328,1328,1328,1328,1328,1328,1328,1328,1328,1328,1328,1328,1328,1328,1328,1328,1328,1328,1328,1322,1322,1322,1322,1322,1322,1322,1322,1322,1322,1322,1322,1322,0,975,975,975,978,978,978,975,975,973,970,970,970,970,973,973,975,975,978,978,978,981,981,984,984,984,984,984,984,984,1322,1322,1322,1317,1317,1317,1317,1317,1312,1312,1312,1317,1322,1038,1038,1038,1041,1044,1044,1047,1047,1047,1050,1050,1050,1050,1054,1054,1057,1057,1057,1060,1060,1060,1060,1063,1063,1063,1067,1067,1067,1070,1073,1077,1084,1084,1084,1087,1087,1087,1087,1090,1090,1094,1094,1097,1097,1097,1101,1105,1307,1307,1307,1307,1307,1307,1312,1307,1307,1307,1307,1307,1307,1302,1302,1302,1302,1302,1302,1302,1302,1307,1307,1307,1307,1302,1302,1302,1302,0,0,0,0,0,0,0,0,0,0,0,0,719,719,717,717,716,714,713,711,710,710,708,707,706,706,704,704,704,704,706,707,708,710,711,713,716,716,717,717,720,722,722,722,727,734,0,0,0,0,0,0,1302,1297,1292,1292,1292,1292,1292,1288,1288,1288,1288,1288,1288,1292,1292,1292,1292,1288,1288,1288,1292,1288,1288,1292,1292,1288,1288,1288,1288,1288,1288,1288,1288,1288,1288,1288,1288,1288,1288,1288,1292,1288,1288,1288,1288,1288,1288,1288,1288,1288,1288,1288,1288,1288,1288,1288,1288,1288,1288,1283,1283,1283,1283,1283,1283,1283,1283,1288,1288,1288,1283,1283,1283,1283,1283,1283,1283,1283,1283,1283,1283,1283,1283,1283,1288,1288,1022,1022,1025,1025,1025,1028,1028,1028,1031,1031,1031,1031,1034,1034,1038,1038,1041,1041,1044,1050,1050,1063,1067,1067,1067,1070,1077,1077,1080,1080,1084,1087,1087,1090,1094,1094,1292,1278,1273,1273,1273,1273,1273,1273,1273,1273,1273,1273,1268,1268,1268,1268,1268,1268,1268,1268,1268,1268,1268,1268,1264,1264,1264,1264,1264,1264,1264,1264,1264,1264,1264,1264,1264,1264,1264,1264,1264,1264,1264,1264,1264,1264,1259,1259,1259,1259,1259,1259,1259,1259,1259,1259,1259,1259,1259,1259,1259,1255,1255,1259,1259,1255,1255,1255,1259,1259,1259,1259,1255,1255,1255,1255,1255,1255,1255,1255,1255,1255,1255,1255,1255,1255,1255,1255,1255,1255,1255,1250,1250,1250,1250,1250,1250,1245,1245,1250,1250,1250,1250,1250,1250,1250,1250,1245,1245,1245,1245,1241,1241,1241,1241,1241,1241,1241,1241,1241,1241,1241,1241,1236,1236,1236,1241,1241,1241,1241,1241,1241,1241,1241,1241,1241,1241,1245,1245,1245,1245,1241,1241,1236,1236,1236,1236,1236,1236,1236,1236,1241,1241,1241,1241,1241,1241,1241,1241,1236,1232,1232,1227,1223,1219,1219,1219,1219,1219,1219,1223,1227,1227,1227,1227,1227,1227,1227,1227,1227,1227,1227,1227,1227,1097,1097,1094,1094,1094,1094,1090,1090,1084,1084,1080,1073,1070,1067,1063,1060,1057,1054,1054,1047,1044,1041,1041,1041,1038,1038,1038,0,0,0,0,0,0,0,0,0,0,0,0,0,0,0,0,0,0,0,0,0,0,0,0,0,0,0,0,0,0,0,0,0
0,0,0,0,0,0,0,0,0,1328,1328,1328,1328,1328,1328,1328,1328,1328,1328,1328,1328,1328,1328,1328,1328,1328,1328,1328,1328,1328,1328,1328,1328,1328,1328,1322,1322,1328,1328,1322,1322,1322,1322,1322,1322,1322,1322,1328,1328,1328,1328,1328,1328,1328,1328,1328,1328,1328,1328,1328,1328,1328,1328,1328,1322,1322,1322,1322,1322,1322,1322,1322,1322,1322,1322,1322,1322,1322,1322,1322,1322,1322,1322,1322,1328,1328,1322,1322,1322,1322,1322,1322,1322,1322,1322,1317,1317,1317,1317,1317,1312,1312,1312,0,975,0,975,975,978,978,975,975,975,973,973,973,973,973,975,975,975,978,978,981,981,984,984,984,984,981,978,978,978,1031,1322,1322,1317,1317,1317,1317,1312,1034,1034,1034,1034,1034,1034,1038,1038,1041,1041,1041,1044,1044,1047,1047,1050,1050,1050,1050,1050,1054,1057,1057,1057,1060,1060,1063,1063,1063,1063,1067,1067,1067,1070,1073,1080,1084,1084,1084,1087,1087,1087,1087,1090,1090,1094,1097,1097,1097,1097,1101,1297,1297,1302,1302,1302,1302,1302,1307,1307,1307,1302,1302,1302,1302,1302,1302,1302,1302,1302,1302,1302,1302,1302,1302,1302,1302,1297,1297,1297,1297,0,0,0,0,0,0,0,0,0,0,0,0,0,719,719,717,717,714,713,711,710,710,708,708,707,706,706,704,704,706,706,707,708,710,713,713,716,717,719,720,722,722,723,723,727,733,733,734,0,0,0,0,0,1297,1292,1292,1292,1292,1292,1288,1288,1288,1288,1288,1288,1288,1288,1288,1288,1288,1288,1288,1288,1288,1288,1288,1288,1288,1288,1288,1283,1283,1283,1283,1283,1283,1283,1283,1283,1283,1283,1283,1288,1288,1288,1288,1288,1283,1283,1283,1283,1283,1283,1283,1283,1283,1283,1283,1283,1283,1283,1283,1278,1278,1278,1278,1278,1278,1278,1283,1278,1278,1278,1278,1278,1278,1278,1278,1278,1278,1278,1278,1278,1278,1283,1283,1283,1025,1025,1025,1022,1022,1022,1025,1025,1025,1025,1025,1028,1031,1031,1031,1034,1038,1041,1041,1044,1057,1057,1067,1067,1070,1070,1073,1077,1077,1080,1080,1084,1087,1087,1087,1090,1094,1268,1268,1268,1268,1268,1268,1268,1268,1268,1268,1268,1268,1268,1268,1268,1268,1268,1268,1268,1264,1264,1264,1264,1264,1264,1259,1259,1259,1259,1259,1259,1259,1264,1264,1264,1264,1259,1259,1259,1259,1259,1259,1259,1259,1259,1259,1259,1259,1255,1255,1259,1259,1255,1255,1255,1255,1255,1255,1255,1255,1255,1255,1255,1255,1255,1255,1255,1255,1255,1255,1250,1250,1255,1255,1255,1255,1255,1255,1255,1255,1255,1250,1250,1250,1250,1250,1250,1250,1250,1250,1250,1250,1250,1250,1245,1245,1245,1245,1245,1245,1245,1245,1245,1245,1245,1245,1241,1241,1241,1241,1241,1236,1236,1236,1236,1236,1236,1236,1236,1236,1236,1236,1236,1236,1236,1236,1236,1236,1236,1236,1232,1232,1236,1236,1236,1236,1236,1241,1241,1241,1241,1241,1236,1236,1236,1236,1236,1236,1236,1236,1236,1241,1241,1241,1241,1241,1241,1241,1236,1236,1232,1227,1227,1223,1219,1219,1219,1219,1219,1219,1223,1223,1223,1223,1223,1223,1223,1223,1223,1227,1227,1223,1223,1223,1097,1094,1094,1094,1094,1094,1090,1087,1084,1080,1077,1070,1067,1063,1063,1060,1057,1054,1054,1047,1044,1041,1041,1038,1038,1038,1038,0,0,0,0,0,0,0,0,0,0,0,0,0,0,0,0,0,0,0,0,0,0,0,0,0,0,0,0,0,0,0,0,0
0,0,0,0,0,0,0,0,0,1322,1322,1322,1322,1322,1322,1322,1322,1322,1322,1328,1328,1328,1328,1322,1322,1322,1322,1328,1328,1322,1322,1328,1328,1328,1328,1322,1322,1328,1328,1322,1322,1322,1322,1322,1322,1322,1322,1322,1322,1322,1322,1322,1322,1322,1322,1322,1322,1322,1322,1322,1322,1322,1322,1322,1322,1322,1317,1317,1317,1317,1317,1317,1317,1322,1322,1322,1322,1322,1322,1322,1317,1317,1317,1317,1317,1317,1317,1322,1322,1322,1322,1317,1317,1317,1317,1312,1312,1312,1312,1307,1307,1307,1307,0,0,975,975,975,978,978,975,975,975,973,973,973,973,975,975,975,975,978,978,981,981,984,984,984,984,981,978,978,978,1031,1031,1031,1031,1031,1028,1028,1028,1028,1028,1031,1034,1034,1034,1038,1038,1038,1038,1038,1041,1044,1044,1047,1047,1050,1050,1050,1050,1050,1054,1057,1057,1060,1063,1063,1063,1063,1063,1067,1067,1070,1073,1077,1080,1084,1084,1084,1087,1087,1087,1087,1090,1090,1097,1097,1097,1097,1292,1292,1292,1292,1292,1292,1297,1297,1297,1302,1302,1302,1302,1302,1302,1297,1297,1297,1297,1297,1297,1297,1297,1302,1302,1302,1297,1292,1292,1292,1292,1297,0,0,0,0,0,0,0,0,0,0,0,0,720,720,720,719,719,716,714,713,711,710,710,708,707,706,706,706,706,706,706,707,708,710,713,713,716,717,719,720,722,723,725,727,728,731,733,734,0,0,0,0,0,0,0,1025,1025,1022,1022,1288,1288,1288,1288,1288,1288,1288,1288,1288,1283,1283,1283,1283,1283,1283,1283,1283,1283,1283,1283,1283,1283,1278,1278,1278,1278,1278,1278,1278,1278,1278,1283,1283,1288,1283,1283,1283,1283,1283,1278,1278,1278,1278,1278,1278,1278,1278,1278,1278,1278,1278,1278,1273,1273,1273,1273,1273,1273,1273,1278,1278,1278,1273,1273,1273,1273,1273,1273,1273,1273,1273,1273,1273,1273,1273,1278,1278,1278,1022,1022,1022,1022,1019,1019,1022,1022,1022,1022,1025,1025,1031,1031,1031,1034,1038,1041,1041,1044,1063,1063,1067,1070,1073,1073,1073,1077,1077,1080,1080,1084,1087,1087,1087,1090,1094,1250,1250,1264,1264,1264,1264,1264,1264,1259,1259,1259,1259,1259,1259,1264,1264,1264,1264,1264,1264,1264,1264,1259,1259,1259,1259,1259,1255,1255,1255,1255,1255,1255,1255,1259,1259,1259,1255,1255,1255,1255,1255,1255,1255,1255,1255,1255,1255,1255,1255,1255,1255,1255,1255,1255,1255,1255,1250,1250,1250,1250,1250,1250,1250,1250,1250,1250,1250,1250,1250,1250,1250,1250,1250,1250,1250,1250,1250,1250,1250,1250,1250,1250,1245,1245,1250,1250,1245,1245,1245,1250,1245,1245,1245,1241,1241,1241,1241,1241,1241,1245,1245,1245,1241,1241,1241,1241,1241,1236,1236,1236,1236,1236,1236,1236,1236,1236,1236,1236,1232,1232,1236,1232,1232,1232,1232,1236,1232,1232,1232,1232,1232,1232,1232,1232,1232,1232,1232,1236,1236,1236,1236,1236,1236,1236,1236,1236,1236,1236,1236,1236,1236,1236,1236,1236,1236,1236,1236,1236,1232,1232,1219,1219,1219,1219,1219,1219,1219,1219,1219,1223,1223,1223,1223,1223,1223,1223,1223,1223,1223,1223,1223,1223,1223,1094,1094,1094,1094,1094,1090,1090,1087,1080,1077,1073,1070,1067,1063,1060,1057,1054,1054,1047,1044,1041,1041,1038,1038,1038,1034,1034,0,0,0,0,0,0,0,0,0,0,0,0,0,0,0,0,0,0,0,0,0,0,0,0,0,0,0,0,0,0,0,0,0
