0,0,0,0,0,0,0,0,0,0,0,0,0,0,1639,1639,1639,1639,1639,1639,1632,1632,1632,1632,1632,1632,1632,1632,1632,1624,1624,1632,1632,1632,1632,1632,1632,1632,1632,1632,1632,1624,1624,1624,1624,1624,1624,1624,1624,1624,1624,1624,1624,1624,1624,1624,1624,1624,1624,1624,1624,1624,1624,1624,1616,1616,1616,1616,1609,1609,1616,1616,1616,1609,1609,1616,1609,1609,1616,1616,1616,1609,1609,1616,1616,1616,1616,1616,1616,1616,1616,1616,1616,1609,1601,1601,1601,1601,1601,1601,1601,1601,1601,1601,1601,1601,1601,1601,1601,1601,1601,1601,1601,1601,1601,1601,1601,1601,1609,1616,1616,1616,1624,1632,1647,1655,1663,1671,1680,1688,1688,1688,1688,1688,1680,1680,1671,1663,1663,1663,1663,1655,1655,1655,1647,1639,1632,1632,1624,1624,1616,1609,1609,1609,1609,1609,1609,1609,1624,1624,1624,1624,1624,1632,1632,1632,1632,1632,1639,1639,1647,1655,1655,1655,1663,1663,1663,1671,1671,1680,1680,1680,1688,1688,1688,1688,1688,1696,1696,1696,1696,1696,1705,1705,1713,1722,1722,1731,1731,1731,1731,1731,1739,1739,1739,1748,1748,1757,1757,1757,1766,1766,1776,1776,1776,1785,1785,1785,1794,1794,1804,1804,1804,1804,1804,1813,1813,1823,1823,1833,1833,1843,1843,1843,1843,1843,1843,1843,1843,0,0,0,0,0,0,0,0,0,0,1087,1087,1087,1087,1084,1084,1084,1080,1077,1077,1073,1073,1077,1077,1080,1080,1084,1087,1090,1090,1090,1090,1090,1090,1090,0,0,0,0,1722,1722,1722,1722,1722,1722,1722,1722,1705,1696,1696,1696,1696,1688,1688,1688,1688,1688,1688,1688,1680,1680,1671,1663,1663,1663,1655,1655,1655,1655,1655,1655,1647,1647,1639,1639,1632,1632,1632,1624,1624,1632,1632,1624,1624,1624,1616,1616,1609,1609,1609,1601,1601,1601,1601,1601,1601,1594,1594,1586,1586,1579,1579,1579,1579,1579,1572,1572,1572,1572,1564,1564,1557,1557,1550,1550,1550,1550,1550,1543,1543,1543,1536,1536,1536,1529,1529,1523,1523,1523,1516,1516,1523,0,0,0,0,0,0,0,0,906,906,906,906,906,901,901,898,898,898,896,894,891,891,891,891,891,891,891,894,896,898,901,903,906,906,908,908,0,0,0,0,1439,1433,1433,1427,1427,1421,1421,1421,1415,1415,1415,1415,1415,1410,1410,1410,1398,1398,1398,1398,1392,1392,1392,1392,1387,1387,1387,1387,1381,1376,1376,1376,1370,1370,1370,1370,1370,1365,1365,1365,1359,1359,1359,1354,1354,1349,1349,1349,1349,1343,1343,1343,1338,1338,1338,1333,1333,1333,1333,1328,1322,1322,1322,1317,1317,1317,1317,1312,1312,1312,1312,1307,1307,1307,1307,1307,1302,1302,1297,1292,1292,1292,1292,1288,1288,1288,1288,1288,1288,1283,1283,1283,1283,1273,1268,1268,1268,1268,1268,1264,1264,1264,1259,1259,1259,1255,1255,1255,1255,1250,1250,1250,1250,1245,1245,1241,1236,1236,1236,1232,1232,1232,1232,1232,1227,1227,1227,1223,1219,1219,1214,1214,1214,1214,1210,1210,1206,1206,1206,1202,1202,1202,1202,1202,1202,1197,1197,1197,1193,1193,1193,1189,1189,1185,1185,1185,1185,1181,1181,1181,1181,1177,1177,1177,1173,1169,1169,1169,1165,1165,1165,1165,1165,1165,1161,1157,1153,1153,1153,1153,1153,1153,1149,1149,1149,1149,1149,1145,1145,1145,1141,1138,1138,1138,1138,1134,1134,1134,1134,1134,0,0,0,0,0,0,0,0,0,0,0,0,0,0,0,0,0,0,0,0,0,0,0,0,0,0,0,0,0
0,0,0,0,0,0,0,0,0,0,0,0,0,0,1639,1639,1639,1639,1639,1632,1632,1632,1632,1632,1632,1632,1632,1632,1632,1632,1632,1632,1632,1632,1632,1632,1632,1632,1632,1632,1632,1624,1624,1624,1624,1624,1632,1632,1632,1632,1632,1624,1624,1624,1624,1624,1624,1624,1624,1624,1624,1624,1624,1624,1624,1624,1616,1616,1609,1609,1616,1616,1616,1616,1616,1616,1616,1616,1616,1616,1616,1609,1609,1616,1616,1616,1616,1624,1624,1624,1616,1616,1616,1616,1609,1609,1601,1601,1609,1609,1609,1609,1601,1601,1601,1601,1601,1601,1601,1601,1601,1601,1601,1601,1601,1601,1601,1609,1609,1616,1616,1616,1624,1632,1647,1655,1663,1671,1680,1688,1688,1688,1688,1688,1680,1671,1671,1663,1663,1663,1655,1655,1655,1655,1647,1639,1632,1632,1624,1624,1616,1609,1609,1609,1609,1609,1616,1616,1624,1624,1624,1632,1632,1632,1632,1632,1639,1639,1647,1647,1647,1655,1655,1655,1663,1663,1663,1671,1680,1680,1680,1688,1688,1688,1688,1688,1696,1696,1696,1696,1696,1705,1705,1705,1713,1722,1722,1731,1731,1731,1731,1731,1739,1739,1739,1748,1757,1757,1757,1757,1766,1766,1776,1776,1776,1785,1785,1794,1794,1794,1794,1804,1804,1813,1813,1813,1813,1823,1833,1833,1833,1843,1843,1843,1843,1843,1843,1833,1833,0,0,0,0,0,0,0,0,0,0,1087,1087,1087,1087,1087,1087,1084,1084,1077,1077,1077,1077,1077,1077,1080,1080,1084,1087,1090,1090,1090,1090,1090,1090,1097,0,0,0,0,1722,1722,1722,1722,1722,1722,1722,1713,1705,1705,1696,1696,1696,1688,1688,1688,1688,1688,1688,1688,1680,1671,1671,1663,1663,1663,1663,1663,1655,1655,1655,1655,1655,1639,1639,1639,1639,1632,1632,1624,1624,1632,1632,1624,1624,1624,1616,1616,1609,1609,1609,1601,1601,1601,1601,1601,1601,1601,1594,1594,1586,1586,1579,1579,1579,1579,1572,1572,1572,1572,1564,1564,1557,1557,1550,1550,1550,1550,1550,1543,1543,1543,1536,1536,1536,1529,1529,1529,1523,1523,1523,1523,1523,0,0,0,0,0,0,0,0,906,906,906,906,906,901,901,898,898,898,896,894,891,891,891,891,891,891,891,894,896,898,901,903,906,906,908,0,0,0,0,0,1439,1439,1433,1427,1427,1421,1421,1421,1415,1415,1415,1415,1415,1410,1410,1410,1404,1404,1398,1398,1398,1392,1392,1392,1387,1387,1387,1387,1381,1376,1376,1376,1376,1370,1370,1370,1370,1370,1365,1365,1365,1359,1359,1354,1354,1354,1349,1349,1349,1349,1343,1343,1338,1338,1338,1333,1333,1333,1333,1328,1328,1322,1322,1322,1317,1317,1317,1317,1312,1312,1312,1307,1307,1307,1307,1307,1307,1302,1297,1292,1292,1292,1292,1292,1288,1288,1288,1288,1288,1288,1288,1283,1283,1273,1273,1273,1268,1268,1268,1268,1268,1264,1264,1259,1259,1259,1255,1255,1255,1250,1250,1250,1250,1245,1245,1241,1236,1236,1236,1232,1232,1232,1232,1232,1232,1227,1227,1223,1223,1219,1219,1219,1214,1214,1210,1210,1210,1206,1206,1202,1202,1202,1202,1202,1202,1197,1197,1197,1197,1193,1193,1193,1189,1189,1189,1185,1185,1181,1181,1181,1181,1177,1177,1177,1173,1173,1169,1169,1169,1169,1165,1165,1165,1165,1161,1161,1157,1153,1153,1153,1153,1153,1153,1149,1149,1149,1149,1149,1145,1145,1141,1141,1138,1138,1138,1138,1138,1138,1134,1134,0,0,0,0,0,0,0,0,0,0,0,0,0,0,0,0,0,0,0,0,0,0,0,0,0,0,0,0,0
0,0,0,0,0,0,0,0,0,0,0,0,0,0,1639,1639,1639,1639,1632,1632,1632,1632,1632,1632,1632,1632,1639,1632,1632,1632,1632,1632,1632,1632,1632,1632,1632,1632,1632,1632,1632,1624,1624,1624,1624,1632,1632,1632,1632,1632,1632,1632,1632,1632,1632,1632,1632,1632,1624,1624,1632,1624,1624,1624,1624,1624,1624,1616,1609,1609,1616,1616,1616,1616,1616,1616,1616,1616,1616,1616,1616,1609,1609,1616,1616,1616,1616,1616,1616,1624,1616,1616,1616,1616,1609,1609,1609,1609,1609,1609,1601,1601,1601,1601,1609,1609,1609,1601,1601,1601,1601,1601,1601,1601,1601,1601,1601,1609,1609,1616,1624,1624,1624,1632,1655,1655,1663,1671,1680,1688,1688,1688,1680,1680,1680,1671,1663,1663,1663,1663,1655,1655,1647,1647,1639,1639,1632,1632,1624,1624,1624,1616,1616,1616,1609,1609,1616,1616,1616,1624,1624,1632,1632,1632,1639,1639,1639,1639,1647,1647,1647,1655,1655,1655,1663,1663,1663,1671,1680,1680,1680,1688,1688,1688,1688,1688,1696,1696,1696,1696,1696,1696,1705,1705,1713,1722,1722,1722,1731,1731,1731,1739,1739,1739,1748,1757,1757,1757,1757,1766,1766,1766,1776,1776,1776,1785,1785,1794,1794,1794,1794,1804,1804,1813,1813,1813,1823,1833,1833,1833,1833,1843,1843,1843,1843,1843,1833,1833,1833,0,0,0,0,0,0,0,0,0,0,1087,1087,1087,1087,1087,1087,1084,1084,1080,1077,1077,1077,1077,1080,1080,1084,1087,1087,1090,1094,1094,1090,1090,1090,1097,1097,0,0,0,1731,1731,1731,1722,1722,1722,1722,1713,1713,1705,1696,1696,1696,1688,1688,1688,1688,1688,1688,1688,1680,1671,1671,1663,1663,1663,1663,1663,1655,1655,1655,1655,1655,1639,1639,1639,1639,1632,1632,1624,1624,1632,1632,1624,1624,1624,1616,1616,1609,1609,1609,1601,1601,1601,1601,1601,1601,1601,1601,1594,1594,1586,1586,1579,1579,1579,1572,1572,1572,1572,1564,1564,1557,1557,1557,1550,1550,1550,1550,1550,1543,1543,1543,1536,1536,1529,1529,1529,1523,1523,1523,1516,1516,0,0,0,0,0,0,0,0,906,906,906,906,903,901,901,898,898,898,896,894,891,891,891,891,891,891,894,894,896,898,901,903,906,908,908,0,0,0,0,0,1439,1439,1433,1427,1427,1427,1421,1421,1415,1415,1415,1415,1415,1415,1415,1410,1404,1404,1398,1398,1398,1392,1392,1392,1392,1387,1387,1387,1381,1376,1376,1376,1376,1370,1370,1370,1370,1370,1370,1365,1365,1365,1359,1354,1354,1354,1349,1349,1349,1349,1343,1343,1338,1338,1338,1333,1333,1333,1333,1328,1328,1322,1322,1322,1317,1317,1317,1317,1312,1312,1312,1312,1307,1307,1307,1307,1307,1302,1297,1297,1292,1292,1292,1292,1288,1288,1288,1288,1288,1288,1288,1283,1283,1273,1273,1273,1273,1268,1268,1268,1268,1264,1264,1259,1259,1259,1255,1255,1255,1250,1250,1250,1250,1245,1245,1241,1236,1236,1236,1236,1232,1232,1232,1232,1232,1227,1227,1223,1223,1219,1219,1219,1214,1214,1210,1210,1210,1206,1206,1206,1202,1202,1202,1202,1202,1197,1197,1197,1197,1193,1193,1193,1189,1189,1189,1189,1185,1185,1185,1181,1181,1177,1177,1177,1173,1173,1169,1169,1169,1169,1165,1165,1165,1165,1161,1161,1157,1153,1153,1153,1153,1153,1153,1153,1153,1149,1149,1149,1149,1145,1145,1141,1141,1138,1138,1138,1138,1138,1134,1134,0,0,0,0,0,0,0,0,0,0,0,0,0,0,0,0,0,0,0,0,0,0,0,0,0,0,0,0,0
0,0,0,0,0,0,0,0,0,0,0,0,0,0,1647,1647,1647,1639,1632,1632,1632,1632,1632,1632,1632,1632,1639,1639,1639,1639,1632,1632,1632,1632,1632,1632,1632,1632,1632,1632,1632,1624,1624,1624,1632,1632,1632,1632,1632,1632,1632,1632,1632,1632,1632,1632,1632,1632,1624,1624,1632,1624,1624,1624,1624,1624,1624,1624,1616,1616,1624,1624,1624,1624,1624,1616,1616,1624,1624,1616,1616,1616,1616,1616,1616,1616,1616,1616,1616,1616,1616,1616,1616,1616,1609,1609,1609,1609,1609,1609,1601,1601,1601,1601,1601,1609,1609,1601,1601,1601,1601,1601,1601,1601,1601,1601,1601,1609,1616,1624,1624,1632,1639,1647,1655,1663,1663,1680,1680,1688,1688,1688,1680,1680,1680,1671,1663,1663,1663,1663,1655,1655,1647,1647,1639,1632,1632,1632,1624,1624,1624,1624,1616,1616,1616,1616,1616,1616,1616,1624,1624,1632,1632,1632,1639,1639,1647,1647,1647,1647,1655,1655,1655,1663,1663,1663,1663,1671,1680,1680,1680,1688,1688,1688,1688,1688,1696,1696,1696,1696,1696,1696,1705,1713,1713,1722,1722,1722,1731,1731,1731,1739,1739,1748,1748,1757,1757,1757,1757,1766,1766,1766,1776,1776,1785,1785,1785,1794,1794,1794,1794,1804,1804,1813,1813,1813,1823,1833,1833,1833,1833,1843,1843,1843,1843,1843,1833,1833,1833,1833,0,0,0,0,0,0,0,0,0,1087,1087,1087,1087,1087,1087,1087,1084,1080,1077,1077,1077,1077,1080,1084,1084,1087,1087,1090,1094,1094,1094,1097,1097,1097,0,0,0,1731,1731,1731,1722,1722,1722,1722,1722,1713,1713,1705,1705,1696,1696,1696,1688,1688,1688,1688,1688,1688,1680,1680,1671,1663,1663,1663,1655,1655,1655,1655,1655,1655,1655,1647,1639,1639,1639,1632,1632,1624,1624,1632,1632,1632,1632,1624,1624,1624,1609,1609,1609,1609,1609,1601,1601,1601,1601,1601,1601,1594,1594,1586,1586,1579,1579,1579,1579,1572,1572,1572,1572,1564,1557,1557,1557,1550,1550,1550,1550,1550,1543,1543,1543,1543,1536,1529,1529,1529,1523,1523,1523,1516,1516,0,0,0,0,0,0,0,0,908,906,906,906,903,901,901,898,898,898,896,896,891,891,891,891,891,894,894,896,898,898,903,903,906,908,910,0,0,0,0,0,1439,1439,1433,1427,1427,1427,1421,1421,1421,1421,1415,1415,1415,1415,1415,1410,1410,1404,1404,1398,1398,1398,1392,1392,1392,1392,1387,1387,1387,1376,1376,1376,1376,1376,1370,1370,1370,1370,1370,1365,1365,1365,1359,1354,1354,1354,1349,1349,1349,1349,1343,1343,1338,1338,1338,1333,1333,1333,1333,1328,1328,1328,1322,1322,1322,1322,1317,1317,1312,1312,1312,1312,1312,1307,1307,1307,1307,1302,1297,1297,1292,1292,1292,1292,1292,1288,1288,1288,1288,1288,1288,1283,1283,1273,1273,1273,1273,1268,1268,1268,1268,1264,1264,1264,1259,1259,1255,1255,1255,1250,1250,1250,1250,1245,1245,1241,1236,1236,1236,1236,1236,1236,1232,1232,1232,1227,1227,1223,1223,1219,1219,1219,1214,1214,1214,1210,1210,1206,1206,1206,1202,1202,1202,1202,1202,1197,1197,1197,1197,1193,1193,1193,1193,1189,1189,1189,1185,1185,1185,1181,1181,1181,1177,1177,1177,1173,1169,1169,1169,1169,1165,1165,1165,1165,1165,1161,1157,1157,1153,1153,1153,1153,1153,1153,1153,1149,1149,1149,1149,1145,1145,1141,1141,1141,1141,1138,1138,1138,1138,1138,0,0,0,0,0,0,0,0,0,0,0,0,0,0,0,0,0,0,0,0,0,0,0,0,0,0,0,0,0
0,0,0,0,0,0,0,0,0,0,0,0,0,0,1647,1647,1647,1639,1639,1639,1639,1632,1632,1632,1632,1632,1632,1632,1632,1632,1632,1639,1639,1639,1639,1639,1632,1632,1632,1632,1632,1632,1632,1632,1632,1632,1632,1632,1632,1632,1632,1632,1632,1632,1632,1632,1632,1632,1624,1624,1632,1632,1624,1624,1624,1624,1624,1624,1624,1624,1624,1624,1624,1624,1624,1624,1624,1624,1624,1624,1624,1616,1616,1616,1616,1616,1616,1616,1616,1616,1616,1616,1616,1616,1616,1609,1609,1609,1609,1609,1609,1609,1609,1601,1601,1609,1609,1609,1609,1601,1601,1609,1609,1609,1609,1609,1609,1609,1616,1624,1624,1632,1639,1647,1655,1663,1671,1680,1688,1688,1688,1688,1688,1680,1671,1671,1663,1663,1663,1663,1655,1655,1647,1647,1639,1632,1632,1632,1632,1624,1624,1624,1616,1616,1616,1616,1616,1616,1616,1624,1624,1632,1632,1632,1639,1639,1647,1647,1647,1647,1655,1655,1655,1663,1663,1663,1663,1671,1680,1680,1680,1688,1688,1688,1688,1688,1696,1696,1696,1696,1696,1705,1713,1713,1722,1722,1722,1722,1731,1731,1731,1739,1748,1748,1757,1757,1757,1766,1766,1766,1766,1766,1776,1776,1785,1785,1785,1794,1794,1794,1794,1804,1804,1813,1813,1813,1823,1833,1833,1833,1843,1843,1843,1843,1843,1843,1833,1833,1833,1833,0,0,0,0,0,0,0,0,1087,1087,1090,1090,1087,1087,1087,1087,1084,1080,1077,1077,1077,1077,1080,1084,1084,1087,1090,1090,1094,1094,1094,1097,1097,1097,0,0,0,0,1731,1731,1722,1722,1722,1722,1722,1713,1713,1705,1705,1696,1696,1696,1696,1688,1688,1688,1688,1688,1680,1680,1671,1663,1663,1663,1655,1655,1655,1655,1655,1655,1655,1647,1647,1639,1639,1632,1632,1632,1632,1632,1632,1632,1632,1624,1624,1624,1616,1609,1609,1609,1609,1601,1601,1601,1601,1601,1601,1594,1594,1586,1586,1579,1579,1579,1579,1572,1572,1572,1572,1564,1557,1557,1557,1550,1550,1550,1550,1550,1543,1543,1543,1536,1536,1536,1529,1529,1529,1523,1516,1516,0,0,0,0,0,0,0,0,908,908,906,906,906,903,901,901,898,898,898,896,896,894,891,891,894,894,894,894,896,898,901,903,903,906,908,910,0,0,0,0,1439,1439,1439,1433,1433,1427,1427,1421,1421,1421,1421,1421,1415,1415,1415,1415,1410,1410,1404,1404,1404,1398,1398,1398,1392,1392,1392,1392,1387,1381,1381,1376,1376,1376,1376,1370,1370,1370,1370,1370,1365,1365,1365,1359,1359,1354,1354,1354,1349,1349,1349,1349,1343,1343,1338,1338,1338,1333,1333,1333,1333,1328,1328,1328,1328,1322,1322,1322,1317,1317,1312,1312,1312,1312,1312,1307,1307,1307,1302,1302,1297,1297,1297,1292,1292,1292,1292,1292,1292,1288,1288,1288,1288,1283,1278,1278,1273,1273,1273,1273,1268,1268,1268,1264,1264,1259,1259,1255,1255,1250,1250,1250,1250,1250,1245,1245,1241,1241,1236,1236,1236,1236,1236,1236,1232,1232,1232,1227,1227,1223,1223,1219,1219,1214,1214,1214,1214,1214,1210,1210,1206,1206,1202,1202,1202,1202,1197,1197,1197,1197,1197,1193,1193,1193,1193,1193,1189,1185,1185,1185,1181,1181,1181,1181,1177,1177,1173,1173,1173,1169,1169,1169,1165,1165,1165,1165,1161,1161,1157,1157,1153,1153,1153,1153,1153,1153,1149,1149,1149,1149,1145,1145,1141,1141,1141,1141,1138,1138,1138,1138,1138,0,0,0,0,0,0,0,0,0,0,0,0,0,0,0,0,0,0,0,0,0,0,0,0,0,0,0,0,0
0,0,0,0,0,0,0,0,0,0,0,0,0,0,1647,1647,1647,1647,1647,1639,1639,1639,1632,1632,1632,1632,1632,1632,1632,1632,1632,1639,1639,1639,1639,1639,1639,1639,1632,1632,1632,1632,1632,1632,1632,1639,1639,1639,1639,1639,1632,1632,1632,1632,1632,1632,1632,1632,1632,1632,1632,1632,1632,1632,1624,1624,1624,1624,1624,1624,1624,1624,1624,1624,1624,1624,1624,1632,1632,1624,1624,1616,1616,1616,1616,1616,1624,1624,1624,1616,1616,1616,1616,1616,1616,1616,1616,1616,1609,1609,1609,1609,1609,1601,1601,1609,1609,1609,1609,1601,1601,1609,1609,1609,1609,1609,1609,1616,1616,1624,1624,1632,1632,1639,1647,1663,1680,1688,1688,1688,1688,1688,1680,1680,1671,1671,1663,1663,1663,1663,1655,1655,1647,1639,1632,1632,1632,1632,1624,1624,1624,1624,1624,1616,1616,1616,1616,1616,1616,1624,1624,1632,1632,1632,1639,1647,1647,1647,1655,1655,1655,1655,1655,1663,1663,1663,1671,1671,1680,1680,1680,1688,1688,1688,1688,1688,1696,1696,1696,1696,1696,1705,1713,1713,1722,1722,1722,1722,1731,1731,1739,1739,1748,1748,1757,1757,1757,1766,1766,1766,1766,1776,1776,1785,1785,1785,1785,1794,1794,1794,1794,1804,1804,1813,1813,1813,1833,1833,1833,1843,1843,1843,1843,1843,1843,1843,1833,1833,1833,1833,0,0,0,0,0,0,0,0,1087,1087,1090,1090,1087,1087,1087,1084,1084,1080,1077,1077,1077,1080,1080,1084,1084,1087,1090,1090,1094,1094,1094,1097,1097,1097,0,0,0,0,1731,1731,1731,1722,1722,1722,1722,1713,1713,1713,1705,1705,1696,1696,1696,1688,1688,1688,1688,1688,1680,1680,1680,1671,1663,1663,1655,1655,1655,1655,1655,1655,1647,1647,1647,1639,1639,1632,1632,1632,1632,1639,1632,1632,1632,1624,1624,1624,1616,1609,1609,1609,1609,1601,1601,1601,1601,1601,1601,1601,1594,1594,1586,1579,1579,1579,1579,1572,1572,1572,1572,1564,1564,1557,1557,1557,1550,1550,1550,1550,1543,1543,1543,1536,1536,1536,1529,1529,1529,1523,1516,1516,0,0,0,0,0,0,0,0,908,908,906,906,906,903,901,901,898,898,898,896,896,894,894,894,894,894,894,896,896,898,901,903,906,908,910,0,0,0,0,0,1439,1439,1433,1433,1433,1427,1427,1421,1421,1421,1421,1421,1415,1415,1415,1415,1415,1410,1410,1404,1404,1398,1398,1398,1398,1392,1392,1392,1387,1381,1381,1381,1376,1376,1376,1376,1376,1370,1370,1370,1365,1365,1365,1359,1359,1354,1354,1354,1354,1349,1349,1349,1343,1343,1343,1343,1338,1333,1333,1333,1333,1333,1328,1328,1328,1328,1322,1322,1322,1317,1317,1312,1312,1312,1312,1307,1307,1307,1307,1302,1297,1297,1297,1292,1292,1292,1292,1292,1292,1288,1288,1288,1283,1283,1283,1278,1273,1273,1273,1273,1268,1268,1268,1268,1264,1264,1259,1255,1255,1250,1250,1250,1250,1250,1245,1245,1245,1241,1241,1241,1236,1236,1236,1236,1232,1232,1232,1227,1227,1223,1223,1219,1219,1219,1214,1214,1214,1214,1210,1210,1206,1206,1202,1202,1202,1202,1197,1197,1197,1197,1197,1193,1193,1193,1193,1193,1189,1185,1185,1185,1181,1181,1181,1181,1181,1177,1177,1173,1173,1173,1169,1169,1165,1165,1165,1165,1161,1161,1157,1157,1153,1153,1153,1153,1153,1153,1153,1149,1149,1149,1149,1145,1145,1145,1145,1141,1141,1141,1141,1138,1138,0,0,0,0,0,0,0,0,0,0,0,0,0,0,0,0,0,0,0,0,0,0,0,0,0,0,0,0,0
0,0,0,0,0,0,0,0,0,0,0,0,0,0,1655,1655,1655,1655,1655,1647,1639,1639,1639,1639,1639,1639,1639,1639,1639,1639,1639,1639,1639,1639,1639,1639,1632,1632,1639,1632,1632,1632,1639,1639,1639,1639,1639,1639,1639,1639,1639,1639,1632,1632,1632,1632,1632,1632,1632,1632,1632,1632,1632,1632,1632,1632,1632,1632,1624,1624,1624,1624,1624,1624,1624,1624,1624,1632,1632,1624,1624,1616,1616,1616,1616,1616,1624,1624,1624,1616,1616,1616,1616,1616,1616,1616,1616,1616,1616,1616,1616,1616,1609,1609,1609,1609,1609,1609,1609,1601,1601,1609,1609,1609,1609,1609,1616,1616,1616,1624,1624,1632,1632,1632,1632,1655,1688,1688,1696,1696,1688,1688,1680,1680,1671,1671,1663,1663,1663,1663,1655,1655,1647,1639,1632,1632,1632,1632,1624,1624,1624,1624,1624,1616,1616,1624,1624,1624,1624,1624,1624,1632,1632,1632,1639,1647,1647,1647,1655,1655,1655,1655,1655,1663,1663,1671,1671,1680,1680,1680,1680,1688,1688,1688,1688,1688,1696,1696,1696,1705,1705,1705,1713,1713,1722,1722,1722,1722,1731,1731,1739,1748,1748,1757,1757,1757,1757,1766,1766,1766,1766,1776,1785,1785,1785,1785,1785,1794,1794,1794,1794,1804,1804,1813,1813,1813,1833,1833,1833,1843,1843,1843,1843,1843,1843,1843,1843,1833,1833,1833,0,0,0,0,0,0,0,0,1087,1087,1090,1090,1087,1087,1087,1084,1084,1080,1077,1077,1077,1077,1080,1084,1087,1090,1090,1094,1094,1094,1097,1097,1097,1097,1105,0,0,0,1731,1731,1731,1731,1722,1722,1722,1713,1713,1713,1705,1705,1696,1696,1696,1696,1696,1688,1688,1688,1680,1680,1680,1671,1663,1663,1663,1663,1663,1655,1655,1655,1647,1647,1647,1639,1639,1632,1632,1632,1632,1639,1632,1632,1632,1624,1624,1624,1616,1609,1609,1609,1609,1601,1601,1601,1601,1601,1601,1601,1601,1594,1586,1579,1579,1579,1579,1579,1572,1572,1572,1564,1564,1557,1557,1557,1550,1550,1550,1550,1543,1543,1543,1536,1536,1536,1529,1529,1529,1523,1523,1523,0,0,0,0,0,0,0,0,908,908,906,906,906,903,901,898,898,898,898,896,896,896,894,894,894,894,896,896,896,898,901,906,906,910,910,0,0,0,0,0,1439,1439,1433,1433,1433,1433,1427,1421,1421,1421,1421,1421,1415,1415,1415,1415,1415,1410,1410,1410,1404,1404,1398,1398,1398,1398,1392,1392,1392,1387,1381,1381,1381,1376,1376,1376,1376,1376,1370,1370,1370,1370,1365,1365,1359,1354,1354,1354,1354,1349,1349,1349,1343,1343,1343,1343,1338,1333,1333,1333,1333,1333,1333,1328,1328,1328,1322,1322,1322,1317,1317,1317,1312,1312,1312,1312,1312,1307,1307,1302,1302,1297,1297,1292,1292,1292,1292,1292,1288,1288,1288,1288,1283,1283,1283,1278,1278,1273,1273,1273,1268,1268,1268,1268,1264,1264,1264,1259,1255,1250,1250,1250,1250,1250,1245,1245,1245,1241,1241,1241,1236,1236,1236,1236,1232,1232,1232,1227,1227,1223,1223,1219,1219,1219,1214,1214,1214,1214,1210,1210,1206,1206,1206,1202,1202,1202,1202,1197,1197,1197,1197,1197,1197,1193,1193,1193,1189,1189,1185,1185,1181,1181,1181,1181,1181,1177,1177,1173,1173,1173,1169,1169,1169,1165,1165,1165,1165,1165,1161,1161,1157,1157,1157,1157,1153,1153,1153,1153,1149,1149,1149,1145,1145,1145,1145,1145,1141,1141,1141,1138,1138,0,0,0,0,0,0,0,0,0,0,0,0,0,0,0,0,0,0,0,0,0,0,0,0,0,0,0,0,0
0,0,0,0,0,0,0,0,0,0,0,0,0,0,1655,1655,1655,1655,1655,1655,1647,1647,1655,1655,1647,1647,1647,1647,1647,1639,1639,1639,1639,1639,1639,1639,1632,1632,1632,1632,1632,1632,1639,1639,1639,1639,1639,1639,1639,1639,1639,1639,1632,1632,1632,1632,1632,1632,1632,1632,1632,1632,1632,1632,1632,1632,1632,1632,1624,1624,1624,1624,1632,1632,1632,1632,1632,1632,1632,1624,1624,1624,1624,1624,1616,1616,1624,1624,1624,1616,1616,1616,1616,1616,1616,1616,1616,1616,1616,1616,1616,1616,1609,1609,1609,1609,1609,1609,1609,1601,1601,1609,1609,1609,1609,1609,1616,1616,1616,1624,1624,1624,1632,1632,1632,1639,1680,1688,1696,1696,1688,1688,1688,1680,1680,1671,1671,1663,1663,1663,1655,1655,1647,1647,1639,1632,1632,1632,1632,1624,1624,1624,1624,1624,1624,1624,1624,1624,1624,1624,1624,1632,1632,1632,1639,1647,1647,1647,1655,1655,1655,1655,1663,1663,1663,1671,1671,1680,1680,1688,1688,1688,1688,1688,1688,1688,1696,1696,1696,1705,1705,1713,1722,1722,1722,1722,1722,1722,1731,1739,1748,1748,1748,1757,1757,1757,1757,1766,1766,1766,1776,1776,1785,1785,1785,1785,1785,1794,1794,1794,1794,1804,1804,1813,1823,1823,1833,1833,1843,1843,1843,1843,1843,1843,1843,1843,1833,1833,1833,1833,0,0,0,0,0,0,0,0,1090,1090,1090,1090,1087,1087,1087,1084,1084,1080,1080,1077,1077,1077,1080,1084,1087,1090,1090,1094,1094,1094,1097,1101,1101,1101,1105,0,0,0,0,1731,1731,1731,1722,1722,1722,1713,1713,1713,1705,1705,1705,1696,1696,1696,1696,1688,1688,1688,1688,1680,1680,1671,1663,1663,1663,1663,1663,1655,1655,1655,1655,1647,1647,1639,1639,1639,1639,1632,1632,1639,1632,1632,1632,1632,1624,1624,1624,1616,1609,1609,1609,1609,1609,1601,1601,1601,1601,1601,1594,1594,1586,1586,1579,1579,1579,1579,1572,1572,1572,1572,1564,1564,1557,1557,1557,1550,1550,1550,1543,1543,1543,1543,1536,1536,1536,1536,1529,1529,1523,1523,0,0,0,0,0,0,0,0,908,908,906,906,906,903,901,898,898,898,898,898,896,896,896,896,896,896,896,896,896,898,901,906,908,910,913,0,0,0,0,0,1445,1439,1439,1439,1433,1433,1427,1421,1421,1421,1421,1421,1421,1415,1415,1415,1415,1415,1410,1410,1404,1404,1398,1398,1398,1398,1392,1392,1392,1387,1387,1381,1381,1376,1376,1376,1376,1376,1376,1370,1370,1370,1365,1365,1365,1359,1354,1354,1354,1349,1349,1349,1343,1343,1343,1343,1338,1338,1333,1333,1333,1333,1328,1328,1328,1328,1328,1328,1322,1322,1322,1317,1317,1312,1312,1312,1312,1307,1307,1302,1302,1297,1297,1292,1292,1292,1292,1292,1288,1288,1288,1288,1288,1283,1283,1278,1278,1278,1273,1273,1273,1268,1268,1268,1268,1264,1264,1259,1255,1255,1250,1250,1250,1250,1250,1250,1245,1245,1241,1241,1236,1236,1236,1236,1232,1232,1232,1232,1227,1223,1223,1219,1219,1219,1214,1214,1214,1214,1210,1210,1206,1206,1206,1202,1202,1202,1202,1197,1197,1197,1197,1197,1197,1193,1193,1189,1189,1189,1185,1185,1181,1181,1181,1181,1181,1181,1177,1177,1177,1173,1173,1169,1169,1169,1169,1165,1165,1165,1165,1161,1161,1161,1161,1157,1153,1153,1153,1153,1149,1149,1149,1149,1145,1145,1145,1145,1141,1141,1141,1138,1138,0,0,0,0,0,0,0,0,0,0,0,0,0,0,0,0,0,0,0,0,0,0,0,0,0,0,0,0,0
0,0,0,0,0,0,0,0,0,0,0,0,0,0,1655,1655,1655,1655,1655,1655,1655,1655,1655,1655,1655,1647,1647,1647,1647,1639,1639,1639,1639,1639,1639,1639,1639,1632,1632,1632,1632,1639,1647,1639,1639,1639,1639,1639,1639,1639,1639,1639,1639,1639,1639,1639,1632,1632,1632,1632,1632,1632,1632,1632,1632,1632,1632,1632,1632,1632,1632,1632,1632,1632,1632,1632,1632,1632,1632,1632,1624,1624,1624,1624,1616,1616,1624,1624,1624,1624,1624,1616,1616,1616,1616,1616,1616,1616,1616,1616,1616,1616,1609,1609,1609,1609,1609,1609,1609,1609,1609,1609,1609,1609,1609,1616,1616,1616,1624,1624,1624,1624,1632,1632,1632,1632,1647,1696,1696,1696,1688,1688,1688,1680,1680,1671,1671,1663,1663,1663,1655,1655,1647,1647,1639,1632,1632,1632,1632,1632,1624,1624,1624,1616,1616,1624,1624,1624,1624,1624,1624,1632,1632,1639,1647,1647,1647,1647,1655,1655,1655,1655,1663,1663,1671,1671,1680,1680,1688,1688,1688,1688,1688,1688,1688,1688,1696,1696,1705,1705,1713,1713,1722,1722,1722,1722,1722,1722,1731,1739,1748,1748,1757,1757,1766,1766,1766,1766,1766,1766,1776,1776,1785,1785,1794,1794,1794,1794,1794,1794,1794,1804,1804,1813,1823,1823,1833,1833,1843,1843,1843,1853,1843,1843,1843,1843,1833,1833,0,0,0,0,0,0,0,0,0,0,1090,1090,1090,1090,1087,1087,1084,1084,1084,1080,1080,1077,1077,1077,1084,1087,1087,1090,1090,1094,1097,1097,1097,1101,1101,1101,1105,1105,0,0,0,1731,1731,1731,1722,1722,1722,1713,1713,1713,1705,1705,1705,1696,1696,1696,1696,1696,1688,1688,1688,1680,1680,1680,1663,1663,1663,1663,1663,1663,1663,1655,1655,1655,1647,1647,1647,1639,1639,1632,1632,1639,1632,1632,1632,1632,1632,1624,1624,1616,1616,1609,1609,1609,1609,1601,1601,1601,1601,1601,1594,1594,1586,1586,1579,1579,1579,1579,1572,1572,1572,1572,1572,1564,1564,1557,1557,1550,1550,1550,1550,1543,1543,1543,1536,1536,1536,1536,1536,1529,1529,1529,0,0,0,0,0,0,0,0,908,908,906,906,903,903,901,898,898,898,898,898,896,896,896,896,896,896,896,898,898,901,903,906,908,913,915,0,0,0,0,0,1445,1439,1439,1439,1439,1433,1427,1421,1421,1421,1421,1421,1421,1421,1415,1415,1415,1415,1410,1410,1404,1404,1398,1398,1398,1398,1398,1392,1392,1392,1387,1381,1381,1376,1376,1376,1376,1376,1376,1370,1370,1370,1365,1365,1365,1359,1354,1354,1354,1354,1349,1349,1349,1349,1343,1343,1343,1338,1333,1333,1333,1333,1328,1328,1328,1328,1328,1328,1322,1322,1322,1317,1317,1312,1312,1312,1307,1307,1307,1302,1302,1297,1297,1297,1292,1292,1292,1292,1288,1288,1288,1288,1288,1283,1283,1283,1278,1278,1273,1273,1273,1268,1268,1268,1268,1264,1264,1259,1255,1255,1255,1250,1250,1250,1250,1250,1245,1245,1241,1241,1236,1236,1236,1236,1232,1232,1232,1232,1227,1227,1223,1219,1219,1219,1214,1214,1214,1214,1214,1210,1210,1210,1206,1206,1202,1202,1202,1197,1197,1197,1197,1197,1197,1197,1193,1189,1189,1189,1189,1185,1185,1185,1181,1181,1181,1181,1181,1177,1177,1173,1173,1173,1169,1169,1169,1169,1165,1165,1165,1165,1165,1161,1161,1157,1157,1153,1153,1153,1149,1149,1149,1149,1149,1149,1145,1145,1141,1141,1141,1138,1138,0,0,0,0,0,0,0,0,0,0,0,0,0,0,0,0,0,0,0,0,0,0,0,0,0,0,0,0,0
0,0,0,0,0,0,0,0,0,0,0,0,0,0,1655,1655,1655,1655,1655,1655,1655,1655,1655,1655,1655,1647,1647,1647,1647,1639,1639,1647,1647,1639,1639,1639,1639,1639,1639,1639,1639,1647,1647,1639,1639,1647,1639,1639,1639,1639,1639,1639,1639,1639,1639,1639,1639,1632,1632,1632,1632,1632,1632,1632,1632,1632,1632,1632,1624,1624,1632,1632,1632,1632,1632,1632,1632,1632,1632,1632,1632,1624,1624,1624,1624,1624,1624,1624,1624,1624,1616,1616,1616,1616,1616,1616,1624,1624,1616,1616,1616,1616,1609,1609,1609,1609,1609,1609,1609,1609,1609,1609,1609,1609,1609,1616,1616,1616,1624,1624,1624,1624,1632,1632,1632,1632,1639,1705,1705,1696,1696,1688,1688,1688,1688,1680,1671,1671,1663,1663,1655,1655,1647,1647,1639,1639,1632,1632,1632,1632,1624,1624,1624,1616,1616,1624,1624,1624,1624,1624,1624,1632,1632,1639,1647,1647,1647,1647,1655,1655,1655,1663,1663,1671,1671,1671,1680,1680,1688,1688,1688,1688,1688,1688,1696,1696,1696,1705,1705,1713,1713,1713,1722,1722,1722,1722,1731,1731,1731,1739,1748,1748,1757,1757,1757,1757,1766,1766,1766,1776,1776,1785,1785,1794,1794,1794,1794,1804,1804,1804,1804,1804,1813,1813,1823,1823,1833,1833,1843,1843,1843,1853,1853,1853,1843,1843,1833,1833,0,0,0,0,0,0,0,0,0,1094,1090,1090,1090,1090,1087,1087,1084,1084,1084,1080,1080,1080,1080,1080,1084,1087,1087,1090,1090,1094,1097,1097,1097,1101,1101,1101,1105,0,0,0,0,1739,1731,1731,1731,1722,1722,1722,1713,1713,1705,1705,1705,1696,1696,1696,1696,1696,1696,1688,1688,1680,1680,1680,1671,1663,1663,1663,1663,1663,1663,1663,1655,1655,1647,1647,1639,1639,1639,1632,1632,1639,1639,1632,1632,1632,1632,1632,1632,1616,1616,1616,1609,1609,1609,1601,1601,1601,1601,1601,1594,1594,1586,1586,1586,1579,1579,1579,1572,1572,1572,1572,1572,1564,1564,1557,1557,1550,1550,1550,1550,1543,1543,1543,1543,1543,1536,1536,1536,1536,1536,1536,0,0,0,0,0,0,0,0,908,908,906,906,903,903,901,898,898,898,898,898,896,896,896,896,896,896,896,898,898,901,903,906,910,913,915,0,0,0,0,0,1445,1439,1439,1439,1439,1433,1427,1421,1421,1421,1421,1421,1421,1421,1421,1415,1415,1415,1410,1410,1404,1404,1398,1398,1398,1398,1398,1392,1392,1392,1387,1387,1381,1381,1376,1376,1376,1376,1376,1370,1370,1370,1365,1365,1365,1365,1354,1354,1354,1354,1349,1349,1349,1349,1349,1343,1343,1338,1333,1333,1333,1333,1333,1328,1328,1328,1328,1328,1328,1322,1322,1317,1317,1317,1312,1312,1307,1307,1307,1302,1302,1302,1297,1297,1292,1292,1292,1292,1288,1288,1288,1288,1288,1283,1283,1283,1278,1278,1273,1273,1273,1268,1268,1268,1268,1264,1259,1259,1259,1255,1255,1250,1250,1250,1250,1250,1250,1245,1241,1241,1241,1236,1236,1236,1232,1232,1232,1232,1227,1227,1223,1219,1219,1219,1219,1219,1214,1214,1214,1210,1210,1210,1206,1206,1202,1202,1197,1197,1197,1197,1197,1197,1197,1197,1193,1193,1193,1189,1189,1189,1185,1185,1181,1181,1181,1181,1181,1181,1177,1173,1173,1173,1169,1169,1169,1169,1165,1165,1165,1165,1165,1165,1161,1161,1157,1157,1153,1153,1153,1153,1149,1149,1149,1149,1145,1145,1141,1141,1141,1138,1138,0,0,0,0,0,0,0,0,0,0,0,0,0,0,0,0,0,0,0,0,0,0,0,0,0,0,0,0,0
0,0,0,0,0,0,0,0,0,0,0,0,0,0,1655,1655,1655,1655,1655,1655,1655,1655,1655,1655,1655,1647,1647,1647,1647,1647,1647,1647,1647,1647,1639,1639,1639,1639,1639,1639,1647,1647,1647,1647,1647,1647,1639,1639,1639,1639,1639,1647,1639,1639,1639,1639,1639,1632,1632,1632,1632,1632,1632,1632,1632,1632,1632,1632,1624,1624,1632,1632,1632,1632,1632,1632,1632,1632,1632,1632,1632,1632,1624,1624,1624,1624,1624,1624,1624,1616,1616,1616,1616,1616,1624,1624,1624,1624,1624,1624,1616,1616,1616,1616,1616,1616,1609,1609,1609,1609,1609,1609,1616,1616,1616,1616,1616,1616,1616,1624,1624,1624,1632,1632,1632,1632,1632,2065,2065,2053,2028,1696,1688,1688,1688,1671,1671,1671,1663,1663,1655,1655,1647,1647,1647,1639,1632,1632,1632,1632,1632,1624,1624,1624,1624,1624,1624,1624,1624,1632,1632,1632,1639,1639,1647,1647,1647,1655,1655,1655,1655,1663,1663,1671,1671,1680,1680,1688,1688,1688,1688,1688,1688,1696,1696,1696,1705,1705,1713,1722,1722,1722,1722,1722,1722,1722,1731,1731,1739,1739,1748,1757,1757,1757,1757,1757,1766,1766,1766,1776,1776,1785,1785,1794,1794,1794,1794,1804,1804,1804,1804,1813,1813,1823,1823,1823,1833,1833,1843,1843,1843,1853,1853,1853,1853,1843,1833,1833,0,0,0,0,0,0,0,0,0,1094,1094,1090,1090,1090,1087,1087,1087,1084,1084,1080,1080,1080,1080,1084,1084,1087,1090,1090,1090,1094,1097,1097,1101,1101,1101,1105,1105,0,0,0,1739,1739,1731,1731,1731,1722,1722,1722,1722,1713,1713,1713,1713,1696,1696,1696,1696,1696,1696,1688,1688,1688,1688,1680,1680,1663,1663,1663,1663,1663,1663,1663,1663,1655,1647,1647,1639,1639,1639,1632,1632,1639,1639,1639,1632,1632,1632,1632,1624,1624,1616,1616,1609,1609,1609,1609,1601,1601,1601,1601,1594,1594,1586,1586,1586,1586,1586,1579,1579,1572,1572,1572,1572,1572,1564,1564,1557,1557,1557,1550,1550,1543,1543,1543,1543,1543,1536,1536,1536,1536,1536,1536,0,0,0,0,0,0,0,0,908,908,906,906,906,906,906,901,898,898,898,898,896,896,896,896,896,896,896,898,898,903,906,906,910,913,915,0,0,0,0,0,1445,1445,1439,1439,1439,1439,1433,1421,1421,1421,1421,1421,1421,1421,1415,1415,1415,1415,1410,1410,1410,1404,1404,1404,1398,1398,1398,1398,1392,1392,1392,1387,1381,1381,1381,1381,1376,1376,1376,1370,1370,1370,1370,1365,1365,1365,1359,1359,1354,1354,1354,1349,1349,1349,1349,1343,1343,1343,1338,1338,1338,1333,1333,1333,1333,1328,1328,1328,1328,1322,1322,1317,1317,1317,1312,1312,1312,1307,1307,1307,1302,1302,1302,1297,1297,1292,1292,1292,1292,1292,1288,1288,1288,1283,1283,1283,1278,1278,1278,1273,1273,1268,1268,1268,1268,1264,1259,1259,1259,1255,1255,1255,1250,1250,1250,1250,1250,1250,1245,1241,1241,1241,1236,1236,1236,1232,1232,1232,1227,1227,1227,1223,1219,1219,1214,1214,1214,1214,1214,1210,1210,1210,1206,1206,1202,1202,1197,1197,1197,1197,1197,1197,1197,1197,1197,1193,1193,1193,1189,1189,1185,1185,1185,1185,1181,1181,1181,1181,1177,1177,1177,1173,1169,1169,1169,1169,1169,1165,1165,1165,1165,1165,1165,1161,1157,1157,1157,1153,1153,1153,1149,1149,1149,1149,1145,1145,1141,1138,1138,1138,1138,0,0,0,0,0,0,0,0,0,0,0,0,0,0,0,0,0,0,0,0,0,0,0,0,0,0,0,0,0
0,0,0,0,0,0,0,0,0,0,0,0,0,0,1655,1655,1663,1655,1655,1655,1655,1655,1655,1655,1655,1647,1647,1647,1647,1647,1647,1647,1647,1647,1639,1639,1639,1639,1639,1639,1647,1647,1647,1647,1647,1647,1647,1639,1639,1639,1639,1647,1639,1639,1639,1647,1639,1632,1632,1632,1632,1632,1632,1632,1632,1632,1632,1632,1632,1632,1632,1632,1632,1632,1632,1632,1632,1632,1632,1632,1632,1632,1632,1632,1624,1624,1624,1624,1624,1616,1616,1616,1616,1624,1624,1624,1624,1624,1624,1624,1624,1624,1624,1624,1624,1624,1616,1616,1616,1616,1616,1616,1616,1616,1616,1616,1616,1616,1616,1624,1624,1624,1632,1632,1632,1632,1632,2078,2078,2053,2028,2016,2016,1688,1688,1671,1671,1671,1663,1655,1647,1639,1639,1647,1647,1639,1639,1632,1632,1632,1632,1624,1624,1624,1624,1624,1624,1624,1624,1632,1632,1632,1639,1639,1647,1647,1647,1655,1655,1655,1663,1663,1663,1671,1671,1680,1680,1688,1688,1688,1688,1688,1696,1696,1696,1705,1705,1705,1713,1722,1722,1722,1722,1722,1731,1731,1731,1731,1739,1748,1748,1748,1757,1757,1757,1757,1766,1766,1776,1776,1785,1785,1785,1794,1794,1794,1794,1804,1804,1804,1813,1813,1823,1823,1833,1833,1833,1843,1843,1843,1853,1853,1853,1853,1853,1843,1843,1843,0,0,0,0,0,0,0,0,0,1097,1094,1090,1090,1090,1090,1090,1087,1087,1084,1084,1084,1084,1084,1084,1084,1087,1090,1090,1094,1094,1097,1097,1101,1101,1105,1105,1105,0,1748,0,1739,1739,1739,1731,1731,1731,1722,1722,1722,1713,1713,1713,1713,1713,1696,1696,1696,1696,1696,1688,1688,1688,1688,1688,1680,1680,1663,1663,1663,1663,1663,1663,1663,1655,1647,1647,1647,1639,1639,1632,1632,1639,1639,1639,1632,1632,1632,1632,1624,1624,1624,1616,1616,1609,1609,1609,1609,1601,1601,1601,1601,1594,1594,1594,1586,1586,1586,1586,1579,1579,1579,1572,1572,1572,1564,1564,1564,1557,1557,1550,1550,1543,1543,1543,1543,1543,1536,1536,1543,1536,1536,1536,0,0,0,0,0,0,0,0,908,908,906,906,906,906,903,901,901,901,898,898,896,896,896,896,896,896,896,898,898,903,906,908,913,915,918,0,0,0,0,0,1445,1445,1439,1439,1439,1439,1433,1421,1421,1421,1421,1421,1421,1421,1415,1415,1415,1415,1410,1410,1410,1410,1404,1404,1404,1398,1398,1398,1398,1392,1392,1392,1381,1381,1381,1376,1376,1376,1376,1370,1370,1370,1370,1365,1365,1365,1359,1359,1354,1354,1354,1349,1349,1349,1349,1349,1349,1343,1343,1343,1338,1333,1333,1333,1333,1333,1328,1328,1328,1328,1322,1317,1317,1317,1312,1312,1312,1307,1307,1307,1307,1302,1302,1302,1297,1297,1292,1292,1292,1292,1288,1288,1288,1283,1283,1283,1278,1278,1278,1273,1273,1273,1268,1268,1268,1264,1264,1264,1259,1255,1255,1255,1250,1250,1250,1250,1250,1250,1245,1245,1241,1241,1236,1236,1236,1232,1232,1232,1232,1227,1227,1223,1219,1219,1214,1214,1219,1214,1214,1214,1210,1210,1210,1206,1206,1206,1202,1202,1202,1197,1197,1197,1197,1197,1197,1193,1193,1193,1193,1189,1185,1185,1185,1185,1181,1181,1181,1181,1181,1177,1177,1177,1173,1169,1169,1169,1169,1165,1165,1165,1165,1165,1165,1161,1161,1157,1157,1153,1153,1153,1153,1149,1149,1149,1145,1145,1141,1138,1138,1138,1138,0,0,0,0,0,0,0,0,0,0,0,0,0,0,0,0,0,0,0,0,0,0,0,0,0,0,0,0,0
0,0,0,0,0,0,0,0,0,0,0,0,0,0,1655,1655,1663,1655,1655,1655,1655,1655,1655,1655,1647,1647,1647,1647,1647,1647,1647,1647,1647,1647,1647,1639,1639,1639,1639,1639,1647,1647,1647,1647,1647,1647,1647,1647,1647,1647,1647,1647,1647,1647,1647,1647,1639,1639,1639,1639,1639,1632,1632,1632,1632,1632,1632,1632,1632,1632,1632,1632,1632,1632,1632,1632,1632,1632,1632,1639,1639,1632,1632,1632,1624,1624,1624,1624,1624,1624,1624,1624,1624,1624,1624,1624,1624,1624,1624,1624,1624,1624,1624,1624,1624,1624,1624,1616,1616,1616,1616,1616,1616,1616,1616,1616,1616,1616,1616,1624,1624,1624,1624,1632,1632,1632,1639,1639,2078,2053,2016,2005,1993,1993,1981,1970,1970,1959,1663,1655,1647,1632,1632,1632,1639,1639,1632,1632,1632,1632,1632,1624,1624,1624,1624,1624,1624,1624,1624,1632,1632,1639,1639,1647,1647,1655,1655,1655,1655,1663,1663,1663,1663,1671,1671,1680,1688,1688,1688,1688,1688,1688,1696,1696,1696,1705,1705,1713,1713,1722,1722,1722,1731,1731,1731,1731,1739,1739,1748,1748,1748,1748,1757,1757,1757,1766,1766,1766,1776,1785,1785,1785,1785,1794,1794,1794,1794,1804,1804,1804,1813,1813,1823,1823,1833,1833,1833,1843,1843,1843,1853,1863,1863,1853,1853,1843,1843,0,0,0,0,0,0,0,0,0,0,1097,1094,1090,1090,1090,1090,1090,1087,1087,1084,1084,1084,1084,1084,1084,1087,1087,1090,1090,1094,1094,1097,1097,1101,1101,1105,1105,0,0,0,1748,1739,1739,1739,1731,1731,1731,1722,1722,1722,1722,1722,1722,1722,1713,1705,1696,1696,1696,1696,1688,1688,1688,1688,1688,1680,1680,1671,1671,1663,1663,1663,1663,1663,1655,1647,1647,1647,1639,1639,1632,1632,1639,1639,1639,1632,1632,1632,1632,1632,1624,1624,1624,1616,1609,1609,1609,1609,1601,1601,1601,1594,1594,1594,1594,1594,1594,1586,1586,1579,1579,1579,1572,1572,1572,1572,1564,1564,1564,1564,1557,1550,1550,1543,1543,1543,1543,1543,1543,1543,1536,1536,1536,0,0,0,0,0,0,0,0,0,908,906,906,906,906,903,903,901,901,898,898,898,896,896,896,896,896,896,898,898,903,906,910,915,915,918,0,0,0,0,0,1445,1445,1439,1439,1439,1439,1433,1421,1421,1421,1421,1421,1421,1421,1421,1421,1415,1415,1415,1415,1410,1410,1410,1404,1404,1398,1398,1398,1398,1392,1392,1392,1381,1381,1381,1376,1376,1376,1376,1376,1370,1370,1370,1370,1365,1365,1359,1359,1354,1354,1354,1354,1349,1349,1349,1349,1349,1343,1343,1343,1338,1333,1333,1333,1333,1333,1328,1328,1328,1328,1322,1322,1317,1317,1312,1312,1312,1307,1307,1307,1307,1307,1302,1302,1297,1297,1292,1292,1292,1292,1288,1288,1288,1283,1283,1283,1278,1278,1278,1273,1273,1273,1268,1268,1268,1264,1264,1264,1259,1259,1255,1255,1255,1255,1250,1250,1250,1250,1245,1245,1245,1241,1236,1236,1236,1232,1232,1232,1232,1232,1227,1227,1219,1219,1219,1219,1219,1214,1214,1214,1214,1214,1214,1210,1206,1206,1202,1202,1202,1202,1197,1197,1197,1197,1197,1193,1193,1193,1193,1189,1185,1185,1185,1185,1185,1181,1181,1181,1181,1177,1177,1177,1173,1169,1169,1169,1169,1169,1165,1165,1165,1165,1165,1165,1161,1161,1161,1157,1153,1153,1153,1149,1149,1149,1145,1145,1141,1138,1138,1138,1138,0,0,0,0,0,0,0,0,0,0,0,0,0,0,0,0,0,0,0,0,0,0,0,0,0,0,0,0,0
0,0,0,0,0,0,0,0,0,0,0,0,0,0,1663,1663,1663,1655,1655,1663,1655,1655,1655,1655,1647,1647,1655,1655,1655,1655,1655,1655,1655,1655,1647,1647,1647,1639,1639,1639,1647,1647,1647,1647,1647,1647,1647,1647,1647,1647,1647,1647,1647,1647,1647,1647,1647,1639,1639,1639,1639,1639,1632,1632,1632,1632,1632,1632,1632,1632,1632,1632,1632,1632,1639,1639,1632,1632,1632,1639,1639,1632,1632,1632,1624,1624,1624,1624,1624,1624,1624,1624,1624,1624,1624,1624,1624,1624,1624,1624,1624,1624,1624,1624,1624,1624,1624,1624,1616,1616,1616,1616,1616,1616,1616,1616,1616,1616,1616,1624,1624,1624,1624,1632,1632,1632,1639,1639,1647,2053,2016,1981,1970,1970,1959,1959,1959,1959,1959,1947,1947,1632,1632,1624,1624,1632,1632,1632,1632,1632,1632,1624,1624,1624,1624,1624,1624,1624,1624,1632,1632,1639,1647,1647,1655,1655,1655,1655,1655,1663,1663,1663,1671,1671,1680,1680,1680,1688,1688,1688,1688,1688,1696,1696,1705,1713,1713,1722,1722,1722,1722,1731,1731,1731,1731,1739,1739,1748,1748,1748,1748,1757,1757,1757,1757,1766,1766,1766,1776,1785,1785,1785,1794,1794,1794,1794,1794,1804,1804,1813,1813,1823,1823,1823,1833,1833,1833,1843,1843,1853,1853,1863,1863,1863,1863,1843,1843,0,0,0,0,0,0,0,0,0,0,1097,1094,1094,1090,1090,1090,1090,1087,1087,1084,1084,1084,1084,1084,1087,1087,1087,1090,1090,1094,1097,1101,1101,1101,1101,1105,0,0,0,0,1748,1748,1739,1739,1739,1731,1731,1722,1722,1722,1722,1722,1722,1713,1713,1705,1705,1705,1696,1696,1696,1688,1688,1688,1688,1680,1680,1680,1671,1671,1663,1663,1663,1663,1663,1655,1647,1647,1639,1639,1639,1639,1639,1639,1639,1639,1632,1632,1632,1632,1632,1624,1624,1624,1616,1609,1609,1609,1601,1601,1601,1594,1594,1594,1594,1594,1594,1586,1586,1579,1579,1579,1572,1572,1572,1572,1572,1564,1564,1564,1557,1557,1550,1550,1550,1550,1550,1543,1543,1543,1543,1543,1543,0,0,0,0,0,0,0,0,0,908,908,908,908,906,903,903,901,901,898,898,898,896,896,896,896,896,898,898,903,908,908,910,915,915,915,0,0,0,0,1445,1445,1445,1445,1439,1439,1439,1433,1427,1421,1421,1421,1421,1421,1421,1421,1421,1415,1415,1415,1415,1415,1410,1410,1404,1404,1398,1398,1398,1398,1392,1392,1392,1387,1381,1381,1381,1376,1376,1376,1376,1376,1370,1370,1370,1370,1365,1359,1359,1354,1354,1354,1354,1349,1349,1349,1349,1349,1343,1343,1343,1338,1338,1333,1333,1333,1333,1328,1328,1328,1328,1328,1322,1317,1317,1312,1312,1312,1312,1312,1307,1307,1307,1302,1302,1297,1297,1292,1292,1292,1292,1288,1288,1288,1288,1283,1283,1278,1278,1278,1278,1273,1273,1268,1268,1268,1264,1264,1264,1264,1259,1259,1255,1255,1255,1255,1250,1250,1250,1250,1245,1245,1241,1241,1236,1236,1236,1236,1236,1232,1232,1232,1232,1223,1223,1219,1219,1219,1214,1214,1214,1214,1214,1214,1210,1210,1206,1206,1202,1202,1202,1202,1197,1197,1197,1197,1193,1193,1193,1193,1189,1185,1185,1185,1185,1185,1185,1185,1181,1181,1177,1177,1177,1173,1169,1169,1169,1169,1169,1169,1165,1165,1165,1165,1165,1165,1165,1161,1157,1157,1157,1153,1149,1149,1149,1145,1145,1141,1141,1138,1138,1138,0,0,0,0,0,0,0,0,0,0,0,0,0,0,0,0,0,0,0,0,0,0,0,0,0,0,0,0,0
0,0,0,0,0,0,0,0,0,0,0,0,0,0,1663,1663,1663,1663,1663,1663,1663,1655,1655,1655,1655,1655,1655,1655,1655,1655,1655,1655,1655,1655,1655,1647,1647,1647,1647,1647,1647,1647,1655,1655,1647,1647,1647,1655,1655,1655,1647,1647,1647,1647,1647,1647,1647,1639,1639,1639,1639,1639,1639,1639,1639,1639,1639,1639,1632,1632,1632,1632,1632,1639,1639,1639,1639,1639,1639,1639,1639,1632,1632,1632,1632,1632,1632,1624,1624,1624,1624,1624,1624,1624,1632,1632,1632,1632,1632,1632,1624,1624,1624,1624,1624,1624,1624,1624,1624,1624,1624,1624,1624,1616,1616,1616,1616,1616,1616,1624,1624,1624,1624,1632,1632,1632,1639,1639,1639,1915,1915,1926,1936,1936,1936,1947,1947,1947,1947,1936,1936,1936,1947,1624,1624,1632,1632,1632,1632,1632,1632,1632,1624,1624,1624,1624,1624,1624,1624,1632,1632,1639,1647,1647,1655,1655,1655,1655,1655,1663,1663,1663,1671,1671,1680,1680,1680,1688,1688,1688,1688,1688,1696,1696,1705,1713,1713,1722,1722,1722,1722,1731,1731,1731,1731,1739,1739,1748,1748,1748,1748,1757,1757,1757,1766,1766,1766,1776,1776,1785,1785,1785,1794,1794,1794,1794,1804,1804,1804,1813,1813,1823,1823,1823,1833,1833,1843,1843,1843,1853,1853,1863,1863,1863,1863,1863,0,0,0,0,0,0,0,0,0,0,0,1094,1094,1094,1094,1090,1090,1090,1090,1087,1084,1084,1084,1084,1084,1087,1087,1090,1090,1094,1094,1097,1101,1101,1101,1101,1105,0,0,0,1748,1748,1748,1739,1739,1739,1731,1731,1731,1722,1722,1722,1722,1722,1713,1713,1713,1705,1705,1696,1696,1696,1688,1688,1688,1688,1688,1680,1680,1680,1671,1671,1663,1663,1663,1663,1655,1655,1647,1647,1639,1639,1639,1639,1639,1639,1639,1632,1632,1632,1632,1632,1632,1624,1624,1616,1616,1609,1609,1601,1601,1601,1601,1594,1594,1594,1594,1594,1586,1586,1579,1579,1579,1572,1572,1572,1572,1572,1572,1564,1564,1564,1557,1557,1550,1550,1550,1550,1543,1543,1543,1543,1543,1543,0,0,0,0,0,0,0,0,0,910,908,908,908,906,906,906,903,903,901,898,898,898,898,898,896,896,898,901,906,910,910,913,915,915,915,0,0,0,0,1445,1445,1445,1445,1439,1439,1439,1433,1433,1427,1427,1421,1421,1421,1421,1421,1421,1415,1415,1415,1415,1415,1415,1415,1410,1404,1398,1398,1398,1398,1392,1392,1392,1387,1387,1381,1381,1376,1376,1376,1376,1376,1370,1370,1370,1370,1365,1365,1359,1359,1359,1354,1354,1354,1354,1349,1349,1349,1349,1343,1343,1338,1338,1338,1333,1333,1333,1333,1328,1328,1328,1328,1322,1322,1317,1312,1312,1312,1312,1312,1312,1307,1307,1307,1302,1302,1297,1297,1292,1292,1292,1288,1288,1288,1288,1283,1283,1283,1278,1278,1278,1273,1273,1273,1268,1268,1264,1264,1264,1264,1259,1259,1259,1255,1255,1255,1255,1250,1250,1250,1250,1250,1245,1241,1236,1236,1236,1236,1236,1232,1232,1232,1232,1227,1223,1219,1219,1219,1219,1219,1219,1219,1219,1214,1214,1210,1210,1206,1206,1202,1202,1202,1197,1197,1197,1197,1197,1193,1193,1189,1189,1189,1189,1185,1185,1185,1185,1185,1181,1181,1177,1177,1177,1173,1173,1169,1169,1169,1169,1169,1165,1165,1165,1165,1165,1165,1165,1161,1161,1157,1157,1153,1149,1149,1149,1149,1145,1145,1145,1141,1141,1141,0,0,0,0,0,0,0,0,0,0,0,0,0,0,0,0,0,0,0,0,0,0,0,0,0,0,0,0,0
0,0,0,0,0,0,0,0,0,0,0,0,0,0,1663,1663,1663,1663,1663,1663,1663,1655,1655,1655,1655,1655,1655,1655,1655,1655,1663,1663,1663,1663,1655,1655,1655,1655,1655,1655,1655,1655,1655,1655,1647,1647,1647,1647,1647,1647,1647,1647,1647,1647,1647,1655,1647,1647,1647,1647,1647,1639,1639,1639,1632,1632,1639,1632,1632,1632,1632,1632,1632,1639,1639,1639,1639,1639,1639,1639,1639,1632,1632,1639,1632,1632,1632,1632,1632,1632,1624,1624,1624,1624,1632,1632,1632,1632,1632,1632,1632,1632,1624,1624,1624,1624,1624,1624,1624,1624,1624,1624,1624,1616,1616,1616,1616,1616,1616,1624,1624,1624,1624,1632,1632,1632,1639,1639,1639,1894,1904,1915,1915,1915,1915,1926,1936,1936,1936,1936,1936,1936,1936,1936,1947,1947,1766,1647,1647,1639,1632,1632,1624,1624,1624,1624,1624,1624,1632,1632,1639,1647,1647,1655,1655,1655,1655,1655,1663,1663,1663,1663,1671,1671,1680,1688,1688,1688,1688,1688,1688,1688,1696,1696,1705,1713,1713,1722,1722,1722,1722,1731,1731,1731,1731,1739,1739,1748,1748,1748,1748,1757,1757,1757,1766,1766,1766,1776,1776,1785,1785,1785,1794,1794,1794,1794,1804,1804,1813,1813,1823,1823,1833,1833,1833,1833,1843,1843,1843,1853,1863,1863,1873,1863,1863,1863,1863,0,0,0,0,0,0,0,0,0,0,1094,1094,1094,1094,1094,1094,1090,1090,1087,1087,1087,1084,1084,1084,1087,1087,1090,1090,1094,1097,1097,1101,1101,1101,1101,1105,1105,0,1757,1757,1748,1748,1739,1739,1739,1731,1731,1731,1722,1722,1722,1722,1722,1722,1713,1713,1705,1705,1696,1696,1696,1696,1688,1688,1688,1688,1688,1688,1680,1671,1671,1671,1663,1663,1663,1655,1655,1647,1647,1639,1639,1639,1639,1639,1639,1639,1639,1639,1632,1632,1632,1632,1624,1624,1616,1616,1609,1609,1609,1609,1601,1601,1601,1601,1594,1594,1594,1594,1586,1579,1579,1579,1579,1572,1572,1572,1572,1572,1572,1564,1564,1557,1557,1550,1550,1550,1550,1543,1543,1543,1543,1543,1543,0,0,0,0,0,0,0,0,915,910,908,908,908,908,906,906,903,903,901,898,898,898,898,898,898,898,898,901,908,910,910,913,915,915,918,920,0,0,0,1445,1445,1445,1445,1439,1439,1439,1433,1433,1427,1427,1427,1427,1427,1421,1421,1421,1421,1415,1415,1415,1415,1415,1415,1410,1410,1404,1398,1398,1398,1398,1392,1392,1392,1387,1387,1381,1376,1376,1376,1376,1376,1370,1370,1370,1370,1365,1365,1365,1359,1359,1354,1354,1354,1354,1354,1349,1349,1349,1349,1343,1343,1338,1338,1333,1333,1333,1333,1328,1328,1328,1328,1328,1322,1322,1312,1312,1312,1312,1312,1312,1307,1307,1307,1302,1302,1297,1297,1292,1292,1292,1288,1288,1288,1288,1283,1283,1283,1278,1278,1278,1273,1273,1273,1268,1268,1268,1264,1264,1264,1259,1259,1259,1255,1255,1255,1255,1250,1250,1250,1250,1250,1250,1245,1241,1241,1236,1236,1236,1236,1232,1232,1232,1227,1227,1223,1223,1219,1219,1219,1219,1219,1219,1214,1214,1210,1210,1206,1206,1202,1202,1202,1202,1197,1197,1197,1197,1197,1193,1189,1189,1189,1189,1189,1185,1185,1185,1185,1181,1181,1181,1177,1177,1173,1173,1169,1169,1169,1169,1169,1165,1165,1165,1165,1165,1165,1161,1161,1157,1157,1153,1153,1149,1149,1149,1149,1145,1145,1145,1141,1141,1141,0,0,0,0,0,0,0,0,0,0,0,0,0,0,0,0,0,0,0,0,0,0,0,0,0,0,0,0,0
0,0,0,0,0,0,0,0,0,0,0,0,0,0,1663,1663,1663,1663,1663,1663,1663,1663,1655,1655,1655,1655,1655,1655,1655,1655,1663,1663,1663,1663,1663,1655,1655,1655,1655,1655,1655,1655,1655,1655,1647,1647,1647,1647,1647,1647,1647,1647,1647,1647,1647,1655,1647,1647,1639,1639,1639,1639,1639,1639,1632,1632,1639,1632,1632,1632,1632,1632,1632,1639,1639,1639,1639,1639,1639,1639,1639,1632,1632,1639,1632,1632,1632,1632,1632,1632,1632,1632,1632,1632,1632,1632,1632,1632,1632,1632,1632,1632,1632,1632,1632,1632,1624,1624,1624,1624,1624,1624,1624,1624,1624,1624,1624,1624,1624,1624,1624,1624,1624,1632,1632,1639,1639,1639,1894,1894,1904,1904,1904,1904,1904,1904,1915,1926,1926,1926,1926,1926,1936,1776,1766,1766,1766,1655,1655,1655,1639,1632,1632,1624,1624,1624,1624,1624,1632,1632,1639,1647,1647,1655,1655,1655,1655,1655,1663,1663,1663,1663,1671,1671,1680,1688,1688,1688,1688,1688,1688,1688,1696,1696,1705,1713,1722,1722,1722,1731,1731,1731,1731,1731,1739,1739,1739,1748,1748,1748,1757,1757,1757,1766,1766,1766,1766,1776,1776,1785,1785,1785,1794,1794,1794,1804,1804,1804,1813,1813,1823,1823,1833,1833,1833,1833,1843,1843,1843,1853,1863,1863,1873,1863,1863,1863,1863,0,0,0,0,0,0,0,0,0,0,0,1097,1094,1094,1094,1094,1090,1090,1087,1087,1087,1087,1087,1087,1087,1087,1090,1090,1094,1097,1097,1101,1101,1105,1105,1105,1105,0,1757,1757,1757,1748,1748,1748,1739,1731,1731,1731,1731,1731,1722,1722,1722,1722,1713,1713,1705,1705,1696,1696,1696,1696,1696,1688,1688,1688,1688,1688,1680,1671,1671,1671,1663,1663,1663,1655,1655,1655,1647,1647,1647,1647,1647,1647,1639,1639,1639,1639,1632,1632,1632,1632,1624,1624,1616,1616,1616,1616,1609,1609,1601,1601,1601,1601,1601,1601,1601,1594,1586,1586,1579,1579,1579,1572,1572,1572,1572,1572,1572,1572,1564,1564,1557,1557,1550,1550,1550,1543,1543,1543,1543,1543,1543,0,0,0,0,0,0,0,0,915,913,910,908,908,908,906,906,903,903,901,898,898,898,898,898,898,898,901,903,908,910,910,913,915,915,918,920,0,0,0,0,1445,1445,1445,1445,1439,1439,1439,1439,1433,1433,1427,1427,1427,1421,1421,1421,1421,1421,1415,1415,1415,1415,1415,1410,1410,1404,1404,1398,1398,1398,1392,1392,1392,1387,1387,1381,1381,1376,1376,1376,1376,1370,1370,1370,1370,1365,1365,1365,1359,1359,1359,1354,1354,1354,1354,1354,1349,1349,1349,1349,1343,1343,1338,1338,1338,1333,1333,1333,1328,1328,1328,1328,1322,1322,1317,1312,1312,1312,1312,1312,1312,1307,1307,1307,1302,1302,1297,1292,1292,1292,1288,1288,1288,1288,1283,1283,1283,1278,1278,1278,1273,1273,1273,1273,1268,1268,1264,1264,1264,1259,1259,1259,1255,1255,1255,1255,1255,1255,1250,1250,1250,1250,1245,1241,1241,1236,1236,1236,1236,1232,1232,1232,1232,1227,1223,1223,1223,1219,1219,1219,1219,1219,1214,1214,1214,1210,1210,1206,1202,1202,1202,1202,1197,1197,1197,1197,1197,1193,1189,1189,1189,1189,1189,1185,1185,1185,1185,1181,1181,1181,1181,1177,1177,1173,1169,1169,1169,1169,1169,1165,1165,1165,1165,1165,1165,1161,1161,1157,1157,1153,1153,1149,1149,1149,1149,1145,1145,1145,1145,1145,1145,0,0,0,0,0,0,0,0,0,0,0,0,0,0,0,0,0,0,0,0,0,0,0,0,0,0,0,0,0
0,0,0,0,0,0,0,0,0,0,0,0,0,0,1663,1663,1663,1663,1663,1663,1663,1663,1655,1655,1655,1655,1655,1655,1655,1663,1663,1663,1663,1663,1663,1655,1655,1655,1655,1655,1655,1655,1655,1655,1655,1655,1655,1655,1647,1647,1647,1647,1647,1647,1647,1655,1655,1647,1639,1639,1639,1639,1639,1639,1639,1639,1639,1639,1639,1639,1632,1632,1632,1647,1647,1647,1647,1647,1647,1639,1639,1639,1639,1639,1639,1632,1632,1632,1632,1632,1632,1632,1632,1632,1632,1632,1632,1632,1632,1632,1632,1632,1632,1632,1632,1632,1632,1632,1632,1632,1624,1624,1624,1624,1624,1624,1624,1624,1624,1624,1624,1624,1624,1632,1632,1639,1639,1639,1894,1894,1904,1894,1894,1894,1894,1894,1894,1904,1904,1915,1926,1776,1776,1766,1766,1748,1748,1696,1696,1663,1639,1639,1632,1632,1624,1624,1632,1632,1632,1632,1639,1647,1647,1655,1655,1655,1655,1655,1663,1663,1663,1663,1671,1671,1680,1688,1688,1688,1688,1688,1688,1688,1696,1705,1713,1713,1722,1722,1722,1722,1722,1731,1731,1731,1739,1748,1748,1748,1757,1757,1757,1757,1766,1766,1766,1766,1776,1776,1776,1785,1785,1785,1794,1794,1794,1804,1804,1804,1813,1823,1823,1833,1833,1833,1833,1833,1843,1843,1843,1843,1853,1863,1863,1863,1863,1863,1873,0,0,0,0,0,0,0,0,0,0,0,1097,1094,1094,1094,1094,1094,1090,1090,1087,1087,1087,1087,1087,1087,1087,1090,1090,1094,1097,1101,1101,1101,1105,1105,1105,0,0,1757,1757,1757,1748,1748,1748,1739,1739,1731,1731,1731,1731,1731,1722,1722,1722,1722,1722,1713,1713,1705,1696,1696,1696,1696,1696,1696,1688,1688,1688,1680,1680,1671,1671,1663,1663,1663,1655,1655,1655,1655,1647,1647,1647,1647,1647,1647,1639,1639,1639,1632,1632,1632,1632,1632,1624,1616,1616,1616,1616,1609,1609,1609,1601,1601,1601,1601,1601,1601,1594,1594,1586,1586,1579,1579,1572,1572,1572,1572,1572,1572,1572,1564,1564,1557,1557,1550,1550,1550,1543,1543,1543,1543,1543,1543,0,0,0,0,0,0,0,0,915,913,910,908,908,908,906,906,903,903,901,898,898,898,898,898,898,901,901,906,908,910,913,915,915,918,918,920,0,0,0,0,1445,1445,1445,1445,1445,1439,1439,1439,1439,1439,1433,1433,1427,1427,1427,1421,1421,1421,1421,1415,1415,1415,1415,1415,1410,1410,1404,1398,1398,1398,1392,1392,1392,1392,1387,1387,1381,1376,1376,1376,1376,1376,1370,1370,1370,1370,1365,1365,1365,1359,1359,1359,1354,1354,1354,1354,1354,1349,1349,1349,1343,1343,1343,1338,1338,1333,1333,1333,1328,1328,1328,1328,1322,1317,1317,1317,1312,1312,1312,1312,1312,1307,1307,1307,1302,1302,1302,1297,1292,1292,1288,1288,1288,1288,1283,1283,1283,1278,1278,1278,1278,1273,1273,1268,1268,1268,1264,1264,1264,1259,1259,1259,1259,1259,1259,1255,1255,1255,1255,1255,1250,1250,1245,1241,1241,1236,1236,1236,1236,1236,1236,1232,1232,1232,1227,1227,1223,1223,1219,1219,1219,1219,1214,1214,1214,1214,1210,1206,1206,1202,1202,1202,1197,1197,1197,1197,1197,1193,1189,1189,1189,1189,1189,1189,1189,1185,1185,1185,1181,1181,1181,1177,1177,1177,1173,1169,1169,1169,1169,1169,1165,1165,1165,1165,1165,1161,1161,1157,1157,1153,1153,1153,1149,1149,1149,1149,1145,1145,1145,1145,1145,0,0,0,0,0,0,0,0,0,0,0,0,0,0,0,0,0,0,0,0,0,0,0,0,0,0,0,0,0
0,0,0,0,0,0,0,0,0,0,0,0,0,0,1663,1663,1663,1663,1663,1663,1663,1663,1655,1655,1655,1655,1655,1663,1663,1663,1663,1663,1663,1663,1663,1655,1655,1655,1655,1655,1655,1655,1655,1655,1655,1655,1655,1655,1655,1655,1655,1655,1647,1647,1647,1655,1655,1647,1647,1647,1647,1647,1647,1647,1639,1639,1639,1639,1639,1639,1639,1639,1639,1647,1647,1647,1639,1639,1639,1639,1639,1632,1632,1632,1632,1632,1632,1632,1632,1632,1632,1632,1632,1632,1632,1632,1632,1632,1632,1632,1632,1632,1632,1632,1632,1632,1632,1632,1632,1632,1624,1624,1624,1624,1624,1624,1624,1624,1624,1624,1624,1624,1632,1632,1632,1639,1639,1647,1894,1894,1894,1894,1883,1883,1883,1883,1883,1883,1883,1794,1776,1776,1766,1766,1766,1748,1748,1731,1696,1663,1647,1639,1632,1632,1632,1632,1632,1632,1632,1639,1639,1647,1655,1655,1655,1655,1655,1663,1663,1663,1663,1663,1671,1680,1688,1688,1688,1688,1688,1688,1696,1696,1696,1705,1713,1713,1722,1722,1722,1722,1722,1731,1731,1731,1739,1739,1748,1748,1757,1757,1757,1757,1766,1766,1766,1766,1776,1776,1776,1785,1785,1794,1794,1794,1804,1804,1813,1813,1823,1823,1823,1833,1833,1833,1833,1833,1843,1843,1843,1843,1853,1863,1863,1863,1863,1863,1873,0,0,0,0,0,0,0,0,0,0,0,1101,1097,1097,1094,1094,1094,1090,1090,1087,1087,1087,1087,1087,1090,1090,1090,1094,1097,1097,1101,1101,1101,1101,1101,1101,1115,0,0,1757,1757,1748,1748,1748,1739,1739,1731,1731,1731,1731,1731,1722,1722,1722,1722,1722,1713,1713,1705,1696,1696,1696,1696,1696,1696,1688,1688,1688,1680,1680,1671,1671,1663,1663,1663,1655,1655,1655,1655,1647,1647,1647,1655,1647,1647,1639,1639,1639,1639,1632,1632,1632,1632,1632,1624,1624,1624,1616,1616,1609,1609,1601,1601,1601,1601,1601,1601,1594,1594,1586,1586,1579,1579,1579,1579,1579,1572,1572,1572,1572,1564,1564,1557,1557,1550,1550,1550,1550,1543,1543,1543,1543,1543,0,0,0,0,0,0,0,0,915,913,910,908,908,908,906,906,906,903,901,901,898,898,898,898,901,901,903,906,908,910,913,915,918,918,918,0,0,0,0,0,1445,1445,1445,1445,1445,1439,1439,1439,1439,1439,1433,1433,1433,1427,1427,1421,1421,1421,1421,1421,1415,1415,1415,1415,1410,1410,1404,1398,1398,1398,1392,1392,1392,1392,1387,1387,1387,1381,1381,1376,1376,1376,1376,1376,1370,1370,1365,1365,1365,1359,1359,1359,1354,1354,1354,1354,1354,1354,1349,1349,1349,1343,1343,1343,1338,1338,1333,1333,1328,1328,1328,1328,1322,1317,1317,1317,1312,1312,1312,1312,1312,1307,1307,1307,1302,1302,1302,1297,1292,1292,1292,1292,1288,1288,1288,1283,1283,1283,1283,1278,1278,1273,1273,1268,1268,1268,1268,1264,1264,1259,1259,1259,1259,1259,1259,1255,1255,1255,1255,1255,1250,1250,1245,1241,1241,1236,1236,1236,1236,1236,1236,1232,1232,1232,1227,1227,1223,1223,1223,1219,1219,1219,1214,1214,1214,1214,1210,1210,1206,1202,1202,1202,1202,1202,1197,1197,1197,1193,1193,1193,1193,1189,1189,1189,1189,1185,1185,1185,1181,1181,1181,1181,1177,1177,1173,1169,1169,1169,1169,1169,1165,1165,1165,1165,1165,1165,1161,1157,1157,1153,1153,1153,1149,1149,1149,1149,1149,1145,1145,1145,1145,0,0,0,0,0,0,0,0,0,0,0,0,0,0,0,0,0,0,0,0,0,0,0,0,0,0,0,0,0
0,0,0,0,0,0,0,0,0,0,0,0,0,0,1663,1663,1663,1663,1663,1663,1663,1663,1663,1663,1655,1655,1655,1663,1663,1663,1663,1663,1663,1663,1663,1663,1655,1655,1655,1655,1655,1655,1655,1655,1655,1655,1655,1655,1655,1655,1655,1655,1655,1655,1655,1655,1655,1655,1655,1647,1647,1647,1647,1647,1647,1639,1639,1639,1647,1639,1639,1639,1639,1639,1647,1639,1639,1639,1639,1639,1639,1632,1632,1632,1632,1632,1632,1632,1632,1632,1632,1632,1632,1632,1632,1632,1632,1632,1632,1632,1632,1632,1632,1632,1632,1632,1632,1632,1632,1632,1624,1624,1624,1624,1624,1624,1624,1624,1624,1624,1624,1624,1632,1632,1632,1639,1639,1647,1894,1894,1894,1883,1883,1873,1873,1873,1873,1843,1804,1785,1776,1766,1766,1766,1766,1748,1748,1731,1705,1671,1647,1639,1639,1632,1632,1632,1632,1632,1639,1639,1639,1647,1647,1655,1655,1655,1655,1663,1663,1663,1663,1671,1671,1680,1688,1688,1688,1688,1688,1688,1696,1696,1696,1705,1713,1713,1722,1722,1722,1722,1731,1731,1731,1731,1731,1739,1739,1748,1757,1757,1757,1757,1766,1766,1766,1766,1776,1776,1785,1785,1794,1794,1794,1804,1804,1813,1813,1813,1823,1823,1823,1833,1833,1833,1833,1833,1843,1843,1843,1843,1853,1863,1863,1863,1863,1873,1873,1873,0,0,0,0,0,0,0,0,0,0,1101,1101,1097,1094,1094,1094,1090,1090,1087,1087,1087,1087,1087,1090,1090,1090,1094,1097,1097,1101,1101,1101,1101,1101,1101,1115,1115,0,1757,1757,1748,1748,1748,1739,1739,1739,1731,1731,1731,1731,1731,1731,1722,1722,1722,1713,1713,1705,1696,1696,1696,1696,1696,1696,1688,1688,1688,1680,1680,1671,1671,1663,1663,1663,1663,1655,1655,1655,1655,1655,1655,1655,1647,1647,1647,1639,1639,1639,1632,1632,1632,1632,1632,1624,1624,1624,1624,1616,1616,1609,1609,1601,1601,1601,1601,1601,1594,1594,1586,1586,1579,1579,1579,1579,1579,1572,1572,1572,1572,1572,1564,1564,1557,1557,1550,1550,1550,1550,1543,1543,1543,1543,0,0,0,0,0,0,0,0,915,913,910,910,908,908,906,906,906,906,903,901,898,898,898,901,901,903,903,906,908,910,913,915,918,918,918,0,0,0,0,1452,1445,1445,1445,1445,1445,1445,1445,1439,1439,1439,1433,1433,1433,1427,1427,1427,1421,1421,1421,1421,1421,1415,1415,1415,1410,1410,1404,1398,1398,1398,1392,1392,1392,1392,1392,1387,1387,1381,1381,1381,1376,1376,1376,1376,1370,1370,1370,1370,1365,1365,1365,1359,1359,1354,1354,1354,1354,1354,1349,1349,1349,1349,1343,1343,1338,1338,1333,1333,1333,1328,1328,1328,1328,1322,1317,1317,1317,1312,1312,1312,1312,1307,1307,1307,1307,1307,1302,1297,1297,1292,1292,1292,1292,1288,1288,1288,1288,1283,1283,1283,1278,1278,1273,1268,1268,1268,1268,1268,1264,1264,1264,1264,1259,1259,1259,1255,1255,1255,1255,1255,1250,1250,1250,1241,1241,1236,1236,1236,1236,1236,1236,1236,1232,1232,1227,1227,1223,1223,1223,1219,1219,1219,1214,1214,1214,1214,1210,1210,1206,1206,1202,1202,1202,1202,1202,1202,1197,1197,1193,1193,1193,1189,1189,1189,1189,1185,1185,1185,1181,1181,1181,1181,1177,1177,1173,1169,1169,1169,1169,1169,1165,1165,1165,1165,1165,1165,1161,1157,1157,1153,1153,1153,1149,1149,1149,1149,1149,1149,1145,1145,1145,0,0,0,0,0,0,0,0,0,0,0,0,0,0,0,0,0,0,0,0,0,0,0,0,0,0,0,0,0
0,0,0,0,0,0,0,0,0,0,0,0,0,0,1671,1663,1663,1663,1663,1663,1663,1663,1663,1663,1655,1655,1655,1663,1663,1663,1663,1663,1663,1663,1663,1663,1655,1655,1655,1655,1655,1655,1655,1655,1655,1655,1655,1655,1655,1655,1655,1655,1655,1655,1655,1655,1655,1655,1655,1655,1647,1647,1647,1647,1647,1639,1639,1639,1647,1639,1639,1639,1639,1639,1639,1639,1639,1639,1639,1639,1639,1639,1639,1639,1639,1632,1632,1639,1632,1632,1632,1632,1632,1632,1632,1632,1632,1632,1632,1632,1632,1632,1632,1632,1632,1632,1632,1632,1632,1632,1632,1632,1624,1624,1624,1624,1624,1624,1624,1624,1624,1632,1632,1639,1639,1639,1639,1647,1904,1883,1873,1863,1863,1863,1863,1853,1843,1823,1794,1785,1776,1766,1766,1766,1757,1748,1748,1731,1705,1671,1647,1639,1639,1639,1632,1632,1632,1632,1639,1639,1639,1647,1647,1655,1655,1655,1663,1663,1663,1663,1663,1671,1680,1680,1688,1688,1688,1688,1688,1688,1696,1696,1705,1713,1713,1713,1722,1722,1722,1722,1731,1731,1731,1731,1731,1739,1739,1739,1748,1757,1757,1766,1766,1766,1766,1776,1776,1785,1785,1794,1794,1794,1794,1804,1804,1813,1813,1813,1823,1823,1833,1833,1833,1833,1833,1833,1843,1843,1843,1843,1853,1863,1863,1863,1863,1873,1873,1873,1873,1873,0,0,0,0,0,0,0,0,1105,1101,1101,1097,1094,1094,1090,1090,1090,1087,1087,1087,1087,1090,1090,1090,1094,1097,1097,1101,1101,1101,1101,1101,1101,1115,0,0,1766,1757,1757,1748,1748,1739,1739,1739,1731,1731,1731,1731,1731,1731,1722,1722,1722,1713,1713,1705,1696,1696,1696,1696,1696,1696,1688,1688,1688,1680,1680,1671,1671,1663,1663,1663,1663,1655,1655,1655,1655,1655,1655,1655,1655,1655,1647,1647,1639,1639,1639,1639,1632,1632,1632,1632,1632,1632,1624,1624,1616,1609,1609,1601,1601,1601,1601,1601,1594,1594,1586,1586,1579,1579,1579,1579,1579,1572,1572,1572,1572,1572,1572,1564,1564,1557,1557,1550,1550,1550,1543,1543,1543,0,0,0,0,0,0,0,0,0,915,913,910,910,910,908,908,906,906,906,903,901,898,898,898,901,901,903,903,906,908,910,913,915,918,918,0,0,0,0,0,1452,1452,1452,1452,1445,1445,1445,1445,1445,1439,1439,1433,1433,1433,1427,1427,1427,1421,1421,1421,1421,1421,1415,1415,1415,1415,1410,1410,1398,1398,1398,1392,1392,1392,1392,1392,1387,1387,1387,1381,1381,1381,1376,1376,1376,1376,1370,1370,1370,1365,1365,1365,1359,1359,1354,1354,1354,1354,1354,1349,1349,1349,1349,1349,1343,1343,1338,1338,1333,1333,1328,1328,1328,1328,1322,1317,1317,1317,1312,1312,1312,1312,1307,1307,1307,1307,1307,1307,1302,1302,1297,1292,1292,1292,1292,1288,1288,1288,1283,1283,1283,1278,1278,1273,1273,1268,1268,1268,1268,1264,1264,1264,1264,1259,1259,1259,1259,1259,1255,1255,1255,1250,1250,1250,1245,1241,1241,1236,1236,1236,1236,1236,1236,1232,1232,1232,1227,1227,1223,1223,1219,1219,1219,1214,1214,1214,1214,1210,1210,1206,1206,1206,1202,1202,1202,1202,1202,1197,1197,1197,1197,1193,1193,1189,1189,1189,1185,1185,1185,1181,1181,1181,1181,1177,1177,1173,1173,1173,1169,1169,1169,1169,1165,1165,1165,1165,1165,1161,1161,1157,1153,1153,1153,1149,1149,1149,1149,1149,1149,1149,1145,1145,0,0,0,0,0,0,0,0,0,0,0,0,0,0,0,0,0,0,0,0,0,0,0,0,0,0,0,0,0
0,0,0,0,0,0,0,0,0,0,0,0,0,0,1671,1671,1663,1663,1663,1663,1663,1663,1663,1663,1663,1663,1655,1655,1663,1663,1663,1663,1663,1663,1663,1663,1655,1655,1655,1655,1655,1655,1655,1655,1655,1663,1663,1663,1655,1655,1655,1655,1655,1655,1655,1655,1655,1655,1655,1655,1655,1647,1647,1647,1647,1647,1647,1647,1647,1647,1647,1639,1639,1647,1639,1639,1639,1647,1647,1639,1639,1639,1639,1639,1639,1639,1639,1639,1639,1639,1639,1639,1639,1639,1632,1632,1632,1632,1632,1632,1632,1632,1632,1632,1632,1632,1632,1632,1632,1632,1632,1632,1632,1632,1624,1624,1624,1624,1624,1624,1632,1632,1632,1639,1639,1647,1647,1655,1655,1873,1853,1853,1853,1853,1843,1833,1833,1813,1794,1785,1766,1766,1766,1766,1757,1748,1739,1731,1713,1671,1647,1639,1639,1639,1632,1632,1632,1632,1639,1647,1647,1647,1647,1655,1655,1655,1663,1663,1663,1663,1663,1671,1680,1680,1688,1688,1688,1688,1688,1696,1696,1696,1705,1713,1722,1722,1722,1722,1722,1722,1731,1731,1731,1731,1731,1739,1739,1739,1748,1757,1757,1766,1766,1766,1776,1776,1785,1785,1785,1794,1794,1794,1794,1804,1804,1813,1813,1813,1823,1833,1833,1833,1833,1833,1833,1833,1843,1843,1843,1843,1853,1863,1863,1863,1863,1873,1873,1873,1873,1873,0,0,0,0,0,0,0,0,1105,1101,1101,1097,1094,1094,1090,1090,1090,1087,1087,1090,1090,1090,1090,1094,1094,1097,1101,1101,1105,1105,1105,1105,1112,1115,1115,0,0,1766,1757,1757,1748,1739,1739,1739,1731,1731,1731,1731,1731,1731,1722,1722,1722,1713,1713,1705,1696,1696,1696,1696,1696,1696,1696,1688,1688,1680,1680,1680,1671,1663,1663,1663,1663,1663,1655,1655,1655,1655,1655,1663,1655,1655,1655,1647,1647,1639,1639,1639,1632,1632,1632,1632,1632,1632,1624,1624,1616,1609,1609,1609,1609,1601,1601,1601,1594,1594,1586,1586,1579,1579,1579,1579,1579,1572,1572,1572,1572,1572,1572,1564,1564,1557,1557,1557,1550,1550,1543,1543,1543,0,0,0,0,0,0,0,0,0,915,913,913,910,910,908,908,906,906,906,903,901,898,898,898,901,901,903,903,906,908,910,913,915,918,918,918,0,0,0,0,1452,1452,1452,1452,1452,1445,1445,1445,1445,1439,1439,1433,1433,1433,1433,1427,1421,1421,1421,1421,1421,1421,1415,1415,1415,1415,1415,1410,1404,1404,1398,1398,1392,1392,1392,1392,1392,1392,1387,1387,1387,1381,1381,1381,1376,1376,1376,1370,1370,1370,1365,1365,1359,1359,1354,1354,1354,1354,1354,1354,1349,1349,1349,1349,1343,1343,1338,1338,1333,1333,1333,1328,1328,1328,1322,1322,1317,1317,1312,1312,1312,1312,1307,1307,1307,1307,1307,1307,1302,1302,1302,1297,1292,1292,1292,1288,1288,1288,1283,1283,1283,1278,1278,1273,1273,1273,1268,1268,1268,1264,1264,1264,1264,1264,1264,1259,1259,1259,1259,1255,1255,1255,1250,1250,1245,1241,1241,1236,1236,1236,1236,1236,1236,1232,1232,1232,1227,1227,1223,1223,1219,1219,1219,1219,1214,1214,1214,1210,1210,1210,1206,1206,1202,1202,1202,1202,1202,1197,1197,1197,1197,1197,1193,1189,1189,1189,1189,1185,1185,1185,1181,1181,1181,1181,1177,1177,1173,1173,1173,1169,1169,1169,1169,1165,1165,1165,1165,1161,1161,1157,1157,1153,1153,1153,1149,1149,1149,1149,1149,1149,1145,1145,0,0,0,0,0,0,0,0,0,0,0,0,0,0,0,0,0,0,0,0,0,0,0,0,0,0,0,0,0
0,0,0,0,0,0,0,0,0,0,0,0,0,0,1671,1671,1671,1671,1671,1663,1663,1663,1663,1663,1663,1663,1655,1655,1663,1663,1663,1663,1663,1663,1663,1663,1663,1655,1655,1655,1655,1655,1655,1655,1655,1663,1663,1663,1655,1655,1655,1655,1655,1655,1655,1655,1655,1655,1655,1655,1655,1655,1647,1647,1647,1647,1647,1647,1647,1647,1647,1647,1647,1647,1647,1639,1639,1647,1647,1647,1647,1639,1639,1639,1639,1639,1639,1639,1639,1639,1639,1639,1639,1639,1639,1639,1632,1632,1632,1632,1632,1632,1632,1632,1632,1632,1632,1632,1632,1632,1632,1632,1632,1632,1632,1624,1624,1624,1624,1632,1632,1632,1632,1639,1639,1647,1647,1655,1655,1663,1843,1843,1843,1843,1843,1833,1823,1804,1785,1776,1766,1766,1766,1766,1757,1748,1739,1731,1713,1671,1655,1647,1647,1639,1639,1639,1639,1639,1639,1647,1647,1647,1647,1655,1655,1655,1663,1663,1663,1663,1671,1671,1680,1688,1688,1688,1688,1688,1688,1696,1696,1696,1713,1713,1722,1722,1722,1722,1722,1722,1731,1731,1731,1731,1731,1739,1748,1748,1757,1757,1766,1766,1766,1766,1776,1776,1785,1785,1785,1794,1794,1794,1804,1804,1804,1813,1813,1813,1823,1823,1833,1833,1833,1833,1833,1833,1843,1843,1843,1843,1853,1863,1873,1873,1873,1873,1873,1873,1873,1873,0,0,0,0,0,0,0,0,1105,1101,1101,1097,1094,1094,1090,1090,1090,1090,1090,1090,1090,1090,1090,1094,1094,1097,1101,1105,1105,1105,1105,1108,1112,1112,1112,0,1766,1766,1757,1757,1748,1748,1748,1739,1731,1731,1731,1731,1731,1731,1731,1731,1722,1713,1713,1713,1696,1696,1696,1696,1696,1696,1696,1688,1688,1680,1680,1680,1671,1671,1663,1663,1663,1663,1663,1655,1655,1655,1655,1663,1655,1655,1655,1647,1639,1639,1639,1639,1632,1632,1632,1632,1632,1632,1624,1624,1609,1609,1609,1609,1609,1601,1601,1601,1594,1594,1586,1586,1579,1579,1579,1579,1579,1572,1572,1572,1572,1572,1572,1564,1564,1564,1557,1557,1550,1550,1550,1543,1543,0,0,0,0,0,0,0,0,0,918,915,913,913,910,908,908,906,906,906,903,901,898,898,898,901,901,903,906,908,908,910,913,918,918,918,918,0,0,0,0,0,1452,1452,1452,1452,1445,1445,1445,1445,1439,1439,1439,1433,1433,1433,1427,1421,1421,1421,1421,1421,1421,1421,1415,1415,1415,1415,1410,1410,1404,1398,1398,1398,1392,1392,1392,1392,1392,1387,1387,1387,1381,1381,1381,1376,1376,1376,1370,1370,1370,1365,1365,1359,1359,1354,1354,1354,1354,1354,1354,1349,1349,1349,1349,1343,1343,1338,1338,1333,1333,1333,1328,1328,1328,1328,1322,1322,1317,1317,1312,1312,1312,1312,1312,1307,1307,1307,1307,1302,1302,1302,1297,1297,1292,1292,1292,1288,1288,1288,1288,1283,1283,1278,1278,1273,1273,1273,1268,1268,1268,1268,1268,1264,1264,1264,1264,1259,1259,1259,1255,1255,1255,1250,1250,1245,1245,1241,1236,1236,1236,1236,1236,1236,1236,1232,1232,1227,1227,1223,1223,1219,1219,1219,1219,1214,1214,1214,1210,1210,1210,1206,1206,1206,1202,1202,1202,1202,1197,1197,1197,1197,1197,1193,1193,1189,1189,1185,1185,1185,1185,1181,1181,1181,1181,1177,1177,1173,1173,1173,1169,1169,1169,1169,1169,1165,1165,1165,1165,1161,1161,1157,1153,1153,1153,1153,1153,1149,1149,1149,1149,1145,1145,0,0,0,0,0,0,0,0,0,0,0,0,0,0,0,0,0,0,0,0,0,0,0,0,0,0,0,0,0
0,0,0,0,0,0,0,0,0,0,0,0,0,0,1671,1671,1671,1671,1663,1663,1663,1663,1663,1663,1663,1663,1663,1663,1663,1663,1663,1663,1663,1663,1663,1663,1663,1655,1655,1655,1655,1663,1655,1655,1663,1663,1663,1663,1663,1655,1655,1655,1655,1655,1655,1655,1655,1655,1655,1655,1655,1655,1655,1655,1647,1647,1647,1647,1655,1647,1647,1647,1647,1647,1647,1647,1647,1647,1647,1647,1647,1639,1639,1639,1639,1639,1639,1639,1639,1639,1639,1647,1647,1639,1639,1639,1639,1632,1632,1632,1632,1632,1632,1632,1632,1632,1632,1632,1632,1632,1632,1632,1632,1632,1632,1624,1624,1624,1624,1632,1632,1632,1632,1639,1639,1647,1647,1655,1663,1663,1843,1833,1833,1833,1833,1823,1823,1804,1785,1776,1776,1766,1766,1766,1757,1757,1748,1731,1713,1671,1655,1647,1647,1647,1639,1639,1639,1639,1647,1647,1647,1647,1655,1655,1655,1655,1663,1663,1663,1663,1671,1671,1680,1688,1688,1688,1688,1688,1688,1696,1696,1705,1713,1713,1722,1722,1722,1722,1722,1722,1731,1731,1731,1731,1731,1748,1748,1748,1757,1757,1766,1766,1766,1776,1776,1785,1785,1794,1794,1794,1794,1794,1804,1804,1804,1804,1813,1813,1813,1823,1833,1833,1833,1833,1833,1833,1843,1843,1843,1843,1853,1863,1873,1873,1873,1873,1873,1883,1873,1873,0,0,0,0,0,0,0,1108,1105,1101,1101,1097,1094,1094,1090,1090,1090,1090,1090,1090,1090,1090,1094,1094,1097,1101,1101,1105,1105,1105,1105,1108,1112,1112,0,0,1766,1766,1757,1757,1748,1748,1748,1748,1731,1731,1731,1731,1731,1731,1731,1731,1722,1722,1722,1713,1696,1696,1696,1696,1696,1696,1696,1688,1688,1688,1680,1680,1680,1671,1663,1663,1663,1663,1663,1655,1655,1655,1655,1663,1663,1663,1663,1655,1639,1639,1639,1639,1639,1632,1632,1632,1632,1632,1624,1624,1609,1609,1609,1609,1609,1609,1601,1601,1594,1594,1594,1586,1586,1579,1579,1579,1579,1572,1572,1572,1572,1572,1572,1564,1564,1564,1564,1557,1557,1550,1543,1543,0,0,0,0,0,0,0,0,0,0,918,915,915,913,910,908,908,908,906,906,903,903,901,901,901,901,903,906,906,908,910,915,915,918,918,918,918,0,0,0,0,0,1452,1452,1452,1452,1452,1445,1445,1445,1445,1439,1439,1439,1433,1433,1427,1421,1421,1421,1421,1421,1421,1421,1415,1415,1415,1415,1410,1410,1404,1398,1398,1398,1398,1398,1392,1392,1392,1392,1392,1387,1387,1381,1381,1376,1376,1376,1370,1370,1370,1365,1365,1365,1359,1359,1359,1354,1354,1354,1354,1349,1349,1349,1349,1349,1343,1343,1338,1333,1333,1333,1328,1328,1328,1328,1322,1322,1317,1317,1312,1312,1312,1312,1312,1307,1307,1307,1307,1307,1302,1302,1302,1297,1297,1292,1292,1292,1288,1288,1288,1283,1283,1278,1278,1273,1273,1273,1273,1273,1268,1268,1268,1268,1268,1268,1264,1259,1259,1255,1255,1255,1255,1250,1250,1245,1245,1241,1241,1241,1236,1236,1236,1236,1236,1232,1232,1232,1227,1223,1223,1223,1219,1219,1219,1219,1214,1214,1214,1210,1210,1210,1210,1206,1202,1202,1202,1202,1202,1197,1197,1197,1197,1193,1193,1189,1189,1185,1185,1185,1185,1185,1181,1181,1181,1177,1177,1177,1173,1173,1169,1169,1169,1169,1169,1165,1165,1165,1165,1165,1161,1161,1157,1153,1153,1153,1153,1153,1149,1149,1149,1149,1149,0,0,0,0,0,0,0,0,0,0,0,0,0,0,0,0,0,0,0,0,0,0,0,0,0,0,0,0,0
0,0,0,0,0,0,0,0,0,0,0,0,0,0,1671,1671,1671,1671,1663,1663,1663,1663,1663,1663,1663,1663,1663,1663,1663,1663,1663,1663,1663,1663,1663,1663,1663,1663,1663,1663,1655,1655,1655,1655,1663,1663,1663,1663,1663,1663,1663,1663,1655,1655,1655,1655,1655,1655,1655,1655,1655,1655,1655,1655,1655,1655,1655,1655,1655,1655,1655,1655,1647,1647,1647,1647,1647,1647,1647,1647,1647,1647,1647,1647,1639,1639,1639,1639,1639,1647,1647,1647,1647,1639,1639,1639,1639,1639,1632,1632,1632,1632,1632,1632,1632,1632,1632,1632,1632,1632,1632,1632,1632,1632,1632,1632,1632,1632,1632,1632,1632,1632,1632,1639,1639,1647,1647,1655,1663,1663,1843,1823,1823,1823,1823,1813,1813,1804,1794,1785,1776,1766,1766,1766,1757,1757,1748,1739,1722,1663,1663,1647,1647,1647,1647,1639,1639,1639,1639,1647,1647,1647,1655,1655,1655,1655,1663,1663,1663,1663,1671,1671,1680,1688,1688,1688,1696,1696,1696,1696,1696,1705,1713,1722,1722,1722,1722,1722,1722,1722,1731,1731,1731,1731,1739,1748,1748,1748,1757,1757,1766,1766,1766,1776,1776,1785,1794,1794,1794,1794,1794,1794,1804,1804,1804,1804,1813,1813,1813,1823,1833,1833,1833,1843,1833,1833,1843,1843,1853,1853,1863,1863,1873,1873,1873,1873,1873,1873,1873,1873,0,0,0,0,0,0,0,1108,1105,1105,1101,1101,1094,1094,1090,1090,1090,1090,1090,1090,1090,1090,1094,1097,1101,1101,1105,1105,1105,1105,1105,1112,1112,0,0,0,0,1776,1766,1757,1757,1757,1757,1748,1748,1731,1731,1731,1731,1731,1731,1731,1731,1722,1722,1713,1696,1696,1696,1696,1696,1696,1696,1688,1688,1688,1688,1680,1680,1671,1671,1671,1663,1663,1663,1663,1655,1655,1655,1663,1663,1663,1663,1655,1647,1639,1639,1639,1639,1639,1632,1632,1632,1632,1624,1624,1616,1609,1609,1609,1609,1609,1601,1601,1601,1601,1594,1594,1586,1586,1586,1586,1579,1579,1572,1572,1572,1572,1572,1572,1572,1564,1564,1564,1557,1550,1543,1543,0,0,0,0,0,0,0,0,0,918,918,915,915,913,910,908,908,908,906,906,903,903,901,901,901,901,903,906,908,910,913,915,918,918,918,918,918,0,0,0,0,0,0,1458,1452,1452,1452,1445,1445,1445,1445,1439,1439,1439,1439,1433,1433,1427,1421,1421,1421,1421,1421,1421,1415,1415,1415,1415,1410,1410,1404,1398,1398,1398,1398,1398,1392,1392,1392,1392,1392,1387,1387,1387,1381,1381,1376,1376,1370,1370,1370,1370,1365,1365,1359,1359,1359,1354,1354,1354,1354,1354,1354,1349,1349,1349,1343,1343,1338,1333,1333,1333,1333,1333,1328,1328,1328,1322,1322,1317,1317,1312,1312,1312,1312,1312,1312,1307,1307,1307,1307,1302,1302,1297,1297,1292,1292,1292,1288,1288,1288,1283,1283,1283,1278,1278,1273,1273,1273,1273,1273,1268,1268,1268,1268,1268,1264,1259,1259,1255,1255,1255,1255,1255,1250,1245,1245,1241,1241,1241,1236,1236,1236,1236,1236,1232,1232,1232,1227,1227,1223,1223,1223,1219,1219,1219,1214,1214,1214,1214,1214,1210,1210,1210,1206,1202,1202,1202,1202,1202,1202,1197,1197,1193,1193,1189,1189,1185,1185,1185,1185,1185,1181,1181,1181,1177,1177,1177,1173,1173,1173,1169,1169,1169,1169,1165,1165,1165,1165,1165,1165,1161,1157,1153,1153,1153,1153,1153,1153,1153,1149,1149,1149,0,0,0,0,0,0,0,0,0,0,0,0,0,0,0,0,0,0,0,0,0,0,0,0,0,0,0,0,0
0,0,0,0,0,0,0,0,0,0,0,0,0,0,1663,1663,1671,1671,1671,1680,1663,1663,1663,1663,1663,1663,1663,1663,1663,1663,1663,1663,1663,1663,1663,1663,1663,1663,1663,1663,1655,1655,1663,1663,1663,1663,1663,1663,1663,1663,1663,1663,1663,1663,1655,1655,1655,1655,1655,1655,1655,1655,1655,1655,1655,1655,1655,1655,1655,1655,1655,1655,1655,1647,1647,1647,1647,1655,1655,1655,1655,1647,1647,1647,1647,1639,1639,1647,1647,1647,1647,1647,1647,1639,1639,1639,1639,1632,1632,1632,1632,1632,1632,1632,1632,1632,1639,1639,1639,1639,1632,1632,1632,1632,1632,1632,1632,1632,1632,1632,1632,1632,1639,1639,1647,1647,1655,1663,1663,1663,1843,1823,1823,1823,1813,1813,1804,1794,1794,1785,1776,1766,1766,1766,1766,1757,1757,1739,1731,1663,1663,1655,1655,1647,1647,1639,1639,1639,1639,1647,1647,1647,1655,1655,1655,1655,1663,1663,1663,1663,1671,1671,1680,1688,1688,1688,1696,1696,1696,1696,1696,1713,1713,1722,1722,1722,1722,1722,1722,1731,1731,1731,1731,1739,1739,1748,1757,1757,1757,1757,1766,1766,1766,1776,1785,1785,1794,1794,1794,1794,1794,1804,1804,1804,1804,1813,1813,1813,1823,1823,1833,1833,1833,1843,1843,1843,1843,1843,1853,1853,1863,1873,1873,1873,1873,1863,1863,1873,1883,0,0,0,0,0,0,0,0,1105,1105,1105,1101,1101,1094,1094,1090,1090,1090,1090,1090,1090,1090,1094,1094,1097,1101,1101,1105,1108,1108,1108,1112,1112,1112,1112,0,0,0,1776,1766,1757,1757,1757,1757,1757,1748,1731,1731,1731,1731,1731,1731,1731,1731,1722,1722,1713,1705,1705,1696,1696,1696,1696,1696,1696,1688,1688,1688,1680,1680,1671,1671,1671,1663,1663,1663,1663,1655,1655,1655,1663,1663,1663,1663,1663,1655,1647,1639,1639,1639,1639,1632,1632,1632,1632,1632,1624,1624,1616,1609,1609,1609,1609,1609,1601,1601,1601,1601,1594,1594,1594,1586,1586,1586,1579,1572,1572,1572,1572,1572,1572,1572,1564,1564,1564,1557,1550,1550,1550,0,0,0,0,0,0,0,0,918,915,915,915,915,913,910,908,908,908,906,906,906,903,903,901,901,903,906,908,910,913,915,915,918,918,918,918,918,0,0,0,0,0,1464,1458,1458,1452,1452,1445,1445,1445,1445,1439,1439,1439,1439,1433,1433,1427,1427,1427,1421,1421,1421,1421,1421,1415,1415,1415,1410,1404,1404,1398,1398,1398,1398,1398,1392,1392,1392,1392,1392,1392,1387,1387,1387,1381,1376,1376,1370,1370,1370,1370,1365,1365,1365,1359,1359,1359,1354,1354,1354,1354,1354,1349,1349,1349,1349,1343,1338,1338,1333,1333,1333,1333,1328,1328,1328,1328,1322,1317,1317,1312,1312,1312,1312,1312,1312,1307,1307,1307,1307,1307,1302,1297,1297,1292,1292,1292,1288,1288,1288,1288,1283,1283,1278,1278,1273,1273,1273,1273,1273,1273,1268,1268,1268,1268,1264,1264,1259,1255,1255,1255,1255,1255,1250,1250,1245,1245,1241,1241,1236,1236,1236,1236,1236,1232,1232,1232,1227,1227,1223,1223,1223,1223,1219,1219,1219,1219,1214,1214,1214,1214,1210,1210,1210,1206,1202,1202,1202,1202,1202,1197,1197,1193,1193,1193,1189,1189,1185,1185,1185,1185,1185,1181,1181,1181,1177,1177,1177,1177,1173,1173,1169,1169,1169,1169,1169,1165,1165,1165,1165,1161,1157,1157,1157,1153,1153,1153,1153,1153,1149,1149,1149,0,0,0,0,0,0,0,0,0,0,0,0,0,0,0,0,0,0,0,0,0,0,0,0,0,0,0,0,0
0,0,0,0,0,0,0,0,0,0,0,0,0,0,1663,1663,1671,1671,1671,1671,1663,1663,1663,1663,1663,1663,1663,1663,1663,1663,1663,1663,1663,1663,1663,1663,1663,1663,1663,1663,1663,1663,1663,1663,1663,1663,1663,1663,1663,1663,1663,1663,1663,1663,1663,1663,1663,1663,1655,1655,1655,1655,1655,1655,1655,1655,1655,1655,1655,1655,1655,1655,1655,1647,1647,1647,1655,1655,1655,1655,1655,1655,1655,1647,1647,1647,1647,1647,1647,1647,1647,1647,1647,1639,1639,1639,1639,1632,1632,1632,1632,1639,1639,1639,1632,1632,1639,1639,1639,1639,1639,1632,1632,1632,1632,1632,1632,1632,1632,1632,1632,1632,1639,1639,1647,1655,1655,1655,1655,1663,1823,1813,1813,1813,1813,1804,1804,1794,1794,1785,1776,1776,1766,1766,1766,1766,1757,1748,1731,1731,1663,1655,1655,1655,1647,1647,1639,1639,1647,1647,1655,1655,1655,1655,1655,1655,1663,1663,1663,1663,1671,1680,1688,1688,1688,1688,1696,1696,1696,1696,1705,1713,1713,1722,1722,1722,1731,1731,1731,1731,1731,1731,1739,1739,1748,1757,1757,1757,1757,1766,1766,1766,1776,1776,1785,1794,1794,1794,1794,1794,1794,1794,1804,1804,1804,1813,1813,1813,1823,1833,1833,1833,1843,1843,1843,1843,1843,1853,1863,1863,1863,1873,1873,1873,1873,1863,1863,1873,0,0,0,0,0,0,0,0,0,1105,1101,1101,1097,1097,1094,1094,1090,1090,1090,1090,1090,1090,1090,1094,1097,1097,1101,1101,1105,1108,1108,1108,1112,1112,1112,0,0,0,0,1776,1766,1766,1766,1757,1757,1757,1748,1739,1739,1739,1739,1739,1731,1731,1731,1731,1722,1722,1705,1705,1705,1705,1696,1696,1696,1696,1688,1688,1688,1680,1680,1680,1680,1680,1671,1671,1663,1663,1663,1655,1655,1663,1663,1663,1663,1663,1655,1647,1647,1639,1639,1639,1632,1632,1632,1632,1632,1624,1624,1616,1616,1609,1609,1609,1609,1601,1601,1601,1601,1594,1594,1594,1594,1594,1586,1579,1579,1579,1579,1572,1572,1572,1572,1572,1564,1564,1550,1550,1543,1543,0,0,0,0,0,0,0,0,918,915,915,915,915,913,910,910,908,908,906,906,906,906,903,903,903,903,906,908,910,913,915,918,918,918,918,918,918,920,0,0,0,0,1464,1464,1458,1458,1452,1452,1445,1445,1445,1445,1439,1439,1439,1433,1433,1427,1427,1427,1427,1421,1421,1421,1421,1415,1415,1415,1410,1404,1404,1398,1398,1398,1398,1398,1392,1392,1392,1392,1392,1392,1387,1387,1381,1381,1376,1376,1370,1370,1370,1370,1370,1365,1365,1359,1359,1359,1354,1354,1354,1354,1354,1349,1349,1349,1349,1343,1338,1338,1333,1333,1333,1333,1328,1328,1328,1328,1322,1317,1317,1317,1312,1312,1312,1312,1312,1307,1307,1307,1307,1307,1302,1302,1297,1292,1292,1288,1288,1288,1288,1288,1283,1283,1278,1278,1273,1273,1273,1273,1273,1273,1273,1273,1268,1268,1264,1264,1259,1259,1255,1255,1255,1255,1255,1250,1250,1250,1245,1241,1236,1236,1236,1236,1232,1232,1232,1232,1227,1227,1223,1223,1223,1223,1219,1219,1219,1219,1214,1214,1214,1214,1214,1210,1210,1206,1202,1202,1202,1202,1202,1197,1197,1193,1193,1193,1189,1189,1189,1185,1185,1185,1185,1181,1181,1181,1181,1181,1177,1177,1173,1173,1173,1169,1169,1169,1169,1169,1169,1169,1165,1165,1161,1157,1157,1157,1153,1153,1153,1153,1153,1149,1149,0,0,0,0,0,0,0,0,0,0,0,0,0,0,0,0,0,0,0,0,0,0,0,0,0,0,0,0,0
0,0,0,0,0,0,0,0,0,0,0,0,0,0,1671,1671,1671,1671,1671,1671,1663,1663,1663,1663,1663,1671,1671,1671,1671,1671,1671,1671,1671,1671,1671,1671,1663,1663,1671,1663,1663,1663,1663,1663,1663,1663,1663,1663,1663,1663,1663,1663,1663,1663,1663,1663,1663,1663,1655,1655,1655,1655,1655,1655,1655,1655,1655,1655,1655,1655,1655,1655,1655,1655,1655,1655,1655,1655,1655,1655,1655,1655,1655,1647,1647,1647,1647,1647,1647,1647,1647,1655,1647,1647,1647,1639,1639,1632,1632,1632,1639,1639,1639,1639,1639,1639,1639,1639,1639,1639,1639,1632,1632,1632,1632,1632,1632,1632,1632,1632,1632,1632,1632,1639,1647,1647,1655,1655,1655,1663,1823,1804,1804,1804,1804,1804,1804,1794,1794,1785,1776,1776,1766,1766,1766,1766,1757,1757,1731,1731,1663,1663,1655,1655,1647,1647,1647,1647,1647,1655,1655,1655,1655,1655,1655,1663,1663,1663,1671,1671,1671,1680,1688,1688,1688,1696,1696,1696,1696,1696,1705,1713,1713,1713,1722,1722,1731,1731,1731,1731,1731,1731,1739,1739,1748,1757,1757,1757,1757,1766,1766,1776,1776,1785,1785,1794,1794,1794,1794,1794,1794,1794,1804,1804,1813,1813,1823,1823,1823,1833,1833,1843,1843,1843,1843,1843,1853,1863,1863,1863,1873,1873,1873,1873,1863,1863,1863,1873,0,0,0,0,0,0,0,0,1105,1105,1101,1101,1097,1097,1094,1094,1090,1090,1090,1090,1090,1090,1090,1094,1097,1101,1101,1105,1105,1108,1112,1112,1112,1115,1115,1115,0,0,0,1776,1766,1766,1766,1757,1757,1757,1748,1739,1739,1739,1739,1739,1731,1731,1731,1722,1722,1722,1713,1713,1713,1705,1705,1696,1696,1696,1688,1688,1688,1688,1688,1680,1680,1680,1671,1671,1663,1663,1663,1663,1663,1663,1663,1663,1663,1663,1663,1655,1647,1647,1639,1639,1639,1632,1632,1632,1632,1624,1624,1616,1616,1609,1609,1609,1609,1609,1609,1601,1601,1601,1601,1601,1594,1594,1594,1586,1579,1579,1579,1579,1572,1572,1572,1572,1564,1564,1550,1543,1543,1543,0,0,0,0,0,0,0,0,918,915,915,915,915,913,913,910,908,908,906,906,906,906,903,903,903,906,908,910,913,913,915,918,918,920,920,920,920,920,0,0,0,0,1464,1464,1458,1458,1452,1452,1445,1445,1445,1445,1445,1439,1439,1433,1433,1433,1427,1427,1427,1427,1427,1421,1421,1421,1415,1415,1410,1404,1404,1398,1398,1398,1398,1398,1398,1392,1392,1392,1392,1392,1387,1387,1381,1381,1376,1376,1376,1370,1370,1370,1370,1365,1365,1359,1359,1359,1359,1354,1354,1354,1354,1354,1354,1349,1349,1343,1343,1338,1338,1333,1333,1333,1328,1328,1328,1328,1322,1317,1317,1317,1312,1312,1312,1312,1312,1312,1307,1307,1307,1307,1302,1302,1297,1292,1292,1288,1288,1288,1288,1288,1288,1283,1283,1278,1278,1273,1273,1273,1273,1273,1273,1273,1268,1268,1268,1264,1259,1259,1255,1255,1255,1255,1255,1255,1250,1250,1245,1241,1241,1236,1236,1236,1232,1232,1232,1232,1227,1227,1223,1223,1223,1223,1219,1219,1219,1219,1214,1214,1214,1214,1214,1210,1210,1206,1206,1202,1202,1202,1202,1197,1197,1193,1193,1193,1193,1189,1189,1189,1189,1185,1185,1185,1181,1181,1181,1181,1177,1177,1177,1177,1173,1173,1169,1169,1169,1165,1165,1165,1165,1165,1161,1161,1157,1157,1157,1153,1153,1153,1153,1149,1149,0,0,0,0,0,0,0,0,0,0,0,0,0,0,0,0,0,0,0,0,0,0,0,0,0,0,0,0,0
0,0,0,0,0,0,0,0,0,0,0,0,0,0,1671,1671,1680,1680,1671,1671,1671,1671,1671,1671,1671,1671,1671,1671,1671,1671,1671,1671,1671,1671,1671,1671,1671,1671,1671,1671,1663,1663,1663,1663,1663,1663,1663,1663,1663,1663,1663,1663,1663,1663,1663,1663,1663,1663,1663,1663,1655,1655,1655,1655,1655,1655,1655,1655,1655,1655,1663,1655,1655,1655,1655,1655,1655,1655,1655,1655,1655,1655,1655,1655,1655,1655,1647,1647,1647,1647,1655,1655,1647,1647,1647,1647,1647,1639,1639,1639,1639,1639,1639,1639,1639,1639,1639,1639,1639,1639,1639,1632,1632,1632,1632,1632,1632,1632,1632,1632,1632,1632,1632,1639,1647,1647,1655,1655,1655,1655,1813,1804,1794,1794,1794,1794,1794,1794,1794,1794,1785,1776,1776,1766,1766,1766,1757,1757,1757,1748,1713,1663,1655,1655,1655,1647,1647,1647,1647,1655,1655,1655,1655,1655,1663,1663,1663,1663,1671,1671,1680,1688,1688,1688,1688,1696,1696,1696,1696,1696,1705,1713,1713,1713,1722,1722,1731,1731,1731,1731,1731,1731,1739,1739,1748,1757,1757,1757,1766,1766,1766,1776,1776,1785,1785,1794,1794,1794,1794,1794,1794,1804,1804,1813,1813,1813,1823,1823,1823,1833,1833,1843,1843,1843,1843,1843,1853,1863,1873,1873,1873,1873,1873,1873,1863,1863,1863,1863,0,0,0,0,0,0,0,0,1101,1101,1101,1101,1097,1097,1097,1094,1090,1090,1090,1090,1090,1090,1094,1094,1097,1101,1101,1105,1105,1108,1112,1112,1112,1115,1115,1115,1115,0,1766,1766,1766,1766,1766,1757,1757,1757,1748,1748,1739,1739,1739,1739,1739,1731,1731,1722,1722,1722,1713,1713,1713,1705,1705,1696,1696,1696,1688,1688,1688,1688,1688,1688,1680,1680,1671,1671,1663,1663,1663,1663,1663,1663,1663,1663,1663,1663,1663,1655,1647,1647,1639,1639,1639,1632,1632,1632,1632,1624,1624,1624,1616,1609,1609,1609,1609,1609,1609,1609,1601,1601,1601,1601,1594,1594,1594,1586,1586,1579,1579,1579,1572,1572,1572,1572,1564,1564,1550,1543,1543,0,0,0,0,0,0,0,0,0,918,918,915,915,915,913,913,910,908,908,906,906,906,906,906,903,903,906,908,910,913,913,915,918,920,920,920,923,923,0,0,0,0,0,1464,1464,1458,1458,1458,1452,1452,1445,1445,1445,1445,1439,1439,1433,1433,1433,1433,1427,1427,1427,1427,1421,1421,1421,1415,1415,1410,1404,1404,1404,1398,1398,1398,1398,1398,1392,1392,1392,1392,1392,1387,1387,1381,1381,1376,1376,1376,1376,1370,1370,1370,1370,1370,1365,1365,1365,1365,1359,1359,1354,1354,1354,1354,1349,1349,1343,1343,1338,1338,1333,1333,1333,1333,1328,1328,1328,1322,1322,1317,1317,1317,1317,1312,1312,1312,1312,1307,1307,1307,1307,1302,1302,1297,1297,1292,1292,1292,1292,1288,1288,1288,1288,1283,1283,1278,1273,1273,1273,1273,1273,1273,1273,1268,1268,1268,1264,1259,1259,1255,1255,1255,1255,1255,1255,1255,1250,1250,1245,1241,1241,1236,1236,1232,1232,1232,1232,1227,1227,1223,1223,1223,1223,1223,1219,1219,1219,1219,1219,1214,1214,1214,1210,1210,1206,1206,1202,1202,1202,1202,1197,1197,1197,1193,1193,1193,1189,1189,1189,1189,1189,1185,1185,1185,1185,1181,1181,1181,1181,1177,1177,1177,1173,1169,1169,1169,1165,1165,1165,1165,1165,1165,1161,1161,1161,1157,1157,1153,1153,1153,1153,1153,0,0,0,0,0,0,0,0,0,0,0,0,0,0,0,0,0,0,0,0,0,0,0,0,0,0,0,0,0
0,0,0,0,0,0,0,0,0,0,0,0,0,0,1671,1671,1680,1680,1680,1680,1671,1671,1671,1671,1671,1671,1671,1671,1680,1671,1671,1671,1671,1671,1680,1680,1671,1671,1663,1663,1663,1663,1663,1663,1663,1663,1663,1663,1663,1663,1663,1663,1663,1663,1663,1663,1663,1663,1663,1663,1655,1655,1655,1655,1655,1655,1655,1655,1655,1655,1655,1655,1655,1655,1655,1655,1655,1655,1655,1655,1655,1655,1655,1655,1655,1655,1647,1647,1647,1647,1655,1655,1655,1655,1647,1647,1647,1639,1639,1639,1639,1647,1647,1647,1647,1647,1647,1647,1639,1639,1639,1639,1632,1632,1632,1632,1632,1632,1632,1632,1632,1632,1639,1639,1647,1647,1655,1655,1655,1655,1804,1794,1794,1794,1794,1794,1794,1794,1794,1794,1785,1785,1776,1766,1766,1766,1766,1757,1757,1748,1713,1663,1663,1663,1655,1655,1655,1655,1655,1655,1655,1655,1655,1655,1663,1663,1663,1671,1680,1680,1680,1688,1688,1688,1688,1696,1696,1705,1705,1705,1713,1713,1713,1722,1722,1722,1731,1731,1731,1731,1731,1731,1739,1748,1757,1757,1757,1757,1766,1766,1766,1776,1776,1785,1785,1794,1794,1794,1794,1794,1804,1804,1804,1813,1813,1813,1813,1813,1823,1833,1833,1843,1843,1843,1853,1853,1863,1863,1873,1873,1873,1873,1873,1873,1863,1863,1863,0,0,0,0,0,0,0,0,0,1097,1097,1101,1101,1097,1097,1094,1094,1090,1090,1090,1090,1090,1090,1094,1094,1097,1101,1101,1105,1105,1105,1108,1108,1112,1112,1115,1115,1115,0,0,1766,1766,1766,1757,1757,1757,1757,1757,1757,1748,1748,1748,1748,1739,1739,1739,1731,1722,1722,1713,1713,1713,1713,1705,1705,1696,1696,1688,1688,1688,1688,1688,1688,1680,1680,1680,1671,1663,1663,1663,1663,1663,1663,1663,1663,1663,1663,1663,1655,1655,1647,1647,1639,1639,1639,1632,1632,1632,1632,1624,1624,1616,1609,1609,1609,1609,1609,1609,1609,1601,1601,1601,1601,1601,1601,1594,1586,1586,1579,1579,1579,1572,1572,1572,1572,1564,1564,1564,1550,1550,0,0,0,0,0,0,0,0,0,918,918,915,915,915,913,913,910,910,908,908,908,906,906,906,906,906,906,908,910,913,915,918,920,920,923,923,923,923,0,0,0,0,1464,1464,1464,1458,1458,1458,1452,1452,1445,1445,1445,1445,1439,1439,1439,1433,1433,1433,1427,1427,1427,1427,1421,1421,1421,1415,1415,1410,1404,1404,1404,1404,1404,1398,1398,1398,1398,1392,1392,1392,1392,1387,1387,1381,1381,1376,1376,1376,1376,1376,1370,1370,1370,1370,1370,1370,1365,1365,1365,1359,1359,1354,1354,1354,1354,1349,1349,1343,1343,1338,1333,1333,1333,1333,1333,1328,1328,1328,1322,1322,1322,1317,1317,1312,1312,1312,1312,1312,1307,1307,1307,1302,1302,1297,1297,1292,1292,1292,1292,1292,1288,1288,1288,1288,1283,1278,1278,1273,1273,1273,1273,1273,1273,1268,1268,1268,1264,1259,1259,1255,1255,1255,1255,1255,1255,1255,1250,1250,1245,1241,1241,1236,1236,1232,1232,1232,1232,1227,1227,1227,1223,1223,1223,1223,1219,1219,1219,1219,1219,1214,1214,1214,1214,1210,1206,1206,1202,1202,1202,1202,1197,1197,1197,1193,1193,1193,1193,1189,1189,1189,1189,1185,1185,1185,1185,1181,1181,1181,1181,1177,1177,1177,1173,1169,1169,1169,1169,1169,1165,1165,1165,1165,1161,1161,1161,1161,1157,1157,1153,1153,1153,1153,0,0,0,0,0,0,0,0,0,0,0,0,0,0,0,0,0,0,0,0,0,0,0,0,0,0,0,0,0
0,0,0,0,0,0,0,0,0,0,0,0,0,0,1680,1680,1680,1688,1680,1680,1680,1688,1680,1671,1671,1671,1671,1671,1680,1671,1671,1671,1671,1671,1680,1680,1671,1671,1663,1663,1663,1663,1663,1663,1663,1663,1671,1671,1671,1663,1663,1663,1663,1663,1663,1663,1663,1663,1663,1663,1655,1655,1655,1655,1663,1663,1663,1663,1663,1655,1655,1655,1655,1655,1655,1655,1655,1655,1655,1655,1655,1655,1655,1655,1655,1655,1655,1655,1647,1647,1655,1655,1647,1647,1647,1647,1647,1639,1639,1639,1647,1647,1647,1647,1647,1647,1647,1647,1647,1647,1639,1639,1639,1639,1632,1632,1632,1632,1632,1632,1632,1632,1639,1639,1647,1655,1655,1655,1655,1663,1794,1794,1794,1785,1785,1794,1794,1794,1794,1794,1785,1785,1776,1766,1766,1766,1766,1766,1757,1748,1722,1663,1663,1663,1655,1655,1655,1655,1655,1655,1655,1655,1655,1655,1663,1663,1663,1671,1680,1680,1680,1688,1688,1688,1688,1688,1696,1696,1705,1705,1713,1713,1713,1722,1722,1722,1731,1731,1731,1731,1739,1739,1739,1748,1757,1757,1757,1757,1766,1766,1776,1776,1776,1785,1794,1794,1794,1794,1794,1794,1804,1804,1804,1813,1813,1813,1813,1813,1823,1833,1833,1843,1843,1843,1853,1853,1863,1873,1873,1873,1873,1873,1873,1873,1863,1863,1087,1087,1087,1087,1090,1090,1090,1090,1090,1090,1090,1094,1097,1097,1094,1094,1090,1090,1090,1087,1087,1090,1090,1090,1090,1094,1094,1097,1101,1101,1101,1105,1108,1108,1108,1112,1115,1115,1115,0,0,1766,1766,1766,1757,1757,1757,1757,1757,1748,1748,1748,1748,1748,1739,1739,1739,1731,1722,1722,1722,1722,1713,1713,1705,1705,1696,1696,1696,1696,1688,1688,1688,1688,1680,1680,1680,1671,1671,1663,1663,1663,1663,1663,1663,1663,1663,1663,1663,1655,1655,1647,1647,1639,1639,1639,1639,1639,1632,1632,1624,1624,1616,1616,1609,1609,1609,1609,1609,1609,1601,1601,1601,1601,1601,1594,1594,1586,1586,1579,1579,1579,1572,1572,1572,1572,1564,1557,1550,1543,1543,0,0,0,0,0,0,0,0,918,918,918,915,915,915,913,913,910,910,908,908,908,908,906,906,906,906,908,910,910,913,915,918,920,920,923,923,925,0,0,0,0,0,1464,1464,1464,1458,1458,1458,1452,1452,1452,1445,1445,1445,1445,1439,1439,1439,1433,1433,1433,1433,1427,1427,1427,1421,1421,1421,1415,1415,1410,1404,1404,1404,1404,1398,1398,1398,1398,1392,1392,1392,1392,1392,1387,1387,1381,1376,1376,1376,1376,1376,1370,1370,1370,1370,1370,1370,1370,1365,1365,1365,1359,1354,1354,1354,1354,1349,1349,1349,1343,1343,1338,1333,1333,1333,1333,1328,1328,1328,1328,1322,1322,1322,1322,1317,1312,1312,1312,1312,1307,1307,1307,1307,1302,1302,1297,1292,1292,1292,1292,1292,1292,1288,1288,1288,1283,1278,1278,1278,1273,1273,1273,1273,1273,1273,1268,1268,1264,1264,1259,1259,1255,1255,1255,1255,1255,1255,1250,1250,1245,1241,1241,1236,1236,1232,1232,1232,1232,1232,1232,1227,1227,1227,1223,1223,1219,1219,1219,1219,1219,1219,1214,1214,1214,1206,1206,1206,1202,1202,1202,1202,1197,1197,1197,1197,1197,1193,1193,1193,1193,1189,1189,1185,1185,1185,1185,1181,1181,1181,1181,1177,1177,1177,1173,1169,1169,1169,1169,1169,1165,1165,1165,1165,1165,1161,1161,1161,1157,1157,1153,1153,1153,1153,0,0,0,0,0,0,0,0,0,0,0,0,0,0,0,0,0,0,0,0,0,0,0,0,0,0,0,0,0
0,0,0,0,0,0,0,0,0,0,0,0,0,0,1680,1680,1680,1688,1680,1680,1688,1688,1688,1680,1680,1680,1680,1680,1680,1680,1680,1680,1680,1680,1680,1680,1671,1671,1671,1671,1663,1663,1663,1663,1663,1663,1663,1663,1663,1663,1663,1663,1663,1663,1663,1663,1663,1663,1663,1663,1663,1663,1663,1663,1663,1663,1663,1663,1663,1663,1655,1655,1655,1655,1655,1655,1655,1655,1663,1663,1655,1655,1655,1655,1655,1655,1655,1655,1647,1647,1655,1655,1647,1647,1647,1655,1647,1647,1639,1639,1639,1639,1647,1647,1647,1647,1647,1647,1647,1647,1639,1639,1639,1639,1639,1632,1632,1632,1632,1632,1639,1639,1639,1639,1647,1655,1655,1655,1663,1785,1785,1794,1785,1785,1785,1794,1794,1794,1794,1794,1785,1785,1776,1766,1766,1766,1766,1766,1757,1757,1731,1663,1663,1663,1655,1655,1655,1655,1655,1655,1655,1655,1655,1655,1663,1663,1663,1671,1680,1680,1680,1688,1688,1688,1688,1688,1696,1696,1705,1705,1713,1713,1713,1722,1722,1722,1731,1731,1731,1731,1739,1739,1748,1748,1757,1757,1757,1766,1766,1766,1776,1785,1785,1785,1794,1794,1794,1794,1794,1794,1804,1804,1804,1813,1813,1813,1823,1823,1823,1833,1833,1843,1843,1843,1853,1853,1863,1873,1873,1883,1883,1883,1883,1883,1080,1080,1080,1084,1084,1084,1084,1087,1087,1087,1087,1087,1087,1087,1090,1090,1090,1090,1090,1087,1087,1087,1087,1087,1090,1090,1090,1094,1094,1094,1097,1101,1094,1094,1094,1094,1094,1094,1094,1094,1087,1087,1084,1084,1748,1748,1748,1748,1748,1748,1748,1748,1748,1748,1748,1748,1739,1739,1731,1731,1722,1722,1722,1722,1722,1713,1713,1705,1705,1696,1696,1696,1688,1688,1688,1688,1688,1680,1680,1680,1671,1671,1663,1663,1663,1671,1663,1663,1663,1663,1655,1655,1655,1655,1647,1647,1639,1639,1639,1639,1632,1632,1624,1624,1616,1616,1609,1609,1609,1609,1609,1609,1609,1601,1601,1601,1601,1594,1594,1586,1586,1579,1579,1579,1572,1572,1572,1572,1564,1557,1550,1543,1543,0,0,0,0,0,0,0,0,918,918,918,915,915,915,915,913,910,910,910,908,908,908,906,906,906,906,908,910,913,915,915,918,920,920,923,925,925,0,0,0,0,1470,1464,1464,1464,1464,1458,1458,1458,1452,1452,1445,1445,1445,1445,1439,1439,1433,1433,1433,1433,1433,1427,1427,1421,1421,1421,1421,1415,1415,1410,1410,1410,1404,1404,1398,1398,1398,1398,1392,1392,1392,1392,1392,1387,1387,1387,1381,1381,1376,1376,1376,1376,1376,1370,1370,1370,1370,1370,1365,1365,1365,1359,1354,1354,1354,1354,1354,1349,1349,1349,1343,1338,1333,1333,1333,1333,1328,1328,1328,1328,1322,1322,1322,1322,1317,1312,1312,1312,1312,1307,1307,1307,1307,1302,1302,1297,1292,1292,1292,1292,1292,1292,1288,1288,1288,1288,1283,1278,1278,1278,1273,1273,1273,1273,1273,1268,1268,1264,1264,1259,1259,1255,1255,1255,1255,1255,1255,1250,1250,1245,1241,1241,1236,1236,1236,1232,1232,1232,1232,1232,1227,1227,1227,1223,1223,1223,1223,1223,1219,1219,1219,1214,1214,1210,1206,1206,1206,1206,1202,1202,1202,1202,1197,1197,1197,1197,1197,1193,1193,1193,1193,1189,1185,1185,1185,1185,1185,1181,1181,1181,1181,1177,1177,1173,1169,1169,1169,1169,1165,1165,1165,1165,1165,1165,1165,1161,1161,1157,1157,1157,1153,1153,1153,0,0,0,0,0,0,0,0,0,0,0,0,0,0,0,0,0,0,0,0,0,0,0,0,0,0,0,0,0
