0,0,0,0,0,0,0,0,0,0,1557,1550,1550,1550,1557,1557,1557,1557,1557,1557,1557,1557,1557,1557,1557,1564,1557,1557,1557,1550,1550,1550,1543,1543,1543,1543,1543,1543,1543,1543,1543,1543,1543,1543,1550,1550,1550,1543,1543,1550,1550,1543,1543,1550,1550,1543,1543,1536,1536,1536,1536,0,0,0,0,0,1038,1038,1034,1034,1034,1034,1034,1034,1038,1038,1038,1041,1041,1044,1044,1044,1047,1047,1047,1047,1050,1050,1050,1050,0,0,0,0,0,0,0,0,0,0,0,0,0,0,0,0,0,0,0,733,730,728,728,727,725,722,717,716,714,714,714,714,714,714,714,716,716,717,719,722,723,725,725,727,727,727,728,728,730,731,731,734,736,738,739,741,744,744,746,746,747,747,749,749,752,752,754,755,757,757,757,761,761,761,764,764,766,766,766,767,767,769,769,771,773,773,773,773,773,773,773,774,1489,1489,1489,1489,1489,1489,1496,1496,1496,1496,1496,1489,1489,1489,1214,1214,1219,1219,1219,1223,1223,1223,1223,1223,1223,1223,1223,1227,1223,1223,1227,1227,1227,1232,1232,1232,1232,1232,1236,1236,1236,1241,1241,1241,1241,1245,1245,1245,1250,1250,1250,1255,1255,1264,1264,1264,1264,1264,1264,1264,1264,1264,1264,1268,1283,1283,1288,1288,1288,1288,1288,1288,1288,1288,1288,1288,1288,1292,1292,1297,1297,1302,1302,1302,1302,1302,1302,1470,1470,1470,1464,1464,1464,1464,1458,1458,1458,1458,1458,1458,1458,1458,1458,1458,1458,1458,1458,1458,1458,1458,1458,1458,1458,1458,1458,1458,1458,1452,1452,1452,1445,1445,1445,1445,1445,1445,1445,1439,1439,1439,1439,1439,1439,1439,1415,1025,1025,1022,1019,1016,1010,1007,1007,1004,1004,1004,1001,1001,1004,1004,1004,1004,1007,1010,1010,1013,1013,1016,1016,1016,1016,1019,1019,0,1427,1433,1433,1433,1433,1433,1433,1433,1433,1433,1427,1427,1427,1433,1427,1427,1427,1427,1427,1427,1421,1421,1421,1421,1421,1421,1421,1421,1421,1421,1421,1421,1421,1421,1421,1421,1421,1421,1421,1421,1421,1415,1415,1415,1415,1415,1415,1415,1415,1415,1415,1415,1415,1415,1410,1410,1410,1410,1410,1415,1415,1415,1415,1415,1415,1410,1410,1410,1410,1410,1410,1404,1404,1398,1398,1398,1398,1398,1398,1392,1392,1392,1392,1392,1392,1398,1398,1398,1398,1398,1398,1398,1398,1398,1398,1398,1398,1398,1398,1398,1398,1392,1392,1392,1392,1392,1387,1387,1392,1387,1387,1387,1392,1392,1387,1387,1387,1387,1381,1381,1381,1376,1376,1376,1376,1376,1376,1376,1376,1376,1370,1370,1370,1370,1365,1365,1359,1359,1354,1354,1354,1349,1349,1349,1343,1343,1343,1333,1333,1328,1328,1328,1328,1322,1317,1312,1312,1312,1307,1307,1307,1302,1302,1297,1292,1292,1288,1288,1288,1283,1278,1278,1278,1278,1273,1268,1268,1264,1264,1259,1259,1259,1255,1255,1250,1250,1250,1245,1245,1241,1236,1236,1232,1232,1232,1227,1223,1223,1219,1219,1214,1210,1210,1206,1202,1202,1202,1197,1197,1197,1197,1197,1193,1193,1193,1189,1185,1185,1181,1181,1181,1177,1173,1173,1169,1169,1169,1165,1165,1165,1165,1161,1161,1157,1157,1153,1153,1153,1149,1149,1149,1149,1149,1149,0,0,0,0,0,0,973,973,970,970,973,975,973,973,0,0,0,0,0,0,0,0,0,0,0,0,0,0,0,0,0,0,0,0,0,0,0,0,0,0,0,0,0,0,0,0,0,0,0,0
0,0,0,0,0,0,0,0,0,0,1557,1550,1550,1550,1550,1550,1550,1550,1550,1550,1557,1557,1550,1550,1557,1557,1557,1550,1550,1543,1543,1543,1543,1543,1543,1543,1543,1543,1543,1536,1536,1543,1543,1543,1543,1543,1543,1543,1543,1543,1543,1536,1536,1543,1543,1543,1536,1536,1536,1536,1529,1529,0,0,0,0,1038,1038,1038,1034,1034,1034,1034,1034,1038,1038,1038,1041,1044,1044,1044,1047,1047,1047,1050,1050,1050,1050,1050,1050,0,0,0,0,0,0,0,0,0,0,0,0,0,0,0,0,0,0,0,733,727,727,725,725,725,722,720,716,714,714,714,714,714,716,716,716,716,719,720,722,725,725,727,727,727,727,728,728,730,731,731,734,736,738,739,741,744,746,746,746,747,747,749,750,752,754,754,755,755,757,757,761,762,764,764,764,766,766,766,767,767,769,769,771,771,774,774,774,773,773,773,1483,1483,1483,1489,1489,1489,1489,1496,1214,1214,1496,1496,1214,1214,1214,1214,1214,1214,1214,1219,1219,1219,1219,1219,1219,1219,1219,1219,1223,1223,1223,1223,1227,1227,1232,1232,1232,1232,1232,1232,1236,1236,1236,1241,1241,1241,1245,1245,1245,1250,1250,1250,1255,1259,1264,1264,1264,1264,1264,1264,1264,1264,1264,1264,1458,1458,1302,1302,1302,1292,1292,1288,1288,1288,1288,1288,1288,1288,1292,1292,1297,1297,1302,1302,1302,1302,1302,1302,1470,1464,1464,1458,1458,1458,1458,1458,1458,1458,1458,1458,1458,1458,1452,1452,1452,1452,1452,1452,1452,1445,1445,1452,1452,1452,1452,1452,1452,1452,1452,1445,1445,1439,1439,1439,1439,1439,1439,1439,1439,1439,1439,1439,1421,1415,1415,1415,1025,1025,1022,1022,1019,1016,1013,1010,1007,1004,1004,1004,1004,1004,1004,1004,1004,1007,1010,1010,1013,1013,1016,1016,1016,1016,1019,1019,0,1427,1427,1427,1427,1427,1427,1427,1427,1427,1427,1421,1421,1421,1427,1427,1427,1421,1421,1421,1421,1421,1421,1415,1415,1415,1415,1415,1415,1415,1415,1415,1415,1415,1415,1415,1415,1421,1415,1415,1421,1415,1415,1415,1415,1415,1415,1415,1415,1415,1415,1415,1410,1410,1410,1410,1404,1404,1404,1404,1410,1410,1410,1410,1410,1410,1410,1404,1404,1404,1404,1404,1398,1398,1398,1398,1398,1392,1392,1392,1392,1392,1392,1392,1392,1392,1392,1392,1392,1392,1392,1392,1392,1392,1392,1392,1392,1392,1392,1392,1392,1392,1387,1387,1392,1392,1392,1387,1387,1381,1381,1381,1381,1387,1387,1381,1381,1387,1381,1381,1376,1376,1376,1376,1376,1376,1376,1376,1376,1376,1370,1370,1370,1370,1365,1365,1365,1359,1359,1354,1354,1354,1349,1349,1349,1343,1343,1338,1333,1333,1328,1328,1322,1322,1322,1317,1317,1312,1312,1307,1307,1302,1302,1302,1297,1292,1292,1292,1288,1288,1283,1283,1278,1278,1278,1273,1268,1268,1268,1264,1259,1259,1259,1255,1255,1250,1250,1250,1245,1245,1241,1236,1236,1232,1232,1232,1227,1223,1223,1219,1219,1214,1214,1210,1206,1202,1202,1202,1197,1197,1197,1197,1197,1193,1193,1193,1189,1185,1185,1185,1181,1181,1177,1173,1173,1169,1169,1169,1169,1165,1165,1165,1161,1161,1161,1157,1157,1153,1153,1149,1149,1153,1004,1004,1004,1004,1001,1001,0,0,0,973,970,970,970,970,970,973,0,0,0,0,0,0,0,0,0,0,0,0,0,0,0,0,0,0,0,0,0,0,0,0,0,0,0,0,0,0,0,0,0,0,0,0,0
0,0,0,0,0,0,0,0,0,0,1550,1543,1543,1543,1543,1550,1550,1550,1550,1550,1550,1550,1543,1543,1543,1543,1550,1543,1543,1543,1543,1543,1536,1536,1536,1536,1536,1536,1536,1536,1536,1536,1536,1536,1543,1543,1543,1543,1543,1536,1536,1536,1529,1529,1529,1523,1523,1529,1529,1529,1523,1523,1523,0,0,0,1038,1038,1038,1034,1034,1034,1034,1034,1038,1038,1038,1041,1044,1044,1044,1047,1047,1050,1050,1050,1050,1050,1050,1050,0,0,0,0,0,0,0,0,0,0,0,0,0,0,0,0,0,0,0,0,727,727,725,725,725,723,720,716,716,714,714,714,714,716,716,716,717,719,720,722,725,725,727,727,727,727,728,728,730,731,731,733,734,738,739,742,744,746,746,747,747,749,749,750,752,754,754,755,755,757,757,759,762,764,764,766,766,766,767,767,767,767,767,1483,1489,1483,1483,1489,1489,1483,1483,1483,1483,1483,1489,1489,1489,1489,1214,1210,1210,1206,1206,1206,1210,1214,1210,1210,1210,1210,1214,1214,1214,1214,1214,1219,1219,1219,1219,1223,1223,1223,1223,1227,1227,1227,1232,1232,1232,1232,1232,1236,1236,1236,1241,1241,1241,1245,1245,1245,1250,1250,1250,1255,1259,1264,1264,1264,1264,1264,1264,1268,1268,1458,1458,1458,1458,1302,1302,1307,1302,1297,1297,1292,1288,1288,1288,1288,1292,1292,1297,1297,1302,1302,1302,1302,1302,1302,1302,1458,1458,1458,1452,1452,1452,1452,1452,1452,1452,1452,1452,1445,1445,1445,1445,1445,1445,1445,1445,1445,1439,1439,1445,1439,1439,1445,1445,1445,1439,1439,1439,1439,1439,1433,1433,1433,1433,1433,1439,1433,1433,1433,1427,1421,1415,1415,1415,1025,1025,1022,1019,1019,1016,1016,1013,1010,1007,1007,1004,1004,1004,1004,1004,1004,1007,1010,1010,1013,1013,1016,1016,1016,1016,0,1016,0,1421,1421,1421,1421,1421,1421,1421,1421,1421,1421,1415,1415,1415,1415,1421,1415,1415,1415,1415,1415,1415,1415,1415,1415,1415,1410,1410,1410,1410,1410,1410,1410,1410,1410,1410,1410,1410,1410,1410,1410,1415,1415,1415,1415,1410,1410,1410,1410,1410,1410,1410,1404,1404,1404,1404,1398,1398,1398,1398,1404,1404,1404,1404,1398,1398,1398,1398,1398,1398,1398,1398,1398,1392,1392,1392,1392,1392,1392,1392,1392,1392,1392,1392,1392,1392,1392,1392,1392,1392,1387,1387,1387,1381,1381,1387,1381,1381,1381,1387,1387,1387,1387,1387,1387,1387,1381,1381,1381,1376,1376,1376,1376,1376,1376,1376,1376,1376,1376,1376,1376,1376,1376,1376,1370,1370,1370,1370,1370,1370,1370,1365,1365,1365,1365,1365,1365,1359,1354,1354,1354,1354,1349,1349,1349,1343,1343,1338,1333,1333,1328,1328,1322,1322,1322,1317,1317,1312,1312,1307,1307,1302,1302,1302,1297,1292,1292,1292,1288,1288,1288,1283,1283,1278,1278,1273,1268,1268,1268,1268,1259,1259,1259,1255,1255,1250,1250,1250,1245,1245,1241,1236,1236,1232,1232,1232,1232,1227,1223,1223,1219,1214,1214,1210,1206,1206,1202,1202,1202,1197,1197,1197,1197,1197,1197,1197,1189,1185,1185,1185,1185,1181,1177,1173,1173,1173,1169,1169,1169,1165,1165,1165,1161,1161,1161,1157,1157,1157,1153,1007,1004,1004,1004,1004,1004,1004,1001,1001,1001,0,970,970,967,967,967,967,967,970,970,0,0,0,0,0,0,0,0,0,0,0,0,0,0,0,0,0,0,0,0,0,0,0,0,0,0,0,0,0,0,0,0,0,0,0,0
0,0,0,0,0,0,0,0,0,0,1543,1543,1536,1536,1543,1543,1543,1543,1543,1543,1536,1536,1536,1536,1536,1536,1536,1536,1536,1536,1536,1536,1536,1536,1536,1536,1536,1536,1529,1529,1536,1536,1536,1536,1536,1536,1536,1536,1536,1529,1529,1529,1523,1523,1523,1516,1516,1516,1516,1516,1516,1516,1516,0,1509,0,1041,1041,1038,1038,1038,1038,1038,1038,1038,1041,1041,1044,1044,1047,1047,1047,1047,1050,1050,1050,1050,1054,1050,1050,1050,0,0,0,1509,1509,0,0,0,0,0,0,0,0,0,0,0,0,0,0,0,0,0,0,0,723,722,716,716,716,714,714,714,716,716,716,717,719,722,723,725,727,727,727,727,728,728,728,730,731,731,733,734,738,739,742,744,746,746,747,747,749,749,750,752,754,754,755,755,757,757,759,761,764,764,766,766,766,767,767,767,1483,1483,1483,1489,1477,1483,1483,1483,1483,1483,1483,1483,1483,1483,1489,1214,1214,1210,1210,1210,1206,1202,1202,1206,1206,1206,1206,1206,1210,1210,1214,1214,1214,1214,1214,1219,1219,1219,1219,1219,1219,1227,1227,1227,1227,1232,1232,1232,1232,1236,1236,1236,1236,1241,1241,1245,1245,1245,1250,1250,1250,1255,1255,1259,1264,1264,1264,1264,1264,1264,1464,1458,1458,1458,1458,1458,1458,1307,1307,1302,1302,1297,1292,1292,1292,1292,1292,1292,1292,1297,1297,1302,1302,1302,1302,1302,1302,1302,1302,1458,1452,1452,1445,1445,1445,1445,1445,1445,1445,1445,1439,1439,1439,1439,1439,1439,1439,1439,1439,1439,1439,1439,1439,1439,1439,1439,1439,1439,1439,1439,1433,1433,1433,1433,1433,1433,1433,1433,1433,1433,1433,1421,1421,1415,1410,1410,1410,1022,1022,1019,1016,1016,1016,1013,1010,1010,1007,1007,1007,1007,1004,1004,1007,1010,1013,1013,1013,1016,1016,1016,1019,1019,0,0,0,1421,1421,1421,1421,1421,1421,1421,1415,1415,1415,1415,1415,1415,1415,1415,1415,1415,1415,1415,1415,1410,1410,1410,1410,1410,1410,1410,1410,1410,1404,1404,1404,1404,1404,1404,1404,1404,1404,1404,1404,1404,1404,1404,1410,1410,1404,1404,1404,1404,1404,1404,1398,1398,1398,1398,1398,1398,1392,1392,1398,1398,1398,1398,1392,1392,1398,1392,1392,1392,1392,1392,1392,1392,1392,1392,1392,1392,1392,1392,1387,1387,1387,1387,1387,1387,1387,1387,1387,1381,1381,1381,1381,1376,1376,1381,1376,1376,1376,1376,1376,1376,1381,1381,1381,1381,1376,1376,1376,1376,1376,1370,1370,1376,1376,1370,1370,1376,1370,1370,1370,1370,1370,1370,1370,1370,1370,1370,1365,1365,1365,1365,1365,1365,1365,1365,1359,1359,1354,1354,1354,1349,1349,1349,1349,1343,1338,1338,1333,1333,1328,1328,1328,1322,1322,1317,1317,1312,1312,1307,1307,1307,1302,1302,1297,1292,1292,1292,1288,1288,1288,1283,1283,1278,1278,1273,1273,1268,1268,1268,1264,1259,1259,1255,1255,1250,1250,1250,1245,1245,1241,1236,1236,1236,1232,1232,1232,1227,1223,1223,1219,1214,1214,1214,1210,1206,1206,1202,1202,1202,1197,1197,1197,1197,1197,1197,1189,1185,1185,1181,1181,1181,1177,1173,1173,1173,1169,1169,1169,1165,1165,1165,1161,1157,1157,1157,1157,1153,1007,1007,1004,1004,1004,1004,1004,1001,998,998,1001,970,970,970,967,967,967,967,967,967,962,962,0,0,0,0,0,0,0,0,0,0,0,0,0,0,0,0,0,0,0,0,0,0,0,0,0,0,0,0,0,0,0,0,0,0,0
0,0,0,0,0,0,0,0,0,0,1536,1536,1536,1536,1536,1536,1536,1536,1529,1529,1529,1529,1529,1529,1529,1529,1529,1529,1529,1529,1529,1536,1536,1536,1529,1529,1529,1529,1523,1523,1529,1529,1529,1529,1529,1529,1529,1523,1523,1523,1523,1523,1516,1516,1516,1516,1516,1516,1509,1509,1509,1509,1509,1509,1509,1503,1041,1041,1038,1038,1038,1038,1038,1038,1038,1041,1041,1044,1044,1047,1047,1050,1050,1050,1050,1050,1054,1054,1050,1050,1050,0,0,1509,1509,1503,1503,0,0,0,0,0,0,0,0,0,0,0,0,0,0,0,0,0,725,725,722,716,716,716,714,714,716,716,716,716,719,720,722,725,725,727,727,728,728,728,728,730,730,731,731,733,734,736,741,744,746,746,747,747,747,749,749,750,752,754,754,754,755,757,759,759,761,764,764,766,766,767,767,1470,1483,1483,1483,1483,1489,1477,1477,1477,1477,1483,1483,1483,1483,1483,1483,1210,1210,1210,1210,1210,1210,1206,1202,1202,1206,1206,1206,1206,1206,1206,1210,1210,1210,1214,1214,1214,1214,1219,1219,1219,1219,1219,1227,1227,1227,1227,1232,1232,1232,1232,1236,1236,1236,1236,1241,1241,1245,1245,1245,1250,1250,1255,1255,1255,1259,1264,1264,1464,1464,1464,1458,1458,1458,1458,1458,1458,1452,1452,1322,1312,1307,1302,1302,1297,1292,1292,1292,1292,1292,1297,1297,1297,1302,1302,1302,1302,1302,1302,1302,1302,1452,1445,1445,1445,1439,1439,1445,1439,1439,1439,1439,1439,1439,1439,1439,1433,1433,1433,1433,1433,1433,1433,1433,1433,1433,1433,1433,1433,1433,1433,1433,1433,1427,1427,1427,1427,1427,1427,1427,1427,1427,1427,1421,1421,1415,1410,1410,0,1410,1016,1016,1016,1016,1016,1013,1010,1010,1007,1007,1007,1007,1007,1007,1007,1010,1013,1013,1013,1016,1016,1019,1022,1022,1022,0,1415,1415,1415,1415,1421,1415,1415,1415,1410,1410,1410,1410,1410,1410,1410,1410,1415,1410,1410,1410,1410,1410,1410,1404,1404,1404,1404,1404,1404,1404,1404,1398,1398,1404,1404,1404,1404,1404,1404,1398,1398,1398,1398,1398,1398,1398,1398,1398,1398,1398,1398,1398,1398,1398,1392,1392,1392,1392,1392,1392,1392,1392,1392,1392,1392,1392,1392,1387,1387,1387,1387,1387,1387,1387,1387,1387,1387,1387,1387,1387,1381,1381,1387,1387,1381,1381,1381,1381,1381,1381,1381,1376,1376,1376,1376,1376,1376,1376,1376,1376,1376,1376,1370,1370,1370,1370,1376,1370,1370,1370,1370,1370,1370,1370,1370,1370,1370,1370,1370,1370,1370,1370,1370,1370,1370,1365,1365,1365,1359,1359,1359,1359,1359,1359,1359,1359,1359,1359,1354,1354,1349,1349,1349,1349,1343,1343,1338,1338,1333,1333,1328,1328,1328,1328,1322,1317,1317,1317,1312,1312,1307,1307,1302,1302,1297,1297,1297,1292,1292,1288,1288,1283,1283,1278,1278,1273,1273,1268,1268,1268,1268,1268,1259,1259,1255,1250,1250,1250,1250,1245,1241,1236,1236,1236,1232,1232,1232,1227,1223,1223,1219,1219,1214,1214,1214,1210,1210,1206,1206,1202,1202,1202,1197,1197,1197,1197,1189,1185,1185,1181,1181,1181,1181,1173,1173,1173,1169,1169,1169,1165,1165,1165,1161,1157,1157,1157,1157,1013,1007,1007,1007,1004,1004,1004,1001,1001,995,992,992,970,970,970,967,967,967,964,964,962,959,959,0,0,0,0,0,0,0,0,0,0,0,0,0,0,0,0,0,0,0,0,0,0,0,0,0,0,0,0,0,0,0,0,0,0,0
0,0,0,0,0,0,0,0,0,0,1536,1536,1536,1536,1536,1529,1529,1523,1523,1523,1523,1523,1529,1529,1529,1523,1523,1523,1523,1523,1523,1529,1529,1529,1529,1529,1529,1523,1523,1523,1523,1523,1523,1523,1523,1523,1523,1516,1516,1516,1516,1516,1516,1516,1516,1509,1509,1509,1509,1509,1509,1503,1503,1503,1503,1503,1489,1038,1038,1038,1038,1038,1038,1038,1038,1041,1044,1047,1047,1047,1047,1050,1050,1050,1050,1050,1054,1054,1050,1050,1050,0,0,1503,1503,1496,1489,1489,0,0,0,0,0,0,0,0,0,0,0,0,0,0,0,0,0,725,723,717,716,716,716,716,716,716,716,716,719,720,722,723,725,727,727,728,728,728,728,730,731,731,733,733,734,736,739,742,746,747,747,747,747,749,750,750,752,754,754,754,755,757,759,759,0,766,766,766,767,767,1470,1470,1470,1470,1470,1483,1464,1464,1470,1470,1477,1477,1477,1477,1477,1483,1197,1197,1206,1210,1210,1206,1206,1206,1202,1202,1202,1206,1206,1206,1206,1206,1210,1210,1210,1210,1210,1214,1214,1214,1219,1219,1219,1223,1227,1227,1227,1227,1232,1232,1232,1236,1236,1241,1236,1236,1241,1241,1245,1245,1250,1250,1255,1255,1255,1255,1264,1264,1452,1452,1458,1458,1458,1458,1452,1452,1452,1452,1445,1445,1322,1312,1307,1307,1302,1297,1297,1292,1292,1292,1292,1297,1297,1302,1302,1302,1302,1302,1302,1302,1302,1302,1439,1439,1439,1439,1439,1439,1439,1439,1439,1439,1439,1433,1433,1433,1433,1433,1433,1433,1427,1427,1427,1427,1427,1427,1427,1427,1427,1427,1427,1427,1427,1427,1427,1427,1427,1427,1427,1427,1421,1421,1421,1421,1421,1415,1410,1410,1410,1410,0,1025,1019,1019,1016,1016,1013,1013,1010,1010,1010,1010,1010,1007,1007,1010,1010,1013,1013,1016,1016,1016,1019,1022,1022,1022,0,1410,1410,1410,1410,1410,1410,1410,1410,1404,1404,1404,1404,1410,1410,1410,1410,1410,1410,1404,1404,1404,1398,1398,1398,1398,1398,1398,1398,1398,1398,1398,1398,1398,1398,1398,1398,1398,1398,1398,1398,1398,1392,1392,1392,1392,1392,1392,1392,1392,1392,1392,1392,1392,1392,1392,1392,1392,1392,1387,1387,1387,1387,1387,1387,1387,1387,1387,1387,1387,1381,1381,1387,1387,1381,1381,1381,1381,1381,1381,1381,1381,1381,1381,1381,1381,1381,1376,1376,1376,1376,1376,1376,1370,1370,1370,1370,1370,1370,1370,1370,1370,1370,1370,1370,1370,1365,1365,1365,1370,1365,1365,1365,1365,1365,1365,1365,1365,1365,1365,1365,1365,1365,1365,1365,1365,1365,1359,1359,1354,1354,1354,1354,1354,1354,1354,1354,1359,1354,1354,1349,1349,1349,1343,1343,1343,1338,1338,1338,1333,1333,1333,1328,1328,1328,1322,1322,1322,1317,1317,1312,1307,1307,1302,1302,1302,1297,1297,1292,1292,1288,1288,1283,1283,1278,1278,1273,1273,1268,1268,1268,1268,1268,1259,1259,1255,1250,1250,1250,1250,1245,1241,1241,1236,1236,1232,1232,1232,1227,1227,1223,1219,1219,1214,1214,1214,1210,1210,1206,1206,1202,1202,1202,1197,1197,1197,1193,1189,1185,1185,1185,1181,1181,1181,1177,1173,1173,1173,1169,1169,1165,1165,1165,1161,1157,1157,1153,1013,1013,1010,1010,1007,1004,1004,1001,998,992,992,992,978,973,970,970,967,964,964,962,962,962,959,959,0,0,0,0,0,0,0,0,0,0,0,0,0,0,0,0,0,0,0,0,0,0,0,0,0,0,0,0,0,0,0,0,0,0,0
0,0,0,0,0,0,0,0,0,0,1529,1529,1529,1529,1529,1529,1523,1523,1523,1523,1516,1516,1516,1516,1516,1516,1516,1516,1516,1516,1516,1523,1523,1523,1523,1523,1523,1516,1516,1516,1516,1516,1516,1516,1516,1516,1516,1516,1516,1516,1516,1509,1509,1509,1509,1509,1509,1509,1509,1503,1503,1503,1496,1489,1489,1489,1489,1041,1041,1041,1041,1041,1041,1041,1041,1041,1044,1047,1047,1047,1047,1050,1050,1050,1050,1050,1054,1054,1050,1050,1050,0,1496,1496,1496,1489,1489,1489,0,0,0,0,0,0,0,0,0,0,0,0,0,0,0,0,727,727,723,717,717,717,716,716,717,717,719,719,720,722,722,723,725,725,727,727,728,728,730,730,731,733,733,734,734,738,739,742,746,747,747,747,749,749,750,750,752,754,754,754,755,757,759,0,0,0,1464,0,1464,1470,1470,1470,1470,1470,1470,1470,1464,1464,1464,1470,1477,1477,1477,1185,1185,1185,1193,1193,1197,1202,1202,1206,1206,1202,1202,1202,1202,1202,1202,1202,1202,1206,1206,1210,1210,1210,1210,1214,1214,1214,1219,1219,1219,1223,1227,1227,1227,1232,1232,1232,1232,1236,1236,1241,1241,1241,1241,1241,1245,1245,1250,1255,1259,1259,1259,1259,1439,1439,1445,1445,1452,1452,1452,1452,1452,1452,1445,1445,1439,1439,1439,1307,1307,1307,1302,1302,1297,1297,1297,1297,1297,1297,1297,1302,1302,1302,1302,1302,1302,1302,1302,1433,1433,1433,1433,1433,1433,1433,1433,1433,1433,1433,1433,1433,1433,1433,1433,1427,1427,1427,1427,1427,1427,1427,1421,1421,1421,1421,1421,1421,1421,1421,1421,1415,1415,1421,1421,1421,1421,1421,1421,1415,1415,1415,1415,1415,1410,1404,1404,1404,0,1025,1025,1022,1019,1016,1016,1013,1013,1010,1010,1010,1010,1007,1007,1010,1013,1013,1016,1016,1016,1019,1019,1022,1022,1022,0,1404,1404,1404,1410,1410,1404,1404,1404,1404,1398,1398,1398,1398,1404,1404,1404,1404,1404,1398,1398,1398,1398,1398,1398,1398,1398,1398,1398,1398,1398,1392,1392,1392,1392,1392,1392,1392,1392,1392,1392,1392,1392,1392,1392,1392,1392,1392,1387,1387,1387,1387,1387,1387,1392,1392,1392,1387,1387,1387,1387,1381,1381,1381,1381,1381,1381,1381,1381,1381,1381,1381,1381,1381,1381,1381,1381,1381,1381,1376,1376,1376,1376,1376,1376,1376,1376,1376,1376,1376,1370,1370,1370,1370,1365,1365,1365,1370,1370,1370,1370,1370,1370,1365,1365,1365,1359,1359,1359,1359,1359,1359,1359,1359,1359,1359,1359,1359,1359,1365,1359,1359,1365,1359,1359,1359,1359,1359,1354,1354,1354,1354,1354,1354,1354,1354,1354,1354,1354,1349,1349,1343,1343,1338,1338,1338,1338,1333,1333,1333,1333,1333,1328,1328,1328,1328,1322,1322,1317,1317,1312,1307,1307,1307,1307,1302,1302,1302,1297,1292,1292,1288,1288,1283,1283,1278,1273,1273,1268,1268,1268,1268,1268,1259,1259,1255,1250,1250,1250,1250,1245,1241,1241,1236,1236,1232,1232,1232,1227,1227,1223,1223,1219,1219,1214,1214,1214,1210,1210,1206,1206,1202,1202,1197,1197,1197,1193,1189,1185,1185,1185,1185,1181,1181,1177,1177,1177,1173,1169,1169,1165,1165,1165,1161,1013,1010,1010,1013,1010,1010,1010,1007,1004,1004,1001,992,989,989,984,978,973,970,970,967,964,964,962,959,959,959,959,0,0,0,0,0,0,0,0,0,0,0,0,0,0,0,0,0,0,0,0,0,0,0,0,0,0,0,0,0,0,0,0,0,0,0
0,0,0,0,0,0,0,0,0,0,1523,1523,1523,1523,1523,1523,1523,1516,1516,1516,1516,1516,1516,1516,1516,1509,1509,1516,1516,1516,1516,1516,1516,1516,1516,1516,1516,1516,1516,1516,1516,1516,1516,1516,1516,1516,1516,1509,1509,1509,1509,1509,1509,1509,1509,1509,1509,1509,1503,1503,1503,1496,1496,1489,1489,1483,1483,1044,1044,1044,1044,1044,1044,1041,1041,1044,1044,1047,1047,1047,1047,1050,1050,1050,1050,1050,1054,1054,1054,1054,1054,0,1496,1496,1496,1489,1489,1489,0,0,0,0,0,0,0,0,0,0,0,0,0,0,0,733,733,733,725,717,717,717,716,716,717,717,719,719,720,722,722,723,725,725,727,727,728,728,730,730,731,733,733,734,734,738,739,742,746,746,747,747,749,750,750,750,752,754,754,754,755,0,755,0,0,0,1464,1464,0,1464,1464,1464,1464,1464,1464,1464,1464,1464,1464,1464,1470,1470,1185,1185,1185,1185,1189,1193,1193,1197,1197,1202,1202,1202,1197,1197,1197,1202,1202,1202,1202,1206,1206,1210,1210,1210,1210,1214,1214,1214,1219,1219,1219,1223,1227,1227,1227,1232,1232,1232,1236,1236,1236,1241,1241,1241,1245,1245,1245,1250,1255,1259,1439,1439,1439,1439,1439,1439,1439,1445,1445,1445,1445,1445,1445,1445,1439,1439,1439,1433,1433,1307,1307,1307,1302,1302,1302,1297,1297,1297,1297,1297,1297,1302,1302,1302,1302,1302,1302,1302,1302,1433,1433,1433,1427,1427,1433,1427,1427,1427,1427,1427,1427,1427,1427,1427,1427,1427,1427,1421,1421,1421,1421,1421,1421,1415,1415,1415,1415,1415,1415,1415,1415,1410,1410,1415,1415,1415,1415,1415,1415,1415,1415,1415,1415,1410,1404,1404,1404,1404,0,1025,1025,1022,1019,1019,1016,1013,1013,1013,1013,1010,1010,1010,1010,1010,1013,1016,1016,1016,1019,1019,1022,1025,1025,1025,1025,1398,1398,1398,1404,1404,1404,1404,1404,1398,1398,1398,1398,1398,1398,1398,1398,1398,1398,1398,1398,1392,1392,1392,1392,1392,1392,1392,1392,1392,1392,1392,1392,1387,1387,1387,1387,1387,1387,1387,1387,1387,1392,1392,1392,1387,1387,1387,1381,1381,1387,1381,1381,1387,1381,1381,1381,1381,1381,1381,1381,1381,1381,1381,1376,1376,1376,1376,1376,1376,1376,1376,1376,1376,1376,1376,1376,1376,1376,1376,1376,1376,1370,1370,1376,1376,1376,1370,1370,1370,1370,1365,1365,1365,1365,1365,1365,1365,1365,1365,1365,1365,1365,1359,1359,1359,1354,1354,1354,1354,1354,1354,1354,1354,1354,1354,1354,1354,1354,1354,1354,1359,1354,1354,1359,1354,1354,1354,1349,1349,1349,1349,1349,1349,1349,1349,1349,1349,1349,1349,1343,1343,1343,1338,1338,1338,1338,1333,1333,1333,1333,1333,1328,1328,1328,1328,1322,1322,1317,1317,1312,1307,1307,1307,1307,1302,1302,1302,1297,1292,1292,1288,1288,1288,1283,1278,1273,1273,1268,1268,1268,1268,1268,1259,1259,1255,1250,1250,1250,1250,1250,1245,1241,1236,1236,1236,1232,1232,1232,1227,1227,1223,1219,1219,1219,1219,1214,1214,1214,1210,1206,1206,1202,1197,1197,1197,1193,1189,1189,1185,1185,1185,1181,1181,1177,1177,1173,1173,1169,1169,1165,1165,1165,1157,1013,1010,1010,1013,1010,1010,1010,1007,1004,1001,998,992,987,984,981,978,973,970,967,964,962,962,962,959,959,959,959,0,0,0,0,0,0,0,0,0,0,0,0,0,0,0,0,0,0,0,0,0,0,0,0,0,0,0,0,0,0,0,0,0,0,0
0,0,0,0,0,0,0,0,0,0,1516,1516,1516,1516,1516,1516,1516,1516,1516,1509,1509,1509,1509,1509,1509,1509,1509,1509,1509,1509,1509,1509,1509,1516,1516,1509,1509,1509,1509,1509,1509,1516,1509,1509,1509,1509,1509,1509,1503,1503,1503,1503,1503,1503,1503,1509,1509,1503,1503,1496,1496,1496,1489,1489,1489,1483,1483,1044,1044,1044,1044,1044,1044,1041,1041,1041,1044,1047,1047,1047,1047,1050,1050,1050,1050,1054,1057,1054,1054,1054,1054,1060,1496,1496,1496,1489,1489,1489,1496,0,0,0,0,0,0,0,0,0,0,0,0,0,0,733,733,733,725,717,717,717,717,717,717,717,719,719,720,722,722,723,723,725,727,727,728,728,730,731,731,733,733,734,736,738,739,742,746,746,747,747,749,750,750,752,754,754,754,754,0,0,0,0,1464,1464,1464,1464,1464,1464,1464,1464,1464,1464,1464,1464,1464,1458,1458,1458,1185,1185,1185,1185,1185,1185,1189,1193,1193,1197,1197,1197,1197,1197,1197,1197,1197,1197,1202,1202,1206,1206,1210,1210,1210,1210,1210,1214,1214,1214,1219,1219,1223,1223,1227,1227,1227,1232,1232,1232,1236,1236,1241,1241,1241,1241,1245,1433,1439,1439,1439,1439,1439,1439,1439,1439,1439,1439,1439,1439,1439,1439,1439,1439,1439,1439,1439,1433,1433,1433,1421,1421,1307,1307,1307,1302,1302,1302,1302,1297,1297,1297,1297,1302,1302,1302,1302,1302,1302,1302,1302,1433,1433,1427,1427,1427,1427,1421,1421,1421,1421,1421,1421,1421,1415,1415,1421,1421,1421,1421,1415,1415,1415,1415,1415,1415,1415,1415,1415,1415,1410,1410,1410,1410,1410,1410,1410,1410,1410,1410,1410,1410,1410,1410,1410,1410,1404,1398,1398,1398,0,0,1025,1022,1022,1019,1016,1016,1013,1013,1013,1013,1013,1013,1013,1013,1016,1016,1016,1016,1019,1019,1025,1025,1025,1025,1025,0,1398,1398,1398,1398,1398,1398,1398,1398,1392,1392,1392,1392,1392,1392,1392,1392,1392,1392,1392,1392,1392,1392,1392,1392,1392,1392,1392,1392,1392,1387,1387,1387,1381,1381,1381,1381,1381,1381,1381,1381,1387,1387,1387,1381,1381,1381,1381,1381,1381,1376,1376,1376,1376,1376,1376,1376,1376,1376,1376,1376,1376,1376,1376,1376,1376,1376,1376,1376,1376,1376,1376,1376,1370,1370,1370,1370,1370,1370,1370,1370,1370,1370,1370,1370,1370,1370,1365,1365,1365,1359,1359,1359,1359,1359,1359,1359,1359,1359,1359,1359,1354,1354,1354,1354,1354,1354,1354,1354,1354,1354,1354,1354,1349,1349,1349,1349,1349,1354,1354,1354,1354,1354,1354,1354,1349,1349,1349,1349,1349,1349,1349,1349,1349,1349,1349,1349,1349,1343,1338,1338,1338,1338,1333,1333,1333,1333,1333,1333,1333,1333,1328,1328,1328,1328,1322,1322,1317,1317,1312,1312,1307,1307,1307,1307,1302,1302,1297,1292,1292,1288,1288,1288,1283,1278,1273,1273,1273,1273,1268,1268,1268,1264,1255,1255,1255,1255,1250,1250,1250,1245,1245,1236,1236,1236,1232,1232,1232,1227,1227,1223,1219,1219,1219,1219,1214,1214,1214,1214,1210,1206,1206,1202,1202,1197,1193,1189,1189,1185,1185,1185,1181,1181,1177,1177,1173,1173,1173,1169,1165,1165,1165,1016,1013,1013,1013,1013,1013,1010,1007,1004,1001,1001,992,989,984,981,981,978,973,970,967,964,959,959,959,959,959,956,956,0,0,0,0,0,0,0,0,0,0,0,0,0,0,0,0,0,0,0,0,0,0,0,0,0,0,0,0,0,0,0,0,0,0,0
0,0,0,0,0,0,0,0,0,0,1516,1516,1516,1516,1516,1516,1516,1516,1509,1509,1509,1509,1509,1509,1509,1509,1503,1503,1503,1509,1509,1509,1509,1509,1509,1509,1509,1509,1509,1509,1509,1509,1503,1503,1503,1503,1503,1503,1503,1503,1503,1503,1496,1496,1503,1503,1503,1503,1496,1496,1496,1489,1489,1489,1483,1483,1483,1483,1050,1050,1047,1047,1044,1041,1041,1041,1044,1047,1047,1047,1047,1050,1050,1050,1050,1054,1057,1057,1057,1057,1060,1060,0,1496,1496,1489,1489,1489,1489,0,0,0,0,0,0,0,0,0,0,0,0,0,0,734,734,734,734,719,717,717,717,717,717,719,719,719,720,722,722,723,723,725,727,727,728,728,730,731,733,733,734,734,736,738,739,739,746,746,746,747,747,750,750,752,754,754,0,0,0,0,0,0,1464,1464,1458,1458,1458,1458,1464,1464,1464,1464,1464,1464,1464,1458,1185,1185,1185,1185,1185,1185,1185,1185,1189,1193,1193,1193,1197,1197,1197,1197,1197,1197,1197,1197,1202,1202,1206,1206,1210,1210,1210,1210,1210,1214,1214,1219,1219,1223,1223,1223,1227,1227,1227,1232,1232,1232,1236,1236,1236,1241,1241,1241,1433,1433,1433,1433,1439,1439,1439,1439,1439,1439,1439,1439,1439,1439,1439,1439,1439,1439,1439,1439,1433,1433,1433,1427,1421,1415,1307,1307,1307,1302,1302,1302,1302,1297,1297,1297,1297,1302,1302,1302,1302,1302,1302,1302,1302,1427,1427,1421,1421,1415,1415,1415,1415,1415,1415,1415,1415,1415,1415,1415,1415,1410,1410,1415,1415,1415,1415,1415,1415,1415,1415,1410,1410,1410,1410,1410,1410,1404,1404,1410,1410,1410,1410,1410,1410,1404,1404,1410,1404,1404,1398,1398,1398,1398,0,1028,1028,1025,1025,1022,1019,1016,1016,1013,1013,1013,1013,1013,1013,1013,1013,1016,1016,1016,1019,1022,1025,1025,1025,1025,1025,0,1381,1381,1381,1392,1392,1392,1392,1392,1392,1392,1392,1392,1392,1392,1392,1392,1392,1392,1387,1387,1387,1387,1387,1387,1387,1387,1387,1387,1387,1381,1381,1381,1381,1376,1376,1376,1376,1376,1376,1376,1381,1376,1376,1376,1376,1376,1376,1376,1376,1370,1370,1370,1370,1370,1370,1370,1370,1370,1376,1370,1370,1370,1376,1370,1370,1370,1370,1370,1370,1370,1370,1370,1365,1365,1365,1365,1365,1365,1365,1365,1365,1365,1359,1359,1359,1359,1359,1359,1359,1359,1354,1354,1354,1354,1354,1354,1354,1354,1354,1354,1354,1354,1354,1349,1349,1349,1349,1349,1349,1349,1349,1349,1349,1349,1349,1349,1349,1343,1343,1349,1349,1349,1349,1349,1349,1349,1343,1343,1343,1343,1343,1343,1343,1343,1343,1343,1338,1338,1338,1338,1333,1333,1333,1333,1333,1333,1333,1333,1333,1328,1328,1328,1328,1328,1322,1322,1317,1317,1312,1312,1307,1307,1307,1307,1302,1302,1297,1292,1292,1288,1288,1288,1283,1278,1278,1273,1273,1273,1268,1268,1268,1264,1255,1255,1255,1255,1250,1250,1250,1245,1245,1241,1236,1236,1232,1232,1232,1232,1227,1223,1219,1219,1219,1219,1214,1214,1214,1214,1210,1206,1206,1202,1202,1197,1197,1189,1189,1185,1185,1185,1181,1181,1177,1177,1177,1173,1173,1169,1169,1169,1165,1016,1016,1016,1016,1016,1013,1010,1007,1004,1001,998,989,987,981,981,978,978,973,970,967,964,959,959,959,959,959,956,956,0,0,0,0,0,0,0,0,0,0,0,0,0,0,0,0,0,0,0,0,0,0,0,0,0,0,0,0,0,0,0,0,0,0,0
0,0,0,0,0,0,0,0,0,0,1503,1503,1503,1509,1509,1516,1509,1509,1509,1509,1509,1503,1503,1503,1503,1503,1503,1503,1503,1503,1503,1503,1503,1503,1503,1503,1503,1503,1503,1503,1496,1496,1496,1496,1496,1496,1496,1496,1496,1496,1496,1496,1496,1496,1496,1496,1503,1496,1496,1489,1489,1489,1489,1483,1483,1483,1483,1054,1054,1050,1047,1047,1047,1044,1044,1044,1044,1047,1047,1047,1047,1050,1050,1050,1050,1054,1057,1057,1057,1060,1060,1060,0,1489,1489,1489,1483,1477,1470,1470,0,0,0,0,0,0,0,0,0,0,0,0,0,736,734,734,733,719,717,717,717,717,717,719,719,719,720,722,722,723,723,725,727,727,728,730,731,733,733,733,734,734,736,736,739,739,744,744,746,747,747,749,750,752,0,0,0,0,0,0,0,0,1464,1458,1458,1458,1458,1458,1458,1458,1464,1464,1464,1181,1181,1181,1181,1185,1185,1185,1185,1185,1185,1185,1185,1189,1193,1193,1193,1197,1197,1197,1197,1197,1197,1197,1202,1202,1206,1210,1210,1210,1210,1210,1210,1214,1219,1219,1219,1223,1223,1223,1227,1227,1227,1232,1232,1232,1236,1236,1236,1245,1245,1427,1427,1427,1433,1433,1433,1433,1433,1433,1433,1433,1433,1433,1433,1433,1433,1433,1433,1433,1433,1433,1427,1427,1427,1427,1421,1415,1415,1307,1307,1307,1302,1302,1302,1297,1297,1292,1292,1297,1302,1302,1302,1307,1307,1302,1302,1307,1421,1415,1415,1415,1415,1410,1410,1410,1410,1410,1410,1410,1410,1410,1410,1410,1410,1410,1410,1410,1410,1410,1410,1410,1410,1404,1404,1404,1404,1404,1404,1398,1398,1398,1398,1404,1404,1404,1404,1404,1404,1404,1404,1398,1398,1398,1392,1392,1392,1028,1028,1028,1025,1025,1019,1019,1016,1013,1013,1013,1013,1013,1013,1013,1013,1016,1019,1019,1019,1025,1025,1025,1028,1028,1028,0,1381,1381,1381,1381,1387,1387,1392,1392,1392,1387,1387,1387,1387,1387,1387,1387,1387,1387,1381,1381,1381,1381,1381,1381,1381,1381,1381,1381,1381,1381,1376,1376,1376,1376,1376,1376,1376,1376,1376,1376,1376,1376,1376,1376,1376,1370,1370,1370,1370,1370,1370,1370,1370,1370,1365,1365,1365,1365,1370,1370,1365,1365,1365,1365,1365,1370,1370,1370,1370,1365,1365,1365,1359,1359,1359,1359,1359,1359,1359,1359,1359,1359,1354,1354,1354,1354,1354,1354,1354,1354,1354,1354,1354,1354,1354,1354,1354,1354,1349,1349,1349,1349,1349,1349,1349,1349,1349,1349,1343,1343,1343,1343,1343,1343,1343,1343,1343,1338,1338,1338,1338,1338,1343,1343,1343,1343,1338,1338,1338,1338,1338,1338,1338,1338,1338,1338,1333,1333,1333,1333,1333,1333,1333,1333,1328,1328,1328,1328,1328,1328,1328,1328,1328,1328,1322,1317,1312,1312,1312,1307,1307,1307,1307,1307,1302,1302,1297,1292,1292,1288,1288,1288,1283,1278,1278,1273,1273,1273,1273,1268,1268,1264,1259,1255,1255,1255,1255,1250,1250,1250,1245,1241,1236,1236,1232,1232,1232,1232,1227,1223,1219,1219,1219,1219,1214,1214,1214,1214,1210,1206,1206,1202,1202,1197,1197,1193,1189,1189,1185,1185,1185,1181,1181,1181,1177,1173,1173,1169,1169,1169,1022,1016,1016,1016,1016,1016,1013,1010,1004,1001,995,995,989,984,981,978,978,975,970,970,967,964,962,959,959,959,956,956,956,0,0,0,0,0,0,0,0,0,0,0,0,0,0,0,0,0,0,0,0,0,0,0,0,0,0,0,0,0,0,0,0,0,0,0
0,0,0,0,0,0,0,0,0,1496,1496,1496,1496,1496,1496,1503,1503,1509,1503,1503,1503,1496,1496,1496,1496,1496,1496,1496,1496,1503,1496,1496,1496,1496,1496,1496,1496,1496,1496,1489,1489,1489,1489,1489,1483,1483,1489,1489,1489,1489,1489,1496,1489,1489,1489,1489,1489,1489,1489,1489,1489,1483,1483,1483,1477,1477,1477,1050,1050,1050,1047,1047,1047,1044,1044,1044,1044,1047,1047,1047,1047,1050,1050,1050,1050,1054,1057,1057,1060,1060,1063,1063,0,1489,1489,1483,1477,1470,1470,1464,1464,0,0,0,0,0,0,0,0,0,0,0,0,736,736,734,733,722,719,719,717,717,717,719,719,720,720,722,722,723,723,725,727,728,728,730,731,733,733,733,734,734,736,736,739,739,739,739,742,746,747,749,750,752,0,0,0,0,0,0,1464,1458,1458,1458,1458,1458,1458,1464,1458,1458,1181,1181,1181,1181,1181,1181,1181,1181,1181,1181,1181,1181,1181,1181,1185,1185,1189,1189,1193,1193,1193,1193,1197,1197,1197,1202,1206,1206,1206,1210,1210,1210,1210,1210,1210,1214,1219,1219,1219,1223,1227,1227,1227,1227,1227,1232,1232,1232,1232,1236,1421,1421,1421,1427,1427,1427,1427,1427,1427,1427,1433,1433,1433,1433,1433,1433,1433,1433,1433,1433,1427,1427,1427,1427,1427,1427,1421,1421,1415,1415,1410,1307,1307,1307,1302,1302,1302,1297,1297,1292,1292,1297,1302,1302,1302,1307,1307,1307,1307,1307,1415,1410,1410,1410,1410,1410,1410,1410,1404,1404,1404,1404,1410,1404,1404,1404,1404,1404,1410,1404,1404,1404,1404,1404,1404,1404,1398,1398,1398,1398,1398,1398,1398,1398,1398,1398,1398,1398,1398,1398,1398,1404,1398,1398,1398,1398,1392,1392,1392,1028,1028,1028,1028,1025,1022,1019,1016,1013,1013,1013,1013,1013,1013,1013,1016,1016,1019,1019,1022,1025,1025,1025,1028,1028,1031,0,1381,1381,1381,1381,1381,1381,1381,1381,1381,1381,1381,1381,1381,1381,1381,1381,1381,1381,1376,1376,1376,1376,1376,1376,1376,1376,1376,1376,1376,1376,1376,1376,1370,1370,1370,1370,1370,1370,1370,1370,1370,1370,1370,1370,1370,1370,1370,1370,1370,1365,1365,1365,1365,1365,1359,1359,1359,1359,1365,1365,1359,1359,1359,1359,1359,1359,1359,1359,1359,1359,1359,1359,1359,1359,1354,1354,1354,1354,1354,1354,1354,1354,1354,1354,1354,1354,1354,1354,1349,1349,1349,1349,1349,1349,1349,1349,1349,1349,1349,1349,1349,1349,1349,1349,1343,1343,1343,1343,1343,1343,1343,1343,1343,1343,1338,1338,1338,1338,1338,1333,1333,1333,1333,1338,1338,1338,1333,1333,1333,1333,1333,1333,1333,1333,1333,1333,1328,1328,1328,1328,1328,1328,1328,1328,1328,1328,1322,1322,1328,1322,1322,1322,1322,1322,1322,1317,1312,1312,1312,1307,1307,1307,1307,1302,1302,1297,1292,1292,1292,1288,1288,1288,1283,1278,1278,1273,1273,1273,1273,1268,1264,1264,1255,1255,1255,1255,1255,1255,1250,1250,1245,1241,1241,1236,1236,1232,1232,1232,1227,1223,1223,1219,1219,1219,1214,1214,1214,1214,1210,1206,1206,1202,1202,1197,1197,1193,1193,1189,1189,1185,1185,1181,1181,1185,1181,1181,1181,1169,1169,1022,1022,1022,1019,1016,1016,1016,1010,1010,1001,998,995,992,987,984,981,978,975,975,970,967,964,962,959,959,959,956,956,954,954,0,0,0,0,0,0,0,0,0,0,0,0,0,0,0,0,0,0,0,0,0,0,0,0,0,0,0,0,0,0,0,0,0,0,0
0,0,0,0,0,0,0,0,0,1496,1496,1496,1496,1489,1489,1489,1496,1496,1489,1489,1489,1496,1496,1496,1496,1496,1496,1496,1496,1496,1489,1489,1489,1489,1489,1489,1489,1489,1489,1483,1483,1483,1483,1483,1483,1483,1483,1483,1483,1489,1489,1489,1489,1489,1483,1483,1483,1483,1483,1483,1483,1477,1477,1477,1470,1470,1464,1464,1047,1047,1047,1047,1047,1047,1044,1044,1044,1047,1047,1047,1047,1050,1050,1050,1050,1054,1060,1060,1060,1060,1063,1063,0,1489,1489,1477,1470,1464,1464,1464,1458,1458,0,0,0,0,0,0,0,0,0,0,0,736,736,734,734,733,719,719,719,719,719,719,720,720,720,722,722,723,723,725,727,728,728,730,731,733,733,733,733,734,734,736,738,739,739,739,739,739,749,749,0,0,0,0,0,0,1173,1173,1173,1458,1458,1458,1458,1458,1458,1458,1458,1181,1181,1181,1181,1181,1181,1181,1181,1181,1181,1181,1181,1181,1181,1181,1181,1185,1185,1189,1189,1193,1193,1193,1193,1197,1197,1202,1206,1206,1210,1210,1210,1210,1210,1210,1210,1214,1219,1219,1219,1223,1227,1227,1227,1227,1227,1232,1232,1232,1232,1415,1415,1421,1421,1421,1421,1421,1421,1421,1427,1427,1427,1427,1427,1427,1433,1433,1427,1427,1427,1427,1421,1421,1421,1421,1421,1421,1415,1415,1415,1410,1410,1307,1307,1307,1307,1302,1302,1302,1297,1297,1297,1302,1302,1302,1307,1307,1307,1307,1307,1307,1410,1410,1410,1404,1404,1404,1404,1404,1398,1398,1398,1398,1404,1404,1404,1404,1404,1404,1404,1404,1398,1398,1404,1398,1398,1392,1392,1398,1398,1398,1398,1398,1398,1392,1392,1392,1392,1392,1392,1392,1392,1398,1398,1398,1398,1398,1398,1398,1387,0,1028,1028,1025,1025,1022,1019,1016,1013,1013,1013,1013,1013,1013,1013,1016,1016,1019,1019,1022,1028,1028,1028,1028,1028,1031,1031,1376,1376,1376,1376,1376,1376,1376,1376,1376,1376,1370,1370,1376,1376,1376,1376,1376,1376,1376,1376,1376,1376,1376,1376,1376,1376,1376,1376,1376,1376,1370,1370,1370,1370,1370,1370,1370,1370,1370,1370,1370,1370,1370,1370,1365,1365,1365,1365,1365,1359,1359,1359,1359,1359,1359,1359,1359,1359,1359,1354,1354,1354,1354,1354,1354,1354,1354,1354,1354,1354,1354,1354,1354,1354,1354,1354,1354,1354,1354,1354,1354,1354,1354,1349,1349,1354,1349,1349,1349,1349,1349,1349,1349,1349,1349,1349,1349,1349,1349,1343,1343,1343,1343,1343,1343,1343,1343,1338,1338,1338,1338,1338,1338,1338,1338,1333,1333,1333,1333,1333,1328,1328,1333,1333,1333,1333,1328,1328,1333,1333,1333,1333,1333,1328,1328,1328,1328,1328,1328,1328,1328,1328,1322,1322,1322,1317,1317,1317,1317,1317,1317,1317,1317,1317,1317,1312,1312,1312,1307,1307,1307,1302,1302,1302,1302,1297,1292,1292,1292,1288,1288,1288,1288,1288,1278,1273,1273,1273,1273,1268,1264,1264,1255,1255,1255,1255,1255,1255,1250,1250,1245,1245,1241,1236,1236,1232,1232,1232,1227,1223,1223,1223,1219,1219,1219,1214,1214,1214,1210,1206,1206,1202,1202,1197,1197,1193,1193,1193,1193,1185,1185,1185,1185,1185,1181,1181,1181,1181,1025,1022,1022,1022,1022,1019,1016,1013,1007,1004,998,998,995,989,987,981,978,975,973,973,970,967,964,962,959,959,959,956,956,954,954,0,0,0,0,0,0,0,0,0,0,0,0,0,0,0,0,0,0,0,0,0,0,0,0,0,0,0,0,0,0,0,0,0,0,0
0,0,0,0,0,0,0,0,0,1489,1489,1496,1496,1489,1489,1489,1489,1489,1489,1489,1489,1489,1489,1489,1489,1489,1496,1489,1489,1489,1489,1489,1489,1489,1489,1489,1483,1483,1483,1477,1477,1477,1477,1477,1477,1477,1477,1483,1483,1483,1483,1483,1483,1483,1483,1483,1477,1477,1483,1477,1477,1470,1470,1470,1464,1464,1464,1464,1047,1047,1047,1047,1047,1044,1044,1044,1047,1047,1047,1047,1047,1050,1050,1050,1054,1057,1057,1060,1060,1060,1063,1063,1063,1464,1464,1464,1464,1458,1458,1458,1458,1458,0,0,0,0,0,0,0,0,0,0,0,738,738,736,734,733,727,722,720,720,720,720,720,720,722,722,722,723,725,727,728,728,730,730,731,733,733,733,733,734,734,738,738,739,739,739,739,739,0,0,0,0,0,0,0,1169,1169,1173,1173,1173,1173,1173,1177,1177,1177,1177,1177,1181,1181,1181,1181,1181,1181,1181,1181,1181,1181,1181,1181,1181,1181,1181,1181,1181,1185,1185,1185,1189,1193,1193,1193,1197,1197,1202,1206,1206,1210,1210,1210,1210,1210,1210,1214,1214,1219,1219,1219,1223,1227,1227,1232,1421,1421,1415,1415,1415,1415,1415,1415,1415,1421,1421,1421,1421,1421,1421,1421,1421,1415,1415,1415,1415,1415,1415,1415,1421,1421,1415,1415,1415,1415,1415,1415,1415,1415,1415,1410,1410,1410,1307,1307,1307,1307,1302,1302,1302,1302,1297,1297,1302,1302,1302,1307,1307,1307,1307,1307,1307,1410,1410,1404,1404,1404,1404,1404,1398,1398,1398,1398,1398,1392,1392,1398,1398,1398,1398,1398,1398,1392,1392,1392,1392,1392,1392,1392,1392,1392,1392,1392,1392,1392,1392,1392,1387,1387,1392,1387,1387,1387,1392,1392,1392,1392,1392,1387,1387,1387,1376,1028,1028,1025,1025,1022,1019,1019,1016,1013,1013,1013,1013,1013,1013,1016,1016,1019,1019,1022,1028,1028,1028,1028,1028,1031,1031,0,1376,1376,1376,1376,1370,1370,1370,1370,1370,1370,1370,1370,1370,1370,1370,1370,1370,1370,1370,1370,1370,1370,1370,1370,1370,1370,1370,1370,1370,1370,1370,1365,1365,1365,1365,1365,1365,1365,1365,1365,1365,1365,1365,1365,1365,1365,1365,1359,1359,1354,1354,1354,1354,1354,1354,1354,1354,1354,1354,1354,1354,1354,1354,1354,1354,1354,1349,1349,1349,1349,1349,1349,1349,1349,1349,1349,1349,1349,1349,1349,1349,1349,1349,1349,1349,1349,1349,1349,1343,1343,1343,1349,1343,1343,1343,1343,1343,1343,1343,1343,1343,1343,1343,1338,1338,1338,1333,1333,1333,1333,1333,1333,1333,1333,1333,1333,1328,1328,1328,1328,1328,1328,1328,1328,1328,1328,1328,1328,1322,1322,1328,1328,1328,1328,1328,1328,1328,1328,1322,1322,1322,1322,1322,1322,1317,1317,1317,1317,1317,1312,1312,1312,1312,1312,1312,1312,1312,1307,1307,1302,1302,1302,1302,1297,1292,1292,1292,1292,1288,1288,1288,1288,1288,1283,1278,1273,1273,1273,1268,1268,1264,1259,1259,1255,1255,1255,1255,1250,1250,1245,1245,1241,1236,1236,1232,1232,1232,1227,1227,1223,1223,1219,1219,1219,1214,1214,1214,1214,1210,1206,1202,1202,1197,1197,1193,1193,1193,1193,1189,1189,1189,1185,1185,1185,1185,1185,1025,1025,1025,1025,1025,1022,1016,1013,1013,1007,1004,998,995,995,989,984,981,975,973,970,970,967,964,962,962,959,956,956,956,956,954,954,0,0,0,0,0,0,0,0,0,0,0,0,0,0,0,0,0,0,0,0,0,0,0,0,0,0,0,0,0,0,0,0,0,0,0
0,0,0,0,0,0,0,0,0,1489,1489,1489,1489,1489,1489,1483,1483,1483,1483,1483,1483,1483,1483,1483,1483,1483,1483,1483,1483,1489,1489,1489,1489,1483,1483,1483,1483,1483,1477,1470,1470,1470,1477,1470,1470,1470,1477,1477,1477,1477,1477,1477,1477,1477,1477,1477,1477,1477,1477,1470,1470,1470,1470,1464,1464,1464,1464,1464,1047,1047,1047,1047,1047,1044,1044,1047,1047,1047,1047,1047,1047,1047,1050,1050,1054,1054,1057,1060,1060,1060,1063,1063,1063,0,1458,1458,1458,1452,1452,1452,1445,1445,0,0,0,0,0,0,0,0,0,0,0,738,738,736,734,733,727,725,722,722,722,722,722,722,722,722,723,725,725,727,728,728,730,730,731,733,733,733,733,734,736,738,739,739,739,739,739,0,0,0,0,0,0,0,1165,1165,1169,1169,1169,1169,1169,1169,1173,1173,1173,1173,1177,1177,1177,1177,1177,1177,1177,1177,1177,1181,1177,1177,1177,1177,1177,1177,1177,1177,1181,1181,1181,1189,1189,1193,1193,1197,1197,1202,1206,1206,1210,1210,1210,1210,1214,1214,1214,1214,1219,1219,1219,1223,1227,1421,1421,1415,1415,1415,1415,1415,1415,1415,1415,1415,1415,1415,1415,1415,1415,1415,1415,1415,1410,1410,1410,1410,1410,1410,1410,1410,1410,1410,1410,1415,1415,1410,1410,1410,1410,1410,1410,1410,1410,1312,1312,1307,1307,1307,1302,1302,1302,1302,1302,1302,1302,1307,1307,1307,1312,1307,1307,1307,1307,1410,1404,1404,1404,1398,1398,1398,1392,1392,1392,1392,1392,1392,1392,1392,1392,1392,1392,1392,1392,1392,1392,1392,1392,1392,1392,1392,1392,1387,1387,1387,1387,1387,1387,1387,1387,1387,1387,1387,1387,1387,1387,1387,1387,1381,1381,1376,1376,1376,1028,1028,1028,1025,1025,1022,1019,1016,1016,1016,1013,1013,1013,1013,1016,1016,1019,1019,1025,1028,1028,1028,1028,1031,1031,1031,0,1376,1376,1376,1370,1370,1370,1370,1370,1370,1370,1370,1370,1370,1370,1365,1365,1365,1365,1365,1365,1365,1370,1370,1370,1370,1370,1370,1370,1370,1365,1365,1365,1359,1359,1365,1365,1359,1359,1359,1359,1365,1359,1359,1359,1359,1359,1359,1354,1354,1354,1354,1354,1354,1354,1354,1354,1354,1354,1354,1354,1354,1354,1349,1349,1349,1349,1349,1349,1349,1349,1349,1343,1343,1343,1343,1343,1349,1349,1349,1349,1349,1349,1349,1349,1349,1343,1343,1343,1343,1343,1343,1343,1343,1343,1343,1343,1338,1338,1338,1338,1338,1338,1338,1333,1333,1333,1333,1333,1333,1333,1333,1328,1328,1328,1328,1328,1328,1328,1328,1328,1322,1322,1322,1322,1322,1322,1322,1322,1317,1317,1317,1322,1322,1322,1322,1322,1322,1322,1317,1317,1317,1317,1317,1322,1317,1317,1317,1312,1312,1312,1312,1312,1312,1312,1307,1307,1307,1307,1302,1302,1297,1297,1297,1297,1292,1292,1292,1292,1288,1288,1288,1288,1288,1283,1283,1273,1273,1273,1273,1273,1264,1264,1259,1255,1255,1255,1255,1250,1250,1250,1245,1241,1241,1236,1236,1232,1232,1232,1227,1227,1223,1223,1219,1219,1219,1214,1214,1214,1210,1206,1206,1202,1197,1197,1197,1197,1193,1193,1189,1189,1189,1189,1185,1185,1185,1185,1028,1025,1025,1025,1025,1022,1016,1007,1004,1001,998,995,995,992,984,981,975,973,970,970,967,964,962,962,959,959,956,956,956,956,954,954,0,0,0,0,0,0,0,0,0,0,0,0,0,0,0,0,0,0,0,0,0,0,0,0,0,0,0,0,0,0,0,0,0,0,0
0,0,0,0,0,0,0,0,0,1483,1483,1483,1483,1483,1483,1483,1483,1483,1483,1483,1483,1483,1483,1483,1483,1483,1483,1483,1483,1483,1483,1483,1483,1483,1483,1483,1483,1477,1477,1470,1470,1470,1470,1470,1470,1470,1470,1470,1470,1470,1470,1470,1470,1470,1470,1470,1470,1470,1470,1464,1464,1464,1464,1464,1458,1458,1464,1464,1047,1047,1047,1047,1047,1047,1047,1047,1047,1047,1047,1047,1047,1047,1050,1050,1054,1054,1057,1060,1060,1060,1063,1063,1063,0,1458,1458,1458,1452,1452,1445,1445,1445,0,0,0,0,0,0,0,0,0,0,0,739,739,738,734,731,731,727,723,722,722,722,722,722,722,723,725,725,727,727,728,730,730,730,731,733,733,733,734,734,736,738,739,739,739,739,739,0,0,0,0,0,0,0,1165,1165,1169,1169,1169,1169,1169,1169,1169,1169,1169,1173,1173,1173,1173,1177,1177,1177,1177,1177,1177,1177,1177,1177,1177,1177,1177,1177,1177,1177,1177,1177,1181,1185,1189,1193,1193,1197,1197,1202,1206,1206,1210,1210,1210,1210,1214,1214,1214,1219,1219,1219,1223,1227,1415,1415,1415,1415,1415,1410,1410,1410,1410,1410,1410,1410,1415,1410,1410,1410,1410,1410,1410,1410,1410,1404,1404,1404,1404,1404,1404,1404,1410,1410,1404,1404,1404,1404,1404,1404,1410,1404,1404,1404,1404,1312,1307,1307,1307,1307,1307,1307,1302,1302,1302,1302,1302,1307,1307,1312,1312,1307,1307,1307,1307,1404,1404,1398,1398,1398,1398,1392,1392,1392,1392,1387,1387,1387,1387,1387,1387,1387,1387,1387,1387,1387,1387,1387,1387,1387,1387,1387,1387,1387,1381,1381,1387,1387,1381,1381,1381,1387,1381,1381,1381,1381,1381,1381,1381,1376,1376,1370,1370,1370,1041,1041,1028,1025,1025,1022,1019,1016,1016,1016,1013,1013,1016,1016,1016,1016,1019,1022,1025,1028,1028,1028,1028,1031,1031,1031,0,1370,1370,1370,1370,1365,1365,1365,1365,1365,1365,1365,1370,1365,1365,1365,1365,1365,1365,1359,1359,1359,1365,1365,1365,1365,1365,1365,1365,1359,1359,1359,1359,1354,1354,1359,1359,1359,1354,1354,1359,1354,1354,1354,1354,1354,1354,1354,1354,1354,1349,1349,1349,1349,1349,1349,1354,1349,1349,1349,1349,1349,1349,1349,1349,1349,1349,1349,1343,1343,1343,1343,1343,1343,1343,1343,1338,1338,1338,1338,1343,1343,1343,1343,1343,1343,1343,1343,1343,1343,1338,1338,1338,1338,1338,1338,1338,1338,1338,1333,1333,1333,1333,1333,1333,1333,1333,1328,1328,1328,1328,1328,1328,1322,1322,1322,1322,1322,1317,1317,1322,1317,1317,1317,1317,1312,1312,1317,1312,1312,1312,1312,1312,1312,1312,1312,1317,1317,1317,1312,1312,1312,1312,1312,1312,1312,1312,1312,1312,1312,1312,1312,1307,1307,1307,1307,1307,1307,1307,1302,1302,1297,1297,1297,1292,1292,1292,1292,1292,1288,1288,1288,1288,1288,1283,1283,1283,1283,1278,1273,1268,1268,1264,1264,1259,1255,1255,1255,1250,1250,1250,1245,1241,1241,1236,1236,1232,1232,1232,1227,1227,1223,1223,1219,1219,1219,1214,1214,1214,1210,1210,1206,1202,1202,1197,1197,1197,1193,1193,1193,1193,1189,1189,1189,1185,1185,1028,1028,1028,1025,1025,1022,1019,1016,1004,1001,998,995,992,989,989,981,978,975,973,970,967,964,964,962,959,959,959,956,956,956,956,954,954,0,0,0,0,0,0,0,0,0,0,0,0,0,0,0,0,0,0,0,0,0,0,0,0,0,0,0,0,0,0,0,0,0,0,0
0,0,0,0,0,0,0,0,0,1483,1483,1483,1483,1483,1477,1477,1477,1483,1483,1483,1483,1477,1477,1483,1477,1477,1477,1477,1477,1477,1477,1477,1477,1477,1470,1470,1470,1477,1464,1464,1464,1464,1470,1470,1464,1464,1470,1464,1464,1464,1464,1464,1464,1464,1464,1464,1464,1464,1464,1464,1464,1458,1458,1458,1458,1458,1458,1427,1427,1047,1047,1047,1047,1047,1047,1047,1047,1047,1047,1047,1047,1050,1050,1050,1054,1057,1060,1060,1060,1060,1063,1063,1063,1063,1452,1452,1452,1452,1445,1445,1439,1439,1445,0,0,0,0,0,0,0,0,0,0,0,739,734,733,731,731,727,725,723,723,722,722,722,722,723,725,725,727,727,728,730,730,731,731,733,733,733,734,736,738,738,739,739,739,739,739,0,0,0,0,0,0,1165,1165,1165,1165,1165,1165,1169,1169,1169,1169,1169,1169,1173,1173,1173,1173,1177,1177,1177,1177,1177,1177,1177,1177,1177,1173,1173,1173,1173,1173,1173,1173,1173,1173,1177,1177,1189,1189,1197,1197,1202,1206,1206,1210,1210,1210,1210,1214,1214,1214,1219,1219,1223,1227,1410,1410,1410,1415,1410,1410,1410,1410,1410,1410,1410,1404,1404,1410,1410,1410,1410,1410,1410,1410,1404,1404,1398,1398,1398,1398,1398,1398,1398,1398,1404,1398,1398,1398,1398,1392,1392,1398,1398,1398,1398,1398,1404,1307,1307,1307,1307,1307,1307,1307,1302,1302,1302,1307,1307,1312,1312,1312,1312,1312,1307,1307,1398,1398,1398,1398,1392,1392,1392,1392,1387,1387,1387,1387,1387,1387,1381,1381,1376,1376,1381,1381,1381,1381,1381,1381,1381,1381,1381,1381,1381,1381,1381,1381,1381,1381,1376,1376,1381,1376,1370,1370,1381,1381,1376,1376,1376,1376,1365,1359,1359,1041,1041,1038,1028,1028,1025,1022,1019,1016,1016,1016,1016,1016,1016,1016,1019,1019,1022,1025,1028,1028,1028,1028,1031,1031,1031,1031,1370,1370,1370,1365,1365,1365,1365,1365,1365,1365,1365,1365,1365,1359,1359,1359,1359,1359,1354,1354,1354,1354,1354,1354,1359,1359,1359,1359,1354,1354,1354,1354,1354,1354,1354,1354,1354,1354,1354,1354,1354,1354,1354,1354,1354,1349,1349,1349,1349,1349,1349,1349,1349,1349,1349,1349,1349,1349,1349,1349,1343,1343,1343,1343,1343,1343,1343,1338,1338,1338,1338,1333,1333,1333,1333,1333,1333,1333,1333,1333,1333,1333,1338,1338,1343,1338,1338,1338,1338,1333,1333,1333,1333,1333,1333,1333,1333,1333,1333,1333,1328,1328,1328,1328,1328,1328,1322,1322,1322,1322,1322,1322,1322,1322,1317,1317,1317,1317,1317,1317,1312,1312,1312,1312,1312,1312,1312,1312,1312,1312,1312,1312,1312,1307,1307,1307,1307,1312,1312,1312,1312,1312,1312,1312,1312,1312,1312,1312,1307,1307,1307,1307,1307,1302,1302,1302,1302,1302,1297,1297,1292,1292,1292,1292,1292,1292,1292,1292,1292,1292,1292,1288,1288,1288,1283,1283,1283,1278,1273,1268,1268,1268,1264,1259,1255,1255,1255,1250,1250,1250,1245,1241,1241,1236,1236,1236,1232,1232,1232,1227,1223,1223,1223,1219,1219,1219,1214,1214,1214,1210,1206,1202,1202,1202,1197,1197,1197,1197,1197,1197,1197,1193,1189,1189,1189,1028,1028,1028,1025,1022,1016,1016,1007,1001,998,995,992,989,987,981,978,978,975,970,967,964,962,962,962,959,959,956,956,956,956,956,954,954,0,0,0,0,0,0,0,0,0,0,0,0,0,0,0,0,0,0,0,0,0,0,0,0,0,0,0,0,0,0,0,0,0,0,0
0,0,0,0,0,0,0,0,0,1483,1483,1477,1477,1477,1477,1477,1477,1477,1477,1477,1477,1477,1477,1477,1477,1477,1470,1470,1470,1470,1470,1470,1470,1470,1464,1464,1458,1458,1458,1458,1458,1458,1464,1464,1464,1464,1464,1464,1458,1458,1458,1458,1458,1458,1464,1464,1464,1464,1464,1464,1464,1458,1458,1452,1452,1452,1452,1427,1427,1047,1047,1047,1047,1047,1047,1047,1047,1047,1047,1050,1050,1050,1050,1050,1057,1057,1060,1060,1060,1060,1063,1063,1063,1063,1452,1452,1452,1445,1445,1439,1439,1439,1439,0,0,0,0,0,0,0,0,0,0,0,0,734,733,733,733,728,727,725,723,723,722,722,722,723,725,727,727,728,728,730,730,731,733,733,733,733,734,736,738,738,739,739,739,739,0,0,0,0,0,0,0,1165,1165,1165,1165,1165,1165,1165,1165,1165,1169,1169,1169,1169,1173,1173,1173,1173,1173,1177,1177,1177,1177,1177,1177,1173,1173,1173,1173,1169,1169,1169,1169,1169,1169,1169,1169,1177,1181,1189,1193,1202,1206,1206,1210,1210,1210,1210,1210,1214,1214,1404,1404,1404,1410,1410,1410,1410,1410,1410,1410,1410,1404,1404,1410,1404,1404,1404,1404,1404,1404,1404,1404,1404,1404,1404,1398,1398,1398,1398,1398,1392,1392,1398,1398,1392,1392,1392,1392,1392,1392,1392,1392,1392,1392,1392,1392,1392,1307,1307,1307,1307,1307,1307,1307,1307,1307,1307,1307,1307,1312,1312,1317,1312,1312,1317,1398,1392,1392,1392,1392,1392,1392,1387,1387,1387,1387,1387,1381,1381,1381,1376,1376,1370,1370,1376,1376,1376,1376,1376,1376,1376,1376,1376,1376,1376,1376,1376,1376,1376,1376,1376,1376,1376,1370,1370,1370,1376,1376,1370,1370,1370,1370,1365,1359,1354,1354,1041,1038,1031,1028,1025,1022,1022,1019,1016,1016,1016,1016,1016,1019,1019,1022,1022,1025,1028,1028,1028,1031,1031,1031,1031,1031,1370,1370,1365,1365,1359,1359,1359,1359,1359,1359,1359,1359,1359,1359,1359,1354,1354,1354,1354,1349,1349,1349,1349,1354,1349,1349,1349,1354,1354,1354,1354,1354,1349,1349,1349,1349,1349,1349,1349,1349,1349,1349,1349,1349,1349,1343,1343,1343,1343,1343,1343,1343,1343,1343,1343,1343,1343,1343,1343,1343,1343,1343,1338,1338,1338,1338,1338,1333,1333,1333,1333,1333,1333,1333,1333,1333,1333,1333,1333,1328,1328,1328,1328,1328,1328,1333,1333,1333,1333,1333,1333,1328,1328,1328,1333,1333,1328,1328,1328,1328,1328,1322,1322,1322,1322,1322,1317,1317,1317,1317,1317,1317,1317,1317,1317,1317,1312,1312,1312,1312,1312,1307,1307,1307,1307,1307,1307,1307,1307,1307,1307,1307,1307,1307,1307,1307,1307,1307,1307,1307,1307,1307,1307,1307,1307,1307,1307,1307,1307,1307,1307,1302,1302,1302,1297,1297,1297,1297,1292,1292,1292,1292,1292,1292,1292,1288,1288,1288,1288,1288,1283,1283,1283,1283,1283,1273,1273,1278,1273,1268,1268,1268,1264,1259,1259,1259,1255,1255,1250,1250,1245,1245,1241,1236,1236,1236,1236,1232,1232,1227,1223,1223,1219,1219,1219,1219,1219,1214,1214,1210,1206,1202,1202,1202,1202,1197,1197,1197,1197,1197,1197,1197,1193,1025,1025,1025,1025,1025,1025,1016,1013,1007,1004,998,995,995,992,989,984,981,978,975,973,970,967,964,962,962,962,959,959,956,956,956,954,954,956,0,0,0,0,0,0,0,0,0,0,0,0,0,0,0,0,0,0,0,0,0,0,0,0,0,0,0,0,0,0,0,0,0,0,0,0
0,0,0,0,0,0,0,0,0,1477,1477,1470,1470,1470,1470,1470,1470,1470,1470,1470,1477,1470,1470,1470,1470,1464,1464,1464,1470,1470,1470,1470,1464,1464,1458,1458,1458,1452,1452,1452,1458,1458,1458,1458,1458,1458,1458,1458,1458,1458,1458,1458,1458,1458,1458,1458,1464,1464,1458,1458,1458,1458,1452,1452,1452,1452,1452,1427,1427,1047,1047,1047,1047,1047,1047,1047,1047,1047,1047,1050,1050,1050,1050,1054,1057,1057,1060,1060,1060,1063,1063,1063,1063,1063,1445,1445,1445,1439,1439,1439,1433,1433,1433,0,0,0,0,0,0,0,0,0,0,0,0,0,733,733,733,728,727,725,725,723,723,723,723,723,725,727,727,728,728,730,731,731,733,733,733,734,734,736,739,739,739,739,739,739,0,0,0,0,0,0,0,1165,1165,1165,1165,1165,1165,1165,1165,1165,1165,1165,1165,1169,1169,1169,1173,1173,1173,1177,1177,1177,1177,1177,1177,1173,1173,1173,1169,1165,1165,1165,1165,1165,1165,1165,1165,1165,1161,1161,1193,1202,1206,1206,1210,1210,1210,1210,1210,1214,1392,1398,1404,1404,1404,1404,1410,1410,1410,1410,1410,1404,1404,1404,1404,1404,1398,1398,1398,1398,1398,1398,1398,1398,1398,1398,1398,1392,1392,1392,1392,1392,1392,1392,1392,1392,1392,1392,1392,1392,1387,1387,1392,1392,1392,1387,1387,1387,1387,1312,1312,1312,1312,1312,1307,1307,1307,1307,1307,1307,1312,1312,1317,1317,1317,1317,1317,1387,1387,1387,1387,1387,1387,1387,1387,1381,1381,1376,1376,1376,1376,1370,1370,1370,1370,1370,1370,1370,1370,1370,1370,1370,1370,1370,1370,1370,1370,1370,1370,1370,1370,1370,1370,1370,1370,1365,1365,1370,1370,1370,1365,1365,1365,1365,1359,1354,1354,1041,1038,1034,1031,1028,1025,1025,1022,1019,1016,1016,1016,1019,1019,1022,1022,1025,1025,1028,1028,1031,1031,1031,1031,1031,1031,1365,1365,1365,1359,1359,1354,1354,1354,1354,1354,1354,1354,1354,1354,1354,1354,1354,1354,1349,1349,1349,1349,1349,1349,1349,1349,1349,1349,1349,1343,1343,1349,1349,1349,1349,1349,1349,1343,1343,1343,1343,1343,1343,1343,1343,1338,1338,1338,1338,1343,1343,1343,1343,1343,1343,1343,1338,1338,1338,1338,1338,1338,1338,1338,1333,1333,1333,1333,1333,1328,1328,1328,1328,1328,1328,1328,1328,1328,1328,1322,1322,1322,1322,1322,1322,1322,1322,1322,1322,1328,1328,1322,1322,1328,1328,1328,1328,1322,1322,1322,1322,1317,1317,1317,1312,1312,1312,1312,1312,1312,1312,1312,1312,1312,1312,1312,1312,1307,1307,1307,1307,1307,1307,1307,1307,1307,1307,1307,1307,1307,1302,1302,1302,1302,1302,1302,1302,1302,1302,1302,1302,1302,1302,1302,1307,1307,1307,1302,1302,1302,1302,1297,1297,1297,1297,1292,1292,1292,1292,1292,1288,1288,1288,1288,1288,1288,1288,1288,1288,1288,1283,1283,1283,1283,1283,1273,1273,1273,1273,1268,1268,1268,1264,1264,1259,1259,1255,1255,1250,1250,1245,1245,1241,1241,1236,1236,1236,1232,1232,1232,1223,1223,1219,1219,1219,1219,1219,1219,1214,1214,1206,1202,1202,1202,1202,1197,1197,1197,1197,1197,1197,1197,1197,1025,1025,1025,1025,1025,1022,1016,1010,1004,1001,998,995,992,989,987,984,978,978,973,970,970,967,964,964,962,962,959,959,956,954,954,954,954,0,0,0,0,0,0,0,0,0,0,0,0,0,0,0,0,0,0,0,0,0,0,0,0,0,0,0,0,0,0,0,0,0,0,0,0,0
0,0,0,0,0,0,0,0,0,1477,1470,1470,1470,1470,1470,1470,1470,1470,1470,1470,1470,1464,1464,1464,1464,1464,1458,1458,1464,1464,1464,1470,1464,1464,1458,1458,1452,1452,1452,1452,1452,1452,1452,1458,1452,1452,1452,1445,1445,1452,1452,1452,1452,1452,1452,1452,1458,1458,1452,1452,1452,1452,1452,1452,1445,1445,1445,1439,1439,1050,1050,1050,1050,1050,1047,1047,1050,1050,1050,1050,1050,1050,1054,1057,1057,1057,1060,1060,1060,1063,1063,1063,1063,1063,1439,1439,1439,1439,1439,1439,1433,1433,1433,1439,0,0,0,0,0,0,0,0,0,0,0,0,0,733,733,728,727,727,725,723,723,723,723,725,725,727,727,728,728,730,731,731,733,733,733,734,734,736,739,739,739,739,739,739,0,0,0,0,0,0,1161,1161,1161,1161,1161,1161,1165,1165,1165,1165,1165,1165,1165,1169,1169,1169,1173,1173,1173,1177,1177,1177,1177,1177,1177,1177,1173,1169,1169,1165,1165,1161,1161,1161,1157,1157,1157,1161,1153,1153,1153,1153,1149,1149,1149,1210,1210,1398,1398,1392,1392,1392,1398,1398,1398,1398,1404,1404,1404,1404,1404,1404,1398,1398,1398,1398,1392,1392,1392,1392,1392,1392,1392,1392,1392,1398,1392,1392,1392,1392,1392,1392,1392,1392,1392,1392,1392,1387,1387,1387,1387,1387,1387,1387,1387,1387,1381,1376,1370,1322,1317,1317,1312,1312,1312,1307,1307,1307,1307,1307,1312,1317,1317,1317,1317,1317,1317,1328,1381,1381,1381,1381,1381,1381,1381,1381,1381,1376,1376,1370,1370,1370,1370,1370,1370,1370,1370,1370,1370,1365,1365,1370,1370,1365,1365,1365,1365,1365,1365,1359,1359,1359,1359,1354,1354,1359,1365,1365,1370,1365,1365,1365,1359,1359,1354,1354,1354,1041,1041,1038,1038,1031,1028,1028,1025,1022,1019,1019,1019,1019,1019,1022,1022,1025,1028,1028,1031,1031,1031,1034,1034,1034,1034,1354,1354,1354,1354,1354,1354,1354,1354,1354,1354,1354,1354,1354,1349,1349,1349,1349,1349,1349,1349,1349,1343,1343,1343,1343,1343,1343,1343,1343,1343,1343,1343,1343,1343,1343,1343,1343,1343,1343,1343,1338,1338,1338,1338,1338,1333,1333,1338,1338,1338,1338,1338,1338,1338,1338,1333,1333,1333,1333,1333,1333,1333,1333,1333,1333,1333,1333,1328,1328,1328,1328,1328,1328,1328,1322,1322,1322,1322,1328,1322,1322,1322,1322,1317,1317,1317,1317,1317,1317,1317,1317,1317,1317,1317,1317,1317,1317,1317,1317,1317,1317,1317,1317,1312,1312,1312,1312,1307,1307,1307,1307,1312,1312,1312,1312,1312,1312,1307,1307,1307,1302,1302,1302,1302,1302,1302,1307,1302,1302,1302,1302,1297,1297,1297,1297,1297,1297,1297,1297,1297,1297,1292,1292,1292,1297,1297,1297,1297,1297,1297,1297,1297,1297,1292,1292,1292,1292,1288,1288,1288,1288,1288,1288,1288,1288,1288,1288,1288,1288,1288,1283,1283,1283,1283,1283,1278,1278,1273,1273,1268,1268,1268,1264,1264,1259,1259,1255,1255,1255,1250,1250,1245,1241,1241,1241,1236,1236,1232,1232,1232,1223,1223,1223,1219,1219,1219,1219,1219,1214,1214,1214,1206,1202,1202,1202,1197,1197,1197,1197,1197,1197,1197,1028,1028,1028,1025,1025,1022,1019,1016,1007,1001,998,995,992,989,987,984,981,978,975,973,970,970,967,964,964,964,962,959,959,956,954,954,954,0,0,0,0,0,0,0,0,0,0,0,0,0,0,0,0,0,0,0,0,0,0,0,0,0,0,0,0,0,0,0,0,0,0,0,0,0,0
0,0,0,0,0,0,0,0,0,1470,1464,1464,1464,1464,1464,1464,1464,1464,1464,1464,1464,1458,1458,1458,1458,1458,1458,1458,1458,1458,1458,1458,1452,1452,1452,1452,1445,1445,1445,1445,1445,1445,1445,1452,1445,1445,1445,1445,1439,1439,1439,1439,1445,1445,1452,1452,1452,1452,1445,1445,1445,1445,1445,1445,1439,1439,1439,1433,1433,1054,1054,1050,1050,1050,1050,1050,1050,1050,1050,1050,1050,1054,1054,1057,1060,1060,1060,1060,1063,1063,1063,1063,1063,1063,1439,1439,1439,1433,1433,1433,1433,1433,1433,1439,0,0,0,0,0,0,0,0,0,0,0,0,0,0,733,730,728,727,725,725,723,723,725,725,727,727,727,728,728,731,731,733,733,734,734,734,736,739,739,739,739,741,741,0,0,0,0,0,0,0,1161,1161,1161,1161,1161,1161,1161,1161,1165,1165,1165,1165,1165,1169,1169,1169,1173,1173,1173,1177,1177,1177,1177,1177,1177,1177,1173,1169,1169,1165,1165,1161,1161,1161,1157,1153,1153,1149,1149,1149,1149,1149,1149,1149,1149,1398,1398,1392,1392,1392,1392,1392,1392,1392,1398,1398,1398,1398,1404,1398,1398,1392,1392,1392,1392,1392,1392,1392,1392,1392,1392,1392,1392,1387,1387,1392,1392,1392,1392,1392,1392,1392,1387,1387,1387,1387,1387,1387,1387,1387,1387,1387,1387,1387,1381,1381,1376,1370,1370,1359,1322,1317,1317,1312,1312,1312,1307,1307,1307,1307,1312,1317,1317,1322,1322,1322,1322,1328,1370,1370,1376,1376,1376,1376,1376,1376,1376,1370,1370,1370,1370,1370,1370,1365,1365,1365,1365,1365,1365,1365,1365,1365,1365,1365,1365,1365,1359,1359,1354,1354,1354,1354,1354,1349,1349,1354,1354,1365,1365,1359,1359,1359,1354,1354,1349,1349,1041,1041,1041,1038,1038,1034,1031,1028,1025,1025,1022,1022,1022,1022,1022,1022,1022,1028,1028,1031,1031,1031,1034,1034,1034,1034,1034,1354,1354,1354,1349,1349,1349,1349,1349,1349,1349,1349,1349,1349,1349,1349,1343,1343,1343,1343,1343,1343,1338,1338,1338,1338,1338,1338,1338,1338,1338,1338,1338,1338,1338,1338,1338,1338,1343,1338,1338,1338,1333,1333,1333,1333,1333,1333,1333,1333,1333,1333,1333,1333,1333,1333,1333,1328,1328,1328,1328,1328,1328,1328,1328,1328,1328,1328,1328,1328,1322,1322,1322,1322,1322,1317,1317,1317,1317,1322,1317,1317,1317,1317,1317,1317,1317,1317,1312,1312,1312,1312,1312,1312,1312,1312,1317,1317,1317,1312,1312,1312,1312,1312,1307,1307,1307,1307,1307,1307,1307,1307,1307,1307,1307,1307,1307,1307,1307,1302,1302,1302,1302,1302,1302,1302,1302,1302,1297,1297,1297,1292,1292,1292,1292,1292,1292,1292,1292,1292,1292,1292,1292,1288,1288,1292,1292,1288,1288,1288,1292,1292,1292,1292,1292,1292,1288,1288,1288,1288,1288,1288,1288,1288,1288,1288,1288,1288,1288,1288,1288,1288,1288,1283,1283,1283,1278,1278,1273,1268,1268,1268,1264,1264,1259,1259,1255,1250,1250,1250,1250,1250,1245,1241,1241,1241,1236,1236,1236,1232,1232,1223,1223,1223,1219,1219,1219,1219,1219,1214,1214,1210,1206,1202,1202,1202,1197,1197,1197,1197,1197,1193,1028,1028,1028,1028,1022,1022,1019,1016,1007,998,995,995,992,989,987,984,984,981,978,975,973,970,970,967,964,964,964,964,964,959,959,954,954,0,0,0,0,0,0,0,0,0,0,0,0,0,0,0,0,0,0,0,0,0,0,0,0,0,0,0,0,0,0,0,0,0,0,0,0,0,0,0
0,0,0,0,0,0,0,0,0,1464,1464,1464,1464,1464,1464,1464,1458,1458,1458,1458,1458,1458,1458,1452,1452,1452,1452,1452,1445,1445,1452,1452,1452,1452,1452,1445,1445,1445,1445,1445,1439,1439,1439,1439,1439,1439,1439,1439,1439,1439,1439,1439,1439,1439,1439,1439,1439,1445,1439,1439,1439,1433,1433,1439,1433,1433,1433,1427,1427,1054,1054,1054,1050,1050,1050,1050,1050,1050,1050,1050,1054,1057,1057,1057,1060,1060,1060,1060,1063,1063,1063,1063,1063,1067,1439,1439,1433,1427,1427,1427,1427,1427,1427,0,0,0,0,0,0,0,0,0,0,0,0,0,0,0,739,739,728,727,727,725,725,725,725,727,727,727,728,728,730,731,731,733,733,734,734,734,736,739,739,739,741,741,741,0,0,0,0,0,0,0,1161,1157,1157,1161,1161,1161,1161,1161,1165,1165,1165,1165,1169,1169,1169,1173,1173,1173,1173,1177,1177,1177,1177,1177,1177,1177,1173,1169,1169,1165,1165,1161,1161,1157,1153,1149,1149,1145,1145,1145,1145,1145,1145,1145,1145,1145,1398,1392,1392,1392,1392,1392,1392,1392,1392,1392,1398,1398,1398,1392,1392,1387,1387,1387,1387,1387,1387,1387,1387,1387,1387,1387,1387,1387,1387,1387,1387,1387,1387,1387,1387,1387,1387,1387,1387,1387,1387,1381,1381,1381,1381,1381,1381,1381,1381,1376,1376,1370,1365,1359,1343,1333,1317,1312,1312,1312,1312,1312,1307,1307,1312,1317,1317,1322,1322,1322,1322,1328,1365,1365,1370,1370,1370,1370,1370,1370,1370,1370,1365,1365,1365,1365,1365,1365,1365,1365,1365,1365,1365,1359,1359,1359,1365,1359,1359,1359,1359,1354,1354,1349,1349,1349,1349,1349,1349,1349,1354,1359,1359,1359,1354,1354,1354,1349,1349,1349,1041,1041,1041,1041,1038,1034,1031,1028,1028,1025,1025,1025,1025,1025,1025,1025,1025,1028,1028,1031,1031,1034,1034,1034,1034,1034,1038,1354,1354,1349,1349,1349,1349,1349,1349,1349,1349,1343,1343,1343,1343,1343,1343,1338,1338,1338,1338,1338,1338,1338,1338,1338,1333,1333,1333,1333,1333,1333,1333,1333,1333,1333,1333,1333,1333,1333,1333,1333,1333,1333,1333,1333,1333,1333,1328,1328,1328,1328,1328,1328,1328,1328,1328,1328,1328,1328,1328,1328,1328,1322,1322,1322,1322,1322,1322,1322,1322,1317,1317,1317,1317,1312,1312,1312,1312,1317,1317,1312,1312,1317,1312,1312,1312,1312,1312,1312,1312,1312,1307,1307,1307,1307,1307,1307,1312,1312,1312,1312,1307,1307,1302,1302,1302,1302,1302,1302,1302,1302,1302,1302,1307,1307,1302,1302,1302,1302,1302,1297,1297,1297,1297,1297,1297,1297,1297,1297,1297,1292,1292,1292,1292,1292,1292,1288,1288,1288,1288,1288,1288,1283,1283,1288,1288,1288,1288,1288,1288,1288,1288,1288,1288,1288,1288,1288,1283,1283,1283,1283,1288,1288,1288,1288,1283,1283,1283,1283,1283,1283,1283,1283,1283,1278,1273,1273,1273,1268,1268,1268,1264,1264,1259,1259,1255,1250,1250,1250,1250,1250,1250,1245,1241,1241,1236,1236,1236,1232,1232,1227,1223,1223,1223,1219,1219,1214,1214,1214,1214,1210,1206,1202,1202,1202,1197,1197,1197,1197,1197,1031,1028,1028,1028,1028,1022,1019,1016,1013,1004,995,992,992,989,987,984,984,981,978,975,975,973,970,970,967,964,964,964,964,964,962,962,962,0,0,0,0,0,0,0,0,0,0,0,0,0,0,0,0,0,0,0,0,0,0,0,0,0,0,0,0,0,0,0,0,0,0,0,0,0,0,0,0
0,0,0,0,0,0,0,0,0,1458,1458,1458,1458,1458,1458,1458,1452,1452,1445,1445,1452,1452,1445,1445,1445,1445,1439,1439,1439,1439,1439,1439,1445,1445,1445,1439,1439,1439,1439,1439,1439,1433,1433,1433,1433,1433,1433,1433,1433,1433,1433,1433,1439,1439,1439,1433,1433,1433,1433,1433,1433,1433,1433,1433,1433,1427,1427,1421,1421,1054,1054,1050,1050,1050,1050,1050,1050,1050,1050,1054,1054,1057,1057,1060,1060,1060,1060,1060,1063,1063,1063,1063,1063,1067,1067,1427,1427,1421,1421,1421,1421,1421,1421,1421,0,0,0,0,0,0,0,0,0,0,0,0,0,0,739,739,739,728,728,727,725,725,727,727,727,728,728,730,730,731,733,733,734,734,734,736,736,739,739,739,741,741,741,0,0,0,0,0,0,0,1157,1157,1157,1157,1161,1161,1161,1161,1165,1165,1165,1165,1169,1173,1173,1173,1173,1177,1177,1177,1177,1177,1177,1177,1177,1177,1173,1169,1169,1165,1165,1161,1161,1157,1149,1149,1145,1145,1145,1145,1145,1145,1145,1141,1141,1141,1141,1398,1392,1392,1392,1392,1392,1392,1392,1392,1392,1392,1387,1387,1381,1381,1381,1381,1381,1381,1387,1387,1387,1387,1381,1381,1381,1381,1381,1381,1381,1381,1387,1387,1387,1387,1381,1381,1381,1381,1381,1381,1376,1376,1376,1376,1376,1376,1376,1376,1370,1370,1365,1354,1349,1333,1328,1322,1317,1317,1312,1312,1312,1312,1312,1312,1317,1322,1322,1322,1322,1333,1359,1365,1365,1370,1365,1365,1365,1365,1365,1365,1365,1365,1365,1365,1365,1359,1359,1359,1359,1359,1359,1359,1359,1359,1354,1354,1354,1354,1354,1349,1349,1349,1349,1349,1349,1349,1349,1349,1349,1354,1354,1354,1354,1349,1349,1343,1338,1338,1041,1041,1041,1038,1038,1038,1034,1031,1028,1025,1025,1025,1025,1025,1025,1025,1028,1028,1028,1031,1031,1034,1034,1034,1034,1038,1038,1038,1349,1349,1343,1343,1343,1343,1333,1333,1338,1338,1338,1338,1338,1338,1338,1338,1338,1338,1338,1333,1333,1333,1333,1333,1333,1333,1333,1333,1333,1333,1333,1333,1333,1333,1333,1333,1328,1328,1328,1328,1328,1328,1328,1328,1328,1328,1328,1328,1328,1322,1322,1322,1322,1322,1322,1322,1322,1322,1322,1322,1322,1322,1322,1322,1317,1317,1317,1317,1317,1312,1312,1312,1312,1312,1312,1312,1312,1312,1312,1312,1312,1312,1312,1312,1312,1312,1307,1307,1307,1307,1307,1307,1307,1307,1307,1307,1307,1302,1302,1307,1307,1302,1302,1297,1297,1297,1297,1297,1302,1297,1297,1302,1302,1302,1297,1297,1297,1297,1297,1297,1292,1292,1292,1292,1297,1297,1292,1292,1292,1292,1292,1288,1288,1288,1288,1283,1283,1283,1283,1278,1278,1283,1283,1288,1288,1288,1288,1283,1283,1283,1278,1278,1278,1278,1283,1283,1278,1278,1278,1273,1273,1283,1273,1273,1283,1278,1278,1278,1278,1278,1278,1278,1273,1273,1273,1273,1273,1268,1268,1264,1264,1264,1259,1259,1259,1255,1250,1250,1250,1250,1250,1245,1245,1241,1241,1236,1236,1236,1232,1227,1227,1223,1223,1219,1219,1214,1214,1219,1214,1214,1206,1202,1202,1202,1197,1197,1197,1197,1202,1028,1025,1025,1028,1025,1025,1019,1016,1010,995,995,992,992,989,987,984,981,981,978,975,973,970,970,967,967,964,964,967,967,967,967,805,805,805,805,0,0,0,0,0,0,0,0,0,0,0,0,0,0,0,0,0,0,0,0,0,0,0,0,0,0,0,0,0,0,0,0,0,0,0,0,0,0
0,0,0,0,0,0,0,0,0,1458,1458,1458,1458,1452,1452,1452,1452,1445,1445,1445,1445,1445,1439,1439,1439,1439,1433,1433,1433,1433,1433,1439,1439,1439,1439,1439,1439,1439,1439,1439,1433,1433,1433,1427,1427,1427,1433,1433,1433,1433,1433,1433,1433,1433,1433,1427,1427,1427,1427,1427,1427,1427,1427,1427,1427,1427,1421,1421,1415,1415,1050,1050,1050,1050,1050,1050,1050,1054,1054,1054,1057,1057,1057,1060,1060,1060,1063,1063,1063,1063,1063,1063,1063,1067,1067,1415,1415,1415,1415,1415,1415,1415,1415,1415,0,0,0,0,0,0,0,0,0,0,0,0,0,0,0,742,738,731,730,728,727,727,727,728,728,728,730,730,731,733,733,733,734,734,734,736,739,739,739,739,741,741,741,0,0,0,0,0,0,0,1157,1157,1157,1157,1161,1161,1161,1165,1165,1165,1165,1165,1169,1173,1173,1173,1173,1177,1177,1177,1177,1177,1177,1177,1177,1177,1173,1169,1169,1165,1165,1161,1161,1157,1149,1145,1145,1141,1141,1141,1141,1141,1141,1141,1138,1138,1138,1138,1392,1387,1387,1387,1387,1387,1387,1381,1381,1381,1381,1381,1376,1376,1376,1376,1381,1381,1381,1381,1381,1381,1376,1376,1376,1370,1370,1376,1376,1376,1376,1381,1381,1381,1381,1376,1376,1376,1376,1376,1376,1376,1370,1370,1370,1370,1370,1370,1365,1365,1359,1354,1349,1338,1333,1322,1322,1317,1312,1312,1312,1312,1312,1312,1317,1322,1322,1322,1328,1333,1354,1359,1365,1365,1365,1365,1365,1365,1365,1365,1359,1359,1359,1359,1359,1359,1354,1354,1359,1359,1354,1354,1354,1354,1354,1349,1349,1349,1349,1349,1343,1343,1343,1343,1343,1343,1343,1343,1343,1349,1349,1349,1349,1343,1343,1338,1338,1338,1333,1041,1041,1038,1038,1038,1034,1031,1028,1028,1025,1025,1025,1025,1025,1025,1028,1028,1028,1031,1031,1034,1034,1038,1038,1038,1038,1038,1343,1343,1343,1338,1338,1338,1333,1333,1333,1333,1333,1333,1333,1333,1333,1333,1333,1333,1333,1333,1333,1333,1333,1328,1328,1328,1328,1328,1328,1328,1328,1328,1328,1328,1322,1322,1328,1322,1322,1322,1322,1322,1328,1322,1322,1328,1322,1322,1322,1317,1317,1317,1317,1317,1317,1322,1322,1322,1317,1317,1317,1317,1317,1312,1312,1312,1312,1317,1317,1312,1312,1312,1312,1307,1307,1307,1307,1312,1312,1312,1312,1312,1312,1312,1307,1307,1307,1307,1307,1307,1307,1307,1307,1307,1307,1302,1302,1302,1302,1297,1297,1297,1297,1297,1297,1292,1292,1297,1297,1292,1292,1292,1292,1292,1292,1292,1292,1292,1292,1292,1292,1292,1292,1292,1292,1292,1292,1292,1292,1288,1288,1288,1288,1283,1283,1278,1278,1278,1278,1273,1273,1278,1278,1283,1283,1283,1283,1283,1283,1278,1278,1273,1273,1273,1273,1273,1273,1273,1273,1273,1273,1268,1268,1268,1273,1273,1273,1273,1273,1273,1273,1273,1273,1273,1273,1273,1268,1268,1264,1264,1264,1259,1259,1259,1259,1255,1255,1255,1250,1250,1250,1245,1245,1241,1241,1241,1236,1236,1232,1232,1227,1227,1223,1223,1219,1219,1219,1219,1214,1210,1206,1206,1202,1202,1197,1197,1197,1202,1028,1028,1025,1025,1025,1025,1022,1016,1010,1001,995,992,992,989,989,987,984,978,978,975,975,973,970,970,967,967,967,967,967,967,809,809,805,805,805,805,0,0,0,0,0,0,0,0,0,0,0,0,0,0,0,0,0,0,0,0,0,0,0,0,0,0,0,0,0,0,0,0,0,0,0,0,0,0
0,0,0,0,0,0,0,0,0,1452,1452,1452,1452,1452,1452,1452,1452,1445,1445,1445,1445,1445,1439,1439,1439,1433,1433,1433,1433,1433,1433,1433,1433,1433,1439,1439,1439,1433,1433,1433,1433,1427,1427,1421,1421,1421,1427,1427,1427,1427,1427,1427,1427,1427,1427,1427,1421,1421,1427,1427,1427,1421,1421,1421,1415,1415,1410,1410,1410,1410,1034,1034,1050,1050,1050,1050,1050,1054,1054,1054,1057,1057,1060,1060,1060,1060,1063,1063,1063,1063,1063,1063,1063,1063,1063,1410,1410,1410,1410,1410,1410,1410,1410,1404,1404,0,0,0,0,0,0,0,0,0,0,0,0,0,0,742,736,733,730,728,728,728,728,728,728,728,730,731,731,733,733,733,734,734,734,736,739,739,739,739,741,741,742,0,0,0,0,0,0,0,1157,1157,1157,1161,1161,1161,1161,1165,1165,1165,1165,1165,1169,1173,1173,1173,1173,1177,1177,1177,1177,1177,1177,1177,1177,1177,1173,1173,1169,1169,1165,1161,1157,1153,1149,1145,1145,1141,1141,1138,1138,1138,1138,1138,1138,1138,1134,1134,1134,1387,1387,1381,1381,1381,1381,1376,1376,1376,1376,1376,1370,1370,1370,1370,1376,1376,1370,1370,1376,1376,1370,1370,1370,1370,1370,1370,1370,1370,1370,1370,1376,1370,1370,1370,1376,1370,1370,1370,1370,1370,1370,1365,1365,1370,1365,1365,1365,1359,1359,1349,1349,1343,1333,1322,1322,1317,1317,1312,1312,1312,1312,1312,1317,1322,1322,1322,1328,1333,1338,1349,1354,1359,1365,1365,1365,1359,1359,1359,1359,1354,1354,1354,1354,1354,1349,1349,1354,1354,1349,1349,1349,1349,1349,1349,1349,1343,1343,1343,1343,1343,1343,1343,1343,1343,1343,1343,1343,1349,1343,1343,1343,1343,1338,1338,1338,1338,1333,1041,1041,1041,1038,1038,1034,1031,1031,1028,1028,1028,1025,1025,1025,1025,1028,1028,1028,1031,1031,1038,1038,1038,1038,1038,1038,1038,1343,1343,1343,1338,1338,1333,1333,1333,1328,1328,1328,1328,1328,1328,1328,1328,1328,1328,1328,1328,1328,1328,1328,1328,1328,1322,1322,1322,1322,1322,1322,1322,1322,1322,1322,1322,1322,1322,1322,1322,1322,1322,1322,1322,1317,1317,1317,1312,1312,1312,1312,1312,1312,1312,1312,1312,1317,1317,1312,1312,1312,1312,1312,1312,1312,1312,1312,1312,1312,1312,1307,1307,1307,1307,1307,1307,1307,1307,1307,1307,1307,1307,1307,1307,1302,1302,1302,1302,1302,1302,1302,1302,1302,1302,1302,1302,1302,1297,1297,1297,1292,1292,1292,1292,1292,1292,1292,1292,1292,1292,1292,1292,1292,1292,1292,1292,1292,1292,1292,1288,1288,1288,1288,1288,1288,1288,1288,1288,1288,1288,1283,1283,1283,1278,1273,1273,1273,1273,1273,1273,1273,1273,1278,1278,1283,1283,1283,1278,1278,1278,1273,1273,1273,1273,1273,1273,1273,1273,1268,1268,1268,1264,1264,1268,1268,1268,1268,1268,1268,1268,1268,1268,1268,1268,1268,1268,1264,1264,1264,1259,1259,1259,1259,1255,1255,1255,1255,1255,1255,1250,1250,1245,1245,1245,1241,1241,1236,1236,1232,1232,1232,1227,1227,1223,1219,1219,1219,1219,1214,1210,1206,1206,1202,1202,1197,1197,1197,1202,1028,1028,1028,1025,1025,1025,1019,1013,1001,995,992,992,989,989,987,984,984,978,978,975,975,973,970,970,967,967,967,967,811,811,809,809,807,807,805,805,0,0,0,0,0,0,0,0,0,0,0,0,0,0,0,0,0,0,0,0,0,0,0,0,0,0,0,0,0,0,0,0,0,0,0,0,0,0
0,0,0,0,0,0,0,0,0,1445,1445,1445,1445,1445,1445,1452,1445,1445,1439,1439,1439,1439,1433,1433,1433,1433,1433,1433,1433,1433,1433,1433,1433,1433,1433,1433,1433,1427,1427,1433,1427,1421,1421,1421,1421,1421,1421,1421,1421,1421,1421,1421,1421,1421,1421,1421,1421,1421,1421,1421,1421,1421,1421,1415,1415,1415,1410,1410,1404,1034,1034,1034,1050,1050,1054,1054,1054,1054,1054,1057,1057,1060,1060,1060,1060,1060,1063,1063,1063,1063,1063,1063,1063,1063,1063,1410,1410,1410,1410,1410,1410,1410,1404,1404,1392,1392,0,0,0,0,0,0,0,0,0,0,0,0,0,742,736,733,730,730,728,728,728,728,728,728,730,731,731,733,733,733,734,734,736,738,739,739,739,739,741,742,742,742,0,0,0,0,0,0,1157,1157,1161,1161,1161,1161,1165,1165,1165,1165,1169,1169,1169,1169,1169,1173,1173,1177,1177,1177,1177,1177,1177,1177,1177,1177,1177,1173,1173,1169,1165,1161,1157,1153,1149,1145,1141,1138,1138,1138,1138,1134,1134,1134,1134,1134,1134,1130,1130,1130,1130,1381,1381,1381,1381,1370,1370,1370,1370,1370,1370,1370,1370,1370,1370,1370,1370,1370,1370,1370,1370,1370,1365,1365,1365,1365,1365,1365,1365,1365,1370,1370,1370,1370,1370,1370,1365,1365,1365,1365,1365,1365,1365,1365,1365,1359,1359,1354,1354,1349,1349,1343,1338,1328,1322,1322,1317,1317,1312,1312,1312,1317,1317,1322,1322,1328,1328,1333,1338,1349,1349,1354,1354,1354,1354,1354,1354,1354,1349,1349,1349,1349,1349,1349,1349,1349,1349,1349,1349,1349,1349,1349,1343,1343,1343,1343,1343,1343,1343,1343,1343,1343,1343,1338,1338,1338,1338,1338,1338,1338,1338,1338,1333,1333,1333,1333,1328,1044,1044,1041,1041,1038,1034,1034,1031,1031,1028,1028,1028,1025,1025,1025,1028,1028,1028,1031,1034,1038,1038,1038,1038,1041,1041,1044,1343,1343,1343,1338,1333,1333,1328,1328,1328,1328,1328,1328,1328,1328,1328,1328,1328,1328,1328,1328,1328,1322,1322,1322,1322,1317,1317,1317,1317,1317,1317,1317,1317,1317,1317,1317,1317,1317,1317,1317,1317,1317,1317,1317,1312,1312,1312,1312,1312,1307,1307,1312,1312,1312,1312,1312,1312,1312,1312,1312,1307,1307,1307,1307,1307,1307,1307,1307,1307,1307,1307,1302,1302,1302,1302,1302,1302,1302,1302,1302,1302,1302,1302,1302,1302,1297,1297,1302,1302,1297,1297,1297,1297,1297,1297,1297,1297,1297,1297,1292,1292,1292,1292,1288,1288,1288,1288,1288,1288,1288,1288,1288,1288,1288,1288,1288,1288,1288,1288,1288,1288,1288,1288,1283,1283,1288,1283,1283,1283,1283,1283,1283,1278,1278,1273,1273,1273,1273,1273,1273,1273,1273,1273,1273,1273,1273,1273,1273,1273,1273,1273,1273,1273,1273,1273,1273,1268,1268,1268,1268,1268,1264,1264,1264,1264,1268,1268,1264,1264,1264,1264,1264,1264,1264,1268,1268,1264,1259,1259,1259,1259,1259,1255,1255,1255,1250,1250,1250,1250,1250,1250,1245,1245,1245,1241,1241,1236,1236,1236,1232,1232,1227,1227,1223,1219,1219,1219,1219,1219,1210,1210,1206,1202,1202,1202,1202,1202,1202,1202,1028,1025,1025,1025,1022,1010,1004,998,995,992,992,989,989,987,984,978,978,975,975,975,973,970,967,967,967,967,967,811,811,809,809,809,809,807,807,0,0,0,0,0,0,0,0,0,0,0,0,0,0,0,0,0,0,0,0,0,0,0,0,0,0,0,0,0,0,0,0,0,0,0,0,0,0
0,0,0,0,0,0,0,0,0,1439,1439,1439,1439,1439,1439,1439,1439,1439,1439,1433,1433,1433,1433,1433,1433,1433,1427,1427,1427,1427,1427,1427,1427,1427,1427,1427,1427,1421,1421,1421,1421,1415,1415,1415,1415,1415,1415,1415,1415,1415,1415,1415,1415,1415,1415,1415,1415,1415,1415,1415,1415,1415,1415,1415,1415,1410,1410,1404,1398,1034,1034,1392,1054,1054,1054,1054,1054,1057,1057,1057,1057,1060,1060,1060,1060,1060,1063,1063,1063,1063,1063,1067,1067,1067,1067,1410,1410,1404,1404,1410,1404,1404,1398,1392,1387,1387,1387,0,0,0,0,0,0,0,0,0,0,0,0,742,736,733,730,730,728,728,728,728,728,730,731,731,733,733,733,734,734,736,736,738,739,739,739,739,742,742,742,742,0,0,0,0,0,0,1161,1161,1161,1161,1161,1161,1165,1165,1165,1165,1165,1169,1169,1169,1169,1173,1173,1177,1177,1177,1177,1177,1177,1177,1177,1177,1173,1173,1173,1169,1165,1161,1157,1153,1145,1145,1141,1134,1134,1134,1134,1134,1130,1130,1130,1130,1130,1123,1123,1123,1130,1381,1381,1381,1376,1370,1370,1370,1370,1370,1370,1365,1365,1365,1365,1365,1365,1365,1365,1365,1365,1365,1365,1365,1365,1365,1365,1359,1359,1365,1365,1365,1365,1365,1365,1365,1365,1359,1359,1359,1354,1354,1354,1354,1354,1354,1354,1354,1349,1349,1349,1343,1343,1328,1328,1322,1322,1317,1317,1317,1317,1317,1317,1322,1322,1328,1328,1333,1338,1343,1343,1343,1349,1349,1343,1343,1343,1343,1343,1343,1343,1343,1343,1343,1343,1343,1349,1349,1343,1343,1343,1343,1343,1343,1343,1343,1343,1338,1338,1338,1338,1338,1338,1338,1338,1333,1333,1338,1338,1333,1333,1333,1333,1333,1328,1328,1328,1047,1044,1044,1044,1041,1038,1038,1034,1031,1028,1028,1028,1028,1028,1028,1028,1028,1031,1031,1034,1038,1038,1041,1041,1041,1041,1044,1044,1338,1338,1333,1328,1328,1322,1322,1322,1322,1322,1322,1322,1322,1322,1322,1322,1322,1322,1322,1322,1322,1317,1317,1317,1312,1312,1312,1312,1312,1312,1312,1312,1312,1312,1312,1312,1312,1312,1312,1312,1312,1312,1312,1312,1312,1312,1307,1307,1307,1307,1307,1307,1307,1307,1307,1307,1307,1307,1307,1307,1307,1307,1307,1307,1302,1302,1302,1302,1302,1297,1297,1297,1297,1297,1297,1297,1297,1297,1297,1297,1297,1297,1297,1292,1292,1297,1297,1292,1292,1292,1292,1292,1292,1292,1292,1292,1292,1292,1292,1292,1288,1288,1288,1288,1288,1283,1283,1283,1283,1283,1283,1283,1283,1288,1283,1283,1283,1283,1283,1283,1283,1283,1283,1283,1283,1283,1283,1283,1283,1278,1278,1273,1273,1273,1273,1268,1268,1268,1268,1273,1273,1273,1273,1273,1273,1273,1268,1268,1268,1268,1268,1268,1268,1268,1268,1268,1264,1255,1255,1255,1255,1255,1255,1255,1259,1264,1259,1259,1259,1259,1259,1259,1259,1259,1259,1259,1259,1259,1259,1255,1255,1255,1255,1255,1250,1250,1250,1250,1250,1250,1250,1245,1245,1241,1241,1236,1236,1236,1232,1232,1232,1227,1223,1223,1223,1219,1219,1219,1214,1214,1206,1202,1202,1202,1202,1202,1202,1202,1028,1025,1025,1025,1010,1004,1001,995,995,992,992,989,989,987,984,978,978,975,975,975,973,970,967,967,967,967,967,811,811,809,809,809,809,809,809,0,0,0,0,0,0,0,0,0,0,0,0,0,0,0,0,0,0,0,0,0,0,0,0,0,0,0,0,0,0,0,0,0,0,0,0,0,0
0,0,0,0,0,0,0,0,0,1433,1433,1439,1439,1439,1439,1439,1439,1433,1433,1433,1433,1433,1427,1427,1427,1427,1427,1427,1427,1427,1427,1427,1427,1427,1427,1427,1421,1421,1421,1415,1415,1415,1415,1415,1415,1415,1415,1410,1410,1410,1410,1410,1410,1410,1410,1415,1410,1410,1415,1415,1415,1415,1415,1415,1410,1410,1404,1404,1398,1392,1392,1392,1057,1057,1054,1054,1057,1057,1057,1057,1060,1060,1060,1060,1060,1063,1063,1063,1063,1063,1063,1067,1067,1067,1067,1067,1398,1398,1398,1404,1398,1392,1387,1381,1381,1376,1376,0,0,0,0,0,0,0,0,0,0,0,0,742,736,731,730,728,728,728,728,728,730,730,731,733,733,733,734,734,736,736,738,739,739,739,739,741,742,742,742,742,746,0,0,0,0,0,1161,1161,1161,1161,1161,1161,1165,1165,1165,1165,1165,1169,1169,1173,1173,1173,1173,1177,1177,1177,1177,1177,1177,1177,1177,1177,1173,1173,1173,1169,1165,1161,1157,1153,1145,1141,1138,1134,1134,1130,1130,1130,1130,1126,1126,1123,1123,1119,1119,1119,1119,1119,1381,1381,1370,1365,1365,1365,1365,1365,1365,1365,1365,1365,1365,1359,1359,1365,1365,1365,1365,1365,1365,1359,1359,1359,1359,1359,1359,1359,1359,1359,1354,1354,1359,1354,1354,1354,1354,1354,1354,1354,1354,1349,1349,1349,1349,1349,1349,1349,1343,1343,1343,1333,1328,1322,1322,1317,1317,1317,1317,1317,1322,1322,1322,1328,1328,1328,1333,1338,1338,1338,1343,1343,1343,1338,1338,1338,1333,1333,1333,1333,1338,1338,1338,1343,1343,1343,1343,1343,1343,1343,1338,1338,1338,1338,1338,1338,1333,1333,1333,1333,1333,1333,1333,1328,1328,1333,1333,1333,1333,1333,1333,1328,1322,1322,1317,1317,1050,1047,1047,1044,1041,1038,1034,1031,1031,1028,1028,1028,1028,1028,1028,1028,1031,1031,1034,1038,1038,1041,1041,1041,1041,1044,1044,1328,1328,1322,1322,1317,1317,1317,1317,1317,1317,1317,1317,1317,1317,1317,1317,1317,1317,1317,1317,1317,1317,1312,1312,1312,1312,1312,1312,1312,1312,1312,1312,1312,1307,1307,1312,1312,1307,1307,1307,1307,1307,1307,1307,1307,1307,1307,1307,1307,1302,1302,1302,1302,1302,1297,1297,1302,1302,1302,1302,1302,1302,1307,1302,1302,1297,1297,1297,1297,1297,1297,1297,1297,1297,1297,1297,1292,1292,1292,1292,1292,1292,1292,1292,1292,1292,1292,1292,1292,1292,1292,1292,1292,1292,1292,1292,1292,1292,1288,1288,1288,1288,1288,1288,1283,1283,1283,1278,1278,1278,1278,1278,1278,1283,1283,1283,1283,1278,1278,1278,1278,1278,1278,1278,1278,1278,1278,1278,1278,1273,1273,1273,1273,1268,1268,1268,1268,1268,1268,1268,1268,1268,1268,1268,1268,1268,1268,1268,1268,1268,1268,1268,1268,1264,1264,1255,1255,1255,1255,1255,1255,1255,1255,1255,1255,1255,1255,1255,1255,1255,1255,1255,1255,1255,1255,1255,1255,1255,1255,1255,1255,1250,1250,1250,1250,1250,1250,1250,1250,1250,1245,1245,1245,1241,1241,1241,1236,1236,1232,1232,1232,1227,1223,1223,1223,1219,1219,1219,1214,1214,1210,1210,1210,1202,1202,1202,1202,1202,1028,1025,1025,1025,1010,1004,1001,995,995,992,992,989,989,987,984,978,978,978,978,975,975,970,967,967,967,967,811,811,811,811,809,809,809,809,809,0,0,0,0,0,0,0,0,0,0,0,0,0,0,0,0,0,0,0,0,0,0,0,0,0,0,0,0,0,0,0,0,0,0,0,0,0,0
0,0,0,0,0,0,0,0,0,1433,1433,1433,1439,1433,1433,1433,1433,1427,1427,1427,1427,1427,1421,1421,1421,1421,1421,1421,1421,1421,1421,1421,1421,1421,1421,1415,1415,1415,1415,1415,1415,1410,1410,1410,1410,1410,1410,1410,1410,1404,1404,1404,1404,1410,1410,1410,1410,1410,1410,1410,1410,1415,1410,1410,1410,1404,1398,1392,1392,1392,1387,1387,1392,1057,1050,1050,1054,1057,1057,1057,1057,1060,1060,1060,1060,1063,1063,1063,1063,1063,1063,1067,1067,1067,1070,1070,1392,1392,1392,1398,1392,1392,1387,1381,1381,1376,1376,1376,0,0,0,0,0,0,0,0,0,0,0,0,0,731,730,728,728,728,728,728,730,730,731,733,733,733,734,734,736,738,738,739,739,739,739,741,742,742,744,744,746,0,0,0,0,0,0,1165,1165,1165,1165,1165,1165,1165,1165,1165,1165,1165,1169,1169,1173,1173,1173,1177,1177,1177,1173,1173,1177,1359,1359,1359,1359,1173,1169,1169,1165,1161,1157,1153,1145,1141,1138,1134,1134,1130,1130,1126,1126,1123,1123,1119,1119,1119,1119,1119,1115,1115,1115,1365,1365,1365,1365,1365,1365,1365,1365,1365,1365,1359,1359,1359,1359,1359,1354,1354,1359,1359,1359,1359,1359,1359,1359,1359,1359,1359,1354,1354,1349,1349,1354,1354,1349,1349,1349,1349,1349,1349,1349,1349,1349,1349,1349,1349,1349,1349,1343,1343,1343,1333,1328,1322,1322,1322,1322,1322,1322,1322,1322,1322,1322,1328,1328,1328,1333,1333,1333,1333,1338,1338,1338,1338,1333,1333,1333,1328,1328,1328,1328,1328,1328,1338,1343,1343,1343,1338,1338,1338,1338,1338,1333,1333,1333,1333,1333,1328,1328,1328,1333,1328,1328,1328,1328,1333,1333,1328,1328,1328,1328,1328,1322,1317,1312,1312,1054,1050,1050,1044,1044,1041,1038,1034,1031,1031,1028,1028,1028,1028,1028,1028,1031,1034,1034,1038,1041,1041,1044,1041,1041,1044,1044,1317,1317,1317,1317,1317,1317,1312,1312,1312,1312,1312,1312,1312,1312,1312,1312,1312,1312,1312,1312,1312,1312,1312,1312,1307,1307,1307,1307,1307,1307,1307,1307,1307,1307,1307,1307,1307,1307,1302,1302,1302,1302,1302,1302,1302,1302,1302,1302,1302,1302,1302,1302,1302,1297,1297,1292,1292,1292,1292,1297,1297,1297,1302,1302,1297,1292,1292,1292,1292,1292,1292,1292,1292,1292,1292,1292,1292,1292,1292,1288,1288,1288,1288,1288,1288,1288,1288,1288,1288,1288,1288,1288,1288,1288,1288,1288,1288,1288,1288,1288,1283,1283,1283,1278,1278,1278,1278,1278,1278,1278,1273,1273,1273,1273,1273,1273,1278,1278,1273,1273,1273,1273,1273,1273,1273,1273,1273,1273,1273,1273,1273,1268,1268,1268,1268,1268,1268,1268,1268,1268,1268,1268,1264,1264,1264,1264,1264,1255,1255,1264,1259,1255,1255,1255,1255,1255,1255,1250,1250,1250,1250,1250,1250,1250,1250,1250,1250,1250,1250,1255,1255,1255,1255,1255,1255,1255,1255,1255,1255,1255,1255,1250,1250,1250,1250,1250,1250,1245,1245,1236,1236,1236,1241,1241,1241,1241,1236,1236,1232,1232,1232,1227,1223,1223,1223,1219,1219,1219,1214,1214,1214,1210,1210,1206,1206,1202,1202,1206,1028,1025,1025,1022,1007,1004,1001,995,995,992,992,989,989,987,984,978,978,978,978,975,970,970,967,967,967,813,813,813,811,811,811,811,809,809,809,0,0,0,0,0,0,0,0,0,0,0,0,0,0,0,0,0,0,0,0,0,0,0,0,0,0,0,0,0,0,0,0,0,0,0,0,0,0
0,0,0,0,0,0,0,0,0,1427,1427,1433,1433,1427,1427,1433,1427,1427,1427,1421,1421,1421,1421,1421,1421,1421,1421,1421,1421,1421,1415,1415,1415,1415,1415,1415,1415,1415,1415,1410,1410,1410,1410,1410,1410,1410,1404,1404,1398,1398,1398,1398,1398,1404,1404,1404,1410,1410,1410,1410,1410,1410,1410,1410,1404,1398,1398,1392,1392,1392,1387,1387,1387,1050,1050,1050,1054,1057,1057,1057,1057,1060,1060,1060,1060,1063,1063,1063,1067,1067,1067,1067,1067,1067,1070,1070,1387,1387,1387,1392,1392,1387,1381,1381,1381,1376,1376,1376,0,0,0,0,0,0,0,0,0,0,0,0,0,0,730,728,728,728,728,728,730,730,731,733,733,734,734,736,736,738,739,739,739,739,741,744,744,744,744,746,747,0,0,0,0,0,0,1165,1165,1165,1165,1165,1165,1165,1165,1165,1165,1165,1169,1169,1173,1173,1173,1173,1173,1173,1173,1173,1359,1359,1359,1359,1365,1365,1169,1169,1165,1161,1157,1153,1145,1141,1138,1134,1134,1130,1130,1126,1123,1123,1119,1119,1119,1115,1115,1115,1115,1112,1112,1112,1365,1365,1365,1365,1365,1365,1359,1359,1359,1354,1354,1354,1354,1354,1354,1354,1349,1349,1354,1354,1354,1354,1354,1354,1354,1354,1349,1349,1349,1349,1349,1349,1349,1349,1349,1349,1349,1349,1349,1343,1343,1343,1343,1343,1343,1343,1343,1343,1338,1338,1333,1328,1322,1322,1322,1322,1322,1322,1322,1322,1328,1328,1328,1328,1328,1333,1333,1333,1333,1333,1333,1333,1333,1328,1328,1328,1328,1328,1328,1328,1328,1328,1333,1333,1333,1333,1333,1333,1333,1328,1328,1328,1328,1328,1328,1328,1328,1328,1328,1328,1328,1328,1328,1328,1328,1328,1328,1328,1328,1317,1317,1312,1312,1312,1307,1054,1050,1047,1047,1044,1041,1038,1034,1031,1028,1028,1028,1028,1028,1028,1031,1038,1038,1041,1041,1041,1044,1041,1041,1044,1044,1312,1312,1312,1317,1312,1312,1312,1312,1312,1312,1307,1307,1307,1307,1307,1307,1307,1307,1307,1307,1307,1307,1307,1307,1307,1302,1302,1302,1302,1302,1302,1302,1302,1302,1302,1302,1302,1302,1302,1297,1297,1297,1297,1297,1297,1297,1297,1297,1302,1297,1297,1297,1297,1292,1292,1292,1292,1292,1288,1288,1288,1288,1297,1292,1292,1292,1292,1292,1292,1288,1288,1292,1292,1292,1292,1292,1288,1288,1288,1288,1288,1288,1283,1283,1278,1278,1278,1278,1278,1278,1278,1283,1283,1283,1283,1283,1283,1278,1278,1278,1278,1278,1278,1278,1278,1273,1273,1273,1273,1273,1273,1273,1273,1273,1273,1273,1273,1273,1273,1273,1273,1273,1273,1273,1273,1273,1268,1268,1268,1268,1268,1268,1264,1264,1264,1264,1264,1264,1264,1264,1264,1264,1259,1259,1259,1259,1259,1255,1255,1255,1255,1255,1255,1255,1255,1250,1250,1250,1250,1250,1250,1250,1250,1250,1245,1245,1245,1245,1250,1250,1250,1250,1255,1250,1250,1250,1250,1250,1250,1250,1250,1250,1250,1250,1245,1245,1245,1245,1241,1236,1236,1236,1236,1236,1241,1236,1236,1232,1232,1227,1227,1227,1223,1223,1223,1219,1219,1219,1214,1214,1214,1210,1210,1210,1206,1206,1206,1206,1025,1025,1022,1007,1007,1004,1001,998,995,992,992,992,989,989,984,978,978,978,978,975,970,970,970,819,815,815,813,813,813,811,811,811,811,809,809,0,0,0,0,0,0,0,0,0,0,0,0,0,0,0,0,0,0,0,0,0,0,0,0,0,0,0,0,0,0,0,0,0,0,0,0,0,0
0,0,0,0,0,0,0,0,0,1415,1415,1421,1421,1415,1415,1427,1421,1421,1421,1421,1421,1421,1415,1415,1415,1421,1415,1415,1415,1415,1415,1415,1415,1415,1410,1410,1410,1410,1410,1410,1410,1404,1404,1404,1404,1404,1404,1398,1398,1398,1398,1398,1398,1398,1398,1404,1404,1404,1404,1404,1404,1410,1404,1404,1404,1398,1392,1392,1392,1387,1387,1387,1387,1387,1057,1057,1057,1057,1057,1057,1057,1060,1060,1060,1063,1063,1063,1063,1067,1067,1067,1067,1070,1070,1070,1070,1387,1387,1387,1392,1387,1387,1381,1381,1381,1381,1376,1376,1381,0,0,0,0,0,0,0,0,0,0,0,0,0,730,728,728,728,728,728,730,731,731,733,733,734,734,736,738,738,739,739,739,739,741,744,746,746,746,746,747,0,0,0,0,0,0,1169,1169,1169,1165,1165,1165,1165,1165,1165,1165,1169,1169,1173,1173,1173,1173,1173,1173,1173,1173,1365,1365,1365,1365,1365,1365,1365,1359,1359,1165,1161,1157,1153,1145,1145,1141,1134,1134,1130,1130,1123,1123,1119,1119,1115,1115,1115,1112,1112,1112,1108,1108,1108,1108,1365,1365,1359,1359,1359,1359,1359,1354,1354,1349,1349,1349,1354,1349,1349,1349,1349,1349,1349,1349,1349,1349,1349,1349,1349,1349,1349,1343,1343,1349,1349,1349,1343,1343,1343,1343,1343,1343,1343,1343,1343,1343,1343,1343,1343,1343,1343,1338,1338,1333,1328,1322,1322,1322,1322,1322,1322,1322,1322,1322,1322,1328,1328,1328,1328,1328,1328,1328,1328,1328,1328,1328,1328,1328,1328,1328,1322,1322,1322,1328,1328,1322,1322,1328,1322,1322,1328,1322,1322,1322,1317,1317,1322,1322,1322,1328,1328,1328,1322,1322,1322,1328,1328,1328,1322,1322,1322,1317,1317,1312,1312,1307,1307,1307,1054,1054,1050,1047,1044,1041,1038,1038,1034,1031,1028,1028,1028,1031,1031,1031,1038,1038,1041,1044,1044,1044,1044,1044,1047,1047,1307,1307,1307,1307,1307,1307,1307,1312,1307,1307,1307,1307,1307,1302,1302,1302,1302,1307,1307,1302,1302,1302,1302,1302,1302,1297,1297,1302,1297,1297,1302,1302,1302,1297,1297,1297,1302,1297,1297,1292,1292,1292,1297,1292,1292,1292,1292,1297,1297,1292,1292,1292,1292,1292,1288,1288,1288,1288,1288,1283,1283,1283,1288,1288,1288,1288,1288,1288,1288,1288,1288,1288,1288,1288,1288,1288,1288,1288,1283,1283,1283,1283,1278,1278,1278,1278,1278,1278,1278,1278,1278,1278,1278,1273,1273,1273,1273,1273,1273,1273,1273,1273,1273,1273,1273,1273,1273,1268,1268,1268,1268,1268,1268,1268,1268,1268,1268,1268,1268,1268,1268,1268,1268,1268,1268,1268,1268,1268,1264,1264,1264,1264,1264,1264,1264,1264,1264,1264,1264,1259,1259,1259,1255,1255,1255,1255,1255,1250,1250,1250,1250,1250,1250,1250,1250,1250,1250,1250,1250,1245,1245,1245,1245,1245,1245,1245,1245,1245,1245,1245,1245,1245,1245,1245,1245,1245,1245,1245,1245,1245,1245,1245,1245,1245,1241,1241,1241,1241,1241,1236,1236,1236,1236,1236,1236,1236,1236,1232,1232,1227,1227,1223,1223,1223,1223,1219,1219,1219,1219,1214,1214,1214,1210,1210,1210,1206,1206,1206,1010,1010,1007,1007,1007,1004,1001,998,995,995,995,992,992,989,987,978,978,975,975,978,978,978,819,819,819,815,815,815,813,813,811,811,811,811,811,0,0,0,0,0,0,0,0,0,0,0,0,0,0,0,0,0,0,0,0,0,0,0,0,0,0,0,0,0,0,0,0,0,0,0,0,0,0
0,0,0,0,0,0,0,0,1415,1415,1415,1415,1415,1415,1415,1415,1415,1415,1415,1415,1415,1415,1415,1415,1415,1415,1415,1415,1415,1415,1415,1410,1410,1410,1410,1410,1410,1404,1404,1404,1398,1398,1398,1398,1398,1398,1398,1398,1398,1398,1398,1398,1398,1398,1398,1398,1404,1404,1404,1404,1404,1404,1404,1398,1398,1392,1392,1392,1387,1387,1387,1381,1381,1381,1057,1057,1057,1057,1060,1060,1060,1060,1060,1063,1063,1063,1063,1063,1067,1067,1067,1070,1070,1070,1070,1073,1387,1387,1387,1387,1387,1387,1381,1381,1381,1381,1381,1381,1381,0,0,0,0,0,0,0,0,0,0,0,0,0,0,730,730,728,728,728,730,731,731,733,734,734,736,736,738,738,739,739,739,739,741,744,746,746,746,746,747,0,0,0,0,0,0,1169,1169,1169,1165,1165,1165,1165,1165,1169,1169,1169,1173,1173,1173,1173,1370,1365,1359,1359,1359,1365,1359,1359,1359,1359,1359,1359,1359,1354,1349,1161,1157,1149,1149,1145,1141,1134,1134,1130,1130,1123,1119,1119,1119,1115,1115,1115,1112,1112,1108,1108,1105,1105,1105,1105,1105,1359,1354,1354,1354,1354,1349,1349,1349,1349,1349,1349,1349,1349,1343,1343,1343,1343,1343,1343,1343,1343,1343,1343,1343,1343,1343,1343,1343,1343,1343,1343,1343,1343,1343,1343,1343,1338,1338,1338,1338,1338,1338,1338,1343,1343,1338,1333,1333,1328,1328,1322,1322,1322,1322,1322,1322,1322,1322,1322,1322,1322,1328,1328,1328,1328,1328,1328,1328,1328,1328,1328,1322,1322,1322,1322,1322,1322,1322,1317,1312,1312,1312,1312,1312,1312,1312,1312,1312,1312,1312,1312,1317,1317,1317,1317,1317,1317,1317,1317,1322,1322,1322,1317,1317,1317,1312,1312,1312,1307,1307,1307,1307,1054,1054,1050,1050,1047,1044,1041,1038,1034,1031,1031,1031,1031,1031,1031,1031,1038,1041,1041,1044,1044,1044,1044,1044,1047,1297,1297,1297,1297,1307,1302,1302,1302,1302,1297,1297,1302,1302,1302,1302,1302,1302,1302,1302,1302,1302,1297,1297,1297,1297,1297,1297,1297,1297,1297,1297,1297,1297,1297,1292,1292,1292,1297,1292,1292,1292,1292,1292,1292,1292,1292,1292,1292,1292,1292,1292,1292,1292,1292,1292,1288,1288,1288,1288,1283,1283,1283,1283,1283,1283,1283,1283,1283,1288,1288,1288,1288,1288,1288,1283,1283,1283,1283,1283,1278,1278,1278,1278,1273,1273,1273,1273,1273,1273,1273,1273,1273,1273,1273,1273,1268,1268,1268,1268,1273,1273,1273,1273,1273,1273,1273,1268,1268,1268,1268,1268,1268,1264,1264,1264,1264,1264,1264,1264,1264,1264,1264,1264,1259,1259,1264,1259,1259,1259,1259,1259,1259,1259,1255,1255,1255,1255,1255,1255,1255,1255,1255,1255,1255,1255,1250,1250,1250,1250,1250,1245,1245,1250,1250,1250,1250,1250,1250,1245,1241,1241,1241,1241,1241,1241,1241,1241,1241,1241,1241,1241,1241,1241,1241,1245,1245,1241,1241,1245,1245,1241,1241,1241,1241,1241,1236,1236,1236,1236,1236,1236,1236,1236,1232,1232,1236,1236,1236,1232,1227,1227,1227,1223,1223,1223,1223,1219,1219,1219,1219,1214,1214,1214,1214,1214,1210,1210,1210,1010,1010,1010,1007,1007,1007,1004,1004,1001,998,995,995,992,992,989,987,984,981,975,975,978,978,823,819,819,819,815,815,815,815,813,813,813,813,811,811,0,0,0,0,0,0,0,0,0,0,0,0,0,0,0,0,0,0,0,0,0,0,0,0,0,0,0,0,0,0,0,0,0,0,0,0,0,0
