0,0,0,1010,1010,1010,1010,1010,1010,1010,1007,1007,1007,1007,1007,1007,1007,1007,1001,1001,1001,1001,1001,998,998,998,998,998,998,998,1001,1001,998,998,998,998,998,998,998,998,998,998,995,992,992,992,992,995,995,995,995,998,998,998,998,995,995,995,995,995,995,995,995,995,995,995,995,998,995,995,995,998,995,995,995,992,989,989,992,995,995,995,995,995,995,995,995,992,992,995,995,995,995,995,998,998,995,995,995,995,995,995,995,995,995,995,995,992,992,992,992,995,992,992,992,992,992,992,992,992,992,995,992,992,992,992,992,992,992,992,992,992,992,992,992,989,989,989,989,989,989,989,989,989,989,989,989,989,989,989,989,989,987,987,989,989,989,989,989,989,989,989,989,989,989,989,989,989,989,989,989,989,989,989,989,989,989,987,987,987,987,987,987,987,987,987,987,987,987,987,987,987,987,987,987,987,987,987,987,987,987,984,984,984,984,984,984,984,984,987,984,984,984,984,981,981,981,981,981,981,981,981,981,984,981,981,981,981,984,981,981,981,984,981,981,981,978,978,981,978,978,978,978,978,981,981,981,978,794,794,796,796,796,796,794,792,792,789,789,787,787,785,785,785,785,787,787,789,790,792,796,796,800,802,805,805,807,807,807,981,981,978,978,978,978,978,978,978,978,975,975,975,975,975,975,975,975,975,978,975,975,975,975,975,975,975,975,975,975,978,978,978,978,978,978,978,978,978,978,978,978,978,978,978,978,978,978,978,978,978,975,975,975,975,975,975,975,973,973,975,975,975,975,975,973,973,973,975,975,975,975,975,975,975,975,975,975,975,975,975,975,978,978,975,975,975,975,973,973,973,973,973,973,973,973,975,975,975,975,975,973,973,973,973,973,973,973,973,973,970,970,970,970,970,970,970,970,970,970,970,970,970,970,970,970,970,970,970,970,970,970,970,967,967,967,967,967,967,967,967,970,970,970,967,967,967,970,970,970,967,967,967,967,967,967,967,967,967,967,964,964,964,964,964,964,964,964,964,964,964,964,964,964,964,962,962,962,964,964,962,962,962,962,962,962,962,962,962,964,962,962,962,962,964,964,962,962,964,964,962,962,959,959,959,959,959,959,959,959,959,956,956,956,956,956,956,959,959,956,956,959,959,959,959,959,959,959,956,956,959,959,959,959,959,959,956,956,956,956,956,959,959,959,959,959,959,959,959,956,956,956,956,956,956,956,956,956,956,956,954,954,954,954,954,954,954,954,954,954,954,954,954,954,956,956,956,956,956,956,956,956,956,956,956,956,956,956,956,956,956,956,956,956,956,954,954,954,954,951,951,951,951,951,951,948,948,948,948,946,946,946,948,948,948,948,948,948,946,946,946,943,943,946,946,948,0,0,0,0,0,0,0,0,0,0,0,0,0,0,0,0,0,0,0,0,0,0,0,0,0,0,0,0,0,0,0,0,0,0,0
0,0,0,1010,1010,1010,1010,1007,1007,1007,1007,1007,1007,1007,1007,1007,1001,1001,1001,1001,1001,1001,998,995,995,995,995,998,998,998,1001,1001,998,998,998,998,998,998,998,998,998,995,992,992,992,992,992,992,992,992,992,995,995,995,995,995,995,995,992,992,992,995,992,992,992,992,992,995,992,992,992,992,992,992,992,992,989,989,989,989,989,989,992,992,995,992,992,992,992,992,992,992,992,992,995,995,995,992,992,992,992,992,992,992,992,992,992,989,989,989,989,992,989,989,989,989,989,989,989,989,989,989,989,989,992,992,992,989,989,989,989,989,989,989,989,989,989,989,989,989,989,989,987,987,987,987,987,987,987,987,987,987,987,987,987,987,987,987,987,987,987,987,987,987,987,989,989,989,989,989,989,989,987,987,987,987,987,984,984,984,984,984,981,981,984,987,987,984,984,984,987,984,984,984,987,987,987,984,984,984,984,981,981,981,981,981,981,981,981,984,981,981,981,981,981,981,981,981,981,978,978,978,978,978,978,978,981,981,981,981,981,981,981,978,978,978,978,978,978,978,978,978,978,978,981,981,978,978,978,796,796,796,798,796,796,794,792,790,789,789,787,787,785,785,787,787,789,790,792,794,796,798,800,803,803,805,807,807,975,975,975,975,975,975,973,973,973,973,973,973,973,973,973,973,973,975,975,975,975,975,975,973,973,973,973,973,973,973,973,975,975,975,975,975,975,973,973,975,975,975,975,975,975,975,975,975,975,975,975,975,973,973,973,973,973,973,973,970,970,973,973,973,973,973,973,973,970,970,970,970,973,973,973,973,973,973,973,973,975,975,975,975,975,973,973,973,970,970,970,970,970,970,970,970,970,970,970,970,973,973,970,970,973,973,970,970,970,970,970,970,970,970,970,970,970,970,970,970,967,967,967,967,967,967,967,967,967,967,967,967,967,967,967,967,967,967,967,967,967,967,967,967,967,967,967,967,967,967,967,964,964,964,964,964,964,964,964,964,964,962,962,962,962,962,962,962,962,964,962,962,962,962,962,962,959,959,959,959,959,959,959,959,959,959,959,959,959,962,962,959,959,962,962,962,959,959,959,962,962,959,959,956,956,959,959,956,956,956,956,956,956,956,956,956,956,956,956,956,956,956,956,956,956,956,956,956,956,956,956,954,954,956,956,956,956,956,956,956,956,956,956,956,956,956,954,954,954,954,954,954,954,954,954,956,954,954,954,954,954,954,954,954,954,954,954,954,951,951,951,954,954,954,954,954,954,954,954,954,954,954,956,956,956,954,954,954,954,951,951,954,954,954,954,954,951,951,951,951,951,948,948,948,948,948,948,948,946,946,946,946,946,946,946,946,946,946,943,943,940,940,940,940,943,943,946,0,0,0,0,0,0,0,0,0,0,0,0,0,0,0,0,0,0,0,0,0,0,0,0,0,0,0,0,0,0,0,0,0,0,0
0,0,0,1010,1007,1007,1007,1004,1004,1004,1004,1004,1004,1004,1004,1004,1001,1001,998,998,998,998,995,992,992,992,992,992,992,992,995,998,995,995,995,995,995,995,995,995,992,992,992,992,992,992,992,992,992,989,989,992,992,992,992,989,989,992,989,989,989,989,989,987,987,987,987,989,989,989,989,989,992,989,989,989,989,989,989,989,987,987,987,987,987,989,989,989,989,989,989,989,989,989,989,989,992,989,989,989,989,989,989,989,989,989,989,989,989,987,987,989,987,987,987,987,987,987,987,987,987,987,989,989,989,989,989,989,989,989,989,987,987,987,987,987,989,989,989,989,989,987,987,987,987,987,987,987,987,984,984,984,984,984,984,987,987,987,987,987,987,987,987,987,987,987,987,987,987,987,987,987,987,987,987,987,984,981,981,981,981,981,978,978,981,984,984,981,981,984,984,984,984,984,984,984,984,984,984,981,981,978,978,978,978,978,978,978,978,981,981,981,981,978,978,978,978,978,978,978,978,978,978,978,978,978,978,978,978,978,978,978,978,978,978,978,978,978,978,978,978,978,978,978,981,978,978,978,798,798,798,798,798,796,796,794,794,792,790,789,787,787,787,787,787,787,789,790,792,796,798,798,800,803,803,805,807,807,975,975,973,973,973,973,970,970,970,970,970,970,970,970,970,973,973,973,973,973,973,973,973,973,970,970,970,970,970,970,970,973,973,975,973,973,973,973,973,973,973,973,973,973,973,973,973,973,973,973,973,973,970,970,970,970,970,970,970,970,970,970,970,970,970,970,970,970,970,970,970,967,967,970,970,970,970,970,973,973,973,973,973,973,973,970,970,970,970,967,967,967,967,967,967,967,967,967,967,967,967,967,967,967,970,970,970,967,967,967,967,967,967,967,967,967,967,967,967,967,967,967,967,964,964,964,964,964,964,964,964,964,964,964,964,964,964,964,964,964,967,967,967,967,964,964,964,964,964,964,964,964,962,962,962,959,959,959,959,959,959,959,959,959,959,959,959,959,959,962,962,962,959,959,959,959,959,959,959,959,956,956,956,956,956,959,959,959,959,959,959,959,959,959,959,959,956,956,956,956,956,956,956,954,954,956,956,956,956,956,956,956,956,954,954,954,954,956,956,956,954,954,956,956,956,956,956,956,956,954,954,951,951,954,954,954,954,956,956,956,954,954,954,951,951,951,951,951,951,951,951,951,951,951,951,954,951,951,951,951,954,954,954,954,954,954,951,951,951,948,948,948,948,951,951,951,951,954,954,951,951,954,954,954,951,951,951,951,951,951,951,951,951,951,951,951,948,948,948,948,948,948,948,948,948,948,948,946,946,946,946,946,946,946,946,943,943,940,940,940,938,938,938,940,940,940,940,0,0,0,0,0,0,0,0,0,0,0,0,0,0,0,0,0,0,0,0,0,0,0,0,0,0,0,0,0,0,0,0,0,0,0
0,0,0,1004,1001,1001,1001,1004,1004,1004,1001,1001,998,998,998,998,995,995,992,992,995,995,992,989,989,989,989,989,989,989,992,995,995,992,992,992,992,992,992,992,992,992,992,992,989,989,989,989,989,989,989,989,989,989,989,987,987,989,989,989,989,989,989,987,987,987,987,987,987,987,987,989,989,989,989,987,987,987,987,987,987,987,987,987,987,987,987,987,987,987,987,987,989,989,989,989,989,989,987,987,987,987,989,989,987,987,989,987,987,987,987,987,987,987,987,987,987,984,984,984,987,987,987,987,987,987,987,987,987,987,987,987,987,987,987,987,987,987,987,987,987,987,984,984,984,984,984,984,984,984,981,981,981,984,984,984,984,984,984,984,984,984,984,984,984,984,984,984,984,984,984,984,984,984,984,984,984,981,981,981,981,978,978,978,978,981,981,981,981,981,984,981,981,981,981,981,981,981,981,978,978,978,978,978,978,978,978,978,978,978,978,978,978,978,978,978,978,978,978,975,975,975,975,975,975,975,975,975,975,975,975,975,975,975,975,975,975,975,978,978,978,978,978,978,978,978,978,978,798,798,798,798,798,796,796,794,794,792,790,789,787,787,787,787,787,787,789,790,794,796,798,798,802,803,805,807,809,809,975,975,973,973,970,970,967,967,967,967,967,967,967,967,967,967,967,970,970,970,970,970,970,970,967,967,967,967,967,967,967,970,970,970,970,970,970,970,970,970,970,970,970,970,970,970,973,970,970,970,970,970,970,970,967,967,967,967,967,967,967,967,967,967,967,967,967,967,970,970,970,967,967,970,967,967,967,967,970,970,970,970,970,970,970,967,967,967,967,967,967,967,967,967,967,964,964,964,967,967,964,964,967,967,967,967,967,967,967,964,964,962,962,962,962,964,964,964,964,964,964,964,964,964,964,962,962,962,962,962,962,959,959,959,962,962,962,964,964,964,964,964,964,964,964,964,962,962,964,962,962,962,959,959,959,956,956,959,956,956,956,956,956,956,956,956,956,959,959,959,959,959,959,956,956,956,956,956,956,956,956,956,956,956,954,954,954,956,956,956,956,956,956,956,956,956,956,956,954,954,956,954,954,954,954,954,954,954,954,954,954,954,954,954,951,951,951,951,954,954,954,954,954,954,954,954,954,954,954,954,951,951,951,951,951,951,951,951,951,954,954,954,951,951,951,948,948,948,948,948,948,948,948,948,948,948,948,948,948,951,951,951,951,954,954,951,951,951,948,948,948,948,948,948,948,948,948,948,948,948,948,951,951,948,948,948,948,948,948,948,948,948,948,948,948,948,948,948,948,948,948,948,948,948,948,948,946,946,946,946,943,943,943,943,943,940,940,940,938,938,938,938,938,938,938,938,940,0,0,0,0,0,0,0,0,0,0,0,0,0,0,0,0,0,0,0,0,0,0,0,0,0,0,0,0,0,0,0,0,0,0,0
0,0,0,1001,1001,1001,1001,1001,1001,1001,1001,998,998,995,995,995,995,992,992,992,995,992,992,989,989,989,989,987,987,989,989,989,989,989,989,989,989,989,989,989,989,989,989,989,989,989,989,989,989,989,989,987,987,987,987,987,987,987,987,987,987,987,987,984,981,981,984,984,984,984,987,987,987,987,987,987,987,987,987,987,984,984,984,984,984,984,984,984,984,984,984,984,987,987,987,987,987,987,984,984,984,984,984,984,984,984,987,984,984,984,984,984,984,984,984,984,984,984,981,981,981,981,984,984,984,984,984,987,987,984,984,984,984,984,984,987,984,984,984,984,984,984,984,981,981,981,981,981,981,981,981,981,981,981,981,981,981,981,981,981,981,981,981,981,981,981,978,978,981,981,981,981,981,981,981,981,981,981,981,981,981,978,978,978,978,978,978,978,978,978,978,978,978,978,978,978,978,978,978,978,978,975,975,975,975,975,975,975,975,975,975,975,975,975,975,975,975,975,975,975,975,975,975,973,973,973,975,975,975,975,975,975,975,973,973,973,975,975,975,975,975,975,975,975,975,978,978,978,978,800,800,800,800,798,798,796,796,794,792,789,789,787,787,787,789,789,790,790,794,798,800,800,802,803,805,807,811,811,975,975,970,970,967,967,967,967,967,967,967,967,967,967,967,967,967,967,967,967,967,967,967,967,967,967,967,967,967,967,967,970,970,970,970,970,970,970,970,970,970,970,970,970,970,970,970,970,970,970,970,970,967,967,964,964,964,964,964,964,964,964,967,967,967,967,967,967,967,967,967,967,967,967,967,967,967,967,967,967,967,970,970,967,967,967,967,967,967,964,964,964,964,964,964,964,964,964,964,962,962,964,964,964,964,964,964,964,962,962,962,962,962,962,962,962,962,962,962,962,962,962,962,962,962,959,959,959,959,959,959,959,959,959,959,959,959,962,962,962,962,962,962,962,962,962,962,962,962,962,959,959,959,959,956,956,956,956,956,956,956,956,954,954,954,954,954,956,956,956,956,956,956,956,956,956,956,956,956,956,956,954,954,954,954,951,951,951,951,951,954,954,954,956,954,954,954,954,954,954,954,954,954,951,951,954,954,954,954,954,954,954,951,951,948,948,948,948,948,951,951,951,951,954,951,951,951,951,951,951,948,948,948,948,948,948,948,948,948,948,948,951,948,948,948,948,948,948,948,948,948,948,948,948,948,946,946,946,948,948,948,948,948,951,951,948,948,948,948,946,946,946,946,946,946,946,946,948,948,948,948,948,948,948,948,946,946,946,946,948,948,948,948,948,948,948,948,948,948,948,946,946,946,946,946,946,946,946,946,943,943,943,943,943,940,938,938,938,938,938,938,935,935,938,938,938,938,0,0,0,0,0,0,0,0,0,0,0,0,0,0,0,0,0,0,0,0,0,0,0,0,0,0,0,0,0,0,0,0,0,0,0
0,0,0,998,998,998,998,998,998,998,998,995,992,992,992,992,989,989,989,989,992,992,989,989,989,987,987,987,984,984,987,987,989,989,987,987,987,987,987,989,989,989,989,989,987,987,987,987,987,987,987,987,987,987,987,984,984,984,984,984,984,984,984,981,981,981,981,984,984,984,984,984,984,984,984,984,984,984,984,984,984,984,981,981,981,981,981,981,981,981,981,981,984,984,984,984,984,984,981,981,981,984,984,984,984,984,984,984,984,981,981,981,981,981,981,981,981,981,981,981,981,981,981,981,981,981,981,984,984,981,981,981,981,981,984,984,984,981,981,981,981,981,981,978,978,978,978,978,978,978,978,978,978,978,978,978,978,978,978,978,978,978,978,978,978,978,978,978,978,975,975,978,978,978,978,978,978,978,978,978,978,975,975,975,973,973,973,973,973,973,975,975,975,975,975,975,975,975,975,975,975,975,975,975,973,973,973,973,973,973,973,973,973,975,975,975,975,975,973,973,973,973,970,970,970,970,970,970,973,973,973,973,973,973,973,973,973,973,973,973,973,973,973,973,973,975,975,978,802,802,800,800,802,800,800,798,796,794,792,790,789,789,789,789,789,790,792,792,796,798,800,800,802,803,805,807,811,811,811,970,970,967,967,967,967,967,964,964,964,964,964,964,964,964,964,964,964,964,964,964,964,964,967,967,967,967,964,964,964,967,967,967,967,967,967,967,967,967,967,967,967,967,967,967,967,967,967,967,967,967,964,964,964,962,962,962,964,962,962,964,964,964,964,964,964,964,964,964,964,962,962,962,964,964,964,964,964,964,964,964,964,964,964,964,964,964,964,964,964,962,962,962,962,962,962,962,962,962,962,962,964,964,962,962,962,962,959,959,959,959,959,959,959,959,962,962,959,959,959,959,959,959,959,959,959,959,959,959,959,959,959,959,959,959,959,959,959,962,962,962,959,959,959,959,959,959,959,959,959,959,956,956,956,954,954,954,951,951,951,954,951,951,951,951,951,954,954,951,951,954,954,954,954,954,954,954,954,954,954,954,951,951,951,951,951,951,948,948,948,948,948,951,951,951,951,951,951,951,951,951,951,951,951,951,951,951,951,951,951,951,951,948,946,946,946,946,946,946,948,948,948,951,948,948,948,948,948,948,948,948,948,948,946,946,946,946,946,946,946,946,948,948,948,948,948,948,948,948,948,946,946,946,946,946,946,946,946,946,946,948,948,948,948,946,946,946,946,946,946,946,946,946,946,946,946,946,946,946,946,946,946,946,946,946,946,943,943,943,943,946,946,946,946,946,946,946,946,946,946,946,946,943,943,946,946,946,943,943,940,940,940,940,940,938,938,938,938,938,935,935,935,935,935,935,935,0,0,0,0,0,0,0,0,0,0,0,0,0,0,0,0,0,0,0,0,0,0,0,0,0,0,0,0,0,0,0,0,0,0,0
0,0,0,995,995,998,998,995,995,995,995,992,989,989,989,989,987,987,987,987,987,987,989,987,987,987,987,984,984,984,984,987,987,987,987,987,987,987,987,987,987,987,987,987,987,987,987,987,987,987,987,984,984,984,984,981,981,984,984,981,981,981,981,981,978,978,978,978,981,981,981,981,981,981,981,981,981,981,981,981,981,981,981,978,978,978,978,978,978,978,978,978,981,981,978,978,978,978,978,978,978,981,981,981,981,981,984,981,981,981,981,981,981,978,978,978,978,978,978,978,978,978,981,981,981,978,978,981,981,981,981,981,981,981,981,981,981,978,978,978,978,978,978,978,978,978,975,975,975,975,975,975,975,975,975,978,978,978,978,978,978,978,975,975,975,975,975,975,975,975,975,975,975,973,973,975,975,975,975,975,975,975,973,970,970,973,970,970,970,970,973,973,975,975,973,973,973,973,973,973,973,973,975,973,973,970,970,970,970,970,970,970,970,973,973,973,973,973,973,973,970,970,970,970,967,967,970,970,970,970,970,970,970,970,970,970,970,970,970,970,970,970,970,970,970,973,975,975,802,802,802,802,802,802,800,798,796,796,794,790,790,789,789,790,790,790,792,794,796,798,800,800,802,805,807,809,813,813,813,967,967,967,962,962,964,964,964,964,964,964,964,964,962,962,964,964,964,964,964,964,964,964,964,962,962,964,964,964,964,964,964,964,964,964,967,967,967,967,967,967,967,967,964,964,964,964,964,964,964,962,962,962,962,962,962,962,962,962,962,962,962,962,962,962,962,962,962,962,962,962,959,959,962,962,962,962,962,962,962,962,962,959,959,959,962,962,962,962,962,962,962,962,959,959,959,959,962,959,959,959,962,959,959,959,959,959,959,959,959,959,959,959,959,959,959,959,959,959,956,956,956,956,956,956,956,956,956,956,956,956,956,956,956,956,956,956,956,956,956,959,959,959,956,956,956,956,959,956,956,956,956,954,954,951,951,951,951,951,951,951,951,951,951,951,951,951,951,951,951,951,951,951,951,951,951,951,951,951,951,951,951,951,948,948,948,948,948,948,948,948,948,948,948,948,948,948,948,948,948,948,948,948,948,948,948,948,948,948,948,948,946,946,946,943,943,943,943,943,946,946,946,948,948,948,948,948,948,946,946,946,946,946,946,946,946,946,943,943,943,943,946,946,946,946,946,946,946,946,946,946,946,946,946,943,943,943,946,946,946,946,946,946,946,946,946,943,943,943,943,943,943,943,943,943,943,943,943,943,943,943,943,940,940,940,940,940,940,940,940,943,940,940,943,943,946,943,943,943,943,943,940,940,940,943,946,943,943,938,938,938,938,938,935,935,935,935,935,935,933,933,933,933,933,933,935,0,0,0,0,0,0,0,0,0,0,0,0,0,0,0,0,0,0,0,0,0,0,0,0,0,0,0,0,0,0,0,0,0,0,0
0,0,0,992,992,995,995,992,992,992,992,992,989,989,989,989,987,987,987,987,987,984,984,987,987,987,987,984,984,984,984,984,987,984,984,984,984,984,984,984,984,987,984,984,987,987,984,984,984,984,984,981,981,981,978,978,981,981,981,981,981,978,978,978,978,978,978,978,981,981,981,981,981,981,978,978,978,978,978,978,978,978,978,978,978,978,978,978,978,978,978,978,978,978,975,975,978,975,975,975,975,978,978,978,978,978,981,978,978,978,978,978,978,978,978,978,978,978,975,975,978,978,978,978,978,978,978,978,978,978,978,978,978,978,978,978,978,978,978,978,975,975,975,975,975,975,975,975,975,975,975,975,975,975,975,975,975,975,975,975,975,975,975,973,973,973,973,973,973,973,973,973,973,970,970,973,973,970,970,973,973,973,970,970,970,970,970,970,970,970,970,970,973,970,970,970,970,970,970,970,970,970,970,970,970,967,967,967,967,967,967,967,967,967,967,970,970,970,970,970,970,967,967,967,967,967,967,967,967,967,967,967,967,967,967,967,967,967,967,967,967,967,964,964,964,964,973,973,803,803,803,803,803,803,802,800,798,796,794,792,790,789,789,790,790,792,794,794,796,798,800,802,803,805,809,811,813,815,815,967,967,964,959,959,959,962,962,962,962,962,962,962,962,962,962,962,962,962,964,964,964,962,962,962,962,959,959,959,964,964,962,962,962,964,964,964,964,964,964,964,964,964,964,962,962,962,962,962,962,962,962,959,959,959,959,959,959,959,959,959,959,959,959,959,959,959,959,959,959,959,959,959,959,959,959,962,959,959,959,959,959,959,959,959,959,959,959,959,959,959,959,959,959,959,959,959,959,959,959,959,959,959,956,956,956,956,959,959,959,959,956,956,956,956,956,959,956,956,956,956,956,956,954,954,954,954,954,954,954,954,954,954,954,951,951,951,951,951,951,951,954,954,956,956,956,956,956,954,954,954,954,951,951,951,951,948,948,948,948,948,948,948,948,948,948,948,948,948,948,948,948,948,948,948,948,948,948,948,948,948,948,948,948,948,948,948,948,948,948,948,948,948,948,948,948,948,948,948,948,948,948,948,948,948,948,948,948,948,948,946,946,946,946,943,943,943,943,943,943,943,943,946,946,946,946,946,946,946,946,946,946,943,943,943,943,940,940,940,940,940,943,943,943,943,943,943,946,946,946,946,946,946,943,943,943,943,943,943,943,943,943,946,943,943,943,940,940,940,938,938,938,938,938,938,938,940,943,943,940,940,940,940,940,940,938,938,938,938,938,940,938,938,938,938,938,940,940,940,940,940,938,938,938,938,943,940,938,938,938,935,935,935,935,935,935,935,935,935,933,933,933,930,930,930,0,0,0,0,0,0,0,0,0,0,0,0,0,0,0,0,0,0,0,0,0,0,0,0,0,0,0,0,0,0,0,0,0,0,0,0
0,0,0,989,989,992,992,989,989,989,989,989,989,987,987,987,984,984,984,984,984,981,981,981,981,981,981,981,981,981,984,984,984,984,981,981,981,981,981,981,981,984,984,984,984,984,981,981,981,981,975,975,975,978,978,978,978,978,978,978,978,978,978,978,978,975,975,975,978,978,978,978,978,978,978,978,978,978,978,975,975,978,978,978,978,978,978,978,978,975,975,975,975,975,975,975,975,975,975,973,973,975,975,975,975,975,975,975,975,975,975,975,975,975,975,975,975,975,975,975,975,975,975,975,975,975,975,975,975,975,975,975,975,975,975,978,978,975,975,975,973,973,975,973,973,973,973,973,973,973,973,970,970,970,973,973,970,970,973,973,973,970,970,970,970,970,970,970,973,973,973,970,970,970,970,970,970,967,967,967,967,967,967,967,967,967,967,967,967,967,970,970,970,967,967,967,967,967,967,967,967,967,967,967,967,967,964,964,964,967,964,964,967,967,967,967,967,967,967,967,967,967,967,967,967,967,967,967,967,964,964,964,964,964,964,964,964,964,964,964,964,964,962,962,962,962,967,967,805,805,805,805,805,803,803,802,800,798,794,792,790,790,790,790,790,792,794,794,798,800,802,802,803,805,809,811,813,815,815,815,962,962,956,956,959,959,959,959,959,959,959,959,959,959,959,959,959,959,962,962,962,962,962,959,959,959,959,959,962,959,959,962,962,962,962,962,962,962,962,962,962,962,962,962,962,962,959,959,959,959,959,959,959,959,959,956,956,956,956,956,956,956,956,956,956,959,959,959,959,959,959,959,959,959,959,959,959,959,959,956,956,956,956,956,956,956,956,956,956,956,959,959,956,956,956,956,956,956,956,956,956,956,956,956,956,956,956,956,956,956,956,956,956,956,956,956,956,956,956,956,954,954,954,951,951,951,951,954,954,951,951,951,951,951,951,951,951,951,948,948,951,951,951,951,951,954,954,951,951,951,951,948,948,948,948,948,948,948,948,948,948,948,948,948,948,948,948,948,946,946,948,948,948,948,946,946,946,946,946,946,946,946,946,946,946,946,946,946,946,946,946,946,946,946,946,946,946,946,946,946,946,946,946,946,946,946,946,946,946,946,943,943,943,940,940,940,940,940,940,940,940,940,943,943,943,940,940,940,940,940,940,940,940,940,940,938,938,938,940,940,940,940,940,940,943,943,943,943,943,943,943,943,943,943,943,943,943,943,943,943,943,943,940,940,940,940,938,938,938,938,938,938,938,938,938,938,938,940,940,940,938,938,938,938,938,938,938,938,938,938,938,938,938,938,938,938,938,938,938,938,938,938,938,938,938,938,938,935,935,933,933,933,933,933,933,933,935,933,930,930,930,930,930,930,0,0,0,0,0,0,0,0,0,0,0,0,0,0,0,0,0,0,0,0,0,0,0,0,0,0,0,0,0,0,0,0,0,0,0,0
0,0,0,989,989,989,989,989,989,989,989,989,987,987,978,978,978,981,981,981,981,981,978,978,978,978,978,978,978,978,981,981,981,981,978,978,981,978,978,978,978,981,981,981,981,981,978,978,975,975,973,973,973,975,975,975,975,975,975,975,975,975,975,975,975,975,975,975,975,975,975,975,975,975,975,975,975,975,975,975,975,975,975,975,975,975,975,975,975,973,973,973,973,970,970,970,970,970,970,970,970,973,973,973,973,973,973,973,973,973,973,973,973,973,973,973,973,973,973,973,973,973,973,973,973,970,970,973,973,973,973,973,973,973,973,975,975,973,973,973,973,973,973,970,970,970,970,970,970,970,970,970,970,970,970,970,967,967,970,970,970,967,967,967,967,967,967,967,970,970,970,970,970,967,967,967,967,967,964,964,964,964,964,964,964,967,967,967,967,967,967,967,967,967,967,967,967,967,967,964,964,964,964,964,964,964,964,964,964,964,964,964,964,964,964,964,967,964,964,964,964,964,964,964,964,964,964,964,964,962,962,962,962,962,962,964,962,962,962,962,962,962,959,959,959,959,964,964,807,807,807,807,807,805,803,802,802,800,796,794,792,792,792,792,792,792,794,794,798,800,802,802,803,805,811,813,813,817,817,817,959,959,956,956,959,959,959,959,959,956,956,956,956,956,956,956,956,959,959,959,959,959,959,959,959,956,956,956,959,959,959,959,956,956,959,959,959,959,959,959,959,959,959,959,959,959,956,956,956,956,956,956,956,956,956,956,956,956,956,956,956,956,956,956,956,956,956,956,956,956,956,956,956,956,956,956,956,956,956,956,956,956,956,956,956,956,956,956,956,954,954,954,954,956,956,956,956,956,956,956,956,956,956,954,954,956,956,956,954,954,954,954,954,954,954,954,954,954,951,951,954,951,951,951,951,951,951,951,951,948,948,948,948,948,948,948,948,948,948,948,948,948,948,948,948,948,946,946,948,948,946,946,948,948,948,948,948,948,946,946,946,946,946,946,946,946,946,946,946,946,946,946,946,946,946,946,943,943,943,943,943,943,943,943,943,943,943,943,946,946,943,943,943,946,946,943,943,943,943,943,946,946,946,946,943,943,943,943,943,943,943,940,940,940,940,938,938,940,940,938,938,940,940,940,940,938,938,938,938,940,938,938,938,938,938,938,938,938,938,938,938,938,938,938,938,938,938,938,938,938,940,940,940,940,940,940,940,940,940,940,940,940,940,940,938,938,938,938,938,938,938,935,935,935,935,935,935,938,938,938,938,938,938,938,935,935,935,938,938,938,935,935,935,935,935,935,935,935,935,938,935,935,935,935,935,935,935,933,933,930,930,930,930,930,930,933,933,933,930,930,930,928,928,928,0,0,0,0,0,0,0,0,0,0,0,0,0,0,0,0,0,0,0,0,0,0,0,0,0,0,0,0,0,0,0,0,0,0,0,0
0,0,0,987,987,989,989,989,987,987,987,987,987,987,978,978,978,981,981,978,978,978,978,978,978,978,978,978,978,978,978,978,978,975,975,978,978,975,975,978,978,978,978,978,978,978,975,975,973,973,970,970,970,973,973,973,973,973,973,975,973,973,973,973,973,973,973,973,973,973,973,973,973,973,973,973,973,973,973,973,973,973,973,973,973,973,973,973,973,970,970,970,970,970,967,967,967,967,967,967,967,967,970,970,970,970,970,970,967,967,967,967,967,967,967,967,970,973,970,970,970,970,970,970,970,970,970,970,973,970,970,973,973,970,970,970,973,973,973,973,970,970,973,970,970,967,967,967,967,967,967,967,967,967,967,967,967,967,967,967,967,967,964,964,967,967,967,967,967,967,967,967,967,967,967,964,964,964,964,964,964,964,964,964,964,964,964,964,964,964,967,967,967,964,964,964,964,964,964,964,964,964,964,964,964,964,964,964,964,964,964,964,964,964,964,964,964,964,962,962,962,962,962,962,962,962,962,962,962,962,962,962,962,962,962,962,962,962,959,959,959,959,959,956,956,956,956,956,809,809,809,809,807,807,805,803,802,800,796,794,792,792,792,792,792,792,794,796,798,800,802,803,803,805,811,813,813,817,817,817,959,959,956,956,956,956,956,956,956,956,956,956,956,956,956,956,956,956,956,956,956,956,956,956,956,954,954,956,956,956,956,956,956,954,954,954,954,956,956,956,959,959,959,956,956,956,956,956,956,956,956,956,954,954,956,956,956,956,956,956,956,954,954,954,954,954,954,954,954,954,954,954,956,954,954,954,956,954,954,954,954,954,954,954,954,954,954,954,954,951,948,948,948,948,948,948,951,951,951,951,951,951,951,951,951,954,954,951,951,951,951,951,948,948,948,951,951,951,951,951,951,948,948,948,948,948,948,948,948,948,948,948,948,948,948,948,948,948,948,948,946,946,946,946,946,946,943,943,943,946,946,946,946,946,946,946,946,946,946,946,946,946,946,946,946,943,943,943,943,943,943,943,943,943,943,940,940,940,940,940,940,940,940,940,943,943,943,943,943,943,943,943,943,943,943,940,940,940,938,938,938,938,938,938,940,938,938,940,940,940,940,940,940,938,938,938,938,938,938,938,938,938,940,940,938,938,938,938,938,938,938,938,938,938,938,938,938,938,938,938,935,935,935,935,935,935,935,938,938,938,938,938,938,938,938,938,938,938,938,938,938,938,938,938,938,938,938,935,935,935,935,935,935,935,935,935,935,935,935,935,935,935,935,935,935,935,935,935,935,935,933,933,933,933,933,933,933,933,933,933,933,935,935,933,933,933,933,933,930,930,928,928,928,928,928,930,930,930,928,928,928,928,928,928,0,0,0,0,0,0,0,0,0,0,0,0,0,0,0,0,0,0,0,0,0,0,0,0,0,0,0,0,0,0,0,0,0,0,0,0
0,0,0,987,987,987,987,987,987,987,987,987,987,984,978,978,978,978,978,978,978,978,978,978,975,975,975,975,975,975,975,975,975,975,973,973,973,970,970,973,975,973,973,975,973,973,973,973,973,970,970,970,970,970,970,970,970,973,973,973,973,973,973,973,973,970,970,970,970,970,970,970,970,970,970,970,970,970,970,970,970,967,967,970,970,970,970,970,970,970,970,970,970,967,967,967,967,967,967,967,967,967,967,967,967,967,967,967,964,964,964,967,967,967,967,967,967,967,967,967,967,970,970,967,967,967,967,967,970,967,967,970,970,970,967,967,970,970,970,970,967,967,970,967,967,967,967,967,967,967,967,967,964,964,964,964,964,964,964,964,964,964,964,964,964,964,964,964,967,967,967,967,967,964,964,962,962,962,962,962,962,964,964,964,964,964,964,964,962,962,964,964,964,964,964,964,962,962,962,962,962,962,962,962,962,962,962,962,962,962,962,962,962,962,962,964,964,962,962,959,959,962,959,959,959,959,962,959,959,959,959,959,959,959,959,959,959,959,959,956,956,956,956,956,956,954,954,954,809,809,809,809,809,807,805,803,802,802,800,796,794,794,794,794,794,794,796,796,798,800,802,803,803,805,811,813,815,817,817,956,956,956,954,954,956,954,954,954,954,954,954,954,954,954,954,954,954,956,954,954,954,954,954,954,954,954,954,954,956,956,954,954,954,951,951,951,951,951,951,951,956,956,956,956,954,954,954,954,954,954,951,951,954,954,954,954,954,954,954,954,954,954,954,954,954,954,954,954,954,954,954,954,954,954,951,951,951,951,951,951,951,951,951,954,954,954,954,951,948,948,948,948,946,946,946,948,948,948,948,948,948,948,948,948,948,948,948,948,948,948,948,946,946,946,946,946,948,948,948,948,948,948,948,948,948,948,946,946,946,946,946,946,946,946,946,946,946,946,946,946,946,946,946,946,943,940,940,940,940,940,940,940,943,943,943,943,943,943,943,943,943,943,943,943,943,940,940,943,940,940,940,940,940,940,940,938,938,938,938,938,938,938,938,940,940,940,940,940,940,940,940,940,940,940,940,938,938,938,938,938,938,935,935,935,935,938,938,935,935,938,938,938,938,935,935,935,935,938,938,938,938,938,938,938,938,938,935,935,935,935,935,935,935,938,938,935,935,935,935,935,933,933,933,933,933,933,935,935,935,935,935,935,935,935,935,935,935,938,938,938,938,938,938,938,938,935,935,935,935,935,935,935,935,935,935,935,935,935,935,935,933,933,935,935,935,933,933,935,935,935,933,930,930,930,930,933,933,933,933,933,933,933,933,930,930,930,930,930,928,928,928,928,928,928,928,928,928,928,928,928,928,925,925,925,0,0,0,0,0,0,0,0,0,0,0,0,0,0,0,0,0,0,0,0,0,0,0,0,0,0,0,0,0,0,0,0,0,0,0,0
0,0,0,984,984,984,987,984,984,984,984,984,984,981,978,978,978,978,978,978,978,975,975,975,975,973,973,973,973,973,975,973,973,973,973,970,970,970,970,970,967,967,967,967,970,970,970,970,970,970,967,967,967,970,970,970,970,970,970,973,970,970,970,970,970,967,967,967,970,970,970,970,970,970,967,967,967,967,967,967,967,967,967,967,967,967,967,967,967,967,967,967,967,967,967,964,964,964,964,964,964,964,967,967,967,967,967,967,964,964,964,964,964,964,964,964,964,964,964,964,964,964,964,967,967,967,967,967,967,964,964,967,967,967,967,967,967,967,967,967,962,962,967,967,964,964,964,964,964,964,964,964,964,964,964,964,962,962,964,962,962,962,962,964,962,962,962,964,964,964,964,964,964,964,962,962,959,959,959,962,962,962,962,962,962,962,962,962,959,959,959,959,959,959,959,962,962,959,959,962,959,959,959,959,962,962,962,962,962,962,959,959,962,959,959,962,962,962,959,959,959,959,959,959,959,959,959,959,956,956,956,956,956,956,956,956,956,956,956,956,956,956,954,954,954,951,951,951,813,811,811,811,809,809,807,805,803,802,800,796,796,794,794,794,794,794,796,796,798,802,802,803,805,807,813,813,815,817,817,954,954,954,954,954,954,954,954,954,954,954,954,954,954,954,954,954,954,954,951,948,948,948,948,948,948,948,948,951,954,954,954,954,951,951,948,948,948,948,948,948,951,951,954,954,951,951,951,951,951,951,951,951,951,951,951,951,951,951,954,951,951,951,951,951,951,951,954,954,954,951,951,951,951,951,951,948,948,948,948,948,948,948,948,948,951,948,948,948,946,946,946,946,946,946,946,946,946,946,946,946,946,946,946,946,946,946,946,946,946,946,946,946,946,946,946,946,948,948,948,948,948,948,948,946,946,946,946,946,946,946,946,946,946,946,946,946,946,946,946,946,943,943,943,943,943,938,938,938,938,938,938,938,940,940,940,943,943,943,940,940,940,940,940,940,940,938,938,940,940,940,940,938,938,938,938,938,938,938,938,938,938,938,938,938,938,938,938,938,938,938,938,938,938,938,938,938,938,938,935,935,935,935,935,935,933,933,935,935,935,935,935,935,935,935,935,935,935,935,935,935,935,935,935,935,935,935,935,935,935,935,933,933,933,933,933,933,933,933,933,933,930,930,933,930,930,930,933,933,933,933,933,933,930,930,930,930,930,935,935,935,935,935,935,935,935,935,933,933,933,935,935,935,935,935,935,933,933,935,933,933,933,933,933,933,933,930,930,933,933,933,930,930,930,930,930,930,930,930,930,930,930,930,930,928,928,928,928,928,928,928,928,928,925,925,925,925,925,928,925,925,925,925,925,925,0,0,0,0,0,0,0,0,0,0,0,0,0,0,0,0,0,0,0,0,0,0,0,0,0,0,0,0,0,0,0,0,0,0,0,0
0,0,0,981,981,981,984,984,984,975,975,978,978,978,978,975,975,975,975,975,975,975,975,973,973,973,970,970,967,967,970,970,970,970,970,970,967,967,967,967,967,967,967,967,967,967,964,964,967,967,967,967,967,967,967,967,967,967,967,967,967,967,967,967,967,964,964,967,967,967,967,967,967,967,967,967,967,967,967,964,964,967,967,967,967,967,967,967,967,967,967,967,967,964,964,964,964,964,964,964,964,964,964,964,964,964,964,964,964,964,964,964,964,964,964,964,964,964,964,962,962,964,964,962,962,962,964,964,964,964,964,964,964,964,964,962,962,962,964,962,959,959,962,962,962,962,962,962,964,962,962,962,962,962,962,962,962,962,962,959,959,962,962,962,962,962,962,962,962,959,959,959,959,959,959,959,959,959,959,959,959,959,959,959,959,959,959,956,956,956,956,956,956,956,956,956,959,959,959,959,959,956,956,959,959,959,959,959,959,959,956,956,956,956,956,956,956,956,956,956,956,956,956,956,956,956,956,956,956,956,956,956,956,956,956,956,956,956,956,956,956,956,954,954,954,951,951,951,813,811,811,811,811,811,809,805,803,802,802,800,796,796,796,794,794,796,796,798,800,802,802,803,805,809,813,815,817,817,817,951,951,951,951,951,951,951,951,951,951,951,951,951,951,951,951,948,948,951,946,946,948,946,946,946,946,946,946,948,951,951,948,948,948,948,948,948,948,948,948,948,948,946,946,948,948,948,948,948,948,948,948,948,948,948,948,948,948,948,948,948,948,951,948,948,948,948,948,948,948,948,948,948,948,948,948,948,948,948,946,946,946,946,946,946,946,946,946,946,943,943,943,943,943,943,943,943,943,943,943,943,943,943,943,946,943,943,943,943,943,943,943,943,943,943,943,943,946,946,946,946,946,946,946,946,946,946,943,943,943,943,943,943,943,943,943,943,943,943,943,943,940,940,940,940,940,938,938,938,938,938,938,938,938,938,938,938,938,940,940,938,938,938,938,938,938,938,938,938,938,938,938,938,938,935,935,935,935,935,935,935,935,935,935,935,935,935,935,935,935,935,935,935,935,935,935,935,935,935,935,933,933,933,933,933,933,933,933,933,933,935,935,935,935,935,935,933,933,933,933,933,933,933,935,935,935,935,935,935,933,933,933,930,930,930,930,930,930,930,933,930,930,930,930,930,930,930,930,930,930,930,930,930,930,930,930,930,930,930,930,933,935,933,933,933,933,933,933,933,933,933,933,933,933,933,933,930,930,930,930,930,930,928,928,928,928,928,928,928,930,930,928,928,928,928,928,928,928,928,928,930,930,928,928,925,925,925,925,928,925,925,925,928,925,925,925,925,925,925,925,925,925,925,923,923,0,0,0,0,0,0,0,0,0,0,0,0,0,0,0,0,0,0,0,0,0,0,0,0,0,0,0,0,0,0,0,0,0,0,0,0
0,0,0,978,978,978,978,978,978,975,973,973,973,975,975,975,975,975,975,975,975,975,973,970,970,970,967,967,967,967,967,967,967,967,967,967,967,964,964,964,964,964,964,964,964,964,964,964,964,964,964,967,967,967,967,967,967,967,967,967,964,964,964,964,967,964,964,964,967,967,967,967,967,967,964,964,964,964,964,964,964,964,964,964,964,964,964,964,964,964,964,964,964,962,962,964,962,962,962,964,962,962,962,962,962,962,962,962,962,962,964,964,962,962,962,962,962,962,962,962,962,962,962,962,962,962,962,959,959,959,959,964,962,962,962,962,959,959,962,959,956,956,956,959,959,959,959,959,962,962,959,959,959,959,959,959,959,959,959,959,959,959,959,959,956,956,956,956,956,956,956,956,956,956,956,956,956,956,956,956,956,956,956,956,956,956,956,956,956,956,954,954,954,954,954,954,956,956,956,956,954,954,956,956,956,956,956,956,956,956,956,956,956,956,954,954,956,956,956,956,956,956,956,956,956,954,954,954,954,954,954,954,954,954,954,954,954,954,954,954,954,954,954,951,951,951,948,948,815,813,813,813,811,811,809,807,805,803,802,802,796,796,796,796,796,796,796,798,802,803,803,805,807,809,813,815,817,817,819,951,951,948,948,948,948,948,948,948,948,948,948,948,948,948,946,946,948,946,946,946,946,946,946,946,946,946,946,946,948,948,948,948,948,948,946,946,946,946,946,946,946,946,946,946,946,946,946,946,946,948,948,948,946,946,946,946,946,946,946,946,946,948,946,946,946,946,946,946,946,946,946,946,948,948,946,946,946,946,946,943,943,943,943,943,943,943,943,943,940,940,940,940,940,940,940,940,940,940,940,940,940,940,940,940,940,940,940,940,940,940,940,940,940,940,940,940,940,940,943,943,943,946,943,943,943,943,943,940,940,940,940,940,940,940,940,938,938,940,940,938,938,938,938,938,938,938,938,938,938,938,938,938,938,938,938,938,938,938,938,935,935,935,935,938,938,938,938,938,938,935,935,935,935,935,935,935,933,933,933,933,935,935,935,935,935,933,933,933,933,933,933,933,933,933,933,933,933,933,933,930,930,930,930,930,930,930,930,930,930,930,930,933,933,933,933,933,933,930,930,933,930,930,930,933,933,933,933,933,933,930,930,930,930,928,928,928,928,928,930,930,928,928,928,928,928,928,928,928,928,928,928,928,928,928,928,928,928,928,928,928,930,933,933,933,933,933,930,930,930,933,933,930,930,930,930,930,928,928,928,928,928,928,925,925,928,928,928,928,928,928,928,925,925,925,928,928,928,928,928,928,928,928,928,925,925,925,925,925,925,925,925,925,925,925,925,925,925,925,923,923,923,923,923,923,0,0,0,0,0,0,0,0,0,0,0,0,0,0,0,0,0,0,0,0,0,0,0,0,0,0,0,0,0,0,0,0,0,0,0,0
0,0,0,978,978,978,978,978,978,973,973,970,970,975,975,973,973,973,973,973,973,973,970,970,970,967,967,967,967,967,967,967,964,964,967,964,964,964,964,964,964,964,964,964,964,964,964,964,964,962,962,962,962,962,964,964,964,964,964,964,964,964,964,964,962,962,964,964,964,964,964,964,964,964,962,962,962,962,962,962,962,962,964,964,962,962,962,962,962,962,962,962,962,962,962,962,962,962,962,962,962,962,962,962,962,962,962,962,962,962,962,962,962,962,959,959,959,959,959,959,959,959,959,959,959,959,956,956,956,956,956,956,956,956,962,959,959,959,959,956,956,956,956,956,956,956,956,959,959,959,959,959,959,959,956,956,956,956,956,956,956,956,956,956,956,956,954,954,956,956,954,954,954,954,954,954,954,954,954,954,954,956,956,956,956,956,956,956,954,954,954,951,951,951,954,954,954,954,954,954,954,954,954,954,954,954,956,956,956,956,954,954,954,954,954,954,954,954,954,954,956,954,954,954,954,954,954,951,951,951,951,951,951,951,954,954,951,951,951,951,954,951,948,948,948,946,946,948,817,813,813,813,813,811,811,809,807,805,803,802,800,796,796,796,796,796,798,800,802,803,803,805,807,811,813,815,817,817,819,946,946,946,946,946,946,946,946,946,946,946,946,946,946,946,946,946,946,943,943,943,943,943,943,943,943,943,943,943,946,946,946,946,946,946,946,946,946,946,943,943,943,943,943,943,943,943,943,943,946,946,946,946,946,946,946,946,946,943,943,943,946,946,946,946,946,943,943,943,943,943,943,946,946,946,946,946,946,946,943,943,943,940,940,940,940,940,940,940,940,940,940,940,940,940,940,940,940,940,938,938,938,938,938,938,938,938,938,938,940,940,938,938,940,940,940,940,938,938,940,940,940,943,943,940,940,940,938,938,938,938,938,938,938,938,938,938,938,938,938,935,935,938,938,938,935,935,935,935,935,935,935,935,935,935,935,935,935,935,935,935,935,935,935,935,935,935,935,935,935,935,935,935,935,935,933,933,933,933,930,930,933,933,933,933,933,933,930,930,930,930,930,930,930,930,930,930,930,930,930,928,928,928,928,930,928,928,928,928,928,928,928,928,930,930,930,930,930,930,930,930,930,930,930,930,930,930,930,930,930,930,930,928,928,928,928,928,928,928,928,928,928,928,928,928,928,928,928,928,928,928,928,928,928,928,928,928,928,928,928,928,928,928,928,928,930,930,930,930,930,930,930,930,930,930,930,928,928,928,925,925,925,925,925,925,925,925,925,925,925,925,925,925,925,925,925,925,925,925,925,925,925,925,925,925,925,925,925,925,923,923,923,925,923,923,923,923,923,923,920,920,920,920,920,920,0,0,0,0,0,0,0,0,0,0,0,0,0,0,0,0,0,0,0,0,0,0,0,0,0,0,0,0,0,0,0,0,0,0,0,0
0,0,0,975,975,975,975,975,975,973,970,967,967,967,967,967,964,964,970,970,970,970,970,970,967,967,967,964,964,967,964,964,964,964,964,964,964,962,962,962,962,962,962,962,962,962,962,962,962,962,959,959,959,959,962,959,959,959,959,962,962,962,962,962,962,962,962,964,964,964,964,964,964,962,962,962,962,962,962,962,962,962,962,962,959,959,959,959,959,959,959,959,959,959,959,962,962,962,962,962,962,959,959,959,959,959,959,959,959,959,959,959,959,959,956,956,956,956,956,956,956,956,956,956,956,956,956,956,956,956,956,956,956,956,956,956,956,956,956,956,954,954,954,956,956,956,956,956,956,959,956,956,956,956,956,956,956,956,956,956,956,954,954,954,954,954,954,954,954,954,954,954,954,954,951,951,951,951,951,951,951,954,954,954,954,954,954,954,954,954,951,951,951,951,951,951,951,951,951,951,948,948,951,951,951,951,951,951,951,954,951,951,951,951,951,951,951,951,954,954,954,954,951,951,951,951,951,948,948,948,948,948,948,948,948,948,948,948,948,948,951,948,948,946,946,946,946,946,815,815,815,815,815,813,811,809,807,805,803,802,800,798,798,796,796,796,798,800,802,803,803,805,807,811,815,815,817,819,819,943,943,943,943,946,943,943,943,943,943,943,943,943,943,943,943,940,940,940,940,940,940,940,940,940,940,940,940,940,943,943,946,946,943,943,943,943,943,943,940,940,940,940,940,940,940,940,940,940,943,943,943,943,943,943,943,943,943,940,940,940,943,943,943,943,943,940,940,940,940,940,943,943,943,943,946,943,943,943,943,940,940,940,940,938,938,938,938,938,938,938,938,938,938,938,938,938,938,938,938,938,938,938,938,938,938,938,935,935,935,938,938,938,938,938,938,938,938,938,938,938,938,938,938,938,938,938,935,935,935,935,935,935,938,935,935,935,935,935,935,935,935,935,935,933,933,933,933,933,933,933,933,933,933,933,933,933,933,933,933,933,933,933,935,935,935,935,935,935,935,933,933,933,933,930,930,930,930,930,928,928,930,930,930,930,928,928,928,928,928,928,928,928,928,928,928,930,928,928,928,928,928,928,928,928,928,928,928,928,928,928,928,928,928,928,928,928,928,928,928,928,928,928,928,928,928,928,928,928,928,928,928,928,928,928,928,925,925,928,928,928,928,928,928,928,928,928,925,925,925,925,925,925,925,925,925,925,925,925,925,925,925,925,923,923,923,925,928,928,928,928,928,928,928,928,928,925,925,925,925,925,923,923,923,923,923,923,923,923,923,923,923,923,923,923,925,925,925,925,925,925,925,923,923,923,923,923,923,923,923,920,920,920,920,923,920,920,923,920,920,920,918,918,918,918,0,0,0,0,0,0,0,0,0,0,0,0,0,0,0,0,0,0,0,0,0,0,0,0,0,0,0,0,0,0,0,0,0,0,0,0
0,0,0,975,975,975,973,973,970,970,967,967,967,967,967,964,964,964,967,967,967,967,967,967,967,967,964,964,964,964,964,962,962,962,962,962,962,962,959,959,959,956,956,956,959,959,956,956,959,959,956,956,956,956,959,956,956,956,956,956,956,956,956,959,959,959,962,962,962,962,962,959,959,962,959,959,959,959,959,959,959,959,959,959,959,959,959,956,956,956,956,956,956,956,956,959,959,959,959,959,959,959,959,959,956,956,956,956,956,956,956,956,956,956,956,956,956,956,956,956,956,956,956,956,956,956,956,956,956,954,954,954,954,954,956,956,956,954,954,954,954,954,954,954,954,954,954,956,956,956,956,956,956,956,956,956,956,956,956,954,954,954,954,954,954,954,951,951,951,954,951,951,951,951,951,951,948,948,948,951,951,951,951,954,954,954,951,951,951,951,948,948,948,948,948,948,948,948,948,948,948,948,948,948,948,946,946,948,948,948,948,948,948,948,948,951,951,951,951,951,951,951,951,951,948,948,948,948,948,948,948,948,946,946,946,946,946,946,946,946,946,946,946,943,943,943,940,940,815,815,815,815,815,815,813,811,809,805,803,803,800,800,800,800,800,800,800,800,802,803,805,807,809,813,815,817,817,819,819,943,943,943,943,943,943,943,943,943,943,943,940,940,938,938,938,938,938,938,938,938,938,938,938,938,938,938,938,938,940,940,940,943,940,940,940,940,940,940,940,940,938,938,938,940,938,938,938,938,940,940,940,940,940,940,938,938,938,940,940,940,940,940,940,940,940,940,940,940,940,940,940,940,940,940,943,940,940,943,940,938,938,938,938,938,938,938,938,938,938,938,938,938,938,938,938,938,938,938,938,938,938,938,935,935,935,935,935,935,935,935,935,935,935,938,935,935,935,935,935,933,933,933,935,935,935,935,935,935,935,933,933,935,935,935,933,933,933,933,933,933,933,933,933,933,930,930,930,933,930,930,930,930,930,930,930,930,930,930,930,930,930,930,933,933,933,933,933,933,933,933,933,930,930,930,928,928,928,928,928,928,928,928,928,928,928,928,925,925,925,925,928,928,928,925,925,928,928,928,925,925,925,925,925,928,928,928,928,928,928,928,928,928,928,928,925,925,925,925,925,925,925,925,928,928,928,928,928,928,928,928,925,925,925,925,925,925,925,925,925,925,925,925,925,925,925,925,925,925,923,923,925,925,923,923,925,925,925,925,923,923,923,923,920,920,920,920,920,925,925,925,925,925,925,925,925,925,923,923,923,923,923,923,923,920,920,920,920,920,920,920,920,920,920,920,923,923,923,923,923,923,923,923,920,920,920,920,920,920,918,918,920,920,920,920,920,920,920,920,918,918,918,918,918,918,0,0,0,0,0,0,0,0,0,0,0,0,0,0,0,0,0,0,0,0,0,0,0,0,0,0,0,0,0,0,0,0,0,0,0,0
0,0,0,973,973,973,970,970,967,967,967,967,964,964,967,964,964,964,967,964,964,964,964,964,967,964,964,962,962,962,962,956,956,956,956,956,959,956,956,956,956,956,956,956,956,956,956,956,956,956,956,956,956,956,956,956,956,956,956,956,956,956,956,956,956,956,956,959,959,959,959,956,956,959,956,956,956,956,956,956,956,956,956,956,956,956,956,956,956,954,954,954,954,954,954,956,956,956,956,956,956,956,956,956,956,956,956,956,956,956,956,954,954,954,954,954,954,954,954,954,954,954,954,954,954,954,954,954,954,954,954,954,954,954,954,954,954,954,954,951,951,948,948,948,948,951,951,951,954,954,954,954,954,954,954,954,954,954,954,954,951,951,951,951,951,951,951,951,951,951,951,951,948,948,948,946,946,946,946,948,948,948,948,951,951,951,951,951,948,948,948,948,948,946,946,946,946,946,946,946,946,946,946,946,946,946,946,946,946,946,946,946,946,946,946,948,948,948,948,948,948,948,946,946,946,946,946,946,946,946,946,946,946,946,946,946,946,946,943,943,946,943,943,943,940,940,938,938,817,817,815,815,815,815,813,811,809,807,805,803,800,800,800,800,800,800,802,802,803,805,807,809,811,813,817,817,819,819,819,943,943,943,943,943,943,943,940,940,940,940,938,938,938,938,935,935,938,935,935,935,935,935,935,935,935,935,935,935,938,938,938,938,938,938,938,938,938,938,938,938,938,938,938,938,938,938,938,938,938,938,938,938,938,938,938,938,938,938,938,938,938,938,938,938,938,938,938,938,938,938,938,938,938,940,940,938,938,940,938,938,938,938,938,938,938,935,935,935,935,935,935,935,935,935,935,935,935,935,935,935,935,935,935,935,935,935,933,933,933,933,933,933,933,930,930,930,933,930,930,930,930,930,930,930,930,930,933,933,933,933,933,933,933,933,933,933,933,933,933,930,930,930,930,930,928,928,928,930,930,928,928,928,928,928,928,928,928,928,928,928,928,928,928,930,930,930,930,928,928,928,930,930,930,928,928,928,928,928,928,928,925,925,925,925,925,925,925,925,925,925,925,925,925,925,925,925,925,925,925,923,923,925,925,925,925,925,925,925,925,925,925,925,928,928,925,925,925,925,925,925,925,925,925,925,925,925,925,925,925,925,925,925,925,925,925,925,925,925,925,925,925,925,925,925,925,923,923,923,923,923,923,923,923,923,923,923,923,923,920,920,920,918,918,920,920,920,920,920,920,923,923,920,920,920,920,920,920,920,920,920,920,920,920,920,920,920,920,918,918,918,918,918,918,918,920,920,920,920,920,920,920,918,918,918,918,918,918,918,915,915,918,918,918,918,918,918,918,918,918,918,915,915,915,915,0,0,0,0,0,0,0,0,0,0,0,0,0,0,0,0,0,0,0,0,0,0,0,0,0,0,0,0,0,0,0,0,0,0,0,0
0,0,0,973,970,970,967,967,967,967,964,964,964,964,964,964,964,964,964,964,964,964,964,964,964,964,964,962,962,962,962,956,956,956,956,956,956,956,954,954,954,954,954,954,954,954,954,954,954,954,954,954,954,954,956,956,954,954,954,954,954,954,954,954,954,954,954,954,954,954,954,954,954,954,954,956,956,956,956,956,956,956,956,954,954,954,954,954,954,951,951,951,954,954,954,954,954,954,954,954,954,956,954,954,954,954,954,954,954,954,954,954,954,954,954,954,954,951,951,951,954,954,954,954,954,954,954,951,951,951,954,954,951,951,951,954,954,951,951,948,948,948,946,946,946,946,946,946,946,951,951,951,951,951,951,951,951,951,951,951,951,951,951,951,951,951,951,948,948,948,948,946,946,946,946,946,946,946,946,946,946,946,946,946,948,948,948,946,946,946,946,946,946,946,946,946,943,943,943,943,946,943,943,943,943,943,943,943,943,943,943,943,943,946,946,946,946,946,946,946,946,946,943,943,943,943,943,943,943,943,943,943,943,943,943,943,943,940,940,940,940,943,943,940,938,938,938,938,817,817,817,815,815,815,813,813,811,809,807,805,802,800,800,800,800,802,802,803,805,807,809,811,811,813,817,817,819,819,819,938,938,938,940,940,938,938,938,938,938,938,935,935,935,935,935,935,935,935,935,935,935,935,935,935,935,935,935,935,938,938,938,938,938,938,938,938,938,938,938,938,938,938,938,938,935,935,935,935,935,935,935,935,938,938,938,938,938,935,935,935,935,935,935,938,938,938,938,938,938,938,938,938,938,938,938,938,938,938,935,935,935,935,935,935,935,935,935,935,933,933,933,935,935,935,935,935,935,935,933,933,933,933,933,933,933,933,933,930,930,930,930,930,930,930,930,930,930,930,930,930,930,930,930,930,930,930,930,930,930,930,930,930,930,930,930,930,930,930,930,928,928,928,928,928,928,928,928,928,928,928,928,928,928,928,928,925,925,925,925,925,925,925,925,925,925,925,925,925,925,925,925,925,928,928,928,928,925,925,925,925,925,925,925,925,925,925,925,923,923,923,923,923,925,923,923,923,925,923,923,923,923,923,923,923,923,923,923,925,925,925,925,925,925,925,925,925,925,923,923,923,923,923,923,923,925,923,923,923,923,923,923,923,923,923,923,923,923,923,923,923,923,923,923,923,923,920,920,920,920,920,920,923,920,920,920,920,920,920,918,918,918,918,918,918,918,918,918,918,918,918,918,918,918,918,918,918,918,918,918,918,918,920,918,918,918,918,918,918,918,918,918,918,918,918,918,918,918,918,918,918,918,915,915,915,915,915,915,915,915,915,915,915,915,915,915,913,913,910,910,913,913,913,913,913,0,0,0,0,0,0,0,0,0,0,0,0,0,0,0,0,0,0,0,0,0,0,0,0,0,0,0,0,0,0,0,0,0,0,0,0
0,0,0,970,970,967,967,964,964,964,962,962,964,964,964,964,964,964,964,964,964,962,962,964,964,962,962,959,959,959,956,956,956,956,956,956,956,954,954,954,951,951,951,951,948,946,946,946,946,948,948,951,951,951,954,954,954,954,954,954,954,954,951,951,951,951,948,948,951,948,948,951,948,948,948,954,954,954,954,954,954,954,954,954,954,954,954,954,954,951,951,951,951,951,951,951,951,951,951,954,954,954,954,954,951,951,951,951,948,948,951,951,951,951,951,951,951,951,951,951,951,951,951,951,951,951,951,951,951,951,951,951,951,951,951,951,951,948,948,946,946,946,946,946,946,946,946,946,946,946,943,943,946,946,946,946,948,948,948,948,948,948,948,948,948,948,948,948,948,946,946,946,946,946,946,946,946,943,943,946,946,946,946,946,946,946,946,943,943,946,946,943,943,943,943,943,943,943,943,943,943,943,943,943,943,943,943,943,943,943,943,943,943,943,943,943,943,943,940,940,940,940,943,943,940,940,940,940,940,940,943,943,943,943,940,940,940,940,938,938,938,940,940,938,938,938,935,935,935,935,817,817,817,815,815,813,811,811,809,805,803,802,802,802,802,802,803,805,807,807,809,811,811,813,817,819,819,819,819,938,938,938,938,935,935,935,935,935,935,935,935,935,935,935,933,933,933,935,933,933,933,933,933,933,933,933,933,933,935,935,935,935,935,935,938,938,938,935,935,935,935,935,935,935,935,935,935,933,933,933,933,933,935,935,935,935,935,935,935,935,935,935,935,933,933,935,935,935,935,935,935,935,935,935,935,935,935,935,935,933,933,935,933,933,933,933,933,933,933,930,930,933,933,933,933,933,933,933,933,933,933,933,930,930,930,930,930,928,928,928,928,928,928,928,928,928,928,928,928,928,928,928,928,928,928,928,928,928,928,928,928,928,930,930,930,930,930,928,928,928,928,928,928,925,925,925,925,925,925,925,925,925,925,925,925,925,925,923,923,923,923,923,923,923,923,925,925,925,925,925,925,925,925,925,925,925,925,925,925,925,923,923,923,923,923,923,923,923,920,920,920,923,923,923,923,923,923,923,923,923,923,923,923,920,920,920,923,923,923,923,923,923,925,925,923,923,923,923,920,920,920,918,918,918,918,920,920,920,920,920,923,923,920,920,920,920,920,920,920,920,920,920,920,918,918,918,918,918,918,918,918,920,918,918,918,918,918,918,918,918,918,915,915,915,915,915,915,915,915,915,915,915,915,915,915,915,915,915,915,915,918,918,918,915,915,915,915,915,915,915,915,915,915,915,915,915,915,915,915,913,913,913,913,913,913,913,915,915,913,913,913,913,913,910,910,910,910,908,908,908,908,908,908,910,0,0,0,0,0,0,0,0,0,0,0,0,0,0,0,0,0,0,0,0,0,0,0,0,0,0,0,0,0,0,0,0,0,0,0,0
0,0,0,967,967,967,964,964,964,962,962,962,962,962,962,962,962,962,964,964,962,962,962,962,962,959,959,956,956,956,956,956,954,954,954,954,954,951,951,951,948,948,948,946,946,946,946,946,946,946,946,946,948,948,948,951,951,951,951,951,951,951,951,948,948,948,946,946,948,946,946,948,948,948,948,948,948,948,948,951,951,954,954,951,951,951,951,951,951,948,946,946,948,948,948,946,946,948,948,951,951,951,951,948,948,948,948,948,948,948,948,948,948,948,946,946,948,948,948,948,948,948,948,948,948,948,948,948,948,948,948,948,948,948,948,948,948,946,946,946,946,946,946,946,946,946,946,943,943,943,943,940,940,943,943,943,943,946,946,946,946,946,946,946,946,946,946,946,946,946,946,946,946,946,946,946,943,943,943,943,943,943,943,943,943,943,943,943,943,943,943,943,943,943,943,943,943,940,940,940,940,940,940,940,940,940,940,940,940,940,940,940,940,940,940,940,940,940,940,940,938,938,938,938,938,938,938,938,938,938,940,940,940,940,940,940,938,938,938,938,938,938,938,935,935,935,935,935,935,935,821,821,819,817,817,817,815,813,811,805,805,803,803,803,803,803,805,805,807,807,809,811,813,815,817,819,823,821,821,821,935,935,935,935,935,933,933,933,933,933,933,933,933,933,933,933,933,933,933,930,930,933,933,930,930,930,930,930,933,933,933,935,933,933,935,935,935,935,933,933,935,933,933,933,933,933,933,930,930,930,930,930,930,933,933,933,933,935,933,933,933,933,933,933,933,933,933,935,935,935,935,935,935,933,933,933,933,933,930,930,930,933,930,930,930,930,930,930,930,930,930,930,930,930,930,930,928,928,930,930,930,930,928,928,928,928,928,928,928,928,928,928,925,925,925,925,925,925,925,925,925,925,925,928,928,925,925,928,928,928,928,928,928,928,928,928,928,928,928,925,925,925,925,925,925,923,923,923,923,923,923,923,923,923,923,923,923,920,920,920,920,920,920,920,920,923,923,923,923,923,923,923,923,923,923,923,923,923,923,923,923,923,923,923,920,920,920,920,920,920,920,920,920,920,920,920,920,920,920,920,920,920,920,918,918,918,918,918,920,920,920,923,923,923,920,920,920,918,918,918,915,915,915,915,915,915,915,918,918,918,918,920,918,918,918,918,918,918,915,915,915,915,915,915,915,915,915,915,918,918,918,918,915,915,915,915,915,915,918,918,918,915,915,915,915,915,915,915,915,915,915,915,913,913,913,913,913,915,915,915,915,915,915,915,915,913,913,913,913,913,913,913,915,915,913,913,913,910,910,910,910,910,910,910,908,908,908,908,908,910,910,910,910,910,908,908,908,908,906,906,906,906,906,908,0,0,0,0,0,0,0,0,0,0,0,0,0,0,0,0,0,0,0,0,0,0,0,0,0,0,0,0,0,0,0,0,0,0,0,0
0,0,0,967,967,967,964,964,962,962,959,959,959,959,959,962,954,954,962,956,956,962,962,962,959,959,959,956,956,956,956,954,954,954,954,954,951,951,948,948,948,948,948,946,946,946,946,946,946,946,946,946,946,946,946,946,948,948,948,948,948,948,948,946,946,946,943,943,946,946,946,946,946,946,946,946,946,948,946,946,948,951,951,951,948,948,948,948,948,946,943,943,946,946,946,943,943,946,948,948,948,948,946,946,946,946,946,946,946,946,946,946,946,946,946,946,946,946,946,946,946,946,946,946,946,946,946,946,946,946,946,946,946,946,946,946,946,943,943,943,943,943,943,943,943,943,943,943,943,943,940,940,940,940,940,940,940,943,943,943,943,943,943,943,943,943,943,943,946,946,946,946,946,946,943,943,943,943,943,943,943,943,940,940,940,940,940,940,940,940,943,943,943,943,940,940,940,940,940,940,940,938,938,940,940,940,938,938,938,938,938,938,938,938,938,938,938,938,938,938,935,935,935,935,935,935,935,935,935,935,938,938,938,938,938,938,938,935,935,935,935,935,935,935,935,935,935,935,935,935,823,823,821,819,819,817,817,815,811,807,807,805,803,803,803,805,805,807,809,809,811,811,813,815,817,819,823,823,823,823,935,935,933,933,933,933,933,930,930,930,930,933,933,933,930,930,930,933,930,930,930,930,930,930,928,928,930,930,933,933,933,933,930,930,933,933,933,933,930,930,930,933,930,930,930,930,930,930,930,930,930,930,930,930,930,930,930,930,930,930,930,930,930,930,930,930,930,930,930,930,933,933,933,930,930,930,930,930,930,930,930,930,928,928,928,928,930,930,930,928,928,928,928,928,928,928,925,925,925,925,925,928,925,925,928,928,928,925,925,925,925,925,925,925,925,925,925,925,925,925,925,925,925,925,925,925,925,925,925,925,925,925,925,925,925,925,925,925,925,925,925,925,925,925,925,923,923,923,920,920,923,920,920,920,923,920,918,918,918,920,918,918,918,918,918,920,920,920,920,920,920,920,920,920,920,920,920,918,918,920,920,920,920,920,918,918,918,918,918,918,918,918,918,918,918,918,918,918,918,918,918,918,918,918,918,915,915,915,918,918,918,918,918,918,918,918,915,915,915,915,915,913,913,913,913,915,913,913,913,913,915,915,915,915,915,915,915,915,915,913,913,915,913,913,913,913,913,913,915,915,915,915,915,915,915,915,915,915,915,915,915,913,913,913,913,913,915,913,913,913,913,913,913,910,910,910,910,910,913,913,913,913,913,913,913,913,910,910,910,910,910,910,913,913,910,910,910,910,908,908,908,908,908,908,906,906,906,906,906,906,908,908,908,908,908,908,908,906,906,906,903,903,903,903,0,0,0,0,0,0,0,0,0,0,0,0,0,0,0,0,0,0,0,0,0,0,0,0,0,0,0,0,0,0,0,0,0,0,0,0
0,0,0,964,964,964,964,962,962,959,959,959,959,956,956,956,954,954,954,954,954,956,956,959,956,956,956,956,956,954,954,954,951,951,954,954,951,948,946,946,946,946,946,946,946,946,946,946,946,946,946,946,946,946,943,943,946,946,946,946,948,946,946,946,946,943,943,943,943,943,943,943,946,946,946,946,946,946,946,946,946,948,948,946,946,946,946,946,946,943,943,940,940,940,940,940,940,940,943,946,946,946,946,946,946,946,946,946,946,946,946,946,946,946,943,943,946,943,943,943,943,943,943,943,943,943,943,943,943,943,943,943,943,943,943,943,943,940,940,940,940,943,943,943,943,943,943,943,943,940,940,940,940,938,938,938,938,940,940,940,940,940,943,943,943,943,943,943,943,943,943,943,943,943,943,943,940,940,938,938,938,938,938,938,938,938,938,938,938,938,940,940,940,940,940,940,938,938,938,938,938,938,938,938,938,938,938,935,935,935,935,935,935,935,935,935,935,935,935,935,935,935,933,933,933,933,933,933,933,933,935,935,935,935,935,935,935,935,935,935,935,935,935,933,933,933,933,933,933,935,823,823,821,819,819,817,817,815,813,811,809,807,805,805,805,805,807,809,809,809,811,813,813,817,819,819,823,823,823,823,930,930,930,930,930,930,930,928,928,928,928,928,928,928,930,930,930,930,930,928,928,928,928,928,928,928,928,928,930,930,930,930,928,928,928,930,930,930,928,928,928,930,928,928,928,928,928,928,928,928,928,928,928,928,928,928,928,928,928,928,928,928,928,928,928,928,930,928,928,928,928,928,928,928,928,928,928,928,928,928,928,928,928,928,928,928,928,928,928,928,928,925,925,925,925,925,923,923,923,923,923,923,923,923,925,925,925,925,925,923,923,923,923,923,923,923,923,923,923,923,925,925,925,925,925,923,923,923,923,923,923,923,923,923,923,923,923,923,923,923,923,923,923,923,923,920,920,920,918,918,918,918,918,920,920,920,918,918,918,918,918,918,918,918,918,918,918,918,918,918,918,918,918,918,918,918,918,918,918,918,918,918,918,918,918,918,918,918,918,918,918,918,918,918,918,918,918,918,918,915,915,915,915,915,915,913,913,913,915,915,915,915,915,915,915,915,913,913,910,910,913,913,913,913,913,910,910,910,910,910,908,908,910,913,913,913,913,913,913,913,913,913,910,910,910,913,910,910,913,910,910,910,913,913,913,913,913,913,913,913,910,910,910,910,910,910,913,913,913,913,913,913,910,910,908,908,908,908,908,908,910,910,910,910,910,910,910,908,908,908,908,908,908,908,908,908,908,908,908,908,908,908,906,906,903,903,903,903,903,903,906,906,906,906,906,906,906,906,906,906,901,901,901,901,0,0,0,0,0,0,0,0,0,0,0,0,0,0,0,0,0,0,0,0,0,0,0,0,0,0,0,0,0,0,0,0,0,0,0,0
0,0,0,964,964,962,962,962,959,959,959,956,956,956,956,956,954,948,948,948,948,954,954,954,954,954,954,954,954,954,954,951,948,948,948,948,946,946,946,946,946,943,943,943,943,946,943,943,946,946,943,943,943,943,943,943,943,943,943,946,946,946,946,943,943,943,943,940,940,940,940,943,943,943,943,943,943,943,943,943,943,943,946,943,943,943,943,943,943,943,940,940,940,940,940,940,940,940,943,943,943,943,943,943,943,943,943,943,943,943,943,943,943,943,943,943,943,943,943,943,940,940,943,940,940,940,940,940,940,940,940,940,940,940,940,940,940,940,938,938,940,940,940,940,940,940,943,943,940,940,940,938,938,938,938,938,938,938,938,938,938,938,938,938,938,938,938,938,938,938,940,943,943,943,940,940,940,938,935,935,935,935,935,935,935,935,935,935,935,935,938,935,935,938,938,938,938,938,935,935,935,935,935,935,935,935,935,935,933,933,933,933,933,933,933,933,935,933,933,933,933,933,930,930,933,933,933,933,933,933,933,933,930,930,933,933,933,933,933,933,933,933,933,933,933,933,933,930,928,928,825,825,821,819,819,819,817,815,813,811,811,809,807,807,807,807,809,809,809,811,811,813,813,817,819,821,823,825,825,825,930,930,928,928,928,928,925,925,925,925,925,925,925,925,925,925,925,928,928,925,925,925,925,925,925,925,925,925,928,928,928,928,928,928,928,928,928,928,928,928,928,928,928,928,928,928,928,928,928,928,928,925,925,928,928,928,928,928,925,925,928,928,925,925,928,928,928,928,928,928,925,925,925,925,925,925,928,928,928,928,928,925,925,925,925,925,925,925,925,925,923,923,923,923,923,923,920,920,920,920,920,923,923,923,925,925,923,923,923,920,920,920,920,923,923,923,923,923,923,923,923,923,923,923,923,920,920,920,918,918,918,920,920,920,920,920,920,920,920,920,920,920,920,920,920,918,918,918,918,915,915,918,918,918,918,918,918,918,918,918,918,918,915,915,915,915,915,915,915,915,915,915,915,915,915,915,915,915,915,915,915,915,915,915,915,915,915,915,915,915,915,915,915,915,915,915,913,913,913,910,910,910,910,910,913,910,910,913,913,915,915,915,913,913,913,913,910,910,910,910,910,910,910,910,908,908,908,908,908,908,908,908,908,908,910,910,913,910,910,910,910,910,910,910,910,910,910,910,910,910,910,910,910,913,913,913,913,913,913,910,910,908,908,910,908,908,910,910,910,910,913,910,910,908,908,908,908,908,908,908,908,910,910,910,910,910,908,908,908,908,908,908,908,908,908,908,908,908,908,906,906,906,906,903,901,901,901,901,903,903,903,903,906,906,906,906,906,903,903,903,901,901,898,898,0,0,0,0,0,0,0,0,0,0,0,0,0,0,0,0,0,0,0,0,0,0,0,0,0,0,0,0,0,0,0,0,0,0,0,0
0,0,959,959,959,959,959,959,956,956,956,956,956,954,954,954,948,948,948,948,948,946,946,946,951,951,954,954,954,954,954,951,948,946,946,946,946,943,943,943,943,940,940,943,943,943,943,943,943,943,943,943,943,943,943,943,943,943,943,943,943,943,943,943,943,943,943,940,940,940,940,940,940,940,940,940,940,940,938,938,940,940,943,940,940,940,940,940,940,938,938,938,935,935,940,940,940,940,940,943,943,940,940,940,940,940,940,940,940,940,943,943,943,943,943,943,943,940,940,940,938,938,938,938,938,938,938,938,938,938,938,938,938,938,938,938,938,938,935,935,935,938,938,938,938,938,938,938,938,938,938,935,935,935,935,935,935,935,935,935,935,935,935,935,935,935,935,935,935,938,940,940,940,940,940,938,938,938,935,935,935,935,935,935,935,935,935,935,933,933,935,935,935,935,935,935,935,935,935,935,933,933,933,933,933,933,933,933,933,933,933,933,933,933,933,933,933,930,930,930,928,928,928,928,930,930,930,930,930,933,933,930,928,928,928,928,928,930,933,933,933,933,933,933,930,930,930,930,928,928,928,825,823,821,821,819,819,817,815,813,811,811,809,809,809,809,809,809,811,811,813,815,815,819,819,821,825,825,825,825,933,933,925,925,925,925,925,923,923,923,923,923,923,923,923,923,923,923,923,923,923,925,923,923,923,923,923,925,925,925,928,928,925,925,925,925,925,925,925,925,925,925,925,925,925,925,925,925,925,925,925,925,925,925,925,925,925,925,925,925,925,925,925,925,925,925,925,925,925,925,925,925,925,925,925,925,925,925,925,925,925,923,923,923,920,920,920,920,923,923,920,920,920,920,920,918,918,918,918,918,920,920,920,920,920,923,920,920,920,920,920,920,920,920,920,920,920,920,920,920,920,920,920,920,920,920,918,918,918,915,915,915,915,915,918,918,918,918,918,918,918,918,918,918,918,915,915,915,915,915,915,915,915,915,915,918,915,915,915,915,915,915,915,915,915,915,913,913,913,910,910,910,910,910,910,913,913,910,910,910,910,913,913,913,913,913,915,915,913,913,913,913,913,913,913,910,910,910,913,908,908,908,908,908,910,910,910,910,913,910,910,913,910,908,908,908,908,908,908,908,908,908,908,908,908,908,908,908,908,908,906,906,908,908,908,908,910,910,910,908,908,908,908,908,908,908,908,908,908,908,908,908,908,908,910,910,910,910,910,910,908,908,908,908,908,908,908,908,908,908,910,908,908,908,906,906,908,908,908,908,908,908,908,908,908,908,908,906,906,908,908,908,908,908,908,908,906,906,906,906,906,906,903,903,901,901,901,901,903,903,903,903,906,906,906,903,903,903,901,901,898,898,898,898,0,0,0,0,0,0,0,0,0,0,0,0,0,0,0,0,0,0,0,0,0,0,0,0,0,0,0,0,0,0,0,0,0,0,0,0
0,0,959,959,956,956,956,956,956,954,954,954,954,951,951,951,948,948,946,946,946,946,946,946,946,948,948,951,951,951,951,948,946,946,943,943,943,943,943,943,943,940,940,943,943,940,940,940,940,940,940,940,940,940,940,940,940,940,940,940,940,940,943,943,943,940,940,940,938,938,938,938,938,938,938,938,938,938,938,938,938,938,940,938,938,938,938,938,938,935,935,935,935,935,935,935,935,938,938,940,938,938,938,938,938,938,938,938,938,938,938,940,940,940,943,940,940,940,938,938,938,935,935,935,935,935,935,935,935,935,935,935,935,935,935,935,938,935,935,935,935,935,935,935,935,935,935,935,935,935,935,935,935,935,935,935,935,935,935,935,935,933,933,933,933,933,933,933,933,930,930,930,938,938,935,935,935,935,933,933,933,933,933,933,933,933,933,933,933,933,933,933,933,935,935,935,935,935,933,933,933,930,930,930,930,930,930,930,930,930,930,930,930,930,930,930,928,928,928,928,928,928,928,928,928,930,930,930,930,930,930,928,925,925,925,925,925,925,925,925,930,930,930,930,928,928,928,928,925,925,827,825,823,823,821,821,819,817,815,813,811,811,809,809,809,809,809,809,811,811,813,815,817,819,821,823,825,825,827,827,920,923,923,923,923,923,923,923,920,920,920,920,920,920,920,920,920,920,920,920,920,920,920,923,923,923,923,925,925,925,925,925,925,925,925,925,925,925,925,925,925,925,925,925,925,925,925,925,925,923,923,923,923,923,923,923,923,923,923,923,923,923,923,923,923,923,925,923,923,923,923,923,923,923,920,920,923,923,923,920,920,920,920,920,918,918,918,918,918,918,918,918,918,918,918,918,918,918,918,918,918,918,918,918,920,920,920,918,918,918,918,918,920,920,920,920,918,918,918,918,918,918,918,918,920,918,918,918,915,915,915,915,915,915,915,915,918,918,918,915,915,915,915,915,915,915,915,915,915,915,915,915,915,915,915,915,915,913,913,913,913,913,913,913,913,913,910,910,910,908,908,908,908,908,908,910,910,910,910,908,908,910,910,910,910,910,910,910,910,910,910,910,910,910,908,908,908,908,908,908,908,908,908,908,908,908,908,908,908,908,908,908,908,908,906,906,906,906,906,906,906,906,906,906,903,903,903,906,906,906,906,906,906,906,906,906,906,906,908,908,908,908,908,908,908,908,908,908,908,908,908,908,908,908,908,908,908,910,908,908,908,908,908,906,906,906,906,906,906,906,906,906,906,906,906,906,906,906,906,906,906,908,906,906,906,906,906,906,906,906,906,908,906,906,906,906,906,906,906,906,906,903,903,901,901,898,898,898,901,901,901,903,903,903,903,903,901,898,898,898,898,898,896,896,0,0,0,0,0,0,0,0,0,0,0,0,0,0,0,0,0,0,0,0,0,0,0,0,0,0,0,0,0,0,0,0,0,0,0,0
0,0,956,956,956,956,956,954,954,951,951,951,951,948,948,946,946,946,946,946,946,943,943,943,943,946,946,946,951,951,946,946,943,943,943,943,943,943,943,943,943,943,943,940,940,938,938,938,938,940,940,940,940,940,938,938,938,938,938,938,938,938,940,940,940,940,938,938,935,935,935,935,935,935,935,935,935,935,935,935,935,935,935,935,935,938,938,935,935,935,935,933,933,933,933,933,935,935,935,935,935,938,938,938,938,938,935,935,935,935,938,938,938,940,940,940,940,938,938,935,935,935,935,935,935,935,935,933,933,935,935,935,933,933,933,935,935,933,933,933,933,933,933,933,933,933,933,933,933,933,933,933,933,933,933,933,933,933,933,933,933,933,933,933,933,933,933,930,930,928,928,928,928,928,928,928,933,933,933,933,933,933,933,933,930,930,933,933,930,930,930,930,933,933,933,933,933,930,930,930,930,928,928,928,928,928,928,928,928,928,928,928,928,928,928,928,928,925,925,925,925,925,925,925,928,928,928,928,928,928,928,925,925,925,925,925,925,925,925,925,925,925,925,928,925,925,925,925,925,923,827,825,823,823,823,821,821,819,817,815,813,811,809,809,809,809,809,809,811,811,813,815,817,819,821,823,827,827,829,920,920,920,920,920,920,920,918,918,918,918,918,918,918,918,918,918,918,918,918,918,918,918,918,920,920,920,920,923,923,923,923,923,923,923,923,923,923,923,923,923,925,925,925,925,923,923,923,923,923,920,920,920,920,920,920,920,920,920,920,920,920,920,920,920,920,920,923,923,920,920,920,920,920,920,920,920,920,920,920,918,918,918,918,918,918,918,915,915,915,915,915,915,918,918,915,915,915,915,915,915,915,915,915,915,918,918,918,918,918,918,918,918,918,918,918,918,915,915,918,915,915,918,918,918,918,918,918,915,915,915,915,915,913,913,913,913,913,913,915,915,913,913,913,913,913,913,913,913,913,913,913,913,913,913,913,913,913,910,910,910,910,910,913,910,910,910,910,908,908,908,908,908,908,908,908,908,908,908,908,906,906,908,908,908,908,908,910,910,908,908,908,908,906,906,906,906,906,906,906,906,906,908,908,908,908,908,908,908,906,906,906,906,906,906,906,906,906,906,906,906,903,903,903,903,901,901,901,903,903,903,903,903,903,903,903,903,903,906,906,906,906,906,906,906,906,906,906,906,906,906,906,906,906,906,906,908,908,908,908,908,906,906,906,906,903,903,906,906,906,906,903,903,906,903,903,903,903,903,903,903,906,906,906,906,903,903,906,903,903,906,906,906,906,906,906,906,906,906,903,903,903,903,901,898,898,898,898,898,898,898,898,898,898,898,898,898,898,896,896,896,896,896,896,896,0,0,0,0,0,0,0,0,0,0,0,0,0,0,0,0,0,0,0,0,0,0,0,0,0,0,0,0,0,0,0,0,0,0,0,0
0,0,956,956,954,954,954,951,951,951,948,948,946,946,946,946,943,943,943,943,943,943,943,943,943,943,943,940,940,940,943,943,940,940,940,940,940,940,940,940,940,938,938,938,938,938,935,935,938,938,938,938,938,938,935,935,935,935,935,935,935,935,935,938,938,935,935,933,933,933,933,933,933,933,933,933,933,933,933,933,933,933,933,935,935,935,935,935,935,933,933,933,933,933,933,933,933,933,933,933,933,935,935,935,935,935,933,933,933,933,933,935,935,935,938,935,935,935,935,935,935,935,935,933,933,933,933,933,933,933,933,933,933,933,933,933,933,933,933,933,933,933,933,933,933,930,930,933,933,933,933,933,933,933,930,930,930,933,933,933,933,933,933,930,930,930,930,928,928,925,925,928,928,928,925,925,928,928,930,930,930,930,930,930,928,928,930,930,930,930,930,930,930,930,928,928,928,928,930,928,928,928,925,925,925,925,925,925,925,925,925,928,928,925,925,925,925,925,925,923,923,925,925,925,925,925,925,925,925,925,925,925,923,923,923,925,923,923,923,923,923,923,923,923,923,923,923,920,920,920,920,825,825,823,823,821,821,819,817,815,813,811,809,809,809,809,809,809,811,811,813,817,819,821,821,825,827,827,829,918,918,918,918,918,920,918,918,918,918,915,915,915,915,915,915,915,915,915,915,915,915,915,915,915,915,915,915,918,920,920,920,920,920,920,920,920,920,920,920,920,923,923,923,923,923,923,923,920,920,920,920,918,918,918,918,918,918,918,918,918,918,918,918,918,918,918,918,920,920,920,920,920,918,918,918,918,918,918,918,918,918,915,915,915,915,915,915,915,913,913,915,915,915,915,915,915,915,915,915,915,915,915,915,915,915,915,915,915,915,915,918,915,915,918,918,915,915,915,915,915,915,915,915,915,915,915,915,915,913,913,913,910,910,910,910,913,913,910,910,910,910,910,908,908,908,910,910,910,910,910,910,910,910,910,910,910,910,908,908,910,910,910,910,908,908,908,908,908,908,908,906,906,906,908,908,908,908,908,908,906,906,906,906,906,906,908,908,908,908,908,906,906,906,906,906,906,906,906,906,906,906,906,906,906,906,906,906,906,906,903,903,906,906,906,906,906,903,903,903,903,901,901,901,901,901,901,901,901,901,901,901,901,901,901,901,901,901,903,903,903,903,903,906,906,903,903,903,903,906,906,906,906,906,906,906,906,906,906,906,906,906,906,906,903,903,903,903,903,903,901,901,901,901,901,901,901,901,901,901,901,901,903,901,901,901,901,901,901,901,901,903,903,903,903,903,903,903,903,901,901,901,903,901,898,898,898,896,896,896,896,896,896,894,894,894,896,894,894,894,894,894,894,894,894,0,0,0,0,0,0,0,0,0,0,0,0,0,0,0,0,0,0,0,0,0,0,0,0,0,0,0,0,0,0,0,0,0,0,0,0
0,0,954,954,951,951,954,951,948,948,948,948,946,946,946,946,943,943,943,940,940,940,940,940,940,940,938,938,938,940,940,940,938,938,938,938,938,938,938,938,938,938,938,935,935,935,935,935,935,935,935,935,935,935,935,933,933,933,933,933,933,933,935,935,935,933,933,933,933,933,933,933,933,933,933,933,933,933,933,933,933,930,930,933,933,933,933,933,933,933,933,930,930,930,930,930,930,930,930,930,933,933,933,933,933,933,933,933,933,930,930,933,933,933,935,935,935,935,935,933,933,933,933,933,933,933,933,933,930,930,930,930,930,930,930,930,930,930,930,930,930,930,930,930,930,930,930,930,930,930,930,928,928,928,928,925,925,928,930,930,930,930,930,928,928,928,928,925,925,925,925,925,925,925,925,925,925,925,928,928,928,928,928,928,928,928,928,928,928,928,928,928,928,928,928,928,925,925,925,928,925,925,925,925,925,925,925,923,923,925,925,925,925,925,925,925,925,923,923,923,923,923,923,923,923,923,923,923,923,923,923,923,923,923,923,923,923,923,923,923,923,923,923,923,923,920,918,918,918,918,920,827,825,825,825,823,823,819,819,817,815,813,809,809,809,809,811,811,811,811,813,817,819,821,823,825,827,829,831,918,918,918,918,918,918,918,915,915,915,915,915,915,915,915,915,915,915,915,915,915,915,915,915,915,915,913,913,915,915,915,915,918,918,918,918,918,918,918,918,918,920,920,920,920,920,920,920,918,918,918,918,918,918,918,918,918,918,918,918,918,918,918,915,915,915,915,918,918,918,918,918,918,918,918,918,918,918,915,915,915,915,915,915,915,913,913,913,913,913,913,913,913,913,913,913,913,913,913,913,913,913,915,915,915,915,915,915,915,915,915,915,915,915,915,915,913,913,913,913,913,913,913,913,913,913,913,913,913,913,910,910,910,910,910,910,910,910,908,908,908,908,908,908,908,908,908,908,908,910,910,910,908,908,908,908,908,908,908,908,908,908,908,908,908,908,908,908,906,906,906,906,906,906,906,906,906,906,906,906,903,903,906,906,906,906,906,906,906,906,906,903,903,903,901,901,903,903,903,903,906,906,906,906,906,906,903,903,901,901,901,901,903,903,903,903,903,903,903,903,901,901,901,901,901,898,898,898,898,901,901,901,901,898,898,898,898,901,901,901,901,901,901,901,901,903,903,903,903,903,903,903,903,903,901,901,901,901,903,903,903,903,903,903,903,901,901,901,901,901,898,898,898,898,898,898,898,898,898,898,898,898,901,898,898,898,898,898,898,898,898,898,898,901,901,901,898,898,898,898,898,898,898,898,898,898,896,896,896,896,894,894,894,891,891,891,891,891,889,889,889,889,889,889,894,0,0,0,0,0,0,0,0,0,0,0,0,0,0,0,0,0,0,0,0,0,0,0,0,0,0,0,0,0,0,0,0,0,0,0,0
0,0,954,954,951,951,951,948,948,948,946,946,943,943,943,943,943,940,940,938,938,938,938,938,938,935,935,935,935,938,935,935,935,935,935,935,938,938,938,938,935,935,935,935,935,933,933,933,935,935,935,933,933,935,933,933,933,933,933,933,933,933,933,933,933,930,930,930,930,930,930,930,933,933,933,933,933,933,930,930,930,928,928,930,930,930,930,930,930,930,930,928,928,928,930,928,928,928,928,928,930,933,933,933,933,933,933,930,930,928,928,930,930,930,933,933,933,933,933,930,930,933,933,933,933,933,930,930,928,928,928,928,928,928,928,928,928,928,928,928,928,928,928,928,928,928,928,928,928,928,928,925,925,925,925,925,925,925,925,928,928,928,928,925,925,925,925,925,923,923,923,925,923,923,923,923,923,925,925,925,925,925,925,925,925,925,925,928,928,928,925,925,925,925,925,925,925,925,925,925,925,925,925,925,923,923,923,923,923,923,923,923,923,923,923,923,923,923,923,920,920,920,920,920,920,918,918,920,920,920,920,920,923,923,923,923,923,923,920,920,920,920,920,920,920,918,918,915,915,915,915,827,827,825,825,823,823,821,819,817,815,813,811,811,811,811,811,811,811,813,815,817,819,823,823,825,827,829,831,915,915,915,915,915,915,915,915,915,915,913,913,915,915,913,913,913,913,913,913,913,913,913,913,913,913,913,913,915,913,913,915,915,915,915,915,915,915,915,915,915,915,918,918,918,918,918,918,918,915,915,915,915,915,915,915,915,915,915,915,915,915,915,915,915,915,915,915,915,915,915,915,915,915,915,915,915,915,915,915,915,915,913,913,913,913,913,910,910,910,910,910,910,913,910,910,910,910,910,910,910,913,913,913,913,913,913,913,913,913,913,913,910,910,910,910,910,910,910,910,910,910,910,910,910,910,910,910,910,910,910,908,908,908,908,908,908,908,908,908,908,908,908,906,906,906,908,908,908,908,908,908,908,908,908,906,906,906,906,906,908,906,906,906,906,906,906,906,906,903,903,903,903,903,903,903,903,903,903,903,901,901,903,903,903,903,903,906,906,906,903,903,903,901,898,898,898,898,903,903,903,903,906,906,903,903,903,901,901,901,901,901,901,901,903,901,901,901,901,901,901,898,898,898,898,898,898,898,898,898,898,898,898,898,898,898,898,898,898,898,898,898,898,898,901,898,898,901,903,903,903,901,898,898,898,898,898,898,898,901,901,903,903,903,901,901,901,901,901,898,898,898,898,898,896,896,896,896,898,896,896,896,898,896,896,896,896,896,896,896,896,898,898,898,898,898,896,896,896,894,894,896,896,896,896,896,896,894,894,894,894,891,891,889,889,889,889,889,889,889,889,887,887,887,0,0,0,0,0,0,0,0,0,0,0,0,0,0,0,0,0,0,0,0,0,0,0,0,0,0,0,0,0,0,0,0,0,0,0,0,0
0,0,951,951,948,948,948,946,946,946,946,946,943,943,943,943,940,940,938,938,935,935,935,935,935,935,935,935,935,933,933,935,935,935,935,935,935,935,935,938,935,935,935,933,933,933,930,930,933,933,933,930,930,930,930,930,930,930,928,928,930,930,930,930,930,928,928,928,928,928,928,928,930,930,930,930,930,930,930,930,928,925,925,928,928,928,928,928,928,928,928,928,928,928,928,928,928,928,928,928,928,930,930,930,930,930,930,930,930,928,928,928,925,925,928,928,928,928,928,928,928,930,930,930,930,930,930,928,928,928,928,925,925,925,925,925,925,925,925,925,925,925,925,928,928,928,928,928,928,925,925,925,925,925,923,923,923,923,925,925,925,925,925,925,923,923,923,923,923,923,923,923,923,923,923,923,923,923,923,923,923,923,923,923,923,923,923,923,925,925,923,923,923,923,923,923,923,923,923,923,923,923,923,923,923,923,923,923,923,923,923,923,923,920,920,920,920,920,918,918,918,918,918,915,915,915,915,918,918,918,918,918,920,920,920,920,920,920,920,920,918,918,918,918,918,918,915,915,915,913,913,827,827,827,827,825,825,823,821,819,817,813,811,811,811,811,811,811,811,813,815,819,821,823,825,827,829,831,833,835,915,913,913,915,915,915,913,913,913,913,913,913,913,913,913,913,913,913,913,913,913,913,913,913,913,910,910,913,913,913,913,913,913,913,913,913,913,915,915,915,915,915,915,915,915,915,915,915,915,915,913,913,913,913,913,915,915,915,915,915,915,915,915,915,915,915,913,913,913,913,913,913,913,913,913,913,913,913,913,913,913,913,913,913,910,910,910,910,910,910,910,910,908,908,910,908,908,908,908,910,910,910,910,910,913,913,910,910,910,910,910,908,908,908,908,908,908,908,908,908,908,908,908,908,908,908,908,908,908,908,906,906,906,906,906,906,906,906,906,906,906,906,906,906,906,903,901,901,906,906,906,906,906,906,906,906,906,906,906,906,906,903,903,903,903,903,903,903,901,901,901,901,901,901,901,901,901,901,901,901,901,901,901,901,901,901,903,903,903,901,901,901,901,898,898,898,898,898,898,898,901,903,903,901,901,898,898,898,898,898,898,898,898,898,898,898,898,898,898,898,898,898,898,898,898,898,898,898,898,898,898,896,896,898,896,896,896,898,898,898,898,898,898,898,898,898,898,898,898,901,898,898,898,898,898,898,898,898,898,898,901,901,901,898,898,898,898,898,896,896,896,896,896,896,896,896,896,896,894,894,896,896,896,896,894,894,894,896,896,896,896,896,896,896,894,894,891,891,891,891,891,891,891,894,894,894,891,891,891,891,889,889,889,889,889,889,887,887,887,887,887,885,885,0,0,0,0,0,0,0,0,0,0,0,0,0,0,0,0,0,0,0,0,0,0,0,0,0,0,0,0,0,0,0,0,0,0,0,0,0
0,0,951,948,946,946,946,946,946,943,943,943,940,940,940,938,938,938,935,935,935,933,933,935,933,933,933,933,933,933,933,930,930,930,930,930,933,933,935,935,935,933,933,930,930,928,928,928,928,928,928,928,928,928,928,928,928,928,925,925,925,928,925,925,925,925,925,925,925,925,925,928,928,928,928,928,928,928,928,928,925,925,925,925,925,925,925,925,925,925,925,925,925,925,925,925,925,925,925,925,925,925,925,925,928,928,928,928,928,925,925,925,925,925,925,925,925,925,925,925,925,928,928,928,928,928,928,925,925,925,925,925,925,925,925,925,925,923,923,925,923,923,923,925,925,925,925,925,925,925,925,923,923,923,923,923,920,920,923,923,923,923,923,923,923,920,920,920,920,920,920,920,920,920,920,920,920,920,920,920,920,920,920,923,920,920,920,920,920,920,920,920,920,920,920,920,920,920,920,923,920,920,920,920,920,920,920,920,920,920,920,920,918,918,918,918,918,918,918,915,915,915,915,915,915,915,915,915,915,915,915,915,918,918,918,918,918,918,918,918,915,915,915,915,915,915,915,913,913,913,913,829,829,827,827,825,825,823,821,819,817,813,811,811,811,811,811,811,811,813,815,819,821,823,825,827,831,833,833,835,913,913,913,913,913,913,913,913,913,910,910,913,913,910,910,910,910,910,910,910,910,910,910,910,910,910,910,910,910,910,910,910,910,910,910,910,910,910,910,913,913,913,913,913,913,913,913,913,913,913,913,913,913,910,910,913,913,913,913,913,913,913,913,913,913,913,913,910,910,910,910,910,910,910,910,910,910,910,910,913,913,910,910,910,910,908,908,908,908,908,908,908,908,908,908,908,908,908,908,908,908,908,908,910,910,910,910,908,908,908,908,906,906,906,906,908,908,908,908,908,908,908,908,906,906,906,906,906,906,906,906,906,903,903,903,903,903,903,903,903,906,906,903,903,903,903,901,898,898,898,903,903,903,903,903,903,903,906,906,903,903,903,901,901,901,901,901,901,901,898,898,898,901,898,898,898,898,898,901,898,898,898,898,898,898,898,901,901,901,898,898,898,898,898,898,896,896,896,896,898,898,898,898,898,898,898,898,898,898,898,898,898,898,898,898,898,898,898,898,898,896,896,896,896,896,896,896,896,896,896,896,896,896,896,896,896,896,896,896,896,896,896,896,898,896,896,896,896,896,896,896,896,896,896,896,896,896,896,896,896,898,898,898,898,898,896,896,896,896,896,896,896,896,894,894,894,894,894,894,894,894,894,894,894,894,894,894,894,894,894,894,894,894,891,891,891,891,891,889,889,889,889,889,889,889,891,891,889,889,889,889,889,889,889,887,887,887,887,887,887,885,885,885,0,0,0,0,0,0,0,0,0,0,0,0,0,0,0,0,0,0,0,0,0,0,0,0,0,0,0,0,0,0,0,0,0,0,0,0,0
0,0,948,948,946,943,943,943,943,943,940,940,938,938,940,938,938,935,935,935,933,933,933,933,933,933,933,933,933,933,933,930,930,930,930,930,930,930,930,933,933,930,930,930,930,928,928,928,928,928,928,928,925,925,928,925,925,925,925,925,925,925,923,923,923,923,923,925,925,925,925,925,925,925,925,925,925,925,925,925,925,925,925,925,925,925,923,923,925,925,923,923,923,925,925,925,925,925,925,923,923,923,923,923,923,923,923,925,925,925,923,923,923,923,925,923,923,923,923,923,923,923,923,925,925,925,925,925,925,925,925,925,925,925,925,923,923,923,923,923,920,920,920,923,923,923,923,923,923,923,923,923,920,920,920,918,918,918,920,918,918,918,918,918,920,918,918,920,920,920,918,918,918,918,918,918,918,918,918,918,918,918,918,918,918,918,918,918,918,918,915,915,915,915,915,918,920,918,918,920,918,918,918,918,918,918,920,918,918,918,918,915,915,915,915,915,915,915,915,915,915,915,913,913,913,913,913,913,913,913,915,915,915,915,915,915,915,915,915,915,913,913,913,915,913,913,913,913,913,910,910,835,829,829,827,827,825,825,821,819,819,815,813,811,811,811,811,811,813,813,815,819,821,825,827,829,831,833,835,835,837,913,910,910,913,913,910,910,910,910,910,910,910,908,908,908,908,908,908,910,910,908,908,910,908,908,908,910,908,908,908,908,908,908,908,908,908,908,908,908,908,908,910,908,908,908,908,910,910,910,910,910,910,910,910,910,910,910,910,910,910,910,910,910,910,910,908,908,908,908,908,908,908,908,908,910,908,908,908,910,910,908,908,908,908,908,906,906,906,906,906,906,906,906,906,906,906,906,906,908,908,906,906,908,908,908,908,908,906,906,906,906,906,906,906,906,906,906,906,906,906,906,906,903,903,903,903,903,903,903,903,901,901,901,901,901,901,901,901,901,903,903,903,901,901,898,898,896,896,898,898,898,898,901,901,901,901,901,901,901,901,901,901,901,898,898,898,898,898,898,896,896,898,896,896,896,896,896,898,896,896,896,896,896,896,896,896,896,896,896,896,896,896,896,896,894,894,894,894,896,896,896,896,896,898,896,896,896,896,896,896,896,896,896,896,896,894,894,896,896,896,896,896,896,896,896,896,896,896,896,896,894,894,896,894,894,894,894,896,896,894,894,894,894,894,894,894,894,894,894,894,894,896,894,894,894,894,894,894,894,894,894,894,896,896,894,894,894,894,894,894,894,894,894,894,891,891,891,891,891,891,891,889,889,891,891,891,891,891,891,894,894,891,891,889,889,889,889,889,889,887,887,887,887,887,889,889,889,889,889,889,889,887,887,887,887,885,885,885,885,882,882,882,0,0,0,0,0,0,0,0,0,0,0,0,0,0,0,0,0,0,0,0,0,0,0,0,0,0,0,0,0,0,0,0,0,0,0,0,0
