0,0,0,0,0,0,1250,1250,1255,1255,1259,1255,1255,1250,1250,1250,1250,1250,1245,1245,1245,1245,989,989,992,992,995,995,995,995,998,998,998,998,1001,1001,1001,1007,1007,1007,1007,1010,1010,0,0,0,0,0,0,0,649,649,650,650,652,653,653,654,655,655,657,658,658,659,661,661,662,662,663,663,664,666,666,666,667,667,667,668,670,671,0,0,0,0,0,0,1063,1063,1063,1063,1063,1067,1067,1070,1070,1073,1073,1073,1073,1077,1077,1245,1241,1241,1241,1241,1241,1241,1245,1245,1245,1245,1245,1250,1250,1250,1250,1250,1250,1250,1250,1250,1250,1250,1250,1250,1250,1250,1250,1250,1250,1250,1250,1250,1250,1250,1250,1250,1250,1250,1250,1245,1245,1245,1245,1245,1060,1060,1060,1057,1054,1047,1047,1044,1041,1041,1041,1038,1038,1038,1038,1034,1034,1034,1034,1034,1034,1034,1264,1264,1259,1259,1255,1255,1255,1250,1250,1250,1250,1255,1250,1250,1255,1255,1255,1255,1250,1250,1250,1250,1250,1255,1255,1255,1250,1250,1250,1250,1250,1250,1250,1250,1250,1250,1255,1250,1250,1255,1255,1250,1250,1250,1250,1250,1250,1250,1250,1250,1250,1255,1255,1255,1250,1250,1250,1250,1250,1245,1245,1245,1245,1245,1250,1250,1250,1250,1255,1255,1255,1255,1255,1255,1255,1255,1255,1255,1255,1255,1255,1255,1255,1255,1255,1255,1255,1255,1255,1255,1255,1250,1250,1250,1250,1250,1250,1250,1250,1250,1250,1250,1250,1250,1250,1250,1250,1250,1250,1250,1245,1245,1241,956,954,954,956,956,959,959,956,954,951,948,948,946,946,946,943,943,943,946,948,948,948,951,954,954,956,956,959,962,964,964,964,0,1255,1255,1255,1255,1259,1259,1255,1255,1259,1259,1255,1255,1255,1255,1255,1255,1255,1255,1255,1255,1255,1255,1255,1255,1255,1255,1255,1255,1255,1255,1255,1259,1259,1259,1259,1259,1259,1259,1259,1259,1259,1259,1259,1255,1255,1259,1259,1259,1259,1259,1259,1255,1255,1255,1255,1255,1255,1255,1255,1255,1255,1255,1259,1259,1259,1259,1255,1255,1255,1255,1255,1255,1255,1255,1255,1259,1259,1259,1255,1255,1259,1259,1255,1255,1255,1255,1255,1255,1255,1255,1255,1255,1255,1255,1255,1255,1255,1255,1255,1255,1255,1259,1259,1259,1259,1259,1259,1259,1259,1255,1255,1255,1255,1255,1250,1250,1250,1250,1250,1250,1250,1250,1250,1250,1250,1250,1255,1255,1255,1255,1250,1250,1250,1255,1255,1255,1250,1250,1255,1255,1255,1255,1255,1250,1250,1250,1250,1250,1250,1250,1255,1255,1255,1250,1250,1255,1250,1250,1250,1250,1250,1250,1255,1255,1255,1255,1250,1250,1250,1250,1241,1241,1236,1236,1236,1236,1232,1232,1232,1232,1227,1223,1223,1219,1219,1219,1214,1214,1206,1206,1202,1202,1197,1197,1193,1193,1185,1185,1185,1185,1181,1181,1181,1177,1169,1169,1169,1165,1165,1165,1161,1157,1157,1153,1153,1149,1149,1145,1145,1138,1138,1138,1134,1134,1134,1134,1130,1126,1123,1123,1123,1119,1115,1115,1112,1112,1108,1108,1108,1105,1105,1105,1105,1101,1101,1097,1094,1094,1090,1090,1087,1087,1087,1084,1080,1080,1080,1080,1077,1077,1073,1073,1070,1070,1063,1060,1060,1050,1050,1050,1050,1047,1047,1047,1047,1047,1044,1044,1044,1044,1050,1050,1050,878,878,871,871,871,871,0,0,0,0,0,0,0,0,0,0,0,0,0,0,0,0,0,0,0,0,0,0,0,0,0,0,0,0,0,0,0,0,0,0,0,0,0
0,0,0,0,0,0,1250,1250,1250,1255,1250,1245,1245,1245,1245,1250,1245,1245,1245,1245,1245,1241,1241,995,995,995,995,995,995,995,998,998,1001,1001,1001,1004,1007,1007,1007,1010,1010,1010,1010,0,0,0,0,0,0,0,650,650,650,653,653,653,654,654,655,655,657,658,658,659,659,661,662,662,663,664,666,666,666,667,667,667,668,668,670,671,672,0,0,0,0,0,0,1063,1060,1060,1060,1063,1067,1070,1070,1073,1073,1073,1073,1236,1236,1241,1241,1241,1241,1241,1241,1241,1241,1241,1241,1241,1245,1245,1245,1245,1245,1245,1250,1245,1245,1250,1250,1250,1250,1245,1245,1250,1250,1250,1245,1245,1245,1245,1245,1245,1245,1245,1245,1245,1245,1245,1245,1241,1241,1245,1241,1241,1050,1050,1054,1047,1044,1041,1038,1038,1038,1034,1034,1034,1034,1034,1034,1034,1034,1031,1031,1028,1028,1264,1264,1259,1255,1255,1255,1250,1250,1250,1250,1250,1245,1245,1250,1250,1250,1250,1250,1250,1250,1250,1250,1250,1250,1250,1250,1250,1250,1250,1250,1245,1245,1245,1250,1250,1250,1250,1250,1250,1250,1250,1250,1250,1250,1250,1250,1250,1250,1245,1245,1250,1250,1250,1250,1250,1250,1250,1250,1245,1245,1245,1245,1245,1245,1250,1250,1250,1250,1250,1250,1250,1250,1250,1250,1250,1250,1250,1250,1250,1250,1250,1250,1250,1250,1250,1250,1250,1250,1250,1250,1250,1250,1250,1250,1250,1250,1250,1250,1250,1250,1250,1250,1245,1245,1245,1245,1245,1245,1245,1245,1241,1236,1236,954,954,956,962,962,962,959,956,954,951,948,946,946,946,943,943,943,946,948,948,951,954,954,956,956,956,959,964,964,967,967,0,1255,1255,1255,1255,1255,1255,1255,1255,1255,1255,1255,1255,1250,1250,1250,1250,1250,1250,1250,1255,1255,1255,1255,1255,1255,1255,1255,1255,1255,1255,1255,1255,1255,1255,1255,1255,1255,1255,1255,1255,1255,1255,1250,1250,1250,1250,1250,1250,1255,1255,1255,1255,1250,1250,1250,1250,1255,1250,1250,1250,1255,1255,1255,1255,1255,1255,1255,1255,1255,1255,1255,1255,1255,1255,1255,1255,1255,1255,1255,1255,1255,1255,1255,1255,1255,1255,1255,1255,1250,1250,1250,1255,1255,1255,1255,1255,1255,1255,1255,1255,1255,1255,1255,1255,1255,1255,1255,1255,1255,1255,1255,1255,1250,1250,1245,1245,1245,1245,1245,1250,1250,1250,1250,1250,1250,1250,1250,1250,1255,1250,1250,1250,1250,1250,1250,1250,1250,1250,1250,1250,1250,1250,1250,1250,1250,1250,1250,1250,1245,1245,1250,1250,1250,1250,1250,1250,1250,1250,1250,1250,1250,1250,1250,1250,1250,1250,1250,1250,1250,1245,1241,1236,1236,1236,1232,1232,1236,1232,1232,1232,1227,1227,1223,1223,1219,1219,1214,1214,1214,1206,1202,1202,1197,1197,1193,1193,1189,1185,1185,1185,1185,1181,1181,1181,1173,1169,1169,1165,1165,1165,1161,1157,1157,1153,1153,1149,1149,1145,1145,1141,1138,1138,1134,1134,1134,1134,1130,1126,1123,1123,1123,1119,1119,1115,1112,1112,1108,1108,1108,1105,1105,1105,1105,1101,1101,1097,1094,1094,1090,1090,1090,1087,1087,1084,1080,1080,1080,1080,1077,1077,1073,1073,1073,0,0,0,0,1050,1050,1050,1050,1047,1047,1047,1050,1047,1047,1044,1044,1044,1050,1050,0,871,871,871,871,871,871,0,0,0,0,0,0,0,0,0,0,0,0,0,0,0,0,0,0,0,0,0,0,0,0,0,0,0,0,0,0,0,0,0,0,0,0,0
0,0,0,0,0,0,1245,1245,1250,1250,1250,1245,1245,1245,1245,1245,1241,1241,1241,1241,1241,1236,1232,998,998,998,998,995,995,995,998,1001,1001,1001,1004,1007,1007,1007,1010,1010,1010,1010,1010,0,0,0,0,0,0,0,650,650,653,653,653,654,654,655,655,655,657,658,658,659,659,661,662,663,664,664,666,666,666,667,667,668,668,668,670,670,672,0,0,0,0,0,0,0,1060,1060,1060,1063,1067,1070,1070,1073,1073,1073,1232,1236,1236,1241,1241,1241,1241,1241,1241,1241,1241,1241,1241,1241,1241,1241,1241,1241,1241,1245,1245,1245,1245,1245,1245,1245,1245,1245,1245,1245,1245,1245,1245,1245,1241,1241,1241,1241,1241,1241,1241,1241,1241,1241,1241,1241,1241,1241,1241,1241,1050,1050,1050,1047,1041,1041,1038,1038,1034,1034,1034,1034,1031,1031,1031,1031,1028,1028,1028,1025,1025,1022,1022,1022,1255,1255,1255,1250,1250,1245,1245,1245,1241,1241,1241,1241,1245,1245,1245,1245,1245,1245,1245,1245,1245,1245,1245,1245,1245,1245,1245,1245,1245,1245,1245,1245,1245,1245,1245,1250,1250,1250,1250,1245,1245,1245,1245,1245,1245,1245,1245,1245,1245,1245,1245,1245,1250,1250,1245,1245,1245,1245,1245,1245,1245,1245,1245,1245,1245,1245,1245,1245,1245,1245,1245,1245,1245,1245,1245,1245,1245,1245,1245,1245,1245,1245,1245,1245,1245,1245,1245,1245,1250,1245,1245,1250,1250,1250,1250,1245,1245,1250,1245,1245,1245,1245,1245,1245,1245,1245,1245,1241,1236,1232,954,954,956,962,962,962,962,959,956,954,951,951,948,946,946,946,946,946,948,951,951,954,954,956,956,959,959,964,967,967,967,0,1255,1255,1255,1255,1255,1255,1255,1250,1250,1250,1250,1250,1250,1245,1245,1250,1250,1250,1250,1250,1250,1250,1250,1250,1250,1250,1250,1250,1250,1250,1250,1250,1255,1250,1250,1250,1250,1250,1250,1250,1250,1250,1250,1250,1250,1250,1245,1245,1245,1245,1245,1250,1250,1250,1250,1250,1250,1250,1250,1250,1250,1250,1250,1250,1250,1250,1250,1250,1250,1255,1255,1255,1255,1255,1255,1255,1250,1250,1250,1250,1250,1250,1250,1250,1250,1250,1250,1250,1250,1250,1250,1250,1250,1250,1250,1250,1250,1250,1250,1250,1250,1250,1250,1250,1250,1250,1250,1255,1255,1250,1250,1250,1250,1241,1241,1241,1241,1241,1245,1245,1245,1245,1245,1245,1250,1250,1245,1245,1245,1245,1245,1245,1245,1250,1245,1245,1245,1245,1245,1245,1245,1250,1245,1245,1245,1245,1245,1245,1241,1241,1241,1245,1245,1245,1245,1245,1245,1245,1245,1245,1250,1250,1250,1250,1250,1250,1250,1250,1250,1241,1236,1236,1236,1236,1232,1232,1232,1232,1232,1232,1227,1227,1223,1223,1219,1219,1214,1214,1214,1206,1202,1202,1197,1193,1193,1193,1189,1185,1185,1185,1185,1181,1181,1181,1177,1173,1169,1165,1165,1165,1161,1161,1157,1157,1153,1153,1149,1145,1141,1141,1138,1138,1134,1134,1134,1134,1130,1126,1123,1123,1123,1119,1115,1115,1112,1112,1108,1108,1108,1108,1105,1105,1105,1101,1101,1097,1094,1090,1090,1090,1087,1087,1087,1084,1084,1080,1080,1080,1077,1077,1077,0,0,0,0,0,0,0,0,1050,1050,1050,1047,1047,1050,1050,1047,1047,1047,1047,1050,0,0,871,871,871,871,871,871,0,0,0,0,0,0,0,0,0,0,0,0,0,0,0,0,0,0,0,0,0,0,0,0,0,0,0,0,0,0,0,0,0,0,0,0,0
0,0,0,0,0,0,1241,1241,1245,1245,1245,1241,1241,1241,1241,1241,1241,1241,1241,1236,1232,1232,1227,1001,998,998,998,998,998,998,1001,1001,1001,1001,1004,1007,1007,1007,1010,1010,1010,1010,1010,0,0,0,0,0,0,0,0,653,653,653,653,654,654,655,655,655,657,658,658,659,659,661,662,663,664,666,666,666,667,667,667,668,668,668,670,670,672,674,676,0,0,0,0,0,1060,1060,1245,1245,1236,1232,1232,1232,1232,1232,1232,1232,1236,1236,1236,1236,1241,1241,1241,1241,1245,1241,1241,1241,1241,1236,1236,1236,1236,1236,1241,1241,1241,1241,1241,1241,1241,1241,1241,1241,1241,1241,1241,1241,1236,1236,1236,1232,1232,1236,1236,1236,1236,1236,1236,1236,1236,1236,1236,1236,1047,1047,1047,1044,1041,1041,1038,1034,1034,1031,1031,1031,1028,1028,1028,1028,1025,1025,1025,1025,1022,1022,1022,1022,1255,1255,1250,1245,1245,1245,1241,1241,1241,1241,1241,1241,1241,1241,1241,1241,1241,1241,1241,1241,1241,1245,1241,1241,1245,1245,1241,1241,1241,1241,1241,1245,1245,1245,1245,1245,1245,1245,1245,1245,1245,1245,1241,1241,1241,1241,1241,1241,1241,1241,1245,1245,1245,1245,1245,1245,1245,1245,1245,1241,1241,1241,1245,1245,1245,1245,1245,1245,1245,1241,1241,1241,1241,1245,1245,1245,1241,1241,1245,1245,1245,1245,1245,1245,1245,1245,1245,1245,1245,1245,1245,1245,1245,1245,1245,1245,1245,1245,1245,1245,1245,1245,1245,1245,1241,1241,1241,1236,1232,1232,1232,1232,1227,964,964,964,962,959,959,956,954,951,948,948,948,948,948,948,951,951,954,954,956,956,959,959,962,964,967,967,967,0,1250,1250,1250,1250,1250,1250,1250,1250,1250,1250,1245,1245,1245,1241,1241,1245,1245,1245,1245,1245,1245,1250,1250,1245,1245,1250,1250,1250,1250,1250,1250,1250,1250,1250,1250,1250,1245,1245,1250,1245,1245,1245,1245,1245,1245,1245,1241,1241,1241,1241,1241,1241,1241,1245,1245,1250,1250,1250,1250,1250,1250,1250,1250,1250,1250,1250,1250,1250,1250,1250,1250,1250,1250,1250,1250,1250,1250,1250,1250,1250,1250,1245,1245,1245,1245,1245,1245,1245,1245,1241,1241,1245,1245,1245,1245,1245,1245,1245,1245,1250,1245,1245,1245,1245,1245,1245,1245,1245,1245,1250,1245,1245,1245,1241,1241,1241,1241,1241,1241,1241,1241,1245,1245,1245,1245,1245,1245,1245,1245,1245,1245,1245,1245,1241,1241,1241,1241,1241,1245,1241,1241,1245,1241,1241,1241,1236,1236,1241,1236,1236,1241,1241,1241,1241,1241,1241,1241,1241,1241,1241,1241,1241,1250,1250,1250,1250,1245,1241,1241,1236,1236,1236,1232,1232,1232,1232,1232,1232,1232,1232,1232,1227,1223,1223,1219,1219,1214,1214,1214,1206,1202,1202,1197,1193,1193,1193,1193,1189,1189,1185,1185,1185,1185,1181,1177,1173,1169,1165,1165,1165,1161,1161,1157,1157,1153,1153,1149,1145,1141,1141,1138,1138,1134,1134,1134,1134,1130,1126,1126,1123,1123,1119,1115,1115,1112,1112,1108,1108,1108,1108,1105,1105,1105,1101,1101,1097,1094,1090,1090,1090,1087,1087,1087,1084,1084,1080,1080,1080,1077,1077,0,0,0,0,0,0,0,0,0,0,0,1054,1050,1050,1050,1050,1050,1050,0,0,0,0,0,871,871,871,871,871,871,0,0,0,0,0,0,0,0,0,0,0,0,0,0,0,0,0,0,0,0,0,0,0,0,0,0,0,0,0,0,0,0,0,0,0,0,0
0,0,0,0,0,0,1241,1241,1241,1245,1245,1241,1241,1241,1241,1241,1241,1241,1236,1232,1232,1227,1227,1001,998,998,998,998,998,998,1001,1001,1001,1001,1004,1007,1007,1010,1010,1010,1013,1013,1013,0,0,0,0,0,0,0,0,654,654,653,653,654,654,655,655,657,657,658,659,659,659,661,662,663,664,666,666,667,667,667,668,668,670,670,670,671,674,674,676,0,0,0,0,0,0,0,0,0,1232,1232,1232,1232,1232,1232,1227,1227,1232,1232,1232,1232,1232,1232,1232,1236,1241,1236,1236,1236,1236,1236,1236,1236,1236,1236,1236,1236,1236,1236,1236,1236,1236,1236,1236,1236,1236,1236,1241,1236,1236,1232,1232,1232,1232,1232,1232,1232,1232,1232,1232,1236,1236,1232,1232,1232,1047,1047,1047,1044,1041,1041,1038,1034,1031,1031,1031,1028,1025,1025,1025,1025,1025,1025,1022,1022,1022,1022,1019,1019,1019,1250,1250,1241,1241,1236,1236,1236,1236,1236,1236,1236,1236,1236,1236,1236,1236,1236,1236,1236,1236,1236,1236,1241,1241,1241,1236,1236,1236,1236,1236,1236,1236,1236,1236,1241,1241,1241,1241,1241,1241,1241,1241,1241,1241,1236,1236,1236,1236,1236,1236,1241,1241,1241,1241,1236,1236,1241,1241,1236,1236,1236,1241,1241,1241,1236,1236,1236,1241,1236,1236,1236,1232,1232,1236,1236,1236,1236,1241,1241,1241,1241,1241,1241,1241,1241,1241,1241,1241,1241,1241,1241,1241,1241,1241,1241,1241,1241,1241,1241,1241,1241,1241,1241,1236,1236,1236,1236,1232,1232,1232,1232,1227,967,964,964,964,962,962,959,956,954,954,951,951,951,951,951,954,954,954,954,956,959,959,962,962,967,967,970,970,0,1250,1250,1250,1250,1250,1245,1245,1245,1241,1241,1241,1241,1241,1241,1241,1241,1241,1241,1241,1241,1245,1245,1245,1245,1245,1245,1245,1245,1245,1245,1245,1245,1245,1245,1245,1245,1245,1245,1245,1245,1241,1241,1241,1241,1241,1241,1241,1241,1241,1241,1241,1241,1241,1241,1241,1245,1245,1245,1245,1245,1245,1245,1245,1245,1245,1250,1250,1250,1250,1250,1250,1245,1245,1245,1245,1245,1245,1245,1245,1245,1245,1245,1245,1241,1241,1236,1236,1241,1241,1236,1236,1241,1241,1241,1241,1241,1241,1241,1241,1241,1241,1241,1241,1241,1241,1241,1241,1236,1236,1236,1236,1236,1241,1236,1236,1236,1236,1236,1236,1241,1241,1241,1241,1241,1245,1241,1241,1241,1241,1241,1241,1241,1241,1241,1241,1236,1236,1236,1241,1236,1236,1236,1236,1236,1236,1236,1236,1236,1236,1236,1241,1241,1241,1241,1236,1236,1236,1236,1236,1236,1236,1241,1241,1236,1236,1241,1241,1236,1236,1236,1236,1232,1232,1232,1232,1232,1232,1227,1227,1227,1227,1227,1223,1223,1219,1219,1214,1214,1214,1206,1202,1202,1197,1197,1193,1193,1193,1193,1189,1185,1185,1185,1181,1181,1177,1173,1169,1169,1169,1165,1165,1161,1161,1157,1153,1153,1149,1145,1145,1141,1138,1138,1134,1134,1134,1134,1130,1126,1126,1123,1123,1119,1115,1115,1112,1112,1108,1108,1108,1108,1105,1105,1105,1101,1101,1097,1094,1090,1090,1090,1087,1087,1087,1084,1084,1080,1077,1077,1080,0,0,0,0,0,0,0,0,0,0,0,0,0,0,0,1050,1050,0,0,0,0,0,0,0,873,873,873,873,873,873,0,0,0,0,0,0,0,0,0,0,0,0,0,0,0,0,0,0,0,0,0,0,0,0,0,0,0,0,0,0,0,0,0,0,0,0,0
0,0,0,0,0,0,1236,1236,1241,1241,1241,1241,1236,1236,1236,1236,1236,1232,1232,1227,1227,1227,1223,1001,998,998,998,998,998,1001,1001,1001,1001,1001,1004,1007,1007,1010,1010,1010,1010,1010,1016,1019,0,0,0,0,0,0,0,654,654,653,653,654,654,655,655,657,658,659,659,661,661,661,662,663,664,666,667,667,667,668,668,670,670,670,671,671,674,675,676,0,0,0,0,0,0,0,0,0,1232,1232,1232,1232,1232,1227,1227,1227,1232,1232,1232,1232,1232,1232,1232,1232,1232,1232,1232,1232,1232,1232,1232,1232,1232,1232,1232,1232,1232,1232,1232,1232,1232,1232,1232,1232,1232,1232,1236,1232,1232,1232,1227,1227,1227,1227,1232,1232,1232,1232,1232,1232,1232,1232,1227,1227,1227,1227,1050,1047,1041,1041,1038,1034,1031,1028,1028,1025,1022,1022,1022,1022,1022,1022,1022,1019,1019,1019,1016,1016,1016,1016,1241,1241,1241,1236,1232,1232,1232,1232,1232,1232,1232,1236,1236,1236,1232,1232,1232,1232,1232,1232,1232,1232,1232,1232,1232,1232,1232,1232,1232,1232,1232,1232,1236,1236,1236,1236,1236,1236,1236,1236,1236,1236,1236,1236,1232,1232,1236,1236,1236,1236,1236,1236,1236,1232,1232,1236,1236,1232,1232,1232,1236,1236,1236,1236,1236,1236,1236,1236,1232,1232,1232,1232,1232,1232,1232,1232,1232,1232,1236,1236,1236,1236,1232,1232,1232,1232,1232,1236,1236,1236,1236,1236,1236,1236,1236,1236,1241,1236,1236,1241,1236,1236,1236,1236,1236,1236,1232,1232,1232,1232,1232,967,964,964,964,962,962,959,956,956,954,954,951,951,951,954,954,954,956,956,959,959,959,962,964,967,967,970,970,0,1250,1250,1250,1245,1245,1245,1245,1241,1241,1241,1236,1236,1236,1236,1236,1236,1236,1241,1241,1241,1241,1241,1241,1241,1241,1241,1241,1241,1241,1245,1241,1241,1241,1241,1241,1241,1241,1241,1241,1241,1241,1241,1236,1236,1241,1241,1236,1236,1236,1236,1236,1236,1236,1236,1241,1241,1241,1241,1241,1241,1241,1241,1241,1241,1245,1245,1250,1250,1250,1245,1245,1245,1241,1241,1241,1241,1241,1241,1241,1241,1241,1241,1241,1236,1236,1236,1236,1236,1236,1236,1236,1236,1241,1241,1241,1241,1241,1241,1236,1236,1241,1236,1236,1236,1236,1236,1236,1236,1236,1236,1232,1232,1236,1236,1236,1236,1236,1236,1236,1236,1236,1236,1236,1236,1236,1236,1236,1236,1236,1236,1236,1236,1236,1236,1236,1236,1236,1236,1236,1232,1232,1232,1232,1232,1236,1232,1232,1232,1236,1236,1236,1236,1236,1236,1236,1236,1236,1236,1236,1236,1236,1236,1236,1236,1236,1236,1236,1236,1236,1236,1236,1232,1232,1232,1227,1227,1227,1227,1227,1227,1227,1227,1223,1223,1219,1219,1214,1214,1214,1206,1202,1202,1197,1197,1197,1197,1193,1193,1189,1185,1185,1185,1181,1181,1177,1173,1169,1169,1169,1165,1165,1161,1161,1157,1153,1153,1149,1145,1145,1141,1138,1138,1138,1138,1138,1134,1130,1130,1126,1123,1123,1119,1119,1115,1112,1112,1108,1108,1108,1108,1105,1105,1105,1105,1101,1097,1094,1090,1090,1090,1087,1087,1087,1084,1084,1080,1077,1077,0,0,0,0,0,0,0,0,0,0,0,0,0,0,0,0,0,0,0,0,0,0,0,0,0,878,873,873,873,873,873,0,0,0,0,0,0,0,0,0,0,0,0,0,0,0,0,0,0,0,0,0,0,0,0,0,0,0,0,0,0,0,0,0,0,0,0,0
0,0,0,0,0,0,1236,1236,1241,1236,1236,1236,1236,1232,1232,1232,1232,1232,1227,1227,1227,1227,1223,1223,998,998,998,998,998,1001,1001,1001,1001,1007,1007,1007,1010,1010,1010,1010,1010,1010,1019,1019,0,0,0,0,0,0,0,654,653,653,653,654,655,655,655,658,659,659,661,661,661,661,663,664,664,666,667,667,668,668,668,670,671,671,671,672,675,675,676,0,0,0,0,0,0,0,0,0,1227,1227,1227,1227,1227,1227,1227,1227,1227,1227,1227,1227,1227,1227,1227,1227,1227,1227,1227,1227,1227,1227,1227,1227,1227,1227,1227,1227,1227,1227,1232,1232,1232,1232,1232,1232,1232,1232,1232,1232,1227,1227,1227,1227,1227,1227,1227,1227,1227,1227,1227,1232,1227,1227,1227,1227,1223,1223,1050,1047,1041,1041,1038,1034,1031,1028,1025,1022,1022,1022,1022,1019,1019,1019,1019,1016,1016,1016,1016,1013,1013,1013,1236,1236,1236,1232,1232,1232,1232,1232,1232,1232,1232,1232,1232,1232,1232,1232,1232,1232,1232,1232,1232,1227,1227,1227,1232,1232,1232,1232,1232,1232,1232,1232,1232,1232,1232,1232,1232,1232,1232,1232,1232,1232,1232,1232,1232,1232,1232,1232,1232,1232,1232,1232,1232,1232,1232,1232,1232,1232,1232,1232,1232,1232,1232,1232,1232,1232,1232,1232,1232,1232,1232,1227,1227,1227,1227,1227,1232,1232,1232,1232,1232,1232,1232,1232,1227,1227,1227,1227,1227,1232,1227,1227,1232,1232,1232,1232,1232,1232,1232,1236,1236,1236,1236,1236,1232,1232,1232,1232,1227,1227,1227,967,967,967,964,964,962,962,959,956,956,954,954,954,954,954,954,956,956,956,959,962,962,964,964,967,970,970,970,1236,1241,1241,1241,1241,1241,1241,1236,1236,1236,1236,1236,1236,1236,1236,1236,1236,1236,1236,1236,1236,1236,1236,1236,1236,1236,1236,1236,1236,1236,1236,1236,1236,1236,1236,1236,1236,1236,1236,1236,1236,1236,1236,1236,1236,1236,1236,1236,1236,1232,1232,1232,1232,1232,1232,1232,1232,1236,1236,1236,1236,1236,1236,1236,1236,1241,1241,1241,1241,1245,1241,1241,1236,1236,1236,1236,1236,1236,1236,1236,1236,1236,1236,1236,1236,1236,1236,1236,1236,1236,1236,1236,1236,1236,1236,1236,1236,1236,1236,1236,1236,1236,1236,1236,1236,1232,1232,1232,1232,1232,1232,1227,1227,1232,1232,1236,1236,1236,1236,1236,1236,1236,1236,1236,1236,1236,1236,1236,1236,1236,1236,1236,1236,1236,1232,1232,1232,1232,1232,1232,1232,1232,1232,1232,1232,1232,1232,1232,1232,1236,1236,1232,1232,1236,1236,1232,1232,1232,1232,1232,1227,1227,1227,1227,1227,1227,1227,1227,1227,1227,1232,1232,1232,1227,1227,1227,1227,1227,1227,1223,1223,1223,1227,1223,1219,1219,1219,1214,1214,1214,1210,1202,1202,1197,1197,1197,1197,1197,1193,1193,1185,1185,1185,1181,1181,1177,1173,1173,1169,1169,1169,1165,1165,1161,1157,1153,1153,1153,1145,1145,1141,1138,1138,1138,1138,1138,1134,1130,1130,1126,1123,1123,1119,1119,1119,1115,1115,1112,1108,1108,1108,1105,1105,1105,1105,1101,1097,1094,1090,1090,1090,1090,1087,1087,1084,1084,1080,1077,1077,0,0,0,0,0,0,0,0,0,0,0,0,0,0,0,0,0,0,0,0,0,0,0,0,878,878,875,875,875,873,873,0,0,0,0,0,0,0,0,0,0,0,0,0,0,0,0,0,0,0,0,0,0,0,0,0,0,0,0,0,0,0,0,0,0,0,0,0
0,0,0,0,0,0,1236,1236,1236,1232,1232,1232,1232,1232,1232,1232,1227,1227,1223,1223,1223,1223,1219,1219,998,998,998,998,998,1001,1001,1001,1001,1007,1007,1007,1010,1010,1010,1010,1010,1010,1022,1022,0,0,0,0,0,0,0,658,653,653,654,655,655,655,657,659,659,661,661,661,662,663,664,666,666,667,667,667,668,668,670,670,671,671,672,674,675,676,678,679,680,0,0,0,0,0,0,0,1227,1227,1223,1223,1223,1227,1227,1227,1227,1227,1223,1223,1223,1223,1223,1223,1223,1223,1223,1227,1227,1223,1223,1223,1223,1223,1223,1223,1223,1227,1227,1227,1227,1227,1227,1227,1227,1227,1227,1227,1227,1227,1227,1227,1227,1227,1227,1227,1227,1227,1227,1227,1227,1227,1223,1223,1223,1223,1054,1050,1044,1038,1038,1031,1031,1028,1025,1022,1022,1019,1019,1016,1016,1016,1016,1016,1016,1016,1016,1013,1013,1013,1236,1236,1236,1232,1232,1232,1232,1232,1227,1227,1232,1232,1227,1227,1227,1227,1227,1227,1227,1227,1227,1227,1227,1227,1227,1227,1227,1227,1227,1227,1227,1227,1227,1232,1232,1232,1232,1232,1232,1227,1227,1227,1227,1227,1227,1227,1227,1227,1227,1227,1227,1227,1227,1227,1227,1227,1227,1227,1227,1227,1232,1232,1232,1232,1227,1227,1232,1232,1227,1227,1227,1227,1223,1223,1227,1227,1227,1227,1227,1227,1227,1227,1227,1227,1227,1223,1223,1223,1227,1227,1223,1223,1227,1232,1232,1232,1232,1232,1232,1232,1232,1232,1232,1232,1232,1232,1227,1227,1223,1223,1223,970,967,967,967,964,964,962,959,956,956,954,954,954,954,954,954,956,956,959,959,962,964,964,967,970,970,970,970,1236,1236,1236,1232,1232,1232,1232,1236,1232,1232,1232,1232,1232,1232,1232,1232,1236,1236,1236,1236,1236,1236,1236,1236,1236,1236,1236,1236,1236,1236,1236,1232,1232,1232,1232,1232,1236,1236,1236,1236,1232,1232,1232,1232,1232,1232,1232,1232,1232,1232,1232,1232,1232,1232,1227,1227,1227,1232,1232,1232,1232,1232,1232,1232,1232,1232,1236,1236,1236,1241,1236,1236,1236,1232,1232,1232,1236,1236,1236,1236,1236,1236,1236,1236,1232,1232,1232,1232,1236,1236,1232,1232,1236,1236,1236,1236,1236,1236,1236,1236,1232,1232,1232,1232,1232,1232,1232,1232,1232,1227,1227,1227,1227,1227,1232,1232,1232,1232,1232,1232,1232,1232,1232,1232,1232,1232,1232,1232,1232,1232,1232,1232,1232,1232,1232,1232,1227,1227,1227,1232,1232,1232,1232,1232,1232,1232,1232,1232,1232,1232,1232,1232,1232,1232,1232,1232,1232,1227,1227,1227,1227,1223,1223,1223,1223,1223,1223,1223,1223,1223,1223,1223,1227,1227,1227,1227,1227,1227,1223,1223,1223,1223,1223,1223,1219,1219,1219,1214,1214,1214,1210,1202,1202,1202,1202,1202,1197,1197,1193,1193,1185,1185,1185,1181,1181,1181,1177,1173,1169,1169,1169,1165,1165,1161,1157,1157,1153,1153,1149,1145,1145,1138,1138,1138,1138,1138,1138,1134,1134,1130,1123,1123,1119,1119,1119,1115,1115,1112,1108,1108,1108,1105,1105,1105,1105,1101,1097,1094,1094,1094,1090,1090,1090,1087,1084,1084,1080,1077,1077,0,0,0,0,0,0,0,0,0,0,0,0,0,0,0,0,0,0,0,0,0,0,0,0,878,878,878,878,875,875,875,0,0,0,0,0,0,0,0,0,0,0,0,0,0,0,0,0,0,0,0,0,0,0,0,0,0,0,0,0,0,0,0,0,0,0,0,0
0,0,0,0,0,0,1232,1232,1232,1232,1232,1232,1232,1232,1232,1227,1227,1223,1223,1219,1219,1219,1219,1219,1219,1219,1001,1001,1001,1004,1004,1004,1004,1007,1007,1007,1010,1010,1010,1010,1010,1010,1022,1022,0,0,0,0,0,0,0,657,655,655,655,655,655,657,657,659,659,659,661,663,663,664,666,666,666,667,668,668,670,670,670,671,671,672,674,675,676,678,678,679,680,0,0,0,0,0,0,0,0,1214,1214,1219,1219,1223,1223,1223,1223,1219,1219,1219,1219,1219,1219,1219,1219,1219,1219,1223,1223,1223,1223,1223,1223,1219,1219,1219,1219,1219,1219,1227,1227,1227,1227,1227,1227,1223,1223,1223,1223,1223,1223,1223,1227,1223,1223,1223,1223,1223,1227,1223,1223,1223,1219,1219,1219,1219,1214,1214,1044,1038,1034,1031,1028,1025,1022,1022,1019,1016,1016,1013,1013,1013,1016,1013,1013,1013,1013,1013,1010,1010,1236,1236,1236,1232,1232,1232,1232,1227,1227,1227,1227,1227,1227,1223,1223,1223,1223,1223,1223,1223,1223,1223,1223,1223,1227,1227,1227,1227,1227,1227,1227,1227,1227,1227,1227,1227,1232,1232,1227,1227,1227,1227,1227,1227,1223,1223,1223,1227,1227,1227,1227,1227,1227,1227,1227,1227,1227,1227,1227,1227,1227,1227,1227,1227,1227,1227,1227,1227,1227,1227,1227,1223,1219,1219,1223,1219,1219,1223,1223,1223,1223,1223,1223,1223,1223,1219,1219,1223,1223,1223,1219,1219,1223,1227,1227,1227,1227,1232,1232,1232,1232,1232,1232,1232,1227,1227,1227,1223,1223,1223,1219,970,970,967,967,964,964,962,959,956,956,954,954,954,954,954,954,956,956,959,962,964,964,964,967,970,970,973,973,1232,1232,1227,1227,1227,1227,1227,1227,1227,1227,1232,1232,1232,1232,1232,1232,1232,1232,1232,1236,1232,1232,1232,1232,1232,1232,1232,1236,1232,1232,1232,1232,1232,1232,1227,1227,1232,1232,1232,1232,1232,1232,1232,1232,1232,1232,1232,1232,1232,1227,1227,1227,1227,1227,1227,1223,1223,1227,1227,1227,1227,1227,1232,1227,1227,1227,1227,1227,1232,1232,1232,1232,1232,1227,1227,1232,1232,1232,1232,1232,1232,1236,1232,1232,1232,1232,1232,1232,1232,1232,1232,1232,1232,1232,1232,1232,1232,1232,1232,1232,1232,1232,1232,1232,1232,1227,1227,1227,1227,1227,1223,1223,1223,1223,1227,1232,1232,1232,1232,1232,1232,1223,1223,1232,1232,1232,1232,1232,1232,1232,1232,1227,1227,1227,1227,1227,1227,1227,1227,1227,1227,1227,1227,1227,1227,1227,1227,1227,1227,1227,1227,1227,1227,1232,1232,1227,1227,1223,1223,1223,1223,1223,1223,1223,1223,1223,1223,1223,1223,1223,1223,1223,1223,1223,1223,1223,1223,1223,1223,1223,1219,1219,1223,1219,1219,1219,1219,1214,1214,1214,1210,1202,1202,1202,1202,1202,1197,1197,1193,1193,1185,1185,1185,1181,1181,1181,1177,1173,1173,1169,1169,1165,1165,1165,1161,1157,1157,1153,1153,1149,1145,1138,1138,1138,1138,1138,1138,1134,1134,1130,1123,1123,1123,1119,1119,1119,1115,1112,1112,1108,1108,1105,1105,1105,1105,1101,1101,1094,1094,1094,1090,1090,1090,1087,1087,1084,1080,1080,1080,0,0,0,0,0,0,0,0,0,0,0,908,908,908,906,903,903,0,0,0,0,0,0,0,880,880,878,878,875,875,875,0,0,0,0,0,0,0,0,0,0,0,0,0,0,0,0,0,0,0,0,0,0,0,0,0,0,0,0,0,0,0,0,0,0,0,0,0
0,0,0,0,0,0,1232,1232,1232,1227,1227,1227,1227,1227,1227,1227,1223,1219,1219,1219,1219,1219,1214,1214,1214,1214,1214,1001,1001,1004,1004,1004,1007,1007,1010,1010,1010,1010,1010,1010,1010,1010,1013,1022,0,0,0,0,0,0,0,657,655,655,655,655,655,657,657,659,659,659,661,663,663,664,666,666,666,667,668,670,670,670,671,671,672,672,674,675,676,678,678,679,680,0,0,0,0,0,0,0,0,1214,1214,1214,1219,1219,1219,1219,1219,1219,1219,1214,1214,1214,1214,1214,1214,1214,1219,1214,1214,1214,1214,1214,1214,1214,1214,1214,1214,1214,1219,1219,1214,1214,1219,1223,1223,1219,1219,1219,1219,1219,1219,1219,1219,1219,1219,1219,1219,1219,1223,1223,1219,1219,1219,1219,1219,1219,1214,1214,1214,1038,1034,1031,1028,1025,1022,1022,1019,1016,1013,1013,1013,1013,1013,1013,1013,1010,1010,1013,1010,1007,1007,1236,1236,1227,1227,1227,1227,1227,1223,1223,1223,1223,1223,1223,1223,1223,1223,1223,1219,1219,1219,1219,1219,1219,1223,1227,1227,1227,1227,1227,1223,1223,1223,1223,1223,1227,1227,1227,1227,1223,1223,1223,1223,1223,1223,1223,1223,1223,1223,1223,1223,1223,1223,1223,1223,1223,1223,1227,1223,1223,1223,1223,1223,1227,1227,1223,1223,1227,1227,1223,1223,1219,1219,1219,1219,1219,1219,1219,1219,1219,1219,1223,1223,1223,1219,1219,1219,1219,1219,1219,1219,1219,1219,1223,1223,1223,1223,1227,1227,1227,1227,1227,1227,1227,1223,1223,1223,1223,1219,1219,1219,1214,970,967,967,967,964,962,959,959,956,956,954,954,954,954,954,956,956,959,962,964,964,964,967,973,973,973,973,1227,1227,1227,1223,1223,1223,1227,1227,1227,1227,1227,1223,1223,1227,1227,1227,1232,1232,1232,1232,1232,1232,1232,1232,1232,1232,1232,1232,1232,1232,1232,1232,1232,1232,1227,1227,1227,1227,1227,1227,1227,1227,1227,1227,1227,1232,1232,1232,1227,1227,1227,1223,1223,1223,1223,1223,1223,1227,1227,1227,1227,1227,1227,1227,1227,1223,1223,1223,1223,1223,1223,1227,1227,1227,1227,1227,1227,1227,1232,1232,1232,1232,1232,1232,1232,1227,1227,1232,1227,1227,1227,1227,1227,1232,1232,1232,1232,1232,1232,1232,1232,1227,1227,1227,1227,1223,1223,1223,1223,1223,1223,1223,1223,1223,1223,1227,1227,1227,1227,1223,1219,1219,1219,1219,1219,1219,1227,1227,1227,1227,1227,1227,1227,1227,1227,1223,1223,1223,1227,1223,1223,1227,1223,1223,1227,1223,1223,1223,1223,1227,1227,1223,1223,1227,1227,1223,1223,1223,1223,1223,1223,1219,1219,1219,1219,1219,1219,1219,1219,1219,1219,1219,1219,1219,1219,1219,1219,1219,1219,1219,1219,1219,1219,1219,1219,1219,1219,1214,1214,1210,1210,1202,1202,1202,1202,1202,1197,1197,1197,1193,1189,1185,1185,1181,1181,1181,1177,1177,1173,1173,1169,1165,1165,1165,1161,1157,1157,1157,1153,1149,1145,1145,1138,1138,1138,1138,1138,1134,1134,1130,1130,1123,1123,1119,1119,1119,1115,1115,1112,1112,1108,1108,1108,1105,1105,1101,1101,1094,1094,1094,1090,1090,1090,1090,1087,1084,1080,1080,1080,0,0,0,0,0,0,0,0,0,0,903,903,906,903,901,901,901,0,0,0,894,889,889,885,882,880,878,878,878,875,875,0,0,0,0,0,0,0,0,0,0,0,0,0,0,0,0,0,0,0,0,0,0,0,0,0,0,0,0,0,0,0,0,0,0,0,0,0
0,0,0,0,0,0,1227,1227,1227,1227,1227,1223,1223,1223,1223,1223,1219,1219,1214,1214,1214,1214,1214,1214,1214,1214,1214,1214,1004,1004,1004,1004,1007,1007,1010,1010,1010,1010,1010,1010,1010,1010,1013,0,0,0,0,0,0,0,0,655,654,654,655,655,655,655,657,659,659,661,662,663,664,664,666,666,666,667,668,670,671,671,671,672,674,674,675,676,676,678,679,679,680,0,0,0,0,0,0,0,0,1214,1214,1214,1214,1214,1214,1214,1214,1214,1214,1214,1214,1214,1214,1214,1214,1214,1214,1214,1214,1214,1214,1214,1214,1214,1214,1214,1214,1214,1214,1214,1214,1214,1214,1214,1214,1214,1214,1214,1214,1214,1214,1214,1214,1219,1214,1214,1214,1214,1219,1219,1214,1214,1214,1214,1214,1214,1214,1214,1210,1210,1034,1028,1025,1025,1022,1022,1019,1016,1013,1013,1010,1010,1010,1010,1010,1007,1007,1007,1007,1004,1004,1004,1227,1227,1223,1219,1219,1219,1219,1214,1214,1219,1219,1219,1219,1219,1219,1219,1219,1219,1219,1219,1219,1219,1219,1219,1219,1223,1223,1223,1223,1223,1219,1219,1219,1219,1219,1223,1223,1219,1219,1219,1219,1219,1219,1219,1219,1219,1219,1219,1219,1223,1219,1219,1219,1219,1219,1223,1223,1223,1223,1223,1223,1223,1223,1223,1223,1223,1223,1219,1219,1219,1214,1214,1214,1214,1214,1214,1214,1214,1219,1219,1219,1219,1219,1219,1214,1214,1214,1214,1214,1214,1214,1219,1219,1223,1223,1223,1223,1223,1223,1223,1223,1223,1219,1219,1219,1219,1214,1214,1214,1210,973,970,967,967,964,962,962,959,956,956,956,954,954,954,956,956,956,959,962,964,964,967,967,973,973,975,978,1227,1227,1223,1223,1219,1219,1223,1223,1223,1223,1223,1223,1223,1223,1219,1219,1219,1227,1227,1227,1227,1227,1232,1232,1232,1232,1232,1232,1232,1227,1227,1227,1227,1227,1223,1223,1223,1223,1223,1223,1223,1223,1223,1223,1223,1223,1223,1227,1227,1223,1223,1223,1223,1219,1219,1219,1219,1223,1223,1223,1223,1223,1223,1223,1223,1219,1219,1223,1223,1223,1219,1219,1219,1219,1223,1223,1223,1227,1227,1227,1227,1227,1227,1227,1227,1227,1227,1227,1227,1227,1227,1227,1227,1227,1227,1227,1223,1223,1227,1227,1227,1223,1223,1223,1223,1223,1223,1223,1223,1219,1219,1219,1219,1223,1223,1223,1223,1219,1219,1219,1219,1219,1219,1219,1219,1219,1219,1219,1227,1227,1223,1223,1223,1223,1219,1219,1219,1219,1223,1223,1223,1223,1223,1223,1223,1219,1219,1219,1219,1219,1223,1219,1219,1223,1223,1223,1223,1219,1219,1219,1219,1219,1219,1219,1219,1219,1219,1219,1219,1219,1219,1219,1219,1219,1219,1219,1219,1214,1214,1214,1214,1214,1214,1214,1214,1214,1214,1214,1210,1210,1210,1202,1202,1202,1202,1197,1197,1197,1197,1193,1189,1185,1185,1181,1181,1181,1177,1177,1173,1173,1169,1169,1165,1161,1161,1157,1157,1157,1153,1149,1149,1145,1141,1141,1138,1138,1138,1138,1134,1134,1134,1130,1123,1123,1119,1119,1119,1115,1112,1112,1108,1108,1108,1105,1105,1101,1101,1097,1094,1094,1094,1090,1090,1090,946,946,946,940,940,0,935,935,935,938,938,0,0,0,0,903,901,901,901,898,898,898,898,0,896,894,889,889,885,882,882,880,878,878,875,875,0,0,0,0,0,0,0,0,0,0,0,0,0,0,0,0,0,0,0,0,0,0,0,0,0,0,0,0,0,0,0,0,0,0,0,0,0
0,0,0,0,0,0,1227,1227,1223,1223,1223,1223,1223,1219,1219,1219,1219,1214,1214,1210,1210,1210,1210,1210,1210,1210,1210,1210,1004,1004,1007,1007,1007,1010,1010,1010,1010,1010,1010,1013,1010,1010,1013,1013,0,0,0,0,0,0,654,654,654,654,654,655,655,655,657,659,661,661,663,663,664,664,666,666,666,667,668,670,671,671,671,672,674,674,675,676,678,678,679,680,680,682,0,0,0,0,0,0,0,1214,1210,1210,1210,1210,1210,1210,1210,1210,1210,1214,1214,1214,1214,1214,1214,1210,1210,1210,1210,1210,1210,1210,1210,1210,1210,1210,1210,1210,1210,1210,1210,1210,1210,1210,1210,1210,1210,1210,1210,1210,1210,1210,1210,1210,1214,1214,1214,1214,1214,1214,1214,1214,1214,1214,1214,1214,1214,1214,1210,1210,1210,1028,1025,1022,1022,1019,1016,1013,1013,1010,1010,1007,1007,1007,1007,1004,1004,1004,1004,1004,1001,1001,1001,1223,1223,1219,1219,1219,1214,1214,1214,1214,1214,1214,1214,1214,1214,1214,1214,1214,1214,1214,1214,1214,1219,1219,1219,1219,1219,1214,1214,1219,1219,1214,1214,1214,1214,1214,1219,1219,1219,1219,1219,1219,1214,1214,1214,1214,1219,1219,1219,1219,1214,1214,1214,1214,1219,1219,1219,1219,1219,1219,1219,1219,1219,1219,1219,1219,1219,1219,1214,1214,1214,1214,1214,1214,1214,1214,1214,1214,1214,1214,1214,1214,1214,1214,1214,1214,1214,1214,1214,1214,1214,1214,1214,1214,1214,1219,1219,1219,1219,1214,1214,1219,1214,1214,1214,1214,1214,1214,1210,1210,975,970,970,967,964,964,962,959,959,956,956,956,956,956,956,956,959,959,962,964,964,967,970,975,975,975,978,978,1223,1223,1219,1219,1219,1219,1219,1219,1219,1219,1219,1219,1219,1219,1219,1219,1219,1219,1223,1223,1223,1227,1223,1223,1223,1223,1227,1227,1227,1223,1223,1223,1223,1223,1223,1219,1219,1219,1219,1219,1219,1219,1219,1219,1219,1219,1223,1223,1223,1223,1219,1219,1219,1219,1219,1219,1219,1219,1219,1219,1219,1219,1219,1219,1219,1219,1219,1219,1219,1219,1219,1219,1219,1219,1219,1219,1223,1223,1223,1223,1227,1227,1227,1223,1223,1223,1227,1223,1223,1227,1227,1223,1219,1219,1219,1219,1219,1223,1219,1219,1219,1219,1219,1219,1219,1219,1219,1219,1219,1219,1219,1219,1219,1219,1219,1219,1219,1219,1219,1214,1214,1214,1219,1219,1214,1214,1219,1219,1219,1219,1219,1219,1219,1219,1219,1219,1219,1219,1219,1219,1223,1223,1219,1219,1214,1214,1214,1214,1214,1214,1214,1214,1219,1219,1219,1219,1219,1219,1219,1219,1219,1214,1214,1214,1214,1214,1214,1214,1214,1214,1214,1214,1214,1214,1214,1214,1214,1214,1214,1210,1210,1214,1214,1214,1214,1214,1214,1210,1210,1206,1206,1202,1202,1202,1197,1197,1197,1193,1193,1189,1185,1185,1181,1181,1181,1177,1177,1173,1173,1169,1169,1165,1161,1161,1157,1157,1157,1153,1149,1149,1149,1141,1141,1138,1138,1138,1138,1138,1134,1134,1130,1126,1123,1123,1119,1119,1115,1115,1112,1108,1108,1108,1108,1105,1105,1101,1097,1097,1094,1094,1094,1094,1094,946,940,940,938,935,935,935,935,935,935,935,0,0,0,0,0,901,901,898,898,898,896,896,896,894,891,889,889,885,882,882,880,878,878,875,875,0,0,0,0,0,0,0,0,0,0,0,0,0,0,0,0,0,0,0,0,0,0,0,0,0,0,0,0,0,0,0,0,0,0,0,0,0
0,0,0,0,0,0,1227,1223,1223,1223,1223,1219,1219,1219,1219,1219,1214,1214,1214,1210,1210,1210,1210,1210,1210,1210,1210,1210,1007,1007,1007,1007,1010,1010,1010,1010,1010,1010,1013,1013,1013,1013,1010,1010,0,0,0,0,0,0,654,654,654,654,654,655,655,655,657,659,661,662,663,664,664,666,666,666,667,667,668,670,671,671,672,674,675,675,675,676,678,678,679,680,680,682,0,0,0,0,0,0,0,1210,1210,1206,1206,1210,1210,1210,1210,1210,1210,1210,1210,1210,1210,1210,1210,1210,1210,1206,1206,1210,1210,1206,1206,1210,1210,1210,1206,1206,1206,1206,1206,1206,1206,1206,1206,1210,1206,1206,1210,1210,1210,1206,1206,1206,1210,1210,1210,1210,1214,1214,1214,1214,1210,1210,1210,1210,1210,1210,1210,1210,1210,1210,1025,1022,1022,1019,1016,1013,1010,1010,1007,1004,1004,1004,1004,1001,1001,1001,1001,1001,1001,998,998,995,995,1219,1219,1214,1214,1210,1210,1210,1210,1210,1210,1210,1210,1210,1214,1210,1210,1210,1210,1214,1214,1214,1214,1214,1214,1214,1210,1210,1210,1210,1210,1214,1210,1210,1214,1214,1214,1214,1214,1214,1214,1214,1214,1214,1214,1214,1214,1214,1214,1214,1214,1214,1214,1214,1214,1214,1214,1214,1214,1214,1214,1214,1214,1214,1214,1214,1214,1214,1214,1214,1214,1210,1210,1210,1210,1210,1210,1214,1214,1214,1214,1214,1214,1214,1214,1214,1214,1214,1214,1214,1214,1214,1214,1214,1214,1214,1214,1214,1214,1214,1214,1214,1214,1214,1210,1210,1210,1206,973,970,970,970,967,964,962,962,959,956,956,956,956,956,956,956,959,962,962,964,964,967,970,975,975,978,978,978,1223,1223,1219,1219,1214,1214,1214,1214,1214,1219,1219,1219,1214,1214,1214,1219,1219,1214,1214,1219,1219,1219,1219,1219,1219,1219,1219,1219,1219,1219,1219,1219,1219,1219,1219,1219,1219,1219,1219,1219,1219,1214,1214,1214,1219,1219,1219,1219,1219,1219,1219,1219,1219,1219,1219,1214,1214,1214,1214,1214,1214,1214,1214,1214,1214,1214,1214,1219,1219,1219,1214,1214,1214,1214,1214,1214,1214,1214,1219,1219,1223,1223,1223,1219,1219,1219,1219,1219,1219,1223,1223,1219,1214,1214,1214,1214,1214,1219,1219,1219,1219,1219,1219,1219,1219,1219,1219,1219,1219,1219,1219,1219,1219,1219,1219,1219,1214,1214,1214,1214,1214,1214,1214,1214,1214,1214,1214,1214,1214,1214,1214,1214,1214,1219,1219,1219,1219,1219,1219,1219,1219,1219,1219,1219,1214,1214,1210,1210,1210,1210,1214,1214,1210,1210,1214,1219,1214,1214,1214,1214,1214,1214,1214,1214,1214,1214,1214,1214,1214,1214,1214,1214,1214,1210,1210,1214,1210,1210,1210,1210,1210,1210,1210,1210,1210,1210,1210,1210,1206,1206,1202,1202,1202,1197,1197,1197,1197,1193,1193,1189,1185,1185,1185,1181,1181,1181,1177,1177,1173,1169,1169,1165,1161,1157,1157,1157,1157,1153,1153,1149,1149,1145,1141,1138,1138,1138,1138,1138,1134,1134,1130,1130,1123,1123,1119,1119,1119,1115,1112,1108,1108,1108,1108,1105,1105,1101,1101,1097,1097,1094,1094,1094,1094,940,940,940,938,935,935,933,933,933,933,933,0,0,0,0,901,901,901,898,898,898,896,896,896,894,891,889,889,885,882,882,880,878,878,875,875,0,0,0,0,0,0,0,0,0,0,0,0,0,0,0,0,0,0,0,0,0,0,0,0,0,0,0,0,0,0,0,0,0,0,0,0,0
0,0,0,0,0,0,1223,1223,1219,1219,1219,1219,1219,1219,1219,1219,1214,1210,1210,1210,1210,1210,1206,1206,1206,1206,1206,1010,1010,1010,1007,1007,1010,1010,1010,1010,1010,1010,1013,1013,1013,1013,1010,1010,1010,0,0,0,0,0,0,655,655,655,655,657,657,657,658,659,661,662,663,664,664,666,666,666,667,667,668,670,671,672,674,675,675,675,676,676,678,678,679,680,680,0,0,0,0,0,0,0,0,1206,1206,1206,1206,1206,1206,1206,1206,1206,1206,1206,1206,1206,1206,1206,1206,1206,1206,1202,1202,1202,1202,1202,1202,1202,1202,1206,1206,1206,1206,1206,1206,1206,1202,1202,1202,1206,1206,1206,1206,1206,1206,1202,1202,1202,1206,1206,1210,1210,1210,1210,1210,1210,1210,1210,1210,1210,1210,1210,1210,1210,1210,1206,1206,1022,1022,1016,1016,1013,1010,1007,1004,1004,1004,1004,1001,1001,1001,1001,1001,1001,998,998,998,995,995,995,1214,1214,1210,1210,1210,1210,1206,1206,1210,1210,1210,1210,1210,1210,1210,1206,1206,1206,1206,1206,1206,1206,1210,1210,1210,1206,1206,1206,1210,1210,1206,1206,1210,1210,1214,1214,1210,1210,1210,1210,1210,1210,1210,1210,1210,1210,1210,1210,1210,1210,1210,1210,1210,1206,1206,1210,1210,1210,1210,1210,1210,1210,1210,1210,1210,1210,1210,1210,1210,1210,1210,1210,1210,1210,1210,1210,1210,1210,1210,1210,1210,1210,1210,1214,1210,1210,1210,1210,1210,1210,1210,1210,1210,1210,1210,1210,1210,1210,1210,1210,1210,1210,1210,1206,1206,1202,973,973,973,973,970,967,964,962,959,956,956,956,956,956,956,956,959,962,962,964,967,967,970,975,975,978,978,978,1223,1223,1214,1214,1210,1210,1210,1210,1214,1214,1214,1214,1214,1214,1214,1214,1214,1214,1214,1214,1214,1214,1214,1214,1219,1219,1214,1214,1219,1214,1214,1214,1214,1214,1219,1214,1214,1214,1214,1214,1214,1214,1214,1214,1214,1214,1214,1219,1219,1219,1219,1219,1214,1214,1214,1214,1214,1214,1214,1214,1214,1214,1214,1214,1214,1214,1214,1214,1214,1214,1214,1214,1214,1214,1214,1214,1214,1214,1214,1210,1210,1219,1214,1214,1214,1214,1214,1219,1219,1219,1219,1219,1214,1214,1214,1214,1214,1214,1214,1214,1214,1214,1214,1214,1214,1214,1214,1214,1214,1214,1214,1214,1214,1214,1214,1214,1214,1214,1214,1214,1214,1214,1214,1214,1214,1214,1214,1210,1210,1210,1210,1210,1214,1214,1214,1214,1214,1214,1214,1214,1214,1214,1214,1214,1210,1210,1210,1210,1210,1210,1210,1210,1210,1210,1214,1214,1214,1214,1214,1214,1214,1214,1214,1214,1214,1214,1214,1210,1210,1210,1210,1210,1210,1210,1210,1210,1206,1206,1206,1206,1206,1206,1206,1206,1206,1206,1210,1206,1206,1206,1202,1202,1197,1197,1197,1197,1197,1193,1193,1189,1189,1185,1185,1181,1181,1181,1177,1177,1173,1169,1169,1165,1161,1157,1157,1157,1157,1153,1153,1149,1149,1145,1141,1138,1138,1138,1134,1134,1134,1134,1130,1130,1123,1123,1119,1119,1119,1115,1112,1112,1108,1108,1108,1108,1105,1105,1101,1101,1097,1097,1094,1094,1097,940,940,938,938,935,935,933,933,933,933,933,0,0,0,0,901,901,901,898,898,896,896,896,894,894,891,889,887,885,882,882,880,878,875,873,873,0,0,0,0,0,0,0,0,0,0,0,0,0,0,0,0,0,0,0,0,0,0,0,0,0,0,0,0,0,0,0,0,0,0,0,0,0
0,0,0,0,0,0,1214,1214,1214,1214,1214,1214,1214,1214,1214,1210,1210,1210,1206,1206,1206,1206,1202,1202,1202,1202,1202,1007,1007,1007,1007,1007,1010,1010,1010,1010,1010,1010,1013,1013,1013,1013,1013,1010,1010,0,0,0,0,0,0,0,0,657,657,657,657,657,658,659,661,662,664,664,666,666,667,667,668,668,670,671,671,674,674,675,675,675,676,676,676,678,679,680,682,0,0,0,0,0,0,0,0,1206,1206,1206,1206,1206,1206,1206,1202,1202,1202,1202,1202,1202,1202,1202,1202,1202,1202,1202,1202,1202,1202,1202,1202,1202,1202,1202,1202,1202,1202,1202,1202,1202,1197,1197,1202,1206,1202,1202,1202,1202,1202,1202,1197,1197,1202,1202,1202,1202,1206,1206,1206,1210,1210,1210,1210,1210,1210,1210,1210,1206,1206,1206,1202,1022,1019,1016,1013,1013,1010,1007,1004,1001,1001,1001,1001,1001,1001,1001,998,998,998,998,995,995,995,995,1210,1210,1210,1206,1206,1206,1202,1202,1206,1206,1206,1206,1206,1206,1206,1202,1202,1202,1202,1202,1202,1206,1206,1206,1206,1206,1202,1202,1206,1206,1202,1202,1202,1206,1206,1206,1210,1210,1210,1210,1210,1210,1210,1210,1210,1206,1206,1206,1206,1206,1202,1202,1202,1202,1202,1206,1206,1206,1206,1206,1206,1210,1210,1210,1210,1210,1210,1210,1210,1206,1206,1206,1206,1206,1206,1210,1210,1210,1210,1210,1206,1206,1210,1210,1210,1210,1210,1210,1210,1210,1210,1206,1206,1210,1210,1206,1206,1206,1210,1210,1210,1206,1206,1202,1202,1197,975,973,973,973,973,970,967,964,959,959,956,956,956,956,956,959,959,962,964,964,967,967,970,975,975,978,978,978,978,1214,1214,1214,1210,1210,1206,1206,1210,1210,1214,1214,1214,1210,1210,1210,1210,1210,1210,1210,1210,1210,1210,1214,1210,1210,1214,1214,1214,1214,1214,1214,1214,1214,1214,1214,1214,1214,1214,1214,1214,1214,1214,1214,1214,1214,1214,1214,1214,1214,1214,1214,1214,1214,1214,1214,1210,1210,1210,1210,1210,1210,1210,1210,1210,1214,1210,1210,1210,1210,1210,1214,1210,1210,1210,1214,1214,1206,1206,1206,1206,1206,1206,1210,1210,1210,1210,1210,1214,1214,1214,1214,1210,1210,1210,1210,1210,1214,1214,1210,1210,1214,1214,1214,1210,1210,1214,1210,1210,1210,1214,1214,1214,1210,1210,1210,1210,1210,1210,1210,1210,1210,1210,1210,1210,1210,1210,1206,1206,1206,1206,1206,1206,1206,1206,1202,1202,1214,1214,1210,1202,1202,1206,1206,1206,1206,1206,1206,1206,1206,1206,1206,1206,1206,1210,1210,1210,1210,1202,1202,1210,1210,1210,1210,1210,1210,1210,1210,1210,1210,1210,1210,1210,1206,1206,1206,1202,1202,1202,1202,1202,1202,1206,1206,1206,1206,1202,1202,1206,1202,1202,1197,1197,1197,1197,1197,1193,1193,1193,1189,1189,1185,1185,1181,1181,1181,1177,1177,1173,1169,1169,1165,1161,1157,1157,1157,1157,1153,1153,1149,1149,1145,1141,1138,1138,1134,1134,1134,1134,1134,1130,1130,1123,1123,1119,1119,1119,1115,1112,1108,1108,1108,1108,1105,1105,1105,1101,1101,1097,1097,1094,1094,943,940,940,938,938,933,933,933,928,923,923,0,0,0,0,0,901,901,901,898,896,896,896,894,891,891,889,889,887,885,885,882,880,878,875,873,873,0,0,0,0,0,0,0,0,0,0,0,0,0,0,0,0,0,0,0,0,0,0,0,0,0,0,0,0,0,0,0,0,0,0,0,0,0
0,0,0,0,0,0,1214,1214,1214,1214,1210,1210,1210,1210,1210,1210,1206,1206,1206,1206,1202,1202,1202,1197,1197,1197,1197,1001,1001,1007,1007,1007,1010,1010,1010,1010,1010,1010,1013,1013,1013,1013,1013,1013,1013,1013,0,0,0,0,0,0,0,657,657,657,657,657,658,661,661,662,664,664,666,666,667,667,668,670,670,671,672,674,674,675,675,675,676,676,676,678,680,680,682,682,0,0,0,0,0,0,0,1206,1206,1206,1206,1202,1202,1202,1202,1202,1197,1197,1197,1197,1197,1197,1197,1197,1197,1197,1197,1197,1197,1202,1197,1197,1202,1202,1202,1202,1197,1197,1197,1197,1197,1197,1197,1202,1202,1202,1202,1202,1202,1197,1197,1197,1197,1197,1197,1197,1197,1202,1197,1197,1197,1202,1206,1206,1206,1206,1206,1206,1206,1202,1202,1022,1019,1016,1013,1013,1010,1007,1004,1001,1001,1001,1001,998,998,998,998,995,995,992,992,992,992,992,992,1210,1210,1206,1206,1202,1202,1202,1202,1202,1197,1197,1202,1197,1197,1197,1197,1197,1197,1197,1197,1197,1202,1202,1202,1202,1202,1202,1202,1202,1202,1202,1202,1202,1202,1202,1202,1202,1202,1206,1206,1206,1206,1206,1206,1202,1202,1202,1202,1202,1202,1202,1202,1197,1197,1202,1202,1202,1202,1202,1202,1206,1206,1206,1206,1206,1206,1206,1206,1206,1202,1202,1206,1202,1202,1206,1206,1202,1202,1206,1202,1202,1206,1206,1206,1206,1206,1206,1206,1206,1206,1206,1206,1206,1206,1206,1206,1206,1206,1202,1202,1197,1197,1197,1197,1197,975,975,975,975,973,970,967,964,962,959,959,956,956,956,956,959,962,962,964,964,967,970,970,975,978,978,978,978,981,1214,1214,1214,1206,1206,1206,1206,1206,1210,1210,1210,1210,1210,1210,1210,1210,1206,1206,1206,1206,1210,1210,1206,1206,1206,1206,1206,1206,1206,1210,1210,1214,1214,1214,1214,1214,1214,1214,1214,1214,1214,1214,1214,1214,1214,1214,1210,1210,1210,1210,1210,1210,1210,1210,1210,1210,1210,1206,1206,1206,1206,1206,1206,1206,1206,1210,1206,1206,1206,1210,1210,1206,1206,1206,1206,1206,1206,1202,1202,1202,1202,1206,1206,1206,1206,1206,1206,1206,1206,1210,1210,1210,1210,1210,1210,1210,1210,1210,1206,1206,1210,1210,1210,1210,1210,1210,1210,1210,1210,1210,1210,1210,1206,1206,1206,1206,1206,1206,1206,1206,1206,1206,1206,1206,1206,1206,1202,1202,1202,1202,1202,1202,1202,1202,1202,1202,1202,1202,1202,1202,1202,1202,1202,1202,1202,1202,1202,1206,1206,1206,1206,1202,1202,1206,1206,1206,1206,1202,1202,1206,1210,1206,1206,1206,1206,1206,1206,1206,1206,1206,1206,1206,1202,1202,1202,1202,1202,1202,1202,1202,1202,1202,1202,1202,1202,1202,1202,1202,1202,1202,1197,1197,1197,1197,1193,1193,1193,1193,1189,1185,1185,1185,1185,1181,1181,1177,1173,1173,1169,1169,1165,1165,1157,1157,1157,1157,1153,1153,1153,1149,1145,1141,1138,1138,1134,1134,1134,1134,1134,1134,1134,1130,1123,1119,1119,1119,1115,1112,1108,1108,1108,1108,1105,1105,1105,1105,1105,1097,948,948,946,943,940,938,938,933,933,930,925,920,918,915,915,0,0,0,0,901,901,898,898,896,891,891,891,891,889,889,887,887,887,885,882,878,875,873,871,871,0,0,0,0,0,0,0,0,0,0,0,0,0,0,0,0,0,0,0,0,0,0,0,0,0,0,0,0,0,0,0,0,0,0,0,0,0
0,0,0,0,0,0,1214,1214,1210,1210,1210,1210,1210,1206,1206,1206,1202,1202,1202,1202,1202,1202,1197,1197,1197,1197,1197,1001,1001,1007,1007,1007,1010,1010,1010,1010,1010,1010,1013,1013,1013,1013,1013,1013,1013,1013,0,0,0,0,0,0,0,0,658,658,658,658,659,661,662,662,664,664,666,667,668,668,670,670,671,671,672,674,674,675,675,675,676,676,678,678,680,680,682,682,682,0,0,0,0,0,0,0,1206,1202,1202,1202,1202,1197,1197,1197,1197,1197,1197,1197,1193,1193,1193,1197,1197,1193,1193,1193,1197,1197,1197,1197,1197,1197,1197,1197,1197,1197,1197,1197,1197,1197,1197,1202,1197,1197,1197,1197,1197,1197,1197,1197,1197,1197,1197,1197,1197,1197,1193,1193,1193,1193,1193,1193,1193,1197,1202,1202,1202,1197,1197,1197,1019,1016,1013,1010,1007,1004,1004,1001,1001,998,998,998,995,995,995,992,992,989,989,989,989,989,989,1206,1206,1206,1202,1202,1197,1197,1197,1197,1197,1197,1197,1197,1197,1197,1197,1197,1197,1197,1197,1197,1197,1197,1197,1197,1197,1197,1197,1202,1197,1197,1197,1197,1197,1202,1197,1197,1197,1197,1197,1202,1202,1202,1202,1202,1197,1197,1197,1197,1197,1197,1197,1197,1197,1197,1197,1197,1197,1197,1197,1202,1202,1202,1197,1197,1202,1202,1202,1197,1197,1197,1197,1197,1197,1202,1202,1202,1202,1202,1197,1197,1197,1197,1197,1202,1202,1202,1202,1202,1202,1202,1202,1206,1206,1202,1202,1202,1202,1197,1197,1197,1197,1197,1193,1193,978,978,978,975,975,973,970,967,962,962,959,959,959,959,959,962,962,964,964,964,967,970,973,975,978,978,978,981,981,981,1210,1210,1206,1202,1202,1202,1202,1202,1206,1206,1206,1206,1206,1206,1206,1206,1206,1206,1206,1206,1206,1202,1202,1202,1206,1202,1202,1202,1206,1206,1206,1206,1210,1210,1210,1210,1210,1210,1210,1210,1210,1210,1210,1210,1210,1206,1206,1206,1206,1206,1206,1206,1206,1206,1206,1206,1202,1202,1202,1202,1202,1206,1202,1202,1202,1202,1202,1202,1202,1202,1206,1202,1202,1202,1202,1202,1202,1202,1202,1202,1202,1202,1202,1202,1202,1202,1206,1206,1206,1206,1206,1206,1206,1206,1206,1206,1206,1202,1202,1210,1210,1210,1206,1206,1206,1202,1202,1206,1206,1206,1206,1202,1202,1202,1202,1202,1202,1202,1202,1202,1202,1202,1202,1202,1202,1202,1202,1197,1197,1197,1197,1197,1197,1197,1197,1197,1197,1197,1197,1197,1202,1202,1202,1202,1202,1202,1202,1202,1202,1202,1202,1202,1202,1202,1202,1202,1202,1202,1202,1202,1202,1202,1202,1202,1202,1202,1202,1202,1202,1202,1202,1202,1202,1202,1202,1202,1202,1197,1197,1197,1202,1202,1202,1197,1197,1197,1197,1197,1197,1197,1197,1197,1197,1193,1193,1193,1193,1189,1185,1185,1185,1185,1181,1181,1177,1173,1173,1169,1169,1165,1165,1165,1161,1157,1153,1153,1153,1153,1149,1145,1141,1138,1138,1138,1134,1134,1134,1134,1134,1130,1130,1123,1123,1119,1119,1115,1112,1108,1108,1108,1108,1108,1108,1105,1105,1105,948,948,946,946,940,938,938,933,933,930,928,920,918,915,913,913,0,906,0,0,0,901,898,896,889,889,889,889,889,889,887,887,885,885,878,878,878,873,871,871,871,0,0,0,0,0,0,0,0,0,0,0,0,0,0,0,0,0,0,0,0,0,0,0,0,0,0,0,0,0,0,0,0,0,0,0,0,0
0,0,0,0,0,0,1210,1210,1210,1210,1210,1210,1210,1206,1206,1202,1202,1202,1202,1197,1197,1197,1197,1197,1197,1197,1007,1007,1007,1007,1007,1007,1010,1010,1010,1010,1010,1010,1013,1013,1013,1013,1013,1013,1013,1013,0,0,0,0,0,0,0,0,659,659,659,659,661,662,662,662,664,666,666,666,668,670,670,670,671,671,672,674,674,675,675,676,676,676,678,679,680,680,682,682,682,0,0,0,0,0,0,0,0,1202,1202,1197,1197,1197,1193,1193,1193,1193,1193,1193,1193,1193,1193,1193,1193,1193,1189,1189,1193,1193,1193,1193,1193,1193,1193,1193,1193,1193,1193,1193,1193,1193,1193,1197,1197,1197,1193,1193,1193,1193,1193,1193,1193,1193,1193,1193,1193,1193,1189,1189,1189,1189,1189,1193,1193,1193,1193,1193,1193,1197,1197,1197,1193,1013,1013,1010,1007,1004,1004,1001,1001,998,998,995,992,992,992,992,989,989,989,989,989,989,989,989,989,1206,1197,1197,1193,1193,1193,1193,1193,1193,1193,1193,1193,1193,1193,1197,1197,1197,1197,1197,1197,1197,1197,1197,1197,1197,1197,1197,1197,1197,1197,1197,1197,1197,1193,1193,1193,1197,1197,1193,1193,1197,1197,1197,1197,1197,1197,1197,1197,1197,1197,1197,1197,1197,1197,1197,1197,1197,1197,1197,1197,1197,1197,1197,1197,1197,1197,1197,1193,1193,1197,1197,1197,1197,1197,1197,1197,1197,1197,1193,1193,1193,1193,1193,1193,1193,1197,1197,1197,1202,1202,1202,1202,1202,1197,1197,1197,1197,1197,1197,1193,1193,1189,1189,978,975,975,978,975,973,970,967,964,962,959,959,959,959,959,962,964,964,964,967,967,970,973,978,978,981,981,981,981,981,1206,1206,1202,1202,1202,1202,1202,1202,1202,1202,1202,1202,1202,1202,1202,1202,1202,1202,1202,1202,1202,1202,1202,1202,1202,1202,1202,1202,1202,1202,1202,1202,1202,1206,1206,1206,1206,1206,1206,1206,1206,1206,1206,1206,1206,1206,1206,1206,1202,1202,1202,1202,1202,1202,1202,1202,1202,1202,1202,1202,1202,1202,1202,1202,1202,1197,1197,1197,1202,1202,1202,1202,1202,1202,1202,1202,1197,1197,1197,1197,1202,1202,1202,1202,1202,1202,1202,1202,1202,1202,1202,1202,1202,1202,1206,1206,1202,1202,1202,1202,1202,1202,1202,1202,1202,1197,1197,1202,1202,1202,1202,1202,1202,1202,1197,1197,1197,1197,1197,1197,1197,1197,1197,1197,1197,1197,1197,1197,1197,1197,1197,1197,1197,1197,1197,1193,1193,1197,1197,1197,1197,1197,1197,1202,1197,1197,1202,1202,1202,1202,1197,1197,1202,1202,1202,1202,1202,1202,1202,1202,1202,1202,1197,1197,1202,1197,1197,1197,1197,1197,1202,1197,1197,1197,1197,1197,1197,1197,1197,1197,1197,1197,1197,1197,1197,1197,1193,1193,1197,1193,1193,1193,1193,1193,1193,1193,1189,1189,1185,1185,1185,1185,1181,1181,1181,1177,1173,1169,1169,1165,1165,1165,1161,1157,1153,1153,1153,1153,1149,1145,1141,1141,1138,1138,1134,1134,1134,1134,1134,1130,1130,1123,1123,1119,1119,1115,1112,1108,1105,1105,1108,1108,956,956,1105,951,951,948,946,943,940,935,933,933,930,925,923,920,918,915,910,908,906,906,906,903,903,898,898,896,889,889,889,889,889,887,887,885,882,882,878,875,873,873,871,871,871,0,0,0,0,0,0,0,0,0,0,0,0,0,0,0,0,0,0,0,0,0,0,0,0,0,0,0,0,0,0,0,0,0,0,0,0,0
0,0,0,0,0,0,1210,1210,1210,1206,1202,1202,1206,1202,1202,1202,1197,1197,1197,1197,1197,1197,1197,1197,1197,1193,1007,1007,1010,1010,1010,1010,1010,1010,1010,1010,1010,1010,1013,1013,1013,1016,1016,1016,1013,1001,1001,0,0,0,0,0,0,0,661,661,661,661,661,662,663,664,664,666,666,666,668,670,670,671,671,671,672,674,674,675,675,676,676,678,679,679,682,682,683,683,682,682,0,0,0,0,0,0,0,1202,1197,1193,1189,1189,1189,1189,1189,1189,1189,1189,1189,1189,1189,1185,1185,1185,1185,1185,1185,1185,1189,1189,1189,1189,1193,1193,1193,1193,1193,1193,1193,1189,1189,1193,1193,1193,1193,1193,1193,1193,1193,1193,1193,1193,1193,1193,1193,1189,1189,1185,1185,1185,1189,1189,1189,1189,1193,1193,1193,1193,1193,1193,1193,1013,1013,1010,1007,1004,1004,1001,1001,998,998,995,992,992,992,989,989,989,989,989,989,989,987,987,987,1197,1197,1193,1193,1193,1193,1193,1193,1193,1193,1193,1193,1193,1193,1193,1193,1193,1193,1193,1193,1193,1193,1193,1193,1193,1193,1193,1193,1193,1193,1193,1193,1193,1193,1193,1193,1193,1193,1193,1193,1193,1193,1197,1193,1193,1197,1197,1197,1197,1193,1193,1193,1193,1193,1193,1193,1193,1193,1193,1193,1193,1193,1193,1193,1193,1193,1189,1189,1189,1193,1193,1197,1197,1197,1197,1193,1193,1193,1193,1193,1189,1189,1193,1193,1193,1193,1193,1197,1197,1197,1197,1197,1197,1197,1193,1193,1193,1193,1193,1193,1189,1189,1189,978,975,975,978,975,975,973,970,967,964,962,959,959,959,962,962,964,964,964,967,970,970,973,978,981,981,981,981,984,984,1202,1202,1197,1197,1197,1197,1197,1197,1197,1197,1197,1197,1197,1202,1202,1202,1202,1202,1202,1202,1202,1197,1197,1197,1202,1202,1202,1202,1202,1202,1202,1197,1197,1202,1202,1202,1202,1202,1202,1202,1202,1202,1202,1202,1202,1202,1202,1202,1202,1202,1197,1197,1202,1197,1197,1197,1197,1197,1197,1197,1197,1197,1197,1197,1197,1197,1197,1197,1197,1197,1197,1193,1193,1193,1197,1193,1193,1193,1197,1197,1197,1197,1197,1197,1197,1197,1202,1202,1202,1202,1202,1202,1202,1202,1202,1202,1202,1202,1202,1197,1197,1197,1197,1197,1197,1193,1193,1197,1197,1197,1197,1197,1197,1197,1197,1197,1197,1197,1197,1197,1193,1193,1197,1197,1193,1193,1193,1193,1197,1193,1193,1193,1193,1193,1193,1189,1189,1193,1193,1193,1193,1193,1193,1197,1197,1197,1197,1197,1197,1197,1197,1197,1197,1197,1197,1197,1197,1197,1197,1197,1197,1197,1193,1193,1197,1197,1197,1197,1197,1197,1197,1197,1197,1197,1193,1193,1193,1189,1189,1193,1193,1193,1193,1193,1193,1193,1193,1193,1193,1193,1189,1189,1189,1189,1189,1189,1189,1189,1185,1185,1185,1185,1181,1181,1181,1181,1173,1173,1169,1165,1165,1165,1165,1161,1157,1153,1153,1153,1149,1145,1141,1141,1138,1138,1138,1134,1134,1134,1134,1130,1130,1123,1123,1123,1119,1115,1115,1112,1105,1105,959,956,956,956,954,954,951,948,943,943,935,935,930,928,925,920,920,918,915,913,910,908,906,901,901,903,903,898,889,889,889,887,887,889,887,885,885,885,882,880,878,875,873,871,871,871,871,0,0,0,0,0,0,0,0,0,0,0,0,0,0,0,0,0,0,0,0,0,0,0,0,0,0,0,0,0,0,0,0,0,0,0,0,0
0,0,0,0,0,0,1206,1206,1202,1202,1197,1197,1202,1202,1202,1202,1197,1197,1197,1197,1197,1197,1197,1193,1193,1193,1010,1010,1010,1010,1010,1010,1010,1013,1010,1010,1010,1010,1013,1013,1013,1016,1016,1016,1013,1001,1001,0,0,0,0,0,0,0,662,662,662,662,662,662,663,664,664,666,666,666,670,670,671,671,671,672,672,674,674,675,675,676,676,678,679,679,682,682,683,683,682,682,0,0,0,0,0,0,0,0,1193,1189,1185,1185,1185,1185,1185,1185,1185,1185,1185,1185,1185,1185,1185,1185,1181,1181,1181,1185,1185,1185,1189,1189,1189,1189,1189,1189,1189,1189,1189,1185,1185,1189,1189,1189,1189,1189,1189,1189,1189,1189,1189,1189,1189,1189,1189,1189,1185,1185,1185,1185,1185,1185,1185,1185,1189,1189,1189,1189,1193,1189,1189,1013,1013,1010,1007,1004,1004,1001,1001,998,992,992,989,989,989,989,989,989,987,987,987,987,987,984,984,984,1197,1193,1193,1193,1193,1193,1189,1189,1189,1189,1189,1189,1189,1189,1193,1193,1193,1193,1193,1193,1189,1189,1189,1189,1189,1189,1189,1189,1193,1193,1193,1193,1189,1189,1189,1189,1189,1189,1189,1189,1189,1193,1193,1193,1193,1193,1193,1193,1193,1193,1193,1193,1193,1193,1193,1193,1193,1193,1193,1193,1193,1193,1189,1189,1189,1185,1185,1185,1189,1189,1193,1193,1193,1193,1193,1193,1193,1189,1189,1189,1189,1189,1189,1189,1193,1193,1193,1193,1193,1193,1193,1193,1193,1193,1193,1193,1193,1193,1189,1189,1185,1185,978,978,978,978,975,975,973,973,967,964,964,962,959,959,962,962,964,964,964,967,970,970,973,978,981,981,981,984,984,984,1197,1197,1197,1197,1197,1197,1197,1197,1197,1197,1197,1197,1197,1197,1197,1197,1197,1197,1197,1197,1197,1197,1193,1193,1197,1197,1197,1197,1197,1197,1197,1197,1197,1197,1197,1197,1197,1197,1202,1202,1197,1197,1202,1202,1202,1202,1197,1197,1197,1197,1197,1197,1197,1193,1193,1193,1189,1189,1193,1193,1193,1193,1193,1197,1197,1197,1193,1193,1193,1193,1193,1193,1193,1193,1193,1193,1193,1193,1193,1193,1197,1197,1197,1197,1197,1197,1197,1197,1197,1197,1197,1193,1193,1193,1197,1197,1197,1197,1197,1197,1197,1193,1193,1197,1193,1193,1193,1197,1197,1197,1197,1197,1193,1193,1193,1189,1189,1189,1189,1189,1189,1189,1189,1193,1193,1189,1189,1189,1193,1189,1189,1189,1189,1189,1189,1189,1189,1189,1189,1189,1189,1189,1189,1189,1189,1189,1189,1197,1197,1197,1197,1197,1197,1197,1197,1197,1193,1193,1193,1193,1193,1193,1189,1189,1189,1189,1193,1189,1189,1193,1193,1193,1193,1193,1193,1193,1189,1189,1189,1189,1189,1189,1189,1189,1185,1185,1185,1185,1185,1185,1185,1185,1185,1185,1185,1185,1185,1185,1185,1181,1181,1181,1181,1181,1181,1181,1173,1173,1173,1169,1165,1165,1165,1161,1157,1157,1153,1153,1149,1149,1145,1141,1138,1138,1138,1138,1138,1134,1134,1130,1130,1126,1123,1123,1123,1119,1115,1112,1112,959,959,956,956,956,954,954,948,946,940,938,933,928,928,925,920,918,918,915,915,910,908,906,903,901,901,898,898,898,0,889,889,887,887,887,887,885,885,882,880,878,878,873,871,871,869,869,869,0,0,0,0,0,0,0,0,0,0,0,0,0,0,0,0,0,0,0,0,0,0,0,0,0,0,0,0,0,0,0,0,0,0,0,0,0
0,0,0,0,0,0,1202,1197,1197,1197,1193,1193,1197,1197,1197,1197,1197,1197,1197,1197,1197,1197,1193,1193,1193,1193,1193,1013,1010,1010,1010,1010,1010,1010,1010,1010,1010,1013,1013,1013,1013,1016,1016,1016,1013,1013,1013,0,0,0,0,0,0,0,663,662,662,662,662,663,663,664,666,666,666,667,670,670,671,671,671,672,674,674,675,675,675,676,676,678,679,679,682,682,683,683,683,683,0,0,0,0,0,0,0,0,1185,1185,1181,1181,1181,1181,1181,1181,1185,1185,1181,1181,1181,1181,1181,1181,1181,1181,1181,1181,1181,1181,1181,1181,1185,1185,1185,1185,1185,1185,1185,1181,1181,1185,1185,1185,1185,1185,1185,1185,1185,1185,1185,1185,1185,1185,1189,1185,1185,1185,1185,1185,1185,1185,1185,1185,1185,1185,1185,1185,1185,1185,1185,1181,1181,1010,1004,1004,1004,1001,992,992,989,989,989,989,987,987,987,987,987,984,984,984,981,981,978,978,978,1193,1193,1189,1189,1189,1189,1189,1189,1189,1189,1189,1189,1189,1189,1189,1189,1189,1189,1189,1185,1185,1185,1185,1185,1185,1189,1189,1189,1189,1189,1189,1185,1185,1185,1185,1185,1185,1185,1185,1189,1185,1185,1185,1185,1185,1185,1185,1189,1189,1193,1193,1189,1189,1189,1189,1189,1189,1189,1193,1189,1189,1189,1185,1185,1185,1185,1185,1185,1185,1189,1189,1193,1193,1193,1193,1189,1189,1189,1189,1185,1185,1185,1189,1189,1189,1193,1193,1193,1193,1189,1189,1189,1185,1185,1185,1189,1189,1189,1185,1181,1181,978,978,978,978,975,975,973,973,970,967,964,964,962,962,962,964,964,964,964,967,970,973,975,981,981,981,981,984,989,989,1193,1193,1193,1193,1193,1193,1193,1193,1193,1193,1193,1193,1193,1193,1193,1193,1193,1193,1193,1193,1193,1193,1193,1193,1193,1197,1193,1193,1197,1197,1193,1193,1193,1197,1197,1197,1197,1197,1197,1197,1197,1197,1197,1197,1197,1197,1197,1197,1193,1193,1193,1193,1193,1189,1189,1185,1185,1185,1189,1189,1189,1189,1193,1193,1193,1193,1193,1193,1189,1189,1189,1189,1189,1189,1189,1189,1189,1189,1193,1193,1193,1193,1197,1197,1197,1197,1197,1197,1193,1193,1193,1193,1189,1189,1189,1189,1189,1193,1193,1193,1193,1193,1193,1189,1189,1189,1185,1185,1185,1185,1189,1189,1193,1193,1193,1189,1189,1189,1185,1185,1185,1185,1185,1189,1189,1189,1189,1189,1189,1189,1185,1185,1185,1189,1189,1185,1185,1189,1189,1185,1185,1185,1185,1185,1185,1185,1185,1185,1185,1189,1189,1193,1193,1193,1193,1193,1189,1189,1189,1189,1189,1189,1189,1185,1185,1189,1189,1189,1189,1189,1189,1189,1189,1189,1185,1185,1185,1185,1185,1185,1185,1185,1185,1185,1185,1185,1181,1181,1181,1181,1185,1185,1185,1185,1185,1185,1185,1181,1181,1181,1181,1181,1181,1181,1181,1177,1169,1169,1173,1169,1169,1165,1165,1161,1157,1157,1153,1153,1149,1149,1145,1141,1141,1138,1138,1138,1138,1134,1134,1130,1130,1126,1123,1123,1123,1119,1115,1115,1115,959,959,959,956,956,954,951,948,946,938,938,930,925,925,923,920,918,918,915,913,910,908,906,903,901,898,898,898,898,891,887,887,887,887,887,887,885,882,882,880,878,875,873,871,871,869,867,867,0,0,0,0,0,0,0,0,0,0,0,0,0,0,0,0,0,0,0,0,0,0,0,0,0,0,0,0,0,0,0,0,0,0,0,0,0
0,0,0,0,0,0,1197,1197,1197,1193,1193,1193,1193,1193,1193,1193,1193,1193,1193,1193,1193,1193,1193,1193,1189,1189,1185,1013,1010,1010,1010,1010,1010,1010,1010,1010,1010,1013,1013,1013,1013,1019,1019,1016,1013,1013,1013,0,0,0,0,0,0,0,663,662,662,662,662,663,664,664,666,666,667,668,670,670,671,671,671,672,674,675,675,675,676,676,676,678,679,680,682,682,683,684,683,683,0,0,0,0,0,0,0,0,1181,1181,1181,1181,1181,1181,1181,1181,1181,1181,1181,1181,1181,1181,1181,1181,1177,1177,1177,1177,1181,1181,1177,1177,1177,1181,1181,1181,1181,1181,1181,1181,1181,1181,1181,1185,1181,1181,1181,1181,1181,1185,1185,1185,1185,1185,1185,1185,1185,1181,1181,1181,1185,1181,1181,1181,1185,1185,1185,1185,1181,1181,1181,1177,1177,1177,1004,1004,1001,998,992,992,989,989,989,987,987,987,987,984,984,981,981,981,978,978,978,978,978,978,1189,1189,1189,1189,1185,1185,1185,1185,1185,1185,1185,1185,1185,1185,1185,1185,1185,1185,1185,1185,1181,1181,1181,1181,1185,1185,1185,1185,1185,1185,1181,1181,1185,1185,1185,1185,1185,1185,1185,1181,1181,1181,1181,1181,1181,1181,1185,1185,1185,1185,1185,1189,1189,1189,1189,1189,1189,1189,1189,1189,1185,1185,1185,1181,1181,1181,1181,1185,1185,1185,1189,1189,1189,1189,1189,1189,1185,1185,1185,1185,1185,1185,1185,1185,1189,1189,1189,1185,1185,1185,1185,1185,1181,1181,1185,1185,1185,1181,1181,978,978,978,975,975,975,975,975,973,973,967,967,964,962,962,962,964,964,964,967,970,973,973,975,981,981,981,984,984,989,989,1193,1193,1193,1193,1189,1189,1189,1189,1189,1189,1189,1189,1189,1189,1189,1189,1189,1189,1189,1189,1189,1189,1189,1193,1193,1193,1193,1193,1193,1193,1193,1189,1189,1193,1193,1197,1193,1193,1193,1189,1189,1185,1185,1189,1189,1193,1193,1193,1189,1189,1189,1189,1189,1189,1185,1185,1185,1185,1185,1185,1189,1189,1189,1193,1193,1189,1189,1189,1189,1189,1189,1189,1189,1189,1189,1189,1189,1189,1189,1193,1193,1193,1193,1193,1193,1193,1189,1189,1189,1185,1185,1185,1185,1185,1185,1185,1185,1185,1189,1189,1189,1185,1185,1185,1185,1185,1185,1185,1185,1185,1185,1185,1189,1189,1189,1189,1189,1185,1185,1185,1185,1185,1185,1185,1185,1185,1185,1185,1185,1185,1185,1185,1185,1181,1181,1181,1185,1185,1185,1185,1185,1185,1185,1185,1185,1181,1181,1181,1181,1181,1181,1181,1185,1185,1185,1189,1185,1185,1185,1185,1185,1185,1185,1185,1185,1185,1185,1185,1185,1185,1185,1185,1185,1185,1185,1181,1181,1181,1181,1181,1181,1181,1181,1181,1181,1181,1181,1181,1181,1181,1181,1181,1181,1181,1181,1181,1181,1181,1181,1181,1181,1181,1181,1177,1177,1177,1169,1169,1169,1169,1169,1165,1165,1161,1157,1157,1153,1153,1149,1149,1145,1145,1141,1141,1138,1134,1134,1134,1134,1134,1130,1126,1123,1123,1123,1123,1123,959,959,959,959,959,956,954,954,951,948,943,935,930,930,925,923,923,920,918,915,915,913,908,906,906,901,898,896,896,896,891,891,887,887,887,887,885,885,885,882,878,878,878,875,873,871,871,869,867,867,0,0,0,0,0,0,0,0,0,0,0,0,0,0,0,0,0,0,0,0,0,0,0,0,0,0,0,0,0,0,0,0,0,0,0,0,0
0,0,0,0,0,1193,1193,1193,1193,1193,1189,1189,1189,1189,1189,1189,1189,1189,1189,1193,1193,1193,1193,1193,1189,1189,1185,1181,1010,1010,1010,1010,1010,1013,1010,1010,1013,1016,1016,1016,1016,1019,1019,1016,1013,1013,1013,0,0,0,0,0,0,0,663,662,662,662,662,663,663,664,666,666,667,668,670,670,671,671,672,674,674,675,675,675,676,676,676,678,679,680,682,682,683,684,683,683,0,0,0,0,0,0,0,0,1173,1173,1173,1177,1177,1177,1177,1177,1177,1181,1177,1177,1177,1177,1177,1177,1177,1177,1177,1177,1177,1177,1177,1177,1177,1177,1177,1177,1177,1181,1177,1177,1177,1177,1177,1181,1177,1177,1181,1181,1181,1181,1181,1181,1181,1181,1181,1181,1181,1181,1181,1181,1181,1181,1181,1181,1181,1181,1181,1181,1181,1181,1177,1177,1177,1177,1173,1173,1001,998,992,992,989,989,989,987,987,984,984,984,978,978,978,978,978,978,975,975,975,975,975,1189,1189,1185,1185,1185,1185,1181,1181,1181,1181,1181,1181,1181,1181,1181,1181,1181,1181,1181,1181,1181,1181,1181,1181,1181,1181,1181,1181,1181,1177,1177,1181,1181,1181,1181,1181,1181,1181,1177,1177,1177,1177,1177,1181,1181,1181,1181,1181,1181,1181,1181,1181,1181,1181,1185,1185,1185,1185,1185,1185,1181,1181,1181,1181,1181,1181,1181,1181,1185,1185,1185,1189,1189,1185,1185,1185,1181,1181,1181,1181,1181,1181,1181,1181,1181,1181,1181,1181,1181,1181,1181,1181,1181,1181,1181,1177,1177,978,975,975,975,975,975,975,975,973,973,973,970,967,964,964,964,964,964,964,967,967,970,973,975,978,981,984,984,984,987,989,1185,1185,1185,1185,1189,1189,1189,1189,1189,1185,1185,1185,1185,1185,1185,1185,1185,1185,1185,1185,1185,1185,1185,1185,1189,1189,1189,1189,1189,1189,1189,1189,1189,1189,1189,1189,1193,1189,1189,1189,1185,1185,1185,1185,1185,1181,1181,1189,1189,1185,1185,1185,1185,1185,1185,1185,1181,1181,1185,1185,1185,1185,1185,1189,1189,1189,1185,1185,1185,1185,1185,1189,1185,1185,1185,1185,1185,1185,1185,1185,1189,1189,1189,1189,1189,1185,1185,1185,1185,1185,1181,1181,1185,1185,1185,1185,1185,1181,1181,1181,1181,1185,1185,1181,1181,1181,1181,1181,1181,1181,1181,1181,1181,1185,1189,1185,1185,1185,1185,1185,1185,1185,1181,1181,1185,1185,1185,1185,1185,1185,1185,1181,1181,1181,1181,1181,1181,1181,1181,1181,1181,1181,1181,1181,1181,1181,1181,1181,1181,1177,1177,1177,1177,1177,1177,1185,1185,1185,1185,1181,1181,1185,1185,1185,1185,1185,1185,1185,1185,1185,1181,1181,1181,1181,1181,1181,1181,1181,1181,1181,1181,1181,1177,1177,1177,1181,1177,1177,1177,1177,1177,1181,1181,1181,1181,1181,1181,1181,1181,1177,1177,1177,1177,1177,1177,1177,1177,1169,1169,1169,1169,1169,1169,1169,1165,1161,1157,1157,1153,1149,1149,1149,1145,1145,1141,1141,1134,1134,1134,1134,1130,1126,1126,1123,1123,1123,1123,1123,959,959,956,956,956,956,954,954,948,943,933,933,928,928,923,923,920,920,918,915,915,913,908,906,903,901,898,896,896,896,889,889,887,887,887,887,885,885,885,882,878,878,875,875,873,871,869,869,867,867,0,0,0,0,0,0,0,0,0,0,0,0,0,0,0,0,0,0,0,0,0,0,0,0,0,0,0,0,0,0,0,0,0,0,0,0,0
0,0,0,0,0,1193,1193,1189,1189,1189,1189,1185,1185,1185,1185,1185,1185,1185,1185,1185,1189,1189,1193,1193,1189,1185,1177,1173,1013,1013,1013,1013,1013,1013,1013,1013,1013,1016,1016,1016,1016,1022,1019,1016,1013,1013,1013,0,0,0,0,0,0,0,662,662,662,662,662,663,663,664,666,666,667,668,670,670,671,672,672,674,675,675,676,676,676,676,678,678,679,680,682,683,683,684,684,684,0,0,0,0,0,0,0,1165,1165,1169,1169,1173,1173,1173,1173,1177,1177,1177,1177,1177,1177,1177,1177,1177,1177,1173,1173,1173,1173,1173,1173,1173,1173,1177,1177,1177,1177,1177,1177,1173,1173,1177,1177,1177,1177,1177,1177,1177,1177,1177,1177,1177,1177,1177,1177,1177,1177,1181,1181,1181,1177,1177,1177,1181,1177,1177,1177,1177,1177,1177,1177,1173,1173,1173,1173,1173,1169,998,995,992,989,987,987,984,984,984,981,981,978,978,978,975,975,975,975,975,973,973,973,973,1189,1185,1185,1185,1181,1181,1181,1181,1177,1177,1177,1177,1177,1177,1177,1177,1177,1177,1177,1177,1177,1177,1177,1177,1177,1177,1177,1177,1173,1173,1177,1177,1177,1177,1177,1177,1177,1177,1177,1177,1177,1177,1177,1177,1177,1177,1177,1177,1181,1181,1177,1177,1177,1177,1177,1181,1181,1181,1181,1181,1181,1181,1181,1177,1177,1181,1181,1181,1181,1181,1181,1181,1181,1181,1181,1181,1181,1181,1177,1177,1181,1181,1181,1181,1181,1181,1181,1181,1181,1177,1177,1177,1177,1177,1173,970,970,973,973,975,975,975,975,975,973,973,970,970,967,967,964,964,964,964,964,967,967,970,975,975,978,984,987,987,987,987,987,1181,1181,1181,1185,1185,1185,1185,1185,1185,1185,1185,1185,1185,1185,1181,1181,1181,1181,1181,1181,1181,1181,1181,1185,1185,1185,1185,1185,1185,1185,1185,1185,1185,1185,1185,1185,1185,1185,1185,1185,1181,1181,1181,1181,1181,1177,1177,1177,1181,1181,1181,1181,1185,1181,1181,1181,1181,1181,1181,1185,1185,1185,1185,1185,1185,1185,1185,1185,1185,1185,1185,1185,1185,1185,1185,1185,1185,1185,1185,1185,1185,1185,1185,1189,1189,1185,1185,1181,1181,1181,1181,1181,1181,1181,1181,1181,1181,1181,1181,1181,1181,1177,1177,1177,1181,1181,1181,1181,1181,1181,1181,1181,1181,1185,1185,1185,1185,1185,1185,1181,1181,1181,1181,1181,1181,1181,1181,1181,1181,1181,1181,1181,1181,1181,1181,1181,1177,1177,1177,1177,1181,1181,1177,1177,1181,1181,1177,1177,1177,1177,1173,1173,1173,1173,1173,1177,1177,1181,1181,1181,1181,1181,1181,1181,1181,1181,1181,1181,1181,1181,1181,1181,1177,1177,1177,1177,1177,1177,1177,1177,1177,1177,1173,1173,1177,1177,1177,1177,1177,1177,1177,1181,1177,1177,1177,1181,1181,1181,1177,1177,1177,1173,1173,1173,1173,1173,1173,1169,1169,1169,1169,1169,1169,1169,1165,1161,1157,1157,1153,1153,1149,1149,1149,1145,1145,1141,1138,1138,1134,1134,1130,1126,1126,1123,1123,1123,1123,1123,956,956,956,956,956,956,954,951,946,940,933,930,928,925,923,920,920,918,918,915,913,913,908,906,903,898,896,896,887,887,887,887,887,887,887,887,885,885,885,882,878,878,875,875,871,871,869,867,867,867,0,0,0,0,0,0,0,0,0,0,0,0,0,0,0,0,0,0,0,0,0,0,0,0,0,0,0,0,0,0,0,0,0,0,0,0,0
0,0,0,0,0,1193,1193,1189,1189,1189,1189,1185,1185,1185,1181,1181,1181,1181,1181,1181,1185,1185,1189,1189,1189,1185,1177,1173,1013,1013,1013,1013,1013,1013,1013,1013,1016,1016,1019,1019,1022,1022,1022,1019,1019,1019,1019,1022,0,0,0,0,0,0,662,662,662,662,662,663,663,664,666,667,667,668,670,670,671,672,672,674,675,675,676,676,676,678,678,679,680,682,682,683,684,684,686,0,0,0,0,0,0,0,1165,1165,1165,1169,1169,1169,1165,1165,1165,1165,1173,1173,1177,1177,1177,1177,1177,1177,1173,1173,1173,1173,1169,1169,1169,1169,1173,1173,1173,1173,1173,1173,1173,1173,1173,1173,1173,1173,1173,1173,1173,1173,1177,1177,1173,1173,1173,1173,1177,1177,1177,1177,1177,1177,1177,1177,1177,1177,1177,1177,1177,1177,1177,1177,1173,1173,1173,1173,1173,1169,1169,1169,1165,987,987,987,984,981,978,978,978,975,975,975,975,975,975,975,973,973,973,973,973,973,973,1181,1181,1181,1181,1177,1177,1177,1177,1173,1173,1173,1173,1173,1173,1173,1177,1177,1177,1177,1177,1177,1173,1173,1173,1169,1169,1169,1169,1169,1173,1177,1177,1177,1173,1173,1177,1173,1173,1173,1173,1173,1177,1177,1177,1177,1177,1177,1177,1177,1177,1173,1173,1173,1173,1173,1173,1177,1177,1181,1177,1177,1177,1177,1177,1177,1177,1177,1177,1177,1181,1181,1181,1177,1177,1177,1177,1177,1177,1177,1177,1177,1177,1177,1177,1177,1177,1177,1177,1177,1177,1177,1173,1173,1169,967,967,970,970,973,973,973,973,973,973,973,970,970,967,967,967,967,964,964,967,967,970,973,975,978,978,984,987,987,987,989,989,1181,1181,1181,1185,1185,1185,1185,1185,1181,1181,1181,1181,1181,1181,1181,1181,1181,1181,1181,1181,1181,1181,1181,1181,1181,1185,1185,1185,1181,1181,1181,1181,1181,1181,1181,1185,1185,1185,1185,1181,1181,1181,1177,1177,1177,1177,1173,1173,1177,1177,1177,1177,1177,1181,1181,1181,1181,1181,1181,1181,1181,1181,1181,1185,1185,1181,1181,1181,1181,1181,1181,1185,1185,1185,1185,1181,1181,1181,1181,1185,1185,1185,1185,1185,1185,1181,1181,1181,1177,1177,1181,1181,1181,1181,1181,1181,1177,1177,1177,1177,1177,1173,1173,1173,1173,1177,1177,1177,1181,1181,1181,1181,1181,1181,1181,1181,1181,1181,1181,1181,1181,1181,1177,1177,1181,1181,1181,1181,1181,1181,1181,1181,1181,1181,1177,1177,1177,1169,1169,1173,1173,1173,1173,1177,1177,1177,1177,1173,1173,1173,1169,1169,1169,1169,1173,1173,1173,1177,1177,1181,1181,1181,1181,1181,1181,1181,1177,1177,1177,1177,1177,1177,1177,1177,1177,1177,1173,1173,1173,1173,1173,1173,1173,1173,1169,1169,1177,1173,1173,1173,1173,1177,1177,1177,1177,1177,1177,1173,1173,1173,1173,1173,1173,1169,1169,1169,1169,1169,1169,1169,1169,1169,1169,1169,1165,1161,1157,1157,1153,1153,1149,1149,1149,1145,1145,1141,1138,1138,1134,1134,1134,1130,1126,1123,1123,1123,1123,959,959,956,956,956,956,954,951,948,943,940,930,928,925,920,920,918,918,918,915,915,913,913,908,906,903,898,896,896,887,885,885,887,887,887,887,887,885,882,882,880,878,878,875,875,871,869,869,867,864,864,0,0,0,0,0,0,0,0,0,0,0,0,0,0,0,0,0,0,0,0,0,0,0,0,0,0,0,0,0,0,0,0,0,0,0,0,0
0,0,0,0,0,1193,1193,1189,1189,1189,1189,1185,1185,1181,1181,1181,1181,1181,1177,1177,1173,1173,1173,1185,1185,1181,1173,1173,1016,1013,1013,1013,1013,1013,1013,1013,1016,1016,1019,1019,1022,1022,1022,1022,1022,1022,1022,1022,0,0,0,0,0,0,662,662,662,662,662,664,664,664,666,667,668,670,670,671,671,672,672,674,675,676,678,678,678,678,679,679,680,682,683,683,686,686,686,0,0,0,0,0,0,0,1165,1165,1165,1165,1165,1165,1165,1165,1165,1165,1165,1165,1165,1169,1173,1173,1173,1173,1173,1169,1169,1169,1169,1169,1169,1169,1169,1169,1169,1169,1169,1169,1169,1169,1169,1169,1169,1173,1169,1169,1169,1173,1173,1173,1169,1169,1169,1173,1173,1173,1173,1173,1173,1173,1173,1169,1169,1173,1173,1173,1173,1173,1173,1173,1173,1169,1169,1169,1169,1169,1165,1165,1165,987,987,984,981,981,978,978,975,975,973,973,973,973,973,973,970,970,970,970,973,973,973,1181,1181,1181,1177,1177,1177,1177,1173,1173,1169,1169,1169,1169,1169,1173,1173,1173,1173,1173,1173,1173,1169,1169,1169,1169,1169,1169,1169,1169,1169,1177,1177,1177,1173,1173,1173,1173,1173,1173,1173,1173,1173,1173,1173,1173,1173,1173,1173,1173,1173,1169,1169,1169,1169,1169,1169,1169,1169,1169,1173,1173,1173,1173,1173,1173,1173,1173,1173,1173,1177,1177,1177,1177,1177,1173,1173,1177,1173,1173,1173,1177,1177,1177,1177,1177,1177,1177,1177,1173,1173,1173,1169,970,970,967,967,967,970,970,970,970,973,973,973,973,970,970,967,967,967,967,967,967,967,970,970,973,975,978,981,984,987,987,989,989,989,1181,1181,1181,1181,1181,1181,1181,1181,1181,1181,1177,1177,1181,1181,1181,1181,1181,1177,1177,1177,1177,1177,1177,1177,1177,1181,1181,1181,1181,1181,1181,1181,1181,1181,1181,1177,1177,1181,1181,1181,1177,1177,1177,1173,1173,1173,1173,1173,1173,1173,1173,1177,1177,1173,1173,1177,1177,1177,1177,1181,1181,1181,1181,1181,1181,1181,1181,1181,1181,1181,1181,1181,1181,1181,1181,1181,1181,1181,1181,1181,1181,1181,1181,1185,1185,1181,1181,1177,1177,1177,1177,1177,1177,1177,1177,1177,1177,1173,1173,1173,1173,1173,1169,1169,1173,1173,1173,1173,1177,1177,1177,1177,1181,1181,1181,1177,1177,1177,1177,1177,1177,1177,1177,1177,1177,1177,1177,1177,1177,1177,1177,1177,1177,1177,1177,1177,1169,1169,1169,1169,1169,1169,1169,1173,1173,1173,1173,1169,1169,1169,1169,1169,1169,1169,1169,1169,1169,1177,1177,1177,1177,1177,1177,1177,1177,1177,1173,1173,1173,1173,1173,1173,1169,1169,1169,1173,1173,1169,1169,1169,1169,1169,1169,1169,1169,1169,1173,1173,1173,1173,1173,1173,1173,1169,1169,1173,1173,1169,1169,1169,1169,1169,1169,1169,1169,1169,1169,1169,1169,1169,1169,1169,1169,1169,1165,1161,1157,1157,1153,1153,1153,1149,1149,1149,1149,1145,1138,1138,1138,1134,1134,1130,1126,1126,1123,1123,959,959,959,956,956,956,954,954,951,946,938,938,930,928,925,920,915,913,913,915,915,913,910,908,906,906,906,889,889,887,887,885,885,885,885,885,885,885,885,882,882,878,878,878,875,873,871,869,867,862,862,862,0,0,0,0,0,0,0,0,0,0,0,0,0,0,0,0,0,0,0,0,0,0,0,0,0,0,0,0,0,0,0,0,0,0,0,0,0
0,0,0,0,0,1189,1189,1185,1185,1189,1185,1181,1181,1181,1177,1177,1177,1177,1173,1169,1165,1165,1165,1169,1165,1165,1165,1169,1169,1169,1016,1016,1016,1016,1013,1013,1016,1019,1019,1019,1022,1022,1025,1025,1025,1025,1025,1025,0,0,0,0,0,0,662,662,662,663,663,664,664,666,667,668,668,670,671,671,671,672,672,675,676,676,678,678,678,679,679,680,680,682,683,683,684,686,686,0,0,0,0,0,0,0,1165,1165,1165,1165,1165,1165,1165,1165,1161,1161,1165,1165,1165,1165,1165,1165,1165,1169,1169,1169,1169,1169,1169,1169,1169,1169,1169,1169,1165,1165,1165,1165,1165,1165,1165,1165,1165,1169,1169,1169,1169,1169,1169,1169,1165,1165,1165,1169,1169,1169,1169,1169,1169,1169,1165,1165,1165,1165,1173,1173,1173,1173,1169,1169,1169,1165,1165,1165,1165,1165,1165,1165,1165,984,984,984,981,978,978,975,975,973,973,970,970,970,970,967,967,967,967,967,970,970,970,1181,1181,1181,1177,1177,1173,1173,1173,1169,1169,1165,1165,1165,1165,1169,1169,1169,1169,1173,1173,1169,1169,1169,1165,1165,1165,1165,1165,1165,1165,1169,1169,1173,1169,1169,1173,1169,1169,1173,1173,1173,1169,1169,1169,1169,1169,1169,1169,1169,1169,1169,1165,1165,1165,1165,1165,1165,1165,1165,1169,1165,1165,1165,1165,1169,1169,1169,1169,1169,1169,1169,1169,1169,1169,1169,1173,1173,1169,1169,1173,1173,1177,1177,1177,1177,1177,1177,1173,1173,1173,1173,970,970,970,967,967,967,967,970,970,970,970,970,970,970,967,967,967,967,967,967,967,970,970,973,975,975,978,978,981,984,987,987,989,989,989,1181,1181,1181,1181,1181,1181,1181,1177,1177,1177,1177,1177,1177,1177,1177,1177,1177,1177,1177,1173,1173,1173,1177,1173,1173,1173,1173,1177,1177,1173,1173,1177,1177,1177,1177,1173,1173,1173,1173,1173,1173,1173,1173,1173,1173,1173,1173,1173,1173,1173,1173,1173,1169,1169,1169,1169,1169,1177,1177,1177,1177,1177,1177,1181,1181,1177,1177,1177,1177,1177,1177,1177,1177,1177,1177,1177,1173,1173,1177,1177,1177,1177,1177,1181,1177,1177,1177,1177,1173,1173,1177,1177,1177,1177,1177,1173,1173,1173,1173,1169,1169,1169,1169,1169,1173,1173,1173,1173,1173,1173,1169,1169,1173,1173,1173,1169,1169,1173,1173,1173,1173,1173,1173,1173,1173,1177,1177,1173,1173,1173,1173,1177,1173,1173,1173,1173,1169,1165,1165,1165,1169,1169,1169,1169,1173,1173,1173,1169,1169,1169,1169,1165,1165,1165,1165,1165,1165,1169,1169,1169,1177,1173,1173,1173,1173,1173,1173,1169,1169,1173,1173,1173,1169,1169,1169,1169,1169,1169,1165,1165,1169,1169,1169,1169,1169,1169,1169,1169,1169,1169,1169,1169,1169,1169,1169,1169,1169,1165,1165,1169,1169,1169,1169,1169,1165,1165,1165,1169,1165,1165,1165,1165,1165,1165,1165,1161,1157,1157,1153,1153,1153,1153,1149,1149,1149,1149,1141,1141,1138,1138,1134,1130,1130,1126,1123,1123,959,959,959,956,956,954,951,951,948,943,935,933,930,925,918,915,913,913,910,910,910,910,908,906,906,889,889,889,889,887,887,885,885,885,885,885,885,885,882,880,880,878,875,875,873,871,869,864,864,862,860,860,0,0,0,0,0,0,0,0,0,0,0,0,0,0,0,0,0,0,0,0,0,0,0,0,0,0,0,0,0,0,0,0,0,0,0,0,0
0,0,0,0,0,1185,1185,1181,1181,1185,1181,1181,1181,1177,1177,1177,1173,1173,1169,1165,1165,1165,1165,1165,1165,1165,1165,1165,1165,1165,1019,1019,1016,1016,1016,1016,1019,1019,1019,1022,1025,1025,1025,1025,1025,1025,1025,1025,0,0,0,0,0,0,662,662,662,663,664,664,666,666,667,668,670,670,671,671,671,672,674,675,676,676,678,678,679,679,680,680,682,682,683,683,684,686,687,688,0,0,0,0,0,0,1165,1161,1161,1161,1161,1165,1161,1161,1161,1161,1161,1161,1161,1161,1161,1161,1161,1161,1161,1161,1165,1165,1165,1165,1165,1165,1165,1165,1165,1161,1161,1161,1161,1161,1161,1165,1165,1165,1165,1165,1165,1165,1165,1165,1165,1165,1165,1165,1165,1165,1165,1165,1165,1165,1165,1161,1161,1165,1165,1165,1169,1169,1165,1165,1165,1165,1165,1165,1165,1165,1161,1161,1161,981,981,981,981,978,978,975,973,970,970,967,967,967,967,967,967,964,964,964,967,967,967,967,1181,1181,1177,1177,1173,1169,1169,1169,1165,1165,1165,1165,1165,1165,1165,1165,1165,1169,1169,1165,1165,1165,1165,1165,1165,1165,1165,1165,1165,1165,1165,1165,1165,1165,1169,1169,1169,1169,1169,1169,1169,1169,1169,1169,1169,1169,1169,1165,1165,1165,1165,1165,1165,1165,1165,1165,1165,1165,1165,1165,1165,1165,1165,1165,1165,1165,1165,1165,1165,1165,1169,1169,1169,1169,1169,1169,1169,1169,1169,1173,1173,1173,1173,1173,1173,1173,1173,1169,967,967,967,967,967,967,967,967,967,967,967,967,970,970,967,967,967,967,967,967,967,967,967,970,970,973,975,975,978,978,981,987,987,989,989,989,989,1181,1181,1181,1177,1177,1177,1177,1177,1173,1173,1173,1173,1173,1173,1173,1177,1177,1173,1173,1173,1173,1173,1173,1169,1169,1173,1173,1173,1173,1173,1173,1173,1173,1173,1169,1169,1173,1173,1173,1173,1173,1173,1173,1173,1169,1169,1173,1169,1169,1173,1169,1169,1169,1169,1169,1169,1169,1169,1169,1169,1177,1173,1173,1177,1177,1173,1173,1173,1173,1173,1173,1173,1173,1173,1173,1169,1169,1173,1173,1173,1173,1173,1173,1173,1173,1173,1173,1173,1173,1173,1173,1173,1173,1169,1169,1169,1169,1169,1169,1169,1169,1169,1169,1169,1169,1169,1169,1169,1169,1169,1169,1169,1169,1169,1169,1169,1169,1169,1169,1169,1169,1169,1169,1173,1173,1173,1173,1173,1173,1173,1173,1169,1169,1169,1165,1165,1165,1165,1165,1165,1165,1165,1165,1169,1169,1169,1169,1169,1169,1169,1165,1165,1165,1165,1165,1165,1165,1165,1165,1165,1165,1169,1169,1169,1169,1169,1169,1169,1169,1169,1169,1169,1169,1169,1169,1169,1169,1165,1165,1165,1165,1165,1165,1165,1165,1165,1169,1169,1169,1169,1169,1169,1169,1165,1165,1165,1165,1165,1165,1165,1165,1165,1165,1165,1165,1165,1165,1165,1165,1165,1165,1165,1165,1165,1161,1161,1157,1157,1153,1153,1153,1153,1149,1149,1149,1149,1145,1141,1138,1138,1134,1134,1130,1130,1130,959,959,959,956,954,954,951,948,948,946,940,930,928,925,918,915,913,910,910,910,908,908,906,906,901,891,889,887,887,887,885,885,885,885,885,885,885,882,882,882,880,878,875,875,871,871,869,867,864,864,862,860,860,0,0,0,0,0,0,0,0,0,0,0,0,0,0,0,0,0,0,0,0,0,0,0,0,0,0,0,0,0,0,0,0,0,0,0,0,0
0,0,0,0,0,1185,1185,1181,1181,1181,1181,1177,1177,1173,1169,1169,1169,1169,1169,1165,1165,1165,1165,1165,1165,1161,1161,1161,1161,1161,1157,1019,1016,1016,1016,1016,1019,1019,1019,1022,1025,1025,1025,1025,1025,1025,1025,1025,0,0,0,0,0,0,663,662,662,663,663,664,666,666,667,668,670,670,671,671,672,674,674,675,676,676,678,678,679,680,680,682,682,683,684,684,686,686,687,688,0,0,0,0,0,0,0,1161,1161,1161,1161,1161,1161,1161,1161,1161,1161,1161,1161,1161,1161,1161,1161,1161,1157,1157,1161,1161,1161,1161,1165,1165,1165,1165,1161,1161,1161,1161,1161,1161,1161,1161,1161,1161,1161,1161,1161,1161,1161,1161,1165,1165,1165,1165,1165,1165,1165,1165,1165,1161,1161,1157,1157,1161,1161,1161,1165,1165,1165,1165,1161,1161,1161,1161,1161,1161,1161,1161,1157,981,981,981,978,978,978,975,973,970,967,967,964,964,964,964,964,964,964,962,962,959,959,959,1181,1181,1177,1173,1169,1169,1165,1165,1165,1165,1165,1165,1165,1165,1165,1165,1165,1165,1165,1165,1165,1165,1165,1161,1161,1161,1161,1161,1161,1161,1161,1161,1165,1165,1165,1165,1165,1165,1165,1165,1165,1165,1165,1165,1165,1165,1165,1165,1165,1165,1165,1165,1165,1165,1165,1165,1161,1161,1161,1161,1161,1161,1161,1161,1161,1161,1161,1161,1161,1165,1165,1165,1165,1165,1165,1165,1165,1165,1165,1169,1169,1173,1169,1169,1169,1169,1169,967,967,967,967,967,967,967,967,967,967,967,967,967,967,967,967,967,967,967,967,967,967,967,967,970,973,973,975,975,978,978,981,987,987,989,989,989,989,989,1173,1173,1169,1169,1173,1173,1169,1169,1169,1169,1169,1169,1169,1169,1173,1169,1169,1169,1169,1169,1169,1169,1169,1169,1169,1169,1169,1169,1169,1169,1169,1169,1169,1169,1169,1169,1169,1169,1169,1169,1169,1169,1169,1169,1169,1169,1169,1169,1169,1169,1169,1169,1169,1169,1165,1165,1165,1169,1169,1169,1169,1169,1173,1173,1173,1169,1169,1169,1169,1169,1169,1169,1169,1169,1169,1169,1169,1173,1169,1169,1169,1169,1169,1169,1169,1169,1169,1169,1169,1169,1165,1165,1165,1165,1165,1165,1165,1165,1165,1165,1165,1165,1165,1165,1165,1161,1161,1161,1165,1165,1165,1165,1165,1165,1165,1165,1169,1169,1169,1169,1169,1169,1169,1169,1169,1169,1169,1169,1169,1169,1169,1169,1169,1165,1165,1165,1165,1165,1165,1165,1165,1165,1165,1165,1165,1169,1165,1165,1169,1165,1165,1165,1161,1161,1161,1161,1165,1161,1161,1165,1169,1165,1165,1165,1165,1165,1165,1165,1165,1165,1165,1165,1165,1165,1165,1165,1165,1165,1161,1161,1161,1161,1165,1165,1165,1165,1165,1165,1165,1165,1165,1165,1165,1165,1165,1161,1161,1161,1161,1161,1165,1165,1165,1165,1165,1165,1165,1161,1161,1165,1165,1165,1161,1157,1157,1157,1157,1153,1153,1153,1153,1149,1149,1149,1145,1145,1141,1141,1138,1134,1134,1134,1134,959,959,959,956,956,951,951,948,946,946,943,938,930,928,918,915,913,910,908,908,908,906,906,906,901,896,891,889,887,887,887,885,885,885,885,882,882,882,882,882,880,878,878,875,873,871,871,867,867,864,864,862,862,862,0,0,0,0,0,0,0,0,0,0,0,0,0,0,0,0,0,0,0,0,0,0,0,0,0,0,0,0,0,0,0,0,0,0,0,0,0
0,0,0,0,0,1181,1181,1177,1177,1177,1177,1173,1169,1169,1169,1165,1165,1165,1165,1161,1161,1161,1165,1165,1161,1161,1161,1161,1161,1157,1157,1019,1016,1016,1016,1016,1019,1019,1019,1025,1025,1028,1028,1028,1025,1025,1025,1025,0,0,0,0,0,0,663,663,663,663,663,666,667,667,667,670,670,670,671,672,672,674,675,675,676,676,678,678,679,680,680,682,682,683,684,684,686,686,687,688,690,0,0,0,0,0,0,1161,1161,1157,1157,1157,1157,1157,1157,1157,1157,1157,1157,1157,1157,1157,1157,1157,1157,1157,1157,1157,1157,1157,1157,1157,1161,1161,1161,1161,1157,1157,1161,1161,1161,1161,1157,1157,1161,1157,1157,1157,1157,1157,1161,1161,1161,1161,1161,1165,1161,1161,1161,1161,1161,1157,1157,1157,1157,1161,1161,1161,1161,1161,1161,1161,1161,1161,1161,1157,1157,1157,1153,1153,1153,981,978,978,978,975,973,970,967,964,964,962,962,962,962,962,962,959,959,956,956,956,956,956,956,1173,1169,1165,1165,1165,1161,1161,1165,1161,1161,1161,1161,1161,1161,1161,1161,1161,1161,1161,1161,1161,1161,1161,1161,1157,1157,1157,1157,1161,1161,1161,1161,1161,1161,1165,1165,1165,1165,1165,1165,1165,1161,1161,1161,1161,1161,1161,1161,1161,1161,1161,1161,1161,1161,1161,1161,1161,1161,1161,1161,1161,1161,1161,1161,1161,1161,1161,1161,1161,1161,1161,1161,1161,1165,1165,1165,1165,1165,1169,1169,1169,1169,1169,962,962,964,964,967,964,964,964,964,964,964,964,964,964,967,967,967,967,967,967,967,967,967,970,970,970,973,975,975,975,978,978,981,987,987,989,989,989,989,989,1169,1169,1165,1165,1165,1165,1165,1169,1169,1165,1165,1165,1165,1169,1169,1169,1169,1169,1169,1169,1169,1169,1169,1169,1165,1165,1165,1165,1165,1165,1165,1165,1165,1165,1165,1169,1169,1169,1169,1169,1169,1169,1169,1169,1169,1169,1169,1169,1169,1169,1169,1165,1165,1165,1165,1165,1165,1165,1165,1165,1165,1169,1169,1169,1169,1169,1169,1169,1169,1165,1165,1169,1169,1169,1169,1169,1169,1169,1169,1169,1169,1165,1165,1165,1169,1169,1169,1169,1169,1169,1165,1165,1165,1165,1165,1161,1161,1161,1165,1165,1161,1161,1161,1165,1161,1157,1157,1157,1161,1161,1161,1161,1161,1161,1165,1165,1165,1165,1165,1165,1165,1165,1165,1165,1165,1165,1165,1165,1165,1165,1165,1165,1165,1161,1161,1161,1161,1161,1161,1161,1161,1161,1161,1165,1165,1165,1165,1161,1161,1165,1165,1161,1161,1161,1161,1161,1161,1161,1161,1161,1161,1161,1161,1161,1161,1161,1161,1161,1161,1161,1165,1161,1161,1161,1161,1161,1161,1161,1161,1161,1161,1161,1165,1165,1165,1165,1165,1165,1165,1165,1165,1165,1153,1153,1153,1161,1157,1157,1157,1157,1161,1161,1165,1165,1165,1161,1161,1161,1161,1161,1161,1157,1157,1157,1157,1153,1153,1153,1153,1153,1153,1149,1149,1149,1145,1145,1141,1141,1138,1134,1134,1134,1134,956,956,956,954,954,948,948,946,946,943,943,938,928,925,918,915,910,910,908,908,908,906,906,903,901,896,889,887,887,887,885,885,885,885,882,882,882,882,880,880,878,875,875,873,873,869,869,867,867,864,864,862,862,862,0,0,0,0,0,0,0,0,0,0,0,0,0,0,0,0,0,0,0,0,0,0,0,0,0,0,0,0,0,0,0,0,0,0,0,0,0
0,0,0,0,0,1177,1177,1173,1173,1173,1173,1169,1169,1165,1165,1165,1165,1165,1165,1161,1161,1161,1161,1161,1161,1161,1157,1157,1157,1157,1153,1022,1019,1019,1016,1016,1019,1019,1022,1025,1028,1028,1028,1028,1028,1025,1025,1028,0,0,0,0,0,0,663,663,663,663,664,666,667,667,667,670,670,670,671,672,674,674,675,676,676,678,678,679,680,680,682,682,683,683,684,684,686,687,688,688,688,0,0,0,0,0,0,0,1157,1153,1153,1153,1153,1153,1157,1157,1153,1153,1153,1153,1153,1153,1153,1153,1153,1153,1153,1149,1149,1149,1149,1153,1153,1157,1157,1157,1157,1157,1157,1157,1157,1157,1157,1157,1157,1157,1153,1153,1153,1153,1157,1157,1157,1157,1157,1161,1161,1157,1157,1157,1157,1153,1149,1149,1149,1149,1153,1153,1153,1153,1157,1157,1157,1157,1157,1153,1153,1153,1153,1149,1149,981,978,978,978,973,973,967,964,964,962,959,959,959,959,959,956,956,956,956,956,954,954,954,954,954,1165,1165,1161,1161,1161,1161,1161,1161,1161,1161,1157,1157,1157,1157,1157,1161,1161,1161,1161,1157,1157,1161,1157,1157,1157,1153,1153,1157,1157,1157,1161,1161,1161,1161,1161,1161,1161,1161,1161,1161,1157,1157,1161,1157,1157,1161,1161,1161,1161,1157,1157,1161,1157,1157,1157,1161,1161,1157,1157,1157,1161,1161,1161,1157,1157,1157,1157,1157,1157,1153,1153,1161,1161,1161,1161,1161,1161,1165,1165,1165,956,956,956,956,962,964,964,964,964,964,964,964,964,964,964,964,964,967,967,967,967,967,970,967,967,970,970,973,975,975,975,978,978,981,981,987,989,989,989,989,989,989,1161,1161,1157,1157,1157,1157,1161,1161,1161,1161,1165,1165,1165,1165,1165,1165,1165,1165,1165,1165,1165,1165,1165,1165,1165,1165,1165,1165,1165,1165,1165,1165,1165,1165,1165,1165,1165,1165,1165,1165,1165,1165,1165,1165,1165,1165,1165,1165,1165,1165,1165,1165,1165,1165,1161,1161,1161,1161,1161,1165,1165,1165,1165,1165,1165,1165,1165,1165,1165,1165,1165,1165,1165,1169,1169,1169,1169,1169,1165,1165,1165,1161,1161,1161,1165,1165,1165,1165,1165,1165,1161,1161,1161,1161,1161,1157,1157,1161,1161,1161,1161,1157,1157,1161,1157,1153,1153,1153,1157,1157,1157,1157,1161,1161,1165,1165,1165,1165,1161,1161,1165,1165,1165,1165,1165,1165,1165,1161,1161,1161,1161,1161,1161,1161,1157,1157,1161,1157,1157,1161,1161,1157,1157,1161,1157,1157,1157,1157,1157,1157,1157,1157,1157,1157,1157,1157,1157,1153,1153,1157,1157,1157,1157,1157,1157,1157,1157,1157,1153,1153,1157,1157,1157,1157,1157,1157,1157,1157,1157,1157,1157,1161,1161,1161,1161,1161,1165,1165,1161,1161,1161,1153,1153,1153,1153,1157,1153,1153,1153,1153,1157,1157,1157,1161,1161,1157,1157,1157,1157,1157,1153,1153,1153,1153,1153,1149,1149,1153,1153,1153,1153,1149,1149,1149,1145,1145,1141,1138,1138,1138,1134,1134,1134,956,956,954,954,951,948,948,946,946,943,943,928,923,920,915,913,910,910,908,908,908,906,906,903,896,896,889,887,887,887,885,885,885,882,882,882,882,880,880,880,875,873,871,869,869,867,867,864,864,864,867,867,0,0,0,0,0,0,0,0,0,0,0,0,0,0,0,0,0,0,0,0,0,0,0,0,0,0,0,0,0,0,0,0,0,0,0,0,0,0,0
0,0,0,0,0,1173,1173,1169,1169,1169,1169,1169,1165,1165,1165,1161,1161,1161,1161,1161,1161,1161,1161,1161,1157,1157,1157,1157,1157,1153,1153,1153,1022,1022,1022,1022,1022,1022,1025,1025,1028,1028,1028,1028,1028,1028,1028,1028,0,0,0,0,0,0,664,664,664,664,664,666,667,667,667,670,670,670,670,671,672,675,675,676,676,678,678,679,680,680,680,682,683,683,684,684,686,687,688,688,688,0,0,0,0,0,0,0,1153,1149,1149,1149,1149,1149,1149,1153,1149,1149,1149,1149,1149,1149,1149,1149,1149,1149,1149,1149,1149,1149,1149,1149,1149,1153,1153,1153,1153,1153,1153,1153,1153,1153,1153,1153,1153,1153,1149,1149,1149,1149,1153,1153,1153,1153,1153,1153,1153,1153,1153,1153,1153,1149,1149,1149,1149,1149,1149,1149,1149,1149,1153,1153,1153,1153,1153,1153,1153,1153,1149,1149,1149,1149,978,978,975,973,970,967,964,962,959,959,956,956,956,956,956,954,954,954,954,954,954,954,954,954,1165,1165,1161,1161,1157,1157,1161,1161,1161,1157,1157,1157,1153,1153,1153,1153,1157,1157,1157,1153,1153,1157,1153,1153,1153,1153,1153,1153,1149,1149,1153,1153,1153,1157,1161,1161,1161,1157,1157,1157,1153,1153,1153,1157,1157,1157,1157,1157,1157,1157,1157,1157,1157,1157,1157,1157,1157,1157,1157,1157,1157,1157,1157,1153,1153,1153,1153,1153,1153,1153,1153,1153,1153,1153,1161,1161,1161,1165,954,954,954,956,956,956,956,959,962,962,962,962,962,962,962,962,962,964,964,964,964,967,967,967,970,970,970,970,970,973,975,975,975,978,978,981,981,987,989,989,989,989,989,989,1157,1157,1153,1153,1157,1157,1157,1157,1157,1157,1157,1157,1157,1161,1161,1161,1165,1165,1165,1161,1161,1161,1161,1161,1161,1161,1161,1161,1161,1165,1161,1161,1161,1161,1161,1161,1161,1161,1161,1161,1161,1161,1161,1157,1157,1161,1161,1161,1165,1165,1161,1161,1161,1161,1161,1161,1161,1161,1161,1161,1161,1161,1165,1161,1161,1161,1161,1161,1161,1161,1161,1165,1165,1165,1165,1165,1165,1165,1165,1165,1161,1161,1161,1161,1157,1157,1161,1157,1157,1157,1157,1157,1157,1157,1157,1157,1157,1157,1157,1157,1157,1153,1153,1153,1153,1153,1153,1153,1153,1153,1153,1153,1157,1153,1153,1157,1157,1161,1161,1161,1161,1161,1161,1161,1161,1161,1161,1157,1157,1157,1157,1157,1157,1157,1157,1157,1157,1157,1157,1153,1153,1153,1153,1153,1153,1153,1153,1153,1153,1153,1153,1153,1153,1153,1153,1153,1149,1149,1149,1153,1153,1153,1153,1153,1153,1153,1153,1153,1149,1149,1149,1149,1149,1153,1153,1153,1153,1153,1153,1153,1153,1153,1157,1157,1157,1161,1161,1161,1161,1153,1149,1149,1153,1153,1153,1153,1153,1153,1153,1153,1153,1153,1153,1153,1153,1153,1153,1153,1153,1153,1153,1153,1153,1153,1153,1149,1149,1149,1149,1149,1145,1145,1149,1149,1145,1145,1141,1138,1138,1134,1134,1138,1138,956,956,954,954,951,948,948,946,943,943,928,918,915,915,915,913,910,910,908,908,908,906,906,903,896,896,891,889,887,887,887,885,885,882,882,882,882,880,880,878,873,869,869,867,867,867,864,864,864,864,0,0,0,0,0,0,0,0,0,0,0,0,0,0,0,0,0,0,0,0,0,0,0,0,0,0,0,0,0,0,0,0,0,0,0,0,0,0,0,0,0
