0,0,0,0,0,0,0,0,0,0,0,0,0,0,0,0,1926,1926,1926,1926,1926,1915,1915,1915,1915,1904,1894,1894,1883,1883,1883,1873,1873,1873,1873,1873,1873,1873,1863,1863,1843,1843,1843,1843,1843,1843,1833,1833,1833,1833,1833,1823,1823,1823,1823,1813,1813,1813,1804,1804,1804,1804,1794,1785,1785,1794,1794,1794,1794,1794,1794,1794,1794,1776,1766,1766,1757,1757,1766,1766,1766,1766,1757,1757,1757,1757,1757,1748,1748,1739,1739,1739,1739,1739,1739,1739,1739,1739,1731,1731,1731,1731,1731,1731,1731,1722,1722,1722,1722,1722,1722,1722,1713,1713,1713,1705,1705,1705,1696,1696,1696,1696,1696,1696,1696,1696,1688,1688,1688,1688,1688,1680,1680,1680,1671,1671,1671,1663,1663,1663,1663,1663,1663,1663,1663,1663,1663,1663,1663,1655,1655,1663,1663,1663,1655,1655,1655,1655,1655,1655,1655,1655,1655,1655,1655,1655,1663,1663,1663,1663,1663,1671,1688,1722,1731,1731,1731,1731,1731,1722,1722,1722,1696,1696,1696,1696,1688,1680,1671,1663,1655,1632,1632,1632,1624,1624,1624,1624,1624,1632,1632,1632,1632,1632,1632,1632,1632,1639,1639,1647,1647,1655,1647,1647,1647,1655,1647,1647,0,0,0,0,1047,1041,1041,1038,1038,1034,1034,1031,1031,1031,1031,1031,1034,1034,1034,1038,1038,1038,1038,1041,1041,1041,1044,1047,1047,1050,0,0,0,0,0,1713,1713,1722,1731,1731,1731,1731,1739,1739,1739,1739,1748,1748,1757,1757,1757,1757,1757,1757,1757,1757,1766,1757,1757,1766,1766,1766,1757,1757,1757,1757,1757,1757,1766,1766,1766,1776,1766,1766,1757,1748,1739,1731,1731,1722,1722,1722,0,0,0,0,0,0,0,0,0,0,0,0,813,811,811,807,805,805,803,803,802,800,798,798,798,798,798,798,798,800,800,800,802,802,803,805,805,807,807,807,807,809,809,809,0,0,0,0,0,0,0,0,1523,1516,1516,1509,1503,1503,1503,1496,1496,1489,1489,1483,1483,1477,1477,1470,1464,1464,1458,1452,1452,1445,1445,1445,1445,1439,1439,1433,1433,1427,1421,1421,1415,1415,1415,1410,1398,1398,1398,1392,1392,1392,1381,1381,1381,1376,1376,1376,1376,1370,1370,1365,1365,1354,1354,1349,1349,1343,1338,1333,1333,1328,1328,1328,1328,1322,1317,1312,1312,1307,1307,1307,1302,1302,1302,1297,1292,1292,1288,1283,1283,1278,1278,1273,1273,1273,1268,1268,1264,1259,1259,1255,1255,1255,1245,1245,1241,1236,1236,1232,1232,1232,1227,1227,1223,1219,1214,1214,1214,1210,1210,1206,1202,1202,1202,1197,1197,1193,1185,1185,1181,1181,1181,1177,1177,1173,1173,1169,1169,1165,1165,1161,1161,1157,1157,1153,1153,1153,1149,1149,1145,1141,1138,1138,1134,1134,1134,1134,1130,1126,1126,1123,1123,1123,1119,1119,1115,1112,1112,1108,1108,1105,1105,1097,1097,1094,1094,1094,1094,1090,1090,1087,1084,1084,1080,1080,1077,1077,1077,1073,1070,1070,1067,1067,1067,1063,1063,1060,1057,1057,1054,1054,1054,1050,1050,1047,1044,1041,1041,1041,1038,1038,1034,1034,1028,1028,1025,1025,1025,1025,1022,1019,1016,1016,1016,1013,1013,1010,1007,1004,1004,1004,1001,1001,1001,1001,998,998,995,992,989,989,987,984,984,981,978,978,975,973,970,970,970,967,967,967,964,962,959,959,956,954,954,951,948,948,948,948,0,0,0,0,0,0,0,0,0,0,0,0,0,0,0,0,0,0,0,0,0,0,0,0,0,0,0,0,0,0
0,0,0,0,0,0,0,0,0,0,0,0,0,0,0,0,1926,1926,1926,1926,1926,1915,1915,1915,1915,1904,1894,1894,1883,1883,1883,1873,1873,1873,1873,1873,1873,1873,1863,1863,1843,1843,1843,1843,1843,1833,1833,1833,1833,1833,1833,1823,1823,1823,1823,1823,1823,1813,1804,1804,1804,1804,1804,1794,1794,1794,1804,1794,1794,1794,1794,1794,1794,1776,1766,1766,1766,1766,1766,1766,1766,1766,1757,1757,1757,1757,1757,1757,1748,1739,1739,1739,1739,1739,1739,1739,1739,1739,1731,1731,1731,1731,1731,1731,1731,1731,1731,1722,1722,1722,1722,1722,1713,1713,1713,1713,1705,1705,1705,1696,1696,1696,1696,1696,1696,1696,1696,1688,1688,1688,1688,1680,1680,1680,1680,1680,1671,1663,1663,1663,1663,1663,1663,1663,1663,1663,1663,1663,1663,1663,1663,1655,1655,1663,1655,1655,1655,1655,1655,1655,1655,1655,1655,1655,1655,1655,1663,1663,1663,1663,1663,1671,1688,1722,1731,1739,1731,1731,1731,1731,1722,1722,1696,1696,1696,1688,1680,1680,1671,1663,1647,1639,1632,1632,1624,1624,1624,1624,1624,1632,1632,1632,1632,1632,1632,1632,1639,1639,1647,1647,1655,1655,1655,1647,1647,1647,1647,1647,0,0,0,1050,1047,1041,1041,1041,1038,1034,1034,1034,1031,1031,1031,1031,1034,1034,1038,1038,1038,1038,1038,1041,1041,1041,1044,1047,1047,1050,0,0,0,0,0,1722,1722,1731,1731,1731,1731,1739,1739,1739,1748,1757,1748,1748,1757,1757,1757,1757,1757,1757,1757,1757,1766,1766,1766,1766,1766,1766,1757,1757,1757,1757,1757,1766,1766,1776,1776,1776,1776,1766,1766,1757,1748,1739,1731,1722,1722,0,0,0,0,0,0,0,0,0,0,0,0,0,813,811,811,811,807,805,803,803,802,800,798,798,798,798,798,798,798,800,800,800,802,803,805,805,807,807,807,809,809,809,809,811,0,0,0,0,0,0,0,0,1523,1516,1509,1509,1509,1503,1503,1496,1496,1489,1489,1489,1483,1477,1477,1470,1464,1464,1464,1458,1452,1445,1445,1445,1445,1439,1439,1433,1433,1427,1421,1421,1415,1415,1415,1410,1404,1398,1398,1392,1392,1392,1387,1381,1381,1376,1376,1376,1376,1376,1370,1370,1365,1354,1354,1349,1349,1343,1343,1338,1333,1333,1333,1328,1328,1322,1322,1317,1312,1307,1307,1307,1307,1302,1302,1297,1292,1292,1292,1288,1283,1283,1278,1273,1273,1273,1268,1268,1264,1259,1259,1259,1255,1255,1250,1245,1245,1241,1236,1236,1232,1232,1232,1227,1227,1223,1219,1219,1214,1210,1210,1210,1206,1202,1202,1197,1197,1197,1189,1189,1185,1181,1181,1181,1177,1177,1173,1169,1169,1165,1165,1165,1161,1161,1157,1157,1153,1153,1149,1149,1145,1145,1141,1138,1134,1134,1134,1134,1130,1126,1126,1123,1123,1123,1119,1119,1119,1115,1115,1112,1108,1105,1105,1101,1097,1094,1094,1094,1094,1090,1090,1090,1087,1084,1080,1080,1077,1077,1077,1077,1073,1070,1070,1067,1067,1067,1063,1060,1060,1057,1054,1054,1054,1050,1050,1050,1047,1044,1044,1041,1041,1038,1038,1034,1028,1028,1028,1028,1025,1025,1022,1019,1016,1016,1016,1013,1013,1010,1007,1004,1004,1004,1001,1001,1001,1001,1001,998,995,992,992,989,987,987,984,984,981,978,975,973,970,970,970,970,967,967,964,962,959,959,956,954,954,951,948,948,948,948,0,0,0,0,0,0,0,0,0,0,0,0,0,0,0,0,0,0,0,0,0,0,0,0,0,0,0,0,0,0
0,0,0,0,0,0,0,0,0,0,0,0,0,0,0,0,1926,1926,1915,1915,1926,1915,1915,1915,1915,1904,1894,1894,1894,1883,1883,1883,1883,1873,1873,1873,1873,1873,1873,1873,1843,1843,1843,1843,1843,1833,1833,1833,1833,1833,1833,1823,1823,1833,1833,1823,1823,1823,1813,1813,1804,1804,1813,1804,1804,1804,1804,1794,1794,1794,1794,1794,1794,1776,1776,1776,1766,1766,1766,1766,1766,1766,1766,1766,1766,1766,1757,1757,1757,1748,1739,1739,1739,1739,1739,1739,1739,1739,1739,1731,1731,1739,1739,1731,1731,1731,1731,1731,1722,1722,1722,1722,1722,1713,1713,1713,1713,1705,1705,1705,1705,1696,1696,1696,1696,1696,1696,1696,1696,1688,1688,1688,1688,1688,1680,1680,1680,1671,1671,1671,1663,1663,1663,1663,1663,1663,1663,1663,1663,1663,1663,1655,1655,1663,1655,1655,1655,1655,1655,1655,1655,1655,1655,1655,1655,1655,1663,1663,1663,1663,1663,1671,1688,1722,1739,1739,1739,1731,1731,1731,1722,1713,1696,1696,1688,1688,1680,1680,1663,1663,1647,1639,1632,1632,1624,1624,1624,1624,1624,1632,1632,1632,1632,1632,1632,1639,1639,1647,1647,1655,1655,1655,1655,1647,1647,1647,1647,0,0,0,1050,1050,1047,1041,1041,1041,1038,1038,1034,1034,1034,1034,1034,1034,1034,1034,1038,1038,1038,1038,1038,1041,1041,1041,1044,1047,1047,1050,0,0,0,0,0,1722,1722,1731,1731,1731,1731,1739,1739,1748,1748,1757,1757,1757,1757,1757,1757,1757,1757,1757,1757,1766,1766,1766,1766,1766,1766,1766,1766,1766,1766,1757,1757,1766,1766,1776,1776,1776,1776,1766,1766,1757,1748,1739,1731,1731,0,0,0,0,0,0,0,0,0,0,0,0,0,0,813,813,813,811,807,805,805,803,802,802,800,800,800,798,798,798,800,800,800,802,802,803,807,807,807,809,809,811,811,811,811,811,0,0,0,0,0,0,0,0,1523,1516,1509,1509,1509,1503,1503,1496,1496,1496,1496,1489,1489,1483,1477,1470,1470,1470,1464,1464,1464,1452,1445,1445,1445,1439,1439,1439,1433,1427,1421,1421,1415,1415,1415,1415,1410,1398,1398,1398,1392,1392,1392,1387,1381,1381,1381,1376,1376,1376,1370,1370,1365,1354,1354,1349,1349,1349,1343,1338,1338,1333,1333,1333,1328,1322,1322,1322,1312,1312,1307,1307,1307,1307,1307,1302,1297,1292,1292,1288,1283,1283,1278,1273,1273,1273,1268,1268,1264,1259,1255,1255,1255,1250,1250,1250,1245,1241,1236,1236,1232,1232,1232,1232,1227,1227,1223,1219,1214,1214,1210,1210,1206,1206,1202,1197,1197,1197,1189,1189,1185,1185,1185,1181,1181,1177,1177,1173,1169,1169,1165,1165,1161,1161,1157,1157,1153,1153,1153,1153,1149,1149,1141,1138,1138,1134,1134,1134,1130,1130,1126,1126,1123,1123,1123,1123,1119,1115,1115,1112,1112,1108,1105,1101,1097,1097,1097,1094,1094,1090,1090,1090,1087,1084,1080,1080,1077,1077,1077,1077,1073,1073,1070,1067,1067,1067,1063,1063,1060,1057,1054,1054,1054,1054,1050,1050,1047,1047,1044,1044,1041,1041,1038,1034,1031,1028,1028,1028,1025,1025,1022,1022,1016,1016,1016,1016,1013,1013,1007,1007,1004,1004,1004,1001,1001,1001,1001,998,995,995,992,989,987,987,984,981,981,978,978,975,970,970,970,970,967,967,964,962,959,959,956,956,954,951,951,948,948,948,0,0,0,0,0,0,0,0,0,0,0,0,0,0,0,0,0,0,0,0,0,0,0,0,0,0,0,0,0,0
0,0,0,0,0,0,0,0,0,0,0,0,0,0,0,0,1926,1926,1915,1915,1926,1915,1915,1915,1915,1904,1904,1894,1894,1883,1883,1883,1883,1883,1873,1873,1873,1873,1873,1863,1853,1853,1853,1853,1853,1843,1843,1843,1833,1833,1833,1823,1823,1833,1833,1823,1823,1823,1823,1823,1804,1804,1813,1804,1804,1804,1804,1794,1794,1794,1794,1794,1785,1785,1785,1785,1776,1776,1776,1766,1766,1766,1766,1766,1766,1766,1766,1757,1757,1748,1748,1748,1739,1739,1739,1739,1739,1739,1739,1731,1731,1739,1739,1739,1731,1731,1731,1731,1722,1722,1722,1722,1722,1722,1722,1713,1713,1713,1713,1713,1713,1705,1696,1696,1696,1696,1696,1696,1696,1688,1688,1688,1688,1688,1688,1688,1680,1671,1671,1671,1663,1663,1663,1663,1663,1663,1663,1663,1663,1663,1663,1663,1663,1663,1655,1655,1655,1655,1655,1655,1655,1655,1655,1655,1655,1655,1655,1663,1663,1663,1663,1671,1696,1731,1739,1739,1739,1739,1731,1731,1722,1705,1696,1696,1688,1688,1680,1680,1663,1663,1647,1647,1632,1632,1632,1632,1624,1624,1624,1632,1632,1632,1632,1632,1639,1639,1647,1647,1655,1655,1655,1655,1655,1647,1647,1639,1639,0,0,0,1050,1047,1047,1041,1041,1041,1038,1038,1034,1034,1034,1034,1034,1034,1034,1038,1038,1038,1038,1038,1041,1041,1041,1041,1044,1044,1044,1050,0,0,0,0,0,1731,1731,1731,1731,1731,1739,1739,1748,1748,1748,1757,1757,1757,1757,1757,1757,1757,1757,1757,1757,1766,1766,1766,1766,1766,1766,1766,1766,1766,1766,1766,1766,1785,1785,1785,1785,1776,1776,1766,1766,1757,1748,1748,1739,1739,0,0,0,0,0,0,0,0,0,0,0,0,0,0,815,813,813,811,807,805,805,803,803,802,802,800,800,798,798,800,800,802,802,802,803,803,807,807,809,809,809,811,811,811,811,813,0,0,0,0,0,0,0,0,1536,1523,1516,1516,1509,1509,1509,1503,1496,1496,1496,1489,1489,1483,1477,1470,1470,1470,1464,1464,1464,1458,1452,1452,1445,1445,1439,1439,1433,1427,1421,1421,1421,1415,1415,1415,1410,1404,1398,1398,1392,1392,1392,1387,1381,1381,1381,1376,1376,1376,1370,1370,1365,1359,1354,1354,1349,1349,1343,1338,1338,1338,1333,1333,1328,1328,1322,1322,1317,1312,1312,1307,1307,1307,1307,1302,1297,1292,1292,1288,1288,1283,1278,1273,1273,1273,1268,1268,1264,1259,1255,1255,1255,1250,1250,1250,1250,1241,1236,1236,1232,1232,1232,1232,1232,1227,1227,1223,1219,1214,1214,1210,1206,1206,1202,1202,1197,1197,1193,1189,1185,1185,1185,1181,1181,1181,1177,1173,1173,1169,1165,1165,1161,1161,1161,1157,1157,1153,1149,1149,1149,1149,1141,1138,1138,1134,1134,1134,1134,1130,1130,1126,1123,1123,1123,1123,1119,1115,1115,1112,1112,1108,1105,1105,1101,1101,1097,1094,1094,1090,1090,1090,1090,1084,1084,1080,1080,1077,1077,1077,1073,1073,1070,1070,1067,1067,1067,1063,1060,1057,1054,1054,1054,1054,1050,1050,1047,1047,1044,1044,1041,1041,1038,1034,1031,1028,1028,1028,1025,1025,1025,1022,1016,1016,1016,1016,1013,1013,1010,1007,1004,1004,1004,1004,1001,1001,1001,1001,998,995,992,992,989,987,984,981,981,978,978,975,973,973,970,970,967,967,964,962,959,959,959,956,956,954,951,951,948,948,0,0,0,0,0,0,0,0,0,0,0,0,0,0,0,0,0,0,0,0,0,0,0,0,0,0,0,0,0,0
0,0,0,0,0,0,0,0,0,0,0,0,0,0,0,0,1936,1936,1926,1926,1926,1915,1915,1915,1915,1904,1894,1894,1894,1883,1883,1883,1883,1883,1883,1883,1873,1873,1873,1863,1853,1853,1853,1853,1853,1853,1843,1843,1843,1833,1833,1833,1833,1833,1833,1833,1833,1843,1843,1833,1804,1804,1804,1804,1804,1804,1804,1794,1794,1804,1794,1794,1785,1785,1785,1776,1776,1766,1766,1766,1766,1776,1766,1766,1766,1766,1766,1757,1757,1757,1757,1757,1748,1748,1748,1748,1739,1739,1739,1739,1739,1739,1739,1739,1731,1731,1731,1731,1722,1722,1722,1722,1722,1722,1722,1722,1722,1713,1713,1713,1713,1713,1713,1696,1696,1696,1696,1696,1696,1696,1696,1696,1688,1688,1688,1688,1680,1680,1680,1671,1671,1671,1663,1663,1663,1663,1663,1663,1663,1663,1663,1663,1663,1663,1663,1663,1663,1655,1655,1655,1655,1655,1655,1655,1655,1655,1655,1663,1663,1663,1663,1671,1696,1722,1739,1739,1739,1739,1731,1731,1722,1705,1696,1696,1688,1688,1680,1671,1663,1663,1647,1647,1639,1639,1632,1632,1632,1624,1624,1632,1632,1632,1632,1639,1639,1639,1647,1655,1655,1655,1655,1655,1655,1655,1647,1639,1639,0,0,0,1050,1047,1047,1044,1044,1044,1038,1038,1038,1034,1034,1034,1034,1038,1038,1038,1038,1038,1038,1038,1041,1041,1044,1044,1044,1044,1044,1047,0,0,0,0,1739,1739,1739,1739,1739,1739,1739,1739,1748,1748,1748,1757,1757,1757,1757,1757,1757,1757,1757,1757,1766,1766,1766,1766,1766,1776,1776,1766,1766,1766,1766,1766,1766,1785,1794,1794,1785,1785,1776,1776,1766,1757,1757,1748,1748,1748,0,0,0,0,0,0,0,0,0,0,0,0,0,819,815,813,813,811,811,807,805,803,803,802,802,802,802,800,800,800,802,802,802,803,803,805,807,807,809,809,811,811,813,813,813,813,815,0,0,0,0,0,0,0,1536,1523,1516,1516,1516,1509,1509,1503,1496,1496,1496,1496,1489,1489,1483,1477,1470,1470,1464,1464,1464,1458,1458,1452,1445,1445,1439,1439,1433,1427,1427,1421,1421,1421,1415,1415,1410,1404,1398,1398,1398,1398,1392,1387,1387,1387,1381,1381,1376,1376,1370,1370,1365,1359,1354,1354,1349,1349,1349,1343,1343,1338,1333,1333,1328,1328,1322,1322,1317,1312,1312,1312,1307,1307,1307,1302,1297,1297,1292,1292,1288,1283,1283,1278,1273,1273,1268,1268,1264,1264,1259,1259,1255,1250,1250,1250,1250,1241,1236,1236,1232,1232,1232,1232,1232,1227,1227,1223,1219,1214,1214,1214,1210,1210,1202,1202,1202,1197,1197,1189,1189,1185,1185,1185,1181,1181,1181,1177,1173,1169,1165,1165,1165,1161,1161,1157,1157,1153,1149,1149,1149,1149,1141,1138,1138,1138,1134,1134,1134,1130,1130,1126,1126,1123,1123,1123,1119,1119,1119,1115,1112,1108,1105,1105,1101,1101,1097,1094,1094,1090,1090,1090,1090,1084,1084,1080,1080,1077,1077,1077,1077,1073,1070,1070,1067,1067,1067,1063,1063,1057,1057,1057,1054,1054,1050,1050,1050,1047,1044,1044,1041,1041,1038,1038,1034,1028,1028,1028,1028,1028,1025,1022,1019,1019,1019,1016,1016,1013,1010,1007,1004,1004,1004,1004,1004,1001,1001,1001,998,995,992,992,989,989,984,981,981,981,978,975,973,973,970,970,970,967,964,962,959,959,959,956,956,954,951,951,948,948,0,0,0,0,0,0,0,0,0,0,0,0,0,0,0,0,0,0,0,0,0,0,0,0,0,0,0,0,0,0
0,0,0,0,0,0,0,0,0,0,0,0,0,0,0,0,1947,1947,1936,1936,1936,1926,1926,1915,1915,1904,1894,1894,1894,1894,1883,1883,1883,1883,1883,1883,1883,1873,1873,1873,1863,1863,1863,1863,1853,1853,1853,1843,1843,1843,1833,1833,1833,1843,1833,1833,1833,1843,1843,1833,1813,1813,1804,1804,1804,1804,1804,1804,1804,1804,1804,1804,1794,1794,1794,1776,1776,1766,1766,1776,1776,1776,1766,1766,1766,1766,1766,1766,1766,1757,1757,1757,1748,1748,1757,1748,1739,1739,1739,1739,1739,1739,1739,1739,1731,1731,1731,1731,1731,1731,1731,1722,1722,1722,1722,1722,1722,1722,1722,1713,1713,1713,1713,1705,1705,1705,1705,1696,1696,1696,1696,1696,1688,1688,1688,1688,1688,1680,1680,1671,1671,1671,1663,1663,1663,1663,1663,1663,1663,1663,1663,1663,1663,1663,1663,1663,1663,1655,1655,1655,1647,1647,1647,1647,1647,1655,1655,1663,1663,1663,1663,1663,1688,1722,1739,1739,1739,1739,1739,1731,1722,1705,1705,1696,1688,1688,1680,1671,1663,1663,1647,1647,1639,1632,1632,1632,1632,1632,1632,1632,1632,1632,1639,1639,1639,1647,1647,1655,1655,1655,1655,1655,1655,1655,1647,1647,0,0,0,0,1050,1047,1047,1044,1044,1041,1041,1038,1038,1034,1034,1034,1034,1038,1038,1038,1041,1041,1041,1041,1044,1044,1044,1044,1047,1047,1047,1047,0,0,0,0,1739,1739,1739,1739,1739,1739,1739,1739,1748,1748,1748,1757,1757,1757,1757,1757,1757,1757,1757,1766,1766,1766,1776,1776,1776,1776,1766,1766,1766,1766,1766,1766,1766,1794,1794,1794,1794,1794,1785,1785,1766,1766,1757,1757,1757,1757,0,0,0,0,0,0,0,0,0,0,0,0,0,819,815,813,813,811,811,807,805,805,803,803,802,802,802,802,802,802,802,803,803,803,803,807,809,809,809,809,811,813,813,813,813,815,815,0,0,0,0,0,0,0,0,1523,1516,1516,1516,1516,1509,1503,1503,1503,1496,1496,1489,1489,1483,1477,1470,1470,1470,1464,1464,1464,1458,1452,1445,1445,1439,1439,1439,1433,1427,1427,1421,1421,1421,1415,1410,1404,1404,1398,1398,1398,1392,1392,1387,1387,1387,1381,1376,1376,1376,1370,1365,1365,1354,1354,1354,1349,1349,1343,1343,1338,1338,1333,1333,1328,1322,1322,1317,1312,1312,1312,1307,1307,1307,1302,1297,1297,1292,1292,1288,1288,1283,1278,1273,1273,1273,1268,1268,1264,1259,1259,1255,1255,1250,1250,1250,1245,1241,1236,1236,1232,1232,1232,1232,1227,1227,1223,1219,1219,1219,1214,1210,1210,1210,1206,1202,1197,1197,1189,1189,1185,1185,1185,1181,1181,1177,1177,1173,1173,1169,1165,1165,1165,1161,1157,1153,1153,1149,1149,1149,1149,1145,1141,1138,1138,1134,1134,1134,1130,1130,1126,1126,1123,1123,1123,1123,1119,1119,1115,1112,1112,1108,1105,1105,1101,1101,1097,1094,1090,1090,1090,1090,1087,1084,1080,1080,1077,1077,1077,1077,1073,1070,1070,1067,1067,1067,1063,1063,1060,1057,1057,1054,1054,1050,1050,1050,1047,1047,1044,1041,1041,1038,1038,1034,1031,1028,1028,1028,1028,1025,1022,1019,1019,1019,1016,1016,1016,1013,1010,1007,1007,1004,1004,1004,1001,1001,998,998,995,992,992,989,989,984,984,981,981,978,978,975,973,970,970,970,967,967,962,959,959,959,956,956,954,954,951,948,948,0,0,0,0,0,0,0,0,0,0,0,0,0,0,0,0,0,0,0,0,0,0,0,0,0,0,0,0,0,0
0,0,0,0,0,0,0,0,0,0,0,0,0,0,0,0,1947,1947,1936,1936,1936,1926,1926,1926,1915,1915,1904,1904,1894,1894,1894,1883,1883,1883,1883,1883,1883,1873,1873,1873,1863,1863,1863,1863,1863,1853,1853,1853,1843,1843,1843,1843,1843,1843,1833,1833,1833,1843,1843,1833,1823,1823,1813,1804,1804,1804,1804,1804,1804,1804,1794,1794,1804,1794,1794,1785,1785,1776,1776,1776,1776,1776,1776,1776,1766,1766,1766,1766,1766,1766,1766,1757,1748,1748,1757,1748,1739,1739,1739,1739,1739,1739,1739,1739,1739,1739,1731,1731,1731,1731,1731,1731,1722,1722,1722,1722,1722,1722,1722,1713,1713,1713,1713,1705,1705,1705,1705,1696,1696,1696,1696,1696,1696,1696,1688,1688,1688,1688,1688,1680,1680,1671,1671,1671,1671,1671,1663,1663,1663,1663,1663,1663,1663,1663,1663,1663,1663,1655,1655,1655,1647,1647,1647,1647,1647,1655,1655,1663,1663,1663,1663,1663,1680,1688,1731,1739,1739,1748,1739,1731,1722,1705,1705,1696,1696,1688,1680,1671,1663,1655,1647,1647,1639,1632,1632,1632,1632,1632,1632,1632,1632,1639,1639,1639,1639,1647,1647,1655,1655,1655,1655,1655,1655,1655,1647,1647,0,0,0,0,1050,1047,1047,1044,1044,1041,1041,1038,1038,1038,1034,1034,1038,1038,1038,1038,1041,1041,1044,1044,1044,1044,1047,1047,1047,1047,1047,1047,0,0,0,0,1739,1739,1739,1739,1739,1739,1739,1739,1748,1748,1748,1757,1757,1757,1757,1757,1757,1766,1766,1766,1766,1776,1776,1776,1776,1776,1766,1766,1766,1766,1766,1766,1766,1794,1794,1794,1794,1794,1785,1785,1766,1766,1757,1757,1757,1757,0,0,0,0,0,0,0,0,0,0,0,0,0,819,815,815,813,813,811,807,805,805,803,803,803,803,803,802,802,802,803,803,803,803,805,807,809,809,809,811,813,813,813,815,815,815,815,0,0,0,0,0,0,0,0,1523,1516,1516,1516,1516,1509,1509,1503,1503,1496,1496,1496,1489,1483,1477,1470,1470,1470,1464,1464,1464,1464,1458,1452,1445,1445,1439,1433,1433,1427,1427,1421,1421,1421,1415,1415,1410,1404,1404,1398,1398,1392,1392,1387,1387,1387,1381,1381,1376,1376,1370,1365,1365,1359,1354,1354,1354,1349,1349,1343,1343,1343,1338,1333,1333,1322,1322,1317,1317,1312,1312,1307,1307,1307,1307,1302,1297,1292,1292,1288,1288,1283,1283,1278,1273,1273,1268,1268,1268,1264,1264,1255,1255,1250,1250,1245,1245,1241,1241,1236,1236,1232,1232,1232,1232,1227,1219,1219,1219,1219,1214,1214,1210,1210,1206,1202,1202,1197,1197,1189,1189,1185,1185,1181,1181,1177,1177,1173,1173,1169,1169,1165,1165,1161,1157,1153,1153,1149,1149,1149,1149,1145,1141,1141,1138,1134,1134,1134,1134,1130,1126,1126,1126,1123,1123,1123,1119,1119,1115,1112,1108,1108,1105,1105,1105,1101,1097,1094,1094,1090,1090,1090,1087,1087,1084,1080,1080,1077,1077,1077,1073,1070,1070,1070,1067,1067,1063,1063,1060,1060,1060,1057,1054,1054,1054,1050,1050,1047,1047,1044,1041,1041,1038,1034,1031,1028,1028,1028,1028,1025,1025,1022,1022,1019,1016,1016,1016,1016,1013,1010,1007,1004,1004,1004,1001,1001,998,998,995,992,992,989,987,987,984,981,981,978,978,975,973,970,970,970,967,967,962,962,959,959,959,956,956,954,954,948,948,0,0,0,0,0,0,0,0,0,0,0,0,0,0,0,0,0,0,0,0,0,0,0,0,0,0,0,0,0,0
0,0,0,0,0,0,0,0,0,0,0,0,0,0,0,0,1947,1947,1936,1936,1936,1926,1926,1926,1915,1915,1904,1904,1904,1894,1894,1894,1894,1894,1883,1883,1883,1873,1873,1873,1863,1863,1863,1863,1863,1863,1853,1853,1843,1833,1833,1833,1833,1833,1833,1833,1833,1833,1833,1833,1823,1823,1813,1804,1804,1804,1804,1804,1804,1804,1794,1794,1804,1794,1794,1785,1785,1776,1776,1776,1776,1776,1776,1776,1776,1776,1776,1766,1766,1766,1766,1766,1766,1757,1757,1748,1748,1739,1739,1739,1739,1748,1748,1739,1739,1739,1739,1731,1731,1731,1731,1731,1731,1731,1731,1731,1722,1722,1722,1722,1722,1722,1713,1713,1705,1705,1705,1705,1696,1696,1696,1696,1696,1696,1696,1696,1688,1688,1688,1688,1688,1680,1680,1680,1680,1671,1671,1671,1663,1663,1663,1663,1663,1663,1663,1663,1663,1655,1655,1655,1647,1647,1655,1655,1655,1655,1655,1663,1663,1663,1663,1671,1680,1688,1731,1739,1739,1748,1739,1731,1713,1705,1696,1696,1696,1688,1680,1671,1663,1655,1647,1639,1639,1639,1632,1632,1632,1632,1632,1632,1632,1639,1639,1639,1647,1647,1647,1655,1655,1655,1655,1655,1655,1655,1655,0,0,0,0,0,1050,1047,1047,1044,1044,1041,1041,1038,1038,1038,1038,1038,1038,1038,1038,1038,1041,1044,1044,1044,1044,1044,1047,1047,1047,1047,1047,1047,0,0,0,0,1739,1739,1739,1739,1739,1739,1739,1739,1748,1748,1748,1748,1748,1757,1757,1757,1757,1766,1766,1766,1766,1776,1776,1776,1776,1776,1776,1776,1776,1776,1766,1766,1766,1794,1794,1794,1794,1794,1785,1785,1766,1766,1766,1757,1757,1757,0,0,0,0,0,0,0,0,0,0,0,0,0,819,815,815,813,813,811,807,805,805,803,803,803,803,803,803,803,803,803,803,805,805,805,807,809,809,811,813,813,813,815,817,817,815,815,0,0,0,0,0,0,0,0,1523,1523,1523,1516,1516,1509,1509,1503,1503,1496,1496,1496,1489,1483,1477,1477,1470,1470,1470,1464,1464,1464,1458,1452,1445,1445,1439,1433,1433,1433,1427,1427,1427,1421,1421,1415,1410,1410,1404,1404,1398,1392,1392,1387,1387,1387,1381,1381,1376,1376,1370,1370,1365,1365,1359,1354,1354,1354,1349,1349,1349,1343,1338,1338,1333,1328,1328,1322,1317,1317,1312,1312,1307,1307,1307,1302,1297,1292,1292,1288,1288,1283,1283,1278,1273,1273,1273,1268,1268,1264,1264,1255,1255,1250,1250,1245,1245,1245,1241,1236,1236,1236,1232,1232,1232,1227,1219,1219,1219,1219,1214,1214,1214,1210,1210,1206,1202,1197,1197,1193,1189,1189,1185,1185,1185,1181,1181,1177,1173,1173,1169,1165,1165,1165,1161,1157,1157,1153,1153,1149,1149,1145,1141,1141,1138,1134,1134,1134,1134,1130,1126,1126,1126,1123,1123,1123,1123,1119,1119,1112,1108,1108,1105,1105,1105,1105,1101,1097,1094,1090,1090,1090,1087,1087,1084,1080,1080,1077,1077,1077,1073,1070,1070,1070,1067,1067,1063,1063,1060,1060,1057,1054,1054,1054,1050,1050,1047,1047,1047,1044,1041,1041,1038,1034,1031,1028,1028,1028,1028,1025,1025,1022,1022,1019,1019,1016,1016,1016,1013,1013,1007,1007,1004,1004,1001,1001,1001,998,995,995,992,989,987,987,984,984,981,981,978,975,973,970,970,970,967,967,964,962,962,959,959,959,956,956,954,948,948,0,0,0,0,0,0,0,0,0,0,0,0,0,0,0,0,0,0,0,0,0,0,0,0,0,0,0,0,0,0
0,0,0,0,0,0,0,0,0,0,0,0,0,0,0,0,1959,1959,1947,1947,1936,1926,1926,1926,1926,1926,1915,1915,1915,1904,1904,1894,1894,1894,1894,1894,1883,1883,1873,1873,1873,1873,1873,1873,1863,1863,1853,1853,1843,1833,1833,1833,1833,1833,1833,1833,1833,1833,1833,1833,1823,1823,1813,1813,1813,1804,1804,1804,1804,1804,1794,1794,1794,1794,1794,1785,1785,1785,1785,1794,1785,1785,1785,1776,1776,1776,1776,1776,1766,1766,1766,1766,1766,1757,1757,1757,1748,1739,1739,1739,1739,1748,1748,1739,1739,1739,1739,1731,1731,1731,1731,1731,1731,1731,1731,1731,1731,1722,1722,1722,1722,1722,1722,1713,1713,1713,1713,1705,1705,1713,1713,1705,1705,1696,1696,1696,1696,1688,1688,1688,1688,1680,1680,1680,1688,1680,1671,1671,1671,1671,1663,1663,1663,1663,1663,1663,1663,1655,1655,1655,1655,1655,1655,1655,1655,1655,1663,1663,1663,1663,1671,1671,1680,1688,1731,1739,1739,1748,1739,1731,1713,1705,1696,1696,1696,1688,1680,1671,1663,1663,1663,1639,1639,1639,1632,1632,1632,1632,1632,1632,1639,1639,1639,1639,1639,1647,1647,1655,1655,1655,1655,1655,1655,1655,1655,0,0,0,0,0,0,1047,1047,1044,1044,1041,1041,1041,1038,1038,1038,1038,1038,1038,1038,1041,1041,1044,1044,1044,1047,1047,1047,1050,1050,1047,1047,1050,1050,0,0,0,1739,1739,1739,1739,1739,1739,1739,1739,1739,1748,1748,1748,1748,1757,1757,1757,1757,1766,1766,1766,1776,1776,1776,1776,1785,1785,1776,1776,1776,1785,1785,1794,1794,1794,1794,1794,1794,1794,1785,1785,1776,1766,1766,1757,1757,1757,0,0,0,0,0,0,0,0,0,0,0,0,0,0,0,815,813,813,811,807,805,805,803,803,803,803,803,803,803,803,803,805,805,805,807,809,809,811,811,813,815,815,815,817,817,817,817,0,0,0,0,0,0,0,1523,1523,1523,1523,1523,1516,1516,1509,1509,1503,1503,1496,1496,1496,1483,1477,1477,1470,1470,1470,1470,1464,1464,1464,1458,1445,1445,1439,1439,1439,1433,1433,1433,1433,1427,1421,1415,1410,1410,1404,1404,1398,1398,1398,1392,1387,1387,1387,1381,1376,1376,1376,1370,1365,1365,1359,1354,1354,1354,1349,1349,1349,1343,1343,1338,1333,1333,1328,1322,1317,1317,1312,1312,1307,1307,1307,1302,1297,1292,1292,1292,1288,1288,1283,1278,1278,1273,1273,1268,1268,1268,1259,1259,1255,1255,1250,1250,1245,1245,1241,1241,1236,1236,1232,1232,1232,1227,1223,1219,1219,1219,1214,1214,1214,1210,1210,1206,1202,1197,1197,1193,1189,1189,1189,1185,1185,1181,1181,1181,1177,1177,1169,1169,1169,1165,1161,1157,1157,1153,1153,1149,1149,1145,1141,1141,1138,1138,1134,1134,1134,1130,1126,1126,1126,1123,1123,1123,1123,1119,1119,1112,1108,1108,1105,1105,1105,1105,1101,1097,1094,1094,1094,1090,1090,1087,1084,1080,1080,1080,1080,1077,1077,1073,1070,1070,1067,1067,1063,1063,1060,1060,1057,1054,1054,1054,1050,1050,1047,1047,1047,1044,1041,1041,1038,1034,1034,1031,1031,1028,1028,1025,1025,1025,1022,1022,1019,1016,1016,1016,1016,1013,1010,1007,1004,1004,1004,1001,1001,998,998,995,992,989,989,987,984,984,981,981,978,975,973,970,970,970,967,967,964,962,962,959,959,959,956,956,954,948,948,0,0,0,0,0,0,0,0,0,0,0,0,0,0,0,0,0,0,0,0,0,0,0,0,0,0,0,0,0,0
0,0,0,0,0,0,0,0,0,0,0,0,0,0,0,0,1959,1959,1959,1947,1936,1936,1926,1926,1926,1926,1915,1915,1915,1915,1904,1904,1894,1894,1883,1883,1883,1883,1883,1883,1873,1873,1873,1873,1863,1863,1863,1853,1843,1843,1843,1843,1843,1833,1833,1833,1833,1833,1833,1833,1823,1823,1823,1813,1813,1813,1813,1804,1804,1804,1804,1794,1794,1794,1794,1794,1794,1794,1794,1794,1794,1785,1785,1785,1776,1776,1776,1776,1776,1766,1766,1766,1766,1757,1757,1757,1748,1739,1739,1739,1739,1748,1748,1748,1748,1748,1748,1748,1731,1731,1731,1731,1731,1731,1731,1731,1731,1731,1731,1722,1722,1722,1722,1713,1713,1713,1713,1713,1713,1713,1713,1713,1705,1696,1696,1696,1696,1696,1688,1688,1688,1688,1688,1688,1688,1680,1680,1680,1671,1671,1663,1663,1663,1663,1663,1663,1663,1655,1655,1655,1655,1655,1655,1655,1655,1655,1663,1663,1663,1663,1671,1680,1688,1688,1739,1739,2078,2078,2078,2078,2078,1705,1696,1696,1696,1688,1688,1680,1671,1663,1663,1647,1639,1639,1632,1632,1632,1632,1632,1639,1639,1639,1639,1639,1639,1647,1655,1655,1655,1655,1655,1655,1655,1655,1655,0,0,0,0,0,0,1044,1044,1044,1044,1044,1044,1041,1038,1038,1038,1038,1038,1038,1038,1041,1044,1044,1047,1047,1047,1047,1047,1050,1050,1050,1050,1050,1050,0,0,0,0,1731,1731,1731,1739,1739,1739,1739,1739,1748,1748,1748,1757,1757,1757,1757,1766,1766,1766,1766,1776,1776,1776,1785,1785,1785,1785,1776,1776,1785,1785,1794,1794,1804,1804,1804,1794,1794,1794,1785,1776,1776,1766,1757,1757,0,0,0,0,0,0,0,0,0,0,0,0,0,0,0,0,815,813,813,811,809,807,805,805,803,803,803,803,803,803,803,805,805,805,805,809,809,811,811,813,815,815,815,815,817,817,817,817,0,0,0,0,0,0,0,1523,1523,1523,1523,1523,1516,1516,1516,1509,1509,1503,1496,1496,1496,1489,1483,1477,1477,1470,1470,1470,1470,1464,1464,1464,1458,1445,1439,1439,1439,1439,1433,1433,1433,1427,1421,1415,1415,1410,1410,1410,1404,1398,1398,1392,1392,1392,1387,1381,1381,1376,1376,1370,1370,1365,1365,1359,1354,1354,1349,1349,1349,1343,1343,1338,1333,1333,1328,1322,1317,1317,1312,1312,1307,1307,1307,1302,1297,1292,1292,1292,1288,1288,1283,1283,1278,1273,1273,1273,1268,1268,1259,1259,1255,1255,1250,1250,1250,1250,1245,1241,1241,1236,1232,1232,1232,1223,1223,1219,1219,1219,1214,1214,1214,1210,1210,1206,1202,1202,1197,1193,1193,1189,1189,1185,1185,1181,1181,1181,1177,1177,1173,1169,1169,1169,1165,1161,1157,1153,1153,1149,1149,1149,1145,1141,1138,1138,1138,1134,1134,1134,1130,1126,1126,1126,1123,1123,1123,1119,1119,1112,1108,1108,1108,1105,1105,1105,1101,1097,1094,1094,1094,1090,1090,1087,1084,1084,1080,1080,1080,1077,1077,1073,1073,1070,1070,1067,1063,1063,1060,1060,1057,1054,1054,1054,1050,1050,1047,1047,1047,1044,1044,1041,1038,1034,1034,1031,1031,1028,1028,1025,1025,1025,1025,1022,1019,1019,1016,1016,1016,1013,1013,1010,1007,1004,1004,1001,1001,998,998,995,992,989,989,987,984,984,981,981,978,978,975,973,970,970,970,970,967,967,962,962,959,959,959,959,956,948,948,0,0,0,0,0,0,0,0,0,0,0,0,0,0,0,0,0,0,0,0,0,0,0,0,0,0,0,0,0,0
0,0,0,0,0,0,0,0,0,0,0,0,0,0,0,0,1959,1959,1959,1947,1936,1936,1926,1926,1926,1926,1926,1915,1915,1915,1915,1915,1904,1894,1883,1883,1883,1883,1883,1883,1873,1873,1873,1873,1873,1863,1863,1863,1853,1853,1853,1853,1843,1843,1833,1833,1833,1833,1833,1833,1833,1823,1823,1813,1813,1813,1813,1804,1804,1804,1804,1804,1794,1794,1794,1794,1794,1794,1794,1794,1794,1785,1785,1794,1776,1776,1776,1776,1776,1766,1766,1766,1766,1757,1757,1757,1748,1748,1748,1748,1748,1748,1748,1748,1748,1748,1748,1748,1739,1731,1731,1731,1731,1731,1731,1731,1731,1731,1731,1722,1722,1722,1722,1713,1713,1713,1713,1713,1713,1722,1713,1713,1705,1696,1696,1696,1696,1696,1696,1688,1688,1688,1688,1688,1688,1688,1680,1680,1671,1671,1671,1671,1671,1663,1663,1663,1663,1655,1655,1655,1655,1655,1655,1655,1655,1663,1663,1663,1671,1671,1680,1680,1688,1688,1688,2065,2065,2065,2065,2065,2065,2065,2065,1696,1696,1688,1688,1680,1671,1663,1663,1647,1647,1639,1639,1639,1639,1639,1639,1639,1639,1639,1647,1647,1647,1647,1655,1655,1655,1655,1655,1655,1655,1655,1655,1655,0,0,0,0,0,1044,1044,1044,1044,1044,1044,1041,1041,1038,1038,1038,1038,1038,1038,1041,1044,1044,1047,1047,1047,1047,1050,1050,1050,1050,1050,1050,1050,0,0,0,1731,1731,1731,1731,1739,1739,1739,1739,1739,1748,1748,1748,1757,1757,1757,1757,1766,1766,1766,1766,1785,1785,1785,1785,1785,1785,1785,1785,1785,1785,1785,1794,1804,1804,1804,1804,1794,1794,1794,1785,1776,1776,1766,1766,1766,0,0,0,0,0,0,0,0,0,0,0,0,0,0,0,0,815,815,813,811,809,807,807,805,805,803,803,803,803,803,805,805,805,805,807,809,809,811,811,813,815,815,815,817,819,819,817,817,0,0,0,0,0,0,0,1523,1523,1529,1523,1523,1523,1516,1516,1509,1503,1503,1496,1496,1496,1489,1483,1483,1477,1470,1470,1470,1470,1464,1464,1464,1458,1445,1445,1439,1439,1439,1439,1439,1433,1433,1421,1421,1415,1415,1410,1410,1404,1398,1398,1392,1392,1392,1387,1381,1381,1376,1376,1376,1370,1365,1365,1359,1354,1354,1354,1349,1349,1343,1343,1338,1333,1333,1328,1322,1322,1317,1312,1312,1307,1307,1307,1307,1297,1297,1292,1292,1288,1288,1288,1283,1278,1273,1273,1273,1268,1268,1264,1259,1259,1255,1255,1250,1250,1250,1245,1245,1241,1236,1236,1236,1232,1223,1223,1219,1219,1219,1214,1214,1214,1214,1210,1206,1202,1202,1197,1193,1193,1189,1189,1189,1185,1185,1181,1181,1177,1177,1169,1169,1169,1169,1165,1161,1157,1157,1153,1149,1149,1149,1145,1141,1141,1138,1138,1134,1134,1130,1130,1126,1126,1123,1123,1123,1123,1123,1119,1112,1112,1108,1108,1105,1105,1105,1101,1097,1097,1094,1094,1090,1090,1090,1087,1084,1080,1080,1080,1077,1077,1073,1073,1073,1070,1067,1063,1063,1063,1060,1060,1057,1054,1054,1050,1050,1050,1047,1047,1044,1044,1041,1041,1038,1034,1034,1031,1031,1028,1028,1025,1025,1025,1022,1019,1019,1016,1016,1016,1013,1013,1010,1007,1007,1004,1001,1001,998,998,995,992,992,989,989,987,987,984,981,981,978,978,975,975,973,973,970,970,967,964,962,962,962,959,959,956,948,948,0,0,0,0,0,0,0,0,0,0,0,0,0,0,0,0,0,0,0,0,0,0,0,0,0,0,0,0,0,0
0,0,0,0,0,0,0,0,0,0,0,0,0,0,0,0,1959,1959,1947,1947,1936,1936,1926,1926,1926,1926,1926,1915,1915,1915,1915,1915,1915,1904,1894,1894,1883,1883,1883,1883,1873,1873,1873,1873,1873,1873,1863,1863,1853,1853,1853,1853,1843,1843,1833,1833,1833,1833,1843,1833,1833,1833,1823,1823,1813,1813,1813,1804,1804,1804,1804,1804,1804,1794,1794,1794,1794,1794,1794,1794,1794,1794,1794,1794,1785,1776,1776,1776,1776,1766,1766,1766,1766,1766,1766,1757,1757,1757,1748,1748,1748,1757,1757,1757,1757,1757,1748,1748,1739,1739,1739,1739,1739,1739,1731,1731,1731,1731,1731,1731,1722,1722,1722,1722,1722,1722,1722,1722,1722,1722,1722,1713,1713,1705,1705,1705,1696,1696,1696,1696,1696,1688,1688,1688,1688,1688,1688,1680,1680,1680,1671,1671,1671,1671,1663,1663,1663,1663,1655,1655,1655,1655,1655,1655,1655,1663,1663,1663,1671,1671,1680,1680,1688,1688,1688,2065,2065,2065,2065,2065,2065,2065,2053,2053,2040,2040,2040,1688,1688,2053,1663,1647,1639,1639,1639,1639,1639,1639,1639,1639,1647,1647,1647,1647,1647,1655,1655,1655,1655,1655,1655,1655,1655,1655,1655,1655,0,0,0,0,0,1047,1047,1047,1047,1047,1047,1044,1041,1038,1038,1038,1038,1038,1041,1044,1044,1047,1047,1047,1047,1047,1050,1050,1054,1054,1050,1050,1054,0,0,0,0,1731,1731,1731,1739,1739,1739,1739,1748,1748,1748,1748,1757,1757,1757,1757,1766,1766,1766,1766,1785,1785,1785,1785,1785,1785,1785,1785,1785,1785,1785,1785,1804,1804,1804,1804,1804,1794,1794,1785,1785,1776,1776,1766,1766,0,0,0,0,0,0,0,0,0,0,0,0,0,0,0,819,817,815,815,811,809,809,807,805,805,803,803,803,803,805,805,805,805,807,809,809,811,811,813,815,815,817,817,819,819,819,817,817,0,0,0,0,0,0,0,1523,1523,1529,1523,1523,1523,1516,1516,1509,1503,1503,1496,1496,1496,1489,1489,1483,1483,1477,1477,1470,1470,1464,1464,1464,1458,1445,1445,1445,1439,1439,1439,1439,1433,1433,1427,1421,1415,1415,1410,1410,1404,1398,1398,1392,1392,1387,1387,1387,1381,1376,1376,1376,1370,1370,1365,1359,1359,1359,1354,1349,1349,1349,1343,1343,1338,1333,1328,1328,1322,1317,1312,1312,1307,1307,1307,1307,1302,1297,1292,1292,1292,1288,1288,1283,1278,1273,1273,1273,1268,1268,1264,1264,1259,1259,1255,1255,1250,1250,1250,1250,1245,1241,1236,1236,1232,1223,1223,1219,1219,1219,1214,1214,1214,1214,1210,1206,1206,1202,1197,1193,1193,1189,1189,1189,1185,1185,1181,1181,1181,1177,1169,1169,1169,1169,1165,1161,1161,1157,1153,1153,1153,1149,1149,1141,1141,1138,1138,1134,1134,1130,1130,1126,1126,1123,1123,1123,1123,1119,1115,1112,1112,1108,1108,1105,1105,1105,1101,1101,1097,1094,1094,1090,1090,1090,1087,1087,1084,1084,1080,1080,1077,1073,1073,1073,1070,1067,1067,1063,1063,1060,1060,1057,1054,1054,1054,1050,1050,1047,1047,1044,1044,1041,1041,1038,1038,1034,1034,1031,1028,1028,1025,1025,1025,1022,1019,1019,1016,1016,1013,1013,1013,1010,1007,1007,1004,1001,1001,1001,998,998,992,992,989,989,987,987,984,984,981,981,978,978,978,975,973,973,970,970,967,964,962,962,959,959,956,954,954,0,0,0,0,0,0,0,0,0,0,0,0,0,0,0,0,0,0,0,0,0,0,0,0,0,0,0,0,0,0
0,0,0,0,0,0,0,0,0,0,0,0,0,0,0,0,1959,1959,1947,1936,1936,1936,1936,1926,1926,1926,1926,1926,1926,1915,1915,1915,1904,1904,1894,1894,1883,1883,1883,1883,1873,1873,1873,1873,1873,1873,1863,1863,1863,1853,1853,1853,1843,1843,1843,1843,1833,1833,1843,1843,1833,1833,1833,1823,1823,1823,1813,1813,1804,1804,1804,1804,1804,1804,1794,1794,1794,1794,1794,1794,1794,1794,1794,1794,1785,1785,1785,1785,1776,1776,1776,1776,1766,1766,1766,1766,1757,1757,1757,1757,1757,1757,1757,1757,1757,1757,1757,1757,1748,1739,1739,1739,1739,1739,1739,1739,1731,1731,1731,1731,1731,1722,1722,1722,1722,1722,1722,1722,1722,1722,1713,1713,1713,1705,1705,1705,1696,1696,1696,1696,1696,1696,1696,1688,1688,1688,1688,1688,1680,1680,1671,1671,1671,1671,1671,1671,1663,1663,1663,1655,1655,1655,1655,1655,1663,1663,1663,1663,1671,1680,1680,1680,1688,1688,1688,2065,2065,2065,2065,2065,2053,2053,2053,2040,2028,2028,2016,2016,2016,2005,2005,1647,1639,1639,1647,1655,1647,1647,1647,1647,1647,1655,1655,1655,1655,1655,1655,1655,1663,1663,1663,1655,1655,1655,1655,1655,0,0,0,0,0,1050,1047,1047,1047,1047,1047,1044,1041,1041,1038,1038,1038,1041,1044,1044,1047,1047,1047,1047,1050,1050,1050,1054,1054,1054,1054,1054,1057,1057,0,0,1739,1739,1731,1731,1739,1739,1739,1739,1748,1748,1757,1757,1757,1757,1757,1766,1766,1766,1766,1776,1776,1785,1785,1785,1785,1794,1785,1785,1785,1785,1785,1794,1804,1804,1804,1804,1804,1794,1794,1785,1785,1785,1776,1776,1776,0,0,0,0,0,0,0,0,0,0,0,0,0,0,0,819,819,817,815,811,811,809,807,805,805,805,805,805,805,805,805,805,805,807,809,811,811,813,813,815,817,817,819,819,819,819,819,819,0,0,0,0,0,0,0,0,1536,1529,1523,1523,1523,1516,1516,1509,1509,1503,1503,1496,1496,1489,1489,1489,1483,1477,1477,1470,1470,1470,1464,1464,1458,1452,1445,1445,1445,1439,1439,1439,1433,1433,1427,1421,1415,1415,1410,1410,1404,1398,1398,1392,1392,1387,1387,1387,1381,1376,1376,1376,1370,1370,1370,1365,1365,1359,1354,1354,1349,1349,1349,1343,1338,1333,1328,1328,1322,1317,1312,1312,1312,1312,1312,1307,1302,1302,1297,1292,1292,1288,1288,1283,1278,1278,1273,1273,1268,1268,1264,1264,1259,1259,1255,1255,1250,1250,1250,1250,1245,1241,1241,1236,1232,1223,1223,1223,1219,1219,1219,1214,1214,1214,1210,1210,1206,1202,1197,1197,1197,1193,1193,1193,1185,1185,1181,1181,1181,1177,1169,1169,1169,1169,1165,1161,1161,1161,1157,1153,1153,1149,1149,1141,1141,1141,1138,1138,1134,1134,1130,1126,1126,1123,1123,1123,1123,1119,1115,1115,1112,1108,1108,1108,1105,1105,1105,1101,1101,1097,1094,1094,1090,1090,1087,1087,1084,1084,1080,1080,1077,1077,1077,1073,1073,1070,1067,1063,1063,1063,1060,1057,1054,1054,1054,1050,1050,1050,1047,1047,1044,1041,1041,1038,1038,1038,1034,1031,1031,1028,1025,1025,1025,1022,1022,1019,1016,1016,1013,1013,1013,1010,1007,1007,1004,1004,1001,1001,998,998,995,992,992,989,989,987,987,984,984,981,981,978,978,978,975,973,970,970,967,967,964,962,959,959,956,956,956,0,0,0,0,0,0,0,0,0,0,0,0,0,0,0,0,0,0,0,0,0,0,0,0,0,0,0,0,0,0
0,0,0,0,0,0,0,0,0,0,0,0,0,0,0,0,1959,1959,1947,1936,1936,1936,1936,1926,1926,1926,1926,1926,1926,1915,1915,1915,1904,1904,1894,1894,1883,1883,1883,1883,1883,1873,1873,1873,1873,1873,1863,1863,1863,1863,1853,1853,1843,1843,1843,1843,1843,1843,1843,1843,1843,1843,1833,1833,1833,1833,1813,1813,1804,1804,1804,1804,1804,1804,1804,1804,1804,1804,1794,1794,1794,1794,1794,1794,1785,1785,1785,1785,1785,1776,1776,1776,1766,1766,1766,1766,1757,1757,1757,1757,1757,1757,1757,1757,1757,1766,1766,1757,1748,1748,1739,1739,1739,1739,1739,1739,1731,1731,1731,1731,1731,1731,1731,1722,1722,1722,1722,1722,1722,1722,1713,1713,1713,1705,1705,1705,1696,1696,1696,1696,1696,1696,1696,1696,1696,1688,1688,1688,1688,1688,1680,1680,1680,1671,1671,1671,1663,1663,1663,1663,1663,1655,1655,1663,1663,1663,1663,1663,1671,1680,1680,1680,1680,1680,1688,2053,2053,2053,2053,2053,2040,2040,2040,2040,2028,2016,2016,2016,2016,2005,2005,1647,1647,1647,1655,1647,1647,1647,1647,1647,1647,1655,1655,1655,1655,1655,1655,1663,1663,1663,1663,1655,1655,1655,1655,1655,0,0,0,0,0,1050,1050,1050,1050,1047,1047,1044,1044,1041,1041,1041,1041,1044,1044,1047,1047,1047,1047,1047,1047,1050,1050,1054,1054,1054,1057,1057,1057,0,0,0,0,1739,1739,1739,1739,1739,1739,1748,1748,1748,1757,1757,1757,1757,1766,1766,1766,1766,1776,1776,1776,1785,1785,1785,1785,1794,1785,1785,1785,1785,1794,1794,1794,1794,1804,1804,1804,1794,1794,1785,1785,1785,1776,1776,0,0,0,0,0,0,0,0,0,0,0,0,0,0,821,821,821,819,817,813,811,811,809,807,805,805,805,805,805,805,805,805,805,807,809,811,811,811,813,813,815,817,817,819,819,821,819,819,819,0,0,0,0,0,0,0,0,1536,1536,1523,1523,1523,1523,1516,1516,1509,1509,1503,1496,1496,1489,1489,1489,1489,1483,1483,1477,1477,1470,1464,1464,1464,1452,1445,1445,1445,1445,1439,1439,1439,1433,1427,1421,1421,1415,1415,1410,1410,1404,1398,1392,1392,1392,1392,1387,1381,1381,1376,1376,1370,1370,1370,1365,1365,1359,1354,1354,1349,1349,1349,1343,1338,1333,1328,1328,1322,1317,1317,1312,1312,1312,1312,1307,1307,1302,1302,1292,1292,1288,1288,1283,1278,1278,1273,1273,1273,1268,1268,1264,1259,1259,1255,1255,1250,1250,1250,1250,1245,1241,1241,1236,1232,1227,1223,1223,1219,1219,1219,1219,1214,1214,1214,1210,1206,1202,1202,1197,1197,1193,1193,1193,1189,1185,1185,1181,1181,1177,1169,1169,1169,1165,1165,1165,1161,1161,1161,1157,1153,1149,1149,1145,1141,1141,1138,1138,1134,1134,1134,1130,1126,1126,1126,1123,1123,1119,1115,1115,1112,1108,1108,1108,1105,1105,1105,1101,1101,1097,1097,1094,1094,1090,1087,1087,1084,1084,1084,1080,1080,1077,1077,1073,1073,1070,1067,1063,1063,1063,1060,1057,1054,1054,1054,1050,1050,1050,1047,1047,1044,1041,1041,1038,1038,1038,1034,1034,1031,1028,1025,1025,1025,1022,1022,1019,1016,1016,1013,1013,1013,1010,1007,1007,1004,1004,1001,1001,1001,998,995,992,992,989,989,989,987,987,984,981,981,978,978,978,975,973,973,970,967,967,964,964,962,959,956,956,956,0,0,0,0,0,0,0,0,0,0,0,0,0,0,0,0,0,0,0,0,0,0,0,0,0,0,0,0,0,0
0,0,0,0,0,0,0,0,0,0,0,0,0,0,0,0,1959,1959,1947,1936,1936,1936,1936,1926,1926,1926,1926,1926,1926,1915,1915,1915,1904,1904,1894,1883,1883,1883,1883,1883,1883,1883,1883,1873,1873,1873,1873,1863,1863,1863,1863,1853,1843,1843,1843,1843,1843,1843,1843,1843,1843,1843,1843,1843,1833,1833,1823,1813,1813,1813,1813,1813,1804,1804,1804,1804,1804,1804,1804,1794,1794,1794,1794,1794,1794,1785,1785,1785,1785,1785,1785,1785,1776,1776,1776,1766,1766,1757,1757,1757,1757,1757,1757,1757,1757,1766,1766,1757,1748,1748,1739,1739,1739,1739,1739,1739,1731,1731,1731,1731,1731,1722,1722,1722,1722,1722,1722,1722,1722,1722,1722,1713,1713,1705,1705,1705,1696,1696,1696,1696,1696,1696,1696,1696,1696,1696,1688,1688,1688,1688,1688,1680,1680,1671,1671,1671,1663,1663,1663,1663,1663,1663,1663,1663,1663,1663,1663,1671,1671,1671,1680,1680,1680,1680,1680,1688,2005,2040,2040,2040,2028,2028,2028,2028,2016,2016,2005,2005,2005,2005,2005,1647,1647,1647,1655,1647,1647,1647,1647,1647,1655,1655,1655,1655,1655,1655,1655,1663,1663,1663,1663,1663,1663,1671,1655,1655,0,0,0,0,0,1050,1050,1050,1050,1047,1047,1044,1044,1041,1041,1041,1041,1044,1044,1047,1047,1047,1047,1047,1047,1050,1050,1054,1054,1054,1057,1057,1057,0,0,0,1748,1739,1739,1739,1748,1748,1748,1748,1748,1748,1757,1757,1757,1757,1766,1766,1766,1766,1776,1776,1776,1785,1785,1785,1785,1794,1785,1785,1785,1785,1794,1794,1794,1794,1804,1804,1804,1794,1794,1785,1785,1785,1776,1776,0,0,0,0,0,0,0,0,0,0,0,0,0,0,819,819,821,819,817,813,811,811,809,807,805,805,805,805,805,805,805,805,805,807,809,811,811,811,813,815,817,817,819,819,819,821,821,819,819,0,0,0,0,0,0,0,0,1536,1536,1529,1523,1523,1523,1516,1516,1516,1509,1509,1503,1503,1496,1489,1489,1489,1483,1483,1477,1477,1470,1464,1464,1464,1458,1452,1445,1445,1445,1439,1439,1439,1433,1427,1421,1421,1415,1415,1410,1410,1404,1398,1398,1398,1392,1392,1387,1381,1381,1376,1370,1370,1370,1370,1365,1365,1359,1354,1354,1349,1349,1349,1343,1338,1333,1328,1328,1328,1322,1317,1317,1312,1312,1312,1307,1307,1302,1302,1297,1292,1288,1288,1283,1283,1278,1278,1273,1273,1268,1268,1264,1264,1259,1255,1255,1255,1250,1250,1250,1245,1241,1241,1236,1232,1227,1227,1223,1223,1219,1219,1219,1219,1214,1214,1210,1210,1202,1202,1197,1197,1197,1193,1193,1189,1185,1185,1181,1181,1177,1169,1169,1169,1165,1165,1165,1161,1161,1161,1157,1153,1153,1149,1145,1145,1145,1141,1138,1138,1134,1134,1134,1130,1130,1130,1126,1123,1119,1119,1115,1112,1112,1108,1108,1108,1105,1105,1105,1101,1097,1097,1094,1094,1090,1090,1087,1084,1084,1084,1080,1080,1077,1077,1073,1073,1070,1070,1063,1063,1063,1060,1057,1054,1054,1054,1054,1050,1050,1050,1047,1044,1041,1041,1038,1038,1038,1038,1034,1031,1028,1025,1025,1025,1025,1022,1019,1019,1016,1016,1013,1013,1010,1010,1007,1004,1004,1004,1001,1001,1001,998,992,992,989,989,989,987,987,984,981,981,981,978,978,975,973,973,970,970,967,967,964,962,962,959,956,956,0,0,0,0,0,0,0,0,0,0,0,0,0,0,0,0,0,0,0,0,0,0,0,0,0,0,0,0,0,0
0,0,0,0,0,0,0,0,0,0,0,0,0,0,0,0,1959,1959,1959,1947,1936,1936,1936,1936,1926,1926,1926,1926,1926,1915,1915,1915,1904,1904,1894,1883,1883,1883,1883,1883,1883,1883,1883,1873,1873,1873,1873,1873,1863,1863,1853,1853,1843,1843,1843,1843,1843,1843,1843,1843,1843,1843,1843,1843,1843,1833,1833,1823,1813,1813,1813,1813,1813,1813,1804,1804,1804,1804,1804,1804,1804,1794,1794,1794,1794,1794,1794,1785,1785,1785,1785,1785,1776,1776,1776,1776,1776,1766,1766,1766,1757,1757,1757,1757,1757,1766,1766,1757,1757,1748,1748,1739,1739,1739,1739,1739,1739,1739,1739,1731,1731,1722,1722,1722,1722,1722,1722,1722,1722,1722,1713,1713,1713,1705,1705,1705,1705,1696,1696,1696,1696,1696,1696,1696,1696,1696,1688,1688,1688,1688,1688,1688,1680,1671,1671,1671,1671,1663,1663,1663,1663,1663,1663,1663,1663,1663,1663,1663,1663,1671,1671,1671,1680,1680,1680,1680,1688,2040,2016,2016,2016,2016,2016,2016,2016,2016,2005,2005,1993,1993,1993,1647,1647,1647,1655,1655,1655,1655,1655,1655,1655,1655,1655,1663,1663,1663,1663,1663,1663,1663,1663,1671,1671,1671,1671,1680,0,0,0,0,0,1050,1050,1047,1047,1047,1047,1047,1044,1044,1041,1041,1041,1044,1044,1047,1047,1047,1047,1050,1050,1050,1054,1054,1054,1057,1057,1057,0,0,0,0,1748,1739,1739,1748,1748,1748,1748,1748,1748,1748,1757,1757,1757,1757,1766,1766,1766,1766,1776,1776,1776,1785,1785,1794,1794,1794,1785,1785,1794,1794,1794,1794,1804,1804,1804,1804,1804,1794,1794,1785,1785,1785,1785,1785,0,0,0,0,0,0,0,0,0,0,0,0,0,0,819,819,821,819,817,813,811,811,809,807,805,805,805,805,805,805,805,805,807,809,811,811,811,813,813,815,817,819,819,819,821,821,821,821,821,0,0,0,0,0,0,0,0,1543,1536,1529,1529,1523,1523,1523,1516,1516,1516,1509,1509,1509,1503,1496,1489,1489,1483,1483,1477,1477,1470,1470,1464,1464,1464,1452,1445,1445,1445,1439,1439,1439,1433,1427,1427,1421,1421,1415,1415,1410,1404,1404,1398,1398,1398,1392,1392,1387,1381,1381,1370,1370,1370,1370,1370,1370,1365,1354,1354,1349,1349,1349,1343,1338,1333,1333,1328,1328,1322,1322,1317,1317,1312,1312,1312,1307,1307,1302,1292,1292,1292,1288,1288,1283,1278,1278,1273,1273,1268,1268,1268,1264,1259,1259,1255,1255,1255,1250,1250,1245,1241,1236,1236,1232,1232,1227,1227,1223,1223,1219,1219,1219,1219,1214,1214,1210,1206,1202,1197,1197,1197,1193,1193,1189,1185,1185,1181,1181,1181,1177,1173,1169,1165,1165,1165,1161,1161,1161,1157,1153,1153,1149,1149,1145,1145,1141,1141,1138,1138,1138,1134,1134,1130,1130,1126,1123,1119,1119,1119,1115,1112,1108,1108,1108,1105,1105,1105,1101,1101,1097,1094,1094,1090,1090,1087,1087,1084,1084,1080,1080,1077,1077,1077,1073,1070,1070,1067,1063,1063,1060,1060,1057,1057,1054,1054,1054,1050,1050,1047,1044,1041,1041,1041,1041,1038,1038,1034,1031,1028,1028,1028,1025,1025,1022,1019,1016,1016,1016,1013,1013,1013,1010,1007,1007,1004,1004,1004,1001,1001,998,992,992,992,989,989,989,987,984,984,981,981,981,978,978,973,973,970,970,967,967,967,964,962,959,956,956,0,0,0,0,0,0,0,0,0,0,0,0,0,0,0,0,0,0,0,0,0,0,0,0,0,0,0,0,0,0
0,0,0,0,0,0,0,0,0,0,0,0,0,0,0,0,1959,1959,1959,1947,1936,1936,1936,1936,1926,1926,1926,1926,1926,1915,1915,1915,1904,1904,1904,1883,1883,1883,1883,1883,1883,1883,1883,1873,1873,1873,1873,1873,1863,1863,1853,1853,1843,1843,1843,1843,1843,1843,1843,1843,1843,1843,1843,1843,1843,1833,1833,1833,1823,1823,1823,1823,1813,1813,1813,1804,1804,1804,1804,1804,1804,1804,1794,1794,1794,1794,1794,1794,1794,1794,1785,1785,1785,1785,1785,1776,1776,1776,1766,1766,1757,1757,1766,1766,1766,1766,1766,1766,1757,1757,1748,1748,1748,1748,1748,1748,1748,1748,1748,1739,1739,1731,1722,1722,1722,1722,1722,1722,1722,1722,1713,1713,1713,1705,1705,1705,1705,1696,1696,1696,1696,1696,1696,1696,1696,1696,1696,1696,1688,1688,1688,1688,1688,1680,1680,1671,1671,1671,1663,1663,1671,1663,1663,1663,1663,1663,1663,1663,1663,1671,1671,1671,1680,1680,1680,1680,1688,1970,1970,1970,1970,1993,2005,2005,2005,2005,1993,1981,1970,1970,1663,1663,1655,1655,1655,1655,1655,1655,1655,1655,1655,1655,1655,1663,1663,1663,1663,1663,1663,1663,1663,1671,1671,1680,1680,1680,0,0,0,0,0,1050,1050,1047,1047,1047,1047,1047,1044,1044,1044,1044,1044,1044,1044,1047,1047,1047,1050,1050,1050,1054,1054,1057,1057,1057,1057,1057,0,0,0,1748,1748,1748,1748,1748,1748,1757,1748,1748,1748,1748,1757,1757,1757,1757,1766,1766,1766,1766,1776,1776,1776,1785,1785,1794,1794,1794,1794,1794,1794,1794,1794,1794,1804,1804,1804,1804,1804,1794,1794,1794,1785,1785,1785,1785,0,0,0,0,0,0,0,0,0,0,0,0,0,0,821,821,821,819,817,813,811,811,809,807,805,805,805,805,805,805,805,807,809,809,811,811,813,813,815,817,817,819,819,821,821,821,821,821,821,0,0,0,0,0,0,0,1557,1550,1543,1536,1536,1529,1523,1523,1516,1516,1516,1516,1509,1509,1503,1496,1496,1489,1489,1483,1477,1470,1470,1470,1464,1464,1464,1452,1452,1445,1445,1439,1439,1439,1433,1427,1427,1421,1421,1415,1415,1410,1404,1404,1398,1398,1398,1392,1392,1387,1381,1381,1376,1370,1370,1370,1370,1370,1370,1359,1354,1354,1349,1349,1349,1343,1333,1333,1328,1328,1328,1322,1322,1317,1317,1312,1312,1307,1307,1302,1292,1292,1292,1292,1288,1283,1283,1283,1278,1273,1268,1268,1268,1264,1259,1259,1255,1255,1250,1250,1250,1245,1241,1236,1236,1232,1232,1232,1227,1227,1223,1219,1219,1219,1219,1214,1214,1210,1206,1202,1202,1197,1197,1197,1193,1189,1185,1185,1185,1181,1181,1177,1173,1169,1169,1169,1165,1161,1161,1161,1157,1153,1153,1153,1149,1145,1145,1141,1141,1138,1138,1138,1134,1134,1134,1130,1126,1123,1119,1119,1119,1115,1112,1112,1112,1108,1108,1105,1105,1105,1101,1097,1094,1094,1094,1090,1090,1087,1087,1084,1080,1080,1080,1077,1077,1073,1073,1070,1070,1063,1063,1060,1060,1057,1057,1054,1054,1054,1050,1050,1047,1044,1041,1041,1041,1041,1038,1038,1038,1034,1031,1028,1028,1025,1025,1022,1022,1016,1016,1016,1016,1013,1013,1010,1010,1007,1004,1004,1004,1001,1001,998,998,992,992,992,989,989,987,984,984,981,981,981,978,978,973,973,970,970,967,967,967,964,962,959,959,959,0,0,0,0,0,0,0,0,0,0,0,0,0,0,0,0,0,0,0,0,0,0,0,0,0,0,0,0,0,0
0,0,0,0,0,0,0,0,0,0,0,0,0,0,0,0,1959,1959,1959,1947,1936,1936,1936,1936,1936,1926,1926,1926,1926,1915,1915,1915,1915,1904,1904,1894,1894,1883,1883,1883,1883,1883,1883,1873,1873,1873,1873,1873,1873,1873,1873,1863,1853,1843,1843,1843,1843,1843,1843,1843,1843,1843,1843,1843,1843,1833,1833,1823,1823,1823,1823,1823,1823,1813,1813,1813,1813,1804,1804,1804,1804,1804,1804,1794,1794,1794,1794,1794,1794,1794,1794,1785,1785,1785,1785,1785,1785,1785,1776,1766,1766,1766,1766,1766,1766,1766,1766,1766,1757,1757,1748,1748,1748,1748,1748,1748,1748,1748,1748,1748,1739,1731,1731,1731,1722,1722,1722,1722,1722,1722,1722,1713,1713,1713,1705,1705,1705,1705,1705,1705,1705,1696,1696,1696,1696,1696,1696,1696,1696,1688,1688,1688,1688,1688,1680,1680,1671,1671,1663,1663,1671,1671,1663,1663,1663,1663,1671,1671,1671,1671,1671,1671,1680,1680,1680,1688,1959,1959,1959,1959,1959,1970,1970,2005,1993,1993,1959,1959,1947,1947,1959,1663,1655,1655,1655,1655,1655,1655,1655,1655,1655,1655,1655,1663,1663,1663,1663,1663,1663,1663,1671,1671,1671,1680,1680,1680,0,0,0,0,0,1050,1050,1047,1047,1047,1047,1047,1044,1044,1044,1044,1044,1044,1044,1047,1047,1050,1050,1050,1050,1054,1057,1057,1060,1060,1060,0,0,0,0,1748,1748,1748,1748,1748,1748,1748,1757,1757,1757,1757,1757,1757,1757,1757,1766,1766,1766,1766,1776,1776,1776,1785,1785,1794,1794,1794,1794,1794,1794,1794,1794,1794,1804,1804,1804,1804,1804,1804,1794,1794,1794,1785,1785,1785,0,0,0,0,0,0,0,0,0,0,0,0,0,0,821,821,821,819,817,815,811,811,809,807,805,805,805,805,805,807,807,807,809,811,811,813,813,813,815,817,819,819,819,821,821,821,823,823,0,0,0,0,0,0,0,1557,1550,1550,1543,1536,1536,1529,1529,1523,1523,1516,1516,1516,1509,1509,1509,1503,1496,1489,1489,1483,1477,1470,1470,1470,1464,1464,1464,1458,1452,1445,1445,1439,1439,1439,1433,1427,1427,1421,1421,1415,1415,1410,1404,1404,1404,1398,1398,1392,1392,1387,1381,1376,1376,1370,1370,1370,1370,1370,1365,1359,1359,1354,1354,1349,1349,1343,1338,1333,1333,1328,1328,1322,1322,1317,1317,1312,1312,1307,1307,1302,1302,1292,1292,1292,1288,1288,1288,1283,1278,1278,1273,1268,1268,1264,1259,1259,1259,1255,1250,1250,1250,1245,1241,1236,1236,1232,1232,1232,1227,1227,1223,1223,1219,1219,1219,1214,1214,1210,1206,1202,1202,1202,1197,1197,1197,1189,1189,1185,1185,1181,1181,1181,1173,1173,1169,1169,1169,1165,1165,1161,1157,1157,1153,1153,1149,1149,1149,1145,1141,1138,1138,1138,1134,1134,1134,1130,1130,1123,1123,1123,1119,1115,1115,1112,1112,1112,1108,1108,1105,1105,1101,1101,1094,1094,1094,1090,1090,1087,1087,1084,1080,1080,1080,1077,1077,1073,1073,1070,1070,1067,1063,1060,1060,1060,1060,1057,1054,1054,1054,1050,1047,1044,1041,1041,1041,1041,1038,1038,1038,1038,1034,1031,1028,1028,1025,1022,1019,1019,1016,1016,1016,1013,1013,1010,1010,1007,1004,1004,1004,1001,1001,998,998,998,992,992,992,989,989,987,987,984,981,981,978,975,973,973,970,970,967,967,967,964,964,962,959,959,0,0,0,0,0,0,0,0,0,0,0,0,0,0,0,0,0,0,0,0,0,0,0,0,0,0,0,0,0,0
0,0,0,0,0,0,0,0,0,0,0,0,0,0,0,0,1970,1970,1959,1959,1947,1947,1947,1947,1936,1936,1936,1926,1926,1926,1915,1915,1915,1915,1904,1904,1894,1883,1883,1883,1883,1883,1883,1883,1883,1883,1873,1873,1873,1873,1873,1873,1863,1843,1843,1843,1843,1843,1843,1843,1843,1843,1843,1843,1843,1833,1833,1823,1823,1823,1833,1833,1823,1823,1823,1813,1813,1813,1804,1804,1804,1804,1804,1804,1804,1794,1794,1794,1794,1794,1794,1794,1785,1785,1785,1785,1785,1785,1776,1776,1776,1776,1776,1766,1766,1766,1766,1766,1766,1757,1757,1757,1757,1757,1757,1757,1757,1757,1757,1748,1748,1739,1731,1731,1731,1731,1722,1722,1722,1722,1722,1713,1713,1713,1705,1705,1705,1705,1705,1705,1705,1696,1696,1696,1696,1696,1696,1696,1696,1696,1696,1688,1688,1688,1680,1680,1671,1671,1671,1671,1671,1671,1663,1663,1663,1663,1671,1671,1671,1671,1671,1671,1680,1680,1680,1696,1947,1947,1947,1947,1947,1947,1936,1936,1936,1947,1936,1926,1926,1926,1926,1663,1655,1655,1663,1655,1655,1655,1655,1655,1655,1655,1655,1663,1663,1663,1663,1663,1663,1671,1671,1671,1671,1680,1680,1680,0,0,0,0,0,1047,1047,1047,1047,1047,1047,1047,1044,1044,1044,1044,1044,1047,1047,1047,1050,1050,1050,1054,1054,1057,1057,1060,1060,1060,1060,0,0,0,1748,0,1748,1748,1748,1748,1748,1748,1757,1757,1757,1757,1757,1757,1766,1766,1766,1766,1766,1766,1776,1776,1776,1785,1785,1794,1794,1794,1794,1794,1794,1794,1794,1804,1804,1804,1813,1804,1804,1804,1794,1794,1794,1785,1785,1785,0,0,0,0,0,0,0,0,0,0,0,0,0,0,821,821,821,819,817,815,811,811,809,807,805,805,805,805,805,807,807,809,811,811,811,813,813,813,817,817,819,819,819,821,821,821,823,0,0,0,0,0,0,0,0,1557,1550,1550,1543,1543,1536,1536,1529,1523,1523,1523,1516,1516,1516,1509,1509,1496,1496,1489,1489,1483,1477,1477,1470,1470,1470,1464,1464,1464,1452,1445,1445,1439,1439,1439,1433,1427,1427,1427,1421,1415,1415,1410,1410,1404,1404,1398,1398,1392,1392,1387,1381,1376,1376,1376,1370,1370,1370,1370,1365,1359,1359,1354,1354,1349,1349,1343,1338,1333,1333,1328,1328,1322,1322,1322,1317,1317,1312,1312,1307,1302,1302,1292,1292,1292,1292,1288,1288,1283,1278,1278,1273,1268,1268,1264,1259,1259,1259,1255,1255,1250,1250,1245,1241,1241,1236,1236,1232,1232,1232,1227,1227,1223,1223,1219,1219,1219,1214,1210,1206,1202,1202,1202,1197,1197,1197,1193,1189,1185,1185,1185,1181,1181,1177,1173,1173,1169,1169,1165,1165,1165,1161,1157,1157,1153,1153,1149,1149,1145,1141,1141,1138,1138,1138,1134,1134,1134,1130,1126,1123,1123,1119,1115,1115,1112,1112,1112,1108,1108,1105,1105,1101,1101,1094,1094,1094,1094,1090,1087,1087,1087,1084,1080,1080,1077,1077,1073,1073,1070,1067,1067,1063,1063,1063,1060,1060,1057,1054,1054,1054,1050,1047,1044,1041,1041,1041,1041,1038,1038,1038,1038,1034,1031,1031,1028,1028,1025,1019,1019,1016,1016,1016,1013,1013,1013,1010,1010,1007,1004,1004,1004,1001,1001,1001,998,995,992,992,989,989,987,987,984,981,981,978,975,973,973,970,970,970,967,967,964,964,962,959,959,0,0,0,0,0,0,0,0,0,0,0,0,0,0,0,0,0,0,0,0,0,0,0,0,0,0,0,0,0,0
0,0,0,0,0,0,0,0,0,0,0,0,0,0,0,0,1981,1970,1970,1959,1959,1959,1959,1947,1947,1947,1926,1926,1926,1926,1915,1915,1915,1915,1915,1904,1904,1894,1894,1883,1883,1883,1883,1883,1883,1883,1873,1873,1873,1873,1873,1873,1863,1853,1853,1853,1843,1843,1843,1843,1843,1843,1843,1843,1843,1833,1833,1833,1833,1833,1833,1833,1823,1823,1823,1813,1813,1813,1813,1804,1804,1804,1804,1804,1804,1804,1794,1794,1794,1804,1794,1794,1794,1794,1785,1785,1785,1785,1785,1785,1776,1776,1776,1766,1766,1766,1766,1766,1766,1757,1757,1757,1757,1757,1757,1757,1757,1757,1757,1748,1748,1739,1731,1731,1731,1731,1731,1722,1722,1722,1722,1713,1713,1713,1713,1713,1705,1705,1705,1705,1705,1705,1696,1696,1696,1696,1696,1696,1696,1696,1696,1696,1688,1688,1688,1680,1680,1680,1671,1671,1671,1671,1671,1671,1671,1671,1671,1671,1671,1671,1671,1680,1680,1680,1680,1696,1936,1936,1926,1926,1926,1926,1915,1915,1915,1915,1926,1915,1915,1915,1915,1663,1655,1655,1663,1663,1663,1655,1655,1655,1655,1655,1655,1663,1663,1663,1663,1663,1671,1671,1671,1671,1671,1671,1671,1671,0,0,0,0,0,1047,1047,1047,1047,1047,1047,1047,1047,1047,1044,1044,1044,1047,1047,1050,1050,1054,1054,1054,1054,1057,1060,1060,1060,1060,1060,0,0,0,0,0,1748,1748,1748,1748,1748,1748,1757,1757,1757,1757,1757,1766,1766,1766,1766,1766,1766,1766,1776,1776,1776,1785,1785,1794,1794,1804,1794,1794,1794,1794,1804,1804,1813,1813,1813,1804,1804,1804,1794,1794,1794,1785,1785,1785,0,0,0,0,0,0,0,0,0,0,0,0,0,0,821,821,821,821,817,815,811,811,809,807,807,805,805,807,807,807,807,809,811,811,813,813,813,815,817,817,819,819,821,821,821,821,823,0,0,0,0,0,0,0,1579,1572,1550,1550,1543,1543,1543,1536,1536,1529,1523,1523,1523,1516,1516,1509,1509,1496,1496,1489,1489,1483,1483,1477,1470,1470,1470,1464,1464,1464,1452,1445,1445,1439,1439,1439,1439,1433,1433,1427,1427,1421,1415,1410,1410,1410,1404,1398,1398,1398,1392,1392,1387,1381,1376,1376,1370,1370,1370,1370,1365,1365,1359,1354,1354,1349,1349,1343,1343,1338,1333,1333,1328,1328,1328,1322,1317,1317,1312,1312,1307,1307,1302,1292,1292,1292,1292,1292,1288,1288,1283,1283,1278,1273,1268,1268,1264,1264,1264,1259,1255,1255,1250,1245,1241,1241,1236,1236,1232,1232,1232,1227,1227,1223,1223,1219,1214,1214,1214,1210,1210,1206,1202,1202,1202,1197,1197,1193,1193,1189,1185,1185,1181,1181,1177,1177,1173,1169,1169,1165,1165,1165,1161,1161,1157,1157,1153,1153,1149,1145,1145,1141,1141,1138,1138,1138,1134,1134,1134,1130,1126,1123,1119,1119,1115,1115,1112,1112,1108,1108,1105,1105,1101,1101,1094,1094,1094,1094,1090,1090,1090,1087,1087,1080,1080,1080,1077,1073,1073,1070,1067,1067,1063,1063,1063,1060,1060,1057,1057,1054,1054,1050,1050,1044,1044,1041,1041,1041,1038,1038,1038,1038,1034,1034,1031,1028,1028,1025,1019,1019,1019,1016,1016,1016,1013,1013,1013,1010,1010,1007,1004,1004,1001,1001,1001,995,995,992,992,989,989,987,987,984,981,981,978,975,973,973,973,970,970,970,967,967,964,962,959,959,0,0,0,0,0,0,0,0,0,0,0,0,0,0,0,0,0,0,0,0,0,0,0,0,0,0,0,0,0,0
0,0,0,0,0,0,0,0,0,0,0,0,0,0,0,0,1981,1970,1970,1970,1959,1959,1959,1959,1947,1947,1926,1926,1926,1926,1926,1915,1915,1915,1915,1904,1904,1894,1894,1883,1883,1883,1883,1883,1883,1883,1873,1873,1873,1873,1873,1873,1873,1863,1853,1853,1843,1843,1843,1833,1833,1843,1843,1843,1843,1833,1833,1833,1833,1833,1833,1833,1823,1823,1823,1823,1813,1813,1813,1813,1804,1804,1804,1804,1804,1794,1794,1794,1804,1804,1794,1794,1794,1794,1794,1794,1785,1785,1785,1785,1776,1776,1776,1766,1766,1766,1766,1766,1766,1757,1757,1757,1757,1757,1757,1757,1757,1757,1757,1757,1748,1739,1731,1731,1731,1731,1731,1722,1722,1722,1722,1722,1713,1713,1713,1713,1713,1713,1713,1713,1705,1705,1696,1696,1696,1696,1696,1696,1696,1696,1696,1696,1688,1688,1688,1688,1688,1680,1680,1680,1680,1671,1671,1671,1671,1680,1680,1671,1671,1680,1680,1680,1680,1680,1688,1696,1936,1936,1926,1926,1926,1915,1915,1915,1915,1915,1915,1904,1904,1904,1655,1655,1655,1655,1655,1655,1663,1655,1655,1655,1655,1655,1663,1663,1663,1663,1663,1663,1671,1671,1671,1671,1671,1671,1671,1671,0,0,0,0,0,1060,1047,1047,1047,1047,1047,1047,1047,1047,1044,1044,1047,1047,1047,1050,1050,1054,1054,1057,1057,1057,1060,1060,1060,1060,1060,0,0,0,0,0,1757,1748,1748,1748,1757,1757,1757,1757,1757,1757,1757,1766,1766,1766,1766,1766,1766,1766,1776,1776,1776,1785,1785,1794,1794,1804,1794,1794,1804,1804,1804,1804,1813,1813,1813,1804,1804,1804,1804,1794,1794,1785,1785,1785,0,0,0,0,0,0,0,0,0,0,0,0,0,0,821,821,821,821,817,815,813,811,809,807,807,807,807,807,807,807,809,809,811,811,813,813,815,817,817,819,819,819,821,821,821,821,0,0,0,0,0,0,0,0,1579,1572,1557,1550,1550,1543,1543,1543,1536,1536,1529,1523,1523,1516,1516,1509,1509,1496,1496,1489,1489,1483,1483,1477,1470,1470,1470,1464,1464,1464,1452,1445,1445,1445,1439,1439,1439,1433,1433,1433,1427,1427,1421,1415,1415,1410,1410,1404,1398,1398,1392,1392,1387,1381,1376,1376,1376,1376,1376,1370,1370,1365,1359,1354,1354,1349,1349,1343,1343,1338,1333,1333,1328,1328,1328,1322,1322,1317,1312,1312,1307,1307,1302,1292,1292,1292,1292,1292,1288,1288,1288,1288,1283,1278,1273,1268,1268,1268,1264,1264,1255,1255,1250,1245,1245,1241,1236,1236,1232,1232,1232,1227,1227,1223,1223,1219,1214,1214,1214,1214,1210,1206,1202,1202,1202,1197,1197,1193,1193,1189,1189,1185,1185,1181,1177,1177,1173,1169,1169,1165,1165,1165,1161,1161,1157,1157,1153,1153,1149,1149,1141,1141,1141,1141,1138,1138,1134,1134,1134,1130,1130,1126,1123,1119,1119,1115,1115,1112,1112,1108,1108,1105,1105,1101,1097,1094,1094,1094,1090,1090,1090,1087,1087,1084,1080,1080,1077,1073,1073,1070,1067,1067,1063,1063,1063,1060,1060,1057,1057,1057,1054,1054,1054,1047,1044,1041,1041,1041,1038,1038,1038,1038,1034,1034,1031,1031,1028,1025,1022,1019,1019,1019,1016,1016,1016,1013,1013,1010,1010,1010,1007,1007,1004,1001,1001,995,995,992,992,992,989,987,987,984,981,981,978,975,975,973,973,973,970,970,967,967,964,964,959,959,0,0,0,0,0,0,0,0,0,0,0,0,0,0,0,0,0,0,0,0,0,0,0,0,0,0,0,0,0,0
0,0,0,0,0,0,0,0,0,0,0,0,0,0,0,0,1981,1970,1970,1970,1959,1959,1959,1959,1947,1947,1936,1936,1926,1926,1926,1926,1915,1915,1915,1915,1904,1894,1894,1894,1894,1883,1883,1883,1883,1883,1883,1883,1873,1873,1873,1873,1873,1873,1863,1853,1843,1843,1843,1833,1833,1843,1833,1833,1843,1843,1833,1833,1833,1833,1833,1833,1833,1833,1823,1823,1823,1813,1813,1813,1804,1804,1804,1804,1804,1794,1794,1794,1804,1804,1794,1794,1794,1794,1794,1794,1785,1785,1785,1785,1776,1776,1776,1766,1766,1766,1766,1766,1766,1766,1766,1757,1757,1757,1757,1757,1757,1757,1748,1748,1748,1739,1739,1731,1731,1731,1731,1722,1722,1722,1722,1722,1722,1722,1722,1722,1722,1722,1722,1713,1713,1705,1705,1696,1696,1696,1696,1696,1696,1696,1696,1696,1696,1696,1688,1688,1688,1688,1680,1680,1680,1680,1671,1671,1671,1680,1680,1680,1680,1680,1680,1680,1680,1680,1688,1696,1926,1926,1926,1926,1915,1915,1915,1915,1904,1904,1904,1894,1894,1894,1655,1655,1655,1655,1655,1655,1663,1655,1655,1655,1655,1663,1663,1663,1663,1663,1663,1671,1671,1671,1671,1671,1671,1671,1671,1671,0,0,0,0,0,1063,1060,1057,1050,1047,1047,1047,1047,1047,1044,1044,1047,1047,1047,1050,1054,1054,1057,1057,1057,1060,1060,1060,1060,1060,1060,0,0,0,0,0,1748,1748,1748,1757,1757,1757,1757,1757,1757,1757,1757,1766,1766,1766,1766,1766,1766,1766,1776,1776,1785,1794,1794,1794,1804,1804,1794,1794,1804,1804,1804,1804,1813,1813,1813,1813,1813,1804,1804,1794,1794,1785,1785,1785,0,0,0,0,0,0,0,0,0,0,0,0,0,0,821,821,821,821,817,815,813,811,809,809,807,807,807,807,807,807,809,811,811,813,813,815,815,819,819,819,819,821,821,823,823,823,0,0,0,0,0,0,0,1579,1579,1572,1557,1550,1550,1543,1543,1543,1543,1536,1529,1529,1523,1516,1516,1509,1503,1496,1496,1489,1489,1483,1483,1477,1477,1470,1470,1470,1464,1464,1452,1452,1445,1445,1445,1439,1439,1433,1433,1433,1427,1427,1421,1415,1415,1410,1410,1404,1398,1398,1392,1392,1392,1387,1381,1376,1376,1376,1376,1370,1370,1365,1365,1359,1354,1354,1349,1349,1343,1338,1333,1333,1328,1328,1328,1322,1322,1317,1312,1312,1307,1307,1302,1302,1297,1292,1292,1292,1288,1288,1288,1288,1283,1278,1273,1268,1268,1268,1264,1264,1259,1255,1255,1250,1250,1241,1236,1236,1232,1232,1232,1232,1227,1223,1223,1219,1219,1219,1214,1214,1210,1206,1202,1202,1202,1202,1197,1197,1193,1193,1189,1185,1181,1181,1181,1177,1173,1169,1169,1165,1165,1165,1161,1161,1157,1157,1153,1153,1149,1145,1141,1141,1141,1141,1138,1138,1138,1134,1134,1130,1130,1126,1123,1119,1119,1119,1115,1112,1112,1108,1108,1105,1105,1101,1097,1094,1094,1094,1094,1090,1090,1087,1087,1084,1084,1080,1080,1077,1077,1070,1067,1067,1067,1063,1063,1063,1063,1060,1057,1057,1054,1050,1050,1047,1047,1044,1041,1041,1038,1038,1038,1038,1034,1034,1034,1031,1028,1025,1022,1019,1019,1019,1019,1016,1016,1013,1013,1013,1010,1010,1007,1007,1004,1004,1001,998,995,992,992,992,989,989,987,984,981,981,978,978,975,975,973,973,970,970,967,967,964,964,959,959,0,0,0,0,0,0,0,0,0,0,0,0,0,0,0,0,0,0,0,0,0,0,0,0,0,0,0,0,0,0
0,0,0,0,0,0,0,0,0,0,0,0,0,0,0,0,1981,1981,1970,1970,1959,1959,1959,1959,1947,1947,1936,1936,1926,1926,1926,1926,1915,1915,1915,1915,1915,1894,1894,1894,1894,1883,1883,1883,1883,1883,1883,1883,1883,1883,1883,1873,1873,1873,1863,1863,1853,1843,1843,1843,1843,1843,1833,1833,1843,1843,1833,1833,1833,1833,1833,1833,1833,1833,1823,1823,1823,1823,1813,1813,1813,1804,1804,1804,1804,1794,1794,1794,1804,1794,1794,1794,1794,1794,1794,1794,1785,1785,1785,1785,1785,1785,1776,1776,1776,1766,1766,1766,1766,1766,1766,1766,1766,1766,1766,1757,1757,1757,1748,1748,1748,1739,1731,1731,1731,1731,1731,1731,1731,1722,1722,1722,1722,1722,1722,1722,1722,1722,1722,1722,1713,1705,1705,1696,1696,1696,1696,1696,1696,1696,1696,1696,1696,1696,1696,1696,1688,1688,1688,1688,1688,1688,1680,1680,1680,1680,1680,1688,1688,1688,1688,1688,1688,1688,1688,1696,1915,1915,1915,1915,1915,1915,1915,1904,1904,1904,1894,1894,1883,1883,1883,1655,1655,1655,1655,1663,1663,1655,1655,1655,1663,1663,1663,1663,1663,1663,1663,1671,1680,1671,1671,1671,1671,1671,1671,1671,0,0,0,0,0,1063,1060,1060,1057,1057,1050,1050,1047,1047,1047,1047,1047,1047,1050,1050,1054,1057,1057,1057,1057,1060,1060,1060,1060,1060,1060,0,0,0,0,0,1748,1748,1757,1757,1757,1757,1757,1757,1757,1766,1766,1766,1766,1766,1766,1776,1766,1766,1776,1776,1785,1794,1794,1804,1804,1804,1804,1804,1804,1804,1804,1813,1813,1813,1813,1813,1813,1804,1804,1804,1794,1794,1785,1785,0,0,0,0,0,0,0,0,0,0,0,0,0,0,821,821,821,821,819,817,813,813,811,809,809,807,807,807,809,809,811,811,813,813,815,815,817,819,819,819,821,821,823,823,823,0,0,0,0,0,0,0,0,1579,1579,1572,1557,1550,1550,1550,1543,1543,1543,1543,1529,1529,1523,1523,1516,1509,1503,1496,1496,1496,1489,1489,1483,1483,1477,1477,1470,1470,1464,1464,1452,1452,1445,1445,1445,1439,1439,1439,1439,1433,1427,1427,1421,1415,1415,1415,1410,1410,1404,1398,1398,1392,1392,1387,1381,1381,1376,1376,1376,1370,1370,1365,1365,1359,1354,1349,1349,1349,1343,1338,1333,1333,1328,1328,1328,1328,1322,1317,1317,1312,1307,1307,1302,1302,1297,1297,1292,1292,1288,1288,1288,1288,1283,1278,1273,1273,1268,1268,1268,1264,1259,1255,1255,1250,1250,1250,1236,1236,1232,1232,1232,1227,1227,1223,1223,1219,1219,1214,1214,1214,1210,1206,1206,1206,1202,1202,1197,1197,1193,1193,1189,1185,1181,1181,1181,1177,1173,1173,1169,1169,1169,1165,1165,1161,1161,1157,1157,1153,1149,1145,1141,1141,1141,1141,1138,1138,1138,1138,1134,1134,1130,1130,1123,1123,1119,1119,1115,1115,1112,1108,1108,1105,1101,1101,1097,1094,1094,1094,1094,1094,1090,1087,1087,1084,1084,1080,1080,1077,1073,1070,1067,1067,1067,1067,1063,1063,1063,1060,1057,1057,1054,1050,1050,1047,1047,1044,1041,1041,1038,1038,1038,1038,1034,1034,1034,1031,1028,1025,1022,1022,1019,1019,1019,1016,1016,1016,1013,1013,1013,1010,1007,1007,1004,1004,1001,998,998,995,992,992,989,989,987,984,981,981,978,978,978,975,975,973,970,970,970,967,967,964,962,962,0,0,0,0,0,0,0,0,0,0,0,0,0,0,0,0,0,0,0,0,0,0,0,0,0,0,0,0,0,0
0,0,0,0,0,0,0,0,0,0,0,0,0,0,0,0,1993,1981,1970,1970,1959,1959,1959,1959,1947,1947,1936,1936,1926,1926,1926,1926,1926,1926,1926,1926,1915,1915,1915,1904,1894,1883,1883,1883,1883,1883,1883,1883,1883,1883,1883,1883,1883,1873,1873,1863,1853,1843,1843,1843,1843,1843,1833,1833,1843,1843,1843,1833,1833,1833,1833,1833,1833,1833,1833,1823,1823,1823,1813,1813,1813,1813,1804,1804,1804,1804,1804,1794,1794,1794,1794,1794,1794,1794,1794,1794,1785,1785,1785,1785,1785,1785,1785,1776,1776,1766,1766,1766,1766,1766,1766,1766,1766,1766,1766,1766,1766,1757,1757,1748,1748,1739,1731,1731,1731,1731,1731,1731,1731,1731,1731,1731,1731,1722,1722,1722,1722,1722,1722,1722,1713,1713,1705,1696,1696,1696,1696,1696,1696,1696,1696,1696,1696,1696,1696,1696,1688,1688,1688,1688,1688,1688,1680,1680,1680,1680,1680,1688,1688,1688,1688,1688,1696,1696,1696,1696,1904,1904,1904,1904,1904,1904,1904,1904,1904,1894,1894,1883,1883,1883,1873,1655,1647,1647,1655,1663,1663,1655,1655,1663,1663,1663,1663,1663,1663,1663,1663,1671,1680,1671,1671,1671,1671,1671,1671,1671,0,1671,0,0,0,1063,1060,1060,1057,1057,1050,1050,1047,1047,1047,1047,1047,1050,1050,1054,1054,1057,1057,1060,1060,1060,1060,1060,1060,1060,1060,0,0,0,0,0,1748,1748,1757,1757,1757,1757,1757,1757,1757,1766,1766,1766,1766,1766,1766,1776,1776,1776,1776,1776,1785,1794,1794,1804,1804,1804,1804,1804,1804,1804,1813,1813,1813,1813,1823,1823,1823,1813,1804,1804,1804,1794,1785,1785,0,0,0,0,0,0,0,0,0,0,0,0,0,0,819,819,821,821,819,817,815,813,811,811,809,809,809,809,809,809,811,811,813,813,815,815,817,819,819,819,821,823,823,825,825,0,0,0,0,0,0,0,1572,1572,1572,1564,1557,1550,1550,1550,1543,1543,1543,1543,1529,1529,1523,1523,1516,1509,1503,1496,1496,1496,1489,1489,1489,1483,1483,1477,1470,1470,1470,1464,1458,1452,1452,1445,1445,1445,1439,1439,1439,1433,1433,1427,1421,1421,1415,1415,1410,1410,1404,1398,1398,1392,1392,1392,1381,1381,1376,1376,1376,1370,1370,1370,1365,1359,1354,1349,1349,1349,1349,1343,1338,1333,1333,1333,1328,1328,1328,1322,1317,1312,1307,1307,1307,1302,1302,1297,1297,1292,1292,1288,1288,1288,1283,1278,1278,1273,1273,1268,1268,1264,1264,1255,1255,1255,1255,1250,1241,1236,1232,1232,1232,1227,1227,1223,1223,1219,1219,1214,1214,1214,1210,1210,1206,1206,1202,1202,1202,1197,1193,1193,1189,1185,1181,1181,1181,1177,1177,1173,1169,1169,1169,1165,1165,1165,1161,1161,1157,1153,1149,1145,1141,1141,1141,1138,1138,1134,1134,1134,1134,1134,1130,1130,1123,1123,1119,1119,1115,1115,1112,1108,1108,1105,1101,1101,1097,1094,1094,1094,1094,1094,1090,1090,1087,1087,1084,1084,1080,1077,1073,1070,1070,1067,1067,1067,1067,1063,1063,1063,1060,1060,1054,1050,1050,1050,1047,1044,1041,1041,1038,1038,1038,1038,1034,1034,1031,1031,1028,1025,1022,1022,1019,1019,1019,1016,1016,1016,1016,1013,1013,1010,1007,1007,1004,1004,1001,998,998,995,992,992,992,989,987,984,981,981,978,978,978,978,975,975,973,970,970,967,967,964,962,962,0,0,0,0,0,0,0,0,0,0,0,0,0,0,0,0,0,0,0,0,0,0,0,0,0,0,0,0,0,0
0,0,0,0,0,0,0,0,0,0,0,0,0,0,0,0,1993,1993,1970,1970,1959,1959,1947,1947,1947,1947,1936,1936,1926,1926,1926,1926,1926,1926,1926,1926,1926,1915,1915,1904,1894,1883,1883,1883,1883,1883,1883,1883,1883,1883,1883,1883,1883,1873,1873,1873,1863,1853,1853,1843,1843,1843,1833,1833,1843,1843,1843,1843,1843,1833,1833,1833,1833,1833,1833,1833,1823,1823,1823,1823,1813,1813,1813,1813,1804,1804,1804,1794,1794,1794,1794,1794,1794,1794,1794,1794,1785,1785,1785,1785,1785,1785,1785,1776,1776,1776,1776,1766,1766,1766,1766,1766,1766,1766,1766,1766,1766,1757,1757,1757,1748,1748,1739,1731,1731,1731,1731,1731,1731,1731,1731,1731,1731,1731,1731,1731,1722,1722,1722,1722,1713,1713,1713,1705,1705,1705,1696,1696,1696,1696,1696,1696,1696,1696,1696,1696,1688,1688,1688,1688,1688,1688,1680,1680,1680,1680,1680,1688,1688,1688,1688,1688,1696,1696,1688,1688,1904,1904,1904,1904,1904,1894,1894,1894,1894,1883,1883,1873,1873,1873,1863,1863,1647,1647,1655,1663,1663,1655,1655,1663,1663,1663,1663,1663,1663,1663,1671,1671,1680,1680,1680,1671,1671,1671,1671,1671,1671,1671,0,0,0,1063,1063,1060,1057,1057,1050,1050,1047,1047,1047,1047,1050,1050,1050,1054,1054,1057,1060,1060,1060,1060,1060,1060,1060,1060,1060,0,0,0,0,0,1757,1757,1757,1757,1757,1757,1757,1766,1766,1766,1766,1776,1776,1776,1776,1776,1776,1776,1776,1776,1794,1794,1804,1804,1804,1804,1804,1804,1804,1804,1813,1813,1813,1813,1823,1823,1823,1813,1813,1804,1804,1804,1794,1794,0,0,0,0,0,0,0,0,0,0,0,0,0,0,819,819,821,821,821,819,817,813,811,811,809,809,809,809,809,809,811,811,813,813,815,817,819,819,819,821,821,825,825,825,0,0,0,0,0,0,0,0,1572,1572,1572,1564,1557,1557,1550,1550,1550,1550,1543,1536,1536,1529,1523,1523,1516,1509,1503,1496,1496,1496,1496,1496,1489,1489,1489,1483,1477,1470,1470,1464,1458,1458,1452,1445,1445,1445,1439,1439,1439,1439,1433,1433,1421,1421,1415,1415,1410,1410,1404,1398,1398,1392,1392,1392,1387,1381,1376,1376,1376,1370,1370,1365,1365,1359,1354,1349,1349,1349,1349,1343,1338,1333,1333,1333,1333,1328,1328,1328,1322,1312,1312,1307,1307,1302,1302,1297,1297,1292,1292,1288,1288,1288,1283,1278,1278,1273,1273,1268,1268,1264,1264,1259,1259,1255,1255,1250,1250,1241,1236,1236,1236,1227,1227,1223,1223,1223,1219,1214,1214,1214,1210,1206,1206,1202,1202,1202,1202,1197,1197,1197,1189,1185,1185,1181,1181,1181,1177,1173,1173,1169,1169,1169,1165,1165,1161,1161,1157,1153,1153,1145,1141,1141,1141,1138,1138,1134,1134,1134,1134,1130,1130,1130,1123,1123,1119,1119,1115,1115,1112,1108,1108,1108,1101,1101,1097,1094,1094,1094,1094,1094,1090,1090,1090,1087,1087,1084,1080,1077,1073,1070,1070,1070,1067,1067,1067,1063,1063,1063,1060,1060,1054,1054,1054,1050,1050,1047,1044,1041,1038,1038,1038,1038,1034,1034,1031,1031,1028,1028,1025,1025,1022,1022,1022,1019,1016,1016,1016,1013,1013,1010,1010,1010,1007,1004,1001,1001,998,995,995,992,992,989,987,984,981,981,981,978,978,978,975,975,973,970,970,967,967,964,964,964,0,0,0,0,0,0,0,0,0,0,0,0,0,0,0,0,0,0,0,0,0,0,0,0,0,0,0,0,0,0
0,0,0,0,0,0,0,0,0,0,0,0,0,0,0,0,1993,1993,1970,1970,1959,1959,1947,1947,1947,1947,1936,1936,1926,1926,1926,1926,1926,1926,1926,1926,1926,1915,1915,1915,1894,1894,1894,1894,1883,1883,1883,1883,1883,1883,1883,1883,1883,1883,1873,1873,1873,1863,1863,1843,1843,1843,1843,1843,1843,1843,1843,1843,1843,1833,1833,1833,1833,1833,1833,1833,1833,1823,1823,1823,1823,1823,1813,1813,1813,1804,1804,1804,1804,1804,1804,1794,1794,1794,1794,1794,1785,1785,1785,1785,1785,1785,1785,1776,1776,1776,1776,1766,1766,1766,1766,1766,1766,1766,1766,1766,1757,1757,1757,1757,1748,1748,1748,1739,1731,1731,1731,1731,1731,1731,1731,1731,1731,1731,1731,1731,1722,1722,1722,1722,1722,1722,1713,1713,1713,1705,1705,1705,1705,1705,1705,1705,1696,1696,1696,1696,1688,1688,1688,1688,1688,1688,1688,1680,1680,1680,1680,1688,1688,1688,1688,1688,1696,1696,1688,1688,1894,1894,1883,1883,1883,1883,1873,1873,1873,1873,1863,1853,1853,1863,1863,1853,1853,1655,1655,1663,1663,1655,1655,1663,1663,1663,1663,1663,1663,1663,1671,1671,1680,1680,1680,1680,1680,1671,1671,1671,1671,1671,0,0,0,1063,1060,1060,1057,1057,1054,1050,1050,1047,1047,1047,1050,1050,1050,1054,1054,1057,1060,1060,1060,1060,1060,1060,1060,1060,1060,1060,0,0,0,0,1757,1757,1757,1757,1757,1757,1766,1766,1766,1766,1766,1776,1776,1776,1776,1776,1776,1776,1776,1794,1794,1794,1804,1804,1804,1804,1804,1804,1804,1813,1813,1823,1823,1823,1823,1823,1823,1813,1813,1813,1813,1813,1804,1804,1813,0,0,0,0,0,0,0,0,0,0,0,0,0,819,819,821,821,821,819,817,815,813,811,811,809,809,809,811,811,811,811,813,815,815,817,819,819,821,821,821,825,825,827,0,0,0,0,0,0,0,0,1572,1572,1572,1572,1564,1557,1550,1550,1550,1550,1543,1536,1536,1529,1523,1523,1516,1509,1503,1503,1503,1496,1496,1496,1496,1489,1489,1483,1477,1470,1470,1464,1464,1458,1458,1452,1445,1445,1439,1439,1439,1439,1433,1433,1421,1421,1415,1415,1410,1410,1404,1404,1398,1398,1392,1392,1387,1381,1376,1376,1376,1370,1370,1365,1365,1359,1354,1354,1354,1349,1349,1343,1338,1333,1333,1333,1333,1328,1328,1328,1322,1317,1312,1312,1307,1307,1302,1297,1297,1292,1292,1288,1288,1288,1283,1283,1278,1273,1273,1268,1268,1264,1264,1264,1259,1255,1255,1250,1250,1241,1241,1241,1236,1232,1227,1227,1227,1223,1219,1219,1214,1214,1214,1206,1206,1202,1202,1202,1202,1197,1197,1197,1189,1185,1185,1185,1181,1181,1177,1177,1173,1169,1169,1169,1165,1165,1161,1161,1153,1153,1153,1149,1145,1145,1141,1141,1138,1138,1134,1134,1134,1130,1130,1126,1123,1123,1119,1119,1115,1115,1112,1108,1108,1105,1101,1101,1101,1097,1094,1094,1094,1094,1090,1090,1090,1087,1087,1084,1080,1077,1077,1073,1073,1070,1070,1067,1067,1067,1063,1063,1060,1060,1057,1054,1054,1050,1050,1047,1044,1041,1041,1041,1038,1038,1034,1034,1034,1031,1028,1028,1025,1025,1022,1022,1022,1019,1019,1016,1016,1013,1013,1013,1010,1007,1004,1001,1001,998,998,995,995,992,992,989,987,984,981,981,981,981,978,978,978,975,975,973,970,970,967,967,964,964,0,0,0,0,0,0,0,0,0,0,0,0,0,0,0,0,0,0,0,0,0,0,0,0,0,0,0,0,0,0
0,0,0,0,0,0,0,0,0,0,0,0,0,0,0,0,1993,1993,1970,1970,1970,1959,1959,1959,1959,1947,1936,1936,1926,1926,1926,1926,1926,1926,1926,1926,1926,1926,1926,1915,1904,1904,1904,1904,1894,1894,1894,1894,1883,1883,1883,1883,1883,1883,1873,1873,1873,1873,1873,1863,1863,1863,1843,1843,1843,1843,1843,1843,1843,1833,1833,1833,1833,1833,1833,1833,1833,1833,1833,1833,1823,1823,1823,1813,1813,1804,1804,1804,1804,1804,1804,1804,1804,1804,1794,1794,1785,1785,1785,1785,1785,1785,1785,1776,1776,1776,1776,1766,1766,1766,1766,1776,1766,1766,1766,1766,1757,1757,1757,1757,1748,1748,1748,1748,1748,1748,1739,1731,1731,1739,1731,1731,1731,1731,1731,1731,1731,1731,1731,1722,1722,1722,1722,1713,1713,1705,1705,1705,1705,1705,1705,1705,1696,1696,1696,1696,1696,1696,1696,1696,1688,1688,1688,1688,1688,1688,1688,1688,1688,1688,1688,1688,1696,1688,1688,1688,1894,1883,1873,1873,1873,1873,1853,1853,1853,1853,1853,1853,1853,1843,1843,1843,1843,1655,1655,1655,1663,1663,1663,1663,1663,1663,1663,1663,1663,1663,1671,1671,1680,1680,1680,1680,1680,1671,1671,1671,1671,1671,1067,1063,1063,1063,1060,1060,1057,1057,1054,1050,1050,1050,1047,1047,1050,1050,1050,1054,1057,1060,1060,1060,1060,1063,1063,1060,1060,1060,1060,1060,0,0,0,1757,1757,1757,1757,1757,1766,1766,1766,1766,1766,1776,1776,1776,1776,1776,1776,1776,1776,1776,1785,1794,1804,1804,1804,1804,1813,1804,1804,1804,1804,1813,1823,1823,1823,1823,1823,1823,1823,1823,1823,1823,1823,1813,1813,1813,1813,0,0,0,0,0,0,0,0,0,0,0,0,823,819,819,821,821,821,819,819,815,813,811,811,811,811,811,811,811,811,813,815,817,817,819,819,819,821,821,825,827,827,827,0,0,0,0,0,0,0,0,1579,1579,1572,1572,1564,1564,1557,1550,1550,1550,1543,1543,1536,1536,1529,1523,1516,1516,1509,1503,1503,1496,1496,1496,1496,1489,1489,1489,1483,1477,1470,1464,1464,1458,1458,1452,1452,1445,1445,1445,1439,1439,1433,1427,1421,1421,1415,1415,1415,1410,1410,1404,1398,1398,1392,1392,1387,1381,1376,1376,1376,1370,1370,1365,1365,1359,1354,1354,1354,1349,1349,1349,1343,1338,1333,1333,1333,1333,1328,1328,1322,1317,1312,1312,1307,1307,1302,1297,1297,1292,1292,1288,1288,1288,1283,1283,1278,1273,1273,1268,1268,1268,1264,1264,1259,1259,1255,1255,1250,1245,1241,1241,1236,1232,1232,1227,1227,1227,1223,1219,1219,1214,1214,1210,1206,1206,1202,1202,1202,1197,1197,1197,1189,1185,1185,1185,1181,1181,1181,1177,1173,1169,1169,1169,1169,1165,1161,1161,1153,1153,1153,1149,1145,1145,1141,1141,1138,1138,1134,1134,1134,1130,1130,1126,1126,1123,1123,1119,1119,1115,1115,1112,1108,1105,1101,1101,1101,1097,1094,1094,1094,1094,1090,1090,1090,1087,1087,1084,1080,1080,1077,1077,1073,1070,1070,1067,1067,1067,1063,1063,1060,1060,1057,1054,1054,1050,1050,1047,1047,1044,1041,1041,1041,1038,1038,1034,1034,1031,1028,1028,1028,1025,1025,1022,1022,1019,1019,1016,1016,1013,1013,1013,1010,1007,1004,1001,1001,998,998,995,995,995,992,992,989,984,984,984,981,981,978,978,978,975,975,973,970,970,967,967,964,964,0,0,0,0,0,0,0,0,0,0,0,0,0,0,0,0,0,0,0,0,0,0,0,0,0,0,0,0,0,0
0,0,0,0,0,0,0,0,0,0,0,0,0,0,0,0,1993,1993,1981,1970,1970,1959,1959,1959,1947,1947,1936,1936,1926,1926,1926,1926,1926,1926,1926,1926,1926,1926,1915,1915,1904,1904,1904,1904,1904,1904,1894,1894,1894,1894,1883,1883,1883,1883,1883,1883,1873,1873,1873,1863,1863,1863,1873,1873,1843,1843,1843,1843,1843,1843,1833,1833,1833,1833,1833,1833,1833,1833,1833,1833,1823,1823,1823,1813,1813,1813,1813,1813,1823,1813,1813,1813,1804,1804,1794,1794,1785,1785,1794,1794,1785,1785,1785,1785,1785,1785,1776,1776,1766,1766,1766,1776,1776,1766,1766,1766,1757,1757,1757,1757,1748,1748,1748,1748,1748,1748,1748,1748,1748,1739,1739,1739,1739,1739,1739,1731,1731,1731,1731,1731,1722,1722,1722,1722,1713,1713,1722,1705,1705,1705,1705,1705,1696,1696,1696,1696,1696,1696,1696,1696,1688,1688,1688,1688,1688,1688,1688,1688,1688,1688,1688,1688,1696,1688,1688,1688,1883,1883,1873,1873,1863,1853,1853,1843,1843,1843,1843,1050,1050,1050,1843,1843,1833,1655,1655,1655,1663,1663,1663,1663,1663,1663,1663,1663,1663,1663,1663,1671,1671,1680,1680,1671,1671,1671,1671,1671,1671,1671,1067,1067,1063,1063,1060,1060,1057,1057,1054,1050,1050,1050,1050,1050,1050,1050,1050,1054,1057,1060,1060,1060,1063,1063,1063,1063,1063,1060,1060,1060,0,0,0,1757,1757,1757,1757,1757,1766,1766,1766,1766,1776,1776,1776,1785,1785,1785,1785,1785,1785,1785,1785,1794,1804,1804,1804,1804,1813,1813,1813,1804,1804,1823,1823,1823,1823,1823,1833,1833,1823,1823,1823,1823,1823,1823,1823,1813,1813,0,0,0,0,0,0,0,0,0,0,0,0,823,821,821,823,823,821,819,819,817,813,813,813,811,811,811,811,813,813,813,815,817,819,819,821,821,821,823,825,827,827,827,0,0,0,0,0,0,0,0,1579,1579,1579,1579,1572,1564,1557,1550,1550,1550,1543,1543,1536,1536,1529,1523,1523,1516,1516,1516,1503,1503,1496,1496,1496,1489,1489,1489,1483,1477,1470,1464,1464,1464,1458,1458,1452,1452,1445,1445,1439,1439,1433,1427,1421,1421,1421,1415,1415,1415,1410,1404,1398,1398,1392,1392,1387,1381,1376,1376,1376,1376,1370,1370,1370,1365,1354,1354,1354,1354,1349,1349,1343,1338,1338,1333,1333,1333,1328,1328,1322,1317,1312,1312,1312,1307,1302,1297,1297,1292,1292,1292,1292,1288,1288,1283,1283,1278,1273,1268,1268,1268,1264,1264,1259,1259,1255,1255,1250,1245,1245,1245,1236,1236,1232,1232,1227,1227,1223,1223,1219,1214,1214,1210,1210,1206,1206,1202,1202,1197,1197,1197,1193,1193,1189,1185,1185,1181,1181,1181,1173,1173,1169,1169,1169,1165,1165,1161,1157,1153,1153,1149,1145,1145,1141,1141,1138,1138,1138,1134,1134,1134,1130,1130,1126,1123,1123,1123,1119,1119,1115,1112,1112,1108,1105,1105,1101,1097,1097,1097,1097,1094,1094,1090,1090,1087,1087,1084,1080,1080,1077,1077,1073,1073,1070,1067,1067,1067,1063,1063,1063,1060,1057,1054,1054,1050,1050,1047,1047,1044,1041,1041,1041,1038,1038,1034,1034,1031,1031,1028,1028,1028,1025,1022,1022,1019,1019,1016,1016,1013,1013,1013,1010,1004,1004,1001,1001,1001,998,998,998,995,992,992,989,987,984,984,984,981,981,978,978,978,975,973,970,970,970,967,967,967,0,0,0,0,0,0,0,0,0,0,0,0,0,0,0,0,0,0,0,0,0,0,0,0,0,0,0,0,0,0
0,0,0,0,0,0,0,0,0,0,0,0,0,0,0,0,1993,1993,1981,1981,1970,1970,1970,1959,1947,1947,1936,1936,1936,1936,1926,1926,1926,1926,1926,1926,1926,1926,1915,1904,1904,1904,1904,1915,1904,1904,1894,1894,1894,1883,1883,1883,1883,1883,1883,1883,1873,1873,1873,1873,1863,1863,1863,1863,1853,1843,1843,1843,1843,1843,1843,1843,1843,1843,1843,1843,1833,1833,1833,1833,1823,1823,1823,1813,1813,1813,1813,1813,1833,1813,1813,1813,1804,1804,1804,1794,1794,1794,1794,1794,1794,1785,1785,1794,1785,1785,1776,1776,1776,1776,1776,1776,1776,1766,1766,1766,1757,1757,1757,1757,1757,1757,1757,1757,1757,1757,1748,1748,1748,1748,1748,1748,1739,1739,1739,1731,1731,1731,1731,1731,1731,1722,1722,1722,1722,1722,1722,1713,1713,1705,1705,1705,1705,1696,1696,1696,1696,1696,1696,1696,1688,1688,1688,1688,1688,1688,1688,1688,1688,1688,1696,1696,1696,1688,1688,1688,1883,1873,1873,1863,1863,1853,1843,1843,1833,1833,1843,1050,1050,1050,1054,1843,1833,1833,1843,1663,1663,1663,1663,1663,1663,1663,1663,1663,1663,1663,1663,1671,1671,1671,1680,1671,1671,1671,1671,1671,1671,1060,1060,1060,1060,1060,1060,1060,1057,1054,1054,1050,1050,1050,1050,1050,1050,1050,1054,1054,1054,1057,1060,1060,1060,1063,1063,1063,1060,1060,1060,1060,0,0,0,1757,1757,1757,1757,1757,1766,1766,1766,1766,1776,1776,1785,1785,1785,1785,1785,1785,1785,1785,1794,1794,1804,1804,1804,1813,1813,1813,1813,1804,1804,1823,1823,1833,1833,1833,1833,1833,1833,1833,1823,1823,1823,1823,1823,1823,0,0,0,0,0,0,0,0,0,0,0,0,0,0,823,823,825,823,821,819,819,817,815,813,813,813,813,813,813,813,813,813,815,817,819,819,821,821,823,823,825,827,827,827,0,0,0,0,0,0,0,0,1579,1579,1579,1579,1572,1564,1557,1550,1550,1550,1543,1543,1536,1536,1529,1523,1523,1516,1516,1516,1516,1503,1496,1496,1496,1489,1489,1489,1489,1483,1470,1470,1470,1464,1464,1458,1458,1452,1445,1445,1439,1439,1433,1427,1427,1421,1421,1415,1415,1415,1410,1404,1404,1398,1392,1392,1387,1381,1376,1376,1376,1376,1370,1370,1370,1365,1354,1354,1354,1354,1349,1349,1349,1343,1338,1338,1333,1333,1328,1328,1328,1322,1317,1312,1312,1307,1307,1302,1302,1297,1292,1292,1292,1288,1288,1283,1278,1278,1273,1273,1268,1268,1264,1264,1259,1259,1255,1255,1250,1250,1250,1245,1241,1236,1232,1232,1227,1227,1227,1223,1219,1214,1214,1210,1210,1210,1206,1206,1202,1202,1197,1197,1193,1193,1189,1185,1185,1181,1181,1181,1177,1173,1169,1169,1169,1165,1165,1161,1157,1157,1153,1149,1149,1149,1145,1141,1141,1138,1138,1138,1134,1134,1130,1130,1126,1126,1123,1123,1119,1119,1115,1112,1112,1112,1105,1105,1101,1097,1097,1097,1097,1094,1094,1090,1090,1090,1087,1084,1080,1080,1077,1077,1073,1073,1070,1070,1067,1067,1067,1063,1063,1060,1057,1057,1054,1054,1050,1050,1047,1044,1044,1041,1041,1038,1038,1034,1034,1031,1031,1028,1028,1028,1025,1025,1025,1022,1022,1019,1016,1016,1013,1013,1010,1004,1004,1004,1001,1001,1001,998,998,998,995,992,989,989,987,984,984,981,981,978,978,978,975,973,970,970,970,967,967,967,0,0,0,0,0,0,0,0,0,0,0,0,0,0,0,0,0,0,0,0,0,0,0,0,0,0,0,0,0,0
0,0,0,0,0,0,0,0,0,0,0,0,0,0,0,0,1993,1993,1993,1981,1981,1970,1970,1959,1947,1947,1936,1936,1947,1936,1926,1926,1936,1926,1926,1926,1926,1926,1926,1904,1904,1904,1915,1915,1904,1904,1894,1894,1894,1883,1883,1883,1883,1883,1883,1883,1883,1873,1873,1873,1863,1863,1863,1863,1853,1843,1843,1843,1843,1843,1843,1843,1843,1843,1843,1843,1833,1833,1833,1833,1823,1823,1823,1813,1813,1823,1823,1823,1833,1833,1823,1823,1813,1804,1804,1804,1794,1794,1794,1794,1794,1794,1794,1794,1794,1785,1785,1785,1776,1776,1776,1776,1776,1766,1766,1766,1757,1757,1757,1757,1757,1757,1757,1757,1757,1757,1757,1748,1748,1748,1748,1748,1748,1748,1739,1739,1731,1731,1731,1731,1731,1731,1731,1722,1722,1722,1722,1722,1722,1713,1713,1713,1705,1696,1696,1696,1696,1696,1696,1688,1688,1688,1688,1680,1680,1688,1688,1688,1688,1688,1696,1696,1696,1688,1688,1688,1883,1873,1873,1863,1853,1843,1843,1833,1833,1833,1833,1050,1050,1050,1050,1050,1833,1833,1671,1671,1663,1663,1663,1663,1663,1663,1663,1663,1663,1663,1663,1671,1671,1671,1680,1671,1671,1671,1671,1671,1041,1038,1060,1060,1057,1057,1057,1057,1054,1054,1050,1047,1047,1047,1050,1050,1050,1050,1050,1050,1054,1057,1057,1060,1060,1060,1063,1063,1060,1060,1054,1054,1054,0,1757,1757,1757,1757,1766,1766,1776,1776,1776,1776,1776,1785,1785,1785,1785,1785,1785,1794,1794,1794,1794,1804,1804,1804,1804,1813,1813,1823,1823,1813,1813,1823,1823,1833,1833,1833,1833,1833,1833,1833,1833,1833,1833,1833,1823,1823,0,0,0,0,0,0,0,0,0,0,0,0,0,0,825,825,825,823,823,821,819,817,815,813,813,813,813,813,813,813,813,815,817,819,819,821,821,821,823,823,827,827,827,827,0,0,0,0,0,0,0,0,1586,1586,1579,1579,1572,1564,1557,1550,1550,1550,1543,1543,1536,1536,1529,1523,1523,1516,1516,1516,1516,1503,1503,1496,1496,1496,1489,1489,1489,1477,1470,1470,1470,1464,1464,1458,1458,1452,1452,1445,1445,1439,1439,1427,1427,1427,1421,1421,1415,1415,1410,1410,1404,1398,1392,1392,1387,1381,1381,1376,1376,1376,1376,1370,1370,1365,1359,1354,1354,1354,1349,1349,1349,1349,1343,1338,1333,1333,1328,1328,1322,1322,1317,1312,1312,1307,1307,1307,1302,1302,1297,1292,1292,1288,1288,1283,1278,1278,1273,1273,1268,1268,1264,1264,1259,1259,1255,1255,1250,1250,1250,1245,1241,1236,1236,1232,1232,1227,1227,1223,1219,1219,1214,1214,1210,1210,1206,1206,1206,1202,1202,1197,1197,1193,1189,1185,1185,1181,1181,1181,1177,1173,1169,1169,1169,1165,1165,1161,1157,1157,1153,1153,1149,1149,1145,1145,1141,1138,1138,1138,1134,1134,1130,1130,1130,1130,1123,1123,1119,1119,1115,1115,1112,1112,1105,1105,1101,1101,1097,1097,1097,1094,1094,1090,1090,1090,1087,1084,1080,1080,1077,1077,1077,1073,1073,1070,1070,1067,1067,1063,1063,1060,1060,1057,1054,1054,1050,1050,1050,1047,1044,1044,1041,1041,1038,1034,1034,1034,1031,1028,1028,1028,1025,1025,1025,1022,1022,1019,1016,1016,1013,1013,1010,1007,1007,1004,1004,1001,1001,1001,998,998,995,992,992,989,987,987,987,984,981,981,978,978,978,975,973,970,970,970,967,967,0,0,0,0,0,0,0,0,0,0,0,0,0,0,0,0,0,0,0,0,0,0,0,0,0,0,0,0,0,0
0,0,0,0,0,0,0,0,0,0,0,0,0,0,0,0,2005,2005,1993,1993,1981,1981,1970,1970,1959,1959,1947,1947,1947,1947,1936,1936,1936,1926,1926,1926,1926,1926,1915,1915,1915,1915,1915,1915,1904,1904,1894,1894,1894,1894,1883,1883,1883,1883,1883,1883,1883,1873,1873,1873,1863,1863,1863,1863,1853,1843,1843,1843,1843,1843,1843,1843,1843,1843,1843,1843,1833,1833,1833,1833,1833,1833,1823,1823,1823,1823,1823,1823,1833,1833,1823,1823,1813,1813,1804,1804,1794,1794,1794,1794,1794,1794,1794,1794,1794,1794,1794,1785,1785,1776,1776,1776,1776,1766,1766,1766,1757,1757,1757,1757,1757,1757,1757,1757,1757,1757,1757,1757,1757,1748,1748,1748,1748,1748,1739,1739,1739,1739,1731,1731,1731,1731,1731,1722,1722,1722,1722,1713,1713,1713,1713,1713,1713,1713,1696,1696,1696,1696,1696,1688,1688,1688,1688,1680,1680,1688,1688,1688,1688,1688,1696,1696,1696,1688,1688,1688,1873,1873,1863,1853,1843,1843,1833,1833,1833,1833,1833,1047,1047,1047,1047,1047,1047,1833,1833,1663,1663,1663,1663,1663,1663,1663,1663,1663,1663,1663,1663,1671,1671,1680,1680,1663,1663,1671,1671,1041,1041,1038,1038,1041,1044,1047,1047,1050,1050,1050,1047,1047,1047,1047,1047,1047,1047,1050,1050,1050,1050,1050,1054,1057,1054,1054,1060,1060,1057,1057,1050,1050,1050,0,1757,1757,1757,1757,1766,1766,1776,1776,1776,1776,1776,1785,1785,1785,1785,1785,1794,1794,1794,1794,1794,1804,1804,1804,1804,1813,1813,1823,1823,1823,1823,1823,1823,1823,1833,1833,1833,1833,1833,1833,1833,1833,1833,1833,1833,0,0,0,0,0,0,0,0,0,0,0,0,0,0,0,825,825,827,827,823,821,819,817,815,815,813,813,813,813,813,813,815,815,817,819,819,821,821,823,825,827,827,829,829,829,0,0,0,0,0,0,0,0,1586,1586,1579,1579,1579,1564,1557,1557,1550,1550,1543,1543,1536,1536,1529,1523,1523,1523,1516,1516,1516,1509,1503,1503,1503,1496,1496,1489,1489,1477,1477,1470,1470,1464,1464,1464,1458,1458,1452,1452,1445,1439,1433,1433,1427,1427,1421,1421,1415,1415,1415,1410,1410,1404,1398,1392,1387,1387,1381,1381,1381,1376,1376,1376,1370,1365,1365,1359,1354,1354,1354,1349,1349,1349,1343,1338,1333,1333,1328,1328,1322,1322,1317,1317,1312,1312,1307,1307,1307,1302,1297,1292,1292,1288,1288,1283,1278,1278,1273,1273,1268,1268,1268,1264,1264,1259,1255,1255,1250,1250,1250,1245,1241,1241,1236,1236,1232,1227,1227,1223,1223,1219,1214,1214,1210,1210,1206,1206,1206,1202,1202,1197,1197,1193,1189,1189,1185,1185,1181,1181,1177,1173,1169,1169,1169,1165,1165,1165,1157,1157,1153,1153,1149,1149,1145,1145,1141,1141,1138,1138,1134,1134,1130,1130,1130,1130,1123,1123,1119,1119,1115,1115,1115,1112,1108,1105,1105,1101,1101,1097,1097,1094,1094,1094,1090,1090,1087,1084,1080,1080,1080,1080,1077,1077,1073,1070,1070,1067,1067,1063,1063,1060,1060,1060,1054,1054,1054,1050,1050,1050,1047,1047,1044,1041,1038,1038,1034,1034,1034,1031,1028,1028,1028,1025,1025,1022,1022,1019,1016,1016,1016,1013,1010,1010,1007,1004,1004,1001,1001,1001,998,998,995,992,992,989,989,989,987,984,981,981,981,978,978,975,973,973,970,970,967,967,0,0,0,0,0,0,0,0,0,0,0,0,0,0,0,0,0,0,0,0,0,0,0,0,0,0,0,0,0,0
0,0,0,0,0,0,0,0,0,0,0,0,0,0,0,0,2005,2005,1993,1993,1993,1981,1981,1970,1959,1959,1959,1959,1959,1947,1947,1936,1936,1936,1926,1926,1926,1926,1915,1915,1915,1915,1915,1915,1915,1904,1894,1894,1894,1894,1894,1883,1883,1883,1883,1883,1883,1883,1873,1873,1863,1863,1863,1863,1853,1853,1843,1843,1853,1853,1853,1843,1843,1843,1843,1843,1843,1833,1833,1833,1833,1833,1833,1833,1833,1833,1833,1833,1833,1833,1833,1823,1813,1813,1804,1804,1804,1804,1804,1804,1804,1804,1804,1804,1804,1794,1794,1785,1785,1785,1785,1785,1776,1766,1766,1766,1757,1757,1766,1766,1757,1757,1757,1757,1757,1757,1757,1757,1757,1757,1757,1748,1748,1748,1739,1739,1739,1739,1731,1731,1731,1731,1731,1722,1722,1722,1722,1713,1713,1713,1713,1713,1713,1713,1705,1696,1696,1696,1696,1688,1688,1688,1688,1680,1680,1688,1688,1688,1688,1688,1696,1696,1696,1688,1688,1688,1873,1863,1028,1028,1031,1031,1038,1038,1044,1044,1044,1044,1044,1044,1044,1044,1044,1041,1038,1034,1028,1028,1671,1671,1671,1671,1671,1671,1671,1671,1671,1671,1680,1680,1050,1050,1050,1050,1044,1041,1038,1038,1038,1038,1041,1041,1044,1044,1047,1047,1044,1044,1044,1047,1047,1047,1047,1047,1047,1047,1044,1044,1050,1050,1050,1050,1054,1054,1054,1044,1038,1038,1038,0,0,1757,1757,1757,1766,1766,1766,1776,1776,1776,1776,1785,1785,1785,1785,1794,1794,1794,1794,1794,1804,1804,1804,1804,1804,1813,1813,1823,1823,1823,1823,1823,1823,1823,1833,1833,1833,1833,1833,1833,1833,1833,1833,1833,1833,0,0,0,0,0,0,0,0,0,0,0,0,0,0,0,825,825,827,827,823,821,819,819,817,815,815,815,815,813,813,815,817,817,819,819,821,821,823,823,825,827,829,829,829,829,0,0,0,0,0,0,0,0,1586,1586,1579,1579,1579,1564,1557,1557,1550,1550,1543,1543,1543,1543,1536,1529,1523,1523,1523,1516,1516,1509,1503,1503,1503,1496,1496,1489,1489,1477,1477,1470,1470,1464,1464,1464,1458,1458,1458,1452,1445,1445,1433,1433,1427,1427,1421,1421,1421,1415,1415,1415,1410,1404,1398,1398,1392,1387,1387,1381,1381,1381,1376,1376,1370,1370,1365,1365,1359,1354,1354,1349,1349,1349,1343,1338,1333,1333,1328,1328,1328,1322,1317,1317,1312,1312,1312,1307,1307,1307,1302,1297,1292,1288,1288,1283,1278,1278,1273,1273,1268,1268,1268,1268,1264,1264,1259,1255,1250,1250,1250,1245,1241,1241,1236,1236,1232,1232,1227,1227,1223,1219,1219,1214,1214,1214,1210,1206,1206,1202,1202,1202,1197,1197,1193,1189,1185,1185,1181,1181,1181,1177,1173,1169,1169,1169,1165,1165,1157,1157,1153,1153,1149,1149,1145,1145,1145,1141,1141,1138,1138,1134,1134,1134,1130,1126,1123,1123,1119,1119,1119,1115,1115,1112,1112,1108,1105,1105,1101,1097,1097,1094,1094,1094,1090,1090,1090,1084,1084,1084,1080,1080,1077,1077,1077,1073,1070,1067,1067,1063,1063,1060,1060,1060,1054,1054,1054,1050,1050,1050,1047,1047,1044,1041,1041,1038,1034,1034,1034,1031,1028,1028,1028,1025,1025,1025,1022,1019,1016,1016,1016,1016,1013,1010,1010,1007,1004,1004,1004,1001,1001,998,995,995,992,992,989,989,989,987,981,981,981,978,978,975,973,973,970,970,967,967,0,0,0,0,0,0,0,0,0,0,0,0,0,0,0,0,0,0,0,0,0,0,0,0,0,0,0,0,0,0
