0,0,0,0,0,0,0,0,0,0,0,0,1671,1671,1680,1680,1680,1688,1688,1680,1680,1680,1680,1680,1680,1680,1680,1680,1688,1680,1680,1680,1680,1680,1680,1680,1680,1688,1688,1688,1688,1696,1688,1688,1688,1688,1688,1688,1688,1688,1688,1688,1688,1688,1688,1696,1696,1696,1696,1696,1696,1696,1696,1696,1705,1705,1705,1705,1705,1705,1705,1705,1705,1705,1705,1705,1705,1696,1696,1705,1705,1722,0,0,0,0,0,0,0,0,0,0,913,910,908,906,906,906,903,903,903,903,903,903,906,906,908,913,913,913,913,915,915,918,918,918,920,923,0,0,0,0,0,0,0,0,0,0,843,837,835,835,833,829,827,827,823,821,819,819,817,815,813,811,809,807,805,803,803,802,798,796,794,792,789,789,785,783,783,781,780,778,774,774,773,771,769,766,766,764,762,761,759,759,759,755,754,752,752,752,750,710,710,707,707,707,707,704,703,703,701,698,698,697,697,694,693,693,691,690,690,688,687,686,684,684,683,682,680,680,680,680,679,678,678,676,676,678,679,680,680,682,682,680,680,680,679,679,679,680,682,680,680,680,680,680,680,679,679,680,682,682,684,684,684,684,682,682,680,680,682,682,683,682,682,682,690,688,688,687,687,686,684,684,682,682,690,691,691,691,690,690,690,690,690,691,691,693,694,696,697,697,698,700,701,703,704,706,707,708,710,711,714,717,717,719,719,720,722,727,731,734,734,730,730,730,761,762,767,769,769,773,774,776,778,780,783,785,787,789,792,794,794,798,798,800,803,809,813,815,817,819,821,823,825,827,831,833,835,837,841,845,845,849,849,851,854,856,856,858,860,864,864,869,871,871,873,873,0,0,0,0,0,0,0,0,0,0,0,981,978,975,973,973,970,970,967,967,967,962,959,959,959,959,959,959,962,962,964,967,970,970,973,973,973,975,0,0,0,0,0,1550,1550,1550,1550,1550,1550,1550,1550,1543,1543,1543,1536,1536,1529,1529,1529,1523,1523,1523,1523,1523,1523,1516,1516,1516,1516,1509,1509,1503,1503,1496,1496,1496,1496,1496,1496,1489,1489,1489,1489,1483,1483,1477,1470,1470,1470,1470,1464,1464,1464,1464,1458,1458,1452,1452,1452,1445,1445,1445,1439,1439,1439,1439,1433,1433,1427,1427,1427,1427,1421,1421,1421,1421,1415,1415,1415,1410,1410,1404,1404,1404,1398,1398,1398,1398,1398,1392,1392,1392,1392,1392,1387,1381,1381,1376,1376,1370,1370,1370,1365,1365,1365,1359,1359,1354,1354,1354,1349,1349,1349,1349,1349,1349,1349,1343,1343,1338,1333,1333,1333,1333,1328,1328,1328,1328,1322,1322,1317,1312,1312,1312,1312,1307,1307,1307,1307,1307,1302,1297,1292,1292,1292,1292,1292,1292,1292,1288,1288,1288,1283,1283,1283,1278,1273,1273,1273,1268,1268,1268,1268,1264,1264,1259,1259,1259,1259,1255,1255,1255,1250,1250,1250,1245,1245,1241,1241,1241,1236,1236,1236,1236,1236,1232,1232,1232,1232,1227,1227,1223,1219,1219,1219,1214,1214,1214,1214,1214,1210,1210,1206,1206,1206,1202,1202,1202,1202,1202,1202,1202,0,0,0,0,0,0,0,0,0,0,0,0,0,0,0,0,0,0,0,0,0,0,0,0,0,0,0,0,0,0
0,0,0,0,0,0,0,0,0,0,0,0,1655,1655,1663,1671,1671,1680,1680,1671,1671,1671,1671,1671,1671,1671,1671,1680,1680,1680,1680,1680,1680,1671,1671,1671,1671,1680,1680,1680,1680,1688,1688,1688,1688,1680,1680,1688,1688,1688,1688,1688,1688,1688,1688,1688,1696,1696,1696,1696,1688,1688,1696,1696,1696,1696,1696,1696,1696,1696,1696,1696,1696,1696,1696,1696,1688,1688,1688,1688,1688,0,0,0,0,0,0,0,0,0,0,0,913,910,910,908,906,906,903,903,903,903,903,903,906,906,908,910,913,915,915,915,918,918,920,920,923,923,923,0,0,0,0,0,0,0,0,1663,0,835,835,835,835,831,829,827,825,823,819,819,817,815,813,813,811,807,805,803,803,802,800,798,796,794,790,789,787,787,785,783,780,778,776,774,773,771,769,767,766,764,762,761,761,759,759,755,754,752,752,750,749,747,747,700,700,698,698,704,703,703,701,698,698,697,697,697,694,694,693,691,690,688,687,686,684,683,683,682,680,680,679,679,678,676,676,676,676,676,676,676,678,680,679,679,679,679,678,678,678,678,678,678,678,678,679,678,678,678,678,678,679,680,680,680,682,682,680,680,680,680,680,680,682,680,680,682,682,682,687,686,686,684,683,682,682,682,682,682,687,687,688,687,687,688,688,690,690,691,693,694,696,697,698,700,701,703,704,706,707,708,710,711,713,716,717,717,719,720,746,746,747,747,749,754,759,761,761,762,766,769,769,773,774,776,778,780,783,787,787,790,792,794,794,798,798,802,805,809,813,815,817,819,821,823,827,829,831,833,835,839,843,843,845,849,849,851,854,856,856,858,860,864,864,869,871,871,871,0,0,0,0,0,0,0,0,0,0,0,0,981,981,978,973,973,973,970,967,967,967,967,962,959,959,962,962,962,962,964,967,967,970,970,973,975,975,975,975,0,0,0,0,1550,1550,1550,1550,1550,1550,1550,1550,1543,1543,1543,1536,1536,1529,1529,1529,1529,1523,1523,1523,1523,1523,1516,1516,1516,1516,1516,1509,1503,1503,1503,1496,1496,1496,1496,1496,1489,1489,1489,1489,1489,1483,1477,1477,1470,1470,1470,1464,1464,1464,1464,1458,1458,1452,1452,1452,1445,1445,1445,1439,1439,1439,1439,1433,1433,1427,1427,1427,1427,1421,1421,1421,1421,1415,1415,1415,1410,1410,1404,1404,1404,1398,1398,1398,1398,1398,1392,1392,1392,1392,1392,1387,1381,1381,1376,1376,1370,1370,1370,1365,1365,1365,1359,1359,1354,1354,1354,1354,1349,1349,1349,1349,1349,1349,1343,1343,1338,1338,1333,1333,1333,1333,1328,1328,1328,1322,1322,1317,1312,1312,1312,1312,1307,1307,1307,1307,1307,1302,1297,1292,1292,1292,1292,1292,1292,1292,1288,1288,1288,1283,1283,1283,1278,1273,1273,1273,1268,1268,1268,1268,1264,1264,1259,1259,1259,1259,1255,1255,1255,1250,1250,1250,1245,1245,1241,1241,1241,1236,1236,1236,1236,1236,1232,1232,1232,1232,1227,1227,1223,1219,1219,1219,1214,1214,1214,1214,1214,1214,1210,1206,1206,1206,1206,1206,1202,1202,1202,1202,1202,0,0,0,0,0,0,0,0,0,0,0,0,0,0,0,0,0,0,0,0,0,0,0,0,0,0,0,0,0,0
0,0,0,0,0,0,0,0,0,0,0,0,1647,1647,1647,1663,1663,1663,1663,1663,1663,1663,1663,1663,1663,1671,1671,1671,1671,1671,1671,1671,1671,1671,1671,1663,1663,1671,1671,1671,1680,1680,1680,1680,1680,1680,1680,1680,1680,1680,1680,1680,1680,1680,1688,1688,1688,1688,1688,1688,1688,1688,1688,1688,1688,1688,1688,1688,1688,1688,1688,1688,1696,1696,1696,1696,1688,1688,1688,1688,1688,0,0,0,0,0,0,0,0,0,0,0,0,913,913,910,908,906,906,903,903,906,906,906,908,908,908,910,913,915,915,915,918,918,920,920,920,923,920,920,0,0,0,0,0,0,0,1663,1663,1663,1663,1655,833,833,829,827,823,821,819,817,817,815,813,813,811,807,805,803,803,803,800,798,796,794,792,790,789,789,785,783,781,780,778,776,774,773,771,769,767,766,764,762,761,761,759,755,754,754,752,750,749,747,746,700,700,698,698,704,703,703,701,698,698,697,697,696,694,694,693,691,690,688,687,686,684,683,682,680,680,679,679,678,676,676,676,675,675,674,674,674,674,674,676,678,678,676,676,676,676,676,676,676,676,676,676,676,676,676,675,675,678,678,680,667,667,679,679,678,678,678,680,680,680,680,680,680,679,679,676,676,678,676,676,678,678,678,678,682,683,684,686,687,687,687,688,688,690,691,693,694,696,697,698,700,701,703,704,706,707,708,710,710,713,716,717,717,742,744,746,746,747,750,750,755,757,759,761,762,766,769,769,773,774,778,780,781,783,787,787,790,792,794,796,798,800,803,807,811,813,815,819,821,821,825,827,829,831,833,837,839,843,843,845,849,849,851,854,856,856,858,860,864,864,864,0,0,1671,0,0,0,0,0,0,0,0,0,0,0,0,981,981,978,975,973,973,970,970,967,967,967,964,962,962,962,962,962,962,964,967,967,967,970,973,975,975,975,975,0,0,0,0,1557,1557,1557,1550,1550,1550,1550,1550,1543,1543,1543,1536,1536,1536,1529,1529,1529,1523,1523,1523,1523,1523,1516,1516,1516,1516,1509,1509,1503,1503,1503,1496,1496,1496,1496,1496,1489,1489,1489,1489,1489,1483,1477,1477,1470,1470,1470,1464,1464,1464,1464,1458,1458,1458,1452,1452,1445,1445,1445,1439,1439,1439,1439,1433,1433,1427,1427,1427,1427,1421,1421,1421,1421,1421,1415,1415,1410,1410,1404,1404,1404,1398,1398,1398,1398,1398,1392,1392,1392,1392,1392,1387,1381,1381,1376,1376,1370,1370,1370,1365,1365,1365,1359,1359,1354,1354,1354,1354,1349,1349,1349,1349,1349,1349,1343,1343,1338,1333,1333,1333,1333,1333,1328,1328,1328,1322,1322,1317,1312,1312,1312,1312,1307,1307,1307,1307,1307,1302,1297,1297,1297,1292,1292,1292,1292,1292,1292,1288,1288,1283,1283,1283,1278,1273,1273,1273,1268,1268,1268,1268,1268,1264,1259,1259,1259,1259,1255,1255,1255,1255,1255,1250,1245,1245,1245,1241,1241,1241,1236,1236,1236,1236,1232,1232,1232,1232,1232,1227,1227,1219,1219,1219,1219,1214,1214,1214,1214,1214,1210,1210,1210,1206,1206,1206,1202,1202,1202,1202,1202,0,0,0,0,0,0,0,0,0,0,0,0,0,0,0,0,0,0,0,0,0,0,0,0,0,0,0,0,0,0
0,0,0,0,0,0,0,0,0,0,0,0,1647,1647,1647,1655,1655,1663,1663,1663,1663,1663,1663,1663,1663,1663,1663,1663,1671,1671,1671,1671,1663,1663,1663,1663,1663,1663,1671,1671,1671,1671,1680,1680,1680,1671,1671,1680,1680,1671,1671,1671,1671,1680,1680,1680,1688,1688,1688,1688,1688,1688,1680,1680,1680,1680,1680,1680,1680,1680,1688,1688,1688,1688,1688,1688,1688,1680,1680,1688,1688,1688,0,0,0,0,0,0,0,0,0,0,0,913,913,913,910,908,906,906,906,906,906,908,908,908,908,913,915,915,915,915,918,920,920,920,920,923,920,920,0,0,0,0,0,1705,1696,1688,1663,1655,1655,1655,1655,829,829,827,823,821,819,817,817,815,815,813,811,811,805,805,803,803,800,798,796,796,794,790,790,789,787,785,781,780,780,776,774,773,771,769,767,767,766,764,761,761,759,755,754,754,752,750,749,747,746,744,742,741,739,704,703,703,701,698,697,697,697,696,694,694,693,691,690,688,687,686,684,683,682,680,680,679,678,676,676,675,674,674,671,671,671,670,670,667,667,667,672,674,674,674,674,674,675,675,675,672,672,674,671,671,671,671,671,671,667,667,667,667,667,670,672,675,675,675,678,679,679,675,674,674,675,675,675,675,675,676,676,678,678,678,680,682,684,684,686,686,687,688,690,691,693,694,696,697,698,700,701,704,706,707,707,708,708,710,736,738,739,739,742,744,747,747,749,750,752,754,757,759,761,762,766,769,771,774,776,778,780,781,785,787,789,790,794,796,796,800,800,805,807,811,815,817,819,821,823,825,827,829,831,833,835,839,843,843,845,849,849,851,854,856,856,858,860,860,0,1680,1680,0,1671,1671,1671,1671,1671,0,0,0,0,0,0,0,0,984,981,978,978,975,975,973,970,970,967,967,964,964,964,964,964,964,964,964,967,967,967,970,973,975,975,975,0,0,0,0,0,1557,1557,1557,1557,1550,1550,1550,1550,1543,1543,1543,1536,1536,1536,1536,1529,1529,1523,1523,1523,1523,1523,1516,1516,1516,1516,1509,1509,1503,1503,1496,1496,1496,1496,1496,1496,1489,1489,1489,1489,1489,1483,1483,1477,1470,1470,1470,1470,1464,1464,1464,1458,1458,1458,1452,1452,1445,1445,1445,1439,1439,1439,1439,1439,1433,1433,1427,1427,1427,1427,1427,1421,1421,1421,1421,1415,1415,1410,1410,1404,1404,1398,1398,1398,1398,1398,1392,1392,1392,1392,1392,1387,1381,1381,1376,1376,1370,1370,1370,1370,1370,1365,1365,1359,1359,1354,1354,1354,1349,1349,1349,1349,1349,1349,1343,1343,1338,1333,1333,1333,1333,1333,1328,1328,1328,1322,1322,1317,1312,1312,1312,1312,1307,1307,1307,1307,1307,1302,1297,1297,1297,1297,1297,1292,1292,1292,1292,1288,1288,1283,1283,1283,1278,1278,1273,1273,1273,1268,1268,1268,1268,1264,1259,1259,1259,1259,1255,1255,1255,1255,1255,1250,1250,1245,1245,1245,1241,1241,1236,1236,1236,1236,1236,1236,1232,1232,1232,1232,1227,1223,1219,1219,1219,1219,1214,1214,1214,1214,1214,1210,1210,1206,1206,1206,1202,1202,1202,1202,1202,0,0,0,0,0,0,0,0,0,0,0,0,0,0,0,0,0,0,0,0,0,0,0,0,0,0,0,0,0,0
0,0,0,0,0,0,0,0,0,0,0,0,1647,1647,1647,1655,1655,1655,1655,1655,1655,1655,1655,1655,1655,1663,1663,1663,1671,1671,1663,1663,1663,1663,1663,1655,1655,1655,1655,1655,1655,1663,1671,1671,1671,1671,1671,1671,1671,1671,1671,1671,1671,1671,1680,1680,1680,1680,1680,1680,1680,1680,1671,1671,1671,1671,1671,1671,1671,1671,1680,1680,1680,1680,1688,1688,1680,1680,1680,1680,1680,1680,1680,0,0,0,0,0,0,0,0,0,0,915,913,913,913,908,908,906,906,906,906,908,908,908,910,913,915,915,915,915,918,920,920,920,920,923,923,0,0,0,0,0,0,1696,1688,1688,1663,1655,1655,1655,1655,1655,827,827,823,821,819,817,817,815,815,813,811,811,809,807,805,803,802,800,798,796,794,792,792,790,787,785,781,781,780,778,776,773,773,771,769,767,766,764,762,761,759,759,754,754,750,750,749,747,746,744,742,741,739,738,736,734,734,733,697,697,697,696,694,694,693,691,690,690,687,686,686,684,682,682,679,679,678,676,676,675,674,671,671,670,668,667,667,666,666,666,666,666,666,674,674,674,674,674,670,667,667,670,670,670,667,667,668,667,667,666,666,667,667,667,668,670,674,674,671,671,671,671,671,672,672,672,674,675,675,675,676,676,676,676,678,680,683,683,684,686,687,688,690,691,693,694,696,697,698,700,703,706,707,707,708,708,708,736,736,738,739,741,742,744,747,747,749,752,752,754,757,759,762,764,767,771,771,774,776,778,781,783,785,787,789,792,794,796,796,800,800,805,807,811,815,819,821,823,825,827,829,831,831,833,835,839,843,843,845,849,849,851,851,856,856,0,0,1680,1680,0,1680,1680,1680,1671,1671,1671,1671,0,0,0,0,0,0,0,0,0,981,978,978,978,975,975,973,970,970,967,967,967,964,964,964,964,964,967,967,967,970,970,975,978,978,981,0,0,0,0,0,1557,1557,1557,1557,1550,1550,1550,1550,1543,1543,1543,1543,1536,1536,1536,1529,1529,1529,1523,1523,1523,1523,1516,1516,1516,1516,1509,1509,1503,1503,1496,1496,1496,1496,1496,1496,1489,1489,1489,1489,1489,1483,1483,1477,1470,1470,1470,1470,1470,1464,1464,1458,1458,1458,1452,1452,1445,1445,1445,1445,1439,1439,1439,1439,1439,1433,1427,1427,1427,1427,1427,1421,1421,1421,1421,1415,1415,1410,1410,1410,1404,1404,1398,1398,1398,1398,1392,1392,1392,1392,1392,1392,1387,1381,1381,1376,1376,1370,1370,1370,1370,1365,1365,1365,1365,1354,1354,1354,1349,1349,1349,1349,1349,1349,1343,1343,1338,1338,1338,1333,1333,1333,1328,1328,1328,1328,1322,1317,1317,1312,1312,1312,1307,1307,1307,1307,1307,1302,1297,1297,1297,1297,1297,1292,1292,1292,1292,1292,1288,1288,1283,1283,1278,1278,1273,1273,1273,1268,1268,1268,1268,1264,1264,1259,1259,1259,1255,1255,1255,1255,1255,1250,1250,1245,1245,1245,1241,1241,1241,1236,1236,1236,1236,1236,1232,1232,1232,1227,1223,1223,1219,1219,1219,1219,1214,1214,1214,1214,1214,1210,1210,1206,1206,1206,1202,1202,1202,1202,1202,0,0,0,0,0,0,0,0,0,0,0,0,0,0,0,0,0,0,0,0,0,0,0,0,0,0,0,0,0,0
0,0,0,0,0,0,0,0,0,0,0,0,1647,1647,1647,1655,1647,1647,1655,1655,1655,1655,1655,1655,1655,1655,1655,1655,1663,1663,1663,1663,1663,1663,1663,1655,1655,1655,1655,1655,1655,1655,1663,1663,1663,1663,1663,1663,1663,1663,1663,1663,1663,1663,1663,1671,1671,1663,1663,1671,1671,1663,1663,1663,1663,1663,1663,1663,1663,1663,1671,1671,1671,1671,1680,1671,1671,1671,1671,1671,1680,1680,1680,0,0,0,0,0,0,0,0,0,0,915,915,913,913,910,908,908,908,908,908,908,910,910,913,915,915,915,915,918,920,920,920,920,920,923,923,0,0,0,0,0,0,1696,1688,1671,1663,1663,1655,1655,1655,1655,1655,1655,819,819,819,819,817,817,815,813,811,811,809,807,807,803,803,800,798,796,796,794,794,792,789,787,781,781,780,778,776,774,773,773,771,769,767,764,762,761,759,759,755,754,750,750,749,747,746,744,742,741,739,738,736,734,734,733,731,731,697,694,694,693,693,691,691,690,688,687,686,684,682,682,679,679,678,676,676,675,674,671,670,670,668,667,666,666,666,666,664,664,662,662,662,662,662,663,663,666,664,664,666,666,666,666,666,666,666,666,666,666,666,666,666,666,668,671,671,668,668,668,668,668,668,670,670,672,674,674,675,675,676,676,678,680,682,683,684,686,687,688,690,691,693,694,696,698,700,701,703,706,707,708,708,708,708,736,738,738,739,742,744,744,747,747,749,752,752,754,757,761,762,766,769,771,773,774,776,778,781,783,787,790,790,794,796,798,798,800,802,805,807,811,819,819,821,825,825,827,829,829,831,833,835,839,841,843,847,849,849,851,851,851,0,1680,0,1680,1680,1680,1680,1680,1680,1680,1671,1671,1671,0,0,0,0,0,0,0,0,0,981,978,978,978,978,975,973,970,970,967,967,967,967,967,967,967,967,967,967,967,970,970,975,978,981,981,0,0,0,0,0,1557,1557,1557,1557,1550,1550,1550,1550,1543,1543,1543,1543,1536,1536,1536,1536,1529,1529,1529,1523,1523,1523,1516,1516,1516,1516,1509,1509,1503,1503,1496,1496,1496,1496,1496,1496,1489,1489,1489,1489,1489,1483,1483,1477,1470,1470,1470,1470,1470,1464,1464,1464,1464,1458,1452,1452,1445,1445,1445,1445,1439,1439,1439,1439,1439,1433,1427,1427,1427,1427,1427,1421,1421,1421,1421,1415,1415,1415,1410,1410,1404,1404,1398,1398,1398,1398,1392,1392,1392,1392,1392,1387,1387,1387,1381,1376,1376,1370,1370,1370,1370,1370,1365,1365,1365,1354,1354,1354,1349,1349,1349,1349,1349,1349,1349,1343,1338,1338,1338,1333,1333,1333,1328,1328,1328,1328,1322,1317,1317,1312,1312,1312,1307,1307,1307,1307,1307,1302,1302,1302,1302,1297,1297,1297,1297,1292,1292,1292,1288,1288,1283,1283,1278,1273,1273,1273,1273,1268,1268,1268,1268,1268,1264,1264,1264,1259,1259,1259,1255,1255,1255,1250,1250,1250,1245,1245,1245,1241,1241,1241,1241,1236,1236,1236,1232,1232,1232,1227,1223,1223,1219,1219,1219,1219,1214,1214,1214,1214,1214,1210,1210,1206,1206,1206,1206,1202,1202,1202,0,0,0,0,0,0,0,0,0,0,0,0,0,0,0,0,0,0,0,0,0,0,0,0,0,0,0,0,0,0,0
0,0,0,0,0,0,0,0,0,0,0,0,1639,1639,1647,1647,1647,1647,1647,1647,1647,1647,1647,1647,1647,1655,1655,1655,1655,1655,1655,1655,1655,1655,1655,1647,1647,1647,1647,1647,1647,1647,1655,1655,1655,1655,1655,1655,1655,1655,1655,1655,1655,1655,1655,1663,1663,1663,1663,1671,1663,1663,1663,1663,1663,1663,1655,1655,1655,1655,1663,1663,1663,1663,1671,1671,1671,1671,1671,1671,1671,1671,1671,0,0,0,0,0,0,0,0,0,0,918,918,915,913,910,908,908,908,908,908,910,910,910,913,915,915,915,915,918,920,920,920,920,920,923,923,0,0,0,0,0,0,1680,1671,1671,1663,1663,1655,1655,1647,1647,1655,1655,1655,1663,1663,1663,1663,813,813,813,811,811,809,807,807,803,803,802,798,796,796,794,794,792,790,789,785,783,781,780,778,774,774,773,771,769,767,764,762,761,759,759,755,754,752,750,749,747,746,744,742,741,739,738,736,734,734,733,731,731,730,694,693,693,693,691,691,690,688,687,686,684,682,682,680,679,678,678,676,675,672,671,670,668,667,667,666,666,666,664,664,663,662,662,661,661,661,661,661,663,662,662,664,664,664,664,662,662,663,663,663,663,664,664,663,663,664,664,667,666,666,666,667,667,668,668,668,670,671,672,672,675,675,676,678,679,682,683,684,686,687,688,690,691,693,694,696,698,700,701,704,707,707,708,708,708,736,736,738,738,739,742,744,746,747,747,749,752,752,754,757,761,764,766,769,771,773,774,776,780,781,783,787,790,792,796,798,800,800,803,803,807,809,813,817,819,821,825,825,827,829,829,831,831,835,839,841,843,847,849,849,849,849,1688,0,0,1680,1680,1680,1680,1680,1680,1680,1680,1671,1671,1663,1663,0,0,0,0,0,0,0,0,981,978,978,978,978,978,975,973,970,967,967,967,967,967,967,967,967,967,970,970,970,973,978,981,984,987,0,0,0,0,1557,1557,1557,1557,1557,1557,1550,1550,1550,1543,1543,1543,1543,1543,1536,1536,1536,1529,1529,1529,1523,1523,1523,1523,1523,1516,1516,1516,1509,1509,1503,1496,1496,1496,1496,1496,1496,1489,1489,1489,1489,1489,1483,1477,1477,1470,1470,1470,1470,1470,1464,1464,1464,1464,1458,1458,1452,1445,1445,1445,1445,1445,1445,1439,1439,1439,1433,1433,1433,1433,1427,1427,1421,1421,1421,1421,1415,1415,1415,1410,1410,1404,1404,1398,1398,1398,1398,1392,1392,1392,1392,1392,1387,1387,1381,1381,1376,1376,1376,1370,1370,1370,1370,1365,1365,1365,1359,1354,1354,1354,1349,1349,1349,1349,1349,1349,1343,1343,1338,1338,1333,1333,1333,1328,1328,1328,1328,1322,1317,1317,1317,1312,1312,1307,1307,1307,1307,1307,1302,1302,1302,1302,1297,1297,1297,1297,1292,1292,1288,1288,1283,1283,1283,1278,1273,1273,1273,1273,1268,1268,1268,1268,1268,1264,1264,1264,1259,1259,1259,1255,1255,1255,1250,1250,1250,1245,1245,1245,1241,1241,1241,1241,1236,1236,1236,1232,1232,1232,1232,1227,1223,1219,1219,1219,1219,1219,1214,1214,1214,1214,1210,1210,1206,1206,1206,1206,1202,1202,1202,0,0,0,0,0,0,0,0,0,0,0,0,0,0,0,0,0,0,0,0,0,0,0,0,0,0,0,0,0,0,0
0,0,0,0,0,0,0,0,0,0,0,1639,1639,1639,1639,1639,1639,1647,1647,1639,1639,1647,1647,1647,1647,1647,1647,1647,1647,1647,1655,1655,1647,1647,1647,1639,1639,1639,1639,1639,1639,1639,1647,1647,1647,1655,1655,1647,1647,1647,1647,1647,1647,1647,1655,1655,1655,1655,1663,1663,1655,1655,1655,1655,1655,1655,1655,1655,1655,1655,1655,1655,1655,1655,1663,1663,1663,1663,1663,1663,1663,1663,1663,1663,0,0,0,0,0,0,0,0,0,918,918,915,913,910,910,908,908,908,908,910,910,913,913,915,915,915,915,918,920,920,920,923,923,923,923,0,0,0,0,0,0,1671,1671,1671,1663,1663,1655,1655,1647,1647,1647,1647,1655,1663,1663,1663,1663,1663,811,811,811,811,809,809,807,805,803,802,798,796,796,794,794,792,790,789,787,785,783,781,780,776,774,773,771,771,767,766,764,762,761,759,757,755,752,750,749,747,746,746,744,741,739,738,736,734,734,733,731,731,730,694,693,693,693,691,691,690,688,687,686,684,682,682,680,679,679,678,676,675,672,670,670,668,667,667,666,664,664,664,663,663,662,661,659,659,659,659,659,661,659,659,659,663,663,662,661,661,663,663,663,663,663,663,657,657,661,659,659,661,663,664,664,666,667,667,667,668,671,671,672,674,675,676,678,679,682,683,684,686,687,688,690,691,693,694,696,698,701,703,704,707,708,708,708,708,734,736,736,738,739,742,744,746,747,749,749,752,752,754,757,761,764,766,771,771,773,774,778,780,783,785,787,790,794,796,798,800,802,803,805,807,809,813,817,819,821,823,825,827,827,829,829,831,835,839,843,845,847,849,849,849,1688,1688,0,1688,1680,1680,1680,1680,1680,1680,1680,1671,1671,1671,1663,1663,1671,0,0,0,0,0,0,0,981,981,978,978,978,978,975,975,970,970,967,967,967,967,967,967,967,967,970,970,973,978,981,984,987,987,0,0,0,0,1557,1557,1557,1557,1557,1557,1550,1550,1550,1550,1543,1543,1543,1543,1543,1536,1536,1536,1536,1529,1523,1523,1523,1523,1523,1516,1516,1516,1516,1509,1503,1496,1496,1496,1496,1496,1496,1489,1489,1489,1489,1489,1489,1477,1477,1470,1470,1470,1470,1470,1470,1464,1464,1464,1458,1458,1452,1445,1445,1445,1445,1445,1445,1439,1439,1439,1433,1433,1433,1433,1427,1427,1421,1421,1421,1421,1415,1415,1415,1410,1410,1404,1404,1398,1398,1398,1398,1398,1392,1392,1392,1392,1387,1387,1381,1381,1376,1376,1376,1376,1370,1370,1370,1370,1365,1365,1359,1354,1354,1354,1349,1349,1349,1349,1349,1349,1343,1343,1338,1338,1338,1333,1333,1328,1328,1328,1328,1322,1317,1317,1317,1312,1312,1307,1307,1307,1307,1307,1302,1302,1302,1302,1297,1297,1292,1292,1292,1292,1288,1288,1283,1283,1283,1278,1273,1273,1273,1273,1273,1268,1268,1268,1268,1264,1264,1264,1259,1259,1259,1255,1255,1255,1250,1250,1250,1250,1245,1245,1241,1241,1241,1236,1236,1236,1236,1232,1232,1232,1232,1227,1227,1223,1223,1219,1219,1219,1214,1214,1214,1214,1214,1214,1210,1210,1210,1206,1202,1202,1202,0,0,0,0,0,0,0,0,0,0,0,0,0,0,0,0,0,0,0,0,0,0,0,0,0,0,0,0,0,0,0
0,0,0,0,0,0,0,0,0,0,0,1632,1632,1632,1632,1632,1632,1632,1632,1632,1632,1639,1639,1639,1639,1639,1639,1639,1639,1639,1647,1639,1639,1639,1639,1639,1639,1632,1632,1632,1632,1632,1639,1639,1639,1647,1647,1647,1647,1647,1647,1639,1639,1647,1647,1647,1647,1647,1647,1647,1647,1647,1647,1647,1647,1647,1647,1647,1647,1647,1647,1647,1647,1655,1655,1655,1655,1655,1655,1663,1663,1663,1663,1663,0,0,0,0,0,0,0,0,925,920,920,918,913,910,910,908,908,908,910,910,910,913,913,915,915,915,918,918,920,923,923,923,918,918,923,0,0,0,0,0,0,1663,1663,1663,1663,1663,1655,1655,1655,1647,1647,1647,1655,1663,1663,1663,1663,1663,0,1632,0,0,811,809,807,805,803,802,800,798,796,796,794,792,790,789,787,785,783,781,780,778,776,774,771,771,767,766,766,764,762,761,759,755,754,752,749,749,747,746,744,741,741,739,736,736,734,733,731,731,730,728,693,693,693,691,691,690,688,687,686,683,682,682,680,680,679,678,676,675,674,670,670,668,667,666,666,664,664,664,663,662,661,659,659,658,658,658,658,659,659,658,658,657,657,661,659,659,659,659,661,655,655,655,655,657,658,658,658,659,661,662,663,664,666,666,667,668,670,671,671,672,674,675,678,679,682,683,684,686,688,690,691,691,693,694,696,698,703,704,706,708,710,708,708,733,734,736,736,738,739,742,744,746,747,749,749,752,754,754,757,762,766,767,771,773,773,774,778,781,783,787,789,792,794,796,798,802,802,803,805,809,811,813,817,819,821,823,825,827,827,829,829,829,833,841,843,845,847,847,1680,1680,1688,1688,1688,1688,1688,1680,1680,1680,1680,1680,1680,1671,1671,1671,1663,1663,1671,0,0,0,0,0,0,0,981,981,981,981,981,978,978,975,973,970,970,967,967,967,967,967,967,967,970,970,975,978,981,984,987,987,0,0,0,0,1564,1564,1564,1557,1557,1557,1550,1550,1550,1550,1543,1543,1543,1543,1543,1536,1536,1536,1536,1529,1529,1523,1523,1523,1523,1516,1516,1516,1516,1509,1503,1503,1496,1496,1496,1496,1496,1496,1489,1489,1489,1489,1489,1483,1477,1470,1470,1470,1470,1470,1470,1464,1464,1464,1464,1458,1458,1445,1445,1445,1445,1445,1445,1445,1439,1439,1433,1433,1433,1433,1427,1427,1421,1421,1421,1421,1415,1415,1415,1410,1410,1404,1404,1398,1398,1398,1398,1398,1392,1392,1392,1392,1392,1387,1387,1381,1381,1376,1376,1376,1376,1370,1370,1370,1365,1365,1359,1354,1354,1354,1349,1349,1349,1349,1349,1349,1343,1343,1343,1338,1338,1333,1333,1333,1328,1328,1328,1322,1317,1317,1317,1312,1312,1312,1312,1307,1307,1307,1302,1302,1302,1302,1297,1297,1292,1292,1292,1292,1288,1288,1288,1283,1283,1283,1273,1273,1273,1273,1273,1268,1268,1268,1268,1264,1264,1264,1259,1259,1259,1259,1255,1255,1250,1250,1250,1250,1245,1245,1245,1241,1241,1236,1236,1236,1236,1236,1232,1232,1232,1227,1227,1223,1223,1223,1219,1219,1219,1214,1214,1214,1214,1214,1214,1210,1210,1210,1202,1202,1202,0,0,0,0,0,0,0,0,0,0,0,0,0,0,0,0,0,0,0,0,0,0,0,0,0,0,0,0,0,0,0
0,0,0,0,0,0,0,0,0,0,0,1624,1624,1624,1632,1632,1632,1624,1624,1632,1632,1624,1624,1632,1632,1632,1632,1632,1632,1632,1632,1632,1632,1632,1632,1632,1632,1632,1632,1632,1632,1632,1632,1632,1632,1639,1639,1647,1647,1639,1639,1639,1639,1647,1647,1639,1639,1647,1647,1639,1639,1639,1639,1647,1647,1639,1639,1639,1639,1639,1639,1639,1639,1647,1655,1655,1655,1647,1647,1655,1663,1663,1663,1663,0,0,0,0,0,0,0,0,923,923,923,918,915,913,910,910,910,910,910,910,910,913,913,915,915,915,918,918,920,923,923,923,918,918,920,0,0,0,0,0,0,1663,1663,1663,1663,1655,1655,1655,1655,1655,1647,1647,1647,1655,1655,1655,1655,1655,1632,1632,0,0,0,0,807,805,803,802,800,796,796,796,794,792,790,789,787,785,783,781,780,780,778,774,773,773,769,767,766,766,764,762,761,757,754,752,750,749,747,747,746,742,741,741,738,738,734,734,733,731,731,728,727,725,723,722,720,720,717,687,686,683,682,682,680,680,679,678,676,675,674,671,670,668,667,666,666,664,664,663,663,661,659,659,658,658,658,657,657,658,658,657,657,655,655,655,655,655,654,654,654,654,654,655,655,655,657,657,658,658,659,661,662,663,664,666,667,668,670,671,671,672,674,675,678,679,682,683,684,686,688,690,691,691,693,694,696,698,703,704,710,710,710,710,733,733,734,736,736,738,741,742,744,746,747,749,750,752,754,755,759,764,766,767,773,773,774,776,778,783,787,789,790,792,796,798,800,802,802,803,805,809,811,813,817,819,819,821,825,827,827,829,829,829,833,843,843,845,845,1680,1680,1680,1680,1680,1680,1680,1680,1688,1688,1680,1680,1680,1680,1671,1671,1671,1663,1663,1671,0,0,0,0,0,0,0,0,981,981,981,981,978,978,975,973,970,970,970,967,967,967,967,967,967,970,973,975,978,981,984,987,987,0,0,0,0,1564,1564,1564,1564,1564,1557,1557,1550,1550,1550,1550,1543,1543,1543,1543,1536,1536,1536,1536,1529,1529,1529,1523,1523,1523,1516,1516,1516,1516,1509,1503,1503,1496,1496,1496,1496,1496,1496,1489,1489,1489,1489,1489,1483,1477,1477,1470,1470,1470,1470,1470,1470,1464,1464,1464,1464,1458,1452,1445,1445,1445,1445,1445,1445,1439,1439,1439,1439,1433,1433,1433,1427,1427,1421,1421,1421,1415,1415,1415,1410,1410,1410,1404,1398,1398,1398,1398,1398,1392,1392,1392,1392,1392,1387,1387,1387,1381,1376,1376,1376,1376,1376,1370,1370,1365,1365,1359,1354,1354,1354,1354,1349,1349,1349,1349,1349,1343,1343,1343,1338,1338,1333,1333,1333,1328,1328,1328,1328,1322,1317,1317,1312,1312,1312,1312,1307,1307,1307,1307,1307,1302,1302,1297,1297,1292,1292,1292,1292,1288,1288,1288,1283,1283,1283,1278,1273,1273,1273,1273,1268,1268,1268,1268,1264,1264,1264,1259,1259,1259,1259,1255,1255,1255,1250,1250,1250,1250,1245,1245,1241,1241,1236,1236,1236,1236,1236,1232,1232,1232,1232,1232,1227,1227,1223,1223,1219,1219,1214,1214,1214,1214,1214,1214,1214,1210,1210,1206,1206,1206,0,0,0,0,0,0,0,0,0,0,0,0,0,0,0,0,0,0,0,0,0,0,0,0,0,0,0,0,0,0,0
0,0,0,0,0,0,0,0,0,0,0,1616,1616,1616,1616,1616,1616,1616,1616,1616,1624,1624,1624,1624,1624,1624,1624,1624,1624,1624,1632,1632,1632,1632,1632,1632,1632,1632,1624,1624,1624,1632,1632,1632,1632,1632,1639,1639,1639,1639,1639,1639,1639,1647,1639,1639,1639,1639,1639,1632,1632,1632,1632,1639,1639,1639,1639,1639,1632,1632,1632,1632,1632,1632,1632,1647,1647,1647,1647,1655,1655,1655,1671,1680,0,0,0,0,0,0,0,0,923,923,923,918,915,913,913,910,910,910,910,910,910,913,915,915,915,915,918,920,923,923,923,923,923,920,920,0,0,0,0,0,0,1655,1655,1655,1655,1655,1655,1655,1647,1647,1647,1647,1647,1655,1655,1655,1655,1632,1632,0,0,0,0,0,0,0,0,0,800,796,796,794,794,792,790,789,787,785,783,781,780,780,778,774,773,773,769,767,767,766,766,764,761,759,755,754,750,750,749,747,746,744,742,741,739,738,736,734,733,733,731,728,727,725,725,722,720,719,717,717,716,716,682,682,680,680,679,678,676,676,675,671,670,668,667,666,666,664,664,663,662,661,659,658,658,657,657,655,655,657,657,655,655,654,654,654,653,652,652,652,652,653,653,654,654,654,655,657,657,658,659,661,662,662,664,664,666,668,670,671,671,672,674,675,678,679,680,682,684,686,688,690,691,691,693,694,696,714,713,713,716,716,722,728,733,733,734,736,736,739,741,744,744,746,747,749,750,752,754,755,759,766,767,769,773,773,774,776,778,783,787,790,792,794,796,798,800,802,802,805,805,809,811,813,815,817,819,819,825,827,827,829,829,829,1663,1680,1680,1680,1680,1680,1680,1680,1680,1680,1680,1680,1680,1688,1688,1688,1680,1680,1680,1671,1671,1671,1671,1671,0,0,0,0,0,0,0,0,0,981,981,981,981,978,978,975,975,973,970,970,970,970,970,970,970,970,973,975,978,981,981,984,987,987,0,0,0,0,1572,1564,1564,1564,1564,1557,1557,1550,1550,1550,1550,1543,1543,1543,1543,1536,1536,1536,1536,1536,1529,1529,1523,1523,1523,1523,1516,1516,1516,1509,1509,1503,1496,1496,1496,1496,1496,1496,1489,1489,1489,1489,1483,1483,1477,1477,1470,1470,1470,1470,1470,1470,1464,1464,1464,1464,1458,1452,1445,1445,1445,1445,1445,1445,1439,1439,1439,1439,1439,1433,1433,1427,1427,1421,1421,1421,1415,1415,1415,1415,1410,1410,1404,1398,1398,1398,1398,1398,1398,1398,1392,1392,1387,1387,1387,1387,1381,1381,1376,1376,1376,1376,1370,1370,1370,1365,1359,1354,1354,1354,1354,1349,1349,1349,1349,1349,1349,1343,1343,1338,1338,1333,1333,1333,1328,1328,1328,1328,1322,1322,1317,1317,1312,1312,1312,1312,1312,1307,1307,1307,1302,1302,1297,1292,1292,1292,1292,1292,1288,1288,1288,1288,1283,1283,1278,1273,1273,1273,1273,1268,1268,1268,1268,1268,1268,1264,1264,1259,1259,1259,1255,1255,1255,1250,1250,1250,1250,1250,1245,1241,1241,1241,1236,1236,1236,1236,1232,1232,1232,1232,1232,1227,1227,1223,1223,1219,1219,1219,1214,1214,1214,1214,1214,1214,1214,1210,1206,1206,1206,0,0,0,0,0,0,0,0,0,0,0,0,0,0,0,0,0,0,0,0,0,0,0,0,0,0,0,0,0,0,0
0,0,0,0,0,0,0,0,0,0,0,1609,1609,1609,1609,1609,1609,1609,1609,1609,1609,1616,1616,1616,1624,1624,1624,1624,1616,1616,1609,1609,1616,1624,1624,1624,1624,1624,1624,1624,1624,1624,1624,1624,1624,1632,1632,1639,1639,1639,1639,1639,1639,1632,1632,1632,1632,1632,1632,1632,1632,1632,1632,1632,1632,1632,1632,1632,1632,1632,1632,1632,1632,1632,1632,1639,1639,1632,1632,1639,1639,1639,1655,0,0,0,0,0,0,0,0,0,923,923,923,918,915,913,913,910,910,910,910,910,910,913,915,915,918,918,918,920,923,923,923,923,923,920,920,0,0,0,0,0,0,1655,1655,1655,1655,1655,1647,1647,1647,1647,1647,1647,1647,1647,1647,1647,1647,1624,1624,1624,1624,0,0,0,0,0,0,0,0,798,796,794,792,790,790,790,789,785,783,781,780,780,776,774,774,773,773,767,767,767,766,764,761,759,755,754,752,750,749,749,746,744,742,741,739,738,736,734,733,731,731,728,727,727,727,725,720,719,717,717,716,716,714,714,682,680,679,678,676,675,675,671,671,670,668,667,666,666,664,663,662,659,659,658,658,657,655,655,655,655,655,654,654,653,652,652,652,650,650,650,650,650,652,652,653,654,654,655,657,658,659,659,661,662,663,664,666,668,670,671,671,672,674,675,678,678,679,680,683,686,688,690,691,691,693,714,716,716,716,719,720,720,723,728,733,733,734,736,738,739,742,744,746,747,749,750,750,752,754,757,761,766,767,769,773,773,774,776,778,787,789,790,792,794,796,798,800,802,803,805,805,809,811,813,815,817,819,819,0,0,0,1671,1671,1671,1663,1663,1663,1680,1680,1680,1680,1688,1688,1688,1688,1680,1680,1688,1680,1680,1680,1680,1671,1671,1671,1671,1663,1663,0,0,0,0,0,0,0,0,0,984,981,981,981,981,978,978,975,973,973,970,970,970,970,970,970,970,973,975,978,981,984,984,987,0,0,0,0,0,1572,1572,1564,1564,1564,1557,1557,1550,1550,1550,1550,1543,1543,1543,1543,1536,1536,1536,1536,1536,1529,1529,1529,1523,1523,1523,1516,1516,1516,1509,1509,1503,1503,1496,1496,1496,1496,1496,1489,1489,1489,1489,1483,1483,1483,1477,1477,1470,1470,1470,1470,1470,1464,1464,1464,1464,1458,1452,1452,1445,1445,1445,1445,1445,1439,1439,1439,1439,1439,1433,1433,1433,1427,1421,1421,1421,1415,1415,1415,1415,1410,1410,1404,1398,1398,1398,1398,1398,1398,1398,1392,1392,1387,1387,1387,1381,1381,1381,1376,1376,1376,1376,1370,1370,1370,1370,1359,1354,1354,1354,1354,1354,1349,1349,1349,1349,1343,1343,1343,1338,1338,1333,1333,1333,1333,1328,1328,1328,1322,1322,1322,1317,1312,1312,1312,1312,1312,1307,1307,1307,1302,1297,1297,1292,1292,1292,1292,1292,1288,1288,1288,1288,1283,1278,1278,1273,1273,1273,1273,1273,1268,1268,1268,1268,1268,1264,1264,1259,1259,1255,1255,1255,1255,1250,1250,1250,1250,1250,1245,1241,1241,1236,1236,1236,1236,1236,1232,1232,1232,1232,1232,1227,1227,1223,1223,1219,1219,1219,1214,1214,1214,1214,1214,1214,1214,1210,1206,1206,1206,0,0,0,0,0,0,0,0,0,0,0,0,0,0,0,0,0,0,0,0,0,0,0,0,0,0,0,0,0,0,0
0,0,0,0,0,0,0,0,0,0,0,1601,1601,1601,1601,1601,1601,1601,1601,1601,1601,1609,1609,1609,1616,1616,1616,1609,1609,1609,1609,1609,1609,1601,1601,1609,1624,1624,1624,1624,1624,1624,1624,1624,1624,1624,1632,1632,1639,1639,1639,1632,1632,1632,1632,1632,1632,1632,1632,1624,1624,1632,1632,1632,1632,1632,1632,1632,1624,1624,1624,1624,1624,1632,1632,1632,1624,1624,1624,1624,1616,1616,1655,0,0,0,0,0,0,0,0,0,923,923,920,918,915,913,913,913,910,910,910,910,910,913,915,915,918,918,920,920,923,923,923,925,925,923,923,0,0,0,0,0,1647,1647,1647,1647,1647,1647,1647,1647,1647,1647,1647,1639,1639,1639,1639,1639,1624,1624,1624,1624,1624,1632,0,0,0,0,0,0,0,0,796,794,792,790,789,789,787,785,783,781,780,780,776,774,774,774,773,769,767,767,767,766,762,759,757,754,752,752,750,749,746,746,742,741,739,739,736,734,733,731,731,728,728,727,727,725,722,719,717,716,716,714,714,713,711,680,679,678,675,675,675,671,671,670,668,668,666,666,664,663,662,659,659,658,657,655,655,654,654,654,654,654,653,652,650,650,650,649,649,649,649,650,650,652,653,653,654,655,655,657,658,659,661,662,663,664,666,668,670,671,672,674,674,675,676,676,676,680,683,686,688,691,710,711,714,714,716,716,716,719,720,722,725,730,733,734,736,738,738,739,742,744,746,747,749,750,752,754,755,759,762,766,767,769,773,773,774,776,781,787,789,790,792,794,796,798,800,802,803,803,805,807,809,811,813,817,0,0,0,0,0,0,1671,1671,1671,1663,1663,1680,1680,1680,1680,1688,1688,1688,1688,1680,1680,1680,1680,1680,1680,1680,1671,1671,1671,1671,1663,1663,1663,0,0,0,0,0,0,0,0,984,984,981,981,981,978,978,978,975,975,973,970,970,970,970,970,970,973,975,981,984,984,987,987,0,0,0,0,0,1572,1572,1564,1564,1564,1564,1557,1550,1550,1550,1550,1550,1550,1543,1543,1543,1543,1536,1536,1536,1529,1529,1529,1523,1523,1523,1523,1516,1516,1509,1509,1503,1503,1503,1496,1496,1496,1496,1496,1489,1489,1489,1489,1483,1483,1477,1477,1477,1470,1470,1470,1470,1464,1464,1464,1464,1458,1452,1452,1452,1445,1445,1445,1445,1445,1445,1439,1439,1439,1439,1433,1433,1427,1421,1421,1421,1421,1415,1415,1415,1415,1410,1404,1404,1398,1398,1398,1398,1398,1398,1392,1392,1387,1387,1387,1381,1381,1381,1381,1376,1376,1376,1376,1370,1370,1370,1365,1359,1359,1354,1354,1354,1354,1349,1349,1349,1343,1343,1343,1338,1338,1333,1333,1333,1333,1333,1328,1328,1328,1328,1322,1317,1317,1317,1312,1312,1312,1307,1307,1307,1302,1297,1297,1297,1292,1292,1292,1292,1288,1288,1288,1288,1283,1278,1278,1273,1273,1273,1273,1273,1268,1268,1268,1268,1268,1264,1264,1259,1259,1255,1255,1255,1255,1250,1250,1250,1250,1250,1245,1241,1241,1236,1236,1236,1236,1236,1236,1232,1232,1232,1232,1232,1227,1227,1223,1223,1219,1219,1214,1214,1214,1214,1214,1214,1214,1210,1206,1206,1206,0,0,0,0,0,0,0,0,0,0,0,0,0,0,0,0,0,0,0,0,0,0,0,0,0,0,0,0,0,0,0
0,0,0,0,0,0,0,0,0,0,0,1594,1594,1594,1594,1594,1594,1601,1601,1601,1601,1601,1609,1609,1609,1609,1601,1601,1601,1601,1594,1594,1594,1594,1594,1601,1609,1609,1609,1609,1616,1624,1624,1624,1616,1616,1624,1624,1624,1624,1632,1632,1632,1632,1624,1624,1632,1624,1624,1624,1624,1624,1624,1624,1624,1624,1624,1624,1624,1624,1624,1624,1624,1624,1624,1624,1624,1624,1616,1616,1609,1601,1594,1594,0,0,0,0,0,0,0,0,925,925,920,918,915,913,913,913,910,910,910,910,910,913,915,918,918,918,920,920,923,925,925,925,925,925,925,0,0,0,0,0,1647,1639,1639,1639,1639,1639,1639,1639,1639,1639,1639,1639,1632,1632,1632,1639,1624,1624,1624,1624,1624,1624,1624,0,0,0,0,0,0,0,0,794,790,790,789,789,787,785,781,781,780,780,776,776,774,774,773,769,767,767,767,766,762,761,759,757,755,752,750,750,749,746,744,742,741,739,738,736,734,733,731,728,728,727,727,727,722,720,717,716,716,714,713,713,711,710,710,710,675,675,674,671,671,670,668,668,666,664,664,663,662,659,659,658,657,655,654,654,654,653,653,652,650,649,649,649,649,649,649,649,649,649,650,650,652,653,654,654,655,657,658,659,661,662,663,664,666,668,670,671,672,674,675,675,676,676,675,675,708,708,708,710,710,711,714,714,716,717,719,720,720,723,725,730,733,734,736,738,739,741,742,744,746,747,749,750,752,754,757,761,764,767,769,769,773,774,776,780,783,789,789,790,792,794,798,798,800,800,802,803,803,807,807,811,813,0,0,0,0,0,0,1671,1671,1671,1671,1671,1671,1671,1680,1680,1680,1680,1680,1680,1680,1680,1680,1671,1671,1671,1671,1671,1671,1671,1671,1663,1663,1655,1655,0,0,0,0,0,0,0,0,987,984,984,981,981,981,978,978,978,975,973,973,973,970,970,970,973,975,975,981,984,984,987,987,0,0,0,0,0,1572,1572,1572,1564,1564,1564,1557,1557,1550,1550,1550,1550,1550,1543,1543,1543,1543,1536,1536,1536,1536,1536,1529,1529,1523,1523,1523,1516,1516,1516,1509,1509,1503,1503,1496,1496,1496,1496,1496,1496,1489,1489,1489,1489,1483,1483,1477,1477,1470,1470,1470,1470,1464,1464,1464,1464,1464,1458,1452,1452,1452,1445,1445,1445,1445,1445,1439,1439,1439,1439,1433,1433,1427,1421,1421,1421,1421,1415,1415,1415,1415,1410,1404,1404,1404,1398,1398,1398,1398,1398,1392,1392,1387,1387,1387,1387,1387,1381,1381,1376,1376,1376,1376,1370,1370,1370,1365,1359,1359,1354,1354,1354,1354,1354,1349,1349,1349,1343,1343,1338,1338,1333,1333,1333,1333,1333,1328,1328,1328,1328,1322,1322,1317,1317,1312,1312,1312,1307,1307,1307,1302,1302,1297,1297,1292,1292,1292,1292,1288,1288,1288,1288,1283,1283,1278,1273,1273,1273,1273,1273,1273,1268,1268,1268,1268,1264,1264,1259,1259,1259,1255,1255,1255,1255,1250,1250,1250,1250,1245,1245,1241,1241,1241,1236,1236,1236,1236,1232,1232,1232,1232,1232,1227,1227,1223,1223,1219,1219,1219,1214,1214,1214,1214,1214,1210,1210,1206,1206,1206,0,0,0,0,0,0,0,0,0,0,0,0,0,0,0,0,0,0,0,0,0,0,0,0,0,0,0,0,0,0,0
0,0,0,0,0,0,0,0,0,0,0,1586,1586,1594,1594,1594,1594,1594,1594,1594,1601,1601,1601,1601,1601,1601,1601,1594,1594,1594,1594,1594,1586,1586,1586,1586,1594,1594,1594,1601,1601,1609,1609,1609,1609,1609,1616,1616,1616,1616,1616,1624,1624,1624,1624,1624,1624,1624,1624,1616,1616,1624,1624,1624,1624,1624,1624,1624,1616,1616,1616,1616,1616,1616,1616,1616,1616,1616,1616,1609,1609,1601,1594,1594,0,0,0,0,0,0,0,0,925,925,920,918,915,915,913,913,910,910,910,910,910,913,915,918,920,920,920,923,923,925,925,925,925,925,925,0,0,0,0,0,1647,1639,1639,1639,1639,1639,1632,1632,1632,1632,1632,1632,1632,1624,1624,1632,1632,1632,1632,1624,1624,1616,1616,1616,1616,0,0,0,0,0,0,0,790,790,789,789,789,785,781,781,780,778,778,776,774,774,773,771,769,769,767,766,762,761,759,757,757,754,752,750,749,747,746,744,742,741,738,736,734,733,733,731,728,727,727,727,723,720,717,717,716,714,713,711,711,710,710,708,707,707,674,671,671,671,668,668,666,664,664,663,661,659,659,658,657,655,654,654,654,653,652,652,649,649,649,649,649,648,648,648,648,649,649,649,650,652,653,654,655,657,658,659,661,662,663,664,667,668,671,671,672,674,675,675,675,675,675,675,704,706,708,710,711,713,714,714,716,717,719,720,723,725,728,731,733,734,736,738,739,741,742,746,747,749,750,752,752,754,757,761,764,767,769,771,774,774,778,780,785,789,789,790,792,794,798,798,800,800,802,803,803,805,807,0,0,0,0,0,0,0,0,1671,1671,1671,1671,1671,1671,1671,1671,1671,1671,1671,1671,1671,1671,1671,1671,1671,1671,1671,1671,1671,1671,1663,1663,1663,1655,1655,1655,0,0,0,0,0,0,0,0,989,987,984,984,981,981,978,978,975,975,973,973,973,973,973,973,973,975,978,981,987,987,989,989,0,0,0,0,0,1572,1572,1572,1564,1564,1564,1557,1557,1550,1550,1550,1550,1550,1543,1543,1543,1543,1536,1536,1536,1536,1536,1529,1529,1523,1523,1523,1516,1516,1516,1509,1509,1503,1503,1503,1496,1496,1496,1496,1496,1496,1489,1489,1489,1489,1483,1483,1477,1470,1470,1470,1470,1464,1464,1464,1464,1464,1458,1452,1452,1452,1445,1445,1445,1445,1445,1439,1439,1439,1439,1439,1433,1433,1427,1427,1421,1421,1421,1415,1415,1415,1410,1404,1404,1404,1398,1398,1398,1398,1398,1392,1392,1392,1387,1387,1387,1387,1381,1381,1381,1376,1376,1376,1370,1370,1370,1365,1365,1359,1359,1354,1354,1354,1354,1354,1349,1349,1349,1343,1343,1338,1333,1333,1333,1333,1333,1333,1328,1328,1328,1328,1322,1317,1317,1317,1312,1312,1307,1307,1307,1302,1302,1297,1297,1297,1292,1292,1292,1288,1288,1288,1288,1283,1283,1278,1278,1278,1273,1273,1273,1273,1273,1268,1268,1268,1268,1264,1264,1259,1259,1255,1255,1255,1255,1250,1250,1250,1250,1250,1245,1241,1241,1241,1236,1236,1236,1236,1236,1232,1232,1232,1227,1227,1223,1223,1223,1219,1219,1219,1219,1214,1214,1214,1214,1210,1206,1206,1206,1206,0,0,0,0,0,0,0,0,0,0,0,0,0,0,0,0,0,0,0,0,0,0,0,0,0,0,0,0,0,0,0
0,0,0,0,0,0,0,0,0,0,0,1579,1579,1586,1586,1586,1586,1594,1594,1594,1594,1594,1594,1594,1594,1594,1586,1586,1586,1586,1579,1579,1579,1579,1579,1579,1579,1579,1586,1586,1594,1594,1594,1594,1594,1594,1594,1609,1609,1609,1609,1616,1616,1616,1616,1616,1616,1616,1616,1609,1609,1616,1616,1616,1616,1616,1616,1616,1616,1616,1609,1609,1609,1609,1609,1609,1609,1609,1609,1609,1601,1594,1594,1594,0,0,0,0,0,0,0,0,925,925,920,918,918,915,915,913,913,913,910,910,910,913,915,918,918,920,920,923,923,925,925,925,928,930,933,0,0,0,0,0,1639,1632,1632,1632,1632,1632,1632,1624,1624,1624,1624,1624,1624,1624,1624,1624,1624,1624,1624,1624,1624,1616,1616,1609,1609,1601,1601,0,0,0,0,0,0,0,789,789,789,785,781,781,780,778,778,776,774,773,773,771,769,769,767,766,762,761,759,759,757,755,754,752,750,749,746,744,742,741,739,738,736,733,733,731,728,727,727,727,723,722,719,717,716,714,713,711,711,710,708,708,707,706,704,671,670,670,668,668,667,666,664,663,661,661,659,658,657,655,654,654,654,653,652,652,649,648,648,648,648,647,647,647,648,648,649,649,650,650,652,653,655,657,658,659,661,662,663,664,667,670,670,671,674,674,675,675,675,675,675,703,704,706,708,710,711,713,714,714,716,717,719,722,725,727,728,731,733,734,736,739,739,741,742,746,747,749,750,752,754,755,759,762,766,767,769,771,774,776,778,781,785,787,789,790,792,796,798,798,800,800,802,803,803,805,0,0,0,0,0,0,0,0,1663,1663,1671,1671,1671,1671,1671,1671,1671,1671,1671,1671,1671,1671,1671,1671,1671,1671,1671,1671,1671,1671,1663,1663,1663,1663,1655,1655,1655,0,0,0,0,0,0,0,995,989,987,984,984,981,981,978,978,975,975,973,973,973,973,973,973,973,975,981,984,987,987,989,989,0,0,0,0,0,1572,1572,1572,1572,1564,1564,1557,1557,1557,1550,1550,1550,1550,1543,1543,1543,1543,1536,1536,1536,1536,1536,1529,1529,1523,1523,1523,1516,1516,1516,1509,1509,1503,1503,1503,1496,1496,1496,1496,1496,1496,1489,1489,1489,1489,1483,1483,1477,1470,1470,1470,1470,1464,1464,1464,1464,1464,1464,1458,1452,1452,1452,1445,1445,1445,1445,1445,1439,1439,1439,1439,1433,1433,1427,1421,1421,1421,1421,1421,1415,1415,1410,1410,1404,1404,1404,1404,1398,1398,1398,1392,1392,1392,1392,1392,1392,1387,1387,1381,1381,1376,1376,1376,1370,1370,1370,1365,1365,1365,1359,1359,1359,1354,1354,1354,1349,1349,1349,1349,1343,1338,1338,1338,1333,1333,1333,1333,1333,1328,1328,1328,1322,1322,1322,1317,1317,1312,1312,1307,1307,1307,1302,1302,1297,1297,1297,1292,1292,1292,1288,1288,1288,1283,1283,1278,1278,1278,1278,1273,1273,1273,1273,1273,1268,1268,1268,1268,1264,1259,1259,1255,1255,1255,1255,1255,1250,1250,1250,1250,1245,1241,1241,1241,1236,1236,1236,1236,1232,1232,1232,1232,1227,1227,1223,1223,1223,1219,1219,1219,1219,1214,1214,1214,1214,1210,1206,1206,1206,1206,0,0,0,0,0,0,0,0,0,0,0,0,0,0,0,0,0,0,0,0,0,0,0,0,0,0,0,0,0,0,0
0,0,0,0,0,0,0,0,0,0,0,1579,1579,1586,1586,1586,1586,1586,1586,1586,1586,1586,1586,1586,1586,1586,1579,1579,1579,1579,1572,1572,1572,1572,1572,1572,1572,1572,1579,1586,1586,1586,1594,1594,1594,1594,1594,1594,1586,1586,1586,1594,1601,1601,1601,1601,1609,1609,1601,1601,1601,1601,1609,1609,1609,1609,1609,1616,1609,1609,1601,1601,1601,1601,1601,1601,1601,1601,1601,1601,1601,1594,1586,1586,0,0,0,0,0,0,0,0,925,925,923,918,918,915,915,913,913,913,913,910,910,913,915,918,918,920,920,923,925,925,925,925,928,930,0,0,0,0,0,0,1632,1624,1624,1624,1624,1624,1624,1616,1616,1616,1616,1616,1616,1616,1616,1616,1616,1616,1616,1624,1624,1616,1616,1609,1609,1601,1601,1601,0,0,0,0,0,0,0,0,0,0,0,0,0,778,778,776,774,773,773,773,771,769,767,766,762,761,761,759,757,755,754,752,750,749,749,746,744,742,739,738,736,734,733,731,728,728,728,727,723,722,720,719,716,716,713,713,711,710,708,708,707,706,703,703,670,670,668,668,667,666,664,663,661,661,659,659,657,655,654,654,654,653,652,649,649,648,648,648,647,647,647,647,647,648,648,649,650,650,652,653,655,657,658,661,662,662,663,664,667,670,670,671,674,675,675,675,675,701,703,703,704,706,708,710,710,711,713,714,716,717,719,723,727,727,728,731,733,734,738,739,741,742,744,747,747,750,752,754,754,755,761,764,766,769,771,773,774,776,780,781,785,787,789,790,792,794,796,798,800,800,802,803,805,0,0,0,0,0,0,0,0,1663,1663,1663,1663,1663,1663,1663,1663,1663,1663,1663,1663,1663,1663,1663,1663,1663,1663,1663,1663,1663,1663,1663,1663,1663,1663,1655,1655,1647,1647,0,0,0,0,0,0,0,992,992,989,987,987,984,981,981,978,978,978,975,973,973,973,973,975,975,978,981,984,987,987,989,992,992,0,0,0,0,1572,1572,1572,1572,1564,1564,1557,1557,1557,1550,1550,1550,1550,1543,1543,1543,1543,1543,1536,1536,1536,1536,1529,1529,1523,1523,1523,1516,1516,1516,1516,1509,1503,1503,1503,1496,1496,1496,1496,1496,1496,1489,1489,1489,1489,1483,1483,1477,1470,1470,1470,1470,1464,1464,1464,1464,1464,1464,1458,1452,1452,1452,1445,1445,1445,1445,1445,1439,1439,1439,1439,1433,1433,1427,1421,1421,1421,1421,1421,1415,1415,1415,1410,1410,1410,1404,1404,1398,1398,1398,1392,1392,1392,1392,1392,1392,1387,1387,1387,1381,1381,1376,1376,1370,1370,1370,1370,1365,1365,1365,1359,1359,1354,1354,1354,1354,1349,1349,1349,1343,1338,1338,1338,1333,1333,1333,1333,1333,1328,1328,1328,1322,1322,1322,1317,1317,1312,1312,1312,1307,1307,1302,1302,1302,1297,1297,1292,1292,1292,1288,1288,1288,1283,1283,1283,1278,1278,1278,1273,1273,1273,1273,1273,1273,1268,1268,1268,1264,1259,1259,1259,1255,1255,1255,1255,1250,1250,1250,1250,1245,1245,1241,1241,1236,1236,1236,1236,1232,1232,1232,1232,1227,1227,1223,1223,1223,1219,1219,1219,1219,1214,1214,1214,1210,1210,1206,1206,1206,1206,0,0,0,0,0,0,0,0,0,0,0,0,0,0,0,0,0,0,0,0,0,0,0,0,0,0,0,0,0,0,0
0,0,0,0,0,0,0,0,0,0,0,1579,1579,1579,1579,1579,1579,1579,1579,1579,1579,1579,1579,1579,1579,1579,1579,1572,1572,1572,1572,1572,1572,1572,1572,1572,1572,1572,1572,1572,1579,1579,1586,1586,1586,1586,1579,1579,1579,1579,1579,1579,1579,1586,1586,1586,1594,1594,1594,1594,1594,1601,1601,1601,1601,1601,1601,1609,1601,1601,1601,1594,1594,1594,1601,1601,1601,1601,1601,1601,1601,1586,1586,1586,0,0,0,0,0,0,0,0,0,925,923,923,918,915,915,913,913,913,913,913,913,915,918,920,920,923,923,923,925,925,925,925,928,930,0,0,0,0,0,0,1624,1616,1616,1616,1616,1624,1616,1616,1616,1616,1616,1609,1609,1609,1609,1609,1609,1609,1616,1616,1616,1616,1616,1616,1609,1601,1601,1601,1601,1601,1601,0,0,0,0,0,0,0,0,0,0,0,780,778,776,774,773,773,771,769,769,766,762,761,761,759,759,757,755,754,752,750,749,746,746,742,741,739,738,736,734,733,730,728,728,727,723,722,720,720,717,716,714,713,711,710,708,708,707,706,703,703,701,700,668,668,666,666,664,663,661,661,659,658,657,655,654,654,654,653,652,649,648,648,648,647,647,647,647,647,647,648,648,649,650,650,652,653,655,657,659,661,662,663,664,666,668,670,671,671,674,675,675,700,700,701,703,703,704,706,708,710,710,711,713,714,716,717,717,725,727,728,730,731,734,734,738,739,741,742,746,747,749,750,752,754,755,757,762,764,767,769,771,773,776,778,780,783,785,787,789,790,792,794,796,798,800,800,802,803,0,0,0,0,0,0,0,0,1663,1663,1663,1663,1663,1663,1663,1663,1663,1663,1663,1663,1663,1663,1663,1663,1663,1663,1663,1655,1655,1663,1655,1655,1647,1647,1655,1647,1647,1647,1647,0,0,0,0,0,0,0,992,992,989,987,987,984,981,981,978,978,978,975,975,975,975,975,975,975,978,984,987,989,989,989,992,992,0,0,0,0,1572,1572,1572,1572,1564,1564,1564,1557,1557,1557,1550,1550,1550,1543,1543,1543,1543,1543,1543,1536,1536,1536,1529,1529,1523,1523,1523,1516,1516,1516,1516,1509,1509,1503,1503,1503,1496,1496,1496,1496,1496,1489,1489,1489,1489,1483,1483,1477,1470,1470,1470,1470,1464,1464,1464,1464,1464,1464,1464,1458,1452,1452,1452,1445,1445,1445,1445,1445,1439,1439,1439,1433,1433,1427,1421,1421,1421,1421,1421,1415,1415,1415,1410,1410,1410,1404,1404,1398,1398,1398,1392,1392,1392,1392,1392,1392,1392,1387,1387,1381,1376,1376,1376,1370,1370,1370,1370,1365,1365,1365,1359,1359,1354,1354,1354,1354,1349,1349,1349,1343,1338,1338,1338,1333,1333,1333,1333,1333,1328,1328,1328,1322,1322,1322,1322,1317,1312,1312,1312,1307,1307,1302,1302,1302,1302,1297,1297,1292,1292,1292,1288,1288,1288,1283,1283,1283,1283,1278,1273,1273,1273,1273,1273,1273,1268,1268,1268,1268,1259,1259,1259,1255,1255,1255,1255,1250,1250,1250,1250,1250,1245,1245,1241,1241,1236,1236,1236,1236,1232,1232,1232,1232,1227,1227,1223,1223,1223,1219,1219,1219,1214,1214,1214,1210,1210,1206,1206,1206,1206,0,0,0,0,0,0,0,0,0,0,0,0,0,0,0,0,0,0,0,0,0,0,0,0,0,0,0,0,0,0,0
0,0,0,0,0,0,0,0,0,0,0,1572,1572,1572,1572,1572,1572,1572,1572,1572,1572,1572,1572,1572,1564,1564,1564,1564,1564,1572,1572,1572,1572,1572,1572,1572,1564,1564,1572,1572,1572,1572,1579,1579,1579,1579,1579,1579,1579,1579,1579,1579,1579,1572,1572,1572,1572,1572,1579,1586,1586,1586,1586,1601,1601,1601,1601,1601,1601,1601,1594,1594,1594,1594,1601,1594,1594,1594,1594,1594,1594,1586,1586,1586,0,0,0,0,0,0,0,0,0,925,925,923,923,918,915,915,913,913,913,913,913,915,918,920,920,923,923,923,925,925,925,925,928,930,933,0,0,0,0,0,1624,1609,1609,1609,1609,1616,1616,1609,1609,1609,1609,1609,1601,1601,1601,1601,1601,1601,1609,1609,1609,1609,1609,1609,1609,1601,1601,1601,1601,1601,1594,1594,1594,0,0,0,0,0,0,0,0,0,0,0,0,774,773,773,771,771,769,766,762,761,761,761,759,757,755,754,752,750,749,747,746,744,741,739,738,736,734,733,731,730,728,727,725,722,720,719,717,716,714,713,711,710,710,708,707,706,703,703,701,700,698,698,666,666,666,664,661,659,659,658,657,655,654,654,654,653,653,652,648,648,648,647,647,647,647,647,647,648,648,649,650,650,652,653,655,657,659,661,663,663,664,667,670,671,671,671,675,694,694,698,700,700,703,703,706,707,708,710,710,711,713,714,716,717,717,727,728,730,730,733,734,736,739,741,742,744,746,747,749,750,752,754,755,761,764,767,767,771,771,773,776,778,781,783,787,787,789,789,792,794,796,798,800,800,802,802,0,0,0,0,0,0,1639,1639,1647,1655,1655,1655,1655,1655,1655,1655,1655,1647,1647,1647,1647,1655,1655,1655,1655,1655,1647,1647,1655,1647,1647,1647,1647,1647,1647,1647,1647,1647,1639,1639,0,0,0,0,0,0,995,992,989,989,987,984,984,981,981,978,978,975,975,975,975,975,975,975,981,984,987,989,989,992,992,992,0,0,0,0,1572,1572,1572,1572,1572,1564,1564,1557,1557,1557,1557,1550,1550,1543,1543,1543,1543,1543,1543,1536,1536,1536,1529,1529,1529,1523,1523,1523,1516,1516,1516,1509,1509,1503,1503,1503,1503,1496,1496,1496,1496,1489,1489,1489,1489,1483,1483,1477,1470,1470,1470,1470,1470,1470,1464,1464,1464,1464,1464,1458,1452,1452,1452,1445,1445,1445,1445,1445,1439,1439,1439,1439,1433,1433,1427,1421,1421,1421,1421,1415,1415,1415,1415,1410,1410,1410,1404,1398,1398,1398,1392,1392,1392,1392,1392,1392,1392,1387,1387,1381,1376,1376,1376,1370,1370,1370,1370,1370,1365,1365,1359,1359,1354,1354,1354,1354,1349,1349,1349,1343,1343,1343,1338,1338,1333,1333,1333,1333,1328,1328,1328,1322,1322,1322,1317,1317,1312,1312,1312,1307,1307,1302,1302,1302,1302,1297,1297,1292,1292,1292,1288,1288,1288,1283,1283,1283,1283,1278,1273,1273,1273,1273,1273,1273,1268,1268,1268,1264,1259,1259,1259,1255,1255,1255,1255,1250,1250,1250,1250,1250,1245,1245,1241,1241,1241,1236,1236,1236,1236,1236,1232,1232,1227,1227,1227,1227,1223,1223,1219,1219,1219,1219,1214,1214,1210,1210,1206,1206,1206,0,0,0,0,0,0,0,0,0,0,0,0,0,0,0,0,0,0,0,0,0,0,0,0,0,0,0,0,0,0,0
0,0,0,0,0,0,0,0,0,0,0,1572,1564,1564,1564,1564,1564,1564,1564,1564,1564,1557,1557,1564,1564,1564,1564,1564,1564,1564,1564,1564,1564,1564,1564,1564,1564,1564,1564,1564,1572,1572,1572,1579,1579,1579,1579,1572,1572,1572,1572,1572,1572,1572,1572,1572,1572,1572,1572,1572,1572,1579,1579,1594,1594,1594,1594,1594,1594,1594,1594,1586,1586,1594,1594,1594,1594,1594,1594,1594,1586,1579,1572,1572,0,0,0,0,0,0,0,0,0,925,925,925,923,918,918,915,915,915,915,913,913,915,918,920,920,923,923,925,925,928,925,925,928,930,933,0,0,0,0,0,0,1601,1601,1601,1601,1601,1601,1609,1609,1601,1601,1601,1601,1601,1601,1601,1601,1601,1601,1601,1601,1601,1601,1601,1601,1601,1601,1594,1594,1594,1594,1594,1594,1594,1594,0,0,0,1594,0,0,0,0,0,0,0,774,773,771,771,769,769,762,762,761,761,759,757,755,754,754,752,750,747,746,744,742,741,739,738,736,734,733,731,730,728,725,723,722,719,719,717,716,714,711,710,710,708,708,707,704,703,701,700,698,698,697,697,696,694,661,659,659,658,657,655,655,654,654,653,653,652,649,648,648,647,647,647,647,647,647,648,648,649,650,650,652,653,655,657,659,661,663,664,666,668,671,672,672,672,690,694,694,697,700,700,703,704,706,707,708,710,711,713,713,714,716,716,723,727,728,730,731,733,734,734,738,742,742,746,746,749,749,752,754,754,755,761,764,767,769,771,773,773,776,778,781,783,787,787,789,789,792,792,794,796,800,800,800,0,0,0,0,0,0,1639,1639,1639,1639,1647,1647,1647,1647,1647,1647,1647,1647,1647,1647,1647,1647,1647,1647,1647,1647,1647,1639,1639,1647,1639,1639,1647,1639,1639,1639,1639,1639,1639,1639,1639,0,0,0,0,0,0,995,992,989,989,989,987,984,984,981,981,978,978,975,975,975,978,978,978,981,987,987,992,992,992,992,992,0,0,0,0,1572,1572,1572,1572,1572,1572,1564,1564,1564,1564,1557,1550,1550,1543,1543,1543,1543,1543,1543,1536,1536,1536,1529,1529,1529,1523,1523,1523,1516,1516,1516,1509,1509,1509,1503,1503,1503,1503,1496,1496,1496,1489,1489,1489,1483,1483,1483,1477,1477,1477,1470,1470,1470,1470,1470,1464,1464,1464,1464,1458,1458,1458,1452,1452,1445,1445,1445,1445,1439,1439,1439,1439,1433,1427,1427,1421,1421,1421,1421,1421,1415,1415,1415,1410,1410,1410,1404,1404,1398,1398,1392,1392,1392,1392,1392,1392,1392,1387,1387,1381,1376,1376,1376,1370,1370,1370,1370,1370,1365,1365,1359,1359,1354,1354,1354,1354,1354,1349,1349,1349,1343,1343,1338,1338,1338,1333,1333,1333,1328,1328,1328,1328,1322,1322,1317,1317,1312,1312,1312,1307,1307,1307,1307,1302,1302,1302,1297,1297,1292,1292,1292,1288,1288,1288,1283,1283,1283,1278,1273,1273,1273,1273,1273,1273,1268,1268,1268,1264,1264,1264,1259,1259,1255,1255,1255,1250,1250,1250,1250,1250,1245,1245,1241,1241,1241,1236,1236,1236,1236,1236,1232,1232,1227,1227,1227,1227,1223,1223,1219,1219,1219,1219,1214,1214,1214,1210,1210,1206,1206,0,0,0,0,0,0,0,0,0,0,0,0,0,0,0,0,0,0,0,0,0,0,0,0,0,0,0,0,0,0,0
0,0,0,0,0,0,0,0,0,0,0,1564,1564,1564,1564,1564,1564,1557,1557,1557,1557,1550,1550,1550,1550,1557,1557,1564,1564,1564,1564,1564,1564,1564,1564,1564,1564,1564,1543,1543,1564,1572,1572,1572,1572,1572,1572,1572,1564,1564,1564,1564,1564,1564,1564,1564,1564,1572,1572,1572,1572,1572,1572,1572,1572,1579,1586,1586,1594,1594,1586,1579,1579,1586,1586,1586,1579,1579,1579,1586,1579,1572,1564,1564,0,0,0,0,0,0,0,0,0,925,925,925,925,920,918,918,915,915,915,915,915,918,918,920,920,923,923,925,925,928,928,928,930,933,933,0,0,0,0,0,0,1601,1601,1594,1594,1594,1594,1594,1594,1594,1594,1594,1594,1594,1594,1594,1594,1594,1601,1601,1601,1601,1601,1601,1601,1594,1594,1594,1594,1594,1594,1594,1594,1594,1594,1594,1594,1594,1594,0,0,0,0,0,0,0,0,773,773,773,771,769,762,762,761,761,759,759,755,755,754,752,750,747,747,746,744,742,741,739,738,734,733,731,730,728,725,723,722,720,719,719,716,714,711,711,710,708,708,707,706,703,701,700,700,698,697,697,696,694,691,659,659,659,657,657,655,654,654,653,653,650,649,648,648,647,647,647,647,648,648,648,649,649,650,650,650,653,658,658,661,662,664,666,668,671,672,674,674,691,691,693,694,697,698,700,703,704,706,707,708,711,711,713,714,714,716,716,725,728,728,730,731,733,734,734,738,742,744,746,747,749,750,752,754,755,757,762,766,767,769,773,773,773,776,778,780,783,787,787,789,789,790,792,794,796,796,0,0,1616,0,0,1632,1632,1632,1632,1639,1639,1639,1639,1639,1639,1647,1639,1639,1639,1639,1639,1639,1639,1639,1639,1639,1639,1639,1639,1639,1639,1639,1639,1639,1639,1639,1639,1639,1639,1639,1639,1639,1639,0,0,0,0,0,0,995,992,992,989,989,989,987,984,981,981,978,978,978,978,978,978,978,978,984,987,989,992,992,992,992,992,0,0,0,1579,1579,1579,1579,1572,1572,1572,1572,1572,1564,1564,1557,1557,1550,1550,1543,1543,1543,1543,1536,1536,1536,1536,1529,1529,1529,1523,1523,1523,1516,1516,1516,1516,1509,1509,1503,1503,1503,1503,1496,1496,1496,1489,1489,1489,1483,1483,1483,1477,1477,1477,1470,1470,1470,1470,1470,1470,1464,1464,1464,1458,1458,1458,1452,1452,1445,1445,1445,1445,1445,1439,1439,1439,1433,1427,1427,1421,1421,1421,1421,1421,1415,1415,1415,1415,1410,1410,1410,1404,1398,1398,1392,1392,1392,1392,1392,1392,1387,1387,1387,1381,1376,1376,1376,1370,1370,1370,1370,1365,1365,1365,1365,1359,1354,1354,1354,1354,1354,1349,1349,1349,1343,1343,1343,1338,1338,1333,1333,1333,1328,1328,1328,1328,1322,1322,1322,1317,1317,1312,1312,1307,1307,1307,1307,1302,1302,1302,1297,1297,1292,1292,1292,1288,1288,1288,1288,1288,1283,1278,1278,1273,1273,1273,1273,1273,1268,1268,1268,1264,1264,1264,1259,1259,1259,1255,1255,1255,1255,1250,1250,1250,1245,1245,1245,1241,1241,1236,1236,1236,1236,1236,1232,1232,1232,1227,1227,1227,1223,1223,1219,1219,1219,1219,1214,1214,1210,1210,1210,1206,1206,0,0,0,0,0,0,0,0,0,0,0,0,0,0,0,0,0,0,0,0,0,0,0,0,0,0,0,0,0,0,0
0,0,0,0,0,0,0,0,0,0,0,1564,1564,1564,1564,1564,1557,1557,1557,1557,1557,1550,1550,1550,1550,1550,1557,1557,1557,1557,1557,1564,1564,1557,1557,1564,1557,1557,1543,1543,1564,1564,1564,1572,1564,1564,1564,1564,1564,1564,1564,1564,1564,1557,1557,1564,1564,1564,1564,1564,1564,1572,1572,1572,1572,1572,1572,1572,1579,1579,1579,1579,1579,1579,1579,1579,1579,1579,1579,1579,1579,1572,1564,1564,0,0,0,0,0,0,0,0,0,928,928,928,925,923,920,918,918,915,915,918,918,918,920,920,923,923,925,925,925,928,928,928,930,933,933,0,0,0,0,0,0,1601,1594,1594,1594,1594,1594,1594,1586,1586,1586,1579,1579,1586,1586,1586,1594,1594,1594,1594,1594,1594,1594,1601,1594,1594,1594,1594,1594,1594,1594,1594,1594,1594,1594,1594,1586,1586,1579,1579,0,0,0,0,0,0,0,0,0,774,771,769,766,762,761,761,759,759,755,755,754,752,749,747,747,746,744,744,741,741,738,736,734,733,733,730,727,723,722,722,720,719,717,716,713,711,710,710,708,707,706,704,703,701,700,698,697,697,694,693,691,659,659,659,655,655,654,654,653,653,653,650,649,648,648,648,647,647,648,648,648,649,649,649,650,650,650,653,658,661,662,666,667,667,670,672,674,679,691,691,691,693,694,697,698,701,703,704,707,708,710,711,713,713,714,716,717,717,727,728,730,730,733,733,734,736,738,742,744,747,750,750,752,754,755,755,759,762,764,766,769,773,773,773,776,778,780,783,787,787,789,789,790,792,792,1609,1609,1609,0,1616,1616,1616,1624,1624,1624,1632,1632,1632,1632,1639,1639,1639,1639,1639,1639,1639,1639,1639,1639,1639,1639,1639,1639,1639,1632,1632,1639,1632,1632,1632,1632,1639,1632,1632,1632,1639,1639,1639,1632,1632,0,0,0,0,0,0,995,992,992,992,989,989,989,987,987,981,981,978,978,978,978,978,978,981,984,989,989,992,992,992,992,0,0,0,0,1579,1579,1579,1579,1579,1572,1572,1572,1572,1564,1564,1564,1557,1550,1550,1543,1543,1543,1543,1536,1536,1536,1536,1529,1529,1529,1529,1523,1523,1523,1516,1516,1516,1509,1509,1509,1503,1503,1503,1496,1496,1496,1489,1489,1489,1483,1483,1483,1477,1477,1477,1477,1477,1470,1470,1470,1470,1464,1464,1464,1458,1458,1458,1458,1452,1452,1445,1445,1445,1445,1439,1439,1439,1433,1427,1427,1421,1421,1421,1421,1421,1421,1415,1415,1415,1415,1410,1410,1404,1398,1398,1392,1392,1392,1392,1392,1392,1387,1387,1387,1381,1376,1376,1376,1376,1376,1370,1370,1365,1365,1365,1365,1359,1354,1354,1354,1354,1354,1349,1349,1349,1343,1343,1338,1338,1338,1333,1333,1333,1328,1328,1328,1328,1322,1322,1322,1317,1317,1312,1312,1307,1307,1307,1307,1302,1302,1302,1297,1297,1292,1292,1292,1288,1288,1288,1288,1288,1283,1283,1278,1273,1273,1273,1273,1273,1268,1268,1268,1264,1264,1264,1259,1259,1259,1255,1255,1255,1255,1250,1250,1250,1245,1245,1245,1245,1241,1236,1236,1236,1236,1236,1232,1232,1232,1227,1227,1227,1223,1223,1219,1219,1214,1214,1214,1214,1210,1210,1210,1206,1206,0,0,0,0,0,0,0,0,0,0,0,0,0,0,0,0,0,0,0,0,0,0,0,0,0,0,0,0,0,0,0
0,0,0,0,0,0,0,0,0,0,0,1564,1564,1564,1564,1557,1557,1557,1557,1550,1550,1550,1543,1543,1543,1543,1550,1550,1550,1550,1557,1557,1557,1557,1557,1557,1557,1550,1543,1543,1557,1557,1557,1564,1564,1564,1564,1564,1564,1564,1557,1557,1557,1557,1557,1557,1557,1557,1557,1557,1557,1557,1557,1557,1564,1564,1564,1564,1572,1572,1572,1572,1572,1572,1572,1572,1572,1572,1572,1572,1572,1572,1564,1564,0,0,0,0,0,0,0,0,0,928,928,928,925,925,923,920,918,918,918,918,918,918,920,920,923,923,925,925,928,930,930,930,933,933,933,0,0,0,0,0,0,1594,1594,1594,1586,1586,1579,1579,1579,1579,1579,1579,1579,1579,1579,1579,1586,1586,1594,1594,1594,1594,1594,1594,1594,1594,1594,1594,1594,1594,1594,1594,1594,1594,1594,1586,1579,1579,1572,1572,1579,1579,0,0,0,0,0,0,0,0,0,771,766,762,761,761,759,759,755,755,754,752,749,747,747,746,746,744,742,741,739,736,736,734,734,733,728,725,722,722,720,719,717,716,714,711,711,710,708,708,707,704,703,701,700,698,698,697,694,693,691,690,690,688,655,654,654,654,653,653,653,650,649,649,649,648,648,648,648,648,649,649,649,650,652,652,652,663,663,664,666,668,670,670,672,675,676,679,691,691,693,694,694,698,700,701,704,706,707,708,710,711,713,714,714,716,717,722,727,728,730,731,733,734,734,736,739,744,746,747,750,750,752,754,755,755,759,762,762,766,769,773,773,773,776,778,780,783,787,789,789,789,1609,1609,1609,1609,1609,1609,1609,1609,1616,1616,1616,1624,1624,1624,1624,1624,1632,1632,1632,1632,1632,1632,1632,1632,1632,1632,1632,1632,1632,1632,1632,1632,1632,1632,1632,1632,1632,1632,1632,1632,1632,1632,1632,1632,1632,1632,1632,1632,0,0,0,0,0,0,995,992,992,992,992,989,989,989,987,984,981,981,981,981,981,978,978,981,987,989,989,992,992,995,995,0,0,0,0,1579,1579,1579,1579,1579,1572,1572,1572,1572,1572,1564,1564,1557,1550,1550,1543,1543,1543,1543,1543,1536,1536,1536,1536,1536,1529,1529,1523,1523,1523,1516,1516,1516,1516,1509,1509,1509,1503,1503,1496,1496,1496,1489,1489,1489,1483,1483,1483,1483,1477,1477,1477,1477,1477,1470,1470,1470,1470,1464,1464,1464,1458,1458,1458,1452,1452,1445,1445,1445,1445,1439,1439,1439,1433,1427,1427,1421,1421,1421,1421,1421,1421,1415,1415,1415,1415,1415,1410,1404,1398,1398,1398,1398,1392,1392,1392,1392,1392,1387,1387,1381,1381,1376,1376,1376,1376,1376,1370,1370,1370,1365,1365,1359,1354,1354,1354,1354,1354,1349,1349,1343,1343,1343,1338,1338,1338,1333,1333,1333,1328,1328,1328,1328,1322,1322,1322,1317,1317,1312,1312,1312,1307,1307,1307,1307,1307,1302,1302,1302,1292,1292,1292,1292,1288,1288,1288,1288,1283,1283,1278,1273,1273,1273,1273,1273,1268,1268,1268,1264,1264,1264,1259,1259,1259,1255,1255,1255,1255,1250,1250,1250,1250,1250,1245,1245,1241,1241,1241,1236,1236,1236,1232,1232,1232,1232,1227,1227,1223,1223,1219,1219,1214,1214,1214,1214,1214,1214,1210,1206,1206,0,0,0,0,0,0,0,0,0,0,0,0,0,0,0,0,0,0,0,0,0,0,0,0,0,0,0,0,0,0,0
0,0,0,0,0,0,0,0,0,0,0,1557,1557,1557,1557,1557,1550,1550,1550,1550,1550,1543,1543,1543,1543,1543,1543,1543,1543,1543,1550,1550,1550,1550,1550,1550,1550,1550,1550,1550,1550,1550,1550,1557,1557,1557,1557,1557,1557,1557,1557,1557,1557,1557,1557,1557,1557,1557,1557,1557,1557,1557,1557,1557,1557,1564,1564,1564,1564,1564,1572,1564,1564,1572,1572,1572,1564,1564,1572,1572,1564,1564,1564,1564,1564,0,0,0,0,0,0,0,0,930,930,928,925,925,923,920,920,918,918,918,918,918,920,920,923,923,925,925,928,930,930,930,933,933,933,0,0,0,0,0,0,1594,1594,1586,1586,1579,1572,1572,1579,1572,1572,1572,1572,1572,1572,1572,1572,1579,1579,1586,1586,1586,1594,1594,1594,1594,1594,1594,1594,1594,1594,1594,1594,1586,1586,1586,1579,1579,1572,1572,1579,1579,1572,1572,0,0,0,0,0,0,0,0,0,762,761,761,761,759,757,755,754,752,749,747,747,746,746,746,744,742,741,736,736,734,734,733,731,727,723,722,720,719,717,716,714,713,711,710,710,708,707,704,703,701,700,698,698,697,694,693,691,690,690,688,688,654,654,675,674,674,675,650,649,649,649,648,648,648,649,649,649,649,650,650,653,655,663,664,666,668,670,671,671,672,675,676,676,679,682,693,694,694,696,698,700,701,704,706,707,708,710,711,713,714,716,717,719,723,727,728,730,731,733,734,736,738,741,746,747,749,750,750,752,754,755,755,759,762,762,766,769,773,773,773,776,0,0,0,0,0,0,0,1609,1609,1601,1601,1609,1609,1609,1609,1609,1609,1616,1616,1616,1616,1616,1616,1616,1624,1624,1616,1616,1624,1624,1624,1632,1632,1632,1632,1632,1632,1632,1632,1624,1624,1632,1624,1624,1624,1624,1624,1624,1624,1624,1624,1624,1624,1609,1609,0,0,0,0,0,0,0,992,992,992,992,989,989,989,987,984,981,981,981,981,981,981,981,981,987,992,992,995,995,995,995,0,0,0,0,1579,1579,1579,1579,1579,1579,1572,1572,1572,1572,1564,1564,1550,1550,1550,1543,1543,1543,1543,1543,1543,1536,1536,1536,1536,1529,1529,1523,1523,1523,1516,1516,1516,1516,1516,1509,1509,1503,1503,1496,1496,1496,1489,1489,1489,1483,1483,1483,1483,1483,1483,1477,1477,1477,1470,1470,1470,1470,1464,1464,1464,1458,1458,1458,1452,1452,1452,1445,1445,1445,1439,1439,1439,1433,1427,1427,1421,1421,1421,1421,1421,1421,1421,1415,1415,1415,1415,1410,1404,1398,1398,1398,1398,1392,1392,1392,1392,1392,1387,1387,1381,1381,1376,1376,1376,1376,1376,1370,1370,1370,1365,1365,1359,1354,1354,1354,1354,1354,1349,1349,1343,1343,1343,1338,1338,1338,1333,1333,1333,1328,1328,1328,1328,1322,1322,1317,1317,1317,1317,1312,1312,1307,1307,1307,1307,1307,1307,1302,1302,1297,1292,1292,1292,1288,1288,1288,1288,1283,1283,1278,1273,1273,1273,1273,1273,1273,1268,1268,1268,1268,1264,1264,1259,1259,1255,1255,1255,1255,1250,1250,1250,1250,1250,1245,1245,1245,1241,1241,1236,1236,1236,1232,1232,1232,1232,1227,1227,1227,1223,1219,1219,1219,1214,1214,1214,1214,1214,1210,1210,1210,0,0,0,0,0,0,0,0,0,0,0,0,0,0,0,0,0,0,0,0,0,0,0,0,0,0,0,0,0,0,0
0,0,0,0,0,0,0,0,0,0,0,1536,1536,1550,1550,1543,1543,1543,1543,1543,1543,1543,1536,1536,1536,1536,1536,1536,1543,1543,1543,1550,1550,1543,1543,1550,1543,1543,1543,1550,1550,1550,1550,1550,1550,1550,1550,1550,1550,1550,1550,1550,1550,1550,1550,1550,1550,1550,1550,1550,1550,1550,1550,1550,1557,1564,1564,1564,1564,1564,1564,1564,1564,1564,1564,1564,1564,1557,1557,1557,1557,1557,1557,1557,1564,1572,0,0,0,0,0,0,0,0,930,928,925,925,923,923,920,920,918,918,918,920,920,920,923,923,923,925,925,928,930,933,933,933,933,935,0,0,0,0,0,1579,1579,1579,1579,1572,1572,1572,1572,1572,1572,1572,1572,1572,1564,1564,1572,1572,1572,1579,1579,1572,1572,1579,1579,1579,1579,1579,1586,1586,1594,1586,1586,1586,1579,1579,1579,1572,1572,1572,1572,1572,1572,1572,1572,0,0,0,0,0,0,0,0,0,761,761,759,759,757,755,754,752,750,747,747,746,746,746,744,744,741,736,736,734,734,733,733,730,727,723,722,720,717,716,714,713,711,710,710,708,708,706,704,703,701,700,698,697,694,693,691,690,690,690,682,679,676,675,674,674,671,670,650,649,649,648,648,648,648,649,649,649,650,652,659,664,664,666,667,668,670,671,672,675,676,676,676,680,682,691,694,696,696,698,700,701,704,706,707,708,710,711,713,714,716,717,722,725,727,728,730,731,733,734,736,739,742,746,747,749,750,752,752,754,755,757,759,762,762,766,767,771,773,773,0,0,0,0,0,0,0,1601,1601,1601,1601,1601,1601,1609,1609,1609,1609,1609,1609,1616,1616,1609,1609,1609,1609,1609,1609,1609,1609,1616,1616,1616,1616,1616,1616,1616,1624,1624,1632,1624,1624,1624,1624,1624,1624,1624,1616,1616,1624,1616,1616,1616,1616,1616,1601,1601,0,0,0,0,0,0,0,992,992,992,992,992,989,989,987,987,984,981,981,981,981,981,981,981,987,992,998,998,998,998,998,998,0,0,0,1579,1579,1579,1579,1579,1579,1572,1572,1572,1572,1564,1564,1550,1550,1550,1543,1543,1543,1543,1543,1543,1536,1536,1536,1536,1536,1529,1523,1523,1523,1523,1516,1516,1516,1516,1509,1509,1503,1503,1503,1496,1496,1489,1489,1489,1489,1483,1483,1483,1483,1483,1477,1477,1470,1470,1470,1470,1470,1464,1464,1464,1458,1458,1458,1452,1452,1452,1445,1445,1445,1439,1439,1439,1433,1427,1427,1421,1421,1421,1421,1421,1421,1421,1415,1415,1415,1415,1415,1404,1398,1398,1398,1398,1398,1392,1392,1392,1392,1387,1387,1381,1381,1376,1376,1376,1376,1376,1370,1370,1370,1365,1365,1359,1354,1354,1354,1354,1354,1349,1349,1343,1343,1343,1338,1338,1338,1333,1333,1333,1328,1328,1328,1328,1322,1322,1317,1317,1317,1317,1312,1312,1312,1307,1307,1307,1307,1307,1302,1302,1297,1292,1292,1292,1288,1288,1288,1288,1283,1283,1278,1273,1273,1273,1273,1273,1273,1268,1268,1268,1268,1264,1264,1264,1259,1255,1255,1255,1255,1250,1250,1250,1250,1250,1250,1250,1245,1241,1241,1236,1236,1236,1232,1232,1232,1232,1227,1227,1227,1223,1219,1219,1219,1219,1214,1214,1214,1214,1210,1210,1210,0,0,0,0,0,0,0,0,0,0,0,0,0,0,0,0,0,0,0,0,0,0,0,0,0,0,0,0,0,0,0
0,0,0,0,0,0,0,0,0,0,0,1536,1536,1536,1536,1536,1536,1543,1543,1543,1536,1536,1529,1529,1536,1536,1536,1536,1536,1536,1543,1543,1543,1543,1543,1543,1543,1543,1543,1543,1543,1543,1543,1543,1543,1543,1543,1543,1550,1550,1550,1543,1543,1543,1543,1543,1543,1543,1543,1543,1543,1543,1543,1550,1550,1557,1557,1557,1557,1557,1557,1557,1557,1557,1557,1557,1557,1550,1550,1550,1550,1557,1557,1557,1564,1572,0,0,0,0,0,0,0,0,930,928,925,925,925,923,920,920,920,920,920,920,920,923,923,923,923,925,925,928,930,933,933,935,935,935,0,0,0,0,0,1579,1579,1579,1572,1564,1564,1564,1564,1564,1564,1564,1564,1564,1564,1564,1564,1564,1564,1572,1572,1572,1572,1572,1572,1572,1572,1564,1564,1572,1586,1579,1579,1579,1579,1579,1572,1572,1572,1572,1572,1572,1564,1564,1564,1564,0,0,0,0,0,0,0,0,0,761,759,759,757,755,754,752,749,747,747,747,746,746,744,744,742,738,736,736,734,734,733,730,728,727,723,722,719,717,716,714,713,711,710,710,708,707,706,704,703,700,698,698,696,693,693,691,690,690,682,678,676,675,674,672,671,670,670,670,670,670,648,648,648,649,649,650,655,662,662,664,664,666,667,668,670,671,674,675,676,676,678,679,682,691,694,696,696,698,700,701,704,706,708,710,711,713,714,716,717,719,723,725,727,728,730,731,733,736,738,741,744,746,747,749,750,752,752,754,755,757,761,762,762,766,766,769,773,0,0,0,0,0,0,0,0,1594,1594,1601,1601,1601,1601,1609,1609,1609,1609,1609,1609,1609,1609,1609,1609,1609,1609,1609,1609,1609,1609,1609,1609,1609,1609,1609,1609,1609,1609,1609,1609,1624,1616,1616,1624,1616,1616,1609,1609,1609,1609,1609,1609,1609,1609,1609,1601,1601,0,0,0,0,0,0,0,995,992,992,992,992,989,989,989,987,984,984,981,981,981,981,981,981,987,992,998,998,1001,1001,1001,0,0,0,0,1579,1579,1579,1579,1579,1579,1572,1572,1572,1572,1564,1564,1550,1550,1550,1543,1543,1543,1543,1543,1543,1536,1536,1536,1536,1536,1529,1523,1523,1523,1523,1516,1516,1516,1516,1516,1516,1509,1509,1503,1496,1496,1496,1489,1489,1489,1483,1483,1483,1483,1483,1477,1477,1470,1470,1470,1470,1470,1464,1464,1464,1458,1458,1458,1452,1452,1452,1445,1445,1445,1439,1439,1439,1433,1427,1427,1421,1421,1421,1421,1421,1421,1421,1421,1415,1415,1415,1410,1404,1398,1398,1398,1398,1398,1392,1392,1392,1392,1392,1387,1387,1381,1381,1376,1376,1376,1376,1370,1370,1370,1365,1365,1359,1359,1354,1354,1354,1354,1349,1349,1349,1343,1343,1338,1338,1333,1333,1333,1333,1333,1328,1328,1328,1322,1322,1317,1317,1317,1317,1312,1312,1312,1307,1307,1307,1307,1307,1302,1302,1297,1292,1292,1292,1292,1292,1288,1288,1288,1283,1283,1278,1278,1278,1278,1273,1273,1273,1268,1268,1268,1264,1264,1264,1259,1255,1255,1255,1255,1255,1250,1250,1250,1250,1250,1250,1245,1241,1241,1236,1236,1236,1232,1232,1232,1232,1227,1227,1227,1223,1219,1219,1219,1214,1214,1214,1214,1214,1210,1210,1210,0,0,0,0,0,0,0,0,0,0,0,0,0,0,0,0,0,0,0,0,0,0,0,0,0,0,0,0,0,0,0
0,0,0,0,0,0,0,0,0,0,0,1529,1529,1529,1529,1529,1529,1529,1529,1529,1529,1529,1523,1523,1523,1536,1536,1536,1536,1536,1543,1543,1543,1536,1536,1543,1536,1536,1536,1536,1536,1536,1536,1536,1536,1543,1543,1543,1543,1543,1543,1543,1543,1543,1543,1543,1543,1543,1543,1543,1543,1543,1543,1543,1550,1550,1557,1557,1557,1557,1557,1550,1550,1557,1557,1557,1557,1550,1550,1550,1550,1550,1550,1550,1557,1572,1572,0,0,0,0,0,0,0,933,928,925,925,925,923,923,923,920,920,920,920,923,923,923,923,923,925,925,930,930,933,933,935,935,935,0,0,0,0,0,1572,1572,1572,1564,1564,1564,1564,1557,1557,1557,1557,1557,1557,1557,1557,1557,1557,1557,1564,1564,1564,1564,1564,1572,1564,1564,1564,1564,1564,1564,1572,1572,1572,1572,1572,1572,1572,1572,1572,1564,1564,1564,1564,1557,1557,1557,0,0,0,0,0,0,0,0,0,0,0,0,754,752,752,749,747,747,747,746,746,746,744,741,739,736,736,734,734,733,731,730,728,725,723,720,719,717,716,714,711,710,710,708,707,706,704,703,701,700,698,694,693,693,691,691,691,690,678,676,675,674,672,671,671,670,670,668,667,667,659,659,650,650,659,661,662,663,664,666,666,668,668,670,671,674,675,676,676,678,679,682,691,696,697,697,698,700,703,704,706,708,710,711,713,714,716,717,720,723,727,727,728,730,731,734,736,739,741,744,746,747,749,750,752,752,754,755,757,761,762,762,766,766,767,0,0,0,0,0,0,0,0,0,1586,1586,1594,1601,1601,1601,1601,1601,1601,1601,1601,1601,1601,1601,1601,1601,1601,1601,1601,1601,1601,1601,1609,1609,1601,1601,1601,1601,1601,1601,1601,1601,1609,1601,1601,1609,1609,1609,1609,1601,1601,1609,1601,1601,1601,1601,1601,1594,1594,0,0,0,0,0,0,0,995,995,992,992,992,992,992,989,987,987,984,981,981,981,981,981,984,989,992,998,998,1001,1001,1001,0,0,0,0,1579,1579,1579,1579,1579,1579,1572,1572,1572,1572,1564,1557,1557,1550,1550,1550,1543,1543,1543,1543,1543,1536,1536,1536,1536,1536,1529,1523,1523,1523,1523,1516,1516,1516,1516,1516,1516,1509,1509,1503,1496,1496,1496,1496,1489,1489,1489,1483,1483,1483,1483,1477,1477,1477,1470,1470,1470,1470,1464,1464,1464,1464,1458,1458,1452,1452,1452,1445,1445,1445,1439,1439,1439,1433,1433,1427,1421,1421,1421,1421,1421,1421,1421,1421,1421,1415,1415,1410,1404,1404,1398,1398,1398,1398,1398,1398,1392,1392,1392,1387,1387,1381,1381,1376,1376,1376,1376,1370,1370,1370,1365,1365,1359,1359,1354,1354,1354,1354,1349,1349,1349,1343,1343,1338,1338,1333,1333,1333,1333,1328,1328,1328,1328,1322,1317,1317,1317,1312,1312,1312,1312,1312,1312,1307,1307,1307,1307,1302,1302,1297,1297,1292,1292,1292,1292,1288,1288,1288,1283,1283,1278,1278,1278,1278,1273,1273,1273,1268,1268,1268,1268,1264,1264,1259,1255,1255,1255,1255,1255,1250,1250,1250,1250,1250,1250,1245,1241,1241,1236,1236,1236,1236,1236,1232,1232,1232,1227,1227,1223,1219,1219,1219,1214,1214,1214,1214,1214,1210,1210,1210,0,0,0,0,0,0,0,0,0,0,0,0,0,0,0,0,0,0,0,0,0,0,0,0,0,0,0,0,0,0,0
0,0,0,0,0,0,0,0,0,0,1516,1516,1523,1523,1523,1523,1523,1523,1523,1523,1523,1523,1516,1516,1516,1523,1523,1523,1529,1529,1536,1536,1536,1536,1536,1536,1536,1536,1536,1536,1536,1536,1536,1536,1536,1536,1536,1536,1536,1536,1536,1536,1536,1529,1529,1536,1536,1536,1536,1536,1536,1536,1536,1536,1543,1543,1543,1543,1543,1550,1550,1543,1543,1543,1543,1550,1550,1543,1543,1543,1543,1543,1543,1543,1543,1550,1572,0,0,0,0,0,0,0,933,928,928,928,925,925,923,923,923,923,923,923,923,923,923,923,923,925,925,930,930,933,933,935,935,935,0,0,0,0,0,1572,1572,1564,1557,1557,1557,1550,1550,1550,1550,1550,1550,1550,1550,1543,1543,1550,1550,1557,1557,1557,1557,1564,1564,1564,1564,1557,1557,1550,1550,1564,1564,1564,1564,1564,1564,1564,1564,1564,1564,1564,1564,1557,1557,1557,1557,1557,0,0,0,0,0,0,0,0,0,0,0,754,752,752,752,747,747,747,747,746,746,744,741,739,736,734,734,734,733,733,731,730,728,725,722,720,719,719,716,713,711,710,708,707,706,704,703,701,700,698,694,694,693,691,691,691,690,679,676,675,674,672,671,671,670,670,668,667,666,663,659,659,659,661,662,662,663,664,666,667,668,670,671,672,674,675,676,676,678,679,682,693,696,697,698,700,701,703,706,706,708,710,711,713,716,716,719,720,725,727,727,728,730,731,734,738,739,741,744,746,747,749,750,752,752,754,755,757,761,764,764,766,766,767,0,0,0,0,0,0,0,0,1586,1586,1586,1586,1601,1601,1601,1601,1601,1601,1601,1601,1601,1601,1594,1594,1594,1594,1594,1601,1601,1601,1601,1601,1601,1594,1594,1594,1594,1594,1594,1594,1594,1594,1594,1594,1594,1594,1594,1594,1594,1601,1601,1601,1601,1601,1601,1601,1586,1586,0,0,0,0,0,0,0,995,995,992,992,992,992,989,989,989,987,987,984,984,984,984,984,984,989,992,998,1001,1001,1001,1001,0,0,0,0,1586,1579,1579,1579,1579,1579,1579,1572,1572,1572,1564,1557,1557,1550,1550,1550,1550,1550,1543,1543,1543,1543,1543,1536,1536,1536,1529,1523,1523,1523,1523,1523,1523,1516,1516,1516,1516,1509,1509,1503,1503,1496,1496,1496,1489,1489,1489,1489,1483,1483,1483,1477,1477,1477,1470,1470,1470,1470,1464,1464,1464,1464,1464,1458,1458,1452,1452,1445,1445,1445,1439,1439,1439,1433,1433,1427,1421,1421,1421,1421,1421,1421,1421,1421,1421,1415,1415,1410,1404,1404,1398,1398,1398,1398,1398,1398,1392,1392,1392,1392,1387,1381,1381,1376,1376,1376,1376,1370,1370,1370,1365,1365,1359,1359,1354,1354,1354,1354,1349,1349,1349,1343,1343,1338,1338,1333,1333,1333,1333,1328,1328,1328,1328,1322,1317,1317,1317,1312,1312,1312,1312,1312,1312,1307,1307,1307,1307,1302,1302,1297,1297,1292,1292,1292,1292,1288,1288,1288,1283,1283,1278,1278,1278,1278,1278,1278,1273,1273,1268,1268,1268,1268,1264,1264,1259,1255,1255,1255,1255,1255,1250,1250,1250,1250,1250,1250,1245,1241,1241,1236,1236,1236,1236,1232,1232,1232,1232,1227,1223,1223,1219,1219,1219,1214,1214,1214,1214,1214,1210,1210,0,0,0,0,0,0,0,0,0,0,0,0,0,0,0,0,0,0,0,0,0,0,0,0,0,0,0,0,0,0,0
0,0,0,0,0,0,0,0,0,0,1516,1516,1516,1516,1516,1516,1516,1516,1516,1516,1516,1516,1516,1509,1509,1509,1516,1516,1523,1523,1523,1529,1529,1529,1529,1529,1529,1529,1529,1529,1529,1529,1529,1529,1529,1529,1529,1529,1529,1529,1529,1529,1529,1529,1529,1529,1529,1536,1536,1536,1536,1536,1529,1529,1536,1536,1536,1536,1536,1543,1543,1543,1543,1543,1543,1543,1543,1543,1543,1543,1543,1536,1536,1536,1536,1543,0,0,0,0,0,0,0,0,930,930,928,928,925,925,923,923,923,923,923,923,923,923,923,923,923,925,925,930,933,935,935,935,935,935,0,0,0,0,0,1572,1564,1564,1550,1550,1550,1550,1543,1543,1543,1543,1543,1543,1543,1543,1543,1543,1543,1550,1550,1557,1557,1557,1557,1557,1557,1550,1550,1550,1550,1550,1557,1557,1557,1557,1564,1564,1564,1557,1557,1557,1557,1557,1557,1557,1550,1550,1550,0,0,0,0,0,0,0,0,0,0,0,752,752,752,752,747,747,747,746,746,744,742,741,736,734,734,733,733,731,731,730,728,725,722,722,720,720,719,716,713,711,710,708,707,706,704,703,700,698,697,694,693,693,691,691,690,682,676,675,674,672,671,671,670,670,668,667,666,663,661,661,661,661,662,662,663,664,666,667,668,670,671,672,675,675,676,678,679,680,683,693,696,697,698,700,701,704,706,707,708,710,711,713,716,717,719,720,725,727,728,730,731,733,734,738,739,742,744,746,747,749,750,752,752,754,755,757,762,764,766,766,766,0,0,0,0,0,0,0,0,0,1579,1579,1579,1586,1594,1594,1594,1594,1594,1594,1601,1594,1594,1594,1594,1594,1594,1594,1594,1594,1594,1586,1586,1586,1586,1586,1586,1586,1586,1586,1586,1586,1586,1586,1586,1586,1586,1586,1586,1586,1586,1586,1586,1586,1594,1594,1594,1594,1579,1579,1579,0,0,0,0,0,0,995,995,995,992,992,992,989,989,989,987,987,984,984,984,987,987,987,989,992,998,1001,1004,1004,1004,0,0,0,0,1586,1586,1586,1586,1579,1579,1579,1572,1572,1572,1564,1557,1557,1550,1550,1550,1550,1550,1550,1543,1543,1543,1543,1536,1536,1536,1529,1523,1523,1523,1523,1523,1516,1516,1516,1516,1516,1509,1509,1509,1503,1503,1496,1496,1496,1496,1489,1489,1489,1483,1483,1477,1477,1477,1470,1470,1470,1470,1470,1464,1464,1464,1464,1458,1458,1452,1452,1445,1445,1445,1445,1439,1439,1439,1433,1427,1427,1421,1421,1421,1421,1421,1421,1421,1421,1415,1415,1410,1404,1404,1398,1398,1398,1398,1398,1398,1398,1392,1392,1392,1387,1387,1381,1381,1376,1376,1370,1370,1370,1370,1365,1365,1359,1359,1354,1354,1354,1354,1349,1349,1349,1349,1343,1338,1338,1333,1333,1333,1333,1328,1328,1328,1328,1322,1317,1317,1317,1312,1312,1312,1312,1312,1312,1307,1307,1307,1307,1302,1302,1297,1297,1292,1292,1292,1292,1288,1288,1288,1283,1283,1283,1283,1283,1278,1278,1278,1273,1273,1268,1268,1268,1268,1264,1264,1259,1259,1259,1255,1255,1255,1250,1250,1250,1250,1250,1250,1245,1245,1241,1236,1236,1236,1236,1232,1232,1232,1232,1227,1227,1223,1223,1219,1219,1214,1214,1214,1214,1214,1214,1214,0,0,0,0,0,0,0,0,0,0,0,0,0,0,0,0,0,0,0,0,0,0,0,0,0,0,0,0,0,0,0
0,0,0,0,0,0,0,0,0,0,1509,1509,1509,1509,1509,1509,1516,1516,1516,1516,1516,1509,1509,1509,1509,1509,1509,1509,1496,1496,1509,1516,1516,1516,1516,1516,1523,1523,1523,1523,1523,1529,1523,1523,1523,1523,1523,1523,1523,1523,1523,1523,1523,1523,1523,1523,1523,1529,1529,1529,1529,1529,1529,1529,1529,1529,1529,1529,1536,1536,1536,1536,1529,1529,1536,1536,1536,1536,1536,1536,1536,1536,1529,1529,1529,1529,1529,0,0,0,0,0,0,0,930,930,930,928,925,925,923,923,923,923,923,923,923,923,923,925,925,928,928,930,935,935,935,935,935,935,938,0,0,0,0,0,1564,1557,1543,1543,1543,1543,1543,1543,1536,1536,1536,1536,1536,1536,1536,1536,1536,1543,1543,1550,1550,1550,1550,1550,1550,1543,1543,1543,1543,1543,1543,1550,1550,1550,1557,1557,1557,1557,1557,1550,1550,1550,1550,1550,1550,1550,1550,1550,1543,1543,1543,0,0,0,0,0,0,754,754,754,754,754,752,749,747,746,746,742,742,741,738,736,734,733,733,731,730,728,728,725,723,722,722,720,719,717,716,714,711,710,708,707,706,703,701,700,697,694,693,693,691,691,690,682,678,675,675,674,671,671,670,670,668,667,666,664,663,662,662,662,662,662,663,664,666,667,668,670,670,672,675,676,676,678,679,680,683,696,697,697,698,700,701,704,706,707,708,710,711,713,716,719,720,723,727,727,728,730,733,734,736,738,741,742,744,746,747,749,750,750,752,754,755,757,762,764,766,766,766,0,0,0,1564,1564,1564,1572,1572,1572,1572,1572,1572,1579,1586,1586,1586,1586,1594,1594,1594,1586,1586,1586,1586,1586,1586,1586,1586,1586,1586,1579,1579,1579,1579,1579,1579,1579,1579,1586,1586,1579,1579,1579,1579,1579,1579,1579,1579,1579,1579,1579,1579,1579,1586,1586,1579,1579,1579,1579,1579,0,0,0,0,0,0,995,995,995,992,992,992,989,989,989,987,987,984,984,984,987,987,987,989,992,998,1001,1004,1004,1004,1004,0,0,0,1586,1586,1579,1579,1579,1579,1579,1572,1572,1572,1572,1564,1564,1557,1557,1550,1550,1550,1550,1550,1543,1543,1543,1536,1536,1536,1529,1529,1523,1523,1523,1523,1516,1516,1516,1516,1516,1509,1509,1509,1503,1503,1503,1496,1496,1496,1489,1489,1489,1483,1483,1477,1477,1477,1470,1470,1470,1470,1470,1464,1464,1464,1464,1464,1458,1452,1452,1445,1445,1445,1445,1439,1439,1439,1433,1433,1427,1427,1421,1421,1421,1421,1421,1421,1421,1415,1415,1410,1404,1404,1398,1398,1398,1398,1398,1398,1392,1392,1392,1392,1387,1387,1381,1381,1376,1376,1370,1370,1370,1370,1365,1365,1365,1359,1354,1354,1354,1354,1354,1349,1349,1349,1343,1343,1338,1338,1333,1333,1333,1333,1328,1328,1328,1322,1317,1317,1317,1312,1312,1312,1312,1312,1312,1307,1307,1307,1302,1302,1302,1297,1297,1292,1292,1292,1292,1288,1288,1288,1283,1283,1283,1283,1283,1283,1283,1278,1273,1273,1273,1268,1268,1268,1268,1264,1259,1259,1259,1259,1255,1255,1250,1250,1250,1250,1250,1250,1245,1245,1241,1236,1236,1236,1236,1232,1232,1232,1232,1227,1227,1227,1223,1219,1219,1219,1214,1214,1214,1214,1214,1214,0,0,0,0,0,0,0,0,0,0,0,0,0,0,0,0,0,0,0,0,0,0,0,0,0,0,0,0,0,0,0
0,0,0,0,0,0,0,0,0,0,1503,1503,1509,1509,1509,1509,1509,1509,1509,1509,1509,1509,1503,1503,1503,1509,1509,1509,1496,1496,1503,1503,1503,1503,1503,1509,1516,1516,1516,1516,1516,1523,1516,1516,1516,1516,1516,1516,1516,1516,1516,1516,1516,1516,1516,1516,1523,1523,1523,1523,1523,1523,1523,1523,1523,1516,1516,1523,1523,1529,1529,1529,1523,1523,1529,1529,1523,1523,1529,1529,1529,1523,1516,1516,1523,1523,1523,0,0,0,0,0,0,0,935,935,933,930,928,925,923,923,923,923,923,923,923,923,925,925,928,928,930,930,935,935,935,935,935,938,938,0,0,0,0,0,0,1536,1536,1536,1536,1536,1536,1536,1529,1529,1529,1529,1529,1536,1536,1536,1536,1543,1543,1543,1543,1543,1543,1543,1543,1543,1543,1536,1536,1536,1536,1543,1543,1543,1550,1550,1557,1550,1550,1550,1550,1550,1550,1543,1543,1543,1543,1543,1543,1543,1543,1543,1543,0,0,0,0,0,0,0,755,754,754,750,747,746,744,742,742,741,738,736,734,733,733,731,730,728,728,725,723,723,722,720,719,719,716,714,714,710,710,708,706,704,701,700,698,697,694,693,693,691,690,682,678,676,675,674,672,671,670,670,668,667,666,666,664,663,663,662,662,663,664,666,667,668,668,670,670,672,675,676,678,678,680,682,683,686,697,698,698,700,703,704,707,708,710,711,713,716,719,720,722,727,728,728,731,733,733,734,736,739,741,742,744,746,747,749,749,750,752,752,755,0,755,0,1543,0,0,0,0,1564,1564,1564,1564,1564,1564,1572,1572,1572,1572,1572,1579,1586,1579,1579,1586,1586,1586,1579,1579,1579,1579,1579,1579,1579,1579,1579,1579,1572,1572,1572,1572,1572,1572,1572,1579,1579,1579,1579,1579,1579,1579,1572,1572,1572,1572,1579,1579,1579,1579,1579,1579,1579,1579,1579,1579,1579,1572,1572,0,0,0,0,0,998,998,995,995,995,992,992,992,989,987,987,987,987,987,987,989,989,992,992,998,1001,1004,1004,1007,0,0,0,0,1586,1579,1579,1579,1579,1579,1572,1572,1572,1572,1572,1564,1564,1557,1557,1557,1550,1550,1550,1550,1543,1543,1543,1536,1536,1536,1529,1529,1523,1523,1523,1523,1523,1516,1516,1516,1516,1509,1509,1509,1509,1503,1496,1496,1496,1496,1489,1489,1489,1489,1483,1483,1483,1477,1477,1470,1470,1470,1470,1464,1464,1464,1464,1464,1458,1458,1452,1445,1445,1445,1445,1439,1439,1439,1439,1433,1433,1427,1427,1427,1421,1421,1421,1421,1415,1415,1415,1410,1404,1404,1404,1398,1398,1398,1398,1398,1392,1392,1392,1392,1387,1387,1381,1381,1376,1376,1370,1370,1370,1370,1365,1365,1365,1359,1354,1354,1354,1354,1354,1349,1349,1349,1349,1343,1338,1338,1333,1333,1333,1333,1328,1328,1328,1322,1322,1317,1317,1312,1312,1312,1312,1312,1312,1307,1307,1307,1302,1302,1302,1297,1297,1292,1292,1292,1292,1292,1288,1288,1288,1288,1283,1283,1283,1283,1283,1278,1273,1273,1273,1268,1268,1268,1268,1264,1264,1259,1259,1259,1255,1255,1255,1250,1250,1250,1250,1250,1250,1245,1241,1236,1236,1236,1236,1232,1232,1232,1232,1232,1227,1227,1223,1223,1219,1219,1219,1214,1214,1214,1214,1214,0,0,0,0,0,0,0,0,0,0,0,0,0,0,0,0,0,0,0,0,0,0,0,0,0,0,0,0,0,0,0
0,0,0,0,0,0,0,0,0,0,1496,1496,1503,1503,1503,1503,1503,1503,1503,1503,1503,1503,1503,1503,1503,1503,1503,1496,1489,1489,1496,1496,1496,1496,1503,1503,1509,1516,1516,1509,1509,1516,1509,1509,1516,1509,1509,1509,1509,1509,1516,1516,1516,1516,1516,1516,1516,1523,1523,1523,1523,1523,1516,1516,1516,1516,1516,1516,1523,1523,1523,1523,1523,1523,1523,1523,1516,1516,1516,1516,1509,1509,1509,1509,1516,1509,1509,0,0,0,0,0,0,0,935,935,938,933,930,928,925,925,923,923,923,923,923,925,925,925,928,930,930,933,935,935,938,938,938,938,938,0,0,0,0,0,0,1536,1536,1536,1529,1529,1536,1529,1529,1529,1529,1529,1529,1536,1536,1529,1529,1536,1536,1536,1536,1536,1536,1536,1536,1536,1536,1536,1536,1536,1536,1536,1536,1543,1543,1543,1543,1543,1543,1543,1543,1543,1543,1543,1536,1536,1536,1536,1536,1536,1536,1536,1536,1536,1536,0,0,0,0,0,0,0,1516,744,744,744,744,742,742,741,739,736,734,733,733,731,730,728,727,725,723,723,722,720,720,719,717,716,714,711,710,708,707,706,703,701,698,697,694,693,693,691,690,683,679,676,675,674,672,671,671,670,670,668,667,666,664,664,663,663,663,664,664,667,667,668,670,671,671,672,675,678,678,679,682,682,683,686,697,698,700,701,703,706,707,708,711,713,714,716,719,720,722,727,728,728,731,733,734,734,736,739,741,742,744,746,747,749,749,750,752,752,752,752,0,0,0,0,0,0,1557,1557,1557,1557,1564,1564,1564,1564,1564,1564,1564,1564,1579,1579,1579,1579,1579,1579,1579,1579,1579,1579,1579,1579,1579,1579,1579,1579,1579,1572,1572,1572,1572,1572,1572,1572,1572,1572,1572,1572,1572,1572,1572,1572,1572,1572,1572,1572,1572,1572,1572,1572,1572,1572,1572,1572,1572,1572,1572,1572,0,0,0,0,0,998,998,998,995,995,995,992,992,989,989,989,987,987,987,989,989,989,992,995,998,1001,1004,1007,1007,0,0,0,0,1586,1579,1579,1579,1579,1572,1572,1572,1572,1572,1572,1572,1564,1557,1557,1557,1550,1550,1550,1550,1550,1543,1543,1536,1536,1536,1529,1529,1529,1523,1523,1523,1523,1516,1516,1516,1516,1509,1509,1509,1509,1503,1496,1496,1496,1496,1489,1489,1489,1489,1483,1483,1483,1477,1470,1470,1470,1470,1470,1464,1464,1464,1464,1464,1458,1452,1452,1445,1445,1445,1445,1439,1439,1439,1439,1439,1433,1433,1433,1427,1421,1421,1421,1415,1415,1415,1415,1410,1410,1404,1404,1404,1398,1398,1398,1398,1392,1392,1392,1392,1387,1387,1381,1381,1376,1376,1370,1370,1370,1370,1365,1365,1365,1359,1359,1354,1354,1354,1354,1354,1349,1349,1349,1343,1343,1338,1333,1333,1333,1333,1328,1328,1328,1328,1322,1322,1317,1317,1317,1312,1312,1312,1312,1307,1307,1307,1307,1302,1302,1297,1297,1292,1292,1292,1292,1292,1288,1288,1288,1288,1283,1283,1283,1283,1283,1278,1273,1273,1268,1268,1268,1268,1268,1268,1264,1259,1259,1259,1255,1255,1255,1250,1250,1250,1250,1250,1245,1245,1241,1236,1236,1236,1236,1236,1232,1232,1232,1232,1232,1227,1223,1223,1219,1219,1219,1214,1214,1214,1214,1214,0,0,0,0,0,0,0,0,0,0,0,0,0,0,0,0,0,0,0,0,0,0,0,0,0,0,0,0,0,0,0
0,0,0,0,0,0,0,0,0,0,1489,1489,1496,1496,1503,1503,1503,1503,1503,1503,1503,1503,1496,1496,1496,1496,1496,1489,1489,1489,1489,1489,1489,1489,1496,1503,1509,1509,1509,1509,1509,1509,1509,1509,1509,1509,1509,1509,1509,1509,1509,1509,1509,1509,1509,1516,1516,1516,1516,1516,1516,1516,1516,1516,1509,1509,1509,1509,1516,1516,1516,1516,1516,1516,1516,1516,1516,1516,1509,1509,1509,1509,1503,1503,1509,1503,1503,0,0,0,0,0,0,0,938,938,938,938,933,930,928,925,923,923,923,925,925,925,925,928,930,933,933,935,935,935,938,938,935,935,938,0,0,0,0,0,0,1536,1529,1529,1529,1529,1529,1529,1523,1523,1523,1529,1529,1529,1523,1523,1529,1529,1529,1529,1529,1536,1536,1536,1536,1536,1536,1536,1529,1529,1529,1536,1536,1536,1529,1529,1536,1536,1536,1536,1536,1536,1536,1536,1536,1536,1536,1536,1536,1536,1536,1536,1536,1529,1529,1529,0,0,0,0,0,0,0,0,0,744,744,742,741,741,739,738,734,733,733,731,730,728,727,727,723,723,722,720,720,719,717,716,714,711,711,710,708,707,706,703,700,698,697,693,693,691,688,686,683,678,676,675,672,671,671,671,670,668,667,666,664,664,663,663,663,664,666,667,667,668,670,671,671,672,676,678,679,680,682,682,683,687,698,700,701,703,704,707,707,710,711,714,716,717,719,720,723,727,728,730,731,733,734,734,738,741,741,742,746,747,747,749,749,752,752,752,752,0,0,1536,0,0,1543,1543,1550,1557,1557,1557,1564,1564,1564,1564,1564,1557,1557,1564,1572,1572,1572,1572,1572,1572,1572,1572,1572,1572,1572,1572,1572,1572,1572,1572,1572,1572,1564,1564,1572,1564,1564,1564,1564,1564,1564,1564,1564,1564,1564,1564,1572,1564,1564,1564,1564,1564,1572,1572,1572,1572,1572,1572,1564,1564,1564,0,0,0,0,0,0,998,998,998,998,998,995,992,992,989,989,989,987,987,987,989,989,989,992,995,998,1001,1004,1007,1007,0,0,0,0,1586,1579,1579,1579,1579,1572,1572,1572,1572,1572,1564,1564,1564,1557,1557,1557,1550,1550,1550,1550,1550,1543,1543,1543,1543,1536,1536,1529,1529,1523,1523,1523,1523,1516,1516,1516,1516,1509,1509,1509,1509,1503,1496,1496,1496,1496,1496,1489,1489,1489,1483,1483,1483,1477,1470,1470,1470,1470,1470,1464,1464,1464,1464,1464,1458,1452,1452,1445,1445,1445,1445,1439,1439,1439,1439,1439,1433,1433,1433,1427,1421,1421,1421,1415,1415,1415,1415,1410,1410,1404,1404,1404,1398,1398,1398,1398,1392,1392,1392,1392,1387,1387,1381,1381,1376,1376,1370,1370,1370,1370,1365,1365,1365,1359,1359,1359,1354,1354,1354,1354,1349,1349,1349,1343,1343,1338,1338,1333,1333,1333,1333,1328,1328,1328,1328,1322,1322,1317,1317,1312,1312,1312,1312,1312,1307,1307,1307,1302,1302,1302,1297,1292,1292,1292,1292,1292,1288,1288,1288,1288,1288,1288,1283,1283,1283,1278,1273,1273,1268,1268,1268,1268,1268,1268,1264,1259,1259,1259,1255,1255,1255,1250,1250,1250,1250,1250,1245,1245,1241,1236,1236,1236,1236,1236,1232,1232,1232,1232,1232,1227,1227,1223,1219,1219,1219,1214,1214,1214,1214,1214,0,0,0,0,0,0,0,0,0,0,0,0,0,0,0,0,0,0,0,0,0,0,0,0,0,0,0,0,0,0,0
