0,0,0,0,0,0,0,0,0,0,0,0,0,0,0,0,1970,1970,1970,1970,1959,1959,1936,1936,1936,1926,1926,1926,1926,1926,1915,1915,1915,1904,1904,1904,1904,1904,1904,1904,1904,1894,1894,1883,1883,1883,1873,1873,1873,1873,1873,1873,1873,1873,1863,1863,1863,1853,1853,1843,1843,1843,1833,1833,1833,1833,1833,1823,1823,1823,1833,1833,1823,1823,1813,1813,1813,1804,1804,1804,1804,1804,1804,1804,1794,1794,1794,1794,1794,1794,1794,1794,1794,1794,1785,1776,1776,1776,1776,1776,1776,1776,1776,1766,1766,1766,1766,1766,1757,1757,1757,1757,1757,1757,1757,1757,1757,1748,1748,1748,1748,1739,1739,1731,1731,1731,1731,1722,1722,1722,1722,1713,1713,1713,1713,1713,1705,1705,1705,1705,1705,1696,1696,1696,1696,1696,1696,1696,1688,1688,1688,1688,1688,1688,1688,1680,1680,1680,1671,1671,1671,1671,1663,1663,1663,1663,1663,1663,1663,1671,1671,1680,1680,1680,1688,1705,1705,1705,1705,1936,1936,1947,1936,1926,1926,1926,1936,1936,1936,1915,1915,1663,1663,1663,1663,1655,1655,1655,1655,1655,1655,1655,1655,1663,1663,1663,1663,1663,1663,1663,1663,1663,1663,1663,1655,1655,1655,0,0,0,0,0,0,1050,1050,1050,1050,1047,1047,1047,1044,1044,1044,1044,1044,1047,1047,1050,1050,1050,1050,1054,1057,1057,1057,1060,1060,1060,0,0,0,0,0,1748,1748,1757,1748,1748,1757,1757,1757,1757,1757,1766,1766,1766,1766,1766,1766,1766,1776,1776,1776,1776,1785,1785,1794,1794,1794,1794,1804,1804,1804,1804,1813,1813,1813,1813,1813,1804,1794,1794,1785,1785,1785,1785,1785,0,0,0,0,0,0,0,0,0,0,0,0,819,819,821,821,821,819,817,813,813,811,809,807,807,807,805,805,805,807,807,809,809,811,811,811,813,813,815,815,817,817,819,819,819,821,821,0,0,0,0,0,0,0,0,1550,1550,1543,1543,1543,1536,1536,1529,1523,1523,1516,1516,1516,1516,1509,1496,1496,1489,1489,1483,1483,1477,1470,1470,1470,1464,1464,1452,1445,1445,1445,1445,1439,1439,1439,1433,1433,1427,1427,1421,1415,1415,1410,1410,1404,1398,1398,1392,1392,1392,1387,1381,1376,1376,1376,1370,1370,1370,1370,1365,1359,1354,1354,1349,1349,1343,1343,1338,1333,1333,1328,1328,1328,1322,1317,1312,1312,1312,1307,1307,1302,1297,1292,1292,1292,1292,1288,1288,1283,1283,1278,1273,1268,1268,1264,1264,1264,1259,1255,1255,1250,1250,1241,1241,1236,1236,1232,1232,1232,1232,1227,1223,1223,1219,1219,1219,1214,1210,1210,1202,1202,1202,1202,1197,1197,1193,1193,1189,1185,1185,1181,1177,1177,1173,1173,1169,1169,1169,1165,1165,1161,1157,1157,1153,1153,1153,1149,1145,1141,1141,1138,1138,1138,1134,1134,1134,1130,1130,1123,1123,1119,1119,1115,1115,1112,1108,1108,1108,1105,1105,1101,1101,1094,1094,1094,1094,1090,1090,1090,1087,1084,1080,1080,1077,1077,1073,1070,1070,1067,1067,1067,1063,1063,1063,1060,1060,1057,1054,1054,1050,1050,1047,1044,1041,1041,1041,1038,1038,1038,1038,1034,1031,1031,1028,1028,1025,1022,1019,1019,1016,1016,1016,1013,1013,1010,1010,1007,1004,1004,1004,1001,1001,1001,998,995,995,992,989,989,987,987,984,981,981,978,975,973,973,970,970,967,967,967,964,964,964,962,962,0,0,0,0,0,0,0,0,0,0,0,0,0,0,0,0,0,0,0,0,0,0,0,0,0,0,0,0,0,0
0,0,0,0,0,0,0,0,0,0,0,0,0,0,0,0,1981,1970,1970,1970,1970,1970,1959,1959,1959,1959,1936,1936,1926,1926,1926,1915,1915,1915,1915,1915,1915,1915,1915,1904,1904,1894,1894,1883,1883,1883,1873,1873,1873,1873,1873,1873,1873,1873,1863,1863,1873,1853,1853,1853,1843,1843,1833,1833,1833,1833,1833,1833,1833,1833,1833,1833,1833,1823,1823,1823,1813,1813,1804,1804,1804,1804,1804,1804,1804,1804,1804,1804,1804,1804,1794,1794,1794,1794,1785,1776,1776,1776,1776,1776,1776,1776,1776,1766,1766,1766,1766,1766,1757,1757,1757,1757,1757,1757,1757,1757,1757,1757,1748,1748,1748,1739,1739,1731,1731,1731,1731,1722,1722,1722,1722,1722,1722,1722,1722,1722,1713,1713,1713,1705,1705,1696,1696,1696,1696,1696,1696,1696,1688,1688,1688,1688,1688,1688,1688,1688,1688,1680,1680,1671,1671,1671,1671,1671,1671,1671,1671,1671,1671,1671,1680,1680,1680,1680,1688,1696,1705,1705,1915,1926,1926,1936,1926,1926,1926,1926,1926,1926,1926,1915,1915,1915,1655,1655,1663,1655,1655,1655,1655,1655,1655,1655,1663,1663,1663,1663,1663,1663,1663,1663,1663,1663,1663,1663,1663,1655,1655,0,0,0,0,0,0,1050,1050,1050,1050,1047,1047,1047,1044,1044,1044,1044,1044,1047,1047,1050,1050,1050,1050,1054,1057,1057,1060,1060,1060,1060,0,0,0,0,0,1757,1757,1748,1748,1748,1748,1757,1757,1757,1757,1757,1766,1766,1766,1766,1766,1766,1776,1776,1776,1776,1785,1794,1794,1794,1794,1794,1804,1804,1804,1804,1804,1804,1813,1813,1813,1804,1804,1794,1794,1785,1785,1785,0,0,0,0,0,0,0,0,0,0,0,0,0,821,819,819,819,819,819,817,813,813,811,809,809,807,807,805,805,805,807,807,809,811,811,811,813,813,813,815,817,817,819,819,819,821,821,821,0,0,0,0,0,0,0,0,1557,1550,1543,1543,1543,1536,1536,1529,1523,1523,1523,1516,1516,1516,1509,1496,1496,1489,1489,1483,1483,1477,1470,1470,1470,1464,1464,1464,1452,1452,1445,1445,1439,1439,1439,1439,1433,1433,1427,1427,1421,1415,1415,1415,1410,1404,1398,1398,1392,1392,1387,1381,1376,1376,1376,1376,1370,1370,1370,1365,1359,1354,1354,1349,1349,1343,1343,1338,1333,1333,1328,1328,1328,1322,1317,1317,1312,1312,1307,1307,1302,1297,1292,1292,1292,1292,1288,1288,1283,1283,1283,1278,1273,1268,1264,1264,1264,1259,1255,1255,1250,1250,1250,1241,1236,1236,1232,1232,1232,1232,1227,1227,1223,1219,1219,1219,1214,1210,1210,1206,1202,1202,1202,1197,1197,1193,1193,1189,1189,1185,1185,1181,1177,1173,1173,1169,1169,1169,1165,1165,1161,1161,1157,1157,1153,1153,1149,1145,1141,1141,1141,1138,1138,1134,1134,1134,1130,1130,1123,1123,1119,1119,1119,1115,1115,1112,1108,1108,1105,1105,1105,1101,1097,1094,1094,1094,1094,1090,1090,1087,1087,1080,1080,1080,1077,1073,1073,1070,1067,1067,1067,1063,1063,1063,1060,1060,1057,1054,1054,1050,1050,1047,1044,1041,1041,1041,1038,1038,1038,1038,1034,1034,1031,1028,1028,1025,1022,1019,1019,1019,1016,1016,1013,1013,1013,1010,1010,1007,1007,1004,1004,1001,1001,998,995,995,992,989,989,987,987,984,981,981,978,975,975,973,970,970,970,967,967,967,967,964,962,962,0,0,0,0,0,0,0,0,0,0,0,0,0,0,0,0,0,0,0,0,0,0,0,0,0,0,0,0,0,0
0,0,0,0,0,0,0,0,0,0,0,0,0,0,0,0,1981,1970,1970,1970,1970,1970,1959,1959,1959,1959,1936,1936,1926,1926,1926,1926,1915,1915,1915,1915,1915,1915,1915,1915,1915,1894,1894,1883,1883,1883,1883,1883,1873,1873,1873,1873,1873,1873,1873,1873,1873,1863,1863,1853,1843,1843,1833,1833,1843,1833,1833,1833,1833,1833,1833,1833,1833,1823,1823,1823,1813,1813,1804,1804,1804,1804,1804,1804,1804,1804,1804,1804,1804,1804,1794,1794,1794,1794,1785,1776,1776,1776,1776,1776,1776,1776,1776,1766,1766,1766,1766,1766,1757,1757,1757,1757,1757,1757,1757,1757,1757,1757,1748,1748,1748,1739,1739,1731,1731,1731,1731,1731,1731,1722,1722,1722,1731,1722,1722,1722,1722,1722,1713,1713,1705,1705,1705,1696,1696,1696,1696,1696,1696,1696,1688,1688,1688,1688,1688,1688,1688,1688,1680,1680,1680,1671,1671,1671,1671,1671,1671,1680,1680,1680,1680,1680,1680,1680,1688,1696,1915,1915,1915,1926,1915,1915,1915,1915,1915,1915,1926,1915,1915,1915,1915,1904,1655,1655,1655,1663,1663,1655,1655,1655,1655,1663,1663,1663,1663,1663,1663,1663,1671,1671,1671,1671,1680,1671,1671,1671,0,0,0,0,0,0,1060,1060,1057,1057,1050,1050,1047,1047,1044,1044,1047,1047,1047,1047,1050,1050,1050,1054,1054,1057,1057,1057,1060,1060,1060,1060,0,0,0,0,0,1757,1757,1748,1748,1748,1748,1757,1757,1757,1757,1757,1766,1766,1766,1766,1766,1766,1776,1776,1785,1785,1794,1794,1794,1804,1804,1804,1804,1804,1804,1804,1804,1804,1813,1813,1813,1804,1804,1804,1794,1794,1794,1794,1794,0,0,0,0,0,0,0,0,0,0,0,0,819,819,819,819,819,819,817,813,813,811,809,809,807,807,807,807,807,807,809,809,811,811,813,813,815,815,817,819,819,819,821,821,821,821,821,0,0,0,0,0,0,0,0,1557,1550,1550,1543,1543,1543,1543,1536,1529,1523,1523,1523,1516,1509,1503,1496,1496,1496,1489,1489,1483,1477,1470,1470,1470,1464,1464,1464,1452,1452,1452,1445,1445,1439,1439,1439,1433,1433,1427,1427,1421,1421,1415,1415,1410,1404,1398,1398,1392,1392,1387,1387,1381,1381,1376,1376,1376,1370,1370,1370,1365,1359,1354,1354,1349,1349,1343,1338,1333,1333,1328,1328,1328,1322,1322,1317,1312,1312,1307,1307,1302,1302,1297,1292,1292,1292,1288,1288,1283,1283,1283,1278,1273,1273,1268,1268,1264,1264,1255,1255,1255,1250,1250,1241,1236,1236,1232,1232,1232,1232,1227,1227,1223,1223,1219,1219,1214,1214,1210,1206,1206,1202,1202,1202,1197,1197,1193,1189,1189,1185,1181,1181,1181,1177,1173,1169,1169,1169,1165,1165,1161,1161,1157,1157,1153,1153,1149,1145,1141,1141,1141,1138,1138,1134,1134,1134,1134,1130,1123,1123,1119,1119,1119,1115,1115,1112,1112,1108,1108,1105,1105,1101,1097,1094,1094,1094,1094,1094,1090,1090,1087,1084,1084,1080,1080,1073,1073,1070,1067,1067,1067,1063,1063,1063,1063,1060,1057,1054,1054,1050,1050,1047,1047,1044,1041,1041,1038,1038,1038,1038,1034,1034,1031,1028,1028,1025,1022,1019,1019,1019,1019,1016,1016,1013,1013,1013,1010,1010,1007,1007,1004,1004,1001,998,995,995,992,992,989,989,987,984,981,981,978,975,975,975,973,970,970,970,967,967,967,964,962,962,0,0,0,0,0,0,0,0,0,0,0,0,0,0,0,0,0,0,0,0,0,0,0,0,0,0,0,0,0,0
0,0,0,0,0,0,0,0,0,0,0,0,0,0,0,0,1981,1981,1970,1970,1970,1959,1959,1959,1959,1959,1936,1936,1926,1926,1926,1926,1926,1926,1926,1915,1915,1915,1915,1915,1915,1894,1894,1883,1883,1883,1883,1883,1883,1883,1883,1883,1883,1873,1873,1873,1873,1863,1863,1853,1853,1843,1843,1843,1843,1843,1833,1833,1833,1833,1833,1833,1833,1823,1823,1823,1813,1813,1813,1813,1804,1804,1804,1804,1804,1804,1804,1804,1804,1804,1794,1794,1794,1794,1785,1785,1776,1776,1776,1776,1776,1776,1776,1776,1766,1766,1766,1766,1757,1757,1757,1757,1757,1757,1757,1766,1757,1757,1748,1748,1748,1739,1739,1731,1731,1731,1731,1731,1731,1722,1722,1722,1722,1722,1722,1722,1722,1722,1713,1713,1713,1705,1705,1696,1696,1696,1696,1696,1696,1696,1696,1696,1696,1696,1696,1696,1688,1688,1688,1688,1688,1680,1680,1671,1671,1680,1680,1680,1680,1680,1680,1688,1688,1688,1688,1696,1904,1904,1904,1915,1915,1915,1915,1915,1915,1915,1915,1915,1915,1904,1904,1894,1655,1655,1655,1655,1655,1655,1655,1655,1655,1655,1663,1663,1663,1663,1663,1663,1671,1671,1671,1680,1680,1671,1671,1671,0,0,0,0,0,1060,1060,1060,1057,1057,1054,1050,1047,1047,1044,1044,1047,1047,1047,1050,1050,1050,1054,1054,1054,1057,1057,1057,1060,1060,1060,1060,0,0,0,0,1757,1757,1757,1757,1757,1757,1757,1757,1757,1757,1757,1766,1766,1766,1766,1766,1766,1766,1776,1776,1785,1785,1794,1794,1804,1804,1804,1804,1804,1804,1804,1804,1804,1804,1813,1823,1813,1804,1804,1804,1794,1794,1794,1794,1794,0,0,0,0,0,0,0,0,0,0,0,0,817,817,817,819,819,819,817,815,813,811,811,809,807,807,807,807,807,809,809,811,811,813,813,815,817,817,819,819,819,821,821,823,821,821,821,0,0,0,0,0,0,0,0,1557,1550,1550,1543,1543,1543,1543,1536,1529,1529,1523,1523,1516,1509,1503,1496,1496,1496,1496,1489,1489,1483,1470,1470,1470,1464,1464,1464,1458,1452,1452,1445,1445,1439,1439,1439,1439,1433,1427,1427,1421,1421,1415,1415,1415,1410,1404,1398,1398,1392,1392,1392,1381,1381,1376,1376,1376,1370,1370,1370,1365,1359,1354,1349,1349,1349,1343,1338,1333,1333,1333,1328,1328,1328,1322,1317,1317,1312,1307,1307,1307,1302,1302,1297,1292,1292,1292,1288,1288,1288,1283,1278,1273,1273,1268,1268,1268,1264,1259,1255,1255,1255,1250,1241,1236,1236,1232,1232,1232,1232,1227,1227,1223,1223,1219,1214,1214,1214,1210,1210,1206,1206,1202,1202,1197,1197,1193,1189,1189,1185,1181,1181,1181,1177,1173,1169,1169,1169,1169,1165,1165,1161,1161,1157,1157,1153,1149,1145,1141,1141,1141,1138,1138,1134,1134,1134,1134,1130,1130,1123,1123,1119,1119,1119,1115,1115,1112,1108,1108,1105,1101,1101,1097,1094,1094,1094,1094,1094,1090,1090,1087,1084,1084,1080,1080,1073,1073,1070,1070,1067,1067,1067,1063,1063,1063,1060,1057,1054,1054,1050,1050,1047,1047,1044,1041,1041,1038,1038,1038,1038,1034,1034,1031,1028,1028,1025,1022,1022,1019,1019,1019,1016,1016,1016,1013,1013,1013,1010,1007,1007,1004,1004,1001,998,998,995,992,992,992,989,987,984,981,978,978,978,975,975,973,973,970,970,970,967,967,964,964,964,0,0,0,0,0,0,0,0,0,0,0,0,0,0,0,0,0,0,0,0,0,0,0,0,0,0,0,0,0,0
0,0,0,0,0,0,0,0,0,0,0,0,0,0,0,0,1981,1981,1970,1970,1970,1959,1959,1959,1959,1959,1936,1936,1926,1926,1926,1926,1926,1926,1926,1915,1915,1915,1915,1915,1915,1904,1894,1894,1883,1883,1883,1883,1883,1883,1883,1883,1873,1873,1873,1873,1873,1863,1863,1853,1853,1843,1843,1843,1843,1843,1833,1833,1833,1833,1833,1833,1833,1833,1823,1823,1823,1813,1813,1813,1813,1813,1804,1804,1804,1804,1804,1804,1804,1804,1794,1794,1794,1794,1785,1785,1776,1776,1785,1785,1785,1785,1776,1776,1776,1766,1766,1766,1757,1757,1757,1757,1757,1757,1757,1766,1766,1757,1757,1748,1748,1739,1739,1731,1731,1731,1731,1731,1731,1731,1731,1722,1722,1722,1722,1722,1722,1722,1722,1713,1713,1713,1713,1696,1696,1696,1696,1696,1696,1696,1696,1696,1696,1696,1696,1696,1688,1688,1688,1688,1688,1680,1680,1680,1680,1680,1680,1680,1688,1688,1688,1688,1688,1688,1688,1688,1904,1904,1904,1904,1904,1904,1904,1904,1915,1915,1904,1904,1904,1894,1894,1883,1883,1639,1639,1655,1655,1655,1655,1655,1655,1655,1663,1663,1663,1663,1663,1663,1671,1671,1680,1680,1680,1688,1671,1671,1680,0,0,0,1063,1060,1060,1060,1057,1057,1054,1050,1047,1047,1047,1047,1047,1047,1047,1050,1050,1054,1054,1054,1054,1057,1057,1057,1060,1060,1057,1057,0,0,0,0,1757,1757,1757,1757,1757,1757,1757,1757,1757,1757,1757,1766,1766,1766,1766,1776,1766,1766,1776,1776,1785,1794,1794,1794,1804,1804,1804,1794,1794,1804,1804,1804,1804,1804,1813,1823,1823,1813,1804,1804,1794,1794,1794,1794,0,0,0,0,0,0,0,0,0,0,0,0,0,817,817,817,819,819,819,819,815,813,811,811,809,807,807,807,807,807,809,811,811,811,813,813,815,817,817,819,819,821,821,823,823,823,823,823,0,0,0,0,0,0,1579,1572,1557,1550,1550,1550,1543,1543,1543,1536,1529,1529,1523,1523,1516,1509,1503,1496,1496,1496,1496,1489,1489,1483,1477,1477,1470,1470,1470,1464,1458,1458,1452,1445,1445,1445,1439,1439,1439,1433,1433,1427,1427,1421,1421,1415,1415,1410,1404,1398,1398,1392,1392,1392,1387,1381,1376,1376,1376,1370,1370,1370,1365,1359,1354,1349,1349,1349,1349,1343,1338,1333,1333,1333,1328,1328,1328,1322,1317,1312,1307,1307,1307,1302,1302,1297,1297,1292,1292,1288,1288,1288,1283,1283,1278,1273,1273,1273,1268,1268,1264,1255,1255,1255,1255,1250,1241,1236,1236,1232,1232,1232,1227,1227,1223,1223,1219,1214,1214,1214,1210,1210,1206,1206,1202,1202,1197,1197,1197,1189,1189,1185,1181,1181,1181,1177,1177,1173,1169,1169,1169,1165,1165,1161,1161,1157,1157,1153,1149,1145,1141,1141,1141,1138,1138,1134,1134,1134,1134,1130,1130,1126,1123,1119,1119,1119,1119,1115,1112,1112,1108,1108,1101,1101,1097,1094,1094,1094,1094,1094,1094,1090,1090,1087,1087,1084,1080,1077,1073,1070,1070,1067,1067,1067,1067,1063,1063,1063,1060,1057,1054,1050,1050,1050,1047,1044,1041,1041,1038,1038,1038,1038,1034,1034,1031,1031,1028,1025,1022,1022,1019,1019,1019,1016,1016,1016,1013,1013,1013,1010,1007,1007,1004,1004,1001,1001,998,995,992,992,992,989,987,984,981,978,978,978,978,975,975,973,973,970,970,967,967,964,964,964,0,0,0,0,0,0,0,0,0,0,0,0,0,0,0,0,0,0,0,0,0,0,0,0,0,0,0,0,0,0
0,0,0,0,0,0,0,0,0,0,0,0,0,0,0,0,1981,1981,1970,1970,1970,1959,1959,1959,1959,1959,1947,1936,1926,1926,1926,1926,1926,1926,1926,1926,1926,1915,1915,1915,1915,1904,1904,1894,1894,1894,1883,1883,1883,1883,1883,1883,1873,1873,1873,1873,1873,1863,1863,1853,1853,1853,1843,1843,1843,1843,1843,1843,1833,1833,1833,1833,1833,1833,1823,1823,1823,1823,1813,1813,1813,1813,1804,1804,1804,1804,1804,1804,1804,1804,1794,1794,1794,1794,1794,1785,1785,1785,1785,1785,1785,1785,1785,1776,1776,1776,1766,1766,1757,1757,1766,1757,1757,1757,1757,1766,1766,1757,1757,1757,1757,1748,1739,1731,1731,1731,1731,1731,1731,1731,1731,1731,1731,1731,1731,1722,1722,1722,1722,1722,1722,1722,1722,1705,1705,1705,1696,1696,1696,1696,1696,1696,1696,1696,1696,1696,1688,1688,1688,1688,1688,1680,1680,1680,1680,1680,1680,1688,1688,1688,1688,1688,1688,1688,1688,1688,1904,1894,1894,1894,1904,1904,1904,1904,1904,1904,1904,1894,1894,1883,1883,1883,1883,1616,1616,1647,1655,1655,1655,1655,1655,1655,1663,1663,1663,1663,1663,1671,1671,1671,1680,1680,1680,1688,1680,1680,1680,1680,0,1063,1063,1060,1060,1060,1057,1057,1054,1050,1047,1047,1047,1047,1047,1047,1050,1050,1050,1054,1057,1057,1057,1057,1060,1060,1060,1057,1057,1057,0,0,0,0,1748,1748,1757,1757,1757,1757,1757,1757,1757,1766,1766,1766,1766,1776,1776,1776,1776,1776,1776,1785,1794,1794,1794,1794,1804,1804,1804,1794,1794,1804,1804,1804,1804,1804,1813,1833,1823,1813,1813,1804,1804,1794,1794,1794,0,0,0,0,0,0,0,0,0,0,0,0,0,0,0,821,821,821,821,821,817,815,811,811,809,807,807,807,807,807,809,811,811,811,813,813,815,817,819,819,819,821,823,823,825,825,0,0,0,0,0,0,0,0,1579,1572,1557,1557,1550,1550,1550,1550,1543,1536,1536,1529,1523,1523,1516,1509,1503,1503,1503,1496,1496,1496,1496,1489,1483,1483,1477,1470,1470,1464,1464,1458,1458,1452,1445,1445,1439,1439,1439,1439,1433,1427,1427,1421,1421,1415,1415,1410,1410,1404,1398,1392,1392,1392,1387,1381,1376,1376,1376,1370,1370,1370,1365,1359,1354,1349,1349,1349,1349,1343,1338,1338,1333,1333,1333,1328,1328,1328,1322,1317,1312,1307,1307,1302,1302,1297,1297,1292,1292,1288,1288,1288,1283,1283,1273,1273,1273,1273,1268,1268,1264,1264,1259,1255,1255,1250,1250,1241,1236,1236,1236,1232,1227,1227,1223,1223,1219,1214,1214,1214,1210,1210,1206,1206,1202,1202,1197,1197,1197,1193,1189,1185,1185,1181,1181,1177,1177,1173,1169,1169,1169,1165,1165,1165,1161,1161,1157,1153,1149,1145,1141,1141,1141,1138,1138,1134,1134,1134,1130,1130,1126,1126,1123,1123,1119,1119,1119,1115,1112,1112,1108,1108,1101,1101,1097,1097,1094,1094,1094,1094,1094,1090,1090,1090,1090,1087,1080,1077,1073,1070,1070,1070,1067,1067,1067,1063,1063,1063,1060,1057,1054,1054,1054,1050,1050,1047,1044,1041,1038,1038,1038,1038,1034,1034,1034,1031,1028,1028,1025,1025,1022,1022,1022,1019,1016,1016,1013,1013,1013,1010,1010,1007,1004,1004,1001,1001,998,995,995,995,992,989,987,984,981,981,978,978,978,978,975,975,973,970,970,967,967,964,964,964,0,0,0,0,0,0,0,0,0,0,0,0,0,0,0,0,0,0,0,0,0,0,0,0,0,0,0,0,0,0
0,0,0,0,0,0,0,0,0,0,0,0,0,0,0,0,1981,1981,1970,1970,1970,1959,1959,1959,1959,1959,1947,1936,1926,1926,1926,1926,1926,1926,1926,1926,1926,1915,1915,1915,1915,1904,1904,1904,1894,1894,1883,1883,1883,1883,1883,1883,1873,1873,1873,1873,1873,1873,1873,1873,1853,1853,1843,1843,1843,1843,1843,1843,1843,1843,1843,1833,1833,1833,1833,1823,1823,1823,1823,1823,1823,1823,1813,1813,1813,1804,1804,1804,1804,1804,1804,1794,1794,1794,1794,1794,1785,1785,1794,1794,1785,1785,1785,1776,1776,1776,1766,1757,1757,1757,1757,1766,1766,1766,1766,1766,1757,1757,1757,1757,1757,1748,1748,1739,1739,1739,1731,1731,1731,1731,1731,1731,1731,1731,1731,1722,1722,1722,1722,1722,1722,1722,1722,1722,1713,1705,1705,1705,1705,1705,1696,1696,1696,1696,1696,1696,1688,1688,1688,1688,1688,1688,1688,1680,1680,1680,1680,1688,1688,1688,1688,1688,1688,1696,1688,1688,1894,1894,1894,1894,1883,1883,1894,1894,1894,1894,1883,1883,1873,1873,1873,1873,1873,1616,1616,1632,1655,1655,1655,1655,1655,1655,1663,1663,1663,1663,1663,1671,1671,1680,1680,1680,1680,1688,1680,1680,1680,1680,0,1063,1063,1063,1060,1060,1057,1057,1054,1050,1050,1047,1047,1047,1050,1050,1050,1050,1054,1054,1057,1057,1057,1060,1060,1060,1060,1057,1057,1057,0,0,0,0,1748,1748,1757,1757,1757,1757,1757,1766,1766,1766,1766,1776,1776,1776,1776,1776,1776,1776,1785,1785,1794,1794,1794,1804,1804,1804,1804,1794,1794,1804,1804,1804,1804,1813,1813,1833,1823,1823,1823,1813,1804,1804,1794,1794,0,0,0,0,0,0,0,0,0,0,0,0,0,0,0,823,823,823,823,821,821,815,813,811,809,809,809,809,809,809,811,811,811,811,813,813,817,819,819,819,821,823,823,825,825,825,0,0,0,0,0,0,0,0,1579,1572,1564,1557,1550,1550,1550,1550,1543,1536,1536,1529,1523,1523,1516,1509,1509,1503,1503,1503,1496,1496,1496,1489,1489,1483,1477,1470,1470,1464,1464,1464,1458,1452,1452,1445,1439,1439,1439,1439,1433,1427,1427,1421,1421,1415,1415,1410,1410,1404,1398,1398,1392,1392,1387,1381,1376,1376,1376,1370,1370,1370,1365,1359,1354,1354,1354,1349,1349,1343,1343,1338,1333,1333,1333,1333,1328,1328,1322,1317,1312,1312,1307,1307,1302,1297,1297,1292,1292,1288,1288,1288,1283,1283,1273,1273,1273,1273,1268,1268,1264,1264,1259,1255,1255,1250,1250,1241,1241,1236,1236,1232,1232,1227,1227,1223,1223,1219,1214,1214,1210,1210,1206,1206,1202,1202,1202,1197,1197,1193,1189,1185,1185,1185,1181,1181,1177,1173,1173,1169,1169,1169,1165,1165,1161,1161,1157,1153,1153,1149,1145,1145,1145,1141,1138,1134,1134,1134,1130,1130,1126,1126,1123,1123,1119,1119,1119,1115,1112,1112,1108,1105,1101,1101,1097,1097,1094,1094,1094,1094,1094,1090,1090,1090,1090,1087,1080,1077,1077,1073,1073,1070,1070,1067,1067,1067,1063,1063,1060,1060,1057,1054,1054,1050,1050,1047,1044,1041,1041,1041,1038,1038,1034,1034,1034,1031,1028,1028,1025,1025,1022,1022,1022,1019,1016,1016,1016,1013,1013,1013,1010,1007,1004,1001,1001,1001,998,995,995,995,992,989,987,984,984,981,981,978,978,978,978,975,973,973,970,967,967,964,964,964,0,0,0,0,0,0,0,0,0,0,0,0,0,0,0,0,0,0,0,0,0,0,0,0,0,0,0,0,0,0
0,0,0,0,0,0,0,0,0,0,0,0,0,0,0,0,1981,1981,1970,1970,1970,1959,1959,1959,1959,1947,1936,1936,1926,1926,1926,1926,1926,1926,1926,1926,1926,1926,1926,1926,1915,1904,1904,1904,1904,1904,1883,1883,1894,1894,1883,1883,1883,1873,1873,1883,1873,1873,1873,1873,1863,1853,1843,1843,1843,1843,1843,1843,1843,1843,1843,1843,1833,1833,1833,1833,1833,1833,1833,1833,1823,1823,1823,1813,1813,1804,1804,1804,1804,1804,1804,1794,1794,1794,1794,1794,1794,1794,1794,1794,1785,1785,1785,1776,1776,1776,1766,1757,1757,1757,1757,1766,1766,1766,1766,1766,1757,1757,1757,1757,1757,1748,1748,1748,1748,1748,1748,1739,1739,1739,1731,1731,1731,1731,1731,1731,1722,1722,1722,1722,1722,1722,1722,1713,1713,1705,1705,1705,1705,1696,1696,1696,1696,1696,1696,1696,1696,1696,1696,1688,1688,1688,1688,1680,1680,1680,1680,1688,1688,1688,1688,1688,1688,1696,1688,1688,1894,1883,1883,1883,1873,1873,1883,1873,1873,1883,1883,1873,1873,1863,1863,1863,1863,1609,1609,1632,1632,1639,1655,1655,1655,1663,1663,1663,1663,1663,1663,1671,1671,1680,1680,1680,1680,1688,1680,1680,1680,1680,1688,1067,1063,1063,1060,1060,1060,1057,1054,1050,1050,1047,1047,1047,1050,1050,1050,1050,1054,1057,1057,1060,1060,1060,1060,1060,1060,1057,1057,1057,0,0,0,0,1748,1748,1748,1757,1757,1766,1766,1766,1766,1776,1776,1776,1776,1776,1776,1785,1785,1785,1785,1785,1794,1794,1794,1804,1804,1804,1804,1804,1804,1804,1804,1813,1813,1823,1823,1833,1833,1823,1823,1813,1813,1804,1794,1794,0,0,0,0,0,0,0,0,0,0,0,0,0,0,0,821,821,823,821,821,819,815,813,811,811,809,809,809,809,809,811,811,811,813,813,815,817,819,819,819,821,823,825,825,825,825,0,0,0,0,0,0,0,0,1579,1572,1564,1557,1557,1550,1550,1550,1543,1543,1536,1536,1529,1523,1523,1516,1516,1509,1503,1503,1496,1496,1496,1496,1489,1483,1477,1470,1470,1464,1464,1464,1458,1458,1452,1445,1445,1439,1439,1439,1433,1427,1427,1421,1421,1415,1415,1415,1410,1404,1398,1398,1392,1392,1387,1381,1376,1376,1376,1376,1370,1370,1365,1359,1354,1354,1354,1349,1349,1349,1343,1338,1333,1333,1333,1333,1328,1328,1322,1317,1312,1312,1312,1307,1302,1297,1297,1292,1292,1288,1288,1288,1283,1283,1283,1278,1273,1273,1268,1268,1264,1264,1259,1259,1255,1255,1250,1241,1241,1241,1236,1232,1232,1227,1227,1227,1223,1219,1219,1214,1214,1210,1210,1206,1206,1202,1202,1197,1197,1197,1193,1189,1185,1185,1181,1181,1177,1177,1173,1173,1173,1169,1169,1165,1165,1161,1157,1153,1153,1149,1145,1145,1145,1141,1138,1134,1134,1134,1130,1130,1126,1126,1123,1123,1123,1119,1119,1115,1115,1112,1108,1105,1101,1101,1101,1097,1094,1094,1094,1094,1094,1094,1090,1090,1090,1090,1084,1080,1077,1073,1073,1073,1070,1067,1067,1067,1063,1063,1060,1060,1057,1054,1054,1050,1050,1050,1047,1044,1041,1041,1041,1038,1038,1034,1034,1034,1028,1028,1028,1025,1022,1022,1022,1019,1019,1016,1016,1013,1013,1013,1010,1007,1004,1001,1001,1001,998,995,995,995,992,992,989,987,984,984,981,981,978,978,978,975,975,973,970,967,967,967,964,964,0,0,0,0,0,0,0,0,0,0,0,0,0,0,0,0,0,0,0,0,0,0,0,0,0,0,0,0,0,0
0,0,0,0,0,0,0,0,0,0,0,0,0,0,0,0,1993,1981,1970,1970,1970,1970,1970,1959,1959,1947,1936,1936,1926,1926,1926,1926,1926,1926,1926,1926,1926,1915,1915,1915,1915,1894,1894,1894,1904,1904,1894,1894,1894,1894,1883,1883,1883,1883,1883,1883,1873,1873,1873,1863,1863,1853,1853,1853,1843,1843,1843,1843,1843,1843,1843,1843,1843,1843,1833,1833,1833,1833,1833,1833,1823,1823,1823,1813,1813,1813,1804,1804,1804,1804,1804,1794,1794,1794,1794,1794,1794,1794,1794,1794,1785,1785,1785,1776,1776,1776,1766,1757,1757,1766,1766,1766,1766,1766,1766,1766,1766,1757,1757,1757,1757,1748,1748,1757,1757,1748,1748,1748,1748,1748,1739,1739,1731,1731,1731,1731,1722,1722,1722,1722,1722,1722,1722,1713,1713,1705,1705,1705,1705,1696,1696,1696,1696,1696,1696,1696,1696,1696,1696,1696,1688,1688,1688,1680,1680,1688,1688,1688,1688,1688,1688,1688,1688,1696,1688,1688,1883,1883,1873,1873,1873,1873,1863,1863,1863,1863,1863,1853,1853,1853,1853,1853,1843,1609,1609,1624,1632,1639,1663,1663,1663,1663,1663,1663,1663,1663,1663,1671,1671,1680,1688,1688,1688,1688,1688,1680,1680,1688,1688,1067,1067,1063,1063,1060,1060,1060,1054,1054,1050,1050,1050,1050,1050,1050,1050,1054,1054,1057,1060,1060,1060,1060,1063,1060,1060,1060,1057,1057,0,0,0,0,1748,1748,1748,1757,1757,1766,1766,1766,1776,1776,1776,1785,1785,1785,1785,1785,1785,1785,1785,1785,1794,1794,1804,1804,1804,1804,1804,1804,1804,1804,1813,1813,1813,1823,1823,1833,1833,1823,1823,1823,1813,1804,1794,1794,0,0,0,0,0,0,0,0,0,0,0,0,0,0,819,819,821,823,821,821,819,817,813,811,811,811,811,811,811,811,811,811,813,813,815,817,819,819,819,821,823,825,825,825,825,827,0,0,0,0,0,0,0,0,1579,1579,1564,1564,1557,1550,1550,1550,1543,1543,1536,1536,1529,1523,1523,1516,1516,1516,1509,1503,1503,1496,1496,1496,1489,1489,1483,1477,1470,1470,1464,1464,1464,1458,1458,1452,1445,1445,1439,1439,1433,1427,1427,1421,1421,1415,1415,1415,1410,1404,1404,1398,1392,1392,1387,1381,1376,1376,1376,1376,1370,1370,1370,1365,1354,1354,1354,1349,1349,1349,1343,1338,1338,1333,1333,1333,1328,1328,1322,1322,1317,1312,1312,1307,1307,1302,1297,1297,1292,1288,1288,1288,1288,1283,1283,1278,1273,1273,1268,1268,1264,1264,1259,1259,1255,1255,1250,1245,1245,1245,1236,1232,1232,1227,1227,1227,1223,1223,1219,1214,1214,1210,1210,1206,1206,1202,1202,1197,1197,1197,1193,1189,1185,1185,1185,1181,1181,1177,1177,1173,1173,1169,1169,1165,1165,1161,1157,1153,1153,1153,1149,1149,1145,1141,1138,1138,1134,1134,1134,1130,1126,1126,1126,1123,1123,1119,1119,1119,1115,1112,1112,1105,1105,1101,1101,1097,1097,1097,1097,1097,1094,1094,1090,1090,1090,1087,1080,1080,1077,1073,1073,1073,1070,1067,1067,1067,1063,1063,1063,1060,1057,1054,1054,1050,1050,1050,1047,1044,1041,1041,1041,1038,1038,1034,1034,1034,1031,1028,1028,1028,1022,1022,1022,1019,1019,1016,1016,1016,1013,1013,1010,1004,1004,1001,1001,1001,998,998,998,995,992,992,989,989,987,984,984,981,978,978,978,975,975,973,970,967,967,967,964,964,0,0,0,0,0,0,0,0,0,0,0,0,0,0,0,0,0,0,0,0,0,0,0,0,0,0,0,0,0,0
0,0,0,0,0,0,0,0,0,0,0,0,0,0,0,0,1993,1993,1981,1981,1981,1970,1970,1959,1947,1947,1936,1936,1936,1926,1926,1926,1926,1926,1926,1926,1926,1915,1915,1915,1915,1894,1894,1894,1904,1904,1894,1894,1894,1883,1883,1883,1883,1883,1883,1883,1883,1873,1873,1863,1863,1863,1853,1853,1853,1853,1853,1853,1853,1853,1853,1843,1843,1843,1843,1843,1843,1833,1833,1833,1823,1823,1823,1813,1813,1813,1813,1813,1804,1804,1804,1794,1794,1794,1794,1794,1794,1794,1794,1794,1785,1785,1785,1785,1776,1776,1766,1757,1757,1766,1766,1766,1766,1766,1766,1766,1757,1757,1757,1757,1757,1757,1757,1757,1757,1748,1748,1748,1748,1748,1739,1739,1739,1731,1731,1731,1722,1722,1722,1722,1722,1722,1722,1722,1713,1713,1713,1713,1705,1705,1705,1705,1696,1696,1696,1696,1696,1696,1696,1688,1688,1688,1688,1680,1680,1688,1688,1688,1688,1688,1688,1688,1696,1696,1696,1696,1883,1883,1873,1873,1863,1863,1853,1853,1853,1853,1853,1843,1843,1843,1843,1843,1843,1843,1624,1624,1632,1639,1663,1663,1663,1663,1663,1663,1663,1663,1663,1671,1680,1680,1688,1688,1688,1688,1688,1688,1688,1688,1067,1067,1067,1063,1063,1060,1060,1060,1054,1054,1050,1050,1050,1050,1050,1050,1050,1054,1054,1057,1060,1060,1060,1060,1063,1063,1060,1060,1060,1060,0,0,0,0,1748,1748,1757,1757,1757,1766,1766,1766,1776,1785,1785,1785,1785,1785,1794,1785,1785,1785,1785,1794,1794,1794,1804,1804,1804,1804,1804,1804,1804,1804,1813,1813,1823,1823,1823,1833,1833,1833,1833,1823,1813,1813,1804,1804,0,0,0,0,0,0,0,0,0,0,0,0,0,0,819,819,823,823,821,821,819,817,815,813,813,811,811,811,811,811,811,811,813,813,815,819,819,819,821,821,823,825,825,827,827,827,0,0,0,0,0,0,0,1579,1579,1579,1564,1564,1557,1550,1550,1550,1543,1543,1536,1536,1529,1523,1523,1523,1516,1516,1509,1503,1503,1496,1496,1496,1496,1489,1483,1483,1470,1470,1470,1464,1464,1458,1458,1452,1445,1445,1439,1439,1433,1427,1427,1421,1421,1421,1415,1415,1410,1404,1404,1398,1392,1392,1387,1381,1376,1376,1376,1376,1376,1370,1370,1365,1354,1354,1354,1349,1349,1349,1349,1343,1338,1338,1333,1333,1333,1328,1322,1322,1317,1312,1312,1307,1307,1302,1297,1297,1292,1292,1292,1288,1288,1283,1283,1278,1273,1273,1268,1268,1264,1264,1259,1259,1255,1255,1250,1250,1250,1245,1236,1236,1232,1232,1227,1227,1223,1223,1219,1214,1214,1210,1210,1210,1206,1206,1202,1202,1197,1197,1193,1189,1185,1185,1185,1181,1181,1177,1177,1173,1173,1173,1169,1165,1165,1161,1157,1153,1153,1153,1149,1149,1145,1141,1138,1138,1138,1134,1134,1134,1126,1126,1126,1126,1123,1123,1119,1119,1115,1115,1112,1108,1105,1105,1101,1097,1097,1097,1097,1097,1094,1094,1094,1090,1090,1087,1080,1080,1077,1077,1073,1073,1070,1067,1067,1067,1063,1063,1063,1060,1057,1057,1054,1054,1050,1050,1047,1044,1044,1041,1041,1038,1038,1034,1034,1034,1034,1031,1028,1028,1025,1025,1025,1022,1022,1019,1016,1016,1013,1013,1010,1004,1004,1004,1001,1001,1001,998,998,998,995,992,992,989,989,987,984,981,978,978,978,975,975,973,970,967,967,967,967,967,0,0,0,0,0,0,0,0,0,0,0,0,0,0,0,0,0,0,0,0,0,0,0,0,0,0,0,0,0,0
0,0,0,0,0,0,0,0,0,0,0,0,0,0,0,0,1993,1993,1981,1981,1981,1970,1970,1959,1947,1947,1947,1947,1947,1936,1926,1926,1936,1926,1926,1926,1926,1926,1915,1915,1915,1904,1904,1904,1904,1904,1894,1894,1894,1883,1883,1883,1883,1883,1883,1883,1883,1873,1873,1863,1863,1863,1863,1863,1863,1853,1853,1863,1853,1853,1853,1843,1843,1843,1843,1843,1843,1843,1843,1833,1833,1823,1823,1823,1823,1823,1823,1823,1833,1813,1804,1804,1804,1804,1794,1794,1794,1794,1794,1794,1794,1785,1785,1785,1776,1776,1766,1766,1766,1766,1766,1766,1766,1766,1766,1766,1757,1757,1757,1757,1757,1757,1757,1757,1757,1757,1757,1757,1748,1748,1748,1739,1739,1739,1731,1731,1731,1731,1731,1731,1731,1722,1722,1722,1722,1722,1713,1713,1705,1705,1705,1705,1696,1696,1696,1696,1696,1696,1696,1688,1688,1688,1688,1680,1680,1688,1688,1688,1688,1688,1688,1696,1696,1696,1696,1696,1883,1883,1873,1853,1853,1853,1853,1843,1843,1843,1843,1843,1843,1843,1843,1843,1843,1843,1624,1624,1632,1663,1671,1663,1663,1663,1663,1663,1663,1663,1663,1671,1680,1680,1688,1688,1688,1688,1688,1688,1688,1060,1060,1063,1063,1063,1063,1063,1060,1060,1054,1050,1050,1050,1050,1050,1050,1050,1054,1054,1054,1060,1060,1060,1060,1060,1063,1063,1060,1060,1057,1057,0,0,0,0,1757,1757,1757,1757,1766,1776,1776,1776,1785,1785,1785,1785,1785,1785,1794,1794,1794,1794,1794,1794,1794,1794,1804,1804,1804,1813,1804,1804,1804,1813,1813,1813,1823,1823,1823,1833,1833,1833,1833,1823,1823,1813,1813,0,0,0,0,0,0,0,0,0,0,0,0,0,0,0,821,821,823,823,823,821,819,817,815,813,813,811,811,811,811,811,813,813,813,813,815,819,819,819,821,821,823,825,827,827,827,0,0,0,0,0,0,0,1579,1579,1579,1579,1572,1564,1557,1550,1550,1550,1543,1543,1536,1536,1529,1523,1523,1516,1516,1516,1516,1509,1503,1503,1496,1496,1496,1489,1489,1477,1477,1470,1470,1464,1464,1458,1458,1452,1452,1445,1445,1439,1439,1427,1427,1421,1421,1421,1415,1415,1410,1410,1404,1398,1398,1392,1387,1381,1381,1376,1376,1376,1376,1370,1370,1365,1354,1354,1354,1354,1349,1349,1349,1343,1343,1338,1333,1333,1328,1328,1322,1322,1317,1312,1312,1307,1307,1307,1302,1302,1297,1292,1292,1288,1288,1283,1283,1278,1273,1273,1268,1268,1264,1264,1259,1259,1255,1250,1250,1250,1250,1245,1241,1236,1236,1232,1232,1227,1227,1223,1219,1214,1214,1210,1210,1210,1206,1206,1202,1202,1202,1197,1197,1189,1185,1185,1185,1181,1181,1181,1177,1177,1173,1169,1169,1165,1165,1161,1157,1153,1153,1153,1149,1149,1145,1145,1141,1138,1138,1138,1134,1134,1130,1130,1130,1126,1123,1123,1123,1119,1119,1115,1115,1112,1108,1105,1101,1101,1097,1097,1097,1097,1094,1094,1094,1090,1090,1087,1080,1080,1077,1077,1077,1073,1073,1070,1067,1067,1067,1063,1063,1060,1060,1057,1054,1054,1050,1050,1050,1047,1044,1041,1041,1041,1038,1038,1034,1034,1034,1031,1028,1028,1028,1025,1025,1022,1022,1019,1016,1016,1016,1013,1013,1007,1007,1004,1004,1001,1001,1001,1001,998,995,992,992,989,989,987,987,984,981,978,978,978,975,973,973,970,970,967,967,967,0,0,0,0,0,0,0,0,0,0,0,0,0,0,0,0,0,0,0,0,0,0,0,0,0,0,0,0,0,0
0,0,0,0,0,0,0,0,0,0,0,0,0,0,0,0,1993,1993,1993,1993,1993,1981,1981,1970,1959,1959,1947,1947,1947,1947,1936,1936,1936,1936,1926,1926,1926,1926,1915,1915,1915,1915,1904,1904,1904,1904,1894,1894,1894,1894,1894,1883,1883,1883,1883,1883,1883,1873,1873,1873,1873,1863,1863,1863,1863,1863,1863,1863,1863,1853,1853,1843,1843,1843,1843,1843,1843,1843,1843,1833,1833,1833,1833,1833,1833,1823,1823,1823,1833,1833,1813,1813,1804,1804,1804,1804,1794,1794,1794,1794,1794,1794,1794,1794,1785,1785,1776,1766,1766,1766,1766,1766,1766,1766,1766,1766,1757,1757,1757,1757,1766,1766,1757,1757,1766,1757,1757,1757,1757,1757,1748,1748,1739,1739,1731,1731,1731,1731,1731,1731,1731,1731,1722,1722,1722,1722,1713,1713,1713,1705,1705,1705,1705,1696,1696,1696,1696,1696,1688,1688,1688,1688,1688,1680,1680,1688,1688,1688,1688,1688,1688,1696,1696,1688,1688,1696,1696,1873,1863,1853,1853,1853,1843,1843,1843,1843,1843,1843,1833,1833,1833,1833,1833,1833,1833,1833,1671,1671,1671,1671,1671,1671,1671,1671,1671,1671,1671,1671,1680,1680,1688,1688,1688,1063,1063,1057,1057,1057,1057,1057,1060,1060,1060,1060,1057,1057,1054,1050,1050,1050,1050,1050,1050,1050,1050,1054,1054,1057,1060,1060,1060,1060,1060,1063,1060,1060,1057,1057,0,0,0,0,1757,1757,1757,1757,1766,1776,1776,1776,1785,1785,1785,1785,1785,1785,1794,1794,1794,1794,1794,1794,1804,1804,1804,1804,1804,1804,1813,1804,1804,1813,1813,1813,1823,1833,1833,1833,1833,1833,1823,1823,1813,1813,0,0,0,0,0,0,0,0,0,0,0,0,0,0,0,0,821,821,825,825,825,821,819,817,815,815,813,813,813,813,813,813,813,813,813,815,817,819,819,819,821,823,823,827,827,827,0,0,0,0,0,0,0,0,1579,1579,1579,1572,1572,1564,1557,1557,1550,1550,1550,1543,1543,1536,1529,1529,1523,1516,1516,1516,1516,1509,1509,1503,1503,1496,1496,1489,1489,1477,1477,1470,1470,1464,1464,1464,1458,1458,1452,1452,1445,1439,1433,1427,1427,1427,1421,1421,1415,1415,1415,1410,1410,1404,1398,1392,1392,1387,1381,1381,1381,1376,1376,1376,1370,1365,1365,1359,1354,1354,1354,1349,1349,1343,1343,1338,1333,1333,1328,1328,1322,1322,1317,1317,1312,1312,1307,1307,1302,1302,1297,1292,1292,1288,1288,1283,1283,1278,1278,1273,1273,1268,1268,1268,1264,1264,1255,1250,1250,1250,1250,1245,1241,1236,1236,1232,1232,1227,1227,1223,1223,1219,1214,1214,1214,1210,1210,1206,1202,1202,1202,1197,1197,1189,1189,1185,1185,1185,1181,1181,1181,1177,1173,1169,1169,1169,1165,1165,1157,1157,1157,1153,1149,1149,1145,1145,1141,1138,1138,1138,1134,1134,1130,1130,1130,1126,1123,1123,1123,1119,1119,1115,1115,1112,1108,1105,1105,1101,1101,1097,1097,1097,1094,1094,1094,1090,1090,1084,1084,1080,1080,1077,1077,1073,1073,1070,1070,1067,1067,1063,1063,1060,1060,1057,1054,1054,1050,1050,1050,1050,1047,1044,1044,1041,1038,1038,1034,1034,1034,1031,1028,1028,1028,1025,1025,1025,1022,1019,1016,1016,1016,1016,1013,1010,1010,1007,1004,1004,1001,1001,1001,998,995,992,992,992,989,989,987,984,981,978,978,978,978,975,973,970,970,970,967,967,0,0,0,0,0,0,0,0,0,0,0,0,0,0,0,0,0,0,0,0,0,0,0,0,0,0,0,0,0,0
0,0,0,0,0,0,0,0,0,0,0,0,0,0,0,0,2005,2005,1993,1993,1993,1981,1981,1970,1959,1959,1959,1959,1959,1947,1947,1947,1947,1926,1926,1926,1926,1926,1915,1915,1915,1915,1904,1904,1904,1904,1894,1894,1894,1894,1894,1883,1883,1883,1883,1883,1883,1883,1873,1873,1873,1873,1873,1873,1863,1863,1863,1863,1863,1853,1853,1853,1853,1843,1843,1843,1843,1843,1843,1833,1833,1833,1833,1833,1843,1833,1833,1833,1833,1833,1813,1813,1804,1804,1804,1804,1804,1804,1794,1794,1794,1794,1794,1794,1785,1785,1776,1776,1776,1776,1776,1776,1776,1766,1766,1766,1766,1766,1766,1766,1766,1766,1766,1766,1766,1757,1757,1757,1757,1757,1748,1748,1739,1739,1739,1731,1731,1731,1731,1731,1731,1731,1722,1722,1722,1722,1722,1713,1713,1713,1713,1713,1705,1705,1696,1696,1696,1696,1688,1688,1688,1688,1688,1688,1688,1688,1688,1688,1688,1688,1688,1696,1696,1688,1688,1696,1696,1863,1853,1853,1843,1843,1843,1843,1843,1843,1833,1833,1833,1833,1833,1833,1823,1823,1823,1823,1833,1680,1680,1671,1671,1663,1663,1663,1671,1671,1671,1671,1680,1688,1688,1060,1060,1060,1057,1054,1054,1057,1054,1054,1054,1057,1057,1057,1057,1054,1050,1050,1050,1050,1050,1050,1050,1050,1050,1054,1054,1057,1057,1057,1060,1060,1060,1060,1060,1060,1057,1057,0,0,0,0,1748,1748,1757,1757,1766,1766,1766,1766,1776,1785,1785,1785,1785,1794,1794,1794,1794,1794,1794,1794,1794,1794,1804,1804,1804,1804,1813,1804,1804,1813,1813,1813,1823,1833,1833,1833,1833,1833,1823,1823,1813,1813,0,0,0,0,0,0,0,0,0,0,0,0,0,0,0,0,823,823,825,825,825,821,819,819,817,815,815,813,813,813,813,813,813,813,815,815,819,819,819,821,821,823,825,827,827,827,827,0,0,0,0,0,0,0,1579,1579,1579,1572,1572,1564,1557,1557,1550,1550,1550,1543,1543,1543,1536,1523,1523,1523,1516,1516,1516,1509,1509,1503,1503,1496,1496,1496,1489,1477,1477,1470,1470,1464,1464,1464,1458,1458,1452,1452,1445,1445,1433,1427,1427,1427,1421,1421,1421,1421,1415,1415,1410,1404,1398,1398,1392,1387,1381,1381,1381,1376,1376,1376,1370,1370,1365,1365,1354,1354,1354,1349,1349,1343,1343,1338,1333,1333,1328,1328,1322,1322,1317,1317,1312,1312,1307,1307,1307,1302,1297,1292,1292,1288,1288,1283,1283,1278,1278,1273,1273,1268,1268,1268,1264,1264,1259,1255,1250,1250,1250,1245,1241,1241,1236,1236,1232,1232,1227,1227,1223,1219,1214,1214,1214,1214,1210,1206,1206,1202,1202,1202,1197,1193,1189,1185,1185,1185,1181,1181,1181,1177,1177,1169,1169,1169,1165,1165,1161,1157,1153,1153,1149,1149,1145,1145,1141,1141,1138,1138,1138,1134,1130,1130,1130,1126,1123,1123,1123,1119,1119,1115,1115,1112,1112,1108,1105,1105,1101,1101,1097,1097,1094,1094,1094,1090,1090,1084,1084,1080,1080,1077,1077,1077,1077,1073,1070,1067,1067,1063,1063,1060,1060,1057,1054,1054,1050,1050,1050,1050,1047,1047,1044,1041,1041,1038,1038,1034,1034,1031,1028,1028,1028,1025,1025,1025,1022,1022,1019,1016,1016,1016,1013,1010,1010,1007,1004,1004,1004,1004,1001,998,998,995,992,992,989,989,987,984,981,981,978,978,978,975,973,970,970,970,967,967,0,0,0,0,0,0,0,0,0,0,0,0,0,0,0,0,0,0,0,0,0,0,0,0,0,0,0,0,0,0
0,0,0,0,0,0,0,0,0,0,0,0,0,0,0,0,2005,2005,1993,1993,1993,1993,1981,1970,1970,1970,1959,1959,1959,1959,1947,1947,1947,1926,1926,1926,1926,1926,1915,1915,1915,1915,1915,1915,1904,1904,1894,1894,1894,1894,1883,1883,1894,1894,1883,1883,1883,1883,1873,1873,1873,1873,1873,1873,1863,1863,1863,1863,1863,1863,1853,1853,1853,1843,1843,1843,1843,1843,1843,1833,1833,1833,1833,1833,1843,1833,1833,1833,1833,1833,1823,1823,1813,1813,1804,1804,1804,1804,1804,1804,1804,1794,1794,1794,1794,1785,1776,1776,1776,1776,1776,1776,1776,1776,1766,1766,1766,1766,1766,1766,1766,1766,1766,1766,1757,1757,1757,1757,1757,1757,1748,1748,1748,1748,1739,1731,1731,1731,1731,1731,1731,1731,1731,1722,1722,1722,1722,1722,1722,1713,1713,1713,1705,1705,1696,1696,1696,1696,1696,1696,1688,1688,1688,1688,1688,1688,1688,1688,1688,1688,1688,1696,1696,1696,1696,1696,1696,1863,1853,1853,1843,1843,1843,1843,1833,1833,1833,1833,1833,1833,1833,1833,1823,1823,1823,1823,1833,1680,1680,1663,1663,1663,1663,1663,1671,1671,1671,1671,1688,1688,1688,1057,1054,1054,1047,1047,1047,1047,1050,1054,1054,1054,1054,1057,1054,1050,1047,1047,1050,1050,1050,1050,1050,1050,1050,1054,1054,1054,1057,1057,1057,1057,1057,1057,1057,1057,1057,1057,1057,0,0,0,1748,1748,1757,1757,1757,1766,1766,1766,1766,1776,1776,1785,1785,1794,1794,1794,1794,1794,1794,1794,1794,1794,1804,1804,1804,1804,1813,1813,1813,1813,1813,1813,1823,1833,1833,1833,1833,1833,1823,1823,1813,1813,1833,1833,0,0,0,0,0,0,0,0,0,0,0,0,0,0,825,825,825,825,825,821,821,819,817,815,815,815,813,813,813,813,813,815,815,817,819,819,821,821,823,825,825,827,827,827,827,0,0,0,0,0,0,0,0,1586,1579,1572,1572,1564,1564,1557,1550,1550,1550,1543,1543,1543,1536,1523,1523,1516,1516,1516,1516,1509,1509,1509,1503,1503,1496,1496,1489,1483,1477,1477,1470,1470,1464,1464,1464,1458,1452,1452,1445,1445,1439,1433,1427,1427,1421,1421,1421,1421,1415,1415,1410,1410,1404,1398,1392,1392,1392,1387,1381,1381,1376,1376,1370,1370,1370,1365,1359,1354,1354,1349,1349,1349,1349,1338,1333,1333,1328,1328,1322,1322,1317,1317,1312,1312,1307,1307,1307,1302,1302,1297,1292,1288,1288,1288,1283,1278,1278,1273,1273,1273,1268,1268,1268,1268,1255,1255,1250,1250,1250,1245,1241,1241,1241,1236,1232,1232,1227,1227,1223,1219,1214,1214,1214,1214,1210,1206,1206,1206,1202,1202,1197,1197,1193,1189,1185,1185,1185,1181,1181,1181,1177,1177,1173,1169,1165,1165,1161,1157,1153,1153,1153,1149,1145,1145,1145,1141,1141,1138,1138,1134,1134,1134,1130,1126,1123,1123,1123,1119,1119,1115,1115,1115,1112,1112,1108,1105,1105,1101,1101,1097,1094,1094,1094,1090,1090,1087,1084,1084,1080,1080,1077,1077,1077,1073,1073,1070,1067,1063,1063,1060,1060,1057,1057,1054,1054,1054,1050,1050,1050,1047,1047,1044,1041,1038,1038,1034,1034,1031,1028,1028,1028,1028,1025,1025,1022,1022,1019,1016,1016,1016,1013,1010,1010,1007,1004,1004,1004,1004,1001,998,998,995,995,992,989,989,987,984,981,981,978,978,978,975,975,973,970,970,967,967,0,0,0,0,0,0,0,0,0,0,0,0,0,0,0,0,0,0,0,0,0,0,0,0,0,0,0,0,0,0
0,0,0,0,0,0,0,0,0,0,0,0,0,0,0,0,2005,2005,1993,1993,1993,1993,1981,1970,1970,1970,1959,1959,1959,1959,1947,1947,1947,1947,1926,1926,1926,1926,1926,1915,1915,1915,1915,1915,1904,1904,1894,1894,1894,1894,1883,1883,1894,1894,1894,1883,1883,1883,1873,1873,1873,1873,1873,1873,1873,1873,1873,1873,1873,1863,1863,1853,1853,1843,1843,1843,1843,1843,1843,1843,1843,1843,1843,1843,1843,1833,1833,1833,1833,1833,1823,1823,1813,1813,1813,1813,1804,1804,1804,1804,1804,1804,1794,1794,1794,1794,1785,1776,1776,1776,1776,1776,1776,1776,1766,1766,1766,1766,1766,1766,1766,1766,1766,1766,1757,1757,1757,1757,1757,1757,1748,1748,1748,1748,1748,1739,1739,1739,1731,1731,1731,1731,1731,1731,1731,1731,1722,1722,1722,1713,1713,1713,1713,1705,1696,1696,1696,1696,1696,1696,1688,1688,1688,1688,1688,1688,1688,1688,1688,1688,1688,1696,1696,1688,1688,1696,1696,1863,1853,1843,1843,1843,1843,1833,1833,1833,1833,1833,1823,1823,1823,1823,1813,1804,1034,1031,1031,1031,1655,1655,1655,1034,1034,1655,1655,1680,1680,1680,1688,1688,1688,1057,1050,1047,1047,1047,1047,1047,1050,1050,1054,1050,1050,1054,1050,1047,1047,1047,1047,1047,1050,1050,1050,1050,1050,1050,1050,1050,1047,1047,1050,1047,1044,1044,1047,1057,1057,0,1057,0,0,0,1757,1757,1757,1757,1757,1757,1757,1757,1757,1766,1776,1785,1785,1794,1794,1794,1794,1794,1794,1794,1804,1804,1804,1804,1804,1804,1813,1813,1813,1813,1813,1813,1823,1833,1833,1833,1833,1833,1833,1823,1823,1833,1833,1833,0,0,0,0,0,0,0,0,0,0,0,0,0,825,825,825,827,827,825,823,821,819,817,815,815,815,813,813,813,813,815,815,817,819,819,821,821,821,823,825,827,829,829,829,829,0,0,0,0,0,0,0,0,1586,1579,1572,1572,1564,1564,1557,1550,1550,1550,1543,1543,1543,1536,1523,1523,1516,1516,1516,1516,1509,1509,1509,1503,1503,1496,1496,1489,1483,1477,1477,1470,1470,1464,1464,1464,1458,1458,1452,1445,1445,1439,1433,1433,1427,1421,1421,1421,1421,1415,1415,1415,1410,1410,1398,1398,1392,1392,1392,1387,1381,1381,1376,1376,1376,1370,1370,1365,1359,1354,1354,1349,1349,1349,1343,1338,1333,1333,1333,1328,1322,1322,1322,1317,1312,1312,1307,1307,1307,1302,1297,1292,1292,1288,1288,1283,1278,1278,1273,1273,1273,1268,1268,1268,1268,1255,1255,1255,1250,1250,1250,1245,1241,1241,1236,1236,1232,1232,1227,1227,1219,1219,1214,1214,1214,1210,1210,1206,1206,1202,1202,1197,1197,1197,1189,1185,1185,1185,1185,1181,1181,1177,1177,1173,1169,1169,1169,1165,1165,1161,1153,1153,1149,1145,1145,1145,1141,1141,1141,1138,1134,1134,1134,1130,1130,1126,1123,1123,1119,1119,1119,1115,1115,1112,1112,1108,1105,1105,1101,1101,1101,1097,1094,1094,1090,1090,1087,1087,1087,1080,1080,1077,1077,1077,1077,1073,1073,1070,1067,1063,1063,1060,1057,1057,1054,1054,1054,1050,1050,1050,1047,1047,1044,1041,1038,1038,1034,1034,1031,1028,1028,1028,1028,1025,1025,1025,1025,1022,1019,1019,1016,1016,1013,1010,1007,1004,1004,1004,1004,1001,1001,998,995,995,992,992,989,987,987,984,981,981,978,978,978,975,973,973,970,970,970,0,0,0,0,0,0,0,0,0,0,0,0,0,0,0,0,0,0,0,0,0,0,0,0,0,0,0,0,0,0
0,0,0,0,0,0,0,0,0,0,0,0,0,0,0,0,2005,2005,2005,2005,1993,1981,1981,1970,1970,1970,1959,1959,1959,1959,1959,1959,1959,1959,1947,1926,1926,1926,1926,1926,1926,1915,1915,1915,1904,1904,1894,1894,1894,1894,1894,1894,1894,1894,1894,1883,1883,1883,1873,1873,1873,1873,1873,1873,1873,1873,1873,1873,1873,1863,1853,1853,1853,1843,1843,1843,1843,1843,1843,1843,1843,1843,1843,1843,1843,1833,1833,1833,1833,1833,1833,1823,1823,1823,1813,1813,1804,1804,1804,1804,1804,1804,1804,1804,1804,1794,1785,1785,1785,1785,1785,1776,1776,1776,1785,1776,1766,1766,1766,1766,1766,1766,1766,1766,1766,1766,1757,1757,1757,1757,1757,1757,1748,1748,1748,1748,1739,1739,1739,1739,1731,1731,1731,1731,1731,1731,1731,1722,1722,1722,1722,1722,1713,1713,1705,1705,1696,1696,1696,1696,1688,1688,1696,1688,1688,1696,1688,1688,1688,1696,1696,1696,1696,1688,1688,1696,1696,1853,1853,1843,1022,1019,1019,1022,1022,1025,1028,1833,1823,1823,1823,1028,1028,1031,1031,1031,1028,1028,1031,1031,1031,1034,1031,1031,1034,1722,1722,1731,1034,1034,1688,1047,1047,1044,1044,1044,1047,1047,1050,1050,1054,1050,1050,1050,1047,1044,1044,1044,1047,1047,1047,1047,1047,1047,1047,1047,1047,1044,1038,1038,1041,1041,1038,1038,1038,1038,1038,0,0,0,1013,0,1757,1757,1757,1757,1757,1757,1757,1757,1757,1766,1776,1785,1785,1785,1794,1794,1794,1794,1794,1804,1804,1804,1804,1804,1804,1804,1813,1813,1813,1813,1813,1813,1823,1833,1833,1833,1833,1833,1833,1823,1823,1833,1833,1833,0,0,0,0,0,0,0,0,0,0,0,0,0,825,825,827,829,829,825,823,821,819,817,817,815,815,815,815,815,815,815,817,819,819,821,821,823,823,825,827,827,829,829,829,831,835,0,0,0,0,0,0,0,1586,1579,1579,1579,1572,1564,1557,1557,1550,1550,1550,1543,1543,1536,1529,1523,1523,1523,1516,1516,1516,1509,1509,1509,1503,1496,1496,1489,1489,1483,1477,1470,1470,1470,1464,1464,1464,1458,1458,1452,1445,1439,1439,1433,1433,1427,1427,1421,1421,1421,1415,1415,1415,1410,1404,1398,1398,1398,1392,1387,1381,1381,1376,1376,1376,1370,1370,1365,1359,1354,1354,1354,1349,1349,1343,1338,1338,1333,1333,1333,1328,1322,1322,1317,1312,1312,1307,1307,1307,1302,1297,1292,1292,1288,1288,1283,1283,1278,1273,1273,1273,1273,1268,1268,1268,1259,1255,1255,1250,1250,1250,1245,1241,1241,1241,1236,1236,1232,1232,1227,1223,1219,1214,1214,1214,1210,1210,1206,1206,1202,1202,1197,1197,1197,1189,1189,1185,1185,1185,1181,1181,1177,1177,1169,1169,1169,1165,1165,1165,1161,1157,1153,1153,1149,1149,1145,1145,1145,1141,1138,1138,1134,1134,1130,1130,1126,1123,1123,1119,1119,1119,1115,1115,1112,1108,1108,1105,1105,1105,1101,1101,1097,1094,1094,1090,1090,1087,1087,1087,1084,1080,1077,1077,1077,1077,1073,1073,1073,1070,1067,1063,1060,1060,1060,1057,1054,1054,1050,1050,1050,1047,1047,1044,1041,1038,1038,1038,1034,1031,1031,1028,1028,1028,1028,1025,1025,1025,1022,1019,1019,1019,1016,1016,1010,1007,1007,1004,1004,1004,1001,1001,998,995,995,992,992,989,987,987,984,981,981,978,978,978,978,975,973,970,970,970,0,0,0,0,0,0,0,0,0,0,0,0,0,0,0,0,0,0,0,0,0,0,0,0,0,0,0,0,0,0
0,0,0,0,0,0,0,0,0,0,0,0,0,0,0,0,2005,2005,2005,1993,1993,1981,1981,1970,1970,1970,1970,1970,1970,1959,1959,1959,1959,1959,1947,1926,1926,1926,1926,1926,1926,1915,1915,1915,1915,1904,1904,1894,1894,1894,1894,1894,1894,1894,1894,1894,1894,1883,1873,1873,1873,1873,1873,1873,1873,1873,1873,1873,1873,1863,1853,1853,1853,1843,1843,1843,1843,1843,1843,1843,1843,1843,1843,1843,1843,1833,1833,1833,1833,1833,1833,1823,1823,1823,1823,1813,1813,1813,1804,1804,1804,1804,1804,1804,1804,1794,1785,1785,1785,1785,1785,1776,1776,1776,1776,1776,1776,1776,1766,1766,1766,1766,1766,1766,1766,1766,1757,1757,1757,1757,1757,1748,1748,1748,1748,1748,1739,1739,1739,1739,1739,1739,1731,1731,1731,1731,1731,1722,1722,1722,1722,1722,1722,1713,1705,1705,1696,1696,1696,1696,1688,1688,1696,1688,1688,1688,1688,1688,1688,1688,1688,1696,1696,1696,1696,1696,1696,1019,1019,1019,1019,1019,1019,1022,1022,1025,1025,1025,1028,1028,1028,1028,1025,1025,1028,1028,1025,1025,1028,1028,1031,1031,1031,1031,1031,1034,1034,1034,1028,1025,1025,1025,1025,1019,1019,1044,1047,1047,1050,1050,1054,1047,1041,1041,1038,1034,1034,1038,1044,1044,1047,1047,1047,1044,1044,1041,1041,1038,1034,1034,1034,1025,1022,1022,1034,1034,1034,1034,1004,1004,1013,1013,1007,1007,1016,1016,1757,1757,1757,1757,1766,1785,1785,1785,1785,1785,1785,1794,1794,1794,1794,1804,1804,1804,1804,1804,1804,1804,1813,1813,1813,1813,1813,1813,1823,1833,1833,1833,1833,1833,1833,1823,1823,1833,1833,1804,1804,0,0,0,0,0,0,0,0,0,0,0,827,827,827,827,829,829,825,823,821,819,817,817,817,817,815,815,815,815,817,819,819,821,821,821,823,823,827,829,829,831,831,831,833,835,0,0,0,0,0,0,0,1586,1579,1579,1579,1572,1564,1564,1557,1550,1550,1550,1543,1543,1536,1536,1523,1523,1523,1523,1516,1516,1516,1509,1509,1503,1496,1496,1489,1489,1483,1477,1470,1470,1470,1470,1464,1464,1458,1458,1452,1452,1445,1439,1439,1433,1427,1427,1427,1421,1421,1421,1415,1415,1410,1404,1404,1398,1398,1392,1387,1387,1381,1376,1376,1376,1370,1370,1365,1365,1359,1354,1354,1349,1349,1343,1338,1338,1333,1333,1333,1328,1322,1322,1317,1312,1312,1307,1307,1307,1302,1297,1292,1292,1288,1288,1283,1283,1278,1273,1273,1273,1273,1268,1268,1264,1259,1255,1255,1255,1255,1250,1250,1245,1245,1241,1236,1236,1232,1232,1227,1223,1223,1219,1219,1214,1214,1210,1206,1206,1206,1202,1202,1197,1197,1193,1189,1189,1185,1185,1185,1181,1181,1177,1169,1169,1169,1165,1165,1165,1161,1157,1153,1153,1153,1153,1149,1149,1149,1141,1138,1138,1134,1134,1130,1130,1126,1123,1123,1119,1119,1119,1115,1115,1112,1108,1108,1108,1105,1105,1101,1101,1097,1097,1094,1090,1090,1090,1090,1087,1084,1084,1080,1080,1080,1077,1077,1077,1073,1070,1067,1063,1060,1060,1060,1057,1054,1054,1054,1054,1054,1050,1050,1044,1041,1041,1038,1038,1034,1034,1031,1028,1028,1028,1028,1028,1025,1025,1022,1022,1019,1019,1016,1010,1007,1007,1004,1004,1004,1004,1001,1001,998,998,995,992,992,989,989,987,984,981,981,981,978,978,978,975,970,970,970,970,0,0,0,0,0,0,0,0,0,0,0,0,0,0,0,0,0,0,0,0,0,0,0,0,0,0,0,0,0,0
0,0,0,0,0,0,0,0,0,0,0,0,0,0,0,0,2005,2005,2005,1993,1993,1993,1970,1970,1970,1970,1959,1959,1970,1959,1959,1959,1959,1959,1926,1926,1926,1926,1926,1926,1926,1915,1915,1915,1915,1915,1904,1904,1894,1894,1894,1894,1904,1904,1904,1904,1894,1883,1883,1873,1873,1873,1883,1883,1873,1873,1873,1873,1873,1863,1863,1853,1853,1853,1843,1843,1843,1843,1843,1843,1843,1843,1843,1843,1843,1833,1833,1833,1833,1833,1833,1823,1823,1823,1823,1823,1813,1813,1813,1813,1804,1804,1804,1804,1804,1804,1794,1794,1794,1794,1785,1776,1776,1785,1776,1776,1776,1776,1766,1766,1766,1766,1766,1766,1766,1766,1757,1757,1757,1757,1757,1748,1748,1748,1748,1748,1748,1748,1739,1739,1739,1739,1739,1731,1731,1731,1731,1731,1722,1722,1722,1722,1722,1722,1722,1713,1705,1696,1696,1696,1696,1696,1696,1688,1688,1688,1688,1696,1028,1025,1025,1025,1025,1688,1688,1688,1019,1019,1019,1019,1016,1016,1019,1022,1022,1022,1025,1028,1028,1028,1028,1028,1022,1022,1025,1025,1022,1022,1025,1025,1025,1025,1028,1028,1031,1031,1028,1028,1025,1025,1025,1025,1016,1013,1013,1013,1010,1010,1050,1050,1025,1025,1025,1025,1025,1025,1025,1028,1028,1031,1041,1044,1041,1038,1038,1038,1034,1031,1031,1022,1022,1022,1022,1022,1031,1031,1034,1034,1004,1004,1004,1013,1004,1004,1007,1007,1748,1748,1748,1748,1785,1785,1785,1785,1785,1785,1785,1794,1785,1785,1785,1794,1794,1804,1804,1804,1804,1804,1813,1823,1823,1813,1813,1823,1823,1833,1833,1833,1843,1833,1833,1833,1833,1833,1843,1804,1804,0,0,0,0,0,0,0,0,0,0,0,827,827,827,829,829,829,825,823,821,819,817,817,817,817,815,815,817,817,817,819,819,821,821,821,823,825,827,829,831,831,833,833,835,835,0,0,0,0,0,0,0,0,1579,1579,1579,1572,1572,1564,1557,1550,1550,1550,1550,1543,1543,1536,1536,1523,1523,1523,1516,1516,1516,1516,1509,1509,1503,1496,1489,1489,1483,1477,1477,1470,1470,1470,1464,1464,1464,1458,1452,1452,1445,1439,1439,1433,1427,1427,1427,1427,1421,1421,1415,1415,1410,1404,1404,1398,1398,1398,1392,1387,1387,1381,1376,1376,1376,1376,1370,1365,1365,1359,1354,1349,1349,1343,1343,1338,1333,1333,1333,1333,1328,1322,1317,1312,1312,1307,1307,1307,1302,1297,1292,1292,1288,1288,1283,1283,1278,1278,1273,1273,1273,1268,1268,1264,1259,1259,1255,1255,1255,1250,1250,1245,1245,1241,1236,1236,1236,1232,1227,1227,1223,1219,1219,1214,1214,1214,1210,1206,1206,1206,1202,1202,1197,1193,1193,1189,1189,1185,1185,1181,1181,1181,1169,1169,1169,1165,1165,1165,1165,1157,1153,1153,1153,1153,1149,1149,1149,1145,1138,1138,1134,1134,1130,1130,1126,1123,1123,1119,1119,1119,1115,1115,1112,1112,1108,1108,1108,1105,1105,1101,1097,1097,1094,1090,1090,1090,1090,1087,1084,1084,1080,1080,1080,1077,1077,1077,1073,1070,1067,1063,1063,1063,1060,1057,1057,1054,1054,1054,1054,1050,1050,1047,1044,1041,1041,1038,1034,1034,1031,1031,1031,1028,1028,1028,1025,1025,1022,1022,1019,1019,1016,1010,1007,1007,1004,1004,1004,1004,1001,1001,1001,998,995,995,992,989,989,987,984,981,981,981,978,978,978,975,970,970,970,970,0,0,0,0,0,0,0,0,0,0,0,0,0,0,0,0,0,0,0,0,0,0,0,0,0,0,0,0,0,0
0,0,0,0,0,0,0,0,0,0,0,0,0,0,0,0,2005,2005,2005,1993,1993,1993,1970,1970,1970,1970,1959,1959,1970,1959,1959,1959,1959,1959,1926,1926,1926,1926,1926,1926,1926,1915,1915,1915,1915,1915,1915,1915,1904,1904,1894,1894,1904,1904,1904,1904,1894,1883,1883,1873,1873,1873,1873,1883,1873,1873,1873,1873,1873,1873,1873,1863,1853,1853,1853,1853,1853,1853,1843,1843,1843,1843,1843,1843,1843,1843,1843,1843,1833,1833,1833,1823,1823,1823,1823,1823,1823,1823,1813,1813,1813,1813,1813,1804,1804,1804,1804,1794,1794,1794,1794,1785,1785,1785,1785,1785,1776,1776,1776,1776,1766,1766,1766,1766,1766,1766,1757,1757,1757,1757,1757,1757,1757,1757,1748,1748,1748,1748,1748,1739,1739,1739,1739,1739,1731,1731,1731,1731,1722,1722,1722,1722,1731,1722,1722,1722,1713,1713,1705,1696,1696,1696,1696,1696,1696,1696,1696,1013,1013,1019,1022,1022,1025,1688,1688,1688,1016,1016,1016,1016,1016,1016,1016,1019,1022,1022,1025,1025,1025,1025,1025,1025,1019,1019,1019,1019,1019,1013,1013,1013,1016,1025,1025,1025,1031,1031,1019,1019,1022,1019,1019,1019,1013,1010,1004,1004,1004,1007,1004,1004,1010,1013,1019,1019,1019,1019,1019,1022,1022,1031,1041,1044,1041,1038,1038,1038,1034,1031,1031,1022,1022,1019,1019,1022,1028,1028,1031,1001,1001,998,998,1001,1004,1004,1004,1007,1748,1748,1748,0,0,0,1785,1785,1785,1766,1766,1776,1785,1785,1785,1794,1794,1804,1804,1804,1804,1813,1813,1823,1823,1823,1823,1823,1823,1833,1833,1833,1843,1843,1833,1833,1833,1833,1833,1813,1813,0,0,0,0,0,0,0,0,0,0,0,827,827,829,829,829,829,825,823,821,819,817,817,817,817,817,817,817,817,817,819,819,821,821,823,825,827,829,829,831,831,833,835,835,835,0,0,0,0,0,0,0,0,1579,1579,1579,1572,1572,1564,1557,1550,1550,1550,1550,1543,1543,1543,1536,1529,1523,1523,1516,1516,1516,1509,1509,1503,1503,1496,1489,1489,1483,1483,1477,1470,1470,1470,1470,1464,1464,1464,1458,1452,1445,1445,1439,1439,1433,1433,1433,1427,1421,1421,1415,1415,1410,1410,1404,1398,1398,1398,1392,1387,1387,1381,1376,1376,1376,1370,1370,1370,1365,1359,1359,1354,1349,1349,1343,1343,1338,1338,1333,1333,1328,1328,1322,1317,1312,1312,1307,1307,1302,1302,1297,1292,1292,1288,1288,1283,1283,1278,1278,1273,1273,1273,1273,1268,1264,1259,1255,1255,1255,1250,1250,1245,1245,1241,1236,1236,1236,1232,1232,1227,1227,1219,1219,1219,1214,1214,1210,1210,1210,1206,1202,1202,1197,1197,1193,1193,1189,1185,1185,1185,1181,1181,1169,1169,1169,1169,1165,1165,1165,1157,1157,1153,1153,1153,1153,1149,1149,1145,1145,1138,1134,1134,1134,1130,1130,1126,1126,1123,1119,1119,1115,1115,1112,1112,1108,1108,1108,1105,1105,1105,1101,1097,1097,1094,1090,1090,1090,1087,1087,1084,1080,1080,1077,1077,1077,1077,1073,1073,1067,1063,1063,1063,1060,1060,1057,1057,1054,1054,1050,1050,1050,1047,1044,1041,1041,1038,1034,1034,1031,1031,1031,1028,1028,1028,1025,1025,1022,1022,1022,1019,1016,1013,1010,1007,1004,1004,1004,1004,1001,1001,1001,1001,998,995,992,989,989,987,987,984,981,981,981,978,978,975,970,970,970,970,0,0,0,0,0,0,0,0,0,0,0,0,0,0,0,0,0,0,0,0,0,0,0,0,0,0,0,0,0,0
0,0,0,0,0,0,0,0,0,0,0,0,0,0,0,0,2005,2005,2005,1993,1993,1993,1970,1970,1970,1970,1959,1959,1959,1959,1959,1959,1959,1959,1959,1947,1926,1926,1926,1936,1926,1926,1926,1926,1915,1915,1915,1915,1915,1915,1915,1915,1915,1904,1904,1904,1894,1883,1883,1873,1873,1873,1873,1873,1883,1873,1873,1873,1873,1873,1873,1863,1863,1863,1853,1853,1853,1853,1853,1853,1853,1843,1843,1843,1843,1843,1843,1843,1833,1833,1833,1833,1823,1823,1833,1823,1823,1823,1823,1813,1813,1813,1813,1813,1813,1804,1804,1794,1794,1794,1794,1785,1785,1785,1785,1785,1776,1776,1776,1776,1776,1776,1766,1766,1766,1766,1757,1757,1757,1757,1757,1757,1757,1757,1748,1748,1748,1748,1739,1739,1739,1739,1739,1739,1731,1731,1731,1731,1722,1722,1722,1722,1731,1022,1019,1019,1019,1013,1013,1013,1010,1010,1010,1696,1696,1696,1010,1010,1013,1013,1016,1013,1013,1013,1013,1013,1013,1013,1013,1013,1013,1013,1013,1016,1016,1019,1025,1025,1025,1025,1025,1022,1019,1019,1016,1016,1013,1010,1007,1007,1007,1007,1010,1025,1025,1013,1013,1013,1019,1019,1013,1013,1010,1004,1001,1001,1001,1004,1001,1001,1001,1004,1010,1010,1013,1013,1013,1013,1010,1010,1004,1001,1001,998,998,998,998,995,995,1001,1001,1001,1004,1001,1001,1001,998,998,992,992,992,1001,1001,1001,1001,1001,1001,998,992,992,992,989,989,989,1757,1757,1757,1776,1785,1785,1785,1794,1794,1804,1804,1804,1804,1813,1813,1823,1823,1823,1823,1823,1833,1833,1833,1843,1843,1843,1833,1833,1833,1833,1833,1823,1823,0,0,0,0,0,0,0,0,0,0,0,829,829,829,829,831,829,825,823,821,819,819,817,817,817,817,817,817,817,819,819,821,821,823,825,825,827,829,831,831,833,835,835,835,835,0,0,0,0,0,0,0,0,1586,1579,1579,1579,1572,1572,1564,1557,1557,1550,1550,1543,1543,1543,1536,1536,1529,1523,1516,1516,1516,1509,1509,1503,1503,1496,1489,1489,1483,1483,1477,1477,1470,1470,1470,1464,1464,1464,1458,1458,1445,1445,1439,1439,1433,1433,1433,1427,1421,1421,1415,1415,1415,1410,1404,1404,1398,1398,1392,1387,1387,1381,1376,1376,1376,1370,1370,1370,1365,1359,1359,1354,1354,1349,1349,1349,1343,1338,1338,1333,1328,1328,1322,1322,1312,1312,1307,1307,1302,1302,1297,1292,1292,1292,1288,1288,1283,1283,1278,1273,1273,1273,1268,1268,1264,1259,1259,1255,1255,1250,1250,1245,1245,1241,1241,1236,1236,1232,1232,1232,1227,1223,1219,1219,1219,1214,1214,1210,1210,1206,1202,1202,1197,1197,1193,1193,1193,1189,1185,1181,1181,1181,1181,1169,1169,1169,1165,1165,1161,1157,1157,1157,1153,1153,1153,1149,1149,1145,1145,1138,1138,1138,1134,1130,1130,1130,1126,1123,1123,1119,1119,1115,1112,1112,1108,1108,1108,1108,1105,1105,1101,1101,1097,1094,1094,1090,1090,1087,1087,1084,1080,1080,1077,1077,1077,1077,1073,1073,1067,1063,1063,1063,1060,1060,1057,1057,1054,1054,1050,1050,1050,1047,1044,1041,1041,1038,1038,1034,1034,1031,1031,1028,1028,1028,1028,1025,1025,1022,1022,1019,1016,1016,1010,1007,1004,1004,1004,1004,1001,1001,1001,1001,1001,998,992,989,989,987,987,984,984,981,981,981,978,978,973,973,970,970,0,0,0,0,0,0,0,0,0,0,0,0,0,0,0,0,0,0,0,0,0,0,0,0,0,0,0,0,0,0
0,0,0,0,0,0,0,0,0,0,0,0,0,0,0,0,2005,2005,2005,1993,1993,1993,1970,1970,1970,1959,1959,1959,1959,1959,1959,1959,1959,1959,1959,1959,1926,1926,1926,1936,1926,1926,1926,1926,1915,1915,1915,1915,1915,1915,1915,1915,1915,1915,1915,1904,1904,1883,1883,1873,1873,1873,1873,1873,1873,1873,1873,1873,1873,1873,1873,1873,1873,1863,1863,1853,1853,1853,1853,1853,1853,1843,1843,1843,1843,1843,1843,1843,1833,1833,1833,1833,1823,1823,1833,1823,1823,1823,1823,1813,1813,1813,1813,1813,1813,1804,1804,1804,1794,1794,1794,1785,1785,1785,1785,1785,1785,1785,1785,1785,1776,1776,1766,1766,1766,1757,1757,1757,1757,1757,1757,1757,1757,1757,1748,1748,1748,1739,1739,1739,1731,1731,1731,1731,1731,1731,1731,1722,1722,1722,1722,1010,1010,1013,1013,1013,1016,1010,1010,1010,1007,1007,1004,1001,1001,1001,1007,1007,1007,1010,1010,1013,1013,1013,1013,1013,1013,1013,1013,1013,1013,1013,1013,1010,1010,1019,1022,1022,1022,1022,1025,1022,1019,1019,1016,1016,1013,1010,1007,1007,1004,1004,1004,1001,995,995,1007,1007,1004,998,995,995,1001,998,995,995,998,1001,998,998,998,1001,1004,1001,1001,1007,1007,1007,1004,998,998,998,992,992,992,992,992,992,992,998,995,995,998,995,995,995,992,992,992,992,992,995,995,995,995,995,998,998,992,992,992,989,989,989,989,1757,1757,1785,1785,1794,1794,1804,1804,1804,1804,1804,1804,1804,1813,1823,1823,1823,1823,1833,1833,1843,1843,1843,1843,1843,1843,1833,1833,1833,1833,1823,1823,0,0,0,0,0,0,0,0,0,0,0,829,829,831,831,831,829,827,825,821,819,819,819,817,817,817,817,819,819,819,819,821,821,823,825,827,829,829,831,831,833,835,835,835,835,0,0,0,0,0,0,0,0,1586,1586,1579,1579,1572,1572,1564,1557,1557,1550,1550,1550,1543,1543,1543,1536,1529,1523,1516,1516,1516,1516,1509,1503,1503,1496,1489,1489,1489,1483,1483,1477,1477,1470,1470,1470,1464,1464,1458,1458,1452,1445,1445,1439,1439,1433,1433,1427,1421,1421,1415,1415,1410,1410,1410,1404,1398,1398,1392,1392,1387,1381,1381,1376,1376,1370,1370,1370,1365,1359,1359,1354,1354,1349,1349,1349,1343,1338,1338,1333,1333,1328,1328,1322,1317,1312,1312,1307,1307,1302,1302,1297,1292,1292,1288,1288,1283,1283,1278,1278,1273,1273,1268,1268,1264,1264,1259,1255,1255,1255,1250,1250,1250,1245,1241,1241,1236,1232,1232,1232,1227,1223,1219,1219,1219,1219,1214,1214,1210,1210,1206,1202,1197,1197,1193,1193,1193,1189,1185,1181,1181,1181,1181,1177,1169,1169,1165,1165,1161,1157,1157,1157,1153,1153,1153,1153,1149,1145,1145,1145,1141,1138,1134,1134,1130,1130,1126,1126,1123,1119,1119,1115,1115,1112,1112,1108,1108,1108,1105,1105,1101,1101,1097,1094,1094,1090,1090,1087,1087,1084,1080,1080,1080,1080,1077,1077,1073,1073,1067,1067,1063,1063,1060,1060,1057,1057,1054,1054,1050,1050,1047,1047,1044,1041,1041,1038,1038,1038,1034,1034,1031,1028,1028,1028,1028,1028,1025,1022,1022,1022,1016,1016,1010,1007,1004,1004,1004,1004,1001,1001,1001,1001,1001,998,992,992,989,989,987,984,984,981,981,981,981,978,975,973,970,970,0,0,0,0,0,0,0,0,0,0,0,0,0,0,0,0,0,0,0,0,0,0,0,0,0,0,0,0,0,0
0,0,0,0,0,0,0,0,0,0,0,0,0,0,0,0,2005,2005,2005,1993,1993,1993,1970,1970,1970,1959,1959,1959,1959,1959,1959,1959,1959,1959,1959,1959,1947,1947,1947,1936,1926,1926,1926,1926,1926,1926,1926,1926,1915,1915,1915,1915,1915,1915,1915,1904,1894,1883,1883,1883,1883,1883,1873,1873,1873,1873,1873,1873,1873,1873,1873,1873,1873,1873,1863,1863,1853,1853,1853,1853,1853,1843,1843,1843,1843,1843,1843,1843,1843,1843,1833,1833,1833,1833,1833,1833,1823,1823,1823,1823,1823,1823,1813,1813,1813,1813,1813,1804,1794,1794,1794,1785,1785,1785,1785,1785,1785,1785,1785,1785,1776,1776,1766,1766,1766,1757,1757,1757,1757,1757,1757,1757,1757,1757,1757,1748,1748,1739,1739,1739,1731,1731,1731,1731,1731,1731,1731,1722,1713,1713,1010,1010,1010,1010,1010,1010,1010,1010,1007,1007,1001,1001,1004,1001,1001,998,998,998,998,1007,1001,998,998,998,1013,1010,1007,1007,1007,1004,1004,1007,1010,1004,998,998,1022,1022,1022,1022,1025,1025,1022,1019,1004,1004,1004,1004,1001,998,998,995,992,992,989,989,989,989,989,989,989,992,992,992,992,992,998,998,998,995,995,992,989,987,987,984,984,978,978,998,989,987,987,984,984,987,989,989,989,992,992,992,992,992,992,992,989,989,989,992,992,995,995,995,995,995,998,998,992,992,992,989,989,989,989,989,981,973,1804,1804,1804,1794,1794,1804,1804,1804,1804,1804,1813,1823,1823,1823,1823,1843,1843,1843,1843,1843,1843,1843,1843,1843,1843,1843,1833,1833,1833,0,0,0,0,0,0,0,0,0,0,0,829,829,831,831,831,829,827,825,823,821,819,819,819,819,819,819,819,819,819,821,821,823,823,825,827,829,831,831,833,833,835,835,835,835,0,0,0,0,0,0,0,0,1586,1586,1579,1579,1572,1572,1564,1557,1557,1550,1550,1550,1550,1543,1543,1536,1529,1523,1523,1523,1516,1516,1509,1509,1503,1496,1489,1489,1489,1489,1483,1483,1477,1477,1470,1470,1470,1464,1464,1464,1452,1445,1445,1439,1439,1433,1433,1427,1421,1421,1415,1415,1410,1410,1410,1404,1398,1398,1392,1392,1387,1381,1381,1376,1376,1370,1370,1370,1365,1359,1359,1354,1354,1349,1349,1349,1343,1343,1338,1333,1333,1328,1328,1322,1317,1312,1312,1307,1307,1307,1307,1302,1292,1292,1292,1288,1288,1283,1283,1278,1278,1273,1268,1268,1264,1264,1259,1255,1255,1255,1250,1250,1250,1245,1245,1241,1236,1232,1232,1232,1232,1223,1223,1219,1219,1219,1214,1214,1214,1210,1206,1202,1197,1197,1193,1193,1193,1189,1185,1185,1181,1181,1181,1177,1169,1169,1165,1165,1161,1157,1157,1157,1153,1153,1153,1153,1149,1149,1149,1145,1141,1138,1134,1134,1134,1130,1130,1126,1123,1119,1119,1115,1115,1115,1112,1112,1108,1108,1108,1105,1101,1101,1097,1094,1094,1094,1090,1087,1087,1084,1080,1080,1080,1080,1077,1077,1073,1070,1070,1067,1063,1063,1063,1060,1060,1057,1054,1054,1050,1050,1047,1047,1044,1041,1041,1038,1038,1038,1038,1034,1034,1028,1028,1028,1028,1028,1025,1022,1022,1019,1016,1016,1013,1010,1007,1004,1004,1004,1004,1001,1001,1001,1001,998,992,992,989,989,987,984,984,984,981,981,981,978,975,973,970,970,0,0,0,0,0,0,0,0,0,0,0,0,0,0,0,0,0,0,0,0,0,0,0,0,0,0,0,0,0,0
0,0,0,0,0,0,0,0,0,0,0,0,0,0,0,0,2005,2005,2005,1993,1993,1993,1993,1970,1970,1959,1959,1959,1959,1959,1959,1959,1959,1959,1959,1959,1947,1947,1947,1947,1936,1926,1926,1926,1926,1926,1926,1926,1915,1915,1915,1915,1915,1915,1915,1904,1894,1883,1883,1883,1883,1883,1873,1873,1883,1873,1873,1873,1873,1873,1873,1873,1873,1873,1873,1863,1863,1863,1863,1853,1853,1853,1853,1853,1853,1843,1843,1843,1843,1843,1833,1833,1833,1833,1833,1833,1823,1823,1823,1823,1823,1823,1823,1813,1813,1813,1813,1804,1804,1804,1794,1794,1794,1794,1785,1785,1785,1785,1794,1794,1785,1785,1766,987,987,1766,1757,1757,1757,1757,1757,1757,1757,1757,1757,1748,1748,1748,1739,1731,1731,1731,1731,1731,1722,1722,1722,1713,1705,1705,1010,1007,1007,1010,1007,1007,1007,1007,1001,998,995,995,992,992,992,989,989,992,995,995,992,992,992,992,992,992,995,995,995,995,995,998,1004,998,992,992,1025,1022,989,989,987,987,987,987,989,989,989,998,995,989,989,989,989,989,987,978,978,987,987,987,987,987,989,989,989,989,995,995,995,995,989,989,987,984,981,978,975,975,975,975,975,975,975,981,981,984,987,987,987,989,989,989,989,989,987,987,987,987,987,987,987,984,984,998,1001,1001,1001,1001,998,989,989,989,987,984,981,981,981,973,1813,1804,1804,1794,1794,1804,1804,1794,1794,1804,1804,1823,1833,1833,1833,1843,1853,1853,1853,1853,1853,1843,1843,1843,1843,1843,1833,1833,1833,0,0,0,0,0,0,0,0,0,0,0,831,831,831,831,833,829,827,825,823,821,819,819,819,819,819,819,819,819,821,821,821,823,825,827,829,829,831,831,833,833,835,835,835,835,0,0,0,0,0,0,0,0,1586,1586,1579,1579,1572,1572,1564,1564,1557,1550,1550,1550,1550,1543,1543,1536,1529,1523,1523,1516,1516,1516,1509,1509,1503,1503,1496,1496,1489,1489,1483,1483,1477,1477,1470,1470,1470,1464,1464,1464,1452,1445,1445,1439,1439,1433,1433,1427,1427,1421,1421,1415,1415,1410,1410,1404,1398,1398,1392,1392,1387,1387,1381,1376,1376,1376,1370,1370,1365,1359,1359,1354,1354,1349,1349,1349,1343,1343,1338,1333,1333,1328,1328,1322,1317,1312,1312,1312,1307,1307,1307,1307,1297,1292,1292,1288,1288,1288,1283,1278,1278,1273,1273,1268,1268,1264,1259,1259,1255,1255,1250,1250,1250,1245,1245,1241,1236,1236,1232,1232,1232,1227,1223,1223,1219,1219,1214,1214,1214,1210,1202,1202,1197,1197,1193,1193,1189,1189,1185,1185,1185,1181,1181,1181,1169,1169,1169,1165,1161,1157,1157,1157,1153,1153,1153,1153,1149,1149,1149,1145,1141,1141,1138,1134,1134,1134,1130,1130,1123,1123,1119,1115,1115,1115,1112,1112,1108,1108,1108,1105,1105,1101,1097,1097,1094,1094,1090,1087,1087,1084,1084,1080,1080,1080,1077,1077,1073,1070,1067,1067,1063,1063,1063,1060,1060,1057,1057,1054,1054,1050,1050,1047,1047,1044,1041,1041,1038,1038,1038,1034,1034,1028,1028,1028,1028,1025,1025,1022,1022,1019,1016,1013,1013,1010,1007,1007,1004,1004,1004,1001,1001,1001,1001,998,992,992,989,989,987,984,984,984,981,981,981,978,975,973,970,970,0,0,0,0,0,0,0,0,0,0,0,0,0,0,0,0,0,0,0,0,0,0,0,0,0,0,0,0,0,0
0,0,0,0,0,0,0,0,0,0,0,0,0,0,0,0,2005,2005,2005,1993,1993,1993,1993,1970,1970,1970,1959,1959,1959,1959,1959,1959,1959,1959,1959,1959,1959,1959,1947,1947,1947,1926,1926,1926,1926,1926,1926,1926,1926,1926,1926,1915,1915,1915,1915,1904,1883,1883,1883,1883,1883,1883,1883,1883,1883,1883,1883,1873,1873,1873,1873,1873,1873,1873,1873,1873,1863,1863,1863,1863,1863,1863,1863,1853,1853,1853,1853,1843,1843,1843,1833,1833,1833,1833,1833,1833,1833,1823,1823,1823,1823,1823,1823,1823,1813,1813,1813,1804,1804,1804,1794,1794,1794,1794,1794,1794,1794,1794,1794,1794,987,987,984,984,987,987,1757,1757,1757,1757,992,992,989,989,987,984,984,981,981,981,1731,1731,1731,1731,1722,1722,1722,992,992,995,995,1007,1007,1007,1001,998,992,992,992,989,989,989,989,992,989,987,987,989,989,989,989,989,987,987,987,987,987,984,984,984,984,981,981,981,981,981,978,978,981,981,984,981,981,984,989,989,989,992,989,989,987,987,987,984,984,978,978,978,978,978,981,984,984,987,987,987,989,992,992,992,987,987,984,981,975,970,970,967,967,967,967,967,967,978,978,981,981,984,987,987,984,984,984,984,973,973,984,981,981,981,987,984,970,967,964,959,959,959,959,959,989,987,984,984,978,978,973,973,1813,1813,967,967,964,964,962,962,964,1804,1804,1823,1833,1843,1853,1863,1873,1873,1873,1873,1853,1853,1843,1843,1843,1843,1843,1843,0,0,0,0,0,0,0,0,0,0,0,0,831,831,831,831,833,829,827,825,823,821,821,819,819,819,819,819,819,819,821,821,823,825,825,827,829,831,831,831,833,833,835,835,835,835,0,0,0,0,0,0,0,1594,1594,1586,1579,1579,1579,1572,1572,1564,1557,1550,1550,1550,1550,1550,1543,1536,1529,1523,1523,1516,1516,1516,1509,1509,1503,1503,1496,1496,1489,1489,1489,1483,1483,1477,1477,1470,1470,1464,1464,1464,1452,1452,1445,1439,1439,1433,1433,1427,1427,1421,1421,1415,1415,1410,1404,1404,1398,1398,1392,1392,1387,1387,1381,1376,1376,1376,1370,1370,1365,1365,1359,1354,1354,1354,1349,1349,1349,1343,1338,1333,1333,1333,1328,1328,1317,1317,1312,1312,1312,1307,1307,1307,1302,1297,1292,1292,1288,1288,1288,1283,1278,1273,1273,1268,1268,1264,1259,1259,1255,1255,1255,1250,1250,1245,1245,1236,1236,1236,1232,1232,1232,1227,1223,1223,1219,1219,1214,1214,1210,1210,1202,1202,1197,1197,1193,1193,1189,1185,1185,1185,1185,1181,1181,1181,1177,1169,1169,1165,1161,1161,1157,1157,1153,1153,1153,1153,1149,1149,1149,1145,1141,1141,1138,1138,1134,1134,1134,1130,1126,1123,1119,1115,1115,1115,1112,1112,1108,1108,1108,1105,1105,1101,1097,1097,1094,1094,1090,1090,1087,1084,1084,1080,1080,1080,1080,1077,1073,1070,1067,1067,1063,1063,1063,1060,1060,1057,1057,1054,1054,1050,1050,1047,1047,1044,1041,1041,1038,1038,1038,1034,1034,1034,1031,1028,1028,1025,1025,1022,1022,1019,1016,1013,1013,1010,1007,1004,1004,1004,1004,1001,1001,1001,1001,998,992,992,989,989,987,987,984,984,981,981,981,978,978,975,973,973,0,0,0,0,0,0,0,0,0,0,0,0,0,0,0,0,0,0,0,0,0,0,0,0,0,0,0,0,0,0
0,0,0,0,0,0,0,0,0,0,0,0,0,0,0,0,2005,2005,2005,2005,2005,1993,1981,1970,1970,1970,1959,1959,1959,1959,1959,1959,1947,1947,1959,1959,1959,1959,1947,1947,1947,1926,1926,1926,1926,1926,1926,1926,1926,1926,1926,1915,1915,1915,1915,1904,1883,1883,1883,1883,1883,1883,1883,1883,1883,1883,1883,1883,1883,1873,1873,1873,1873,1873,1873,1873,1873,1873,1863,1863,1863,1863,1863,1853,1853,1853,1853,1853,1843,1843,1843,1833,1833,1833,1833,1833,1833,1833,1833,1833,1823,1823,1823,1823,1813,1813,1813,1804,1804,1804,1794,1794,1794,1794,1794,1794,989,984,984,987,987,987,984,984,987,987,1757,1757,984,989,989,987,987,984,984,984,981,981,981,981,981,981,978,973,1722,1722,1722,989,989,989,989,989,989,989,987,987,987,987,987,987,981,978,978,978,978,981,978,978,978,984,984,984,984,984,984,978,978,981,981,984,981,978,978,978,978,978,978,978,978,978,978,978,978,978,978,978,981,984,984,984,978,978,978,978,978,975,975,975,975,975,973,967,967,984,984,978,978,987,987,987,978,978,970,970,967,964,964,962,959,959,959,959,962,964,978,981,964,964,964,964,984,984,981,981,970,970,978,973,967,964,964,964,967,967,962,959,959,959,959,959,959,959,959,984,978,970,970,970,970,967,967,967,964,962,962,962,962,959,954,954,954,943,943,1883,1883,1873,1873,1873,1853,1853,1853,1843,1843,1843,1843,1843,0,0,0,0,0,0,0,0,0,0,0,0,833,833,833,833,835,829,829,827,825,821,821,821,819,819,819,819,821,821,821,823,823,825,827,829,829,831,831,833,835,835,835,835,835,0,0,0,0,0,0,0,0,1594,1594,1594,1586,1579,1579,1572,1572,1572,1564,1557,1557,1550,1550,1550,1543,1536,1529,1523,1523,1516,1516,1516,1516,1509,1503,1503,1503,1496,1496,1489,1489,1489,1483,1477,1477,1470,1470,1470,1464,1464,1452,1452,1445,1439,1439,1433,1433,1433,1427,1421,1421,1415,1415,1410,1404,1404,1398,1398,1398,1392,1392,1387,1387,1381,1376,1376,1370,1370,1370,1365,1359,1359,1354,1354,1354,1349,1349,1343,1338,1338,1333,1333,1328,1328,1322,1317,1312,1312,1312,1312,1307,1307,1302,1297,1297,1292,1288,1288,1288,1283,1278,1278,1273,1273,1268,1268,1264,1259,1259,1255,1255,1250,1250,1250,1245,1236,1236,1236,1236,1232,1232,1227,1227,1223,1219,1219,1214,1214,1210,1210,1202,1202,1197,1197,1193,1193,1189,1185,1185,1185,1185,1181,1181,1181,1177,1173,1169,1165,1165,1161,1161,1157,1157,1153,1153,1153,1149,1149,1149,1145,1145,1141,1138,1138,1134,1134,1134,1130,1126,1123,1119,1115,1115,1115,1112,1112,1108,1108,1108,1108,1105,1101,1101,1097,1094,1094,1090,1090,1090,1087,1084,1084,1080,1080,1080,1077,1073,1073,1070,1070,1067,1063,1063,1060,1060,1060,1057,1054,1054,1050,1050,1047,1047,1044,1041,1041,1038,1038,1038,1038,1034,1034,1034,1028,1028,1025,1025,1022,1022,1019,1016,1013,1013,1010,1007,1004,1004,1004,1004,1001,1001,1001,1001,998,992,992,992,989,989,987,987,984,984,981,981,978,978,975,973,973,0,0,0,0,0,0,0,0,0,0,0,0,0,0,0,0,0,0,0,0,0,0,0,0,0,0,0,0,0,0
0,0,0,0,0,0,0,0,0,0,0,0,0,0,0,0,2016,2016,2016,2005,2005,1993,1981,1970,1970,1970,1959,1959,1959,1959,1959,1959,1947,1947,1959,1959,1959,1959,1959,1959,1947,1936,1936,1936,1926,1926,1926,1926,1926,1926,1926,1926,1926,1915,1915,1904,1904,1915,1915,1894,1894,1894,1883,1883,1883,1883,1883,1883,1883,1873,1873,1873,1873,1873,1873,1873,1873,1873,1863,1863,1873,1863,1863,1853,1853,1853,1853,1853,1843,1843,1843,1843,1833,1833,1843,1833,1833,1833,1833,1833,1833,1833,1823,1823,1823,1813,1813,1804,1804,1804,1804,1794,1794,1794,1794,1794,984,981,981,981,978,978,981,981,984,984,984,984,984,987,987,984,984,984,984,984,981,981,981,978,978,978,978,973,978,984,984,984,987,987,984,984,984,984,984,978,978,981,987,984,978,975,970,970,970,973,975,973,970,967,967,967,967,970,967,967,970,970,973,973,975,978,978,978,978,978,978,975,975,978,975,975,973,973,973,975,970,967,967,967,967,967,967,967,967,970,970,970,970,970,970,967,967,967,967,967,964,962,959,959,967,964,964,964,964,962,962,959,956,956,956,956,959,959,959,956,956,956,956,956,962,959,959,964,964,964,973,970,964,962,956,956,956,956,959,956,956,956,956,956,956,956,956,956,967,967,967,967,964,964,967,967,967,962,962,962,956,956,946,946,943,943,943,935,935,933,1883,1883,1883,1853,1853,1853,1853,1853,1853,1853,0,0,0,0,0,0,0,0,0,0,0,0,835,833,833,833,835,829,829,827,825,823,821,821,821,819,819,821,821,821,821,823,825,825,827,829,829,831,831,833,835,835,835,835,837,0,0,0,0,0,0,0,0,1601,1594,1594,1586,1579,1579,1579,1572,1572,1564,1557,1557,1550,1550,1550,1543,1536,1536,1529,1523,1523,1516,1516,1516,1509,1509,1509,1503,1496,1496,1496,1489,1489,1483,1483,1477,1470,1470,1470,1464,1464,1458,1452,1445,1445,1439,1433,1433,1433,1427,1421,1421,1415,1415,1410,1410,1404,1398,1398,1398,1392,1392,1387,1387,1381,1376,1376,1376,1370,1370,1365,1365,1359,1354,1354,1354,1349,1349,1343,1338,1338,1333,1333,1328,1328,1322,1317,1317,1312,1312,1312,1312,1307,1307,1302,1297,1292,1292,1288,1288,1283,1283,1278,1278,1273,1268,1268,1264,1264,1259,1259,1255,1255,1250,1250,1250,1241,1236,1236,1236,1232,1232,1232,1227,1223,1219,1219,1214,1214,1210,1206,1202,1202,1197,1197,1193,1193,1189,1185,1185,1185,1185,1181,1181,1181,1177,1177,1169,1169,1165,1165,1161,1161,1161,1157,1153,1153,1153,1149,1149,1145,1145,1141,1138,1138,1134,1134,1134,1130,1126,1123,1119,1119,1115,1115,1112,1112,1108,1108,1108,1105,1105,1101,1101,1097,1097,1094,1090,1090,1090,1087,1084,1084,1084,1080,1080,1077,1077,1073,1070,1070,1067,1063,1063,1063,1060,1060,1057,1054,1054,1050,1050,1047,1047,1044,1041,1041,1038,1038,1038,1038,1034,1034,1034,1028,1028,1028,1025,1025,1022,1019,1016,1016,1013,1013,1010,1007,1007,1004,1004,1001,1001,998,998,998,992,992,992,989,989,987,987,987,984,984,981,978,978,978,975,975,0,0,0,0,0,0,0,0,0,0,0,0,0,0,0,0,0,0,0,0,0,0,0,0,0,0,0,0,0,0
0,0,0,0,0,0,0,0,0,0,0,0,0,0,0,0,2016,2016,2016,2005,2005,1993,1981,1970,1970,1970,1970,1970,1970,1959,1959,1959,1959,1959,1959,1959,1959,1959,1959,1959,1947,1936,1936,1936,1926,1926,1926,1926,1926,1926,1926,1926,1926,1915,1915,1904,1904,1904,1904,1894,1894,1894,1894,1894,1894,1894,1883,1883,1883,1883,1883,1873,1873,1873,1873,1863,1863,1863,1863,1863,1863,1863,1863,1863,1863,1863,1863,1853,1853,1843,1843,1843,1843,1843,1843,1833,1833,1833,973,967,967,967,1823,1823,1823,1823,1813,1813,1804,1804,1804,1804,1794,1794,975,975,975,975,978,978,973,973,973,975,975,975,984,981,981,981,981,981,981,978,978,975,975,975,978,975,975,973,973,973,978,978,978,981,984,984,984,978,978,975,973,970,967,967,967,967,967,967,967,964,964,967,967,967,959,959,962,964,964,964,962,962,964,967,970,970,967,967,973,973,975,973,970,970,975,975,975,973,973,970,970,970,970,967,967,967,967,964,962,962,964,964,964,964,964,964,964,964,962,962,962,956,956,956,954,954,948,948,956,956,954,954,956,956,956,956,954,954,956,954,954,951,951,951,948,948,948,954,954,962,962,962,964,959,959,956,956,954,954,954,954,954,954,954,954,954,954,954,948,948,951,967,967,967,964,964,964,962,962,959,956,956,951,948,943,943,943,935,935,935,935,933,933,933,935,935,1853,1853,1853,1863,1853,1853,0,0,0,0,0,0,0,0,0,0,0,0,837,835,835,835,835,833,829,827,825,823,823,821,821,821,821,821,821,821,823,825,825,827,827,829,831,831,831,833,835,835,837,837,837,0,0,0,0,0,0,0,0,1601,1601,1594,1586,1586,1579,1579,1572,1572,1564,1564,1557,1557,1550,1550,1543,1536,1536,1529,1523,1523,1516,1516,1516,1516,1509,1509,1503,1496,1496,1496,1489,1489,1489,1483,1483,1477,1470,1470,1464,1464,1458,1452,1445,1445,1439,1439,1439,1433,1427,1427,1421,1415,1415,1410,1410,1404,1404,1398,1398,1398,1392,1392,1387,1381,1381,1376,1376,1370,1370,1365,1365,1359,1354,1354,1354,1349,1349,1343,1343,1338,1333,1333,1328,1328,1322,1322,1317,1317,1312,1312,1312,1307,1307,1302,1297,1292,1292,1288,1288,1288,1283,1283,1278,1278,1273,1268,1264,1264,1259,1259,1255,1255,1255,1250,1250,1241,1236,1236,1236,1232,1232,1232,1227,1227,1219,1219,1214,1214,1210,1206,1202,1202,1197,1197,1193,1193,1193,1189,1185,1185,1185,1185,1181,1181,1181,1177,1169,1169,1165,1165,1161,1161,1161,1157,1153,1153,1153,1153,1149,1149,1145,1141,1138,1138,1134,1134,1134,1130,1126,1123,1123,1119,1119,1115,1115,1112,1112,1108,1108,1105,1105,1101,1101,1097,1097,1094,1090,1090,1090,1087,1087,1084,1080,1080,1080,1077,1077,1073,1073,1070,1067,1067,1063,1063,1060,1060,1057,1054,1054,1050,1050,1050,1047,1044,1044,1041,1041,1038,1038,1038,1038,1038,1034,1031,1028,1028,1025,1025,1025,1022,1016,1016,1013,1013,1010,1010,1007,1007,1004,1001,1001,998,998,998,998,992,992,992,989,989,987,987,984,984,981,978,978,978,975,975,0,0,0,0,0,0,0,0,0,0,0,0,0,0,0,0,0,0,0,0,0,0,0,0,0,0,0,0,0,0
0,0,0,0,0,0,0,0,0,0,0,0,0,0,0,0,2016,2016,2016,2016,2005,1993,1981,1981,1981,1970,1970,1970,1970,1959,1959,1959,1959,1959,1959,1959,1959,1959,1959,1959,1947,1936,1936,1936,1926,1926,1926,1926,1926,1926,1926,1926,1926,1915,1915,1904,1904,1904,1904,1894,1894,1894,1894,1894,1894,1894,1894,1883,1883,1883,1883,1883,1883,1873,1873,1863,1863,1863,1863,1863,1863,1863,1863,967,967,967,964,964,964,1853,1853,1843,1843,1843,1843,1843,967,967,967,964,964,964,964,967,967,967,967,967,973,973,975,975,975,975,973,973,973,973,973,973,970,970,973,975,975,956,956,978,978,978,978,975,975,975,973,973,975,975,975,973,973,970,970,967,967,967,967,967,981,981,978,975,973,970,970,967,967,967,962,962,964,962,962,959,959,962,964,962,956,956,956,956,956,962,962,962,964,964,967,967,962,962,967,970,962,962,970,970,973,973,973,973,970,967,967,967,967,967,964,962,959,959,959,959,959,962,956,956,956,962,962,962,962,946,946,948,948,948,948,946,946,946,951,948,948,954,954,954,954,954,951,951,943,943,943,946,946,946,943,940,940,954,954,962,962,962,959,956,956,954,954,954,951,951,951,951,951,951,954,954,951,946,943,943,940,935,933,933,940,962,962,959,959,956,951,951,951,948,943,940,938,933,933,930,930,930,930,930,933,933,1873,1863,1863,1863,918,920,0,0,0,0,0,0,0,0,0,0,0,0,837,835,835,835,835,833,829,827,827,823,823,821,821,821,821,821,821,821,823,825,827,827,829,829,831,831,833,835,835,837,837,837,837,0,0,0,0,0,0,0,0,1601,1601,1601,1594,1586,1579,1579,1572,1572,1572,1564,1557,1557,1550,1550,1543,1543,1536,1529,1523,1523,1523,1516,1516,1516,1516,1509,1509,1503,1496,1496,1496,1489,1489,1483,1483,1477,1470,1470,1464,1464,1458,1452,1452,1445,1445,1439,1439,1433,1433,1427,1421,1415,1415,1415,1410,1410,1404,1404,1398,1398,1392,1392,1387,1387,1381,1376,1376,1376,1370,1365,1365,1359,1359,1354,1354,1349,1349,1343,1343,1338,1338,1333,1333,1328,1328,1322,1317,1317,1312,1312,1312,1307,1307,1302,1297,1297,1292,1292,1288,1288,1283,1283,1283,1278,1273,1268,1264,1264,1264,1259,1259,1255,1255,1250,1250,1241,1241,1236,1236,1232,1232,1232,1227,1227,1223,1219,1219,1214,1210,1210,1206,1206,1202,1202,1197,1197,1193,1189,1185,1185,1185,1185,1181,1181,1181,1177,1173,1169,1169,1165,1165,1161,1161,1157,1153,1153,1149,1149,1149,1149,1145,1145,1141,1138,1138,1134,1134,1134,1130,1126,1123,1119,1119,1119,1115,1112,1112,1108,1108,1108,1105,1105,1101,1101,1097,1094,1094,1090,1090,1090,1087,1084,1080,1080,1080,1077,1077,1073,1073,1070,1067,1067,1063,1063,1060,1060,1057,1057,1054,1050,1050,1050,1047,1047,1044,1041,1041,1041,1038,1038,1038,1038,1034,1031,1028,1028,1025,1025,1025,1022,1019,1016,1016,1013,1013,1010,1010,1007,1004,1004,1001,998,998,998,998,992,992,992,992,989,989,987,984,984,981,981,978,978,978,978,0,0,0,0,0,0,0,0,0,0,0,0,0,0,0,0,0,0,0,0,0,0,0,0,0,0,0,0,0,0
0,0,0,0,0,0,0,0,0,0,0,0,0,0,0,0,2028,2016,2016,2016,2016,2005,1981,1981,1981,1970,1970,1970,1970,1970,1959,1959,1959,1959,1959,1970,1970,1970,1959,1959,1947,1936,1936,1936,1936,1936,1926,1926,1926,1926,1926,1926,1926,1915,1915,1904,1904,1915,1915,1904,1904,1894,1894,1894,1894,1894,1894,1894,1883,1883,1883,1883,1883,1873,1873,1863,1863,1863,1863,1863,1863,1863,964,964,967,967,964,964,962,962,964,1863,1863,959,962,962,962,962,962,962,962,962,964,964,962,962,964,962,962,962,962,973,973,975,973,973,973,973,964,962,962,959,956,956,956,956,956,956,959,962,962,973,973,964,962,962,970,967,967,964,964,962,962,962,962,962,962,967,978,978,978,975,973,970,967,967,964,964,959,959,962,962,962,959,959,962,959,956,954,954,954,951,951,948,948,962,962,964,964,964,956,946,938,938,938,935,935,935,935,935,973,973,967,964,964,967,964,964,964,956,954,954,954,954,954,954,954,954,948,948,951,951,954,946,946,948,946,946,940,938,938,938,943,943,943,946,948,948,948,951,946,940,938,938,938,940,940,940,938,938,935,933,928,925,925,925,925,928,930,930,935,935,935,946,946,946,946,946,948,951,948,938,938,938,935,935,933,933,935,935,962,959,959,956,946,925,925,943,943,940,938,933,933,930,930,928,928,930,933,933,930,918,915,915,918,920,920,0,0,0,0,0,0,0,0,0,0,0,837,835,835,835,835,833,829,829,827,825,823,823,821,821,821,821,823,823,825,827,827,829,829,831,831,833,833,835,835,837,837,839,839,0,0,0,0,0,0,0,0,1601,1601,1601,1594,1586,1586,1579,1579,1579,1572,1564,1564,1557,1550,1550,1543,1543,1536,1536,1529,1523,1523,1523,1516,1516,1516,1509,1509,1503,1496,1496,1496,1489,1489,1483,1483,1477,1470,1470,1470,1464,1464,1458,1452,1452,1445,1439,1439,1439,1433,1427,1427,1415,1415,1415,1410,1410,1410,1404,1398,1398,1398,1392,1392,1387,1381,1381,1376,1376,1370,1370,1365,1365,1359,1354,1354,1354,1349,1349,1343,1338,1338,1333,1333,1328,1328,1322,1317,1317,1317,1312,1312,1307,1307,1302,1297,1297,1292,1292,1292,1288,1288,1288,1283,1283,1273,1268,1268,1268,1264,1259,1259,1255,1255,1250,1250,1245,1241,1236,1236,1236,1236,1232,1227,1227,1227,1223,1219,1214,1210,1210,1206,1206,1202,1202,1197,1197,1193,1193,1189,1189,1189,1185,1181,1181,1181,1177,1173,1169,1169,1165,1165,1165,1161,1161,1153,1153,1149,1149,1149,1145,1145,1141,1141,1138,1138,1138,1134,1134,1130,1126,1123,1123,1119,1119,1115,1112,1112,1108,1108,1108,1105,1105,1105,1101,1097,1094,1094,1090,1090,1090,1087,1087,1080,1080,1080,1080,1077,1073,1073,1070,1067,1067,1063,1063,1060,1060,1057,1057,1054,1054,1054,1050,1050,1047,1047,1044,1041,1041,1038,1038,1038,1034,1034,1031,1028,1028,1025,1025,1022,1022,1019,1016,1016,1013,1013,1010,1010,1007,1004,1004,1001,1001,1001,998,998,995,992,992,992,989,989,987,984,984,984,981,981,978,978,978,0,0,0,0,0,0,0,0,0,0,0,0,0,0,0,0,0,0,0,0,0,0,0,0,0,0,0,0,0,0
0,0,0,0,0,0,0,0,0,0,0,0,0,0,0,0,2028,2028,2016,2016,2016,2005,2005,2005,1993,1981,1970,1970,1970,1970,1970,1970,1959,1959,1970,1959,1959,1959,1959,1959,1947,1936,1936,1936,1936,1936,1936,1936,1936,1936,1926,1926,1926,1915,1915,1915,1915,1915,1915,1915,1915,1904,1894,1894,1894,1894,1894,1894,1883,1883,1883,1883,1883,1873,1863,1863,956,956,1863,1863,959,956,956,959,964,964,962,962,962,956,956,954,954,959,959,956,956,956,959,962,959,959,962,962,962,962,962,959,959,959,959,959,954,951,946,943,943,940,940,946,954,956,956,954,954,954,954,954,956,956,956,959,959,954,954,954,954,954,959,956,956,956,956,956,946,946,946,946,946,946,948,962,951,951,967,967,964,964,956,956,959,959,959,956,956,959,956,956,951,951,946,946,946,943,943,954,948,948,948,948,946,940,938,938,938,935,935,935,933,933,935,928,928,933,933,967,964,964,964,948,948,948,948,948,948,948,948,943,943,938,938,943,946,943,940,940,943,938,935,935,935,935,940,938,938,940,943,943,940,935,935,935,935,935,935,938,938,938,935,935,930,925,925,925,925,925,925,925,928,928,928,930,933,935,935,935,938,938,938,938,933,933,933,933,935,933,933,933,925,923,923,923,923,925,925,923,923,938,940,938,935,933,933,930,930,928,928,928,928,918,915,915,913,913,915,918,918,918,918,915,915,0,0,0,0,0,0,843,839,837,835,835,837,835,833,829,827,825,823,823,823,823,821,821,823,823,825,827,827,829,831,831,831,833,835,835,837,837,837,839,839,0,0,0,0,0,0,0,1609,1609,1601,1601,1594,1594,1586,1579,1579,1579,1572,1572,1564,1557,1550,1550,1543,1543,1543,1536,1529,1523,1523,1523,1516,1516,1516,1516,1516,1509,1503,1503,1496,1496,1489,1489,1483,1477,1477,1470,1470,1464,1464,1458,1458,1452,1445,1445,1445,1439,1439,1433,1427,1421,1415,1415,1415,1410,1410,1404,1398,1398,1398,1392,1392,1387,1381,1381,1376,1376,1370,1370,1370,1365,1359,1359,1354,1354,1349,1349,1343,1338,1338,1333,1333,1328,1328,1328,1322,1322,1317,1317,1312,1307,1307,1302,1297,1297,1292,1292,1292,1288,1288,1288,1288,1283,1273,1273,1268,1268,1264,1264,1259,1255,1255,1255,1250,1250,1241,1236,1236,1236,1236,1232,1232,1232,1227,1223,1219,1219,1210,1210,1210,1206,1206,1202,1202,1197,1197,1193,1189,1189,1189,1185,1185,1181,1181,1177,1177,1173,1169,1169,1165,1165,1161,1161,1157,1153,1153,1149,1149,1145,1145,1141,1141,1138,1138,1138,1134,1134,1130,1130,1130,1123,1119,1119,1115,1112,1112,1112,1108,1108,1105,1105,1105,1101,1097,1094,1094,1094,1090,1090,1090,1087,1084,1080,1080,1080,1077,1077,1073,1073,1067,1067,1063,1063,1063,1060,1057,1057,1054,1054,1054,1050,1050,1050,1047,1044,1044,1041,1038,1038,1038,1034,1034,1031,1028,1028,1028,1025,1022,1022,1022,1019,1016,1016,1013,1013,1010,1007,1007,1004,1001,1001,1001,1001,998,998,995,992,992,989,989,987,984,984,984,981,981,978,978,978,0,0,0,0,0,0,0,0,0,0,0,0,0,0,0,0,0,0,0,0,0,0,0,0,0,0,0,0,0,0
0,0,0,0,0,0,0,0,0,0,0,0,0,0,0,0,2028,2028,2028,2028,2016,2016,2016,2005,2005,1981,1981,1981,1981,1970,1970,1970,1970,1970,1970,1959,1959,1959,1959,1959,1947,1936,1936,1936,1936,1936,1936,1936,1936,1936,1926,1926,1926,1915,1915,1915,1915,1915,1915,1915,1915,1904,1904,1904,1904,1904,1894,1894,1883,1883,1883,1883,1883,1863,954,954,954,954,954,954,954,956,956,956,959,959,956,954,954,954,954,954,954,956,956,954,954,954,956,956,956,956,959,959,959,959,959,959,959,959,956,956,954,951,946,943,943,940,940,946,954,954,954,951,951,954,951,951,954,954,954,954,954,951,948,948,948,948,954,951,948,948,948,948,946,946,946,946,946,946,946,946,946,946,962,967,964,956,954,954,954,954,954,910,910,956,906,906,948,946,943,940,940,938,938,946,943,943,946,946,946,940,938,938,938,935,935,933,933,933,930,928,928,928,928,928,933,935,933,933,938,938,938,933,933,925,925,925,933,933,935,935,935,935,933,933,935,935,930,930,930,930,930,928,928,930,943,933,930,928,928,935,935,935,935,935,935,935,935,933,925,925,923,923,923,923,923,923,923,923,925,928,930,930,930,930,933,928,925,925,930,930,930,930,930,933,930,925,925,923,923,923,923,925,925,923,923,933,933,925,925,925,933,928,928,925,923,918,918,915,913,913,913,913,913,915,915,918,918,915,915,0,0,0,0,0,0,843,839,837,835,835,837,835,829,829,827,827,825,823,823,823,823,823,823,825,827,827,829,829,831,831,833,833,835,837,837,837,839,839,0,0,0,0,0,0,0,0,1609,1609,1609,1601,1601,1594,1586,1586,1579,1579,1572,1572,1564,1564,1557,1550,1543,1543,1543,1536,1536,1529,1523,1523,1523,1523,1516,1516,1516,1509,1503,1503,1496,1496,1489,1489,1489,1483,1477,1470,1470,1464,1464,1458,1458,1452,1452,1445,1445,1439,1439,1433,1427,1427,1415,1415,1415,1410,1410,1404,1398,1398,1398,1392,1392,1387,1387,1381,1376,1376,1376,1370,1370,1365,1365,1359,1354,1354,1349,1349,1343,1343,1338,1333,1333,1328,1328,1328,1322,1322,1317,1312,1312,1307,1307,1302,1297,1297,1297,1292,1292,1288,1288,1288,1283,1278,1273,1273,1268,1268,1264,1264,1259,1255,1255,1255,1255,1250,1250,1241,1236,1236,1236,1232,1232,1232,1227,1223,1219,1219,1214,1214,1210,1210,1206,1202,1202,1202,1197,1197,1193,1189,1189,1185,1185,1181,1181,1177,1177,1173,1169,1169,1165,1165,1165,1165,1161,1153,1153,1149,1149,1149,1145,1145,1141,1138,1138,1138,1134,1134,1130,1130,1130,1123,1123,1119,1119,1115,1115,1112,1112,1108,1105,1105,1105,1105,1101,1094,1094,1094,1090,1090,1090,1087,1084,1080,1080,1080,1080,1077,1077,1073,1070,1067,1067,1063,1063,1060,1060,1057,1054,1054,1054,1054,1050,1050,1047,1044,1044,1041,1041,1038,1038,1038,1034,1034,1031,1028,1028,1025,1025,1022,1022,1019,1016,1016,1013,1013,1010,1010,1007,1007,1004,1001,1001,1001,998,995,995,992,992,992,989,989,987,984,984,981,981,978,978,978,0,0,0,0,0,0,0,0,0,0,0,0,0,0,0,0,0,0,0,0,0,0,0,0,0,0,0,0,0,0
0,0,0,0,0,0,0,0,0,0,0,0,0,0,0,0,2016,2016,2016,2028,2028,2016,2016,2005,2005,1993,1993,1981,1981,1981,1970,1970,1970,1970,1970,1959,1959,1959,1959,1959,1947,1947,1947,1947,1947,1947,1936,1936,1936,1936,1936,1926,1926,1915,1915,1915,1915,1915,1915,1904,1904,1904,1904,1904,1904,1904,1873,1873,940,940,943,943,1883,946,946,951,951,954,954,954,954,954,954,954,956,956,956,954,954,954,954,954,954,956,954,954,954,954,954,956,954,954,954,956,956,956,956,956,956,956,956,956,951,951,946,946,943,940,940,943,943,948,948,948,948,951,948,948,948,951,951,954,954,951,946,946,943,943,946,946,946,946,946,946,943,940,940,940,943,943,943,943,943,943,962,967,964,956,946,946,946,954,954,910,908,908,906,906,946,940,938,938,938,935,935,933,933,935,943,943,943,938,938,938,935,933,933,930,930,928,925,925,925,925,928,928,928,928,928,928,928,925,925,928,925,925,923,923,928,928,928,935,933,933,933,933,933,933,923,923,925,928,928,925,925,928,928,928,925,925,925,925,925,933,930,930,930,930,930,928,923,920,920,923,923,920,920,920,923,923,925,925,923,923,925,925,913,913,913,920,920,920,920,925,925,928,928,925,925,923,923,923,923,923,918,915,915,915,915,920,910,910,923,923,923,923,915,915,915,913,913,913,910,910,913,913,913,915,915,913,913,896,896,0,0,0,0,839,839,837,835,835,837,835,829,829,827,827,825,825,825,825,823,823,825,825,827,827,829,831,831,833,833,835,837,837,839,839,839,841,0,0,0,0,0,0,0,0,1609,1609,1609,1601,1601,1594,1594,1586,1579,1579,1572,1572,1572,1564,1557,1550,1543,1543,1543,1543,1536,1529,1529,1523,1523,1523,1516,1516,1516,1509,1509,1503,1496,1496,1496,1489,1489,1483,1483,1470,1470,1464,1464,1464,1458,1458,1452,1445,1445,1439,1439,1433,1433,1427,1421,1415,1415,1415,1410,1404,1404,1398,1398,1398,1392,1392,1387,1381,1381,1376,1376,1370,1370,1370,1365,1359,1354,1354,1349,1349,1343,1343,1338,1338,1333,1328,1328,1328,1322,1322,1317,1312,1312,1307,1307,1302,1302,1302,1297,1297,1292,1292,1288,1288,1283,1278,1273,1273,1268,1268,1264,1264,1259,1255,1255,1255,1255,1250,1250,1241,1241,1236,1236,1236,1232,1232,1227,1227,1223,1219,1214,1214,1214,1210,1206,1206,1202,1202,1197,1197,1193,1193,1189,1189,1185,1181,1181,1181,1177,1173,1169,1169,1169,1165,1165,1165,1161,1157,1153,1153,1149,1149,1145,1145,1141,1141,1138,1138,1134,1134,1130,1130,1130,1123,1123,1119,1119,1115,1115,1112,1112,1112,1108,1108,1108,1105,1101,1094,1094,1094,1090,1090,1090,1087,1084,1084,1080,1080,1080,1077,1077,1073,1070,1067,1067,1063,1063,1063,1060,1057,1054,1054,1054,1054,1050,1050,1047,1044,1044,1044,1041,1041,1038,1038,1034,1034,1031,1028,1028,1025,1025,1022,1022,1019,1016,1016,1016,1013,1013,1010,1010,1007,1004,1004,1001,1001,998,995,995,992,992,992,989,989,987,987,984,981,981,978,978,981,0,0,0,0,0,0,0,0,0,0,0,0,0,0,0,0,0,0,0,0,0,0,0,0,0,0,0,0,0,0
0,0,0,0,0,0,0,0,0,0,0,0,0,0,0,0,2016,2016,2016,2028,2028,2016,2016,2005,2005,2005,1993,1993,1993,1993,1993,1981,1981,1981,1981,1970,1970,1970,1970,1970,1959,1959,1947,1947,1947,1947,1936,1936,1936,1936,1936,1926,1926,1915,1915,1915,1915,1915,1915,1904,1904,1904,1904,933,933,935,935,935,935,925,925,938,943,943,946,951,951,951,951,954,954,954,951,951,954,954,954,946,946,948,948,948,948,954,951,951,951,951,954,954,954,954,954,954,954,954,954,951,951,954,951,951,948,948,946,943,943,940,940,940,940,943,943,943,940,938,938,938,938,938,935,935,935,940,940,940,940,940,946,946,935,935,940,943,940,938,938,938,940,940,940,940,940,940,970,970,967,967,946,925,925,925,910,910,908,908,906,906,940,935,933,933,933,928,928,925,925,925,925,928,930,933,933,933,933,930,923,923,923,925,925,923,923,925,925,925,925,925,928,925,925,925,925,925,925,925,923,923,925,923,923,933,933,933,933,933,933,933,923,923,925,928,928,925,925,925,923,923,923,923,923,923,923,923,930,930,925,925,928,925,918,918,918,918,918,918,915,915,918,915,915,918,915,915,915,910,908,908,906,906,906,906,906,913,913,915,915,923,918,918,918,915,908,908,908,908,906,906,903,903,906,906,923,923,923,920,915,915,915,913,913,913,910,910,910,910,910,910,913,901,898,896,896,896,896,896,833,833,833,835,835,835,837,835,831,831,827,827,825,825,825,825,825,827,827,829,829,829,829,831,833,833,835,835,837,837,839,839,839,841,0,0,0,0,0,0,0,0,1609,1609,1609,1601,1601,1594,1594,1586,1579,1579,1572,1572,1572,1564,1557,1550,1550,1550,1543,1543,1536,1536,1529,1529,1523,1523,1523,1516,1516,1509,1509,1503,1496,1496,1496,1489,1489,1483,1483,1470,1470,1464,1464,1464,1458,1458,1458,1452,1452,1445,1439,1433,1433,1427,1421,1421,1415,1415,1415,1410,1404,1404,1398,1398,1392,1392,1387,1381,1381,1376,1376,1370,1370,1370,1365,1359,1359,1354,1349,1349,1349,1343,1343,1338,1333,1333,1328,1328,1328,1322,1322,1312,1312,1307,1307,1307,1302,1302,1297,1297,1297,1292,1288,1288,1288,1278,1273,1273,1268,1268,1264,1264,1259,1259,1259,1255,1255,1250,1250,1245,1241,1241,1236,1236,1232,1232,1232,1227,1223,1219,1219,1214,1214,1214,1210,1206,1206,1202,1202,1197,1197,1193,1189,1189,1185,1181,1181,1181,1177,1173,1173,1169,1169,1165,1165,1165,1161,1157,1153,1153,1149,1149,1149,1145,1145,1141,1138,1138,1134,1134,1134,1130,1130,1126,1123,1119,1119,1115,1115,1115,1112,1112,1108,1108,1105,1105,1101,1094,1094,1094,1090,1090,1090,1090,1087,1084,1084,1080,1080,1077,1077,1073,1070,1067,1067,1067,1063,1063,1060,1060,1057,1054,1054,1054,1054,1050,1047,1044,1044,1044,1041,1041,1038,1038,1034,1034,1031,1031,1028,1025,1025,1025,1022,1022,1016,1016,1016,1016,1013,1013,1013,1010,1007,1004,1004,1001,1001,998,995,992,992,992,992,989,989,987,984,981,981,981,981,981,0,0,0,0,0,0,0,0,0,0,0,0,0,0,0,0,0,0,0,0,0,0,0,0,0,0,0,0,0,0
