0,0,0,0,0,0,0,0,0,1415,1415,1415,1410,1410,1410,1410,1410,1410,1410,1410,1410,1410,1410,1410,1410,1410,1410,1410,1404,1398,1398,1398,1410,1410,1410,1410,1410,1410,1410,1404,1404,1404,1410,1410,1410,1410,1410,1410,1410,1410,1410,1410,1404,1398,1398,1404,1398,1398,1392,1392,1392,1392,1392,1392,1398,1398,1398,1392,1392,1392,1392,1392,1392,1392,1392,1392,1392,1392,1387,1387,1387,1387,1387,1387,1381,1376,1376,1073,1073,1073,1077,1077,1077,1077,1077,1077,1077,1080,1080,1084,1084,1087,1087,1087,1087,1090,1090,1090,1097,1101,1105,1112,1112,1112,1112,1112,1112,1112,1108,1108,0,0,0,0,0,0,0,0,0,0,0,738,736,736,736,736,736,738,739,739,741,742,742,744,744,746,746,747,747,747,749,749,752,752,752,752,752,0,0,0,0,0,0,1149,1149,1354,1354,1354,1354,1349,1349,1354,1354,1354,1354,1354,1359,1359,1359,1359,1359,1359,1359,1354,1354,1354,1354,1354,1349,1349,1349,1349,1349,1349,1349,1349,1343,1343,1343,1343,1338,1338,1134,1134,1130,1130,1126,1119,1115,1112,1108,1105,1105,1101,1097,1094,1094,1090,1090,1087,1087,1087,1087,1087,1087,1084,1084,1084,1084,1349,1338,1338,1338,1333,1333,1328,1328,1328,1328,1328,1328,1328,1328,1328,1328,1328,1328,1328,1328,1328,1328,1328,1328,1328,1328,1328,1328,1328,1328,1328,1328,1322,1322,1322,1317,1317,1317,1317,1317,1317,1322,1322,1322,1322,1322,1322,1322,1322,1317,1317,1317,1312,1312,1312,1312,1312,1312,1312,1312,1312,1312,1312,1312,1312,1307,1307,1307,1307,1307,1307,1307,1307,1307,1307,1307,1307,1307,1302,1302,1302,1302,1307,1312,1307,1307,1307,1307,1307,1307,1307,1307,1302,1302,1302,1302,1297,1297,1292,1292,1292,1288,1288,1044,1044,1044,1041,1041,1041,1041,1038,1038,1031,1028,1028,1028,1028,1028,1031,1034,1034,1038,1038,1041,1041,1041,1041,1041,1041,1041,1292,1292,1292,1288,1283,1283,1288,1283,1283,1283,1283,1283,1283,1278,1278,1278,1278,1278,1278,1278,1278,1278,1278,1278,1278,1278,1273,1273,1273,1273,1273,1273,1273,1273,1273,1273,1273,1273,1273,1273,1273,1273,1273,1268,1268,1268,1268,1268,1268,1268,1268,1268,1268,1264,1264,1264,1264,1264,1264,1259,1259,1259,1259,1255,1255,1259,1259,1259,1259,1259,1259,1259,1259,1259,1259,1259,1259,1255,1255,1255,1255,1255,1255,1255,1255,1250,1250,1255,1250,1250,1250,1250,1250,1250,1250,1250,1250,1250,1245,1245,1245,1245,1245,1245,1241,1241,1241,1241,1241,1241,1241,1241,1236,1236,1236,1236,1236,1236,1236,1236,1236,1236,1236,1236,1236,1236,1236,1236,1236,1236,1236,1236,1236,1236,1236,1232,1232,1232,1232,1232,1232,1232,1232,1227,1227,1227,1227,1227,1227,1223,1223,1223,1223,1223,1223,1219,1219,1219,1219,1214,1214,1214,1214,1214,1214,1214,1214,1214,1214,1214,1214,1214,1214,1214,1214,1214,1214,1214,1214,1214,1214,1214,1210,1210,1210,1210,1210,1210,1206,1206,1206,1206,1206,1206,1206,1202,1202,1202,1202,1202,1202,1202,1202,1202,1202,1202,1197,1197,1197,1193,1193,1193,1193,1193,1193,1193,1007,1007,1004,1001,998,998,992,989,989,989,987,984,981,978,978,975,973,970,970,970,970,800,800,800,798,798,798,798,0,0,0,0,0,0,0,0,0,0,0,0,0,0,0,0,0,0,0,0,0,0,0,0,0,0,0,0,0,0,0,0,0,0,0,0,0
0,0,0,0,0,0,0,0,0,1415,1410,1410,1410,1410,1410,1410,1410,1410,1410,1410,1410,1410,1410,1410,1410,1404,1404,1404,1404,1398,1398,1398,1398,1398,1398,1392,1392,1398,1404,1398,1398,1398,1398,1398,1398,1398,1398,1398,1398,1398,1398,1404,1398,1398,1398,1398,1398,1392,1392,1392,1392,1392,1387,1387,1392,1392,1392,1392,1392,1392,1392,1392,1392,1387,1387,1387,1387,1387,1387,1387,1387,1387,1381,1381,1376,1370,1365,1359,1359,1077,1077,1077,1077,1077,1077,1080,1080,1080,1080,1084,1084,1087,1087,1087,1090,1090,1090,1094,1097,1101,1105,1108,1108,1112,1112,1112,1112,1112,1112,0,0,0,0,0,0,0,0,0,0,0,0,741,738,736,736,736,736,738,739,739,741,742,742,744,744,746,746,747,747,747,749,750,750,752,752,752,752,0,0,0,0,0,0,0,0,1349,1349,1349,1349,1349,1349,1349,1349,1349,1349,1349,1349,1349,1354,1354,1354,1354,1349,1349,1349,1349,1343,1343,1343,1343,1343,1343,1343,1343,1343,1343,1343,1343,1343,1343,1338,1333,1333,1134,1134,1130,1123,1119,1115,1112,1108,1105,1105,1101,1097,1094,1090,1090,1087,1087,1087,1087,1084,1084,1084,1080,1080,1080,1080,1080,1080,1338,1333,1328,1328,1328,1328,1328,1328,1322,1322,1322,1322,1322,1322,1322,1322,1328,1328,1328,1328,1328,1328,1328,1322,1322,1328,1328,1328,1322,1322,1317,1317,1312,1312,1312,1312,1312,1317,1317,1317,1317,1317,1317,1317,1317,1317,1317,1312,1312,1307,1307,1307,1307,1307,1307,1307,1307,1307,1307,1307,1307,1307,1307,1307,1302,1302,1302,1302,1302,1302,1302,1302,1302,1302,1302,1302,1302,1302,1302,1302,1307,1307,1307,1307,1307,1302,1302,1307,1302,1302,1302,1302,1302,1302,1297,1297,1292,1292,1292,1288,1288,1044,1044,1044,1044,1041,1041,1041,1038,1038,1034,1031,1028,1028,1028,1031,1031,1034,1038,1038,1041,1041,1041,1041,1044,1044,1044,1047,1292,1292,1288,1283,1283,1278,1278,1278,1278,1278,1278,1278,1278,1273,1273,1273,1273,1273,1273,1273,1273,1273,1273,1273,1273,1273,1273,1268,1268,1268,1268,1268,1268,1268,1268,1268,1268,1273,1273,1273,1268,1268,1268,1268,1268,1268,1268,1268,1264,1264,1264,1264,1259,1259,1259,1259,1259,1259,1259,1255,1255,1255,1255,1255,1255,1255,1255,1255,1255,1255,1255,1255,1255,1255,1255,1255,1255,1255,1250,1250,1250,1250,1250,1250,1250,1250,1250,1250,1250,1250,1250,1250,1250,1250,1245,1245,1245,1245,1245,1245,1245,1245,1241,1241,1241,1241,1236,1236,1236,1236,1236,1236,1236,1236,1236,1236,1236,1232,1232,1232,1232,1232,1232,1232,1232,1232,1232,1232,1232,1232,1232,1232,1227,1227,1232,1232,1232,1232,1232,1232,1227,1227,1227,1227,1227,1227,1227,1227,1223,1223,1223,1223,1223,1219,1219,1214,1214,1214,1214,1214,1214,1210,1210,1210,1210,1210,1210,1210,1210,1214,1214,1214,1214,1214,1214,1214,1214,1210,1210,1210,1206,1206,1206,1206,1206,1206,1202,1202,1206,1206,1206,1206,1206,1206,1202,1202,1202,1202,1202,1202,1202,1197,1197,1197,1197,1197,1197,1197,1193,1193,1193,1193,1193,1193,1010,1010,1007,1007,1004,1004,1001,998,995,992,989,989,989,987,984,978,978,975,975,970,970,970,970,802,800,800,798,798,798,798,0,0,0,0,0,0,0,0,0,0,0,0,0,0,0,0,0,0,0,0,0,0,0,0,0,0,0,0,0,0,0,0,0,0,0,0,0
0,0,0,0,0,0,0,0,0,1410,1410,1404,1404,1404,1404,1404,1404,1404,1404,1404,1404,1410,1410,1404,1404,1398,1398,1398,1398,1392,1392,1392,1392,1392,1392,1392,1392,1392,1392,1392,1392,1392,1392,1392,1392,1392,1398,1398,1392,1392,1398,1398,1392,1392,1392,1392,1392,1392,1387,1387,1387,1387,1387,1387,1387,1387,1392,1392,1392,1387,1387,1387,1387,1387,1387,1387,1387,1387,1381,1381,1381,1381,1376,1370,1370,1370,1365,1359,1359,1077,1077,1077,1077,1077,1077,1080,1080,1080,1084,1084,1087,1087,1087,1090,1090,1090,1094,1094,1097,1101,1105,1108,1108,1108,1112,1112,1112,1112,1112,0,0,0,0,0,0,0,0,0,0,0,0,0,738,738,736,736,736,738,739,739,741,742,742,744,744,746,747,747,747,747,749,750,750,752,752,752,754,0,0,0,0,0,0,0,0,1343,1343,1349,1343,1343,1343,1343,1343,1343,1343,1343,1349,1349,1349,1343,1343,1349,1343,1343,1343,1343,1343,1338,1338,1338,1338,1338,1338,1338,1338,1338,1338,1338,1338,1338,1333,1328,1328,1328,1328,1328,1123,1119,1115,1112,1108,1108,1105,1101,1094,1094,1090,1087,1084,1084,1084,1084,1080,1080,1080,1077,1077,1077,1077,1077,1077,1077,1333,1328,1322,1322,1322,1322,1322,1322,1322,1322,1317,1317,1312,1312,1312,1322,1322,1322,1322,1322,1322,1322,1317,1317,1322,1322,1322,1317,1317,1312,1312,1312,1312,1307,1307,1312,1312,1312,1312,1312,1312,1312,1312,1312,1312,1312,1307,1307,1307,1307,1307,1307,1307,1307,1302,1302,1307,1307,1302,1302,1302,1302,1302,1302,1297,1297,1297,1297,1297,1297,1297,1297,1297,1292,1292,1292,1292,1292,1297,1302,1302,1302,1302,1302,1302,1302,1302,1302,1297,1297,1297,1297,1297,1292,1292,1292,1292,1292,1288,1041,1041,1041,1044,1044,1041,1041,1041,1041,1038,1034,1034,1031,1031,1031,1031,1034,1038,1038,1038,1041,1041,1044,1044,1044,1047,1047,1047,1047,1283,1283,1283,1278,1273,1273,1273,1273,1268,1268,1268,1268,1273,1273,1273,1273,1273,1273,1273,1268,1268,1268,1268,1268,1268,1268,1268,1268,1268,1268,1268,1268,1264,1264,1264,1264,1268,1268,1268,1268,1268,1264,1264,1264,1264,1264,1264,1259,1259,1259,1259,1259,1255,1255,1255,1255,1255,1255,1255,1255,1255,1255,1250,1250,1250,1250,1250,1250,1250,1250,1250,1250,1250,1250,1250,1250,1250,1250,1250,1250,1245,1245,1245,1245,1245,1245,1245,1250,1250,1245,1245,1245,1245,1245,1245,1245,1241,1241,1241,1241,1241,1236,1236,1236,1236,1236,1236,1232,1232,1232,1232,1232,1232,1232,1232,1232,1232,1232,1232,1232,1232,1232,1227,1227,1227,1227,1227,1232,1227,1227,1223,1223,1223,1223,1223,1223,1223,1227,1227,1223,1223,1223,1223,1223,1219,1219,1223,1219,1219,1219,1219,1219,1219,1214,1214,1214,1214,1214,1210,1210,1206,1206,1206,1206,1206,1206,1206,1206,1210,1210,1210,1210,1210,1210,1210,1206,1202,1202,1202,1202,1202,1202,1202,1202,1202,1202,1202,1202,1202,1202,1202,1202,1202,1202,1202,1202,1197,1197,1197,1197,1197,1197,1197,1197,1193,1193,1193,1193,1189,1189,1189,1193,1193,1010,1010,1007,1007,1007,1004,1004,1001,998,992,992,992,989,987,987,984,978,975,975,970,970,970,803,802,802,800,800,800,798,798,0,0,0,0,0,0,0,0,0,0,0,0,0,0,0,0,0,0,0,0,0,0,0,0,0,0,0,0,0,0,0,0,0,0,0,0,0
0,0,0,0,0,0,0,0,0,1404,1404,1398,1398,1398,1392,1392,1392,1398,1398,1398,1404,1404,1404,1404,1398,1392,1392,1392,1392,1392,1392,1392,1392,1392,1392,1392,1392,1392,1387,1387,1387,1387,1387,1387,1392,1392,1392,1392,1392,1392,1392,1392,1392,1392,1392,1392,1392,1392,1387,1387,1387,1387,1381,1381,1387,1387,1387,1387,1387,1387,1387,1387,1381,1381,1381,1381,1381,1381,1381,1381,1381,1381,1376,1370,1370,1365,1365,1359,1359,1077,1077,1077,1077,1080,1080,1080,1080,1080,1084,1084,1087,1087,1087,1090,1090,1090,1094,1094,1097,1101,1101,1105,1105,1108,1108,1112,1108,1108,1112,0,0,0,0,0,0,0,0,0,0,0,0,0,739,739,739,739,739,739,739,739,741,742,744,744,744,746,747,747,747,749,750,750,752,752,752,754,754,0,0,0,0,0,0,0,0,1328,1328,1338,1338,1338,1338,1338,1338,1343,1343,1343,1343,1343,1343,1343,1343,1343,1338,1338,1338,1338,1338,1338,1333,1333,1333,1338,1338,1338,1338,1333,1333,1333,1333,1333,1333,1328,1328,1328,1328,1328,1322,1119,1119,1115,1112,1108,1105,1101,1094,1094,1090,1087,1084,1084,1080,1080,1080,1080,1077,1077,1077,1077,1077,1077,1073,1073,1322,1322,1322,1322,1322,1322,1322,1322,1317,1317,1312,1312,1307,1307,1307,1312,1312,1312,1312,1317,1317,1317,1312,1312,1317,1317,1317,1312,1312,1312,1307,1307,1307,1307,1307,1307,1307,1307,1307,1312,1312,1307,1307,1307,1307,1307,1302,1302,1302,1302,1302,1302,1302,1302,1302,1302,1302,1302,1302,1302,1302,1302,1302,1297,1297,1297,1297,1297,1297,1297,1297,1292,1292,1292,1292,1288,1288,1288,1292,1292,1292,1297,1297,1297,1297,1297,1297,1297,1292,1292,1292,1292,1292,1292,1292,1292,1292,1292,1034,1034,1038,1038,1041,1041,1041,1041,1041,1041,1038,1034,1034,1031,1031,1031,1031,1034,1038,1038,1038,1041,1041,1044,1044,1047,1047,1050,1050,1054,1278,1278,1273,1273,1273,1273,1268,1268,1268,1268,1268,1268,1268,1268,1268,1268,1268,1268,1268,1268,1268,1268,1268,1268,1268,1268,1264,1264,1264,1264,1264,1264,1264,1259,1259,1259,1264,1264,1264,1264,1264,1264,1259,1259,1259,1259,1255,1255,1259,1259,1255,1255,1255,1255,1255,1255,1255,1250,1250,1250,1250,1250,1250,1250,1250,1250,1250,1245,1245,1245,1245,1245,1245,1250,1245,1245,1245,1245,1245,1245,1241,1241,1245,1245,1241,1241,1245,1245,1245,1245,1245,1245,1241,1241,1241,1241,1241,1236,1236,1236,1236,1236,1236,1232,1232,1232,1232,1232,1232,1232,1232,1232,1232,1232,1232,1232,1232,1232,1227,1227,1227,1227,1227,1223,1223,1223,1223,1223,1223,1223,1223,1219,1219,1219,1219,1219,1219,1219,1219,1219,1219,1219,1219,1219,1219,1219,1219,1219,1219,1214,1214,1214,1214,1214,1210,1210,1210,1210,1210,1206,1206,1206,1206,1206,1202,1202,1202,1202,1206,1206,1206,1206,1206,1202,1202,1202,1202,1202,1202,1197,1197,1202,1202,1202,1202,1197,1197,1197,1202,1202,1202,1202,1197,1197,1197,1197,1197,1197,1193,1193,1197,1193,1193,1197,1193,1193,1193,1193,1189,1189,1189,1193,1193,1016,1010,1010,1010,1010,1007,1004,1001,998,995,992,992,989,989,987,984,978,978,975,973,973,803,803,803,802,802,802,800,800,0,0,0,0,0,0,0,0,0,0,0,0,0,0,0,0,0,0,0,0,0,0,0,0,0,0,0,0,0,0,0,0,0,0,0,0,0,0
0,0,0,0,0,0,0,0,0,1398,1392,1392,1392,1392,1387,1387,1387,1392,1392,1398,1398,1398,1398,1398,1392,1392,1387,1387,1387,1387,1387,1387,1387,1387,1387,1387,1387,1387,1387,1387,1381,1381,1381,1381,1381,1381,1387,1387,1392,1392,1392,1387,1387,1387,1387,1387,1387,1381,1381,1381,1381,1381,1381,1381,1381,1381,1381,1381,1381,1387,1387,1381,1381,1376,1376,1376,1376,1376,1376,1376,1376,1376,1370,1370,1370,1365,1365,1365,1365,1077,1077,1077,1077,1080,1080,1080,1080,1080,1084,1084,1087,1087,1087,1090,1090,1090,1094,1094,1097,1101,1101,1105,1105,1108,1108,1108,1108,1108,1112,0,0,0,0,0,0,0,0,0,0,0,0,746,741,739,739,739,739,739,739,741,741,742,744,744,744,746,747,747,749,749,750,750,752,754,754,754,754,0,0,0,0,0,0,0,0,1322,1322,1338,1338,1338,1338,1333,1333,1338,1338,1338,1338,1338,1338,1338,1333,1333,1333,1333,1333,1328,1328,1328,1328,1333,1333,1333,1333,1333,1333,1333,1333,1333,1328,1328,1328,1328,1328,1328,1322,1322,1322,1119,1115,1115,1112,1112,1108,1101,1094,1094,1090,1087,1084,1080,1080,1077,1077,1077,1073,1073,1073,1073,1073,1073,1070,1067,1067,1322,1322,1317,1317,1317,1322,1317,1317,1312,1312,1307,1307,1307,1307,1307,1307,1307,1307,1307,1307,1307,1307,1312,1312,1312,1312,1307,1307,1307,1307,1307,1307,1307,1307,1307,1307,1307,1307,1307,1307,1307,1307,1302,1302,1302,1302,1297,1297,1297,1297,1297,1297,1297,1297,1297,1297,1297,1297,1297,1297,1297,1297,1297,1292,1292,1297,1297,1292,1292,1292,1288,1288,1288,1288,1288,1288,1288,1288,1288,1288,1288,1288,1288,1288,1288,1288,1292,1288,1288,1288,1288,1292,1292,1288,1288,1292,1292,1034,1034,1038,1038,1041,1041,1041,1041,1041,1038,1038,1034,1034,1034,1034,1034,1034,1038,1038,1038,1038,1041,1041,1044,1047,1047,1050,1050,1054,1054,1278,1278,1273,1273,1268,1268,1268,1268,1264,1264,1264,1264,1264,1264,1259,1259,1259,1259,1264,1264,1264,1264,1264,1264,1264,1264,1259,1259,1259,1259,1259,1259,1259,1259,1259,1259,1259,1259,1259,1259,1259,1259,1255,1255,1255,1255,1255,1255,1255,1255,1255,1255,1255,1250,1250,1250,1250,1250,1250,1250,1250,1250,1245,1245,1245,1245,1241,1241,1241,1241,1241,1236,1236,1236,1236,1236,1236,1241,1241,1241,1241,1241,1241,1241,1241,1241,1241,1241,1241,1236,1236,1236,1236,1236,1236,1236,1236,1236,1236,1236,1232,1232,1232,1232,1232,1227,1227,1227,1227,1227,1227,1227,1227,1227,1227,1227,1227,1227,1223,1223,1223,1223,1223,1219,1219,1219,1219,1219,1219,1219,1219,1219,1214,1214,1219,1219,1219,1219,1219,1219,1219,1214,1214,1214,1214,1214,1214,1214,1214,1214,1210,1210,1210,1210,1210,1210,1210,1206,1206,1206,1206,1202,1202,1202,1202,1202,1197,1197,1202,1202,1202,1202,1202,1202,1202,1202,1202,1197,1197,1197,1197,1197,1197,1197,1197,1197,1197,1197,1197,1197,1197,1197,1197,1197,1193,1193,1193,1189,1189,1189,1193,1193,1193,1189,1189,1189,1189,1189,1189,1189,1189,1189,1193,1016,1013,1010,1010,1010,1007,1004,1004,998,995,995,992,992,989,987,987,978,978,978,803,803,803,803,803,802,802,802,800,800,0,0,0,0,0,0,0,0,0,0,0,0,0,0,0,0,0,0,0,0,0,0,0,0,0,0,0,0,0,0,0,0,0,0,0,0,0,0
0,0,0,0,0,0,0,0,0,1392,1392,1387,1387,1381,1381,1387,1387,1387,1392,1392,1392,1392,1392,1392,1387,1387,1387,1387,1387,1387,1387,1387,1387,1381,1381,1387,1387,1387,1381,1381,1381,1381,1381,1381,1381,1381,1381,1387,1387,1387,1387,1387,1387,1381,1381,1381,1381,1381,1381,1381,1376,1376,1376,1376,1376,1376,1376,1381,1381,1381,1381,1376,1376,1376,1376,1376,1370,1370,1370,1370,1370,1370,1370,1370,1370,1365,1365,1365,1365,1365,1077,1077,1077,1080,1080,1080,1080,1080,1084,1084,1087,1087,1087,1090,1090,1090,1094,1094,1097,1101,1101,1105,1105,1108,1108,1108,1108,1108,1112,0,0,0,0,0,0,0,0,0,0,0,0,746,741,741,739,739,739,741,741,741,741,742,744,744,744,746,747,749,749,750,750,752,752,754,754,754,754,0,0,0,0,0,0,0,0,1322,1322,1328,1333,1333,1333,1333,1333,1333,1333,1333,1333,1333,1333,1333,1333,1333,1333,1328,1328,1328,1328,1328,1328,1328,1328,1328,1328,1328,1328,1328,1328,1328,1328,1328,1328,1322,1322,1322,1322,1322,1317,1119,1112,1112,1112,1108,1105,1101,1094,1094,1090,1084,1080,1080,1077,1077,1077,1073,1073,1070,1070,1070,1073,1070,1063,1063,1060,1060,1322,1317,1317,1317,1317,1317,1317,1312,1312,1307,1307,1307,1307,1307,1307,1307,1307,1307,1307,1307,1307,1302,1302,1302,1307,1307,1302,1302,1302,1302,1302,1302,1302,1302,1302,1302,1302,1302,1302,1302,1302,1302,1297,1297,1297,1292,1292,1297,1292,1292,1292,1297,1292,1292,1292,1292,1292,1288,1288,1288,1288,1292,1288,1288,1292,1292,1288,1288,1288,1288,1288,1283,1283,1283,1283,1283,1288,1288,1288,1288,1283,1283,1278,1278,1278,1278,1283,1283,1283,1283,1288,1288,1288,1288,1288,1288,1034,1034,1038,1038,1038,1038,1038,1038,1038,1038,1038,1034,1034,1034,1034,1034,1038,1038,1038,1041,1041,1041,1044,1047,1047,1047,1050,1050,1054,1054,1273,1273,1268,1268,1264,1264,1264,1264,1264,1259,1259,1259,1264,1259,1255,1255,1255,1255,1255,1255,1255,1259,1259,1259,1259,1259,1259,1259,1259,1259,1259,1259,1255,1255,1255,1255,1255,1255,1255,1255,1255,1255,1255,1250,1250,1250,1250,1250,1250,1255,1255,1250,1250,1250,1250,1245,1245,1245,1245,1245,1245,1245,1245,1245,1241,1241,1236,1236,1236,1236,1236,1236,1236,1236,1236,1236,1236,1232,1232,1236,1236,1236,1236,1236,1236,1236,1236,1236,1236,1236,1236,1236,1236,1236,1232,1232,1232,1232,1232,1232,1232,1227,1227,1227,1227,1227,1223,1223,1223,1223,1223,1223,1223,1223,1223,1223,1223,1223,1219,1219,1219,1219,1219,1219,1219,1219,1219,1214,1214,1214,1214,1214,1214,1214,1214,1214,1214,1214,1214,1219,1219,1214,1214,1214,1210,1210,1210,1210,1210,1210,1210,1206,1206,1206,1206,1206,1206,1206,1206,1202,1202,1202,1202,1202,1202,1197,1197,1197,1202,1202,1197,1197,1197,1197,1197,1197,1197,1197,1197,1193,1189,1189,1193,1193,1193,1189,1189,1189,1189,1193,1193,1193,1193,1193,1193,1189,1189,1189,1189,1189,1189,1189,1193,1189,1189,1189,1189,1189,1189,1189,1189,1189,1193,1016,1013,1013,1010,1010,1007,1004,1004,1001,998,998,995,992,992,989,987,981,981,981,803,803,803,803,803,802,802,802,800,800,0,0,0,0,0,0,0,0,0,0,0,0,0,0,0,0,0,0,0,0,0,0,0,0,0,0,0,0,0,0,0,0,0,0,0,0,0,0
0,0,0,0,0,0,0,0,0,1387,1387,1381,1381,1376,1376,1381,1381,1387,1387,1392,1392,1392,1392,1392,1387,1381,1381,1381,1381,1381,1381,1381,1381,1381,1381,1381,1381,1381,1376,1376,1376,1376,1376,1376,1376,1376,1381,1387,1381,1381,1381,1381,1376,1370,1370,1370,1376,1370,1370,1370,1370,1370,1370,1370,1376,1376,1376,1376,1376,1381,1376,1376,1370,1370,1370,1370,1370,1370,1365,1365,1365,1365,1365,1365,1365,1365,1365,1359,1359,1365,1080,1080,1080,1084,1084,1084,1084,1084,1084,1087,1087,1087,1090,1090,1090,1090,1094,1094,1097,1101,1101,1105,1105,1108,1108,1108,1108,1108,1112,1115,0,0,0,0,0,0,0,0,0,0,754,746,741,741,741,739,739,741,741,741,741,742,744,746,746,747,747,749,750,750,752,752,754,754,754,754,754,755,0,0,0,0,0,0,0,1328,1322,1322,1328,1328,1328,1328,1328,1328,1328,1328,1328,1328,1328,1328,1328,1328,1328,1328,1328,1328,1328,1328,1322,1322,1322,1322,1328,1322,1322,1322,1322,1322,1322,1322,1322,1317,1317,1317,1317,1317,1317,1312,1112,1108,1108,1105,1105,1101,1097,1094,1090,1084,1080,1077,1077,1073,1073,1073,1070,1070,1067,1067,1067,1063,1063,1060,1060,1057,1057,1317,1317,1317,1317,1317,1312,1307,1307,1307,1302,1302,1302,1302,1302,1302,1302,1302,1302,1302,1302,1302,1302,1302,1302,1302,1302,1302,1302,1302,1302,1302,1302,1302,1302,1302,1302,1297,1297,1297,1297,1292,1292,1292,1292,1292,1292,1292,1292,1288,1288,1292,1288,1288,1288,1288,1288,1288,1283,1283,1288,1288,1283,1283,1288,1288,1288,1283,1283,1283,1283,1283,1283,1283,1283,1283,1283,1283,1283,1283,1283,1278,1278,1273,1273,1278,1278,1278,1278,1283,1283,1288,1288,1288,1288,1034,1034,1034,1038,1038,1038,1038,1038,1038,1038,1038,1038,1034,1034,1034,1034,1038,1038,1038,1038,1041,1041,1041,1044,1047,1047,1050,1050,1054,1054,1057,1060,1273,1259,1259,1259,1259,1259,1259,1259,1259,1259,1259,1259,1255,1255,1255,1255,1255,1255,1255,1255,1255,1255,1255,1255,1259,1255,1255,1255,1255,1255,1255,1255,1255,1255,1250,1250,1250,1250,1250,1250,1250,1250,1245,1245,1245,1245,1245,1250,1250,1250,1245,1245,1245,1241,1241,1241,1241,1241,1245,1245,1245,1241,1241,1236,1236,1236,1236,1236,1236,1232,1232,1232,1232,1232,1232,1232,1232,1232,1232,1232,1232,1232,1232,1232,1232,1232,1232,1232,1232,1232,1232,1232,1232,1227,1227,1232,1227,1227,1227,1227,1223,1223,1223,1223,1223,1223,1219,1219,1219,1219,1219,1219,1219,1219,1219,1219,1219,1219,1219,1219,1214,1214,1214,1214,1214,1214,1210,1210,1210,1210,1210,1210,1210,1210,1210,1210,1206,1206,1210,1210,1210,1210,1210,1206,1206,1206,1206,1206,1206,1206,1206,1202,1202,1202,1202,1202,1202,1202,1202,1202,1202,1197,1197,1197,1197,1197,1197,1197,1197,1197,1197,1197,1197,1197,1197,1197,1193,1193,1193,1189,1189,1189,1189,1189,1189,1185,1185,1185,1185,1185,1185,1185,1185,1185,1189,1189,1185,1185,1189,1189,1189,1189,1189,1189,1189,1189,1189,1185,1185,1189,1189,1016,1016,1016,1013,1010,1010,1007,1004,1001,998,998,995,995,995,992,992,992,992,992,805,803,803,803,803,803,802,802,800,800,800,0,0,0,0,0,0,0,0,0,0,0,0,0,0,0,0,0,0,0,0,0,0,0,0,0,0,0,0,0,0,0,0,0,0,0,0,0,0
0,0,0,0,0,0,0,0,0,1387,1381,1381,1381,1376,1376,1376,1376,1376,1381,1387,1381,1381,1381,1381,1381,1376,1376,1376,1376,1376,1376,1376,1376,1376,1376,1376,1376,1376,1376,1376,1370,1370,1376,1376,1376,1376,1376,1381,1381,1376,1376,1376,1370,1370,1370,1365,1365,1365,1365,1365,1370,1370,1370,1370,1370,1370,1370,1370,1370,1376,1370,1370,1370,1370,1370,1365,1365,1365,1365,1365,1365,1365,1365,1359,1359,1354,1354,1359,1359,1359,1084,1084,1084,1084,1084,1084,1084,1084,1084,1087,1087,1087,1090,1090,1090,1094,1094,1094,1097,1101,1105,1105,1105,1108,1108,1108,1112,1112,1115,1115,1119,0,0,0,0,0,0,0,0,0,754,746,742,741,741,741,741,741,741,741,742,744,744,746,746,747,747,749,750,750,752,752,754,754,754,755,755,755,0,0,0,0,0,0,0,1317,1317,1322,1322,1328,1328,1328,1328,1328,1328,1328,1328,1328,1328,1328,1328,1328,1328,1328,1322,1322,1322,1322,1322,1322,1322,1322,1322,1322,1317,1317,1317,1317,1312,1312,1317,1317,1312,1312,1312,1312,1307,1307,1307,1108,1108,1105,1105,1101,1097,1097,1094,1084,1080,1077,1077,1073,1073,1070,1067,1063,1063,1067,1067,1063,1060,1060,1057,1057,1054,1054,1317,1317,1312,1312,1312,1307,1307,1302,1302,1302,1302,1302,1302,1302,1302,1302,1302,1302,1302,1297,1297,1297,1297,1297,1297,1297,1297,1297,1297,1302,1297,1297,1297,1297,1297,1292,1292,1292,1292,1288,1288,1288,1292,1288,1288,1288,1288,1288,1288,1288,1283,1283,1283,1283,1283,1283,1283,1283,1283,1283,1283,1283,1283,1283,1283,1283,1278,1278,1278,1278,1278,1278,1278,1278,1283,1283,1283,1278,1278,1273,1273,1273,1273,1273,1273,1273,1273,1278,1278,1283,1283,1028,1028,1031,1031,1034,1034,1038,1038,1038,1038,1038,1038,1038,1038,1034,1034,1034,1038,1038,1038,1038,1041,1041,1041,1041,1044,1047,1047,1050,1050,1054,1054,1057,1060,1259,1259,1259,1255,1255,1255,1255,1255,1255,1255,1255,1255,1255,1255,1250,1250,1250,1250,1250,1250,1250,1250,1250,1250,1250,1250,1250,1255,1255,1255,1255,1250,1250,1250,1250,1250,1245,1245,1250,1245,1245,1245,1241,1241,1241,1241,1245,1245,1245,1241,1241,1241,1241,1241,1236,1236,1236,1236,1241,1241,1236,1236,1236,1236,1232,1232,1232,1232,1232,1232,1232,1232,1232,1232,1232,1232,1227,1227,1227,1227,1227,1227,1227,1227,1232,1232,1232,1227,1227,1227,1227,1227,1227,1227,1227,1227,1227,1223,1223,1223,1223,1219,1219,1219,1219,1219,1219,1219,1219,1219,1219,1219,1214,1214,1214,1214,1214,1214,1214,1214,1214,1214,1214,1214,1210,1210,1210,1206,1206,1206,1206,1206,1206,1206,1202,1202,1206,1202,1202,1202,1206,1206,1206,1206,1202,1202,1202,1202,1202,1202,1202,1202,1202,1202,1202,1202,1197,1197,1197,1197,1197,1197,1197,1197,1197,1193,1193,1197,1193,1193,1193,1193,1193,1193,1193,1193,1193,1189,1189,1185,1185,1185,1185,1185,1185,1185,1181,1181,1185,1185,1185,1185,1185,1185,1185,1185,1185,1185,1185,1185,1185,1185,1185,1185,1185,1185,1185,1185,1185,1185,1185,1013,1013,1013,1013,1010,1010,1007,1004,1001,998,998,995,992,992,992,989,989,989,0,805,805,803,803,803,803,803,802,800,800,800,0,0,0,0,0,0,0,0,0,0,0,0,0,0,0,0,0,0,0,0,0,0,0,0,0,0,0,0,0,0,0,0,0,0,0,0,0,0
0,0,0,0,0,0,0,0,0,1381,1381,1376,1376,1376,1376,1370,1370,1376,1376,1376,1376,1376,1376,1376,1376,1376,1376,1370,1370,1370,1370,1370,1370,1370,1370,1370,1370,1370,1370,1370,1370,1370,1370,1370,1370,1370,1370,1370,1370,1370,1370,1370,1370,1365,1365,1365,1365,1365,1359,1359,1365,1365,1365,1365,1370,1370,1370,1365,1365,1370,1370,1365,1365,1365,1365,1365,1365,1359,1359,1359,1359,1359,1359,1359,1354,1354,1354,1349,1333,1333,1084,1084,1084,1084,1084,1084,1084,1084,1084,1087,1087,1087,1090,1090,1090,1094,1097,1097,1097,1101,1105,1105,1105,1108,1108,1112,1112,1112,1115,1115,1115,1115,0,0,0,0,0,0,0,0,754,750,742,741,741,741,741,741,741,741,742,744,746,746,746,747,749,749,750,750,752,752,754,754,755,755,755,757,0,0,0,0,0,0,0,1317,1317,1317,1322,1322,1322,1322,1322,1322,1322,1322,1322,1322,1322,1322,1322,1322,1322,1322,1322,1322,1322,1322,1317,1317,1317,1317,1317,1317,1312,1312,1312,1312,1312,1312,1307,1307,1307,1307,1312,1312,1307,1307,1307,1302,1108,1108,1105,1101,1101,1097,1094,1087,1084,1080,1077,1073,1070,1067,1067,1063,1063,1063,1063,1060,1060,1057,1057,1057,1054,1054,1054,1307,1307,1307,1307,1302,1302,1302,1302,1297,1297,1297,1297,1297,1297,1297,1297,1297,1292,1292,1292,1292,1292,1292,1292,1292,1292,1292,1292,1292,1292,1288,1288,1292,1288,1288,1288,1288,1288,1288,1288,1288,1288,1288,1288,1288,1288,1283,1283,1283,1283,1283,1278,1278,1278,1278,1278,1278,1278,1278,1278,1278,1278,1278,1278,1278,1273,1273,1273,1273,1273,1273,1273,1273,1278,1278,1278,1273,1273,1273,1273,1268,1268,1273,1273,1273,1273,1278,1025,1025,1025,1028,1028,1028,1031,1034,1034,1034,1034,1034,1034,1034,1034,1034,1034,1038,1034,1034,1038,1038,1038,1038,1041,1041,1041,1044,1044,1047,1050,1050,1054,1054,1054,1057,1060,1255,1255,1255,1255,1255,1255,1255,1255,1255,1255,1255,1250,1250,1250,1250,1250,1250,1250,1250,1250,1250,1250,1250,1250,1250,1250,1250,1250,1250,1250,1250,1250,1245,1245,1245,1245,1241,1241,1241,1241,1241,1241,1241,1241,1236,1236,1241,1241,1241,1241,1236,1236,1236,1236,1236,1236,1236,1236,1236,1236,1236,1236,1232,1232,1232,1232,1232,1232,1232,1232,1227,1227,1227,1227,1227,1227,1223,1223,1223,1223,1223,1223,1223,1223,1223,1223,1223,1223,1223,1223,1223,1223,1223,1223,1223,1223,1223,1219,1219,1219,1219,1219,1219,1219,1219,1219,1214,1214,1214,1214,1214,1214,1214,1214,1214,1210,1210,1210,1210,1210,1210,1210,1210,1210,1206,1206,1206,1206,1202,1202,1206,1202,1202,1202,1202,1202,1202,1202,1202,1202,1202,1202,1202,1202,1202,1202,1202,1202,1202,1202,1202,1197,1197,1197,1197,1197,1197,1197,1197,1197,1197,1197,1197,1197,1193,1193,1193,1197,1189,1189,1189,1189,1189,1189,1189,1189,1189,1189,1185,1185,1185,1185,1185,1185,1181,1181,1181,1181,1181,1181,1181,1181,1181,1185,1185,1185,1185,1185,1185,1185,1185,1185,1185,1185,1185,1185,1185,1185,1185,1185,1185,1013,1013,1013,1013,1013,1010,1007,1004,1001,998,995,995,992,992,992,989,989,989,803,0,803,803,803,803,803,803,802,802,802,802,0,0,0,0,0,0,0,0,0,0,0,0,0,0,0,0,0,0,0,0,0,0,0,0,0,0,0,0,0,0,0,0,0,0,0,0,0,0
0,0,0,0,0,0,0,0,0,1376,1376,1376,1376,1370,1370,1370,1370,1370,1370,1370,1370,1370,1370,1370,1370,1370,1370,1370,1370,1370,1365,1365,1365,1370,1370,1370,1370,1370,1370,1370,1370,1370,1365,1365,1365,1365,1365,1365,1365,1365,1365,1365,1365,1365,1365,1359,1359,1359,1359,1359,1359,1359,1359,1354,1354,1354,1354,1359,1359,1359,1359,1365,1365,1365,1365,1359,1359,1359,1359,1359,1359,1359,1359,1354,1349,1343,1343,1338,1333,1333,1333,1084,1084,1084,1084,1084,1084,1084,1084,1087,1087,1087,1090,1090,1090,1094,1097,1097,1101,1101,1105,1105,1105,1108,1112,1112,1115,1115,1115,1115,1115,1115,0,0,0,0,0,0,0,0,755,752,742,742,742,741,741,741,741,742,742,744,746,746,747,747,749,750,750,750,752,754,754,755,755,757,757,757,0,0,0,0,0,0,0,1312,1312,1312,1317,1317,1317,1317,1317,1322,1317,1317,1322,1317,1317,1317,1317,1317,1317,1317,1317,1317,1317,1317,1312,1312,1312,1312,1312,1312,1307,1307,1307,1307,1307,1307,1307,1307,1307,1307,1307,1307,1307,1302,1302,1302,1108,1108,1105,1101,1101,1097,1094,1087,1084,1080,1077,1073,1070,1067,1063,1060,1060,1060,1060,1057,1057,1054,1054,1054,1054,1050,1050,1050,1307,1307,1307,1302,1302,1297,1297,1297,1297,1297,1297,1292,1292,1292,1292,1292,1288,1288,1288,1288,1288,1288,1288,1288,1288,1288,1288,1288,1288,1288,1288,1288,1283,1283,1283,1283,1283,1283,1283,1288,1288,1283,1283,1283,1283,1283,1278,1278,1278,1278,1273,1273,1273,1273,1273,1273,1273,1273,1273,1273,1273,1273,1273,1268,1268,1268,1268,1268,1268,1268,1268,1268,1273,1273,1273,1273,1273,1273,1268,1268,1268,1273,1273,1273,1022,1022,1025,1025,1025,1025,1025,1028,1028,1031,1031,1031,1031,1031,1031,1031,1031,1031,1034,1034,1038,1038,1038,1038,1041,1041,1041,1041,1041,1044,1044,1047,1050,1050,1054,1054,1054,1057,1060,1250,1250,1250,1250,1250,1250,1250,1250,1250,1250,1250,1245,1245,1245,1245,1245,1245,1245,1245,1250,1250,1245,1245,1245,1245,1245,1245,1245,1245,1241,1241,1241,1241,1241,1241,1241,1236,1236,1241,1236,1236,1236,1236,1236,1236,1236,1236,1236,1236,1236,1232,1232,1236,1232,1232,1232,1232,1232,1232,1232,1232,1232,1232,1232,1227,1227,1227,1227,1227,1227,1227,1223,1223,1223,1223,1223,1223,1223,1219,1219,1219,1219,1223,1223,1223,1219,1219,1219,1219,1219,1219,1219,1219,1219,1219,1219,1219,1214,1214,1214,1214,1214,1214,1214,1214,1214,1214,1214,1210,1210,1214,1210,1210,1210,1206,1206,1206,1206,1206,1206,1206,1206,1206,1206,1206,1202,1202,1202,1202,1202,1202,1202,1202,1202,1202,1202,1202,1202,1202,1202,1202,1202,1197,1197,1197,1197,1197,1197,1197,1197,1197,1197,1197,1197,1197,1197,1197,1197,1197,1197,1193,1193,1193,1193,1193,1193,1189,1185,1185,1185,1185,1185,1185,1185,1185,1185,1185,1185,1185,1185,1181,1181,1181,1181,1181,1181,1177,1177,1177,1177,1177,1177,1181,1181,1181,1181,1181,1181,1181,1181,1181,1185,1185,1185,1185,1185,1185,1185,1185,1185,1185,1185,1013,1013,1013,1013,1010,1007,1004,1001,998,995,992,992,992,992,992,992,803,803,803,803,803,803,803,803,803,802,802,802,802,0,0,0,0,0,0,0,0,0,0,0,0,0,0,0,0,0,0,0,0,0,0,0,0,0,0,0,0,0,0,0,0,0,0,0,0,0,0
0,0,0,0,0,0,0,0,0,1370,1370,1370,1370,1370,1370,1370,1370,1370,1365,1365,1370,1365,1365,1365,1370,1365,1365,1365,1365,1365,1365,1365,1365,1365,1365,1365,1365,1370,1365,1365,1365,1365,1365,1365,1365,1365,1365,1365,1365,1365,1359,1359,1359,1359,1359,1359,1359,1359,1354,1354,1354,1354,1354,1354,1354,1349,1349,1354,1349,1349,1354,1359,1359,1359,1359,1359,1359,1359,1354,1354,1354,1354,1354,1349,1349,1343,1343,1338,1338,1338,1338,1084,1084,1084,1087,1087,1087,1084,1084,1087,1087,1090,1090,1090,1090,1094,1097,1097,1101,1101,1105,1108,1108,1108,1112,1112,1115,1115,1115,1115,1115,1115,0,0,0,0,0,0,0,0,755,754,742,741,741,742,742,742,742,742,744,746,746,746,747,747,749,750,750,752,752,754,754,755,757,757,757,757,0,0,0,0,0,0,0,1312,1312,1312,1312,1312,1317,1312,1312,1317,1312,1312,1312,1312,1312,1312,1312,1312,1312,1312,1312,1312,1312,1312,1307,1307,1307,1307,1307,1307,1307,1307,1307,1307,1307,1302,1302,1302,1302,1302,1302,1302,1302,1302,1302,1297,1297,1292,1105,1101,1097,1094,1090,1087,1087,1084,1077,1073,1067,1067,1063,1060,1060,1060,1057,1054,1054,1050,1050,1050,1050,1050,1050,1047,1047,1307,1307,1302,1297,1297,1297,1292,1292,1292,1292,1292,1288,1288,1288,1288,1288,1288,1288,1288,1283,1283,1283,1283,1283,1283,1283,1283,1283,1283,1283,1283,1283,1278,1278,1278,1278,1283,1283,1283,1283,1283,1283,1278,1278,1278,1273,1273,1273,1273,1273,1268,1268,1268,1268,1268,1268,1268,1268,1268,1268,1268,1268,1264,1264,1264,1264,1268,1268,1268,1268,1268,1273,1273,1273,1268,1268,1268,1268,1268,1268,1268,1273,1022,1022,1022,1025,1025,1022,1022,1022,1025,1025,1025,1025,1028,1028,1031,1031,1031,1031,1031,1034,1034,1038,1038,1038,1041,1041,1041,1041,1041,1041,1044,1044,1047,1050,1050,1054,1054,1057,1057,1060,1245,1245,1245,1250,1250,1245,1245,1245,1245,1245,1245,1245,1245,1245,1241,1241,1241,1241,1241,1245,1241,1241,1241,1241,1241,1241,1241,1241,1241,1241,1236,1236,1236,1236,1236,1236,1236,1236,1236,1236,1236,1236,1236,1232,1232,1232,1232,1232,1232,1232,1232,1232,1232,1232,1232,1227,1227,1227,1227,1227,1227,1227,1227,1227,1227,1227,1223,1223,1223,1223,1223,1223,1219,1219,1219,1219,1219,1219,1219,1219,1219,1219,1219,1219,1219,1219,1219,1214,1214,1214,1214,1214,1214,1214,1219,1214,1214,1214,1214,1214,1214,1214,1214,1214,1214,1214,1210,1210,1210,1210,1210,1210,1206,1206,1206,1202,1202,1202,1202,1206,1202,1202,1202,1202,1202,1202,1197,1197,1197,1197,1197,1197,1197,1197,1197,1197,1197,1197,1197,1197,1197,1197,1197,1197,1193,1193,1189,1189,1189,1189,1193,1193,1193,1193,1193,1193,1193,1193,1193,1193,1189,1189,1189,1189,1189,1189,1185,1185,1185,1185,1185,1181,1181,1181,1185,1185,1185,1181,1181,1181,1181,1181,1181,1181,1177,1177,1177,1177,1177,1177,1173,1173,1173,1173,1173,1177,1177,1177,1181,1181,1181,1181,1181,1181,1185,1185,1185,1189,1189,1185,1185,1185,1181,1013,1013,1013,1013,1010,1001,998,998,992,992,989,989,992,992,992,803,803,803,803,803,803,803,803,803,803,803,802,802,0,0,0,0,0,0,0,0,0,0,0,0,0,0,0,0,0,0,0,0,0,0,0,0,0,0,0,0,0,0,0,0,0,0,0,0,0,0
0,0,0,0,0,0,0,0,0,1370,1370,1370,1370,1365,1365,1365,1365,1365,1365,1365,1365,1365,1359,1359,1365,1365,1365,1359,1359,1359,1359,1359,1359,1359,1365,1365,1365,1365,1365,1365,1365,1359,1359,1359,1359,1359,1359,1359,1359,1354,1354,1354,1354,1354,1354,1354,1354,1359,1354,1354,1354,1354,1354,1349,1349,1349,1349,1349,1343,1343,1349,1349,1349,1349,1349,1349,1354,1354,1349,1349,1349,1349,1349,1349,1349,1343,1343,1338,1338,1338,1333,1087,1087,1087,1087,1087,1087,1087,1087,1087,1087,1090,1090,1090,1090,1094,1097,1097,1101,1101,1105,1108,1108,1108,1112,1115,1115,1115,1115,1115,1115,1115,0,0,0,0,0,0,0,0,0,0,742,741,741,742,742,742,742,744,744,746,746,747,747,747,749,750,750,752,754,754,755,755,757,759,759,759,0,0,0,0,0,0,0,1307,1307,1307,1307,1312,1312,1312,1312,1312,1307,1307,1312,1307,1307,1307,1307,1307,1307,1307,1307,1307,1307,1307,1307,1307,1307,1307,1307,1307,1302,1302,1302,1302,1302,1302,1302,1302,1302,1302,1302,1302,1297,1297,1297,1297,1297,1292,1292,1288,1097,1094,1090,1087,1087,1084,1080,1073,1067,1067,1060,1060,1060,1057,1054,1050,1050,1050,1050,1050,1050,1047,1047,1047,1047,1047,1302,1302,1292,1292,1288,1288,1288,1288,1288,1288,1288,1288,1288,1283,1283,1283,1283,1283,1283,1283,1283,1283,1283,1283,1283,1278,1278,1278,1278,1278,1278,1278,1278,1278,1278,1278,1278,1273,1273,1278,1278,1273,1273,1268,1268,1268,1268,1268,1268,1268,1268,1268,1268,1268,1268,1268,1268,1264,1264,1264,1264,1264,1259,1259,1259,1264,1264,1264,1264,1264,1268,1268,1268,1268,1268,1268,1268,1268,1268,1268,1019,1019,1019,1019,1022,1022,1022,1022,1022,1022,1025,1025,1025,1025,1025,1028,1028,1028,1031,1031,1034,1034,1038,1038,1038,1041,1041,1041,1041,1041,1041,1044,1044,1047,1050,1054,1054,1057,1057,1057,1060,1241,1241,1241,1245,1245,1245,1245,1241,1241,1241,1241,1241,1241,1241,1236,1236,1236,1236,1236,1236,1236,1236,1236,1236,1236,1236,1236,1236,1236,1236,1236,1236,1232,1232,1232,1232,1232,1232,1232,1232,1232,1232,1232,1232,1232,1232,1232,1232,1232,1232,1227,1227,1227,1227,1227,1227,1223,1223,1223,1227,1227,1227,1223,1223,1223,1223,1223,1223,1219,1219,1219,1219,1219,1219,1219,1219,1214,1214,1214,1214,1214,1214,1214,1214,1214,1214,1214,1214,1214,1214,1210,1210,1210,1210,1210,1206,1206,1210,1210,1210,1210,1206,1206,1210,1210,1210,1210,1210,1206,1206,1206,1206,1202,1202,1202,1202,1202,1202,1202,1202,1202,1202,1202,1197,1197,1197,1197,1197,1197,1193,1193,1197,1197,1197,1197,1197,1197,1197,1197,1197,1197,1197,1193,1193,1193,1193,1185,1185,1185,1185,1185,1185,1185,1189,1189,1189,1185,1185,1185,1189,1185,1185,1185,1185,1185,1185,1185,1181,1181,1181,1181,1181,1181,1181,1185,1185,1185,1181,1181,1181,1177,1177,1177,1177,1177,1177,1173,1173,1173,1173,1173,1173,1169,1169,1173,1173,1173,1173,1177,1177,1177,1181,1181,1181,1185,1185,1185,1189,1189,1189,1189,1189,1185,1013,1013,1013,1010,1007,1001,998,998,992,989,989,989,989,989,805,803,803,803,803,803,803,803,803,803,803,803,803,803,0,0,0,0,0,0,0,0,0,0,0,0,0,0,0,0,0,0,0,0,0,0,0,0,0,0,0,0,0,0,0,0,0,0,0,0,0,0
0,0,0,0,0,0,0,0,0,1365,1365,1365,1365,1365,1365,1365,1365,1365,1359,1359,1365,1365,1359,1359,1359,1365,1359,1354,1354,1354,1359,1354,1354,1354,1359,1359,1359,1359,1359,1359,1359,1359,1354,1354,1354,1354,1354,1354,1354,1349,1349,1349,1349,1349,1349,1349,1354,1354,1354,1354,1349,1349,1349,1349,1343,1343,1343,1343,1343,1343,1343,1343,1343,1343,1343,1349,1349,1343,1343,1343,1349,1343,1343,1343,1343,1338,1338,1338,1338,1338,1333,1087,1087,1087,1090,1090,1090,1087,1087,1090,1090,1090,1090,1090,1094,1094,1097,1097,1101,1101,1105,1108,1108,1108,1112,1115,1115,1115,1115,1115,1115,1115,0,0,0,0,0,0,0,0,0,0,0,742,742,742,742,744,744,744,746,746,747,747,747,749,749,750,752,752,754,755,755,757,759,759,759,759,761,0,0,0,0,0,0,1307,1302,1302,1302,1307,1307,1307,1307,1307,1307,1307,1307,1302,1302,1302,1302,1302,1302,1302,1302,1302,1302,1302,1302,1302,1302,1302,1302,1302,1297,1297,1297,1297,1297,1297,1302,1297,1297,1297,1297,1297,1292,1292,1292,1292,1292,1288,1288,1288,1288,1094,1090,1090,1087,1084,1080,1073,1067,1067,1060,1057,1057,1057,1054,1050,1047,1047,1047,1047,1047,1047,1047,1044,1044,1041,1041,1292,1292,1288,1288,1288,1283,1283,1288,1283,1283,1283,1283,1283,1283,1283,1283,1283,1278,1278,1278,1278,1278,1278,1278,1278,1273,1273,1273,1273,1273,1273,1273,1273,1273,1273,1273,1273,1268,1268,1268,1268,1268,1268,1268,1268,1268,1268,1268,1264,1264,1264,1264,1264,1268,1264,1264,1264,1264,1264,1264,1259,1259,1259,1259,1259,1264,1259,1259,1264,1268,1268,1268,1264,1264,1264,1013,1013,1013,1016,1016,1016,1019,1019,1019,1019,1019,1019,1019,1019,1022,1022,1022,1025,1025,1028,1028,1028,1031,1031,1034,1034,1038,1038,1038,1041,1041,1041,1041,1041,1041,1044,1047,1050,1050,1054,1057,1057,1057,1057,1060,1241,1241,1241,1245,1245,1241,1241,1236,1236,1236,1236,1236,1236,1236,1236,1236,1236,1236,1236,1236,1236,1232,1232,1236,1236,1236,1236,1232,1232,1232,1232,1232,1232,1232,1232,1232,1232,1227,1227,1227,1227,1227,1227,1232,1232,1232,1227,1227,1227,1227,1223,1223,1223,1223,1223,1223,1223,1223,1223,1223,1223,1223,1219,1219,1219,1219,1219,1219,1219,1219,1219,1214,1214,1214,1214,1214,1214,1214,1214,1210,1210,1210,1210,1210,1210,1210,1210,1210,1210,1210,1206,1206,1206,1206,1206,1206,1202,1202,1202,1202,1206,1206,1206,1206,1206,1206,1202,1202,1202,1202,1202,1202,1202,1202,1197,1197,1197,1197,1197,1197,1197,1197,1197,1197,1197,1193,1193,1193,1193,1193,1193,1193,1193,1193,1193,1193,1193,1193,1193,1193,1193,1193,1193,1189,1185,1185,1185,1185,1185,1185,1185,1185,1185,1185,1185,1185,1185,1181,1181,1185,1181,1181,1181,1181,1181,1181,1181,1181,1181,1177,1177,1177,1177,1181,1181,1181,1181,1181,1177,1177,1177,1177,1173,1173,1173,1173,1173,1173,1173,1169,1169,1169,1169,1169,1169,1169,1169,1169,1169,1173,1177,1177,1177,1185,1185,1185,1185,0,0,0,0,0,0,1013,1013,1010,1010,1007,998,998,995,989,987,987,987,987,809,805,805,803,803,803,803,803,803,803,803,803,803,803,803,0,0,0,0,0,0,0,0,0,0,0,0,0,0,0,0,0,0,0,0,0,0,0,0,0,0,0,0,0,0,0,0,0,0,0,0,0,0
0,0,0,0,0,0,0,0,0,1365,1365,1365,1365,1359,1359,1359,1359,1359,1359,1359,1359,1359,1359,1359,1359,1359,1354,1354,1354,1354,1354,1354,1349,1349,1354,1354,1354,1354,1354,1354,1354,1354,1354,1354,1349,1349,1349,1349,1349,1349,1349,1349,1349,1349,1349,1349,1349,1349,1349,1349,1349,1349,1349,1343,1343,1343,1343,1343,1338,1338,1338,1343,1343,1343,1343,1343,1343,1343,1338,1333,1333,1333,1333,1333,1338,1338,1338,1338,1338,1338,1333,1090,1087,1087,1090,1090,1090,1090,1090,1090,1090,1090,1090,1094,1094,1097,1097,1097,1101,1101,1105,1108,1108,1108,1112,1115,1115,1115,1115,1115,1115,1115,1119,0,0,0,0,0,0,0,0,0,0,746,746,746,746,746,746,746,746,747,747,747,747,749,750,752,752,754,754,755,757,757,759,759,759,761,761,0,0,0,0,0,0,0,1302,1302,1302,1302,1302,1302,1302,1302,1302,1302,1302,1302,1302,1302,1302,1302,1297,1297,1297,1297,1297,1302,1297,1297,1302,1297,1297,1297,1292,1292,1292,1292,1292,1292,1292,1292,1292,1292,1292,1292,1292,1288,1288,1288,1288,1288,1288,1288,1288,1283,1090,1090,1087,1084,1080,1073,1067,1063,1060,1057,1054,1054,1050,1047,1047,1047,1047,1047,1047,1044,1044,1044,1041,1038,1038,1038,1288,1288,1283,1283,1283,1283,1283,1283,1283,1283,1278,1278,1278,1278,1278,1278,1278,1278,1278,1278,1278,1273,1273,1268,1268,1268,1268,1268,1268,1268,1268,1268,1268,1268,1268,1268,1268,1268,1268,1264,1264,1264,1264,1264,1264,1264,1264,1264,1264,1264,1264,1264,1264,1264,1264,1264,1259,1259,1259,1255,1255,1255,1255,1255,1259,1259,1259,1259,1264,1264,1264,1264,1264,1013,1013,1013,1013,1013,1016,1016,1016,1016,1016,1016,1016,1016,1016,1019,1022,1022,1022,1025,1025,1028,1028,1028,1031,1031,1034,1034,1038,1038,1041,1041,1041,1041,1041,1041,1044,1044,1047,1050,1050,1054,1057,1057,1057,1057,1060,1241,1241,1241,1241,1241,1236,1236,1236,1236,1232,1232,1232,1232,1236,1232,1232,1232,1232,1232,1232,1232,1232,1232,1232,1232,1232,1232,1232,1232,1227,1227,1227,1227,1227,1227,1227,1227,1223,1223,1223,1223,1223,1223,1223,1223,1227,1227,1227,1223,1223,1223,1219,1219,1219,1219,1219,1219,1219,1219,1219,1219,1219,1219,1219,1219,1219,1219,1214,1214,1214,1214,1214,1214,1214,1210,1210,1210,1210,1210,1206,1206,1206,1206,1206,1206,1206,1206,1206,1206,1206,1206,1206,1202,1202,1206,1202,1202,1202,1202,1202,1202,1202,1202,1202,1202,1202,1202,1202,1202,1202,1202,1197,1197,1197,1197,1197,1197,1197,1197,1197,1193,1193,1197,1193,1193,1193,1193,1193,1193,1189,1189,1193,1193,1189,1189,1189,1189,1189,1189,1189,1189,1189,1185,1185,1185,1181,1181,1181,1181,1181,1185,1185,1185,1185,1181,1181,1181,1181,1181,1181,1181,1181,1181,1177,1177,1181,1181,1177,1177,1177,1177,1177,1173,1173,1177,1177,1177,1177,1173,1173,1173,1173,1173,1169,1169,1169,1169,1169,1169,1169,1169,1169,1165,1165,1165,1165,1161,1161,1165,1169,1173,1177,1177,0,0,0,0,0,0,0,0,0,1013,1013,1013,1010,1010,1010,998,998,992,989,987,987,987,809,809,809,805,805,803,803,803,803,803,803,803,803,803,803,803,0,0,0,0,0,0,0,0,0,0,0,0,0,0,0,0,0,0,0,0,0,0,0,0,0,0,0,0,0,0,0,0,0,0,0,0,0,0
0,0,0,0,0,0,0,0,1354,1354,1354,1354,1359,1354,1354,1359,1354,1354,1354,1354,1354,1354,1354,1354,1354,1354,1349,1349,1349,1349,1349,1349,1349,1349,1349,1349,1349,1349,1349,1349,1349,1349,1343,1343,1343,1343,1343,1343,1343,1343,1343,1343,1343,1343,1343,1343,1349,1349,1343,1343,1343,1343,1343,1343,1338,1338,1338,1338,1338,1338,1338,1338,1343,1338,1338,1338,1338,1333,1333,1328,1328,1328,1328,1328,1328,1328,1328,1333,1338,1333,1333,1328,1087,1087,1090,1090,1090,1090,1090,1090,1090,1090,1090,1090,1094,1097,1101,1101,1101,1101,1105,1108,1108,1108,1112,1115,1115,1115,1115,1115,1115,1115,1119,0,0,0,0,0,0,0,0,0,0,0,747,747,746,746,746,746,746,747,747,747,749,749,750,752,752,754,755,755,757,759,759,759,759,761,761,0,0,0,0,0,0,0,1302,1302,1302,1302,1302,1302,1302,1302,1302,1302,1302,1302,1297,1297,1297,1297,1297,1297,1297,1297,1297,1297,1297,1297,1297,1292,1292,1292,1292,1288,1288,1292,1292,1292,1288,1288,1288,1288,1288,1288,1288,1288,1288,1288,1288,1288,1288,1283,1283,1283,1283,1090,1087,1087,1084,1077,1067,1063,1060,1054,1054,1050,1050,1047,1047,1044,1044,1044,1044,1041,1041,1041,1041,1038,1034,1034,1031,1031,1283,1283,1283,1283,1283,1278,1278,1278,1273,1273,1273,1273,1273,1273,1273,1273,1273,1273,1273,1268,1268,1268,1268,1268,1268,1264,1264,1268,1268,1264,1264,1264,1264,1264,1264,1264,1264,1264,1259,1259,1259,1259,1259,1255,1255,1259,1259,1259,1259,1259,1259,1259,1259,1259,1255,1255,1255,1250,1250,1250,1250,1255,1255,1255,1255,1255,1259,1259,1259,1259,1013,1013,1013,1013,1013,1013,1013,1016,1016,1016,1016,1016,1016,1016,1016,1019,1019,1022,1022,1025,1025,1028,1028,1028,1031,1031,1034,1038,1038,1038,1041,1041,1041,1041,1044,1044,1044,1044,1047,1050,1050,1057,1060,1060,1060,1060,1063,1236,1236,1236,1236,1236,1236,1232,1232,1232,1232,1232,1232,1232,1232,1232,1232,1232,1227,1227,1227,1227,1227,1227,1227,1227,1227,1227,1227,1227,1223,1223,1223,1223,1223,1223,1223,1223,1223,1219,1219,1219,1219,1219,1219,1219,1219,1219,1219,1219,1219,1219,1219,1219,1219,1219,1219,1219,1214,1214,1214,1214,1214,1214,1214,1214,1214,1214,1214,1214,1214,1210,1210,1210,1210,1206,1206,1206,1206,1206,1206,1206,1202,1202,1202,1202,1202,1202,1202,1202,1202,1202,1202,1202,1202,1202,1202,1197,1197,1197,1197,1197,1197,1197,1197,1193,1193,1197,1197,1197,1197,1197,1197,1197,1197,1193,1193,1193,1193,1193,1193,1189,1189,1193,1189,1189,1189,1189,1189,1189,1189,1189,1189,1185,1185,1185,1185,1185,1185,1185,1185,1185,1185,1181,1181,1181,1181,1177,1177,1177,1177,1177,1177,1181,1181,1177,1177,1177,1177,1177,1177,1177,1177,1177,1177,1177,1177,1177,1173,1173,1173,1173,1173,1173,1173,1177,1177,1177,1173,1173,1173,1173,1169,1169,1169,1169,1169,1165,1165,1165,1165,1165,1165,1165,1165,1161,1161,1161,1161,1165,1165,1169,1173,1177,0,0,0,0,0,0,0,0,0,0,998,998,995,995,998,998,998,992,989,989,989,809,809,809,809,807,805,805,805,803,803,805,805,803,803,803,803,803,0,0,0,0,0,0,0,0,0,0,0,0,0,0,0,0,0,0,0,0,0,0,0,0,0,0,0,0,0,0,0,0,0,0,0,0,0,0
0,0,0,0,0,0,0,0,1349,1349,1349,1349,1349,1349,1349,1349,1349,1349,1349,1349,1349,1349,1349,1349,1349,1349,1343,1343,1343,1343,1343,1343,1343,1343,1343,1343,1343,1343,1343,1343,1343,1343,1338,1338,1338,1338,1338,1338,1338,1338,1338,1338,1338,1343,1343,1343,1343,1343,1343,1343,1343,1343,1343,1338,1333,1333,1333,1333,1333,1333,1333,1333,1338,1333,1333,1333,1328,1328,1328,1328,1328,1328,1328,1328,1328,1328,1328,1328,1328,1328,1328,1328,1084,1084,1087,1090,1090,1090,1090,1090,1090,1090,1090,1090,1094,1097,1101,1101,1101,1101,1105,1108,1108,1112,1115,1115,1115,1115,1115,1115,1119,1119,1123,0,0,0,0,0,0,0,0,0,0,0,749,747,747,747,747,747,747,747,747,749,749,752,752,752,752,754,755,757,757,759,759,759,761,761,0,0,0,0,0,0,0,0,1302,1302,1302,1302,1297,1297,1297,1297,1297,1297,1297,1297,1297,1292,1292,1292,1292,1292,1292,1292,1292,1292,1292,1292,1292,1288,1288,1288,1288,1288,1288,1288,1288,1288,1288,1283,1283,1288,1288,1283,1283,1283,1283,1283,1283,1283,1283,1283,1283,1283,1283,1278,1087,1087,1084,1080,1070,1063,1060,1054,1050,1050,1047,1047,1044,1044,1044,1041,1041,1041,1038,1038,1038,1038,1034,1034,1031,1031,1031,1283,1283,1283,1283,1278,1278,1273,1268,1268,1268,1268,1268,1268,1268,1268,1268,1268,1268,1264,1264,1264,1264,1264,1264,1264,1264,1264,1264,1264,1259,1259,1259,1259,1259,1259,1259,1259,1255,1255,1255,1255,1255,1255,1255,1255,1255,1255,1255,1255,1255,1255,1255,1255,1250,1250,1250,1250,1250,1250,1250,1250,1255,1255,1255,1255,1259,1259,1007,1007,1007,1010,1010,1013,1013,1013,1013,1016,1016,1016,1016,1016,1016,1016,1016,1016,1019,1019,1022,1022,1025,1028,1028,1028,1031,1034,1034,1038,1038,1038,1041,1041,1044,1044,1044,1044,1047,1047,1050,1054,1054,1057,1060,1060,1060,1060,1063,1232,1232,1232,1232,1232,1232,1232,1227,1227,1227,1227,1227,1227,1227,1227,1227,1227,1227,1227,1223,1223,1223,1223,1223,1223,1223,1223,1223,1223,1219,1219,1219,1219,1219,1219,1219,1219,1214,1214,1219,1219,1219,1219,1219,1219,1219,1214,1214,1214,1214,1210,1210,1214,1214,1214,1214,1214,1214,1214,1214,1214,1210,1210,1210,1210,1210,1210,1210,1210,1210,1206,1206,1206,1206,1206,1202,1202,1202,1202,1202,1202,1202,1202,1202,1202,1202,1202,1202,1202,1202,1202,1197,1197,1197,1197,1197,1197,1197,1197,1197,1197,1197,1193,1193,1189,1189,1189,1189,1189,1193,1193,1193,1193,1193,1189,1189,1189,1189,1189,1189,1185,1185,1189,1189,1185,1185,1185,1185,1185,1185,1185,1185,1181,1181,1181,1181,1181,1181,1181,1181,1181,1181,1181,1181,1177,1177,1177,1177,1177,1177,1177,1177,1181,1177,1177,1177,1177,1173,1173,1173,1169,1169,1169,1169,1173,1173,1169,1169,1169,1169,1169,1169,1169,1169,1169,1173,1173,1173,1169,1169,1169,1169,1169,1169,1165,1165,1165,1165,1165,1165,1165,1165,1161,1161,1161,1157,1157,1157,1157,1161,1165,1173,0,0,0,0,0,0,0,0,0,1001,998,998,998,995,995,995,998,998,992,992,995,811,809,809,809,809,807,805,805,805,805,805,805,805,803,803,803,803,803,0,0,0,0,0,0,0,0,0,0,0,0,0,0,0,0,0,0,0,0,0,0,0,0,0,0,0,0,0,0,0,0,0,0,0,0,0,0
0,0,0,0,0,0,0,0,1349,1349,1349,1349,1349,1343,1343,1343,1343,1343,1343,1343,1349,1349,1349,1343,1343,1343,1343,1343,1343,1343,1343,1343,1343,1343,1343,1338,1338,1338,1338,1343,1338,1338,1333,1333,1333,1333,1333,1333,1333,1333,1333,1333,1333,1333,1338,1338,1338,1333,1333,1333,1338,1333,1333,1333,1328,1328,1328,1328,1328,1328,1328,1333,1333,1328,1328,1328,1328,1322,1322,1322,1322,1322,1322,1322,1322,1322,1322,1328,1328,1328,1328,1328,1084,1084,1087,1090,1090,1090,1090,1090,1090,1090,1090,1094,1097,1097,1101,1101,1101,1101,1105,1108,1108,1112,1115,1115,1119,1119,1119,1119,1119,1119,0,0,0,0,0,0,0,0,0,0,0,0,749,747,747,747,747,747,747,747,747,749,749,752,752,752,754,754,755,757,759,759,759,761,761,761,0,0,0,0,0,0,0,0,1302,1297,1297,1297,1297,1292,1292,1292,1292,1292,1292,1292,1292,1292,1292,1288,1288,1288,1288,1288,1288,1288,1288,1288,1288,1288,1288,1288,1288,1288,1288,1283,1283,1283,1283,1283,1283,1283,1283,1283,1283,1283,1283,1283,1283,1283,1283,1278,1278,1278,1278,1273,1268,1268,1084,1080,1077,1063,1060,1054,1050,1050,1047,1047,1044,1041,1041,1041,1038,1038,1038,1038,1034,1034,1034,1031,1031,1028,1028,1028,1028,1028,1283,1278,1273,1268,1268,1268,1264,1264,1264,1264,1264,1264,1264,1264,1264,1259,1259,1259,1259,1259,1259,1259,1259,1259,1259,1259,1255,1255,1255,1255,1259,1255,1255,1255,1255,1255,1255,1255,1250,1250,1250,1250,1250,1250,1250,1250,1250,1250,1250,1250,1250,1250,1250,1250,1250,1250,1250,1250,1250,1250,1250,1250,1259,1010,1007,1007,1007,1010,1010,1010,1013,1013,1013,1013,1013,1016,1016,1016,1016,1016,1016,1016,1019,1019,1022,1022,1025,1028,1028,1031,1031,1034,1034,1038,1038,1041,1041,1044,1047,1047,1047,1047,1047,1050,1050,1054,1054,1057,1060,1060,1060,1060,1063,1227,1227,1227,1227,1227,1227,1227,1227,1227,1223,1223,1227,1227,1227,1227,1227,1223,1223,1223,1223,1223,1219,1219,1219,1219,1219,1219,1219,1219,1219,1219,1219,1219,1219,1219,1214,1214,1214,1214,1214,1214,1214,1214,1214,1214,1214,1214,1210,1210,1210,1210,1206,1206,1206,1206,1210,1210,1210,1210,1210,1210,1210,1210,1210,1206,1206,1206,1206,1206,1206,1206,1206,1206,1206,1202,1202,1202,1202,1202,1202,1202,1202,1197,1197,1197,1197,1197,1197,1197,1197,1197,1197,1197,1197,1197,1197,1197,1197,1197,1193,1193,1193,1193,1189,1185,1185,1185,1189,1185,1185,1189,1189,1189,1189,1189,1189,1189,1185,1185,1185,1185,1185,1185,1185,1185,1185,1185,1181,1181,1181,1181,1181,1177,1177,1177,1177,1177,1177,1177,1177,1177,1177,1173,1173,1177,1173,1173,1173,1173,1173,1173,1173,1173,1173,1173,1173,1173,1169,1169,1169,1169,1165,1165,1165,1165,1169,1169,1169,1169,1169,1169,1169,1165,1165,1165,1165,1169,1169,1169,1169,1165,1165,1165,1165,1165,1165,1161,1161,1161,1165,1161,1161,1161,1161,1157,1157,1153,1153,1153,1161,1161,0,0,0,0,0,0,0,0,1001,1001,1001,998,998,998,995,995,995,995,995,992,992,811,811,809,809,809,809,809,807,805,805,805,805,805,803,803,803,803,803,803,0,0,0,0,0,0,0,0,0,0,0,0,0,0,0,0,0,0,0,0,0,0,0,0,0,0,0,0,0,0,0,0,0,0,0,0,0,0
0,0,0,0,0,0,0,0,1343,1343,1343,1343,1343,1343,1343,1343,1343,1343,1343,1343,1338,1338,1338,1343,1343,1343,1343,1343,1343,1343,1343,1338,1338,1338,1338,1338,1338,1333,1333,1338,1333,1333,1328,1328,1333,1328,1328,1328,1328,1328,1328,1328,1328,1333,1333,1333,1333,1333,1328,1328,1333,1328,1328,1328,1328,1328,1328,1328,1328,1328,1328,1328,1328,1328,1328,1328,1322,1322,1322,1322,1322,1322,1322,1322,1322,1322,1322,1322,1322,1322,1322,1322,1087,1087,1090,1094,1094,1094,1090,1090,1090,1094,1094,1094,1097,1097,1101,1101,1101,1105,1105,1108,1108,1112,1115,1119,1119,1119,1119,1119,1123,0,0,0,0,0,0,0,0,0,0,0,0,0,749,747,747,747,747,747,747,747,747,749,750,752,752,752,754,754,757,759,759,759,759,761,761,762,764,766,767,0,0,0,0,0,1302,1292,1292,1292,1292,1288,1288,1288,1292,1292,1292,1292,1292,1288,1288,1288,1288,1288,1288,1288,1288,1288,1283,1283,1283,1283,1283,1283,1283,1283,1283,1283,1283,1283,1283,1278,1278,1278,1278,1283,1283,1283,1278,1278,1278,1278,1278,1278,1273,1273,1273,1273,1268,1268,1084,1077,1077,1073,1063,1054,1054,1050,1047,1044,1041,1041,1038,1038,1038,1038,1034,1034,1034,1031,1031,1031,1028,1025,1025,1025,1025,1025,1268,1268,1268,1268,1264,1264,1259,1259,1255,1255,1255,1255,1255,1255,1255,1255,1255,1255,1259,1259,1255,1255,1255,1255,1255,1255,1255,1255,1255,1255,1255,1255,1250,1250,1250,1250,1250,1250,1250,1250,1245,1245,1250,1250,1245,1245,1245,1245,1245,1245,1245,1245,1245,1245,1245,1250,1250,1250,1250,1250,1250,1004,1004,1004,1004,1004,1007,1007,1007,1010,1010,1010,1013,1013,1013,1013,1013,1016,1016,1016,1016,1016,1019,1019,1022,1025,1025,1028,1028,1028,1031,1034,1034,1038,1038,1041,1041,1044,1047,1047,1050,1050,1050,1050,1050,1054,1057,1060,1060,1063,1063,1063,1063,1227,1227,1227,1227,1227,1223,1223,1223,1223,1223,1223,1223,1223,1223,1223,1223,1219,1219,1219,1219,1219,1219,1219,1219,1219,1219,1219,1219,1219,1214,1214,1219,1214,1214,1214,1214,1214,1210,1210,1210,1210,1210,1210,1210,1210,1214,1210,1210,1206,1206,1206,1202,1202,1202,1202,1202,1202,1202,1206,1206,1206,1206,1206,1206,1206,1206,1206,1202,1202,1202,1202,1202,1202,1202,1202,1197,1197,1197,1197,1197,1197,1197,1197,1197,1197,1197,1197,1197,1197,1197,1197,1197,1193,1193,1193,1193,1193,1193,1193,1193,1193,1189,1189,1185,1185,1185,1185,1185,1185,1185,1185,1185,1185,1185,1185,1185,1185,1185,1185,1185,1181,1181,1181,1181,1181,1181,1181,1181,1181,1177,1177,1177,1177,1177,1177,1173,1173,1177,1173,1173,1173,1173,1173,1173,1173,1169,1169,1169,1169,1169,1169,1169,1169,1169,1169,1169,1169,1169,1165,1165,1169,1165,1165,1165,1165,1165,1165,1165,1165,1165,1165,1165,1165,1161,1161,1161,1161,1165,1165,1165,1165,1165,1165,1165,1165,1161,1161,1161,1161,1161,1161,1161,1157,1157,1157,1153,1153,1153,1153,1153,1161,0,0,0,0,0,0,0,0,1001,1001,998,998,998,998,995,995,995,992,992,992,995,811,811,811,809,809,809,809,807,805,805,805,805,805,803,803,803,803,803,803,0,0,0,0,0,0,0,0,0,0,0,0,0,0,0,0,0,0,0,0,0,0,0,0,0,0,0,0,0,0,0,0,0,0,0,0,0,0
0,0,0,0,0,0,0,0,1343,1343,1343,1343,1343,1343,1343,1343,1338,1338,1338,1338,1338,1338,1338,1338,1333,1333,1333,1333,1338,1338,1338,1333,1333,1338,1338,1333,1333,1333,1333,1333,1328,1328,1328,1328,1328,1328,1328,1328,1328,1328,1328,1328,1328,1328,1328,1328,1328,1328,1328,1328,1322,1322,1322,1322,1322,1322,1322,1322,1322,1317,1317,1317,1317,1322,1322,1317,1317,1317,1322,1322,1317,1317,1317,1317,1317,1317,1317,1317,1317,1317,1317,1317,1090,1090,1094,1094,1094,1094,1094,1094,1094,1094,1094,1097,1101,1101,1101,1101,1101,1105,1105,1108,1108,1112,1115,1119,1119,1119,1123,1123,1302,0,0,0,0,0,0,0,0,0,0,0,0,0,0,750,749,747,747,747,747,747,749,749,750,752,752,752,754,754,755,759,759,759,759,761,761,764,764,766,767,0,0,0,0,0,0,1292,1288,1288,1288,1288,1288,1288,1288,1288,1288,1288,1288,1288,1288,1288,1283,1283,1288,1288,1283,1283,1283,1283,1283,1283,1278,1278,1283,1283,1283,1283,1278,1278,1278,1278,1278,1278,1278,1278,1278,1278,1273,1273,1273,1273,1273,1273,1273,1273,1268,1268,1268,1268,1264,1077,1077,1073,1063,1060,1054,1050,1047,1044,1041,1041,1038,1038,1034,1031,1031,1031,1031,1028,1028,1025,1025,1025,1025,1022,1022,1022,1022,1268,1268,1264,1264,1259,1259,1255,1255,1255,1250,1250,1250,1250,1250,1250,1250,1255,1255,1255,1255,1250,1250,1250,1250,1250,1250,1250,1250,1250,1250,1250,1250,1245,1245,1245,1245,1245,1245,1245,1245,1245,1245,1245,1241,1241,1241,1241,1241,1241,1241,1245,1245,1245,1245,1245,1250,1250,1250,998,998,1004,1004,1004,1004,1004,1007,1007,1007,1007,1010,1010,1010,1010,1013,1013,1013,1016,1016,1016,1016,1016,1019,1019,1022,1025,1025,1028,1028,1028,1031,1034,1034,1038,1038,1044,1044,1047,1047,1050,1050,1050,1050,1050,1054,1054,1057,1060,1060,1063,1063,1063,1063,1223,1223,1223,1223,1223,1219,1219,1219,1219,1219,1219,1219,1219,1219,1219,1219,1219,1219,1219,1219,1214,1214,1214,1214,1214,1214,1214,1214,1214,1214,1214,1214,1214,1214,1210,1210,1210,1206,1206,1206,1206,1206,1210,1210,1210,1210,1210,1206,1206,1206,1206,1202,1202,1202,1202,1202,1202,1202,1202,1202,1202,1202,1202,1202,1202,1202,1202,1202,1202,1202,1202,1202,1202,1197,1197,1197,1197,1197,1197,1197,1197,1197,1197,1197,1197,1193,1193,1193,1193,1193,1193,1193,1193,1189,1189,1189,1193,1193,1189,1189,1185,1185,1185,1185,1185,1181,1181,1181,1181,1181,1181,1181,1181,1181,1181,1181,1181,1181,1181,1181,1181,1181,1181,1181,1181,1181,1181,1181,1173,1173,1173,1173,1173,1173,1173,1173,1173,1173,1173,1173,1169,1169,1169,1169,1169,1169,1169,1169,1169,1169,1169,1165,1165,1165,1165,1165,1165,1169,1165,1165,1165,1165,1165,1165,1165,1165,1161,1157,1153,1153,1153,1153,1161,1157,1157,1157,1157,1157,1157,1161,1161,1161,1161,1161,1161,1161,1161,1157,1157,1157,1157,1157,1153,1153,1153,1149,1149,1149,1153,1153,1157,0,0,0,0,0,0,1004,1001,1001,1001,998,998,995,992,992,992,995,992,992,992,811,811,809,809,809,809,809,809,807,805,805,805,805,805,803,803,803,803,803,803,0,0,0,0,0,0,0,0,0,0,0,0,0,0,0,0,0,0,0,0,0,0,0,0,0,0,0,0,0,0,0,0,0,0,0,0,0,0
0,0,0,0,0,0,0,0,1338,1338,1338,1338,1338,1343,1343,1338,1338,1333,1333,1338,1333,1333,1333,1333,1333,1333,1328,1328,1328,1328,1328,1328,1333,1333,1333,1328,1328,1328,1328,1328,1328,1322,1322,1328,1328,1328,1328,1322,1322,1322,1322,1322,1322,1322,1322,1322,1328,1322,1322,1322,1322,1322,1322,1322,1322,1322,1317,1317,1317,1312,1312,1312,1312,1312,1312,1312,1312,1312,1317,1317,1317,1317,1317,1317,1317,1312,1312,1312,1312,1312,1312,1307,1302,1302,1097,1097,1094,1094,1094,1094,1094,1094,1094,1097,1101,1101,1101,1101,1105,1105,1105,1108,1108,1112,1115,1119,1292,1292,1292,1297,1297,0,0,0,0,0,0,0,0,0,0,0,0,0,0,750,749,747,747,747,747,749,749,750,750,752,752,754,754,754,755,759,759,759,759,761,762,764,764,766,0,0,0,0,0,0,0,1288,1288,1288,1288,1283,1283,1278,1278,1283,1283,1283,1283,1283,1283,1283,1283,1283,1283,1283,1278,1278,1278,1278,1278,1278,1278,1278,1278,1278,1278,1278,1273,1273,1273,1273,1273,1273,1273,1273,1273,1273,1268,1268,1268,1268,1268,1268,1268,1268,1268,1268,1264,1264,1264,1259,1259,1073,1063,1060,1057,1054,1050,1047,1041,1041,1038,1034,1034,1031,1028,1025,1025,1025,1025,1025,1025,1022,1022,1022,1022,1022,1022,1268,1268,1264,1264,1259,1255,1250,1250,1250,1250,1250,1250,1250,1250,1250,1250,1250,1250,1250,1250,1250,1250,1250,1250,1250,1250,1250,1250,1250,1250,1245,1245,1245,1245,1241,1241,1241,1245,1245,1241,1241,1241,1241,1241,1241,1241,1241,1241,1241,1241,1241,1245,1245,1245,1245,1245,1250,1001,998,998,1004,1004,1004,1004,1007,1007,1007,1007,1007,1007,1007,1010,1010,1010,1013,1013,1013,1013,1016,1016,1016,1019,1022,1025,1025,1028,1028,1028,1031,1031,1034,1034,1038,1038,1044,1047,1050,1050,1050,1050,1050,1050,1054,1054,1054,1057,1060,1060,1063,1063,1063,1063,1063,1223,1219,1219,1219,1219,1219,1214,1214,1219,1219,1219,1214,1214,1214,1214,1214,1214,1214,1214,1214,1214,1210,1210,1210,1214,1210,1210,1210,1210,1210,1210,1210,1210,1210,1210,1206,1206,1202,1202,1202,1202,1206,1206,1206,1206,1206,1206,1206,1202,1202,1202,1202,1197,1197,1197,1197,1197,1197,1197,1197,1197,1197,1197,1202,1197,1197,1197,1197,1197,1197,1197,1197,1197,1197,1197,1193,1193,1193,1193,1193,1193,1193,1193,1193,1189,1189,1189,1189,1189,1189,1189,1189,1185,1185,1185,1185,1185,1185,1181,1181,1181,1181,1181,1181,1181,1181,1181,1181,1181,1177,1177,1173,1173,1177,1177,1177,1177,1173,1173,1181,1177,1177,1177,1177,1177,1177,1173,1169,1169,1169,1169,1173,1173,1173,1169,1169,1169,1169,1169,1169,1169,1169,1169,1169,1165,1165,1165,1165,1165,1165,1165,1161,1161,1161,1161,1165,1157,1157,1157,1157,1157,1161,1161,1161,1161,1157,1153,1153,1153,1149,1149,1153,1153,1153,1153,1153,1153,1153,1153,1153,1153,1153,1153,1157,1157,1157,1153,1153,1153,1149,1149,1149,1149,1149,1149,1149,1145,1141,1141,1141,0,0,0,0,0,1004,1004,1001,1001,1001,1001,998,995,992,992,992,992,992,809,809,809,811,809,809,809,809,809,807,807,805,805,805,805,805,803,803,803,803,803,803,0,0,0,0,0,0,0,0,0,0,0,0,0,0,0,0,0,0,0,0,0,0,0,0,0,0,0,0,0,0,0,0,0,0,0,0,0,0
0,0,0,0,0,0,0,0,1333,1333,1333,1333,1333,1338,1333,1333,1333,1333,1333,1333,1333,1333,1333,1328,1328,1328,1328,1328,1328,1328,1328,1328,1328,1328,1328,1328,1328,1328,1322,1322,1322,1322,1322,1322,1322,1322,1322,1322,1322,1322,1322,1322,1317,1317,1322,1322,1322,1322,1322,1317,1317,1317,1317,1317,1317,1312,1312,1312,1312,1312,1312,1312,1312,1312,1312,1312,1312,1312,1312,1312,1312,1312,1312,1312,1312,1312,1312,1307,1307,1307,1307,1302,1297,1297,1297,1097,1097,1097,1097,1097,1097,1097,1097,1097,1101,1101,1101,1101,1105,1105,1108,1108,1108,1115,1115,1119,1292,1292,1292,1292,1292,1292,0,0,0,0,0,0,0,0,0,0,0,0,0,0,749,749,749,749,749,749,749,750,752,752,752,754,754,755,755,757,759,759,759,761,762,764,764,766,767,0,0,0,0,0,0,1288,1283,1283,1283,1283,1278,1273,1273,1278,1278,1273,1273,1273,1278,1278,1278,1278,1278,1278,1273,1273,1273,1273,1273,1273,1273,1273,1273,1273,1273,1273,1268,1268,1268,1268,1268,1268,1268,1268,1268,1268,1268,1268,1268,1268,1264,1264,1268,1268,1264,1264,1264,1259,1259,1259,1255,1255,1063,1060,1057,1054,1050,1047,1041,1041,1038,1034,1034,1028,1028,1025,1025,1022,1022,1022,1019,1019,1022,1019,1019,1019,1013,1013,1268,1264,1259,1255,1255,1250,1250,1250,1250,1245,1245,1245,1245,1245,1245,1245,1250,1250,1250,1250,1245,1245,1245,1245,1245,1245,1245,1245,1245,1245,1245,1245,1241,1241,1241,1241,1241,1241,1236,1236,1236,1236,1236,1236,1236,1236,1236,1236,1236,1241,1245,989,989,989,989,992,995,1001,1001,1001,1004,1004,1004,1004,1004,1004,1004,1004,1004,1007,1007,1007,1010,1010,1013,1013,1013,1016,1016,1016,1019,1022,1025,1025,1028,1028,1028,1031,1031,1034,1034,1034,1038,1044,1047,1050,1050,1050,1050,1050,1054,1054,1054,1057,1057,1060,1063,1063,1063,1063,1063,1063,1214,1214,1214,1214,1214,1214,1210,1210,1214,1214,1214,1210,1210,1214,1214,1214,1210,1210,1210,1210,1210,1210,1210,1210,1210,1206,1206,1206,1206,1206,1206,1206,1206,1202,1202,1202,1202,1202,1202,1202,1202,1202,1202,1202,1202,1202,1202,1202,1202,1202,1197,1197,1197,1197,1197,1197,1193,1193,1193,1197,1193,1193,1193,1189,1189,1189,1193,1193,1193,1197,1193,1193,1193,1193,1193,1193,1189,1189,1193,1189,1189,1189,1189,1189,1185,1185,1185,1185,1185,1185,1185,1185,1185,1181,1181,1181,1181,1181,1181,1181,1181,1181,1181,1181,1177,1177,1177,1177,1177,1173,1173,1173,1173,1173,1173,1173,1173,1169,1169,1173,1173,1173,1173,1173,1173,1169,1169,1169,1169,1169,1169,1169,1169,1169,1169,1169,1169,1169,1169,1165,1165,1165,1165,1165,1161,1161,1161,1161,1161,1161,1161,1161,1161,1157,1157,1157,1153,1153,1153,1153,1153,1153,1153,1153,1153,1153,1149,1149,1149,1149,1149,1149,1149,1149,1145,1145,1149,1153,1153,1149,1149,1149,1149,1153,1153,1149,1149,1149,1149,1149,1149,1149,1149,1149,1149,1149,1145,1141,1141,1141,1153,0,0,0,0,1004,1004,1001,1001,1001,1001,998,995,992,992,992,992,992,809,809,809,809,809,809,809,809,809,807,807,805,805,805,805,805,805,805,805,803,803,805,0,0,0,0,0,0,0,0,0,0,0,0,0,0,0,0,0,0,0,0,0,0,0,0,0,0,0,0,0,0,0,0,0,0,0,0,0,0
0,0,0,0,0,0,0,0,1333,1333,1333,1333,1333,1333,1328,1328,1328,1328,1328,1333,1328,1328,1328,1328,1328,1328,1328,1328,1328,1328,1328,1328,1328,1328,1322,1322,1322,1317,1317,1317,1322,1322,1322,1322,1322,1322,1322,1322,1322,1317,1317,1317,1317,1317,1317,1317,1317,1317,1317,1317,1317,1317,1312,1312,1312,1307,1307,1307,1312,1307,1307,1307,1307,1307,1307,1307,1307,1307,1312,1307,1307,1307,1307,1307,1312,1307,1307,1307,1307,1302,1302,1297,1292,1292,1297,1101,1101,1101,1097,1097,1097,1101,1101,1101,1101,1101,1101,1105,1105,1105,1108,1108,1108,1112,1112,1292,1292,1288,1288,1292,1292,1292,0,0,0,0,0,0,0,0,0,0,0,0,0,0,750,749,749,749,749,749,750,750,752,752,754,754,754,755,755,757,759,759,759,761,762,764,766,766,767,0,0,0,0,0,0,0,1278,1278,1278,1278,1273,1273,1273,1273,1273,1273,1273,1273,1273,1268,1268,1268,1273,1273,1273,1273,1268,1268,1268,1268,1268,1268,1268,1268,1268,1268,1268,1268,1268,1264,1264,1264,1264,1264,1264,1264,1264,1264,1264,1264,1264,1264,1264,1264,1264,1264,1259,1259,1259,1255,1255,1255,1250,1063,1060,1057,1054,1050,1041,1038,1038,1034,1031,1028,1025,1025,1022,1022,1019,1019,1019,1019,1016,1016,1013,1013,1013,1013,1010,1010,1259,1255,1255,1250,1250,1250,1245,1245,1245,1245,1245,1245,1245,1245,1245,1245,1245,1245,1245,1245,1245,1245,1241,1241,1241,1241,1241,1241,1241,1241,1241,1236,1236,1236,1236,1236,1232,1232,1232,1232,1232,1232,1232,1232,1232,1232,1232,1236,989,989,989,989,989,992,995,998,998,998,1001,1004,1004,1004,1004,1004,1004,1004,1004,1004,1004,1007,1007,1010,1010,1013,1013,1016,1016,1019,1019,1022,1025,1025,1028,1028,1028,1031,1034,1034,1034,1034,1041,1044,1047,1050,1050,1050,1054,1054,1054,1054,1054,1057,1057,1060,1063,1063,1063,1063,1063,1063,1214,1214,1210,1210,1214,1210,1210,1206,1206,1206,1206,1206,1206,1206,1210,1210,1206,1206,1206,1206,1206,1206,1206,1206,1206,1206,1202,1202,1202,1202,1202,1202,1202,1202,1202,1202,1197,1197,1197,1197,1197,1197,1197,1202,1202,1202,1197,1197,1197,1197,1197,1197,1193,1193,1193,1193,1189,1189,1189,1193,1189,1189,1189,1189,1189,1189,1185,1185,1185,1185,1185,1189,1185,1185,1189,1189,1189,1189,1189,1189,1189,1189,1189,1185,1185,1185,1185,1181,1181,1181,1181,1181,1181,1177,1173,1173,1177,1177,1177,1177,1177,1177,1177,1177,1173,1173,1173,1173,1169,1169,1169,1169,1169,1169,1169,1169,1169,1169,1169,1169,1169,1169,1169,1169,1169,1169,1169,1169,1165,1165,1165,1165,1165,1165,1165,1165,1165,1165,1165,1165,1161,1161,1161,1161,1157,1157,1157,1157,1157,1157,1157,1157,1157,1157,1157,1153,1153,1153,1153,1153,1149,1149,1149,1149,1149,1153,1145,1145,1145,1145,1149,1149,1145,1145,1141,1141,1145,1145,1145,1145,1145,1145,1149,1149,1149,1149,1149,1149,1149,1149,1149,1145,1145,1149,1145,1145,1141,1141,1141,1141,1141,1141,0,1007,1007,1007,1004,1004,1001,1001,1001,998,998,995,992,992,992,992,811,811,809,809,809,809,809,809,809,809,807,805,805,805,805,805,805,805,803,803,803,803,0,0,0,0,0,0,0,0,0,0,0,0,0,0,0,0,0,0,0,0,0,0,0,0,0,0,0,0,0,0,0,0,0,0,0,0,0,0
0,0,0,0,0,0,0,0,1328,1328,1328,1328,1328,1328,1328,1328,1328,1328,1328,1322,1322,1322,1322,1322,1322,1322,1322,1322,1322,1322,1322,1322,1322,1322,1322,1317,1317,1312,1312,1312,1312,1312,1312,1312,1322,1322,1322,1317,1317,1312,1312,1312,1307,1307,1307,1307,1312,1312,1317,1312,1312,1312,1312,1307,1307,1307,1307,1307,1307,1307,1307,1307,1307,1307,1307,1307,1307,1307,1307,1307,1307,1307,1307,1307,1307,1307,1302,1302,1302,1302,1292,1292,1292,1288,1288,1105,1105,1101,1101,1101,1101,1101,1101,1101,1101,1101,1105,1105,1105,1105,1108,1108,1108,1108,1112,1292,1292,1288,1288,1288,1288,1288,1288,0,0,0,0,0,0,0,0,0,0,0,0,0,0,752,750,750,750,750,752,752,752,754,754,754,755,755,757,759,759,759,761,761,762,766,766,767,767,769,0,0,0,0,0,0,1278,1268,1268,1273,1268,1268,1268,1268,1268,1268,1268,1268,1268,1268,1264,1264,1264,1264,1264,1264,1268,1268,1268,1264,1264,1264,1264,1264,1264,1264,1264,1264,1264,1264,1264,1264,1259,1259,1259,1259,1259,1255,1255,1259,1259,1259,1259,1259,1259,1259,1255,1255,1255,1255,1250,1250,1250,1250,1060,1054,1054,1050,1041,1038,1038,1034,1031,1028,1025,1025,1022,1019,1019,1019,1016,1016,1013,1013,1013,1013,1010,1007,1007,1007,1007,1255,1255,1250,1250,1250,1245,1245,1245,1245,1245,1245,1245,1245,1245,1241,1241,1241,1241,1241,1241,1241,1241,1236,1236,1236,1236,1236,1236,1236,1236,1232,1232,1232,1232,1232,1232,1227,1227,1227,1232,1232,1232,1232,1232,1232,987,987,989,989,989,989,989,989,992,995,995,995,998,998,998,1001,1001,1004,1004,1004,1004,1004,1004,1007,1007,1010,1010,1013,1013,1016,1016,1019,1022,1025,1025,1028,1028,1031,1031,1031,1031,1031,1031,1034,1041,1044,1050,1050,1054,1054,1054,1054,1054,1054,1054,1057,1060,1063,1063,1063,1067,1067,1067,1067,1210,1210,1210,1210,1210,1206,1202,1202,1202,1202,1202,1202,1202,1202,1202,1206,1202,1202,1202,1202,1202,1202,1202,1202,1202,1202,1197,1197,1197,1197,1197,1197,1197,1197,1197,1197,1197,1197,1197,1197,1197,1193,1193,1197,1197,1193,1193,1193,1193,1193,1193,1193,1189,1189,1189,1189,1185,1185,1185,1185,1185,1185,1185,1185,1185,1185,1185,1181,1181,1181,1181,1181,1185,1185,1185,1185,1185,1185,1185,1185,1185,1185,1185,1185,1181,1181,1181,1181,1181,1181,1177,1177,1173,1173,1173,1173,1173,1173,1173,1173,1173,1173,1173,1173,1169,1169,1169,1169,1169,1165,1165,1165,1165,1169,1169,1165,1165,1165,1165,1165,1165,1165,1165,1165,1165,1165,1165,1165,1165,1165,1165,1165,1165,1165,1165,1161,1161,1161,1165,1161,1161,1157,1157,1157,1153,1153,1153,1153,1153,1153,1153,1157,1153,1153,1153,1153,1153,1153,1149,1149,1149,1149,1149,1149,1149,1149,1145,1145,1145,1145,1149,1149,1145,1141,1138,1138,1141,1141,1141,1141,1141,1145,1145,1145,1145,1141,1141,1145,1145,1141,1141,1138,1138,1138,1138,1141,1138,1138,1138,1138,1138,1138,1013,1007,1007,1007,1004,1004,1001,1001,1001,998,998,995,995,998,998,811,811,811,811,811,809,809,809,809,809,809,807,807,807,805,805,805,805,805,803,803,803,803,0,0,0,0,0,0,0,0,0,0,0,0,0,0,0,0,0,0,0,0,0,0,0,0,0,0,0,0,0,0,0,0,0,0,0,0,0,0
0,0,0,0,0,0,0,0,1328,1328,1328,1328,1328,1328,1322,1322,1322,1322,1322,1317,1312,1312,1317,1317,1317,1322,1322,1322,1322,1322,1322,1317,1317,1317,1312,1312,1312,1307,1307,1307,1307,1307,1307,1307,1312,1312,1312,1312,1312,1307,1307,1307,1307,1307,1307,1307,1307,1307,1307,1307,1307,1307,1307,1307,1307,1302,1302,1302,1307,1302,1302,1302,1302,1302,1302,1302,1302,1302,1302,1302,1302,1302,1302,1302,1302,1297,1297,1297,1297,1292,1292,1288,1288,1288,1288,1288,1101,1101,1101,1101,1101,1101,1101,1101,1101,1101,1105,1105,1105,1108,1108,1108,1108,1108,1112,1292,1288,1283,1278,1278,1278,1278,1283,0,0,0,0,0,0,0,0,0,0,0,0,764,764,754,752,752,752,752,752,752,752,754,754,754,755,755,757,759,761,761,761,761,762,766,766,767,767,769,0,0,0,0,0,0,0,1268,1268,1268,1268,1264,1264,1264,1264,1264,1264,1264,1264,1264,1264,1264,1264,1264,1264,1264,1259,1259,1264,1264,1264,1264,1264,1264,1264,1259,1259,1259,1259,1259,1259,1259,1255,1255,1255,1255,1255,1250,1250,1255,1255,1255,1259,1255,1255,1255,1255,1250,1250,1250,1250,1250,1250,1250,1060,1054,1054,1050,1044,1041,1038,1034,1031,1028,1025,1025,1022,1019,1019,1016,1016,1013,1013,1010,1010,1010,1007,1007,1004,1004,1004,1004,1250,1250,1250,1245,1245,1245,1245,1245,1245,1241,1241,1241,1241,1241,1236,1236,1236,1236,1236,1236,1236,1236,1232,1232,1232,1232,1232,1232,1232,1232,1232,1232,1232,1232,1227,1227,1227,1227,1227,1227,1227,1227,1227,984,984,987,989,989,989,989,989,989,989,992,992,992,995,995,995,998,998,1001,1001,1001,1004,1004,1004,1007,1007,1010,1010,1013,1013,1016,1016,1019,1022,1025,1028,1028,1028,1031,1031,1031,1031,1031,1031,1031,1044,1050,1050,1054,1054,1054,1054,1054,1054,1054,1057,1057,1060,1063,1063,1063,1067,1067,1067,1067,1202,1202,1206,1206,1206,1202,1202,1197,1197,1197,1197,1197,1197,1197,1197,1202,1202,1202,1202,1197,1197,1197,1197,1197,1197,1197,1197,1197,1197,1193,1193,1193,1193,1193,1193,1193,1193,1193,1193,1193,1193,1189,1189,1189,1189,1189,1189,1189,1189,1189,1189,1189,1185,1185,1185,1185,1185,1185,1185,1185,1185,1185,1185,1185,1185,1185,1181,1181,1181,1177,1177,1177,1177,1177,1177,1181,1181,1181,1181,1181,1181,1185,1181,1181,1181,1181,1181,1181,1177,1177,1173,1173,1173,1169,1169,1169,1169,1169,1169,1169,1173,1173,1173,1169,1169,1169,1165,1165,1165,1165,1165,1165,1165,1165,1165,1165,1165,1165,1165,1161,1161,1161,1165,1165,1161,1161,1161,1161,1161,1161,1161,1161,1165,1165,1161,1161,1161,1161,1161,1157,1157,1153,1153,1153,1153,1153,1149,1149,1149,1153,1153,1153,1153,1153,1153,1153,1149,1149,1149,1149,1149,1149,1145,1145,1141,1141,1141,1141,1141,1141,1141,1141,1141,1138,1138,1138,1138,1138,1138,1138,1138,1138,1138,1138,1141,1141,1141,1141,1141,1138,1138,1138,1138,1134,1134,1138,1138,1134,1134,1138,1138,1013,1013,1010,1010,1010,1007,1004,1001,1001,1001,998,998,998,998,998,813,813,811,811,811,811,809,809,809,809,809,809,809,807,807,805,805,805,805,805,803,803,803,805,0,0,0,0,0,0,0,0,0,0,0,0,0,0,0,0,0,0,0,0,0,0,0,0,0,0,0,0,0,0,0,0,0,0,0,0,0,0
0,0,0,0,0,0,0,0,1328,1328,1322,1322,1322,1322,1322,1322,1317,1317,1317,1312,1307,1307,1312,1312,1312,1317,1317,1317,1317,1317,1317,1317,1312,1312,1312,1307,1307,1307,1307,1307,1302,1302,1302,1302,1302,1307,1307,1302,1302,1302,1302,1302,1302,1302,1302,1302,1302,1302,1307,1307,1302,1302,1302,1302,1302,1302,1302,1302,1302,1302,1302,1302,1302,1302,1297,1297,1297,1297,1297,1297,1297,1297,1297,1297,1297,1292,1292,1292,1292,1292,1288,1288,1288,1288,1283,1283,1283,1101,1101,1101,1101,1101,1101,1101,1101,1101,1105,1105,1105,1108,1108,1112,1112,1112,1112,1112,1288,1278,1273,1273,1273,1278,1273,1273,0,0,0,0,0,0,0,0,0,0,0,761,759,755,754,754,754,752,752,752,754,754,754,754,755,755,759,759,761,761,761,764,764,766,766,767,769,769,773,0,0,0,0,0,0,1268,1264,1264,1264,1264,1259,1259,1264,1264,1264,1264,1264,1259,1259,1259,1259,1259,1259,1259,1259,1259,1259,1259,1255,1255,1255,1259,1259,1255,1255,1255,1255,1255,1255,1255,1250,1250,1250,1250,1250,1250,1250,1250,1255,1255,1255,1250,1250,1250,1250,1250,1245,1245,1245,1245,1245,1241,1241,1241,1057,1050,1050,1041,1038,1038,1031,1028,1025,1025,1022,1019,1019,1016,1013,1013,1010,1010,1010,1010,1007,1004,1004,1004,1004,1001,1001,1250,1250,1245,1241,1241,1241,1241,1241,1236,1236,1236,1236,1236,1232,1232,1232,1232,1232,1232,1232,1232,1232,1227,1227,1227,1227,1227,1232,1227,1227,1227,1227,1227,1227,1227,1227,1227,1227,1227,1227,1227,984,984,984,987,987,987,987,989,989,989,989,992,992,992,992,992,995,995,998,998,1001,1001,1001,1004,1004,1007,1007,1010,1010,1013,1016,1016,1016,1019,1022,1025,1028,1028,1031,1031,1031,1031,1028,1028,1031,1031,1067,1063,1057,1054,1054,1054,1054,1054,1057,1057,1057,1060,1063,1063,1063,1067,1067,1067,1067,1067,1197,1197,1202,1202,1202,1202,1197,1197,1197,1193,1193,1193,1193,1197,1197,1197,1197,1197,1197,1197,1197,1197,1197,1197,1197,1197,1197,1197,1193,1189,1189,1189,1189,1189,1189,1189,1189,1189,1193,1189,1189,1185,1185,1185,1185,1185,1185,1185,1185,1185,1185,1185,1185,1185,1185,1185,1185,1185,1181,1181,1181,1181,1181,1181,1181,1181,1181,1177,1177,1177,1177,1177,1173,1173,1173,1173,1177,1177,1181,1181,1181,1181,1181,1181,1177,1177,1177,1177,1177,1173,1169,1169,1169,1169,1169,1169,1169,1169,1169,1169,1169,1169,1169,1169,1165,1165,1165,1165,1165,1165,1165,1165,1165,1165,1165,1161,1161,1161,1157,1157,1157,1157,1157,1157,1157,1157,1157,1157,1157,1153,1153,1153,1153,1157,1157,1157,1157,1157,1157,1153,1153,1153,1153,1149,1149,1149,1149,1149,1149,1149,1149,1149,1149,1149,1149,1149,1149,1149,1149,1149,1149,1149,1145,1145,1141,1141,1141,1138,1138,1141,1141,1138,1138,1138,1138,1138,1138,1138,1138,1134,1134,1138,1138,1138,1138,1138,1138,1138,1138,1138,1134,1134,1134,1130,1130,1138,1134,1134,1134,1134,1013,1013,1013,1013,1013,1010,1007,1004,1004,1001,998,998,995,995,998,813,813,813,813,813,811,811,811,811,811,811,811,809,809,807,807,807,805,805,805,805,803,803,805,805,0,0,0,0,0,0,0,0,0,0,0,0,0,0,0,0,0,0,0,0,0,0,0,0,0,0,0,0,0,0,0,0,0,0,0,0,0,0
0,0,0,0,0,0,0,0,1322,1322,1322,1322,1322,1322,1317,1317,1312,1312,1307,1307,1307,1307,1307,1307,1307,1307,1307,1312,1312,1312,1312,1307,1307,1312,1312,1307,1307,1302,1302,1302,1302,1302,1297,1297,1297,1302,1302,1302,1297,1297,1297,1302,1302,1302,1297,1297,1302,1302,1302,1302,1297,1297,1297,1297,1297,1297,1297,1297,1297,1297,1297,1297,1297,1292,1292,1292,1292,1292,1292,1292,1292,1292,1292,1292,1292,1288,1288,1288,1288,1288,1288,1288,1283,1283,1283,1283,1283,1105,1101,1101,1101,1101,1105,1105,1101,1101,1105,1105,1108,1108,1112,1112,1112,1112,1108,1105,1105,1278,1273,1273,1273,1273,1273,1273,1273,0,0,0,0,0,0,0,0,0,0,761,759,755,755,754,754,754,754,754,754,754,754,754,755,755,759,761,761,761,761,764,764,766,766,767,767,769,773,0,0,0,0,0,0,0,1259,1259,1259,1259,1255,1255,1255,1259,1259,1259,1259,1255,1255,1255,1255,1255,1255,1255,1255,1255,1255,1255,1255,1255,1255,1250,1250,1250,1250,1250,1250,1250,1250,1250,1250,1250,1245,1245,1250,1250,1250,1250,1250,1250,1250,1245,1245,1245,1245,1245,1245,1245,1245,1245,1241,1236,1236,1236,1232,1050,1050,1041,1038,1038,1034,1028,1025,1025,1022,1019,1016,1016,1013,1010,1010,1010,1007,1007,1004,1004,1001,1001,1001,1001,998,995,995,1245,1236,1236,1236,1232,1232,1232,1232,1232,1232,1232,1232,1232,1232,1232,1232,1227,1227,1227,1227,1227,1227,1223,1223,1227,1227,1223,1223,1223,1223,1227,1227,1223,1223,1227,1227,1227,1227,981,981,984,984,987,987,987,987,987,987,987,987,989,989,992,992,992,992,995,995,998,1001,1001,1001,1004,1004,1007,1007,1010,1010,1013,1016,1016,1016,1019,1022,1025,1028,1031,1031,1031,1031,1034,1028,1028,1080,1077,1073,1067,1060,1057,1054,1054,1057,1057,1057,1057,1057,1060,1063,1063,1067,1067,1067,1067,1070,1070,1193,1193,1197,1197,1197,1197,1197,1193,1193,1193,1193,1193,1193,1193,1193,1193,1193,1193,1193,1193,1193,1193,1193,1193,1197,1193,1193,1193,1189,1189,1189,1189,1189,1189,1189,1185,1185,1185,1185,1185,1185,1185,1185,1185,1185,1185,1185,1185,1185,1181,1181,1185,1181,1181,1181,1181,1181,1181,1177,1177,1177,1177,1177,1177,1177,1177,1177,1177,1177,1173,1173,1173,1173,1173,1173,1173,1173,1173,1177,1173,1173,1177,1177,1177,1177,1173,1173,1173,1173,1169,1169,1169,1169,1165,1165,1165,1165,1165,1165,1165,1165,1165,1165,1165,1165,1165,1161,1161,1161,1161,1161,1161,1161,1161,1161,1161,1161,1157,1157,1157,1153,1153,1157,1153,1153,1153,1153,1153,1153,1153,1149,1149,1149,1149,1153,1153,1153,1153,1153,1153,1153,1149,1149,1149,1149,1149,1149,1149,1149,1149,1149,1149,1149,1149,1149,1149,1149,1149,1149,1149,1145,1145,1141,1141,1138,1138,1138,1138,1138,1138,1138,1138,1138,1134,1134,1134,1134,1134,1134,1134,1134,1134,1134,1134,1134,1134,1134,1138,1138,1134,1134,1130,1130,1130,1126,1126,1130,1130,1130,1130,1013,1013,1013,1013,1013,1010,1007,1004,1004,1001,998,998,995,995,813,813,813,813,813,813,811,811,811,811,811,811,811,809,809,809,807,807,805,805,805,805,805,805,805,805,0,0,0,0,0,0,0,0,0,0,0,0,0,0,0,0,0,0,0,0,0,0,0,0,0,0,0,0,0,0,0,0,0,0,0,0,0,0
0,0,0,0,0,0,0,0,1312,1312,1317,1317,1317,1317,1312,1312,1307,1307,1302,1302,1302,1302,1302,1307,1307,1302,1302,1307,1302,1302,1302,1302,1302,1307,1307,1307,1302,1302,1302,1302,1302,1297,1297,1292,1292,1297,1297,1297,1297,1297,1297,1297,1297,1297,1297,1297,1292,1292,1292,1292,1292,1292,1292,1292,1292,1292,1292,1292,1292,1292,1292,1292,1292,1292,1288,1288,1292,1292,1292,1292,1288,1288,1288,1288,1288,1288,1288,1283,1283,1283,1283,1283,1283,1283,1278,1278,1278,1105,1105,1101,1101,1105,1105,1105,1105,1105,1105,1108,1108,1108,1112,1112,1112,1112,1108,1105,1105,1268,1268,1268,1268,1268,1268,1264,1264,0,0,0,0,0,0,0,0,0,0,761,759,755,755,754,754,754,754,754,754,754,754,755,755,757,759,761,761,761,762,764,766,766,766,767,767,769,773,0,0,0,0,0,0,1264,1259,1255,1255,1255,1255,1255,1255,1255,1255,1255,1255,1250,1250,1250,1250,1250,1250,1250,1250,1250,1250,1250,1250,1250,1250,1250,1250,1250,1250,1245,1245,1245,1245,1250,1245,1245,1245,1245,1245,1245,1245,1245,1245,1245,1245,1241,1241,1241,1241,1241,1241,1241,1241,1241,1236,1236,1232,1232,1232,1232,1232,1041,1038,1038,1034,1031,1028,1025,1022,1019,1016,1013,1010,1010,1010,1007,1007,1004,1001,1001,1001,1001,998,998,998,995,995,1232,1232,1232,1232,1232,1232,1232,1227,1227,1227,1227,1227,1227,1227,1227,1227,1227,1223,1223,1223,1223,1223,1219,1219,1223,1223,1223,1223,1223,1223,1223,1223,1223,1223,1223,984,981,981,981,981,984,984,984,984,984,984,984,987,987,987,989,989,989,989,989,992,992,995,998,1001,1001,1004,1004,1004,1007,1007,1010,1010,1013,1013,1016,1016,1022,1025,1028,1031,1031,1034,1038,1038,1038,1034,1034,1080,1077,1073,1070,1060,1057,1057,1057,1057,1057,1057,1057,1057,1060,1063,1063,1067,1067,1067,1067,1070,1189,1189,1193,1193,1193,1193,1193,1193,1189,1189,1189,1189,1189,1189,1189,1189,1189,1189,1193,1189,1189,1189,1189,1189,1189,1189,1189,1189,1189,1189,1185,1185,1185,1185,1185,1185,1185,1185,1185,1185,1181,1181,1181,1181,1181,1181,1181,1181,1181,1181,1181,1181,1181,1177,1177,1181,1181,1177,1177,1177,1177,1177,1173,1173,1173,1173,1173,1173,1173,1173,1173,1173,1173,1169,1169,1169,1169,1169,1169,1173,1169,1169,1169,1169,1169,1169,1169,1169,1169,1165,1165,1165,1165,1165,1165,1165,1165,1165,1165,1165,1161,1161,1161,1161,1161,1161,1161,1161,1157,1157,1157,1157,1157,1157,1157,1157,1157,1157,1157,1153,1153,1153,1153,1153,1149,1149,1149,1149,1149,1149,1149,1149,1149,1149,1149,1149,1149,1149,1149,1149,1149,1145,1145,1145,1145,1145,1145,1145,1145,1145,1145,1145,1141,1141,1145,1145,1145,1145,1145,1145,1145,1141,1141,1138,1138,1138,1138,1138,1134,1134,1134,1134,1138,1134,1134,1134,1134,1134,1134,1130,1130,1130,1134,1134,1134,1134,1134,1134,1134,1134,1130,1126,1126,1130,1126,1126,1123,1123,1126,1123,1123,1119,1013,1013,1013,1013,1013,1010,1007,1004,1001,1001,998,998,998,813,813,813,813,813,813,813,813,811,811,811,811,811,809,809,809,807,807,805,805,805,805,805,805,805,805,0,0,0,0,0,0,0,0,0,0,0,0,0,0,0,0,0,0,0,0,0,0,0,0,0,0,0,0,0,0,0,0,0,0,0,0,0,0
0,0,0,0,0,0,0,0,1307,1307,1312,1312,1312,1312,1307,1307,1307,1307,1302,1302,1302,1302,1302,1302,1302,1297,1297,1297,1297,1292,1292,1297,1297,1297,1302,1302,1302,1302,1302,1297,1297,1297,1292,1292,1292,1292,1292,1292,1292,1292,1297,1297,1297,1297,1292,1292,1288,1288,1288,1288,1288,1288,1288,1288,1288,1292,1288,1288,1288,1288,1288,1288,1288,1288,1288,1288,1288,1288,1288,1288,1288,1288,1288,1283,1283,1283,1283,1283,1283,1283,1283,1283,1283,1278,1273,1273,1273,1105,1105,1105,1105,1105,1105,1105,1105,1105,1105,1108,1108,1108,1112,1115,1112,1112,1112,1112,1112,1268,1268,1268,1268,1268,1268,1264,1264,0,0,0,0,0,0,0,0,0,0,0,761,759,755,755,754,754,754,754,754,754,755,755,755,757,759,761,761,762,762,766,766,767,767,767,767,769,771,0,0,0,0,0,0,1264,1255,1250,1250,1250,1250,1250,1250,1250,1250,1250,1250,1250,1250,1250,1250,1250,1250,1250,1245,1245,1245,1245,1245,1245,1250,1245,1245,1245,1245,1245,1245,1241,1241,1241,1241,1241,1245,1245,1245,1245,1245,1241,1241,1241,1241,1236,1236,1236,1236,1236,1236,1236,1236,1236,1236,1232,1232,1232,1227,1227,1227,1038,1038,1034,1034,1031,1028,1025,1022,1019,1016,1010,1010,1010,1007,1007,1004,1001,1001,1001,1001,998,998,998,992,989,987,987,1232,1232,1227,1227,1227,1227,1227,1227,1227,1223,1219,1219,1223,1223,1223,1223,1223,1223,1223,1223,1219,1219,1219,1219,1219,1219,1219,1219,1219,1219,1223,1219,1219,1223,981,981,981,981,981,981,981,984,981,981,984,984,984,984,984,987,989,989,989,989,992,992,995,998,1001,1001,1004,1004,1004,1007,1007,1010,1010,1013,1013,1016,1019,1022,1025,1028,1031,1034,1034,1038,1189,1189,1189,1189,1084,1080,1077,1073,1063,1060,1057,1057,1057,1057,1057,1057,1060,1060,1063,1067,1067,1067,1070,1070,1073,1077,1189,1189,1189,1193,1193,1193,1189,1189,1189,1185,1185,1185,1185,1185,1185,1185,1185,1185,1185,1185,1185,1185,1185,1185,1185,1185,1185,1185,1185,1185,1185,1185,1185,1185,1185,1185,1181,1181,1181,1181,1181,1181,1181,1181,1181,1181,1181,1181,1177,1177,1177,1177,1177,1177,1177,1177,1177,1177,1173,1173,1173,1169,1169,1169,1169,1169,1173,1173,1173,1169,1169,1169,1169,1169,1169,1169,1169,1169,1169,1169,1169,1165,1165,1165,1165,1165,1165,1165,1165,1161,1161,1161,1161,1161,1161,1161,1161,1161,1157,1157,1157,1157,1157,1157,1157,1157,1157,1157,1157,1153,1153,1153,1153,1153,1153,1153,1153,1153,1153,1149,1149,1149,1149,1145,1145,1145,1141,1141,1141,1141,1149,1149,1149,1149,1149,1145,1145,1145,1141,1141,1141,1141,1141,1145,1141,1141,1141,1141,1141,1141,1141,1138,1138,1141,1141,1141,1141,1141,1141,1141,1138,1138,1138,1138,1134,1134,1134,1134,1134,1134,1134,1134,1134,1130,1130,1130,1130,1130,1130,1130,1130,1134,1134,1130,1130,1130,1130,1130,1130,1126,1126,1123,1123,1123,1123,1123,1123,1123,1119,1108,1108,1016,1016,1016,1013,1010,1010,1007,1004,1001,1001,998,998,815,813,813,813,813,813,813,813,813,813,811,811,811,811,811,809,809,809,807,807,805,805,805,805,805,805,805,0,0,0,0,0,0,0,0,0,0,0,0,0,0,0,0,0,0,0,0,0,0,0,0,0,0,0,0,0,0,0,0,0,0,0,0,0,0
0,0,0,0,0,0,0,0,1302,1302,1307,1307,1307,1307,1302,1302,1302,1302,1302,1302,1302,1302,1302,1302,1297,1297,1292,1292,1292,1292,1292,1292,1297,1297,1302,1302,1302,1297,1297,1297,1297,1292,1292,1288,1288,1288,1288,1288,1288,1288,1292,1292,1292,1292,1292,1292,1288,1288,1288,1283,1283,1283,1283,1283,1283,1283,1283,1283,1283,1283,1283,1283,1288,1288,1288,1288,1288,1288,1288,1288,1288,1283,1283,1283,1283,1283,1283,1283,1283,1283,1283,1283,1278,1278,1273,1273,1268,1268,1105,1105,1105,1105,1105,1105,1105,1105,1108,1108,1108,1108,1112,1115,1115,1115,1112,1112,1112,1112,1268,1268,1268,1268,1268,1264,1264,0,0,0,0,0,0,0,0,0,0,0,0,761,755,755,754,754,754,754,754,754,755,755,755,759,761,761,762,762,764,766,766,767,767,767,767,769,771,0,0,0,0,0,0,0,1250,1245,1245,1245,1245,1250,1250,1250,1250,1250,1250,1250,1245,1245,1245,1245,1245,1245,1245,1245,1245,1245,1245,1245,1245,1245,1245,1245,1241,1241,1241,1236,1236,1236,1241,1241,1241,1241,1241,1241,1241,1236,1236,1236,1236,1232,1232,1232,1232,1232,1232,1232,1232,1232,1232,1232,1232,1227,1227,1227,1227,1038,1034,1034,1034,1031,1028,1025,1022,1019,1016,1010,1010,1010,1004,1004,1001,1001,998,998,998,995,995,995,992,989,987,987,987,987,1227,1227,1227,1223,1223,1223,1223,1223,1219,1214,1214,1214,1214,1214,1219,1219,1219,1219,1219,1214,1214,1219,1219,1219,1219,1219,1219,978,978,978,975,975,978,978,978,978,978,978,978,981,981,981,981,981,981,984,984,987,989,989,989,989,992,992,995,998,1001,1001,1004,1004,1004,1007,1007,1010,1010,1013,1016,1016,1019,1022,1025,1197,1197,1189,1189,1189,1189,1189,1189,1189,1084,1080,1077,1073,1070,1063,1060,1060,1060,1060,1060,1060,1060,1063,1067,1067,1070,1070,1070,1073,1073,1077,1189,1189,1189,1189,1189,1189,1185,1185,1185,1185,1185,1185,1185,1185,1185,1185,1185,1185,1185,1185,1185,1185,1181,1181,1181,1181,1181,1181,1181,1181,1181,1181,1181,1181,1181,1181,1177,1177,1177,1177,1177,1177,1177,1177,1177,1181,1181,1177,1177,1177,1177,1173,1173,1173,1173,1173,1173,1173,1169,1169,1169,1169,1169,1169,1169,1169,1169,1169,1169,1169,1169,1169,1165,1165,1165,1165,1165,1165,1165,1165,1165,1165,1165,1165,1161,1161,1161,1157,1157,1157,1157,1157,1157,1157,1157,1157,1157,1157,1157,1153,1153,1153,1153,1153,1153,1153,1153,1153,1153,1153,1149,1149,1149,1149,1149,1149,1149,1149,1149,1149,1149,1145,1145,1141,1141,1141,1138,1138,1141,1141,1145,1145,1149,1145,1145,1145,1145,1145,1141,1141,1138,1138,1138,1141,1138,1138,1141,1138,1138,1138,1138,1138,1138,1138,1138,1138,1138,1138,1134,1134,1134,1134,1134,1134,1134,1134,1134,1130,1130,1130,1130,1130,1130,1130,1126,1126,1130,1126,1126,1130,1130,1130,1130,1130,1130,1126,1126,1126,1126,1123,1123,1123,1123,1123,1123,1123,1123,1119,1119,1108,1105,1016,1016,1016,1013,1010,1010,1004,1004,1001,1001,998,998,813,813,813,813,813,813,813,813,813,813,813,813,811,811,811,809,809,809,807,807,807,805,805,805,805,805,805,0,0,0,0,0,0,0,0,0,0,0,0,0,0,0,0,0,0,0,0,0,0,0,0,0,0,0,0,0,0,0,0,0,0,0,0,0,0
0,0,0,0,0,0,0,0,1302,1302,1302,1307,1302,1302,1302,1302,1302,1302,1302,1302,1297,1297,1297,1297,1292,1292,1288,1288,1288,1288,1292,1292,1292,1292,1297,1297,1297,1297,1297,1292,1292,1292,1288,1288,1288,1288,1288,1288,1288,1288,1288,1288,1288,1288,1288,1288,1283,1283,1283,1283,1283,1283,1283,1278,1278,1278,1278,1278,1278,1278,1278,1278,1283,1283,1283,1283,1283,1283,1283,1283,1283,1278,1278,1278,1278,1278,1278,1278,1278,1278,1278,1278,1273,1273,1268,1268,1268,1268,1105,1105,1105,1105,1105,1105,1105,1105,1108,1108,1108,1108,1115,1115,1115,1115,1112,1112,1112,1112,1264,1264,1264,1264,1264,1264,1264,0,0,0,0,0,0,0,0,0,0,0,0,762,755,755,754,754,754,754,755,755,755,755,757,759,761,761,762,762,764,766,766,767,767,767,769,769,771,0,0,0,0,0,0,0,1245,1245,1245,1245,1245,1245,1245,1245,1245,1245,1245,1245,1245,1245,1245,1245,1245,1241,1241,1241,1241,1241,1245,1245,1241,1241,1241,1241,1241,1236,1236,1236,1236,1236,1236,1236,1236,1236,1236,1236,1232,1232,1232,1232,1232,1232,1232,1232,1227,1227,1232,1232,1232,1232,1232,1227,1227,1227,1227,1223,1223,1223,1034,1034,1034,1031,1028,1025,1025,1019,1016,1010,1010,1010,1004,1004,1001,998,998,998,995,992,992,989,989,989,987,987,984,981,981,1227,1227,1223,1223,1223,1219,1219,1214,1214,1214,1214,1214,1214,1214,1214,1214,1214,1214,1214,1214,1214,1214,1214,1214,1214,973,973,975,975,975,975,978,978,978,978,978,978,978,978,978,981,981,981,981,981,984,987,989,989,989,992,992,995,995,998,1001,1004,1004,1004,1004,1007,1010,1010,1013,1013,1016,1016,1019,1197,1197,1197,1193,1189,1185,1185,1189,1189,1189,1189,1084,1080,1077,1073,1070,1063,1063,1060,1060,1060,1060,1060,1060,1063,1067,1067,1070,1070,1073,1073,1077,1077,1185,1185,1185,1185,1185,1185,1185,1185,1185,1185,1185,1181,1181,1181,1181,1181,1181,1181,1181,1181,1181,1181,1181,1181,1181,1181,1177,1177,1181,1181,1181,1181,1177,1177,1177,1177,1177,1173,1173,1173,1173,1173,1173,1173,1173,1177,1173,1173,1169,1169,1169,1169,1169,1169,1169,1169,1169,1169,1169,1165,1165,1165,1165,1165,1165,1165,1165,1165,1165,1165,1165,1165,1165,1165,1165,1165,1165,1165,1161,1161,1161,1161,1161,1161,1161,1161,1161,1157,1157,1153,1153,1153,1153,1153,1153,1153,1153,1153,1153,1153,1153,1149,1149,1149,1149,1149,1149,1149,1149,1149,1149,1149,1149,1149,1145,1145,1145,1149,1145,1145,1145,1145,1141,1141,1138,1138,1138,1138,1138,1138,1141,1141,1141,1141,1141,1138,1138,1138,1138,1138,1138,1138,1138,1138,1138,1138,1138,1138,1138,1138,1138,1134,1134,1138,1134,1134,1134,1134,1130,1130,1130,1130,1134,1134,1130,1130,1130,1130,1126,1126,1126,1126,1126,1123,1123,1123,1126,1126,1126,1126,1126,1126,1126,1126,1126,1126,1126,1126,1123,1123,1123,1119,1119,1123,1119,1119,1119,1119,1115,1108,1105,1105,1010,1010,1013,1010,1007,1004,1004,1001,1001,1001,815,813,813,813,813,813,813,813,813,813,813,813,811,811,811,811,809,809,809,807,807,807,805,805,805,805,805,805,0,0,0,0,0,0,0,0,0,0,0,0,0,0,0,0,0,0,0,0,0,0,0,0,0,0,0,0,0,0,0,0,0,0,0,0,0,0
0,0,0,0,0,0,0,0,1297,1297,1297,1302,1297,1297,1297,1297,1297,1302,1302,1302,1297,1297,1292,1292,1292,1288,1288,1288,1288,1288,1288,1288,1288,1288,1292,1292,1292,1288,1288,1288,1288,1288,1288,1283,1283,1283,1283,1283,1283,1283,1283,1283,1283,1278,1278,1283,1283,1278,1278,1278,1278,1278,1278,1278,1278,1278,1278,1273,1273,1273,1273,1273,1278,1278,1278,1278,1283,1278,1278,1278,1278,1273,1273,1273,1273,1273,1273,1273,1273,1273,1273,1268,1268,1268,1268,1268,1268,1268,1105,1105,1105,1105,1105,1105,1105,1108,1108,1108,1108,1108,1115,1115,1115,1115,1115,1115,1115,1115,1264,1264,1264,1259,1259,1255,1250,1250,0,0,0,0,0,0,0,0,0,0,0,0,755,755,754,754,754,754,755,755,755,755,757,761,761,762,762,764,766,766,766,767,767,769,769,769,771,0,0,0,0,0,0,0,1245,1245,1245,1245,1241,1241,1241,1241,1241,1245,1245,1245,1245,1241,1241,1241,1241,1236,1236,1236,1236,1236,1236,1236,1236,1236,1236,1236,1236,1232,1232,1232,1232,1232,1232,1232,1232,1232,1232,1232,1232,1227,1227,1227,1232,1227,1227,1227,1227,1227,1227,1227,1227,1227,1227,1227,1227,1223,1223,1223,1219,1219,1214,1038,1038,1031,1028,1028,1025,1022,1016,1010,1010,1010,1004,1004,1001,998,995,995,995,989,989,989,987,987,987,987,984,981,981,978,978,1223,1223,1219,1214,1214,1214,1210,1210,1210,1210,1210,1210,1210,1210,1210,1210,1210,1210,1210,1210,1214,973,973,973,973,975,975,973,973,975,975,978,978,978,978,978,978,978,978,981,981,981,981,984,987,989,989,989,992,992,995,998,998,1001,1004,1004,1004,1007,1007,1010,1013,1013,1013,1013,1013,1185,1185,1185,1189,1189,1185,1185,1185,1189,1185,1185,1185,1084,1084,1080,1077,1073,1073,1067,1063,1063,1060,1060,1063,1063,1063,1067,1070,1073,1073,1073,1073,1077,1077,1181,1181,1181,1185,1185,1185,1181,1181,1181,1181,1181,1181,1181,1181,1181,1177,1177,1177,1181,1177,1177,1177,1177,1177,1177,1177,1173,1173,1177,1177,1177,1177,1173,1173,1173,1173,1173,1173,1173,1173,1173,1169,1169,1169,1169,1173,1169,1169,1169,1169,1169,1169,1169,1169,1169,1169,1165,1165,1165,1165,1161,1161,1161,1161,1161,1161,1161,1161,1161,1161,1161,1161,1161,1161,1161,1161,1161,1161,1157,1157,1157,1157,1157,1157,1157,1157,1157,1153,1153,1153,1153,1153,1153,1149,1149,1149,1153,1153,1153,1149,1149,1149,1149,1149,1149,1145,1145,1145,1145,1145,1145,1145,1145,1145,1145,1145,1145,1145,1145,1145,1141,1141,1141,1138,1138,1138,1138,1138,1138,1138,1138,1138,1138,1138,1138,1134,1134,1134,1134,1138,1138,1138,1138,1138,1134,1134,1134,1134,1134,1134,1138,1134,1130,1130,1130,1130,1130,1130,1126,1126,1130,1130,1130,1130,1126,1126,1126,1126,1126,1123,1123,1126,1123,1123,1123,1123,1123,1123,1123,1123,1123,1123,1126,1123,1123,1123,1123,1123,1119,1119,1119,1119,1119,1119,1119,1119,1119,1115,1115,1108,1105,1101,1010,1010,1013,1010,1007,1004,1004,1001,998,998,815,813,813,813,813,813,813,813,813,813,813,813,811,811,811,811,809,809,809,807,807,807,805,805,805,805,805,805,0,0,0,0,0,0,0,0,0,0,0,0,0,0,0,0,0,0,0,0,0,0,0,0,0,0,0,0,0,0,0,0,0,0,0,0,0,0
0,0,0,0,0,0,0,1292,1292,1292,1297,1297,1297,1297,1297,1292,1292,1297,1297,1297,1292,1292,1292,1292,1288,1288,1288,1288,1288,1288,1288,1288,1288,1288,1288,1288,1288,1288,1283,1283,1283,1283,1283,1283,1283,1283,1283,1283,1278,1278,1278,1278,1278,1273,1273,1273,1278,1273,1273,1273,1273,1273,1273,1273,1273,1273,1273,1273,1273,1273,1268,1268,1273,1273,1273,1273,1273,1268,1268,1268,1273,1268,1268,1268,1273,1268,1268,1268,1268,1268,1268,1268,1268,1268,1264,1264,1264,1264,1105,1105,1105,1105,1105,1105,1105,1108,1108,1108,1108,1108,1115,1115,1115,1115,1115,1115,1115,1115,1255,1255,1255,1250,1250,1250,1250,1250,0,0,0,0,0,0,0,0,0,0,0,0,759,755,754,754,754,755,755,755,755,757,759,761,762,762,764,764,766,766,766,767,767,769,771,771,773,0,0,0,0,0,0,1241,1241,1241,1241,1241,1241,1241,1241,1236,1236,1241,1241,1241,1241,1241,1236,1236,1236,1236,1232,1232,1232,1232,1232,1232,1232,1232,1232,1232,1232,1232,1227,1227,1227,1227,1227,1227,1227,1227,1227,1227,1227,1227,1227,1227,1227,1227,1227,1227,1227,1227,1227,1227,1227,1223,1223,1223,1223,1223,1219,1219,1219,1219,1214,1214,1210,1031,1028,1028,1025,1022,1016,1013,1010,1010,1007,1004,1001,998,992,992,989,989,989,987,987,987,987,984,984,981,981,978,978,975,975,1219,1214,1210,1210,1210,1210,1210,1206,1206,1206,1206,1206,1206,1206,1210,1210,1210,1210,970,970,970,970,970,973,973,973,973,975,975,975,975,975,978,978,978,978,978,978,978,981,981,984,987,989,989,992,992,995,995,998,1001,1001,1004,1004,1004,1007,1007,1010,1013,1013,1013,1013,1013,1181,1181,1185,1185,1185,1185,1185,1185,1185,1185,1185,1185,1084,1084,1080,1077,1077,1073,1070,1063,1063,1063,1063,1063,1063,1067,1070,1070,1073,1073,1073,1077,1077,1077,1077,1177,1177,1181,1181,1181,1181,1181,1181,1181,1181,1177,1177,1177,1177,1177,1173,1173,1177,1173,1173,1173,1173,1173,1173,1173,1173,1173,1173,1173,1173,1173,1169,1169,1169,1169,1169,1169,1169,1169,1169,1169,1165,1165,1165,1165,1165,1165,1165,1165,1165,1165,1165,1165,1165,1165,1165,1165,1165,1161,1161,1161,1161,1161,1161,1157,1157,1161,1161,1157,1157,1157,1157,1157,1157,1157,1157,1157,1153,1153,1153,1153,1153,1153,1153,1153,1157,1153,1153,1153,1149,1149,1149,1149,1149,1149,1145,1145,1149,1149,1149,1149,1149,1145,1145,1145,1141,1141,1141,1141,1141,1141,1141,1141,1141,1141,1141,1141,1141,1141,1141,1138,1138,1138,1138,1134,1134,1134,1134,1134,1134,1134,1138,1134,1134,1130,1130,1130,1130,1134,1134,1134,1134,1134,1134,1130,1130,1126,1126,1123,1123,1126,1126,1126,1126,1126,1126,1126,1126,1126,1126,1126,1126,1126,1123,1123,1123,1123,1123,1123,1123,1123,1123,1119,1119,1119,1123,1119,1119,1119,1123,1123,1123,1123,1123,1123,1123,1123,1119,1119,1119,1119,1119,1115,1115,1115,1115,1112,1112,1108,1105,1101,1094,1094,1010,1010,1010,1004,1004,1001,998,998,815,813,813,813,813,813,813,813,813,813,813,813,813,811,811,811,809,809,809,809,807,807,807,807,807,805,805,805,0,0,0,0,0,0,0,0,0,0,0,0,0,0,0,0,0,0,0,0,0,0,0,0,0,0,0,0,0,0,0,0,0,0,0,0,0,0
