0,0,0,0,1034,1028,1028,1028,1028,1028,1025,1025,1022,1022,1022,1025,1022,1022,1022,1022,1022,1022,1022,1022,1022,1022,1022,1022,1022,1022,1022,1022,1022,1019,1019,1022,1019,1019,1022,1022,1022,1022,1025,1025,1025,1022,1022,1019,1016,1013,1013,1016,1016,1019,1019,1019,1019,1019,1019,1019,1019,1019,1019,1016,1013,1013,1013,1016,1016,1016,1016,1016,1016,1016,1016,1016,1016,1019,1019,1019,1019,1016,1016,1019,1016,1016,1016,1016,1016,1013,1013,1013,1016,1013,1013,1016,1016,1016,1016,1016,1016,1019,1016,1016,1019,1019,1019,1019,1019,1019,1016,1016,1016,1019,1019,1022,1022,1019,1019,1022,1022,1022,1019,1019,1019,1022,1022,1022,1022,1022,1022,1022,1019,1019,1019,1019,1022,1022,1022,1019,1019,1022,1022,1019,1019,1022,1022,1022,1019,1019,1019,1019,1019,1019,1019,1016,1016,1016,1016,1016,1016,1016,1016,1016,1016,1016,1016,1019,1019,1019,1019,1019,1019,1019,1019,1019,1019,1019,1019,1019,1019,1019,1016,1016,1019,1019,1019,1019,1019,1022,1022,1022,1022,1022,1019,1016,1016,1016,1016,1016,1016,1016,1016,1016,1016,1016,1016,1016,1016,1016,1019,1019,1019,1019,1019,1019,1016,1016,1016,1016,1019,1019,1019,1019,1019,1016,1016,1016,1016,1016,1016,1016,1016,1016,1016,1016,1016,1016,1016,1019,1019,774,774,774,774,774,773,773,769,767,766,764,762,761,759,759,757,757,757,757,757,759,759,762,766,767,767,769,773,774,778,778,780,781,809,807,807,809,809,811,813,815,815,817,817,819,821,823,825,829,831,833,837,839,839,839,841,841,841,1013,1013,1013,1013,1013,1013,1013,1016,1016,1016,1016,1016,1016,1016,1016,1016,1019,1019,1019,1022,1022,1022,1019,1019,1019,1016,1016,1016,1016,1016,1016,1016,1016,1016,1016,1016,1016,1016,1016,1016,1016,1016,1016,1016,1016,1016,1016,1016,1016,1016,1016,1016,1016,1016,1016,1016,1016,1016,1016,1019,1019,1019,1019,1016,1016,1016,1016,1016,1016,1016,1013,1013,1013,1013,1013,1019,1019,1019,1019,1019,1019,1019,1016,1016,1019,1019,1019,1019,1019,1019,1019,1016,1016,1016,1016,1016,1016,1016,1016,1016,1016,1016,1016,1013,1013,1013,1016,1016,1016,1016,1016,1016,1016,1016,1016,1016,1016,1013,1013,1013,1013,1013,1013,1013,1013,1013,1013,1013,1013,1013,1013,1013,1013,1013,1013,1013,1013,1013,1013,1013,1013,1013,1013,1013,1013,1013,1013,1013,1013,1013,1016,1013,1013,1013,1013,1010,1010,1010,1010,1010,1010,1010,1010,1010,1010,1010,1010,1010,1013,1013,1013,1013,1013,1013,1010,1010,1010,1010,1010,1010,1007,1007,1013,1013,1010,1010,1010,1010,1010,1010,1010,1010,1007,1007,1007,1007,1007,1007,1007,1007,1007,1010,1010,1010,1007,1007,1007,1007,1007,1010,1010,1010,1010,1007,1007,1007,1007,1007,1007,1007,1007,1007,1007,1007,1007,1007,1007,1007,1013,1013,1013,1013,1013,1013,1013,1013,1013,1013,1013,1010,1010,1010,1010,1010,1007,1007,1007,1010,1010,1010,1007,1007,1007,1007,1007,1007,1010,1010,1010,1010,1010,1007,1007,1007,1004,1004,1001,989,981,978,978,975,975,975,975,975,978,984,998,998,1004,1007,1004,918,918,918,920,920,920,925,925,920,920,918,915,913,913,913,915,913,913,915,915,915,915,0,0,0,0,0,0,0,0,0,0,0,0,0,0,0,0,0,0,0,0,0,0,0,0,0,0,0,0,0,0,0,0,0,0,0,0
0,0,0,0,1031,1028,1025,1025,1025,1025,1025,1022,1022,1022,1022,1022,1022,1022,1022,1022,1022,1019,1019,1019,1019,1019,1019,1019,1022,1022,1019,1019,1019,1016,1016,1016,1016,1016,1019,1019,1019,1019,1022,1019,1019,1016,1016,1016,1013,1010,1010,1013,1013,1013,1013,1013,1016,1016,1016,1016,1016,1016,1016,1013,1013,1013,1013,1013,1013,1013,1013,1013,1013,1013,1013,1013,1016,1016,1016,1016,1016,1013,1013,1016,1013,1013,1013,1013,1013,1013,1013,1013,1013,1013,1010,1010,1013,1013,1013,1013,1013,1013,1016,1016,1016,1016,1013,1013,1013,1013,1013,1013,1013,1013,1013,1016,1016,1019,1019,1019,1019,1019,1016,1016,1016,1019,1019,1019,1019,1019,1022,1022,1019,1016,1016,1016,1019,1019,1019,1019,1019,1019,1019,1019,1019,1019,1019,1019,1016,1016,1016,1016,1016,1016,1016,1016,1016,1013,1013,1013,1013,1013,1013,1013,1016,1016,1016,1016,1016,1019,1019,1016,1016,1019,1016,1016,1016,1013,1013,1016,1016,1016,1016,1016,1016,1016,1016,1016,1016,1016,1022,1022,1019,1019,1019,1013,1013,1013,1013,1013,1013,1013,1013,1016,1013,1013,1013,1013,1013,1013,1016,1016,1016,1016,1016,1016,1016,1013,1013,1013,1016,1016,1016,1016,1016,1013,1013,1013,1013,1013,1013,1013,1013,1013,1013,1013,1013,1013,1016,1016,1016,1016,774,774,774,774,773,773,769,767,766,764,762,762,761,759,759,759,759,759,759,759,759,764,766,767,767,769,773,774,778,778,780,781,807,805,805,807,809,809,811,815,815,817,817,819,821,823,825,829,829,833,835,837,837,839,841,841,1013,1013,1013,1013,1013,1013,1013,1013,1013,1013,1013,1016,1013,1013,1013,1013,1013,1013,1013,1013,1019,1019,1019,1019,1016,1016,1016,1016,1013,1013,1016,1016,1016,1013,1013,1016,1016,1016,1016,1016,1016,1016,1016,1016,1016,1016,1016,1016,1013,1013,1013,1013,1013,1013,1013,1013,1013,1013,1016,1016,1016,1016,1016,1016,1016,1016,1016,1013,1013,1013,1013,1013,1010,1010,1010,1010,1013,1013,1013,1016,1016,1016,1016,1013,1013,1016,1016,1016,1016,1016,1013,1013,1013,1013,1013,1013,1013,1013,1013,1013,1013,1013,1013,1013,1013,1013,1013,1013,1013,1013,1013,1013,1013,1013,1013,1013,1013,1013,1013,1013,1013,1010,1010,1010,1010,1010,1010,1010,1010,1010,1007,1007,1010,1010,1013,1013,1013,1013,1013,1013,1013,1013,1013,1013,1013,1010,1010,1010,1013,1013,1013,1010,1010,1010,1010,1007,1007,1007,1007,1007,1007,1007,1007,1007,1010,1010,1007,1007,1010,1010,1010,1010,1010,1010,1010,1010,1007,1007,1007,1007,1007,1004,1004,1004,1004,1007,1007,1007,1007,1007,1007,1007,1007,1007,1007,1007,1007,1007,1007,1004,1004,1007,1007,1010,1007,1004,1004,1004,1004,1007,1004,1004,1007,1007,1007,1004,1004,1004,1004,1004,1004,1004,1004,1004,1004,1004,1004,1004,1007,1007,1010,1007,1007,1007,1010,1010,1010,1010,1010,1010,1007,1007,1007,1007,1007,1007,1007,1007,1007,1010,1010,1007,1007,1004,1004,1004,1004,1007,1007,1007,1007,1007,1007,1007,1004,1004,1004,1001,995,984,978,978,975,975,975,975,975,975,978,989,998,1001,1004,1004,918,918,918,920,920,920,923,923,920,918,918,915,913,913,913,913,913,913,915,915,915,915,0,0,0,0,0,0,0,0,0,0,0,0,0,0,0,0,0,0,0,0,0,0,0,0,0,0,0,0,0,0,0,0,0,0,0,0
0,0,0,0,1028,1025,1025,1025,1025,1019,1019,1022,1022,1022,1022,1022,1019,1019,1019,1019,1019,1016,1016,1016,1016,1016,1016,1016,1016,1019,1019,1019,1019,1016,1013,1013,1013,1013,1013,1013,1013,1013,1016,1016,1016,1013,1013,1013,1010,1010,1010,1010,1013,1013,1013,1013,1013,1016,1016,1016,1016,1013,1013,1010,1010,1013,1013,1013,1013,1013,1013,1013,1013,1013,1013,1013,1013,1013,1013,1013,1013,1013,1013,1013,1013,1013,1013,1013,1013,1010,1010,1010,1010,1010,1007,1007,1007,1010,1007,1007,1010,1013,1013,1013,1013,1013,1013,1010,1010,1010,1010,1010,1010,1010,1010,1013,1013,1013,1013,1013,1013,1016,1013,1013,1013,1016,1019,1019,1016,1016,1019,1019,1016,1013,1013,1016,1016,1016,1016,1016,1016,1019,1016,1016,1016,1016,1016,1016,1013,1013,1016,1013,1013,1013,1013,1013,1013,1013,1013,1013,1010,1010,1013,1013,1013,1013,1013,1016,1016,1016,1016,1016,1016,1016,1013,1013,1013,1013,1013,1013,1013,1013,1013,1013,1013,1013,1016,1013,1013,1013,1013,1013,1013,1016,1013,1013,1013,1013,1013,1013,1013,1013,1013,1013,1013,1013,1013,1013,1013,1013,1013,1013,1013,1013,1016,1016,1016,1013,1013,1013,1013,1013,1013,1013,1013,1013,1010,1010,1010,1013,1010,1010,1013,1013,1013,1013,1013,1013,1013,1013,1016,1016,774,774,774,774,773,773,769,767,766,766,764,762,761,761,761,759,759,759,759,759,761,766,767,767,769,771,774,776,778,778,780,781,805,803,803,805,807,809,811,813,815,817,819,819,823,823,827,829,829,833,835,837,837,837,837,1013,1013,1010,1010,1010,1010,1010,1010,1010,1010,1010,1010,1013,1010,1010,1010,1010,1010,1010,1010,1013,1013,1013,1013,1013,1013,1013,1013,1013,1013,1013,1013,1013,1013,1013,1013,1013,1013,1013,1013,1016,1016,1016,1016,1013,1013,1013,1016,1013,1013,1013,1013,1013,1013,1010,1010,1010,1013,1013,1013,1013,1013,1013,1013,1013,1013,1013,1013,1013,1010,1010,1010,1010,1007,1007,1007,1010,1010,1010,1010,1010,1013,1013,1013,1013,1013,1013,1013,1010,1010,1010,1010,1007,1007,1007,1010,1010,1010,1013,1013,1013,1013,1013,1013,1013,1010,1010,1010,1013,1013,1010,1010,1013,1013,1013,1013,1013,1013,1013,1013,1010,1010,1010,1007,1007,1007,1007,1007,1007,1007,1007,1007,1007,1007,1007,1007,1010,1010,1010,1010,1010,1010,1010,1010,1010,1010,1007,1007,1007,1007,1007,1010,1007,1007,1007,1007,1007,1004,1004,1004,1004,1004,1004,1004,1004,1007,1007,1007,1007,1007,1007,1007,1007,1007,1007,1010,1007,1004,1004,1004,1004,1004,1004,1001,1001,1001,1001,1001,1004,1004,1004,1004,1004,1004,1004,1004,1004,1004,1004,1004,1004,1004,1004,1007,1007,1004,1004,1004,1004,1004,1004,1004,1004,1004,1004,1004,1004,1004,1004,1004,1004,1001,1001,1001,1004,1004,1004,1004,1004,1004,1004,1004,1004,1004,1004,1001,1001,1001,1007,1007,1007,1007,1004,1004,1004,1004,1004,1004,1004,1004,1007,1007,1004,1004,1004,1004,1004,1004,1004,1004,1004,1004,1004,1004,1004,1001,1001,1001,998,995,989,984,978,975,975,973,973,975,975,978,981,987,998,998,998,918,918,918,918,920,920,920,918,918,915,915,913,913,910,910,913,913,913,913,915,913,913,0,0,0,0,0,0,0,0,0,0,0,0,0,0,0,0,0,0,0,0,0,0,0,0,0,0,0,0,0,0,0,0,0,0,0,0
0,0,0,1025,1025,1022,1022,1022,1022,1019,1019,1016,1016,1016,1016,1016,1016,1016,1019,1019,1016,1016,1016,1013,1013,1013,1013,1013,1016,1016,1016,1016,1016,1013,1013,1010,1010,1010,1010,1010,1010,1010,1010,1010,1013,1013,1013,1013,1010,1010,1010,1010,1013,1013,1013,1013,1013,1013,1013,1013,1013,1013,1010,1010,1010,1010,1010,1010,1010,1010,1010,1013,1010,1010,1010,1010,1010,1010,1010,1010,1010,1010,1010,1010,1010,1010,1010,1010,1010,1010,1010,1010,1010,1007,1007,1007,1007,1007,1007,1007,1007,1010,1010,1010,1010,1010,1010,1010,1010,1010,1010,1010,1010,1010,1010,1010,1013,1010,1010,1013,1013,1010,1010,1010,1013,1013,1016,1013,1013,1013,1016,1016,1013,1013,1013,1013,1013,1013,1010,1010,1013,1013,1013,1013,1013,1013,1013,1013,1013,1013,1013,1013,1013,1013,1010,1010,1010,1010,1010,1010,1010,1010,1010,1010,1010,1010,1013,1013,1013,1013,1013,1013,1013,1013,1013,1013,1010,1010,1010,1010,1010,1010,1010,1010,1010,1010,1013,1010,1010,1010,1010,1013,1010,1010,1010,1013,1013,1013,1010,1010,1010,1010,1013,1013,1013,1013,1013,1013,1013,1013,1013,1013,1013,1013,1013,1013,1013,1013,1013,1013,1013,1010,1010,1010,1010,1010,1010,1010,1010,1010,1010,1010,1010,1010,1010,1010,1010,1010,1010,1013,1013,1013,776,776,776,776,774,774,773,769,767,766,764,762,761,761,761,759,759,759,759,759,761,766,767,767,769,773,774,776,778,778,781,781,803,803,803,805,805,807,809,813,815,817,819,819,823,825,827,829,829,833,835,837,837,837,1007,1007,1007,1007,1007,1007,1007,1007,1007,1007,1007,1007,1010,1010,1010,1010,1010,1010,1010,1010,1010,1010,1010,1007,1007,1007,1007,1010,1010,1010,1010,1010,1010,1010,1010,1010,1010,1013,1013,1013,1013,1013,1013,1013,1013,1013,1013,1013,1013,1013,1013,1013,1013,1010,1010,1010,1010,1010,1010,1010,1010,1010,1010,1010,1010,1010,1010,1010,1010,1010,1010,1010,1010,1007,1007,1007,1007,1007,1007,1007,1007,1007,1010,1010,1010,1010,1010,1007,1007,1007,1007,1007,1007,1007,1007,1007,1007,1007,1010,1010,1010,1010,1013,1013,1013,1010,1010,1010,1010,1010,1010,1010,1010,1010,1010,1010,1010,1010,1010,1010,1010,1010,1007,1007,1007,1007,1007,1007,1004,1004,1004,1004,1004,1004,1004,1004,1007,1007,1007,1007,1007,1007,1007,1007,1007,1007,1007,1004,1004,1004,1004,1004,1007,1004,1004,1004,1004,1004,1004,1001,1001,1004,1004,1004,1004,1004,1004,1004,1004,1004,1004,1004,1004,1004,1004,1004,1007,1004,1004,1004,1004,1004,1004,1001,1001,1001,1001,1001,1001,1001,1001,1001,1001,1004,1004,1001,1001,1004,1004,1004,1004,1004,1004,1004,1004,1004,1004,1001,1001,1001,1001,1001,1001,1001,1001,1001,1001,1001,1001,1001,1001,1001,1001,1001,1001,1001,1001,1001,1001,1001,1001,1001,1001,1001,1001,1001,998,998,998,1001,1001,1001,1004,1004,1004,1004,1004,1004,1004,1004,1004,1004,1004,1004,1004,1004,1004,1004,1004,1004,1004,1004,1001,1001,1001,1001,1001,998,998,998,995,987,978,975,975,973,973,973,973,973,975,981,987,998,998,998,918,918,918,918,918,920,920,918,918,915,915,913,913,910,910,913,913,913,913,915,913,913,0,0,0,0,0,0,0,0,0,0,0,0,0,0,0,0,0,0,0,0,0,0,0,0,0,0,0,0,0,0,0,0,0,0,0,0
0,0,0,1025,1025,1022,1022,1022,1016,1016,1016,1013,1013,1013,1013,1013,1013,1013,1016,1016,1013,1013,1010,1010,1010,1010,1010,1010,1010,1013,1013,1013,1013,1013,1010,1010,1010,1010,1010,1007,1007,1007,1007,1007,1007,1007,1007,1007,1010,1010,1010,1010,1010,1010,1010,1010,1010,1010,1010,1010,1010,1010,1010,1007,1007,1010,1010,1010,1010,1010,1010,1010,1010,1010,1010,1010,1010,1010,1010,1010,1010,1010,1010,1007,1007,1007,1007,1010,1010,1010,1010,1010,1007,1007,1004,1004,1004,1004,1004,1004,1004,1007,1007,1007,1007,1007,1010,1010,1007,1007,1007,1007,1007,1007,1007,1007,1010,1010,1010,1010,1010,1010,1010,1007,1007,1010,1010,1010,1010,1010,1013,1013,1010,1010,1010,1010,1010,1010,1010,1004,1004,1007,1010,1010,1010,1010,1010,1010,1010,1010,1010,1010,1010,1010,1010,1010,1010,1010,1010,1010,1010,1010,1010,1010,1010,1010,1010,1010,1010,1010,1010,1010,1010,1010,1010,1010,1010,1007,1007,1007,1010,1010,1010,1007,1007,1007,1010,1007,1007,1004,1004,1010,1010,1010,1010,1010,1010,1010,1010,1010,1010,1010,1010,1010,1010,1010,1010,1010,1010,1010,1010,1010,1007,1007,1010,1010,1010,1010,1010,1010,1010,1010,1010,1007,1007,1007,1007,1007,1007,1010,1007,1007,1007,1007,1007,1007,1007,1010,1010,1010,1010,1010,780,780,776,776,774,774,773,771,769,766,766,764,762,761,761,761,761,761,761,761,762,766,767,767,769,773,774,778,778,780,781,781,803,803,803,805,805,805,809,811,813,817,819,821,823,825,827,829,829,833,835,835,837,1004,1004,1004,1004,1004,1004,1001,1001,1001,1004,1004,1004,1004,1004,1007,1007,1007,1007,1007,1007,1007,1007,1007,1007,1004,1004,1004,1004,1004,1007,1007,1007,1010,1010,1007,1007,1007,1007,1007,1007,1010,1010,1010,1010,1013,1013,1013,1013,1013,1013,1013,1010,1010,1007,1007,1010,1007,1007,1007,1007,1007,1007,1007,1007,1007,1004,1004,1007,1007,1007,1007,1007,1007,1007,1004,1004,1004,1004,1004,1004,1004,1004,1004,1004,1004,1004,1004,1004,1004,1004,1004,1004,1004,1004,1004,1004,1004,1004,1004,1004,1004,1007,1007,1010,1010,1010,1007,1007,1007,1007,1007,1007,1007,1007,1007,1007,1007,1007,1007,1007,1007,1007,1007,1004,1004,1004,1004,1004,1004,1004,1004,1004,1004,1004,1004,1004,1004,1004,1004,1004,1004,1004,1004,1004,1004,1004,1004,1004,1004,1004,1004,1004,1004,1004,1004,1004,1001,1001,1001,1001,1001,1001,1001,1001,1001,1001,1001,1001,1001,1001,1001,1001,1001,1001,1001,1004,1004,1004,1004,1004,1001,1001,1001,1001,1001,1001,998,998,1001,1001,998,998,998,1001,1001,1001,1001,1001,1001,1001,1001,1001,1001,1001,1001,1001,1001,1001,1001,1001,1001,1001,1001,1001,1001,1001,1001,1001,998,998,1001,1001,1001,998,998,1001,1001,998,998,998,998,1001,998,998,998,998,998,995,995,995,998,998,1001,1001,1001,1001,1001,1001,1001,1001,1001,1001,1001,1001,1004,1001,1001,1001,1001,1001,1001,1001,1001,1001,998,998,998,998,995,995,995,992,987,978,975,973,973,970,970,973,973,973,981,989,998,998,998,998,918,918,918,918,920,920,918,918,915,915,913,913,910,910,910,910,913,913,913,913,913,0,0,0,0,0,0,0,0,0,0,0,0,0,0,0,0,0,0,0,0,0,0,0,0,0,0,0,0,0,0,0,0,0,0,0,0
0,0,0,1022,1022,1019,1019,1019,1013,1013,1013,1013,1013,1013,1013,1013,1010,1010,1010,1010,1010,1010,1010,1010,1007,1007,1007,1007,1007,1010,1010,1010,1010,1010,1010,1007,1007,1004,1004,1004,1004,1004,1004,1004,1004,1004,1004,1007,1007,1007,1007,1007,1010,1010,1007,1007,1007,1010,1007,1007,1010,1010,1007,1007,1007,1007,1007,1007,1007,1007,1007,1010,1007,1007,1007,1007,1007,1007,1007,1007,1007,1007,1007,1007,1007,1007,1007,1007,1007,1007,1007,1007,1004,1004,1004,1004,1004,1004,1004,1001,1001,1004,1004,1004,1004,1004,1007,1007,1007,1007,1007,1004,1004,1004,1004,1004,1007,1007,1007,1007,1007,1007,1007,1004,1004,1004,1004,1004,1004,1004,1004,1007,1010,1010,1007,1007,1010,1007,1007,1004,1004,1004,1007,1007,1007,1007,1007,1007,1007,1007,1007,1010,1007,1007,1007,1007,1010,1007,1007,1007,1007,1007,1007,1007,1007,1007,1007,1007,1007,1004,1004,1004,1004,1004,1007,1004,1004,1004,1004,1004,1004,1007,1007,1007,1004,1004,1007,1004,1004,1001,1001,1004,1007,1007,1007,1007,1007,1007,1007,1007,1007,1007,1007,1010,1010,1010,1010,1010,1007,1007,1007,1004,1004,1004,1004,1004,1007,1007,1007,1007,1007,1007,1007,1007,1004,1004,1004,1007,1007,1007,1004,1004,1004,1007,1007,1007,1007,1007,1007,1010,1010,1010,780,780,778,778,776,774,773,771,769,767,766,764,764,762,762,761,761,761,761,761,764,767,767,767,771,774,776,778,780,780,781,781,802,802,803,803,805,805,807,811,813,817,819,823,825,825,827,829,829,833,833,835,1001,1001,1001,1001,1001,1001,1001,1001,1001,1001,1001,1001,1001,1001,1001,1004,1004,1004,1004,1004,1004,1004,1004,1004,1004,1001,1001,1001,1001,1001,1004,1004,1004,1004,1004,1004,1007,1004,1004,1004,1007,1007,1007,1007,1007,1010,1010,1010,1010,1007,1007,1010,1007,1004,1004,1004,1004,1004,1004,1004,1004,1004,1004,1004,1004,1004,1004,1004,1004,1004,1004,1004,1004,1004,1004,1004,1004,1004,1004,1004,1004,1004,1001,1001,1001,1001,1001,1001,1001,1001,1001,1001,1001,1004,1004,1004,1004,1001,1001,1001,1004,1004,1004,1004,1004,1007,1007,1004,1004,1004,1004,1004,1004,1004,1004,1004,1004,1004,1004,1004,1004,1004,1004,1004,1004,1004,1004,1004,1004,1004,1001,1001,1001,1001,1001,1001,1004,1004,1004,1004,1001,1001,1001,1001,998,998,1001,1001,1001,1001,1001,1001,1001,1001,1001,1001,1001,1001,1001,1001,1001,998,998,998,1001,1001,1001,1001,998,998,998,998,998,998,998,998,1001,1001,1001,1001,1001,998,998,998,998,998,995,995,998,995,995,995,995,995,998,998,998,998,998,1001,1001,998,998,998,998,998,998,998,998,998,998,998,1001,998,998,995,995,995,995,995,995,998,998,998,998,998,998,998,998,995,995,995,995,995,995,995,995,995,995,995,995,995,995,995,998,998,998,998,1001,1001,1001,998,998,998,1001,1001,998,998,998,998,998,998,998,998,998,995,995,995,995,995,992,992,992,987,978,975,973,970,970,970,970,970,970,981,989,995,995,995,995,995,920,920,920,920,923,918,918,915,915,915,913,913,913,910,910,910,910,913,913,913,0,0,0,0,0,0,0,0,0,0,0,0,0,0,0,0,0,0,0,0,0,0,0,0,0,0,0,0,0,0,0,0,0,0,0,0
0,0,0,1016,1016,1016,1016,1016,1013,1013,1013,1013,1013,1013,1010,1010,1010,1010,1010,1010,1010,1010,1010,1007,1007,1007,1007,1007,1007,1007,1007,1007,1007,1007,1007,1007,1004,1004,1004,1004,1004,1001,1001,1001,1004,1001,1001,1004,1004,1001,1001,1004,1004,1004,1004,1004,1004,1007,1007,1007,1007,1007,1007,1004,1004,1004,1004,1004,1004,1004,1004,1004,1004,1004,1004,1004,1004,1004,1004,1004,1004,1004,1004,1004,1004,1004,1004,1004,1004,1004,1004,1004,1001,1001,1001,1001,1001,1001,1001,1001,1001,1004,1004,1004,1004,1004,1004,1004,1004,1004,1004,1004,1004,1001,1001,1004,1004,1004,1004,1004,1004,1004,1004,1001,1001,1001,1001,1001,1001,1001,1001,1004,1004,1004,1004,1004,1004,1004,1004,1001,1001,1001,1004,1004,1004,1004,1007,1007,1007,1007,1007,1007,1007,1007,1007,1007,1007,1007,1004,1004,1004,1004,1004,1004,1004,1001,1001,1001,1004,1001,1001,1001,1001,1001,1004,1001,1001,1001,1001,1001,1001,1004,1004,1004,1004,1004,1004,1004,1001,1001,1001,1001,1001,1001,1004,1004,1007,1004,1004,1004,1004,1004,1004,1004,1004,1004,1004,1007,1004,1004,1001,1001,1001,1001,1001,1001,1001,1004,1007,1007,1007,1004,1004,1004,1001,1001,1004,1004,1004,1004,1001,1001,1001,1004,1004,1004,1004,1004,1004,1007,1010,1010,781,781,780,780,778,776,774,773,771,767,766,766,764,762,762,762,762,762,762,762,766,767,767,767,771,774,778,778,780,780,781,783,802,802,803,803,805,805,807,811,813,817,821,823,825,825,827,829,831,833,833,833,998,998,998,998,998,998,998,998,998,998,998,998,1001,1001,1001,1004,1004,1004,1004,1004,1001,1001,1001,1001,1001,1001,1001,1001,1001,1001,1001,1001,1001,1001,1001,1004,1004,1004,1004,1004,1004,1004,1004,1004,1004,1004,1004,1004,1004,1004,1004,1004,1004,1001,1001,1004,1004,1004,1004,1004,1004,1004,1004,1001,1001,1001,1001,1001,1001,1001,1001,1001,1001,1001,1004,1001,1001,1001,1001,1001,1001,1001,1001,998,998,998,998,998,998,998,998,1001,1001,1001,1001,1001,1001,1001,1001,1001,1001,1001,1001,1001,1004,1004,1004,1001,1001,1001,1001,1001,1001,1001,1001,1001,1001,1001,1001,1001,1001,1001,1001,1001,1001,1001,1001,1001,1001,1001,1001,1001,1001,998,998,998,1001,1001,1001,1001,1001,1001,1001,998,998,998,998,998,998,998,1001,1001,1001,1001,1001,1001,1001,998,998,998,995,995,995,995,998,998,998,998,998,998,998,995,995,995,995,995,998,998,1001,1001,1001,998,995,995,995,995,995,995,995,995,995,995,995,995,995,995,995,995,995,995,995,998,998,998,998,998,998,998,998,998,998,998,998,995,995,995,995,995,995,995,995,995,998,998,998,998,998,998,998,995,995,995,995,995,995,995,992,992,992,992,995,995,992,992,995,995,995,995,998,998,998,998,998,998,998,1001,998,998,998,998,995,995,995,995,995,992,992,992,992,992,992,992,989,987,978,973,973,970,970,970,970,967,967,0,995,995,995,995,995,992,992,992,992,925,918,918,918,913,913,913,910,910,910,910,910,910,910,913,910,910,0,0,0,0,0,0,0,0,0,0,0,0,0,0,0,0,0,0,0,0,0,0,0,0,0,0,0,0,0,0,0,0,0,0,0,0
0,0,0,1016,1013,1013,1013,1013,1010,1010,1010,1010,1010,1010,1010,1010,1007,1004,1004,1007,1007,1007,1007,1007,1004,1004,1004,1004,1004,1004,1001,1001,1001,1001,1001,1001,1001,1001,1001,1001,1001,1001,1001,1001,1001,1001,1001,1001,1001,1001,1001,1001,1001,1001,1001,1001,1001,1001,1001,1004,1004,1004,1004,1001,1001,1001,1001,1001,1001,1004,1001,1001,1004,1001,1001,1001,1001,1001,1001,1001,1004,1004,1004,1001,1001,1001,1001,1001,1001,1001,1001,1001,1001,1001,1001,1001,1001,1001,1001,1001,1001,1001,1001,1001,1001,1001,1004,1001,1001,1001,1001,1001,1001,1001,1001,1001,1001,1001,1001,1001,1001,1001,1001,1001,1001,1001,1001,1001,1001,1001,1001,1001,1001,1001,1001,1001,1001,1001,1001,1001,1001,1001,1001,1001,1001,1001,1004,1004,1004,1004,1004,1004,1004,1004,1004,1004,1004,1004,1001,1001,1001,1001,1001,1001,1001,1001,1001,1001,1001,1001,1001,1001,1001,1001,1001,1001,998,998,998,998,998,1001,1001,1001,1001,1001,1001,1001,998,998,998,998,1001,1001,1001,1001,1004,1001,1001,1001,1001,1001,1001,1001,1001,1001,1001,1001,1001,1001,1001,1001,1001,1001,1001,1001,1001,1001,1001,1001,1004,1001,1001,1001,1001,1001,1001,1001,1001,1001,1001,1001,1001,1001,1001,1001,1001,998,998,998,998,785,785,783,781,780,780,780,776,773,771,767,767,766,766,764,764,764,764,764,764,766,767,767,767,769,771,774,778,778,780,781,781,783,800,800,802,805,805,805,809,811,813,819,821,825,825,825,827,829,831,833,835,995,995,995,998,998,998,998,995,995,995,995,995,998,998,998,998,1001,1001,1001,1001,1001,1001,998,998,998,998,998,998,998,998,998,998,1001,1001,1001,1001,1001,1001,1001,1001,1001,1001,1001,1001,1001,1004,1004,1004,1004,1004,1001,1001,1001,1001,1001,1001,1001,1001,1001,1001,1001,1001,1001,1001,1001,1001,1001,1001,998,998,998,998,998,1001,1001,1001,1001,1001,1001,1001,1001,1001,1001,1001,998,998,998,998,998,998,998,998,998,998,998,998,1001,1001,1001,1001,1001,1001,1001,998,998,998,1001,1001,998,998,998,998,998,995,995,995,995,998,998,995,995,998,998,1001,998,998,998,1001,1001,1001,998,998,998,998,995,995,998,998,998,995,995,998,998,998,998,995,995,998,998,998,998,998,998,998,998,998,995,995,995,995,995,995,995,992,992,995,995,995,995,995,995,992,992,992,992,992,992,992,992,998,995,992,992,992,992,992,992,992,992,992,992,992,992,992,992,995,995,995,992,992,992,992,992,992,992,995,995,995,995,995,995,995,995,995,992,992,992,992,992,992,992,992,992,995,995,995,995,995,995,995,995,995,992,992,992,992,992,992,992,992,992,992,992,992,992,992,992,992,992,992,992,992,992,992,995,998,998,995,995,995,995,995,992,992,992,992,992,992,989,989,989,989,989,987,984,975,973,973,970,970,970,967,967,967,0,0,0,0,995,992,992,992,992,992,992,918,913,908,908,910,910,910,910,910,910,910,910,910,910,910,910,0,0,0,0,0,0,0,0,0,0,0,0,0,0,0,0,0,0,0,0,0,0,0,0,0,0,0,0,0,0,0,0,0,0,0,0
0,0,0,1013,1013,1010,1010,1010,1004,1004,1007,1007,1007,1007,1007,1007,1004,1001,1001,1001,1001,1004,1004,1004,1001,1001,1001,1001,1001,1001,1001,1001,998,998,1001,1001,1001,998,998,998,1001,1001,1001,1001,1001,998,998,998,998,998,998,998,998,1001,1001,1001,998,998,998,998,998,998,998,998,1001,1001,1001,1001,1001,1001,1001,1001,1001,1001,998,998,998,998,998,1001,1001,1001,1001,1001,1001,1001,998,998,998,998,998,998,998,998,998,1001,1001,1001,1001,1001,1001,1001,1001,1001,1001,1001,1001,1001,1001,1001,1001,1001,1001,998,998,1001,1001,1001,1001,998,998,998,998,998,998,998,998,998,998,998,998,1001,1001,1001,1001,1001,1001,998,998,998,995,995,998,1001,1001,1001,1001,1004,1004,1004,1004,1004,1004,1004,1004,1004,1004,1004,1001,1001,1001,1001,1001,1001,1001,998,998,998,998,998,998,998,1001,1001,998,998,998,998,998,998,998,998,1001,1001,1001,1001,1001,1001,998,998,998,998,998,998,998,998,1001,1001,1001,998,998,998,998,998,998,998,998,998,998,998,998,998,998,998,998,998,998,998,998,998,1001,998,998,998,998,998,1001,1001,1001,1001,998,998,998,998,998,998,998,995,992,989,989,785,785,783,781,781,780,780,780,774,773,769,767,767,766,766,764,764,764,764,764,766,767,767,767,769,774,776,778,778,780,781,781,783,787,798,802,805,807,807,809,811,813,819,821,825,825,827,827,829,831,833,992,992,995,995,995,995,995,995,992,992,992,992,992,995,995,995,995,998,998,998,998,998,998,998,995,995,998,998,995,995,998,998,998,998,998,998,998,1001,1001,1001,998,998,998,998,998,998,1001,1001,1001,1001,1001,1001,1001,1001,1001,1001,1001,1001,1001,1001,1001,1001,1001,1001,1001,1001,1001,998,998,998,998,998,998,998,998,998,998,998,998,998,998,998,998,998,998,998,995,995,995,995,995,995,995,995,995,995,995,995,995,995,992,992,998,995,995,995,995,995,995,995,995,995,995,995,992,992,992,992,995,995,995,995,995,998,998,998,995,995,998,998,998,995,995,995,995,995,995,995,995,995,992,992,995,995,995,995,992,992,995,995,995,995,995,995,995,995,995,995,995,995,992,992,992,992,992,992,992,992,992,992,992,992,992,989,989,989,989,989,989,989,989,992,992,992,992,989,989,989,992,992,992,992,992,992,992,992,992,992,992,992,992,989,989,989,989,989,989,989,992,992,992,992,992,992,992,992,992,992,992,992,992,992,992,992,992,992,992,992,992,992,992,992,992,992,992,992,992,989,989,989,992,992,992,992,989,989,989,989,989,989,989,989,989,989,989,989,992,992,992,992,992,992,992,992,989,989,989,989,989,989,989,989,989,989,984,981,975,973,973,970,970,970,967,967,0,0,0,0,0,0,992,989,989,992,992,989,989,913,906,906,906,908,908,908,910,910,910,910,910,910,910,910,0,0,0,0,0,0,0,0,0,0,0,0,0,0,0,0,0,0,0,0,0,0,0,0,0,0,0,0,0,0,0,0,0,0,0,0
0,0,0,1010,1010,1010,1007,1007,1004,1004,1004,1004,1007,1007,1007,1004,1001,1001,1001,1001,1001,1001,1001,1001,1001,1001,1001,1001,1001,998,998,998,998,998,998,998,998,998,998,998,998,998,998,998,998,995,995,995,998,998,998,998,998,998,1001,998,998,998,998,998,995,995,995,995,995,995,995,995,998,998,998,998,998,998,998,998,998,998,998,998,998,998,998,998,998,998,998,998,995,995,998,998,998,998,998,998,998,1001,998,998,998,998,998,1001,1001,1001,1001,998,998,998,998,998,998,998,998,998,998,998,998,998,998,998,998,998,998,998,998,998,998,998,998,998,998,998,998,998,998,998,998,995,995,995,995,995,995,995,998,998,1001,1001,1001,1001,1001,1001,1001,1001,1001,1001,998,998,998,1001,1001,1001,1001,998,998,998,998,998,998,998,998,995,995,995,995,995,995,995,995,998,998,998,998,998,998,998,995,995,995,995,995,995,995,995,995,998,998,995,995,995,995,995,995,995,995,995,995,995,995,995,995,998,995,995,998,998,998,998,998,995,995,998,998,998,998,998,998,998,998,998,995,995,995,995,995,992,989,989,987,987,787,785,781,781,781,780,780,776,773,771,769,767,766,766,764,764,764,764,764,766,767,767,767,769,774,778,778,780,781,783,783,787,787,798,798,805,807,807,811,813,815,819,823,825,827,827,827,829,989,989,992,992,992,992,992,992,992,992,989,989,992,992,992,992,992,992,992,995,995,995,995,995,995,995,995,995,995,995,995,995,995,995,995,995,995,995,998,998,998,998,998,998,995,995,995,995,995,995,995,998,998,998,998,998,998,998,998,998,998,998,998,998,998,998,998,998,995,995,995,995,995,995,995,995,995,995,995,995,995,995,995,995,995,995,995,992,992,992,992,992,992,992,992,992,992,992,992,992,992,992,992,992,992,992,992,992,992,992,992,992,992,992,992,992,992,992,992,992,992,992,992,992,992,995,995,995,992,992,995,992,992,992,992,992,992,992,992,992,992,992,992,992,992,992,992,992,992,992,992,992,992,992,992,992,992,989,989,989,989,992,992,992,992,992,989,989,992,989,989,989,989,989,989,989,989,989,989,989,989,987,987,987,989,989,989,989,989,989,989,989,989,989,989,992,992,992,992,992,992,992,989,989,989,989,989,989,989,989,989,989,992,992,989,989,992,992,992,992,989,989,989,989,989,989,989,989,989,989,989,989,992,992,992,992,989,989,989,989,989,989,989,989,989,989,987,987,987,987,987,987,987,987,987,987,987,987,989,989,989,989,989,989,989,989,989,989,989,989,989,989,989,989,989,987,984,978,975,975,973,973,970,970,967,967,0,0,0,0,0,0,989,989,989,989,989,989,989,989,906,906,906,908,908,908,908,908,908,908,910,910,910,910,0,0,0,0,0,0,0,0,0,0,0,0,0,0,0,0,0,0,0,0,0,0,0,0,0,0,0,0,0,0,0,0,0,0,0,0
0,0,0,1010,1010,1007,1007,1004,1004,1004,1004,1004,1004,1004,1004,1004,1001,1001,1001,1001,1001,1001,1001,1001,1001,1001,1001,998,998,998,998,998,995,995,995,995,995,995,995,995,995,995,995,995,995,995,995,995,995,995,995,995,995,998,998,998,995,995,995,995,992,992,992,992,995,992,992,992,992,992,992,992,992,995,995,995,995,995,995,998,998,998,995,995,995,995,995,992,992,992,992,995,995,998,998,998,998,998,998,998,998,998,998,998,998,998,998,998,998,998,995,995,998,998,998,995,995,995,998,998,995,995,995,995,995,995,995,995,995,995,995,995,995,998,998,998,995,995,995,995,992,992,992,992,992,995,992,992,992,998,998,998,998,998,998,998,998,995,995,998,998,998,998,998,998,998,998,998,998,995,995,995,995,995,992,992,992,992,992,992,992,992,995,995,995,995,998,995,995,995,992,992,992,992,992,992,992,992,992,992,992,992,992,992,992,992,992,995,995,995,995,995,995,995,995,995,995,992,992,995,992,992,995,995,995,995,995,995,995,995,995,995,995,992,992,992,989,989,989,987,987,987,785,785,781,781,781,781,780,776,774,771,769,769,767,766,766,766,764,764,766,766,767,767,767,769,776,778,780,781,783,785,787,789,789,798,798,805,807,809,811,813,817,821,823,825,827,827,827,989,989,989,989,989,989,989,989,989,989,989,989,989,989,989,989,989,989,992,992,992,992,992,992,992,992,992,992,992,992,992,992,992,992,992,992,992,992,992,992,992,995,995,995,995,995,995,992,992,995,995,992,992,992,992,995,995,995,995,995,995,995,995,995,995,995,995,995,995,992,992,995,992,992,992,992,992,992,992,992,992,992,992,992,992,992,992,992,992,992,992,992,992,992,992,992,992,989,989,989,989,992,989,989,989,992,989,989,992,992,992,992,992,992,989,989,992,992,992,992,992,992,992,992,992,992,992,992,992,992,992,992,992,992,989,989,989,989,989,989,989,989,989,989,989,989,989,989,989,989,989,989,989,989,989,989,989,989,989,989,989,989,989,989,989,989,989,989,989,989,989,989,989,989,989,989,987,987,987,987,987,987,987,987,987,987,987,987,987,987,987,987,987,987,987,987,989,989,989,989,989,989,989,989,989,989,989,989,989,989,987,987,987,987,987,989,989,989,989,989,989,989,989,989,989,989,989,989,987,987,987,987,987,987,987,987,989,987,987,989,989,989,987,987,987,987,987,987,984,984,984,984,984,984,984,984,984,984,984,984,984,984,984,987,989,989,987,987,987,987,989,987,987,987,987,987,987,981,978,975,975,973,973,970,970,0,0,0,0,0,0,0,0,989,989,989,989,989,989,987,987,906,906,906,906,906,906,908,908,908,908,908,908,910,910,0,0,0,0,0,0,0,0,0,0,0,0,0,0,0,0,0,0,0,0,0,0,0,0,0,0,0,0,0,0,0,0,0,0,0,0
0,0,0,1010,1010,1007,1004,1004,1001,1001,1001,1001,1004,1004,1004,1001,1001,998,998,998,998,998,998,998,998,998,998,998,998,998,995,995,995,995,995,995,992,992,992,992,989,989,989,987,987,987,987,989,992,992,992,992,992,995,995,995,992,992,992,992,992,989,989,989,989,989,989,989,989,989,989,989,989,989,989,992,992,992,992,995,995,995,995,995,995,995,992,992,989,989,989,989,995,995,995,995,995,995,995,995,995,995,995,998,995,995,995,995,995,995,995,995,995,995,995,992,992,995,995,995,995,995,995,995,995,995,992,992,992,995,995,995,995,995,995,995,992,992,992,992,992,992,989,989,989,992,992,992,989,989,989,989,992,992,992,992,992,992,992,995,995,998,998,998,998,998,995,995,995,995,992,992,992,992,992,992,992,992,992,992,992,992,992,992,992,992,992,992,992,992,989,989,989,989,989,989,989,992,992,992,992,992,992,989,989,989,992,992,992,992,992,992,992,992,992,992,992,989,989,989,989,989,992,992,992,992,995,995,995,995,995,992,992,992,992,989,987,987,987,987,987,987,783,783,781,781,781,781,780,776,774,773,771,769,767,767,766,766,766,766,766,766,767,767,769,773,778,778,780,781,785,787,787,789,790,796,798,807,807,809,811,813,819,819,823,825,827,827,987,987,987,987,989,989,989,989,989,989,989,989,989,989,989,987,987,989,989,989,989,992,992,992,992,992,992,992,992,992,992,992,992,992,992,992,992,992,989,989,989,989,989,989,992,992,992,992,992,992,992,992,992,992,992,992,992,992,992,992,995,995,995,992,992,992,992,992,992,992,992,992,992,992,992,992,992,992,992,992,992,992,992,992,992,992,992,992,992,992,992,992,989,989,989,989,989,989,989,989,987,987,989,989,987,987,989,989,989,989,989,989,989,989,989,989,989,989,989,989,989,989,989,989,989,989,992,992,992,989,989,989,989,989,989,989,989,989,987,987,987,987,987,987,987,987,987,987,987,987,987,984,984,987,987,987,987,987,987,987,987,987,987,987,987,987,987,987,989,989,989,989,987,987,987,987,987,987,984,984,987,987,987,984,984,984,987,987,987,987,987,987,987,987,987,987,987,987,987,987,987,987,989,989,987,987,987,989,987,987,987,984,984,984,984,984,984,984,987,987,987,989,987,987,987,987,987,984,984,981,981,984,984,984,984,984,984,987,987,987,987,987,987,987,987,984,984,984,984,984,984,984,981,981,981,981,981,981,981,981,981,981,981,981,984,981,981,984,984,984,987,984,984,984,984,984,984,984,981,975,975,975,973,973,970,970,0,0,0,0,0,0,0,0,984,984,987,987,987,987,984,981,906,906,906,906,906,906,908,908,908,908,908,908,908,910,0,0,0,0,0,0,0,0,0,0,0,0,0,0,0,0,0,0,0,0,0,0,0,0,0,0,0,0,0,0,0,0,0,0,0,0
0,0,0,1007,1007,1007,1004,1004,1001,1001,1001,1001,1001,1001,1001,998,998,995,995,998,998,998,998,998,998,998,998,995,995,995,995,992,992,992,992,992,989,989,989,989,989,989,987,987,987,987,987,987,989,989,989,989,992,992,992,992,989,989,989,989,989,987,987,987,987,984,984,987,987,987,987,989,989,989,989,989,989,989,989,992,992,992,992,992,989,989,989,989,989,987,987,989,992,992,992,992,992,992,992,992,995,992,992,992,992,992,992,992,992,992,992,992,992,992,992,989,989,989,989,989,989,992,992,992,992,992,992,992,992,992,992,992,992,992,992,992,989,989,989,989,989,989,989,989,989,989,989,989,989,989,987,987,987,987,987,987,989,989,989,989,992,995,995,995,995,995,992,992,992,992,992,992,992,992,992,992,992,989,989,992,989,989,989,989,989,989,989,989,989,989,989,989,989,989,989,989,989,989,989,989,989,989,989,989,989,989,989,989,989,989,989,989,989,989,989,989,989,989,987,987,987,987,987,987,987,989,992,992,992,992,992,992,989,989,989,989,987,987,987,987,987,987,783,783,783,781,781,781,781,776,774,773,773,771,769,767,767,767,766,766,767,767,767,767,771,774,778,778,780,781,785,787,787,789,790,796,798,807,809,813,813,815,819,819,821,825,827,987,987,987,987,987,987,987,987,987,987,987,987,987,987,987,987,987,987,987,987,987,987,989,989,989,992,992,992,989,989,989,989,989,989,989,989,989,989,989,987,987,987,987,987,987,987,987,989,989,989,989,989,989,989,989,989,989,989,989,989,989,992,992,992,989,989,989,989,989,989,989,989,989,989,989,989,989,989,989,989,989,989,989,989,989,989,989,989,989,989,989,989,989,989,989,989,987,987,987,987,987,984,984,987,987,984,984,984,984,984,987,987,987,987,987,987,987,987,989,989,989,989,989,989,989,989,989,989,989,989,989,989,989,989,987,987,987,987,987,984,984,987,984,984,984,987,987,984,984,984,984,984,981,981,984,984,984,984,984,984,987,987,984,984,984,984,984,987,987,984,984,987,987,987,984,984,984,984,984,981,981,981,981,981,981,981,984,984,984,984,987,987,984,984,984,984,984,984,984,984,984,984,987,987,987,987,987,987,981,981,981,981,981,981,981,981,981,981,981,981,981,987,987,984,984,984,984,984,981,981,978,978,981,981,981,981,981,981,981,984,984,984,984,981,981,981,981,981,981,984,981,981,981,981,981,981,981,981,981,981,981,981,981,981,981,981,981,981,981,981,981,984,984,984,984,981,981,981,978,978,975,975,975,973,973,973,973,0,0,0,0,0,0,0,0,981,981,984,984,984,984,984,981,908,908,908,908,906,906,908,908,908,908,908,908,908,908,0,0,0,0,0,0,0,0,0,0,0,0,0,0,0,0,0,0,0,0,0,0,0,0,0,0,0,0,0,0,0,0,0,0,0,0
0,0,0,1007,1007,1004,1004,1001,1001,998,998,1001,998,998,998,995,995,995,995,995,998,998,998,995,995,995,995,995,995,992,992,992,992,992,989,989,989,989,989,989,989,989,987,987,987,987,987,987,987,987,987,987,987,989,989,989,987,987,987,987,987,987,987,984,984,981,981,981,981,984,984,987,987,989,987,987,987,987,987,989,989,989,989,989,989,989,987,987,987,984,984,987,989,989,987,987,989,989,989,989,989,989,989,989,989,989,989,989,989,989,989,989,989,989,989,989,989,987,987,989,989,989,989,989,989,989,989,989,989,989,989,989,989,989,989,989,987,987,987,987,987,987,987,987,989,989,989,989,987,987,987,987,987,987,987,987,987,987,987,987,989,989,989,989,992,992,989,989,992,992,989,989,992,992,992,989,989,989,989,989,989,989,987,987,987,987,987,987,987,987,989,989,989,989,989,989,989,987,987,987,987,987,987,987,987,989,989,989,989,989,989,987,987,987,987,987,987,987,987,987,987,987,987,987,987,987,987,987,987,989,989,989,989,989,989,989,987,987,984,984,984,987,783,783,783,783,783,783,781,780,776,774,773,773,771,769,767,767,767,767,767,767,767,767,771,776,778,778,781,783,785,787,787,789,794,796,798,807,809,813,815,817,819,819,821,984,984,984,984,984,984,987,987,987,987,987,987,987,987,987,987,987,987,984,984,987,987,987,987,989,989,989,989,989,989,989,989,989,989,989,987,987,987,987,987,987,987,987,987,984,984,984,987,987,987,987,987,987,989,989,987,987,989,987,987,987,987,987,989,989,989,989,989,989,989,989,989,989,989,989,989,989,989,989,989,989,989,989,989,989,989,987,987,987,987,987,987,987,987,987,987,987,987,984,984,984,984,984,984,984,984,984,984,984,984,984,984,984,984,984,987,987,987,984,984,987,987,987,987,987,987,989,987,987,989,987,987,987,987,987,987,984,984,984,984,984,984,984,984,984,984,984,984,984,984,981,981,981,981,981,981,981,981,981,981,981,981,981,981,981,981,978,978,981,981,984,981,981,981,981,984,981,981,981,981,981,981,981,981,981,981,981,981,981,981,981,981,984,984,981,981,981,981,981,981,981,981,981,981,981,981,981,981,981,978,978,981,981,981,978,978,978,978,978,978,978,978,978,978,978,978,981,981,981,981,981,978,978,978,978,978,978,978,978,978,978,981,981,981,981,981,981,981,981,981,981,981,981,981,978,978,978,978,978,978,978,978,978,981,981,978,978,978,978,978,978,978,978,978,981,981,981,978,978,978,978,978,975,975,975,973,973,973,935,935,935,0,0,0,0,0,0,973,973,978,978,978,981,978,978,908,908,908,908,906,906,908,908,908,908,908,908,908,908,0,0,0,0,0,0,0,0,0,0,0,0,0,0,0,0,0,0,0,0,0,0,0,0,0,0,0,0,0,0,0,0,0,0,0,0
0,0,0,1004,1004,1004,1001,1001,1001,998,998,998,998,998,995,992,992,992,992,992,992,992,995,992,992,992,992,992,992,992,989,989,989,989,989,989,989,989,989,989,987,987,987,984,984,984,984,984,987,987,987,984,984,984,984,984,984,984,987,987,987,984,984,981,981,981,981,981,981,981,981,987,987,987,987,987,987,987,987,987,987,987,987,987,984,984,984,984,984,981,981,981,984,984,984,984,984,987,987,987,989,989,989,989,989,987,987,989,989,989,987,987,987,987,987,987,987,984,984,984,984,987,987,987,987,987,987,987,987,987,987,987,987,987,987,987,984,984,987,987,987,987,987,987,987,987,987,987,987,987,987,987,987,984,984,984,987,987,987,987,987,987,987,989,989,989,989,989,989,989,989,989,989,989,989,989,987,987,987,987,987,987,987,987,987,987,987,987,987,987,987,987,987,987,987,987,987,987,987,987,987,987,987,987,987,987,987,987,987,987,987,987,987,987,987,987,987,984,984,984,984,984,984,984,984,984,984,984,987,984,984,984,989,987,987,987,987,987,984,984,984,783,783,783,783,783,783,783,781,780,778,774,774,773,771,769,767,767,767,767,767,767,767,767,771,776,780,780,783,785,787,787,789,789,794,796,798,807,809,813,815,817,819,819,978,978,978,978,981,981,984,984,984,984,984,987,984,984,984,984,984,984,984,984,984,984,984,984,984,987,987,984,984,987,987,987,984,984,984,987,984,984,984,984,984,984,984,984,984,984,984,984,984,984,984,984,984,984,984,987,984,984,987,987,987,984,984,984,987,984,984,984,984,984,987,987,989,989,987,987,987,987,987,987,987,987,987,987,987,987,987,984,984,984,984,981,981,984,984,984,984,984,984,984,984,984,984,981,981,981,981,981,981,981,981,981,981,984,984,984,984,984,984,984,984,981,981,981,981,981,987,987,984,984,984,984,984,984,984,984,984,981,981,981,981,981,981,981,981,981,981,981,981,981,981,981,981,981,981,981,981,981,981,981,978,978,978,978,978,978,978,975,975,978,978,978,978,981,981,981,978,978,981,981,978,978,978,978,978,978,978,981,981,981,981,981,981,981,981,978,978,978,978,978,978,978,978,978,978,978,978,978,978,978,978,978,978,978,978,978,978,978,978,978,978,975,975,975,975,975,975,975,975,978,978,978,978,975,975,975,975,975,975,978,975,975,978,978,978,978,978,978,978,978,978,978,978,978,978,978,978,978,978,978,978,978,978,978,978,978,978,978,978,975,975,975,975,975,978,978,978,978,978,978,978,975,975,975,975,975,975,975,933,933,933,928,928,0,0,0,0,0,973,973,975,975,978,978,975,975,908,908,908,908,906,906,908,908,908,908,908,908,908,908,0,0,0,0,0,0,0,0,0,0,0,0,0,0,0,0,0,0,0,0,0,0,0,0,0,0,0,0,0,0,0,0,0,0,0,0
0,0,0,1004,1004,1001,1001,1001,1001,998,998,998,995,995,989,989,989,989,987,987,987,989,989,989,989,992,992,992,992,989,989,987,987,987,987,987,987,987,987,987,984,984,981,981,981,981,981,984,984,984,984,984,984,981,981,981,981,981,981,984,984,981,981,981,978,978,978,978,981,981,981,984,984,984,984,984,984,981,981,984,984,984,984,984,984,984,981,981,978,978,981,981,981,984,981,981,984,984,987,987,987,987,987,987,987,987,987,987,987,987,987,987,987,987,987,984,984,981,981,981,981,984,984,984,984,987,987,987,987,987,984,984,984,984,984,984,984,984,984,984,987,984,984,984,984,987,987,987,984,984,984,984,984,984,984,984,984,987,984,984,984,984,984,984,984,984,987,987,987,987,987,987,987,987,987,987,987,984,984,984,984,984,984,984,984,984,981,981,981,984,984,984,987,987,987,987,987,984,984,981,981,984,984,984,984,984,984,984,984,984,984,984,984,984,984,984,984,981,981,981,981,981,981,981,984,984,984,984,984,984,981,981,981,981,981,984,984,984,984,984,984,984,785,785,783,783,783,783,783,780,778,776,774,774,773,771,769,767,767,767,769,767,767,769,774,776,780,780,783,787,787,787,789,790,796,798,798,805,809,811,815,817,975,975,975,975,978,978,978,978,981,981,981,981,981,981,981,981,981,981,981,981,981,981,981,981,981,981,981,984,984,981,981,984,984,984,984,984,984,984,984,984,984,981,981,981,981,981,981,981,981,981,981,981,981,981,981,981,981,984,984,984,984,984,984,984,984,984,984,984,984,981,981,981,981,984,984,987,987,987,987,984,984,984,984,984,984,984,984,981,981,981,981,981,981,978,978,981,981,981,981,981,981,981,981,981,981,981,981,981,981,981,981,981,981,981,981,984,981,981,984,984,984,981,981,981,981,978,978,978,978,978,981,981,981,981,981,981,981,981,981,981,981,981,978,978,978,978,978,978,978,978,978,981,981,978,978,978,978,978,978,978,978,978,978,975,975,975,975,973,973,973,973,973,975,975,975,978,978,978,978,978,975,975,975,978,978,975,975,975,975,978,978,978,978,981,981,978,978,978,978,975,975,978,978,978,978,978,978,978,975,975,978,975,975,975,975,975,975,975,975,975,975,975,975,975,973,973,973,973,973,973,973,973,973,975,975,975,975,975,975,975,975,975,975,975,978,975,975,975,978,975,975,978,978,978,978,978,975,975,975,975,975,975,975,978,978,978,978,978,975,975,975,975,975,975,975,975,975,978,978,978,978,978,975,975,975,975,975,973,970,970,933,933,933,928,928,0,0,0,0,0,0,978,975,975,975,978,973,973,975,908,908,908,906,906,908,908,908,908,908,908,908,908,0,0,0,0,0,0,0,0,0,0,0,0,0,0,0,0,0,0,0,0,0,0,0,0,0,0,0,0,0,0,0,0,0,0,0,0
0,0,0,998,998,998,998,998,998,998,998,998,995,989,987,987,987,987,987,984,984,987,987,989,989,989,989,992,992,989,987,984,984,984,984,984,984,984,984,984,981,981,981,978,978,981,981,981,981,981,981,981,981,981,981,981,981,981,981,981,981,981,981,981,978,978,978,978,978,978,978,978,981,981,981,981,981,978,978,981,981,981,984,981,981,981,978,978,978,978,978,978,978,978,981,981,981,981,984,984,981,981,984,984,984,981,981,984,984,987,987,987,984,984,984,984,981,981,981,981,981,981,981,981,981,981,984,984,984,984,981,981,981,981,981,981,981,981,981,981,981,981,981,981,981,981,984,981,981,981,981,981,981,981,981,981,984,984,981,981,984,981,981,981,981,981,981,981,981,981,987,987,987,987,987,987,984,984,984,981,981,981,981,981,981,981,981,981,981,981,981,981,984,984,984,984,984,984,981,981,981,981,981,981,981,981,981,984,984,984,981,981,981,981,981,981,981,978,978,978,978,978,978,981,981,981,981,981,981,978,978,978,978,978,978,978,978,978,981,981,981,981,785,785,783,783,785,785,783,781,780,778,776,774,773,771,769,769,767,767,769,769,769,771,774,776,778,780,785,787,787,789,789,794,796,798,798,805,809,811,975,975,975,975,975,975,975,975,975,975,978,978,978,978,978,978,978,978,975,975,975,978,978,978,978,978,978,978,981,981,981,981,981,981,981,981,981,981,981,981,981,981,981,981,981,981,981,981,981,981,981,981,981,981,981,981,981,981,981,981,981,981,981,981,981,981,981,981,981,981,981,981,981,981,981,981,981,981,981,981,984,981,981,981,978,978,981,978,978,978,978,978,978,978,978,975,975,978,981,981,978,978,981,981,981,981,981,978,978,978,981,981,981,981,981,981,981,981,981,981,981,981,981,981,978,978,978,975,975,975,975,975,975,975,975,981,981,978,978,978,978,978,978,978,978,978,978,978,978,978,978,978,978,978,975,975,975,978,978,978,978,978,975,975,975,973,973,973,973,973,973,973,973,973,973,973,973,975,975,975,975,975,975,975,973,973,973,973,973,973,973,975,975,975,978,978,978,975,970,970,975,975,975,975,975,975,978,978,975,975,975,973,973,970,970,970,973,973,973,973,973,973,973,973,973,973,973,973,970,970,973,970,970,970,973,973,973,973,973,973,973,973,973,973,973,973,975,973,973,973,973,973,975,978,975,975,975,975,973,973,973,973,973,973,973,975,975,978,975,975,975,973,973,973,973,973,973,975,975,975,975,975,975,973,973,973,973,973,973,970,970,970,970,935,933,928,928,0,0,0,0,0,0,978,975,975,975,975,973,973,973,908,908,908,908,908,908,908,908,908,908,908,908,908,0,0,0,0,0,0,0,0,0,0,0,0,0,0,0,0,0,0,0,0,0,0,0,0,0,0,0,0,0,0,0,0,0,0,0,0
0,0,0,998,998,998,998,998,992,992,992,992,992,987,987,987,987,987,984,984,984,984,984,984,984,987,987,989,987,987,984,981,981,981,981,984,984,984,984,981,981,978,978,978,978,978,978,978,978,978,978,978,978,978,978,978,978,978,981,981,981,981,981,978,978,978,978,978,978,978,975,975,978,978,978,978,978,978,978,978,978,978,981,978,978,978,978,975,975,975,975,975,975,978,978,978,978,978,981,981,978,978,978,978,978,978,981,981,981,981,984,984,984,984,981,981,981,978,978,978,978,978,978,978,981,981,981,981,981,981,981,978,978,978,978,981,978,978,978,978,978,978,978,978,978,978,978,978,978,978,981,981,981,981,981,981,981,981,981,981,981,981,978,978,978,978,978,978,978,978,978,978,978,984,981,981,984,981,978,978,978,981,978,978,978,978,978,978,978,978,978,978,981,984,984,984,981,981,978,978,978,978,978,978,978,978,978,978,978,978,978,978,978,978,978,978,978,978,975,975,975,975,978,978,978,978,978,978,978,978,975,975,975,975,975,975,975,975,975,975,975,975,783,783,783,783,785,785,783,781,780,778,778,776,773,771,771,769,769,769,769,769,769,771,774,778,778,780,785,787,787,789,789,794,796,798,798,798,973,973,973,975,973,973,973,973,975,975,973,973,973,973,975,975,975,973,973,975,975,975,975,975,975,975,975,975,975,975,978,978,978,978,978,978,978,978,978,978,978,978,978,978,978,978,978,978,978,978,978,978,978,978,978,978,978,978,978,978,978,978,978,978,978,978,981,978,978,978,978,978,978,978,978,978,978,978,978,978,978,978,975,975,978,978,975,975,975,975,975,978,975,975,978,978,975,973,973,975,978,978,978,978,978,978,978,978,978,978,978,978,978,978,978,978,978,978,978,978,978,978,981,981,981,978,978,978,978,975,973,973,973,973,973,973,973,975,975,978,978,978,978,978,975,975,975,975,975,975,975,975,975,975,975,973,973,973,973,973,973,973,975,975,973,973,973,973,970,970,970,970,970,970,970,970,970,973,973,970,970,973,973,973,973,973,973,970,970,970,970,970,970,973,973,970,970,970,970,970,970,970,970,970,970,975,975,975,975,973,973,970,970,970,970,970,970,970,970,970,970,970,970,970,970,970,970,970,970,970,970,970,970,970,967,967,967,970,970,970,970,973,973,970,970,973,973,973,973,970,970,970,970,970,973,973,973,975,975,973,973,973,970,970,970,970,970,970,973,975,975,975,973,973,973,973,973,973,973,973,973,975,975,973,973,970,970,970,970,970,970,970,967,967,933,933,930,930,930,0,0,0,0,0,0,0,975,973,973,973,973,970,970,908,908,908,908,908,908,908,908,908,908,908,908,908,0,0,0,0,0,0,0,0,0,0,0,0,0,0,0,0,0,0,0,0,0,0,0,0,0,0,0,0,0,0,0,0,0,0,0,0
0,0,0,995,995,998,998,995,992,989,989,987,987,987,987,987,987,984,984,981,981,981,981,981,981,984,984,987,984,984,981,981,981,978,978,981,981,981,981,981,978,978,978,975,975,975,978,978,978,978,978,978,978,978,978,978,978,978,978,978,978,978,978,978,975,975,975,975,975,975,975,975,975,975,975,975,975,975,975,975,975,978,978,978,978,978,978,975,975,975,975,973,973,975,975,975,975,975,975,975,978,978,978,978,978,978,978,978,978,978,981,981,981,981,981,978,978,978,978,978,978,978,978,978,978,978,978,978,978,978,978,978,978,978,978,978,978,978,978,978,975,975,975,975,975,975,978,978,978,978,978,978,978,978,978,978,981,978,978,978,978,978,978,978,978,978,975,975,975,975,975,975,975,975,975,975,975,978,978,978,978,978,978,978,978,978,978,978,978,978,978,978,978,978,981,978,978,978,978,975,975,975,975,975,975,975,975,975,978,978,975,975,975,975,975,975,975,975,975,975,975,975,975,975,975,975,975,975,975,975,973,973,975,975,975,975,975,975,975,973,973,973,0,787,787,787,787,785,783,781,781,780,778,776,773,773,771,771,769,769,771,771,771,773,774,778,778,780,785,787,787,789,789,794,796,796,798,798,973,973,973,973,973,970,970,970,973,970,970,970,970,970,973,970,970,970,970,970,970,970,970,973,973,973,973,973,975,975,975,975,978,975,975,978,978,978,978,978,978,978,978,978,978,978,978,978,978,978,978,978,978,978,978,978,978,978,978,978,978,978,978,978,978,978,978,978,978,975,975,975,978,975,975,975,975,975,975,975,975,975,973,973,970,970,973,973,973,973,973,973,973,973,975,975,975,973,973,973,975,975,975,975,975,975,975,975,975,975,978,978,978,978,978,978,975,975,978,978,978,978,978,978,978,978,978,978,975,973,973,973,970,970,970,970,973,973,973,973,973,973,973,973,973,973,973,973,975,975,975,973,973,973,973,970,970,970,970,970,970,970,973,973,970,970,970,970,970,970,970,970,970,970,970,970,970,970,970,967,967,970,970,970,970,970,970,970,970,970,970,970,967,967,970,967,967,967,967,967,967,970,970,970,970,970,970,970,970,970,970,967,967,967,967,967,967,967,967,967,967,967,967,967,967,967,967,967,967,967,967,967,967,967,967,967,967,967,967,967,970,970,970,970,970,970,970,970,970,970,970,970,970,970,970,970,970,973,973,973,970,970,970,970,970,970,970,970,970,970,970,970,970,970,970,970,970,970,970,970,970,973,973,970,970,970,970,967,967,967,967,967,964,964,933,933,930,930,930,0,0,0,0,0,0,0,973,973,970,970,970,970,967,910,908,908,908,908,908,908,908,908,908,908,908,908,0,0,0,0,0,0,0,0,0,0,0,0,0,0,0,0,0,0,0,0,0,0,0,0,0,0,0,0,0,0,0,0,0,0,0,0
0,0,0,992,992,995,995,992,989,989,989,984,984,987,987,987,984,984,981,981,978,978,978,978,981,981,981,984,981,981,978,978,978,978,978,978,978,978,978,978,975,975,975,975,975,975,975,975,975,975,975,975,975,975,975,975,975,975,975,975,975,975,975,975,975,975,975,973,973,973,973,973,973,975,973,973,975,975,975,975,975,975,975,975,975,975,975,973,973,973,973,973,973,973,973,973,975,975,975,975,975,975,975,975,975,975,973,973,975,975,975,978,978,978,978,978,978,975,975,975,975,975,975,978,978,978,975,975,975,975,975,975,975,975,975,975,975,975,975,975,975,975,975,975,975,975,975,975,975,975,975,975,975,975,975,975,978,975,975,978,975,975,975,975,975,975,975,975,973,973,975,973,973,973,973,973,975,975,975,975,975,978,975,975,975,975,975,975,975,975,975,975,978,978,978,978,978,978,975,975,975,975,975,975,975,973,973,975,975,975,975,975,975,973,973,973,973,973,973,973,973,973,973,975,975,975,975,975,975,973,973,973,973,973,973,973,970,970,970,970,970,970,967,0,787,787,787,787,783,783,781,780,780,778,774,773,771,771,769,769,771,771,771,773,774,778,778,781,785,787,787,789,789,794,796,796,796,973,973,973,973,973,970,970,970,970,970,970,967,967,970,970,970,970,967,967,967,967,967,967,967,967,970,967,967,967,970,970,973,975,975,975,975,975,975,975,975,975,975,975,978,978,978,978,975,975,975,975,975,975,975,975,975,975,975,978,978,975,975,975,975,975,973,973,973,975,975,975,975,975,975,975,975,975,975,975,973,973,973,973,970,970,970,970,970,970,970,970,970,970,970,973,973,973,973,970,970,973,973,973,973,973,973,973,973,973,973,975,975,975,975,975,975,975,975,975,975,975,975,975,975,975,975,975,975,975,973,970,970,970,970,970,970,970,970,970,970,970,970,970,967,967,970,970,970,970,973,973,973,973,973,970,970,970,970,967,967,970,970,970,970,970,970,970,970,970,967,967,967,967,967,970,970,970,967,967,967,964,964,967,967,967,967,967,967,967,967,967,967,967,967,967,964,964,967,967,967,967,967,967,970,970,970,967,967,967,967,967,967,967,967,967,967,967,967,967,967,967,964,964,964,964,964,964,964,964,967,967,967,964,964,964,964,964,964,964,964,967,967,967,967,967,967,967,967,967,967,967,967,967,967,967,967,967,970,970,970,970,970,970,970,967,967,967,967,967,967,967,967,967,967,967,967,967,967,967,967,967,967,967,970,967,967,967,967,967,967,967,964,964,964,962,959,938,930,930,0,0,0,0,0,0,0,0,954,962,962,962,967,967,964,908,908,908,908,908,908,908,908,908,908,908,910,913,0,0,0,0,0,0,0,0,0,0,0,0,0,0,0,0,0,0,0,0,0,0,0,0,0,0,0,0,0,0,0,0,0,0,0,0
0,0,0,989,989,989,989,989,987,987,987,981,981,981,981,981,978,978,978,978,978,978,975,975,978,978,978,981,978,978,978,978,978,975,975,975,978,978,978,975,975,975,973,973,973,973,975,975,973,973,973,973,973,973,973,973,973,973,973,975,975,975,975,973,973,973,973,973,973,973,973,973,973,973,973,973,973,973,973,973,973,973,973,973,973,975,973,973,970,970,970,970,970,970,970,973,973,973,973,973,975,973,973,975,973,973,970,970,970,970,973,975,975,978,978,975,975,975,975,975,975,975,975,975,975,975,975,975,975,975,975,975,975,975,975,975,975,975,975,973,973,973,973,973,973,973,975,975,975,975,973,973,973,973,970,970,975,975,975,975,975,975,973,973,973,973,973,973,973,973,973,973,973,970,970,970,970,973,973,973,973,975,975,975,975,975,975,975,975,975,975,975,975,975,975,975,975,975,975,975,975,973,973,973,973,970,970,973,973,973,973,973,973,973,970,970,970,970,970,970,970,970,970,973,973,973,973,973,973,970,970,970,970,970,970,970,970,970,967,967,967,967,967,0,789,789,789,787,785,785,783,781,781,780,776,774,773,773,771,771,771,773,773,774,776,778,780,781,785,787,787,789,792,794,796,796,973,973,973,973,973,973,970,967,967,967,967,967,967,967,967,967,967,967,964,964,964,967,967,967,967,967,967,967,967,967,967,967,970,970,970,970,973,973,973,973,973,973,973,973,975,975,975,975,975,975,973,973,973,973,973,973,975,975,975,975,975,973,973,973,973,973,970,970,970,973,973,973,973,973,973,973,973,973,973,970,970,970,970,970,970,970,970,970,970,970,970,970,970,970,970,970,970,970,970,970,970,970,970,970,970,970,970,970,973,970,970,973,973,973,973,973,973,973,970,970,970,973,973,973,973,973,973,973,973,973,970,970,967,967,967,967,967,967,967,970,970,970,967,967,967,967,967,970,970,970,970,970,970,970,970,970,967,967,967,967,967,967,967,967,967,967,967,967,967,967,967,967,967,967,967,967,967,967,964,964,967,962,962,962,964,964,967,967,967,967,967,967,964,964,964,962,962,962,962,964,964,967,967,967,967,967,967,967,967,967,964,964,964,964,964,964,967,967,964,964,964,964,962,962,962,962,964,964,962,962,964,964,964,962,962,962,962,962,962,962,962,964,964,967,964,964,964,964,967,967,967,967,967,964,964,964,964,964,967,967,967,967,967,967,967,967,967,967,964,964,962,962,962,964,964,964,964,964,964,964,967,964,964,964,967,964,962,962,962,964,964,964,964,962,962,959,959,938,930,930,0,0,0,956,956,956,956,956,954,954,956,959,964,962,959,908,908,908,908,908,908,908,908,908,908,910,913,946,0,0,0,0,0,0,0,0,0,0,0,0,0,0,0,0,0,0,0,0,0,0,0,0,0,0,0,0,0,0,0,0,0,0,0,0
0,0,0,987,987,989,987,987,984,984,984,981,981,978,978,978,978,978,975,975,975,975,975,975,973,973,975,975,975,975,975,975,975,973,973,973,975,975,975,973,973,973,973,973,970,970,973,973,973,973,973,970,970,970,970,970,970,970,970,973,973,970,970,970,970,970,970,970,970,970,970,970,970,973,970,970,973,973,970,970,967,967,967,967,970,970,970,970,967,967,967,967,967,967,970,970,970,970,970,973,973,973,973,973,973,970,970,970,970,970,970,970,973,975,975,973,973,973,973,973,975,975,975,975,975,975,973,973,973,973,973,973,973,973,973,973,973,973,973,970,970,970,973,973,973,973,973,973,973,973,970,970,970,970,967,967,970,973,973,973,973,973,970,970,970,970,970,970,970,970,970,970,970,967,967,970,970,970,970,970,970,973,973,973,973,973,975,975,975,973,973,973,973,973,973,973,973,975,973,973,973,973,970,970,970,970,970,970,970,970,970,970,970,970,970,967,967,967,967,967,967,967,967,967,967,967,967,970,970,970,970,970,970,970,970,967,967,967,967,967,967,967,967,0,789,789,789,789,789,785,783,783,781,780,778,774,773,773,771,771,773,773,773,774,778,778,780,785,787,787,787,790,792,794,796,796,0,973,973,970,970,970,967,967,967,967,967,967,967,967,967,964,964,964,964,964,964,964,964,964,964,964,967,964,964,967,967,967,970,970,967,967,967,967,967,970,970,970,970,970,973,973,973,973,973,973,970,970,970,970,970,970,973,973,973,973,975,973,973,970,970,970,970,970,970,970,970,970,970,970,970,970,970,970,970,970,970,970,970,970,970,970,970,970,970,970,970,970,970,967,967,967,967,970,967,967,967,967,970,970,970,970,970,970,970,970,970,970,970,970,970,970,970,970,970,967,967,970,970,970,970,967,967,967,967,967,967,967,967,967,967,967,967,967,964,964,967,967,967,967,964,964,967,967,967,967,967,970,970,967,967,967,967,967,967,967,967,967,967,967,967,964,964,967,967,967,964,964,964,964,964,964,964,962,962,962,964,962,962,962,962,962,964,964,964,964,964,964,964,962,962,962,962,962,962,962,962,962,964,964,967,967,964,964,964,964,962,962,962,964,964,964,964,964,964,964,964,962,962,959,959,962,962,962,962,962,962,962,962,959,959,959,959,959,959,962,962,962,962,964,964,964,964,964,964,964,964,964,964,962,962,962,962,962,962,964,964,964,964,967,967,964,964,964,962,962,962,962,962,962,962,962,962,962,962,962,962,959,959,962,959,959,959,959,959,962,962,962,962,962,959,959,954,946,930,930,0,951,0,956,956,956,951,951,951,951,956,959,962,962,959,908,908,908,908,908,908,908,908,908,908,920,946,946,948,0,0,0,0,0,0,0,0,0,0,0,0,0,0,0,0,0,0,0,0,0,0,0,0,0,0,0,0,0,0,0,0,0,0,0
0,0,0,984,984,987,984,984,984,981,981,981,978,978,978,978,978,978,975,975,973,973,973,973,973,973,973,973,970,970,970,970,973,973,973,973,973,975,973,973,973,973,970,970,970,970,970,970,970,970,967,967,967,967,967,967,967,967,967,967,970,967,967,967,967,967,967,967,967,967,967,967,967,970,967,967,967,970,970,967,967,967,967,967,967,967,967,967,967,967,967,967,967,967,967,967,970,970,970,970,970,970,970,973,970,970,967,967,967,967,967,967,967,967,967,967,970,970,970,970,973,973,973,973,973,973,970,970,970,970,970,970,970,970,970,970,970,970,970,967,967,967,970,970,970,970,973,973,970,970,970,970,967,967,964,964,967,970,970,970,970,970,967,967,967,967,967,967,967,967,967,967,967,967,967,967,967,967,967,967,967,970,970,970,970,970,970,970,970,970,970,970,970,970,970,970,970,973,970,970,970,970,967,967,967,967,967,967,967,967,967,967,967,967,967,967,967,967,967,967,967,964,964,964,964,964,964,964,964,967,967,967,967,967,967,967,967,967,964,964,964,967,967,962,792,792,790,789,789,787,785,783,783,781,780,778,774,773,773,773,773,773,774,776,778,778,781,785,787,787,789,790,792,794,794,794,0,970,970,970,967,967,967,967,967,964,964,967,964,964,964,964,964,964,962,962,962,964,964,964,964,964,967,964,964,964,964,964,967,967,967,967,964,964,967,967,967,967,967,967,970,970,970,967,967,970,967,967,967,967,967,967,970,970,970,970,970,970,970,970,967,967,967,967,967,967,967,967,967,967,967,967,967,967,967,967,967,967,967,967,967,967,967,967,967,967,967,967,967,967,967,967,967,967,967,967,967,967,967,967,967,967,967,967,967,967,967,967,967,967,967,967,967,967,967,967,967,967,967,967,967,964,964,962,962,964,964,964,964,964,964,964,964,964,962,962,962,962,964,964,962,962,962,964,964,962,962,962,962,967,964,964,964,964,964,964,964,964,964,964,962,962,962,962,962,962,962,962,959,959,962,962,962,959,959,962,962,959,959,959,959,959,962,962,962,962,962,962,964,962,962,959,959,959,959,959,959,959,959,959,959,964,962,962,959,959,959,959,959,962,962,962,962,964,962,962,962,962,959,959,959,959,959,959,959,959,959,962,959,959,959,959,959,959,959,959,959,959,959,962,962,962,962,962,962,959,959,962,962,962,962,962,962,962,962,962,964,964,964,964,964,964,962,962,962,959,959,959,959,959,959,959,959,959,959,959,959,959,959,959,959,959,959,959,959,962,959,959,959,959,959,956,954,954,954,951,951,951,954,956,956,956,951,951,951,951,951,954,956,956,956,956,956,908,908,908,908,908,908,943,943,943,946,946,948,0,0,0,0,0,0,0,0,0,0,0,0,0,0,0,0,0,0,0,0,0,0,0,0,0,0,0,0,0,0,0,0,0,0,0
0,0,0,984,984,984,981,981,981,978,978,978,975,975,978,975,975,975,973,970,970,970,973,973,970,970,970,970,970,967,967,967,967,967,967,967,967,970,970,970,967,967,967,967,967,967,967,967,967,967,967,967,967,967,967,967,967,964,964,964,967,964,964,964,964,964,964,964,964,964,964,964,964,964,964,964,964,964,967,967,964,964,964,964,964,964,964,964,964,964,964,964,967,967,967,967,967,967,967,967,967,967,967,967,967,967,967,967,967,967,967,964,964,967,967,967,967,967,967,967,970,970,970,970,970,970,970,967,967,967,967,967,967,967,967,967,967,967,967,964,964,964,967,967,967,967,970,970,970,967,967,967,964,964,964,964,964,964,967,967,967,967,967,967,967,967,964,964,964,964,967,964,964,964,964,964,967,967,964,964,967,967,967,967,967,967,967,967,967,964,964,964,967,967,967,967,967,967,967,967,967,967,967,967,967,967,967,967,967,967,964,964,964,964,964,964,964,964,964,964,964,964,962,962,962,962,962,962,964,964,964,964,964,964,964,964,964,964,964,962,962,962,962,962,792,792,792,790,790,789,787,785,783,781,780,778,774,773,773,773,773,773,774,776,780,780,781,785,787,787,789,790,792,794,794,794,0,967,967,967,967,964,964,964,964,964,964,964,964,964,964,962,962,962,962,962,962,962,962,964,964,964,964,964,964,964,964,964,964,964,964,964,962,962,962,964,962,962,964,964,967,967,967,964,964,967,967,967,967,964,964,967,967,967,967,967,970,970,970,967,967,967,967,967,967,964,964,964,964,964,964,964,964,964,967,967,967,967,967,967,967,967,967,967,967,967,967,967,967,967,967,967,967,967,964,964,964,964,964,964,964,964,967,967,967,967,967,964,964,964,964,964,964,964,964,964,964,964,964,964,964,962,962,959,959,962,962,962,962,962,962,962,962,962,962,962,959,959,962,962,962,959,959,959,959,959,959,959,959,959,962,962,964,964,964,964,962,962,962,962,962,962,962,959,959,959,959,959,959,959,959,959,959,959,959,959,959,959,959,956,956,956,959,959,959,959,959,959,959,959,959,959,959,956,956,956,956,956,956,956,956,956,956,959,956,956,959,959,959,959,959,962,962,962,959,959,959,959,959,959,959,959,959,959,959,959,959,959,959,956,956,956,956,956,956,956,956,956,959,959,959,959,959,959,959,959,959,959,959,956,956,956,959,959,959,959,959,959,964,962,962,962,959,959,959,959,959,959,959,959,959,959,959,959,956,956,956,956,956,959,959,959,959,956,956,959,959,959,956,956,956,956,954,954,954,948,948,954,954,940,948,948,948,948,948,948,948,954,954,956,956,956,956,948,948,908,908,946,946,943,943,943,946,946,0,0,0,0,0,0,0,0,0,0,0,0,0,0,0,0,0,0,0,0,0,0,0,0,0,0,0,0,0,0,0,0,0,0,0,0
0,0,978,978,981,981,978,978,978,978,978,978,975,975,975,975,975,975,970,970,970,970,970,970,970,970,970,970,967,967,967,967,967,964,964,964,964,964,964,964,964,964,964,964,964,964,964,964,964,964,964,964,964,964,964,964,964,964,964,964,962,962,962,962,964,964,964,964,964,962,962,962,962,962,962,962,962,964,964,964,964,964,964,964,964,964,964,964,964,964,964,964,964,964,964,964,964,967,964,964,964,964,964,964,964,964,964,964,964,964,964,964,964,964,964,964,964,964,964,964,964,964,964,967,970,970,967,967,967,967,967,967,967,967,967,967,967,964,964,962,962,962,964,964,964,964,964,967,967,964,964,964,964,962,962,962,962,962,964,964,964,964,964,964,964,964,964,964,964,964,964,964,964,964,964,964,964,964,964,964,964,964,964,964,964,964,964,964,962,962,962,962,962,962,962,964,964,964,964,964,964,964,964,964,964,964,964,964,964,964,964,964,962,962,964,964,964,964,962,962,962,959,959,959,959,959,959,959,959,959,959,962,964,964,964,964,964,964,962,959,959,959,959,959,792,792,792,792,790,790,789,785,783,781,780,778,776,774,773,773,773,773,774,776,778,780,781,785,787,787,789,792,792,794,794,794,962,964,964,964,964,964,964,964,964,964,964,964,962,962,962,962,959,959,959,959,959,959,959,962,962,962,962,962,962,962,962,962,962,962,962,962,959,959,959,962,962,962,962,962,962,962,962,962,962,962,964,964,964,964,964,964,964,967,964,964,967,967,967,964,964,964,964,964,964,962,962,962,962,964,964,964,964,964,964,964,967,967,967,964,964,964,964,964,964,964,964,964,964,964,964,964,964,964,962,962,962,962,959,959,962,962,964,964,964,964,964,962,962,962,962,962,962,962,964,964,964,964,962,962,962,959,959,959,959,959,959,959,959,959,959,959,959,959,959,959,959,959,959,959,959,959,959,956,956,956,956,956,956,959,959,959,959,959,962,962,962,959,959,959,959,959,959,959,959,959,959,956,956,956,956,956,956,956,956,956,956,956,956,956,956,956,956,956,956,956,956,956,956,956,956,956,956,954,954,954,954,954,954,954,956,954,954,954,954,956,956,956,956,959,959,959,956,956,956,956,956,956,956,956,956,956,956,956,956,956,956,959,956,956,956,956,956,956,956,956,956,956,956,954,954,954,954,954,956,956,954,954,954,954,954,954,954,959,959,959,959,959,959,959,959,959,959,956,956,956,956,956,956,956,956,956,956,956,956,956,956,956,956,956,956,956,956,956,956,956,956,956,954,954,956,954,951,951,943,943,948,946,940,940,946,946,946,948,948,948,948,951,951,954,954,954,948,948,948,948,946,946,946,946,946,946,946,946,0,0,0,0,0,0,0,0,0,0,0,0,0,0,0,0,0,0,0,0,0,0,0,0,0,0,0,0,0,0,0,0,0,0,0,0
0,0,978,978,978,978,978,978,978,975,975,975,975,975,973,973,973,967,967,967,967,967,970,970,970,970,967,967,967,967,967,964,964,964,964,964,964,964,964,962,962,962,962,962,964,964,964,964,964,964,964,964,964,962,962,964,964,962,962,962,962,962,962,962,962,962,962,962,962,962,962,959,959,959,959,956,956,962,962,962,962,962,962,962,962,962,962,962,962,962,962,962,962,962,962,962,964,964,964,964,964,962,962,962,962,962,962,962,962,962,962,962,962,962,962,962,962,962,962,962,962,962,962,964,964,964,967,967,967,967,964,964,964,964,964,964,962,962,962,962,962,962,962,962,962,962,962,962,964,964,962,962,962,959,959,959,959,959,959,962,962,962,964,964,964,964,964,962,962,962,962,962,962,962,962,962,962,962,962,962,962,962,962,962,962,962,959,959,959,959,962,959,959,959,959,962,959,959,959,962,962,962,962,962,962,962,962,962,962,962,962,959,959,962,962,962,962,959,959,959,959,959,956,956,956,956,956,956,956,956,956,959,962,962,962,962,962,962,959,959,956,956,956,956,792,792,792,792,790,790,789,787,785,783,781,780,776,774,774,773,773,774,776,778,778,780,783,785,787,787,789,792,794,794,794,794,962,962,962,962,962,962,962,962,962,962,962,962,962,962,959,959,959,956,956,956,956,959,959,959,959,959,959,959,959,962,959,959,959,959,959,959,959,959,959,959,959,959,959,959,959,959,959,959,959,959,962,962,962,962,962,962,962,962,962,962,962,964,964,962,962,962,962,962,962,959,959,959,959,959,962,962,962,962,962,962,964,964,964,964,964,962,962,962,959,959,959,959,962,962,962,962,962,962,962,959,959,959,959,959,959,959,959,962,962,962,962,962,959,959,959,959,959,959,962,962,959,959,959,959,959,956,956,956,956,956,956,956,956,956,956,956,956,956,956,956,956,956,956,959,956,956,954,954,954,954,954,956,956,956,956,956,956,956,956,956,959,959,959,959,956,956,956,956,956,956,956,956,956,956,956,956,956,956,954,954,954,954,954,954,954,954,954,954,954,954,951,951,951,951,954,954,954,951,951,951,951,951,951,951,951,951,951,951,951,951,954,954,956,956,956,956,954,954,954,954,954,954,954,954,954,954,954,954,954,956,956,956,954,954,954,954,954,954,954,954,954,954,954,951,951,948,948,948,951,951,951,951,951,954,951,951,951,954,954,956,956,956,956,956,956,956,956,954,954,956,956,956,956,956,956,956,956,954,954,954,954,954,954,951,951,951,954,954,954,954,954,954,954,954,954,951,948,946,943,943,946,943,940,940,940,940,943,946,946,946,946,948,948,951,951,948,946,946,946,946,946,946,946,946,943,943,946,946,0,0,0,0,0,0,0,0,0,0,0,0,0,0,0,0,0,0,0,0,0,0,0,0,0,0,0,0,0,0,0,0,0,0,0,0
0,0,978,978,978,978,978,978,975,975,975,973,973,973,973,973,970,967,967,967,967,967,967,967,967,967,967,967,964,964,964,964,964,964,964,962,962,956,956,956,956,956,959,959,959,962,959,959,962,962,962,962,962,959,959,962,962,962,959,959,959,959,959,959,959,959,959,959,959,959,959,959,956,956,956,956,956,959,959,959,959,959,956,956,959,959,959,959,959,959,959,959,959,959,959,962,962,962,962,962,962,959,959,959,959,959,959,959,959,959,962,962,962,962,962,962,962,962,962,959,959,959,959,962,962,962,962,962,962,962,962,962,962,962,962,962,959,959,959,959,959,959,959,959,959,959,959,962,962,962,959,959,959,959,959,959,956,956,959,959,959,962,962,962,962,962,959,959,959,959,959,959,962,962,962,962,962,962,959,959,959,959,959,959,959,959,959,959,959,959,959,956,956,956,956,959,959,959,959,959,959,959,959,959,959,959,959,959,959,959,959,956,956,956,959,959,959,959,956,956,959,956,956,956,956,956,956,956,956,956,956,956,959,959,959,959,959,959,956,956,956,956,956,796,796,794,794,792,792,790,789,787,785,783,781,781,780,778,774,774,774,776,776,778,778,780,783,787,787,789,790,794,794,794,796,796,956,956,956,956,956,956,956,956,959,959,959,959,956,956,956,956,956,956,956,956,956,956,956,956,956,959,959,959,959,959,956,956,959,959,956,956,956,956,956,959,959,959,959,959,959,959,959,956,956,956,956,956,956,959,959,959,959,956,956,959,959,959,959,959,959,959,959,959,959,959,956,956,956,956,959,959,959,959,959,959,959,956,956,954,954,956,956,959,956,956,956,956,956,959,959,959,959,959,959,959,959,959,956,956,956,956,956,959,959,959,959,959,959,956,956,956,956,956,956,959,956,956,956,956,956,956,956,956,956,954,954,956,956,956,956,954,954,956,956,956,956,956,956,956,956,954,951,951,951,951,951,954,954,954,954,954,954,954,954,954,954,954,954,956,956,956,954,954,954,954,954,956,956,956,956,954,954,954,954,951,951,954,954,954,951,951,954,954,951,951,948,948,948,948,951,951,951,951,951,951,951,951,951,951,951,951,951,951,951,951,951,951,951,954,951,951,951,951,948,948,951,951,951,951,951,951,951,954,954,954,954,954,951,951,951,951,951,951,951,951,951,951,951,948,948,948,948,948,948,948,948,948,948,951,948,948,948,951,951,951,951,951,954,954,951,951,951,951,951,954,954,954,954,954,956,954,954,954,954,954,951,951,951,951,951,951,951,951,951,951,951,951,948,948,948,948,946,946,943,943,946,943,940,940,940,940,940,943,943,946,946,946,948,948,946,946,946,946,946,946,946,946,946,946,943,943,943,943,0,0,0,0,0,0,0,0,0,0,0,0,0,0,0,0,0,0,0,0,0,0,0,0,0,0,0,0,0,0,0,0,0,0,0,0
0,0,975,975,978,978,978,975,975,973,973,970,970,970,970,970,967,967,964,964,964,964,964,964,964,967,964,964,964,964,964,964,964,964,962,959,956,956,956,956,956,956,956,956,959,959,959,959,959,959,956,956,959,956,956,956,956,959,959,959,959,959,956,956,956,956,956,956,956,956,956,956,956,956,956,956,956,956,956,956,956,956,956,956,956,959,959,956,956,956,956,956,956,956,956,956,959,959,959,959,959,956,956,956,956,956,956,956,956,959,959,959,959,959,959,959,959,959,959,956,956,956,956,959,959,959,959,959,959,959,956,956,959,962,962,959,959,959,959,956,956,956,956,956,956,959,959,959,959,956,956,956,956,956,956,956,956,956,956,959,959,959,959,962,959,959,959,959,959,956,956,959,959,959,959,959,959,959,959,959,959,956,956,956,956,956,956,956,956,956,956,956,956,956,956,956,956,956,956,956,956,956,956,956,956,956,956,956,956,956,956,956,956,956,956,956,956,956,956,956,956,956,956,956,956,956,956,956,956,956,956,956,956,956,956,956,956,956,956,956,954,954,954,796,796,794,794,792,792,790,789,787,787,785,783,781,780,778,776,776,776,776,778,778,778,780,785,787,787,790,792,794,796,796,798,798,951,951,951,951,954,954,954,954,954,956,956,954,954,954,954,954,954,954,954,954,956,954,954,954,954,956,956,956,956,956,954,954,956,956,956,956,956,956,956,956,956,956,956,956,956,956,956,956,956,956,956,956,954,954,954,954,956,956,956,956,956,956,956,956,956,956,956,956,954,954,954,954,956,956,956,956,956,956,956,954,954,954,954,951,951,954,954,956,954,954,954,954,954,954,956,956,956,956,956,956,956,956,956,956,956,956,956,956,956,956,956,956,956,956,956,956,956,956,956,956,956,956,956,956,954,954,954,954,954,951,951,951,954,954,954,951,951,954,954,956,954,954,954,954,954,951,951,948,948,951,951,951,951,954,951,951,954,954,951,951,954,954,954,951,951,951,951,951,951,951,951,954,954,954,954,954,951,951,951,951,951,951,951,951,951,951,951,951,951,948,948,948,948,948,948,948,948,948,948,948,948,948,948,948,948,948,948,948,951,948,948,948,948,948,948,948,948,948,948,948,948,948,948,948,948,948,948,948,948,948,948,951,951,948,948,948,948,948,948,948,948,948,948,948,946,946,946,946,946,948,948,948,948,948,948,948,948,948,948,948,948,948,948,948,948,948,951,948,948,951,951,951,954,954,954,954,954,954,951,951,951,951,951,948,948,948,948,951,951,951,948,948,948,948,948,946,946,946,943,943,943,943,943,943,938,938,938,938,938,943,946,946,946,946,946,946,943,943,946,946,946,946,946,946,943,943,940,940,0,0,0,0,0,0,0,0,0,0,0,0,0,0,0,0,0,0,0,0,0,0,0,0,0,0,0,0,0,0,0,0,0,0,0,0
0,0,975,975,975,975,975,975,975,973,973,970,967,967,967,967,967,962,962,962,962,962,962,962,962,962,962,962,962,959,959,959,959,959,956,956,956,956,956,956,956,956,956,956,956,959,956,956,956,956,956,956,954,954,954,954,954,954,954,956,956,956,956,956,956,956,954,954,956,956,956,956,956,956,956,956,956,956,956,956,956,956,954,954,956,956,956,956,956,956,956,956,954,954,954,956,956,956,956,956,956,956,954,954,954,954,954,956,956,956,956,959,959,956,956,956,956,956,956,956,956,956,956,956,956,956,956,954,954,954,954,954,956,956,956,956,956,956,956,956,956,956,956,956,956,956,956,956,956,956,956,956,956,956,956,956,956,956,956,956,956,956,956,956,956,956,954,954,954,956,956,956,956,956,959,959,956,956,956,956,956,956,954,954,954,956,956,956,956,956,956,956,956,954,954,956,956,956,956,956,956,956,954,954,954,954,954,954,956,956,956,956,956,956,956,956,956,954,954,954,954,954,954,954,954,954,954,954,954,954,954,954,954,956,954,954,954,956,954,954,954,954,954,796,796,794,794,794,792,792,789,789,787,785,783,781,780,780,778,778,778,778,778,778,778,780,787,787,790,792,794,794,796,796,798,946,946,946,948,948,951,951,954,954,954,954,951,951,951,951,951,951,951,951,954,954,954,954,954,954,954,954,954,954,954,954,954,954,954,954,951,951,954,951,951,954,954,954,951,951,951,954,954,954,954,954,954,954,954,951,951,951,951,954,954,954,954,954,954,954,954,954,951,951,951,951,951,951,951,951,954,956,954,954,954,951,951,948,948,948,948,951,951,954,954,954,954,954,954,951,951,954,954,954,954,954,954,954,954,954,954,954,954,954,954,954,954,954,954,954,956,954,954,954,954,954,954,954,954,951,951,951,951,951,951,948,948,948,948,951,951,951,951,951,951,954,954,954,954,954,951,948,948,948,948,948,948,951,951,951,951,951,951,951,948,948,951,951,951,948,948,948,948,948,948,948,948,951,951,951,951,951,951,948,948,948,948,948,948,948,948,948,948,948,948,948,946,946,946,946,946,946,946,946,946,948,946,946,946,946,946,948,948,948,948,948,948,948,948,948,946,946,946,948,946,946,946,946,948,948,948,948,948,948,948,948,948,948,948,948,948,946,946,946,946,946,946,946,946,948,946,946,946,946,946,946,946,946,948,948,948,946,946,946,946,946,946,946,946,946,946,946,948,948,948,948,948,948,948,948,951,951,951,951,951,951,948,948,948,948,946,946,946,948,948,948,948,948,946,946,946,946,946,943,943,943,943,943,940,940,938,938,938,938,938,938,938,938,938,943,943,943,943,943,943,943,943,943,943,943,943,943,940,940,0,0,0,0,0,0,0,0,0,0,0,0,0,0,0,0,0,0,0,0,0,0,0,0,0,0,0,0,0,0,0,0,0,0,0,0
0,0,975,975,975,975,975,973,973,973,973,970,967,967,967,967,964,962,962,962,962,962,962,962,962,962,959,959,959,956,956,956,956,956,956,956,956,956,956,956,956,956,954,954,956,956,956,954,954,954,954,954,954,951,951,951,951,951,954,956,956,956,954,954,954,954,954,954,954,954,954,954,954,954,954,954,954,954,954,954,954,954,954,954,954,954,954,954,954,954,954,954,954,954,954,954,954,954,956,956,956,954,954,954,954,954,954,954,954,954,954,956,956,956,956,954,954,954,954,956,954,954,954,954,954,954,954,951,951,951,951,954,954,954,954,954,954,954,954,954,954,954,954,954,954,954,954,954,954,954,954,954,954,954,954,956,954,954,956,956,954,954,954,954,954,954,954,954,954,954,954,954,954,954,956,956,956,956,956,956,954,954,954,951,951,954,954,954,954,954,954,954,954,954,954,954,954,954,954,954,954,954,954,954,954,954,954,954,954,954,954,954,954,954,954,954,954,954,954,951,951,954,954,954,954,954,954,954,954,954,954,954,954,954,954,954,954,954,954,951,951,951,951,796,796,796,796,794,794,794,790,789,787,785,783,781,780,780,780,778,778,778,780,778,778,783,787,787,792,794,794,796,796,798,798,946,946,946,948,948,951,951,951,951,951,951,948,948,948,948,948,948,948,951,951,951,954,951,951,951,951,951,951,951,951,951,951,951,954,954,951,951,951,951,951,951,951,951,948,948,948,948,951,951,951,951,951,951,951,948,948,948,948,948,948,948,951,951,951,951,951,951,951,951,951,951,951,951,951,951,951,951,951,951,951,948,948,948,948,948,948,948,951,951,951,951,951,951,948,948,948,951,951,951,951,951,951,951,951,951,951,951,951,951,951,951,948,948,948,948,948,948,951,948,948,951,951,951,951,951,948,948,948,948,948,948,948,948,948,948,948,948,948,951,951,951,951,951,951,948,948,946,946,946,948,946,946,948,948,948,948,948,948,948,948,948,948,948,948,946,946,946,946,946,948,948,948,948,951,951,948,948,948,948,948,946,946,946,948,948,948,948,948,948,948,946,946,946,946,946,946,946,946,943,943,946,946,946,943,943,946,946,948,948,946,946,946,946,946,946,946,946,946,946,943,943,946,946,946,946,946,946,946,948,946,946,946,946,948,946,946,946,946,946,946,946,946,946,946,946,946,946,943,943,946,946,946,946,946,946,946,946,946,946,946,946,946,946,946,946,946,946,946,946,946,948,946,946,946,948,948,948,948,948,948,948,946,946,946,946,946,946,946,948,948,948,946,946,946,946,946,943,943,943,943,943,943,940,938,938,938,938,938,935,935,935,935,935,935,935,940,940,940,940,943,943,943,943,943,943,940,940,940,940,0,0,0,0,0,0,0,0,0,0,0,0,0,0,0,0,0,0,0,0,0,0,0,0,0,0,0,0,0,0,0,0,0,0,0,0
0,0,973,973,973,973,973,970,970,970,970,967,964,964,964,964,962,959,959,959,959,959,959,959,959,959,956,956,956,956,956,956,954,954,954,956,956,956,956,956,956,954,954,951,951,951,954,951,951,951,951,951,951,948,948,948,948,951,954,954,954,954,954,954,954,954,954,951,951,954,954,954,954,954,954,954,954,951,951,951,951,951,951,951,948,948,951,951,951,951,951,951,951,951,951,951,951,951,954,954,954,954,954,951,951,951,951,951,951,951,951,954,954,954,954,954,954,954,954,954,954,954,954,954,954,954,951,951,951,951,951,951,951,951,951,951,951,951,951,951,951,951,951,951,954,954,954,954,954,954,954,954,954,954,954,954,954,954,954,954,954,954,954,954,954,954,951,951,951,951,951,948,948,951,954,954,954,954,954,954,954,951,951,951,951,951,951,951,951,951,954,954,951,951,951,951,951,951,951,951,951,954,954,954,951,951,954,951,951,951,954,951,951,951,951,954,954,951,951,951,951,951,951,951,951,951,951,951,951,951,951,948,948,948,948,951,951,951,951,951,951,951,948,796,796,796,796,794,794,794,790,789,787,785,783,783,781,780,780,780,780,780,780,780,780,783,789,789,792,794,796,796,796,798,798,946,946,946,946,948,948,951,948,948,948,948,948,946,946,946,946,946,948,948,948,948,948,948,948,948,948,948,948,948,948,948,948,948,951,951,948,948,951,948,948,948,948,948,948,948,948,948,948,948,948,948,948,948,948,948,948,948,946,946,948,948,948,948,948,948,948,948,948,948,948,948,948,948,948,948,951,951,951,951,948,948,948,948,948,948,948,948,948,948,948,948,948,948,948,948,948,948,948,948,948,948,948,948,948,948,948,948,948,948,948,948,946,946,946,946,948,946,946,946,946,948,948,948,948,948,948,948,948,948,946,946,946,946,948,948,948,948,948,948,948,948,948,948,948,946,946,946,946,946,946,946,946,946,946,946,946,948,948,948,946,946,946,946,946,946,946,946,946,946,946,946,946,948,948,948,948,948,948,948,948,946,946,946,946,946,946,946,946,946,946,946,946,946,943,943,943,943,943,943,943,943,943,943,940,940,943,943,946,946,946,946,943,943,943,943,943,943,943,943,943,943,943,943,946,946,946,946,946,946,946,946,943,943,946,946,946,943,943,946,946,946,943,943,943,946,946,943,943,943,943,943,943,943,946,946,946,946,946,946,946,943,943,943,943,943,943,943,943,943,943,943,946,946,946,946,946,946,946,946,946,946,946,946,946,946,943,943,943,943,943,946,946,943,943,940,940,943,940,940,940,940,940,940,938,938,938,938,935,935,935,935,933,930,930,930,930,935,940,940,943,943,940,940,940,940,938,938,938,938,0,0,0,0,0,0,0,0,0,0,0,0,0,0,0,0,0,0,0,0,0,0,0,0,0,0,0,0,0,0,0,0,0,0,0,0
0,0,973,973,970,970,970,967,967,967,967,964,962,962,962,962,962,959,959,956,956,956,956,956,956,956,954,954,954,951,951,951,951,951,951,951,951,951,954,954,954,954,951,948,948,948,948,946,946,948,948,951,948,946,946,946,946,948,951,951,951,951,951,951,948,948,948,948,948,948,948,951,948,948,951,951,951,948,948,948,948,948,948,948,946,946,948,948,948,948,948,948,948,948,948,948,948,948,951,951,951,951,951,951,951,948,948,948,948,948,948,948,948,951,951,951,951,951,951,954,954,951,951,951,951,951,948,948,948,948,948,948,948,948,948,948,948,948,948,948,948,948,948,948,948,948,951,951,951,951,951,951,951,951,951,954,954,954,954,954,954,951,951,951,951,951,948,948,948,948,948,948,948,948,951,951,951,951,951,951,951,951,948,948,948,948,948,948,948,948,951,951,951,948,948,948,948,948,946,946,951,951,951,951,951,951,951,951,948,948,951,951,948,948,948,948,948,948,948,948,948,948,948,948,948,948,948,948,951,948,948,946,946,946,946,948,948,948,948,948,948,948,948,796,796,796,796,796,794,794,792,790,789,787,785,783,781,781,780,780,780,780,780,780,780,783,789,789,792,796,796,796,798,798,802,802,946,946,946,946,946,946,948,946,946,946,946,946,943,943,943,943,946,946,946,946,946,946,946,946,946,946,946,948,948,948,946,946,948,948,948,948,948,948,948,948,946,946,948,946,946,946,946,946,946,946,946,946,946,946,946,946,946,946,946,946,946,946,946,946,946,948,948,948,948,948,948,948,948,948,948,948,948,948,948,948,948,946,946,946,946,948,948,948,948,948,948,948,948,948,948,948,948,948,948,948,948,948,948,948,948,946,946,948,946,946,946,946,946,946,946,946,943,943,946,946,946,946,946,946,946,946,946,946,946,946,946,946,946,946,946,946,946,946,946,948,946,946,946,946,946,946,943,943,943,943,943,943,943,943,943,946,943,943,943,943,940,940,940,940,943,943,943,943,943,943,943,943,943,943,946,946,946,946,946,946,943,943,943,943,943,943,946,946,946,946,943,943,943,940,940,940,940,940,940,940,940,940,940,940,940,943,943,943,943,943,943,943,940,940,940,940,940,940,940,940,940,940,943,943,946,943,943,943,943,943,943,943,943,943,943,943,943,943,943,943,943,943,943,943,943,943,943,943,943,943,943,943,943,946,946,946,943,943,943,943,943,940,940,940,940,940,940,940,940,943,943,943,943,943,943,943,946,946,946,946,946,946,946,946,943,940,940,940,940,940,940,938,938,938,938,940,940,940,940,940,940,938,938,938,938,935,935,933,930,930,930,930,930,928,928,935,935,935,940,940,938,938,938,938,935,935,935,935,0,0,0,0,0,0,0,0,0,0,0,0,0,0,0,0,0,0,0,0,0,0,0,0,0,0,0,0,0,0,0,0,0,0,0,0
0,0,967,967,967,967,967,964,964,964,964,962,962,962,959,959,959,956,956,956,956,956,956,954,954,954,951,948,948,948,948,948,948,948,948,948,948,951,954,954,954,954,951,948,946,946,946,946,946,946,946,946,946,946,946,946,946,946,946,946,948,948,948,948,946,946,946,946,943,943,948,948,946,946,948,948,948,946,946,946,946,946,946,946,946,946,946,946,946,946,946,946,946,946,946,946,946,946,948,948,948,951,951,948,948,946,946,946,946,946,946,946,946,948,948,948,948,948,948,951,951,951,948,948,948,948,948,948,948,948,948,948,946,946,946,948,946,946,946,946,948,948,946,946,946,948,948,948,946,946,951,948,948,948,948,951,951,951,951,951,951,948,946,946,946,946,946,946,948,948,948,946,946,946,948,948,948,948,948,948,948,948,948,948,946,946,946,948,948,948,948,948,948,946,946,946,946,946,946,946,946,946,946,948,948,948,948,948,946,946,948,946,946,946,946,946,946,946,943,943,946,946,946,946,946,946,946,946,946,946,946,946,946,946,946,946,946,946,946,946,946,946,946,796,796,796,796,796,794,794,792,790,789,789,787,785,783,781,781,781,780,780,781,781,783,785,789,790,792,796,796,796,798,800,803,803,943,943,943,943,946,946,946,943,943,946,946,943,943,943,943,943,943,943,943,943,943,943,946,946,943,943,946,946,946,946,946,946,948,946,946,946,946,946,946,946,946,946,946,946,946,946,946,943,943,943,943,943,943,943,943,943,943,943,943,943,946,946,946,946,946,943,943,943,943,946,946,946,946,946,946,946,946,946,948,948,948,946,946,946,946,946,946,946,946,946,946,946,946,946,946,946,946,946,946,946,946,946,946,946,946,946,946,946,946,943,943,943,943,940,940,940,943,943,943,943,943,943,943,943,946,943,943,943,943,943,943,943,943,943,943,943,946,946,946,946,943,943,943,943,943,943,943,940,940,943,940,940,943,943,943,943,940,940,940,938,938,938,938,938,940,943,943,943,943,943,940,940,940,938,938,938,943,943,943,943,940,940,940,940,940,940,943,943,943,943,940,940,940,940,940,938,938,938,938,938,938,938,938,938,938,940,940,940,940,940,940,940,940,938,938,938,938,938,938,938,938,940,940,940,943,943,943,943,940,940,940,940,943,943,943,943,943,943,943,943,940,940,940,943,943,943,940,940,940,940,940,940,940,940,940,943,943,940,940,940,940,940,940,938,938,940,938,938,938,940,940,940,940,943,940,940,943,943,943,943,943,940,940,943,940,940,938,938,938,938,938,938,938,938,938,938,940,940,940,940,940,938,938,938,935,935,930,930,930,930,930,930,928,928,928,933,933,933,933,938,935,935,933,933,935,935,935,935,0,0,0,0,0,0,0,0,0,0,0,0,0,0,0,0,0,0,0,0,0,0,0,0,0,0,0,0,0,0,0,0,0,0,0,0
0,0,967,967,964,964,962,962,962,962,962,959,959,956,956,956,956,956,956,956,956,954,954,954,954,954,946,946,948,946,946,946,946,946,946,946,946,946,946,946,951,951,948,946,946,943,943,943,943,943,943,943,946,943,943,946,946,946,946,946,946,946,946,946,946,946,943,943,943,943,943,943,943,943,946,946,946,943,943,943,943,943,943,943,943,943,943,946,946,943,943,946,946,946,946,946,946,946,946,946,946,948,948,948,948,946,946,946,946,946,943,943,943,946,946,946,946,946,946,948,948,948,946,946,946,946,946,946,946,946,946,946,946,946,946,946,946,946,946,946,946,946,943,943,943,946,946,946,943,943,943,943,943,943,946,946,948,948,946,946,946,946,946,946,946,946,946,946,946,946,946,946,946,946,946,946,946,946,946,946,946,946,946,946,946,946,946,946,946,946,946,946,946,946,946,946,943,943,943,943,943,943,943,943,946,946,946,946,946,946,946,946,943,943,943,943,943,943,943,943,943,943,943,943,943,946,946,946,946,946,946,943,943,943,943,943,946,946,943,943,946,946,946,796,796,796,796,796,796,794,794,792,790,789,787,785,783,781,781,781,780,780,781,781,785,789,789,792,794,796,796,798,798,800,803,803,943,943,943,943,943,943,943,943,940,940,940,940,940,940,940,940,940,940,940,940,940,940,943,943,943,943,943,946,946,946,946,946,946,946,946,946,946,946,946,946,946,943,943,943,943,940,940,940,940,940,940,940,940,940,943,943,940,940,943,943,943,943,943,943,943,940,940,940,940,940,943,943,943,943,946,946,946,946,946,946,946,946,946,946,946,946,946,946,946,946,946,943,943,943,943,943,943,943,943,943,943,943,943,943,943,943,943,943,943,943,940,940,940,938,938,938,940,940,940,940,940,940,943,940,940,940,943,943,940,940,940,943,943,943,943,943,943,940,940,940,940,940,940,938,938,940,940,940,940,940,940,940,940,940,940,940,938,938,938,938,938,938,938,938,938,940,940,940,940,940,940,940,938,938,938,938,938,938,938,940,938,938,938,938,938,938,938,938,938,938,940,938,938,938,938,938,938,938,938,938,938,938,938,938,938,940,938,938,938,938,938,938,938,938,938,938,938,938,938,938,938,938,938,938,938,938,938,940,940,940,940,940,940,940,940,940,940,940,940,940,940,940,940,940,940,940,940,938,938,938,938,938,938,938,938,940,940,940,940,938,938,938,938,938,938,938,938,938,938,938,938,938,938,938,938,938,940,940,940,940,940,940,940,940,938,938,938,938,938,938,935,935,935,935,935,935,938,938,938,938,938,938,935,935,935,935,930,930,928,928,928,928,928,928,930,930,928,925,923,923,923,928,928,928,930,933,933,935,0,0,0,0,0,0,0,0,0,0,0,0,0,0,0,0,0,0,0,0,0,0,0,0,0,0,0,0,0,0,0,0,0,0,0,0
