0,0,0,0,0,0,0,0,0,0,0,1572,1572,1572,1572,1572,0,0,0,0,0,0,0,875,875,878,878,875,873,871,869,867,867,864,864,864,867,867,867,867,869,871,873,875,878,880,880,880,882,882,882,882,885,0,0,0,0,0,0,1550,1550,1564,1572,1594,1594,1594,1594,1594,1594,796,796,794,794,792,792,789,787,785,783,781,781,780,780,780,776,774,774,773,771,771,767,766,766,764,762,761,759,759,755,750,749,747,746,746,742,741,741,739,738,736,734,733,731,730,728,727,723,723,722,719,719,717,716,714,714,714,713,713,711,710,708,707,671,670,668,667,666,666,664,664,663,662,661,661,659,658,657,655,654,654,653,652,652,650,650,649,649,648,647,644,644,642,642,641,641,641,641,641,641,641,641,642,643,643,643,644,646,646,644,644,644,644,644,643,643,646,644,642,642,643,644,644,644,644,646,646,647,647,649,649,650,650,652,653,655,659,659,661,663,666,666,667,668,671,672,672,674,682,691,697,701,703,704,704,706,707,708,711,713,714,716,717,722,725,727,728,730,731,734,736,738,741,742,744,746,747,749,752,754,757,761,762,764,766,769,771,774,776,780,780,781,781,783,785,789,792,794,796,796,800,0,0,0,0,0,0,0,0,1609,1609,1616,1616,1616,1616,1616,1616,1616,1616,1616,1616,1616,1616,1616,1616,1609,1609,1616,1616,1616,1616,1616,1616,1616,1609,1609,1609,1609,1601,1601,1601,1601,1594,1594,1594,998,998,995,992,992,989,989,989,989,987,987,984,981,981,978,978,978,978,981,981,981,984,987,989,992,995,998,1001,1001,1001,0,0,0,1609,1601,1601,1601,1594,1594,1594,1586,1586,1579,1579,1579,1579,1579,1572,1572,1572,1572,1564,1557,1557,1557,1557,1557,1550,1550,1550,1550,1550,1543,1543,1543,1536,1536,1536,1536,1529,1529,1529,1523,1523,1523,1516,1516,1516,1516,1516,1516,1509,1509,1503,1503,1503,1496,1496,1496,1489,1489,1489,1489,1489,1483,1483,1483,1483,1477,1477,1477,1470,1470,1470,1470,1470,1464,1464,1464,1458,1458,1458,1458,1452,1452,1445,1445,1445,1445,1439,1439,1439,1439,1439,1439,1433,1433,1433,1427,1427,1421,1421,1421,1421,1415,1415,1415,1410,1410,1410,1410,1410,1404,1404,1398,1398,1398,1398,1398,1392,1392,1392,1392,1392,1392,1387,1381,1381,1381,1376,1376,1376,1376,1370,1370,1370,1370,1370,1365,1359,1359,1354,1354,1354,1349,1349,1349,1349,1349,1343,1343,1343,1343,1338,1338,1333,1333,1333,1328,1328,1328,1328,1328,1322,1322,1317,1317,1317,1317,1312,1312,1307,1307,1307,1307,1302,1302,1302,1297,1297,1297,1292,1292,1292,1292,1288,1288,1288,1288,1288,1288,1283,1283,1278,1278,1273,1273,1268,1268,1268,1268,1268,1264,1264,1259,1259,1259,1255,1255,1255,1250,1250,1250,1250,1250,1245,1245,1245,1245,1241,1241,1241,1245,1250,1255,1255,1101,1094,1094,1090,1090,1090,1090,1090,1090,1090,1090,1090,1090,1087,1084,1084,1080,1080,1077,1077,1073,1073,1070,1070,1070,1067,1067,1067,1067,1067,1070,1070,1087,1087,1090,1090,1090,1090,0,0,0,0,0,0,0,0,0,0,0,0,0,0,0,0,0,0,0,0,0,0,0,0,0,0,0,0,0,0,0,0
0,0,0,0,0,0,0,0,0,0,0,1572,1572,1564,1564,1572,1572,0,0,0,0,0,0,875,875,878,878,875,875,873,871,869,869,867,867,867,867,867,867,869,869,871,873,875,878,880,880,880,882,882,882,885,885,0,0,0,0,0,0,1564,1564,1572,1572,1594,1594,1594,1594,1594,1594,1586,796,796,792,792,792,789,787,787,783,781,781,780,780,780,776,774,774,773,771,771,767,766,766,764,762,761,761,759,757,752,750,747,747,746,746,744,741,739,738,736,734,733,733,731,730,727,725,723,722,720,719,717,716,714,714,714,713,713,711,710,708,707,706,670,668,667,666,664,664,663,663,661,661,659,658,658,657,655,654,653,652,652,652,650,650,649,648,647,646,644,642,642,641,641,641,640,640,638,638,638,638,638,641,641,641,642,642,644,644,644,644,644,642,641,641,640,640,638,638,641,642,642,643,643,644,646,646,647,648,649,650,650,652,653,657,658,659,662,664,664,666,666,666,674,674,676,691,693,694,698,700,703,704,706,706,707,708,711,713,714,716,719,722,725,728,730,730,731,734,736,739,741,742,744,746,747,749,752,757,759,762,764,764,766,769,771,774,778,780,780,781,781,783,785,789,792,794,796,796,0,0,0,0,0,0,1601,1601,1601,1609,1609,1609,1609,1609,1609,1609,1609,1609,1609,1609,1609,1609,1609,1609,1609,1609,1609,1609,1609,1609,1609,1609,1609,1609,1609,1609,1601,1601,1601,1601,1594,1594,1586,1586,1586,998,998,995,992,992,992,992,989,989,987,987,987,984,981,981,981,981,981,981,981,981,984,987,989,992,995,998,1001,1001,1004,0,0,0,1609,1601,1601,1594,1594,1594,1594,1586,1586,1579,1579,1579,1579,1579,1572,1572,1572,1572,1564,1564,1564,1564,1557,1557,1557,1550,1550,1550,1550,1543,1543,1543,1543,1536,1536,1536,1529,1529,1529,1523,1523,1523,1516,1516,1516,1516,1516,1516,1516,1509,1509,1503,1503,1496,1496,1496,1489,1489,1489,1489,1489,1489,1489,1483,1483,1483,1477,1477,1470,1470,1470,1470,1470,1464,1464,1464,1464,1458,1458,1458,1458,1458,1452,1452,1445,1445,1439,1439,1439,1439,1439,1439,1433,1433,1433,1433,1427,1421,1421,1421,1421,1415,1415,1415,1415,1410,1410,1410,1410,1410,1404,1404,1398,1398,1398,1398,1392,1392,1392,1392,1392,1392,1387,1381,1381,1381,1376,1376,1376,1376,1370,1370,1370,1370,1370,1365,1359,1359,1354,1354,1354,1349,1349,1349,1349,1349,1349,1343,1343,1343,1343,1338,1333,1333,1333,1333,1328,1328,1328,1328,1322,1322,1322,1322,1317,1317,1317,1312,1312,1307,1307,1307,1302,1302,1302,1297,1297,1297,1292,1292,1292,1292,1288,1288,1288,1288,1288,1288,1283,1283,1278,1278,1273,1273,1268,1268,1268,1268,1268,1264,1264,1259,1259,1259,1255,1255,1255,1250,1250,1250,1250,1250,1245,1245,1245,1245,1245,1245,1245,1245,1250,1255,1264,1101,1101,1094,1090,1090,1090,1090,1090,1090,1090,1090,1090,1090,1087,1084,1080,1080,1077,1077,1073,1073,1073,1070,1070,1070,1067,1067,1067,1067,1070,1080,1090,1090,1090,1090,1090,1090,1090,0,0,0,0,0,0,0,0,0,0,0,0,0,0,0,0,0,0,0,0,0,0,0,0,0,0,0,0,0,0,0,0
0,0,0,0,0,0,0,0,0,0,0,1564,1564,1564,1564,1564,1564,1564,0,0,0,0,0,878,878,878,878,875,875,873,871,869,869,867,867,867,867,867,869,869,871,871,875,875,878,878,880,880,882,882,882,885,885,0,0,0,0,0,0,0,1572,1572,1586,1594,1594,1594,1586,1586,1586,1579,1572,1572,790,789,789,787,785,785,785,783,781,780,780,778,776,774,774,773,771,771,767,766,766,764,762,761,761,759,757,754,750,749,749,746,746,744,744,741,739,738,734,733,733,731,730,728,727,725,723,722,719,717,716,714,714,714,714,713,711,710,708,707,706,704,704,704,666,663,663,663,661,661,661,659,658,658,657,655,654,653,652,652,650,650,650,649,648,646,644,642,641,641,641,641,640,640,638,638,637,637,637,636,636,636,636,638,635,632,632,632,632,635,635,634,634,635,637,637,637,640,641,641,642,642,643,644,646,647,648,650,650,650,652,653,658,658,661,662,664,664,666,666,666,690,690,691,691,694,696,698,700,703,704,706,706,708,711,713,714,716,716,719,723,727,728,730,730,731,736,738,739,741,744,746,746,747,749,754,757,761,764,764,766,767,769,771,774,778,780,780,781,781,783,783,787,792,0,0,0,0,0,0,0,0,1601,1601,1601,1601,1601,1601,1609,1609,1609,1601,1601,1601,1609,1609,1609,1601,1601,1601,1601,1601,1601,1601,1601,1601,1601,1601,1601,1601,1601,1601,1601,1601,1601,1601,1594,1594,1579,1579,1586,1586,998,998,998,995,992,992,992,992,989,989,989,989,987,981,981,981,981,981,981,981,984,984,989,992,995,998,998,1001,1004,1004,0,0,0,1601,1601,1601,1594,1594,1594,1594,1586,1579,1579,1579,1579,1579,1579,1572,1572,1572,1572,1572,1564,1564,1564,1564,1564,1557,1557,1550,1550,1550,1550,1543,1543,1543,1543,1536,1536,1529,1529,1529,1523,1523,1523,1516,1516,1516,1516,1516,1516,1516,1509,1509,1509,1503,1496,1496,1496,1489,1489,1489,1489,1489,1489,1489,1489,1483,1483,1483,1477,1477,1470,1470,1470,1470,1470,1470,1464,1464,1458,1458,1458,1458,1458,1452,1452,1445,1445,1445,1439,1439,1439,1439,1439,1439,1433,1433,1433,1427,1421,1421,1421,1421,1415,1415,1415,1415,1410,1410,1410,1410,1410,1404,1404,1398,1398,1398,1398,1398,1392,1392,1392,1392,1392,1387,1381,1381,1381,1376,1376,1376,1376,1370,1370,1370,1370,1370,1365,1359,1359,1354,1354,1354,1354,1349,1349,1349,1349,1349,1349,1343,1343,1343,1338,1338,1333,1333,1333,1328,1328,1328,1328,1328,1322,1322,1322,1317,1317,1317,1312,1312,1312,1307,1307,1302,1302,1302,1297,1297,1297,1292,1292,1292,1292,1288,1288,1288,1288,1288,1288,1283,1283,1283,1278,1278,1273,1273,1268,1268,1268,1268,1264,1264,1259,1259,1259,1255,1255,1255,1250,1250,1250,1250,1250,1245,1245,1245,1245,1250,1250,1250,1250,1255,1255,1264,1097,1097,1094,1090,1090,1090,1090,1090,1090,1090,1087,1087,1087,1084,1080,1080,1077,1077,1077,1073,1073,1073,1070,1070,1070,1070,1070,1070,1070,1077,1087,1090,1090,1090,1090,1090,1090,1090,0,0,0,0,0,0,0,0,0,0,0,0,0,0,0,0,0,0,0,0,0,0,0,0,0,0,0,0,0,0,0,0
0,0,0,0,0,0,0,0,0,0,0,1564,1564,1557,1557,1557,1557,1557,0,0,0,0,0,878,878,878,878,878,875,873,871,869,869,869,869,869,869,869,869,871,871,873,875,878,878,878,880,880,882,882,882,885,885,0,0,0,0,0,0,0,1586,1586,1586,1586,1586,1586,1586,1586,1579,1579,1572,1572,790,789,789,787,785,785,785,783,781,780,780,778,776,774,774,773,771,769,767,767,766,764,762,761,761,759,757,755,754,750,749,747,747,746,744,744,741,741,738,734,734,733,731,730,727,727,725,722,719,719,716,716,716,714,714,713,711,710,708,707,706,704,704,703,703,663,663,663,661,661,659,659,658,658,657,655,654,652,652,652,650,650,650,648,648,646,644,642,641,641,641,640,640,638,638,637,637,636,636,635,635,634,634,632,631,631,631,631,631,632,632,632,632,634,635,636,636,640,640,641,641,642,643,644,646,646,648,650,650,652,652,654,658,658,661,662,664,664,666,666,684,688,690,691,693,694,696,698,700,701,704,706,707,708,713,714,714,716,717,719,723,727,730,731,731,733,736,738,741,742,744,746,746,747,750,755,759,761,764,764,766,767,769,771,774,778,780,780,781,781,783,783,787,0,0,0,0,0,0,1601,1601,1601,1601,1601,1594,1594,1601,1601,1601,1601,1601,1601,1601,1601,1601,1601,1601,1601,1601,1601,1601,1594,1594,1594,1594,1594,1594,1594,1594,1594,1594,1594,1594,1594,1594,1594,1594,1586,1579,1572,1572,1572,0,998,998,995,995,992,992,992,992,989,989,989,987,984,981,981,981,981,981,981,984,987,989,992,995,998,1001,1001,1004,1004,0,0,0,1601,1594,1594,1594,1586,1586,1586,1586,1579,1579,1579,1579,1579,1579,1579,1572,1572,1572,1572,1564,1564,1564,1564,1564,1557,1557,1557,1557,1550,1543,1543,1543,1543,1543,1543,1536,1536,1536,1529,1523,1523,1523,1523,1516,1516,1516,1516,1516,1516,1516,1509,1509,1503,1496,1496,1496,1496,1489,1489,1489,1489,1489,1489,1489,1483,1483,1483,1477,1477,1470,1470,1470,1470,1470,1464,1464,1464,1464,1464,1464,1464,1458,1458,1452,1452,1445,1445,1445,1439,1439,1439,1439,1439,1439,1433,1433,1427,1427,1421,1421,1421,1415,1415,1415,1415,1415,1410,1410,1410,1410,1404,1404,1398,1398,1398,1398,1398,1398,1392,1392,1392,1392,1387,1387,1381,1381,1376,1376,1376,1376,1370,1370,1370,1370,1370,1365,1365,1359,1359,1354,1354,1354,1349,1349,1349,1349,1349,1349,1349,1349,1343,1338,1338,1333,1333,1333,1328,1328,1328,1328,1328,1328,1322,1322,1322,1317,1312,1312,1312,1312,1307,1307,1307,1302,1302,1302,1302,1302,1297,1297,1297,1292,1292,1288,1288,1288,1288,1288,1288,1283,1283,1278,1278,1273,1273,1268,1268,1268,1268,1264,1264,1259,1259,1259,1255,1255,1255,1250,1250,1250,1250,1250,1245,1245,1245,1245,1250,1250,1250,1255,1259,1259,1268,1094,1094,1094,1090,1090,1094,1090,1090,1090,1090,1087,1087,1087,1084,1080,1080,1077,1073,1073,1073,1073,1073,1070,1070,1073,1073,1073,1084,1084,1087,1090,1094,1094,1094,1090,1090,1090,1090,0,0,0,0,0,0,0,0,0,0,0,0,0,0,0,0,0,0,0,0,0,0,0,0,0,0,0,0,0,0,0,0
0,0,0,0,0,0,0,0,0,0,0,1557,1557,1557,1550,1550,1557,1557,1564,0,0,0,0,878,878,878,878,878,875,875,873,871,869,869,871,869,869,871,871,871,873,875,875,878,878,880,880,882,882,882,885,885,887,0,0,0,0,0,0,0,0,1579,1579,1586,1579,1579,1579,1579,1579,1579,1572,1572,1572,1572,1572,1572,1564,1564,1572,1572,1572,780,780,780,778,776,774,774,773,769,767,767,766,764,764,762,761,759,757,755,754,752,752,749,747,747,747,746,742,741,741,734,734,733,731,731,728,728,728,727,719,719,717,716,716,714,714,713,711,710,710,708,706,704,704,703,703,701,698,698,661,659,659,658,658,658,657,655,655,652,652,652,650,650,650,648,648,646,644,642,641,641,641,640,640,638,637,637,636,636,635,635,635,632,632,631,631,631,630,630,630,631,631,632,632,632,634,635,636,638,640,640,641,642,643,644,646,646,648,650,650,652,653,657,659,659,661,662,664,666,666,666,684,688,690,691,693,694,696,698,700,701,704,706,707,710,713,714,716,717,717,720,722,727,731,731,733,734,736,739,742,744,746,747,747,749,750,755,759,761,764,764,766,767,769,771,774,776,778,780,781,781,781,0,0,0,0,0,0,0,0,1594,1594,1594,1594,1586,1586,1594,1594,1594,1594,1594,1594,1594,1594,1594,1594,1601,1601,1594,1594,1594,1594,1594,1594,1594,1594,1594,1594,1594,1594,1594,1594,1594,1594,1594,1586,1586,1586,1579,1572,1572,1572,1572,1564,1001,1001,998,995,995,992,992,992,989,989,989,987,984,981,981,981,981,981,984,984,987,989,992,995,998,1001,1004,1004,1004,0,0,0,1601,1594,1594,1594,1586,1586,1586,1579,1579,1579,1579,1572,1572,1579,1579,1572,1572,1572,1572,1564,1564,1564,1564,1564,1557,1557,1557,1557,1550,1543,1543,1543,1543,1543,1543,1543,1536,1536,1529,1529,1523,1523,1523,1516,1516,1516,1516,1516,1516,1516,1516,1509,1509,1503,1496,1496,1496,1496,1489,1489,1489,1489,1489,1489,1489,1483,1483,1477,1477,1470,1470,1470,1470,1470,1464,1464,1464,1464,1464,1464,1464,1458,1458,1458,1452,1445,1445,1445,1439,1439,1439,1439,1439,1439,1433,1433,1427,1427,1421,1421,1421,1421,1415,1415,1415,1415,1415,1410,1410,1410,1410,1404,1404,1398,1398,1398,1398,1398,1392,1392,1392,1392,1387,1387,1381,1381,1376,1376,1376,1376,1370,1370,1370,1370,1370,1365,1365,1359,1359,1354,1354,1354,1354,1349,1349,1349,1349,1349,1349,1349,1343,1338,1338,1333,1333,1333,1328,1328,1328,1328,1328,1328,1322,1322,1322,1317,1312,1312,1312,1312,1307,1307,1307,1302,1302,1302,1302,1302,1297,1297,1292,1292,1292,1292,1288,1288,1288,1288,1288,1288,1283,1278,1278,1278,1273,1268,1268,1268,1268,1268,1264,1264,1259,1259,1255,1255,1255,1255,1255,1250,1250,1250,1245,1245,1245,1245,1250,1250,0,0,0,0,1101,1094,1094,1094,1094,1094,1094,1090,1090,1090,1090,1087,1087,1087,1084,1080,1080,1077,1073,1073,1073,1073,1073,1070,1070,1073,1080,1084,1090,1090,1090,1094,1094,1094,1094,1090,1090,1090,1090,0,0,0,0,0,0,0,0,0,0,0,0,0,0,0,0,0,0,0,0,0,0,0,0,0,0,0,0,0,0,0,0
0,0,0,0,0,0,0,0,0,0,0,1557,1557,1550,1550,1550,1543,1536,1536,0,0,0,0,878,878,878,878,878,875,875,873,873,871,871,871,871,871,871,873,875,875,875,878,878,878,880,880,882,882,885,887,887,889,894,0,0,0,0,0,0,1564,1564,1572,1572,1572,1572,1572,1572,1572,1572,1564,1564,1564,1564,1564,1564,1564,1564,1564,1564,1564,1550,1550,1543,776,776,776,774,773,769,767,767,766,764,764,762,761,759,757,755,754,752,752,750,749,747,747,747,742,742,741,738,736,734,734,731,730,730,728,727,722,722,717,716,716,714,714,714,711,711,710,708,707,706,704,703,703,701,698,698,661,659,659,658,658,658,657,655,653,652,652,652,650,650,650,649,648,647,646,642,641,641,641,640,640,638,637,636,636,636,635,634,632,631,631,631,630,630,630,630,630,630,631,631,631,631,632,635,635,638,638,640,640,641,643,644,646,647,648,650,650,653,654,657,658,659,661,662,664,666,667,688,688,690,691,693,693,694,697,698,701,703,704,706,708,711,713,714,716,716,717,720,722,727,733,733,733,734,736,739,742,744,747,747,747,749,752,757,759,761,764,764,766,767,769,771,774,776,778,780,781,781,0,0,0,0,0,0,1572,0,1586,1579,1579,1579,1586,1586,1586,1586,1586,1586,1586,1586,1586,1586,1586,1586,1594,1594,1594,1594,1594,1594,1594,1586,1586,1586,1586,1586,1586,1586,1586,1586,1586,1586,1586,1586,1586,1579,1579,1572,1572,1572,1564,1564,1564,1001,1001,998,998,995,995,995,992,992,989,989,987,984,984,984,984,984,984,984,984,987,989,992,995,998,1001,1004,1004,1004,0,0,0,1586,1586,1586,1586,1586,1586,1586,1579,1579,1579,1579,1572,1572,1579,1579,1572,1572,1572,1572,1564,1564,1564,1564,1564,1557,1557,1557,1557,1550,1550,1543,1543,1543,1543,1543,1543,1536,1536,1536,1529,1523,1523,1523,1516,1516,1516,1516,1516,1516,1516,1516,1516,1509,1503,1496,1496,1496,1496,1489,1489,1489,1489,1489,1489,1489,1483,1483,1477,1477,1477,1470,1470,1470,1470,1464,1464,1464,1464,1464,1464,1464,1458,1458,1458,1452,1452,1445,1445,1445,1439,1439,1439,1439,1439,1439,1433,1433,1427,1421,1421,1421,1421,1415,1415,1415,1415,1415,1415,1410,1410,1410,1404,1404,1404,1404,1398,1398,1398,1398,1398,1392,1392,1392,1387,1381,1381,1376,1376,1376,1376,1370,1370,1370,1370,1370,1370,1365,1359,1359,1359,1354,1354,1354,1349,1349,1349,1349,1349,1349,1349,1343,1338,1338,1333,1333,1333,1328,1328,1328,1328,1328,1328,1322,1322,1322,1317,1312,1312,1312,1312,1307,1307,1307,1307,1307,1302,1302,1302,1297,1297,1292,1292,1292,1292,1288,1288,1288,1288,1288,1288,1283,1283,1278,1278,1273,1273,1273,1268,1268,1268,1268,1264,1264,1259,1259,1259,1255,1255,1255,1255,1250,1250,1250,0,0,0,0,0,1101,0,0,1101,1101,1097,1094,1094,1094,1094,1094,1094,1090,1090,1090,1087,1084,1084,1080,1080,1077,1077,1073,1073,1073,1073,1073,1073,1073,1080,1087,1087,1090,1090,1090,1094,1094,1094,1090,1090,1090,1090,1090,0,0,0,0,0,0,0,0,0,0,0,0,0,0,0,0,0,0,0,0,0,0,0,0,0,0,0,0,0,0,0,0
0,0,0,0,0,0,0,0,0,0,0,1557,1557,1550,1543,1543,1543,1536,1536,0,0,0,0,878,878,878,878,878,878,875,875,873,873,873,871,871,871,871,873,875,875,875,878,878,880,880,880,885,885,887,887,889,889,891,891,0,0,0,0,0,1564,1564,1572,1564,1564,1564,1564,1564,1564,1564,1564,1564,1564,1564,1564,1564,1557,1557,1557,1550,1550,1550,1550,1543,1536,1536,1536,776,773,773,769,769,767,766,764,762,762,759,759,759,754,752,752,750,750,749,749,747,746,746,741,739,738,736,734,734,733,731,731,727,725,723,722,717,716,716,714,714,713,711,711,708,707,706,704,703,703,701,700,698,698,697,661,659,659,693,657,655,653,652,652,652,650,650,650,649,648,647,646,644,642,641,641,640,640,638,637,636,636,636,635,634,632,631,630,630,630,630,629,629,630,630,630,630,631,631,632,632,634,638,638,640,640,641,643,644,646,647,649,650,650,653,654,658,658,661,661,662,664,666,686,688,688,690,691,691,693,694,697,700,701,703,706,707,710,713,713,714,716,716,717,720,723,730,733,733,734,734,738,739,744,744,747,747,747,750,754,759,761,762,764,766,766,767,769,769,773,776,778,780,781,0,0,0,0,0,1572,1572,1572,1579,1579,1579,1579,1579,1579,1579,1579,1579,1579,1579,1579,1579,1579,1579,1579,1586,1586,1586,1586,1586,1586,1586,1586,1579,1579,1579,1579,1579,1579,1579,1579,1579,1579,1579,1579,1579,1579,1579,1572,1564,1564,1564,1564,1564,1564,1001,1001,1001,998,998,995,995,992,992,992,989,989,987,984,984,984,984,984,984,987,987,989,992,995,1001,1001,1004,1004,1004,0,0,0,1579,1579,1579,1586,1579,1579,1579,1579,1579,1579,1579,1572,1572,1579,1572,1572,1572,1572,1572,1564,1564,1564,1564,1564,1557,1557,1557,1557,1550,1550,1543,1543,1543,1543,1543,1543,1536,1536,1536,1536,1529,1523,1523,1523,1516,1516,1516,1523,1516,1516,1516,1516,1509,1503,1503,1496,1496,1496,1496,1489,1489,1489,1489,1489,1489,1483,1483,1477,1477,1477,1470,1470,1470,1470,1470,1464,1464,1464,1464,1464,1464,1464,1464,1458,1458,1452,1445,1445,1445,1439,1439,1439,1439,1439,1439,1433,1433,1427,1421,1421,1421,1415,1415,1415,1415,1415,1415,1415,1410,1410,1410,1410,1404,1404,1404,1398,1398,1398,1398,1398,1392,1392,1387,1387,1381,1381,1376,1376,1376,1376,1370,1370,1370,1370,1370,1370,1365,1365,1359,1359,1354,1354,1354,1349,1349,1349,1349,1349,1349,1349,1343,1338,1338,1333,1333,1333,1333,1333,1333,1328,1328,1328,1322,1322,1322,1317,1312,1312,1312,1312,1307,1307,1307,1307,1307,1307,1302,1302,1297,1297,1297,1292,1292,1292,1288,1288,1288,1288,1288,1288,1283,1283,1278,1278,1273,1273,1273,1273,1273,1268,1268,1264,1264,1259,1259,1259,1108,1108,1108,1255,1255,1255,0,0,0,0,0,0,0,0,0,1094,1094,1094,1094,1094,1094,1094,1094,1090,1090,1090,1087,1087,1084,1084,1080,1080,1077,1077,1073,1073,1073,1073,1073,1073,1073,1084,1087,1090,1094,1094,1094,1094,1090,1090,1090,1090,1090,1090,1090,0,0,0,0,0,0,0,0,0,0,0,0,0,0,0,0,0,0,0,0,0,0,0,0,0,0,0,0,0,0,0,0
0,0,0,0,0,0,0,0,0,0,0,1550,1550,1543,1536,1536,1536,1536,0,0,0,0,0,878,878,878,878,878,878,878,875,875,873,873,873,873,871,871,873,875,875,875,878,880,880,880,882,885,885,887,889,891,891,891,891,0,0,0,0,0,0,1564,1564,1564,1564,1564,1557,1557,1564,1564,1557,1557,1557,1557,1557,1557,1557,1550,1550,1550,1543,1543,1543,1536,1536,1536,1536,1536,773,773,769,769,767,766,766,764,762,761,759,759,754,752,752,752,750,750,749,747,746,744,741,739,739,738,736,734,733,733,731,728,727,725,722,720,717,716,716,714,714,713,711,710,708,706,704,704,703,701,700,698,697,697,696,694,694,693,691,691,653,653,652,652,652,649,649,648,648,647,646,644,642,641,641,640,640,638,637,636,636,635,635,634,632,631,630,630,630,630,629,629,630,630,630,630,631,631,631,632,634,637,637,638,641,641,643,644,647,647,650,650,652,654,655,658,658,661,661,680,680,683,686,687,688,690,691,691,693,694,697,700,701,703,704,707,710,713,714,716,716,716,719,720,723,731,733,734,734,736,738,741,744,746,747,747,749,750,754,759,761,761,764,766,766,767,769,769,773,776,780,781,0,0,0,0,0,1572,1572,1572,1572,1572,1572,1572,1572,1572,1572,1572,1572,1572,1572,1572,1572,1572,1572,1572,1572,1572,1579,1579,1579,1579,1579,1579,1579,1579,1572,1572,1572,1572,1572,1572,1572,1572,1572,1572,1572,1572,1572,1572,1572,1564,1564,1564,1564,1564,1564,1001,1001,1001,1001,998,998,998,995,992,992,992,989,987,987,984,984,984,984,987,987,989,989,992,998,1001,1004,1004,1007,1007,0,0,0,0,1579,1579,1579,1579,1579,1579,1572,1572,1579,1572,1572,1572,1572,1572,1572,1572,1572,1564,1564,1564,1564,1564,1557,1557,1557,1557,1557,1550,1550,1543,1543,1543,1543,1543,1543,1543,1536,1536,1536,1536,1529,1523,1523,1523,1523,1523,1523,1516,1516,1516,1516,1516,1509,1503,1496,1496,1496,1496,1489,1489,1489,1489,1489,1483,1483,1483,1477,1477,1477,1470,1470,1470,1470,1470,1470,1464,1464,1464,1464,1464,1464,1464,1464,1458,1452,1445,1445,1445,1439,1439,1439,1439,1439,1439,1433,1433,1427,1421,1421,1421,1415,1415,1415,1415,1415,1415,1415,1415,1415,1410,1410,1404,1404,1404,1398,1398,1398,1398,1398,1392,1392,1387,1387,1381,1381,1376,1376,1376,1376,1370,1370,1370,1370,1370,1370,1365,1365,1359,1359,1359,1354,1354,1354,1349,1349,1349,1349,1349,1349,1343,1343,1338,1333,1333,1333,1333,1333,1333,1333,1328,1328,1328,1322,1322,1317,1312,1312,1312,1312,1307,1307,1307,1307,1307,1307,1302,1302,1297,1297,1297,1292,1292,1288,1288,1288,1288,1288,1288,1288,1283,1283,1278,1278,1278,1278,1278,1278,1273,1273,1268,1264,1264,1259,1259,1259,1108,1108,1108,1108,1108,1108,0,0,0,0,0,0,0,0,0,1094,1094,1094,1094,1094,1094,1094,1090,1090,1090,1087,1087,1084,1084,1080,1080,1080,1077,1077,1077,1073,1073,1073,1077,1077,1080,1087,1087,1094,1094,1094,1094,1094,1090,1090,1090,1090,1090,1090,0,0,0,0,0,0,0,0,0,0,0,0,0,0,0,0,0,0,0,0,0,0,0,0,0,0,0,0,0,0,0,0,0
0,0,0,0,0,0,0,0,0,0,0,1543,1543,1536,1529,1529,1529,1529,0,0,0,0,0,878,878,878,878,878,878,878,878,875,875,875,875,873,873,873,873,875,875,875,878,880,880,882,885,885,887,889,889,891,891,894,894,0,0,0,0,0,0,1557,1557,1557,1557,1557,1557,1557,1557,1557,1557,1557,1557,1557,1550,1550,1550,1550,1550,1550,1543,1543,1543,1536,1536,1536,1536,1536,1536,773,773,773,769,767,766,766,764,759,759,759,754,752,752,752,752,750,749,747,746,744,741,741,739,738,736,734,733,733,731,731,728,725,723,720,720,719,716,716,714,714,711,710,708,707,706,704,703,701,700,698,697,697,696,694,694,693,691,691,690,688,652,652,650,649,649,648,647,646,646,643,642,641,641,640,640,638,637,636,636,635,635,634,632,631,630,630,629,629,629,629,629,629,630,630,631,631,631,632,636,637,637,638,641,643,643,646,647,647,650,650,653,654,657,658,658,659,659,680,682,683,686,687,688,690,691,693,694,696,697,700,701,703,704,707,711,714,714,716,716,717,719,722,725,731,733,734,734,734,736,741,744,746,747,747,749,752,755,757,759,761,762,766,766,767,769,769,0,0,0,0,0,0,0,0,1564,1564,1564,1564,1564,1564,1564,1564,1564,1564,1564,1564,1572,1564,1564,1572,1572,1564,1564,1564,1564,1572,1572,1572,1572,1572,1572,1572,1572,1572,1572,1572,1572,1572,1572,1572,1572,1572,1572,1572,1572,1572,1572,1564,1564,1564,1564,1557,1557,1557,1509,1001,1001,1001,1001,1001,1001,998,998,995,995,992,989,989,987,987,987,987,987,987,989,989,992,995,998,1001,1004,1004,1007,1007,0,0,0,1579,1579,1579,1579,1579,1572,1572,1572,1572,1572,1572,1572,1572,1572,1572,1572,1572,1564,1564,1564,1564,1557,1557,1557,1557,1557,1557,1550,1550,1550,1543,1543,1543,1543,1543,1543,1543,1543,1543,1536,1536,1536,1523,1523,1523,1523,1523,1523,1516,1516,1516,1516,1516,1509,1509,1503,1503,1496,1496,1496,1489,1489,1489,1489,1483,1483,1483,1477,1477,1470,1470,1470,1470,1470,1470,1470,1470,1470,1470,1464,1464,1464,1464,1464,1458,1452,1452,1445,1445,1445,1445,1445,1439,1439,1439,1433,1433,1427,1427,1421,1421,1415,1415,1415,1415,1415,1415,1415,1415,1415,1410,1410,1404,1404,1404,1398,1398,1398,1398,1398,1392,1392,1387,1387,1387,1381,1376,1376,1376,1376,1370,1370,1370,1370,1370,1370,1365,1365,1365,1359,1359,1354,1354,1354,1349,1349,1349,1349,1349,1349,1343,1343,1338,1338,1333,1333,1333,1333,1333,1333,1328,1328,1328,1322,1322,1317,1312,1312,1312,1312,1307,1307,1307,1307,1307,1307,1302,1302,1297,1297,1297,1292,1292,1288,1288,1288,1288,1288,1288,1288,1283,1283,1283,1283,1283,1283,1278,1278,1273,1273,1268,1264,1264,1264,1259,1112,1112,1112,1112,1115,0,0,0,1112,0,0,0,0,0,0,0,0,1097,1094,1094,1094,1094,1094,1090,1090,1087,1087,1087,1084,1080,1080,1080,1080,1077,1077,1077,1073,1073,1073,1077,1080,1087,1087,1090,1094,1094,1090,1090,1090,1090,1090,1090,1090,0,0,0,0,0,0,0,0,0,0,0,0,0,0,0,0,0,0,0,0,0,0,0,0,0,0,0,0,0,0,0,0,0,0,0
0,0,0,0,0,0,0,0,0,0,0,1529,1529,1529,1529,1529,1529,1529,0,0,0,0,0,878,878,878,878,880,878,878,878,875,875,875,875,873,873,873,873,875,875,878,878,880,880,882,885,887,887,889,889,891,894,894,894,0,0,0,0,0,0,1557,1557,1557,1550,1550,1550,1550,1557,1557,1550,1550,1550,1550,1550,1550,1550,1543,1543,1543,1543,1543,1536,1536,1536,1536,1536,1536,1529,774,774,773,769,767,766,766,764,759,759,759,754,752,752,752,752,750,749,747,746,744,741,741,741,739,738,734,734,733,733,731,728,728,725,722,722,720,719,719,716,716,714,711,710,707,706,704,703,701,698,698,697,697,696,694,694,693,691,690,690,688,686,684,650,649,649,648,647,646,646,643,642,641,641,640,640,638,637,636,635,635,635,634,632,631,630,630,629,629,629,629,629,629,630,630,631,631,631,632,636,637,637,640,641,643,644,646,647,648,650,650,653,655,657,658,659,659,659,680,682,683,683,686,687,690,691,693,694,696,698,700,701,703,706,708,711,714,714,716,716,717,720,722,727,731,733,734,734,734,736,741,744,746,747,749,750,752,755,757,759,761,762,766,766,767,767,0,0,0,0,0,0,0,0,1557,1557,1557,1564,1564,1564,1564,1564,1564,1564,1564,1564,1564,1564,1564,1564,1564,1564,1564,1564,1564,1564,1564,1564,1564,1564,1564,1564,1564,1564,1564,1564,1564,1564,1564,1564,1564,1564,1564,1564,1564,1564,1564,1564,1564,1564,1564,1557,1550,1536,1523,1509,1509,1001,1001,1001,1001,1001,998,998,998,995,992,992,989,989,989,987,987,987,987,989,989,992,995,998,1001,1004,1004,1007,1010,1010,0,0,0,1579,1579,1579,1572,1572,1572,1564,1564,1572,1564,1564,1572,1572,1572,1572,1564,1564,1564,1557,1557,1557,1557,1557,1557,1557,1550,1550,1550,1543,1543,1543,1543,1543,1543,1543,1543,1543,1543,1543,1536,1536,1523,1523,1523,1523,1523,1523,1523,1516,1516,1516,1516,1516,1509,1509,1503,1503,1496,1496,1496,1489,1489,1489,1489,1483,1483,1477,1477,1470,1470,1470,1470,1470,1470,1470,1470,1470,1470,1464,1464,1464,1464,1464,1458,1458,1452,1445,1445,1445,1445,1445,1439,1439,1439,1439,1433,1427,1427,1421,1421,1421,1421,1421,1421,1415,1415,1415,1415,1415,1415,1410,1404,1404,1404,1398,1398,1398,1398,1398,1392,1392,1387,1387,1387,1381,1381,1376,1376,1376,1370,1370,1370,1370,1370,1370,1365,1365,1365,1365,1359,1354,1354,1354,1354,1349,1349,1349,1349,1343,1343,1343,1338,1338,1333,1333,1333,1333,1333,1333,1328,1328,1328,1328,1317,1317,1317,1317,1312,1312,1312,1307,1307,1307,1307,1307,1302,1302,1302,1302,1297,1292,1292,1292,1288,1288,1288,1288,1288,1288,1288,1288,1283,1283,1283,1288,1288,1288,1288,1278,1278,1264,1264,1264,1115,1112,1112,1112,1115,1115,1119,0,1108,0,1112,1108,1108,1108,1108,1105,1105,1105,1101,1097,1094,1094,1094,1094,1090,1090,1087,1087,1087,1084,1080,1080,1080,1080,1080,1077,1077,1077,1077,1077,1080,1084,1090,1090,1094,1094,1094,1090,1090,1090,1090,1090,1090,0,0,0,0,0,0,0,0,0,0,0,0,0,0,0,0,0,0,0,0,0,0,0,0,0,0,0,0,0,0,0,0,0,0,0,0
0,0,0,0,0,0,0,0,0,0,0,1529,1523,1516,1516,1516,1516,1516,0,0,0,0,0,0,878,878,878,880,880,880,878,878,875,875,875,875,873,873,873,875,875,878,878,880,880,885,885,887,889,889,889,891,891,894,894,0,0,0,0,0,0,1550,1550,1550,1543,1543,1543,1543,1550,1550,1543,1543,1543,1543,1543,1543,1543,1543,1543,1536,1536,1536,1536,1536,1536,1536,1536,1529,1529,1529,1529,773,771,769,767,767,762,759,759,759,755,754,752,752,752,750,749,747,746,744,742,741,741,739,738,736,734,733,733,731,728,728,727,725,723,720,720,719,719,717,716,714,711,708,707,706,704,701,698,698,697,697,696,694,694,693,691,690,690,688,686,684,684,683,682,680,680,679,646,644,642,641,641,640,640,638,638,636,635,635,635,634,632,631,630,630,629,629,629,629,629,629,630,630,631,631,632,634,636,637,637,640,643,643,646,648,648,650,650,652,655,657,658,658,661,661,678,680,682,683,683,686,687,690,691,693,694,696,698,700,701,704,706,708,711,714,714,717,717,719,720,723,728,731,733,734,734,736,738,741,744,746,747,749,752,754,754,757,759,761,762,766,766,767,767,0,0,0,0,0,0,1550,1550,1550,1557,1557,1557,1557,1557,1557,1557,1557,1557,1557,1557,1557,1557,1557,1557,1557,1557,1557,1557,1557,1557,1564,1564,1557,1557,1557,1564,1564,1564,1564,1564,1564,1564,1564,1557,1557,1557,1557,1557,1557,1557,1557,1557,1557,1557,1557,1550,1543,1536,1523,1509,1509,1509,1001,1001,1001,1001,998,998,998,998,995,992,992,992,989,989,989,989,989,989,992,992,995,998,1001,1004,1004,1007,1010,0,0,0,0,1572,1572,1572,1572,1564,1564,1564,1564,1564,1557,1557,1564,1564,1564,1564,1557,1557,1557,1550,1550,1550,1550,1550,1550,1550,1550,1550,1550,1543,1543,1543,1543,1543,1543,1543,1543,1543,1543,1536,1536,1536,1529,1523,1523,1523,1523,1523,1523,1516,1516,1516,1516,1516,1509,1509,1509,1503,1496,1496,1496,1489,1489,1489,1489,1483,1483,1477,1477,1470,1470,1470,1470,1470,1470,1470,1470,1470,1470,1470,1464,1464,1464,1464,1458,1458,1452,1445,1445,1445,1445,1445,1439,1439,1439,1439,1433,1433,1427,1421,1421,1421,1421,1421,1421,1415,1415,1415,1415,1415,1415,1410,1410,1410,1404,1398,1398,1398,1398,1398,1392,1392,1392,1387,1387,1387,1381,1376,1376,1376,1370,1370,1370,1370,1370,1370,1370,1365,1365,1365,1359,1354,1354,1354,1354,1354,1354,1349,1349,1343,1343,1343,1338,1338,1333,1333,1333,1333,1333,1333,1328,1328,1328,1328,1317,1317,1317,1317,1312,1312,1312,1312,1307,1307,1307,1307,1307,1302,1302,1302,1297,1292,1292,1292,1292,1288,1288,1288,1288,1288,1288,1288,1288,1288,1288,1292,1292,1292,1292,1264,1264,1264,1259,1259,1115,1115,1115,1115,1115,1119,1119,1115,0,1108,1108,1108,1108,1108,1108,1105,1105,1105,1101,1097,1094,1094,1094,1094,1090,1090,1087,1087,1087,1084,1080,1080,1080,1080,1080,1077,1077,1080,1080,1080,1084,1090,1090,1094,1094,1094,1090,1090,1090,1090,1087,1087,1087,0,0,0,0,0,0,0,0,0,0,0,0,0,0,0,0,0,0,0,0,0,0,0,0,0,0,0,0,0,0,0,0,0,0,0,0
0,0,0,0,0,0,0,0,0,0,1523,1523,1516,1509,1509,1509,1509,1509,0,0,0,0,0,0,878,878,878,880,880,880,878,878,878,875,875,875,873,873,873,875,875,878,878,880,885,885,885,887,889,889,891,891,891,894,894,894,0,0,0,0,0,1550,1543,1543,1543,1536,1536,1543,1543,1543,1543,1543,1543,1543,1543,1543,1543,1543,1536,1536,1536,1536,1536,1536,1536,1536,1536,1529,1529,1529,1529,1516,1516,1509,767,767,762,759,759,759,755,754,752,752,752,750,750,747,747,744,742,742,742,741,739,738,734,733,733,731,728,728,727,725,723,722,720,720,719,717,716,714,713,710,708,707,706,703,700,698,697,697,696,696,694,693,691,691,691,690,687,684,684,683,682,680,680,679,678,676,642,641,641,640,640,638,638,636,635,635,634,634,632,631,630,630,629,629,629,629,630,630,630,631,631,632,632,634,636,637,637,641,643,644,646,648,649,650,650,653,657,659,659,659,675,676,678,679,680,683,684,687,688,690,693,693,696,697,700,701,703,704,707,708,713,714,716,717,717,720,722,725,730,731,733,734,734,736,738,741,744,746,747,750,752,754,754,757,759,761,762,766,0,0,0,0,0,0,0,0,1543,1543,1543,1543,1550,1550,1550,1550,1550,1550,1550,1550,1550,1550,1550,1550,1550,1550,1550,1550,1550,1550,1550,1550,1550,1550,1550,1550,1550,1550,1557,1550,1550,1557,1557,1557,1557,1557,1557,1557,1550,1550,1550,1550,1550,1550,1550,1550,1550,1550,1550,1543,1536,1523,1516,1516,1516,1001,1001,1001,1001,1001,1001,998,998,998,995,992,992,992,992,989,989,992,992,992,995,998,1001,1001,1004,1007,1010,1010,0,0,0,0,1550,1550,1550,1564,1564,1557,1557,1557,1557,1550,1550,1557,1557,1557,1557,1550,1550,1550,1550,1550,1550,1550,1550,1550,1550,1550,1543,1543,1543,1543,1543,1543,1543,1543,1543,1543,1543,1543,1536,1536,1536,1529,1523,1523,1523,1523,1523,1516,1516,1516,1516,1516,1516,1516,1509,1509,1509,1503,1496,1496,1489,1489,1489,1489,1483,1483,1477,1477,1470,1470,1470,1470,1470,1470,1470,1470,1470,1470,1470,1464,1464,1464,1464,1458,1458,1452,1452,1445,1445,1445,1445,1445,1439,1439,1439,1439,1433,1427,1427,1421,1421,1421,1421,1421,1421,1415,1415,1415,1415,1415,1415,1410,1410,1404,1404,1404,1398,1398,1398,1392,1392,1392,1387,1387,1387,1381,1381,1376,1376,1376,1376,1376,1370,1370,1370,1370,1370,1365,1365,1365,1359,1354,1354,1354,1354,1354,1349,1349,1349,1349,1343,1343,1338,1338,1333,1333,1333,1333,1333,1328,1328,1328,1328,1322,1317,1317,1317,1317,1312,1312,1312,1312,1307,1307,1307,1307,1302,1302,1302,1297,1292,1292,1292,1292,1288,1288,1288,1288,1288,1288,1288,1288,1288,1288,1292,1297,1297,0,0,1264,1264,1259,1138,1126,1123,1119,1119,1119,1119,1115,1115,1108,1108,1108,1108,1108,1108,1108,1105,1105,1105,1097,1097,1094,1094,1094,1094,1090,1090,1087,1087,1087,1084,1080,1080,1080,1080,1080,1080,1080,1080,1084,1087,1087,1090,1094,1094,1094,1090,1090,1090,1090,1087,1087,1087,1087,0,0,0,0,0,0,0,0,0,0,0,0,0,0,0,0,0,0,0,0,0,0,0,0,0,0,0,0,0,0,0,0,0,0,0,0
0,0,0,0,0,0,0,0,0,0,1516,1516,1516,1509,1509,1509,1496,1496,0,0,0,0,0,0,0,880,880,880,880,880,880,878,878,878,875,875,873,873,873,875,875,878,880,880,885,885,885,887,889,889,889,891,891,894,894,894,0,0,0,0,0,0,1529,1529,1529,1529,1529,1536,1536,1536,1536,1536,1536,1536,1536,1536,1536,1536,1536,1536,1536,1536,1536,1536,1536,1536,1536,1536,1529,1529,1516,1516,1516,1509,1509,1509,1509,761,761,759,755,754,752,752,752,750,750,749,747,746,744,744,742,741,739,738,736,734,733,731,731,728,727,725,723,722,722,720,720,719,716,716,714,711,710,710,708,704,701,698,697,697,696,696,694,693,693,691,691,690,688,686,684,683,682,680,680,679,678,676,676,641,640,640,640,638,638,636,635,635,634,632,632,631,631,630,630,630,630,630,630,630,630,631,632,632,632,635,636,637,637,642,644,644,646,648,649,650,652,657,659,659,661,674,675,676,678,679,680,683,686,688,690,691,693,693,696,697,700,701,703,706,707,708,713,714,716,717,717,720,723,727,731,731,733,734,734,736,739,742,744,746,747,749,750,752,754,755,759,761,762,0,762,0,0,0,0,0,0,1543,1543,1543,1543,1543,1543,1543,1543,1543,1543,1543,1543,1543,1543,1543,1550,1550,1543,1543,1543,1543,1543,1543,1543,1543,1543,1543,1543,1543,1543,1543,1543,1550,1550,1550,1550,1543,1543,1543,1543,1550,1543,1543,1543,1543,1543,1543,1543,1543,1543,1543,1543,1536,1529,1523,1516,1516,1516,1001,1001,1001,1001,1001,1001,1001,998,998,998,992,992,992,992,992,992,992,992,995,998,1001,1004,1007,1010,1010,1010,1010,1010,0,0,0,1543,1543,1550,1550,1550,1550,1550,1550,1550,1550,1550,1550,1550,1557,1550,1550,1550,1550,1550,1550,1550,1550,1550,1550,1550,1543,1543,1543,1543,1543,1543,1543,1543,1543,1543,1543,1543,1543,1536,1536,1536,1529,1523,1523,1523,1523,1523,1516,1516,1516,1516,1516,1516,1516,1516,1516,1509,1503,1496,1496,1489,1489,1489,1489,1483,1483,1477,1477,1470,1470,1470,1470,1470,1470,1470,1470,1470,1470,1470,1464,1464,1464,1464,1458,1458,1452,1452,1452,1445,1445,1445,1445,1445,1439,1439,1439,1433,1433,1427,1427,1421,1421,1421,1421,1421,1415,1415,1415,1415,1415,1415,1410,1410,1410,1404,1404,1398,1398,1398,1392,1392,1392,1392,1387,1387,1387,1381,1376,1376,1376,1376,1376,1370,1370,1370,1370,1370,1365,1365,1365,1359,1354,1354,1354,1354,1354,1354,1354,1349,1349,1343,1343,1338,1338,1338,1333,1333,1333,1328,1328,1328,1328,1322,1322,1317,1317,1317,1317,1312,1312,1312,1312,1312,1307,1307,1307,1302,1302,1302,1302,1292,1292,1292,1292,1288,1288,1288,1288,1288,1288,1288,1288,1288,1292,1297,1312,1312,0,0,1149,1149,1149,1138,1134,1126,1123,1119,1119,1119,1115,1112,1108,1105,1105,1108,1105,1105,1105,1105,1105,1105,1097,1097,1094,1094,1094,1094,1090,1090,1087,1087,1087,1084,1080,1080,1080,1080,1080,1080,1080,1084,1087,1094,1094,1097,1094,1094,1094,1090,1090,1090,1090,1087,1087,918,918,918,0,0,0,0,0,0,0,0,0,0,0,0,0,0,0,0,0,0,0,0,0,0,0,0,0,0,0,0,0,0,0,0,0,0,0
0,0,0,0,0,0,0,0,0,0,1516,1516,1509,1509,1509,1503,1496,1496,1503,0,0,0,0,0,0,878,878,882,882,882,880,880,878,878,875,875,873,873,873,875,875,878,880,880,885,885,885,887,889,889,889,891,891,894,894,894,894,896,0,0,0,0,1529,1529,1529,1523,1523,1529,1529,1529,1529,1536,1529,1529,1529,1536,1529,1529,1536,1536,1529,1529,1529,1529,1529,1529,1529,1529,1529,1523,1516,1516,1516,1516,1509,1509,1509,1509,1509,759,755,754,754,752,752,750,750,749,746,746,744,742,742,741,739,738,736,734,733,733,733,728,727,725,723,722,722,722,722,720,716,716,714,713,711,711,708,707,703,700,698,698,697,696,694,693,693,691,691,690,688,686,686,686,683,682,680,678,678,676,676,675,640,640,640,638,637,636,635,634,632,632,632,631,631,631,630,630,630,630,630,631,631,631,632,632,634,635,636,637,643,644,646,646,647,648,654,655,657,659,661,662,664,674,675,676,678,679,682,683,686,688,690,691,693,694,696,698,700,701,704,706,708,710,713,714,716,717,717,720,723,728,731,731,733,734,734,736,739,742,744,746,747,749,750,752,754,755,759,762,0,0,0,0,0,0,0,1536,1536,1536,1536,1536,1536,1536,1536,1536,1536,1536,1536,1536,1536,1536,1543,1543,1543,1543,1543,1543,1543,1543,1543,1543,1543,1543,1543,1543,1543,1543,1536,1536,1536,1536,1536,1536,1536,1543,1543,1543,1543,1543,1543,1543,1543,1543,1543,1543,1543,1543,1536,1536,1536,1529,1529,1523,1516,1516,1516,1001,1001,1001,1001,1001,1001,1001,1001,998,998,998,995,992,992,992,992,992,995,995,998,1001,1004,1007,1010,1013,1013,1013,1016,0,0,0,1543,1543,1543,1536,1536,1536,1536,1536,1536,1543,1550,1550,1543,1543,1543,1543,1543,1543,1543,1543,1543,1543,1543,1543,1543,1543,1536,1536,1536,1536,1536,1536,1536,1536,1536,1536,1536,1536,1529,1529,1523,1523,1523,1523,1523,1523,1523,1516,1516,1516,1516,1516,1516,1516,1516,1516,1509,1503,1496,1496,1496,1496,1489,1489,1483,1483,1477,1477,1477,1477,1477,1470,1470,1470,1470,1470,1470,1470,1470,1464,1464,1464,1464,1464,1458,1452,1452,1452,1445,1445,1445,1445,1445,1439,1439,1439,1439,1433,1433,1427,1427,1421,1421,1421,1421,1415,1415,1415,1415,1415,1415,1415,1410,1410,1404,1404,1404,1398,1398,1398,1392,1392,1392,1392,1387,1387,1381,1381,1376,1376,1376,1376,1376,1370,1370,1370,1370,1370,1365,1365,1359,1359,1354,1354,1354,1354,1354,1349,1349,1349,1349,1343,1338,1338,1338,1333,1333,1333,1328,1328,1328,1328,1322,1322,1317,1317,1317,1317,1312,1312,1312,1312,1312,1307,1307,1307,1302,1302,1302,1302,1297,1292,1292,1292,1292,1288,1288,1283,1283,1288,1288,1288,1288,1292,1297,1312,1312,1149,1149,1145,1145,1141,1138,1134,1130,1123,1119,1119,1119,1115,1112,1108,1105,1105,1105,1105,1105,1105,1105,1105,1101,1097,1097,1094,1094,1094,1090,1090,1090,1087,1087,1087,1084,1080,1080,1080,1084,1084,1090,1101,1094,1094,1097,1097,1097,1094,1094,1094,1090,1090,1090,1090,1090,918,918,918,918,0,0,0,0,0,0,0,0,0,0,0,0,0,0,0,0,0,0,0,0,0,0,0,0,0,0,0,0,0,0,0,0,0,0,0
0,0,0,0,0,0,0,0,0,0,1509,1509,1509,1509,1503,1503,1496,1496,1489,1489,1489,0,0,0,0,878,878,882,882,885,882,882,880,878,875,875,875,875,875,875,875,878,880,882,885,885,887,887,889,889,891,891,891,894,894,894,894,896,0,0,0,0,0,1523,1523,1523,1523,1523,1523,1529,1529,1523,1523,1523,1523,1529,1529,1529,1529,1529,1529,1529,1529,1523,1523,1523,1523,1523,1523,1523,1516,1516,1516,1516,1509,1509,1509,1509,1509,759,755,754,754,752,752,749,749,747,746,746,744,742,742,741,739,738,736,734,733,733,733,731,728,727,725,723,723,722,722,720,717,716,714,713,713,711,710,708,703,701,698,698,697,696,694,693,693,691,691,690,690,690,687,686,684,682,680,678,678,676,676,675,674,674,674,636,636,635,635,634,632,632,631,631,631,631,630,630,630,630,631,631,631,632,632,632,634,636,637,637,644,646,647,647,648,649,654,655,657,659,661,662,666,674,675,678,678,679,682,683,687,688,690,693,694,696,697,698,700,701,704,706,708,710,713,714,716,719,719,722,723,728,731,731,733,734,734,736,739,741,742,744,747,749,750,752,752,755,0,0,0,0,0,0,1529,0,1536,1536,1536,1536,1536,1536,1536,1536,1529,1529,1536,1529,1529,1529,1536,1536,1536,1536,1536,1536,1536,1536,1536,1536,1536,1536,1536,1536,1536,1536,1536,1536,1536,1536,1536,1536,1536,1529,1529,1529,1529,1529,1536,1536,1536,1536,1536,1536,1536,1536,1536,1536,1529,1529,1529,1523,1523,1523,1523,1523,1001,1001,1001,1001,1004,1004,1004,1001,1001,1001,1001,998,995,995,995,992,992,995,995,995,998,1001,1007,1010,1013,1013,1016,1016,1016,0,0,0,0,1536,1529,1529,1536,1529,1529,1529,1536,1536,1536,1536,1536,1543,1536,1536,1536,1536,1536,1536,1536,1536,1536,1536,1536,1536,1536,1536,1536,1536,1536,1536,1536,1536,1529,1529,1529,1529,1529,1523,1523,1523,1523,1523,1523,1523,1516,1516,1516,1516,1516,1516,1516,1516,1516,1516,1509,1503,1503,1496,1496,1496,1496,1489,1489,1489,1489,1483,1477,1477,1477,1477,1470,1470,1470,1470,1470,1470,1470,1470,1464,1464,1464,1464,1458,1458,1452,1452,1445,1445,1445,1445,1445,1445,1439,1439,1439,1433,1433,1427,1427,1421,1421,1421,1421,1421,1415,1415,1415,1415,1415,1415,1410,1410,1410,1404,1404,1398,1398,1398,1398,1392,1392,1392,1392,1387,1387,1381,1376,1376,1376,1376,1376,1370,1370,1370,1370,1370,1365,1365,1359,1359,1354,1354,1354,1354,1354,1349,1349,1349,1349,1343,1343,1338,1338,1333,1333,1333,1328,1328,1328,1328,1322,1322,1322,1317,1317,1317,1317,1312,1312,1312,1312,1312,1307,1307,1307,1307,1302,1302,1297,1292,1292,1292,1292,1288,1288,1283,1283,1288,1288,1288,1292,1297,1297,1297,1149,1149,1149,1145,1145,1138,1138,1134,1130,1123,1119,1119,1119,1115,1112,1108,1105,1105,1105,1105,1105,1105,1105,1105,1101,1097,1097,1094,1094,1094,1090,1090,1090,1090,1090,1087,1084,1080,1080,1084,1087,1087,1105,1105,1101,1101,1101,1101,1097,1094,1094,1090,1090,1090,1087,1087,1090,918,918,918,918,0,0,0,0,0,0,0,0,0,0,0,0,0,0,0,0,0,0,0,0,0,0,0,0,0,0,0,0,0,0,0,0,0,0,0
0,0,0,0,0,0,0,0,0,0,1509,1509,1509,1503,1503,1503,1496,1496,1489,1489,1489,0,0,0,0,0,885,885,885,885,885,882,882,880,878,878,875,875,875,875,875,878,880,882,885,885,887,887,889,891,891,891,891,894,894,894,894,0,0,0,0,0,1529,1516,1516,1516,1516,1516,1516,1516,1516,1523,1516,1516,1516,1523,1516,1516,1523,1523,1523,1523,1523,1516,1516,1516,1516,1516,1516,1516,1516,1516,1516,1516,1516,1516,1516,1509,1509,1509,1503,754,754,754,754,749,749,747,746,746,744,742,741,739,738,738,736,734,734,733,733,730,730,727,725,723,723,722,722,720,717,716,716,714,713,713,711,710,703,703,700,700,698,697,697,694,693,693,691,691,691,690,687,686,684,683,683,682,682,678,676,675,675,675,675,636,636,634,634,635,632,631,631,631,631,631,631,631,631,631,631,631,631,632,632,632,634,636,641,644,646,647,647,648,649,650,655,655,657,659,662,663,666,674,675,678,678,680,682,684,687,690,690,693,694,694,697,698,700,703,706,707,708,710,711,714,716,719,720,723,725,728,731,731,733,734,734,738,739,741,742,742,746,749,750,750,752,0,0,0,0,0,0,0,0,1529,1529,1529,1529,1529,1536,1536,1529,1529,1529,1529,1523,1523,1523,1523,1529,1529,1529,1529,1529,1529,1536,1536,1529,1529,1529,1529,1529,1529,1529,1529,1529,1529,1529,1529,1529,1529,1529,1523,1523,1523,1523,1529,1529,1529,1529,1529,1536,1536,1536,1536,1529,1529,1523,1523,1523,1523,1523,1516,1516,1516,0,1010,1010,1004,1004,1004,1004,1004,1004,1001,1001,1001,998,995,995,995,995,995,995,998,1001,1001,1007,1013,1013,1016,1016,1016,1016,0,0,0,0,1529,1529,1529,1529,1529,1529,1529,1529,1536,1536,1529,1529,1529,1529,1529,1529,1529,1529,1536,1536,1536,1536,1529,1529,1529,1529,1529,1529,1529,1529,1529,1529,1529,1529,1529,1529,1523,1523,1523,1523,1523,1523,1523,1523,1523,1516,1516,1516,1516,1516,1516,1516,1516,1516,1516,1509,1503,1503,1503,1496,1496,1496,1496,1489,1489,1489,1489,1483,1483,1477,1477,1470,1470,1470,1470,1470,1470,1470,1470,1464,1464,1464,1464,1458,1458,1452,1452,1445,1445,1445,1445,1445,1445,1439,1439,1439,1439,1433,1427,1427,1427,1421,1421,1421,1421,1421,1415,1415,1415,1415,1415,1415,1410,1410,1410,1404,1398,1398,1398,1398,1392,1392,1392,1392,1392,1387,1387,1381,1381,1376,1376,1376,1376,1370,1370,1370,1370,1370,1365,1359,1359,1359,1354,1354,1354,1354,1349,1349,1349,1349,1343,1343,1338,1338,1333,1333,1333,1328,1328,1328,1328,1322,1322,1322,1317,1317,1317,1317,1312,1312,1312,1312,1312,1312,1307,1307,1307,1302,1302,1297,1292,1292,1292,1292,1288,1288,1288,1288,1288,1288,1288,1292,1292,1292,1153,1149,1149,1145,1141,1141,1138,1134,1126,1123,1123,1119,1119,1115,1112,1108,1108,1105,1105,1105,1105,1105,1105,1105,1105,1101,1097,1094,1094,1094,1094,1090,1090,1090,1090,1090,1087,1087,1087,1108,1101,1101,1105,1108,1105,1105,1101,1101,1097,1097,1094,1090,1090,1087,1087,1087,1087,1090,918,918,918,918,0,0,0,0,0,0,0,0,0,0,0,0,0,0,0,0,0,0,0,0,0,0,0,0,0,0,0,0,0,0,0,0,0,0,0
0,0,0,0,0,0,0,0,0,0,1503,1503,1503,1503,1503,1496,1489,1489,1489,1489,1489,1489,0,0,0,0,885,885,885,885,885,882,882,880,878,878,875,875,875,878,878,878,880,882,885,885,887,889,889,891,891,891,891,894,894,894,0,0,0,0,0,0,1516,1516,1516,1516,1516,1516,1516,1516,1516,1516,1516,1516,1516,1516,1516,1516,1516,1516,1516,1516,1516,1509,1509,1509,1509,1509,1516,1516,1516,1516,1516,1516,1516,1516,1516,1509,1509,1509,1503,1496,1496,1489,1489,1489,1489,746,746,746,744,742,741,739,738,738,736,736,734,733,733,730,730,728,727,725,725,723,722,722,717,716,716,714,714,713,711,710,708,707,703,701,701,698,697,696,694,693,693,691,691,690,688,687,686,684,683,682,682,678,676,676,675,675,675,674,672,634,634,635,657,631,631,631,631,631,631,631,631,631,631,631,631,632,632,634,637,637,641,646,646,648,648,649,650,654,655,655,658,659,662,663,666,675,676,679,679,680,682,684,688,690,691,693,694,694,697,700,701,704,707,707,708,710,711,714,717,719,722,723,727,728,731,731,733,734,736,738,739,739,741,742,746,749,750,750,750,0,0,1516,1516,1516,1516,1523,1523,1523,1523,1529,1529,1529,1529,1529,1523,1523,1523,1523,1523,1523,1523,1523,1523,1523,1523,1523,1529,1529,1529,1529,1529,1529,1529,1529,1523,1523,1523,1523,1523,1523,1523,1523,1523,1523,1523,1523,1523,1523,1523,1523,1523,1523,1529,1529,1529,1529,1529,1529,1523,1523,1523,1523,1516,1516,1516,1516,1516,1516,0,1010,1010,1007,1004,1004,1004,1004,1004,1001,1001,1001,998,998,998,995,995,995,998,998,1001,1004,1010,1013,1013,1016,1016,1016,1016,0,0,0,1523,1523,1523,1523,1523,1523,1523,1523,1523,1529,1529,1529,1529,1523,1523,1523,1523,1523,1523,1523,1523,1529,1523,1523,1523,1523,1523,1523,1523,1523,1523,1523,1523,1523,1523,1523,1523,1523,1523,1523,1523,1516,1516,1516,1516,1516,1516,1516,1516,1516,1516,1516,1516,1509,1509,1509,1503,1503,1503,1503,1496,1496,1496,1496,1489,1489,1489,1489,1489,1489,1477,1477,1477,1470,1470,1470,1470,1470,1470,1470,1470,1470,1464,1464,1458,1452,1452,1452,1445,1445,1445,1445,1445,1445,1439,1439,1439,1439,1439,1433,1427,1427,1421,1421,1421,1421,1421,1421,1415,1415,1415,1415,1415,1410,1410,1410,1404,1398,1398,1398,1398,1392,1392,1392,1392,1392,1392,1387,1387,1381,1381,1376,1376,1376,1370,1370,1370,1370,1370,1365,1365,1359,1359,1354,1354,1354,1354,1349,1349,1349,1349,1343,1343,1338,1338,1333,1333,1333,1328,1328,1328,1328,1322,1322,1322,1322,1317,1317,1317,1312,1312,1312,1312,1312,1312,1307,1307,1307,1302,1302,1297,1292,1292,1292,1292,1288,1288,1288,1288,1288,1288,1288,1288,1288,1149,1153,1153,1149,1145,1141,1138,1134,1130,1126,1123,1119,1119,1115,1115,1108,1108,1105,1101,1097,1097,1101,1101,1105,1101,1101,1097,1094,1094,1094,1090,1090,1090,1090,1090,1090,1094,1094,1094,1105,1108,1108,1108,1108,1108,1108,1105,1101,1101,1097,1097,1094,1090,915,915,918,918,918,918,918,920,920,920,0,0,0,0,0,0,0,0,0,0,0,0,0,0,0,0,0,0,0,0,0,0,0,0,0,0,0,0,0,0,0,0,0,0,0
0,0,0,0,0,0,0,0,0,0,1496,1496,1496,1496,1496,1496,1489,1489,1489,1489,1483,1483,0,0,0,0,0,887,887,887,887,885,882,882,878,878,878,878,878,878,878,878,880,882,885,885,887,889,889,891,891,891,891,894,894,894,0,0,0,0,0,0,1509,1509,1509,1509,1509,1509,1509,1509,1509,1509,1509,1509,1509,1509,1509,1509,1509,1509,1503,1503,1509,1509,1509,1503,1503,1503,1509,1509,1509,1509,1509,1509,1509,1509,1509,1509,1509,1509,1503,1503,1503,1489,1489,1489,1489,1489,1489,746,746,742,741,739,738,738,736,736,734,734,733,731,730,728,727,725,725,723,723,722,717,716,716,714,714,713,713,711,710,708,706,703,703,700,698,697,696,694,693,691,691,690,688,687,686,684,684,682,682,678,676,676,675,675,675,674,671,671,659,657,657,657,655,654,631,631,631,631,631,631,631,631,631,632,636,636,637,637,644,646,647,648,649,650,653,654,655,657,659,659,662,663,666,675,676,679,679,680,683,686,688,690,691,693,694,694,697,700,701,704,707,708,710,711,714,716,717,719,722,723,727,730,731,731,733,734,736,738,739,739,741,0,0,741,0,0,0,1516,0,1516,1516,1516,1516,1516,1516,1516,1523,1523,1523,1523,1523,1523,1523,1516,1516,1523,1516,1516,1516,1516,1516,1523,1516,1516,1523,1523,1523,1523,1523,1523,1516,1516,1516,1516,1516,1516,1516,1516,1516,1516,1516,1516,1516,1516,1516,1516,1516,1516,1516,1516,1523,1523,1523,1529,1523,1516,1516,1516,1516,1516,1516,1516,1516,1516,1516,1516,0,1010,1010,1010,1007,1007,1007,1007,1004,1004,1001,1001,998,998,998,998,998,998,998,998,1001,1004,1010,1013,1013,1016,1016,1016,1016,0,0,0,1516,1516,1516,1516,1516,1516,1516,1516,1523,1523,1523,1523,1523,1523,1523,1516,1516,1516,1516,1516,1516,1516,1516,1516,1523,1523,1523,1523,1523,1523,1523,1523,1523,1523,1523,1523,1523,1523,1523,1516,1516,1516,1516,1516,1516,1516,1516,1516,1516,1516,1516,1516,1509,1509,1509,1509,1503,1503,1503,1503,1496,1496,1496,1496,1496,1496,1489,1489,1489,1489,1477,1477,1477,1470,1470,1470,1470,1470,1470,1470,1470,1470,1464,1464,1458,1452,1452,1445,1445,1445,1445,1445,1445,1445,1439,1439,1439,1439,1439,1433,1427,1427,1421,1421,1421,1421,1421,1421,1415,1415,1415,1415,1415,1410,1410,1410,1404,1398,1398,1398,1398,1398,1392,1392,1392,1392,1392,1392,1387,1387,1387,1376,1376,1376,1370,1370,1370,1370,1370,1370,1365,1359,1359,1359,1354,1354,1354,1349,1349,1349,1349,1343,1343,1343,1338,1338,1333,1333,1328,1328,1328,1322,1322,1322,1322,1322,1317,1317,1317,1312,1312,1312,1312,1312,1312,1307,1307,1307,1302,1302,1297,1292,1292,1292,1292,1288,1288,1288,1288,1288,1288,1288,1288,1149,1149,1149,1149,1149,1145,1141,1138,1134,1123,1123,1123,1119,1115,1115,1112,1108,1105,1101,1101,1097,1097,1101,1101,1101,1101,1097,1097,1094,1094,1090,1090,1090,1090,1090,1090,1094,1094,1097,1105,1108,1108,1108,1108,1108,1108,1108,1105,1101,1101,1097,1097,1094,1094,915,915,918,918,918,918,918,920,920,920,0,0,0,0,0,0,0,0,0,0,0,0,0,0,0,0,0,0,0,0,0,0,0,0,0,0,0,0,0,0,0,0,0,0,0
0,0,0,0,0,0,0,0,0,0,1496,1496,1496,1496,1496,1496,1489,1489,1483,1483,1477,1477,1483,1483,0,0,0,889,889,889,889,885,885,882,880,880,878,878,878,878,878,878,880,880,882,885,887,889,891,891,891,891,894,894,896,896,0,0,0,0,0,0,1509,1503,1503,1503,1503,1503,1503,1503,1503,1509,1509,1509,1509,1503,1503,1503,1503,1503,1503,1503,1503,1503,1503,1503,1503,1503,1503,1509,1503,1503,1503,1503,1503,1509,1503,1503,1503,1503,1503,1496,1496,1489,1489,1489,1489,1489,1489,1483,1483,739,739,739,739,738,738,736,736,734,733,731,730,728,727,725,725,723,723,722,717,716,716,714,714,713,713,711,710,708,708,704,704,701,700,697,697,694,693,693,691,691,688,687,686,684,684,682,682,679,678,676,676,675,675,674,671,661,659,657,657,657,655,654,654,631,631,631,631,631,631,631,631,636,643,643,643,644,646,647,647,649,650,653,654,655,657,658,659,661,663,664,666,674,676,679,680,682,684,686,688,690,691,693,694,696,697,700,703,706,708,708,710,713,714,717,717,720,722,723,727,728,731,733,734,734,736,738,739,739,741,741,0,0,0,0,0,0,1516,1516,1516,1516,1516,1516,1516,1516,1516,1516,1516,1516,1523,1516,1516,1516,1516,1516,1516,1516,1516,1516,1516,1516,1516,1516,1516,1516,1516,1516,1516,1516,1516,1516,1516,1516,1516,1509,1509,1509,1509,1509,1509,1516,1516,1516,1516,1516,1516,1516,1516,1516,1516,1509,1509,1516,1516,1516,1509,1509,1509,1516,1509,1509,1509,1509,1509,0,0,0,1010,1010,1007,1007,1007,1007,1004,1004,1004,1001,1001,1001,1001,1001,1001,998,998,1001,1001,1007,1010,1013,1013,1016,1016,1016,1016,0,0,0,1516,1516,1516,1516,1516,1516,1516,1516,1516,1516,1516,1516,1516,1516,1516,1516,1516,1516,1509,1509,1509,1509,1509,1509,1509,1509,1509,1516,1516,1516,1516,1516,1523,1523,1516,1516,1516,1516,1516,1516,1516,1516,1516,1516,1516,1516,1509,1509,1509,1509,1509,1509,1509,1509,1509,1509,1503,1503,1503,1496,1496,1496,1496,1496,1496,1496,1489,1489,1489,1489,1483,1477,1477,1477,1470,1470,1470,1470,1470,1470,1470,1470,1464,1464,1458,1452,1452,1445,1445,1445,1445,1445,1445,1445,1439,1439,1439,1439,1439,1433,1433,1427,1427,1427,1421,1421,1421,1421,1415,1415,1415,1415,1415,1410,1410,1410,1404,1398,1398,1398,1398,1398,1392,1392,1392,1392,1392,1392,1387,1387,1387,1376,1376,1376,1370,1370,1370,1370,1370,1370,1365,1365,1365,1359,1359,1359,1354,1354,1349,1349,1349,1343,1343,1343,1338,1338,1333,1333,1328,1328,1328,1322,1322,1322,1322,1322,1317,1317,1317,1317,1312,1312,1312,1312,1312,1312,1307,1307,1307,1302,1297,1297,1292,1292,1292,1292,1292,1292,1288,1288,1288,1292,1292,1153,1145,1145,1145,1141,1141,1138,1134,1130,1123,1123,1119,1115,1115,1112,1108,1108,1105,1101,1101,1097,1097,1101,1101,1101,1101,1097,1094,1094,1090,1090,1090,1090,1090,1090,1090,1094,1097,1108,1108,1108,1108,1108,1108,1108,1108,1105,1105,1101,1101,1101,1090,1090,915,915,915,918,920,920,920,920,920,920,920,0,0,0,0,0,0,0,0,0,0,0,0,0,0,0,0,0,0,0,0,0,0,0,0,0,0,0,0,0,0,0,0,0,0,0
0,0,0,0,0,0,0,0,0,0,1489,1489,1496,1496,1489,1489,1483,1483,1477,1477,1470,1470,1470,0,0,0,0,891,889,889,889,887,887,885,885,882,880,878,878,878,878,880,880,880,882,885,887,889,891,894,894,894,894,896,896,896,901,0,0,0,0,0,1509,1503,1503,1496,1496,1496,1496,1496,1496,1503,1503,1503,1503,1503,1503,1503,1496,1496,1496,1496,1496,1496,1503,1496,1496,1496,1503,1503,1503,1496,1496,1489,1489,1496,1496,1496,1496,1496,1496,1496,1489,1489,1489,1489,1489,1489,1489,1483,1483,1470,739,739,739,738,738,736,736,734,733,731,730,728,727,727,725,723,723,722,717,716,716,714,714,714,713,711,710,708,708,707,707,704,703,697,697,696,694,694,693,691,690,688,687,684,683,682,682,679,678,676,676,675,675,675,672,661,659,658,657,657,655,655,654,653,653,631,631,631,631,647,644,643,643,643,643,644,646,648,648,650,652,653,654,655,657,658,661,661,663,664,666,674,676,680,680,683,684,686,688,690,691,693,694,697,698,700,703,706,708,708,710,713,716,717,719,720,722,723,725,728,730,731,733,734,738,738,739,0,0,0,0,0,0,0,1509,1509,1509,1509,1509,1509,1509,1509,1509,1509,1509,1509,1509,1516,1516,1516,1516,1516,1516,1516,1516,1516,1516,1516,1516,1516,1509,1509,1509,1509,1509,1509,1509,1509,1509,1509,1509,1509,1509,1509,1509,1509,1509,1509,1509,1509,1509,1509,1509,1509,1509,1509,1509,1509,1509,1503,1503,1503,1509,1509,1509,1509,1509,1509,1509,1509,1503,1503,1509,1509,0,1010,1010,1010,1010,1010,1010,1007,1007,1004,1004,1001,1001,1001,1001,1001,1001,1001,1001,1001,1004,1007,1010,1013,1016,1016,1016,1016,1016,0,0,0,1509,1509,1509,1509,1509,1509,1509,1509,1509,1509,1509,1516,1516,1516,1516,1509,1509,1509,1509,1509,1509,1509,1509,1503,1503,1509,1509,1509,1509,1509,1516,1516,1516,1516,1516,1516,1516,1509,1509,1509,1509,1509,1509,1509,1509,1509,1509,1509,1503,1503,1509,1509,1503,1503,1503,1503,1496,1496,1496,1496,1496,1496,1496,1496,1496,1489,1489,1489,1489,1489,1483,1477,1477,1477,1477,1470,1470,1470,1470,1470,1470,1470,1464,1464,1458,1452,1445,1445,1445,1445,1445,1445,1445,1445,1445,1439,1439,1439,1439,1433,1433,1433,1427,1427,1421,1421,1421,1421,1415,1415,1415,1415,1415,1415,1410,1410,1404,1398,1398,1398,1398,1398,1392,1392,1392,1392,1392,1392,1387,1387,1387,1376,1376,1376,1370,1370,1370,1370,1370,1370,1365,1365,1365,1359,1359,1354,1354,1354,1349,1349,1349,1349,1343,1343,1343,1338,1333,1333,1333,1333,1328,1328,1328,1322,1322,1322,1317,1317,1317,1317,1312,1312,1312,1312,1312,1312,1307,1307,1307,1302,1302,1297,1292,1292,1292,1292,1292,1292,1288,1288,1288,1292,1153,1153,1145,1145,1145,1141,1138,1138,1134,1126,1119,1119,1119,1115,1112,1108,1108,1105,1105,1101,1101,1097,1097,1101,1101,1101,1101,1094,1094,1094,1090,1090,1090,1087,1087,1087,1090,1119,1119,1112,1112,1112,1108,1108,1108,1108,1108,1105,1105,1101,1101,1101,1090,1090,915,915,918,920,920,923,923,923,923,923,923,0,0,0,0,0,0,0,0,0,0,0,0,0,0,0,0,0,0,0,0,0,0,0,0,0,0,0,0,0,0,0,0,0,0,0
0,0,0,0,0,0,0,0,0,0,1483,1483,1489,1489,1489,1489,1483,1477,1477,1470,1470,1458,1458,0,0,0,891,891,891,889,889,889,887,887,885,885,882,882,880,878,878,880,880,880,882,885,887,889,891,894,894,894,894,896,896,896,901,0,0,0,0,0,0,1496,1489,1489,1489,1489,1489,1489,1496,1503,1503,1496,1496,1496,1496,1496,1489,1489,1489,1489,1489,1496,1496,1496,1496,1496,1496,1496,1496,1489,1489,1489,1489,1489,1489,1489,1489,1489,1489,1489,1489,1489,1489,1489,1483,1483,1483,1483,1477,1464,1464,739,739,738,738,736,736,734,733,731,730,728,727,727,725,723,723,722,717,716,716,716,714,714,714,711,710,710,708,708,708,704,703,698,698,697,696,696,694,693,691,688,687,684,683,682,682,680,678,678,676,676,675,675,674,674,659,658,657,657,655,655,654,653,652,650,649,648,648,647,646,644,644,644,644,644,646,648,649,650,652,653,654,655,657,659,661,662,663,664,666,674,679,680,682,683,684,687,688,690,693,694,696,697,698,701,704,706,708,710,711,714,716,719,719,720,722,723,725,727,728,728,733,734,738,0,0,0,0,0,0,1496,1496,1496,1503,1509,1509,1509,1509,1509,1509,1509,1503,1503,1503,1503,1509,1509,1509,1509,1509,1509,1509,1509,1509,1509,1509,1509,1509,1509,1509,1503,1503,1503,1503,1503,1503,1503,1503,1503,1503,1503,1503,1503,1503,1503,1503,1503,1503,1509,1509,1509,1503,1503,1503,1503,1503,1503,1503,1503,1496,1496,1496,1503,1503,1503,1503,1503,1503,1503,1489,1489,1489,1489,0,1010,1010,1010,1010,1010,1010,1010,1010,1007,1004,1004,1001,1001,1001,1001,1001,1001,1001,1004,1004,1007,1010,1013,1016,1016,1016,1016,1016,1016,0,1509,1509,1509,1509,1509,1509,1509,1509,1509,1509,1509,1509,1509,1509,1509,1509,1503,1503,1503,1503,1503,1503,1503,1503,1503,1503,1503,1503,1503,1503,1503,1509,1509,1509,1503,1503,1509,1509,1503,1503,1503,1503,1509,1509,1509,1509,1503,1503,1503,1503,1503,1503,1503,1503,1503,1503,1496,1496,1496,1496,1496,1496,1489,1489,1489,1489,1489,1489,1489,1489,1489,1483,1477,1477,1477,1477,1470,1470,1470,1470,1470,1470,1470,1464,1464,1458,1452,1445,1445,1445,1445,1445,1445,1445,1445,1445,1439,1439,1439,1439,1433,1433,1433,1427,1427,1421,1421,1421,1421,1415,1415,1415,1415,1415,1410,1410,1410,1404,1398,1398,1398,1398,1398,1392,1392,1392,1392,1392,1392,1387,1387,1387,1376,1376,1376,1370,1370,1370,1370,1370,1370,1370,1365,1365,1359,1359,1354,1354,1354,1349,1349,1349,1349,1343,1343,1343,1338,1333,1333,1333,1333,1333,1328,1328,1322,1322,1322,1317,1317,1317,1317,1312,1312,1312,1312,1312,1312,1307,1307,1307,1302,1302,1302,1292,1292,1292,1292,1292,1292,1292,1288,1288,1157,1153,1153,1149,1145,1145,1141,1138,1134,1130,1123,1119,1119,1115,1112,1108,1108,1105,1105,1101,1101,1101,1097,1097,1101,1101,1101,1097,1094,1094,1090,1090,1090,1090,1087,1087,1087,1130,1119,1119,1115,1112,1112,1108,1108,1108,1105,1105,1105,1105,1105,1105,928,918,918,918,918,918,920,923,923,923,923,925,925,925,0,0,0,0,0,0,0,0,0,0,0,0,0,0,0,0,0,0,0,0,0,0,0,0,0,0,0,0,0,0,0,0,0,0,0
0,0,0,0,0,0,0,0,0,0,1477,1477,1489,1489,1483,1483,1477,1470,1464,1464,1464,1458,1458,0,0,0,0,891,891,891,891,889,887,887,885,885,882,882,880,880,880,880,880,882,885,885,887,889,894,894,894,896,896,896,898,898,901,901,0,0,0,0,0,1489,1489,1489,1489,1489,1489,1489,1489,1496,1496,1496,1489,1489,1489,1489,1489,1483,1483,1489,1489,1489,1489,1489,1489,1489,1489,1489,1489,1489,1489,1483,1483,1489,1489,1489,1489,1489,1489,1489,1489,1489,1489,1489,1483,1483,1483,1483,1477,1464,1464,1464,739,738,738,738,736,734,733,731,730,728,727,725,723,723,722,722,719,717,716,716,716,714,714,713,710,708,708,708,707,706,704,703,701,698,697,697,697,696,693,690,687,686,684,683,682,680,679,678,676,676,676,675,675,675,659,659,658,658,657,655,654,653,652,650,649,648,648,648,646,646,646,646,646,646,647,648,649,650,652,653,654,655,657,659,662,663,664,664,666,674,679,680,682,683,684,687,688,691,693,694,696,698,700,703,704,706,708,710,711,714,716,719,720,720,722,723,723,727,728,728,733,0,0,0,0,0,0,0,0,1489,1489,1489,1489,1503,1503,1503,1503,1503,1503,1503,1496,1496,1496,1496,1496,1496,1496,1503,1503,1503,1509,1503,1503,1503,1503,1503,1503,1503,1496,1496,1496,1496,1496,1496,1496,1496,1496,1496,1496,1503,1503,1503,1503,1503,1503,1503,1503,1503,1503,1503,1503,1503,1496,1496,1496,1496,1496,1496,1489,1489,1496,1496,1496,1496,1496,1496,1489,1489,1483,1483,1483,0,0,0,1010,1010,1013,1013,1013,1013,1010,1010,1007,1004,1004,1004,1001,1001,1001,1001,1001,1004,1004,1007,1010,1013,1016,1016,1016,1016,1016,1016,0,1516,1516,1509,1503,1503,1496,1496,1503,1496,1496,1496,1496,1503,1503,1503,1503,1503,1503,1503,1496,1496,1496,1496,1496,1496,1496,1496,1496,1496,1496,1503,1503,1503,1503,1503,1503,1496,1496,1496,1496,1496,1496,1503,1503,1503,1503,1503,1503,1496,1496,1496,1496,1496,1496,1496,1496,1496,1496,1496,1496,1489,1489,1489,1489,1489,1489,1489,1489,1489,1489,1483,1483,1477,1477,1477,1477,1470,1470,1470,1470,1470,1470,1470,1464,1464,1464,1452,1452,1445,1445,1445,1445,1445,1445,1445,1445,1439,1439,1439,1439,1433,1433,1433,1427,1427,1421,1421,1421,1421,1415,1415,1415,1415,1415,1410,1410,1410,1404,1398,1398,1398,1398,1398,1392,1392,1392,1392,1392,1392,1392,1387,1387,1381,1376,1376,1370,1370,1370,1370,1370,1370,1370,1370,1365,1365,1359,1354,1354,1354,1354,1349,1349,1349,1343,1343,1343,1338,1338,1333,1333,1333,1333,1328,1328,1328,1328,1322,1322,1317,1317,1317,1312,1312,1312,1312,1312,1312,1312,1307,1307,1302,1302,1297,1292,1292,1292,1292,1292,1292,1292,1292,1292,1153,1153,1149,1145,1145,1141,1138,1138,1134,1130,1119,1119,1115,1115,1112,1108,1108,1105,1105,1101,1101,1097,1097,1097,1097,1097,1097,1097,1094,1090,1090,1090,1090,1090,1087,1087,1138,1130,1123,1119,1115,1112,1108,1108,1108,1108,1105,1105,1108,1108,1108,928,928,928,923,923,920,920,920,923,925,925,925,925,925,925,0,0,0,0,0,0,0,0,0,0,0,0,0,0,0,0,0,0,0,0,0,0,0,0,0,0,0,0,0,0,0,0,0,0,0
0,0,0,0,0,0,0,0,0,0,1458,1458,1464,1477,1477,1477,1470,1464,1464,1458,1458,1458,1458,1470,0,0,0,891,891,891,891,891,889,887,887,885,885,882,882,882,882,880,880,882,885,885,887,889,894,896,896,896,898,898,901,901,901,901,0,0,0,0,0,1489,1483,1483,1483,1483,1483,1483,1483,1483,1483,1483,1483,1483,1483,1483,1483,1483,1483,1483,1483,1483,1483,1489,1489,1489,1489,1489,1489,1489,1489,1483,1483,1483,1483,1483,1483,1477,1477,1483,1483,1483,1483,1483,1483,1483,1483,1483,1477,1464,1464,1464,1464,1458,1458,738,736,734,734,733,730,727,727,725,723,723,722,722,719,717,717,716,716,714,714,713,711,708,708,708,707,706,704,701,701,698,698,698,697,697,694,693,690,688,687,684,683,682,679,679,678,676,676,676,675,675,661,659,659,658,657,657,655,654,652,650,649,649,649,648,647,646,646,646,646,646,647,649,649,650,652,653,655,657,658,661,663,663,664,666,666,674,679,680,682,683,686,687,688,691,693,696,697,698,700,703,704,707,708,710,711,713,716,719,719,720,722,722,723,725,728,728,0,0,0,0,0,0,0,1483,1483,1489,1489,1489,1489,1489,1496,1496,1496,1496,1496,1496,1489,1489,1489,1489,1489,1489,1489,1489,1489,1489,1496,1496,1496,1496,1496,1496,1489,1489,1489,1489,1489,1489,1489,1489,1489,1489,1489,1489,1489,1496,1496,1496,1496,1496,1496,1496,1496,1496,1496,1496,1496,1496,1489,1489,1489,1489,1489,1489,1489,1489,1489,1489,1489,1489,1489,1489,1483,1483,1483,1477,1477,1477,1470,0,1013,1013,1013,1013,1013,1013,1010,1010,1007,1007,1004,1004,1004,1004,1004,1004,1004,1004,1004,1007,1010,1013,1016,1016,1016,1016,1016,0,0,1496,1496,1496,1496,1496,1496,1496,1496,1489,1489,1489,1489,1496,1496,1496,1496,1496,1496,1496,1496,1496,1496,1496,1496,1496,1496,1496,1489,1489,1496,1496,1496,1496,1489,1489,1489,1489,1489,1489,1489,1489,1489,1496,1496,1496,1496,1496,1496,1496,1496,1496,1496,1496,1496,1496,1489,1489,1489,1489,1489,1489,1489,1489,1489,1489,1489,1489,1489,1489,1483,1483,1483,1477,1477,1477,1477,1470,1470,1470,1470,1470,1470,1470,1464,1464,1464,1458,1452,1452,1445,1445,1445,1445,1445,1445,1445,1439,1439,1439,1439,1439,1433,1433,1427,1427,1421,1421,1421,1421,1415,1415,1415,1415,1415,1415,1410,1410,1404,1404,1398,1398,1398,1398,1398,1392,1392,1392,1392,1392,1392,1387,1387,1381,1376,1376,1376,1376,1370,1370,1370,1370,1370,1370,1365,1365,1359,1359,1354,1354,1354,1349,1349,1349,1343,1343,1343,1338,1338,1333,1333,1333,1333,1333,1328,1328,1328,1322,1322,1317,1317,1317,1312,1312,1312,1312,1312,1312,1312,1307,1307,1302,1302,1297,1297,1297,1292,1292,1292,1292,1292,1292,1157,1153,1153,1149,1145,1141,1141,1138,1134,1130,1126,1119,1119,1115,1115,1112,1108,1105,1105,1101,1101,1101,1097,1094,1094,1094,1094,1094,1094,1090,1090,1090,1090,1087,1087,1087,1087,1134,1123,1119,1115,1115,1112,1108,1108,1108,1105,1105,1101,1101,1101,1094,928,928,928,925,923,923,923,923,925,925,925,925,925,925,925,0,0,0,0,0,0,0,0,0,0,0,0,0,0,0,0,0,0,0,0,0,0,0,0,0,0,0,0,0,0,0,0,0,0,0
0,0,0,0,0,0,0,0,0,0,1458,1458,1458,1464,1470,1464,1464,1458,1458,1458,1458,1458,1458,1458,1458,0,0,0,894,894,891,891,889,889,887,887,885,885,882,882,882,880,880,882,882,885,885,889,894,896,896,898,898,901,901,901,901,903,906,0,0,0,0,1489,1470,1470,1483,1483,1483,1477,1477,1477,1477,1477,1477,1470,1470,1477,1477,1477,1477,1477,1477,1483,1483,1483,1483,1483,1483,1483,1483,1483,1483,1477,1477,1477,1483,1477,1477,1470,1470,1477,1477,1483,1483,1477,1477,1477,1477,1477,1470,1470,1470,1464,1458,1458,1458,1458,1458,1458,1458,1464,1464,727,727,725,723,722,722,720,719,717,717,716,716,714,714,713,711,710,708,708,708,706,704,701,701,700,700,698,697,697,697,694,694,694,691,687,684,683,679,679,679,678,676,676,675,675,661,659,659,659,658,657,655,654,653,650,650,649,649,648,647,646,646,646,646,646,648,649,649,650,652,653,657,658,659,661,663,664,664,666,666,671,679,680,683,684,686,687,688,691,693,696,697,698,700,703,704,707,708,710,711,713,716,717,719,720,722,722,723,725,0,0,0,0,0,0,0,0,1483,1483,1483,1483,1483,1483,1483,1489,1489,1489,1489,1489,1489,1489,1489,1489,1489,1483,1483,1489,1489,1489,1489,1489,1489,1489,1489,1489,1489,1489,1489,1489,1489,1489,1489,1489,1489,1489,1489,1489,1489,1489,1489,1489,1489,1489,1496,1496,1496,1496,1496,1496,1496,1489,1489,1489,1489,1483,1483,1483,1483,1483,1483,1483,1483,1489,1483,1483,1483,1483,1483,1477,1477,1470,1470,1470,1470,0,1013,1013,1013,1013,1013,1013,1013,1013,1007,1007,1004,1004,1004,1004,1004,1004,1004,1004,1004,1007,1010,1013,1016,1016,1016,1016,1016,0,1489,1496,1496,1496,1489,1489,1489,1489,1489,1489,1489,1489,1489,1489,1489,1489,1489,1489,1489,1489,1489,1489,1489,1489,1489,1489,1489,1489,1489,1489,1489,1489,1489,1489,1489,1489,1489,1489,1489,1489,1489,1489,1489,1489,1489,1489,1489,1489,1489,1489,1489,1489,1489,1489,1489,1489,1489,1489,1489,1489,1489,1489,1489,1489,1489,1489,1489,1483,1483,1483,1483,1483,1477,1477,1477,1477,1477,1470,1470,1470,1470,1470,1470,1470,1464,1464,1464,1464,1452,1452,1445,1445,1445,1445,1445,1445,1445,1445,1439,1439,1439,1439,1433,1433,1427,1427,1427,1421,1421,1421,1415,1415,1415,1415,1415,1415,1410,1410,1404,1404,1398,1398,1398,1398,1398,1392,1392,1392,1392,1392,1392,1387,1381,1381,1376,1376,1376,1376,1370,1370,1370,1370,1370,1370,1365,1365,1359,1359,1359,1354,1354,1354,1349,1349,1349,1349,1343,1343,1338,1333,1333,1333,1333,1333,1333,1333,1328,1328,1322,1322,1317,1317,1312,1312,1312,1312,1312,1312,1312,1307,1307,1307,1302,1302,1297,1297,1297,1292,1292,1292,1161,1161,1153,1153,1149,1145,1141,1138,1138,1134,1134,1130,1126,1119,1115,1115,1112,1108,1108,1105,1105,1101,1101,1101,1097,1094,1094,1094,1094,1094,1094,1090,1087,1087,1087,1087,1087,1090,1134,1134,1123,1119,1115,1112,1112,1108,1105,1105,1105,1101,1097,1094,1094,1094,928,928,928,925,925,925,925,925,925,925,925,925,925,925,925,0,0,0,0,0,0,0,0,0,0,0,0,0,0,0,0,0,0,0,0,0,0,0,0,0,0,0,0,0,0,0,0,0,0,0
0,0,0,0,0,0,0,0,0,0,1452,1452,1458,1458,1464,1458,1458,1458,1458,1452,1452,1452,1458,1458,1464,0,0,0,894,894,894,894,891,889,889,887,887,885,882,882,882,882,882,882,882,885,885,889,894,896,898,901,901,903,903,903,903,903,906,908,0,0,0,0,1470,1470,1470,1470,1470,1470,1470,1470,1470,1470,1470,1470,1470,1477,1477,1470,1470,1477,1477,1477,1477,1477,1477,1477,1477,1477,1477,1477,1477,1477,1477,1477,1477,1470,1470,1470,1470,1470,1470,1470,1477,1470,1470,1470,1470,1470,1464,1464,1464,1464,1458,1458,1458,1458,1458,1458,1458,1458,1464,1464,1464,725,723,722,722,720,719,717,717,716,716,714,714,713,711,710,708,708,708,706,704,703,703,701,700,698,698,698,697,696,696,696,694,688,687,684,683,680,679,679,678,676,676,676,661,661,659,659,658,658,657,655,654,652,650,650,649,649,648,647,647,647,646,646,648,649,650,650,652,654,658,658,661,662,663,664,666,666,667,671,679,680,684,684,686,687,690,693,694,696,697,698,700,703,704,707,708,710,711,711,716,717,719,720,722,723,725,0,0,0,0,0,0,0,0,1477,1477,1483,1483,1483,1477,1477,1483,1483,1483,1483,1483,1483,1483,1483,1483,1483,1483,1483,1483,1483,1483,1483,1483,1483,1483,1483,1483,1483,1483,1483,1483,1483,1483,1483,1483,1489,1489,1483,1483,1483,1483,1483,1483,1489,1489,1489,1489,1489,1489,1489,1489,1489,1489,1483,1483,1483,1483,1483,1483,1483,1483,1483,1483,1483,1483,1483,1483,1483,1477,1477,1477,1477,1477,1470,1470,1470,1470,0,1013,1013,1013,1013,1013,1013,1013,1013,1010,1007,1007,1004,1004,1004,1004,1004,1004,1004,1007,1007,1010,1016,1016,1019,1019,1019,1019,0,1489,1489,1489,1489,1489,1489,1489,1483,1483,1483,1483,1483,1483,1477,1477,1483,1483,1489,1489,1483,1483,1483,1483,1483,1483,1483,1489,1489,1483,1483,1483,1483,1483,1483,1483,1483,1483,1483,1483,1483,1483,1483,1483,1483,1483,1483,1483,1483,1477,1477,1489,1489,1489,1489,1489,1489,1483,1483,1483,1483,1483,1483,1483,1483,1483,1483,1483,1483,1483,1483,1477,1477,1477,1477,1477,1477,1470,1470,1470,1470,1470,1470,1470,1470,1464,1464,1464,1464,1464,1452,1445,1445,1445,1445,1445,1445,1445,1445,1445,1439,1439,1439,1439,1433,1433,1427,1427,1421,1421,1421,1421,1421,1415,1415,1415,1415,1415,1410,1410,1404,1404,1398,1398,1398,1398,1398,1392,1392,1392,1392,1392,1387,1381,1376,1376,1376,1376,1376,1370,1370,1370,1370,1370,1370,1365,1365,1359,1359,1359,1354,1354,1354,1354,1349,1349,1349,1343,1343,1338,1338,1338,1333,1333,1333,1333,1333,1328,1328,1322,1322,1317,1317,1312,1312,1312,1312,1312,1312,1312,1312,1307,1307,1302,1302,1297,1297,1297,1297,1165,1161,1161,1161,1153,1153,1149,1145,1141,1138,1138,1134,1130,1126,1119,1119,1115,1112,1112,1108,1108,1105,1105,1101,1101,1101,1097,1097,1094,1094,1094,1094,1090,1090,1087,1087,1087,1087,1087,1138,1134,1123,1119,1115,1112,1112,1108,1108,1105,1105,1105,1101,1097,1094,1094,933,933,930,930,928,928,928,928,928,928,925,925,925,928,928,928,0,0,0,0,0,0,0,0,0,0,0,0,0,0,0,0,0,0,0,0,0,0,0,0,0,0,0,0,0,0,0,0,0,0,0
0,0,0,0,0,0,0,0,0,0,1452,1452,1452,1452,1452,1452,1458,1458,1452,1452,1452,1452,1458,1458,1464,0,0,0,896,896,894,894,894,891,891,887,887,885,885,885,882,882,882,882,885,887,887,889,894,896,898,901,901,903,903,903,903,906,908,908,0,0,0,0,0,1477,1470,1470,1470,1464,1464,1464,1464,1464,1464,1464,1464,1464,1470,1470,1470,1470,1470,1470,1470,1470,1470,1470,1464,1464,1470,1470,1470,1470,1470,1470,1470,1470,1470,1464,1464,1464,1464,1470,1470,1470,1470,1470,1470,1470,1464,1464,1464,1464,1464,1458,1458,1458,1458,1458,1458,1458,1458,1458,1458,1452,723,722,722,720,719,719,717,717,716,714,714,713,711,710,708,708,707,706,704,704,703,703,701,700,698,698,697,696,696,696,694,691,688,687,684,682,680,680,679,678,678,678,678,661,661,659,659,658,657,655,654,653,652,650,650,649,648,648,647,647,646,646,648,649,650,650,652,654,658,658,661,663,664,664,666,666,667,671,680,682,684,686,687,688,690,693,696,697,698,700,701,703,706,707,708,710,710,710,716,719,720,722,722,723,0,0,0,0,0,0,0,0,0,1477,1477,1477,1477,1477,1477,1477,1477,1477,1477,1477,1477,1477,1477,1477,1477,1477,1477,1477,1477,1483,1483,1483,1483,1483,1483,1483,1477,1477,1477,1477,1477,1477,1477,1477,1477,1483,1483,1483,1483,1483,1483,1483,1483,1483,1483,1483,1483,1483,1483,1483,1483,1483,1483,1477,1477,1477,1477,1477,1477,1477,1477,1477,1477,1477,1477,1477,1477,1477,1477,1477,1470,1470,1470,1470,1470,1470,1470,1464,1013,1013,1013,1013,1013,1016,1016,1013,1010,1010,1007,1007,1004,1004,1004,1004,1004,1004,1007,1007,1010,1016,1019,1019,1022,1022,1025,0,1489,1489,1483,1483,1483,1483,1483,1477,1477,1477,1477,1477,1477,1477,1477,1477,1477,1483,1483,1483,1483,1483,1483,1477,1477,1477,1477,1477,1477,1477,1477,1477,1477,1477,1477,1477,1477,1477,1477,1477,1477,1477,1477,1477,1477,1477,1477,1477,1470,1470,1470,1470,1477,1483,1483,1483,1483,1483,1477,1477,1477,1477,1477,1477,1477,1477,1483,1477,1477,1477,1477,1477,1477,1470,1470,1470,1470,1470,1470,1470,1470,1470,1470,1470,1470,1464,1464,1464,1458,1452,1445,1445,1445,1445,1445,1445,1445,1445,1445,1445,1439,1439,1439,1433,1433,1433,1427,1427,1421,1421,1421,1421,1415,1415,1415,1415,1415,1410,1410,1410,1404,1404,1398,1398,1398,1398,1392,1392,1392,1392,1392,1387,1381,1376,1376,1376,1376,1376,1376,1370,1370,1370,1370,1370,1365,1365,1359,1359,1359,1354,1354,1354,1354,1349,1349,1349,1343,1343,1338,1338,1338,1338,1338,1333,1333,1333,1328,1328,1328,1322,1322,1317,1317,1312,1312,1312,1312,1312,1312,1312,1307,1307,1302,1302,1297,1297,1297,1297,1161,1161,1161,1161,1153,1149,1149,1145,1138,1138,1138,1134,1130,1126,1119,1115,1112,1112,1108,1108,1105,1105,1101,1101,1101,1097,1097,1097,1094,1094,1094,1090,1090,1090,1153,1153,1149,1141,1138,1138,1134,1119,1115,1112,1112,1108,1108,1105,1105,1105,1105,1101,1101,930,930,930,930,933,933,930,928,928,928,928,928,925,925,928,928,928,928,0,0,0,0,0,0,0,0,0,0,0,0,0,0,0,0,0,0,0,0,0,0,0,0,0,0,0,0,0,0,0,0,0,0,0
0,0,0,0,0,0,0,0,0,0,1452,1452,1452,1452,1445,1445,1452,1452,1452,1452,1452,1458,1458,1452,1452,0,0,0,0,896,894,894,894,891,891,887,887,885,885,885,885,882,882,885,885,887,887,889,894,896,898,901,901,903,903,903,903,906,908,910,913,0,0,0,0,1477,1464,1464,1464,1458,1458,1458,1458,1458,1458,1458,1458,1458,1458,1464,1464,1464,1464,1464,1464,1464,1464,1464,1464,1464,1464,1464,1464,1470,1464,1464,1464,1464,1464,1464,1464,1464,1464,1464,1464,1464,1464,1464,1464,1464,1464,1464,1464,1464,1458,1458,1458,1458,1458,1458,1458,1458,1458,1458,1458,1452,1452,1445,722,720,719,719,719,717,716,716,714,713,711,710,708,708,707,706,704,704,704,703,701,700,698,698,697,696,696,696,694,691,690,688,686,682,682,682,679,679,678,678,676,676,661,661,659,658,657,655,654,654,652,652,650,649,648,648,648,647,647,647,648,649,650,652,653,654,658,658,661,663,664,664,666,666,668,671,682,683,684,686,687,688,691,694,696,697,698,700,701,703,706,707,708,710,710,710,716,719,720,722,722,0,0,0,0,0,0,0,0,0,1470,1470,1470,1477,1477,1477,1470,1470,1470,1470,1470,1470,1470,1470,1470,1470,1470,1470,1470,1470,1470,1477,1477,1477,1477,1477,1477,1477,1477,1477,1470,1470,1470,1470,1470,1470,1470,1477,1477,1477,1477,1477,1477,1477,1477,1477,1477,1477,1477,1483,1477,1477,1477,1477,1477,1477,1470,1470,1470,1470,1470,1470,1470,1470,1470,1470,1470,1470,1470,1470,1470,1470,1470,1470,1470,1464,1464,1464,1464,1464,1022,1016,1016,1016,1016,1016,1016,1013,1013,1013,1007,1007,1004,1004,1004,1004,1004,1004,1007,1007,1010,1016,1019,1022,1022,1025,1025,0,1470,1470,1470,1470,1470,1477,1477,1477,1477,1470,1470,1477,1470,1470,1470,1470,1470,1477,1470,1470,1470,1470,1470,1470,1470,1470,1470,1470,1470,1470,1470,1470,1470,1470,1470,1470,1470,1470,1470,1470,1470,1470,1470,1470,1470,1470,1470,1470,1470,1470,1470,1470,1470,1470,1470,1477,1477,1477,1477,1477,1477,1477,1477,1477,1477,1477,1477,1477,1477,1470,1470,1470,1470,1470,1470,1470,1470,1470,1470,1470,1470,1470,1470,1470,1464,1464,1464,1464,1458,1452,1452,1452,1445,1445,1445,1445,1445,1445,1445,1445,1439,1439,1439,1439,1433,1433,1433,1427,1421,1421,1421,1421,1415,1415,1415,1415,1415,1415,1410,1410,1410,1404,1404,1398,1398,1398,1398,1392,1392,1392,1392,1392,1381,1381,1376,1376,1376,1376,1376,1370,1370,1370,1370,1370,1365,1365,1359,1359,1359,1359,1354,1354,1354,1354,1349,1349,1349,1343,1343,1338,1338,1338,1338,1338,1333,1333,1328,1328,1328,1322,1322,1317,1317,1317,1317,1317,1312,1312,1312,1312,1307,1307,1302,1302,1297,1297,1165,1161,1161,1161,1161,1153,1149,1149,1149,1141,1138,1138,1134,1134,1126,1123,1115,1115,1112,1112,1108,1108,1105,1101,1101,1097,1097,1097,1097,1094,1094,1094,1090,1090,1090,1090,1153,1149,1145,1138,1138,1130,1123,1115,1112,1112,1108,1108,1105,1105,1105,1105,1105,1105,933,933,930,930,930,933,933,933,930,930,930,930,928,928,928,928,928,928,928,0,0,0,0,0,0,0,0,0,0,0,0,0,0,0,0,0,0,0,0,0,0,0,0,0,0,0,0,0,0,0,0,0,0,0
0,0,0,0,0,0,0,0,0,0,1452,1452,1452,1452,1445,1445,1445,1445,1445,1445,1445,1445,1445,1452,1452,0,0,0,0,0,896,894,894,894,891,889,889,887,885,885,885,885,885,885,885,887,887,889,894,896,898,901,903,903,903,903,903,906,908,910,913,0,0,0,0,0,1458,1458,1458,1452,1452,1452,1452,1452,1452,1452,1452,1452,1458,1452,1452,1452,1458,1458,1458,1458,1458,1458,1458,1458,1458,1458,1458,1464,1458,1458,1464,1464,1464,1464,1464,1458,1458,1464,1464,1464,1458,1458,1464,1464,1458,1458,1458,1458,1452,1452,1452,1452,1452,1452,1458,1452,1452,1458,1452,1445,1445,1439,1439,720,720,719,719,717,716,716,714,713,711,710,708,708,707,706,706,704,704,703,701,700,698,698,696,696,696,694,694,693,690,688,687,686,684,682,680,679,679,678,676,676,662,662,661,659,658,657,655,654,653,652,650,650,649,648,648,648,647,647,648,649,650,652,653,654,657,658,659,663,664,666,666,667,668,670,670,683,686,686,688,690,691,694,694,697,698,700,703,704,707,707,710,710,711,711,714,716,716,722,0,0,0,0,0,0,0,0,0,1470,1470,1470,1470,1470,1470,1470,1470,1464,1464,1464,1464,1464,1464,1464,1464,1464,1464,1464,1464,1464,1470,1470,1470,1470,1470,1477,1477,1470,1470,1470,1464,1464,1464,1464,1464,1464,1464,1470,1470,1470,1470,1470,1470,1470,1477,1477,1477,1477,1477,1477,1477,1477,1470,1470,1470,1470,1470,1470,1464,1464,1470,1470,1470,1470,1470,1470,1470,1464,1464,1464,1470,1470,1470,1470,1464,1464,1464,1458,1458,1458,1022,1022,1019,1016,1016,1016,1016,1016,1016,1013,1013,1010,1007,1004,1004,1004,1004,1007,1007,1007,1013,1016,1019,1022,1025,1025,1028,0,0,1470,1470,1464,1464,1470,1470,1470,1470,1470,1470,1470,1470,1470,1470,1464,1464,1470,1470,1470,1470,1470,1470,1470,1470,1470,1470,1470,1470,1464,1464,1464,1464,1470,1464,1464,1470,1464,1464,1464,1464,1464,1464,1464,1464,1464,1464,1464,1464,1464,1464,1464,1464,1464,1464,1470,1470,1470,1470,1470,1470,1470,1470,1470,1470,1470,1470,1470,1470,1470,1470,1470,1470,1470,1470,1470,1464,1464,1464,1464,1464,1464,1464,1464,1464,1464,1464,1464,1458,1458,1452,1452,1445,1445,1445,1445,1445,1445,1445,1445,1445,1439,1439,1439,1439,1433,1433,1427,1427,1421,1421,1421,1415,1415,1415,1415,1415,1415,1415,1410,1410,1410,1404,1398,1398,1398,1398,1392,1392,1392,1392,1392,1381,1381,1376,1376,1376,1376,1376,1370,1370,1370,1370,1370,1370,1365,1365,1359,1359,1359,1359,1354,1354,1354,1349,1349,1349,1343,1343,1343,1343,1338,1338,1338,1333,1333,1328,1328,1328,1328,1322,1317,1317,1317,1317,1317,1312,1312,1312,1312,1307,1307,1302,1302,1297,1297,1165,1161,1161,1161,1161,1153,1149,1149,1145,1141,1138,1134,1134,1130,1123,1119,1115,1112,1112,1112,1108,1108,1105,1101,1101,1097,1097,1097,1094,1094,1094,1094,1090,1090,1090,1090,1153,1145,1141,1138,1134,1123,1119,1112,1108,1108,1108,1108,1105,1105,1105,1105,1105,935,935,933,933,933,933,933,933,933,933,930,930,930,930,928,928,928,928,930,930,0,0,0,0,0,0,0,0,0,0,0,0,0,0,0,0,0,0,0,0,0,0,0,0,0,0,0,0,0,0,0,0,0,0,0
0,0,0,0,0,0,0,0,0,0,1445,1445,1439,1439,1439,1439,1439,1439,1439,1439,1439,1439,1439,1445,1452,0,0,0,0,0,896,894,894,894,894,891,889,887,887,885,885,885,885,887,887,887,887,889,894,896,898,901,903,903,903,903,903,906,908,910,913,0,0,0,0,0,1458,1458,1452,1452,1445,1445,1445,1445,1445,1445,1445,1445,1452,1452,1452,1452,1452,1452,1452,1452,1458,1458,1458,1458,1458,1458,1452,1452,1458,1458,1458,1458,1458,1464,1464,1458,1458,1458,1458,1458,1458,1458,1458,1458,1452,1452,1452,1452,1445,1445,1445,1445,1445,1445,1452,1445,1445,1445,1445,1445,1445,1439,1439,1439,1439,1433,1433,717,716,716,714,714,713,710,708,708,707,706,706,704,704,703,703,701,700,698,696,696,694,694,693,693,690,688,686,686,684,682,682,680,680,679,679,666,662,662,661,659,658,657,655,654,653,653,652,650,649,649,648,648,648,648,649,650,650,652,654,654,657,657,659,663,664,666,667,668,670,670,670,684,686,687,688,690,691,693,694,696,697,698,703,704,707,708,710,710,711,711,714,716,716,0,0,0,0,0,0,0,0,0,1458,1458,1464,1464,1464,1464,1464,1464,1464,1464,1464,1458,1458,1458,1458,1458,1464,1464,1464,1464,1464,1464,1464,1464,1464,1464,1464,1464,1464,1464,1464,1464,1464,1464,1464,1458,1458,1458,1464,1464,1464,1464,1464,1464,1464,1464,1464,1464,1464,1464,1470,1470,1464,1464,1464,1464,1464,1464,1464,1464,1464,1464,1464,1464,1464,1464,1464,1464,1464,1464,1464,1464,1464,1464,1464,1464,1458,1458,1458,1458,1458,1458,1022,1022,1022,1019,1019,1019,1016,1016,1016,1013,1013,1010,1010,1007,1007,1007,1007,1007,1010,1010,1013,1016,1019,1025,1025,1028,1028,1028,0,1464,1464,1464,1464,1470,1470,1470,1470,1464,1464,1470,1464,1464,1464,1464,1464,1464,1464,1464,1464,1464,1464,1470,1470,1470,1464,1464,1464,1464,1464,1464,1464,1464,1464,1464,1464,1464,1464,1464,1464,1464,1464,1458,1458,1464,1464,1464,1464,1464,1458,1458,1458,1458,1458,1464,1464,1464,1464,1464,1464,1464,1464,1464,1470,1470,1470,1470,1470,1470,1464,1464,1464,1464,1464,1464,1464,1464,1464,1464,1464,1464,1464,1464,1464,1464,1464,1464,1458,1458,1452,1452,1452,1452,1445,1445,1445,1445,1445,1445,1445,1439,1439,1439,1439,1433,1433,1427,1427,1421,1421,1421,1421,1421,1421,1415,1415,1415,1415,1410,1410,1410,1404,1398,1398,1398,1398,1398,1392,1392,1392,1392,1387,1381,1381,1376,1376,1376,1376,1376,1370,1370,1370,1370,1370,1365,1365,1365,1359,1359,1359,1354,1354,1354,1349,1349,1349,1349,1343,1343,1343,1343,1343,1338,1338,1333,1328,1328,1328,1328,1322,1322,1322,1317,1317,1317,1312,1312,1312,1312,1307,1307,1307,1302,1302,1169,1169,1165,1161,1161,1157,1149,1149,1145,1141,1138,1134,1134,1130,1126,1123,1115,1112,1112,1112,1112,1108,1108,1105,1101,1101,1097,1097,1097,1094,1094,1094,1094,1094,1094,1090,1090,1138,1138,1134,1134,1119,1119,1115,1108,1108,1108,1105,1105,1105,1105,1105,933,933,935,935,935,933,933,933,933,935,933,933,933,930,930,930,928,928,930,930,930,930,0,0,0,0,0,0,0,0,0,0,0,0,0,0,0,0,0,0,0,0,0,0,0,0,0,0,0,0,0,0,0,0,0,0,0
0,0,0,0,0,0,0,0,0,0,1439,1439,1439,1439,1439,1439,1433,1433,1439,1439,1433,1433,1433,1433,1433,0,0,0,0,0,0,896,894,894,894,891,889,889,887,887,885,885,885,887,887,887,887,889,894,896,898,901,903,903,903,903,906,906,908,910,913,913,0,0,0,0,1458,1458,1452,1445,1445,1445,1445,1445,1445,1445,1445,1445,1445,1445,1445,1445,1445,1445,1445,1445,1452,1452,1445,1445,1452,1445,1445,1445,1452,1452,1452,1458,1458,1458,1458,1458,1458,1458,1458,1452,1452,1452,1452,1452,1445,1445,1445,1445,1445,1445,1445,1445,1445,1445,1445,1445,1445,1445,1445,1439,1439,1439,1439,1439,1439,1433,1433,1433,1433,716,716,716,716,710,708,708,707,706,704,704,704,703,703,701,700,698,696,696,694,694,693,693,690,690,686,686,684,683,682,682,680,680,679,666,663,662,661,661,658,657,657,654,654,653,652,650,649,649,649,649,648,648,649,650,652,653,654,654,657,657,659,663,664,666,667,668,670,671,671,684,686,687,688,691,691,693,694,696,697,698,703,704,707,708,708,710,710,711,714,716,0,0,0,0,0,0,1250,1250,1452,1452,1458,1458,1464,1464,1464,1464,1464,1464,1464,1458,1458,1458,1458,1458,1458,1458,1458,1458,1464,1464,1464,1464,1464,1464,1464,1464,1464,1464,1464,1458,1458,1458,1458,1458,1458,1452,1452,1458,1458,1458,1458,1458,1464,1464,1458,1458,1458,1458,1458,1458,1458,1452,1452,1458,1458,1458,1458,1458,1458,1458,1458,1458,1464,1464,1464,1464,1464,1458,1458,1458,1458,1458,1458,1458,1458,1458,1458,1452,1452,1452,1452,1452,1025,1025,1022,1022,1022,1019,1019,1016,1016,1016,1013,1013,1010,1010,1010,1010,1010,1010,1010,1013,1016,1019,1022,1025,1025,1028,1028,1028,0,1452,1452,1452,1452,1458,1464,1464,1464,1464,1464,1464,1464,1464,1458,1458,1458,1458,1458,1458,1458,1458,1464,1464,1464,1464,1464,1464,1464,1464,1464,1464,1464,1464,1458,1458,1458,1458,1458,1458,1452,1452,1452,1452,1452,1452,1452,1458,1458,1452,1452,1452,1452,1452,1452,1452,1458,1458,1458,1458,1458,1458,1458,1458,1458,1458,1458,1464,1464,1464,1464,1464,1464,1464,1464,1464,1464,1464,1464,1464,1458,1458,1458,1458,1458,1458,1458,1458,1458,1452,1452,1452,1445,1445,1445,1445,1445,1445,1445,1445,1445,1439,1439,1439,1439,1433,1433,1433,1427,1427,1427,1421,1421,1421,1421,1421,1415,1415,1415,1415,1410,1410,1404,1404,1398,1398,1398,1398,1392,1392,1392,1392,1392,1381,1381,1376,1376,1376,1376,1376,1370,1370,1370,1370,1370,1365,1365,1365,1359,1359,1359,1359,1354,1354,1354,1349,1349,1349,1343,1343,1343,1343,1343,1338,1333,1333,1328,1328,1328,1328,1328,1322,1322,1322,1322,1317,1317,1312,1312,1312,1307,1307,1307,1307,1307,1169,1169,1165,1161,1157,1153,1149,1145,1141,1141,1138,1134,1130,1126,1123,1119,1115,1112,1112,1112,1108,1108,1105,1105,1101,1101,1097,1097,1094,1094,1094,1094,1094,1094,1094,1094,1094,1097,1108,1108,1123,1115,1112,1112,1105,1105,1105,1105,1105,1105,1105,935,933,933,935,935,935,935,935,935,935,935,935,933,933,933,933,930,930,930,930,933,933,933,935,0,0,0,0,0,0,0,0,0,0,0,0,0,0,0,0,0,0,0,0,0,0,0,0,0,0,0,0,0,0,0,0,0,0
0,0,0,0,0,0,0,0,0,0,1433,1433,1433,1433,1439,1433,1433,1433,1433,1427,1421,1421,1421,1421,1433,0,0,0,0,0,0,896,896,896,894,894,891,891,889,887,887,887,887,887,887,889,889,891,894,896,898,901,903,903,903,903,906,906,908,910,913,913,0,0,0,0,0,1445,1445,1439,1439,1439,1439,1439,1439,1439,1439,1439,1439,1439,1439,1439,1439,1439,1439,1445,1445,1445,1445,1439,1439,1439,1439,1439,1439,1445,1445,1452,1452,1458,1458,1458,1452,1452,1452,1445,1445,1445,1445,1445,1439,1439,1439,1445,1439,1439,1439,1439,1445,1445,1445,1439,1439,1439,1439,1439,1439,1433,1433,1433,1433,1433,1433,1433,1433,1433,1433,716,716,711,710,708,707,706,704,704,704,703,703,701,700,698,696,696,694,693,693,693,691,690,688,686,686,684,683,682,682,680,679,666,663,662,661,661,659,658,655,655,654,654,653,652,650,649,649,649,649,649,650,652,653,654,654,655,655,657,661,664,666,666,667,668,671,671,672,676,687,688,690,691,693,694,696,696,697,698,703,704,707,707,708,710,710,711,711,0,1241,0,0,0,1245,1245,1245,1250,1452,1452,1452,1458,1458,1458,1458,1458,1458,1458,1452,1452,1452,1452,1452,1452,1458,1458,1458,1458,1458,1458,1458,1458,1458,1458,1458,1458,1458,1458,1458,1452,1452,1452,1452,1452,1452,1445,1445,1445,1445,1445,1445,1452,1452,1458,1458,1452,1452,1452,1452,1445,1445,1445,1445,1452,1452,1452,1452,1452,1452,1458,1458,1458,1458,1458,1458,1458,1458,1458,1458,1458,1458,1458,1458,1458,1458,1452,1445,1445,1445,1452,1452,1452,1025,1025,1022,1022,1022,1022,1019,1019,1016,1016,1016,1013,1013,1010,1010,1010,1010,1010,1013,1016,1016,1019,1022,1025,1025,1025,1025,1025,0,1445,1445,1445,1452,1452,1452,1452,1452,1452,1458,1458,1458,1452,1452,1452,1452,1452,1452,1458,1458,1458,1458,1458,1458,1458,1458,1458,1458,1458,1458,1458,1458,1458,1452,1452,1452,1452,1452,1452,1452,1452,1452,1452,1452,1452,1452,1452,1452,1452,1452,1445,1445,1445,1445,1445,1445,1452,1452,1452,1452,1452,1452,1445,1445,1452,1452,1452,1452,1452,1458,1458,1464,1464,1464,1464,1464,1458,1458,1458,1452,1452,1452,1452,1452,1452,1452,1452,1452,1452,1445,1445,1445,1445,1445,1445,1445,1445,1445,1439,1439,1439,1439,1439,1439,1433,1433,1433,1427,1427,1427,1421,1421,1421,1421,1421,1421,1415,1415,1415,1415,1410,1410,1404,1398,1398,1398,1398,1392,1392,1392,1392,1392,1387,1381,1376,1376,1376,1376,1376,1370,1370,1370,1370,1370,1370,1365,1365,1359,1359,1354,1354,1354,1354,1354,1349,1349,1349,1343,1343,1343,1343,1343,1338,1333,1333,1328,1328,1328,1328,1328,1328,1322,1322,1322,1317,1317,1317,1312,1312,1312,1307,1307,1307,1169,1169,1165,1161,1157,1157,1153,1145,1145,1141,1138,1134,1130,1126,1123,1119,1115,1112,1112,1108,1108,1108,1108,1105,1105,1101,1101,1097,1097,1094,1094,1094,1094,1094,1094,1094,1094,1097,1097,1108,1108,1112,1112,1108,1108,1101,1101,1101,1105,1105,1105,1105,935,935,935,935,935,935,935,935,935,935,935,935,935,935,935,933,933,930,930,933,933,933,935,935,0,0,0,0,0,0,0,0,0,0,0,0,0,0,0,0,0,0,0,0,0,0,0,0,0,0,0,0,0,0,0,0,0,0
0,0,0,0,0,0,0,0,0,0,1427,1427,1427,1427,1433,1433,1427,1427,1427,1427,1421,1415,1410,1410,1410,1410,0,0,0,0,0,896,896,896,896,894,894,891,891,889,887,887,887,889,889,889,889,894,896,896,898,901,903,903,903,906,906,908,908,910,910,913,0,0,0,0,0,1433,1433,1433,1433,1433,1433,1433,1433,1439,1439,1433,1433,1433,1433,1439,1439,1439,1439,1439,1439,1445,1439,1439,1439,1433,1433,1433,1433,1439,1439,1439,1445,1452,1452,1452,1445,1445,1445,1439,1439,1439,1439,1439,1439,1439,1439,1439,1439,1439,1439,1439,1439,1439,1439,1439,1439,1439,1433,1433,1433,1433,1433,1427,1427,1433,1433,1427,1427,1433,1433,716,714,711,710,710,707,706,704,704,703,703,701,701,700,697,696,694,694,693,693,693,691,690,688,686,686,684,683,682,682,680,680,668,664,663,662,661,659,658,655,655,654,654,653,652,650,650,650,649,649,650,650,653,653,654,654,655,655,658,662,664,666,667,668,670,671,672,674,676,687,688,690,691,693,694,694,694,696,698,701,704,707,707,708,710,710,0,0,1241,1241,1241,1241,1245,1245,1245,1245,1250,1255,1445,1445,1452,1452,1452,1452,1445,1445,1445,1445,1445,1445,1445,1445,1445,1452,1452,1452,1458,1458,1458,1458,1458,1452,1452,1452,1452,1452,1452,1452,1445,1445,1452,1445,1445,1445,1445,1445,1445,1445,1445,1445,1445,1445,1452,1452,1452,1445,1445,1445,1445,1445,1439,1439,1445,1445,1445,1445,1445,1445,1445,1445,1452,1452,1452,1452,1452,1452,1452,1452,1452,1452,1452,1452,1452,1452,1452,1445,1445,1445,1452,1452,1452,1025,1025,1025,1025,1025,1022,1022,1019,1019,1016,1016,1013,1013,1013,1013,1013,1013,1013,1013,1016,1019,1022,1022,1025,1025,1025,1025,1025,0,1445,1445,1445,1445,1445,1445,1445,1445,1445,1445,1445,1445,1445,1445,1445,1445,1445,1452,1452,1452,1452,1452,1458,1458,1458,1452,1452,1452,1452,1452,1452,1452,1452,1452,1452,1452,1445,1445,1452,1452,1445,1445,1445,1445,1452,1452,1452,1452,1452,1445,1445,1445,1445,1445,1445,1445,1445,1445,1445,1445,1445,1452,1445,1445,1445,1445,1445,1445,1445,1452,1452,1452,1458,1458,1458,1458,1458,1452,1452,1452,1445,1445,1445,1452,1452,1452,1452,1452,1445,1445,1445,1445,1445,1445,1445,1445,1439,1439,1439,1439,1439,1439,1439,1439,1433,1433,1433,1433,1427,1427,1427,1421,1421,1421,1421,1421,1415,1415,1415,1415,1410,1410,1404,1398,1398,1398,1398,1398,1392,1392,1392,1392,1387,1381,1376,1376,1376,1376,1376,1376,1370,1370,1370,1370,1370,1365,1365,1359,1359,1354,1354,1354,1354,1354,1354,1349,1349,1349,1343,1343,1343,1343,1338,1338,1333,1333,1328,1328,1328,1328,1328,1328,1328,1328,1322,1317,1317,1312,1312,1307,1307,1307,1312,1169,1165,1161,1157,1157,1153,1149,1145,1141,1138,1138,1134,1126,1123,1123,1119,1115,1112,1112,1108,1108,1108,1108,1105,1105,1101,1101,1097,1097,1094,1094,1094,1094,1094,1094,1094,1094,1097,1097,1105,1105,1108,1108,1105,1105,1094,1094,1094,1101,1105,1105,938,938,935,935,935,935,935,935,935,935,935,935,935,935,935,935,935,935,933,933,935,935,935,935,0,0,0,0,0,0,0,0,0,0,0,0,0,0,0,0,0,0,0,0,0,0,0,0,0,0,0,0,0,0,0,0,0,0,0
0,0,0,0,0,0,0,0,0,0,1421,1421,1421,1427,1427,1427,1427,1421,1421,1415,1415,1410,1410,1410,1410,1404,1404,0,0,0,0,898,898,896,896,894,894,894,891,889,887,887,889,889,889,889,891,894,896,896,898,901,903,903,903,906,906,908,908,910,910,913,913,0,0,0,0,1433,1433,1433,1433,1433,1433,1433,1433,1433,1433,1433,1433,1433,1433,1433,1433,1433,1433,1433,1439,1439,1433,1433,1433,1433,1433,1427,1427,1433,1433,1433,1433,1433,1433,1433,1439,1439,1439,1439,1439,1439,1439,1439,1433,1433,1433,1439,1439,1439,1439,1439,1439,1439,1439,1433,1433,1439,1433,1433,1433,1433,1427,1427,1427,1427,1427,1427,1427,1427,1427,1427,714,711,710,710,708,708,706,704,703,703,701,701,700,697,696,694,693,693,693,691,691,690,688,687,686,684,683,682,682,680,680,668,666,664,663,662,661,659,657,655,655,654,653,653,652,650,650,650,650,650,652,653,653,654,655,655,657,659,662,664,666,667,670,670,671,672,674,676,687,690,690,691,693,694,694,694,694,698,701,704,707,707,0,707,1232,1232,1236,1236,1236,1241,1241,1245,1245,1245,1250,1250,1250,1445,1445,1445,1445,1445,1445,1445,1445,1445,1439,1439,1439,1439,1445,1445,1445,1452,1452,1452,1452,1452,1452,1452,1452,1452,1452,1445,1445,1445,1445,1445,1445,1445,1445,1445,1445,1439,1439,1439,1439,1439,1439,1439,1445,1439,1439,1445,1439,1439,1439,1439,1439,1439,1439,1439,1439,1439,1439,1439,1439,1439,1445,1445,1445,1445,1445,1445,1445,1445,1445,1445,1445,1445,1445,1445,1445,1445,1439,1439,1439,1445,1445,1452,1028,1025,1025,1025,1025,1025,1022,1022,1019,1016,1016,1013,1013,1013,1013,1013,1013,1013,1016,1016,1019,1022,1022,1025,1025,1025,1028,1028,0,1445,1445,1445,1445,1445,1439,1439,1439,1439,1439,1439,1439,1439,1439,1439,1445,1445,1445,1445,1445,1445,1445,1445,1452,1452,1452,1452,1452,1452,1452,1445,1445,1445,1445,1445,1445,1445,1445,1445,1445,1445,1445,1445,1445,1445,1445,1445,1445,1445,1445,1439,1439,1439,1439,1439,1439,1439,1439,1445,1445,1445,1445,1445,1445,1445,1445,1445,1445,1445,1445,1445,1445,1445,1445,1445,1445,1445,1445,1445,1445,1445,1445,1445,1445,1445,1445,1445,1445,1445,1445,1445,1445,1439,1439,1439,1439,1439,1439,1439,1439,1439,1439,1439,1433,1433,1433,1433,1433,1433,1427,1427,1421,1421,1421,1421,1421,1415,1415,1415,1415,1410,1410,1404,1398,1398,1398,1398,1398,1392,1392,1392,1392,1392,1381,1381,1376,1376,1376,1376,1376,1370,1370,1370,1370,1370,1365,1365,1359,1359,1354,1354,1354,1354,1354,1354,1349,1349,1349,1349,1343,1343,1338,1338,1333,1333,1333,1328,1328,1328,1328,1328,1328,1328,1328,1322,1317,1317,1312,1312,1307,1307,1307,1312,1169,1165,1161,1157,1153,1149,1149,1145,1141,1138,1138,1130,1126,1123,1119,1119,1115,1112,1112,1108,1108,1108,1108,1108,1105,1105,1101,1097,1097,1094,1094,1094,1094,1094,1094,1094,1094,1097,1097,1101,1105,1105,1101,1094,1094,1084,1080,1080,1101,1105,940,938,938,938,935,935,935,935,935,935,935,935,938,938,938,935,935,935,935,935,935,935,935,935,938,0,0,0,0,0,0,0,0,0,0,0,0,0,0,0,0,0,0,0,0,0,0,0,0,0,0,0,0,0,0,0,0,0,0,0
