0,0,0,0,0,0,0,1173,1173,1173,1173,1173,1173,1173,1173,1169,1169,1169,1169,1169,1169,1165,1165,1165,1165,1169,1169,1169,1169,1173,1173,1173,1173,1173,1173,1173,1173,1173,1173,1169,1169,1169,1169,1169,1169,1169,1169,1173,1169,1169,1169,1165,1165,1165,1165,1165,1165,1165,1169,1169,1169,1169,1169,1169,1169,1165,1165,1165,1165,1161,1161,1161,1161,1165,1165,1165,1165,1165,1165,1165,1165,1161,1161,1165,1165,1161,1161,1161,1161,1161,1161,1161,1157,1157,1157,1119,1115,1115,1112,1112,1112,1112,1115,1115,1115,1119,1119,1119,1119,1119,1119,1123,1123,0,0,0,0,0,0,0,0,741,741,742,742,742,742,744,744,746,746,746,747,747,749,749,750,752,752,754,754,754,755,757,757,757,759,759,759,0,0,0,0,0,1149,1149,1149,1149,1149,1149,1149,1149,1149,1149,1149,1149,1149,1149,1149,1149,1149,1149,1149,1149,1149,1149,1149,1149,1145,1145,1145,1145,1145,1149,1149,1149,1149,1149,1149,1145,1145,1145,1145,1145,1145,1145,1145,1145,1145,1145,1145,1145,1145,1145,1145,1145,1145,1145,1145,1145,1145,1145,1141,1141,1141,1141,1138,1138,1138,1141,1141,1141,1141,1141,1141,1141,1141,1141,1141,1145,1141,1141,889,889,1141,1141,896,896,896,898,898,898,898,898,901,901,901,901,903,903,901,901,898,898,901,901,901,901,903,906,906,906,906,908,910,913,913,913,915,915,918,918,920,923,923,925,925,928,930,930,933,933,933,935,935,935,935,940,946,948,948,948,948,948,1123,1123,1123,1123,1123,1123,1126,1126,1126,1123,1123,1123,1123,1123,1123,1123,1123,1123,1123,1126,1126,1126,1123,1123,1126,1126,1126,1126,1126,1126,1126,1123,1123,1123,1123,1123,1123,1123,1119,1119,1119,1119,1119,1054,1054,1050,1050,1047,1041,1038,1038,1038,1038,1038,1038,1041,1041,1044,1047,1047,1047,1050,1050,1115,1112,1112,1112,1112,1112,1115,1115,1115,1115,1115,1115,1115,1115,1115,1115,1115,1115,1115,1115,1115,1115,1115,1115,1115,1115,1115,1112,1112,1112,1112,1112,1112,1112,1112,1108,1108,1108,1108,1108,1108,1108,1108,1108,1105,1105,1105,1105,1105,1105,1108,1108,1108,1108,1108,1108,1108,1105,1105,1105,1105,1105,1105,1105,1105,1105,1105,1105,1105,1105,1105,1105,1105,1105,1105,1105,1105,1105,1105,1105,1105,1101,1101,1101,1101,1101,1101,1105,1105,1101,1101,1101,1101,1101,1101,1101,1101,1101,1101,1101,1097,1097,1097,1101,1097,1097,1097,1097,1097,1097,1097,1097,1097,1094,1094,1094,1094,1094,1094,1094,1094,1094,1094,1094,1097,1097,1097,1094,1094,1094,1094,1094,1094,1094,1094,1090,1090,1090,1090,1090,1090,1090,1090,1090,1090,1090,1090,1090,1087,1087,1087,1087,1087,1087,1090,1087,1087,1087,1087,1087,1087,1087,1087,1087,1084,1084,1084,1084,1080,1080,1080,1080,1080,1080,1080,1080,1080,1080,1077,1077,1077,1077,1080,1080,1080,1080,1080,1080,1080,1077,1077,1077,1077,1077,1077,1080,1080,1077,1077,1077,1080,1080,1080,1080,1080,1077,1077,1077,1073,1073,0,0,0,0,0,0,0,0,0,0,0,762,762,762,761,761,761,761,761,761,759,759,759,759,759,759,759,757,757,757,755,755,752,752,0,0,0,0,0,0,0,0,0,0,0,0,0,0,0,0,0,0,0,0,0,0,0,0,0,0,0,0,0,0,0,0,0,0,0,0,0,0,0
0,0,0,0,0,0,0,1173,1173,1169,1169,1173,1173,1169,1169,1169,1165,1165,1165,1165,1165,1165,1165,1165,1165,1169,1165,1165,1165,1169,1169,1169,1169,1165,1165,1165,1169,1169,1165,1165,1165,1165,1165,1165,1165,1165,1165,1165,1165,1165,1165,1165,1165,1165,1165,1165,1165,1165,1165,1165,1165,1165,1165,1165,1165,1165,1165,1161,1161,1161,1161,1161,1161,1161,1161,1161,1161,1161,1161,1161,1161,1161,1161,1161,1161,1161,1157,1157,1157,1157,1157,1157,1157,1153,1153,1141,1138,1126,1115,1112,1112,1115,1115,1115,1119,1119,1119,1119,1119,1119,1123,1123,1123,1130,0,0,0,0,0,0,0,741,741,742,742,742,742,744,746,746,746,747,747,749,749,750,752,752,752,754,754,755,755,757,757,757,759,759,759,0,0,0,0,0,1145,1145,1145,1145,1145,1145,1145,1145,1145,1145,1145,1145,1145,1145,1141,1141,1141,1141,1141,1141,1141,1145,1145,1145,1145,1141,1141,1141,1141,1145,1145,1145,1145,1145,1145,1145,1145,1141,1141,1141,1141,1141,1141,1141,1141,1141,1141,1141,1141,1141,1141,1141,1141,1141,1141,1141,1141,1141,1141,1138,1138,1138,1134,1134,1134,1134,1134,1134,1138,1138,1138,1138,1141,1141,1141,1141,1141,887,887,889,889,891,894,894,896,896,896,896,896,896,896,896,896,898,901,898,898,898,898,898,901,901,901,901,903,906,906,906,906,908,910,913,913,915,915,918,918,920,920,923,925,925,928,928,930,933,933,933,933,935,935,935,935,940,946,948,1123,1123,1123,1123,1123,1123,1123,1119,1119,1119,1119,1119,1119,1119,1123,1119,1119,1123,1123,1123,1123,1123,1123,1123,1123,1123,1123,1123,1123,1123,1123,1123,1123,1123,1123,1119,1119,1119,1119,1119,1119,1119,1119,1115,1115,1115,1115,1054,1054,1054,1054,1050,1044,1041,1038,1038,1038,1038,1041,1041,1041,1044,1050,1050,1050,1050,1050,1054,1108,1108,1108,1108,1112,1112,1108,1108,1112,1112,1112,1112,1112,1112,1112,1112,1112,1112,1112,1112,1112,1112,1112,1112,1112,1112,1108,1108,1108,1108,1108,1108,1108,1108,1108,1108,1105,1105,1105,1105,1105,1105,1105,1105,1105,1105,1105,1105,1105,1105,1105,1105,1105,1105,1105,1105,1105,1105,1105,1105,1105,1105,1105,1101,1101,1101,1101,1101,1101,1101,1101,1101,1101,1101,1101,1101,1101,1101,1101,1101,1097,1097,1097,1101,1097,1097,1101,1101,1101,1101,1101,1101,1101,1097,1097,1097,1097,1097,1097,1097,1094,1094,1097,1094,1094,1094,1094,1094,1094,1094,1094,1094,1094,1090,1090,1090,1090,1090,1090,1090,1090,1090,1090,1087,1087,1090,1090,1090,1090,1090,1090,1090,1090,1090,1090,1090,1090,1090,1090,1090,1090,1087,1087,1087,1087,1084,1084,1084,1084,1084,1087,1084,1084,1087,1087,1084,1084,1084,1084,1084,1084,1084,1084,1084,1080,1080,1080,1080,1080,1080,1080,1080,1080,1077,1077,1077,1077,1073,1073,1073,1073,1077,1077,1077,1080,1080,1077,1077,1077,1077,1077,1077,1077,1077,1077,1077,1077,1077,1077,1077,1077,1077,1077,1077,1077,1077,1073,1070,1070,0,0,0,0,0,0,0,0,0,0,0,762,762,762,762,761,761,761,761,761,761,759,759,759,759,759,759,759,757,757,755,755,754,754,0,0,0,0,0,0,0,0,0,0,0,0,0,0,0,0,0,0,0,0,0,0,0,0,0,0,0,0,0,0,0,0,0,0,0,0,0,0,0
0,0,0,0,0,0,0,1169,1169,1169,1169,1169,1169,1165,1165,1165,1165,1165,1161,1161,1165,1161,1161,1161,1161,1165,1165,1165,1165,1165,1165,1165,1165,1165,1165,1165,1165,1165,1165,1161,1161,1165,1165,1165,1165,1161,1161,1161,1161,1161,1165,1161,1161,1161,1161,1161,1161,1161,1161,1161,1161,1161,1161,1165,1161,1161,1161,1161,1161,1161,1157,1157,1157,1157,1157,1157,1157,1157,1157,1157,1157,1157,1157,1157,1157,1157,1157,1153,1153,1153,1157,1153,1153,1149,1149,1141,1141,1130,1119,1119,1119,1119,1119,1119,1119,1119,1119,1119,1123,1123,1126,1126,1126,1130,1130,0,0,0,0,0,0,741,741,742,742,744,744,746,746,746,747,747,747,749,749,750,752,754,754,754,754,755,757,757,759,759,759,759,759,0,0,0,0,0,1145,1141,1141,1145,1145,1145,1145,1145,1145,1141,1141,1141,1141,1141,1138,1138,1138,1138,1138,1138,1138,1138,1138,1138,1138,1141,1141,1141,1141,1141,1141,1141,1141,1141,1141,1141,1141,1138,1138,1138,1138,1138,1138,1138,1138,1138,1138,1138,1138,1138,1138,1141,1138,1138,1138,1138,1138,1138,1138,1134,1134,1134,1134,1134,1134,1130,1130,1130,1134,1130,1130,1134,1134,1138,1138,1141,889,887,887,889,889,891,894,894,894,894,894,896,896,896,896,896,896,896,896,898,898,898,898,898,898,898,898,901,903,906,906,906,906,908,910,913,913,915,918,918,920,920,923,923,925,925,928,928,930,933,933,933,933,935,935,935,1119,1119,1119,1119,1119,1119,1119,1119,1119,1119,1119,1119,1119,1115,1115,1115,1115,1115,1115,1115,1115,1115,1119,1119,1119,1119,1119,1119,1119,1119,1119,1119,1119,1119,1119,1119,1119,1119,1119,1115,1115,1115,1115,1115,1115,1115,1115,1115,1115,1115,1115,1057,1054,1054,1054,1050,1047,1044,1041,1041,1041,1041,1041,1044,1044,1047,1050,1050,1050,1054,1054,1054,1108,1108,1108,1108,1108,1108,1105,1105,1105,1105,1105,1108,1108,1108,1108,1108,1108,1108,1108,1108,1108,1108,1108,1108,1108,1105,1105,1108,1108,1105,1105,1105,1105,1105,1105,1105,1105,1105,1105,1105,1105,1105,1101,1101,1101,1101,1101,1101,1105,1105,1105,1105,1105,1105,1105,1105,1101,1101,1101,1101,1101,1101,1097,1097,1097,1097,1097,1097,1097,1094,1094,1097,1097,1097,1097,1097,1097,1101,1097,1097,1097,1097,1097,1097,1097,1097,1097,1097,1097,1097,1097,1097,1097,1097,1097,1097,1097,1097,1097,1094,1094,1094,1094,1094,1094,1094,1094,1094,1094,1094,1094,1094,1090,1090,1090,1090,1090,1087,1087,1087,1087,1087,1087,1084,1084,1084,1084,1084,1084,1084,1087,1090,1087,1087,1087,1087,1087,1087,1087,1087,1084,1084,1084,1084,1084,1084,1084,1084,1084,1084,1084,1084,1080,1080,1080,1080,1080,1080,1080,1080,1080,1080,1080,1080,1080,1080,1080,1080,1080,1080,1077,1077,1077,1077,1077,1077,1073,1073,1073,1073,1073,1073,1073,1077,1077,1077,1077,1077,1077,1077,1077,1077,1073,1073,1073,1077,1077,1077,1077,1077,1077,1077,1077,1077,1073,1073,1073,1067,1063,1063,0,0,0,0,0,0,0,0,0,762,762,762,762,762,762,761,761,761,761,761,759,759,759,759,759,759,759,757,757,755,755,754,754,0,0,0,0,0,0,0,0,0,0,0,0,0,0,0,0,0,0,0,0,0,0,0,0,0,0,0,0,0,0,0,0,0,0,0,0,0,0,0
0,0,0,0,0,0,0,1169,1169,1165,1165,1165,1165,1165,1165,1161,1161,1161,1161,1161,1161,1161,1161,1161,1161,1161,1161,1161,1161,1161,1161,1161,1165,1161,1161,1161,1161,1161,1161,1161,1161,1161,1161,1161,1161,1161,1161,1157,1157,1161,1161,1161,1161,1161,1161,1161,1161,1157,1157,1157,1157,1157,1157,1161,1161,1157,1157,1157,1157,1157,1157,1157,1157,1157,1157,1153,1153,1153,1153,1153,1153,1153,1153,1157,1153,1153,1153,1153,1153,1153,1153,1149,1149,1149,1149,1141,1141,1130,1123,1123,1119,1119,1119,1119,1123,1123,1123,1123,1123,1126,1126,1126,1126,1130,1130,0,0,0,0,0,0,741,741,744,744,744,746,746,746,747,747,747,749,749,750,752,752,754,754,754,755,755,757,759,759,759,759,759,761,0,0,0,0,0,1134,1134,1138,1141,1141,1141,1141,1141,1141,1138,1138,1138,1138,1138,1138,1134,1134,1134,1134,1134,1134,1134,1138,1138,1138,1134,1134,1134,1138,1138,1138,1138,1138,1138,1138,1138,1138,1138,1134,1134,1134,1134,1134,1134,1134,1134,1134,1134,1134,1134,1134,1138,1134,1134,1134,1134,1134,1134,1134,1130,1130,1130,1130,1130,1130,1130,1130,1130,1130,1126,1126,1130,887,887,887,887,887,887,887,887,887,889,891,891,891,891,891,891,891,891,894,894,894,894,894,894,896,896,896,896,898,898,898,903,903,906,906,906,908,910,913,913,915,918,918,920,920,923,923,925,925,928,928,928,930,933,933,933,933,935,935,1115,1115,1115,1115,1115,1115,1115,1115,1115,1115,1119,1119,1115,1115,1115,1115,1115,1115,1115,1115,1115,1115,1115,1112,1112,1115,1115,1115,1119,1119,1115,1115,1115,1115,1115,1115,1115,1115,1115,1115,1115,1115,1115,1115,1115,1115,1115,1115,1115,1112,1112,1112,1115,1057,1054,1054,1054,1050,1047,1044,1044,1044,1044,1044,1044,1044,1047,1050,1050,1050,1054,1054,1054,1105,1105,1105,1105,1105,1105,1105,1105,1105,1105,1101,1101,1101,1101,1101,1105,1105,1105,1105,1105,1105,1105,1105,1105,1105,1105,1105,1105,1105,1105,1105,1105,1101,1101,1101,1101,1101,1101,1101,1101,1101,1097,1097,1097,1097,1097,1101,1101,1101,1101,1101,1101,1101,1097,1097,1097,1097,1097,1097,1097,1097,1097,1097,1097,1097,1094,1094,1094,1094,1094,1094,1094,1094,1094,1094,1094,1094,1097,1097,1094,1094,1094,1094,1094,1094,1094,1094,1094,1094,1094,1094,1094,1094,1094,1094,1094,1094,1094,1094,1094,1094,1094,1094,1090,1090,1090,1090,1090,1090,1090,1090,1090,1090,1090,1090,1087,1087,1084,1084,1084,1084,1084,1084,1080,1080,1080,1080,1080,1080,1084,1084,1084,1084,1084,1084,1084,1084,1084,1084,1084,1084,1080,1080,1080,1080,1080,1080,1080,1080,1080,1080,1080,1077,1077,1080,1080,1080,1077,1077,1077,1077,1077,1080,1077,1077,1077,1077,1077,1077,1077,1077,1077,1073,1073,1073,1073,1070,1070,1073,1070,1070,1070,1070,1073,1073,1073,1073,1073,1073,1073,1073,1073,1070,1070,1070,1077,1077,1077,1073,1073,1073,1073,1070,1070,1070,1070,1070,1067,1063,1063,0,0,0,0,0,0,0,0,762,762,762,762,762,762,762,762,762,761,761,761,761,761,761,761,759,759,759,759,757,757,755,755,755,0,0,0,0,0,0,0,0,0,0,0,0,0,0,0,0,0,0,0,0,0,0,0,0,0,0,0,0,0,0,0,0,0,0,0,0,0,0,0
0,0,0,0,0,0,0,1165,1165,1165,1161,1161,1161,1161,1161,1157,1157,1157,1157,1157,1157,1157,1157,1157,1157,1157,1157,1153,1153,1157,1157,1157,1157,1161,1161,1161,1161,1161,1161,1157,1157,1157,1157,1157,1157,1157,1157,1157,1157,1157,1157,1157,1157,1157,1157,1157,1157,1153,1153,1153,1153,1153,1153,1157,1157,1157,1157,1157,1157,1157,1157,1157,1157,1157,1153,1153,1153,1149,1149,1149,1149,1149,1149,1149,1149,1149,1149,1149,1149,1149,1149,1149,1149,1149,1145,1141,1141,1134,1126,1123,1123,1119,1119,1119,1123,1123,1126,1126,1126,1126,1130,1130,1130,1130,1134,1141,0,0,0,0,0,744,744,746,746,746,746,746,747,747,747,747,749,750,752,752,754,754,754,755,755,757,757,759,759,759,761,761,761,0,0,0,0,0,1130,1130,1134,1138,1138,1138,1138,1138,1134,1134,1134,1134,1134,1134,1134,1134,1134,1134,1134,1134,1134,1134,1134,1134,1134,1130,1130,1130,1130,1130,1130,1130,1134,1134,1134,1134,1134,1134,1134,1134,1130,1130,1130,1134,1130,1130,1134,1134,1134,1134,1134,1134,1134,1130,1130,1130,1130,1130,1130,1130,1130,1130,1130,1130,1126,1126,1126,1130,1130,1126,1126,887,887,887,887,887,887,887,887,887,887,887,889,889,889,889,891,889,889,889,889,889,891,891,894,894,894,894,896,896,898,898,898,903,903,906,906,906,908,910,913,915,915,918,920,920,923,923,925,925,925,928,930,930,933,933,933,933,935,935,1115,1115,1115,1115,1115,1115,1115,1115,1115,1115,1115,1115,1115,1115,1115,1115,1115,1112,1112,1112,1112,1112,1112,1112,1112,1112,1112,1112,1112,1112,1112,1112,1112,1112,1112,1112,1112,1112,1112,1112,1112,1112,1112,1112,1112,1112,1112,1112,1112,1112,1112,1112,1108,1108,1057,1054,1054,1054,1050,1047,1044,1044,1047,1047,1047,1047,1047,1050,1050,1050,1054,1054,1054,1054,1101,1101,1101,1101,1101,1101,1101,1101,1101,1101,1101,1101,1097,1097,1097,1101,1101,1101,1101,1105,1101,1101,1101,1101,1101,1101,1101,1101,1101,1101,1101,1101,1097,1097,1097,1097,1097,1097,1097,1097,1097,1097,1097,1094,1094,1094,1097,1097,1097,1097,1097,1097,1097,1094,1094,1094,1094,1094,1094,1090,1090,1094,1094,1094,1094,1094,1094,1094,1094,1090,1090,1090,1090,1090,1090,1090,1090,1090,1094,1094,1094,1094,1094,1094,1090,1090,1090,1090,1090,1090,1090,1090,1090,1090,1090,1090,1090,1090,1090,1090,1090,1090,1090,1090,1090,1090,1090,1090,1090,1090,1090,1090,1090,1087,1087,1084,1084,1084,1084,1084,1080,1080,1080,1080,1080,1080,1080,1080,1080,1080,1080,1080,1080,1080,1080,1080,1084,1080,1080,1080,1080,1080,1077,1077,1077,1077,1077,1077,1077,1077,1077,1077,1077,1077,1077,1077,1077,1077,1077,1077,1077,1077,1077,1077,1077,1077,1077,1077,1073,1073,1073,1073,1073,1073,1073,1070,1070,1070,1070,1070,1070,1070,1070,1070,1070,1073,1073,1073,1070,1070,1070,1070,1067,1067,1070,1070,1070,1070,1067,1067,1067,1067,1067,1067,1067,1067,1063,1060,1060,1060,0,0,0,0,0,0,0,0,762,762,762,762,762,762,762,762,762,761,761,761,761,761,761,761,761,761,759,759,757,757,755,755,755,0,0,0,0,0,0,0,0,0,0,0,0,0,0,0,0,0,0,0,0,0,0,0,0,0,0,0,0,0,0,0,0,0,0,0,0,0,0,0
0,0,0,0,0,0,0,1161,1161,1161,1157,1157,1153,1153,1157,1153,1153,1153,1153,1153,1157,1153,1153,1149,1149,1149,1149,1153,1153,1153,1153,1153,1153,1157,1157,1157,1157,1157,1157,1153,1153,1153,1153,1153,1153,1153,1153,1149,1145,1145,1145,1149,1153,1153,1153,1153,1153,1153,1153,1153,1153,1153,1153,1153,1153,1153,1153,1153,1153,1153,1153,1153,1153,1153,1153,1149,1149,1149,1149,1145,1145,1145,1145,1145,1145,1145,1145,1145,1145,1145,1145,1145,1145,1145,1145,1141,1141,1134,1130,1126,1123,1123,1123,1123,1123,1123,1126,1126,1126,1126,1130,1130,1130,1130,1134,1141,0,0,0,0,0,0,746,746,746,746,746,746,747,747,749,749,750,750,752,752,754,754,754,755,755,757,757,759,759,759,761,761,761,0,0,0,0,0,1126,1126,1130,1134,1134,1134,1134,1130,1130,1130,1130,1130,1130,1130,1130,1134,1134,1134,1134,1130,1130,1130,1130,1130,1130,1126,1126,1126,1126,1126,1126,1126,1130,1130,1130,1130,1134,1134,1130,1130,1130,1130,1130,1130,1126,1126,1126,1130,1130,1130,1130,1130,1130,1126,1126,1123,1123,1126,1126,1126,1126,1126,1126,1126,1126,1123,1123,1126,1126,1126,885,885,887,887,887,887,887,887,887,887,885,885,887,887,887,887,889,889,889,889,889,889,889,891,891,894,894,894,896,896,898,898,901,903,903,906,906,908,908,910,913,913,915,918,920,923,923,923,925,925,925,928,930,930,933,933,933,933,1108,1112,1112,1112,1115,1112,1112,1112,1112,1112,1112,1112,1112,1112,1112,1112,1112,1112,1112,1108,1108,1108,1108,1108,1108,1108,1108,1108,1108,1108,1108,1108,1108,1108,1108,1108,1112,1108,1108,1108,1108,1108,1108,1108,1108,1108,1108,1108,1108,1108,1108,1108,1108,1105,1105,1105,1060,1057,1057,1054,1054,1050,1047,1047,1047,1047,1047,1047,1047,1050,1054,1054,1054,1054,1054,1054,1097,1097,1097,1097,1097,1097,1097,1097,1097,1097,1097,1097,1097,1097,1097,1097,1097,1094,1094,1094,1094,1094,1097,1097,1097,1097,1097,1097,1097,1097,1097,1097,1094,1094,1094,1094,1094,1094,1094,1094,1094,1094,1094,1094,1094,1094,1094,1094,1094,1094,1094,1094,1094,1090,1090,1090,1090,1090,1090,1090,1090,1090,1090,1090,1090,1090,1090,1090,1090,1090,1090,1090,1087,1087,1087,1087,1084,1084,1087,1087,1087,1090,1090,1090,1090,1090,1090,1090,1090,1090,1090,1087,1087,1087,1087,1087,1087,1087,1087,1087,1090,1090,1087,1087,1087,1087,1087,1090,1090,1087,1087,1087,1087,1084,1080,1080,1080,1080,1080,1080,1080,1080,1080,1077,1077,1077,1077,1077,1077,1077,1080,1080,1080,1077,1077,1080,1080,1077,1077,1077,1077,1077,1077,1077,1077,1073,1073,1077,1077,1077,1077,1073,1070,1070,1070,1070,1070,1073,1073,1073,1073,1073,1073,1073,1073,1073,1073,1073,1073,1073,1070,1070,1070,1070,1070,1070,1067,1067,1067,1067,1067,1067,1067,1067,1067,1070,1070,1070,1070,1070,1067,1067,1067,1067,1067,1067,1067,1067,1067,1067,1067,1067,1063,1063,1063,1063,1063,1060,1060,1060,0,0,0,0,0,0,0,762,762,762,762,762,762,762,762,762,762,762,761,761,761,761,761,761,761,761,759,759,759,759,755,755,755,757,0,0,0,0,0,0,0,0,0,0,0,0,0,0,0,0,0,0,0,0,0,0,0,0,0,0,0,0,0,0,0,0,0,0,0,0,0,0
0,0,0,0,0,0,0,1161,1161,1157,1153,1153,1153,1153,1153,1153,1153,1153,1153,1153,1153,1153,1153,1149,1149,1145,1145,1149,1149,1149,1149,1149,1149,1153,1153,1153,1153,1153,1149,1149,1149,1149,1149,1149,1149,1149,1149,1145,1145,1141,1141,1145,1145,1145,1145,1149,1149,1149,1149,1149,1149,1149,1149,1149,1149,1149,1149,1149,1149,1149,1149,1149,1149,1149,1145,1145,1145,1145,1145,1141,1141,1141,1141,1141,1145,1145,1145,1145,1145,1145,1145,1141,1141,1141,1141,1141,1141,1134,1130,1126,1126,1123,1123,1123,1123,1126,1126,1126,1126,1130,1130,1130,1126,1126,1134,0,0,0,0,0,0,0,0,746,746,746,746,747,747,749,749,749,750,752,752,754,754,754,755,755,757,757,757,759,761,761,761,761,0,0,0,0,0,0,1126,1126,1130,1130,1130,1130,1130,1130,1126,1126,1126,1126,1126,1130,1130,1130,1130,1130,1130,1130,1130,1130,1130,1126,1123,1123,1123,1123,1123,1123,1123,1123,1126,1126,1126,1126,1126,1126,1126,1126,1126,1126,1126,1126,1123,1123,1123,1126,1126,1126,1126,1126,1126,1123,1123,1119,1119,1119,1123,1123,1123,1123,1123,1123,1123,1119,880,880,880,880,882,885,885,885,885,885,885,885,885,885,885,885,885,887,887,887,887,887,887,887,887,889,889,891,891,894,894,894,896,896,898,901,901,903,906,906,906,908,910,913,913,913,915,918,920,923,923,923,925,925,925,928,930,930,933,933,1108,1108,1108,1108,1108,1108,1112,1112,1112,1108,1108,1108,1108,1108,1108,1108,1108,1108,1108,1108,1108,1105,1105,1105,1105,1105,1105,1105,1105,1105,1105,1105,1105,1105,1105,1105,1105,1105,1105,1105,1105,1105,1108,1108,1108,1108,1108,1108,1108,1108,1108,1105,1105,1105,1101,1101,1097,1090,1063,1060,1060,1057,1054,1050,1050,1050,1050,1050,1050,1050,1050,1050,1054,1054,1054,1057,1057,1057,1094,1094,1094,1094,1094,1094,1094,1094,1097,1094,1094,1097,1094,1094,1094,1094,1094,1094,1094,1094,1094,1090,1090,1094,1094,1094,1094,1094,1094,1094,1094,1094,1094,1094,1090,1090,1090,1090,1090,1094,1094,1094,1090,1090,1090,1090,1090,1090,1090,1090,1090,1090,1090,1090,1090,1090,1090,1087,1087,1087,1087,1087,1087,1087,1087,1087,1090,1087,1087,1087,1087,1087,1087,1084,1084,1084,1084,1084,1084,1084,1084,1084,1084,1084,1087,1087,1087,1087,1084,1084,1084,1084,1084,1084,1084,1084,1084,1084,1084,1084,1084,1084,1084,1084,1084,1084,1084,1084,1084,1084,1084,1080,1080,1077,1077,1077,1080,1080,1080,1077,1077,1077,1077,1077,1077,1077,1077,1077,1077,1077,1077,1077,1077,1077,1077,1077,1077,1073,1073,1070,1070,1070,1073,1073,1073,1073,1073,1073,1073,1073,1073,1070,1067,1067,1070,1067,1067,1070,1070,1070,1070,1073,1073,1073,1073,1070,1070,1070,1070,1070,1070,1070,1067,1067,1067,1067,1067,1067,1067,1067,1067,1067,1063,1063,1067,1067,1067,1067,1067,1067,1067,1063,1063,1063,1063,1063,1063,1063,1063,1063,1063,1063,1063,1063,1063,1063,1063,1060,1060,1060,0,0,0,0,0,0,0,762,762,762,762,762,762,764,764,764,762,762,761,761,761,761,761,761,761,761,761,761,759,759,757,757,757,757,0,0,0,0,0,0,0,0,0,0,0,0,0,0,0,0,0,0,0,0,0,0,0,0,0,0,0,0,0,0,0,0,0,0,0,0,0,0
0,0,0,0,0,0,0,1161,1157,1153,1153,1153,1149,1149,1149,1149,1149,1149,1149,1149,1149,1149,1149,1145,1145,1145,1145,1145,1145,1145,1145,1145,1149,1149,1149,1149,1149,1149,1149,1145,1145,1145,1145,1145,1145,1145,1145,1141,1141,1141,1141,1141,1141,1141,1141,1145,1145,1145,1145,1149,1145,1145,1145,1145,1145,1145,1145,1145,1145,1145,1141,1141,1141,1141,1141,1141,1141,1145,1141,1141,1138,1138,1141,1141,1141,1141,1141,1141,1141,1141,1141,1138,1138,1141,1138,1138,1138,1134,1130,1126,1126,1123,1123,1123,1126,1126,1126,1126,1126,1130,1126,1126,1123,1123,1134,0,0,0,0,0,0,0,0,746,746,746,746,747,747,749,749,750,750,752,752,754,754,755,755,757,757,759,759,759,761,761,761,761,0,0,0,0,0,0,1126,1126,1130,1130,1130,1126,1123,1123,1123,1123,1126,1123,1123,1126,1126,1126,1130,1130,1130,1130,1130,1126,1126,1123,1119,1119,1119,1119,1119,1123,1123,1123,1123,1123,1123,1126,1123,1123,1123,1123,1119,1119,1119,1123,1119,1119,1119,1123,1123,1123,1123,1123,1123,1119,1119,1119,1119,1119,1119,1119,1119,1119,1123,1123,1119,878,878,878,878,878,880,882,885,885,885,885,885,882,882,882,882,882,885,885,885,885,885,887,887,887,887,887,889,891,891,894,894,894,896,896,898,901,903,903,906,906,906,910,910,913,913,915,915,918,920,923,923,925,925,925,925,928,930,930,933,1105,1105,1105,1105,1105,1108,1108,1108,1108,1108,1108,1108,1105,1105,1105,1105,1105,1105,1105,1105,1105,1105,1105,1105,1101,1101,1101,1101,1101,1101,1101,1101,1101,1105,1101,1101,1101,1101,1105,1105,1105,1105,1105,1105,1105,1105,1105,1105,1105,1105,1105,1105,1101,1101,1101,1101,1097,1094,1090,1087,1070,1063,1057,1057,1054,1050,1050,1050,1050,1050,1050,1050,1050,1054,1054,1054,1057,1057,1057,1090,1090,1090,1094,1094,1094,1094,1094,1094,1094,1094,1094,1094,1094,1094,1094,1094,1090,1090,1090,1090,1090,1090,1090,1090,1090,1090,1090,1094,1094,1090,1090,1090,1090,1090,1090,1090,1090,1090,1090,1090,1090,1090,1090,1090,1087,1087,1087,1087,1087,1087,1087,1087,1087,1087,1087,1087,1084,1084,1084,1084,1084,1084,1084,1084,1084,1087,1087,1087,1087,1084,1084,1084,1080,1080,1080,1080,1080,1080,1080,1080,1080,1080,1080,1080,1080,1080,1080,1084,1084,1080,1080,1080,1080,1080,1080,1080,1080,1080,1080,1080,1080,1080,1080,1080,1080,1080,1080,1077,1077,1070,1067,1067,1067,1067,1070,1073,1073,1073,1073,1073,1073,1073,1070,1070,1070,1073,1073,1073,1073,1073,1073,1073,1073,1073,1073,1070,1067,1063,1063,1060,1060,1063,1063,1063,1067,1067,1070,1070,1070,1070,1070,1067,1067,1067,1067,1067,1067,1067,1067,1070,1070,1073,1070,1070,1070,1070,1067,1067,1067,1067,1067,1067,1063,1063,1067,1067,1067,1063,1063,1063,1063,1063,1063,1063,1067,1067,1067,1067,1067,1067,1063,1063,1060,1060,1060,1060,1060,1060,1060,1060,1060,1063,1063,1060,1060,1060,1060,1060,0,0,0,0,0,0,0,764,762,762,762,762,764,764,764,764,764,764,762,762,761,761,761,761,761,761,761,761,761,759,759,757,757,757,757,0,0,0,0,0,0,0,0,0,0,0,0,0,0,0,0,0,0,0,0,0,0,0,0,0,0,0,0,0,0,0,0,0,0,0,0,0,0
0,0,0,0,0,0,0,1161,1157,1153,1153,1149,1149,1149,1145,1145,1145,1145,1145,1145,1145,1145,1145,1141,1141,1141,1141,1141,1141,1141,1141,1145,1145,1145,1149,1145,1145,1145,1145,1145,1141,1141,1141,1141,1141,1141,1141,1138,1138,1138,1138,1138,1141,1141,1141,1141,1141,1141,1141,1141,1141,1141,1141,1145,1145,1145,1141,1141,1141,1141,1138,1138,1138,1138,1138,1138,1138,1141,1138,1138,1134,1134,1138,1138,1138,1138,1138,1138,1138,1138,1138,1138,1138,1138,1138,1134,1134,1130,1130,1126,1126,1123,1123,1123,1126,1126,1126,1126,1126,1126,1126,1123,1123,1123,1123,0,0,0,0,0,0,0,0,746,746,746,747,747,749,750,750,750,752,752,754,754,755,755,757,757,759,759,759,759,761,762,762,762,764,0,0,0,0,0,1126,1126,1126,1123,1123,1123,1119,1119,1123,1123,1123,1123,1123,1123,1123,1126,1126,1126,1126,1126,1126,1123,1123,1123,1119,1119,1119,1119,1119,1119,1119,1119,1119,1119,1119,1123,1119,1119,1119,1119,1119,1119,1119,1119,1119,1119,1119,1119,1119,1119,1119,1119,1119,1119,1119,1115,1115,1119,1119,1119,1119,1119,1119,875,875,875,878,878,878,878,880,880,880,882,882,882,882,882,882,882,882,882,882,885,885,885,885,885,887,887,887,887,889,891,891,894,894,896,896,898,901,903,903,906,906,906,908,910,913,913,915,915,915,918,920,923,923,925,925,925,925,928,930,1105,1105,1105,1105,1105,1105,1105,1105,1105,1105,1105,1105,1105,1105,1105,1105,1105,1105,1105,1105,1105,1105,1105,1105,1105,1101,1101,1101,1101,1101,1097,1097,1097,1097,1097,1101,1101,1101,1097,1097,1101,1101,1101,1101,1097,1097,1101,1101,1101,1101,1101,1101,1105,1105,1101,1101,1101,1097,1097,1094,1090,1087,1077,1067,1063,1060,1054,1054,1050,1050,1050,1050,1050,1050,1054,1054,1054,1057,1057,1060,1060,1087,1087,1087,1090,1090,1090,1090,1090,1090,1090,1090,1090,1090,1090,1090,1090,1090,1090,1090,1087,1087,1087,1087,1087,1087,1087,1087,1087,1087,1087,1084,1084,1087,1087,1087,1087,1087,1087,1087,1087,1087,1087,1087,1087,1087,1084,1084,1084,1084,1084,1084,1084,1084,1084,1084,1084,1084,1084,1084,1080,1080,1080,1084,1080,1080,1080,1080,1084,1084,1084,1080,1080,1080,1080,1080,1080,1080,1077,1077,1080,1080,1077,1077,1080,1077,1077,1080,1080,1080,1080,1080,1080,1077,1077,1077,1077,1077,1077,1073,1073,1073,1077,1077,1077,1077,1077,1073,1073,1073,1070,1063,1063,1063,1063,1063,1067,1067,1067,1070,1070,1070,1070,1070,1067,1067,1067,1067,1063,1063,1067,1067,1067,1067,1067,1067,1067,1063,1063,1060,1060,1057,1057,1057,1060,1060,1060,1060,1060,1063,1067,1067,1063,1063,1063,1067,1067,1067,1067,1067,1067,1067,1067,1067,1070,1067,1067,1067,1067,1067,1063,1063,1063,1063,1063,1063,1067,1067,1067,1063,1063,1063,1063,1063,1063,1063,1067,1067,1067,1067,1067,1067,1063,1063,1060,1057,1057,1057,1060,1057,1057,1057,1060,1057,1057,1057,1057,1057,1060,0,0,0,0,0,0,0,0,764,762,762,762,764,764,764,764,764,764,762,762,762,761,761,761,761,761,761,761,761,761,761,759,759,759,757,757,0,0,0,0,0,0,0,0,0,0,0,0,0,0,0,0,0,0,0,0,0,0,0,0,0,0,0,0,0,0,0,0,0,0,0,0,0,0
0,0,0,0,0,0,0,0,1153,1149,1149,1149,1149,1145,1145,1145,1145,1145,1145,1145,1145,1145,1141,1141,1141,1138,1138,1138,1141,1141,1141,1141,1145,1145,1145,1145,1141,1141,1141,1141,1141,1138,1138,1138,1138,1138,1138,1134,1134,1134,1134,1134,1138,1138,1138,1141,1141,1138,1138,1138,1138,1138,1138,1138,1138,1138,1138,1138,1141,1138,1138,1138,1138,1134,1134,1134,1134,1138,1138,1134,1134,1134,1134,1134,1134,1134,1134,1134,1134,1134,1134,1134,1134,1134,1134,1134,1130,1130,1126,1126,1123,1123,1123,1123,1123,1123,1123,1123,1123,1123,1123,1123,1119,1119,1119,0,0,0,0,0,0,0,0,746,746,746,747,747,750,750,750,750,752,754,754,754,755,757,757,759,759,759,759,761,762,762,762,762,764,0,0,0,0,0,0,1126,1123,1123,1119,1119,1119,1119,1119,1119,1119,1119,1119,1119,1119,1123,1123,1123,1126,1126,1123,1123,1119,1119,1119,1119,1119,1119,1119,1119,1119,1119,1119,1119,1119,1119,1119,1119,1119,1119,1115,1115,1115,1115,1115,1115,1115,1115,1115,1115,1115,1119,1119,1115,1115,1115,1115,1115,1115,1115,1115,875,875,875,875,875,878,878,878,878,878,878,878,880,880,880,880,880,880,880,880,880,882,882,885,885,885,885,887,887,887,889,889,891,894,894,896,896,898,898,901,903,906,906,906,908,910,913,913,913,915,915,915,918,920,923,923,925,925,925,925,928,1097,1101,1101,1101,1101,1101,1101,1101,1105,1105,1105,1105,1105,1101,1101,1101,1101,1101,1101,1101,1101,1101,1101,1101,1101,1101,1101,1097,1097,1097,1097,1097,1097,1097,1094,1094,1097,1097,1097,1097,1097,1097,1097,1097,1097,1094,1094,1097,1097,1097,1097,1097,1097,1097,1097,1097,1097,1097,1094,1094,1090,1090,1087,1080,1067,1063,1060,1054,1054,1050,1050,1050,1050,1050,1054,1054,1054,1054,1057,1060,1060,1063,1067,1084,1087,1087,1090,1090,1090,1090,1090,1090,1090,1090,1090,1090,1090,1090,1090,1090,1087,1087,1087,1087,1087,1084,1084,1084,1087,1087,1084,1084,1080,1080,1080,1080,1080,1084,1084,1084,1087,1084,1084,1087,1084,1084,1084,1084,1084,1084,1084,1084,1084,1084,1084,1084,1084,1084,1084,1080,1080,1080,1080,1080,1080,1080,1080,1080,1080,1080,1080,1080,1080,1080,1080,1080,1080,1077,1077,1077,1077,1077,1077,1077,1077,1077,1077,1077,1077,1077,1077,1077,1077,1077,1077,1077,1077,1073,1073,1073,1070,1070,1070,1070,1070,1070,1070,1070,1070,1070,1067,1063,1060,1060,1060,1060,1060,1060,1063,1063,1067,1067,1067,1067,1067,1067,1067,1067,1063,1060,1060,1063,1063,1063,1063,1060,1057,1057,1057,1057,1057,1057,1057,1057,1057,1057,1057,1057,1057,1057,1057,1060,1063,1063,1063,1063,1063,1063,1063,1063,1063,1063,1063,1063,1063,1067,1067,1067,1067,1067,1067,1063,1063,1063,1063,1063,1063,1063,1063,1067,1063,1063,1063,1063,1063,1063,1063,1067,1007,1007,1007,1070,1067,1063,1060,1057,1057,1057,1057,1057,1054,1054,1054,1057,1057,1057,1054,1054,1057,1060,0,0,0,0,0,755,755,762,762,762,762,762,764,764,764,764,764,764,762,762,762,762,761,761,761,761,761,761,761,761,761,759,759,759,759,759,0,0,0,0,0,0,0,0,0,0,0,0,0,0,0,0,0,0,0,0,0,0,0,0,0,0,0,0,0,0,0,0,0,0,0,0,0,0
0,0,0,0,0,0,0,0,1149,1145,1145,1145,1145,1141,1141,1141,1141,1141,1141,1141,1141,1141,1141,1141,1138,1138,1138,1138,1138,1138,1138,1138,1141,1141,1141,1138,1138,1138,1138,1138,1138,1138,1134,1134,1134,1134,1134,1134,1134,1130,1130,1134,1134,1134,1134,1138,1138,1138,1134,1134,1134,1134,1134,1134,1134,1134,1134,1134,1134,1134,1134,1134,1134,1134,1134,1134,1134,1134,1134,1130,1130,1130,1130,1130,1130,1130,1130,1130,1130,1134,1134,1134,1134,1134,1134,1130,1130,1126,1126,1126,1123,1119,1119,1123,1123,1123,1123,1123,1123,1123,1123,1123,1119,1115,1115,0,0,0,0,0,0,0,0,0,0,0,749,749,750,750,752,752,752,754,754,755,755,757,759,759,759,761,761,762,762,762,764,764,764,0,0,0,0,0,0,1119,1119,1119,1119,1115,1115,1115,1115,1115,1115,1115,1115,1115,1119,1119,1119,1119,1119,1119,1119,1119,1119,1115,1115,1115,1115,1115,1115,1115,1115,1115,1115,1115,1115,1115,1115,1115,1115,1115,1115,1112,1112,1112,1115,1112,1112,1112,1112,1112,1112,1112,1112,1112,1112,1115,1115,1115,1115,873,873,873,873,873,873,875,875,875,875,875,875,875,875,878,878,878,878,878,878,880,880,880,880,882,885,885,885,885,887,887,887,889,891,894,894,894,896,896,898,901,901,903,906,906,906,908,910,913,915,915,915,915,918,918,920,923,925,925,925,925,1094,1097,1097,1101,1101,1101,1101,1101,1097,1097,1101,1101,1101,1101,1101,1101,1101,1101,1101,1097,1097,1097,1097,1097,1097,1097,1097,1097,1097,1094,1094,1094,1094,1094,1094,1094,1094,1094,1094,1094,1094,1094,1094,1094,1094,1094,1094,1094,1094,1094,1094,1094,1094,1094,1094,1094,1094,1094,1090,1090,1090,1090,1090,1087,1087,1077,1070,1067,1063,1057,1054,1054,1054,1054,1054,1054,1054,1054,1054,1054,1057,1060,1063,1067,1067,1080,1084,1087,1087,1087,1087,1087,1087,1087,1087,1087,1084,1084,1084,1084,1084,1084,1084,1084,1084,1084,1084,1084,1084,1084,1084,1084,1080,1080,1080,1080,1080,1080,1080,1080,1080,1080,1084,1084,1084,1084,1084,1084,1084,1080,1080,1080,1080,1080,1080,1080,1080,1080,1080,1080,1080,1080,1080,1077,1077,1077,1077,1077,1077,1077,1077,1077,1077,1077,1077,1077,1077,1077,1077,1077,1077,1073,1073,1073,1073,1073,1073,1073,1070,1070,1073,1070,1070,1073,1073,1073,1070,1070,1070,1070,1070,1070,1070,1067,1067,1070,1070,1070,1070,1067,1067,1063,1063,1060,1057,1057,1057,1057,1057,1057,1057,1060,1060,1063,1063,1067,1063,1063,1063,1060,1057,1057,1057,1057,1057,1057,1057,1057,1054,1054,1054,1054,1054,1054,1054,1054,1054,1054,1054,1054,1054,1054,1054,1057,1054,1050,1050,1050,1060,1060,1060,1060,1060,1057,1057,1057,1057,1063,1067,1067,1067,1067,1067,1063,1063,1063,1063,1063,1063,1063,1063,1067,1067,1063,1063,1063,1063,1063,1013,1010,1007,1007,1007,1007,1007,1063,1060,1057,1057,1057,1057,1054,1054,1054,1054,1054,1054,1054,1054,1054,1057,0,0,0,0,0,0,755,755,759,762,764,764,764,764,764,764,764,764,764,762,762,762,762,761,761,761,761,761,761,761,761,761,759,759,759,759,759,0,0,0,0,0,0,0,0,0,0,0,0,0,0,0,0,0,0,0,0,0,0,0,0,0,0,0,0,0,0,0,0,0,0,0,0,0,0
0,0,0,0,0,0,0,0,1149,1141,1141,1141,1141,1138,1138,1138,1138,1138,1138,1138,1138,1138,1138,1138,1138,1138,1138,1138,1138,1134,1134,1138,1138,1138,1138,1138,1134,1134,1134,1134,1134,1134,1134,1134,1134,1134,1134,1130,1130,1130,1130,1130,1130,1130,1134,1134,1134,1134,1134,1134,1134,1130,1130,1130,1130,1130,1130,1130,1130,1130,1130,1130,1130,1130,1130,1130,1130,1130,1130,1130,1126,1126,1126,1126,1126,1126,1126,1126,1130,1130,1130,1130,1130,1130,1130,1130,1130,1126,1123,1123,1119,1119,1119,1119,1119,1119,1119,1119,1123,1119,1119,1119,1119,1115,1115,0,0,0,0,0,0,0,0,0,0,0,0,754,752,752,752,752,754,754,754,755,757,757,759,759,759,761,761,762,762,762,764,764,766,771,0,0,0,0,0,1108,1108,1115,1115,1112,1112,1112,1115,1115,1112,1112,1112,1112,1115,1115,1115,1115,1115,1115,1115,1115,1115,1115,1115,1115,1115,1115,1112,1112,1112,1112,1112,1112,1112,1115,1112,1112,1112,1112,1112,1108,1108,1108,1112,1112,1112,1112,1112,1112,1112,1112,1112,1112,1112,1112,1112,871,871,871,873,873,873,873,873,873,873,873,875,873,873,873,875,875,875,875,878,878,878,878,878,880,880,882,885,885,885,887,887,889,889,889,891,894,894,896,896,896,898,901,903,903,906,906,906,908,913,913,915,915,918,918,918,920,1090,1090,1090,1090,1090,1090,1094,1094,1097,1097,1097,1097,1097,1097,1097,1097,1097,1097,1097,1097,1097,1097,1097,1097,1097,1094,1094,1094,1094,1094,1094,1094,1094,1094,1094,1094,1090,1090,1090,1090,1090,1090,1090,1090,1090,1090,1090,1090,1090,1090,1090,1090,1094,1090,1090,1090,1090,1090,1090,1090,1090,1094,1094,1090,1090,1090,1090,1090,1087,1084,1084,1077,1073,1070,1067,1060,1057,1054,1054,1054,1054,1054,1054,1054,1054,1057,1060,1063,1067,1067,1070,1080,1080,1084,1084,1084,1084,1084,1084,1084,1084,1084,1080,1080,1080,1080,1084,1084,1084,1084,1084,1080,1080,1080,1080,1080,1080,1080,1077,1077,1077,1077,1077,1077,1077,1077,1077,1080,1080,1080,1080,1080,1080,1080,1080,1080,1080,1080,1077,1077,1077,1077,1077,1077,1077,1077,1077,1077,1077,1077,1077,1077,1077,1073,1073,1073,1070,1070,1073,1073,1073,1073,1073,1073,1073,1073,1073,1073,1073,1070,1070,1070,1070,1067,1067,1067,1067,1067,1067,1067,1070,1070,1067,1067,1067,1067,1067,1067,1067,1067,1067,1067,1067,1067,1067,1067,1067,1063,1063,1060,1057,1057,1057,1054,1054,1054,1054,1057,1057,1060,1060,1060,1060,1060,1057,1057,1057,1054,1054,1054,1054,1054,1054,1054,1050,1050,1050,1050,1050,1050,1050,1050,1050,1050,1050,1050,1050,1050,1050,1050,1044,1044,1044,1044,1044,1041,1041,1044,1060,1057,1057,1057,1057,1063,1067,1070,1067,1016,1016,1016,1016,1063,1063,1063,1016,1013,1013,1013,1067,1067,1013,1013,1013,1013,1010,1010,1007,1007,1007,1004,1004,1004,1004,1057,1054,1054,1054,1054,1054,1054,1054,1054,1054,1054,1054,1054,0,0,0,0,0,0,0,0,757,757,762,764,764,764,764,764,764,764,762,762,762,762,762,761,761,761,761,761,761,761,761,761,761,761,759,759,759,759,0,0,0,0,0,0,0,0,0,0,0,0,0,0,0,0,0,0,0,0,0,0,0,0,0,0,0,0,0,0,0,0,0,0,0,0,0,0
0,0,0,0,0,0,0,0,0,1141,1141,1141,1141,1138,1138,1138,1134,1134,1138,1138,1138,1138,1138,1138,1134,1134,1134,1134,1134,1134,1134,1134,1134,1134,1134,1134,1134,1134,1134,1134,1134,1134,1134,1134,1134,1134,1130,1130,1130,1130,1130,1130,1130,1130,1130,1130,1130,1130,1130,1130,1130,1130,1130,1130,1130,1130,1130,1130,1130,1126,1126,1130,1130,1130,1126,1126,1126,1126,1126,1126,1126,1126,1123,1123,1126,1126,1126,1126,1126,1126,1126,1126,1130,1130,1130,1126,1126,1123,1123,1119,1119,1119,1119,1119,1119,1119,1119,1119,1119,1119,1119,1119,1119,1115,1115,1115,1108,1108,0,0,0,0,0,0,0,0,0,757,754,754,754,754,754,754,755,755,757,757,759,759,761,761,762,764,764,764,764,766,769,771,0,0,0,0,0,1108,1108,1112,1112,1108,1108,1112,1112,1112,1112,1112,1112,1112,1112,1112,1115,1112,1112,1112,1112,1115,1112,1112,1112,1112,1112,1112,1112,1112,1112,1108,1108,1108,1108,1108,1108,1108,1108,1108,1108,1105,1105,1105,1108,1108,1108,1112,1108,1108,1112,1112,1112,1112,867,867,869,869,871,871,871,871,873,873,873,873,873,873,873,871,871,873,873,873,875,875,875,878,878,878,878,880,880,882,885,885,885,887,887,889,889,889,891,894,894,896,896,898,901,901,903,903,906,906,908,913,915,915,915,918,918,920,920,1090,1090,1090,1090,1090,1090,1090,1090,1090,1090,1094,1094,1094,1094,1094,1094,1094,1094,1094,1094,1094,1094,1094,1094,1094,1090,1090,1090,1090,1090,1090,1090,1090,1090,1090,1090,1090,1090,1090,1090,1087,1087,1087,1087,1087,1090,1090,1090,1090,1090,1090,1090,1090,1090,1090,1090,1087,1087,1090,1087,1087,1087,1090,1090,1087,1084,1084,1084,1087,1084,1084,1080,1077,1077,1073,1070,1063,1060,1057,1057,1057,1054,1054,1054,1054,1057,1060,1060,1063,1067,1067,1070,1080,1080,1080,1080,1080,1080,1080,1080,1080,1080,1080,1077,1077,1077,1077,1080,1080,1080,1080,1080,1080,1080,1080,1077,1077,1077,1077,1077,1077,1077,1077,1077,1077,1077,1073,1073,1077,1077,1077,1077,1077,1077,1077,1077,1077,1077,1077,1077,1073,1073,1073,1073,1073,1073,1073,1073,1073,1073,1073,1073,1073,1073,1070,1070,1070,1070,1070,1070,1070,1070,1070,1070,1070,1070,1070,1070,1070,1070,1070,1067,1067,1067,1067,1067,1067,1063,1063,1063,1063,1063,1067,1063,1063,1063,1063,1063,1063,1063,1063,1063,1063,1063,1067,1067,1063,1063,1063,1060,1060,1057,1054,1054,1054,1054,1054,1054,1054,1054,1054,1057,1057,1057,1057,1057,1054,1054,1054,1054,1054,1054,1054,1054,1054,1050,1050,1050,1050,1050,1050,1050,1050,1050,1050,1050,1047,1047,1047,1044,1044,1041,1041,1041,1041,1041,1038,1038,1038,1038,1038,1044,1028,1028,1025,1022,1022,1073,1016,1016,1016,1016,1016,1016,1016,1016,1013,1010,1010,1013,1013,1013,1013,1013,1013,1010,1007,1007,1007,1007,1004,1004,1004,1004,1004,1054,1054,1054,1054,1054,1054,1054,1054,1054,1054,1054,1054,0,0,0,0,0,0,0,0,757,757,762,764,764,764,764,764,764,764,762,762,762,762,762,761,761,761,761,761,761,761,761,761,761,761,761,761,759,759,0,0,0,0,0,0,0,0,0,0,0,0,0,0,0,0,0,0,0,0,0,0,0,0,0,0,0,0,0,0,0,0,0,0,0,0,0,0
0,0,0,0,0,0,0,0,0,1138,1138,1138,1138,1134,1134,1134,1134,1134,1134,1134,1134,1134,1134,1134,1134,1134,1134,1130,1130,1130,1130,1130,1130,1130,1130,1130,1130,1130,1130,1130,1134,1134,1134,1130,1130,1130,1130,1130,1126,1126,1126,1126,1126,1126,1126,1123,1123,1126,1126,1126,1126,1126,1126,1126,1126,1126,1126,1126,1126,1126,1126,1126,1126,1126,1126,1123,1123,1123,1123,1123,1119,1119,1119,1123,1123,1123,1123,1123,1123,1123,1123,1123,1123,1126,1126,1123,1123,1119,1119,1119,1115,1115,1115,1115,1115,1115,1115,1115,1119,1115,1115,1115,1115,1115,1115,1115,1108,1108,0,0,0,0,0,0,0,0,0,754,754,754,754,754,754,755,755,757,757,759,761,761,761,762,762,764,764,766,767,767,769,771,773,0,0,0,0,1112,1108,1108,1108,1108,1108,1108,1108,1108,1108,1108,1108,1108,1112,1112,1112,1108,1108,1108,1108,1108,1108,1108,1108,1108,1108,1108,1108,1108,1108,1108,1108,1108,1105,1105,1108,1108,1105,1105,1105,1105,1105,1105,1105,1105,1105,1108,1105,1105,1108,1108,1108,867,867,867,867,867,867,867,869,869,871,871,871,871,871,871,871,871,871,871,871,873,873,875,875,875,878,878,878,880,880,882,882,885,885,887,889,889,889,891,894,894,896,896,896,898,901,903,903,903,906,906,908,913,915,915,918,920,920,920,1090,1090,1090,1087,1087,1087,1087,1087,1087,1090,1090,1090,1090,1090,1090,1090,1090,1090,1090,1090,1090,1090,1090,1090,1090,1090,1090,1090,1090,1090,1090,1090,1090,1090,1090,1090,1090,1090,1090,1090,1087,1087,1087,1087,1087,1087,1087,1087,1087,1087,1087,1087,1087,1087,1087,1087,1087,1087,1087,1087,1084,1084,1080,1080,1084,1084,1080,1080,1080,1080,1080,1080,1077,1077,1073,1070,1070,1067,1063,1060,1060,1057,1057,1057,1057,1057,1057,1060,1063,1063,1067,1067,1070,1077,1077,1080,1080,1077,1077,1077,1077,1077,1077,1077,1077,1077,1077,1077,1077,1077,1077,1077,1077,1077,1077,1077,1073,1073,1073,1073,1073,1073,1073,1073,1073,1073,1073,1073,1073,1073,1073,1073,1073,1073,1073,1070,1070,1070,1070,1070,1073,1073,1070,1070,1070,1070,1067,1067,1070,1070,1070,1070,1070,1070,1070,1067,1067,1067,1067,1067,1067,1067,1070,1070,1070,1067,1067,1067,1067,1067,1067,1067,1067,1067,1063,1063,1063,1063,1060,1060,1060,1060,1060,1060,1060,1060,1060,1060,1060,1060,1060,1060,1060,1060,1060,1060,1060,1057,1057,1060,1060,1057,1054,1054,1054,1054,1054,1054,1054,1054,1054,1054,1054,1054,1057,1054,1054,1054,1054,1054,1054,1054,1050,1050,1050,1050,1050,1050,1050,1050,1050,1050,1050,1050,1050,1047,1047,1047,1047,1044,1041,1041,1041,1041,1041,1038,1038,1038,1038,1034,1034,1028,1028,1028,1028,1025,1022,1022,1019,1019,1016,1016,1016,1016,1016,1016,1013,1013,1010,1010,1013,1013,1013,1013,1013,1010,1010,1007,1007,1007,1004,1004,1004,1004,1004,1004,1004,1007,1057,1057,1054,1054,1054,1054,1054,1054,0,0,0,0,0,0,0,767,767,766,759,759,762,766,764,764,766,766,764,762,762,762,762,762,762,762,762,762,761,761,761,761,761,761,761,761,761,761,761,761,0,0,0,0,0,0,0,0,0,0,0,0,0,0,0,0,0,0,0,0,0,0,0,0,0,0,0,0,0,0,0,0,0,0,0,0,0,0
0,0,0,0,0,0,0,0,1130,1130,1130,1130,1130,1130,1130,1130,1130,1130,1130,1130,1130,1130,1130,1130,1130,1130,1130,1130,1126,1126,1126,1126,1126,1123,1123,1126,1126,1126,1126,1126,1130,1130,1130,1130,1130,1130,1126,1126,1126,1123,1123,1123,1123,1123,1123,1119,1119,1123,1123,1123,1123,1123,1123,1123,1123,1119,1119,1123,1123,1119,1119,1123,1123,1123,1123,1119,1119,1119,1119,1119,1119,1119,1119,1119,1119,1119,1119,1119,1123,1123,1119,1119,1119,1123,1123,1119,1119,1119,1119,1119,1115,1115,1115,1115,1115,1115,1115,1115,1115,1115,1115,1115,1112,1112,1105,1105,1105,1108,0,0,0,0,0,0,0,0,761,754,754,754,754,754,754,755,757,757,759,759,761,761,762,764,764,764,766,766,767,769,771,773,773,0,0,0,0,0,1105,1105,1105,1105,1105,1105,1105,1105,1105,1105,1105,1105,1108,1108,1105,1105,1105,1105,1105,1105,1105,1105,1105,1105,1105,1105,1105,1105,1105,1105,1105,1105,1105,1105,1105,1105,1105,1105,1105,1101,1101,1105,1105,1105,1105,1105,1105,1105,1108,867,867,867,867,867,867,867,867,867,867,867,867,867,867,869,869,869,869,869,869,871,871,873,873,873,875,875,878,878,878,880,880,882,882,885,885,887,889,889,889,891,894,894,896,896,896,901,901,903,903,906,906,906,908,913,918,918,918,920,1090,1090,1087,1087,1087,1087,1087,1087,1087,1087,1087,1087,1087,1087,1087,1087,1087,1087,1087,1087,1087,1087,1087,1087,1087,1087,1087,1087,1087,1087,1087,1087,1087,1087,1087,1087,1087,1087,1087,1087,1087,1087,1084,1084,1084,1084,1084,1084,1084,1084,1084,1084,1084,1084,1084,1084,1084,1084,1084,1084,1084,1084,1080,1080,1080,1080,1080,1080,1080,1077,1077,1077,1077,1077,1077,1073,1073,1070,1067,1067,1063,1063,1060,1060,1057,1057,1057,1057,1060,1060,1063,1067,1067,1070,1077,1077,1077,1077,1077,1077,1077,1073,1073,1077,1077,1073,1073,1073,1073,1073,1073,1073,1073,1077,1077,1077,1073,1073,1070,1070,1070,1070,1070,1070,1070,1070,1070,1070,1070,1070,1070,1070,1070,1070,1070,1070,1070,1070,1067,1067,1067,1067,1067,1067,1067,1067,1067,1067,1067,1067,1067,1067,1067,1067,1067,1067,1067,1067,1067,1067,1067,1067,1067,1067,1067,1067,1067,1067,1067,1067,1067,1063,1063,1063,1063,1063,1063,1063,1060,1060,1060,1057,1057,1057,1057,1057,1057,1057,1057,1057,1057,1057,1060,1057,1057,1057,1057,1057,1057,1057,1057,1054,1054,1057,1054,1054,1054,1054,1050,1050,1050,1050,1050,1050,1054,1054,1054,1054,1054,1050,1050,1050,1050,1050,1050,1050,1050,1050,1050,1050,1050,1050,1050,1047,1047,1047,1047,1047,1047,1047,1044,1044,1041,1041,1038,1038,1038,1038,1038,1038,1038,1034,1031,1028,1028,1025,1025,1025,1022,1022,1019,1019,1016,1016,1016,1016,1016,1013,1013,1013,1010,1010,1013,1013,1013,1010,1010,1010,1010,1007,1007,1007,1004,1004,1004,1004,1004,1004,1004,1007,1007,1054,1054,1054,1054,0,0,0,0,0,0,0,0,0,767,767,767,766,766,766,766,766,766,766,766,764,764,762,762,762,762,762,762,762,762,762,761,761,761,761,761,761,761,761,761,761,761,761,0,0,0,0,0,0,0,0,0,0,0,0,0,0,0,0,0,0,0,0,0,0,0,0,0,0,0,0,0,0,0,0,0,0,0,0,0,0
0,0,0,0,0,0,1119,1119,1123,1123,1126,1126,1123,1123,1126,1126,1126,1126,1126,1126,1126,1130,1130,1126,1126,1126,1126,1123,1123,1123,1123,1123,1123,1123,1123,1123,1126,1126,1126,1126,1126,1130,1130,1126,1126,1126,1126,1126,1123,1123,1123,1119,1119,1119,1119,1119,1119,1119,1119,1119,1119,1119,1119,1119,1119,1115,1115,1115,1119,1119,1119,1119,1119,1119,1119,1119,1115,1115,1115,1115,1115,1115,1115,1115,1115,1119,1119,1119,1115,1115,1115,1119,1119,1119,1119,1119,1119,1115,1115,1115,1112,1112,1112,1112,1112,1112,1112,1112,1112,1112,1112,1112,1112,1105,1105,1105,1105,1105,0,0,0,0,0,0,0,0,755,755,757,755,755,755,755,755,757,757,759,761,761,761,762,764,766,766,766,767,769,771,771,773,774,0,0,0,0,0,1097,1097,1101,1101,1105,1105,1105,1105,1105,1105,1105,1105,1105,1105,1105,1105,1105,1105,1105,1105,1105,1105,1105,1105,1105,1105,1105,1105,1101,1101,1101,1101,1105,1105,1105,1105,1105,1101,1101,1101,1101,1101,1101,858,858,858,860,860,862,862,862,864,864,867,867,867,867,867,867,867,867,867,867,867,867,867,867,869,869,869,871,871,873,873,875,875,878,878,878,880,882,882,882,885,885,887,889,889,891,891,894,894,896,896,896,901,901,903,903,903,906,906,908,915,1090,1087,1087,1087,1087,1087,1087,1087,1087,1087,1087,1084,1084,1087,1087,1087,1087,1087,1087,1087,1087,1087,1087,1087,1087,1084,1084,1084,1084,1084,1084,1084,1084,1084,1084,1084,1084,1084,1084,1084,1084,1084,1084,1084,1084,1080,1080,1080,1080,1080,1077,1077,1080,1080,1080,1080,1080,1080,1080,1080,1080,1080,1080,1080,1080,1080,1080,1080,1077,1077,1077,1077,1077,1077,1077,1077,1077,1077,1073,1070,1070,1070,1067,1067,1067,1063,1063,1060,1060,1060,1060,1060,1060,1063,1067,1067,1067,1070,1073,1073,1073,1073,1073,1073,1073,1070,1070,1073,1073,1073,1070,1070,1070,1070,1070,1070,1073,1073,1073,1073,1070,1070,1070,1067,1067,1070,1070,1070,1070,1070,1070,1070,1067,1067,1067,1067,1067,1067,1067,1067,1067,1067,1067,1067,1067,1063,1063,1063,1063,1063,1063,1063,1067,1067,1067,1067,1067,1067,1067,1067,1067,1063,1063,1063,1063,1063,1063,1063,1063,1063,1063,1063,1063,1063,1063,1063,1063,1063,1060,1060,1060,1060,1060,1057,1057,1054,1054,1054,1054,1054,1054,1054,1057,1057,1057,1057,1057,1054,1054,1054,1054,1054,1054,1054,1054,1054,1054,1054,1054,1054,1050,1050,1050,1050,1050,1050,1050,1050,1050,1050,1050,1050,1050,1050,1050,1050,1050,1050,1050,1050,1050,1047,1047,1047,1047,1047,1047,1047,1047,1047,1047,1044,1044,1044,1044,1041,1041,1041,1038,1038,1038,1038,1038,1038,1034,1034,1028,1028,1028,1025,1025,1025,1022,1022,1019,1019,1016,1016,1016,1016,1016,1013,1013,1013,1010,1010,1010,1010,1010,1010,1010,1010,1010,1007,1007,1007,1004,1004,1004,1004,1004,1004,1004,1007,1007,1013,1013,1013,0,0,0,0,0,0,0,0,0,0,767,767,767,767,766,766,766,766,766,766,766,764,762,762,762,762,762,762,762,762,762,762,761,761,761,761,761,761,761,761,761,761,761,761,0,0,0,0,0,0,0,0,0,0,0,0,0,0,0,0,0,0,0,0,0,0,0,0,0,0,0,0,0,0,0,0,0,0,0,0,0,0
0,0,0,0,0,0,1119,1119,1123,1123,1123,1126,1123,1123,1123,1123,1119,1119,1119,1119,1119,1119,1126,1123,1123,1123,1123,1119,1119,1119,1119,1119,1119,1119,1119,1119,1123,1123,1123,1123,1123,1126,1123,1123,1123,1123,1123,1123,1123,1119,1119,1119,1119,1119,1119,1119,1119,1115,1115,1115,1115,1115,1112,1112,1112,1112,1112,1112,1115,1115,1115,1115,1115,1115,1115,1115,1115,1115,1115,1112,1112,1108,1108,1112,1112,1115,1115,1115,1115,1115,1115,1115,1112,1112,1115,1115,1115,1115,1115,1115,1112,1112,1112,1112,1112,1112,1108,1108,1108,1108,1108,1108,1108,1105,1105,1101,1101,1101,0,0,0,0,0,0,0,0,755,755,757,757,757,757,757,757,757,759,759,761,762,762,764,766,766,766,767,767,769,771,771,773,774,0,0,0,0,0,1097,1097,1097,1101,1097,1097,1101,1101,1101,1101,1101,1101,1101,1101,1101,1101,1101,1101,1101,1101,1101,1101,1101,1101,1101,1101,1101,1101,1101,1101,1101,1101,1101,1101,1101,1101,1101,1101,1101,1101,851,851,851,856,858,858,858,858,860,862,862,862,864,864,864,864,864,864,864,864,864,864,864,867,867,867,867,867,869,869,869,871,873,873,875,875,878,878,880,882,882,882,885,885,887,887,889,891,894,894,894,894,896,896,896,898,901,903,903,903,903,906,1090,1090,1087,1087,1087,1084,1084,1087,1087,1084,1084,1084,1084,1084,1084,1084,1084,1084,1084,1084,1084,1084,1084,1084,1084,1084,1084,1080,1080,1080,1077,1077,1077,1077,1077,1077,1084,1084,1080,1080,1084,1080,1080,1080,1080,1080,1080,1077,1077,1077,1077,1077,1077,1077,1077,1077,1080,1080,1080,1080,1080,1080,1080,1080,1077,1077,1077,1077,1077,1077,1077,1077,1077,1077,1077,1073,1073,1073,1073,1077,1073,1070,1070,1067,1067,1067,1067,1063,1063,1063,1060,1060,1060,1060,1060,1063,1067,1067,1067,1070,1073,1070,1070,1070,1070,1070,1067,1067,1067,1070,1070,1070,1070,1070,1067,1067,1067,1067,1067,1067,1067,1067,1067,1067,1067,1067,1067,1067,1067,1067,1067,1067,1067,1067,1063,1063,1067,1063,1063,1063,1063,1067,1067,1063,1063,1063,1063,1063,1063,1063,1060,1060,1060,1060,1063,1063,1063,1063,1063,1063,1063,1063,1063,1063,1063,1063,1063,1060,1060,1063,1063,1063,1060,1060,1060,1060,1060,1060,1060,1060,1060,1060,1060,1060,1057,1057,1054,1054,1054,1054,1054,1054,1054,1054,1054,1054,1054,1054,1054,1054,1054,1054,1054,1054,1054,1050,1050,1050,1050,1050,1050,1050,1050,1050,1050,1050,1050,1050,1047,1047,1050,1050,1047,1047,1050,1050,1047,1047,1047,1047,1047,1047,1047,1044,1044,1044,1044,1044,1044,1044,1044,1044,1044,1044,1044,1041,1041,1041,1038,1038,1038,1038,1038,1038,1038,1034,1034,1034,1028,1028,1025,1025,1025,1025,1022,1022,1019,1019,1016,1016,1016,1016,1016,1013,1013,1013,1010,1010,1010,1010,1010,1010,1010,1010,1010,1007,1007,1007,1004,1004,1004,1004,1004,1004,1007,1007,1010,1013,1013,1016,0,0,0,0,0,0,0,0,0,767,767,767,767,767,766,766,766,766,766,766,766,764,762,762,762,762,762,762,762,762,762,762,762,762,762,761,761,761,761,761,761,761,761,761,0,0,0,0,0,0,0,0,0,0,0,0,0,0,0,0,0,0,0,0,0,0,0,0,0,0,0,0,0,0,0,0,0,0,0,0,0,0
0,0,0,0,0,0,1119,1119,1119,1123,1123,1123,1119,1119,1119,1119,1115,1115,1115,1115,1115,1115,1119,1115,1115,1119,1119,1119,1119,1119,1119,1119,1119,1119,1115,1115,1119,1119,1119,1119,1119,1119,1119,1119,1119,1119,1119,1119,1119,1119,1115,1115,1115,1115,1115,1115,1115,1115,1115,1115,1112,1108,1108,1108,1108,1108,1108,1108,1112,1112,1112,1112,1112,1112,1112,1112,1112,1108,1108,1108,1108,1108,1108,1108,1108,1108,1112,1112,1112,1112,1112,1112,1108,1108,1105,1105,1105,1105,1112,1112,1112,1112,1112,1108,1108,1108,1108,1105,1105,1105,1105,1105,1105,1105,1105,1101,1101,1097,1097,0,0,0,0,0,0,0,761,761,759,757,757,757,757,759,759,759,761,762,762,764,766,766,766,767,767,769,771,771,773,773,774,0,0,0,0,0,1090,1090,1097,1097,1097,1097,1097,1097,1097,1097,1097,1097,1097,1097,1097,1101,1101,1101,1097,1097,1101,1101,1097,1097,1097,1097,1097,1097,1097,1097,1097,1097,1097,1097,1097,1101,1101,1101,1101,1101,851,851,851,856,858,858,858,858,860,860,860,860,862,862,862,862,862,862,864,864,864,864,864,864,864,867,867,867,867,869,869,871,873,873,875,875,878,878,880,882,882,885,885,887,887,889,891,891,894,894,894,894,896,896,896,898,901,901,903,903,903,1084,1087,1084,1084,1084,1084,1080,1080,1084,1084,1084,1080,1080,1080,1080,1080,1080,1084,1080,1080,1080,1080,1080,1080,1080,1080,1080,1080,1077,1077,1077,1077,1077,1077,1077,1077,1077,1077,1077,1077,1077,1080,1077,1077,1077,1077,1077,1077,1077,1077,1077,1073,1073,1073,1073,1077,1077,1077,1077,1077,1077,1077,1077,1077,1077,1077,1073,1073,1077,1077,1077,1073,1073,1073,1073,1073,1073,1073,1073,1073,1070,1070,1070,1067,1067,1067,1067,1063,1063,1063,1063,1063,1063,1063,1063,1063,1063,1063,1067,1067,1067,1067,1067,1067,1067,1067,1067,1067,1067,1067,1067,1067,1067,1067,1067,1067,1067,1067,1067,1067,1067,1067,1067,1067,1063,1063,1063,1063,1063,1067,1067,1067,1063,1063,1063,1063,1063,1063,1060,1060,1063,1063,1063,1063,1063,1063,1063,1063,1060,1060,1060,1060,1060,1060,1060,1060,1060,1060,1060,1060,1060,1060,1060,1060,1060,1060,1060,1060,1057,1057,1060,1060,1060,1060,1057,1057,1057,1057,1057,1057,1057,1057,1057,1057,1057,1054,1054,1054,1054,1054,1054,1054,1054,1054,1054,1054,1054,1050,1050,1054,1050,1050,1050,1050,1050,1050,1050,1050,1050,1047,1047,1050,1047,1047,1047,1047,1047,1047,1044,1044,1047,1047,1047,1047,1047,1047,1047,1047,1047,1044,1044,1044,1044,1044,1044,1044,1044,1044,1041,1041,1041,1041,1041,1041,1041,1041,1041,1041,1038,1038,1038,1038,1038,1038,1038,1038,1034,1034,1031,1028,1025,1025,1025,1025,1025,1025,1022,1022,1022,1019,1016,1016,1016,1016,1013,1013,1013,1013,1013,1013,1013,1013,1013,1013,1010,1010,1010,1010,1010,1007,1007,1007,1007,1007,1007,1007,1010,1010,1013,1013,1016,1019,0,0,0,0,0,0,0,0,767,767,767,767,767,766,766,766,766,766,766,764,764,762,762,762,762,762,762,762,762,762,762,762,762,762,762,762,762,761,761,761,762,762,762,0,0,0,0,0,0,0,0,0,0,0,0,0,0,0,0,0,0,0,0,0,0,0,0,0,0,0,0,0,0,0,0,0,0,0,0,0,0
0,0,0,0,0,0,1119,1119,1119,1119,1119,1119,1119,1115,1115,1115,1112,1112,1112,1112,1115,1108,1108,1112,1115,1115,1115,1115,1115,1119,1115,1115,1115,1115,1115,1112,1112,1115,1115,1115,1115,1115,1115,1115,1115,1115,1115,1115,1115,1115,1115,1115,1115,1112,1112,1115,1115,1112,1112,1112,1112,1108,1108,1105,1105,1105,1108,1108,1108,1108,1108,1112,1108,1108,1108,1108,1105,1105,1105,1105,1105,1105,1105,1105,1105,1105,1105,1108,1108,1108,1108,1108,1105,1105,1105,1105,1105,1105,1105,1105,1105,1105,1108,1105,1105,1105,1105,1105,1105,1105,1105,1105,1105,1105,1101,1101,1101,1097,1097,0,0,0,0,0,0,0,761,761,759,759,759,759,759,759,759,761,761,762,764,764,766,767,767,767,769,769,771,773,773,774,774,0,0,0,0,0,1087,1087,1090,1090,1090,1090,1094,1094,1094,1094,1094,1094,1090,1090,1090,1094,1094,1097,1097,1097,1097,1097,1094,1094,1094,1097,1094,1094,1094,1094,1094,1094,1097,1097,1097,1101,1101,1101,851,851,854,854,854,856,856,858,858,858,860,860,860,860,860,860,860,860,860,860,862,862,862,862,862,864,864,867,867,867,867,869,869,871,873,873,875,878,878,880,880,882,885,885,885,887,887,889,891,891,894,894,894,896,896,896,896,898,901,901,1080,1080,1080,1080,1080,1080,1080,1080,1080,1080,1080,1080,1080,1080,1080,1080,1080,1080,1077,1077,1080,1077,1077,1080,1080,1080,1080,1080,1077,1077,1077,1077,1073,1073,1073,1073,1073,1073,1073,1073,1073,1073,1073,1073,1073,1073,1073,1073,1077,1077,1073,1073,1073,1073,1073,1073,1070,1070,1073,1073,1073,1073,1073,1073,1073,1073,1073,1073,1073,1073,1073,1073,1073,1073,1073,1070,1070,1070,1070,1070,1070,1070,1070,1067,1067,1067,1067,1067,1063,1063,1063,1063,1063,1063,1063,1063,1063,1063,1063,1063,1063,1063,1067,1063,1063,1063,1063,1063,1063,1067,1067,1067,1067,1067,1067,1067,1067,1063,1063,1063,1063,1063,1063,1063,1063,1063,1063,1063,1063,1063,1063,1063,1063,1063,1063,1063,1063,1060,1060,1060,1060,1060,1060,1060,1060,1060,1060,1060,1060,1060,1060,1057,1057,1057,1057,1057,1057,1057,1057,1057,1057,1057,1057,1054,1054,1057,1057,1057,1057,1057,1057,1057,1057,1057,1057,1057,1057,1057,1057,1054,1054,1054,1054,1054,1054,1054,1054,1054,1054,1050,1050,1050,1050,1050,1050,1050,1050,1050,1050,1050,1050,1050,1050,1050,1050,1050,1050,1050,1050,1047,1047,1047,1047,1047,1047,1047,1044,1044,1044,1044,1044,1044,1044,1044,1044,1044,1044,1044,1047,1047,1044,1044,1044,1044,1041,1041,1041,1041,1041,1041,1041,1041,1041,1041,1041,1041,1041,1041,1041,1038,1038,1038,1038,1038,1038,1038,1038,1038,1034,1034,1034,1028,1028,1025,1025,1025,1025,1025,1025,1025,1025,1022,1019,1019,1019,1016,1016,1016,1016,1013,1013,1013,1013,1013,1013,1013,1013,1013,1013,1010,1010,1010,1007,1007,1007,1007,1007,1007,1007,1010,1013,1013,1016,1019,1019,0,0,0,0,0,0,0,767,767,767,767,767,767,766,766,767,766,766,766,764,764,762,762,762,762,762,762,762,762,762,762,762,762,762,762,762,762,761,761,761,762,762,762,0,0,0,0,0,0,0,0,0,0,0,0,0,0,0,0,0,0,0,0,0,0,0,0,0,0,0,0,0,0,0,0,0,0,0,0,0,0
0,0,0,0,0,0,1119,1115,1115,1119,1119,1119,1115,1115,1112,1112,1112,1108,1108,1108,1108,1108,1108,1112,1112,1112,1112,1112,1115,1115,1112,1112,1112,1112,1108,1108,1108,1108,1108,1108,1108,1108,1108,1112,1112,1112,1112,1112,1112,1112,1112,1112,1108,1108,1108,1108,1112,1108,1108,1108,1108,1105,1105,1105,1105,1105,1105,1105,1105,1105,1105,1108,1108,1108,1105,1105,1105,1105,1105,1105,1105,1105,1105,1105,1105,1105,1105,1105,1105,1105,1105,1105,1105,1105,1101,1101,1101,1101,1101,1101,1101,1101,1101,1101,1101,1101,1105,1105,1101,1101,1101,1105,1101,1101,1101,1101,1101,1097,1097,0,0,0,0,0,0,0,0,762,761,761,759,759,759,759,759,761,761,762,764,764,766,767,767,767,769,771,771,773,773,774,774,774,0,0,0,0,1087,1087,1087,1087,1087,1090,1090,1094,1094,1090,1090,1090,1090,1087,1087,1090,1090,1090,1090,1094,1094,1094,1090,1090,1090,1090,1090,1090,1090,1094,1094,1094,1094,1094,1094,1097,851,851,851,851,851,854,854,854,856,856,856,856,858,858,858,858,858,858,858,858,860,860,860,860,862,862,862,862,864,867,867,867,869,869,871,871,873,875,878,878,880,882,882,885,885,885,885,887,887,889,891,894,894,894,894,896,896,896,896,898,898,1077,1077,1077,1080,1080,1077,1077,1077,1077,1077,1077,1077,1077,1077,1077,1077,1077,1077,1077,1077,1077,1077,1077,1077,1077,1077,1077,1077,1077,1077,1073,1073,1073,1073,1073,1073,1070,1070,1070,1070,1070,1070,1070,1070,1070,1070,1070,1070,1070,1070,1070,1073,1073,1073,1073,1070,1070,1070,1070,1070,1070,1070,1070,1073,1073,1073,1070,1070,1070,1070,1070,1070,1070,1070,1073,1073,1070,1070,1070,1067,1067,1067,1067,1067,1067,1067,1067,1063,1063,1063,1063,1063,1063,1063,1063,1063,1060,1060,1060,1063,1063,1063,1063,1063,1063,1063,1063,1063,1060,1060,1060,1060,1060,1063,1063,1063,1063,1063,1063,1063,1063,1063,1063,1060,1060,1060,1060,1060,1060,1060,1060,1060,1060,1060,1060,1060,1060,1060,1060,1057,1057,1057,1057,1057,1057,1057,1057,1057,1057,1057,1057,1057,1057,1054,1054,1054,1054,1054,1054,1054,1054,1054,1054,1054,1054,1054,1054,1054,1054,1054,1050,1050,1054,1054,1054,1054,1054,1054,1054,1054,1054,1054,1050,1050,1050,1050,1050,1050,1050,1050,1050,1050,1050,1050,1050,1050,1050,1050,1050,1050,1050,1050,1050,1050,1047,1047,1047,1047,1047,1047,1047,1047,1047,1044,1044,1044,1044,1044,1044,1044,1044,1041,1041,1041,1041,1041,1041,1041,1041,1044,1044,1041,1041,1041,1041,1041,1041,1041,1041,1041,1038,1038,1038,1038,1038,1038,1038,1038,1038,1038,1038,1038,1038,1038,1038,1038,1038,1038,1038,1034,1034,1031,1028,1028,1025,1025,1025,1025,1025,1025,1022,1022,1022,1022,1019,1019,1019,1016,1016,1016,1016,1016,1016,1013,1013,1013,1013,1013,1013,1013,1013,1013,1013,1013,1010,1007,1007,1007,1007,1007,1013,1013,1013,1016,1019,1019,0,0,0,0,0,0,0,767,767,767,767,767,767,767,767,767,766,766,766,764,764,762,762,762,762,762,762,762,762,762,762,762,762,762,762,762,762,762,762,762,762,762,762,0,0,0,0,0,0,0,0,0,0,0,0,0,0,0,0,0,0,0,0,0,0,0,0,0,0,0,0,0,0,0,0,0,0,0,0,0,0
0,0,0,0,0,0,1115,1115,1115,1115,1115,1115,1115,1115,1112,1112,1108,1108,1108,1108,1108,1108,1108,1108,1108,1108,1112,1112,1112,1112,1108,1108,1108,1108,1105,1105,1105,1105,1108,1105,1105,1108,1108,1108,1108,1108,1108,1108,1108,1108,1108,1108,1108,1108,1108,1108,1108,1105,1105,1105,1105,1105,1105,1105,1101,1101,1105,1101,1101,1105,1105,1105,1105,1105,1105,1105,1101,1101,1101,1101,1101,1101,1101,1101,1101,1101,1101,1101,1101,1105,1101,1101,1101,1101,1097,1097,1097,1097,1097,1097,1097,1097,1101,1101,1097,1097,1097,1097,1097,1097,1101,1101,1101,1101,1101,1097,1097,1090,1090,0,0,0,0,0,0,0,0,762,761,761,761,759,759,759,759,761,761,762,764,764,766,767,767,767,769,771,771,773,773,774,774,774,0,0,0,0,0,1087,1087,1087,1087,1087,1087,1090,1090,1090,1090,1087,1087,1087,1087,1087,1087,1087,1087,1087,1087,1087,1090,1090,1090,1090,1090,1090,1090,1090,841,841,841,1090,849,849,849,849,849,851,851,851,851,854,854,854,854,854,854,856,856,856,856,856,858,858,858,858,860,860,860,862,862,862,864,867,867,867,869,869,871,871,873,875,878,880,882,882,882,885,885,885,887,887,889,889,891,891,894,894,894,896,896,896,896,898,898,1077,1073,1073,1077,1077,1077,1073,1073,1077,1077,1073,1073,1077,1073,1073,1073,1073,1073,1073,1073,1073,1073,1073,1073,1073,1073,1073,1073,1073,1073,1073,1073,1070,1070,1070,1070,1070,1070,1070,1070,1070,1070,1070,1067,1067,1067,1067,1067,1067,1067,1067,1067,1067,1067,1067,1067,1067,1067,1067,1067,1067,1070,1070,1070,1070,1070,1067,1067,1067,1067,1067,1067,1067,1070,1070,1070,1067,1067,1067,1067,1067,1063,1063,1063,1063,1063,1063,1063,1063,1063,1063,1063,1063,1063,1060,1060,1060,1060,1060,1060,1060,1060,1060,1063,1060,1060,1060,1060,1060,1057,1057,1057,1057,1057,1057,1057,1060,1060,1060,1060,1060,1060,1060,1057,1057,1060,1060,1057,1057,1057,1057,1057,1057,1057,1057,1057,1054,1054,1054,1054,1054,1054,1054,1054,1054,1054,1054,1054,1054,1054,1054,1054,1054,1054,1054,1050,1050,1050,1050,1050,1050,1050,1050,1050,1050,1050,1050,1050,1050,1050,1050,1050,1050,1050,1050,1050,1050,1050,1050,1050,1050,1050,1050,1050,1047,1047,1047,1047,1047,1047,1047,1047,1047,1047,1047,1047,1047,1047,1047,1047,1047,1047,1047,1044,1044,1044,1044,1044,1044,1044,1044,1044,1044,1044,1041,1041,1041,1041,1041,1041,1041,1041,1041,1038,1038,1041,1041,1041,1041,1041,1041,1038,1038,1038,1038,1038,1038,1038,1038,1038,1038,1038,1034,1034,1034,1034,1034,1034,1034,1034,1034,1034,1034,1034,1034,1034,1034,1034,1034,1034,1034,1028,1028,1025,1025,1025,1025,1025,1025,1025,1022,1022,1022,1022,1019,1019,1019,1019,1019,1019,1019,1016,1016,1016,1016,1016,1016,1016,1016,1016,1016,1016,1016,1016,1016,1013,1013,1010,1010,1013,1016,1016,1019,1019,1019,0,0,0,0,0,0,0,0,767,767,767,767,767,767,767,767,767,766,766,766,764,764,762,762,762,762,762,762,762,762,762,762,762,762,762,762,762,762,762,762,762,762,762,762,0,0,0,0,0,0,0,0,0,0,0,0,0,0,0,0,0,0,0,0,0,0,0,0,0,0,0,0,0,0,0,0,0,0,0,0,0,0
0,0,0,0,0,0,1115,1112,1112,1115,1112,1112,1112,1112,1108,1105,1105,1105,1101,1101,1105,1105,1105,1105,1108,1108,1108,1108,1108,1108,1108,1108,1105,1105,1105,1105,1105,1105,1105,1105,1105,1105,1105,1105,1105,1105,1105,1105,1105,1105,1105,1105,1105,1105,1105,1105,1105,1105,1105,1105,1105,1105,1105,1101,1101,1101,1101,1101,1101,1101,1101,1101,1101,1101,1101,1101,1101,1101,1101,1101,1097,1097,1097,1101,1101,1101,1101,1101,1101,1101,1101,1101,1101,1097,1097,1097,1097,1094,1094,1097,1097,1097,1097,1097,1094,1094,1094,1094,1094,1094,1094,1094,1094,1097,1097,1094,1090,1087,1087,0,0,0,0,0,0,0,0,0,764,761,761,761,761,761,761,761,762,764,764,766,766,767,767,769,769,771,773,773,773,774,774,774,0,0,0,0,0,1087,1084,1084,1084,1084,1087,1087,1087,1087,1087,1087,1087,1084,1084,1084,1084,1084,1084,1084,1087,1087,1087,1087,1087,1087,1087,1087,1087,841,841,841,841,847,847,849,849,849,849,851,851,851,851,851,851,854,854,854,854,854,854,854,854,854,856,856,858,858,858,860,860,862,862,862,864,867,867,867,869,869,871,873,875,875,878,880,882,885,885,885,885,887,887,887,889,889,891,891,891,894,894,896,896,896,896,1070,1073,1073,1073,1073,1073,1073,1073,1070,1070,1073,1073,1073,1073,1073,1073,1073,1073,1070,1070,1070,1070,1070,1070,1070,1070,1070,1070,1070,1070,1070,1070,1070,1070,1067,1067,1067,1067,1067,1067,1067,1067,1067,1067,1067,1067,1067,1067,1063,1063,1063,1063,1063,1063,1063,1063,1063,1063,1063,1063,1063,1067,1067,1067,1067,1067,1067,1067,1067,1067,1067,1067,1067,1067,1067,1067,1067,1067,1067,1063,1063,1063,1063,1063,1063,1063,1063,1060,1060,1060,1060,1060,1060,1060,1060,1060,1060,1060,1057,1057,1057,1057,1057,1057,1057,1057,1057,1057,1057,1057,1057,1057,1057,1057,1057,1057,1057,1057,1054,1054,1054,1057,1057,1057,1057,1057,1057,1057,1057,1057,1054,1054,1054,1054,1054,1054,1054,1054,1054,1050,1050,1050,1050,1050,1050,1050,1050,1050,1050,1050,1054,1054,1054,1054,1050,1050,1050,1050,1050,1050,1050,1050,1050,1050,1050,1050,1050,1047,1047,1047,1047,1047,1047,1047,1047,1047,1047,1047,1047,1047,1047,1047,1047,1047,1044,1044,1044,1044,1044,1044,1044,1044,1044,1044,1044,1044,1044,1044,1044,1044,1047,1044,1044,1044,1044,1044,1041,1041,1041,1041,1041,1041,1041,1041,1041,1041,1041,1041,1041,1038,1038,1038,1038,1038,1038,1038,1038,1038,1038,1038,1038,1038,1038,1038,1038,1038,1038,1038,1038,1038,1038,1038,1034,1034,1034,1031,1031,1031,1031,1031,1031,1031,1031,1031,1031,1031,1031,1034,1034,1034,1031,1031,1028,1028,1025,1025,1025,1025,1025,1025,1025,1025,1025,1025,1022,1022,1022,1022,1022,1022,1022,1022,1022,1022,1022,1019,1019,1016,1016,1019,1019,1019,1019,1019,1016,1016,1016,1016,1016,1016,1016,1016,1019,1022,1022,1022,1022,0,0,0,0,0,0,0,0,767,767,767,767,767,767,767,767,766,766,764,764,764,764,762,762,762,762,762,762,762,762,762,762,762,762,762,762,762,762,762,762,762,762,762,0,0,0,0,0,0,0,0,0,0,0,0,0,0,0,0,0,0,0,0,0,0,0,0,0,0,0,0,0,0,0,0,0,0,0,0,0,0,0
0,0,0,0,0,0,1112,1108,1108,1112,1112,1112,1108,1108,1105,1105,1105,1101,1097,1097,1097,1101,1101,1105,1105,1105,1105,1105,1105,1105,1105,1105,1105,1105,1101,1101,1101,1101,1101,1101,1101,1101,1105,1101,1101,1105,1105,1105,1105,1101,1101,1105,1105,1105,1105,1105,1105,1105,1105,1105,1105,1101,1101,1101,1101,1097,1097,1097,1097,1097,1097,1097,1101,1101,1101,1097,1097,1097,1097,1097,1097,1097,1097,1097,1097,1097,1097,1097,1097,1097,1097,1097,1094,1094,1094,1094,1094,1090,1090,1094,1094,1094,1094,1094,1094,1094,1094,1094,1094,1090,1090,1090,1090,1090,1090,1087,1087,1087,1087,0,0,0,0,0,0,0,0,0,764,762,762,761,761,761,761,762,764,764,766,766,766,767,767,769,771,771,773,773,774,774,774,774,0,0,0,0,0,1084,1084,1084,1084,1084,1087,1084,1084,1084,1084,1084,1084,1080,1080,1084,1084,1080,1080,1080,1084,1084,1087,1087,1087,1087,1087,1087,843,841,841,841,843,847,847,847,847,849,849,849,849,849,849,851,851,851,851,851,851,854,854,854,854,854,854,856,856,858,858,860,860,862,862,864,864,867,867,869,869,871,871,875,875,878,878,880,882,885,885,885,887,887,887,889,889,889,891,891,891,894,1067,1067,1067,1063,1063,1067,1070,1070,1070,1070,1070,1070,1070,1067,1067,1070,1070,1070,1070,1070,1070,1070,1070,1067,1067,1067,1067,1067,1067,1067,1067,1067,1067,1067,1067,1067,1067,1063,1063,1063,1063,1063,1063,1063,1063,1063,1063,1063,1063,1063,1063,1063,1063,1063,1063,1063,1063,1063,1063,1063,1063,1060,1060,1060,1060,1060,1063,1063,1063,1063,1063,1063,1063,1063,1063,1063,1063,1063,1063,1063,1063,1063,1063,1063,1060,1060,1060,1060,1060,1060,1060,1060,1060,1057,1057,1057,1060,1060,1057,1057,1060,1057,1057,1054,1054,1054,1054,1054,1054,1054,1054,1054,1054,1054,1054,1054,1054,1054,1054,1054,1054,1054,1054,1054,1054,1054,1054,1050,1050,1050,1054,1054,1054,1054,1054,1054,1054,1054,1050,1050,1050,1050,1050,1050,1050,1050,1050,1047,1047,1050,1050,1050,1050,1050,1050,1050,1050,1050,1050,1050,1047,1047,1047,1047,1047,1047,1050,1050,1047,1047,1047,1047,1044,1044,1047,1047,1047,1047,1044,1044,1044,1044,1041,1041,1041,1041,1041,1041,1041,1041,1041,1041,1041,1044,1041,1041,1041,1041,1041,1041,1044,1041,1041,1044,1044,1044,1041,1041,1041,1041,1041,1041,1038,1038,1041,1038,1038,1038,1038,1038,1038,1038,1038,1038,1038,1034,1034,1034,1034,1034,1034,1034,1034,1034,1038,1034,1034,1034,1034,1034,1034,1031,1031,1031,1034,1034,1034,1034,1031,1031,1031,1031,1028,1028,1028,1028,1028,1028,1031,1031,1031,1031,1031,1031,1031,1028,1028,1028,1025,1025,1025,1025,1025,1025,1025,1025,1025,1025,1025,1022,1022,1022,1022,1022,1022,1022,1022,1022,1022,1022,1022,1022,1022,1022,1019,1019,1019,1019,1019,1016,1016,1016,1016,1016,1016,1016,1019,1022,1022,1025,1025,1025,0,0,0,0,0,0,766,766,767,767,767,767,767,767,767,767,766,766,764,764,764,764,762,762,762,762,762,762,762,762,764,764,764,764,764,762,762,762,762,762,762,762,762,0,0,0,0,0,0,0,0,0,0,0,0,0,0,0,0,0,0,0,0,0,0,0,0,0,0,0,0,0,0,0,0,0,0,0,0,0,0,0
0,0,0,0,0,0,1112,1105,1105,1108,1108,1108,1108,1105,1101,1097,1097,1097,1094,1094,1094,1097,1097,1101,1101,1101,1101,1101,1101,1101,1101,1101,1101,1101,1101,1101,1101,1101,1101,1101,1101,1101,1101,1101,1101,1101,1101,1101,1101,1101,1101,1101,1101,1101,1101,1101,1101,1101,1101,1101,1101,1101,1097,1097,1097,1094,1094,1094,1094,1097,1097,1097,1097,1097,1097,1097,1097,1094,1094,1094,1094,1094,1094,1094,1094,1094,1094,1094,1094,1094,1094,1094,1094,1090,1090,1090,1090,1090,1090,1090,1090,1090,1090,1090,1090,1090,1090,1090,1090,1090,1090,1090,1087,1087,1087,1087,1084,1080,1080,1080,0,0,0,0,0,0,0,0,766,762,762,762,762,762,762,762,764,766,766,766,767,767,769,769,771,773,773,773,774,774,776,776,776,0,0,0,0,1084,1080,1080,1080,1080,1084,1084,1084,1084,1084,1080,1080,1080,1080,1080,1080,1080,1080,1080,1080,1084,1084,1084,1087,843,843,843,843,843,843,843,843,845,845,847,847,847,847,849,849,849,849,849,849,851,851,851,851,851,851,851,854,854,854,856,856,858,858,860,860,862,862,864,864,867,867,869,869,873,873,875,878,878,878,880,882,882,885,885,887,887,887,887,887,887,1067,1067,1067,1067,1067,1067,1063,1063,1063,1063,1063,1063,1063,1063,1067,1067,1067,1067,1067,1067,1067,1067,1067,1067,1067,1067,1067,1067,1067,1063,1063,1067,1063,1063,1063,1063,1063,1063,1063,1063,1063,1063,1063,1063,1063,1063,1063,1063,1063,1063,1060,1060,1060,1060,1060,1060,1060,1060,1060,1060,1060,1060,1060,1060,1060,1060,1060,1057,1057,1057,1060,1060,1060,1060,1060,1060,1060,1060,1060,1057,1057,1057,1057,1057,1057,1057,1057,1060,1057,1057,1057,1057,1057,1057,1057,1057,1054,1054,1054,1054,1057,1054,1054,1054,1057,1054,1054,1054,1054,1054,1054,1054,1054,1054,1054,1054,1054,1054,1054,1054,1050,1050,1050,1050,1050,1050,1050,1050,1050,1050,1050,1050,1050,1050,1050,1050,1050,1050,1050,1050,1050,1050,1047,1047,1050,1047,1047,1047,1047,1047,1047,1047,1047,1047,1047,1047,1047,1047,1047,1050,1047,1047,1047,1047,1047,1044,1044,1044,1044,1044,1047,1047,1047,1047,1044,1044,1044,1044,1044,1044,1044,1044,1041,1041,1041,1041,1041,1041,1038,1038,1038,1038,1038,1038,1038,1038,1041,1041,1041,1041,1041,1041,1041,1041,1041,1041,1041,1041,1041,1041,1041,1041,1041,1041,1038,1038,1038,1038,1038,1038,1034,1034,1034,1034,1034,1034,1034,1034,1034,1034,1034,1034,1034,1034,1034,1034,1034,1034,1034,1031,1031,1031,1031,1031,1031,1031,1031,1031,1031,1028,1028,1028,1031,1028,1028,1028,1028,1028,1028,1028,1028,1028,1028,1028,1028,1028,1028,1028,1028,1025,1025,1025,1025,1025,1025,1025,1025,1022,1022,1022,1022,1025,1025,1022,1022,1022,1022,1022,1019,1019,1019,1022,1022,1022,1022,1022,1022,1022,1019,1019,1019,1019,1016,1016,1016,1016,1016,1016,1016,1016,1019,1022,1022,1025,1025,1028,0,0,0,0,0,766,766,766,767,767,767,767,767,767,767,767,766,764,764,764,764,764,762,762,762,762,762,762,762,762,764,764,762,762,764,762,762,762,762,762,762,762,762,0,0,0,0,0,0,0,0,0,0,0,0,0,0,0,0,0,0,0,0,0,0,0,0,0,0,0,0,0,0,0,0,0,0,0,0,0,0,0
0,0,0,0,0,0,1105,1101,1101,1101,1101,1101,1105,1101,1097,1094,1094,1097,1094,1094,1094,1094,1097,1097,1097,1097,1097,1101,1101,1097,1097,1097,1097,1097,1097,1097,1097,1097,1097,1097,1097,1097,1097,1097,1097,1097,1097,1097,1097,1094,1094,1097,1101,1101,1101,1101,1101,1101,1097,1097,1097,1094,1094,1094,1090,1090,1090,1094,1094,1094,1094,1094,1094,1094,1094,1094,1094,1094,1094,1090,1090,1090,1090,1090,1090,1090,1090,1090,1090,1090,1090,1090,1090,1090,1090,1087,1087,1087,1087,1087,1090,1090,1090,1090,1087,1087,1087,1087,1087,1087,1087,1087,1087,1087,1087,1084,1080,1080,1080,1080,1080,0,0,0,0,0,0,0,764,762,762,762,762,762,762,762,764,766,766,766,767,769,769,771,773,773,774,774,776,776,776,776,776,0,0,0,0,0,1077,1077,1077,1077,1080,1080,1080,1080,1080,1080,1077,1077,1077,1077,1077,1080,1077,1077,1080,1080,1084,839,839,839,841,841,841,841,841,843,843,843,845,845,845,847,847,847,849,849,849,849,849,849,849,851,851,851,851,851,851,854,856,856,856,858,858,860,860,862,864,864,867,867,869,869,871,875,875,875,878,878,878,880,882,882,885,885,887,887,887,887,887,1060,1063,1067,1063,1063,1063,1063,1063,1063,1063,1063,1063,1063,1063,1063,1063,1063,1063,1063,1063,1063,1063,1063,1063,1063,1063,1063,1063,1063,1063,1063,1063,1063,1063,1063,1060,1060,1060,1060,1060,1060,1060,1060,1060,1060,1060,1060,1060,1060,1060,1060,1057,1057,1057,1057,1054,1054,1057,1057,1057,1057,1057,1057,1057,1057,1054,1054,1057,1054,1054,1054,1057,1057,1057,1057,1057,1057,1057,1054,1054,1054,1054,1054,1054,1054,1054,1057,1057,1057,1057,1057,1057,1057,1054,1054,1054,1054,1054,1054,1050,1050,1054,1054,1054,1054,1054,1054,1050,1050,1050,1050,1050,1050,1050,1050,1050,1050,1050,1050,1050,1050,1047,1047,1047,1047,1050,1047,1047,1047,1047,1047,1047,1047,1047,1047,1047,1047,1047,1044,1044,1044,1047,1047,1047,1047,1047,1047,1047,1047,1047,1047,1047,1044,1044,1044,1044,1044,1044,1044,1047,1047,1044,1044,1044,1044,1044,1041,1041,1041,1041,1041,1041,1044,1041,1041,1041,1041,1041,1041,1041,1041,1041,1041,1041,1041,1038,1038,1038,1038,1038,1038,1038,1038,1038,1034,1034,1034,1034,1034,1038,1038,1038,1038,1038,1038,1038,1038,1038,1038,1038,1038,1038,1038,1038,1034,1034,1034,1034,1034,1034,1034,1031,1031,1031,1031,1031,1031,1031,1031,1031,1031,1031,1031,1031,1028,1028,1028,1028,1028,1028,1028,1028,1028,1028,1028,1028,1028,1028,1028,1028,1028,1028,1028,1028,1025,1025,1025,1025,1025,1025,1025,1025,1025,1025,1025,1025,1025,1025,1025,1025,1025,1025,1025,1022,1022,1022,1022,1022,1022,1022,1022,1022,1022,1022,1022,1022,1019,1019,1019,1019,1016,1016,1019,1019,1019,1019,1019,1019,1019,1019,1019,1019,1016,1016,1016,1016,1016,1016,1016,1016,1016,1016,1019,1022,1022,1025,1028,0,0,0,0,766,766,766,766,767,767,767,767,767,767,767,766,766,764,764,764,764,762,762,762,762,762,762,762,762,762,764,764,762,762,764,764,764,764,762,762,762,762,762,0,0,0,0,0,0,0,0,0,0,0,0,0,0,0,0,0,0,0,0,0,0,0,0,0,0,0,0,0,0,0,0,0,0,0,0,0,0,0
0,0,0,0,0,0,1101,1101,1101,1097,1097,1097,1101,1097,1094,1094,1094,1094,1090,1090,1090,1090,1094,1094,1094,1094,1094,1097,1097,1094,1094,1094,1094,1094,1094,1094,1094,1094,1094,1094,1094,1094,1094,1094,1094,1094,1094,1094,1094,1094,1094,1094,1094,1094,1097,1097,1097,1097,1097,1094,1094,1090,1090,1090,1090,1090,1090,1090,1090,1090,1090,1090,1090,1090,1090,1090,1090,1090,1090,1090,1090,1090,1090,1090,1090,1090,1090,1090,1090,1090,1090,1087,1087,1087,1087,1087,1087,1087,1087,1087,1087,1087,1087,1087,1087,1087,1087,1087,1087,1084,1084,1084,1080,1080,1084,1080,1077,1077,1077,1077,1080,1077,1077,0,0,0,0,0,764,762,762,762,762,762,762,764,764,766,766,766,767,769,771,773,773,773,774,774,776,776,776,776,776,0,0,0,0,0,1077,1077,1077,1077,1077,1077,1077,1077,1077,1077,1077,1077,1077,1077,1077,1077,1077,837,835,835,837,837,837,837,839,839,841,841,841,841,841,843,843,843,843,845,845,845,847,847,849,849,849,849,849,849,849,851,851,851,851,854,856,856,856,858,858,860,860,862,864,867,867,867,869,869,871,875,875,878,878,878,880,880,882,885,885,885,885,885,885,1060,1060,1060,1063,1063,1063,1063,1063,1063,1063,1060,1060,1060,1060,1060,1060,1060,1060,1060,1060,1060,1060,1060,1063,1063,1063,1060,1060,1063,1063,1063,1063,1060,1060,1060,1060,1060,1060,1060,1057,1057,1057,1057,1057,1057,1057,1057,1057,1057,1057,1057,1057,1057,1054,1054,1057,1054,1054,1054,1054,1054,1054,1054,1054,1054,1054,1054,1054,1054,1050,1050,1050,1050,1054,1054,1054,1054,1054,1054,1054,1054,1054,1050,1050,1050,1050,1054,1054,1054,1054,1054,1054,1054,1054,1054,1054,1054,1054,1054,1054,1050,1050,1050,1050,1050,1050,1050,1050,1050,1047,1047,1050,1047,1047,1047,1047,1050,1050,1047,1047,1047,1047,1047,1044,1044,1044,1047,1047,1047,1047,1047,1047,1044,1044,1044,1044,1044,1044,1044,1044,1044,1044,1044,1041,1041,1041,1044,1044,1044,1044,1044,1044,1044,1044,1044,1044,1044,1044,1041,1041,1041,1044,1044,1041,1041,1041,1041,1041,1041,1041,1038,1038,1041,1041,1041,1041,1038,1038,1038,1038,1038,1038,1038,1038,1038,1038,1038,1034,1034,1034,1034,1034,1034,1034,1034,1034,1034,1034,1034,1034,1034,1034,1031,1031,1034,1034,1034,1034,1034,1034,1034,1034,1034,1034,1034,1034,1031,1031,1031,1031,1031,1031,1031,1028,1028,1028,1028,1028,1028,1028,1028,1028,1028,1028,1028,1028,1028,1028,1028,1028,1025,1025,1025,1025,1025,1028,1028,1028,1025,1025,1025,1025,1025,1025,1025,1025,1025,1022,1022,1022,1022,1025,1025,1025,1025,1025,1025,1022,1022,1022,1022,1022,1019,1019,1022,1019,1019,1019,1019,1019,1019,1019,1019,1019,1019,1019,1019,1019,1019,1019,1019,1016,1016,1016,1016,1016,1016,1016,1016,1019,1019,1016,1016,1016,1016,1016,1013,1013,1013,1013,1013,1013,1013,1016,1016,1019,1019,1025,1028,764,764,764,764,766,766,766,767,767,767,767,767,767,767,767,766,766,764,764,764,764,762,762,762,762,762,762,762,762,762,764,762,762,764,764,764,764,764,764,764,764,764,764,0,0,0,0,0,0,0,0,0,0,0,0,0,0,0,0,0,0,0,0,0,0,0,0,0,0,0,0,0,0,0,0,0,0,0,0,0,0,0
0,0,0,0,0,0,1101,1097,1097,1094,1090,1090,1097,1094,1090,1090,1090,1090,1090,1090,1090,1090,1090,1090,1090,1090,1090,1094,1094,1090,1090,1090,1090,1090,1090,1090,1090,1090,1090,1090,1090,1090,1094,1090,1090,1090,1090,1090,1090,1090,1090,1090,1090,1090,1090,1090,1090,1090,1090,1087,1087,1090,1087,1087,1087,1087,1087,1087,1090,1090,1087,1087,1087,1087,1087,1087,1087,1087,1090,1090,1090,1087,1087,1087,1087,1087,1087,1087,1087,1087,1084,1084,1084,1084,1084,1084,1084,1084,1084,1084,1084,1084,1084,1084,1084,1084,1084,1084,1084,1080,1080,1080,1077,1077,1077,1077,1077,1073,1073,1077,1077,1073,1073,0,0,0,0,0,764,762,762,764,764,764,764,764,766,766,766,767,767,771,771,773,773,774,774,774,776,778,778,778,778,0,0,783,0,0,1070,1070,1070,1073,1073,1077,1073,1073,1077,1073,1073,1073,1073,1073,1077,1077,837,837,835,835,837,837,837,837,839,839,841,841,841,841,841,841,841,843,843,843,843,843,845,845,847,847,847,849,849,849,849,851,851,851,851,854,856,856,856,858,858,860,862,864,864,867,867,869,869,871,875,875,878,878,878,878,880,880,882,885,885,885,885,885,1054,1054,1057,1060,1060,1060,1063,1063,1063,1060,1060,1060,1060,1060,1060,1060,1060,1060,1060,1060,1060,1060,1057,1057,1057,1057,1057,1060,1060,1060,1060,1060,1060,1057,1057,1057,1057,1057,1057,1057,1054,1054,1054,1054,1054,1054,1054,1054,1057,1054,1054,1054,1054,1054,1050,1050,1054,1050,1050,1050,1050,1050,1050,1050,1050,1050,1050,1050,1050,1050,1047,1047,1050,1050,1054,1050,1050,1054,1054,1050,1050,1050,1050,1050,1050,1050,1050,1050,1050,1050,1050,1054,1054,1054,1054,1054,1050,1050,1050,1050,1050,1050,1047,1047,1047,1047,1047,1047,1047,1047,1047,1047,1047,1044,1044,1047,1047,1047,1047,1044,1044,1044,1044,1041,1041,1041,1041,1044,1044,1044,1044,1044,1044,1044,1041,1041,1041,1041,1041,1041,1041,1041,1041,1041,1041,1041,1041,1041,1041,1041,1041,1041,1041,1041,1041,1041,1041,1041,1041,1041,1041,1041,1041,1038,1038,1038,1038,1038,1038,1038,1038,1038,1038,1038,1038,1038,1038,1038,1034,1034,1034,1034,1034,1034,1034,1034,1034,1034,1034,1034,1034,1031,1031,1031,1031,1031,1031,1031,1031,1031,1031,1031,1031,1031,1031,1031,1031,1028,1028,1031,1031,1031,1031,1031,1031,1031,1031,1028,1028,1028,1028,1028,1028,1028,1028,1028,1028,1028,1028,1028,1028,1028,1028,1028,1025,1025,1025,1025,1025,1025,1025,1022,1022,1022,1022,1022,1022,1025,1025,1022,1022,1022,1022,1022,1022,1022,1022,1022,1022,1022,1019,1019,1019,1019,1019,1022,1022,1022,1019,1019,1019,1019,1019,1019,1019,1019,1019,1019,1019,1019,1019,1016,1016,1016,1016,1016,1019,1016,1016,1016,1016,1016,1016,1016,1013,1013,1016,1013,1013,1013,1016,1016,1016,1013,1013,1013,1013,1013,1010,1010,1010,1010,1010,1013,1013,1016,1016,1019,1025,767,764,764,764,764,766,766,767,767,767,767,767,767,767,767,767,766,766,764,764,764,764,764,764,764,764,764,764,764,764,764,764,762,762,764,764,764,764,764,766,766,764,764,764,0,0,0,0,0,0,0,0,0,0,0,0,0,0,0,0,0,0,0,0,0,0,0,0,0,0,0,0,0,0,0,0,0,0,0,0,0,0,0
0,0,0,0,0,0,1097,1094,1094,1090,1087,1087,1090,1090,1090,1090,1090,1090,1090,1090,1090,1087,1087,1087,1087,1087,1087,1087,1087,1090,1090,1090,1090,1090,1090,1090,1090,1090,1090,1090,1090,1090,1090,1090,1090,1090,1087,1087,1087,1087,1087,1087,1087,1087,1087,1087,1087,1087,1087,1084,1084,1084,1084,1084,1084,1087,1087,1087,1087,1087,1087,1084,1084,1080,1080,1087,1087,1087,1087,1087,1087,1087,1087,1087,1087,1087,1084,1084,1084,1084,1084,1084,1080,1080,1080,1084,1084,1080,1080,1084,1080,1080,1080,1080,1080,1080,1080,1080,1080,1080,1080,1077,1077,1077,1077,1077,1073,1073,1073,1073,1073,1073,1070,1070,0,0,769,767,764,762,762,766,766,766,766,766,766,766,767,767,769,771,773,773,774,774,776,776,778,778,778,780,780,783,783,0,0,0,1070,1067,1067,1073,1073,1073,1073,1073,1073,1073,1073,1073,1073,1073,1073,1077,835,835,837,837,837,837,837,837,839,839,839,839,839,841,841,841,841,841,843,843,843,843,843,843,845,845,845,847,847,847,849,851,851,851,851,854,856,856,856,858,860,860,862,864,867,867,867,869,869,871,873,875,875,878,878,878,880,880,882,885,885,885,1054,1050,1050,1054,1054,1057,1057,1057,1060,1060,1060,1060,1060,1060,1060,1060,1060,1057,1057,1057,1057,1057,1057,1057,1057,1057,1057,1057,1057,1054,1054,1054,1054,1054,1057,1054,1054,1054,1054,1054,1054,1050,1050,1054,1054,1054,1054,1054,1050,1050,1054,1054,1050,1050,1050,1050,1050,1050,1050,1050,1047,1047,1050,1047,1047,1047,1047,1047,1047,1047,1047,1047,1047,1047,1047,1050,1050,1050,1050,1050,1050,1050,1050,1050,1047,1047,1047,1047,1050,1047,1047,1047,1050,1050,1050,1050,1050,1050,1050,1050,1047,1047,1047,1047,1047,1044,1044,1047,1047,1047,1044,1044,1044,1044,1044,1044,1044,1044,1044,1044,1044,1041,1041,1041,1041,1041,1041,1041,1041,1041,1041,1041,1041,1041,1041,1041,1041,1038,1038,1038,1038,1038,1038,1038,1038,1038,1038,1038,1038,1038,1038,1038,1038,1038,1038,1038,1041,1041,1041,1041,1038,1038,1038,1038,1038,1034,1034,1034,1034,1034,1038,1034,1034,1034,1034,1034,1034,1034,1034,1031,1031,1031,1031,1031,1031,1031,1031,1031,1031,1031,1031,1031,1031,1031,1031,1031,1031,1031,1028,1028,1028,1028,1028,1028,1028,1028,1028,1028,1028,1028,1028,1028,1028,1028,1028,1028,1028,1028,1028,1028,1028,1028,1025,1025,1025,1025,1025,1025,1025,1025,1025,1025,1025,1025,1025,1025,1025,1025,1025,1022,1022,1022,1022,1019,1019,1019,1019,1019,1019,1019,1022,1019,1019,1019,1022,1019,1019,1019,1019,1019,1019,1019,1019,1019,1019,1019,1016,1016,1016,1016,1019,1019,1019,1016,1016,1016,1016,1016,1016,1016,1016,1016,1016,1016,1016,1016,1016,1016,1016,1016,1016,1016,1016,1016,1016,1013,1013,1013,1013,1010,1010,1013,1013,1013,1013,1013,1013,1013,1013,1010,1010,1010,1010,1010,1010,1013,1013,1013,1016,1016,767,767,766,766,766,766,766,766,767,767,767,767,767,767,767,767,767,766,766,764,764,764,764,764,764,764,764,764,764,764,764,764,764,764,764,764,764,764,764,766,766,766,766,766,766,0,0,0,0,0,0,0,0,0,0,0,0,0,0,0,0,0,0,0,0,0,0,0,0,0,0,0,0,0,0,0,0,0,0,0,0,0,0,0
0,0,0,0,0,0,1087,1087,1090,1090,1087,1087,1087,1087,1087,1087,1087,1087,1087,1087,1087,1087,1087,1087,1087,1084,1084,1084,1084,1084,1087,1087,1087,1087,1087,1087,1087,1087,1087,1090,1087,1087,1090,1087,1087,1087,1087,1087,1087,1084,1084,1084,1084,1084,1084,1084,1084,1084,1084,1080,1080,1080,1084,1084,1084,1084,1084,1084,1084,1084,1084,1080,1080,1077,1077,1084,1080,1080,1080,1084,1084,1087,1084,1084,1084,1084,1084,1080,1080,1080,1080,1080,1080,1080,1080,1080,1080,1080,1080,1080,1080,1080,1077,1077,1077,1077,1077,1077,1077,1077,1077,1077,1073,1073,1073,1073,1073,1073,1073,1073,1073,1073,1070,1070,0,0,769,767,764,764,767,766,766,766,766,766,767,767,767,769,771,773,773,773,774,774,776,776,778,778,780,780,781,783,783,0,0,0,0,1067,1067,1070,1070,1073,1070,1070,1073,1073,1073,1073,1073,1073,833,833,833,835,835,835,835,835,837,837,837,837,837,837,837,837,839,839,839,839,841,841,841,843,843,843,843,843,843,845,845,847,849,851,851,851,851,854,856,856,856,858,860,860,862,864,867,867,869,869,869,871,873,875,875,878,878,878,880,880,1050,1050,1054,1054,1054,1050,1050,1054,1054,1054,1054,1057,1057,1060,1060,1057,1057,1057,1057,1054,1054,1054,1054,1054,1054,1054,1054,1054,1054,1054,1054,1054,1054,1050,1050,1050,1050,1050,1050,1050,1050,1050,1050,1050,1050,1050,1050,1050,1050,1050,1050,1050,1050,1050,1050,1050,1047,1047,1047,1047,1047,1047,1047,1047,1047,1047,1047,1047,1047,1044,1044,1044,1044,1044,1044,1041,1041,1044,1044,1047,1047,1047,1047,1047,1047,1047,1047,1047,1047,1047,1047,1047,1047,1044,1044,1044,1047,1047,1044,1044,1044,1044,1047,1047,1044,1044,1044,1044,1044,1044,1044,1044,1044,1044,1041,1041,1041,1041,1041,1041,1041,1041,1041,1041,1041,1041,1038,1038,1038,1038,1038,1038,1038,1038,1038,1038,1038,1038,1038,1038,1038,1038,1038,1038,1038,1038,1038,1034,1034,1034,1034,1034,1034,1034,1034,1034,1034,1034,1038,1038,1038,1038,1038,1038,1038,1038,1034,1034,1034,1034,1034,1034,1034,1034,1034,1034,1034,1031,1031,1031,1031,1031,1031,1031,1031,1031,1031,1031,1031,1028,1028,1028,1028,1028,1028,1028,1028,1028,1028,1028,1028,1028,1028,1028,1028,1028,1028,1028,1028,1025,1025,1025,1025,1025,1025,1025,1025,1025,1025,1025,1028,1028,1025,1025,1025,1025,1025,1025,1025,1025,1025,1022,1022,1022,1022,1022,1022,1022,1022,1022,1022,1022,1022,1022,1019,1019,1019,1019,1019,1019,1019,1019,1019,1019,1019,1019,1016,1016,1016,1016,1016,1016,1016,1016,1016,1016,1016,1016,1016,1016,1016,1016,1016,1016,1016,1016,1016,1016,1013,1013,1013,1013,1016,1013,1013,1016,1016,1013,1013,1013,1013,1013,1016,1013,1013,1013,1013,1013,1013,1010,1010,1010,1010,1010,1010,1007,1007,1010,1010,1010,1010,1010,1010,1007,1007,1007,1007,1007,1007,1010,1013,1013,1016,769,767,767,767,766,766,766,766,767,767,767,767,767,767,767,767,767,766,766,764,764,764,764,764,764,764,764,764,764,764,764,764,764,764,764,764,764,764,764,764,766,766,766,766,766,766,0,0,0,0,0,0,0,0,0,0,0,0,0,0,0,0,0,0,0,0,0,0,0,0,0,0,0,0,0,0,0,0,0,0,0,0,0,0,0
0,0,0,0,0,0,1087,1087,1087,1084,1084,1087,1087,1087,1087,1087,1087,1087,1087,1087,1087,1084,1084,1080,1080,1080,1084,1080,1080,1084,1084,1084,1084,1084,1084,1084,1087,1087,1087,1087,1087,1087,1087,1087,1087,1084,1084,1084,1084,1084,1084,1084,1084,1084,1080,1080,1080,1080,1080,1080,1080,1080,1080,1080,1080,1080,1080,1080,1080,1080,1080,1077,1077,1077,1077,1077,1077,1077,1077,1077,1080,1084,1080,1080,1080,1080,1080,1080,1080,1080,1077,1077,1077,1077,1077,1077,1077,1077,1077,1077,1077,1077,1077,1077,1077,1073,1073,1073,1073,1073,1073,1073,1073,1073,1073,1073,1073,1073,1073,1073,1073,1070,1070,0,0,0,769,767,764,764,767,766,766,766,766,766,767,767,769,771,771,773,773,773,774,776,776,778,778,780,781,781,781,785,785,0,787,0,1063,1063,1063,1067,1070,1070,1070,1070,1070,1073,1073,1073,1073,833,833,833,833,833,833,833,833,835,835,835,835,835,835,837,837,837,837,837,837,837,839,841,841,841,843,843,843,843,843,845,845,847,849,851,851,851,854,856,856,858,858,858,860,862,862,864,867,867,869,869,869,871,873,875,875,878,878,878,1050,1050,1050,1050,1050,1050,1050,1050,1050,1050,1050,1054,1054,1054,1054,1054,1054,1054,1054,1054,1054,1054,1054,1054,1054,1050,1050,1050,1050,1050,1050,1050,1050,1050,1050,1050,1050,1050,1050,1050,1050,1047,1047,1047,1047,1047,1050,1050,1050,1050,1050,1050,1050,1050,1047,1047,1047,1047,1047,1047,1047,1047,1047,1047,1047,1047,1044,1044,1047,1044,1044,1041,1041,1041,1041,1041,1041,1038,1038,1041,1041,1044,1044,1044,1044,1044,1044,1044,1044,1044,1041,1041,1041,1041,1044,1041,1038,1038,1041,1041,1038,1038,1038,1038,1041,1041,1041,1038,1038,1041,1041,1041,1041,1041,1041,1041,1041,1041,1038,1038,1038,1038,1038,1041,1041,1041,1041,1038,1038,1038,1038,1038,1038,1038,1038,1038,1034,1034,1038,1038,1034,1034,1034,1034,1034,1034,1031,1031,1031,1031,1031,1031,1031,1031,1031,1031,1031,1031,1031,1031,1034,1034,1034,1034,1034,1034,1031,1031,1031,1031,1031,1031,1031,1031,1031,1031,1031,1031,1031,1031,1028,1028,1028,1028,1028,1028,1028,1028,1028,1028,1028,1028,1028,1028,1028,1028,1028,1028,1028,1028,1028,1028,1028,1025,1025,1025,1025,1025,1025,1025,1025,1025,1025,1022,1022,1022,1022,1022,1022,1022,1022,1025,1022,1022,1022,1022,1022,1022,1022,1022,1022,1019,1019,1019,1019,1019,1019,1019,1019,1019,1019,1019,1019,1019,1019,1019,1019,1019,1016,1016,1016,1016,1016,1016,1016,1016,1016,1016,1016,1016,1016,1013,1013,1013,1013,1013,1013,1013,1013,1013,1013,1013,1016,1016,1013,1013,1013,1013,1010,1010,1010,1013,1013,1013,1013,1010,1010,1013,1013,1013,1013,1010,1010,1010,1010,1010,1010,1010,1013,1013,1010,1010,1010,1007,1007,1007,1007,1007,1007,1007,1007,1010,1010,1007,1007,1007,1004,1004,1004,1007,1007,1010,1010,1013,769,769,767,767,767,767,767,767,767,767,767,767,767,767,767,767,766,766,766,764,764,764,764,764,764,764,764,764,764,764,764,764,764,764,764,764,764,764,764,764,766,766,766,766,766,766,766,767,0,0,0,0,0,0,0,0,0,0,0,0,0,0,0,0,0,0,0,0,0,0,0,0,0,0,0,0,0,0,0,0,0,0,0,0,0,0
0,0,0,0,0,0,1080,1080,1084,1084,1084,1084,1084,1084,1084,1084,1084,1084,1084,1084,1084,1080,1080,1077,1077,1080,1080,1077,1077,1080,1080,1080,1080,1080,1080,1084,1084,1084,1084,1084,1084,1084,1084,1084,1084,1084,1080,1080,1080,1080,1080,1080,1080,1080,1077,1077,1077,1077,1077,1077,1077,1077,1077,1080,1080,1080,1080,1080,1077,1077,1077,1073,1073,1073,1073,1073,1073,1077,1077,1077,1077,1077,1077,1077,1077,1077,1077,1077,1077,1077,1077,1077,1077,1073,1073,1073,1073,1073,1073,1073,1073,1073,1073,1073,1073,1073,1073,1073,1073,1073,1073,1073,1073,1073,1073,1070,1070,1070,1070,1070,1070,1070,1070,1070,0,0,771,769,767,767,767,767,767,767,767,767,769,769,771,771,773,773,774,774,774,776,778,778,780,781,781,781,785,787,787,787,0,0,0,1063,1063,1063,1067,1067,1067,1067,1070,1070,1070,831,831,831,833,833,833,833,833,833,833,833,833,833,833,833,833,833,833,835,835,835,835,837,837,839,841,841,843,843,843,845,845,845,845,847,851,851,851,851,854,856,858,858,858,858,860,862,864,867,867,869,869,869,871,873,873,875,875,878,878,1047,1050,1050,1050,1050,1050,1050,1050,1050,1050,1050,1050,1050,1050,1050,1050,1050,1050,1050,1050,1050,1050,1050,1050,1050,1050,1050,1050,1050,1050,1050,1050,1050,1050,1050,1050,1047,1047,1047,1047,1047,1047,1047,1047,1047,1047,1047,1047,1047,1047,1047,1047,1047,1047,1047,1047,1047,1047,1047,1044,1044,1044,1044,1044,1044,1044,1044,1044,1044,1044,1041,1041,1041,1041,1038,1038,1038,1038,1038,1038,1038,1041,1041,1041,1041,1041,1041,1041,1041,1041,1041,1041,1038,1038,1041,1038,1038,1034,1034,1034,1034,1034,1034,1034,1034,1034,1038,1038,1038,1038,1038,1038,1038,1038,1038,1038,1038,1038,1038,1038,1038,1038,1038,1038,1038,1038,1038,1038,1038,1034,1034,1034,1034,1034,1034,1034,1034,1034,1034,1034,1034,1031,1031,1031,1031,1031,1031,1028,1028,1031,1028,1028,1028,1028,1028,1028,1028,1028,1028,1028,1028,1031,1031,1031,1028,1028,1028,1028,1028,1028,1028,1028,1028,1028,1028,1028,1028,1028,1028,1028,1028,1028,1028,1028,1028,1028,1028,1028,1028,1028,1028,1028,1025,1025,1025,1025,1025,1025,1022,1022,1025,1025,1025,1025,1025,1025,1022,1022,1022,1022,1022,1025,1022,1022,1022,1022,1022,1019,1019,1019,1019,1019,1022,1019,1019,1019,1019,1016,1016,1019,1019,1019,1016,1016,1016,1016,1016,1016,1016,1016,1016,1016,1016,1016,1016,1016,1016,1016,1016,1013,1013,1013,1013,1016,1016,1013,1013,1013,1013,1013,1013,1013,1013,1013,1013,1010,1010,1013,1013,1010,1010,1013,1013,1013,1013,1013,1013,1013,1013,1010,1007,1007,1007,1007,1007,1007,1007,1007,1010,1010,1010,1007,1007,1007,1007,1007,1007,1007,1007,1007,1010,1010,1007,1007,1004,1004,1004,1004,1004,1004,1004,1004,1004,1004,1004,1004,1004,1004,1004,1004,1004,1004,1007,1010,1013,769,769,769,767,767,767,767,767,767,767,767,767,767,767,767,767,766,766,766,764,764,764,764,764,764,764,764,764,764,764,764,764,764,764,764,764,764,764,764,766,766,766,767,766,766,766,767,767,0,0,0,0,0,0,0,0,0,0,0,0,0,0,0,0,0,0,0,0,0,0,0,0,0,0,0,0,0,0,0,0,0,0,0,0,0,0
0,0,0,0,0,0,1080,1080,1080,1080,1080,1084,1084,1084,1084,1084,1084,1084,1084,1084,1080,1080,1080,1077,1077,1077,1077,1077,1077,1077,1080,1080,1077,1077,1077,1080,1080,1080,1080,1080,1080,1080,1080,1080,1080,1080,1080,1080,1077,1077,1077,1077,1077,1077,1077,1077,1077,1077,1077,1077,1077,1077,1077,1077,1077,1077,1077,1077,1077,1073,1073,1073,1073,1073,1070,1070,1073,1073,1070,1070,1073,1077,1077,1077,1073,1073,1073,1073,1073,1073,1073,1073,1073,1073,1073,1073,1073,1073,1073,1073,1070,1070,1070,1070,1067,1067,1070,1070,1070,1070,1070,1070,1070,1070,1070,1070,1067,1067,1067,1067,1067,1067,1067,1067,0,0,773,773,773,0,769,769,769,769,769,769,771,771,771,771,773,774,774,774,776,778,778,778,780,781,783,783,785,787,787,787,787,0,1063,1063,1063,1063,1067,1067,1067,1067,827,827,827,829,831,831,831,831,833,833,833,833,833,833,833,833,831,831,831,833,833,833,833,835,835,835,837,839,841,841,843,843,843,845,845,847,847,849,851,854,854,854,856,856,858,858,858,860,860,862,864,867,867,869,869,869,871,873,1047,1047,1044,1044,1047,1047,1047,1047,1050,1050,1050,1050,1050,1050,1050,1050,1050,1050,1050,1050,1050,1050,1050,1050,1050,1050,1050,1047,1047,1047,1047,1047,1047,1047,1047,1047,1047,1047,1047,1047,1047,1047,1047,1047,1047,1044,1044,1044,1044,1044,1044,1044,1044,1044,1044,1044,1041,1041,1044,1044,1044,1044,1044,1044,1044,1041,1041,1041,1041,1041,1041,1041,1041,1041,1041,1041,1041,1038,1038,1038,1038,1038,1034,1034,1034,1034,1034,1038,1038,1038,1038,1038,1038,1038,1038,1038,1038,1038,1038,1038,1034,1034,1031,1031,1031,1031,1031,1031,1031,1031,1034,1034,1034,1034,1034,1034,1034,1034,1034,1034,1034,1038,1034,1034,1034,1034,1031,1031,1031,1031,1034,1034,1034,1034,1034,1034,1031,1031,1031,1031,1031,1034,1031,1031,1031,1031,1028,1028,1028,1028,1028,1028,1028,1028,1028,1028,1028,1028,1028,1028,1028,1028,1028,1028,1028,1028,1028,1028,1028,1028,1028,1028,1025,1025,1025,1025,1025,1025,1022,1022,1025,1025,1028,1028,1028,1028,1025,1025,1025,1025,1025,1025,1025,1025,1025,1025,1025,1025,1025,1022,1022,1022,1022,1019,1019,1022,1022,1022,1022,1019,1019,1019,1019,1019,1019,1019,1022,1019,1019,1019,1019,1019,1016,1016,1016,1019,1019,1019,1016,1016,1016,1016,1016,1016,1016,1016,1016,1016,1016,1016,1016,1016,1016,1013,1013,1013,1013,1013,1013,1013,1013,1013,1013,1013,1013,1013,1013,1013,1013,1013,1013,1010,1010,1010,1010,1010,1010,1010,1010,1010,1010,1010,1010,1010,1007,1007,1010,1010,1010,1010,1010,1010,1010,1010,1004,1004,1004,1004,1004,1004,1004,1004,1004,1007,1007,1007,1007,1004,1004,1004,1004,1004,1004,1004,1004,1007,1007,1004,1004,1004,1004,1004,1004,1004,1001,1001,1001,1004,1004,1001,1001,1001,1001,1001,1001,1001,1001,1007,1007,769,769,769,769,769,769,769,769,767,767,767,767,767,767,767,767,767,767,767,766,766,766,764,764,764,764,764,764,764,766,766,766,766,766,766,766,766,766,766,766,766,766,767,767,767,767,767,767,767,0,0,0,0,0,0,0,0,0,0,0,0,0,0,0,0,0,0,0,0,0,0,0,0,0,0,0,0,0,0,0,0,0,0,0,0,0,0
0,0,0,0,0,0,1077,1077,1080,1080,1080,1080,1080,1080,1077,1077,1077,1080,1080,1080,1080,1077,1077,1077,1077,1077,1077,1077,1077,1077,1077,1077,1077,1077,1077,1077,1077,1077,1077,1077,1077,1077,1077,1077,1077,1077,1073,1073,1073,1073,1073,1073,1073,1073,1073,1073,1073,1073,1073,1073,1073,1073,1077,1077,1077,1073,1073,1073,1073,1073,1073,1070,1070,1070,1067,1067,1070,1070,1070,1070,1070,1070,1070,1067,1067,1070,1073,1073,1070,1070,1070,1073,1073,1070,1070,1070,1070,1070,1070,1067,1067,1067,1067,1067,1067,1067,1067,1067,1067,1067,1067,1067,1067,1067,1067,1067,1067,1067,1063,1063,1063,1057,1057,0,0,0,0,0,0,0,0,771,769,769,771,771,771,771,771,773,773,774,774,774,776,778,778,780,780,781,783,785,785,787,787,787,787,787,0,1063,1063,1063,1067,1067,1067,825,825,827,827,827,829,829,829,831,831,831,831,831,831,831,831,831,831,831,831,831,831,833,833,833,835,835,837,839,841,841,843,843,845,845,845,847,847,849,851,854,854,856,856,858,858,860,860,860,862,862,864,867,867,869,869,871,871,1044,1044,1044,1044,1044,1047,1047,1047,1047,1047,1047,1047,1047,1047,1047,1047,1047,1047,1047,1047,1047,1047,1047,1047,1047,1047,1047,1047,1047,1047,1047,1047,1044,1044,1044,1044,1044,1044,1047,1044,1044,1044,1044,1044,1044,1044,1044,1041,1041,1041,1038,1038,1041,1041,1041,1038,1038,1038,1038,1038,1038,1038,1038,1038,1041,1041,1038,1038,1038,1038,1038,1038,1038,1038,1038,1038,1038,1038,1038,1034,1034,1034,1034,1034,1034,1034,1031,1031,1038,1038,1038,1038,1038,1038,1038,1038,1038,1034,1034,1034,1034,1031,1031,1031,1031,1031,1031,1031,1031,1031,1031,1031,1031,1031,1031,1031,1031,1031,1031,1031,1031,1031,1031,1028,1028,1031,1028,1028,1028,1028,1028,1028,1028,1031,1031,1031,1031,1031,1028,1028,1028,1028,1028,1028,1028,1028,1028,1028,1028,1025,1025,1025,1025,1025,1025,1025,1025,1025,1025,1025,1025,1025,1025,1025,1025,1025,1025,1025,1025,1025,1025,1025,1025,1025,1022,1022,1022,1022,1022,1022,1022,1022,1022,1022,1022,1025,1025,1025,1025,1022,1022,1022,1022,1022,1022,1022,1022,1022,1022,1022,1019,1019,1019,1019,1019,1019,1019,1019,1019,1019,1019,1019,1016,1016,1016,1016,1016,1016,1016,1016,1016,1016,1016,1016,1016,1016,1016,1016,1016,1013,1013,1013,1013,1013,1013,1013,1013,1013,1013,1013,1013,1013,1013,1013,1013,1013,1010,1010,1013,1010,1010,1010,1010,1010,1010,1010,1010,1010,1010,1010,1010,1010,1007,1007,1010,1007,1007,1007,1007,1007,1007,1007,1007,1007,1007,1004,1004,1004,1007,1007,1004,1004,1007,1007,1007,1004,1004,1001,1001,1001,1001,1001,1001,1001,1001,1004,1004,1004,1004,1004,1004,1004,1004,1004,1004,1004,1004,1004,1004,1004,1001,1001,1001,1001,1001,1001,1001,1001,1001,1001,998,998,998,1001,1001,1001,1001,1001,1001,769,769,769,769,769,769,769,769,769,769,769,769,767,767,767,767,767,767,767,766,766,766,766,764,764,764,764,764,764,764,766,766,766,766,766,766,766,766,766,766,766,766,767,767,767,767,767,767,767,767,0,0,0,0,0,0,0,0,0,0,0,0,0,0,0,0,0,0,0,0,0,0,0,0,0,0,0,0,0,0,0,0,0,0,0,0,0,0
