0,0,0,0,0,0,0,0,0,0,0,0,0,0,0,1731,1731,1731,1731,1722,1722,1722,1722,1722,1713,1713,1713,1705,1705,1705,1696,1696,1696,1696,1696,1688,1688,1688,1688,1680,1680,1680,1671,1663,1663,1663,1663,1663,1663,1663,1663,1663,1663,1655,1655,1655,1655,1655,1655,1655,1655,1647,1647,1647,1639,1639,1632,1632,1632,1632,1632,1632,1632,1632,1632,1632,1632,1632,1632,1624,1624,1624,1624,1624,1624,1624,1624,1624,1624,1624,1624,1616,1616,1616,1616,1616,1616,1616,1609,1609,1609,1601,1601,1601,1601,1601,1601,1594,1594,1601,1601,1601,1609,1616,1616,1616,1616,1616,1616,1616,2317,2317,2317,2333,2333,2333,2333,2333,2333,2333,2317,2317,2301,2301,2301,2301,2301,0,0,1601,1601,1601,1601,1601,1601,1601,1601,1601,1601,1601,1601,1609,1609,1609,1609,1616,1616,1616,1616,1624,1624,1624,1624,1624,1632,1632,1632,1632,1639,1647,1647,1647,1647,1647,1655,1655,1655,1655,1655,1663,1663,1663,1663,1663,1663,1671,1671,1671,1671,1680,1688,1688,1688,1688,1688,1696,1696,1705,1705,1705,1713,1713,1713,1713,1722,1722,1722,1731,1739,0,0,0,0,0,1087,1087,1087,1084,1080,1080,1077,1077,1077,1073,1073,1073,1077,1077,1077,1080,1084,1084,1084,1084,1087,1087,0,0,0,0,1766,1766,1766,1766,1757,1757,1748,1748,1748,1739,1731,1731,1731,1722,1722,1722,1713,1713,1705,1696,1696,1688,1688,1688,1680,1680,1680,1671,1671,1671,1663,1663,1663,1655,1655,1655,1639,1632,1632,1632,1632,1624,1624,1624,1624,1616,1609,1601,1601,1601,1594,1594,1594,1586,1586,1586,1579,1572,1572,1572,1572,0,0,0,0,0,0,0,0,0,873,871,871,871,871,869,867,864,862,860,860,858,858,858,858,858,858,860,860,860,860,862,864,864,867,869,869,869,871,0,0,0,0,1445,1439,1439,1439,1433,1433,1427,1427,1421,1421,1421,1421,1415,1410,1410,1404,1398,1398,1398,1392,1392,1392,1387,1387,1387,1381,1376,1376,1370,1370,1370,1370,1370,1365,1365,1359,1354,1354,1349,1349,1343,1343,1343,1343,1338,1333,1333,1328,1328,1322,1322,1322,1317,1312,1307,1307,1307,1307,1302,1302,1297,1292,1292,1292,1292,1288,1288,1283,1283,1278,1273,1273,1273,1273,1268,1268,1264,1259,1255,1255,1255,1250,1250,1245,1245,1241,1241,1236,1236,1236,1232,1232,1232,1227,1223,1219,1219,1219,1214,1214,1214,1210,1210,1206,1206,1202,1202,1202,1202,1197,1193,1193,1189,1185,1185,1185,1185,1181,1177,1177,1173,1169,1169,1169,1165,1165,1165,1161,1161,1157,1157,1153,1153,1153,1153,1149,1145,1145,1141,1141,1141,1138,1138,1138,1134,1134,1130,1126,1123,1119,1119,1119,1115,1115,1112,1112,1108,1108,1105,1105,1105,1101,1101,1101,1101,1101,1097,1094,1094,1094,1090,1090,1087,1087,1084,1080,1080,1077,1077,1073,1073,1070,1070,1070,1067,1067,1067,1067,1063,1063,1060,1060,1057,1057,1054,1054,1050,1050,1050,1050,1047,1044,1044,1041,1041,1038,1038,1038,1038,1038,1034,1034,1031,1028,1028,1025,1025,1025,1022,1019,1019,1016,1016,1016,1013,1013,1013,1010,1010,1007,1007,1004,1004,1004,1001,998,998,995,995,995,992,989,989,989,987,987,984,981,981,978,978,975,975,975,973,973,970,970,967,967,964,964,962,962,959,959,959,0,0,0,0,0,0,0,0,0,0,0,0,0,0,0,0,0,0,0,0,0,0,0,0,0,0,0,0,0,0
0,0,0,0,0,0,0,0,0,0,0,0,0,0,0,1731,1731,1731,1731,1722,1722,1722,1722,1722,1722,1713,1713,1705,1705,1705,1696,1696,1696,1696,1688,1688,1688,1688,1688,1688,1688,1680,1680,1663,1663,1663,1663,1663,1663,1663,1663,1663,1663,1655,1655,1655,1655,1655,1655,1655,1655,1655,1655,1647,1639,1639,1639,1632,1632,1632,1632,1632,1632,1632,1632,1639,1639,1632,1632,1624,1624,1624,1624,1624,1624,1624,1624,1624,1624,1624,1624,1616,1616,1616,1616,1624,1616,1616,1609,1609,1609,1601,1601,1601,1601,1601,1601,1594,1594,1601,1601,1601,1616,1616,1616,1616,1616,1616,1616,1616,2317,2317,2317,2333,2333,2333,2349,2333,2333,2333,2317,2317,2301,2301,2301,2301,2301,2301,0,1609,1601,1601,1601,1601,1601,1601,1601,1601,1601,1601,1601,1609,1609,1616,1616,1616,1616,1624,1624,1624,1624,1624,1632,1632,1632,1632,1632,1639,1639,1647,1647,1647,1647,1647,1655,1655,1655,1655,1655,1663,1663,1663,1663,1663,1663,1671,1671,1671,1680,1680,1688,1688,1688,1688,1696,1696,1705,1705,1705,1713,1713,1713,1713,1713,1722,1722,1731,1731,1739,0,0,0,0,0,1087,1087,1087,1084,1080,1077,1077,1077,1077,1073,1073,1077,1077,1077,1080,1080,1084,1084,1084,1084,1087,1087,0,0,0,0,1766,1766,1766,1766,1757,1757,1748,1748,1748,1739,1731,1731,1731,1722,1722,1722,1713,1713,1705,1705,1696,1696,1688,1688,1680,1680,1680,1671,1671,1671,1663,1663,1663,1663,1655,1655,1647,1639,1632,1632,1632,1624,1624,1624,1624,1616,1609,1601,1601,1601,1594,1594,1594,1586,1586,1586,1579,1572,1572,1572,1572,0,0,0,0,0,0,0,0,0,873,871,871,871,871,869,867,864,862,860,860,858,858,858,858,858,858,860,860,860,862,862,864,867,869,869,869,871,0,0,0,0,0,1445,1445,1439,1439,1439,1433,1433,1427,1421,1421,1421,1421,1415,1415,1410,1404,1398,1398,1398,1392,1392,1392,1387,1387,1387,1381,1376,1376,1370,1370,1370,1370,1370,1365,1365,1359,1359,1354,1354,1349,1349,1343,1343,1343,1338,1333,1333,1328,1328,1322,1322,1317,1312,1312,1312,1312,1307,1307,1307,1302,1297,1297,1297,1292,1292,1288,1288,1283,1283,1278,1278,1273,1273,1273,1268,1268,1264,1259,1259,1259,1255,1250,1250,1250,1245,1245,1241,1236,1236,1236,1232,1232,1232,1227,1223,1219,1219,1219,1214,1214,1214,1214,1210,1210,1206,1202,1202,1202,1197,1197,1197,1193,1193,1185,1185,1185,1185,1181,1181,1177,1177,1177,1169,1169,1169,1169,1165,1161,1161,1157,1157,1157,1153,1153,1153,1149,1145,1145,1145,1141,1141,1138,1138,1138,1138,1134,1130,1130,1126,1123,1123,1119,1119,1115,1115,1112,1112,1108,1108,1105,1105,1105,1101,1101,1101,1097,1097,1094,1094,1094,1090,1090,1090,1087,1084,1084,1080,1080,1077,1073,1073,1070,1070,1070,1067,1067,1067,1067,1063,1063,1060,1060,1057,1057,1054,1054,1050,1050,1050,1050,1047,1044,1044,1041,1041,1038,1038,1038,1038,1038,1034,1031,1031,1028,1028,1028,1025,1025,1025,1022,1019,1016,1016,1016,1016,1013,1013,1010,1010,1007,1007,1004,1004,1004,1001,1001,998,998,995,992,992,992,989,989,987,987,984,984,981,981,978,978,978,975,975,973,973,970,970,967,967,967,964,962,959,959,959,0,0,0,0,0,0,0,0,0,0,0,0,0,0,0,0,0,0,0,0,0,0,0,0,0,0,0,0,0,0
0,0,0,0,0,0,0,0,0,0,0,0,0,0,0,1731,1731,1731,1731,1722,1722,1722,1722,1722,1722,1713,1713,1705,1705,1705,1705,1696,1696,1696,1688,1688,1688,1688,1688,1688,1688,1680,1671,1671,1663,1663,1671,1663,1663,1663,1663,1663,1663,1655,1655,1655,1655,1655,1655,1655,1655,1655,1655,1647,1647,1639,1639,1639,1632,1632,1632,1632,1632,1639,1639,1639,1632,1632,1632,1632,1624,1624,1624,1624,1624,1624,1624,1624,1624,1624,1624,1616,1616,1624,1624,1624,1616,1616,1616,1616,1609,1609,1601,1601,1601,1601,1609,1609,1601,1601,1601,1601,1616,1616,1616,1616,1616,1616,1624,1624,2333,2333,2333,2333,2333,2349,2349,2349,2349,2333,2333,2317,2317,2317,2301,2301,2301,2301,0,1609,1609,1609,1601,1601,1601,1601,1601,1601,1601,1601,1601,1609,1609,1616,1616,1616,1616,1624,1624,1624,1624,1624,1632,1632,1632,1632,1632,1639,1639,1647,1647,1647,1647,1655,1655,1655,1655,1655,1663,1663,1663,1663,1663,1671,1671,1671,1680,1680,1680,1680,1688,1688,1688,1688,1696,1696,1705,1705,1705,1713,1713,1713,1722,1722,1722,1722,1731,1731,1731,0,0,0,0,0,1087,1087,1087,1084,1080,1077,1077,1077,1077,1073,1073,1077,1077,1077,1080,1080,1084,1084,1084,1084,1087,1090,1090,0,0,0,1776,1776,1766,1766,1766,1757,1748,1748,1748,1739,1731,1731,1731,1722,1722,1722,1713,1713,1705,1705,1696,1696,1696,1688,1688,1680,1680,1680,1671,1671,1671,1663,1663,1663,1655,1655,1647,1639,1639,1632,1632,1624,1624,1624,1624,1616,1609,1609,1601,1601,1594,1594,1594,1586,1586,1586,1579,1579,1572,1572,1572,0,0,0,0,0,0,0,0,0,873,871,871,871,871,869,867,864,862,860,860,858,858,858,858,858,858,860,860,862,862,862,867,867,869,869,871,871,0,0,0,0,0,1445,1445,1439,1439,1439,1439,1433,1433,1427,1421,1421,1421,1415,1415,1410,1410,1404,1398,1398,1398,1392,1392,1392,1392,1387,1381,1376,1376,1370,1370,1370,1370,1370,1365,1365,1365,1359,1354,1354,1349,1349,1343,1343,1343,1338,1333,1333,1328,1328,1322,1322,1317,1312,1312,1312,1312,1307,1307,1307,1307,1302,1297,1297,1292,1292,1292,1288,1288,1283,1283,1278,1278,1273,1273,1273,1268,1264,1264,1259,1259,1255,1250,1250,1250,1250,1245,1241,1236,1236,1236,1232,1232,1232,1227,1223,1223,1219,1219,1214,1214,1214,1214,1210,1210,1206,1202,1202,1202,1197,1197,1197,1193,1193,1193,1185,1185,1185,1185,1181,1181,1177,1177,1173,1169,1169,1169,1165,1165,1161,1161,1157,1157,1157,1153,1153,1153,1149,1145,1145,1141,1141,1141,1138,1138,1138,1134,1134,1130,1130,1123,1123,1119,1119,1119,1115,1115,1112,1112,1108,1108,1105,1105,1105,1101,1101,1097,1097,1094,1094,1094,1090,1090,1087,1087,1084,1084,1080,1080,1077,1077,1073,1073,1070,1070,1067,1067,1067,1067,1063,1063,1063,1060,1060,1060,1054,1054,1054,1050,1050,1050,1047,1047,1044,1041,1041,1041,1041,1038,1038,1038,1034,1031,1028,1028,1028,1028,1028,1025,1025,1022,1019,1019,1016,1016,1016,1013,1013,1010,1010,1007,1007,1004,1004,1004,1001,1001,1001,998,998,992,992,992,992,989,989,987,987,987,984,981,981,978,978,978,975,975,973,970,970,967,967,967,964,964,962,959,959,0,0,0,0,0,0,0,0,0,0,0,0,0,0,0,0,0,0,0,0,0,0,0,0,0,0,0,0,0,0
0,0,0,0,0,0,0,0,0,0,0,0,0,0,0,1731,1731,1731,1731,1722,1722,1722,1713,1713,1713,1713,1713,1705,1705,1705,1705,1696,1696,1696,1696,1696,1688,1688,1688,1688,1688,1680,1671,1671,1671,1671,1671,1663,1663,1663,1663,1663,1663,1663,1663,1663,1655,1655,1663,1655,1655,1655,1655,1655,1647,1647,1647,1647,1632,1632,1632,1632,1639,1639,1639,1639,1632,1632,1632,1632,1632,1624,1624,1624,1624,1624,1624,1624,1624,1624,1624,1624,1624,1624,1624,1624,1624,1616,1616,1616,1609,1609,1601,1601,1601,1601,1601,1601,1601,1601,1601,1609,1616,1616,1616,1616,1616,1616,1624,1624,2333,2333,2333,2333,2349,2349,2349,2349,2349,2349,2333,2333,2317,2317,2317,2301,2301,0,0,0,1609,1609,1601,1601,1601,1601,1601,1601,1601,1601,1609,1609,1616,1616,1616,1616,1624,1624,1624,1624,1624,1624,1632,1632,1632,1632,1632,1639,1639,1647,1647,1647,1647,1655,1655,1655,1655,1655,1663,1663,1663,1663,1663,1671,1671,1671,1680,1680,1680,1688,1688,1688,1688,1696,1705,1705,1705,1705,1713,1713,1713,1713,1722,1722,1722,1722,1731,1731,1731,0,0,0,0,0,1087,1087,1087,1084,1080,1080,1077,1077,1077,1077,1077,1077,1077,1077,1080,1080,1084,1084,1084,1087,1087,1090,1090,0,0,0,0,1776,1766,1766,1766,1757,1748,1748,1748,1739,1731,1731,1731,1722,1722,1722,1722,1713,1713,1705,1705,1696,1696,1688,1688,1688,1688,1680,1680,1680,1671,1663,1663,1663,1655,1655,1647,1639,1639,1632,1632,1624,1624,1624,1624,1616,1609,1609,1601,1601,1594,1594,1594,1586,1586,1586,1579,1579,1572,1572,1572,0,0,0,0,0,0,0,0,873,871,871,871,871,869,869,864,862,862,860,860,860,858,858,858,858,860,860,860,862,862,864,867,867,869,869,871,871,0,0,0,0,0,1445,1445,1439,1439,1439,1439,1433,1433,1427,1421,1421,1421,1415,1415,1415,1410,1410,1404,1398,1398,1392,1392,1392,1392,1387,1381,1381,1376,1376,1376,1370,1370,1370,1365,1365,1359,1354,1354,1349,1349,1349,1343,1343,1343,1338,1338,1333,1328,1328,1328,1322,1322,1317,1317,1312,1312,1312,1307,1307,1307,1302,1297,1297,1292,1292,1288,1288,1288,1283,1283,1278,1278,1273,1273,1273,1268,1264,1264,1259,1259,1255,1255,1250,1250,1250,1245,1241,1241,1241,1236,1236,1232,1232,1232,1223,1223,1219,1219,1219,1219,1214,1214,1214,1210,1210,1206,1202,1202,1197,1197,1197,1197,1193,1193,1185,1185,1185,1185,1181,1181,1177,1177,1173,1169,1169,1169,1165,1165,1161,1161,1161,1157,1157,1157,1153,1153,1149,1149,1145,1141,1141,1138,1138,1138,1138,1134,1134,1130,1130,1123,1123,1119,1119,1119,1115,1115,1115,1112,1108,1108,1108,1108,1105,1101,1101,1101,1097,1094,1094,1094,1090,1090,1087,1087,1084,1084,1080,1080,1080,1077,1077,1073,1073,1070,1070,1067,1067,1067,1063,1063,1063,1060,1060,1057,1054,1054,1054,1054,1050,1050,1047,1044,1044,1041,1041,1041,1041,1038,1038,1038,1034,1031,1028,1028,1028,1028,1028,1025,1025,1022,1019,1019,1016,1016,1016,1013,1013,1010,1010,1007,1007,1007,1004,1004,1004,1001,1001,1001,998,995,992,992,992,989,989,989,987,987,984,984,981,981,978,978,978,975,973,970,970,967,967,967,964,964,962,959,959,0,0,0,0,0,0,0,0,0,0,0,0,0,0,0,0,0,0,0,0,0,0,0,0,0,0,0,0,0,0
0,0,0,0,0,0,0,0,0,0,0,0,0,0,0,1731,1731,1731,1731,1722,1722,1722,1713,1713,1713,1713,1713,1705,1705,1705,1705,1696,1696,1696,1696,1688,1688,1688,1688,1688,1688,1688,1688,1680,1680,1671,1671,1671,1671,1663,1663,1663,1663,1663,1663,1663,1663,1663,1663,1655,1655,1655,1655,1655,1655,1655,1655,1655,1639,1632,1632,1639,1639,1639,1639,1639,1639,1639,1632,1632,1632,1632,1632,1632,1624,1624,1624,1624,1624,1624,1624,1624,1624,1624,1624,1624,1624,1616,1616,1616,1616,1609,1609,1609,1601,1601,1601,1601,1601,1601,1601,1616,1616,1616,1616,1616,1616,1616,1624,1632,2349,2349,2349,2349,2349,2349,2349,2349,2349,2349,2333,2333,2317,2317,2317,2317,2317,0,0,0,1609,1609,1609,1609,1601,1601,1601,1601,1601,1601,1609,1609,1616,1616,1616,1616,1624,1624,1624,1624,1624,1624,1632,1632,1632,1632,1639,1639,1639,1647,1647,1647,1647,1647,1647,1655,1655,1655,1663,1663,1663,1663,1663,1671,1671,1680,1680,1680,1688,1688,1688,1688,1688,1696,1705,1705,1705,1705,1713,1713,1713,1713,1722,1722,1722,1722,1731,1731,1739,0,0,0,0,1090,1087,1087,1084,1084,1080,1080,1077,1077,1077,1077,1077,1077,1077,1080,1080,1080,1084,1084,1084,1087,1087,1090,1090,0,0,0,0,1776,1766,1766,1766,1757,1748,1748,1748,1739,1731,1731,1731,1722,1722,1722,1722,1722,1713,1705,1705,1696,1696,1688,1688,1688,1688,1680,1680,1680,1671,1663,1663,1663,1663,1655,1647,1647,1639,1632,1632,1624,1624,1624,1624,1616,1609,1609,1601,1601,1594,1594,1594,1586,1586,1579,1579,1579,1572,1572,1572,0,0,0,0,0,0,0,0,871,871,871,871,871,869,869,864,862,862,860,860,860,860,860,860,860,860,860,862,862,864,864,867,869,869,869,871,871,0,0,0,0,0,1445,1445,1439,1439,1439,1439,1439,1433,1427,1421,1421,1421,1415,1415,1415,1410,1410,1404,1398,1398,1398,1392,1392,1392,1387,1381,1381,1376,1376,1376,1370,1370,1370,1365,1365,1359,1354,1354,1349,1349,1349,1349,1349,1343,1343,1338,1333,1333,1328,1328,1328,1322,1317,1317,1317,1312,1312,1307,1307,1307,1302,1297,1297,1292,1292,1288,1288,1288,1283,1283,1278,1273,1273,1273,1273,1268,1268,1264,1259,1259,1255,1255,1255,1250,1250,1250,1245,1241,1241,1236,1236,1236,1232,1232,1227,1223,1223,1219,1219,1219,1214,1214,1214,1210,1210,1206,1202,1202,1202,1197,1197,1197,1193,1193,1189,1189,1185,1185,1181,1181,1181,1177,1173,1173,1169,1169,1169,1165,1165,1161,1161,1157,1157,1157,1153,1153,1149,1149,1145,1145,1141,1138,1138,1138,1138,1134,1134,1130,1130,1126,1123,1123,1123,1119,1119,1115,1115,1115,1112,1108,1108,1105,1105,1105,1105,1101,1097,1094,1094,1094,1090,1090,1090,1087,1087,1084,1084,1080,1080,1077,1077,1077,1073,1073,1070,1070,1067,1067,1067,1063,1063,1063,1060,1057,1054,1054,1054,1054,1050,1050,1050,1044,1044,1041,1041,1041,1041,1038,1038,1038,1034,1031,1028,1028,1028,1028,1028,1025,1025,1022,1022,1019,1019,1016,1016,1016,1013,1013,1010,1010,1010,1007,1004,1004,1004,1001,1001,1001,998,998,995,992,992,989,989,989,987,987,984,984,981,981,981,978,978,975,973,970,970,967,967,967,967,964,962,962,962,0,0,0,0,0,0,0,0,0,0,0,0,0,0,0,0,0,0,0,0,0,0,0,0,0,0,0,0,0,0
0,0,0,0,0,0,0,0,0,0,0,0,0,0,0,1739,1739,1731,1731,1731,1722,1722,1722,1722,1722,1722,1713,1713,1705,1705,1705,1696,1696,1696,1696,1688,1688,1688,1688,1688,1688,1688,1688,1688,1688,1671,1671,1671,1671,1671,1663,1663,1663,1663,1663,1663,1663,1663,1663,1655,1655,1655,1655,1655,1655,1655,1655,1655,1647,1639,1639,1639,1639,1639,1639,1639,1639,1639,1632,1632,1632,1632,1632,1632,1632,1624,1624,1624,1624,1624,1624,1624,1624,1624,1624,1624,1624,1624,1616,1616,1616,1609,1609,1609,1609,1601,1601,1601,1601,1601,1601,1616,1616,1616,1616,1624,1624,1624,1624,1632,1632,2349,2349,2349,2349,2349,2349,2349,2349,2349,2333,2317,2317,2301,2301,2301,0,0,0,0,1616,1616,1609,1609,1601,1601,1601,1601,1601,1601,1609,1609,1616,1616,1616,1624,1624,1624,1624,1624,1624,1624,1632,1632,1632,1632,1632,1639,1639,1639,1639,1647,1647,1647,1647,1655,1655,1655,1663,1663,1663,1663,1663,1671,1671,1680,1680,1680,1688,1688,1688,1688,1696,1696,1705,1705,1705,1713,1713,1713,1722,1722,1722,1722,1722,1722,1731,1731,1739,0,0,0,1087,1087,1087,1087,1084,1084,1080,1080,1077,1077,1077,1077,1077,1077,1077,1080,1080,1084,1084,1084,1087,1087,1087,1090,1090,0,0,0,0,1776,1766,1766,1766,1757,1748,1748,1748,1739,1739,1731,1731,1731,1722,1722,1722,1722,1713,1705,1705,1705,1696,1696,1688,1688,1688,1680,1680,1680,1671,1663,1663,1663,1663,1655,1647,1647,1639,1632,1632,1632,1632,1624,1624,1616,1616,1609,1601,1601,1594,1594,1594,1586,1586,1579,1579,1579,1579,1579,1579,0,0,0,0,0,0,0,0,871,871,871,871,869,869,867,864,862,862,862,860,860,860,860,860,860,860,860,862,862,864,867,867,869,869,871,871,871,0,0,0,0,0,1445,1445,1439,1439,1439,1439,1439,1433,1427,1427,1427,1421,1415,1415,1415,1410,1410,1404,1398,1398,1398,1392,1392,1392,1392,1387,1381,1381,1376,1376,1370,1370,1370,1370,1365,1365,1359,1359,1349,1349,1349,1349,1343,1343,1343,1338,1333,1333,1328,1328,1328,1322,1317,1317,1312,1312,1312,1307,1307,1307,1302,1297,1297,1292,1292,1288,1288,1288,1283,1283,1278,1273,1273,1273,1273,1268,1268,1264,1264,1259,1255,1255,1255,1250,1250,1250,1245,1245,1245,1241,1236,1236,1236,1232,1227,1227,1223,1223,1219,1219,1214,1214,1214,1210,1210,1206,1206,1202,1202,1202,1197,1197,1193,1193,1193,1189,1185,1185,1181,1181,1181,1177,1173,1173,1173,1169,1169,1169,1165,1165,1161,1161,1157,1157,1157,1153,1149,1149,1145,1141,1141,1138,1138,1138,1138,1134,1134,1134,1130,1130,1123,1123,1123,1119,1119,1119,1115,1115,1112,1112,1108,1105,1105,1105,1105,1101,1097,1094,1094,1094,1094,1090,1090,1087,1087,1084,1084,1080,1080,1077,1077,1077,1073,1073,1073,1070,1067,1067,1067,1067,1063,1063,1060,1057,1057,1054,1054,1054,1050,1050,1050,1047,1044,1044,1044,1041,1041,1041,1038,1038,1034,1034,1031,1028,1028,1028,1028,1028,1025,1025,1022,1022,1019,1019,1016,1016,1013,1013,1013,1010,1010,1007,1007,1004,1004,1001,1001,1001,1001,998,995,992,992,992,989,989,989,987,984,984,981,981,981,978,978,975,973,970,970,967,967,967,967,967,964,962,962,0,0,0,0,0,0,0,0,0,0,0,0,0,0,0,0,0,0,0,0,0,0,0,0,0,0,0,0,0,0
0,0,0,0,0,0,0,0,0,0,0,0,0,0,0,1739,1739,1739,1731,1731,1722,1722,1722,1722,1722,1722,1713,1713,1713,1705,1705,1696,1696,1696,1696,1696,1688,1688,1688,1688,1688,1688,1688,1688,1688,1671,1671,1671,1671,1671,1671,1671,1671,1663,1663,1663,1663,1663,1663,1655,1655,1655,1655,1655,1655,1655,1655,1655,1647,1639,1639,1639,1639,1647,1647,1647,1639,1639,1632,1632,1632,1632,1632,1632,1632,1632,1632,1624,1624,1624,1624,1624,1624,1632,1624,1624,1624,1624,1624,1616,1616,1609,1609,1609,1609,1601,1601,1601,1601,1601,1616,1616,1616,1616,1616,1624,1624,1624,1632,1632,1632,1639,2349,2349,2349,2349,2349,2349,2333,2333,2333,2317,2317,2301,2301,2301,2301,0,0,0,0,1616,1616,1609,1601,1601,1601,1601,1609,1609,1609,1616,1616,1616,1616,1624,1624,1624,1624,1624,1632,1632,1632,1632,1632,1632,1632,1639,1639,1639,1639,1647,1647,1647,1647,1655,1655,1655,1663,1663,1663,1663,1663,1671,1688,1688,1688,1688,1688,1688,1688,1688,1696,1696,1705,1705,1705,1713,1713,1722,1722,1722,1722,1722,1731,1731,1731,1731,1739,0,1739,0,1087,1087,1087,1087,1084,1084,1080,1077,1077,1077,1077,1077,1077,1080,1080,1080,1084,1084,1084,1087,1087,1087,1087,1090,1090,0,0,0,1776,1776,1776,1766,1766,1757,1757,1748,1748,1739,1739,1731,1731,1731,1731,1722,1722,1722,1722,1713,1705,1705,1696,1696,1688,1688,1688,1680,1680,1680,1671,1663,1663,1663,1663,1655,1655,1655,1647,1639,1632,1632,1632,1624,1624,1616,1616,1609,1601,1601,1601,1594,1594,1586,1586,1579,1579,1579,1572,1572,1572,0,0,0,0,0,0,0,0,871,871,871,871,869,869,864,864,862,862,862,860,860,860,860,860,860,860,862,862,862,864,867,869,869,869,871,871,871,0,0,0,0,0,1445,1445,1439,1439,1439,1439,1439,1433,1427,1427,1427,1421,1421,1421,1415,1415,1410,1404,1404,1398,1398,1398,1392,1392,1392,1387,1387,1381,1376,1376,1370,1370,1370,1370,1365,1365,1359,1354,1349,1349,1349,1349,1343,1343,1343,1338,1333,1333,1333,1328,1328,1322,1317,1317,1312,1312,1312,1307,1307,1307,1302,1302,1297,1292,1292,1288,1288,1288,1288,1283,1278,1278,1273,1273,1273,1268,1268,1268,1264,1259,1255,1255,1255,1250,1250,1250,1250,1245,1245,1241,1241,1241,1236,1232,1232,1227,1227,1223,1219,1219,1219,1214,1214,1210,1210,1206,1206,1202,1202,1197,1197,1197,1197,1193,1193,1189,1185,1185,1185,1181,1181,1177,1177,1173,1173,1173,1169,1169,1165,1165,1165,1165,1161,1157,1157,1153,1149,1149,1145,1141,1141,1138,1138,1138,1138,1134,1134,1134,1130,1130,1123,1123,1123,1119,1119,1119,1115,1115,1112,1112,1108,1108,1105,1105,1105,1101,1097,1094,1094,1094,1094,1090,1090,1090,1087,1087,1084,1080,1080,1080,1077,1077,1073,1073,1073,1070,1067,1067,1067,1067,1063,1063,1060,1060,1057,1057,1054,1054,1054,1050,1050,1047,1044,1044,1044,1041,1041,1041,1041,1038,1038,1034,1031,1028,1028,1028,1028,1028,1025,1025,1025,1022,1022,1019,1016,1016,1013,1013,1013,1010,1010,1007,1007,1004,1004,1001,1001,1001,1001,998,995,995,992,992,989,989,989,987,984,984,981,981,981,978,978,973,973,970,970,970,967,967,967,967,964,962,962,0,0,0,0,0,0,0,0,0,0,0,0,0,0,0,0,0,0,0,0,0,0,0,0,0,0,0,0,0,0
0,0,0,0,0,0,0,0,0,0,0,0,0,0,0,1739,1739,1739,1731,1731,1731,1722,1722,1722,1722,1722,1713,1713,1713,1713,1705,1696,1696,1696,1696,1696,1696,1696,1696,1696,1696,1688,1688,1688,1688,1680,1680,1680,1680,1680,1671,1671,1671,1663,1663,1663,1663,1663,1663,1663,1663,1663,1663,1655,1655,1655,1655,1655,1647,1639,1639,1639,1647,1647,1647,1647,1647,1639,1639,1639,1632,1632,1632,1632,1632,1632,1632,1632,1632,1632,1632,1632,1632,1632,1632,1624,1624,1624,1624,1624,1624,1616,1609,1609,1609,1601,1601,1601,1601,1601,1616,1616,1616,1616,1616,1624,1624,1632,1632,1632,1632,1639,1639,2349,2349,2349,2349,2349,2333,2333,2333,2317,2301,2301,2301,0,2301,0,0,0,1624,1624,1616,1609,1609,1601,1601,1601,1609,1609,1609,1616,1616,1624,1624,1624,1624,1624,1624,1624,1632,1632,1632,1632,1632,1632,1632,1639,1639,1639,1647,1647,1647,1647,1647,1655,1655,1655,1663,1663,1663,1663,1671,1680,1688,1688,1688,1688,1688,1696,1696,1696,1696,1696,1705,1705,1705,1713,1713,1722,1722,1722,1722,1722,1731,1731,1731,1731,1739,1739,0,0,0,1090,1090,1087,1087,1087,1080,1077,1077,1077,1077,1077,1077,1080,1084,1084,1084,1084,1087,1087,1087,1087,1090,1090,1090,0,0,0,1785,1785,1776,1776,1766,1766,1757,1757,1757,1748,1748,1739,1731,1731,1731,1731,1722,1722,1722,1713,1713,1705,1696,1696,1688,1688,1688,1688,1680,1680,1671,1663,1663,1663,1663,1655,1655,1655,1647,1639,1639,1632,1632,1632,1624,1616,1616,1616,1601,1601,1601,1594,1594,1586,1586,1579,1572,1572,1572,1564,1564,0,0,0,0,0,0,0,0,871,871,871,871,869,869,864,864,862,862,862,860,860,860,860,860,860,860,862,862,864,864,867,869,869,869,871,871,871,0,0,0,0,0,1445,1445,1445,1445,1439,1439,1439,1433,1433,1433,1427,1421,1421,1421,1415,1415,1415,1410,1404,1398,1398,1398,1398,1392,1392,1392,1387,1381,1381,1376,1376,1370,1370,1370,1365,1365,1359,1354,1349,1349,1349,1349,1349,1343,1343,1338,1338,1333,1333,1328,1328,1322,1317,1317,1312,1312,1312,1307,1307,1307,1302,1302,1297,1292,1292,1288,1288,1288,1288,1288,1283,1278,1278,1273,1273,1273,1268,1268,1264,1259,1255,1255,1255,1250,1250,1250,1250,1245,1245,1245,1241,1241,1236,1232,1232,1232,1227,1223,1223,1223,1219,1214,1214,1210,1210,1206,1202,1202,1202,1197,1197,1197,1197,1193,1193,1189,1185,1185,1185,1185,1181,1181,1177,1173,1173,1173,1169,1165,1165,1165,1165,1165,1165,1157,1157,1153,1149,1149,1145,1145,1141,1141,1138,1138,1138,1134,1134,1134,1134,1130,1126,1123,1123,1119,1119,1119,1119,1115,1112,1112,1108,1108,1105,1105,1105,1101,1097,1094,1094,1094,1094,1094,1090,1090,1090,1087,1084,1084,1080,1080,1080,1077,1077,1077,1073,1073,1070,1067,1067,1067,1063,1063,1060,1057,1057,1057,1054,1054,1054,1050,1050,1047,1047,1047,1044,1044,1041,1041,1041,1038,1038,1034,1031,1028,1028,1028,1028,1028,1025,1025,1025,1022,1022,1019,1016,1016,1013,1013,1013,1013,1013,1010,1007,1004,1004,1001,1001,1001,1001,998,998,998,995,992,992,989,989,989,987,987,984,981,981,978,978,973,973,970,970,970,967,967,967,967,964,964,964,0,0,0,0,0,0,0,0,0,0,0,0,0,0,0,0,0,0,0,0,0,0,0,0,0,0,0,0,0,0
0,0,0,0,0,0,0,0,0,0,0,0,0,0,0,1748,1748,1739,1739,1731,1731,1731,1722,1722,1722,1722,1713,1713,1713,1713,1713,1705,1705,1705,1696,1696,1696,1696,1696,1696,1696,1688,1688,1688,1688,1688,1688,1680,1680,1680,1680,1680,1671,1663,1663,1663,1663,1663,1663,1663,1663,1663,1663,1663,1663,1655,1655,1655,1647,1647,1647,1647,1647,1647,1647,1647,1647,1639,1639,1639,1639,1639,1639,1639,1632,1632,1632,1632,1632,1632,1632,1632,1632,1632,1632,1632,1632,1624,1624,1624,1624,1624,1616,1616,1616,1616,1616,1616,1616,1616,1616,1616,1616,1616,1616,1624,1632,1632,1639,1639,1639,1647,1655,1663,2349,2349,2333,2333,2333,2333,2333,2317,2301,2301,2301,0,2212,2212,0,1632,1632,1624,1624,1616,1609,1609,1609,1609,1609,1609,1609,1616,1616,1624,1624,1624,1624,1624,1632,1632,1632,1632,1632,1632,1632,1632,1632,1639,1639,1639,1647,1647,1647,1655,1655,1655,1663,1663,1663,1663,1663,1663,1671,1680,1688,1688,1688,1688,1696,1696,1696,1696,1696,1696,1696,1705,1705,1713,1713,1722,1722,1722,1722,1722,1731,1731,1731,1731,1739,1739,1739,0,0,0,0,1090,1090,1087,1080,1077,1077,1077,1077,1077,1077,1080,1084,1084,1084,1084,1087,1087,1087,1087,1090,1090,1090,0,0,0,0,1785,1785,1776,1766,1766,1757,1757,1757,1757,1748,1739,1739,1731,1731,1731,1722,1722,1722,1713,1713,1713,1696,1696,1696,1688,1688,1688,1680,1680,1671,1663,1663,1663,1663,1655,1655,1655,1647,1639,1639,1639,1632,1632,1624,1624,1616,1616,1601,1601,1601,1594,1594,1594,1586,1579,1572,1572,1572,1564,1564,0,0,0,0,0,0,0,0,0,871,871,871,871,869,864,864,862,862,862,860,860,860,860,860,860,860,862,862,864,867,867,869,869,869,871,871,871,0,0,0,0,0,1445,1445,1445,1445,1439,1439,1439,1439,1439,1433,1427,1427,1421,1421,1415,1415,1415,1410,1404,1404,1404,1398,1398,1398,1392,1392,1387,1381,1381,1376,1376,1370,1370,1370,1365,1365,1359,1354,1349,1349,1349,1349,1349,1343,1343,1338,1338,1333,1333,1333,1328,1322,1317,1317,1317,1312,1312,1312,1307,1307,1302,1302,1297,1292,1292,1292,1292,1288,1288,1288,1283,1278,1278,1273,1273,1273,1268,1268,1264,1259,1255,1255,1255,1255,1250,1250,1250,1245,1245,1245,1241,1241,1236,1236,1232,1232,1227,1227,1223,1223,1219,1214,1214,1210,1210,1206,1202,1202,1202,1202,1197,1197,1197,1197,1193,1193,1189,1185,1185,1185,1181,1181,1177,1173,1173,1173,1169,1165,1165,1165,1165,1165,1165,1161,1157,1153,1149,1149,1145,1145,1145,1141,1141,1138,1138,1134,1134,1134,1134,1130,1126,1123,1123,1123,1119,1119,1119,1115,1112,1112,1108,1108,1105,1105,1105,1101,1101,1097,1097,1097,1094,1094,1090,1090,1090,1087,1084,1084,1080,1080,1080,1077,1077,1077,1077,1073,1070,1070,1067,1067,1063,1063,1060,1057,1057,1054,1054,1054,1054,1050,1050,1047,1047,1047,1047,1044,1044,1041,1041,1041,1038,1034,1031,1031,1028,1028,1028,1028,1025,1025,1025,1025,1022,1022,1019,1016,1016,1013,1013,1013,1013,1010,1010,1007,1004,1004,1001,1001,1001,1001,998,998,998,992,992,992,989,989,987,987,984,981,981,978,975,975,973,973,970,970,970,967,967,967,967,964,964,0,0,0,0,0,0,0,0,0,0,0,0,0,0,0,0,0,0,0,0,0,0,0,0,0,0,0,0,0,0
0,0,0,0,0,0,0,0,0,0,0,0,0,0,0,1748,1748,1748,1739,1739,1731,1731,1722,1722,1722,1713,1713,1713,1713,1713,1713,1705,1705,1705,1696,1688,1688,1696,1696,1696,1696,1696,1688,1688,1688,1688,1688,1680,1680,1680,1680,1680,1671,1671,1671,1663,1663,1663,1663,1663,1663,1663,1663,1663,1663,1663,1655,1655,1647,1647,1647,1647,1655,1647,1647,1647,1639,1639,1639,1639,1639,1639,1639,1639,1639,1639,1632,1632,1632,1632,1632,1632,1632,1632,1632,1632,1632,1632,1632,1624,1624,1624,1624,1624,1616,1616,1616,1616,1609,1609,1616,1616,1616,1616,1616,1624,1632,1632,1632,1639,1639,1647,1655,1663,1663,2333,2333,2333,2333,2333,2317,2286,2286,2241,2212,2212,2212,2212,2198,1632,1632,1624,1624,1616,1609,1609,1609,1609,1609,1609,1616,1616,1624,1624,1624,1624,1624,1632,1632,1632,1632,1632,1632,1632,1632,1632,1632,1639,1639,1639,1647,1647,1647,1655,1655,1663,1663,1663,1663,1671,1671,1671,1671,1680,1688,1688,1688,1688,1696,1696,1696,1696,1696,1696,1696,1705,1705,1705,1713,1722,1722,1722,1722,1722,1731,1731,1731,1731,1739,1739,1757,0,0,0,0,1090,1090,1087,1087,1080,1077,1077,1077,1077,1077,1080,1084,1084,1084,1087,1087,1087,1087,1087,1090,1090,1090,0,0,0,0,1794,1785,1785,1776,1766,1766,1757,1757,1757,1748,1739,1739,1731,1731,1731,1731,1722,1722,1722,1722,1713,1705,1696,1696,1688,1688,1688,1680,1680,1671,1663,1663,1663,1663,1663,1655,1655,1647,1639,1639,1639,1632,1632,1632,1624,1624,1616,1609,1601,1601,1601,1594,1594,1586,1579,1579,1572,1572,1572,1572,0,0,0,0,0,0,0,0,0,871,871,871,869,869,864,864,862,862,862,860,860,860,860,860,862,862,862,862,864,867,869,869,869,871,871,871,871,0,0,0,0,0,1445,1445,1445,1445,1439,1439,1439,1439,1433,1433,1427,1427,1421,1421,1415,1415,1415,1410,1404,1404,1404,1398,1398,1398,1392,1392,1387,1381,1381,1376,1376,1370,1370,1370,1365,1365,1359,1354,1349,1349,1349,1349,1349,1349,1343,1343,1338,1338,1333,1333,1328,1322,1322,1322,1317,1312,1312,1312,1307,1307,1302,1302,1297,1292,1292,1292,1292,1288,1288,1288,1283,1278,1278,1273,1273,1273,1273,1268,1264,1264,1259,1259,1255,1255,1250,1250,1250,1250,1245,1245,1245,1236,1236,1236,1232,1232,1232,1227,1223,1223,1219,1219,1214,1214,1210,1210,1206,1202,1202,1202,1197,1197,1197,1197,1193,1193,1189,1185,1185,1185,1181,1181,1177,1173,1173,1173,1169,1169,1165,1165,1165,1165,1161,1161,1157,1153,1153,1149,1149,1145,1145,1141,1141,1138,1138,1134,1134,1134,1134,1130,1126,1123,1123,1123,1123,1119,1119,1115,1115,1112,1112,1108,1105,1105,1105,1105,1101,1101,1097,1097,1094,1094,1094,1090,1090,1090,1087,1084,1084,1080,1080,1080,1077,1077,1077,1073,1073,1070,1070,1067,1067,1063,1060,1057,1057,1054,1054,1054,1054,1050,1050,1050,1047,1047,1047,1044,1044,1041,1041,1041,1038,1034,1031,1031,1031,1028,1028,1028,1025,1025,1025,1025,1022,1022,1019,1016,1016,1013,1013,1013,1013,1010,1010,1007,1004,1004,1004,1001,1001,1001,998,998,995,995,992,992,989,989,987,987,984,981,981,978,975,975,975,973,973,970,970,970,967,967,967,964,964,0,0,0,0,0,0,0,0,0,0,0,0,0,0,0,0,0,0,0,0,0,0,0,0,0,0,0,0,0,0
0,0,0,0,0,0,0,0,0,0,0,0,0,0,0,1748,1748,1739,1739,1739,1731,1731,1722,1722,1722,1713,1713,1722,1713,1713,1713,1705,1705,1705,1688,1688,1688,1688,1696,1696,1696,1696,1688,1688,1688,1688,1688,1688,1688,1680,1680,1680,1680,1680,1680,1671,1663,1663,1663,1663,1663,1655,1655,1655,1663,1663,1655,1655,1647,1647,1655,1655,1655,1655,1647,1647,1639,1639,1639,1639,1639,1639,1639,1639,1639,1639,1632,1632,1632,1632,1632,1632,1632,1632,1632,1632,1632,1624,1624,1632,1624,1624,1624,1624,1624,1624,1616,1616,1609,1609,1616,1616,1616,1616,1624,1624,1632,1632,1632,1639,1639,1647,1655,1655,1663,1663,2333,2333,2271,2241,2241,2226,2212,2212,2212,2212,2198,2198,2198,1624,1624,1624,1624,1616,1609,1609,1609,1609,1609,1609,1616,1616,1624,1624,1624,1624,1632,1632,1632,1632,1632,1632,1632,1632,1632,1639,1639,1639,1639,1639,1647,1647,1655,1655,1655,1663,1663,1663,1663,1671,1671,1671,1671,1680,1688,1688,1688,1688,1688,1696,1696,1696,1696,1696,1696,1696,1705,1705,1713,1722,1722,1722,1722,1722,1731,1731,1731,1731,1731,1739,1757,1757,0,0,1094,1090,1090,1087,1087,1080,1080,1077,1077,1077,1077,1080,1080,1080,1084,1084,1087,1087,1090,1090,1090,1090,1090,0,0,0,0,1794,1785,1776,1776,1776,1766,1766,1766,1757,1748,1748,1739,1739,1731,1731,1731,1722,1722,1722,1713,1713,1705,1696,1696,1688,1688,1688,1680,1680,1671,1663,1663,1663,1663,1663,1663,1655,1655,1647,1647,1639,1639,1632,1632,1624,1624,1616,1609,1609,1601,1601,1594,1594,1586,1579,1579,1572,1572,1572,0,0,0,0,0,0,0,0,0,0,871,871,869,869,869,867,864,862,862,862,860,860,860,860,860,862,862,862,864,864,867,869,869,869,871,871,871,871,0,0,0,0,0,1452,1445,1445,1445,1445,1439,1439,1439,1433,1433,1427,1427,1421,1421,1421,1415,1415,1415,1410,1410,1404,1404,1398,1398,1392,1392,1387,1381,1381,1376,1376,1370,1370,1370,1365,1365,1359,1354,1354,1354,1349,1349,1349,1349,1349,1343,1343,1338,1333,1333,1333,1328,1328,1322,1322,1317,1312,1312,1307,1307,1307,1302,1302,1297,1292,1292,1292,1292,1288,1288,1288,1283,1278,1278,1273,1273,1273,1268,1264,1264,1259,1259,1255,1255,1255,1250,1250,1250,1245,1245,1245,1236,1236,1236,1232,1232,1232,1227,1227,1227,1223,1219,1219,1214,1214,1214,1206,1206,1202,1202,1202,1197,1197,1197,1193,1189,1185,1185,1185,1185,1181,1181,1177,1173,1173,1173,1169,1169,1165,1165,1165,1165,1161,1161,1157,1153,1153,1149,1149,1145,1145,1145,1141,1138,1138,1138,1134,1134,1134,1130,1126,1123,1123,1123,1123,1119,1119,1115,1115,1115,1112,1112,1108,1108,1105,1105,1101,1101,1097,1097,1094,1094,1094,1090,1090,1090,1090,1084,1084,1080,1080,1080,1077,1077,1077,1073,1073,1070,1070,1067,1067,1063,1060,1060,1057,1054,1054,1054,1054,1050,1050,1050,1050,1050,1047,1044,1044,1041,1041,1041,1038,1038,1034,1031,1031,1028,1028,1028,1028,1025,1025,1025,1022,1022,1016,1016,1016,1013,1013,1013,1013,1013,1010,1010,1004,1004,1004,1004,1001,1001,1001,1001,995,995,992,992,989,989,987,987,984,981,981,978,975,975,975,973,973,970,970,970,970,967,967,964,964,0,0,0,0,0,0,0,0,0,0,0,0,0,0,0,0,0,0,0,0,0,0,0,0,0,0,0,0,0,0
0,0,0,0,0,0,0,0,0,0,0,0,0,0,0,1748,1748,1739,1739,1739,1731,1731,1722,1722,1722,1722,1722,1722,1713,1713,1713,1713,1705,1696,1688,1688,1688,1688,1688,1696,1696,1696,1688,1688,1688,1688,1688,1688,1688,1680,1680,1680,1680,1680,1680,1671,1663,1663,1663,1663,1663,1655,1655,1655,1663,1663,1663,1655,1655,1655,1655,1655,1655,1655,1647,1647,1639,1639,1639,1639,1639,1639,1639,1632,1632,1639,1632,1632,1632,1632,1632,1632,1632,1632,1632,1632,1632,1624,1624,1632,1624,1624,1624,1624,1624,1624,1616,1616,1609,1609,1616,1616,1616,1616,1624,1624,1632,1632,1632,1639,1639,1639,1655,1655,1663,1663,2241,2241,2226,2198,2198,2198,2198,2198,2198,2198,2198,2184,2184,1624,1624,1624,1624,1616,1609,1609,1609,1609,1609,1609,1616,1624,1624,1624,1624,1632,1632,1632,1632,1632,1632,1639,1632,1632,1639,1639,1639,1639,1639,1639,1647,1647,1655,1655,1655,1663,1663,1663,1671,1671,1671,1671,1671,1680,1680,1688,1688,1688,1688,1696,1696,1696,1696,1696,1696,1696,1705,1705,1713,1722,1722,1722,1722,1722,1731,1731,1731,1731,1731,1739,1739,1739,0,1094,1094,1090,1090,1090,1087,1087,1080,1080,1080,1077,1077,1080,1080,1080,1084,1084,1087,1087,1087,1087,1087,1087,1090,0,0,0,1804,1794,1785,1776,1776,1776,1766,1766,1766,1766,1748,1748,1739,1739,1731,1731,1731,1722,1722,1722,1713,1713,1705,1696,1696,1688,1688,1688,1680,1680,1671,1663,1663,1663,1663,1663,1663,1655,1655,1647,1647,1639,1639,1632,1632,1624,1624,1624,1616,1609,1601,1601,1594,1594,1586,1586,1586,1572,1572,0,0,0,0,0,0,0,0,0,0,0,871,871,869,869,869,869,864,864,862,862,860,860,860,860,860,862,862,862,864,867,867,869,871,871,871,871,871,871,0,0,0,0,0,1452,1445,1445,1445,1445,1439,1439,1439,1433,1433,1433,1427,1427,1421,1421,1421,1415,1415,1415,1410,1404,1404,1398,1398,1392,1392,1387,1381,1381,1376,1376,1376,1370,1370,1370,1365,1359,1354,1354,1354,1349,1349,1349,1349,1349,1343,1343,1338,1338,1333,1333,1328,1328,1322,1322,1317,1317,1312,1312,1307,1307,1307,1302,1302,1297,1292,1292,1292,1292,1288,1288,1283,1278,1278,1273,1273,1273,1268,1264,1264,1259,1259,1255,1255,1255,1250,1250,1250,1245,1245,1245,1236,1236,1236,1232,1232,1232,1227,1227,1227,1223,1219,1219,1214,1214,1214,1210,1206,1206,1202,1202,1197,1197,1197,1193,1189,1185,1185,1185,1181,1181,1181,1177,1177,1173,1173,1173,1169,1169,1169,1165,1165,1165,1161,1157,1153,1153,1149,1149,1145,1145,1145,1141,1141,1138,1138,1138,1134,1134,1130,1126,1126,1123,1123,1123,1119,1119,1115,1115,1115,1112,1112,1108,1108,1105,1105,1101,1101,1097,1097,1094,1094,1094,1090,1090,1090,1090,1084,1084,1080,1080,1080,1077,1077,1077,1073,1073,1073,1070,1070,1067,1063,1063,1060,1060,1057,1054,1054,1054,1054,1050,1050,1050,1050,1050,1044,1041,1041,1041,1041,1038,1038,1034,1031,1031,1028,1028,1028,1028,1025,1025,1025,1022,1022,1016,1016,1013,1013,1013,1013,1013,1013,1010,1010,1007,1004,1004,1004,1004,1001,1001,998,995,995,992,992,992,989,989,987,984,981,981,978,978,975,975,975,973,973,970,970,970,967,967,964,964,0,0,0,0,0,0,0,0,0,0,0,0,0,0,0,0,0,0,0,0,0,0,0,0,0,0,0,0,0,0
0,0,0,0,0,0,0,0,0,0,0,0,0,0,0,1748,1748,1748,1748,1739,1731,1731,1731,1722,1722,1722,1722,1722,1713,1713,1713,1713,1713,1696,1688,1688,1688,1688,1688,1696,1696,1696,1688,1688,1688,1688,1688,1688,1688,1688,1688,1680,1680,1680,1680,1671,1671,1671,1671,1663,1663,1663,1655,1655,1663,1655,1655,1655,1655,1655,1655,1655,1655,1655,1647,1647,1647,1639,1639,1639,1639,1639,1639,1632,1632,1639,1632,1632,1632,1632,1632,1632,1632,1632,1632,1632,1632,1632,1632,1632,1632,1632,1624,1624,1624,1624,1616,1616,1616,1616,1616,1616,1616,1616,1624,1624,1632,1632,1632,1639,1639,1639,1655,1655,1655,1663,2226,2226,2226,2198,2198,2198,2198,2198,2198,2198,2198,2184,2184,2184,1624,1624,1624,1616,1616,1609,1609,1609,1616,1616,1616,1624,1624,1624,1624,1632,1632,1632,1632,1632,1632,1639,1639,1639,1639,1639,1639,1639,1647,1647,1655,1655,1655,1655,1663,1663,1663,1663,1671,1671,1671,1671,1671,1680,1680,1688,1688,1688,1688,1696,1696,1696,1696,1696,1696,1705,1705,1713,1713,1722,1722,1722,1722,1722,1722,1722,1731,1731,1731,0,1731,0,0,1094,1094,1090,1090,1090,1087,1087,1080,1080,1080,1080,1080,1077,1077,1080,1084,1084,1087,1087,1087,1087,1087,1087,0,0,0,0,1804,1794,1794,1785,1785,1776,1776,1766,1766,1766,1757,1748,1739,1739,1739,1731,1731,1731,1722,1722,1722,1713,1705,1696,1696,1688,1688,1688,1680,1680,1671,1671,1671,1663,1663,1663,1663,1663,1655,1647,1647,1639,1639,1632,1632,1624,1624,1624,1616,1609,1601,1601,1594,1594,1586,1586,1586,1586,1586,0,0,0,0,0,0,0,0,0,0,0,873,871,871,871,871,869,864,864,862,862,860,860,860,860,860,862,862,864,864,867,869,869,871,871,871,871,871,0,0,0,0,0,0,1464,1452,1452,1445,1445,1445,1439,1439,1439,1433,1433,1427,1427,1421,1421,1421,1415,1415,1415,1410,1410,1404,1398,1398,1392,1392,1392,1387,1381,1376,1376,1376,1376,1370,1370,1370,1365,1359,1354,1354,1354,1349,1349,1349,1349,1343,1343,1343,1338,1333,1333,1328,1328,1328,1322,1322,1317,1312,1312,1312,1307,1307,1307,1302,1302,1297,1292,1292,1292,1288,1288,1283,1283,1278,1273,1273,1273,1268,1268,1264,1259,1259,1259,1259,1255,1255,1250,1250,1245,1245,1241,1236,1236,1236,1232,1232,1232,1227,1227,1227,1223,1219,1219,1219,1214,1214,1210,1210,1206,1202,1202,1202,1202,1197,1193,1189,1185,1185,1185,1181,1181,1181,1177,1177,1177,1173,1169,1169,1169,1169,1165,1165,1165,1161,1157,1153,1153,1149,1149,1149,1145,1145,1141,1141,1138,1138,1138,1134,1134,1130,1130,1126,1123,1123,1123,1119,1119,1115,1115,1115,1112,1112,1108,1108,1108,1105,1101,1101,1097,1097,1094,1094,1094,1094,1090,1090,1090,1087,1084,1080,1080,1080,1077,1077,1077,1077,1073,1073,1070,1070,1067,1063,1063,1060,1060,1057,1054,1054,1054,1054,1054,1050,1050,1050,1050,1044,1041,1041,1041,1041,1038,1038,1038,1034,1031,1028,1028,1028,1028,1028,1025,1025,1022,1019,1016,1016,1013,1013,1013,1013,1013,1013,1013,1010,1007,1007,1004,1004,1004,1001,1001,998,995,995,992,992,992,989,989,987,984,981,981,978,978,978,975,975,975,973,970,970,970,967,967,964,964,0,0,0,0,0,0,0,0,0,0,0,0,0,0,0,0,0,0,0,0,0,0,0,0,0,0,0,0,0,0
0,0,0,0,0,0,0,0,0,0,0,0,0,0,0,1748,1748,1748,1748,1739,1731,1731,1731,1722,1722,1722,1722,1722,1713,1713,1713,1705,1705,1705,1696,1696,1696,1696,1696,1696,1696,1696,1696,1688,1688,1688,1688,1688,1688,1688,1688,1680,1680,1688,1680,1671,1671,1671,1671,1663,1663,1655,1655,1655,1655,1655,1655,1655,1655,1655,1655,1655,1655,1655,1655,1647,1647,1647,1647,1647,1639,1639,1639,1632,1632,1639,1632,1632,1632,1632,1632,1632,1632,1632,1632,1632,1632,1632,1632,1632,1632,1632,1632,1632,1624,1624,1624,1624,1616,1616,1616,1616,1616,1616,1624,1624,1632,1632,1632,1632,1639,1647,1655,1655,1655,1663,2170,2170,2170,2198,2198,2198,2198,2198,2198,2198,2198,2184,2184,2184,1624,1624,1624,1616,1616,1616,1609,1609,1616,1616,1616,1624,1624,1624,1624,1632,1632,1632,1632,1632,1632,1632,1632,1632,1639,1639,1639,1639,1647,1647,1655,1655,1655,1663,1663,1663,1671,1671,1671,1671,1671,1671,1680,1680,1680,1688,1688,1688,1688,1688,1696,1696,1696,1696,1705,1705,1705,1713,1713,1722,1722,1722,1722,1722,1722,1722,1722,1722,1722,1722,1713,0,1097,1097,1090,1090,1090,1090,1087,1087,1084,1080,1080,1080,1080,1077,1077,1084,1084,1084,1087,1087,1087,1090,1090,1090,0,0,0,0,1804,1794,1785,1785,1785,1776,1776,1766,1766,1766,1757,1748,1748,1739,1739,1731,1731,1731,1731,1722,1722,1713,1705,1696,1696,1688,1688,1688,1688,1680,1671,1671,1671,1671,1671,1663,1663,1663,1655,1655,1647,1639,1639,1632,1632,1632,1624,1624,1624,1609,1601,935,933,928,928,928,1586,1586,1586,0,0,0,0,0,0,0,0,0,0,0,873,871,871,871,871,869,864,864,862,862,860,860,860,860,860,862,862,864,867,867,869,869,871,871,871,871,873,0,0,0,0,0,0,1464,1458,1452,1452,1445,1445,1445,1439,1439,1439,1433,1433,1427,1421,1421,1421,1421,1415,1415,1410,1410,1404,1398,1398,1392,1392,1392,1387,1381,1381,1376,1376,1376,1370,1370,1370,1365,1359,1354,1354,1354,1349,1349,1349,1349,1349,1349,1343,1338,1338,1333,1333,1328,1328,1322,1322,1317,1312,1312,1312,1307,1307,1307,1302,1302,1297,1297,1292,1292,1288,1288,1283,1283,1278,1278,1278,1273,1273,1268,1264,1264,1264,1259,1259,1255,1255,1250,1250,1250,1245,1241,1236,1236,1236,1236,1232,1232,1232,1232,1227,1223,1223,1219,1219,1214,1214,1210,1210,1210,1206,1206,1202,1202,1197,1197,1189,1185,1185,1185,1181,1181,1181,1177,1177,1177,1173,1169,1169,1169,1169,1165,1165,1165,1161,1157,1153,1153,1149,1149,1149,1145,1145,1145,1141,1138,1138,1138,1134,1134,1130,1130,1126,1126,1123,1123,1123,1119,1119,1115,1115,1112,1112,1108,1108,1108,1105,1105,1101,1101,1101,1097,1094,1094,1094,1090,1090,1090,1087,1084,1080,1080,1080,1077,1077,1077,1077,1073,1073,1073,1070,1070,1067,1063,1060,1060,1057,1054,1054,1054,1054,1054,1054,1050,1050,1050,1047,1044,1041,1041,1041,1038,1038,1038,1034,1031,1028,1028,1028,1028,1028,1025,1025,1022,1019,1016,1016,1016,1013,1013,1013,1013,1013,1013,1010,1010,1007,1004,1004,1004,1001,1001,998,998,995,992,992,992,989,989,987,984,981,981,978,978,978,978,975,975,973,973,970,970,970,967,967,967,0,0,0,0,0,0,0,0,0,0,0,0,0,0,0,0,0,0,0,0,0,0,0,0,0,0,0,0,0,0
0,0,0,0,0,0,0,0,0,0,0,0,0,0,0,1757,1757,1748,1748,1739,1731,1731,1722,1722,1722,1722,1722,1722,1713,1713,1713,1705,1705,1705,1696,1696,1696,1696,1696,1696,1696,1696,1696,1688,1688,1688,1688,1688,1688,1688,1688,1688,1688,1688,1680,1671,1671,1671,1671,1663,1663,1655,1655,1655,1655,1655,1655,1655,1655,1655,1655,1655,1655,1655,1647,1647,1647,1647,1647,1647,1647,1639,1639,1632,1632,1639,1632,1632,1632,1632,1632,1632,1632,1632,1632,1632,1632,1632,1632,1632,1632,1632,1632,1632,1624,1624,1624,1624,1616,1616,1616,1616,1616,1624,1624,1624,1632,1632,1632,1632,1639,1639,1647,1655,1655,1663,2170,2170,2170,2170,2198,2198,2184,2184,2198,2198,2184,2170,2170,1632,1624,1624,1624,1616,1616,1616,1616,1616,1616,1616,1616,1624,1624,1624,1632,1632,1632,1632,1632,1632,1632,1632,1632,1632,1639,1639,1639,1639,1647,1647,1655,1655,1655,1663,1663,1663,1671,1671,1671,1671,1671,1671,1680,1680,1680,1688,1688,1688,1688,1688,1696,1696,1696,1696,1705,1705,1705,1713,1713,1722,1722,1722,1722,1722,1722,1722,1713,1713,1713,1713,1713,0,1097,1097,1090,1090,1090,1090,1087,1087,1084,1080,1080,1080,1080,1080,1080,1084,1084,1084,1087,1087,1090,1090,1090,1090,0,0,0,0,1794,1794,1785,1776,1776,1776,1766,1766,1766,1766,1757,1748,1748,1739,1731,1731,1731,1731,1722,1722,1713,1713,1696,1696,1688,1688,1688,1688,1680,1671,1671,1671,1671,1671,978,978,978,1663,1655,1655,1647,1639,1639,1632,1632,1632,1624,1624,1624,1609,1601,935,930,928,928,928,928,1594,1594,0,0,0,0,0,0,0,0,0,0,0,0,873,873,871,871,869,864,864,862,862,862,860,860,860,860,862,862,864,867,867,869,869,871,871,871,873,875,0,0,0,0,0,0,1464,1458,1452,1452,1445,1445,1445,1445,1439,1439,1439,1433,1433,1421,1421,1421,1421,1415,1415,1415,1410,1404,1398,1398,1392,1392,1392,1387,1387,1381,1381,1381,1376,1376,1376,1370,1365,1365,1359,1354,1354,1354,1354,1349,1349,1349,1349,1343,1343,1338,1333,1333,1333,1328,1322,1322,1322,1317,1312,1312,1307,1307,1307,1307,1302,1302,1297,1292,1292,1288,1288,1283,1283,1278,1278,1278,1273,1273,1268,1268,1264,1264,1264,1259,1259,1255,1255,1255,1250,1245,1241,1236,1236,1236,1232,1232,1232,1232,1232,1227,1227,1223,1223,1219,1214,1214,1214,1210,1210,1210,1206,1202,1202,1202,1197,1193,1193,1185,1185,1181,1181,1181,1177,1177,1177,1173,1169,1169,1169,1169,1165,1165,1165,1161,1157,1153,1153,1149,1149,1149,1145,1145,1145,1141,1141,1138,1138,1138,1134,1134,1130,1126,1126,1123,1123,1123,1119,1119,1115,1115,1115,1112,1108,1108,1108,1105,1105,1101,1101,1101,1097,1094,1094,1094,1090,1090,1090,1087,1084,1084,1080,1080,1077,1077,1077,1077,1073,1073,1073,1070,1070,1067,1063,1060,1060,1057,1057,1057,1054,1054,1054,1054,1050,1050,1050,1047,1044,1041,1041,1041,1041,1038,1038,1034,1031,1028,1028,1028,1028,1028,1025,1025,1022,1022,1019,1016,1016,1016,1013,1013,1013,1013,1013,1010,1010,1007,1007,1004,1004,1004,1001,998,998,995,992,992,992,992,989,989,987,984,981,981,981,978,978,978,975,975,973,973,970,970,967,967,967,0,0,0,0,0,0,0,0,0,0,0,0,0,0,0,0,0,0,0,0,0,0,0,0,0,0,0,0,0,0
0,0,0,0,0,0,0,0,0,0,0,0,0,0,0,1757,1757,1748,1748,1739,1731,1731,1722,1722,1722,1722,1722,1722,1713,1713,1713,1705,1705,1705,1705,1696,1696,1696,1696,1688,1688,1696,1696,1688,1688,1688,1688,1688,1688,1688,1688,1688,1688,1680,1680,1680,1680,1680,1680,1671,1663,1663,1663,1655,1655,1655,1655,1655,1655,1655,1655,1647,1647,1647,1647,1647,1647,1647,1647,1647,1647,1639,1639,1639,1639,1639,1639,1632,1632,1632,1632,1632,1632,1632,1632,1632,1632,1632,1632,1632,1632,1632,1632,1632,1624,1624,1624,1624,1616,1616,1616,1616,1616,1624,1624,1624,1632,1632,1632,1632,1639,1639,1639,1655,1655,1663,0,2184,2170,2170,2170,2184,2184,2184,2184,2184,2184,2170,2170,1632,1624,1624,1624,1624,1616,1616,1616,1616,1616,1616,1616,1624,1624,1624,1624,1632,1632,1632,1632,1632,1632,1639,1639,1639,1639,1639,1647,1647,1647,1655,1655,1655,1655,1663,1663,1663,1671,1671,1671,1671,1671,1680,1680,1680,1680,1688,1688,1688,1688,1688,1696,1696,1696,1696,1705,1705,1705,1713,1713,1722,1722,1722,1722,1722,1722,1713,1713,1713,1713,1713,1713,1101,1097,1097,1090,1090,1090,1090,1087,1084,1084,1084,1080,1080,1080,1080,1080,1084,1084,1087,1087,1087,1090,1090,1090,1090,1094,0,0,0,1794,1794,1785,1776,1776,1776,1766,1766,1757,1757,1757,1748,1739,1739,1731,1731,1731,1731,1722,1722,1713,1713,1696,1696,1688,1688,1688,1688,1680,1671,1671,1671,978,978,978,978,975,975,975,1655,1655,1639,1639,1632,1632,1632,1624,1624,1624,1609,935,935,928,928,928,925,925,923,923,923,0,0,0,0,0,0,0,0,0,0,878,875,873,871,871,871,869,864,864,862,862,862,862,862,862,862,862,864,867,867,869,869,871,871,873,873,875,0,0,0,0,0,0,1464,1458,1452,1452,1452,1445,1445,1445,1445,1439,1439,1433,1433,1421,1421,1421,1421,1415,1415,1415,1410,1404,1404,1398,1398,1392,1392,1392,1387,1387,1387,1381,1381,1376,1376,1370,1370,1365,1365,1354,1354,1354,1354,1349,1349,1349,1349,1343,1343,1338,1333,1333,1333,1328,1322,1322,1322,1317,1312,1312,1312,1307,1307,1307,1302,1302,1297,1292,1292,1288,1288,1283,1283,1278,1278,1278,1278,1273,1273,1268,1268,1268,1264,1264,1259,1255,1255,1255,1250,1250,1241,1241,1236,1236,1232,1232,1232,1232,1232,1227,1227,1223,1223,1219,1219,1214,1214,1210,1210,1210,1206,1206,1202,1202,1197,1193,1193,1185,1185,1185,1181,1181,1181,1181,1177,1177,1173,1173,1169,1169,1165,1165,1165,1161,1157,1153,1153,1149,1149,1149,1145,1145,1145,1141,1141,1138,1138,1138,1134,1134,1130,1126,1126,1126,1123,1123,1123,1119,1115,1115,1115,1112,1108,1108,1108,1105,1105,1101,1101,1101,1097,1097,1094,1094,1090,1090,1090,1087,1084,1084,1080,1080,1077,1077,1077,1077,1077,1073,1070,1070,1070,1067,1067,1063,1060,1060,1057,1057,1054,1054,1054,1054,1054,1050,1050,1047,1044,1041,1041,1041,1041,1038,1038,1038,1034,1031,1031,1028,1028,1028,1025,1025,1022,1022,1019,1019,1016,1016,1013,1013,1013,1013,1013,1010,1010,1007,1007,1004,1004,1001,1001,998,998,995,995,992,992,992,989,989,987,984,984,984,981,981,978,978,978,975,973,973,970,970,967,967,967,0,0,0,0,0,0,0,0,0,0,0,0,0,0,0,0,0,0,0,0,0,0,0,0,0,0,0,0,0,0
0,0,0,0,0,0,0,0,0,0,0,0,0,0,0,1757,1757,1748,1748,1748,1731,1731,1731,1722,1722,1722,1722,1722,1705,1705,1705,1705,1705,1705,1705,1696,1696,1696,1696,1688,1688,1688,1688,1688,1688,1688,1688,1688,1688,1688,1688,1688,1688,1680,1680,1680,1680,1680,1680,1671,1663,1663,1663,1663,1655,1655,1655,1655,1655,1655,1655,1647,1647,1647,1647,1647,1647,1647,1647,1647,1647,1639,1639,1639,1639,1639,1639,1632,1632,1632,1632,1632,1632,1632,1632,1632,1632,1632,1632,1632,1632,1632,1632,1624,1624,1624,1624,1624,1616,1616,1616,1616,1616,1624,1624,1624,1632,1632,1632,1632,1639,1639,1639,1647,1655,1655,0,0,2170,2170,2170,2170,2170,2170,2170,2170,2170,2170,2184,1632,1632,1632,1632,1624,1624,1616,1616,1616,1616,1616,1624,1624,1624,1624,1624,1632,1632,1632,1632,1632,1632,1639,1639,1639,1647,1647,1655,1655,1655,1655,1655,1655,1655,1663,1663,1663,1671,1671,1671,1671,1671,1680,1680,1688,1688,1688,1688,1688,1688,1688,1696,1696,1696,1696,1705,1705,1705,1713,1713,1722,1722,1722,1722,1722,1722,1713,1713,1713,1722,1722,1722,0,1101,1097,1090,1090,1090,1090,1087,1084,1084,1084,1080,1080,1080,1080,1080,1084,1084,1087,1087,1090,1090,1090,1090,1090,1094,0,0,0,0,0,1785,1776,1776,1776,1766,1766,1757,1748,1748,1748,1739,1731,1722,1722,1722,1722,1722,1713,1713,1705,1696,1001,1001,1001,1001,1688,987,984,981,981,978,978,975,975,975,975,973,973,973,973,954,1632,1632,1632,1624,1624,943,943,935,935,928,925,925,925,925,923,923,920,920,0,0,0,0,0,0,0,0,0,878,873,873,871,871,871,869,864,864,862,862,862,862,862,862,862,862,864,867,869,869,869,871,871,873,873,878,0,0,0,0,0,0,1464,1458,1458,1452,1452,1445,1445,1445,1445,1439,1439,1439,1433,1427,1421,1421,1421,1415,1415,1415,1410,1404,1404,1398,1398,1398,1392,1392,1392,1387,1387,1387,1381,1376,1376,1370,1370,1365,1365,1359,1354,1354,1354,1349,1349,1349,1349,1343,1343,1338,1338,1333,1333,1328,1328,1322,1322,1317,1317,1312,1312,1307,1307,1307,1302,1302,1297,1292,1292,1288,1288,1283,1283,1278,1278,1278,1278,1273,1273,1268,1268,1268,1264,1264,1259,1255,1255,1255,1250,1250,1245,1241,1236,1236,1236,1236,1232,1232,1232,1232,1227,1227,1223,1223,1219,1214,1214,1214,1210,1210,1210,1206,1202,1202,1197,1197,1193,1193,1189,1185,1185,1181,1181,1181,1181,1177,1173,1173,1169,1169,1165,1165,1165,1161,1157,1153,1153,1153,1149,1149,1149,1145,1145,1141,1141,1141,1138,1138,1134,1134,1134,1130,1126,1126,1123,1123,1123,1119,1119,1119,1115,1112,1108,1108,1108,1105,1105,1101,1101,1101,1097,1097,1094,1094,1094,1094,1090,1090,1087,1084,1080,1080,1077,1077,1077,1077,1077,1073,1070,1070,1070,1067,1067,1063,1063,1060,1060,1057,1057,1054,1054,1054,1054,1050,1047,1047,1044,1041,1041,1041,1041,1038,1038,1038,1034,1031,1031,1031,1028,1028,1028,1025,1025,1022,1019,1019,1016,1016,1013,1013,1013,1013,1013,1010,1010,1007,1007,1004,1004,1001,1001,998,998,995,995,992,992,992,992,989,987,984,984,984,981,981,981,978,978,975,975,973,970,970,967,967,967,0,0,0,0,0,0,0,0,0,0,0,0,0,0,0,0,0,0,0,0,0,0,0,0,0,0,0,0,0,0
0,0,0,0,0,0,0,0,0,0,0,0,0,0,0,1757,1757,1757,1757,1748,1739,1731,1731,1731,1722,1722,1722,1722,1705,1705,1705,1713,1705,1705,1705,1705,1705,1696,1696,1696,1696,1688,1688,1688,1688,1688,1696,1688,1688,1688,1688,1688,1688,1688,1680,1680,1680,1680,1671,1671,1663,1663,1663,1663,1663,1663,1663,1655,1655,1655,1655,1655,1655,1655,1655,1655,1655,1655,1647,1647,1647,1647,1639,1639,1639,1639,1639,1639,1632,1632,1632,1632,1632,1632,1632,1632,1632,1632,1632,1632,1632,1632,1632,1624,1624,1624,1624,1624,1624,1616,1616,1616,1616,1624,1624,1624,1632,1632,1632,1632,1639,1639,1639,1647,1655,1655,0,0,0,0,0,2170,2170,2156,2156,2156,2156,2156,2184,1632,1632,1632,1632,1624,1624,1624,1624,1616,1616,1616,1624,1624,1624,1624,1624,1632,1632,1632,1632,1632,1632,1632,1639,1639,1639,1647,1655,1655,1655,1655,1655,1655,1655,1663,1663,1663,1671,1671,1671,1671,1671,1680,1680,1688,1688,1688,1688,1688,1696,1696,1696,1696,1696,1696,1705,1705,1713,1713,1722,1722,1722,1722,1722,1722,1722,1713,1713,1713,1713,1713,1713,0,1097,1097,1094,1090,1090,1090,1087,1087,1084,1084,1084,1080,1080,1080,1084,1084,1087,1087,1087,1090,1090,1090,1090,1090,1094,0,0,0,0,0,1776,1776,1776,1776,1766,1038,1034,1031,1028,1028,1025,1025,1022,1022,1016,1013,1010,1010,1007,1004,1004,1001,1001,998,992,989,987,984,981,981,978,978,975,975,973,973,970,964,962,956,954,954,951,948,948,946,943,940,935,935,928,925,925,925,925,923,923,915,913,913,0,0,0,0,0,0,0,880,878,873,873,871,871,871,869,867,864,862,862,862,862,862,862,862,862,864,867,869,869,869,871,873,873,873,878,0,0,0,0,0,1470,1464,1464,1458,1452,1452,1445,1445,1445,1445,1445,1439,1439,1433,1427,1421,1421,1421,1415,1415,1415,1415,1410,1404,1404,1398,1398,1398,1392,1392,1392,1387,1387,1381,1376,1376,1376,1370,1370,1365,1359,1359,1354,1354,1354,1349,1349,1349,1349,1343,1338,1338,1333,1328,1328,1328,1328,1322,1322,1317,1312,1312,1307,1307,1307,1302,1302,1297,1292,1292,1288,1288,1288,1283,1283,1283,1283,1278,1278,1273,1273,1268,1268,1264,1264,1259,1255,1255,1255,1250,1250,1250,1241,1241,1236,1236,1236,1232,1232,1232,1232,1227,1227,1227,1223,1219,1214,1214,1210,1210,1210,1210,1206,1206,1202,1197,1197,1197,1193,1189,1185,1185,1185,1181,1181,1181,1177,1173,1173,1169,1169,1169,1165,1165,1161,1161,1157,1153,1153,1149,1149,1149,1149,1145,1145,1145,1141,1141,1138,1138,1134,1134,1130,1126,1126,1126,1126,1123,1123,1119,1119,1115,1115,1108,1108,1108,1105,1105,1105,1101,1101,1101,1097,1094,1094,1094,1094,1090,1087,1087,1084,1080,1080,1077,1077,1077,1077,1077,1073,1073,1070,1070,1067,1067,1063,1063,1060,1060,1057,1057,1054,1054,1054,1054,1050,1047,1047,1044,1041,1041,1041,1041,1041,1038,1038,1034,1031,1031,1031,1028,1028,1025,1025,1025,1022,1022,1022,1019,1016,1016,1016,1013,1013,1013,1013,1010,1010,1007,1004,1004,1001,1001,998,998,998,995,995,995,992,992,989,987,987,984,984,981,981,981,978,978,975,975,973,970,970,970,967,967,0,0,0,0,0,0,0,0,0,0,0,0,0,0,0,0,0,0,0,0,0,0,0,0,0,0,0,0,0,0
0,0,0,0,0,0,0,0,0,0,0,0,0,0,0,1748,1748,1748,1748,1748,1739,1739,1731,1731,1722,1722,1722,1722,1713,1713,1713,1713,1713,1713,1713,1713,1713,1705,1696,1696,1696,1688,1688,1688,1688,1688,1696,1688,1688,1688,1688,1688,1688,1688,1680,1680,1680,1680,1671,1671,1663,1663,1663,1663,1655,1655,1663,1655,1655,1655,1655,1655,1655,1655,1655,1655,1655,1655,1655,1655,1647,1647,1639,1639,1639,1639,1655,1639,1639,1639,1639,1639,1639,1639,1639,1639,1639,1632,1632,1632,1632,1632,1632,1624,1624,1624,1624,1624,1624,1616,1616,1616,1616,1624,1624,1632,1632,1632,1632,1632,1639,1639,1639,1647,1655,1655,0,0,0,0,0,0,2170,2156,2156,2156,2156,2156,0,0,1632,1632,1632,1632,1624,1624,1624,1624,1624,1624,1624,1624,1624,1624,1632,1632,1632,1632,1632,1632,1632,1632,1632,1632,1639,1639,1655,1655,1655,1655,1655,1655,1655,1663,1663,1671,1671,1671,1671,1671,1671,1680,1688,1688,1688,1688,1688,1688,1696,1696,1705,1705,1705,1705,1705,1713,1713,1722,1722,1722,1722,1722,1722,1722,1722,1713,1713,1713,1713,1713,1713,1097,1097,1094,1090,1090,1090,1087,1087,1087,1084,1084,1084,1084,1084,1084,1084,1087,1087,1087,1090,1090,1090,1090,1094,1094,1094,0,0,0,0,0,0,1038,1038,1038,1038,1034,1034,1031,1028,1025,1022,1022,1019,1016,1016,1013,1010,1007,1007,1004,1001,1001,998,998,989,989,987,984,981,981,978,978,975,975,973,970,967,964,962,956,954,954,951,948,948,946,943,940,935,935,930,928,925,925,925,923,915,913,913,908,908,906,903,903,0,0,0,880,878,878,878,873,873,871,871,867,864,862,862,862,862,862,862,862,862,864,867,869,869,871,871,873,873,873,878,0,0,0,0,0,1470,1464,1464,1458,1458,1452,1452,1452,1445,1445,1445,1439,1439,1433,1427,1421,1421,1421,1415,1415,1415,1415,1410,1404,1404,1398,1398,1398,1392,1392,1392,1392,1387,1387,1376,1376,1376,1370,1370,1365,1359,1359,1354,1354,1354,1349,1349,1349,1349,1343,1338,1338,1333,1328,1328,1328,1328,1322,1322,1317,1312,1312,1307,1307,1307,1302,1302,1297,1292,1292,1292,1288,1288,1283,1283,1283,1283,1278,1278,1273,1273,1273,1268,1268,1264,1259,1259,1255,1255,1250,1250,1250,1241,1241,1236,1236,1236,1236,1232,1232,1232,1227,1227,1227,1223,1219,1214,1214,1210,1210,1210,1210,1206,1206,1202,1202,1197,1197,1197,1189,1185,1185,1185,1181,1181,1181,1177,1173,1173,1169,1169,1169,1169,1165,1165,1161,1157,1157,1153,1153,1153,1149,1149,1149,1145,1145,1141,1141,1138,1138,1134,1134,1130,1130,1130,1126,1126,1123,1123,1119,1119,1119,1115,1108,1108,1108,1105,1105,1105,1101,1101,1101,1101,1097,1094,1094,1094,1090,1087,1087,1084,1080,1080,1077,1077,1077,1077,1077,1073,1073,1070,1070,1067,1067,1063,1063,1060,1060,1060,1057,1054,1054,1054,1054,1050,1050,1047,1047,1044,1041,1041,1041,1041,1041,1038,1038,1034,1031,1031,1028,1028,1025,1025,1025,1022,1022,1022,1019,1019,1016,1016,1016,1016,1013,1013,1010,1010,1007,1004,1004,1001,1001,998,998,998,995,995,995,992,992,989,989,987,987,987,984,984,981,981,978,978,975,973,970,970,970,970,970,0,0,0,0,0,0,0,0,0,0,0,0,0,0,0,0,0,0,0,0,0,0,0,0,0,0,0,0,0,0
0,0,0,0,0,0,0,0,0,0,0,0,0,0,0,1748,1748,1748,1748,1748,1739,1739,1731,1731,1722,1722,1722,1722,1713,1713,1713,1713,1713,1713,1713,1713,1713,1705,1696,1696,1696,1688,1688,1688,1688,1696,1696,1688,1688,1688,1688,1688,1688,1688,1688,1688,1680,1680,1671,1671,1663,1663,1663,1663,1655,1655,1663,1655,1655,1655,1655,1655,1655,1655,1655,1655,1655,1655,1655,1655,1655,1647,1639,1639,1639,1639,1655,1639,1639,1639,1639,1639,1639,1639,1639,1639,1639,1639,1639,1632,1632,1632,1632,1632,1624,1624,1624,1624,1624,1616,1616,1624,1624,1624,1632,1632,1632,1632,1632,1632,1639,1639,1639,1647,1655,1663,0,1663,0,0,0,0,0,0,0,0,0,0,0,0,1624,1624,1632,1632,1632,1624,1624,1624,1624,1624,1624,1624,1624,1624,1632,1632,1632,1624,1624,1632,1632,1632,1632,1632,1639,1639,1655,1655,1655,1655,1655,1655,1663,1663,1663,1671,1671,1671,1671,1671,1680,1688,1688,1688,1688,1688,1688,1696,1696,1696,1696,1705,1705,1705,1713,1713,1713,1722,1722,1722,1722,1722,1722,1722,1722,1713,1713,1713,1713,1731,1731,1097,1097,1094,1090,1090,1090,1087,1087,1087,1084,1084,1084,1084,1084,1084,1087,1087,1087,1090,1090,1090,1090,1090,1090,1090,1094,0,0,0,0,0,1044,1038,1038,1038,1034,1034,1034,1031,1028,1025,1022,1022,1019,1016,1013,1013,1010,1007,1007,1004,1001,998,998,995,989,989,987,984,981,981,978,978,975,973,970,967,967,964,962,956,954,954,951,948,948,943,943,940,938,935,933,930,928,925,925,918,915,913,913,908,908,906,903,903,903,0,880,880,878,878,878,875,875,873,869,867,864,862,862,862,862,862,862,862,862,864,867,869,869,871,871,873,873,873,878,880,0,0,0,0,1470,1464,1464,1458,1458,1458,1452,1452,1445,1445,1445,1445,1439,1433,1427,1427,1421,1421,1415,1415,1415,1415,1410,1404,1404,1398,1398,1398,1398,1392,1392,1392,1387,1387,1376,1376,1376,1370,1370,1365,1365,1359,1359,1354,1354,1354,1354,1349,1349,1343,1343,1338,1333,1333,1328,1328,1328,1322,1322,1317,1312,1312,1307,1307,1307,1302,1302,1297,1297,1292,1292,1288,1288,1288,1283,1283,1283,1278,1278,1278,1273,1273,1268,1268,1264,1264,1259,1255,1255,1255,1250,1250,1245,1241,1236,1236,1236,1236,1232,1232,1232,1232,1227,1227,1223,1219,1214,1214,1214,1210,1210,1210,1206,1206,1202,1202,1202,1197,1197,1197,1189,1189,1185,1181,1181,1181,1177,1173,1173,1169,1169,1169,1169,1165,1165,1165,1165,1161,1157,1153,1153,1149,1149,1149,1145,1145,1145,1138,1138,1138,1134,1134,1134,1130,1130,1126,1126,1126,1123,1123,1119,1119,1115,1112,1108,1108,1108,1105,1105,1105,1105,1101,1101,1097,1097,1094,1094,1094,1090,1087,1087,1084,1080,1080,1080,1077,1077,1077,1073,1073,1073,1070,1070,1067,1063,1063,1063,1060,1060,1057,1057,1054,1054,1054,1050,1050,1047,1047,1044,1044,1041,1041,1041,1041,1038,1038,1034,1031,1031,1031,1028,1025,1025,1025,1025,1022,1022,1022,1019,1016,1016,1016,1016,1013,1013,1013,1010,1010,1007,1004,1004,1001,1001,1001,1001,998,998,995,992,992,992,989,989,987,987,984,984,981,981,978,978,978,975,973,973,970,970,970,0,0,0,0,0,0,0,0,0,0,0,0,0,0,0,0,0,0,0,0,0,0,0,0,0,0,0,0,0,0
0,0,0,0,0,0,0,0,0,0,0,0,0,0,0,1748,1748,1748,1748,1748,1739,1739,1739,1731,1722,1722,1722,1722,1713,1713,1722,1713,1713,1713,1713,1713,1713,1713,1705,1696,1696,1688,1688,1688,1688,1696,1696,1696,1688,1688,1688,1688,1688,1688,1688,1688,1688,1688,1671,1671,1663,1663,1663,1663,1663,1663,1663,1663,1663,1663,1655,1655,1655,1655,1655,1655,1655,1655,1655,1655,1655,1647,1647,1639,1639,1647,1647,1647,1647,1647,1647,1647,1639,1639,1639,1639,1639,1639,1639,1632,1632,1632,1632,1632,1632,1624,1624,1624,1624,1624,1624,1624,1624,1624,1632,1632,1632,1632,1639,1639,1639,1639,1647,1647,1655,1655,1663,0,0,0,0,0,0,0,0,0,0,0,0,0,1624,1624,1632,1632,1632,1624,1624,1624,1624,1624,1624,1624,1624,1624,1632,1632,1632,1624,1624,1632,1632,1632,1632,1632,1639,1639,1655,1655,1655,1655,1655,1655,1663,1663,1663,1671,1671,1671,1671,1680,1680,1688,1688,1688,1688,1688,1688,1696,1696,1696,1696,1705,1705,1705,1713,1713,1713,1722,1722,1722,1722,1722,1722,1722,1722,1722,1713,1713,1713,1731,1731,1094,1094,1094,1090,1090,1090,1087,1087,1087,1084,1084,1084,1084,1084,1084,1087,1090,1090,1090,1090,1090,1090,1090,1090,1090,1094,0,1050,0,1047,0,1044,1044,1038,1038,1034,1034,1034,1031,1028,1025,1022,1022,1019,1016,1013,1013,1010,1010,1007,1004,1001,998,998,992,989,989,987,984,981,981,978,978,975,973,970,967,964,962,962,956,956,954,951,948,948,943,943,940,938,935,933,930,928,925,925,918,918,913,910,908,908,906,903,903,898,898,880,880,880,878,878,875,875,873,869,869,867,864,862,862,862,862,862,862,862,864,867,869,869,871,871,873,873,875,880,880,0,0,0,0,0,1464,1464,1458,1458,1458,1452,1452,1452,1445,1445,1445,1439,1433,1427,1427,1421,1421,1421,1415,1415,1415,1410,1410,1404,1398,1398,1398,1398,1398,1392,1392,1392,1387,1387,1381,1376,1370,1370,1365,1365,1365,1359,1359,1354,1354,1354,1349,1349,1343,1343,1338,1333,1333,1333,1328,1328,1328,1322,1322,1312,1312,1307,1307,1307,1307,1302,1302,1297,1297,1292,1292,1288,1288,1283,1283,1283,1278,1278,1278,1273,1273,1268,1268,1264,1264,1259,1259,1255,1255,1250,1250,1250,1241,1241,1236,1236,1236,1232,1232,1232,1232,1227,1227,1223,1219,1214,1214,1214,1214,1214,1210,1206,1206,1202,1202,1202,1197,1197,1197,1193,1189,1185,1185,1185,1181,1181,1177,1173,1173,1169,1169,1169,1169,1165,1165,1165,1161,1161,1157,1153,1153,1149,1149,1145,1145,1145,1138,1138,1138,1138,1134,1134,1134,1134,1126,1126,1126,1123,1119,1119,1119,1115,1112,1112,1112,1108,1108,1105,1105,1105,1105,1101,1097,1097,1097,1094,1090,1090,1090,1087,1084,1080,1080,1080,1077,1077,1077,1073,1073,1073,1070,1070,1067,1063,1063,1063,1063,1060,1057,1057,1054,1054,1054,1050,1050,1047,1047,1044,1044,1041,1041,1041,1041,1041,1038,1038,1034,1034,1031,1028,1025,1025,1025,1025,1025,1022,1022,1022,1019,1016,1016,1016,1013,1013,1013,1010,1010,1007,1007,1004,1004,1001,1001,1001,998,998,995,995,992,992,989,989,989,987,984,984,981,981,978,978,978,978,975,973,970,970,970,0,0,0,0,0,0,0,0,0,0,0,0,0,0,0,0,0,0,0,0,0,0,0,0,0,0,0,0,0,0
0,0,0,0,0,0,0,0,0,0,0,0,0,0,0,1739,1739,1748,1748,1748,1739,1739,1739,1731,1731,1731,1722,1722,1722,1722,1722,1722,1722,1722,1722,1722,1713,1713,1696,1696,1696,1688,1688,1688,1688,1696,1696,1696,1688,1688,1696,1696,1688,1688,1688,1688,1688,1688,1671,1671,1671,1671,1663,1663,1663,1663,1663,1663,1663,1663,1663,1663,1663,1663,1663,1663,1663,1655,1655,1655,1655,1655,1655,1655,1655,1655,1647,1647,1647,1647,1647,1647,1639,1639,1639,1639,1639,1639,1639,1632,1632,1632,1632,1632,1632,1632,1624,1624,1624,1624,1624,1624,1624,1624,1632,1632,1632,1632,1639,1639,1639,1639,1647,1647,1655,1655,1663,0,0,0,0,0,0,0,0,0,0,0,0,0,0,1632,1632,1632,1632,1624,1624,1624,1624,1624,1624,1624,1624,1624,1632,1632,1632,1632,1632,1632,1632,1632,1632,1639,1647,1647,1655,1655,1655,1655,1655,1655,1663,1663,1663,1671,1671,1671,1671,1680,1680,1688,1688,1688,1688,1688,1688,1688,1688,1696,1705,1705,1705,1713,1713,1713,1722,1722,1722,1722,1722,1722,1731,1731,1731,1722,1722,1722,1722,1722,1090,0,1090,1090,1090,1090,1090,1087,1087,1087,1084,1084,1084,1084,1084,1087,1087,1090,1090,1090,1090,1090,1094,1094,1090,1090,1090,1050,1050,1047,1047,1044,1044,1041,1038,1038,1034,1034,1034,1031,1028,1028,1025,1022,1019,1016,1013,1013,1010,1010,1007,1004,1001,998,998,992,989,989,987,987,984,981,978,978,975,973,970,967,964,962,959,956,956,954,954,948,946,943,940,938,935,935,933,930,928,925,923,918,915,913,910,908,908,906,903,903,898,891,891,882,880,878,878,875,875,873,869,869,867,864,862,862,862,862,862,862,864,864,867,869,869,871,871,873,873,875,878,880,0,0,0,0,0,1464,1464,1458,1458,1458,1458,1452,1452,1445,1445,1445,1439,1433,1427,1427,1421,1421,1421,1415,1415,1415,1410,1410,1404,1398,1398,1398,1398,1398,1392,1392,1392,1387,1387,1381,1376,1370,1370,1365,1365,1365,1359,1359,1354,1354,1354,1354,1349,1343,1343,1338,1333,1333,1333,1328,1328,1328,1328,1322,1317,1317,1312,1312,1307,1307,1302,1302,1297,1297,1292,1292,1288,1288,1288,1288,1283,1278,1278,1278,1273,1273,1268,1268,1264,1264,1259,1259,1255,1255,1255,1250,1250,1241,1241,1241,1236,1236,1232,1232,1232,1232,1227,1227,1223,1219,1214,1214,1214,1214,1214,1210,1210,1206,1202,1202,1202,1197,1197,1197,1193,1189,1189,1185,1185,1181,1181,1177,1177,1173,1169,1169,1169,1169,1165,1165,1165,1161,1161,1157,1153,1153,1149,1149,1149,1145,1145,1141,1141,1138,1138,1138,1134,1134,1134,1130,1130,1126,1123,1119,1119,1119,1115,1115,1112,1112,1108,1108,1105,1105,1105,1105,1105,1101,1097,1097,1097,1090,1090,1090,1087,1087,1084,1080,1080,1077,1077,1077,1073,1073,1073,1070,1067,1067,1067,1063,1063,1063,1060,1057,1057,1057,1054,1054,1050,1050,1047,1047,1044,1044,1041,1041,1041,1041,1041,1038,1038,1038,1038,1034,1028,1028,1028,1025,1025,1025,1022,1022,1022,1019,1016,1016,1016,1016,1013,1013,1013,1010,1010,1007,1004,1004,1001,1001,1001,1001,998,998,995,992,992,992,989,989,989,987,984,981,981,978,978,978,978,975,973,970,970,970,0,0,0,0,0,0,0,0,0,0,0,0,0,0,0,0,0,0,0,0,0,0,0,0,0,0,0,0,0,0
0,0,0,0,0,0,0,0,0,0,0,0,0,0,0,1739,1739,1748,1748,1748,1739,1739,1739,1731,1731,1731,1731,1731,1722,1722,1731,1722,1722,1722,1722,1722,1713,1713,1696,1696,1696,1688,1688,1688,1688,1696,1696,1696,1688,1688,1696,1696,1696,1688,1688,1688,1688,1680,1680,1671,1671,1671,1671,1663,1663,1663,1663,1663,1663,1663,1663,1663,1663,1663,1663,1663,1663,1655,1655,1655,1655,1655,1655,1655,1655,1655,1655,1655,1655,1655,1655,1647,1647,1647,1647,1647,1647,1639,1639,1639,1639,1639,1632,1632,1632,1632,1624,1624,1624,1624,1624,1624,1624,1632,1632,1632,1639,1639,1639,1639,1647,1647,1647,1647,1655,1655,1663,1663,0,0,0,0,0,0,0,0,0,0,0,0,0,0,0,1639,1632,1632,1624,1624,1624,1624,1624,1624,1624,1624,1632,1632,1632,1632,1632,1632,1632,1632,1639,1647,1647,1647,1655,1655,1655,1655,1655,1655,1663,1663,1663,1671,1671,1671,1671,1680,1680,1688,1688,1688,1688,1688,1688,1688,1688,1696,1696,1705,1705,1713,1713,1713,1722,1722,1722,1722,1722,1722,1731,1731,1731,1731,1731,1722,1722,1722,0,1090,1090,1090,1090,1090,1090,1090,1087,1087,1084,1084,1084,1084,1084,1084,1087,1087,1087,1090,1090,1090,1090,1090,1090,1087,1087,1054,1050,1047,1044,1044,1044,1041,1038,1034,1034,1034,1034,1031,1031,1028,1025,1022,1019,1016,1013,1013,1013,1010,1007,1004,1001,998,998,992,989,989,987,984,984,981,978,978,975,973,970,967,964,962,959,956,956,954,951,951,946,943,940,938,935,933,930,928,928,925,923,918,915,913,910,908,908,906,903,903,898,891,891,882,880,878,878,875,875,873,869,867,867,864,862,862,862,862,862,864,864,867,869,869,869,871,873,873,873,875,878,0,0,0,0,0,1470,1464,1464,1464,1464,1458,1458,1452,1452,1445,1445,1445,1439,1433,1427,1427,1421,1421,1421,1415,1415,1415,1415,1410,1404,1398,1398,1398,1398,1398,1392,1392,1392,1387,1387,1381,1376,1376,1370,1365,1365,1365,1359,1359,1354,1354,1354,1354,1349,1349,1343,1338,1333,1333,1333,1333,1328,1328,1328,1322,1322,1317,1317,1312,1312,1307,1307,1302,1302,1297,1292,1292,1292,1288,1288,1288,1283,1283,1278,1278,1273,1273,1268,1268,1264,1264,1259,1259,1255,1255,1255,1250,1250,1245,1241,1241,1236,1236,1236,1232,1232,1232,1227,1227,1223,1219,1214,1214,1214,1214,1214,1214,1210,1206,1206,1202,1202,1197,1197,1197,1193,1189,1189,1185,1185,1181,1181,1177,1177,1173,1173,1169,1169,1169,1169,1165,1165,1161,1161,1157,1153,1153,1149,1149,1149,1149,1145,1145,1141,1138,1138,1138,1134,1134,1134,1130,1130,1123,1123,1123,1119,1119,1115,1115,1112,1112,1108,1108,1105,1105,1105,1105,1105,1101,1097,1097,1097,1090,1090,1090,1090,1087,1084,1084,1080,1080,1077,1077,1073,1073,1073,1070,1067,1067,1067,1067,1063,1063,1063,1060,1057,1057,1057,1054,1054,1050,1047,1047,1047,1047,1044,1044,1041,1041,1041,1041,1038,1038,1038,1034,1028,1028,1028,1025,1025,1025,1022,1022,1022,1022,1019,1016,1016,1016,1013,1013,1013,1010,1010,1007,1004,1004,1004,1001,1001,1001,998,998,995,995,992,992,989,989,989,987,984,981,981,981,978,978,978,975,975,973,970,970,0,0,0,0,0,0,0,0,0,0,0,0,0,0,0,0,0,0,0,0,0,0,0,0,0,0,0,0,0,0
0,0,0,0,0,0,0,0,0,0,0,0,0,0,0,1739,1739,1748,1748,1748,1739,1739,1739,1731,1731,1731,1731,1731,1731,1731,1731,1731,1722,1722,1722,1722,1722,1713,1696,1696,1696,1696,1696,1696,1696,1696,1696,1696,1696,1696,1696,1696,1696,1688,1688,1688,1688,1680,1671,1671,1671,1671,1671,1671,1671,1671,1663,1663,1671,1671,1663,1663,1663,1663,1663,1663,1663,1663,1663,1663,1655,1655,1655,1655,1655,1663,1655,1655,1655,1655,1655,1655,1647,1647,1647,1647,1647,1639,1639,1639,1639,1639,1639,1632,1632,1632,1632,1632,1632,1624,1624,1624,1624,1632,1632,1639,1639,1647,1647,1647,1647,1647,1647,1655,1655,1663,1663,1663,0,0,0,1823,1823,1823,1823,0,1823,1823,1823,0,0,0,0,1632,1632,1632,1632,1624,1624,1624,1624,1624,1624,1624,1632,1632,1632,1632,1632,1632,1632,1632,1639,1647,1647,1647,1655,1655,1655,1655,1655,1663,1663,1663,1663,1671,1671,1671,1671,1680,1680,1688,1688,1688,1688,1688,1688,1688,1688,1696,1696,1705,1705,1705,1713,1713,1722,1722,1722,1722,1722,1731,1731,1731,1731,1731,1731,1731,1731,1731,0,0,1090,1090,1090,1090,1090,1090,1087,1087,1084,1084,1084,1084,1084,1084,1087,1087,1087,1087,1087,1087,1087,1087,1087,1063,1054,1050,1050,1047,1044,1044,1044,1038,1038,1034,1034,1034,1034,1031,1028,1028,1025,1022,1022,1019,1013,1013,1013,1010,1007,1004,1001,998,998,992,989,989,987,984,984,981,978,978,975,973,970,967,964,962,959,956,956,954,951,948,946,943,943,940,935,933,930,928,925,925,923,918,915,913,913,908,908,906,903,901,898,894,891,885,882,880,878,878,875,871,869,867,867,864,862,862,862,862,862,864,864,867,869,871,871,871,873,873,873,875,0,0,0,0,0,0,1470,1470,1464,1464,1464,1458,1458,1458,1452,1445,1445,1445,1439,1433,1427,1427,1421,1421,1421,1415,1415,1415,1415,1410,1410,1398,1398,1398,1398,1398,1392,1392,1392,1387,1387,1381,1376,1376,1370,1370,1365,1365,1365,1359,1354,1354,1354,1354,1349,1349,1343,1343,1333,1333,1333,1333,1333,1328,1328,1328,1322,1322,1317,1312,1312,1312,1307,1307,1302,1302,1297,1297,1292,1292,1292,1288,1288,1283,1283,1278,1273,1273,1273,1268,1268,1268,1264,1259,1259,1255,1255,1250,1250,1245,1245,1241,1241,1236,1236,1236,1232,1232,1232,1227,1223,1219,1219,1214,1214,1214,1214,1214,1210,1206,1206,1202,1202,1202,1197,1197,1193,1193,1189,1185,1185,1185,1181,1181,1177,1177,1173,1169,1169,1169,1169,1165,1165,1161,1161,1157,1157,1153,1153,1149,1149,1149,1145,1145,1141,1138,1138,1138,1134,1134,1134,1134,1130,1123,1123,1123,1119,1119,1115,1115,1112,1112,1108,1108,1108,1105,1105,1105,1105,1101,1097,1097,1094,1094,1090,1090,1090,1090,1087,1084,1084,1080,1080,1077,1077,1077,1073,1073,1067,1067,1067,1067,1063,1063,1060,1057,1057,1057,1057,1054,1054,1054,1047,1047,1047,1047,1047,1044,1044,1041,1041,1041,1038,1038,1038,1028,1028,1028,1028,1025,1025,1025,1022,1022,1022,1022,1019,1016,1016,1016,1016,1013,1013,1013,1010,1007,1007,1004,1004,1001,1001,1001,998,998,995,995,995,992,992,989,987,987,984,981,981,981,981,978,978,978,978,975,973,973,0,0,0,0,0,0,0,0,0,0,0,0,0,0,0,0,0,0,0,0,0,0,0,0,0,0,0,0,0,0
0,0,0,0,0,0,0,0,0,0,0,0,0,0,0,1748,1748,1748,1748,1748,1739,1739,1739,1739,1731,1731,1731,1731,1731,1731,1731,1731,1722,1722,1722,1722,1722,1713,1705,1696,1696,1696,1696,1696,1696,1696,1696,1696,1696,1696,1696,1696,1688,1688,1688,1688,1688,1688,1671,1671,1671,1671,1671,1671,1671,1671,1671,1671,1671,1671,1671,1671,1663,1663,1663,1663,1663,1663,1663,1663,1663,1663,1655,1655,1655,1663,1655,1655,1655,1655,1655,1655,1647,1647,1647,1647,1647,1639,1639,1639,1639,1639,1639,1639,1632,1632,1632,1632,1632,1624,1624,1624,1632,1632,1632,1639,1639,1647,1647,1647,1647,1655,1655,1655,1655,1663,1663,1843,1843,1823,1823,1823,1823,1823,1823,1813,1813,1823,1823,0,0,0,0,0,1632,1632,1632,1624,1624,1624,1624,1624,1624,1624,1632,1632,1632,1632,1632,1632,1632,1632,1639,1647,1647,1647,1655,1655,1655,1655,1655,1663,1663,1663,1663,1671,1671,1671,1671,1680,1680,1688,1688,1688,1688,1688,1688,1688,1688,1696,1696,1705,1705,1705,1713,1713,1722,1722,1722,1722,1722,1722,1731,1731,1731,1731,1731,0,1731,1731,0,1087,1087,1087,1087,1087,1090,1087,1084,1084,1084,1084,1084,1084,1084,1084,1084,1087,1087,1087,1087,1087,1084,1063,1063,1060,1054,1050,1050,1047,1044,1044,1044,1038,1038,1034,1034,1034,1034,1031,1028,1025,1025,1022,1019,1019,1013,1013,1013,1010,1007,1004,1001,998,998,992,992,989,987,987,984,984,981,978,975,973,970,964,964,962,959,956,956,954,951,948,946,943,940,938,935,933,930,928,925,925,923,918,915,915,913,908,908,906,903,901,898,894,891,887,885,882,880,878,875,871,869,867,867,864,864,862,862,862,862,864,867,869,869,871,871,873,873,875,875,878,880,0,0,0,0,0,1470,1470,1464,1464,1464,1464,1464,1458,1452,1452,1445,1445,1439,1439,1433,1427,1421,1421,1421,1421,1415,1415,1415,1415,1410,1410,1410,1398,1398,1398,1398,1392,1392,1392,1387,1381,1381,1376,1370,1370,1365,1365,1365,1365,1359,1354,1354,1354,1354,1349,1349,1343,1338,1333,1333,1333,1333,1328,1328,1328,1328,1322,1322,1317,1317,1312,1307,1307,1307,1302,1302,1297,1297,1292,1292,1292,1288,1283,1283,1278,1273,1273,1273,1268,1268,1268,1268,1264,1259,1255,1255,1250,1250,1245,1245,1241,1241,1236,1236,1236,1232,1232,1232,1227,1223,1223,1219,1219,1214,1214,1214,1214,1210,1206,1206,1202,1202,1202,1202,1197,1197,1193,1189,1185,1185,1185,1181,1181,1181,1177,1173,1169,1169,1169,1169,1165,1165,1165,1161,1161,1157,1153,1153,1149,1149,1149,1145,1145,1141,1138,1138,1138,1134,1134,1134,1134,1130,1126,1123,1123,1119,1119,1115,1115,1115,1115,1108,1108,1108,1105,1105,1105,1105,1101,1097,1097,1094,1094,1090,1090,1090,1090,1087,1084,1084,1080,1080,1077,1077,1077,1077,1073,1070,1067,1067,1067,1063,1063,1060,1057,1057,1057,1057,1057,1054,1054,1054,1050,1050,1050,1047,1047,1044,1044,1041,1041,1038,1038,1038,1028,1028,1028,1028,1028,1025,1025,1025,1025,1022,1022,1019,1019,1016,1016,1016,1013,1013,1013,1010,1007,1007,1004,1004,1001,1001,1001,1001,998,995,995,995,992,992,992,987,987,984,981,981,981,981,978,978,978,975,975,973,973,0,0,0,0,0,0,0,0,0,0,0,0,0,0,0,0,0,0,0,0,0,0,0,0,0,0,0,0,0,0
0,0,0,0,0,0,0,0,0,0,0,0,0,0,0,1748,1748,1748,1748,1748,1739,1739,1739,1731,1731,1731,1731,1731,1731,1731,1731,1731,1731,1722,1722,1722,1722,1713,1705,1696,1696,1705,1705,1696,1696,1696,1696,1696,1696,1696,1696,1696,1688,1688,1688,1688,1688,1688,1680,1671,1671,1671,1671,1680,1671,1671,1671,1671,1671,1671,1671,1671,1663,1663,1663,1663,1663,1663,1663,1663,1663,1663,1655,1655,1655,1663,1655,1655,1655,1655,1655,1655,1647,1647,1647,1647,1647,1639,1639,1639,1639,1639,1639,1639,1639,1639,1632,1632,1632,1624,1624,1624,1632,1632,1632,1632,1632,1639,1647,1647,1647,1655,1655,1655,1655,1663,1663,1843,1843,1823,1823,1823,1823,1823,1823,1813,1813,1823,1823,1823,0,0,0,1647,1647,1639,1632,1632,1624,1624,1624,1624,1624,1624,1632,1632,1632,1632,1632,1632,1632,1632,1639,1647,1647,1647,1655,1655,1655,1655,1655,1663,1663,1663,1663,1663,1671,1671,1671,1680,1680,1688,1688,1688,1688,1688,1688,1688,1688,1696,1696,1696,1705,1713,1713,1713,1722,1722,1722,1722,1722,1722,1731,1731,1731,1731,1739,0,1731,1731,0,0,1087,1087,1087,1087,1090,1087,1084,1084,1084,1084,1084,1084,1084,1084,1084,1084,1084,1084,1084,1080,1077,1063,1063,1057,1057,1054,1050,1047,1047,1044,1044,1038,1038,1034,1034,1034,1034,1031,1028,1025,1025,1022,1019,1019,1013,1013,1013,1010,1007,1004,1001,998,998,995,992,989,987,987,984,984,981,978,975,973,970,964,964,962,959,956,956,954,951,948,946,943,940,938,935,933,930,928,925,925,923,923,918,915,913,908,906,906,903,901,896,894,891,889,885,882,880,878,875,871,869,869,867,864,864,864,862,862,864,867,867,869,869,871,871,873,873,875,875,880,880,880,0,0,0,0,1470,1470,1470,1464,1464,1464,1464,1458,1452,1452,1445,1445,1439,1439,1433,1427,1427,1421,1421,1421,1421,1415,1415,1415,1410,1410,1410,1404,1398,1398,1398,1398,1392,1392,1387,1381,1381,1376,1370,1370,1370,1365,1365,1365,1359,1359,1354,1354,1354,1354,1349,1343,1338,1333,1333,1333,1333,1333,1328,1328,1328,1328,1322,1317,1317,1312,1312,1307,1307,1302,1302,1297,1297,1292,1292,1292,1288,1288,1283,1278,1273,1273,1273,1268,1268,1268,1268,1264,1259,1259,1255,1255,1250,1245,1245,1241,1241,1236,1236,1236,1232,1232,1232,1227,1227,1223,1219,1219,1214,1214,1214,1214,1210,1206,1206,1202,1202,1202,1202,1197,1197,1193,1189,1185,1185,1185,1181,1181,1181,1181,1177,1169,1169,1169,1169,1169,1165,1165,1161,1161,1161,1157,1153,1153,1149,1149,1149,1145,1145,1141,1138,1138,1138,1134,1134,1134,1130,1126,1126,1123,1119,1119,1119,1119,1119,1115,1112,1108,1108,1105,1105,1105,1105,1101,1101,1097,1094,1094,1090,1090,1090,1090,1087,1087,1084,1084,1080,1080,1077,1077,1077,1070,1070,1070,1067,1067,1067,1067,1063,1063,1060,1060,1060,1057,1057,1054,1054,1050,1050,1050,1047,1047,1047,1044,1041,1041,1041,1041,1038,1034,1031,1028,1028,1028,1028,1025,1025,1025,1025,1022,1022,1019,1016,1016,1016,1016,1013,1013,1010,1007,1007,1004,1004,1001,1001,1001,1001,1001,998,995,995,992,992,989,989,987,987,984,981,981,981,978,978,978,975,975,973,973,0,0,0,0,0,0,0,0,0,0,0,0,0,0,0,0,0,0,0,0,0,0,0,0,0,0,0,0,0,0
0,0,0,0,0,0,0,0,0,0,0,0,0,0,0,1748,1748,1748,1748,1748,1739,1739,1739,1731,1731,1731,1731,1731,1731,1731,1731,1731,1731,1722,1722,1722,1722,1722,1705,1705,1705,1705,1705,1705,1705,1705,1696,1696,1696,1696,1696,1696,1688,1688,1696,1696,1696,1688,1680,1680,1671,1671,1680,1680,1680,1680,1680,1680,1680,1680,1671,1671,1671,1663,1663,1663,1663,1663,1663,1663,1663,1663,1663,1663,1663,1663,1655,1655,1655,1655,1655,1647,1647,1647,1647,1647,1647,1639,1639,1639,1639,1639,1639,1639,1639,1639,1632,1632,1632,1632,1632,1632,1632,1632,1632,1632,1632,1639,1647,1647,1647,1655,1655,1655,1655,1663,1663,1843,1823,1823,1823,1823,1823,1823,1823,1823,1823,1823,0,0,1713,1696,0,0,1647,1647,1632,1632,1624,1624,1624,1624,1624,1624,1632,1632,1632,1632,1632,1632,1639,1639,1639,1647,1647,1647,1655,1655,1655,1655,1655,1663,1663,1663,1663,1663,1671,1671,1671,1680,1680,1680,1688,1688,1688,1688,1688,1688,1688,1696,1696,1696,1705,1705,1705,1713,1713,1713,1722,1722,1722,1722,1731,1731,1731,1731,1731,1731,1731,1731,0,0,1090,1090,1090,1090,1090,1087,1084,1084,1084,1084,1084,1080,1080,1080,1084,1084,1080,1080,1080,1077,1063,1060,1060,1057,1057,1054,1050,1050,1047,1047,1047,1041,1038,1038,1038,1034,1034,1031,1028,1025,1025,1022,1019,1016,1013,1013,1013,1010,1007,1004,1001,1001,998,992,992,989,987,987,984,984,981,978,975,973,967,964,964,962,959,956,956,954,951,948,946,943,940,938,935,933,930,928,925,925,923,923,918,915,913,908,906,906,903,901,896,894,894,889,887,885,880,878,873,871,869,869,867,867,864,864,862,862,864,867,867,869,869,871,871,873,873,875,878,880,880,880,0,0,0,0,0,1470,1470,1464,1464,1464,1464,1458,1452,1452,1445,1445,1439,1439,1433,1433,1427,1421,1421,1421,1421,1415,1415,1415,1410,1410,1410,1404,1398,1398,1398,1398,1392,1392,1387,1381,1381,1376,1370,1370,1370,1370,1370,1365,1359,1359,1354,1354,1354,1354,1349,1343,1343,1338,1338,1338,1333,1333,1333,1328,1328,1328,1322,1322,1312,1312,1312,1307,1307,1302,1302,1297,1297,1292,1292,1292,1288,1288,1283,1278,1273,1273,1273,1273,1268,1268,1268,1264,1264,1259,1255,1255,1250,1250,1245,1241,1241,1236,1236,1236,1232,1232,1232,1227,1227,1223,1219,1219,1219,1219,1219,1214,1214,1210,1210,1206,1206,1202,1202,1202,1197,1193,1189,1189,1185,1185,1181,1181,1181,1181,1177,1177,1169,1169,1169,1169,1165,1165,1165,1161,1161,1157,1153,1153,1149,1149,1149,1145,1145,1141,1138,1138,1138,1134,1134,1134,1130,1126,1126,1123,1123,1123,1119,1119,1119,1115,1115,1108,1108,1105,1105,1105,1105,1101,1101,1097,1094,1094,1094,1090,1090,1090,1090,1087,1087,1087,1084,1080,1080,1080,1077,1070,1070,1070,1067,1067,1067,1067,1063,1063,1063,1060,1060,1060,1057,1054,1054,1050,1050,1050,1050,1047,1047,1044,1041,1041,1041,1041,1038,1034,1034,1031,1028,1028,1028,1025,1025,1025,1025,1022,1022,1019,1016,1016,1016,1016,1013,1013,1010,1007,1007,1004,1004,1001,1001,1001,1001,1001,998,998,995,992,992,989,989,987,987,984,981,981,981,981,978,978,975,975,973,973,0,0,0,0,0,0,0,0,0,0,0,0,0,0,0,0,0,0,0,0,0,0,0,0,0,0,0,0,0,0
0,0,0,0,0,0,0,0,0,0,0,0,0,0,0,1748,1748,1748,1748,1748,1739,1739,1739,1739,1731,1731,1731,1731,1731,1731,1731,1731,1731,1722,1722,1722,1722,1722,1705,1705,1705,1705,1705,1705,1705,1705,1696,1696,1696,1696,1696,1696,1696,1696,1696,1696,1696,1688,1680,1680,1680,1680,1680,1680,1680,1680,1680,1680,1680,1671,1671,1663,1663,1663,1663,1663,1663,1663,1663,1663,1663,1663,1663,1663,1663,1663,1663,1655,1655,1655,1655,1647,1647,1647,1647,1647,1647,1647,1647,1647,1639,1639,1639,1639,1639,1639,1639,1639,1639,1632,1632,1632,1632,1632,1632,1639,1639,1639,1647,1647,1647,1655,1655,1655,1655,1663,1663,1833,1823,1823,1823,1823,1823,1823,1823,1823,1823,1688,1713,1713,1713,1696,1680,1671,1663,1655,1639,1632,1624,1624,1624,1624,1624,1624,1632,1632,1632,1632,1632,1632,1639,1639,1639,1647,1647,1647,1655,1655,1655,1655,1655,1663,1663,1663,1663,1663,1671,1671,1671,1671,1680,1680,1688,1688,1688,1688,1688,1688,1688,1696,1696,1696,1705,1705,1705,1713,1713,1713,1722,1722,1722,1722,1731,1731,1731,1731,1731,1731,1731,1731,1731,0,0,1097,1094,1094,1094,1090,1087,1084,1084,1084,1084,1080,1080,1080,1080,1080,1080,1077,1077,1073,1063,1060,1060,1060,1057,1054,1050,1050,1047,1047,1047,1041,1038,1038,1038,1034,1034,1031,1028,1025,1022,1022,1019,1016,1013,1013,1013,1010,1007,1007,1001,1001,998,992,992,989,989,987,987,984,981,978,975,973,967,964,964,962,959,956,956,954,951,951,946,943,940,938,935,933,930,928,925,925,923,918,918,915,913,910,908,906,903,901,896,894,894,889,887,885,880,878,873,871,869,869,867,867,864,864,864,864,864,867,869,869,871,871,873,873,875,875,878,880,880,880,0,0,0,0,0,1470,1470,1464,1464,1464,1464,1458,1452,1452,1445,1445,1439,1439,1433,1433,1427,1427,1421,1421,1421,1421,1415,1415,1415,1415,1410,1404,1398,1398,1398,1392,1392,1392,1387,1381,1381,1376,1370,1370,1370,1370,1370,1370,1365,1359,1359,1354,1354,1354,1349,1349,1343,1338,1338,1338,1333,1333,1333,1328,1328,1328,1322,1322,1312,1312,1312,1307,1307,1302,1302,1297,1297,1292,1292,1292,1288,1288,1283,1283,1278,1273,1273,1273,1268,1268,1268,1268,1264,1259,1259,1255,1250,1250,1245,1245,1241,1241,1236,1236,1236,1232,1232,1232,1227,1223,1223,1219,1219,1219,1219,1214,1214,1210,1210,1206,1206,1202,1202,1202,1197,1193,1189,1189,1189,1185,1185,1185,1181,1181,1181,1177,1169,1169,1169,1169,1165,1165,1165,1161,1161,1157,1153,1153,1153,1149,1149,1145,1145,1145,1138,1138,1138,1134,1134,1134,1130,1130,1126,1123,1123,1123,1119,1119,1119,1119,1115,1108,1108,1105,1105,1105,1105,1101,1101,1097,1094,1094,1094,1094,1090,1090,1090,1087,1087,1087,1084,1080,1080,1080,1077,1073,1073,1070,1070,1067,1067,1067,1067,1063,1063,1063,1060,1060,1060,1057,1054,1050,1050,1050,1050,1047,1047,1044,1044,1041,1041,1041,1038,1038,1034,1031,1028,1028,1028,1025,1025,1025,1025,1025,1022,1019,1016,1016,1016,1016,1016,1013,1010,1010,1007,1004,1004,1001,1001,1001,1001,1001,998,998,998,995,992,989,989,987,987,984,984,981,981,981,981,978,978,975,973,973,0,0,0,0,0,0,0,0,0,0,0,0,0,0,0,0,0,0,0,0,0,0,0,0,0,0,0,0,0,0
0,0,0,0,0,0,0,0,0,0,0,0,0,0,0,1748,1748,1748,1748,1748,1739,1739,1739,1731,1731,1731,1731,1731,1731,1731,1731,1731,1722,1722,1722,1722,1722,1713,1713,1713,1713,1713,1713,1713,1705,1705,1696,1696,1696,1696,1696,1696,1696,1696,1696,1696,1696,1688,1688,1680,1680,1680,1680,1680,1671,1671,1680,1680,1680,1671,1671,1663,1663,1663,1663,1663,1663,1663,1663,1663,1663,1663,1663,1663,1663,1663,1655,1655,1655,1655,1655,1655,1647,1647,1647,1647,1647,1647,1647,1647,1639,1639,1639,1639,1639,1639,1639,1639,1639,1632,1632,1632,1632,1632,1632,1632,1639,1639,1647,1647,1647,1647,1655,1655,1655,1663,1671,1833,1813,1813,1813,1813,1823,1823,1823,1696,1696,1688,1688,1696,1705,1680,1680,1663,1655,1647,1639,1632,1632,1632,1632,1624,1624,1624,1632,1632,1632,1632,1632,1639,1639,1639,1639,1647,1647,1655,1655,1655,1655,1655,1655,1663,1663,1663,1663,1663,1671,1671,1671,1671,1680,1680,1688,1688,1688,1688,1688,1696,1696,1696,1696,1696,1705,1705,1705,1713,1713,1713,1722,1722,1722,1722,1731,1731,1731,1731,1731,1731,1731,1731,0,0,0,1097,1094,1094,1094,1090,1087,1084,1084,1084,1080,1080,1080,1080,1080,1080,1077,1077,1073,1070,1063,1060,1060,1060,1057,1054,1050,1050,1050,1047,1047,1044,1038,1038,1038,1034,1034,1031,1028,1025,1022,1022,1019,1016,1013,1013,1013,1010,1010,1007,1004,1001,998,995,992,989,989,987,987,984,981,978,975,975,970,967,964,962,959,956,956,954,951,951,946,943,940,938,935,933,933,928,925,925,923,918,918,915,913,910,908,906,903,901,896,894,894,889,887,885,880,878,875,873,871,869,869,867,864,864,864,864,864,867,869,869,871,873,873,873,875,878,880,880,880,880,0,0,0,0,0,1470,1470,1470,1470,1464,1464,1458,1452,1452,1445,1445,1445,1439,1439,1433,1427,1427,1421,1421,1421,1421,1415,1415,1415,1415,1410,1404,1398,1398,1398,1392,1392,1392,1387,1381,1376,1376,1376,1370,1370,1370,1370,1370,1365,1359,1359,1354,1354,1354,1349,1349,1343,1338,1338,1338,1333,1333,1328,1328,1328,1328,1322,1317,1317,1312,1312,1307,1307,1302,1302,1297,1297,1292,1292,1292,1292,1288,1283,1283,1278,1278,1273,1273,1273,1268,1268,1268,1264,1264,1259,1255,1250,1250,1245,1245,1241,1241,1241,1236,1236,1236,1232,1232,1232,1227,1223,1219,1219,1219,1219,1214,1214,1214,1210,1210,1206,1206,1202,1202,1197,1193,1193,1189,1189,1185,1185,1185,1181,1181,1181,1177,1177,1173,1173,1169,1165,1165,1165,1161,1161,1157,1153,1153,1153,1149,1149,1145,1145,1141,1138,1138,1138,1134,1134,1134,1130,1130,1126,1123,1123,1123,1119,1119,1119,1119,1115,1115,1108,1108,1105,1105,1105,1101,1101,1097,1097,1094,1094,1094,1090,1090,1090,1087,1087,1087,1087,1084,1080,1080,1077,1073,1073,1073,1070,1067,1067,1067,1067,1063,1063,1063,1060,1060,1060,1057,1054,1050,1050,1050,1050,1047,1047,1047,1044,1041,1041,1041,1038,1038,1034,1031,1028,1028,1028,1028,1025,1025,1025,1025,1022,1019,1019,1016,1016,1016,1016,1013,1010,1010,1007,1004,1004,1001,1001,1001,1001,998,998,998,998,995,992,989,989,987,987,984,984,981,981,981,981,978,978,978,975,975,0,0,0,0,0,0,0,0,0,0,0,0,0,0,0,0,0,0,0,0,0,0,0,0,0,0,0,0,0,0
0,0,0,0,0,0,0,0,0,0,0,0,0,0,0,1748,1748,1757,1748,1748,1748,1739,1739,1731,1731,1731,1731,1731,1731,1731,1731,1731,1722,1722,1722,1722,1722,1713,1713,1713,1713,1713,1705,1705,1705,1705,1696,1696,1696,1696,1696,1696,1696,1696,1696,1696,1696,1688,1688,1688,1680,1680,1680,1680,1671,1671,1680,1680,1680,1680,1671,1671,1671,1671,1671,1663,1663,1671,1671,1663,1663,1663,1663,1663,1663,1663,1655,1655,1655,1655,1655,1655,1655,1655,1647,1647,1647,1647,1647,1647,1639,1639,1639,1639,1639,1639,1639,1639,1639,1632,1632,1632,1632,1632,1632,1632,1639,1639,1647,1647,1647,1647,1655,1655,1655,1663,1680,1776,1785,1785,1804,1785,1785,1833,1722,1696,1696,1688,1688,1696,1688,1671,1671,1663,1655,1647,1639,1632,1632,1632,1632,1624,1624,1624,1632,1632,1632,1632,1639,1639,1647,1647,1647,1647,1655,1655,1655,1655,1655,1655,1655,1663,1663,1663,1663,1663,1671,1671,1680,1680,1680,1680,1688,1688,1688,1688,1688,1696,1696,1696,1696,1696,1705,1705,1705,1713,1713,1713,1722,1722,1722,1722,1731,1731,1731,1731,1731,1731,1731,1731,0,0,0,1094,1094,1090,1090,1090,1087,1087,1084,1084,1080,1080,1080,1080,1077,1077,1077,1073,1073,1070,1063,1063,1060,1060,1057,1057,1054,1050,1050,1047,1044,1038,1038,1038,1038,1034,1034,1031,1028,1025,1025,1022,1019,1016,1016,1013,1013,1010,1010,1004,1001,1001,998,998,992,989,989,987,987,984,981,978,975,975,973,967,964,962,959,956,956,954,951,951,946,943,940,938,935,933,933,930,925,923,918,918,915,915,913,910,908,906,901,898,896,894,894,889,887,882,880,878,875,873,871,869,869,867,867,864,864,864,864,867,869,869,871,873,875,875,878,878,880,880,880,880,0,0,0,0,0,1470,1470,1470,1470,1464,1464,1458,1458,1452,1445,1445,1445,1439,1439,1439,1433,1427,1427,1421,1421,1421,1415,1415,1415,1415,1410,1404,1404,1398,1398,1398,1392,1392,1387,1381,1376,1376,1376,1376,1370,1370,1370,1370,1365,1365,1359,1359,1354,1354,1349,1349,1343,1338,1338,1338,1333,1333,1328,1328,1328,1328,1322,1317,1317,1312,1312,1307,1307,1302,1302,1297,1297,1292,1292,1292,1292,1288,1283,1283,1278,1273,1273,1273,1273,1273,1268,1268,1268,1264,1264,1255,1255,1250,1250,1250,1245,1245,1241,1241,1236,1236,1232,1232,1232,1227,1223,1223,1219,1219,1219,1219,1214,1214,1210,1210,1206,1206,1202,1197,1197,1197,1193,1193,1189,1185,1185,1185,1181,1181,1181,1177,1177,1177,1173,1169,1169,1165,1165,1161,1161,1157,1153,1153,1153,1153,1149,1149,1149,1141,1138,1138,1138,1138,1134,1134,1130,1130,1126,1123,1123,1123,1119,1119,1119,1119,1115,1115,1112,1112,1108,1108,1105,1105,1101,1101,1097,1097,1094,1094,1090,1090,1090,1090,1087,1087,1087,1084,1080,1080,1077,1073,1073,1073,1070,1067,1067,1067,1067,1063,1063,1063,1063,1060,1057,1057,1054,1050,1050,1050,1050,1047,1047,1047,1044,1044,1041,1041,1038,1038,1034,1031,1028,1028,1028,1028,1028,1025,1025,1025,1022,1022,1019,1019,1019,1016,1016,1016,1013,1010,1007,1004,1004,1001,1001,1001,1001,998,998,998,998,995,992,989,989,989,987,984,984,981,981,981,981,978,978,978,975,975,0,0,0,0,0,0,0,0,0,0,0,0,0,0,0,0,0,0,0,0,0,0,0,0,0,0,0,0,0,0
0,0,0,0,0,0,0,0,0,0,0,0,0,0,0,1748,1748,1757,1748,1748,1748,1739,1739,1731,1731,1731,1731,1731,1731,1731,1731,1731,1731,1722,1722,1722,1722,1713,1713,1713,1713,1713,1705,1705,1705,1713,1705,1705,1696,1696,1696,1696,1696,1696,1696,1696,1696,1696,1688,1688,1680,1680,1680,1688,1680,1680,1688,1688,1680,1680,1680,1671,1671,1671,1671,1663,1663,1671,1671,1671,1663,1663,1663,1663,1663,1663,1655,1655,1655,1655,1655,1655,1655,1655,1655,1647,1647,1655,1655,1647,1639,1639,1639,1639,1647,1639,1639,1639,1639,1632,1632,1632,1632,1632,1632,1632,1632,1639,1647,1647,1647,1655,1655,1663,1663,1671,1671,1776,1776,1776,1794,1739,1722,1713,1705,1705,1696,1696,1696,1696,1688,1671,1671,1663,1655,1647,1639,1632,1632,1632,1632,1624,1624,1624,1632,1632,1632,1632,1639,1639,1647,1647,1647,1647,1655,1655,1655,1655,1655,1655,1663,1663,1663,1663,1663,1663,1671,1680,1680,1680,1680,1688,1688,1688,1688,1688,1696,1696,1696,1696,1696,1696,1705,1705,1705,1713,1713,1722,1722,1722,1722,1722,1731,1731,1731,1731,1731,1731,1731,1731,0,0,0,1094,1094,1090,1090,1090,1087,1087,1084,1084,1080,1080,1080,1077,1077,1077,1077,1073,1073,1070,1063,1063,1060,1060,1057,1057,1054,1050,1050,1047,1044,1038,1038,1038,1038,1034,1034,1031,1028,1025,1025,1022,1019,1016,1016,1013,1013,1010,1010,1004,1001,1001,998,998,995,992,989,987,987,984,981,978,975,973,973,967,964,964,959,959,956,956,954,954,946,946,943,938,938,935,933,930,925,923,918,918,915,915,913,910,908,903,901,898,896,894,894,889,887,882,880,878,875,873,871,869,869,869,867,864,864,864,864,867,869,869,871,873,875,875,878,878,880,878,878,880,0,0,0,0,0,1477,1470,1470,1470,1464,1464,1458,1452,1452,1445,1445,1445,1439,1439,1439,1433,1427,1427,1421,1421,1421,1421,1415,1415,1415,1410,1404,1398,1398,1398,1398,1392,1392,1392,1387,1381,1376,1376,1376,1370,1370,1370,1370,1370,1365,1365,1359,1359,1354,1349,1349,1343,1343,1338,1338,1333,1333,1328,1328,1328,1328,1322,1317,1317,1312,1312,1307,1307,1302,1302,1297,1297,1292,1292,1292,1288,1288,1283,1283,1278,1273,1273,1273,1273,1273,1268,1268,1268,1264,1259,1255,1255,1250,1250,1250,1245,1245,1245,1241,1236,1236,1236,1232,1227,1227,1227,1223,1223,1219,1219,1219,1214,1214,1210,1210,1206,1206,1202,1197,1197,1197,1193,1193,1189,1185,1185,1185,1185,1185,1181,1177,1177,1173,1173,1169,1169,1169,1165,1165,1161,1157,1153,1153,1153,1153,1153,1149,1149,1145,1141,1138,1138,1138,1134,1134,1130,1130,1126,1123,1123,1123,1119,1119,1119,1119,1115,1115,1115,1112,1112,1108,1105,1105,1101,1101,1097,1097,1094,1094,1094,1090,1090,1090,1090,1087,1087,1084,1084,1080,1077,1077,1077,1073,1070,1070,1070,1067,1067,1067,1063,1063,1063,1060,1057,1054,1054,1054,1050,1050,1050,1050,1047,1047,1044,1044,1041,1041,1038,1038,1034,1031,1031,1028,1028,1028,1028,1025,1025,1025,1025,1022,1022,1019,1019,1016,1016,1013,1010,1010,1007,1004,1004,1001,1001,1001,1001,1001,998,998,998,992,992,989,989,989,987,984,984,984,981,981,981,981,978,978,975,975,0,0,0,0,0,0,0,0,0,0,0,0,0,0,0,0,0,0,0,0,0,0,0,0,0,0,0,0,0,0
0,0,0,0,0,0,0,0,0,0,0,0,0,0,0,1757,1757,1757,1748,1748,1748,1739,1739,1731,1731,1731,1731,1731,1731,1722,1722,1731,1731,1731,1722,1722,1722,1713,1713,1713,1713,1713,1713,1705,1705,1713,1705,1705,1705,1705,1705,1696,1696,1696,1696,1696,1696,1696,1688,1688,1680,1680,1680,1688,1680,1680,1688,1688,1688,1680,1680,1671,1671,1671,1671,1671,1671,1671,1671,1671,1671,1671,1663,1663,1663,1663,1663,1663,1655,1655,1655,1655,1655,1655,1655,1647,1647,1655,1655,1655,1647,1639,1639,1647,1647,1647,1639,1639,1639,1639,1632,1632,1632,1632,1632,1632,1632,1639,1639,1647,1647,1655,1655,1655,1655,1663,1671,1688,1748,1757,1757,1731,1722,1713,1705,1705,1696,1696,1696,1696,1688,1680,1680,1671,1663,1647,1647,1632,1632,1632,1632,1632,1632,1632,1632,1632,1639,1639,1639,1647,1647,1647,1647,1655,1655,1655,1655,1655,1663,1663,1663,1663,1663,1663,1663,1671,1671,1680,1680,1680,1688,1688,1688,1688,1688,1688,1696,1696,1696,1696,1696,1696,1705,1705,1705,1713,1713,1722,1722,1722,1722,1722,1731,1731,1731,1731,1731,1731,1731,1731,0,0,0,1097,1094,1094,1090,1090,1090,1087,1084,1084,1080,1080,1080,1077,1077,1077,1077,1073,1073,1070,1063,1063,1060,1060,1057,1057,1054,1050,1050,1047,1044,1044,1044,1041,1038,1034,1034,1031,1028,1025,1025,1022,1019,1016,1016,1013,1013,1010,1010,1004,1001,1001,998,998,995,992,989,987,987,987,981,978,975,973,973,970,964,964,962,959,956,956,954,951,946,943,943,940,938,935,933,933,928,925,918,918,918,915,913,910,906,903,901,898,896,894,894,891,887,882,880,878,875,873,871,871,869,869,867,867,867,867,867,867,869,869,871,873,875,878,878,878,878,878,878,0,0,0,0,0,0,1483,1470,1470,1470,1464,1464,1458,1452,1452,1445,1445,1445,1439,1439,1439,1433,1427,1427,1421,1421,1421,1421,1415,1415,1415,1404,1404,1398,1398,1398,1398,1392,1392,1392,1387,1381,1376,1376,1376,1376,1370,1370,1370,1370,1365,1365,1365,1359,1354,1349,1349,1343,1343,1338,1338,1333,1333,1328,1328,1328,1322,1317,1317,1317,1312,1312,1307,1307,1302,1302,1297,1297,1292,1292,1292,1288,1288,1288,1288,1283,1278,1278,1273,1273,1273,1268,1268,1268,1264,1259,1255,1255,1255,1250,1250,1250,1245,1245,1241,1241,1236,1236,1232,1227,1227,1227,1223,1223,1219,1219,1219,1214,1214,1214,1210,1206,1206,1202,1197,1197,1197,1193,1193,1189,1185,1185,1185,1185,1185,1181,1181,1177,1173,1173,1169,1169,1169,1165,1165,1161,1157,1153,1153,1153,1153,1153,1149,1149,1145,1141,1138,1138,1138,1138,1134,1130,1130,1126,1123,1123,1123,1119,1119,1119,1119,1115,1115,1115,1112,1112,1108,1108,1105,1105,1105,1101,1097,1094,1094,1094,1090,1090,1090,1087,1087,1087,1084,1084,1080,1080,1077,1077,1077,1073,1070,1070,1067,1067,1067,1063,1063,1063,1060,1057,1054,1054,1050,1050,1050,1050,1050,1047,1047,1044,1044,1041,1041,1041,1038,1038,1034,1031,1028,1028,1028,1028,1028,1028,1025,1025,1022,1022,1019,1019,1016,1016,1013,1010,1010,1007,1004,1004,1004,1001,1001,1001,1001,998,998,998,992,992,989,989,989,987,984,984,984,981,981,981,981,978,978,975,975,0,0,0,0,0,0,0,0,0,0,0,0,0,0,0,0,0,0,0,0,0,0,0,0,0,0,0,0,0,0
