0,0,0,0,0,0,0,0,0,0,0,0,0,0,1794,1785,1785,1785,1785,1785,1776,1776,1776,1776,1776,1766,1766,1766,1766,1776,1776,1766,1766,1766,1766,1766,1766,1766,1766,1766,1766,1766,1766,1766,1766,1766,1766,1757,1757,1757,1757,1757,1748,1748,1757,1757,1748,1748,1748,1748,1748,1739,1739,1739,1739,1739,1739,1739,1739,1739,1739,1739,1731,1731,1731,1731,1739,1731,1731,1731,1731,1731,1731,1722,1722,1722,1722,1722,1722,1722,1722,1722,1722,1722,1722,1722,1713,1713,1713,1713,1713,1705,1705,1705,1705,1696,1696,1696,1705,1705,1705,1713,1713,1722,1722,1731,1731,1722,1722,1731,1739,1739,1785,1794,1794,1785,1785,1776,1766,1766,1757,1757,1748,1748,1739,1739,1731,1722,1722,1722,1722,1713,1713,1705,1705,1713,1713,1713,1713,1713,1722,1722,1722,1722,1722,1731,1731,1731,1731,1731,1739,1739,1748,1757,1757,1757,1757,1757,1766,1766,1766,1766,1776,1776,1776,1776,1785,1794,1794,1794,1804,1804,1804,1804,1804,1804,1794,1794,1794,1794,0,1134,1134,1130,1126,1123,1119,1119,1119,1115,1115,1115,1119,1119,1119,1119,1123,1126,1130,1130,1130,1130,1134,1134,1134,1134,1134,0,0,0,0,1915,1915,1915,1915,1915,1926,1926,1926,1947,1947,1947,1936,1926,1926,1915,1915,1915,1904,1904,1894,1894,1894,1883,1883,1873,1873,1873,1873,1863,1863,1853,1843,1843,1833,1833,1833,1823,1813,1813,1804,1804,1804,1804,1804,1794,1794,1794,1785,1766,1766,1766,1766,1766,1757,1757,1757,1748,1748,1739,1739,1739,1739,0,0,0,0,0,0,0,0,918,915,913,910,908,906,903,903,901,901,898,898,898,898,898,898,901,903,903,906,908,908,910,913,915,915,915,918,918,0,0,0,0,0,0,1586,1586,1579,1579,1579,1572,1572,1564,1557,1557,1550,1550,1550,1550,1550,1543,1543,1536,1536,1536,1523,1523,1523,1516,1516,1516,1516,1509,1509,1503,1496,1496,1496,1489,1489,1489,1483,1477,1477,1477,1470,1470,1470,1464,1464,1464,1458,1452,1445,1445,1445,1439,1439,1439,1439,1439,1433,1427,1421,1421,1415,1415,1415,1410,1410,1410,1410,1404,1398,1398,1398,1398,1392,1392,1392,1392,1387,1381,1376,1376,1376,1370,1370,1370,1370,1365,1365,1354,1354,1354,1349,1349,1349,1349,1343,1343,1338,1333,1333,1333,1328,1328,1328,1328,1322,1322,1317,1317,1317,1312,1312,1312,1307,1307,1302,1302,1302,1292,1292,1292,1292,1288,1288,1288,1283,1283,1278,1278,1273,1273,1268,1268,1268,1268,1268,1264,1264,1259,1259,1255,1255,1250,1250,1250,1250,1241,1241,1236,1236,1232,1232,1232,1232,1227,1227,1223,1219,1219,1214,1214,1214,1214,1210,1210,1206,1206,1202,1202,1197,1197,1197,1189,1189,1185,1185,1185,1185,1185,1185,1181,1181,1181,1177,1177,1173,1169,1169,1165,1165,1161,1161,1161,1157,1157,1153,1153,1149,1149,1149,1149,1145,1141,1138,1138,1138,1138,1134,1134,1134,1130,1130,1126,1123,1123,1123,1123,1123,1119,1119,1115,1112,1112,1108,1108,1108,1105,1105,1105,1105,1101,1101,1097,1094,1094,1094,1090,1090,1090,1090,1087,1087,1084,1080,1080,1080,1080,1077,1077,1077,1073,1073,1070,1067,1067,1067,1067,1063,1063,1060,1060,1060,1057,1054,1054,1054,1050,1050,1050,1050,1050,1050,1047,1047,1044,1041,1038,1038,1038,1034,1031,1031,1031,1031,0,0,0,0,0,0,0,0,0,0,0,0,0,0,0,0,0,0,0,0,0,0,0,0,0,0,0,0,0,0,0
0,0,0,0,0,0,0,0,0,0,0,0,0,0,1794,1794,1794,1785,1785,1785,1776,1776,1776,1776,1776,1776,1776,1776,1776,1776,1776,1776,1776,1766,1766,1766,1766,1766,1766,1766,1766,1766,1766,1766,1766,1766,1766,1766,1757,1757,1757,1757,1748,1748,1757,1757,1748,1748,1748,1748,1748,1739,1739,1739,1739,1739,1739,1739,1739,1739,1739,1739,1739,1731,1731,1731,1739,1739,1739,1731,1731,1731,1731,1731,1731,1731,1731,1731,1722,1722,1722,1722,1722,1722,1722,1722,1722,1713,1713,1713,1713,1705,1705,1705,1705,1705,1705,1705,1705,1705,1713,1713,1713,1722,1722,1722,1722,1722,1722,1731,1731,1731,1731,1785,1785,1776,1776,1766,1766,1757,1757,1757,1748,1739,1739,1731,1731,1722,1722,1722,1722,1713,1713,1705,1705,1713,1713,1713,1713,1713,1722,1722,1722,1722,1722,1731,1731,1731,1731,1731,1739,1739,1748,1757,1757,1757,1757,1766,1766,1766,1766,1766,1776,1776,1785,1785,1785,1794,1794,1794,1794,1804,1804,1804,1804,1804,1804,1794,1794,1794,1138,1134,1134,1134,1130,1126,1123,1119,1119,1115,1115,1115,1119,1119,1119,1123,1126,1130,1130,1130,1130,1134,1134,1134,1134,1134,1134,0,0,0,0,1915,1915,1915,1915,1915,1926,1936,1936,1947,1947,1947,1936,1926,1926,1915,1915,1915,1904,1904,1904,1904,1894,1883,1883,1873,1873,1873,1873,1863,1863,1853,1843,1843,1833,1833,1833,1823,1813,1813,1813,1804,1804,1804,1804,1794,1794,1794,1785,1766,1766,1766,1766,1766,1757,1757,1757,1748,1748,1748,1748,1748,0,0,0,0,0,0,0,0,0,0,918,913,910,908,906,903,903,901,901,898,898,898,898,898,898,901,903,906,906,908,908,910,913,915,915,915,918,918,0,0,0,0,0,0,1586,1586,1579,1579,1579,1572,1572,1564,1557,1557,1550,1550,1550,1550,1550,1543,1543,1543,1536,1536,1529,1523,1523,1523,1516,1516,1516,1509,1509,1503,1503,1496,1496,1489,1489,1489,1483,1477,1477,1477,1470,1470,1470,1464,1464,1464,1458,1452,1445,1445,1445,1439,1439,1439,1439,1439,1433,1427,1421,1421,1415,1415,1415,1415,1415,1410,1410,1404,1404,1398,1398,1398,1392,1392,1392,1392,1392,1381,1381,1376,1376,1370,1370,1370,1370,1370,1365,1354,1354,1354,1349,1349,1349,1349,1343,1343,1338,1333,1333,1333,1333,1328,1328,1328,1322,1322,1322,1317,1317,1312,1312,1312,1307,1307,1302,1302,1302,1292,1292,1292,1292,1292,1288,1288,1288,1283,1283,1278,1273,1273,1268,1268,1268,1268,1268,1264,1264,1259,1259,1255,1255,1250,1250,1245,1245,1245,1241,1241,1236,1236,1232,1232,1232,1227,1227,1223,1219,1219,1219,1214,1214,1214,1214,1210,1210,1206,1202,1202,1202,1197,1197,1193,1189,1189,1185,1185,1185,1185,1185,1181,1181,1181,1177,1177,1173,1169,1169,1165,1165,1165,1165,1161,1161,1157,1157,1153,1153,1149,1149,1149,1145,1141,1141,1141,1138,1138,1134,1134,1134,1134,1130,1126,1126,1123,1123,1123,1123,1119,1119,1115,1112,1112,1108,1108,1108,1105,1105,1105,1105,1101,1101,1101,1097,1094,1094,1094,1090,1090,1090,1090,1087,1084,1084,1080,1080,1080,1077,1077,1077,1073,1073,1070,1070,1067,1067,1067,1067,1063,1063,1063,1060,1057,1054,1054,1054,1054,1050,1050,1050,1050,1050,1047,1047,1044,1041,1038,1038,1038,1034,1034,1031,1031,1031,0,0,0,0,0,0,0,0,0,0,0,0,0,0,0,0,0,0,0,0,0,0,0,0,0,0,0,0,0,0,0
0,0,0,0,0,0,0,0,0,0,0,0,0,0,1794,1794,1794,1785,1785,1785,1776,1776,1776,1776,1776,1776,1776,1776,1776,1776,1776,1776,1776,1766,1766,1766,1766,1766,1766,1766,1766,1766,1766,1766,1766,1766,1766,1766,1766,1766,1766,1757,1757,1757,1757,1757,1757,1757,1757,1748,1748,1748,1739,1739,1739,1739,1739,1739,1739,1739,1739,1739,1739,1739,1739,1739,1739,1739,1739,1739,1731,1731,1731,1731,1731,1731,1731,1731,1731,1731,1731,1722,1722,1722,1722,1722,1722,1722,1713,1713,1713,1713,1705,1705,1705,1705,1705,1705,1705,1705,1713,1713,1722,1722,1722,1722,1722,1722,1722,1731,1731,1731,1731,1785,1785,1776,1776,1766,1766,1757,1757,1748,1748,1739,1739,1731,1731,1722,1722,1722,1722,1722,1705,1705,1705,1713,1713,1713,1713,1713,1722,1722,1722,1722,1731,1731,1731,1731,1731,1731,1739,1748,1757,1757,1757,1757,1757,1766,1766,1766,1766,1766,1776,1776,1785,1785,1785,1794,1794,1794,1794,1804,1804,1804,1804,1804,1804,1794,1794,1794,1138,1138,1138,1134,1130,1126,1123,1119,1119,1119,1119,1119,1119,1119,1123,1123,1126,1130,1130,1130,1130,1134,1134,1134,1134,1134,1134,0,0,0,0,1926,1915,1915,1915,1915,1926,1936,1936,1947,1959,1947,1936,1936,1926,1926,1915,1915,1915,1904,1904,1904,1894,1883,1883,1873,1873,1873,1873,1873,1863,1853,1853,1843,1843,1843,1833,1823,1823,1823,1813,1813,1804,1804,1804,1804,1794,1794,1785,1766,1766,1766,1766,1766,1757,1757,1757,1748,1748,1748,1748,1748,1757,0,0,0,0,0,0,0,0,0,918,913,910,908,906,903,903,901,901,898,898,898,898,898,901,901,906,906,906,908,908,913,913,915,918,918,918,918,0,0,0,0,0,0,1601,1594,1579,1579,1579,1579,1572,1564,1564,1557,1557,1550,1550,1550,1550,1543,1543,1543,1536,1536,1536,1523,1523,1523,1516,1516,1516,1516,1509,1509,1503,1496,1496,1489,1489,1489,1483,1483,1477,1477,1470,1470,1470,1464,1464,1464,1458,1452,1452,1445,1445,1445,1439,1439,1439,1439,1433,1427,1427,1421,1421,1415,1415,1415,1415,1415,1410,1410,1404,1404,1398,1398,1398,1392,1392,1392,1392,1387,1381,1376,1376,1376,1370,1370,1370,1370,1365,1359,1354,1354,1349,1349,1349,1349,1349,1343,1338,1338,1333,1333,1333,1328,1328,1328,1328,1322,1322,1317,1317,1317,1312,1312,1312,1307,1307,1302,1302,1297,1292,1292,1292,1292,1288,1288,1288,1283,1283,1278,1273,1273,1273,1268,1268,1268,1268,1268,1264,1264,1264,1259,1255,1250,1250,1245,1245,1245,1241,1241,1236,1236,1236,1232,1232,1232,1227,1223,1223,1219,1219,1214,1214,1214,1214,1210,1210,1206,1206,1202,1202,1197,1197,1197,1193,1189,1185,1185,1185,1185,1185,1181,1181,1181,1177,1177,1173,1169,1169,1165,1165,1165,1165,1161,1161,1161,1157,1153,1153,1153,1149,1149,1149,1141,1141,1141,1138,1138,1138,1134,1134,1134,1130,1130,1126,1123,1123,1123,1123,1119,1119,1115,1115,1112,1108,1108,1108,1108,1105,1105,1105,1105,1101,1101,1097,1094,1094,1094,1090,1090,1090,1090,1087,1087,1084,1084,1080,1080,1077,1077,1077,1073,1073,1070,1070,1067,1067,1067,1067,1063,1063,1063,1060,1057,1054,1054,1054,1054,1050,1050,1050,1050,1050,1047,1047,1044,1041,1038,1038,1038,1034,1034,1031,1031,1031,0,0,0,0,0,0,0,0,0,0,0,0,0,0,0,0,0,0,0,0,0,0,0,0,0,0,0,0,0,0,0
0,0,0,0,0,0,0,0,0,0,0,0,0,0,1794,1794,1794,1785,1785,1785,1785,1776,1776,1776,1776,1776,1776,1776,1776,1776,1776,1776,1776,1776,1776,1766,1766,1766,1766,1766,1766,1766,1766,1766,1766,1766,1766,1766,1766,1766,1766,1766,1757,1757,1757,1757,1757,1757,1757,1757,1748,1748,1748,1739,1739,1739,1739,1739,1739,1739,1739,1739,1739,1739,1739,1739,1739,1739,1739,1739,1731,1731,1731,1731,1731,1731,1731,1731,1731,1731,1731,1722,1722,1722,1722,1722,1722,1722,1713,1713,1713,1713,1705,1705,1705,1705,1705,1705,1705,1705,1713,1722,1722,1722,1722,1722,1722,1722,1722,1731,1731,1731,1731,2090,2078,1776,1776,1776,1776,1757,1757,1748,1748,1731,1731,1731,1731,1722,1722,1722,1722,1722,1705,1705,1713,1713,1713,1713,1713,1722,1722,1722,1722,1722,1731,1731,1731,1731,1731,1731,1739,1739,1757,1757,1757,1757,1766,1766,1766,1766,1766,1766,1776,1776,1785,1785,1794,1794,1794,1794,1804,1804,1804,1804,1804,1804,1804,1804,1804,1804,1134,1134,1134,1134,1130,1130,1126,1123,1119,1119,1119,1119,1119,1119,1123,1126,1126,1130,1130,1130,1130,1134,1134,1134,1134,1134,1134,0,0,0,0,1915,1915,1915,1915,1915,1926,1936,1936,1947,1947,1947,1936,1936,1926,1926,1926,1915,1915,1915,1904,1904,1894,1883,1883,1873,1873,1873,1873,1873,1863,1853,1853,1853,1843,1843,1833,1833,1823,1823,1823,1813,1813,1804,1804,1804,1804,1794,1785,1766,1766,1766,1766,1766,1757,1757,1757,1757,1757,1757,1757,1757,1757,0,0,0,0,0,0,0,0,915,915,913,913,908,906,903,903,903,901,901,901,901,898,898,901,901,906,906,906,908,908,913,913,915,918,918,918,918,0,0,0,0,0,0,1601,1594,1586,1586,1579,1579,1572,1572,1564,1564,1557,1557,1550,1550,1550,1543,1543,1543,1543,1536,1536,1523,1523,1523,1523,1516,1516,1516,1509,1509,1503,1496,1496,1489,1489,1489,1483,1483,1477,1477,1470,1470,1470,1464,1464,1464,1458,1452,1452,1445,1445,1445,1445,1439,1439,1439,1439,1433,1427,1421,1421,1421,1415,1415,1415,1415,1410,1410,1410,1404,1398,1398,1398,1398,1392,1392,1392,1381,1381,1376,1376,1376,1370,1370,1370,1370,1365,1359,1354,1354,1349,1349,1349,1349,1349,1343,1338,1338,1333,1333,1333,1328,1328,1328,1328,1322,1317,1317,1317,1317,1312,1312,1312,1307,1307,1302,1302,1297,1292,1292,1292,1292,1288,1288,1288,1288,1283,1278,1278,1273,1273,1273,1268,1268,1268,1268,1264,1264,1264,1259,1255,1255,1250,1250,1250,1250,1241,1241,1236,1236,1236,1232,1232,1232,1232,1227,1223,1219,1219,1219,1214,1214,1214,1210,1210,1206,1206,1202,1202,1197,1197,1197,1193,1189,1189,1185,1185,1185,1185,1181,1181,1181,1177,1177,1173,1169,1169,1169,1165,1165,1165,1161,1161,1161,1157,1157,1153,1153,1153,1153,1149,1145,1141,1141,1138,1138,1138,1138,1134,1134,1130,1130,1126,1123,1123,1123,1123,1119,1119,1119,1115,1112,1108,1108,1108,1108,1108,1105,1105,1105,1105,1101,1097,1094,1094,1094,1090,1090,1090,1090,1090,1087,1084,1084,1080,1080,1077,1077,1077,1077,1073,1070,1070,1067,1067,1067,1067,1063,1063,1063,1060,1057,1057,1054,1054,1054,1050,1050,1050,1050,1050,1047,1047,1044,1041,1041,1041,1038,1038,1038,1034,1031,1031,0,0,0,0,0,0,0,0,0,0,0,0,0,0,0,0,0,0,0,0,0,0,0,0,0,0,0,0,0,0,0
0,0,0,0,0,0,0,0,0,0,0,0,0,0,1794,1794,1794,1794,1794,1785,1785,1785,1776,1776,1776,1776,1776,1776,1776,1776,1785,1785,1776,1776,1776,1766,1766,1766,1766,1766,1766,1766,1766,1766,1776,1766,1766,1766,1766,1766,1766,1757,1757,1757,1757,1757,1757,1757,1757,1757,1757,1748,1748,1739,1739,1739,1739,1739,1739,1739,1739,1739,1739,1739,1739,1739,1739,1739,1739,1739,1731,1731,1731,1731,1731,1731,1731,1731,1731,1731,1731,1731,1722,1722,1722,1722,1722,1722,1722,1722,1722,1713,1713,1713,1713,1713,1705,1705,1705,1705,1713,1713,1722,1722,1722,1722,1722,1722,1722,1731,1731,1731,1731,2078,2065,2053,2053,2040,2040,2028,2028,2028,2040,1731,1731,1722,1722,1722,1722,1722,1722,1722,1713,1713,1713,1713,1713,1713,1713,1722,1722,1731,1731,1731,1731,1731,1731,1731,1731,1731,1739,1739,1757,1757,1757,1757,1766,1766,1766,1766,1766,1776,1776,1785,1785,1785,1794,1794,1794,1804,1804,1804,1804,1813,1813,1804,1804,1804,1804,1141,1141,1134,1134,1134,1134,1130,1130,1123,1119,1119,1119,1119,1119,1119,1123,1126,1126,1130,1130,1130,1130,1134,1134,1134,1134,1134,1134,0,0,0,0,1915,1915,1915,1915,1915,1926,1936,1936,1947,1947,1947,1936,1936,1926,1926,1926,1915,1915,1915,1915,1904,1904,1883,1883,1883,1873,1873,1873,1873,1863,1853,1853,1853,1843,1843,1833,1833,1833,1833,1823,1823,1813,1804,1804,1804,1804,1794,1785,1776,1776,1766,1766,1766,1757,1757,1757,1757,1757,1757,1757,1757,1766,0,0,0,0,0,0,0,0,915,915,913,913,910,908,906,903,903,901,901,901,901,898,898,901,901,903,906,906,908,908,913,915,915,918,918,918,918,0,0,0,0,0,0,1601,1594,1586,1586,1579,1579,1572,1572,1564,1564,1557,1557,1550,1550,1550,1543,1543,1543,1543,1536,1536,1536,1523,1523,1523,1516,1516,1516,1509,1509,1503,1503,1496,1489,1489,1489,1489,1483,1483,1477,1477,1470,1470,1470,1464,1464,1464,1464,1452,1445,1445,1445,1445,1445,1439,1439,1439,1433,1427,1421,1421,1421,1421,1415,1415,1415,1410,1410,1410,1404,1398,1398,1398,1398,1392,1392,1387,1381,1381,1376,1376,1376,1376,1370,1370,1370,1370,1365,1359,1354,1354,1349,1349,1349,1349,1343,1343,1338,1338,1333,1333,1333,1328,1328,1328,1322,1317,1317,1317,1317,1312,1312,1312,1307,1307,1307,1307,1297,1297,1297,1292,1292,1292,1288,1288,1288,1283,1283,1278,1273,1273,1273,1268,1268,1268,1268,1268,1264,1264,1259,1255,1255,1250,1250,1250,1250,1241,1241,1236,1236,1236,1236,1232,1232,1232,1227,1223,1219,1219,1219,1214,1214,1214,1214,1210,1210,1206,1202,1202,1202,1197,1197,1197,1189,1189,1185,1185,1185,1185,1181,1181,1181,1177,1177,1173,1169,1169,1169,1165,1165,1165,1161,1161,1161,1157,1157,1153,1153,1153,1153,1153,1145,1145,1141,1141,1138,1138,1138,1138,1134,1134,1130,1130,1126,1123,1123,1123,1119,1119,1119,1115,1112,1108,1108,1108,1108,1108,1105,1105,1105,1105,1101,1097,1094,1094,1094,1094,1090,1090,1090,1090,1087,1084,1084,1080,1080,1077,1077,1077,1077,1073,1070,1070,1070,1067,1067,1067,1067,1063,1063,1063,1060,1057,1054,1054,1054,1050,1050,1050,1050,1050,1047,1047,1044,1044,1041,1041,1041,1041,1038,1038,1038,1038,0,0,0,0,0,0,0,0,0,0,0,0,0,0,0,0,0,0,0,0,0,0,0,0,0,0,0,0,0,0,0
0,0,0,0,0,0,0,0,0,0,0,0,0,0,1794,1794,1794,1794,1794,1794,1785,1785,1785,1785,1785,1785,1785,1785,1785,1785,1785,1785,1785,1776,1776,1766,1766,1766,1766,1766,1766,1766,1776,1776,1776,1776,1776,1766,1766,1766,1766,1757,1757,1757,1757,1757,1757,1757,1757,1757,1757,1748,1748,1739,1739,1739,1739,1739,1739,1739,1739,1748,1748,1739,1739,1748,1739,1739,1739,1739,1731,1731,1739,1739,1739,1739,1739,1731,1731,1731,1731,1731,1722,1722,1722,1722,1722,1722,1722,1722,1722,1713,1713,1713,1713,1705,1705,1705,1705,1705,1713,1713,1722,1722,1722,1722,1731,1722,1722,1731,1731,1731,2065,2065,2053,2040,2040,2028,2028,2028,2028,2028,2028,2040,2028,1722,1722,1722,1722,1722,1722,1722,1713,1713,1713,1713,1722,1722,1722,1722,1722,1731,1731,1731,1731,1731,1731,1731,1731,1731,1739,1739,1757,1757,1757,1757,1766,1766,1766,1766,1766,1776,1776,1785,1785,1794,1794,1794,1804,1804,1804,1804,1813,1813,1813,1813,1813,1813,1804,1138,1138,1134,1134,1134,1134,1130,1130,1123,1123,1119,1119,1119,1119,1123,1126,1126,1130,1130,1130,1130,1130,1134,1134,1134,1134,1138,1138,0,0,0,0,1915,1915,1915,1915,1915,1926,1936,1936,1947,1947,1947,1936,1936,1926,1926,1926,1915,1915,1915,1915,1904,1894,1894,1883,1883,1873,1873,1873,1873,1863,1853,1853,1853,1853,1843,1843,1833,1833,1833,1823,1823,1813,1813,1804,1804,1804,1794,1785,1776,1776,1766,1766,1766,1757,1757,1757,1757,1757,1757,1757,1766,1766,0,0,0,0,0,0,0,0,915,915,913,913,910,908,906,903,903,901,901,901,901,898,898,901,901,903,906,906,908,910,913,915,918,918,918,918,918,0,0,0,0,0,0,1594,1594,1586,1586,1586,1579,1579,1572,1572,1564,1564,1557,1557,1550,1550,1543,1543,1543,1543,1536,1536,1536,1529,1523,1523,1516,1516,1516,1509,1509,1503,1503,1496,1489,1489,1489,1489,1483,1483,1477,1477,1470,1470,1470,1464,1464,1464,1464,1452,1445,1445,1445,1445,1445,1439,1439,1439,1433,1427,1427,1421,1421,1421,1415,1415,1415,1410,1410,1410,1404,1404,1398,1398,1398,1392,1392,1387,1387,1381,1376,1376,1376,1376,1370,1370,1370,1370,1365,1365,1354,1354,1354,1349,1349,1349,1349,1343,1338,1338,1338,1333,1333,1333,1328,1328,1322,1322,1317,1317,1317,1312,1312,1312,1307,1307,1307,1307,1302,1297,1297,1297,1292,1292,1288,1288,1288,1283,1283,1278,1273,1273,1273,1268,1268,1268,1268,1268,1264,1264,1259,1255,1255,1250,1250,1250,1245,1245,1241,1241,1236,1236,1236,1236,1232,1232,1227,1227,1223,1223,1219,1219,1214,1214,1214,1214,1210,1206,1206,1202,1202,1197,1197,1197,1189,1189,1185,1185,1185,1185,1185,1181,1181,1177,1177,1173,1169,1169,1169,1165,1165,1165,1161,1161,1161,1157,1157,1153,1153,1153,1153,1153,1149,1145,1141,1141,1141,1138,1138,1138,1134,1134,1134,1130,1126,1123,1123,1123,1119,1119,1119,1115,1112,1108,1108,1108,1108,1108,1105,1105,1105,1105,1105,1097,1097,1094,1094,1094,1090,1090,1090,1090,1087,1087,1084,1080,1080,1080,1077,1077,1077,1073,1070,1070,1070,1067,1067,1067,1067,1063,1063,1063,1060,1057,1054,1054,1054,1050,1050,1050,1050,1050,1047,1047,1044,1044,1041,1041,1041,1041,1038,1038,1038,1038,0,0,0,0,0,0,0,0,0,0,0,0,0,0,0,0,0,0,0,0,0,0,0,0,0,0,0,0,0,0,0
0,0,0,0,0,0,0,0,0,0,0,0,0,0,1794,1794,1794,1794,1794,1794,1794,1794,1785,1785,1785,1785,1785,1785,1785,1785,1785,1785,1785,1776,1776,1766,1766,1766,1766,1766,1776,1776,1776,1776,1776,1776,1776,1776,1766,1766,1766,1757,1757,1757,1757,1757,1757,1757,1757,1757,1757,1757,1748,1748,1748,1748,1748,1748,1739,1739,1748,1748,1748,1748,1748,1748,1739,1739,1739,1739,1739,1739,1739,1739,1739,1739,1739,1731,1731,1731,1731,1731,1731,1731,1722,1722,1722,1722,1722,1722,1722,1713,1713,1713,1713,1705,1705,1705,1705,1705,1713,1713,1722,1722,1722,1722,1731,1731,1731,1731,1731,1731,1731,2040,2040,2028,2028,2028,2016,2016,2016,2016,2016,2016,2016,2005,1981,1722,1722,1722,1722,1722,1722,1722,1722,1722,1722,1722,1722,1722,1731,1731,1731,1731,1731,1731,1731,1731,1731,1739,1739,1748,1748,1757,1757,1757,1766,1766,1766,1766,1766,1776,1776,1785,1785,1794,1794,1794,1804,1804,1804,1804,1813,1813,1813,1813,1813,1813,1804,1138,1134,1130,1130,1134,1134,1130,1130,1130,1123,1123,1123,1123,1123,1123,1126,1126,1130,1130,1130,1130,1134,1134,1134,1134,1138,1138,1138,0,0,0,0,1915,1915,1915,1915,1915,1926,1936,1947,1947,1947,1947,1947,1936,1936,1926,1926,1926,1915,1915,1915,1904,1894,1894,1883,1883,1873,1873,1873,1873,1863,1853,1853,1853,1843,1843,1843,1833,1833,1833,1833,1823,1823,1813,1813,1804,1804,1804,1785,1785,1776,1776,1766,1766,1766,1757,1757,1757,1757,1757,1757,1766,1766,0,0,0,0,0,0,0,0,915,915,913,913,910,908,906,906,903,903,901,901,901,898,898,901,901,906,906,906,908,910,913,915,918,918,918,918,918,0,0,0,0,0,0,1594,1594,1586,1586,1579,1579,1579,1579,1572,1572,1564,1557,1557,1550,1550,1543,1543,1543,1543,1536,1536,1536,1529,1523,1523,1523,1516,1516,1516,1509,1509,1503,1496,1496,1489,1489,1489,1489,1483,1483,1477,1470,1470,1470,1470,1464,1464,1464,1452,1452,1445,1445,1445,1445,1439,1439,1439,1433,1427,1427,1427,1421,1421,1421,1415,1415,1415,1415,1410,1404,1404,1398,1398,1398,1392,1392,1387,1387,1381,1381,1376,1376,1376,1376,1376,1370,1370,1370,1365,1359,1354,1354,1354,1349,1349,1349,1343,1343,1338,1338,1333,1333,1333,1328,1328,1322,1322,1317,1317,1317,1312,1312,1312,1312,1307,1307,1307,1302,1302,1297,1297,1292,1292,1288,1288,1288,1288,1283,1278,1278,1273,1273,1273,1268,1268,1268,1268,1264,1264,1259,1255,1255,1255,1250,1250,1245,1245,1241,1241,1236,1236,1236,1236,1232,1232,1232,1227,1223,1223,1223,1219,1214,1214,1214,1214,1210,1206,1206,1206,1202,1202,1197,1197,1193,1189,1189,1185,1185,1185,1185,1181,1181,1177,1177,1173,1169,1169,1169,1169,1165,1165,1161,1161,1161,1157,1157,1153,1153,1153,1153,1153,1149,1145,1145,1141,1141,1138,1138,1138,1134,1134,1134,1130,1126,1126,1123,1123,1119,1119,1119,1115,1112,1108,1108,1108,1108,1108,1108,1105,1105,1105,1105,1097,1097,1097,1094,1094,1090,1090,1090,1090,1087,1087,1084,1080,1080,1080,1077,1077,1077,1073,1070,1070,1070,1067,1067,1067,1063,1063,1063,1060,1060,1057,1054,1054,1054,1050,1050,1050,1050,1050,1047,1047,1044,1044,1041,1041,1041,1041,1041,1038,1038,1038,0,0,0,0,0,0,0,0,0,0,0,0,0,0,0,0,0,0,0,0,0,0,0,0,0,0,0,0,0,0,0
0,0,0,0,0,0,0,0,0,0,0,0,0,0,1794,1794,1794,1794,1794,1794,1794,1794,1785,1785,1785,1785,1785,1785,1785,1785,1785,1785,1785,1776,1776,1766,1766,1766,1766,1766,1776,1776,1776,1776,1776,1776,1776,1776,1766,1766,1766,1766,1757,1757,1757,1757,1757,1757,1757,1757,1757,1757,1757,1757,1757,1748,1748,1748,1748,1748,1748,1748,1748,1748,1748,1748,1739,1739,1739,1739,1739,1739,1739,1739,1739,1739,1739,1739,1739,1731,1731,1731,1731,1731,1731,1722,1722,1722,1722,1722,1722,1722,1713,1713,1713,1705,1705,1705,1705,1705,1713,1713,1722,1722,1722,1722,1731,1731,1731,1731,1731,1731,1731,2028,2016,2016,2016,2005,2005,2005,2005,1981,1981,1981,1981,1981,1970,1970,1722,1722,1722,1722,1722,1722,1722,1722,1722,1722,1722,1722,1722,1731,1731,1731,1731,1731,1731,1731,1739,1739,1739,1748,1748,1757,1757,1757,1757,1757,1757,1766,1766,1776,1776,1785,1785,1794,1794,1804,1804,1804,1804,1813,1813,1804,1804,1813,1813,1804,1804,1134,1134,1130,1130,1134,1134,1130,1130,1130,1123,1123,1123,1123,1123,1123,1126,1126,1130,1130,1130,1134,1134,1134,1134,1138,1138,1141,1141,1141,0,0,0,1915,1915,1915,1915,1915,1926,1936,1947,1947,1947,1947,1947,1947,1936,1926,1926,1926,1926,1915,1915,1904,1894,1894,1883,1883,1883,1873,1873,1873,1863,1853,1853,1853,1843,1843,1843,1843,1833,1833,1833,1823,1823,1823,1813,1813,1804,1794,1794,1785,1785,1776,1766,1766,1766,1757,1757,1757,1757,1757,1757,1757,1757,0,0,0,0,0,0,0,0,915,915,913,913,910,908,906,906,903,903,901,901,901,901,901,901,901,906,906,908,908,910,913,915,918,918,918,918,918,0,0,0,0,0,1601,1601,1594,1586,1586,1579,1579,1579,1579,1572,1572,1572,1564,1557,1557,1550,1550,1543,1543,1543,1536,1536,1536,1529,1523,1523,1523,1523,1516,1516,1509,1509,1503,1503,1496,1489,1489,1489,1489,1483,1483,1477,1470,1470,1470,1470,1464,1464,1464,1458,1452,1445,1445,1445,1445,1439,1439,1439,1433,1433,1427,1427,1427,1421,1421,1415,1415,1415,1415,1410,1410,1404,1404,1398,1398,1392,1392,1387,1387,1381,1381,1381,1376,1376,1376,1376,1370,1370,1370,1365,1359,1354,1354,1354,1349,1349,1349,1349,1343,1343,1338,1338,1333,1333,1328,1328,1322,1322,1317,1317,1317,1312,1312,1312,1312,1307,1307,1307,1302,1302,1297,1297,1292,1292,1288,1288,1288,1288,1283,1283,1278,1273,1273,1273,1268,1268,1268,1268,1268,1264,1259,1259,1255,1255,1250,1250,1250,1245,1241,1241,1236,1236,1236,1236,1232,1232,1232,1232,1227,1223,1219,1219,1219,1214,1214,1214,1210,1206,1206,1206,1202,1202,1197,1197,1197,1193,1189,1189,1189,1185,1185,1185,1181,1181,1177,1177,1169,1169,1169,1169,1165,1165,1165,1161,1161,1157,1157,1153,1153,1153,1153,1153,1149,1145,1145,1141,1141,1138,1138,1138,1134,1134,1134,1130,1126,1126,1123,1123,1123,1119,1119,1115,1115,1112,1112,1108,1108,1108,1108,1105,1105,1105,1101,1097,1097,1097,1094,1094,1094,1090,1090,1090,1087,1087,1084,1080,1080,1077,1077,1077,1077,1073,1073,1070,1070,1067,1067,1067,1063,1063,1063,1060,1060,1057,1054,1054,1054,1050,1050,1050,1050,1050,1047,1047,1044,1044,1041,1041,1041,1041,1041,1038,1038,1038,0,0,0,0,0,0,0,0,0,0,0,0,0,0,0,0,0,0,0,0,0,0,0,0,0,0,0,0,0,0,0
0,0,0,0,0,0,0,0,0,0,0,0,0,1794,1794,1794,1794,1794,1794,1794,1794,1794,1794,1794,1794,1794,1785,1785,1785,1785,1785,1785,1785,1776,1776,1776,1776,1766,1766,1766,1776,1776,1776,1776,1776,1776,1776,1776,1776,1766,1766,1766,1766,1757,1757,1757,1766,1766,1766,1757,1757,1757,1757,1757,1757,1757,1748,1748,1748,1757,1748,1748,1748,1748,1748,1748,1748,1739,1739,1739,1739,1739,1739,1739,1739,1739,1739,1739,1739,1739,1731,1731,1731,1731,1731,1731,1731,1722,1722,1722,1722,1722,1713,1713,1713,1705,1705,1705,1705,1705,1713,1713,1722,1722,1722,1731,1731,1731,1731,1731,1731,1731,1731,2016,2016,2016,2005,2005,1993,1993,1993,1981,1981,1981,1981,1970,1970,1970,1731,1731,1722,1722,1722,1722,1722,1722,1722,1722,1722,1722,1722,1731,1731,1731,1731,1739,1739,1739,1739,1739,1748,1748,1757,1757,1757,1757,1757,1757,1757,1766,1766,1776,1785,1785,1785,1794,1794,1804,1804,1804,1804,1813,1813,1804,1804,1804,1804,1804,1804,1134,1134,1130,1130,1134,1134,1130,1130,1130,1123,1123,1123,1123,1123,1123,1126,1130,1130,1130,1134,1134,1134,1134,1138,1138,1141,1141,1141,0,0,0,0,1926,1926,1926,1926,1926,1936,1947,1947,1947,1947,1959,1947,1947,1936,1936,1926,1926,1926,1915,1915,1904,1894,1894,1883,1883,1883,1883,1873,1873,1863,1853,1853,1853,1843,1843,1843,1843,1833,1833,1833,1833,1823,1823,1813,1813,1804,1794,1794,1794,1785,1785,1776,1766,1766,1766,1757,1757,1757,1757,1748,1748,1757,0,0,0,0,0,0,0,915,915,915,913,913,910,910,908,906,903,903,901,901,901,901,901,901,901,906,906,908,908,910,915,915,918,918,918,918,0,0,0,0,0,0,1601,1601,1594,1594,1586,1586,1579,1579,1579,1579,1572,1572,1564,1564,1557,1550,1550,1550,1550,1543,1543,1536,1536,1529,1523,1523,1523,1523,1516,1516,1516,1509,1509,1503,1496,1496,1489,1489,1489,1489,1483,1477,1477,1470,1470,1470,1464,1464,1464,1464,1452,1445,1445,1445,1445,1445,1439,1439,1439,1433,1433,1427,1427,1421,1421,1415,1415,1415,1415,1410,1410,1404,1404,1404,1398,1398,1392,1387,1387,1387,1387,1381,1381,1376,1376,1376,1376,1370,1370,1365,1359,1359,1354,1354,1349,1349,1349,1349,1343,1343,1343,1338,1333,1333,1328,1328,1328,1322,1322,1317,1317,1312,1312,1312,1312,1307,1307,1307,1302,1302,1297,1292,1292,1292,1288,1288,1288,1288,1283,1283,1278,1273,1273,1273,1268,1268,1268,1268,1268,1264,1259,1259,1255,1255,1250,1250,1250,1245,1241,1241,1241,1236,1236,1236,1236,1232,1232,1232,1227,1227,1219,1219,1219,1214,1214,1214,1210,1210,1206,1206,1202,1202,1202,1197,1197,1193,1193,1189,1189,1185,1185,1185,1181,1181,1177,1177,1173,1169,1169,1169,1165,1165,1165,1161,1161,1157,1157,1153,1153,1153,1153,1153,1149,1145,1145,1141,1141,1138,1138,1138,1134,1134,1134,1130,1126,1126,1123,1123,1123,1119,1119,1115,1115,1112,1112,1112,1108,1108,1108,1108,1105,1105,1101,1101,1097,1097,1094,1094,1094,1090,1090,1090,1087,1087,1084,1080,1080,1077,1077,1077,1077,1073,1073,1070,1070,1067,1067,1067,1067,1063,1063,1063,1060,1060,1057,1054,1054,1054,1050,1050,1050,1050,1047,1047,1047,1044,1044,1041,1041,1041,1041,1038,1038,1038,0,0,0,0,0,0,0,0,0,0,0,0,0,0,0,0,0,0,0,0,0,0,0,0,0,0,0,0,0,0,0
0,0,0,0,0,0,0,0,0,0,0,0,0,1794,1794,1794,1794,1794,1794,1794,1794,1794,1794,1794,1794,1794,1794,1794,1785,1785,1794,1794,1785,1785,1776,1776,1776,1766,1766,1766,1776,1776,1785,1785,1785,1785,1785,1776,1776,1766,1766,1766,1766,1766,1766,1766,1766,1766,1766,1757,1757,1757,1757,1757,1757,1757,1757,1748,1748,1757,1757,1757,1757,1748,1748,1748,1748,1739,1739,1739,1739,1739,1739,1739,1739,1739,1739,1739,1739,1739,1731,1731,1731,1731,1731,1731,1731,1731,1731,1731,1722,1722,1722,1722,1713,1713,1705,1705,1705,1705,1713,1713,1722,1722,1722,1731,1731,1731,1731,1731,1731,1731,1731,1993,1993,1993,1993,1981,1981,1981,1981,1981,1970,1970,1970,1970,1959,1671,1671,1731,1731,1731,1722,1722,1722,1722,1722,1722,1722,1722,1722,1722,1731,1731,1731,1739,1739,1739,1748,1748,1748,1757,1757,1757,1757,1757,1757,1757,1757,1766,1766,1776,1785,1785,1785,1794,1794,1804,1804,1804,1813,1813,1813,1804,1804,1804,1804,1804,1804,1134,1134,1130,1130,1134,1134,1130,1130,1126,1123,1123,1123,1123,1123,1126,1126,1130,1130,1130,1134,1134,1134,1138,1138,1141,1141,1145,1145,0,0,0,0,1926,1926,1926,1926,1926,1936,1947,1947,1947,1947,1959,1959,1947,1947,1936,1926,1926,1926,1915,1915,1915,1904,1894,1894,1883,1883,1883,1873,1873,1863,1863,1863,1853,1843,1843,1843,1843,1833,1833,1833,1833,1823,1823,1813,1813,1804,1804,1794,1794,1785,1785,1776,1776,1766,1766,1766,1757,1757,1748,1748,1748,0,0,0,0,0,0,0,0,915,915,915,913,913,913,910,908,906,903,903,901,901,901,901,901,901,901,906,906,908,908,910,915,915,918,918,918,920,0,0,0,0,0,0,1601,1601,1594,1594,1586,1586,1579,1579,1579,1579,1572,1572,1564,1564,1557,1550,1550,1550,1550,1550,1543,1543,1536,1529,1523,1523,1523,1523,1516,1516,1516,1509,1509,1503,1496,1496,1489,1489,1489,1489,1483,1477,1477,1470,1470,1470,1470,1464,1464,1458,1452,1445,1445,1445,1445,1445,1445,1439,1439,1439,1433,1433,1427,1427,1421,1421,1415,1415,1415,1410,1410,1404,1404,1404,1398,1398,1392,1392,1387,1387,1387,1381,1381,1381,1376,1376,1376,1376,1370,1365,1359,1359,1354,1354,1354,1349,1349,1349,1349,1349,1343,1338,1338,1333,1328,1328,1328,1328,1322,1317,1317,1312,1312,1312,1312,1307,1307,1307,1302,1302,1297,1292,1292,1292,1288,1288,1288,1288,1288,1283,1278,1273,1273,1273,1273,1268,1268,1268,1268,1264,1259,1259,1255,1255,1250,1250,1250,1245,1241,1241,1241,1236,1236,1236,1236,1232,1232,1232,1232,1227,1219,1219,1219,1214,1214,1214,1210,1210,1206,1206,1202,1202,1202,1202,1197,1197,1193,1193,1189,1189,1185,1185,1181,1181,1177,1177,1177,1169,1169,1169,1169,1165,1165,1161,1161,1157,1157,1157,1153,1153,1149,1149,1149,1149,1145,1141,1141,1141,1138,1138,1134,1134,1134,1134,1130,1126,1126,1123,1123,1119,1119,1119,1115,1115,1115,1112,1112,1112,1108,1108,1105,1105,1101,1101,1097,1097,1094,1094,1094,1094,1090,1090,1090,1087,1084,1080,1080,1080,1077,1077,1077,1077,1073,1073,1070,1067,1067,1067,1067,1063,1063,1063,1063,1060,1057,1057,1054,1054,1050,1050,1050,1050,1050,1047,1047,1044,1044,1044,1041,1041,1041,1038,1038,1038,0,0,0,0,0,0,0,0,0,0,0,0,0,0,0,0,0,0,0,0,0,0,0,0,0,0,0,0,0,0,0
0,0,0,0,0,0,0,0,0,0,0,0,0,1794,1794,1794,1794,1794,1794,1794,1794,1794,1794,1794,1794,1794,1794,1794,1794,1794,1794,1794,1785,1785,1785,1785,1785,1776,1776,1776,1776,1785,1785,1785,1785,1785,1785,1776,1776,1766,1766,1766,1766,1766,1766,1766,1766,1766,1766,1766,1766,1757,1757,1757,1757,1757,1757,1757,1757,1757,1757,1757,1757,1757,1757,1757,1748,1748,1748,1748,1748,1748,1739,1739,1739,1739,1739,1731,1731,1731,1731,1731,1731,1731,1731,1731,1731,1731,1731,1731,1731,1722,1722,1722,1713,1713,1705,1705,1713,1713,1713,1713,1722,1722,1731,1731,1731,1731,1731,1739,1739,1739,1739,1981,1981,1981,1970,1970,1970,1970,1970,1970,1970,1959,1959,1959,1959,1671,1671,1936,1731,1731,1731,1722,1722,1722,1722,1722,1722,1722,1722,1722,1731,1731,1731,1739,1739,1739,1748,1748,1757,1757,1757,1757,1757,1757,1757,1766,1766,1766,1776,1776,1785,1794,1794,1794,1794,1804,1804,1804,1813,1813,1813,1813,1813,1804,1804,1794,1794,1794,1130,1130,1130,1134,1130,1130,1130,1126,1126,1123,1123,1123,1126,1126,1126,1130,1130,1130,1134,1134,1134,1138,1138,1141,1141,1145,1149,0,0,0,0,1926,1926,1926,1926,1926,1936,1947,1947,1947,1947,1959,1959,1947,1947,1936,1926,1926,1926,1915,1915,1904,1904,1894,1894,1883,1883,1883,1873,1873,1873,1863,1863,1853,1843,1843,1843,1843,1833,1833,1833,1833,1823,1823,1813,1813,1804,1804,1794,1794,1794,1785,1785,1776,1766,1766,1757,1757,1757,1748,1748,0,0,0,0,0,0,0,0,0,915,915,915,913,913,913,910,908,906,903,903,901,901,901,901,901,901,903,906,908,908,910,910,915,915,918,918,920,920,923,0,0,0,0,0,1601,1601,1594,1594,1594,1586,1586,1579,1579,1579,1572,1572,1564,1564,1557,1557,1550,1550,1550,1550,1543,1543,1543,1529,1529,1523,1523,1523,1516,1516,1516,1509,1509,1503,1503,1496,1496,1489,1489,1489,1483,1483,1477,1470,1470,1470,1470,1464,1464,1458,1452,1452,1445,1445,1445,1445,1445,1439,1439,1439,1433,1433,1427,1427,1421,1421,1415,1415,1415,1410,1410,1410,1404,1404,1398,1398,1392,1392,1392,1387,1387,1387,1381,1381,1376,1376,1376,1376,1370,1365,1365,1365,1359,1354,1354,1354,1349,1349,1349,1349,1343,1343,1338,1333,1328,1328,1328,1328,1322,1322,1317,1312,1312,1312,1312,1307,1307,1307,1307,1302,1297,1292,1292,1292,1292,1288,1288,1288,1288,1283,1278,1273,1273,1273,1273,1268,1268,1268,1268,1264,1259,1259,1255,1255,1255,1250,1250,1245,1245,1241,1241,1241,1236,1236,1236,1236,1232,1232,1232,1227,1223,1219,1219,1214,1214,1214,1210,1210,1206,1206,1202,1202,1202,1202,1197,1197,1197,1197,1193,1193,1189,1185,1185,1181,1181,1177,1177,1173,1169,1169,1169,1169,1165,1165,1161,1157,1157,1157,1153,1153,1149,1149,1149,1149,1145,1141,1141,1141,1138,1138,1134,1134,1134,1130,1130,1126,1126,1123,1123,1119,1119,1119,1119,1115,1115,1115,1112,1112,1108,1108,1108,1108,1105,1105,1101,1097,1097,1094,1094,1094,1094,1090,1090,1090,1087,1084,1084,1080,1077,1077,1077,1077,1073,1073,1070,1070,1067,1067,1067,1063,1063,1063,1063,1060,1057,1057,1054,1054,1054,1054,1050,1050,1050,1050,1047,1047,1044,1044,1041,1041,1041,1038,1038,1038,0,0,0,0,0,0,0,0,0,0,0,0,0,0,0,0,0,0,0,0,0,0,0,0,0,0,0,0,0,0,0
0,0,0,0,0,0,0,0,0,0,0,0,0,1794,1794,1794,1794,1794,1794,1794,1794,1794,1794,1794,1794,1794,1794,1794,1794,1794,1794,1794,1794,1785,1785,1785,1785,1776,1776,1776,1785,1785,1785,1785,1785,1785,1785,1776,1776,1766,1766,1766,1766,1766,1766,1766,1766,1766,1766,1766,1766,1766,1757,1757,1757,1757,1757,1757,1757,1757,1757,1757,1757,1757,1757,1757,1748,1748,1748,1748,1748,1748,1739,1739,1739,1739,1739,1731,1731,1731,1731,1731,1731,1731,1731,1731,1731,1731,1731,1731,1731,1722,1722,1722,1722,1713,1713,1713,1713,1713,1722,1722,1722,1722,1731,1731,1731,1739,1739,1739,1739,1748,1970,1970,1970,1970,1970,1970,1959,1959,1959,1959,1959,1959,1959,1959,1947,1915,1915,1936,1739,1731,1731,1722,1722,1722,1722,1722,1722,1722,1722,1731,1731,1731,1739,1739,1739,1739,1748,1757,1757,1757,1757,1757,1757,1757,1757,1766,1766,1766,1776,1776,1785,1794,1794,1794,1794,1804,1804,1804,1813,1813,1813,1813,1804,1804,1804,1794,1794,1794,1130,1130,1130,1134,1130,1130,1130,1126,1126,1123,1123,1123,1123,1126,1126,1130,1130,1130,1134,1134,1134,1138,1138,1141,1141,1145,1149,1149,0,0,0,1926,1926,1926,1926,1926,1936,1947,1959,1959,1959,1959,1959,1959,1947,1936,1936,1926,1926,1926,1915,1904,1904,1904,1894,1883,1883,1883,1873,1873,1873,1863,1863,1853,1843,1843,1843,1843,1843,1843,1833,1833,1823,1823,1813,1813,1804,1804,1804,1794,1794,1785,1785,1776,1776,1766,1757,1757,1757,1739,1739,0,0,0,0,0,0,0,0,0,915,915,915,915,913,913,910,908,906,903,903,901,901,901,901,901,901,903,906,908,908,910,913,915,918,918,920,920,923,923,0,0,0,0,0,1609,1601,1601,1594,1594,1594,1586,1586,1579,1579,1579,1572,1572,1564,1557,1557,1550,1550,1550,1550,1550,1543,1543,1536,1529,1523,1523,1523,1516,1516,1516,1509,1509,1503,1503,1496,1496,1489,1489,1489,1489,1483,1477,1477,1470,1470,1470,1464,1464,1458,1452,1452,1445,1445,1445,1445,1445,1439,1439,1439,1433,1433,1427,1427,1421,1421,1421,1415,1415,1415,1410,1410,1410,1404,1398,1398,1392,1392,1392,1392,1387,1387,1387,1381,1381,1376,1376,1376,1370,1365,1365,1365,1359,1354,1354,1354,1349,1349,1349,1349,1343,1343,1333,1333,1333,1328,1328,1328,1328,1322,1322,1317,1317,1312,1312,1312,1307,1307,1307,1302,1297,1292,1292,1292,1292,1288,1288,1288,1288,1283,1278,1273,1273,1273,1273,1268,1268,1268,1268,1264,1259,1259,1255,1255,1255,1250,1250,1245,1245,1241,1241,1241,1236,1236,1236,1236,1232,1232,1232,1227,1223,1219,1219,1219,1214,1214,1210,1210,1206,1206,1206,1202,1202,1202,1197,1197,1197,1197,1193,1193,1189,1189,1185,1185,1181,1181,1177,1177,1169,1169,1169,1169,1165,1165,1165,1161,1161,1157,1153,1153,1153,1149,1149,1149,1145,1145,1141,1141,1138,1138,1134,1134,1134,1130,1130,1126,1126,1123,1123,1119,1119,1119,1119,1115,1115,1115,1112,1112,1108,1108,1108,1108,1105,1105,1101,1097,1097,1097,1094,1094,1094,1090,1090,1090,1087,1084,1084,1080,1077,1077,1077,1077,1077,1073,1073,1070,1070,1070,1067,1067,1063,1063,1063,1060,1060,1057,1054,1054,1054,1054,1054,1050,1050,1050,1050,1047,1047,1044,1044,1041,1041,1041,1038,1038,0,0,0,0,0,0,0,0,0,0,0,0,0,0,0,0,0,0,0,0,0,0,0,0,0,0,0,0,0,0,0
0,0,0,0,0,0,0,0,0,0,0,0,0,1794,1794,1794,1794,1794,1794,1794,1794,1794,1794,1794,1794,1794,1794,1794,1794,1794,1794,1794,1794,1785,1785,1785,1785,1776,1776,1776,1776,1776,1785,1785,1785,1785,1785,1776,1776,1776,1776,1776,1766,1766,1776,1776,1776,1766,1766,1766,1766,1757,1757,1757,1757,1757,1757,1757,1757,1757,1757,1757,1757,1757,1757,1757,1757,1757,1748,1748,1748,1748,1739,1739,1739,1739,1739,1731,1731,1731,1731,1731,1731,1731,1731,1731,1731,1731,1731,1731,1731,1731,1722,1722,1722,1713,1713,1713,1713,1713,1722,1722,1722,1722,1731,1731,1731,1739,1739,1739,1739,1739,1970,1970,1970,1970,1970,1959,1959,1959,1959,1959,1959,1947,1947,1947,1915,1883,1853,1853,1739,1739,1731,1731,1722,1722,1722,1722,1722,1722,1722,1731,1731,1731,1739,1739,1739,1739,1748,1757,1757,1757,1757,1757,1757,1757,1757,1766,1766,1766,1776,1785,1785,1794,1794,1794,1794,1804,1804,1804,1813,1813,1813,1813,1804,1804,1794,1794,1794,1794,1134,1134,1134,1134,1130,1130,1130,1126,1126,1123,1123,1123,1123,1126,1126,1130,1130,1130,1134,1134,1134,1138,1141,1141,1141,1145,1149,1149,0,0,0,0,1936,1926,1926,1936,1936,1947,1959,1959,1959,1959,1959,1959,1947,1936,1936,1936,1926,1926,1915,1904,1904,1904,1894,1883,1883,1883,1873,1873,1873,1873,1873,1863,1853,1843,1843,1843,1843,1843,1833,1833,1823,1823,1813,1813,1813,1804,1804,1794,1794,1794,1785,1776,1776,1766,1766,1757,1757,1731,1731,0,0,0,0,0,0,0,0,0,918,918,915,915,913,913,910,908,906,903,903,901,901,901,901,901,903,903,908,908,910,913,915,915,918,918,920,920,923,923,0,0,0,0,0,1609,1601,1601,1601,1601,1594,1586,1586,1586,1579,1579,1572,1572,1564,1564,1557,1550,1550,1550,1550,1550,1543,1543,1536,1529,1529,1523,1523,1516,1516,1516,1516,1509,1509,1503,1496,1496,1489,1489,1489,1489,1483,1477,1477,1470,1470,1470,1464,1464,1458,1452,1452,1445,1445,1445,1445,1445,1439,1439,1439,1439,1433,1427,1427,1421,1421,1421,1415,1415,1415,1410,1410,1410,1404,1398,1398,1398,1392,1392,1392,1392,1392,1387,1387,1381,1381,1376,1376,1370,1365,1365,1365,1359,1354,1354,1354,1354,1349,1349,1349,1343,1343,1333,1333,1333,1333,1328,1328,1328,1328,1322,1317,1317,1312,1312,1312,1307,1307,1307,1302,1297,1292,1292,1292,1292,1292,1288,1288,1288,1283,1278,1273,1273,1273,1273,1268,1268,1268,1268,1264,1264,1259,1259,1255,1255,1250,1250,1250,1245,1245,1241,1241,1236,1236,1236,1236,1232,1232,1232,1227,1223,1219,1219,1219,1214,1214,1210,1210,1210,1206,1206,1202,1202,1202,1197,1197,1197,1197,1193,1193,1189,1189,1185,1185,1181,1181,1177,1177,1173,1169,1169,1169,1169,1165,1165,1161,1161,1157,1157,1153,1153,1149,1149,1149,1145,1145,1141,1141,1138,1138,1138,1134,1134,1130,1130,1126,1126,1123,1123,1123,1119,1119,1119,1119,1115,1115,1112,1112,1112,1108,1108,1108,1105,1105,1101,1097,1097,1097,1094,1094,1094,1090,1090,1090,1090,1087,1087,1084,1080,1080,1077,1077,1077,1077,1073,1070,1070,1070,1067,1067,1063,1063,1063,1063,1060,1057,1057,1054,1054,1054,1054,1050,1050,1050,1050,1047,1047,1044,1044,1041,1041,1041,1038,1038,0,0,0,0,0,0,0,0,0,0,0,0,0,0,0,0,0,0,0,0,0,0,0,0,0,0,0,0,0,0,0
0,0,0,0,0,0,0,0,0,0,0,0,0,1794,1794,1794,1794,1794,1804,1804,1804,1794,1794,1794,1794,1794,1794,1794,1794,1794,1794,1794,1794,1794,1794,1785,1785,1776,1776,1776,1776,1776,1785,1785,1785,1785,1785,1785,1776,1776,1776,1776,1776,1776,1776,1776,1776,1766,1766,1766,1766,1757,1757,1757,1757,1757,1757,1757,1757,1766,1757,1757,1757,1757,1757,1757,1757,1757,1748,1748,1748,1748,1748,1739,1739,1739,1739,1731,1731,1731,1731,1731,1731,1731,1731,1731,1731,1731,1731,1731,1731,1731,1722,1722,1722,1722,1722,1722,1713,1713,1722,1722,1722,1722,1722,1731,1731,1739,1739,1739,1739,1739,1959,1959,1959,1959,1959,1959,1947,1947,1947,1947,1947,1947,1936,1926,1894,1863,1843,1843,1748,1748,1731,1731,1722,1722,1722,1722,1722,1722,1722,1722,1731,1731,1739,1739,1739,1739,1748,1757,1757,1757,1757,1757,1757,1757,1766,1766,1766,1766,1776,1785,1785,1794,1794,1794,1794,1804,1804,1804,1813,1813,1813,1813,1804,1804,1794,1794,0,0,0,0,0,1134,1130,1130,1130,1126,1126,1123,1123,1123,1126,1126,1126,1130,1130,1130,1134,1134,1134,1138,1141,1141,1141,1145,1145,1149,0,0,0,0,1936,1936,1936,1936,1936,1947,1947,1959,1959,1959,1959,1959,1959,1936,1936,1936,1926,1926,1915,1915,1904,1904,1894,1883,1883,1883,1883,1873,1873,1873,1873,1863,1853,1853,1853,1853,1843,1843,1833,1833,1833,1823,1813,1813,1813,1804,1804,1794,1794,1794,1785,1776,1776,1766,1766,1757,1757,1731,1731,0,0,0,0,0,0,0,0,0,918,918,915,915,913,913,910,908,906,906,903,901,901,901,901,901,903,903,908,910,910,913,915,915,918,918,920,923,923,923,0,0,0,0,0,0,1601,1601,1601,1601,1594,1594,1586,1586,1579,1579,1579,1572,1572,1564,1557,1557,1557,1550,1550,1550,1550,1543,1543,1536,1529,1523,1523,1516,1516,1516,1516,1509,1509,1503,1496,1496,1489,1489,1489,1489,1483,1483,1477,1477,1470,1470,1464,1464,1458,1452,1452,1452,1452,1445,1445,1445,1445,1439,1439,1439,1433,1427,1427,1421,1421,1421,1421,1415,1415,1415,1410,1410,1404,1404,1398,1398,1398,1392,1392,1392,1392,1387,1387,1387,1381,1376,1376,1370,1370,1365,1365,1359,1354,1354,1354,1354,1349,1349,1349,1343,1343,1338,1333,1333,1333,1328,1328,1328,1328,1328,1322,1317,1317,1312,1312,1312,1307,1307,1302,1302,1297,1292,1292,1292,1292,1288,1288,1288,1283,1278,1278,1273,1273,1273,1273,1268,1268,1268,1264,1264,1259,1259,1255,1255,1250,1250,1250,1245,1245,1241,1241,1236,1236,1236,1236,1232,1232,1232,1227,1223,1219,1219,1219,1214,1214,1210,1210,1210,1206,1206,1202,1202,1202,1202,1197,1197,1197,1197,1193,1193,1189,1185,1185,1181,1181,1177,1177,1173,1169,1169,1169,1169,1165,1165,1161,1161,1161,1157,1153,1153,1153,1149,1149,1149,1145,1145,1141,1138,1138,1138,1138,1134,1134,1130,1130,1130,1123,1123,1123,1119,1119,1119,1119,1115,1115,1112,1112,1112,1108,1108,1108,1105,1105,1101,1101,1097,1097,1094,1094,1094,1094,1094,1090,1090,1090,1087,1084,1080,1080,1077,1077,1077,1077,1073,1073,1070,1070,1067,1067,1063,1063,1063,1063,1060,1060,1057,1057,1057,1054,1054,1054,1050,1050,1050,1047,1047,1047,1044,1041,1041,1041,1041,1041,0,0,0,0,0,0,0,0,0,0,0,0,0,0,0,0,0,0,0,0,0,0,0,0,0,0,0,0,0,0,0
0,0,0,0,0,0,0,0,0,0,0,0,0,1794,1794,1804,1804,1804,1804,1804,1804,1794,1794,1794,1794,1794,1794,1794,1794,1794,1794,1794,1794,1794,1794,1794,1794,1785,1785,1785,1785,1785,1785,1785,1785,1785,1785,1785,1785,1785,1785,1776,1776,1776,1776,1776,1766,1766,1766,1766,1766,1757,1757,1757,1757,1757,1757,1757,1766,1766,1766,1766,1766,1757,1757,1757,1757,1757,1757,1748,1748,1748,1748,1748,1739,1739,1739,1739,1739,1731,1731,1731,1731,1731,1731,1731,1731,1731,1731,1731,1731,1731,1731,1722,1722,1722,1722,1722,1722,1722,1722,1722,1722,1722,1722,1731,1731,1739,1739,1739,1739,1739,1748,1947,1947,1959,1947,1947,1947,1936,1936,1936,1936,1926,1926,1904,1883,1863,1843,1843,1748,1748,1739,1731,1722,1722,1722,1722,1722,1722,1722,1722,1731,1731,1739,1739,1739,1739,1748,1757,1757,1757,1757,1766,1766,1766,1766,1766,1766,1776,1776,1785,1785,1794,1794,1794,1794,1794,1804,1804,1804,1813,1813,1813,1804,1794,1785,1785,0,0,0,0,0,1134,1134,1130,1130,1126,1126,1126,1126,1126,1126,1126,1126,1130,1130,1130,1134,1134,1134,1138,1141,1141,1141,1145,1145,0,0,0,0,0,1936,1936,1936,1936,1936,1947,1947,1959,1959,1959,1959,1959,1959,1947,1936,1936,1926,1926,1915,1915,1915,1904,1904,1894,1883,1883,1883,1873,1873,1873,1873,1863,1853,1853,1853,1853,1843,1843,1833,1833,1833,1823,1823,1813,1813,1804,1804,1794,1794,1794,1785,1776,1776,1766,1766,1757,1757,1748,1748,0,0,0,0,0,0,0,0,920,918,918,915,915,913,913,910,908,906,903,903,901,901,901,901,901,903,906,908,910,910,913,915,915,918,920,920,923,923,923,0,0,0,0,0,0,1609,1601,1601,1601,1601,1594,1586,1586,1586,1579,1579,1572,1572,1564,1557,1557,1550,1550,1550,1550,1550,1543,1543,1536,1529,1529,1523,1523,1516,1516,1516,1516,1509,1509,1496,1496,1496,1489,1489,1489,1483,1483,1477,1477,1470,1470,1464,1464,1458,1452,1452,1452,1452,1445,1445,1445,1445,1445,1439,1439,1433,1433,1427,1427,1421,1421,1421,1415,1415,1415,1410,1410,1404,1404,1398,1398,1398,1392,1392,1392,1392,1387,1387,1387,1381,1376,1376,1370,1370,1365,1365,1359,1359,1354,1354,1354,1354,1349,1349,1349,1343,1338,1338,1333,1333,1333,1328,1328,1328,1328,1322,1317,1317,1312,1312,1312,1307,1307,1302,1302,1297,1292,1292,1292,1292,1292,1288,1288,1283,1278,1278,1273,1273,1273,1273,1273,1268,1268,1268,1264,1264,1259,1255,1255,1255,1250,1250,1250,1245,1245,1241,1236,1236,1236,1236,1232,1232,1232,1227,1223,1219,1219,1219,1214,1214,1214,1210,1210,1210,1206,1206,1206,1202,1202,1197,1197,1197,1197,1193,1193,1189,1189,1185,1185,1181,1181,1177,1173,1173,1169,1169,1169,1165,1165,1165,1161,1161,1157,1153,1153,1153,1149,1149,1149,1145,1145,1141,1141,1138,1138,1138,1134,1134,1130,1130,1130,1126,1123,1123,1123,1119,1119,1119,1115,1115,1112,1112,1112,1108,1108,1108,1108,1105,1105,1101,1097,1097,1097,1094,1094,1094,1094,1090,1090,1090,1090,1087,1080,1080,1080,1077,1077,1077,1077,1073,1070,1070,1070,1067,1067,1063,1063,1063,1060,1060,1060,1057,1057,1057,1054,1054,1054,1050,1050,1050,1047,1047,1044,1041,1041,1041,1041,1041,0,0,0,0,0,0,0,0,0,0,0,0,0,0,0,0,0,0,0,0,0,0,0,0,0,0,0,0,0,0,0
0,0,0,0,0,0,0,0,0,0,0,0,0,0,1804,1804,1804,1804,1804,1804,1804,1794,1794,1794,1794,1794,1794,1794,1794,1794,1794,1794,1794,1794,1794,1794,1794,1785,1785,1785,1785,1785,1785,1785,1785,1785,1785,1785,1785,1785,1785,1785,1776,1776,1776,1776,1766,1766,1766,1766,1766,1757,1757,1757,1757,1757,1766,1766,1766,1766,1766,1766,1766,1757,1757,1757,1757,1757,1757,1757,1757,1748,1748,1748,1739,1739,1739,1739,1739,1739,1739,1731,1731,1731,1731,1731,1731,1731,1731,1731,1731,1731,1731,1722,1722,1722,1722,1722,1722,1722,1722,1722,1722,1722,1722,1731,1731,1739,1739,1748,1748,1748,1748,1947,1947,1947,1947,1936,1926,1926,1926,1926,1926,1926,1915,1894,1873,1863,1843,1843,1748,1748,1739,1731,1731,1722,1722,1722,1722,1722,1722,1731,1731,1731,1739,1739,1739,1748,1748,1757,1757,1757,1766,1766,1766,1766,1766,1766,1776,1776,1785,1785,1785,1794,1794,1794,1794,1794,1804,1804,1804,1813,1813,1813,1804,1794,1785,1785,0,0,0,0,0,1134,1134,1134,1130,1130,1130,1126,1126,1126,1130,1130,1130,1130,1130,1130,1134,1134,1134,1138,1141,1141,1141,1145,1145,0,0,0,0,0,1936,1936,1936,1936,1936,1947,1947,1959,1959,1959,1959,1959,1959,1959,1947,1936,1936,1926,1915,1915,1915,1915,1904,1894,1883,1883,1883,1873,1873,1873,1873,1873,1863,1863,1853,1853,1843,1843,1843,1833,1833,1823,1823,1813,1813,1804,1804,1804,1794,1794,1785,1785,1776,1766,1766,1757,1757,1757,1757,0,0,0,0,0,0,0,0,920,920,918,915,915,915,913,910,908,906,903,903,901,901,901,901,901,903,906,908,910,913,915,915,918,918,920,920,923,925,925,925,0,0,0,0,0,1609,1601,1601,1601,1601,1594,1594,1586,1586,1579,1579,1572,1572,1564,1557,1557,1550,1550,1550,1550,1550,1543,1543,1536,1536,1529,1523,1523,1516,1516,1516,1516,1509,1503,1503,1496,1496,1496,1489,1489,1483,1483,1477,1477,1470,1470,1464,1464,1458,1458,1452,1452,1452,1452,1445,1445,1445,1445,1439,1439,1439,1433,1427,1427,1421,1421,1421,1415,1415,1415,1415,1415,1410,1404,1398,1398,1398,1398,1392,1392,1392,1392,1392,1387,1381,1381,1376,1370,1370,1365,1365,1359,1359,1354,1354,1354,1354,1349,1349,1349,1343,1338,1338,1333,1333,1333,1333,1328,1328,1328,1322,1322,1317,1317,1312,1312,1307,1307,1307,1302,1297,1297,1292,1292,1292,1292,1288,1288,1283,1283,1278,1278,1273,1273,1273,1273,1268,1268,1268,1268,1264,1259,1255,1255,1255,1250,1250,1250,1250,1245,1245,1241,1236,1236,1236,1236,1232,1232,1227,1223,1223,1219,1219,1214,1214,1214,1214,1214,1210,1210,1206,1206,1202,1202,1197,1197,1197,1197,1193,1193,1193,1189,1185,1185,1181,1181,1177,1173,1173,1169,1169,1169,1165,1165,1165,1165,1161,1157,1153,1153,1153,1149,1149,1149,1145,1145,1141,1141,1138,1138,1138,1134,1134,1134,1130,1130,1130,1123,1123,1123,1123,1119,1119,1119,1115,1112,1112,1112,1108,1108,1108,1108,1105,1105,1101,1101,1097,1097,1094,1094,1094,1094,1090,1090,1090,1090,1087,1084,1080,1080,1080,1077,1077,1077,1073,1073,1073,1070,1067,1067,1067,1063,1063,1063,1063,1060,1057,1057,1057,1054,1054,1054,1050,1050,1050,1050,1047,1044,1041,1041,1041,1041,1041,0,0,0,0,0,0,0,0,0,0,0,0,0,0,0,0,0,0,0,0,0,0,0,0,0,0,0,0,0,0,0
0,0,0,0,0,0,0,0,0,0,0,0,0,0,1804,1804,1804,1804,1804,1804,1804,1794,1794,1794,1794,1794,1794,1794,1794,1794,1794,1794,1794,1794,1794,1794,1794,1785,1785,1794,1785,1785,1785,1785,1785,1785,1785,1785,1785,1785,1785,1785,1785,1776,1776,1776,1776,1766,1766,1766,1766,1766,1766,1766,1766,1766,1766,1766,1766,1766,1766,1766,1766,1757,1757,1757,1757,1757,1757,1757,1757,1757,1757,1757,1748,1748,1748,1739,1739,1739,1739,1739,1739,1731,1731,1731,1731,1731,1731,1731,1731,1731,1731,1731,1722,1722,1722,1722,1722,1722,1722,1722,1722,1722,1731,1731,1731,1731,1739,1748,1748,1757,1757,1936,1936,1926,1915,1915,1915,1915,1915,1915,1904,1904,1915,1883,1873,1863,1853,1843,1843,1748,1739,1731,1731,1731,1722,1722,1722,1722,1722,1731,1731,1731,1739,1739,1739,1748,1748,1757,1757,1757,1766,1766,1766,1766,1766,1766,1776,1776,1785,1785,1785,1794,1794,1794,1794,1804,1804,1804,1804,1813,1813,1813,1804,1804,1794,1794,0,0,0,0,0,1134,1134,1134,1130,1130,1130,1126,1126,1126,1130,1130,1130,1130,1130,1134,1134,1134,1138,1138,1141,1141,1141,1145,1145,0,0,0,0,0,1936,1936,1936,1936,1936,1947,1947,1959,1959,1959,1959,1959,1959,1959,1947,1947,1936,1926,1915,1915,1915,1915,1904,1904,1894,1883,1883,1883,1883,1883,1873,1873,1873,1863,1863,1853,1843,1843,1843,1833,1833,1833,1823,1823,1813,1804,1804,1804,1804,1794,1794,1785,1776,1776,1766,1766,1766,1766,1766,0,0,0,0,0,0,0,0,923,920,920,915,915,915,913,910,908,906,903,903,903,903,903,903,903,906,906,910,913,913,915,915,918,920,920,923,923,925,925,925,0,0,0,0,0,0,1609,1609,1601,1601,1594,1594,1586,1586,1579,1579,1572,1572,1564,1557,1557,1550,1550,1550,1550,1543,1543,1543,1543,1536,1529,1523,1523,1523,1516,1516,1516,1516,1503,1503,1496,1496,1496,1489,1489,1489,1483,1483,1477,1470,1470,1464,1464,1464,1458,1458,1452,1452,1452,1452,1445,1445,1445,1439,1439,1439,1433,1433,1427,1421,1421,1421,1415,1415,1415,1415,1415,1410,1404,1398,1398,1398,1398,1392,1392,1392,1392,1392,1387,1381,1381,1376,1370,1370,1365,1365,1365,1359,1359,1354,1354,1354,1349,1349,1349,1343,1343,1343,1338,1333,1333,1333,1333,1328,1328,1322,1322,1322,1317,1312,1312,1307,1307,1307,1302,1302,1297,1297,1292,1292,1292,1292,1288,1288,1283,1283,1278,1278,1278,1273,1273,1273,1273,1268,1268,1264,1264,1259,1255,1255,1255,1250,1250,1250,1245,1245,1241,1236,1236,1236,1236,1232,1232,1227,1223,1223,1219,1219,1214,1214,1214,1214,1214,1214,1210,1210,1206,1202,1202,1197,1197,1197,1197,1193,1193,1193,1189,1189,1185,1181,1181,1177,1177,1173,1169,1169,1169,1169,1165,1165,1165,1161,1161,1157,1153,1153,1153,1149,1149,1149,1149,1145,1145,1141,1141,1138,1138,1134,1134,1130,1130,1130,1130,1123,1123,1123,1119,1119,1119,1115,1112,1112,1112,1108,1108,1108,1108,1105,1105,1105,1101,1101,1097,1094,1094,1094,1094,1090,1090,1090,1090,1087,1087,1080,1080,1080,1080,1077,1077,1077,1073,1073,1070,1070,1067,1067,1063,1063,1063,1063,1060,1060,1057,1057,1054,1054,1054,1050,1050,1050,1050,1047,1047,1044,1041,1041,1041,1041,0,0,0,0,0,0,0,0,0,0,0,0,0,0,0,0,0,0,0,0,0,0,0,0,0,0,0,0,0,0,0
0,0,0,0,0,0,0,0,0,0,0,0,0,0,1804,1804,1804,1804,1804,1804,1804,1794,1794,1794,1794,1794,1794,1794,1794,1794,1794,1794,1794,1794,1794,1794,1794,1785,1785,1794,1785,1785,1785,1785,1785,1785,1785,1785,1785,1785,1785,1785,1785,1776,1776,1776,1776,1776,1776,1766,1766,1766,1766,1766,1766,1766,1766,1766,1766,1766,1766,1766,1766,1757,1757,1757,1757,1766,1757,1757,1757,1757,1757,1757,1748,1748,1748,1748,1748,1739,1739,1739,1739,1739,1739,1739,1739,1739,1731,1731,1731,1731,1731,1731,1731,1731,1722,1722,1722,1722,1722,1722,1722,1722,1731,1731,1731,1731,1739,1748,1748,1748,1748,1926,1926,1904,1894,1894,1894,1894,1894,1894,1894,1894,1904,1883,1873,1863,1853,1843,1843,1748,1739,1731,1731,1731,1731,1731,1731,1731,1731,1731,1731,1731,1739,1739,1748,1748,1757,1757,1757,1766,1766,1766,1766,1766,1766,1776,1776,1776,1785,1785,1785,1794,1794,1794,1794,1804,1804,1813,1813,1823,1823,1813,1804,1804,1804,0,0,0,0,0,1138,1134,1134,1134,1130,1130,1130,1126,1126,1126,1130,1130,1130,1130,1130,1134,1134,1134,1138,1141,1141,1141,1141,1145,1145,0,0,0,0,0,1936,1936,1936,1936,1936,1947,1947,1959,1959,1959,1959,1959,1959,1959,1947,1947,1936,1926,1926,1915,1915,1915,1915,1904,1894,1894,1883,1883,1883,1883,1873,1873,1873,1863,1863,1863,1853,1843,1843,1833,1833,1833,1833,1823,1823,1813,1813,1804,1804,1794,1794,1785,1776,1776,1766,1766,1766,1766,1766,0,0,0,0,0,0,0,0,923,920,918,918,915,915,913,910,908,906,903,903,903,903,903,903,903,906,906,910,913,913,915,918,918,920,920,923,923,925,925,925,0,0,0,0,0,1609,1609,1609,1609,1601,1601,1594,1586,1586,1579,1579,1572,1572,1572,1564,1557,1557,1550,1550,1550,1543,1543,1543,1543,1536,1529,1523,1523,1523,1516,1516,1516,1516,1503,1503,1496,1496,1496,1489,1489,1489,1483,1483,1477,1477,1470,1470,1464,1464,1464,1458,1458,1458,1452,1452,1445,1445,1445,1439,1439,1439,1433,1433,1427,1421,1421,1421,1421,1415,1415,1415,1415,1410,1404,1398,1398,1398,1398,1398,1392,1392,1392,1392,1387,1381,1381,1376,1370,1370,1365,1365,1365,1359,1359,1354,1354,1354,1349,1349,1349,1349,1349,1343,1343,1338,1333,1333,1333,1333,1328,1328,1322,1322,1317,1312,1312,1312,1307,1307,1307,1302,1302,1297,1297,1292,1292,1292,1288,1288,1288,1283,1283,1278,1278,1273,1273,1273,1273,1268,1268,1268,1264,1259,1255,1255,1255,1250,1250,1250,1250,1245,1241,1236,1236,1236,1236,1232,1232,1232,1227,1223,1223,1219,1219,1219,1214,1214,1214,1214,1210,1210,1206,1202,1202,1197,1197,1197,1197,1193,1193,1193,1189,1189,1185,1185,1181,1181,1177,1173,1173,1169,1169,1169,1169,1165,1165,1161,1161,1157,1157,1153,1153,1149,1149,1149,1149,1145,1145,1141,1141,1138,1138,1134,1134,1134,1130,1130,1130,1126,1123,1123,1123,1119,1119,1115,1115,1112,1112,1108,1108,1108,1108,1105,1105,1105,1101,1101,1097,1094,1094,1094,1094,1090,1090,1090,1090,1090,1087,1084,1080,1080,1080,1077,1077,1077,1073,1073,1073,1070,1067,1067,1063,1063,1063,1063,1060,1060,1060,1057,1057,1054,1054,1054,1050,1050,1050,1047,1047,1044,1044,1041,1041,0,0,0,0,0,0,0,0,0,0,0,0,0,0,0,0,0,0,0,0,0,0,0,0,0,0,0,0,0,0,0,0
0,0,0,0,0,0,0,0,0,0,0,0,0,0,1804,1804,1804,1804,1804,1804,1804,1804,1804,1794,1794,1794,1794,1794,1794,1804,1804,1804,1794,1794,1794,1794,1794,1794,1794,1794,1785,1785,1785,1785,1794,1794,1794,1794,1794,1794,1785,1785,1785,1785,1776,1776,1776,1776,1776,1776,1776,1776,1766,1766,1766,1776,1776,1766,1766,1766,1766,1766,1766,1757,1757,1757,1757,1766,1757,1757,1757,1757,1757,1757,1757,1757,1748,1748,1748,1748,1748,1739,1739,1739,1739,1739,1739,1739,1739,1739,1739,1731,1731,1731,1731,1731,1731,1731,1722,1722,1722,1722,1722,1722,1731,1731,1731,1731,1739,1748,1748,1748,1748,1757,1904,1894,1894,1883,1883,1883,1883,1883,1883,1883,1883,1883,1873,1863,1853,1853,1843,1757,1748,1739,1731,1731,1731,1731,1731,1731,1731,1731,1731,1739,1739,1739,1748,1757,1757,1757,1757,1766,1766,1766,1766,1766,1766,1776,1776,1776,1785,1785,1785,1794,1794,1794,1794,1804,1804,1813,1813,1823,1823,1813,1813,1813,0,0,0,0,0,0,1138,1134,1134,1134,1130,1130,1130,1126,1126,1126,1130,1130,1130,1130,1130,1134,1134,1134,1138,1141,1141,1145,1145,1145,1145,1145,0,0,0,0,1936,1936,1947,1947,1947,1947,1947,1959,1959,1959,1959,1959,1959,1959,1959,1947,1936,1936,1926,1915,1915,1915,1915,1904,1904,1894,1883,1883,1883,1883,1883,1873,1873,1863,1863,1853,1853,1843,1843,1843,1843,1833,1833,1823,1823,1813,1813,1804,1804,1794,1794,1785,1785,1776,1766,1766,1766,1766,1766,0,0,0,0,0,0,0,0,923,920,918,915,915,913,913,910,908,906,906,903,903,903,903,903,903,906,906,910,913,915,918,918,918,920,923,923,923,925,925,0,0,0,0,0,0,1609,1609,1609,1609,1601,1601,1594,1586,1586,1579,1579,1572,1572,1572,1564,1564,1557,1550,1550,1550,1543,1543,1543,1543,1536,1529,1529,1523,1523,1523,1516,1516,1516,1509,1503,1503,1496,1496,1496,1489,1489,1489,1483,1483,1477,1477,1470,1470,1464,1464,1464,1458,1458,1452,1452,1445,1445,1445,1445,1439,1439,1433,1433,1427,1421,1421,1421,1421,1415,1415,1415,1415,1410,1404,1404,1398,1398,1398,1398,1392,1392,1392,1392,1387,1387,1381,1376,1370,1370,1365,1365,1365,1359,1359,1359,1354,1354,1354,1349,1349,1349,1349,1343,1343,1338,1338,1333,1333,1333,1328,1328,1322,1322,1317,1312,1312,1312,1312,1307,1307,1307,1302,1302,1302,1297,1292,1292,1288,1288,1288,1288,1283,1283,1278,1273,1273,1273,1273,1268,1268,1268,1264,1259,1259,1255,1255,1255,1250,1250,1250,1245,1241,1241,1236,1236,1236,1232,1232,1232,1227,1227,1223,1219,1219,1219,1219,1214,1214,1214,1210,1210,1206,1202,1202,1202,1197,1197,1197,1193,1193,1193,1189,1189,1185,1185,1181,1181,1177,1177,1177,1173,1169,1169,1169,1165,1165,1165,1161,1161,1161,1157,1153,1153,1153,1149,1149,1145,1145,1141,1141,1138,1138,1134,1134,1134,1134,1134,1130,1126,1123,1123,1123,1123,1119,1119,1115,1115,1112,1108,1108,1108,1108,1105,1105,1105,1101,1101,1097,1097,1094,1094,1094,1094,1090,1090,1090,1090,1087,1084,1080,1080,1080,1080,1077,1077,1073,1073,1073,1070,1067,1067,1067,1063,1063,1063,1063,1060,1060,1060,1057,1057,1054,1054,1054,1050,1050,1050,1047,1044,1044,1041,1041,0,0,0,0,0,0,0,0,0,0,0,0,0,0,0,0,0,0,0,0,0,0,0,0,0,0,0,0,0,0,0,0
0,0,0,0,0,0,0,0,0,0,0,0,0,0,1804,1804,1813,1813,1813,1804,1804,1804,1804,1804,1794,1794,1794,1794,1804,1804,1804,1804,1794,1794,1794,1794,1794,1794,1794,1794,1794,1794,1794,1794,1794,1794,1794,1794,1794,1794,1785,1785,1785,1785,1776,1776,1776,1776,1776,1776,1776,1776,1776,1776,1776,1776,1776,1776,1766,1766,1766,1766,1766,1766,1766,1766,1766,1766,1757,1757,1757,1757,1757,1757,1757,1757,1757,1757,1748,1748,1748,1739,1739,1739,1739,1739,1739,1739,1739,1739,1739,1731,1731,1731,1731,1731,1731,1731,1731,1731,1722,1722,1722,1722,1731,1731,1731,1731,1739,1748,1748,1748,1757,1757,1883,1883,1883,1883,1883,1883,1883,1883,1883,1883,1883,1883,1873,1863,1863,1853,1853,1766,1748,1739,1739,1731,1731,1731,1731,1731,1731,1731,1731,1739,1739,1739,1748,1757,1757,1757,1757,1766,1766,1766,1766,1766,1766,1776,1776,1776,1785,1785,1785,1794,1794,1794,1794,1804,1804,1813,1813,1823,1813,1813,1813,1813,0,0,0,0,0,0,1138,1134,1134,1134,1130,1130,1130,1130,1130,1130,1130,1130,1130,1130,1134,1134,1134,1134,1138,1141,1145,1145,1145,1145,1145,1145,0,0,0,0,0,1947,1947,1947,1947,1947,1947,1959,1970,1970,1959,1959,1959,1959,1959,1947,1936,1936,1926,1915,1915,1915,1915,1915,1904,1904,1894,1894,1883,1883,1883,1873,1873,1873,1863,1853,1853,1843,1843,1843,1843,1833,1833,1823,1823,1813,1813,1804,1804,1794,1794,1785,1785,1776,1776,1776,1776,1776,1776,1785,0,0,0,0,0,0,915,915,920,918,915,915,913,913,910,908,906,906,903,903,903,903,903,906,906,906,910,913,915,918,918,920,920,923,923,923,925,925,0,0,0,0,0,0,1616,1609,1609,1609,1601,1601,1594,1586,1586,1579,1579,1572,1572,1572,1564,1564,1557,1550,1550,1550,1543,1543,1543,1543,1536,1529,1529,1523,1523,1523,1516,1516,1516,1509,1503,1503,1496,1496,1496,1489,1489,1489,1483,1483,1477,1477,1470,1470,1464,1464,1464,1464,1458,1458,1458,1452,1445,1445,1445,1439,1439,1439,1433,1427,1427,1421,1421,1421,1415,1415,1415,1415,1410,1404,1404,1398,1398,1398,1398,1392,1392,1392,1392,1387,1387,1376,1376,1370,1370,1370,1370,1365,1365,1359,1359,1354,1354,1354,1349,1349,1349,1349,1343,1343,1343,1338,1333,1333,1333,1328,1328,1328,1322,1317,1312,1312,1312,1312,1307,1307,1307,1307,1307,1302,1297,1297,1292,1292,1288,1288,1288,1288,1283,1283,1278,1278,1273,1273,1273,1268,1268,1264,1264,1259,1255,1255,1255,1255,1250,1250,1245,1241,1241,1236,1236,1236,1232,1232,1232,1227,1227,1223,1223,1219,1219,1219,1214,1214,1214,1214,1210,1206,1206,1202,1202,1197,1197,1197,1197,1193,1193,1189,1189,1189,1185,1185,1181,1181,1177,1177,1173,1173,1169,1169,1169,1165,1165,1161,1161,1161,1157,1153,1153,1153,1153,1149,1149,1145,1145,1141,1138,1138,1134,1134,1134,1134,1134,1130,1126,1123,1123,1123,1123,1119,1119,1115,1115,1112,1108,1108,1108,1108,1108,1105,1105,1101,1101,1097,1097,1094,1094,1094,1094,1094,1090,1090,1090,1087,1084,1080,1080,1080,1080,1077,1077,1073,1073,1073,1070,1067,1067,1067,1063,1063,1063,1063,1060,1060,1060,1057,1057,1054,1054,1054,1050,1050,1050,1047,1044,1041,1041,1041,0,0,0,0,0,0,0,0,0,0,0,0,0,0,0,0,0,0,0,0,0,0,0,0,0,0,0,0,0,0,0,0
0,0,0,0,0,0,0,0,0,0,0,0,0,0,1813,1813,1813,1813,1813,1813,1813,1804,1804,1804,1804,1804,1804,1804,1804,1804,1804,1804,1804,1804,1794,1794,1794,1794,1794,1794,1794,1794,1794,1794,1794,1794,1794,1794,1794,1785,1785,1785,1794,1785,1785,1785,1785,1785,1785,1785,1776,1776,1776,1776,1776,1776,1776,1776,1776,1776,1776,1766,1766,1766,1766,1766,1766,1766,1766,1757,1757,1757,1757,1757,1757,1757,1757,1757,1757,1748,1748,1748,1739,1739,1739,1739,1739,1739,1739,1739,1739,1731,1731,1731,1731,1731,1731,1731,1731,1731,1722,1722,1722,1722,1731,1731,1731,1731,1739,1748,1757,1757,1757,1757,1883,1873,1873,1883,1883,1883,1883,1883,1883,1883,1883,1883,1873,1873,1873,1863,1863,1863,1748,1739,1739,1731,1731,1731,1731,1731,1731,1731,1739,1739,1739,1739,1748,1757,1757,1766,1766,1766,1766,1776,1766,1766,1766,1776,1776,1785,1785,1785,1794,1794,1794,1804,1804,1804,1804,1813,1813,1823,1813,1813,1813,1813,0,0,0,0,0,0,1138,1134,1134,1134,1130,1130,1130,1130,1130,1130,1130,1130,1130,1130,1134,1134,1134,1138,1141,1141,1145,1145,1145,1145,1145,1145,0,0,0,0,0,1947,1947,1936,1936,1936,1959,1959,1970,1970,1959,1959,1959,1959,1959,1947,1947,1936,1926,1915,1915,1915,1915,1915,1904,1904,1894,1894,1894,1883,1883,1873,1873,1873,1863,1863,1853,1853,1843,1843,1843,1833,1833,1833,1823,1823,1813,1804,1804,1794,1794,1794,1785,1785,1776,1776,1776,1776,1776,1776,0,0,0,0,0,0,915,915,920,918,915,915,915,913,910,908,906,906,903,903,903,903,903,906,906,908,910,913,915,918,918,920,920,923,923,923,925,928,0,0,0,0,0,0,1609,1609,1609,1609,1601,1601,1594,1586,1586,1579,1579,1572,1572,1572,1564,1564,1557,1557,1550,1550,1543,1543,1543,1543,1536,1529,1529,1523,1523,1523,1523,1516,1516,1509,1509,1503,1496,1496,1496,1496,1489,1489,1489,1483,1483,1477,1470,1470,1470,1464,1464,1464,1464,1458,1458,1452,1452,1445,1445,1439,1439,1439,1433,1433,1427,1421,1421,1421,1421,1415,1415,1415,1410,1410,1404,1404,1398,1398,1398,1392,1392,1392,1392,1387,1381,1376,1376,1370,1370,1370,1370,1370,1365,1359,1359,1354,1354,1354,1349,1349,1349,1349,1343,1343,1343,1338,1338,1338,1333,1328,1328,1328,1322,1317,1312,1312,1312,1312,1307,1307,1307,1307,1307,1302,1297,1297,1297,1292,1292,1288,1288,1288,1283,1283,1278,1278,1273,1273,1273,1273,1268,1264,1264,1259,1259,1255,1255,1255,1250,1250,1245,1245,1241,1241,1236,1236,1236,1232,1232,1232,1227,1227,1223,1223,1219,1219,1219,1214,1214,1214,1210,1206,1206,1202,1202,1197,1197,1197,1197,1193,1193,1193,1193,1189,1189,1185,1181,1181,1181,1177,1177,1173,1173,1169,1169,1169,1165,1165,1165,1165,1157,1157,1153,1153,1153,1149,1149,1145,1145,1141,1138,1138,1138,1134,1134,1134,1134,1130,1126,1126,1123,1123,1123,1119,1119,1115,1115,1112,1108,1108,1108,1108,1108,1105,1105,1101,1101,1097,1097,1094,1094,1094,1094,1094,1090,1090,1090,1087,1084,1080,1080,1080,1080,1077,1077,1077,1073,1073,1073,1070,1067,1067,1067,1067,1063,1063,1063,1060,1060,1060,1057,1054,1054,1054,1050,1050,1047,1047,1044,1041,1041,1041,0,0,0,0,0,0,0,0,0,0,0,0,0,0,0,0,0,0,0,0,0,0,0,0,0,0,0,0,0,0,0,0
0,0,0,0,0,0,0,0,0,0,0,0,0,0,1813,1813,1813,1813,1813,1813,1813,1804,1804,1804,1804,1804,1804,1804,1804,1804,1804,1804,1804,1804,1804,1794,1794,1794,1794,1794,1794,1794,1794,1794,1794,1794,1794,1794,1794,1785,1785,1794,1794,1785,1785,1785,1785,1785,1785,1785,1785,1785,1785,1785,1785,1785,1785,1785,1776,1776,1776,1776,1766,1766,1766,1766,1766,1766,1766,1766,1757,1757,1757,1757,1757,1757,1757,1757,1757,1748,1748,1748,1748,1748,1748,1739,1739,1739,1739,1739,1739,1731,1731,1731,1731,1731,1731,1731,1731,1731,1722,1722,1722,1722,1731,1731,1731,1731,1739,1748,1757,1757,1757,1757,1873,1873,1873,1873,1873,1873,1883,1883,1883,1883,1883,1883,1883,1873,1873,1873,1863,1863,1748,1739,1739,1739,1731,1731,1731,1731,1731,1731,1739,1739,1739,1748,1748,1757,1757,1766,1766,1766,1766,1766,1766,1766,1766,1776,1776,1785,1785,1785,1794,1794,1794,1804,1804,1804,1804,1813,1813,1823,1823,1823,1813,1813,0,0,0,0,0,1141,1138,1134,1134,1134,1130,1130,1126,1126,1126,1130,1130,1130,1130,1130,1134,1134,1134,1138,1141,1141,1145,1145,1145,1145,1149,1149,0,0,0,0,0,1947,1947,1936,1936,1936,1959,1959,1970,1970,1959,1959,1959,1959,1959,1947,1947,1936,1926,1926,1915,1915,1915,1915,1904,1904,1904,1894,1894,1894,1883,1883,1873,1873,1863,1863,1853,1853,1853,1843,1843,1843,1833,1833,1823,1823,1813,1804,1804,1804,1794,1794,1785,1785,1785,1776,1776,1776,1776,1776,0,0,0,0,0,0,0,920,920,918,918,915,915,913,910,910,908,906,906,903,903,903,906,906,906,906,910,913,915,918,918,920,923,923,925,925,928,928,0,0,0,0,0,1616,1609,1609,1609,1609,1601,1601,1594,1586,1579,1579,1579,1572,1572,1572,1564,1564,1564,1557,1550,1550,1543,1543,1543,1543,1536,1529,1529,1523,1523,1523,1523,1516,1516,1509,1509,1503,1496,1496,1496,1496,1489,1489,1489,1489,1483,1477,1470,1470,1470,1470,1464,1464,1464,1464,1458,1458,1452,1445,1445,1439,1439,1439,1433,1433,1427,1427,1421,1421,1421,1415,1415,1415,1410,1410,1404,1404,1398,1398,1398,1392,1392,1392,1392,1387,1381,1376,1376,1376,1370,1370,1370,1370,1365,1365,1359,1359,1354,1354,1354,1349,1349,1349,1349,1343,1343,1343,1338,1338,1333,1333,1328,1328,1322,1317,1317,1312,1312,1312,1307,1307,1307,1307,1307,1302,1297,1297,1297,1292,1292,1288,1288,1288,1288,1283,1283,1278,1273,1273,1273,1273,1268,1268,1264,1264,1259,1255,1255,1255,1255,1250,1250,1245,1245,1241,1236,1236,1236,1232,1232,1232,1227,1227,1227,1223,1219,1219,1219,1219,1214,1214,1210,1210,1206,1206,1202,1202,1202,1197,1197,1197,1197,1193,1193,1189,1185,1185,1181,1181,1181,1181,1177,1173,1173,1169,1169,1169,1165,1165,1165,1165,1161,1157,1157,1153,1153,1149,1149,1145,1145,1141,1138,1138,1138,1134,1134,1134,1134,1130,1130,1126,1123,1123,1123,1119,1119,1119,1115,1112,1112,1108,1108,1108,1108,1105,1105,1105,1105,1101,1097,1097,1094,1094,1094,1094,1094,1090,1090,1090,1087,1084,1084,1080,1080,1080,1077,1077,1073,1073,1073,1070,1067,1067,1067,1067,1063,1063,1063,1060,1060,1060,1057,1057,1054,1054,1050,1050,1047,1047,1044,1041,1041,1041,0,0,0,0,0,0,0,0,0,0,0,0,0,0,0,0,0,0,0,0,0,0,0,0,0,0,0,0,0,0,0,0
0,0,0,0,0,0,0,0,0,0,0,0,0,0,1823,1823,1823,1813,1813,1813,1813,1813,1813,1804,1804,1804,1804,1804,1804,1804,1804,1804,1804,1804,1804,1794,1794,1794,1794,1794,1794,1794,1794,1794,1794,1794,1794,1794,1794,1794,1794,1794,1794,1785,1785,1785,1785,1785,1785,1785,1785,1785,1785,1785,1785,1785,1785,1785,1785,1776,1776,1776,1776,1776,1766,1766,1766,1766,1766,1766,1757,1757,1757,1757,1757,1757,1757,1757,1757,1748,1748,1748,1748,1748,1748,1748,1748,1748,1739,1739,1739,1731,1731,1731,1731,1731,1731,1731,1731,1731,1731,1731,1731,1731,1731,1731,1731,1731,1739,1748,1757,1757,1757,1757,1863,1873,1873,1873,1873,1873,1873,1883,1883,1883,1883,1883,1883,1883,1873,1873,1863,1863,1757,1748,1739,1739,1739,1731,1731,1731,1731,1731,1739,1739,1739,1748,1748,1757,1757,1766,1766,1766,1766,1766,1766,1766,1766,1776,1776,1785,1785,1794,1794,1794,1794,1804,1804,1804,1804,1813,1813,1823,1823,1823,1813,1813,0,0,0,0,0,1141,1138,1134,1134,1134,1130,1130,1126,1126,1126,1130,1130,1130,1130,1130,1134,1134,1134,1138,1141,1141,1145,1145,1145,1149,1149,1149,1149,0,0,0,0,1947,1947,1947,1936,1936,1959,1959,1959,1970,1970,1970,1959,1959,1959,1959,1947,1947,1936,1926,1926,1915,1915,1915,1915,1904,1904,1904,1904,1894,1883,1883,1873,1873,1863,1863,1863,1853,1853,1843,1843,1843,1833,1833,1833,1833,1813,1813,1804,1804,1794,1794,1794,1785,1785,1776,1776,1776,1776,1776,0,0,0,0,0,0,0,920,920,918,918,915,915,913,913,910,908,906,906,906,906,906,906,906,906,906,910,913,915,918,920,920,923,923,925,925,928,0,0,0,0,0,0,1616,1616,1609,1609,1609,1609,1601,1594,1586,1579,1579,1579,1572,1572,1572,1564,1564,1564,1557,1557,1550,1543,1543,1543,1543,1536,1529,1529,1523,1523,1523,1523,1516,1516,1516,1509,1503,1503,1503,1496,1496,1489,1489,1489,1489,1483,1477,1477,1470,1470,1470,1470,1464,1464,1464,1464,1458,1452,1452,1445,1439,1439,1439,1433,1433,1427,1427,1421,1421,1421,1421,1415,1415,1410,1410,1404,1404,1404,1398,1398,1398,1392,1392,1392,1387,1381,1376,1376,1376,1370,1370,1370,1370,1370,1365,1365,1359,1359,1354,1349,1349,1349,1349,1343,1343,1343,1343,1338,1338,1333,1333,1328,1328,1322,1322,1317,1317,1312,1312,1307,1307,1307,1307,1307,1302,1302,1302,1297,1292,1292,1292,1288,1288,1288,1288,1283,1278,1278,1273,1273,1273,1268,1268,1264,1264,1259,1259,1255,1255,1255,1250,1250,1245,1245,1241,1236,1236,1236,1232,1232,1232,1232,1227,1227,1223,1223,1219,1219,1219,1219,1214,1210,1210,1206,1206,1202,1202,1202,1197,1197,1197,1197,1193,1193,1189,1185,1185,1185,1181,1181,1181,1177,1173,1173,1169,1169,1169,1169,1165,1165,1165,1161,1157,1157,1153,1153,1153,1149,1149,1145,1145,1138,1138,1138,1138,1134,1134,1134,1130,1130,1126,1123,1123,1123,1119,1119,1119,1115,1115,1112,1108,1108,1108,1108,1108,1108,1105,1105,1101,1101,1097,1097,1094,1094,1094,1094,1094,1090,1090,1087,1084,1084,1080,1080,1080,1077,1077,1073,1073,1073,1070,1067,1067,1067,1067,1063,1063,1063,1063,1063,1060,1060,1057,1054,1054,1050,1050,1050,1047,1044,1044,1041,1041,0,0,0,0,0,0,0,0,0,0,0,0,0,0,0,0,0,0,0,0,0,0,0,0,0,0,0,0,0,0,0,0
0,0,0,0,0,0,0,0,0,0,0,0,0,0,1823,1823,1823,1823,1823,1823,1813,1813,1813,1813,1813,1813,1813,1813,1804,1804,1804,1804,1804,1804,1804,1804,1804,1794,1794,1794,1794,1794,1794,1794,1794,1794,1794,1794,1794,1794,1794,1794,1794,1785,1785,1785,1785,1785,1785,1785,1785,1785,1785,1785,1785,1785,1785,1785,1776,1776,1776,1776,1776,1776,1766,1766,1766,1766,1766,1766,1766,1766,1766,1757,1757,1757,1757,1757,1757,1748,1748,1748,1748,1748,1748,1748,1748,1748,1739,1739,1739,1731,1731,1731,1731,1731,1731,1731,1731,1731,1731,1731,1731,1731,1731,1731,1731,1731,1739,1748,1757,1757,1757,1757,1863,1873,1873,1873,1873,1873,1873,1883,1883,1883,1883,1883,1883,1883,1883,1873,1863,1863,1776,1766,1748,1739,1739,1731,1731,1731,1731,1739,1739,1739,1739,1748,1757,1757,1757,1766,1766,1766,1766,1766,1766,1766,1766,1776,1785,1785,1785,1794,1794,1794,1794,1804,1804,1804,1813,1813,1823,1823,1823,1823,1813,1813,0,0,0,0,0,1141,1141,1138,1134,1134,1130,1130,1130,1126,1126,1130,1130,1130,1130,1130,1134,1134,1138,1138,1141,1141,1145,1145,1145,1149,1149,1149,1149,0,0,0,0,0,1947,1947,1947,1947,1959,1959,1959,1970,1970,1970,1959,1959,1959,1959,1947,1947,1936,1926,1926,1915,1915,1915,1915,1915,1904,1904,1904,1894,1883,1883,1873,1873,1873,1863,1863,1853,1853,1843,1843,1843,1833,1833,1833,1833,1823,1813,1804,1804,1804,1794,1794,1794,1785,1785,1776,1776,1776,0,0,0,0,0,0,0,0,923,923,920,918,915,915,913,913,910,908,908,906,906,906,906,906,906,906,908,910,915,918,918,920,920,923,925,925,925,928,0,0,0,0,0,0,1616,1616,1616,1609,1609,1609,1601,1594,1594,1586,1579,1579,1572,1572,1572,1564,1564,1564,1557,1550,1550,1550,1543,1543,1543,1536,1536,1536,1529,1529,1523,1523,1523,1516,1516,1509,1503,1503,1503,1496,1496,1496,1489,1489,1489,1483,1483,1477,1470,1470,1470,1470,1464,1464,1464,1464,1458,1458,1445,1445,1445,1439,1439,1433,1433,1433,1427,1427,1421,1421,1421,1415,1415,1415,1410,1410,1404,1404,1398,1398,1398,1392,1392,1392,1387,1381,1376,1376,1376,1376,1370,1370,1370,1370,1370,1365,1359,1359,1354,1349,1349,1349,1349,1343,1343,1343,1343,1343,1338,1333,1333,1333,1328,1328,1322,1322,1317,1317,1312,1312,1312,1307,1307,1307,1307,1302,1302,1297,1292,1292,1292,1292,1288,1288,1288,1283,1283,1278,1278,1278,1273,1268,1268,1268,1264,1264,1259,1255,1255,1255,1250,1250,1245,1245,1241,1236,1236,1236,1232,1232,1232,1232,1232,1227,1223,1223,1223,1219,1219,1214,1214,1210,1210,1206,1206,1202,1202,1202,1197,1197,1197,1197,1197,1193,1193,1189,1185,1185,1181,1181,1181,1177,1173,1173,1169,1169,1169,1169,1165,1165,1161,1161,1157,1157,1153,1153,1153,1149,1149,1149,1145,1141,1138,1138,1138,1134,1134,1134,1130,1130,1126,1123,1123,1123,1119,1119,1119,1115,1115,1112,1112,1108,1108,1108,1108,1108,1105,1105,1101,1101,1097,1097,1094,1094,1094,1094,1094,1090,1090,1087,1087,1084,1080,1080,1080,1077,1077,1073,1073,1073,1070,1067,1067,1067,1067,1063,1063,1063,1063,1063,1063,1060,1057,1054,1054,1050,1050,1050,1050,1047,1044,1044,1044,0,0,0,0,0,0,0,0,0,0,0,0,0,0,0,0,0,0,0,0,0,0,0,0,0,0,0,0,0,0,0,0
0,0,0,0,0,0,0,0,0,0,0,0,0,0,1823,1823,1823,1823,1823,1823,1813,1813,1813,1813,1813,1813,1813,1813,1804,1804,1804,1804,1804,1804,1804,1804,1804,1804,1804,1794,1794,1794,1794,1794,1794,1794,1794,1794,1794,1794,1794,1794,1794,1785,1785,1785,1785,1785,1785,1785,1785,1785,1785,1785,1785,1785,1785,1776,1776,1776,1776,1776,1776,1776,1766,1766,1766,1766,1766,1766,1766,1766,1766,1766,1757,1757,1757,1757,1757,1748,1748,1748,1748,1748,1748,1748,1748,1748,1748,1739,1739,1731,1731,1731,1731,1731,1731,1731,1731,1731,1731,1731,1731,1731,1731,1739,1739,1739,1739,1748,1757,1757,1757,1757,1757,1863,1863,1873,1873,1873,1883,1883,1883,1883,1883,1883,1883,1883,1883,1873,1873,1863,1794,1766,1757,1757,1748,1739,1731,1731,1731,1739,1739,1739,1748,1748,1757,1757,1757,1766,1766,1766,1766,1766,1766,1766,1766,1776,1785,1785,1785,1794,1794,1794,1794,1804,1804,1804,1813,1813,1823,1823,1823,1823,1813,1813,0,0,0,0,0,1145,1145,1141,1138,1134,1130,1130,1130,1130,1130,1130,1130,1130,1130,1134,1134,1134,1138,1138,1141,1141,1145,1145,1149,1149,1149,1149,1153,0,0,0,0,1959,1947,1947,1947,1947,1959,1959,1970,1970,1970,1970,1970,1959,1959,1959,1947,1947,1936,1926,1926,1926,1915,1915,1915,1915,1904,1904,1904,1894,1883,1883,1883,1873,1873,1873,1863,1853,1853,1843,1843,1843,1833,1833,1833,1823,1823,1813,1813,1804,1804,1804,1804,1794,1794,1785,1785,1776,1776,0,0,0,0,0,0,0,0,923,923,920,918,915,915,913,913,910,908,908,906,906,906,906,906,906,906,908,910,915,918,918,920,920,923,925,925,928,928,0,0,0,0,0,0,1616,1616,1616,1609,1609,1609,1601,1601,1594,1586,1579,1579,1572,1572,1572,1564,1564,1564,1564,1550,1550,1550,1543,1543,1543,1536,1536,1536,1529,1529,1523,1523,1523,1516,1516,1509,1509,1503,1503,1496,1496,1496,1489,1489,1489,1483,1483,1477,1477,1470,1470,1470,1464,1464,1464,1464,1458,1458,1445,1445,1445,1439,1439,1439,1433,1433,1427,1427,1421,1421,1421,1421,1415,1415,1415,1410,1410,1404,1404,1398,1398,1392,1392,1392,1392,1381,1381,1376,1376,1376,1370,1370,1370,1370,1370,1365,1365,1359,1359,1354,1349,1349,1349,1349,1343,1343,1343,1343,1338,1338,1333,1333,1328,1328,1322,1322,1317,1317,1312,1312,1312,1307,1307,1307,1307,1307,1302,1302,1297,1292,1292,1292,1288,1288,1288,1283,1283,1283,1283,1278,1273,1273,1268,1268,1264,1264,1259,1259,1255,1255,1255,1250,1245,1245,1245,1236,1236,1236,1236,1236,1232,1232,1232,1227,1227,1223,1223,1219,1219,1214,1214,1210,1210,1206,1206,1206,1202,1202,1202,1197,1197,1197,1193,1193,1189,1185,1185,1185,1181,1181,1181,1181,1177,1173,1169,1169,1169,1169,1165,1165,1161,1161,1157,1157,1153,1153,1153,1149,1149,1149,1145,1141,1141,1138,1138,1134,1134,1134,1130,1130,1126,1123,1123,1123,1119,1119,1119,1119,1115,1112,1112,1112,1108,1108,1108,1108,1105,1105,1105,1101,1101,1097,1097,1094,1094,1094,1094,1090,1090,1087,1087,1084,1080,1080,1080,1077,1077,1077,1073,1073,1073,1070,1067,1067,1067,1067,1063,1063,1063,1063,1063,1060,1057,1057,1054,1050,1050,1050,1050,1047,1047,1044,1044,0,0,0,0,0,0,0,0,0,0,0,0,0,0,0,0,0,0,0,0,0,0,0,0,0,0,0,0,0,0,0,0
0,0,0,0,0,0,0,0,0,0,0,0,0,1823,1823,1823,1823,1823,1823,1823,1813,1813,1813,1813,1813,1823,1813,1813,1813,1813,1813,1813,1813,1804,1804,1804,1804,1804,1804,1794,1794,1794,1794,1804,1794,1794,1794,1794,1794,1794,1794,1794,1794,1785,1785,1785,1785,1785,1785,1785,1785,1794,1794,1785,1785,1785,1785,1776,1776,1776,1776,1776,1776,1776,1766,1766,1766,1766,1766,1766,1766,1766,1766,1766,1766,1766,1757,1757,1757,1748,1748,1748,1748,1748,1748,1748,1748,1748,1748,1748,1739,1739,1739,1731,1731,1731,1731,1731,1731,1731,1731,1731,1739,1739,1739,1739,1739,1739,1739,1748,1757,1757,1757,1757,1757,1863,1863,1873,1873,1873,1883,1883,1883,1883,1883,1883,1883,1883,1883,1873,1873,1863,1794,1766,1757,1748,1739,1739,1739,1739,1739,1739,1739,1739,1748,1748,1757,1757,1757,1757,1757,1766,1766,1766,1766,1766,1766,1776,1785,1785,1785,1794,1794,1794,1794,1804,1804,1804,1813,1813,1823,1823,1813,1813,1804,1804,0,0,0,0,0,1145,1145,1141,1138,1134,1130,1130,1130,1130,1130,1130,1130,1130,1130,1134,1134,1138,1138,1141,1141,1145,1145,1149,1149,1149,1149,1153,0,0,0,0,0,1959,1959,1947,1947,1959,1959,1959,1970,1970,1970,1970,1970,1970,1959,1959,1959,1947,1947,1936,1926,1926,1926,1915,1915,1915,1915,1904,1904,1904,1894,1883,1883,1873,1873,1873,1863,1853,1853,1843,1843,1843,1833,1833,1833,1823,1823,1813,1813,1813,1804,1804,1804,1794,1794,1794,1785,1785,1785,0,0,0,0,0,0,0,0,923,923,923,918,918,915,915,913,910,908,908,906,906,906,906,906,906,906,908,913,915,918,920,920,923,923,925,925,928,928,0,0,0,0,0,0,1609,1609,1609,1609,1609,1609,1601,1601,1594,1586,1579,1579,1572,1572,1572,1572,1564,1564,1564,1557,1550,1550,1550,1543,1543,1543,1536,1536,1536,1529,1529,1523,1523,1516,1516,1516,1509,1509,1503,1496,1496,1496,1489,1489,1489,1483,1483,1477,1477,1470,1470,1470,1470,1464,1464,1464,1458,1458,1445,1445,1445,1439,1439,1439,1433,1433,1433,1427,1427,1421,1421,1421,1415,1415,1415,1415,1410,1410,1404,1404,1398,1398,1392,1392,1392,1387,1381,1376,1376,1376,1376,1370,1370,1370,1370,1365,1365,1365,1359,1354,1354,1349,1349,1349,1349,1343,1343,1343,1343,1338,1333,1333,1328,1328,1328,1322,1322,1317,1312,1312,1312,1312,1312,1312,1307,1307,1307,1302,1297,1292,1292,1292,1288,1288,1288,1288,1288,1283,1283,1278,1278,1273,1268,1268,1264,1264,1264,1259,1255,1255,1255,1250,1250,1245,1245,1236,1236,1236,1236,1236,1232,1232,1232,1232,1227,1223,1223,1219,1219,1219,1214,1210,1210,1206,1206,1206,1202,1202,1202,1197,1197,1197,1193,1193,1189,1185,1185,1185,1181,1181,1181,1181,1177,1173,1169,1169,1169,1169,1165,1165,1161,1161,1161,1157,1153,1153,1149,1149,1149,1149,1145,1141,1141,1138,1138,1138,1134,1134,1134,1130,1126,1123,1123,1123,1123,1119,1119,1119,1115,1112,1112,1112,1108,1108,1108,1108,1105,1105,1105,1101,1101,1097,1097,1097,1094,1094,1094,1090,1090,1087,1087,1084,1080,1080,1080,1077,1077,1077,1073,1073,1073,1070,1070,1070,1067,1067,1067,1063,1063,1063,1063,1060,1057,1057,1054,1054,1054,1050,1050,1050,1047,1047,1047,0,0,0,0,0,0,0,0,0,0,0,0,0,0,0,0,0,0,0,0,0,0,0,0,0,0,0,0,0,0,0,0
0,0,0,0,0,0,0,0,0,0,0,0,0,1823,1823,1823,1823,1823,1823,1823,1813,1813,1813,1813,1813,1823,1823,1823,1813,1813,1823,1823,1813,1804,1804,1804,1804,1804,1804,1804,1804,1804,1804,1804,1804,1794,1794,1794,1794,1794,1794,1794,1794,1785,1785,1785,1785,1785,1785,1794,1794,1794,1794,1794,1794,1785,1785,1785,1785,1776,1776,1776,1776,1776,1766,1766,1766,1766,1766,1766,1766,1766,1766,1766,1766,1766,1757,1757,1757,1748,1748,1757,1748,1748,1748,1748,1748,1748,1757,1748,1748,1739,1739,1739,1739,1739,1731,1731,1739,1739,1739,1739,1739,1739,1739,1739,1739,1739,1739,1748,1757,1757,1757,1757,1757,1766,1863,1873,1883,1883,1883,1883,1883,1883,1883,1883,1883,1883,1883,1873,1873,1863,1863,1766,1757,1748,1739,1739,1739,1739,1739,1748,1748,1748,1748,1757,1757,1757,1757,1757,1757,1766,1766,1766,1766,1766,1766,1776,1785,1785,1794,1794,1794,1794,1804,1804,1804,1804,1813,1813,1823,1823,1813,1813,1804,1804,0,0,0,0,0,1145,1145,1141,1138,1134,1134,1130,1130,1130,1130,1130,1130,1130,1130,1134,1134,1138,1138,1141,1141,1145,1149,1149,1149,1149,1149,1153,0,0,0,0,0,1959,1959,1947,1947,1959,1959,1959,1959,1970,1970,1970,1970,1970,1970,1959,1959,1959,1947,1936,1926,1926,1926,1915,1915,1915,1915,1915,1915,1904,1894,1883,1883,1873,1873,1873,1863,1863,1853,1843,1843,1843,1843,1833,1833,1833,1833,1823,1813,1813,1813,1804,1804,1804,1804,1794,1794,1785,1785,0,0,0,0,0,0,0,0,925,925,925,923,918,915,915,913,913,910,908,906,906,906,906,906,906,908,908,913,918,918,920,920,923,925,925,925,928,928,0,0,0,0,0,0,1609,1609,1609,1609,1609,1609,1601,1601,1594,1586,1586,1579,1579,1579,1572,1572,1572,1564,1564,1557,1550,1550,1550,1543,1543,1543,1543,1536,1536,1536,1529,1529,1523,1516,1516,1516,1509,1509,1503,1496,1496,1496,1496,1489,1489,1483,1483,1477,1477,1470,1470,1470,1470,1464,1464,1464,1464,1458,1452,1445,1445,1445,1439,1439,1439,1433,1433,1427,1427,1427,1421,1421,1415,1415,1415,1415,1410,1410,1404,1404,1398,1398,1392,1392,1392,1392,1381,1381,1376,1376,1376,1376,1370,1370,1370,1370,1365,1365,1359,1354,1354,1354,1349,1349,1349,1349,1349,1349,1343,1338,1333,1333,1333,1328,1328,1328,1322,1322,1317,1312,1312,1312,1312,1312,1307,1307,1307,1302,1297,1297,1292,1292,1288,1288,1288,1288,1288,1283,1283,1278,1278,1273,1268,1268,1264,1264,1264,1259,1255,1255,1255,1250,1250,1250,1245,1236,1236,1236,1236,1236,1232,1232,1232,1232,1227,1227,1223,1223,1219,1219,1214,1214,1210,1210,1206,1206,1202,1202,1202,1197,1197,1197,1197,1193,1185,1185,1185,1185,1181,1181,1181,1181,1177,1173,1169,1169,1169,1169,1165,1165,1161,1161,1161,1157,1153,1153,1149,1149,1149,1149,1145,1145,1141,1141,1138,1138,1134,1134,1134,1130,1126,1126,1123,1123,1123,1119,1119,1119,1115,1112,1112,1112,1112,1108,1108,1108,1108,1105,1105,1105,1101,1101,1097,1097,1094,1094,1094,1090,1090,1087,1087,1084,1084,1080,1080,1080,1077,1077,1077,1077,1073,1070,1070,1070,1067,1067,1067,1063,1063,1063,1063,1060,1060,1057,1054,1054,1054,1054,1050,1050,1047,1047,1047,0,0,0,0,0,0,0,0,0,0,0,0,0,0,0,0,0,0,0,0,0,0,0,0,0,0,0,0,0,0,0,0
0,0,0,0,0,0,0,0,0,0,0,0,0,1823,1823,1823,1823,1823,1823,1823,1813,1813,1813,1813,1813,1823,1823,1823,1813,1813,1823,1823,1813,1813,1804,1804,1813,1804,1804,1804,1804,1804,1804,1804,1804,1804,1794,1794,1794,1794,1794,1794,1794,1794,1794,1785,1785,1794,1794,1794,1794,1794,1794,1794,1794,1785,1785,1785,1785,1785,1785,1776,1776,1776,1766,1766,1766,1766,1766,1766,1766,1766,1766,1766,1766,1766,1757,1757,1757,1748,1748,1757,1748,1748,1757,1757,1757,1757,1757,1748,1748,1739,1739,1739,1739,1739,1731,1731,1739,1739,1739,1739,1739,1739,1739,1739,1739,1739,1739,1748,1757,1757,1757,1757,1757,1766,1766,1883,1883,1883,1883,1883,1883,1883,1883,1894,1883,1883,1883,1883,1873,1873,1863,1776,1757,1757,1748,1748,1739,1739,1739,1748,1748,1748,1748,1757,1757,1757,1757,1757,1766,1766,1766,1766,1766,1766,1766,1776,1776,1785,1785,1794,1794,1794,1804,1804,1804,1813,1813,1813,1823,1823,1813,1813,1804,1804,0,0,0,0,0,1149,1149,1145,1141,1138,1134,1134,1130,1130,1130,1130,1130,1130,1134,1134,1134,1138,1138,1141,1145,1145,1149,1149,1149,1149,1153,1157,0,0,0,0,1959,1959,1959,1947,1947,1959,1959,1959,1959,1970,1970,1970,1970,1970,1970,1970,1959,1959,1947,1936,1926,1926,1926,1926,1915,1915,1915,1915,1915,1904,1894,1883,1883,1873,1873,1873,1873,1863,1853,1853,1843,1843,1843,1833,1833,1833,1833,1823,1823,1813,1813,1804,1804,1804,1804,1804,1804,1804,0,0,0,0,0,0,0,0,0,925,925,925,923,918,915,915,913,913,910,908,906,906,906,906,906,906,908,910,918,918,920,920,920,923,925,925,925,928,928,0,0,0,0,0,0,1609,1609,1609,1609,1609,1601,1601,1601,1601,1594,1586,1579,1579,1579,1579,1572,1572,1572,1564,1564,1550,1550,1550,1543,1543,1543,1543,1543,1536,1536,1529,1523,1523,1516,1516,1516,1509,1509,1503,1496,1496,1496,1496,1489,1489,1483,1483,1477,1477,1470,1470,1470,1470,1464,1464,1464,1464,1458,1452,1445,1445,1445,1439,1439,1439,1439,1433,1433,1427,1427,1421,1421,1415,1415,1415,1415,1415,1410,1404,1404,1398,1398,1398,1392,1392,1392,1387,1381,1381,1376,1376,1376,1376,1370,1370,1370,1370,1365,1359,1354,1354,1354,1349,1349,1349,1349,1349,1349,1343,1338,1338,1333,1333,1328,1328,1328,1328,1322,1317,1312,1312,1312,1312,1312,1307,1307,1307,1302,1297,1297,1292,1292,1288,1288,1288,1288,1288,1283,1283,1278,1278,1273,1268,1268,1264,1264,1264,1259,1259,1255,1255,1255,1250,1250,1245,1241,1236,1236,1236,1236,1232,1232,1232,1232,1232,1227,1227,1223,1223,1219,1214,1214,1214,1210,1206,1206,1202,1202,1202,1197,1197,1197,1197,1193,1185,1185,1185,1185,1185,1181,1181,1181,1177,1173,1173,1169,1169,1169,1165,1165,1161,1161,1161,1157,1153,1153,1153,1149,1149,1149,1149,1145,1141,1141,1138,1138,1134,1134,1134,1130,1130,1126,1126,1123,1123,1123,1123,1119,1119,1115,1115,1112,1112,1112,1108,1108,1108,1105,1105,1105,1101,1101,1097,1097,1094,1094,1094,1094,1090,1087,1087,1087,1084,1080,1080,1080,1080,1077,1077,1077,1073,1073,1070,1070,1067,1067,1067,1063,1063,1063,1063,1060,1060,1057,1057,1054,1054,1054,1054,1054,1050,1047,1047,1050,0,0,0,0,0,0,0,0,0,0,0,0,0,0,0,0,0,0,0,0,0,0,0,0,0,0,0,0,0,0,0
0,0,0,0,0,0,0,0,0,0,0,0,0,1823,1823,1833,1833,1823,1823,1823,1823,1813,1813,1823,1823,1823,1823,1823,1813,1813,1823,1823,1813,1813,1813,1813,1813,1813,1804,1804,1804,1804,1804,1804,1804,1804,1794,1794,1794,1794,1794,1794,1794,1794,1794,1794,1794,1794,1794,1794,1794,1794,1794,1794,1794,1785,1785,1785,1785,1785,1785,1776,1776,1776,1766,1766,1766,1766,1766,1766,1766,1766,1766,1766,1766,1766,1766,1757,1757,1757,1757,1757,1757,1757,1757,1757,1757,1757,1757,1748,1748,1748,1748,1739,1739,1739,1739,1739,1739,1739,1739,1739,1739,1739,1739,1739,1739,1739,1739,1757,1757,1757,1757,1757,1757,1766,1766,1894,1894,1883,1883,1894,1894,1894,1894,1894,1894,1883,1883,1883,1873,1873,1863,1776,1766,1757,1757,1748,1748,1748,1748,1748,1748,1748,1748,1757,1757,1757,1757,1757,1766,1766,1766,1766,1766,1766,1766,1776,1776,1785,1785,1794,1794,1794,1804,1804,1804,1813,1813,1813,1823,1823,1813,1813,1804,1804,0,0,0,0,0,1149,1145,1145,1141,1138,1134,1134,1134,1130,1130,1130,1134,1134,1134,1134,1134,1138,1141,1141,1145,1145,1149,1149,1149,1149,1153,0,0,0,0,0,1959,1959,1959,1959,1959,1959,1959,1959,1970,1970,1970,1970,1970,1970,1970,1970,1959,1959,1947,1936,1936,1926,1926,1926,1926,1915,1915,1915,1915,1904,1894,1883,1883,1873,1873,1873,1873,1863,1863,1853,1853,1843,1843,1833,1833,1833,1833,1823,1823,1813,1813,1813,1813,1813,1804,1804,1804,1804,0,0,0,0,0,0,0,0,0,928,925,925,923,918,915,915,913,913,910,908,906,906,906,906,906,908,908,910,918,918,920,920,920,925,925,925,925,925,928,0,0,0,0,0,0,1616,1616,1616,1616,1609,1601,1601,1601,1601,1594,1586,1586,1579,1579,1579,1572,1572,1572,1564,1564,1557,1557,1550,1550,1543,1543,1543,1543,1543,1536,1536,1523,1523,1516,1516,1516,1509,1509,1503,1496,1496,1496,1496,1489,1489,1483,1483,1477,1477,1470,1470,1470,1470,1470,1464,1464,1464,1464,1458,1452,1445,1445,1439,1439,1439,1439,1439,1433,1427,1427,1421,1421,1415,1415,1415,1415,1415,1410,1410,1404,1404,1398,1398,1392,1392,1392,1392,1387,1381,1376,1376,1376,1376,1376,1370,1370,1370,1365,1359,1354,1354,1354,1349,1349,1349,1349,1349,1349,1343,1338,1338,1333,1333,1333,1328,1328,1328,1322,1317,1317,1312,1312,1312,1312,1307,1307,1307,1302,1297,1297,1292,1292,1288,1288,1288,1288,1288,1283,1283,1283,1278,1273,1268,1268,1268,1264,1264,1259,1259,1255,1255,1255,1250,1250,1245,1241,1236,1236,1236,1236,1232,1232,1232,1232,1232,1227,1227,1223,1223,1219,1219,1214,1214,1210,1210,1206,1202,1202,1202,1202,1197,1197,1197,1193,1189,1185,1185,1185,1185,1181,1181,1181,1181,1177,1173,1173,1169,1169,1169,1165,1161,1161,1161,1157,1153,1153,1153,1153,1149,1149,1149,1145,1145,1141,1141,1138,1134,1134,1134,1130,1130,1126,1126,1123,1123,1123,1123,1123,1119,1119,1119,1112,1112,1112,1108,1108,1108,1105,1105,1105,1105,1101,1101,1097,1094,1094,1094,1094,1090,1087,1087,1087,1087,1084,1080,1080,1080,1077,1077,1077,1073,1073,1070,1070,1070,1067,1067,1063,1063,1063,1063,1060,1060,1060,1057,1054,1054,1054,1054,1054,1050,1047,1047,1050,0,0,0,0,0,0,0,0,0,0,0,0,0,0,0,0,0,0,0,0,0,0,0,0,0,0,0,0,0,0,0
0,0,0,0,0,0,0,0,0,0,0,0,0,1833,1833,1833,1833,1833,1833,1833,1833,1813,1813,1823,1823,1823,1823,1823,1823,1823,1823,1813,1813,1813,1813,1813,1813,1813,1813,1813,1813,1804,1804,1804,1804,1804,1804,1794,1794,1794,1794,1794,1794,1794,1794,1794,1794,1794,1794,1794,1794,1794,1794,1794,1794,1785,1785,1785,1785,1785,1785,1776,1776,1776,1766,1766,1766,1766,1766,1766,1766,1766,1766,1766,1766,1766,1766,1757,1757,1757,1757,1757,1757,1757,1757,1757,1757,1757,1757,1757,1748,1748,1748,1748,1739,1739,1739,1739,1739,1748,1739,1739,1739,1739,1739,1739,1739,1739,1748,1757,1757,1757,1757,1757,1757,1766,1766,1894,1894,1883,1883,1894,1894,1894,1894,1894,1894,1894,1883,1883,1883,1873,1873,1873,1766,1757,1757,1757,1757,1748,1748,1748,1748,1748,1757,1757,1757,1757,1757,1757,1766,1766,1766,1776,1776,1776,1776,1785,1785,1785,1785,1794,1794,1794,1804,1804,1804,1813,1813,1813,1823,1823,1823,1813,1813,1813,0,0,0,0,0,1149,1145,1145,1145,1141,1134,1134,1134,1134,1134,1134,1134,1134,1134,1134,1134,1138,1141,1141,1145,1145,1149,1149,1153,1153,1157,0,0,0,0,0,1959,1959,1959,1959,1959,1959,1959,1970,1970,1970,1970,1981,1970,1970,1970,1970,1959,1959,1959,1936,1936,1926,1926,1926,1926,1926,1915,1915,1915,1904,1894,1894,1883,1883,1873,1873,1873,1873,1863,1863,1853,1853,1843,1843,1833,1833,1833,1823,1823,1823,1823,1813,1813,1813,1804,1804,1804,1813,0,0,0,0,0,0,0,0,0,928,925,925,923,920,918,915,913,913,910,910,908,906,906,906,908,908,908,910,918,918,920,920,923,925,925,925,925,925,928,0,0,0,0,0,0,1624,1624,1616,1616,1616,1609,1609,1601,1601,1601,1594,1586,1579,1579,1579,1572,1572,1572,1564,1564,1557,1557,1550,1550,1543,1543,1543,1543,1543,1536,1536,1529,1523,1523,1516,1516,1516,1509,1509,1503,1496,1496,1496,1489,1489,1489,1483,1477,1477,1470,1470,1470,1470,1470,1464,1464,1464,1464,1458,1452,1445,1445,1445,1439,1439,1439,1439,1433,1433,1427,1421,1421,1421,1415,1415,1415,1415,1415,1410,1404,1404,1398,1398,1392,1392,1392,1392,1387,1381,1381,1376,1376,1376,1376,1370,1370,1370,1365,1359,1359,1354,1354,1349,1349,1349,1349,1349,1349,1343,1338,1338,1333,1333,1333,1333,1328,1328,1328,1322,1317,1312,1312,1312,1312,1307,1307,1307,1302,1302,1297,1292,1292,1292,1288,1288,1288,1288,1283,1283,1283,1278,1273,1268,1268,1268,1264,1264,1264,1259,1259,1255,1255,1250,1250,1250,1241,1241,1236,1236,1236,1236,1236,1232,1232,1232,1232,1227,1227,1223,1219,1219,1214,1214,1210,1210,1206,1202,1202,1202,1202,1197,1197,1197,1193,1189,1185,1185,1185,1185,1181,1181,1181,1181,1177,1177,1173,1169,1169,1165,1165,1165,1161,1161,1157,1153,1153,1153,1153,1149,1149,1149,1145,1145,1145,1141,1138,1138,1134,1134,1134,1130,1130,1126,1126,1123,1123,1123,1123,1119,1119,1119,1115,1115,1112,1112,1108,1108,1108,1105,1105,1105,1101,1101,1097,1097,1094,1094,1090,1090,1087,1087,1087,1087,1084,1080,1080,1080,1077,1077,1077,1077,1073,1073,1070,1070,1067,1067,1067,1063,1063,1063,1063,1060,1060,1057,1057,1054,1054,1054,1054,1050,1047,1047,0,0,0,0,0,0,0,0,0,0,0,0,0,0,0,0,0,0,0,0,0,0,0,0,0,0,0,0,0,0,0,0
0,0,0,0,0,0,0,0,0,0,0,0,0,1833,1833,1833,1833,1833,1833,1833,1833,1813,1813,1823,1823,1823,1823,1823,1823,1823,1823,1813,1813,1813,1813,1813,1813,1813,1813,1813,1813,1804,1804,1804,1804,1804,1804,1804,1804,1804,1804,1794,1794,1794,1794,1794,1794,1794,1794,1794,1794,1794,1794,1794,1794,1785,1785,1785,1785,1785,1785,1776,1776,1776,1766,1766,1766,1766,1766,1766,1766,1766,1766,1766,1766,1766,1766,1766,1766,1757,1757,1757,1757,1757,1757,1757,1757,1757,1757,1757,1757,1748,1748,1748,1748,1748,1739,1739,1739,1748,1739,1739,1739,1739,1739,1739,1739,1739,1739,1748,1757,1757,1757,1757,1757,1766,1766,1894,1894,1883,1883,1894,1894,1894,1894,1894,1894,1894,1894,1894,1883,1883,1883,1883,1766,1757,1757,1757,1757,1748,1748,1748,1748,1748,1757,1757,1757,1757,1757,1766,1766,1766,1766,1776,1776,1776,1776,1785,1785,1785,1794,1794,1794,1794,1804,1804,1804,1813,1813,1813,1823,1823,1823,1823,1813,1813,0,0,0,0,0,1153,1149,1145,1141,1138,1134,1134,1134,1134,1134,1134,1134,1134,1134,1134,1138,1138,1141,1145,1145,1149,1149,1149,1153,1157,1161,0,0,0,0,0,1959,1959,1959,1959,1959,1959,1959,1959,1970,1970,1970,1981,1970,1970,1970,1970,1959,1959,1959,1947,1936,1926,1926,1926,1926,1926,1926,1915,1915,1915,1904,1883,1883,1873,1873,1873,1873,1873,1863,1863,1863,1853,1843,1843,1833,1833,1833,1823,1823,1823,1823,1813,1813,1813,1804,1804,1804,1813,0,0,0,0,0,0,0,0,0,0,925,923,923,920,918,915,913,913,910,910,908,906,906,906,908,908,910,913,918,918,920,920,923,925,925,925,925,925,928,0,0,0,0,0,0,1624,1624,1624,1616,1616,1609,1609,1609,1601,1601,1594,1586,1579,1579,1579,1572,1572,1572,1564,1564,1557,1557,1550,1550,1550,1543,1543,1543,1543,1536,1536,1536,1529,1523,1523,1516,1516,1516,1509,1503,1503,1496,1496,1489,1489,1489,1483,1477,1477,1477,1470,1470,1470,1470,1464,1464,1464,1464,1458,1452,1445,1445,1445,1439,1439,1439,1439,1439,1433,1427,1427,1421,1421,1415,1415,1415,1415,1415,1410,1410,1404,1398,1398,1398,1392,1392,1392,1392,1387,1381,1381,1381,1376,1376,1370,1370,1370,1370,1365,1359,1354,1354,1354,1354,1349,1349,1349,1349,1343,1338,1338,1333,1333,1333,1333,1328,1328,1328,1322,1317,1312,1312,1312,1312,1307,1307,1307,1307,1302,1297,1292,1292,1292,1288,1288,1288,1283,1283,1283,1278,1278,1273,1268,1268,1268,1268,1264,1264,1259,1259,1255,1255,1255,1250,1250,1245,1241,1236,1236,1236,1236,1236,1232,1232,1232,1232,1227,1227,1223,1223,1219,1214,1214,1214,1210,1210,1206,1202,1202,1202,1197,1197,1197,1193,1189,1189,1189,1185,1185,1181,1181,1181,1181,1177,1177,1173,1173,1169,1165,1165,1165,1165,1161,1157,1157,1153,1153,1153,1149,1149,1149,1145,1145,1145,1141,1138,1138,1138,1134,1134,1130,1130,1126,1126,1123,1123,1123,1123,1119,1119,1119,1115,1115,1115,1112,1108,1108,1108,1105,1105,1105,1105,1101,1101,1097,1094,1094,1090,1090,1087,1087,1087,1087,1084,1080,1080,1080,1080,1077,1077,1077,1073,1073,1073,1070,1067,1067,1067,1063,1063,1063,1063,1060,1060,1057,1057,1054,1054,1054,1054,1050,1047,1047,0,0,0,0,0,0,0,0,0,0,0,0,0,0,0,0,0,0,0,0,0,0,0,0,0,0,0,0,0,0,0,0
0,0,0,0,0,0,0,0,0,0,0,0,0,1833,1833,1833,1843,1833,1833,1833,1833,1833,1833,1823,1823,1823,1823,1823,1823,1823,1823,1813,1813,1813,1813,1813,1813,1813,1813,1813,1813,1804,1804,1804,1804,1804,1804,1804,1804,1804,1804,1794,1794,1794,1794,1794,1794,1794,1794,1794,1794,1794,1794,1794,1794,1785,1785,1785,1785,1785,1785,1776,1776,1776,1776,1776,1766,1766,1766,1766,1766,1766,1766,1766,1766,1766,1766,1766,1766,1757,1757,1766,1757,1757,1757,1757,1757,1757,1757,1757,1757,1748,1748,1748,1748,1748,1739,1739,1748,1748,1748,1748,1739,1739,1739,1739,1739,1739,1739,1748,1757,1757,1757,1757,1766,1766,1766,1894,1894,1894,1894,1894,1894,1894,1894,1904,1904,1904,1894,1894,1883,1883,1883,1883,1766,1757,1757,1757,1757,1748,1748,1748,1748,1748,1757,1757,1757,1757,1757,1766,1766,1766,1776,1776,1776,1785,1785,1785,1785,1794,1794,1794,1794,1794,1804,1804,1804,1813,1813,1813,1823,1823,1823,1823,1813,1813,0,0,0,1157,0,1153,1149,1145,1141,1138,1134,1134,1134,1134,1134,1134,1134,1134,1134,1138,1138,1138,1141,1145,1145,1149,1149,1149,1153,1157,1161,1161,0,0,0,0,1959,1959,1959,1959,1959,1959,1959,1959,1970,1970,1970,1970,1981,1981,1981,1970,1970,1959,1959,1947,1936,1936,1926,1926,1926,1926,1926,1915,1915,1915,1904,1883,1883,1873,1873,1873,1873,1873,1873,1873,1863,1863,1853,1843,1843,1843,1833,1833,1823,1823,1823,1813,1813,1813,1804,1804,1804,1804,0,0,0,0,0,0,0,0,0,0,925,923,920,918,918,915,913,913,910,910,908,906,906,906,908,908,910,915,918,918,920,920,923,925,925,925,925,925,928,0,0,0,0,0,0,1624,1624,1624,1616,1609,1609,1609,1609,1601,1601,1594,1586,1579,1579,1579,1579,1572,1572,1572,1564,1557,1557,1550,1550,1550,1550,1543,1543,1543,1543,1536,1536,1529,1523,1523,1523,1516,1516,1509,1509,1503,1496,1496,1489,1489,1489,1483,1483,1477,1477,1470,1470,1470,1470,1464,1464,1464,1464,1458,1452,1445,1445,1445,1445,1439,1439,1439,1439,1433,1433,1427,1421,1421,1421,1415,1415,1415,1415,1415,1410,1404,1398,1398,1398,1392,1392,1392,1392,1387,1381,1381,1381,1376,1376,1370,1370,1370,1370,1365,1365,1359,1359,1354,1354,1354,1349,1349,1349,1343,1343,1338,1333,1333,1333,1333,1328,1328,1328,1322,1322,1317,1317,1312,1312,1307,1307,1307,1307,1302,1297,1292,1292,1292,1288,1288,1288,1283,1283,1283,1278,1278,1273,1273,1268,1268,1268,1264,1264,1264,1259,1259,1255,1255,1255,1250,1250,1241,1241,1236,1236,1236,1236,1232,1232,1232,1232,1232,1227,1227,1223,1223,1219,1214,1214,1210,1210,1206,1206,1202,1202,1202,1197,1197,1197,1189,1189,1189,1185,1185,1181,1181,1181,1181,1177,1177,1173,1173,1169,1169,1165,1165,1165,1161,1161,1157,1153,1153,1153,1153,1149,1149,1149,1145,1145,1141,1141,1138,1138,1138,1134,1134,1130,1126,1126,1126,1123,1123,1123,1123,1119,1119,1119,1119,1115,1112,1108,1108,1108,1108,1105,1105,1105,1101,1101,1097,1097,1094,1094,1090,1087,1087,1087,1087,1084,1084,1080,1080,1080,1080,1077,1077,1077,1073,1073,1070,1070,1067,1067,1067,1063,1063,1063,1060,1060,1060,1057,1057,1057,1054,1054,1050,1047,1047,1050,0,0,0,0,0,0,0,0,0,0,0,0,0,0,0,0,0,0,0,0,0,0,0,0,0,0,0,0,0,0,0
