0,0,0,0,0,0,0,0,0,0,0,0,0,1722,1722,1722,1722,1722,1722,1722,1722,1722,1705,1705,1713,1713,1713,1713,1713,1713,1713,1713,1713,1713,1713,1713,1713,1713,1713,1713,1713,1705,1705,1705,1696,1696,1696,1696,1696,1696,1696,1696,1696,1696,1696,1696,1696,1696,1696,1696,1696,1696,1696,1705,1705,1696,1696,1696,1696,1696,1696,1696,1688,1688,1688,1688,1688,1688,1688,1688,1688,1688,1688,1688,1688,1688,1688,1688,1688,1688,1688,1688,1688,1680,1680,1680,1680,1680,1680,1680,1680,1671,1671,1671,1671,1671,1671,1663,1663,1671,1671,1671,1671,1671,1663,1663,1663,1663,1663,1663,1663,1663,1663,1663,1663,1663,1663,1663,1663,1663,1663,1671,1671,1671,1680,1680,1680,1688,1688,1696,1705,1748,1766,2016,2005,2005,2005,2005,2005,2005,2005,2005,1993,1688,1688,1705,1705,1696,1696,1688,1688,1688,1680,1671,1671,1671,1671,1671,1671,1671,1680,1688,1688,1688,1688,1696,1696,1696,1705,1705,1705,1713,1722,1722,1722,1731,1731,1731,1739,1739,1757,1757,1757,1757,1757,1757,1757,1757,1757,1766,1766,1766,1776,1785,1785,1794,1794,1794,1804,1804,1804,1804,1804,1813,1823,1823,1833,1833,1843,1843,1843,1843,1843,1843,1853,1853,1853,1853,1863,1873,1873,1873,1883,1883,1883,1894,1894,1894,1904,1904,1904,1904,1904,1904,1904,1904,1915,1915,1915,1959,0,0,0,0,0,0,0,0,0,1130,1130,1123,1123,1119,1119,1119,1115,1115,1115,1112,1112,1115,1115,1115,1115,1119,1126,1126,1126,1130,1134,1134,1134,1134,0,0,0,1757,1757,1766,1766,1766,1766,1766,1766,1766,1757,1757,1757,1748,1748,1739,1731,1731,1731,1731,1722,1722,1722,1713,1713,1713,1705,1705,1705,1696,1696,1688,1688,1688,1696,1688,1688,1680,1680,1680,1671,1671,1671,1671,1663,1663,1663,1663,1663,1647,1639,1639,1639,1639,1632,1632,1632,1632,1624,1624,1624,1616,1609,1609,1609,1609,1601,1601,1601,1601,1601,1594,1594,1586,1586,1579,1579,1579,1579,1572,1572,1572,1572,1564,1564,1557,1557,1557,1550,1550,1550,1550,1550,1550,0,0,0,0,0,0,0,928,925,925,925,923,923,920,918,918,918,915,915,915,913,913,913,913,913,913,915,915,915,918,920,923,923,0,0,0,0,0,1445,1445,1452,1452,1452,1452,1445,1445,1445,1445,1439,1439,1439,1439,1439,1439,1433,1427,1427,1421,1421,1421,1421,1415,1415,1415,1415,1410,1410,1404,1404,1398,1398,1398,1392,1392,1392,1387,1387,1387,1387,1381,1381,1381,1381,1381,1376,1370,1370,1370,1365,1365,1365,1365,1359,1359,1359,1354,1354,1354,1354,1349,1343,1343,1343,1338,1338,1338,1333,1333,1333,1333,1333,1328,1328,1328,1322,1322,1317,1312,1312,1312,1312,1307,1307,1307,1307,1302,1302,1302,1297,1292,1292,1292,1292,1288,1288,1288,1288,1288,1283,1283,1278,1273,1273,1273,1273,1268,1268,1268,1268,1264,1264,1264,1259,1255,1255,1255,1255,1255,1250,1250,1250,1250,1241,1241,1236,1236,1236,1236,1236,1236,1236,1232,1232,1232,1227,1227,1227,1223,1219,1219,1219,1219,1214,1214,1214,1210,1210,1210,1206,1206,1206,1202,1202,1202,1202,1197,1197,1197,1197,1193,1189,1189,1189,1185,1185,1185,1185,1185,1181,1181,1181,1181,1177,1177,1173,1173,1169,1169,1169,1169,1169,1165,1165,1165,1161,1161,1157,1157,1153,1153,0,0,0,0,0,0,0,0,0,0,0,0,0,0,0,0,0,0,0,0,0,0,0,0,0,0,0,0,0,0
0,0,0,0,0,0,0,0,0,0,0,0,0,1722,1722,1722,1722,1722,1722,1722,1722,1722,1713,1713,1722,1722,1722,1722,1713,1713,1713,1713,1713,1713,1713,1713,1713,1713,1713,1713,1713,1713,1705,1705,1705,1705,1705,1705,1696,1696,1696,1696,1696,1696,1696,1696,1696,1696,1696,1696,1696,1696,1696,1705,1705,1696,1696,1696,1696,1696,1696,1696,1696,1696,1696,1688,1688,1688,1688,1688,1688,1688,1688,1688,1688,1688,1688,1688,1688,1688,1688,1688,1688,1680,1680,1680,1680,1680,1680,1680,1680,1671,1671,1671,1671,1671,1671,1671,1671,1671,1671,1671,1671,1671,1671,1663,1663,1663,1663,1663,1663,1663,1663,1663,1663,1663,1663,1663,1663,1663,1671,1671,1671,1671,1680,1680,1680,1680,1688,1688,1696,1748,1993,1993,1981,1981,1993,1993,2005,2005,2005,1993,1993,1993,1993,1993,1696,1696,1696,1688,1688,1688,1680,1680,1671,1671,1671,1671,1671,1680,1680,1688,1688,1688,1696,1696,1696,1696,1705,1705,1705,1713,1722,1722,1722,1731,1731,1731,1739,1739,1757,1757,1757,1757,1757,1757,1757,1757,1757,1766,1766,1766,1776,1785,1785,1794,1794,1794,1804,1804,1804,1804,1804,1813,1823,1823,1833,1833,1843,1843,1843,1843,1843,1843,1853,1853,1853,1863,1873,1873,1873,1873,1883,1883,1883,1894,1894,1904,1904,1904,1904,1904,1904,1894,1894,1904,1915,1915,1915,1926,0,0,0,0,0,0,0,0,0,1130,1130,1123,1123,1119,1119,1119,1115,1115,1115,1112,1112,1115,1115,1115,1119,1123,1126,1126,1126,1130,1134,1134,1134,0,0,0,0,1757,1757,1766,1766,1766,1766,1766,1766,1766,1757,1757,1757,1748,1748,1739,1731,1731,1731,1731,1731,1722,1722,1722,1713,1713,1705,1705,1705,1696,1696,1688,1688,1688,1696,1688,1688,1680,1680,1680,1671,1671,1671,1671,1663,1663,1663,1663,1655,1647,1639,1639,1639,1639,1632,1632,1632,1632,1624,1624,1624,1616,1609,1609,1609,1609,1601,1601,1601,1601,1601,1594,1594,1586,1586,1586,1579,1579,1579,1572,1572,1572,1572,1564,1564,1557,1557,1550,1550,1550,1550,1550,1550,1550,0,0,0,0,0,0,0,928,925,925,925,923,923,918,918,918,918,915,915,915,913,913,913,913,913,913,915,915,918,918,920,923,925,0,0,0,0,0,1445,1445,1452,1452,1452,1452,1452,1452,1445,1445,1445,1445,1439,1439,1439,1439,1439,1433,1427,1421,1421,1421,1421,1421,1415,1415,1415,1415,1415,1410,1404,1404,1398,1398,1398,1392,1392,1387,1387,1387,1387,1381,1381,1381,1381,1381,1376,1376,1370,1370,1370,1365,1365,1365,1359,1359,1359,1359,1354,1354,1354,1349,1349,1349,1343,1343,1338,1338,1333,1333,1333,1333,1333,1328,1328,1328,1328,1322,1322,1317,1312,1312,1312,1312,1307,1307,1307,1302,1302,1302,1297,1292,1292,1292,1292,1288,1288,1288,1288,1288,1283,1283,1278,1273,1273,1273,1273,1273,1268,1268,1268,1268,1264,1264,1259,1255,1255,1255,1255,1255,1250,1250,1250,1250,1241,1241,1236,1236,1236,1236,1236,1236,1236,1232,1232,1232,1227,1227,1227,1223,1223,1219,1219,1219,1214,1214,1214,1214,1210,1210,1210,1206,1206,1202,1202,1202,1202,1202,1197,1197,1197,1193,1193,1189,1189,1185,1185,1185,1185,1185,1185,1181,1181,1181,1177,1177,1169,1169,1169,1169,1169,1169,1169,1165,1165,1165,1161,1161,1157,1157,1153,1153,0,0,0,0,0,0,0,0,0,0,0,0,0,0,0,0,0,0,0,0,0,0,0,0,0,0,0,0,0,0
0,0,0,0,0,0,0,0,0,0,0,0,0,1722,1722,1731,1722,1722,1722,1722,1722,1722,1722,1722,1722,1722,1722,1713,1713,1713,1713,1713,1713,1713,1713,1713,1722,1722,1713,1713,1713,1713,1713,1713,1705,1705,1705,1705,1705,1696,1696,1696,1696,1696,1696,1696,1696,1696,1696,1696,1696,1696,1696,1705,1705,1696,1696,1696,1696,1696,1696,1696,1696,1696,1688,1688,1688,1688,1688,1688,1688,1688,1688,1688,1688,1688,1688,1688,1688,1688,1688,1688,1688,1680,1680,1680,1680,1680,1680,1680,1680,1680,1680,1671,1671,1671,1671,1671,1671,1671,1671,1671,1671,1671,1671,1663,1663,1663,1663,1663,1663,1663,1663,1663,1663,1663,1663,1663,1663,1663,1663,1671,1671,1671,1680,1680,1680,1680,1680,1680,1688,1970,1970,1970,1970,1970,1959,1959,1981,1981,1993,1993,1993,1993,1794,1794,1794,1794,1696,1688,1688,1688,1680,1680,1680,1680,1680,1680,1680,1680,1688,1688,1688,1688,1696,1696,1696,1696,1705,1705,1713,1722,1722,1722,1731,1731,1731,1739,1739,1748,1757,1757,1757,1757,1757,1757,1757,1757,1757,1766,1766,1766,1776,1785,1785,1794,1794,1804,1804,1804,1804,1804,1813,1813,1823,1833,1833,1833,1843,1843,1843,1843,1843,1843,1853,1853,1863,1863,1873,1873,1873,1883,1883,1883,1883,1894,1894,1904,1904,1904,1904,1904,1904,1894,1894,1904,1915,1915,1915,1915,0,0,0,0,0,0,0,0,0,1130,1123,1123,1123,1119,1119,1119,1115,1115,1115,1115,1115,1115,1115,1119,1119,1123,1123,1126,1126,1130,1130,1134,1134,0,0,0,0,1766,1766,1766,1766,1766,1766,1766,1766,1757,1757,1757,1757,1748,1748,1739,1739,1731,1731,1731,1731,1722,1722,1722,1713,1705,1705,1705,1696,1696,1696,1696,1688,1688,1696,1688,1688,1680,1680,1680,1671,1671,1671,1671,1663,1663,1663,1663,1655,1647,1647,1639,1639,1639,1639,1632,1632,1632,1632,1624,1624,1616,1609,1609,1609,1609,1609,1601,1601,1601,1601,1601,1594,1594,1586,1586,1579,1579,1579,1572,1572,1572,1572,1572,1564,1557,1557,1550,1550,1550,1550,1550,1550,1550,0,0,0,0,0,0,0,925,925,925,925,923,923,918,918,915,915,915,915,915,913,913,913,913,913,913,915,915,918,920,923,923,925,0,0,0,0,1445,1445,1445,1452,1452,1452,1452,1452,1452,1445,1445,1445,1445,1439,1439,1439,1439,1439,1433,1427,1421,1421,1421,1421,1421,1415,1415,1415,1415,1415,1410,1404,1404,1398,1398,1398,1392,1392,1392,1387,1387,1387,1381,1381,1381,1381,1381,1376,1376,1370,1370,1370,1365,1365,1365,1359,1359,1359,1359,1354,1354,1349,1349,1349,1349,1343,1343,1343,1338,1333,1333,1333,1333,1333,1328,1328,1328,1328,1322,1322,1317,1317,1312,1312,1312,1307,1307,1307,1307,1302,1302,1302,1297,1292,1292,1292,1288,1288,1288,1288,1288,1288,1283,1278,1278,1278,1273,1273,1273,1268,1268,1268,1268,1264,1264,1259,1259,1255,1255,1255,1255,1255,1250,1250,1250,1245,1241,1241,1236,1236,1236,1236,1236,1236,1232,1232,1232,1232,1227,1227,1227,1223,1223,1219,1219,1214,1214,1214,1214,1210,1210,1210,1206,1206,1206,1202,1202,1202,1202,1202,1197,1197,1197,1193,1193,1193,1189,1185,1185,1185,1185,1185,1181,1181,1181,1177,1177,1169,1169,1169,1169,1169,1169,1169,1165,1165,1165,1161,1161,1157,1157,1157,1157,0,0,0,0,0,0,0,0,0,0,0,0,0,0,0,0,0,0,0,0,0,0,0,0,0,0,0,0,0,0
0,0,0,0,0,0,0,0,0,0,0,0,0,1722,1722,1731,1722,1722,1722,1731,1731,1722,1722,1722,1722,1722,1722,1713,1713,1713,1713,1713,1713,1713,1713,1713,1722,1722,1713,1713,1713,1713,1713,1713,1713,1713,1713,1713,1705,1705,1705,1696,1696,1696,1696,1696,1696,1696,1696,1696,1696,1696,1696,1705,1705,1705,1696,1696,1696,1696,1696,1696,1696,1696,1688,1688,1688,1688,1688,1688,1688,1688,1688,1688,1688,1688,1688,1688,1688,1688,1688,1688,1688,1688,1680,1680,1680,1680,1680,1680,1680,1680,1680,1680,1680,1671,1671,1671,1671,1680,1680,1680,1671,1671,1671,1663,1663,1663,1663,1663,1663,1663,1663,1663,1663,1663,1663,1663,1663,1663,1663,1671,1671,1671,1680,1671,1671,1671,1671,1671,1680,1959,1959,1959,1959,1947,1936,1926,1926,1947,1993,1993,1804,1804,1794,1794,1794,1794,1794,1688,1688,1688,1688,1680,1680,1680,1680,1680,1680,1680,1688,1688,1688,1688,1696,1696,1696,1696,1705,1705,1713,1722,1722,1722,1731,1731,1731,1739,1739,1748,1757,1757,1757,1757,1757,1757,1766,1766,1766,1766,1766,1766,1766,1785,1785,1794,1794,1804,1804,1804,1804,1813,1813,1823,1823,1833,1833,1833,1843,1843,1843,1843,1843,1853,1853,1863,1863,1873,1873,1873,1883,1883,1883,1883,1883,1894,1894,1904,1904,1904,1904,1904,1904,1904,1904,1915,1926,1915,1915,1915,0,0,0,0,0,0,0,0,0,1130,1123,1123,1123,1119,1119,1119,1115,1115,1115,1115,1115,1115,1115,1119,1119,1123,1123,1126,1126,1130,1130,1134,1134,0,0,0,1785,1776,1776,1766,1766,1766,1766,1766,1766,1757,1757,1757,1757,1748,1748,1739,1739,1739,1731,1731,1731,1722,1722,1722,1713,1705,1705,1705,1696,1696,1696,1696,1688,1688,1696,1688,1688,1680,1680,1680,1671,1671,1671,1671,1663,1663,1663,1663,1655,1655,1647,1647,1639,1639,1639,1639,1632,1632,1632,1632,1624,1624,1616,1609,1609,1609,1609,1601,1601,1601,1601,1601,1594,1594,1586,1586,1579,1579,1579,1572,1572,1572,1572,1572,1564,1557,1557,1557,1550,1550,1550,1550,1550,0,0,0,0,0,0,0,0,925,925,925,925,923,923,918,918,915,915,915,915,915,915,913,913,913,913,913,915,915,918,920,925,925,925,0,0,0,0,1445,1445,1452,1452,1452,1458,1452,1452,1452,1445,1445,1445,1445,1445,1445,1439,1439,1439,1433,1427,1421,1421,1421,1421,1415,1415,1415,1415,1415,1410,1410,1404,1404,1398,1398,1398,1392,1392,1392,1392,1387,1387,1381,1381,1381,1381,1376,1376,1376,1370,1370,1370,1370,1365,1365,1359,1359,1359,1359,1354,1354,1349,1349,1349,1349,1343,1343,1338,1338,1333,1333,1333,1333,1333,1333,1328,1328,1328,1322,1322,1317,1317,1312,1312,1312,1307,1307,1307,1307,1307,1302,1302,1297,1297,1292,1292,1292,1288,1288,1288,1288,1288,1288,1283,1283,1278,1278,1273,1273,1268,1268,1268,1268,1268,1264,1264,1259,1259,1255,1255,1255,1255,1250,1250,1250,1245,1241,1241,1241,1236,1236,1236,1236,1236,1232,1232,1232,1232,1227,1227,1223,1223,1219,1219,1219,1219,1214,1214,1214,1210,1210,1210,1206,1206,1206,1202,1202,1202,1202,1202,1197,1197,1197,1193,1193,1193,1189,1189,1185,1185,1185,1185,1181,1181,1181,1177,1177,1173,1173,1173,1169,1169,1169,1165,1165,1165,1165,1161,1161,1157,1157,1157,1157,0,0,0,0,0,0,0,0,0,0,0,0,0,0,0,0,0,0,0,0,0,0,0,0,0,0,0,0,0,0
0,0,0,0,0,0,0,0,0,0,0,0,0,1722,1722,1731,1722,1722,1731,1731,1731,1722,1722,1722,1722,1722,1722,1713,1713,1713,1713,1713,1713,1713,1713,1713,1722,1722,1713,1713,1713,1713,1713,1713,1713,1713,1713,1713,1713,1705,1705,1696,1696,1696,1696,1696,1696,1696,1696,1696,1696,1696,1696,1705,1705,1705,1696,1696,1696,1696,1696,1696,1696,1696,1688,1688,1688,1688,1688,1688,1688,1688,1688,1688,1688,1688,1688,1688,1688,1688,1688,1688,1688,1688,1680,1680,1680,1680,1680,1680,1680,1680,1680,1680,1680,1680,1671,1671,1671,1680,1680,1680,1671,1671,1680,1671,1671,1671,1671,1663,1663,1663,1663,1663,1663,1663,1663,1663,1663,1663,1663,1671,1671,1671,1680,1671,1671,1671,1671,1671,1671,1947,1936,1936,1936,1926,1915,1904,1904,1947,1823,1823,1804,1804,1804,1804,1794,1794,1794,1794,1688,1688,1688,1680,1680,1680,1680,1680,1680,1680,1688,1688,1688,1688,1696,1696,1696,1705,1705,1713,1722,1722,1731,1731,1731,1731,1731,1739,1739,1748,1757,1757,1757,1757,1766,1766,1766,1766,1766,1766,1766,1766,1766,1785,1785,1794,1794,1804,1804,1804,1804,1813,1813,1823,1823,1833,1833,1833,1843,1843,1843,1843,1843,1853,1863,1863,1873,1873,1873,1883,1883,1883,1883,1883,1883,1894,1894,1904,1904,1904,1915,1915,1915,1915,1915,1926,1947,1947,0,0,0,0,0,0,0,0,0,0,1130,1130,1126,1123,1123,1119,1119,1119,1115,1115,1115,1115,1115,1115,1115,1119,1119,1123,1123,1126,1126,1130,1130,1134,0,1134,0,1785,1785,1776,1776,1766,1766,1766,1766,1766,1766,1757,1757,1757,1757,1748,1748,1739,1739,1739,1731,1731,1731,1722,1722,1722,1713,1705,1705,1705,1696,1696,1696,1696,1696,1696,1696,1696,1688,1688,1680,1680,1680,1671,1671,1671,1663,1663,1663,1663,1663,1655,1647,1647,1639,1639,1639,1639,1632,1632,1632,1632,1632,1624,1616,1609,1609,1609,1609,1601,1601,1601,1601,1601,1594,1594,1586,1586,1579,1579,1579,1572,1572,1572,1572,1572,1564,1564,1557,1557,1550,1550,1550,1550,1550,0,0,0,0,0,0,0,0,925,925,925,925,923,923,918,918,915,915,915,915,915,913,913,913,913,913,915,915,918,918,920,925,925,925,0,0,0,0,1452,1452,1452,1458,1458,1458,1458,1458,1452,1452,1445,1445,1445,1445,1445,1439,1439,1439,1427,1427,1421,1421,1421,1421,1415,1415,1415,1415,1415,1410,1410,1410,1404,1398,1398,1398,1398,1392,1392,1392,1387,1387,1381,1381,1381,1381,1376,1376,1376,1370,1370,1370,1370,1365,1365,1359,1359,1359,1359,1354,1354,1349,1349,1349,1349,1343,1343,1338,1338,1333,1333,1333,1333,1333,1333,1328,1328,1328,1328,1322,1317,1317,1312,1312,1312,1307,1307,1307,1307,1307,1302,1302,1302,1302,1292,1292,1292,1292,1288,1288,1288,1288,1288,1283,1283,1278,1278,1273,1273,1268,1268,1268,1268,1268,1264,1264,1259,1259,1259,1255,1255,1255,1250,1250,1250,1250,1245,1241,1241,1236,1236,1236,1236,1236,1232,1232,1232,1232,1227,1227,1223,1223,1219,1219,1219,1219,1214,1214,1214,1210,1210,1210,1206,1206,1202,1202,1202,1202,1202,1202,1197,1197,1197,1197,1193,1193,1193,1189,1185,1185,1185,1185,1181,1181,1181,1177,1177,1173,1173,1173,1169,1169,1169,1165,1165,1165,1165,1161,1161,1157,1157,1157,1157,0,0,0,0,0,0,0,0,0,0,0,0,0,0,0,0,0,0,0,0,0,0,0,0,0,0,0,0,0,0
0,0,0,0,0,0,0,0,0,0,0,0,0,1722,1722,1731,1722,1722,1722,1722,1722,1722,1722,1722,1722,1722,1722,1713,1713,1713,1713,1713,1713,1713,1713,1713,1722,1713,1713,1713,1713,1713,1705,1705,1705,1705,1705,1713,1713,1705,1705,1696,1696,1696,1696,1696,1696,1696,1696,1696,1696,1705,1705,1705,1705,1705,1696,1696,1696,1696,1696,1696,1696,1696,1688,1688,1688,1688,1688,1688,1688,1688,1688,1688,1688,1688,1688,1688,1688,1688,1688,1688,1688,1688,1680,1680,1680,1680,1680,1680,1680,1680,1680,1680,1680,1680,1671,1671,1671,1680,1680,1680,1680,1680,1680,1671,1671,1671,1671,1671,1671,1663,1663,1663,1663,1663,1663,1663,1663,1663,1663,1671,1671,1671,1680,1671,1671,1671,1671,1671,1671,1926,1926,1915,1915,1915,1904,1873,1853,1853,1843,1823,1813,1804,1804,1804,1794,1794,1794,1766,1696,1688,1688,1688,1680,1680,1680,1680,1680,1680,1688,1688,1688,1696,1696,1696,1696,1705,1705,1713,1722,1722,1731,1731,1731,1731,1731,1739,1739,1748,1757,1757,1757,1757,1766,1766,1766,1766,1766,1766,1766,1766,1776,1785,1785,1794,1794,1804,1804,1804,1804,1813,1813,1823,1823,1833,1833,1833,1843,1843,1843,1843,1843,1853,1863,1873,1873,1873,1873,1883,1883,1883,1883,1883,1883,1894,1894,1904,1904,1904,1915,1915,1915,1915,1926,1936,1947,1959,0,0,0,0,0,0,0,0,0,0,1130,1130,1126,1123,1123,1119,1119,1115,1115,1115,1115,1115,1115,1115,1115,1119,1119,1123,1123,1126,1126,1130,1130,1134,0,0,0,0,1785,1776,1776,1766,1766,1766,1766,1766,1757,1757,1757,1757,1757,1748,1748,1739,1739,1739,1731,1731,1731,1722,1722,1722,1713,1713,1705,1705,1705,1696,1696,1696,1696,1696,1696,1688,1688,1680,1680,1680,1680,1671,1671,1671,1663,1663,1663,1663,1663,1655,1655,1647,1647,1639,1639,1639,1632,1632,1632,1632,1632,1624,1624,1609,1609,1609,1609,1609,1601,1601,1601,1601,1601,1594,1586,1586,1579,1579,1579,1579,1572,1572,1572,1572,1572,1564,1564,1557,1557,1550,1550,1550,1550,0,0,0,0,0,0,0,0,928,928,925,925,925,923,918,918,918,915,915,915,915,913,913,913,913,913,915,915,918,918,920,925,925,925,0,0,0,0,0,1458,1458,1458,1458,1458,1458,1458,1452,1452,1445,1445,1445,1445,1445,1439,1439,1439,1427,1427,1421,1421,1421,1421,1421,1415,1415,1415,1415,1415,1410,1410,1404,1398,1398,1398,1398,1392,1392,1392,1392,1387,1387,1381,1381,1381,1376,1376,1376,1370,1370,1370,1370,1365,1365,1359,1359,1359,1359,1354,1354,1354,1349,1349,1349,1349,1343,1343,1338,1333,1333,1333,1333,1333,1333,1328,1328,1328,1328,1328,1322,1317,1317,1312,1312,1312,1312,1312,1307,1307,1302,1302,1302,1302,1292,1292,1292,1292,1288,1288,1288,1288,1288,1283,1283,1278,1278,1273,1273,1268,1268,1268,1268,1268,1268,1264,1259,1259,1259,1255,1255,1255,1250,1250,1250,1250,1245,1241,1241,1236,1236,1236,1236,1236,1232,1232,1232,1232,1227,1227,1223,1219,1219,1219,1219,1219,1214,1214,1214,1210,1210,1210,1206,1206,1202,1202,1202,1202,1202,1202,1197,1197,1197,1197,1193,1193,1193,1189,1185,1185,1185,1185,1181,1181,1181,1177,1177,1173,1173,1173,1169,1169,1169,1165,1165,1165,1165,1161,1161,1157,1157,1157,1157,0,0,0,0,0,0,0,0,0,0,0,0,0,0,0,0,0,0,0,0,0,0,0,0,0,0,0,0,0,0
0,0,0,0,0,0,0,0,0,0,0,0,0,1731,1731,1722,1722,1722,1722,1722,1722,1722,1722,1722,1722,1722,1722,1713,1713,1713,1713,1713,1713,1722,1713,1713,1722,1713,1713,1705,1705,1705,1705,1705,1705,1705,1705,1713,1713,1713,1713,1705,1705,1705,1705,1705,1705,1696,1696,1705,1705,1705,1705,1705,1705,1705,1696,1696,1696,1696,1696,1696,1696,1696,1696,1696,1688,1688,1688,1688,1688,1688,1688,1688,1688,1688,1688,1688,1688,1688,1688,1688,1688,1688,1688,1688,1680,1680,1688,1688,1688,1688,1688,1680,1680,1680,1671,1671,1671,1680,1680,1680,1680,1680,1680,1671,1671,1671,1671,1671,1671,1663,1663,1663,1663,1663,1663,1663,1663,1663,1671,1671,1671,1671,1680,1680,1680,1680,1671,1671,1671,1904,1904,1904,1904,1904,1894,1863,1853,1843,1833,1823,1813,1804,1804,1804,1794,1794,1794,1757,1696,1696,1696,1688,1688,1680,1680,1688,1680,1680,1688,1688,1688,1696,1696,1696,1696,1705,1705,1713,1722,1722,1722,1731,1731,1731,1731,1739,1739,1748,1757,1757,1757,1766,1766,1766,1766,1766,1766,1766,1766,1776,1776,1785,1785,1794,1794,1804,1804,1804,1813,1813,1823,1823,1833,1833,1833,1843,1843,1843,1843,1843,1853,1853,1863,1863,1873,1873,1873,1883,1883,1883,1883,1883,1883,1894,1894,1904,1904,1915,1915,1915,1915,1926,1936,1936,1947,1947,0,0,0,0,0,0,0,0,0,0,1130,1126,1126,1123,1123,1119,1119,1115,1115,1115,1115,1115,1115,1115,1115,1119,1119,1123,1123,1126,1126,1130,1130,1134,1134,0,0,0,1785,1785,1776,1766,1766,1766,1766,1766,1757,1757,1757,1757,1757,1748,1748,1739,1739,1739,1731,1731,1731,1722,1722,1722,1713,1713,1705,1705,1705,1696,1696,1696,1696,1696,1696,1688,1688,1680,1680,1680,1671,1671,1671,1671,1663,1663,1663,1663,1663,1655,1655,1647,1647,1639,1639,1639,1632,1632,1632,1632,1632,1624,1624,1609,1609,1609,1609,1609,1601,1601,1601,1601,1601,1594,1594,1586,1579,1579,1579,1579,1572,1572,1572,1572,1572,1564,1564,1557,1557,1550,1550,1550,0,0,0,0,0,0,0,0,0,928,928,925,925,925,923,923,918,918,915,915,915,915,913,913,913,913,913,915,915,918,920,923,928,928,928,0,0,0,0,0,1464,1464,1464,1464,1464,1458,1458,1452,1452,1445,1445,1445,1445,1445,1439,1439,1439,1427,1427,1421,1421,1421,1421,1421,1415,1415,1415,1415,1415,1410,1410,1404,1404,1398,1398,1398,1392,1392,1392,1392,1392,1387,1387,1381,1381,1376,1376,1376,1376,1370,1370,1370,1365,1365,1359,1359,1359,1359,1354,1354,1354,1349,1349,1349,1349,1343,1343,1338,1333,1333,1333,1333,1333,1333,1333,1333,1328,1328,1322,1317,1317,1312,1312,1312,1312,1312,1312,1307,1307,1302,1302,1302,1302,1292,1292,1292,1292,1292,1288,1288,1288,1288,1283,1283,1278,1278,1273,1273,1268,1268,1268,1268,1268,1268,1264,1259,1259,1259,1255,1255,1255,1255,1250,1250,1250,1245,1241,1241,1236,1236,1236,1236,1236,1232,1232,1232,1232,1227,1227,1227,1219,1219,1219,1219,1219,1214,1214,1214,1210,1210,1210,1206,1206,1202,1202,1202,1202,1202,1202,1197,1197,1197,1197,1193,1193,1193,1189,1185,1185,1185,1185,1181,1181,1181,1181,1177,1173,1173,1173,1169,1169,1169,1165,1165,1165,1165,1161,1161,1157,1157,1157,1157,0,0,0,0,0,0,0,0,0,0,0,0,0,0,0,0,0,0,0,0,0,0,0,0,0,0,0,0,0,0
0,0,0,0,0,0,0,0,0,0,0,0,0,1731,1722,1722,1722,1722,1722,1722,1722,1722,1722,1722,1722,1722,1722,1713,1713,1713,1713,1713,1713,1722,1713,1713,1722,1713,1713,1705,1705,1705,1713,1713,1713,1713,1713,1713,1713,1713,1713,1705,1705,1705,1705,1705,1705,1705,1705,1705,1705,1705,1705,1705,1705,1705,1705,1696,1696,1696,1696,1696,1696,1696,1696,1696,1696,1696,1688,1688,1688,1688,1688,1688,1688,1688,1688,1688,1688,1688,1688,1688,1688,1688,1688,1688,1688,1688,1688,1688,1688,1688,1688,1688,1688,1680,1680,1680,1680,1680,1680,1680,1680,1680,1680,1671,1671,1671,1671,1671,1671,1671,1663,1663,1671,1663,1663,1663,1663,1663,1671,1671,1671,1671,1680,1680,1680,1680,1680,1680,1883,1883,1894,1894,1894,1894,1883,1863,1853,1843,1833,1823,1813,1804,1804,1794,1794,1794,1794,1757,1696,1696,1696,1688,1688,1680,1680,1688,1688,1688,1688,1688,1696,1696,1696,1696,1705,1705,1705,1713,1722,1722,1722,1731,1731,1731,1731,1739,1739,1748,1748,1757,1757,1766,1766,1766,1766,1766,1766,1766,1766,1776,1776,1785,1785,1794,1794,1794,1804,1804,1804,1813,1813,1823,1833,1833,1833,1833,1843,1843,1843,1843,1853,1863,1863,1863,1873,1873,1873,1873,1883,1883,1883,1883,1883,1894,1904,1904,1915,1915,1915,1915,1915,1926,1936,1936,1936,1936,0,0,0,0,0,0,0,0,0,0,0,1126,1123,1123,1123,1119,1119,1115,1115,1115,1115,1115,1115,1115,1115,1119,1119,1123,1123,1126,1126,1130,1134,1134,1134,0,0,0,1785,1785,1776,1776,1776,1766,1766,1766,1766,1757,1757,1757,1757,1757,1748,1748,1739,1739,1731,1731,1731,1722,1722,1722,1713,1713,1705,1705,1705,1696,1696,1696,1696,1696,1696,1688,1688,1680,1680,1680,1671,1671,1671,1671,1663,1663,1663,1663,1663,1663,1655,1647,1647,1647,1639,1639,1639,1632,1632,1632,1632,1624,1624,1609,1609,1609,1609,1609,1601,1601,1601,1601,1601,1594,1594,1586,1586,1579,1579,1579,1579,1572,1572,1572,1572,1564,1564,1557,1557,1550,1550,1550,0,0,0,0,0,0,0,0,0,928,928,925,925,925,923,923,918,918,915,915,915,915,913,913,913,913,913,915,915,918,920,925,928,930,933,933,0,0,0,0,1464,1464,1464,1464,1464,1458,1452,1452,1452,1445,1445,1445,1445,1445,1439,1439,1433,1433,1427,1427,1421,1421,1421,1421,1421,1415,1415,1415,1415,1410,1410,1404,1398,1398,1398,1398,1398,1392,1392,1392,1392,1387,1387,1381,1376,1376,1376,1376,1376,1370,1370,1370,1370,1365,1365,1359,1359,1359,1354,1354,1354,1349,1349,1349,1349,1343,1343,1338,1333,1333,1333,1333,1333,1333,1333,1333,1328,1328,1322,1317,1317,1312,1312,1312,1307,1307,1307,1307,1307,1302,1302,1302,1302,1292,1292,1292,1292,1292,1288,1288,1288,1288,1283,1283,1278,1278,1273,1273,1268,1268,1268,1268,1268,1268,1264,1259,1259,1259,1259,1255,1255,1255,1250,1250,1250,1245,1241,1241,1236,1236,1236,1236,1236,1236,1232,1232,1232,1227,1227,1227,1223,1219,1219,1219,1219,1214,1214,1214,1210,1210,1210,1206,1206,1202,1202,1202,1202,1202,1202,1197,1197,1197,1197,1193,1193,1193,1189,1185,1185,1185,1185,1181,1181,1181,1181,1177,1173,1173,1173,1169,1169,1169,1165,1165,1165,1165,1165,1161,1157,1157,1157,1157,0,0,0,0,0,0,0,0,0,0,0,0,0,0,0,0,0,0,0,0,0,0,0,0,0,0,0,0,0,0
0,0,0,0,0,0,0,0,0,0,0,0,0,1731,1722,1722,1722,1722,1722,1722,1722,1722,1722,1722,1722,1722,1722,1722,1713,1713,1713,1713,1713,1722,1713,1713,1722,1722,1722,1713,1713,1713,1713,1713,1713,1713,1713,1713,1713,1713,1713,1713,1713,1713,1713,1713,1713,1713,1705,1705,1705,1705,1705,1705,1705,1705,1705,1696,1696,1696,1696,1696,1696,1696,1696,1696,1696,1696,1688,1688,1688,1688,1688,1688,1688,1696,1696,1696,1696,1696,1688,1688,1688,1688,1688,1688,1688,1688,1688,1688,1688,1688,1688,1688,1688,1688,1680,1680,1680,1680,1680,1680,1680,1680,1680,1671,1671,1671,1671,1671,1671,1671,1663,1663,1671,1663,1663,1663,1663,1663,1671,1671,1671,1671,1680,1680,1680,1680,1680,1680,1883,1883,1883,1883,1873,1873,1873,1863,1843,1843,1833,1823,1813,1804,1804,1794,1794,1794,1785,1757,1696,1696,1696,1688,1688,1680,1680,1688,1688,1688,1688,1688,1696,1696,1696,1696,1705,1705,1713,1713,1722,1722,1722,1731,1731,1731,1731,1739,1739,1739,1748,1757,1757,1757,1766,1766,1766,1766,1766,1776,1776,1776,1776,1785,1785,1794,1794,1794,1804,1804,1804,1813,1813,1823,1833,1833,1833,1833,1843,1843,1843,1853,1853,1863,1863,1873,1873,1873,1873,1873,1883,1883,1883,1883,1883,1894,1904,1904,1915,1915,1915,1915,1915,1926,1936,1936,1926,1926,1926,0,0,0,0,0,0,0,0,0,0,1126,1123,1123,1123,1119,1119,1115,1115,1115,1115,1115,1115,1115,1115,1119,1119,1123,1123,1126,1130,1134,1134,1134,1134,0,0,0,1785,1785,1785,1776,1776,1766,1766,1766,1766,1757,1757,1757,1757,1757,1748,1748,1739,1739,1739,1731,1731,1722,1722,1722,1722,1713,1713,1705,1705,1696,1696,1696,1696,1696,1696,1696,1688,1688,1680,1680,1680,1671,1671,1671,1663,1663,1663,1663,1663,1663,1655,1647,1647,1647,1639,1639,1639,1632,1632,1632,1632,1624,1624,1609,1609,1609,1609,1609,1609,1601,1601,1601,1601,1594,1594,1586,1586,1579,1579,1579,1579,1572,1572,1572,1572,1572,1564,1564,1557,1557,1557,1557,0,0,0,0,0,0,0,0,928,928,928,928,925,925,923,923,918,918,915,915,915,915,913,913,913,913,913,915,915,918,920,925,930,933,933,933,0,0,0,0,0,1464,1464,1464,1464,1458,1452,1452,1445,1445,1445,1445,1445,1445,1439,1439,1433,1433,1427,1427,1427,1421,1421,1421,1421,1421,1415,1415,1415,1410,1410,1404,1398,1398,1398,1398,1398,1398,1392,1392,1392,1392,1387,1381,1376,1376,1376,1376,1370,1370,1370,1370,1370,1365,1365,1359,1359,1359,1354,1354,1354,1349,1349,1349,1349,1343,1343,1338,1333,1333,1333,1333,1333,1333,1333,1333,1328,1328,1322,1317,1317,1312,1312,1312,1307,1307,1307,1307,1307,1302,1302,1302,1302,1292,1292,1292,1292,1292,1288,1288,1288,1288,1283,1278,1278,1278,1273,1273,1273,1273,1268,1268,1268,1268,1264,1264,1264,1264,1259,1255,1255,1255,1250,1250,1250,1245,1245,1241,1241,1241,1236,1236,1236,1236,1232,1232,1232,1227,1227,1227,1223,1219,1219,1219,1219,1214,1214,1214,1210,1210,1210,1206,1206,1202,1202,1202,1202,1202,1202,1197,1197,1197,1197,1193,1193,1193,1193,1189,1185,1185,1185,1185,1181,1181,1181,1181,1177,1177,1173,1173,1169,1169,1165,1165,1165,1165,1165,1161,1157,1157,1157,1157,0,0,0,0,0,0,0,0,0,0,0,0,0,0,0,0,0,0,0,0,0,0,0,0,0,0,0,0,0,0
0,0,0,0,0,0,0,0,0,0,0,0,0,1731,1731,1731,1722,1722,1731,1731,1722,1722,1722,1722,1722,1722,1722,1722,1713,1713,1713,1713,1713,1713,1713,1713,1722,1722,1722,1713,1713,1713,1713,1713,1713,1713,1713,1713,1713,1713,1713,1713,1713,1713,1713,1713,1713,1713,1705,1705,1705,1705,1705,1705,1705,1705,1705,1705,1696,1696,1696,1696,1696,1696,1696,1696,1696,1696,1696,1696,1696,1696,1696,1696,1696,1696,1696,1696,1696,1696,1696,1696,1696,1688,1688,1688,1688,1688,1688,1688,1688,1688,1688,1688,1688,1688,1680,1680,1680,1680,1680,1680,1680,1680,1680,1671,1671,1671,1671,1671,1671,1671,1663,1663,1663,1663,1663,1671,1671,1671,1671,1671,1671,1671,1680,1680,1680,1680,1688,1688,1883,1883,1873,1873,1873,1863,1853,1853,1843,1843,1833,1823,1813,1813,1804,1804,1794,1794,1785,1757,1696,1696,1696,1688,1688,1688,1688,1688,1688,1688,1688,1688,1696,1696,1696,1696,1705,1705,1705,1713,1722,1722,1722,1731,1731,1731,1731,1739,1739,1739,1748,1748,1757,1757,1766,1766,1776,1776,1776,1776,1776,1776,1776,1785,1794,1794,1794,1804,1804,1804,1813,1813,1823,1823,1833,1833,1833,1833,1843,1843,1843,1853,1863,1863,1873,1873,1873,1873,1873,1883,1883,1883,1883,1883,1894,1894,1904,1904,1904,1915,1915,1915,1926,1926,1936,1936,1926,1926,1915,1915,0,0,0,0,0,0,0,0,1123,1123,1123,1123,1123,1119,1119,1115,1115,1115,1115,1115,1115,1115,1119,1119,1119,1123,1126,1126,1130,1134,1134,1138,1138,0,0,0,1794,1785,1785,1785,1776,1776,1766,1766,1766,1757,1757,1757,1757,1757,1748,1748,1748,1739,1739,1739,1731,1722,1722,1722,1722,1713,1713,1705,1705,1705,1696,1696,1696,1696,1696,1696,1688,1688,1688,1680,1680,1671,1671,1671,1663,1663,1663,1663,1663,1663,1655,1647,1647,1647,1639,1639,1639,1632,1632,1632,1632,1624,1624,1616,1609,1609,1609,1609,1609,1601,1601,1601,1601,1601,1594,1586,1586,1579,1579,1579,1579,1579,1572,1572,1572,1572,1572,1564,1564,1557,1557,1557,0,0,0,0,0,0,0,0,928,928,928,925,925,925,925,923,918,918,915,915,915,915,915,915,915,915,915,915,915,918,923,928,933,933,933,933,0,0,0,0,0,1464,1464,1464,1464,1458,1452,1452,1445,1445,1445,1445,1439,1439,1439,1439,1439,1433,1433,1433,1427,1427,1421,1421,1421,1421,1415,1415,1415,1410,1410,1404,1398,1398,1398,1398,1398,1398,1392,1392,1392,1392,1387,1381,1376,1376,1376,1376,1370,1370,1370,1370,1370,1365,1365,1359,1359,1359,1354,1354,1354,1354,1349,1349,1349,1349,1343,1338,1333,1333,1333,1333,1333,1333,1333,1333,1328,1328,1322,1317,1317,1312,1312,1312,1307,1307,1312,1307,1307,1307,1302,1302,1302,1297,1292,1292,1292,1292,1288,1288,1288,1283,1278,1278,1278,1273,1273,1273,1273,1273,1268,1268,1268,1268,1264,1264,1259,1259,1259,1255,1255,1255,1250,1250,1250,1245,1245,1245,1241,1241,1236,1236,1236,1236,1232,1232,1232,1227,1227,1227,1223,1219,1219,1219,1219,1219,1214,1214,1214,1214,1210,1206,1206,1202,1202,1202,1202,1202,1202,1197,1197,1197,1197,1193,1193,1193,1189,1189,1185,1185,1185,1185,1181,1181,1181,1181,1177,1177,1173,1173,1169,1169,1165,1165,1165,1165,1165,1161,1161,1161,1161,1161,0,0,0,0,0,0,0,0,0,0,0,0,0,0,0,0,0,0,0,0,0,0,0,0,0,0,0,0,0,0
0,0,0,0,0,0,0,0,0,0,0,0,0,1731,1731,1731,1731,1731,1731,1731,1731,1731,1722,1722,1722,1722,1722,1722,1713,1713,1713,1713,1713,1713,1713,1713,1722,1722,1713,1713,1713,1713,1713,1713,1713,1713,1713,1722,1722,1722,1713,1713,1713,1713,1713,1713,1713,1713,1705,1705,1705,1705,1705,1705,1705,1705,1705,1696,1696,1696,1696,1696,1696,1696,1696,1696,1696,1696,1696,1696,1696,1696,1696,1696,1696,1696,1696,1696,1696,1696,1696,1696,1696,1696,1688,1688,1688,1688,1688,1688,1688,1688,1688,1688,1688,1688,1688,1688,1680,1680,1680,1680,1680,1680,1680,1671,1671,1671,1671,1671,1671,1671,1663,1663,1663,1663,1663,1671,1671,1671,1671,1671,1680,1680,1680,1680,1688,1688,1688,1696,1883,1873,1863,1853,1853,1853,1843,1843,1843,1843,1833,1823,1823,1813,1804,1804,1794,1794,1794,1785,1696,1696,1688,1688,1688,1688,1688,1688,1688,1688,1688,1688,1696,1696,1696,1705,1705,1705,1705,1713,1722,1722,1722,1722,1731,1731,1731,1739,1739,1739,1748,1748,1757,1757,1766,1766,1776,1776,1776,1776,1776,1776,1776,1785,1794,1794,1804,1804,1804,1804,1813,1813,1823,1823,1833,1833,1833,1843,1843,1843,1853,1853,1863,1863,1863,1873,1873,1873,1873,1883,1883,1883,1883,1883,1894,1894,1904,1904,1904,1915,1915,1915,1915,1926,1926,1926,1926,1926,1915,1915,0,0,0,0,0,0,0,0,1123,1123,1123,1123,1119,1119,1119,1115,1115,1115,1115,1115,1115,1115,1119,1119,1123,1123,1126,1126,1130,1134,1134,1134,1134,0,0,0,1794,1794,1785,1785,1785,1776,1776,1766,1766,1757,1757,1757,1757,1748,1748,1748,1748,1739,1739,1739,1731,1722,1722,1722,1722,1722,1713,1713,1705,1705,1696,1696,1696,1696,1696,1696,1696,1688,1688,1688,1680,1671,1671,1671,1663,1663,1663,1663,1663,1663,1655,1647,1647,1647,1639,1639,1639,1632,1632,1632,1632,1624,1624,1616,1609,1609,1609,1609,1609,1609,1601,1601,1601,1601,1594,1594,1586,1579,1579,1579,1579,1579,1579,1579,1572,1572,1572,1572,1564,1564,1564,0,0,0,0,0,0,0,0,0,928,928,928,925,925,925,923,923,920,918,918,915,915,915,915,915,915,915,915,915,918,920,923,928,933,935,935,935,935,0,0,0,0,1470,1464,1464,1458,1458,1452,1445,1445,1445,1445,1445,1439,1439,1439,1439,1439,1433,1433,1433,1427,1427,1421,1421,1421,1421,1415,1415,1415,1410,1410,1404,1398,1398,1398,1398,1398,1398,1398,1392,1392,1392,1387,1381,1376,1376,1376,1376,1376,1370,1370,1370,1370,1365,1365,1359,1359,1359,1354,1354,1354,1354,1354,1349,1349,1349,1343,1343,1338,1333,1333,1333,1333,1333,1333,1328,1328,1328,1322,1322,1317,1317,1312,1312,1312,1312,1312,1307,1307,1307,1307,1302,1302,1297,1292,1292,1292,1292,1288,1288,1288,1283,1278,1278,1278,1273,1273,1273,1273,1273,1268,1268,1268,1268,1264,1264,1259,1259,1259,1255,1255,1255,1250,1250,1250,1245,1245,1245,1241,1241,1236,1236,1236,1236,1232,1232,1232,1227,1227,1227,1223,1219,1219,1219,1219,1219,1214,1214,1214,1214,1210,1210,1210,1206,1206,1202,1202,1202,1202,1197,1197,1197,1197,1193,1193,1193,1189,1189,1185,1185,1185,1185,1181,1181,1181,1181,1177,1177,1173,1169,1169,1169,1169,1169,1165,1165,1165,1165,1161,1157,1157,1161,0,0,0,0,0,0,0,0,0,0,0,0,0,0,0,0,0,0,0,0,0,0,0,0,0,0,0,0,0,0
0,0,0,0,0,0,0,0,0,0,0,0,0,1731,1731,1731,1731,1731,1731,1731,1731,1731,1731,1731,1722,1722,1722,1722,1722,1713,1713,1713,1713,1713,1713,1713,1722,1722,1713,1713,1722,1722,1722,1713,1713,1722,1722,1722,1722,1722,1722,1713,1713,1713,1713,1713,1713,1713,1713,1705,1705,1705,1705,1705,1705,1705,1705,1696,1696,1696,1696,1696,1696,1696,1696,1696,1696,1696,1696,1696,1696,1696,1696,1696,1696,1696,1696,1696,1696,1696,1696,1696,1696,1696,1688,1688,1688,1688,1688,1688,1688,1688,1688,1688,1688,1688,1688,1688,1688,1688,1688,1688,1680,1680,1680,1680,1671,1671,1671,1671,1671,1671,1671,1671,1671,1671,1671,1671,1671,1671,1671,1671,1680,1680,1688,1688,1688,1688,1696,1705,1853,1853,1853,1843,1843,1843,1843,1843,1843,1843,1833,1823,1823,1813,1813,1804,1794,1794,1794,1794,1696,1688,1688,1688,1688,1688,1688,1688,1688,1688,1688,1688,1696,1696,1705,1705,1705,1705,1705,1713,1713,1722,1722,1722,1731,1731,1731,1731,1739,1739,1739,1748,1757,1757,1766,1766,1776,1776,1776,1776,1776,1776,1785,1785,1794,1794,1804,1804,1804,1804,1813,1813,1823,1833,1833,1833,1833,1833,1843,1843,1853,1853,1863,1863,1863,1873,1873,1873,1873,1883,1883,1883,1883,1883,1894,1894,1904,1904,1915,1915,1915,1915,1915,1926,1926,1926,1926,1926,1926,0,0,0,0,0,0,0,0,0,1123,1123,1119,1119,1119,1119,1115,1115,1115,1115,1115,1115,1115,1115,1119,1119,1123,1126,1126,1130,1130,1134,1134,1134,1134,0,0,0,1794,1794,1785,1785,1785,1776,1776,1766,1766,1757,1757,1757,1757,1748,1748,1748,1748,1739,1739,1739,1731,1722,1722,1722,1722,1722,1713,1713,1705,1705,1696,1696,1696,1696,1696,1696,1696,1688,1688,1680,1680,1671,1671,1671,1671,1671,1663,1663,1663,1663,1655,1647,1647,1647,1639,1639,1639,1632,1632,1632,1632,1624,1624,1616,1609,1609,1609,1609,1609,1609,1601,1601,1601,1601,1601,1594,1586,1579,1579,1579,1579,1579,1579,1579,1572,1572,1572,1572,1564,1564,1564,0,0,0,0,0,0,0,0,0,928,925,925,925,925,925,923,923,920,918,918,915,915,915,915,915,915,915,915,918,918,920,923,928,933,935,935,935,935,0,0,0,0,0,1464,1464,1458,1458,1452,1445,1445,1445,1445,1445,1439,1439,1439,1439,1439,1439,1433,1433,1433,1427,1427,1421,1421,1421,1421,1415,1415,1410,1410,1404,1404,1398,1398,1398,1398,1398,1398,1392,1392,1392,1387,1381,1381,1376,1376,1376,1376,1370,1370,1370,1370,1365,1365,1359,1359,1359,1354,1354,1354,1354,1354,1349,1349,1349,1343,1343,1338,1333,1333,1333,1333,1333,1333,1328,1328,1328,1322,1322,1317,1317,1317,1312,1312,1312,1312,1312,1307,1307,1307,1302,1302,1297,1292,1292,1292,1292,1288,1288,1288,1288,1283,1278,1278,1278,1273,1273,1273,1273,1273,1268,1268,1268,1264,1264,1259,1259,1259,1255,1255,1255,1255,1250,1250,1250,1245,1245,1241,1241,1236,1236,1236,1236,1232,1232,1232,1227,1227,1227,1223,1219,1219,1219,1219,1219,1219,1214,1214,1214,1210,1210,1210,1206,1206,1202,1202,1202,1202,1197,1197,1197,1197,1193,1193,1193,1189,1189,1185,1185,1185,1185,1181,1181,1181,1181,1177,1177,1173,1169,1169,1169,1169,1169,1169,1165,1165,1165,1161,1157,1157,1161,0,0,0,0,0,0,0,0,0,0,0,0,0,0,0,0,0,0,0,0,0,0,0,0,0,0,0,0,0,0
0,0,0,0,0,0,0,0,0,0,0,0,0,1731,1731,1731,1731,1731,1731,1731,1731,1731,1731,1731,1731,1722,1722,1722,1722,1713,1713,1713,1713,1713,1713,1713,1722,1722,1722,1722,1722,1722,1722,1722,1722,1722,1722,1722,1722,1722,1722,1722,1722,1722,1722,1713,1713,1713,1713,1705,1705,1705,1705,1705,1705,1705,1705,1705,1696,1696,1696,1696,1696,1696,1705,1705,1705,1705,1696,1696,1696,1696,1696,1696,1696,1696,1696,1696,1696,1696,1696,1696,1696,1688,1688,1688,1688,1688,1688,1688,1688,1688,1688,1688,1688,1688,1688,1688,1688,1688,1688,1688,1680,1680,1680,1680,1671,1671,1671,1671,1671,1671,1671,1671,1671,1671,1671,1671,1671,1671,1671,1671,1680,1680,1688,1688,1688,1688,1696,1705,1843,1843,1843,1843,1843,1843,1843,1843,1843,1843,1833,1833,1823,1823,1813,1804,1794,1794,1794,1748,1696,1688,1688,1688,1688,1688,1688,1688,1688,1688,1696,1696,1696,1696,1705,1705,1705,1705,1705,1713,1713,1722,1722,1722,1731,1731,1731,1731,1739,1739,1739,1748,1757,1757,1766,1766,1776,1776,1776,1776,1776,1785,1785,1794,1794,1794,1804,1804,1804,1813,1813,1823,1823,1833,1833,1833,1833,1833,1843,1843,1853,1853,1863,1863,1863,1873,1873,1873,1873,1883,1883,1883,1883,1883,1894,1894,1904,1915,1915,1915,1915,1915,1915,1926,1926,1926,1926,1926,0,0,1915,1915,0,0,0,0,0,0,1123,1123,1119,1119,1119,1119,1115,1115,1115,1115,1115,1115,1115,1115,1119,1123,1126,1126,1126,1130,1130,1134,1134,1134,1134,0,0,0,1804,1794,1794,1794,1785,1785,1776,1766,1766,1766,1757,1757,1757,1757,1748,1748,1748,1739,1739,1739,1731,1731,1731,1722,1722,1722,1713,1713,1705,1705,1696,1696,1696,1696,1696,1696,1696,1688,1688,1680,1680,1671,1671,1671,1671,1671,1663,1663,1663,1663,1655,1655,1647,1647,1639,1639,1639,1639,1632,1632,1632,1632,1624,1616,1616,1609,1609,1609,1609,1609,1609,1601,1601,1601,1601,1594,1586,1586,1579,1579,1579,1579,1579,1579,1572,1572,1572,1572,1572,1564,1564,0,0,0,0,0,0,0,0,0,925,925,925,925,925,925,923,923,920,918,918,915,915,915,915,915,915,915,915,918,918,920,923,928,933,935,935,935,935,935,0,0,0,1464,1464,1464,1458,1458,1452,1445,1445,1445,1445,1445,1439,1439,1439,1439,1439,1439,1433,1433,1433,1433,1427,1427,1421,1421,1421,1415,1415,1415,1410,1410,1404,1404,1398,1398,1398,1398,1398,1392,1392,1392,1387,1381,1381,1376,1376,1376,1376,1376,1370,1370,1370,1365,1365,1365,1359,1359,1359,1354,1354,1354,1354,1354,1349,1349,1343,1343,1338,1338,1333,1333,1333,1333,1333,1328,1328,1328,1322,1322,1317,1317,1317,1312,1312,1312,1312,1312,1312,1307,1307,1307,1302,1297,1297,1292,1292,1292,1288,1288,1288,1288,1283,1283,1278,1278,1278,1273,1273,1273,1273,1268,1268,1268,1268,1264,1264,1259,1259,1255,1255,1255,1255,1250,1250,1250,1245,1245,1245,1241,1241,1236,1236,1236,1236,1232,1232,1227,1227,1227,1223,1219,1219,1219,1219,1219,1219,1219,1214,1214,1210,1210,1210,1206,1206,1202,1202,1202,1202,1197,1197,1197,1197,1193,1193,1193,1193,1189,1185,1185,1185,1185,1181,1181,1181,1181,1177,1177,1173,1169,1169,1169,1169,1169,1169,1165,1165,1165,1157,1157,1157,1157,0,0,0,0,0,0,0,0,0,0,0,0,0,0,0,0,0,0,0,0,0,0,0,0,0,0,0,0,0,0
0,0,0,0,0,0,0,0,0,0,0,0,0,1731,1731,1731,1731,1731,1731,1731,1731,1731,1731,1731,1731,1722,1722,1722,1722,1713,1713,1713,1713,1713,1713,1713,1722,1722,1722,1722,1722,1722,1722,1722,1722,1722,1722,1722,1722,1722,1722,1722,1722,1722,1713,1713,1713,1713,1713,1705,1705,1705,1705,1705,1705,1705,1696,1696,1696,1696,1696,1696,1696,1696,1705,1705,1705,1696,1696,1696,1696,1696,1696,1696,1696,1696,1696,1696,1696,1696,1696,1696,1696,1688,1688,1688,1688,1688,1688,1688,1688,1688,1688,1688,1688,1688,1688,1688,1688,1688,1688,1688,1688,1680,1680,1680,1680,1680,1671,1671,1671,1671,1671,1671,1671,1671,1671,1671,1671,1671,1671,1671,1680,1680,1688,1688,1688,1688,1696,1843,1843,1833,1833,1833,1833,1833,1843,1843,1843,1843,1833,1833,1823,1823,1813,1804,1794,1794,1785,1748,1696,1696,1688,1688,1688,1680,1680,1688,1688,1688,1696,1696,1696,1696,1705,1705,1705,1705,1705,1713,1713,1722,1722,1722,1731,1731,1731,1739,1739,1739,1739,1748,1757,1757,1766,1766,1776,1776,1776,1776,1785,1785,1785,1794,1794,1794,1804,1804,1804,1813,1813,1823,1823,1833,1833,1833,1833,1843,1843,1843,1853,1853,1863,1863,1863,1873,1873,1873,1883,1883,1883,1883,1883,1883,1894,1894,1904,1915,1915,1915,1915,1915,1915,1926,1926,1926,1926,1926,0,0,1915,1915,0,0,0,0,0,1123,1123,1123,1119,1119,1119,1119,1115,1115,1115,1115,1115,1115,1115,1115,1119,1123,1126,1126,1130,1130,1134,1134,1134,1134,1134,1134,0,1794,1794,1794,1794,1794,1794,1785,1776,1776,1766,1766,1766,1757,1757,1757,1748,1748,1748,1748,1748,1739,1739,1731,1731,1731,1722,1722,1713,1713,1705,1705,1696,1696,1696,1696,1696,1696,1696,1688,1688,1688,1680,1680,1671,1671,1671,1671,1663,1663,1663,1663,1655,1655,1647,1647,1647,1639,1639,1639,1632,1632,1632,1632,1624,1616,1616,1609,1609,1609,1609,1609,1601,1601,1601,1601,1601,1594,1586,1586,1579,1579,1579,1579,1579,1579,1572,1572,1572,1572,1572,1572,1572,0,0,0,0,0,0,0,0,0,925,925,925,925,925,925,923,923,918,918,918,915,915,915,915,915,915,915,915,918,918,920,923,928,933,935,938,938,938,0,0,0,0,1464,1464,1464,1464,1458,1452,1452,1445,1445,1445,1445,1445,1445,1439,1439,1439,1439,1433,1433,1433,1433,1427,1427,1427,1421,1421,1415,1415,1415,1410,1410,1404,1404,1398,1398,1398,1398,1398,1398,1392,1392,1392,1381,1381,1376,1376,1376,1376,1376,1370,1370,1370,1365,1365,1365,1365,1365,1359,1359,1354,1354,1354,1354,1349,1349,1349,1343,1343,1338,1333,1333,1333,1333,1333,1328,1328,1328,1322,1322,1317,1317,1317,1312,1312,1312,1312,1312,1312,1307,1307,1307,1302,1302,1297,1297,1292,1292,1288,1288,1288,1288,1283,1283,1283,1283,1278,1273,1273,1273,1273,1268,1268,1268,1268,1264,1264,1259,1259,1255,1255,1255,1255,1250,1250,1250,1250,1245,1245,1241,1241,1241,1236,1236,1236,1232,1232,1227,1227,1227,1223,1223,1223,1219,1219,1219,1219,1219,1214,1214,1214,1210,1210,1210,1206,1202,1202,1202,1202,1202,1197,1197,1197,1193,1193,1193,1193,1189,1189,1185,1185,1185,1181,1181,1181,1181,1177,1177,1173,1173,1169,1169,1169,1169,1169,1165,1165,1165,1157,1157,1157,1157,0,0,0,0,0,0,0,0,0,0,0,0,0,0,0,0,0,0,0,0,0,0,0,0,0,0,0,0,0,0
0,0,0,0,0,0,0,0,0,0,0,0,0,1731,1731,1731,1731,1731,1731,1731,1731,1731,1722,1722,1731,1731,1722,1722,1722,1722,1722,1722,1722,1713,1713,1713,1722,1722,1722,1722,1722,1722,1722,1722,1722,1722,1722,1722,1722,1722,1722,1722,1722,1722,1713,1713,1713,1713,1713,1705,1705,1705,1705,1705,1696,1696,1696,1696,1696,1696,1696,1696,1696,1696,1705,1705,1705,1696,1696,1696,1696,1696,1696,1696,1696,1696,1696,1696,1696,1696,1696,1696,1696,1688,1688,1688,1688,1688,1688,1688,1688,1688,1688,1688,1688,1688,1688,1688,1688,1688,1688,1688,1688,1680,1680,1680,1680,1680,1671,1671,1671,1671,1671,1671,1671,1671,1671,1671,1671,1671,1671,1671,1680,1680,1688,1688,1688,1688,1696,1833,1833,1833,1833,1833,1833,1833,1833,1843,1843,1843,1833,1833,1823,1823,1813,1804,1794,1794,1785,1748,1705,1688,1688,1688,1688,1680,1680,1688,1688,1696,1696,1696,1696,1696,1705,1705,1705,1705,1705,1713,1713,1722,1722,1722,1731,1731,1731,1739,1739,1739,1748,1748,1757,1757,1766,1766,1776,1776,1776,1785,1785,1785,1785,1794,1794,1804,1804,1804,1804,1813,1823,1823,1823,1833,1833,1833,1833,1843,1843,1843,1853,1853,1863,1863,1873,1873,1873,1873,1883,1883,1883,1883,1883,1883,1894,1904,1904,1915,1915,1915,1915,1915,1915,1926,1926,1926,1926,0,0,0,0,0,0,0,0,0,0,1123,1123,1123,1119,1119,1119,1119,1115,1115,1115,1115,1115,1115,1115,1119,1119,1123,1126,1126,1130,1130,1134,1134,1134,1134,1134,0,0,0,1794,1794,1794,1794,1794,1785,1776,1766,1766,1766,1766,1757,1757,1757,1757,1757,1748,1748,1748,1739,1739,1731,1731,1731,1722,1722,1722,1713,1705,1705,1705,1696,1696,1696,1696,1696,1696,1696,1688,1688,1688,1680,1671,1671,1671,1671,1663,1663,1663,1663,1655,1655,1647,1647,1647,1639,1639,1639,1639,1632,1632,1632,1624,1624,1616,1616,1609,1609,1609,1609,1601,1601,1601,1601,1601,1594,1586,1586,1586,1579,1579,1579,1579,1579,1572,1572,1572,1572,1572,1572,1572,0,0,0,0,0,0,0,0,0,925,925,925,925,925,925,923,923,918,918,918,915,915,915,915,915,915,915,915,918,918,920,925,928,933,935,938,938,938,0,0,0,1470,1470,1464,1464,1464,1458,1452,1452,1445,1445,1445,1445,1445,1445,1439,1439,1439,1439,1439,1433,1433,1433,1427,1427,1421,1421,1421,1415,1415,1415,1410,1410,1404,1404,1398,1398,1398,1398,1398,1398,1392,1392,1387,1381,1381,1376,1376,1376,1376,1376,1370,1370,1370,1365,1365,1365,1365,1365,1359,1359,1359,1354,1354,1354,1349,1349,1349,1343,1343,1338,1333,1333,1333,1333,1333,1328,1328,1328,1328,1322,1322,1317,1317,1317,1312,1312,1312,1312,1312,1307,1307,1307,1302,1302,1297,1297,1292,1292,1288,1288,1288,1288,1283,1283,1283,1283,1283,1273,1273,1273,1273,1273,1268,1268,1268,1264,1264,1259,1259,1259,1255,1255,1255,1255,1250,1250,1250,1245,1245,1241,1241,1241,1236,1236,1236,1232,1232,1227,1227,1227,1223,1223,1223,1219,1219,1219,1219,1219,1214,1214,1214,1210,1210,1210,1206,1202,1202,1202,1202,1202,1197,1197,1197,1193,1193,1193,1193,1189,1189,1185,1185,1185,1185,1181,1181,1181,1177,1177,1173,1173,1169,1169,1169,1169,1169,1165,1165,1165,1161,1157,1157,1157,0,0,0,0,0,0,0,0,0,0,0,0,0,0,0,0,0,0,0,0,0,0,0,0,0,0,0,0,0,0
0,0,0,0,0,0,0,0,0,0,0,0,0,1731,1731,1731,1731,1731,1731,1731,1731,1731,1722,1722,1731,1731,1722,1722,1722,1722,1722,1722,1722,1722,1722,1722,1722,1722,1722,1722,1722,1722,1722,1722,1722,1722,1722,1722,1722,1722,1722,1722,1722,1713,1713,1713,1705,1705,1713,1705,1705,1705,1705,1705,1696,1696,1696,1696,1696,1696,1696,1696,1705,1705,1705,1705,1705,1696,1696,1696,1696,1696,1696,1696,1696,1696,1696,1696,1696,1696,1696,1696,1696,1688,1688,1688,1688,1688,1688,1688,1688,1688,1688,1688,1688,1688,1688,1688,1688,1688,1688,1688,1688,1688,1680,1680,1680,1680,1671,1671,1671,1671,1671,1671,1671,1671,1671,1671,1671,1671,1671,1671,1680,1680,1688,1688,1688,1688,1696,1833,1833,1833,1833,1833,1833,1833,1833,1833,1833,1833,1833,1833,1823,1813,1813,1804,1794,1794,1785,1748,1705,1688,1688,1688,1688,1688,1688,1688,1688,1696,1696,1696,1696,1696,1696,1705,1705,1705,1705,1713,1713,1722,1722,1722,1731,1731,1731,1739,1739,1739,1748,1748,1757,1757,1766,1766,1776,1776,1785,1785,1785,1785,1785,1794,1794,1804,1804,1804,1813,1813,1823,1823,1833,1833,1833,1833,1833,1843,1843,1843,1853,1853,1863,1873,1873,1873,1873,1883,1883,1883,1883,1883,1883,1894,1904,1904,1904,1915,1915,1915,1915,1915,1915,1926,1926,1926,1926,0,0,0,0,0,0,0,0,0,0,1123,1123,1123,1123,1119,1119,1119,1115,1115,1115,1115,1115,1115,1115,1119,1123,1123,1126,1126,1130,1134,1134,1134,1134,1134,0,0,0,0,1804,1804,1794,1794,1794,1785,1776,1766,1766,1766,1766,1757,1757,1757,1757,1757,1757,1748,1748,1739,1739,1731,1731,1731,1731,1722,1722,1713,1705,1705,1705,1696,1696,1696,1696,1696,1696,1696,1688,1688,1688,1680,1680,1671,1671,1671,1663,1663,1663,1663,1655,1655,1647,1647,1647,1647,1639,1639,1639,1632,1632,1632,1624,1624,1616,1616,1609,1609,1609,1609,1609,1601,1601,1601,1601,1594,1594,1586,1586,1579,1579,1579,1579,1579,1572,1572,1572,1572,1572,1572,1572,1572,0,0,0,0,0,0,0,0,925,925,925,925,925,925,923,920,918,918,918,915,915,915,915,915,915,918,918,918,920,923,928,930,933,935,938,0,0,0,0,0,1470,1470,1464,1464,1464,1458,1458,1452,1445,1445,1445,1445,1445,1445,1439,1439,1439,1439,1439,1433,1433,1427,1427,1427,1421,1421,1421,1415,1415,1415,1410,1410,1404,1404,1398,1398,1398,1398,1398,1398,1392,1392,1387,1381,1381,1376,1376,1376,1376,1376,1376,1370,1370,1370,1365,1365,1365,1365,1359,1359,1359,1354,1354,1354,1354,1349,1349,1349,1343,1343,1338,1333,1333,1333,1333,1333,1328,1328,1328,1322,1322,1322,1317,1317,1317,1312,1312,1312,1312,1312,1312,1307,1307,1302,1297,1297,1292,1292,1288,1288,1288,1288,1288,1283,1283,1283,1283,1273,1273,1273,1273,1273,1268,1268,1264,1264,1264,1259,1259,1255,1255,1255,1255,1255,1250,1250,1250,1245,1245,1245,1241,1241,1236,1236,1236,1232,1232,1232,1232,1227,1227,1223,1223,1219,1219,1219,1219,1219,1214,1214,1214,1210,1210,1210,1206,1202,1202,1202,1202,1202,1197,1197,1197,1197,1193,1193,1193,1189,1189,1185,1185,1185,1185,1181,1181,1181,1177,1177,1173,1173,1169,1169,1169,1169,1169,1165,1165,1165,1161,1157,1157,1157,0,0,0,0,0,0,0,0,0,0,0,0,0,0,0,0,0,0,0,0,0,0,0,0,0,0,0,0,0,0
0,0,0,0,0,0,0,0,0,0,0,0,0,1731,1731,1731,1731,1731,1731,1731,1731,1731,1731,1731,1731,1731,1731,1722,1722,1722,1722,1722,1722,1722,1722,1722,1722,1722,1722,1731,1731,1722,1722,1722,1722,1722,1722,1722,1722,1722,1722,1722,1722,1713,1713,1713,1705,1705,1713,1705,1705,1705,1713,1705,1705,1705,1705,1696,1696,1696,1696,1696,1696,1705,1705,1705,1705,1696,1696,1696,1696,1696,1696,1696,1696,1696,1696,1696,1696,1696,1696,1696,1696,1688,1688,1696,1688,1688,1688,1688,1688,1688,1688,1688,1688,1688,1688,1688,1688,1688,1688,1688,1688,1688,1688,1680,1680,1680,1680,1671,1671,1671,1680,1671,1671,1671,1671,1671,1671,1671,1671,1671,1680,1680,1688,1688,1688,1688,1688,1833,1833,1833,1833,1833,1833,1833,1833,1833,1833,1833,1833,1833,1823,1813,1813,1804,1794,1794,1785,1748,1705,1688,1688,1688,1688,1688,1688,1688,1688,1696,1696,1696,1696,1696,1696,1705,1705,1705,1705,1713,1713,1722,1722,1722,1731,1731,1731,1739,1739,1739,1748,1748,1757,1757,1766,1766,1776,1776,1785,1785,1785,1785,1785,1794,1794,1804,1804,1804,1813,1813,1823,1823,1833,1833,1833,1833,1833,1843,1843,1853,1853,1853,1863,1873,1873,1873,1873,1873,1883,1883,1883,1883,1894,1894,1904,1904,1904,1915,1915,1915,1915,1915,1915,1926,1926,1926,1926,0,0,0,0,0,0,0,0,0,0,1123,1123,1123,1123,1119,1119,1119,1115,1115,1115,1115,1115,1115,1119,1119,1123,1123,1126,1126,1130,1130,1130,1130,1130,1130,1130,0,1804,0,1804,1804,1794,1794,1794,1785,1776,1766,1766,1766,1766,1757,1757,1757,1757,1757,1757,1748,1748,1739,1739,1731,1731,1731,1731,1722,1722,1713,1713,1705,1705,1696,1696,1705,1696,1696,1696,1696,1688,1688,1688,1680,1680,1671,1671,1671,1671,1663,1663,1663,1655,1655,1647,1647,1647,1647,1639,1639,1639,1639,1632,1632,1632,1624,1616,1616,1609,1609,1609,1609,1609,1601,1601,1601,1601,1594,1594,1586,1586,1586,1579,1579,1579,1579,1572,1572,1572,1572,1572,1572,1572,1572,0,0,0,0,0,0,0,0,925,925,925,925,925,925,923,920,918,918,918,915,915,915,915,915,915,918,918,918,920,925,928,930,933,935,938,0,0,0,0,1470,1470,1470,1464,1464,1464,1464,1458,1452,1445,1445,1445,1445,1445,1445,1439,1439,1439,1439,1439,1433,1433,1427,1427,1421,1421,1421,1421,1421,1415,1415,1410,1410,1404,1404,1398,1398,1398,1398,1398,1398,1392,1392,1392,1387,1381,1381,1381,1376,1376,1376,1376,1376,1370,1370,1365,1365,1365,1365,1365,1359,1359,1354,1354,1354,1354,1349,1349,1349,1349,1343,1343,1338,1338,1333,1333,1333,1328,1328,1328,1322,1322,1322,1322,1317,1317,1317,1312,1312,1312,1312,1312,1307,1307,1302,1297,1292,1292,1292,1288,1288,1288,1288,1288,1288,1288,1288,1278,1273,1273,1273,1273,1273,1268,1268,1264,1264,1264,1259,1259,1255,1255,1255,1255,1255,1250,1250,1250,1250,1245,1245,1241,1241,1236,1236,1236,1232,1232,1232,1232,1227,1227,1223,1223,1223,1219,1219,1219,1219,1214,1214,1214,1214,1214,1210,1210,1202,1202,1202,1202,1202,1202,1197,1197,1197,1193,1193,1193,1189,1189,1185,1185,1185,1185,1181,1181,1181,1177,1177,1173,1173,1169,1169,1169,1169,1169,1165,1165,1165,1161,1157,1157,1157,0,0,0,0,0,0,0,0,0,0,0,0,0,0,0,0,0,0,0,0,0,0,0,0,0,0,0,0,0,0
0,0,0,0,0,0,0,0,0,0,0,0,0,1731,1731,1731,1731,1731,1731,1731,1731,1731,1731,1731,1731,1731,1731,1722,1722,1722,1722,1722,1722,1722,1722,1722,1722,1722,1722,1731,1731,1722,1722,1722,1722,1722,1722,1722,1722,1722,1722,1722,1722,1722,1713,1713,1713,1713,1713,1705,1705,1705,1705,1705,1705,1705,1705,1696,1696,1696,1696,1696,1696,1696,1705,1705,1696,1696,1696,1696,1696,1696,1696,1696,1696,1696,1696,1696,1696,1696,1696,1696,1696,1696,1696,1696,1688,1688,1688,1688,1688,1688,1688,1688,1688,1688,1688,1688,1688,1688,1688,1688,1688,1688,1688,1680,1680,1680,1680,1680,1680,1680,1680,1680,1680,1671,1671,1671,1671,1671,1671,1671,1680,1680,1688,1688,1688,1688,1688,1833,1833,1833,1833,1833,1833,1833,1833,1833,1833,1833,1833,1823,1813,1813,1804,1804,1804,1794,1785,1748,1705,1688,1688,1688,1688,1688,1688,1688,1688,1696,1696,1696,1696,1696,1696,1705,1705,1705,1705,1713,1713,1722,1722,1722,1731,1731,1731,1739,1748,1748,1757,1757,1757,1766,1766,1776,1776,1776,1785,1785,1785,1785,1785,1794,1794,1804,1804,1804,1813,1813,1823,1823,1833,1833,1833,1833,1843,1843,1853,1853,1863,1863,1873,1873,1873,1873,1873,1873,1883,1883,1883,1883,1894,1894,1904,1904,1915,1915,1915,1915,1915,1915,1915,1915,1915,1926,0,0,0,0,0,0,0,0,0,0,1130,1126,1126,1123,1123,1119,1119,1119,1115,1115,1115,1115,1115,1115,1119,1119,1123,1123,1126,1126,1130,1130,1130,1130,1130,1130,1130,0,1804,1804,1804,1804,1794,1794,1794,1785,1776,1776,1766,1766,1766,1766,1757,1757,1757,1757,1757,1748,1748,1739,1739,1731,1731,1731,1731,1722,1722,1722,1713,1713,1705,1696,1696,1705,1696,1696,1696,1696,1688,1688,1688,1688,1680,1671,1671,1671,1671,1663,1663,1663,1655,1655,1655,1647,1647,1647,1639,1639,1639,1639,1632,1632,1632,1624,1624,1616,1609,1609,1609,1609,1609,1601,1601,1601,1601,1601,1594,1586,1586,1586,1579,1579,1579,1579,1572,1572,1572,1572,1572,1564,1564,0,0,0,0,0,0,0,0,0,925,925,925,925,925,925,923,920,918,918,918,915,915,915,915,915,915,918,918,918,920,925,928,930,933,935,0,0,0,0,0,1470,1470,1470,1464,1464,1464,1464,1458,1458,1452,1452,1445,1445,1445,1445,1445,1439,1439,1439,1439,1433,1433,1427,1427,1421,1421,1421,1421,1421,1415,1415,1415,1410,1404,1404,1404,1398,1398,1398,1398,1398,1392,1392,1392,1392,1381,1381,1381,1376,1376,1376,1376,1376,1370,1370,1365,1365,1365,1365,1365,1359,1359,1354,1354,1354,1354,1349,1349,1349,1349,1349,1343,1338,1338,1338,1333,1333,1328,1328,1328,1328,1322,1322,1322,1317,1317,1317,1312,1312,1312,1312,1312,1307,1307,1302,1297,1292,1292,1292,1288,1288,1288,1288,1288,1288,1288,1288,1278,1278,1273,1273,1273,1273,1268,1268,1268,1264,1264,1259,1259,1259,1255,1255,1255,1250,1250,1250,1250,1250,1245,1241,1241,1241,1236,1236,1236,1236,1232,1232,1232,1232,1232,1227,1223,1223,1219,1219,1219,1219,1214,1214,1214,1214,1214,1210,1210,1202,1202,1202,1202,1202,1202,1197,1197,1197,1197,1197,1193,1193,1189,1185,1185,1185,1181,1181,1181,1181,1181,1177,1177,1173,1173,1169,1169,1169,1169,1165,1165,1165,1161,1161,1157,1157,0,0,0,0,0,0,0,0,0,0,0,0,0,0,0,0,0,0,0,0,0,0,0,0,0,0,0,0,0,0
0,0,0,0,0,0,0,0,0,0,0,0,0,1731,1731,1731,1731,1731,1731,1731,1731,1731,1731,1731,1731,1731,1731,1731,1731,1731,1731,1731,1731,1722,1722,1731,1731,1731,1731,1731,1731,1722,1722,1722,1722,1722,1722,1722,1722,1722,1722,1722,1713,1713,1713,1713,1713,1705,1705,1705,1705,1705,1705,1705,1705,1705,1705,1696,1696,1696,1696,1696,1696,1696,1705,1705,1696,1696,1696,1696,1696,1696,1696,1696,1696,1696,1696,1696,1696,1696,1696,1696,1696,1696,1696,1696,1688,1688,1688,1688,1688,1688,1696,1696,1696,1688,1688,1688,1688,1688,1688,1688,1688,1688,1688,1688,1688,1688,1688,1680,1680,1680,1680,1680,1680,1671,1671,1671,1671,1671,1671,1671,1680,1680,1688,1688,1688,1680,1680,1833,1833,1833,1833,1833,1833,1833,1833,1833,1833,1833,1833,1823,1813,1813,1804,1804,1804,1794,1794,1757,1713,1696,1696,1688,1688,1688,1688,1688,1688,1696,1696,1696,1696,1696,1705,1705,1705,1705,1705,1713,1713,1722,1722,1731,1731,1731,1731,1739,1748,1748,1757,1757,1757,1766,1766,1776,1776,1776,1785,1785,1785,1785,1785,1794,1794,1804,1804,1804,1813,1813,1823,1823,1833,1833,1833,1833,1843,1843,1853,1853,1863,1863,1873,1873,1873,1873,1873,1873,1873,1883,1883,1883,1894,1894,1904,1904,1915,1915,1915,1915,1915,1915,1915,1915,1915,0,0,0,0,0,0,0,0,0,0,0,1130,1126,1126,1126,1123,1119,1119,1119,1115,1115,1115,1115,1115,1119,1119,1119,1123,1123,1126,1126,1130,1130,1134,1134,1134,0,0,0,0,1804,1804,1804,1794,1794,1794,1785,1776,1776,1766,1766,1766,1766,1757,1757,1757,1757,1757,1748,1748,1739,1739,1731,1731,1731,1722,1722,1722,1722,1713,1713,1705,1696,1696,1705,1705,1696,1696,1696,1696,1688,1688,1688,1680,1680,1671,1671,1671,1663,1663,1663,1663,1655,1655,1655,1655,1647,1647,1639,1639,1639,1639,1632,1632,1624,1624,1624,1616,1616,1609,1609,1609,1609,1601,1601,1601,1601,1594,1594,1586,1586,1579,1579,1579,1579,1572,1572,1572,1572,1572,1564,1564,1572,0,0,0,0,0,0,0,0,925,925,925,925,925,925,923,920,918,918,915,915,915,915,915,915,915,918,918,920,923,925,928,930,933,935,0,0,0,0,0,1470,1470,1470,1464,1464,1464,1464,1458,1458,1452,1452,1445,1445,1445,1445,1445,1439,1439,1439,1439,1433,1433,1427,1427,1421,1421,1421,1421,1415,1415,1415,1415,1410,1410,1404,1404,1398,1398,1398,1398,1398,1392,1392,1392,1392,1381,1381,1381,1376,1376,1376,1376,1376,1370,1370,1365,1365,1365,1365,1365,1359,1359,1359,1354,1354,1354,1354,1349,1349,1349,1349,1343,1343,1338,1338,1333,1333,1328,1328,1328,1328,1322,1322,1322,1317,1317,1317,1312,1312,1312,1312,1312,1307,1307,1307,1297,1297,1292,1292,1292,1288,1288,1288,1288,1288,1288,1288,1278,1278,1273,1273,1273,1273,1273,1268,1268,1264,1264,1264,1259,1259,1255,1255,1255,1250,1250,1250,1250,1245,1245,1241,1241,1241,1236,1236,1236,1236,1232,1232,1232,1232,1232,1227,1223,1223,1219,1219,1219,1219,1214,1214,1214,1214,1214,1210,1210,1202,1202,1202,1202,1202,1202,1202,1197,1197,1197,1197,1193,1193,1189,1189,1185,1185,1181,1181,1181,1181,1181,1177,1177,1173,1173,1173,1169,1169,1169,1165,1165,1165,1165,1161,1157,1157,0,0,0,0,0,0,0,0,0,0,0,0,0,0,0,0,0,0,0,0,0,0,0,0,0,0,0,0,0,0
0,0,0,0,0,0,0,0,0,0,0,0,0,1731,1731,1731,1731,1731,1731,1731,1731,1731,1731,1731,1731,1731,1731,1731,1731,1731,1731,1731,1731,1731,1731,1731,1731,1731,1731,1731,1731,1722,1722,1722,1722,1722,1722,1722,1722,1722,1722,1722,1713,1713,1713,1713,1705,1705,1705,1705,1705,1705,1705,1705,1705,1705,1705,1705,1705,1705,1705,1705,1705,1705,1705,1705,1696,1696,1696,1696,1696,1696,1696,1696,1696,1696,1696,1696,1696,1696,1696,1696,1696,1696,1696,1696,1696,1696,1696,1688,1688,1688,1688,1688,1696,1688,1688,1688,1688,1688,1688,1688,1688,1688,1688,1688,1688,1688,1688,1680,1680,1680,1680,1680,1680,1680,1680,1680,1680,1680,1680,1680,1680,1680,1688,1688,1688,1680,1680,1688,1833,1823,1823,1833,1833,1833,1833,1833,1833,1833,1833,1823,1813,1813,1804,1804,1804,1794,1794,1794,1696,1696,1696,1696,1696,1688,1688,1688,1688,1696,1696,1696,1696,1705,1705,1705,1705,1713,1713,1713,1722,1722,1722,1731,1731,1731,1739,1739,1748,1748,1757,1757,1757,1766,1766,1766,1776,1776,1785,1785,1785,1785,1785,1794,1794,1804,1804,1804,1813,1813,1823,1823,1833,1833,1833,1843,1843,1843,1853,1853,1863,1863,1873,1873,1873,1873,1873,1873,1873,1883,1883,1883,1894,1894,1904,1904,1915,1915,1915,1915,1915,1915,1915,1926,0,0,0,0,0,0,0,0,0,0,0,0,1130,1126,1126,1126,1123,1119,1119,1119,1115,1115,1115,1115,1115,1119,1119,1119,1123,1123,1126,1130,1130,1130,1134,1134,1134,0,0,0,0,1804,1804,1804,1794,1794,1794,1785,1776,1776,1766,1766,1766,1766,1757,1757,1757,1757,1757,1748,1748,1739,1739,1731,1731,1731,1722,1722,1722,1722,1713,1713,1705,1696,1696,1705,1705,1696,1696,1696,1696,1696,1688,1688,1680,1680,1671,1671,1671,1663,1663,1663,1663,1663,1655,1655,1655,1647,1647,1639,1639,1639,1639,1632,1632,1632,1624,1624,1616,1616,1616,1609,1609,1609,1601,1601,1601,1601,1594,1594,1586,1586,1579,1579,1579,1579,1572,1572,1572,1572,1572,1572,1572,1572,0,0,0,0,0,0,0,0,925,925,925,925,925,925,923,920,918,918,915,915,915,915,915,915,915,918,920,920,923,925,928,930,933,933,0,0,0,0,0,1470,1470,1470,1470,1464,1464,1464,1458,1458,1452,1445,1445,1445,1445,1445,1445,1445,1439,1439,1439,1433,1433,1427,1427,1421,1421,1421,1421,1415,1415,1415,1415,1410,1404,1404,1404,1398,1398,1398,1398,1398,1392,1392,1392,1392,1381,1381,1381,1376,1376,1376,1376,1376,1370,1370,1370,1370,1365,1365,1365,1359,1359,1359,1354,1354,1354,1354,1349,1349,1349,1349,1343,1343,1338,1338,1333,1333,1328,1328,1328,1328,1322,1322,1322,1317,1317,1317,1317,1312,1312,1312,1312,1307,1307,1307,1297,1297,1292,1292,1292,1292,1288,1288,1288,1288,1288,1283,1278,1278,1273,1273,1273,1273,1273,1268,1268,1268,1268,1264,1264,1259,1259,1255,1255,1250,1250,1250,1250,1245,1245,1241,1241,1241,1236,1236,1236,1236,1232,1232,1232,1232,1232,1227,1223,1223,1223,1219,1219,1219,1214,1214,1214,1214,1214,1210,1206,1206,1202,1202,1202,1202,1202,1202,1197,1197,1197,1197,1193,1193,1189,1189,1185,1185,1185,1181,1181,1181,1181,1177,1177,1177,1173,1173,1173,1169,1169,1169,1169,1169,1165,1165,1161,1161,0,0,0,0,0,0,0,0,0,0,0,0,0,0,0,0,0,0,0,0,0,0,0,0,0,0,0,0,0,0
0,0,0,0,0,0,0,0,0,0,0,0,0,1731,1731,1731,1731,1731,1731,1731,1731,1731,1731,1731,1731,1731,1731,1731,1731,1731,1731,1731,1731,1731,1731,1731,1731,1731,1731,1731,1731,1731,1722,1722,1722,1722,1722,1722,1722,1722,1722,1722,1713,1713,1713,1713,1705,1705,1705,1705,1705,1705,1713,1713,1705,1705,1705,1705,1705,1705,1696,1696,1705,1705,1705,1705,1696,1696,1696,1696,1696,1696,1696,1696,1696,1696,1696,1696,1705,1696,1696,1696,1696,1696,1696,1696,1696,1696,1696,1688,1688,1688,1688,1688,1696,1696,1696,1688,1688,1688,1688,1688,1688,1688,1688,1688,1688,1688,1688,1688,1680,1680,1680,1671,1671,1680,1680,1680,1680,1680,1680,1680,1680,1680,1688,1688,1688,1680,1671,1671,1823,1823,1823,1823,1823,1833,1833,1833,1833,1833,1833,1823,1813,1813,1804,1804,1804,1804,1804,1794,1696,1696,1696,1696,1696,1688,1688,1688,1688,1696,1696,1696,1705,1705,1705,1705,1713,1713,1713,1722,1722,1731,1731,1731,1731,1739,1739,1748,1748,1757,1757,1757,1757,1766,1766,1766,1776,1776,1785,1785,1785,1785,1794,1794,1794,1804,1804,1813,1813,1813,1823,1823,1833,1833,1833,1843,1843,1843,1853,1853,1863,1863,1873,1873,1873,1873,1873,1873,1883,1883,1883,1883,1894,1904,1904,1915,1915,1915,1915,1915,1915,1915,1915,1915,0,0,0,0,0,0,0,0,0,0,0,0,1130,1126,1126,1123,1123,1119,1119,1119,1115,1115,1115,1115,1119,1119,1119,1119,1123,1126,1126,1130,1130,1134,1134,1134,1138,0,0,0,0,1804,1804,1794,1794,1794,1785,1785,1776,1776,1766,1766,1766,1766,1757,1757,1757,1757,1757,1748,1748,1739,1739,1731,1731,1731,1722,1722,1722,1722,1713,1713,1705,1696,1696,1705,1705,1696,1696,1696,1696,1696,1688,1688,1680,1680,1671,1671,1671,1663,1663,1663,1663,1663,1655,1655,1655,1647,1647,1639,1639,1639,1632,1632,1632,1632,1624,1624,1616,1616,1616,1609,1609,1609,1609,1601,1601,1601,1594,1594,1594,1586,1579,1579,1579,1572,1572,1572,1572,1572,1572,1572,1572,1572,0,0,0,0,0,0,0,925,925,925,925,925,925,925,923,920,918,918,915,915,915,915,915,915,915,918,920,920,923,925,928,930,933,933,0,0,0,0,0,1470,1470,1470,1470,1464,1464,1464,1458,1458,1452,1445,1445,1445,1445,1445,1445,1445,1439,1439,1439,1439,1433,1427,1427,1421,1421,1421,1421,1415,1415,1415,1410,1410,1404,1404,1404,1398,1398,1398,1398,1398,1398,1392,1392,1392,1387,1381,1381,1381,1381,1376,1376,1376,1376,1370,1370,1370,1365,1365,1365,1359,1359,1359,1354,1354,1354,1354,1354,1349,1349,1349,1343,1343,1338,1338,1333,1333,1328,1328,1328,1328,1322,1322,1322,1322,1322,1317,1317,1312,1312,1312,1307,1307,1307,1302,1297,1297,1292,1292,1292,1292,1288,1288,1288,1288,1288,1283,1278,1278,1273,1273,1273,1273,1273,1268,1268,1268,1268,1264,1264,1259,1259,1255,1255,1250,1250,1250,1250,1250,1245,1241,1241,1241,1236,1236,1236,1236,1232,1232,1232,1232,1232,1227,1223,1223,1223,1219,1219,1219,1214,1214,1214,1214,1214,1210,1206,1206,1206,1206,1202,1202,1202,1202,1197,1197,1197,1197,1193,1193,1189,1189,1185,1185,1181,1181,1181,1181,1181,1181,1177,1177,1173,1173,1173,1169,1169,1169,1169,1169,1165,1165,1161,1161,0,0,0,0,0,0,0,0,0,0,0,0,0,0,0,0,0,0,0,0,0,0,0,0,0,0,0,0,0,0
0,0,0,0,0,0,0,0,0,0,0,0,0,1739,1739,1731,1731,1731,1739,1731,1731,1731,1731,1731,1731,1731,1731,1731,1731,1731,1731,1731,1731,1731,1722,1722,1731,1731,1731,1731,1731,1731,1722,1722,1722,1722,1722,1722,1722,1722,1722,1722,1722,1722,1713,1713,1722,1713,1713,1713,1705,1705,1713,1713,1705,1705,1705,1705,1705,1705,1696,1696,1705,1705,1705,1705,1696,1696,1696,1696,1696,1696,1696,1696,1696,1696,1696,1705,1705,1696,1696,1696,1696,1696,1696,1696,1696,1696,1696,1696,1696,1696,1696,1696,1696,1696,1696,1688,1688,1688,1688,1688,1688,1688,1688,1688,1688,1688,1688,1688,1680,1680,1680,1671,1671,1680,1680,1680,1680,1680,1680,1680,1680,1688,1688,1688,1688,1680,1671,1671,1823,1823,1823,1823,1823,1833,1833,1833,1833,1833,1833,1823,1813,1813,1804,1804,1804,1804,1804,1794,1696,1696,1696,1696,1696,1696,1688,1688,1688,1696,1696,1696,1705,1705,1705,1705,1713,1713,1713,1722,1722,1731,1731,1731,1739,1739,1739,1748,1748,1757,1757,1757,1766,1766,1766,1776,1776,1776,1785,1785,1785,1794,1794,1794,1804,1804,1804,1813,1813,1813,1823,1823,1833,1833,1843,1843,1843,1853,1853,1863,1863,1863,1873,1873,1873,1873,1873,1873,1883,1883,1883,1883,1894,1904,1904,1915,1915,1915,1915,1915,1915,1915,1915,1915,0,0,0,0,0,0,0,0,0,0,0,1130,1130,1126,1126,1123,1123,1119,1119,1119,1119,1115,1115,1119,1119,1119,1119,1119,1123,1126,1126,1130,1130,1134,1134,1138,1138,1138,0,0,0,1804,1804,1794,1794,1794,1785,1785,1776,1776,1776,1766,1766,1766,1766,1757,1757,1757,1757,1748,1748,1739,1739,1731,1731,1731,1731,1722,1722,1722,1722,1713,1705,1696,1696,1705,1705,1705,1696,1696,1696,1696,1696,1688,1688,1680,1671,1671,1671,1663,1663,1663,1663,1663,1655,1655,1655,1655,1647,1639,1639,1639,1632,1632,1632,1632,1624,1624,1616,1616,1616,1609,1609,1609,1609,1601,1601,1601,1601,1594,1594,1586,1579,1579,1579,1572,1572,1572,1572,1572,1572,1572,1572,1572,0,0,0,0,0,0,0,925,925,925,925,925,925,925,923,920,918,918,915,915,915,915,915,915,918,918,920,920,925,925,930,930,933,935,0,0,0,0,0,1470,1470,1470,1470,1464,1464,1464,1458,1452,1452,1445,1445,1445,1445,1445,1445,1445,1439,1439,1439,1439,1433,1433,1427,1427,1421,1421,1421,1415,1415,1415,1410,1410,1404,1404,1404,1398,1398,1398,1398,1398,1398,1392,1392,1392,1392,1381,1381,1381,1381,1376,1376,1376,1376,1370,1370,1370,1365,1365,1365,1359,1359,1359,1354,1354,1354,1354,1354,1349,1349,1349,1343,1343,1338,1338,1333,1333,1333,1328,1328,1328,1328,1328,1322,1322,1322,1322,1317,1317,1312,1312,1307,1307,1307,1302,1297,1297,1292,1292,1292,1292,1288,1288,1288,1288,1288,1283,1283,1278,1273,1273,1273,1273,1273,1268,1268,1268,1268,1268,1264,1264,1259,1255,1255,1255,1250,1250,1250,1250,1245,1245,1241,1241,1236,1236,1236,1236,1236,1232,1232,1232,1232,1227,1223,1223,1223,1219,1219,1219,1219,1214,1214,1214,1214,1210,1206,1206,1206,1206,1202,1202,1202,1197,1197,1197,1197,1193,1193,1193,1189,1189,1185,1185,1181,1181,1181,1181,1181,1181,1177,1177,1177,1173,1173,1169,1169,1169,1169,1169,1169,1165,1165,0,0,0,0,0,0,0,0,0,0,0,0,0,0,0,0,0,0,0,0,0,0,0,0,0,0,0,0,0,0,0
0,0,0,0,0,0,0,0,0,0,0,0,0,1739,1739,1731,1731,1739,1739,1739,1739,1739,1739,1739,1739,1739,1731,1731,1731,1731,1731,1731,1731,1731,1722,1722,1731,1731,1731,1731,1731,1731,1731,1722,1722,1722,1722,1722,1722,1722,1722,1722,1722,1722,1722,1722,1722,1722,1722,1722,1713,1713,1713,1713,1705,1705,1705,1705,1705,1705,1713,1705,1705,1705,1705,1705,1696,1696,1705,1705,1696,1696,1705,1705,1696,1696,1696,1705,1705,1696,1696,1696,1705,1696,1696,1696,1696,1696,1696,1696,1696,1696,1696,1696,1696,1696,1696,1696,1688,1688,1688,1688,1688,1688,1688,1688,1688,1688,1688,1688,1680,1680,1680,1680,1680,1680,1680,1680,1680,1680,1680,1680,1680,1688,1688,1688,1688,1688,1671,1671,1823,1823,1823,1833,1833,1833,1833,1833,1833,1833,1833,1823,1823,1813,1813,1813,1813,1804,1804,1804,1696,1696,1696,1696,1696,1696,1688,1688,1688,1696,1696,1696,1705,1705,1705,1713,1713,1713,1722,1722,1722,1731,1731,1739,1748,1748,1748,1757,1757,1757,1757,1766,1766,1766,1766,1776,1776,1776,1785,1785,1785,1794,1794,1794,1804,1804,1804,1813,1813,1813,1823,1823,1833,1833,1843,1843,1843,1853,1863,1863,1863,1863,1873,1873,1873,1873,1873,1883,1883,1883,1883,1894,1904,1904,1904,1915,1915,1915,1915,1915,1915,1915,1915,1915,1926,0,0,0,0,0,0,0,0,0,0,1130,1130,1130,1126,1126,1123,1119,1119,1119,1119,1119,1119,1119,1119,1119,1119,1123,1123,1126,1126,1130,1130,1134,1134,1138,1138,0,0,0,0,1804,1804,1794,1794,1794,1785,1785,1785,1776,1776,1766,1766,1766,1766,1757,1757,1757,1757,1748,1748,1748,1739,1731,1731,1731,1731,1722,1722,1722,1722,1713,1705,1705,1705,1705,1705,1705,1705,1696,1696,1696,1696,1688,1688,1680,1680,1671,1671,1663,1663,1663,1663,1663,1663,1663,1655,1655,1647,1647,1639,1639,1632,1632,1632,1632,1624,1624,1616,1616,1616,1609,1609,1609,1609,1601,1601,1601,1601,1594,1594,1586,1579,1579,1579,1572,1572,1572,1572,1564,1564,1564,1572,1572,0,0,0,0,0,0,0,925,925,925,925,925,925,925,920,920,918,918,915,915,915,915,915,918,918,918,920,923,925,925,930,930,933,935,0,0,0,0,0,1470,1470,1470,1470,1464,1464,1464,1458,1452,1452,1445,1445,1445,1445,1445,1445,1445,1445,1445,1439,1439,1439,1433,1433,1427,1421,1421,1421,1415,1415,1415,1415,1410,1404,1404,1404,1404,1398,1398,1398,1398,1398,1398,1392,1392,1392,1387,1381,1381,1381,1376,1376,1376,1376,1370,1370,1370,1365,1365,1365,1359,1359,1359,1359,1354,1354,1354,1354,1349,1349,1349,1343,1343,1338,1338,1333,1333,1333,1328,1328,1328,1328,1328,1322,1322,1322,1317,1317,1317,1312,1312,1307,1307,1307,1307,1302,1297,1292,1292,1292,1292,1288,1288,1288,1288,1288,1283,1283,1278,1273,1273,1273,1273,1273,1268,1268,1268,1268,1268,1264,1264,1259,1255,1255,1255,1250,1250,1250,1250,1250,1245,1241,1241,1241,1236,1236,1236,1236,1236,1232,1232,1232,1227,1227,1227,1223,1219,1219,1219,1219,1214,1214,1214,1214,1210,1210,1210,1210,1206,1202,1202,1202,1197,1197,1197,1197,1193,1193,1193,1189,1189,1185,1185,1181,1181,1181,1181,1181,1181,1177,1177,1177,1173,1173,1169,1169,1169,1169,1169,1169,1165,1165,0,0,0,0,0,0,0,0,0,0,0,0,0,0,0,0,0,0,0,0,0,0,0,0,0,0,0,0,0,0,0
0,0,0,0,0,0,0,0,0,0,0,0,0,1748,1739,1731,1731,1739,1739,1739,1739,1739,1739,1739,1739,1739,1739,1739,1739,1731,1731,1731,1731,1731,1731,1722,1722,1722,1722,1722,1722,1722,1731,1722,1722,1722,1722,1722,1722,1722,1722,1722,1713,1713,1722,1722,1722,1722,1722,1722,1722,1722,1713,1713,1713,1705,1705,1705,1705,1705,1713,1705,1705,1705,1705,1705,1705,1705,1705,1705,1705,1705,1705,1705,1696,1696,1696,1705,1705,1696,1696,1696,1705,1705,1696,1696,1696,1696,1696,1696,1696,1696,1696,1696,1696,1696,1696,1696,1696,1696,1688,1688,1688,1688,1688,1688,1688,1688,1688,1688,1680,1680,1680,1671,1671,1680,1680,1688,1688,1688,1688,1688,1688,1688,1688,1688,1688,1688,1671,1671,1688,1823,1823,1833,1833,1833,1833,1833,1833,1833,1833,1823,1823,1813,1813,1813,1813,1813,1813,1804,1766,1696,1696,1696,1696,1696,1688,1688,1688,1696,1696,1696,1705,1705,1705,1713,1713,1722,1722,1722,1722,1731,1731,1739,1748,1748,1748,1757,1757,1757,1766,1766,1766,1766,1766,1776,1776,1776,1785,1785,1785,1794,1794,1804,1804,1804,1804,1813,1813,1813,1823,1823,1833,1833,1843,1843,1853,1853,1863,1863,1863,1863,1873,1873,1873,1873,1873,1883,1883,1883,1894,1894,1904,1904,1915,1915,1915,1915,1915,1926,1926,1915,1915,1926,1926,0,0,0,0,0,0,0,0,0,0,1130,1130,1130,1126,1126,1123,1119,1119,1119,1119,1119,1119,1119,1119,1119,1119,1123,1126,1126,1130,1130,1130,1134,1134,1134,1138,0,0,0,0,1804,1804,1794,1794,1794,1785,1785,1785,1776,1776,1766,1766,1766,1766,1757,1757,1757,1757,1748,1748,1748,1739,1739,1731,1731,1731,1722,1722,1722,1722,1722,1713,1705,1705,1705,1705,1705,1705,1705,1696,1696,1696,1688,1688,1680,1680,1671,1671,1671,1663,1663,1663,1663,1663,1663,1655,1655,1647,1647,1639,1639,1632,1632,1632,1632,1632,1624,1624,1616,1616,1609,1609,1609,1601,1601,1601,1601,1601,1594,1594,1586,1579,1579,1579,1572,1572,1572,1572,1564,1564,1564,0,0,0,0,0,0,0,0,928,925,925,928,928,925,925,925,920,920,918,918,915,915,915,915,915,915,918,918,920,923,925,928,930,933,935,935,0,0,0,0,1477,1477,1477,1470,1470,1470,1470,1464,1458,1458,1452,1445,1445,1445,1445,1445,1445,1445,1445,1445,1439,1439,1439,1433,1433,1427,1427,1421,1421,1415,1415,1415,1415,1415,1410,1410,1404,1404,1398,1398,1398,1398,1398,1398,1392,1392,1392,1387,1387,1381,1381,1376,1376,1376,1376,1370,1370,1370,1370,1365,1365,1359,1359,1359,1359,1354,1354,1354,1354,1349,1349,1349,1343,1343,1338,1338,1333,1333,1333,1328,1328,1328,1328,1328,1322,1322,1322,1317,1317,1317,1312,1312,1307,1307,1307,1307,1302,1302,1297,1297,1292,1292,1292,1288,1288,1288,1288,1288,1283,1278,1278,1273,1273,1273,1273,1268,1268,1268,1268,1268,1268,1264,1259,1259,1255,1255,1255,1250,1250,1250,1250,1245,1241,1241,1241,1236,1236,1236,1236,1236,1232,1232,1232,1227,1227,1227,1223,1219,1219,1219,1219,1214,1214,1214,1214,1210,1210,1210,1210,1206,1202,1202,1202,1197,1197,1197,1197,1193,1193,1193,1189,1189,1185,1185,1181,1181,1181,1181,1181,1177,1177,1177,1177,1173,1173,1169,1169,1169,1169,1169,1169,1165,1165,0,0,0,0,0,0,0,0,0,0,0,0,0,0,0,0,0,0,0,0,0,0,0,0,0,0,0,0,0,0,0
0,0,0,0,0,0,0,0,0,0,0,0,0,1748,1739,1739,1739,1739,1739,1739,1739,1739,1739,1739,1739,1739,1739,1739,1739,1739,1731,1731,1731,1731,1731,1722,1722,1722,1722,1722,1722,1722,1731,1731,1731,1722,1722,1722,1722,1722,1722,1722,1713,1713,1722,1722,1722,1722,1722,1722,1722,1722,1722,1722,1713,1713,1713,1713,1713,1713,1713,1713,1713,1713,1713,1713,1713,1713,1705,1705,1705,1705,1705,1705,1705,1705,1705,1705,1705,1696,1696,1696,1705,1705,1696,1696,1696,1696,1696,1696,1696,1696,1696,1696,1696,1696,1696,1696,1688,1688,1688,1688,1688,1688,1688,1688,1688,1688,1688,1688,1680,1680,1680,1671,1671,1680,1680,1688,1688,1688,1688,1688,1688,1688,1688,1688,1688,1688,1688,1688,1688,1823,1823,1833,1833,1833,1833,1833,1833,1833,1833,1823,1823,1823,1813,1813,1813,1813,1813,1804,1785,1713,1696,1696,1696,1696,1696,1696,1696,1696,1696,1696,1705,1705,1705,1713,1722,1722,1722,1722,1731,1731,1731,1739,1748,1748,1757,1757,1757,1757,1766,1766,1766,1766,1766,1776,1776,1785,1785,1785,1785,1794,1794,1804,1804,1804,1804,1813,1813,1813,1823,1833,1833,1833,1843,1843,1853,1853,1863,1863,1863,1873,1873,1873,1873,1873,1883,1883,1883,1883,1894,1894,1904,1904,1915,1915,1915,1926,1926,1926,1926,1926,1926,1926,1926,0,0,0,0,0,0,0,0,0,1130,1130,1130,1130,1126,1123,1123,1119,1119,1119,1119,1119,1119,1119,1119,1119,1119,1123,1126,1126,1130,1130,1130,1134,1134,1134,1138,1138,0,0,0,1804,1804,1794,1794,1794,1794,1785,1785,1785,1776,1776,1776,1766,1766,1757,1757,1757,1757,1757,1748,1748,1739,1739,1739,1731,1731,1731,1722,1722,1722,1722,1713,1705,1705,1705,1705,1705,1705,1705,1696,1696,1696,1688,1688,1680,1680,1671,1671,1671,1671,1663,1663,1663,1663,1663,1663,1655,1647,1647,1639,1639,1632,1632,1632,1632,1632,1624,1624,1616,1616,1616,1609,1609,1601,1601,1601,1601,1601,1594,1594,1586,1579,1579,1579,1579,1572,1572,1572,1564,1564,1564,1572,0,0,0,0,0,0,0,928,928,928,928,928,925,925,925,920,920,918,918,915,915,915,915,915,915,918,918,920,923,925,928,933,933,935,938,0,0,0,0,1477,1477,1477,1470,1470,1470,1464,1464,1464,1458,1452,1452,1445,1445,1445,1445,1445,1445,1445,1445,1439,1439,1439,1439,1433,1427,1427,1421,1421,1421,1415,1415,1415,1415,1410,1410,1404,1404,1404,1398,1398,1398,1398,1398,1398,1392,1392,1387,1387,1381,1381,1376,1376,1376,1376,1370,1370,1370,1370,1365,1365,1359,1359,1359,1359,1359,1354,1354,1354,1349,1349,1349,1343,1343,1338,1338,1333,1333,1333,1328,1328,1328,1328,1328,1322,1322,1322,1322,1317,1317,1312,1312,1307,1307,1307,1307,1302,1302,1297,1297,1297,1292,1292,1288,1288,1288,1288,1288,1283,1283,1278,1273,1273,1273,1273,1268,1268,1268,1268,1268,1268,1264,1259,1259,1255,1255,1250,1250,1250,1250,1250,1245,1245,1245,1241,1236,1236,1236,1236,1236,1232,1232,1232,1232,1227,1227,1223,1223,1219,1219,1219,1214,1214,1214,1214,1210,1210,1210,1210,1206,1202,1202,1202,1197,1197,1197,1197,1193,1193,1193,1189,1189,1185,1185,1181,1181,1181,1181,1181,1177,1177,1177,1177,1173,1173,1169,1169,1169,1169,1169,1169,1165,1165,0,0,0,0,0,0,0,0,0,0,0,0,0,0,0,0,0,0,0,0,0,0,0,0,0,0,0,0,0,0,0
0,0,0,0,0,0,0,0,0,0,0,0,0,1748,1739,1739,1739,1739,1748,1739,1739,1739,1739,1739,1739,1739,1739,1739,1739,1739,1731,1731,1731,1731,1731,1722,1722,1722,1722,1731,1731,1731,1731,1731,1731,1722,1722,1722,1722,1722,1722,1722,1722,1722,1722,1722,1722,1722,1722,1722,1722,1722,1722,1722,1713,1713,1713,1713,1713,1722,1722,1713,1713,1713,1713,1713,1713,1713,1713,1713,1705,1705,1713,1705,1705,1705,1705,1705,1705,1705,1705,1705,1705,1705,1705,1696,1696,1696,1696,1696,1696,1696,1696,1696,1696,1696,1696,1688,1688,1688,1688,1688,1688,1688,1688,1688,1688,1688,1688,1688,1680,1680,1680,1671,1671,1680,1680,1688,1688,1688,1688,1688,1688,1688,1688,1696,1696,1688,1688,1688,1823,1823,1823,1833,1833,1833,1833,1833,1833,1833,1833,1823,1823,1823,1813,1813,1813,1813,1813,1804,1794,1731,1713,1696,1696,1696,1696,1696,1696,1696,1696,1696,1705,1705,1705,1713,1722,1722,1722,1731,1731,1731,1739,1748,1748,1748,1757,1757,1757,1757,1766,1766,1766,1766,1776,1776,1776,1785,1785,1794,1794,1794,1794,1804,1804,1804,1804,1813,1813,1813,1823,1833,1833,1833,1843,1843,1853,1853,1863,1863,1863,1873,1873,1873,1873,1873,1883,1883,1883,1883,1894,1894,1904,1904,1915,1915,1915,1926,1926,1926,1926,1926,1926,1936,1936,0,0,0,0,0,0,1123,1123,1123,1130,1130,1130,1126,1126,1123,1123,1119,1119,1119,1119,1119,1115,1115,1119,1119,1123,1123,1126,1126,1130,1130,1130,1134,1134,1138,1141,1141,0,0,1804,1804,1804,1794,1794,1794,1794,1785,1785,1776,1776,1776,1776,1766,1766,1757,1757,1757,1757,1757,1748,1748,1739,1739,1739,1731,1731,1731,1722,1722,1722,1722,1713,1713,1705,1705,1705,1705,1705,1705,1696,1696,1696,1688,1688,1680,1680,1671,1671,1671,1671,1663,1663,1663,1663,1663,1663,1655,1655,1647,1639,1639,1632,1632,1632,1632,1632,1632,1624,1616,1616,1616,1609,1609,1601,1601,1601,1601,1601,1594,1594,1586,1579,1579,1579,1579,1579,1572,1572,1572,1572,1572,1572,0,0,0,0,0,0,0,928,928,928,928,928,925,925,923,920,918,918,915,915,915,915,915,915,915,918,918,920,925,928,930,933,933,935,938,0,0,0,0,1477,1477,1477,1477,1470,1470,1464,1464,1464,1458,1452,1452,1452,1452,1445,1445,1445,1445,1445,1445,1439,1439,1439,1439,1433,1433,1427,1421,1421,1421,1415,1415,1415,1415,1415,1410,1410,1404,1404,1398,1398,1398,1398,1398,1398,1392,1392,1392,1387,1387,1381,1376,1376,1376,1376,1376,1376,1370,1370,1370,1365,1365,1359,1359,1359,1359,1354,1354,1354,1349,1349,1349,1343,1343,1338,1338,1333,1333,1333,1333,1328,1328,1328,1328,1328,1328,1322,1322,1317,1317,1312,1312,1312,1307,1307,1307,1302,1302,1302,1297,1297,1292,1292,1288,1288,1288,1288,1288,1283,1283,1278,1273,1273,1273,1273,1268,1268,1268,1268,1268,1268,1259,1259,1259,1255,1255,1250,1250,1250,1250,1250,1250,1245,1245,1241,1236,1236,1236,1236,1236,1232,1232,1232,1232,1227,1227,1223,1223,1219,1219,1219,1214,1214,1214,1214,1210,1210,1210,1210,1206,1202,1202,1202,1197,1197,1197,1197,1193,1193,1193,1189,1189,1185,1185,1185,1185,1181,1181,1181,1181,1177,1177,1177,1173,1173,1169,1169,1169,1169,1169,1169,1165,1165,0,0,0,0,0,0,0,0,0,0,0,0,0,0,0,0,0,0,0,0,0,0,0,0,0,0,0,0,0,0,0
0,0,0,0,0,0,0,0,0,0,0,0,0,1748,1748,1739,1739,1748,1748,1748,1739,1739,1748,1748,1739,1739,1739,1739,1739,1739,1739,1731,1731,1731,1731,1722,1722,1722,1722,1731,1731,1731,1731,1731,1731,1722,1722,1722,1722,1722,1722,1722,1722,1722,1722,1722,1722,1722,1722,1722,1722,1722,1722,1722,1722,1713,1713,1713,1713,1722,1722,1722,1722,1722,1722,1722,1722,1722,1713,1713,1713,1713,1713,1713,1705,1705,1705,1705,1705,1705,1705,1705,1705,1705,1705,1696,1696,1696,1696,1696,1696,1696,1696,1696,1696,1696,1696,1688,1688,1688,1688,1688,1688,1688,1688,1688,1688,1688,1688,1688,1680,1680,1680,1671,1671,1680,1680,1680,1680,1688,1688,1688,1688,1688,1688,1696,1696,1696,1696,1696,1833,1833,1833,1833,1833,1833,1833,1833,1833,1833,1833,1833,1823,1823,1813,1813,1813,1813,1813,1804,1794,1739,1713,1696,1696,1696,1696,1696,1696,1696,1696,1696,1705,1705,1705,1713,1722,1722,1722,1731,1731,1731,1739,1748,1748,1748,1757,1757,1757,1757,1766,1766,1766,1776,1776,1776,1776,1785,1794,1794,1794,1804,1804,1804,1804,1804,1813,1813,1813,1823,1823,1833,1833,1833,1833,1843,1843,1853,1853,1863,1863,1873,1873,1873,1873,1883,1883,1883,1883,1883,1894,1904,1904,1915,1915,1915,1915,1926,1926,1926,1926,1926,1926,1936,1936,1115,1115,1115,1112,1112,1112,1115,1115,1119,1126,1126,1130,1126,1126,1123,1123,1119,1119,1119,1115,1115,1115,1115,1115,1119,1119,1119,1123,1126,1130,1130,1130,1130,1134,1134,1138,1138,0,0,1804,1804,1804,1794,1794,1794,1794,1785,1785,1776,1776,1776,1776,1766,1766,1766,1757,1757,1757,1757,1757,1748,1748,1739,1739,1739,1731,1731,1731,1722,1722,1722,1713,1713,1713,1713,1705,1705,1705,1705,1705,1696,1696,1688,1688,1688,1680,1680,1671,1671,1671,1663,1663,1663,1663,1663,1663,1655,1655,1647,1639,1632,1632,1632,1632,1632,1632,1624,1624,1616,1616,1616,1609,1609,1601,1601,1601,1601,1601,1594,1594,1586,1586,1579,1579,1579,1579,1579,1572,1572,1572,1572,1572,0,0,0,0,0,0,0,930,928,928,928,928,925,925,920,920,918,918,915,915,915,915,915,915,915,918,918,920,925,930,933,933,935,935,0,0,0,0,0,1477,1477,1477,1477,1470,1470,1470,1464,1464,1458,1458,1452,1452,1452,1445,1445,1445,1445,1445,1445,1439,1439,1439,1439,1433,1433,1427,1427,1421,1421,1415,1415,1415,1415,1415,1410,1410,1404,1404,1404,1398,1398,1398,1398,1398,1398,1392,1392,1392,1387,1381,1376,1376,1376,1376,1376,1376,1370,1370,1370,1365,1365,1365,1359,1359,1359,1354,1354,1354,1349,1349,1349,1343,1343,1343,1338,1333,1333,1333,1333,1333,1328,1328,1328,1328,1328,1322,1322,1317,1317,1312,1312,1312,1307,1307,1307,1302,1302,1302,1297,1297,1292,1292,1292,1288,1288,1288,1288,1288,1283,1278,1278,1273,1273,1273,1268,1268,1268,1268,1268,1268,1259,1259,1259,1255,1255,1250,1250,1250,1250,1250,1250,1245,1245,1241,1241,1236,1236,1236,1236,1232,1232,1232,1232,1232,1227,1223,1223,1223,1219,1219,1219,1214,1214,1214,1210,1210,1210,1206,1206,1202,1202,1202,1197,1197,1197,1197,1193,1193,1193,1189,1189,1189,1189,1185,1185,1181,1181,1181,1181,1181,1177,1177,1173,1173,1173,1169,1169,1169,1169,1169,1165,1165,0,0,0,0,0,0,0,0,0,0,0,0,0,0,0,0,0,0,0,0,0,0,0,0,0,0,0,0,0,0,0
0,0,0,0,0,0,0,0,0,0,0,0,0,1748,1748,1739,1739,1748,1748,1748,1748,1748,1748,1748,1748,1748,1748,1739,1739,1739,1739,1739,1731,1731,1731,1731,1731,1731,1731,1731,1731,1731,1731,1731,1731,1731,1731,1731,1731,1722,1722,1722,1722,1722,1722,1722,1722,1731,1731,1731,1722,1722,1722,1722,1722,1722,1722,1722,1722,1722,1722,1722,1722,1722,1722,1722,1722,1722,1722,1713,1713,1713,1713,1713,1713,1713,1713,1705,1705,1705,1705,1705,1705,1705,1705,1705,1705,1705,1705,1696,1696,1696,1696,1696,1696,1696,1688,1688,1688,1688,1688,1688,1688,1688,1688,1688,1688,1688,1688,1688,1688,1680,1680,1680,1680,1680,1688,1680,1680,1688,1688,1688,1688,1688,1696,1696,1696,1696,1696,1696,1833,1833,1833,1833,1833,1833,1833,1833,1833,1833,1833,1833,1823,1823,1813,1813,1813,1813,1813,1804,1794,1748,1713,1696,1696,1696,1696,1696,1696,1696,1696,1696,1705,1705,1705,1713,1722,1722,1722,1731,1731,1731,1739,1748,1748,1748,1757,1757,1757,1766,1766,1766,1766,1776,1776,1776,1785,1785,1794,1794,1794,1804,1804,1804,1804,1804,1813,1813,1823,1823,1823,1833,1833,1833,1833,1833,1843,1843,1853,1863,1863,1873,1873,1873,1873,1873,1883,1883,1883,1883,1894,1894,1904,1915,1915,1915,1090,1090,1926,1926,1926,1926,1926,1947,1947,1112,1112,1108,1108,1108,1108,1112,1112,1115,1123,1126,1126,1126,1126,1123,1119,1119,1115,1115,1115,1115,1115,1115,1115,1119,1119,1119,1123,1123,1126,1126,1126,1130,1130,1134,1134,1134,1126,0,1804,1804,1804,1794,1794,1794,1785,1785,1785,1785,1785,1776,1776,1776,1766,1766,1766,1757,1757,1757,1757,1748,1748,1739,1739,1739,1731,1731,1731,1722,1722,1722,1713,1713,1713,1713,1705,1705,1705,1705,1705,1696,1696,1696,1696,1688,1680,1671,1671,1671,1671,1663,1663,1663,1663,1663,1655,1655,1655,1647,1639,1632,1632,1632,1632,1632,1632,1624,1624,1616,1616,1616,1609,1609,1601,1601,1601,1601,1601,1594,1594,1586,1586,1579,1579,1579,1579,1579,1579,1572,1572,1572,0,0,0,0,0,0,0,930,930,928,928,928,928,925,925,920,920,918,918,918,915,915,915,915,915,918,918,918,920,928,933,933,935,935,938,0,0,0,1483,1483,1483,1477,1477,1477,1470,1470,1470,1464,1464,1464,1458,1458,1458,1452,1452,1452,1445,1445,1445,1445,1439,1439,1439,1439,1433,1433,1427,1427,1421,1421,1421,1415,1415,1415,1415,1415,1410,1410,1404,1404,1398,1398,1398,1398,1398,1398,1392,1392,1392,1387,1381,1376,1376,1376,1376,1376,1376,1370,1370,1370,1365,1365,1359,1359,1359,1359,1354,1354,1354,1349,1349,1349,1349,1343,1343,1338,1338,1333,1333,1333,1333,1328,1328,1328,1328,1328,1322,1322,1317,1317,1312,1312,1312,1312,1307,1307,1307,1302,1302,1302,1297,1292,1292,1292,1288,1288,1288,1288,1288,1283,1278,1278,1273,1273,1273,1273,1268,1268,1268,1268,1268,1259,1259,1255,1255,1255,1255,1255,1250,1250,1250,1250,1250,1245,1241,1241,1236,1236,1236,1236,1236,1232,1232,1232,1232,1227,1227,1223,1223,1219,1219,1219,1214,1214,1214,1210,1210,1210,1206,1206,1202,1202,1202,1197,1197,1197,1197,1193,1193,1193,1189,1189,1189,1189,1185,1185,1185,1185,1181,1181,1181,1181,1177,1177,1173,1173,1169,1169,1169,1169,1169,1165,1165,0,0,0,0,0,0,0,0,0,0,0,0,0,0,0,0,0,0,0,0,0,0,0,0,0,0,0,0,0,0,0
0,0,0,0,0,0,0,0,0,0,0,0,0,1748,1748,1739,1739,1739,1739,1748,1748,1748,1748,1748,1739,1739,1739,1739,1739,1739,1739,1739,1731,1731,1731,1731,1731,1731,1731,1731,1731,1731,1731,1731,1731,1731,1731,1731,1731,1722,1722,1722,1722,1722,1722,1722,1722,1731,1731,1731,1722,1722,1722,1722,1722,1722,1722,1722,1722,1722,1722,1722,1722,1722,1722,1722,1722,1722,1722,1722,1722,1722,1722,1713,1713,1713,1705,1705,1705,1705,1705,1705,1705,1705,1705,1705,1705,1705,1705,1705,1705,1696,1696,1696,1696,1696,1688,1688,1688,1688,1688,1688,1688,1688,1688,1688,1688,1688,1688,1688,1688,1680,1680,1680,1680,1688,1688,1688,1688,1688,1688,1688,1688,1696,1696,1696,1696,1696,1696,1696,1833,1833,1833,1833,1833,1833,1833,1843,1833,1833,1833,1833,1823,1823,1813,1813,1813,1813,1813,1804,1785,1739,1705,1696,1696,1696,1696,1696,1696,1696,1696,1696,1705,1705,1705,1713,1722,1722,1722,1731,1731,1739,1748,1748,1757,1757,1757,1757,1757,1766,1766,1766,1766,1776,1776,1776,1785,1785,1794,1794,1794,1804,1804,1804,1804,1804,1813,1813,1813,1823,1823,1833,1833,1833,1833,1833,1843,1843,1853,1863,1863,1873,1873,1873,1873,1873,1883,1883,1883,1883,1894,1894,1904,1915,1915,1090,1087,1087,1090,1087,1087,1926,1926,1101,1101,1101,1105,1105,1108,1108,1108,1108,1112,1112,1115,1119,1119,1119,1119,1119,1119,1115,1115,1115,1115,1112,1112,1112,1112,1115,1119,1119,1119,1119,1123,1123,1123,1119,1119,1119,1119,1126,1126,1105,1804,1804,1804,1794,1794,1794,1785,1785,1785,1785,1785,1785,1785,1776,1776,1766,1766,1766,1757,1757,1757,1748,1748,1739,1739,1739,1731,1731,1731,1731,1722,1722,1722,1713,1713,1713,1705,1705,1705,1705,1705,1696,1696,1696,1696,1688,1688,1671,1671,1671,1671,1663,1663,1663,1663,1663,1655,1655,1655,1647,1639,1639,1632,1632,1632,1632,1632,1632,1624,1616,1616,1616,1609,1609,1601,1601,1601,1601,1601,1594,1594,1594,1586,1586,1579,1579,1579,1579,1579,1572,1572,0,0,0,0,0,0,0,0,930,930,928,928,928,928,925,925,923,920,918,918,918,915,915,915,915,915,918,918,920,923,928,933,935,935,935,938,0,0,0,0,1483,1483,1477,1477,1477,1470,1470,1470,1464,1464,1464,1458,1458,1458,1458,1452,1452,1445,1445,1445,1445,1439,1439,1439,1439,1433,1433,1427,1427,1421,1421,1421,1415,1415,1415,1415,1415,1415,1410,1404,1404,1398,1398,1398,1398,1398,1392,1392,1392,1392,1387,1387,1381,1376,1376,1376,1376,1376,1370,1370,1370,1365,1365,1359,1359,1359,1354,1354,1354,1354,1349,1349,1349,1349,1343,1343,1338,1338,1338,1333,1333,1333,1328,1328,1328,1328,1322,1322,1322,1317,1317,1312,1312,1312,1312,1307,1307,1307,1302,1302,1302,1297,1292,1292,1292,1288,1288,1288,1288,1288,1283,1278,1278,1273,1273,1273,1273,1268,1268,1268,1268,1264,1259,1259,1255,1255,1255,1255,1255,1250,1250,1250,1250,1250,1245,1245,1241,1236,1236,1236,1236,1236,1232,1232,1232,1232,1232,1227,1227,1223,1223,1219,1219,1219,1214,1214,1214,1210,1210,1206,1206,1202,1202,1202,1197,1197,1197,1197,1197,1197,1193,1193,1193,1189,1189,1185,1185,1185,1185,1181,1181,1181,1181,1177,1177,1173,1173,1169,1169,1169,1169,1169,1165,1165,0,0,0,0,0,0,0,0,0,0,0,0,0,0,0,0,0,0,0,0,0,0,0,0,0,0,0,0,0,0,0
0,0,0,0,0,0,0,0,0,0,0,0,1739,1739,1748,1739,1739,1739,1739,1748,1748,1748,1748,1748,1739,1739,1739,1739,1739,1739,1739,1739,1739,1731,1731,1731,1731,1731,1731,1731,1731,1731,1731,1731,1731,1731,1731,1731,1731,1731,1731,1731,1722,1722,1722,1722,1722,1731,1731,1722,1722,1722,1722,1722,1722,1722,1722,1722,1722,1722,1722,1722,1722,1722,1722,1722,1722,1722,1722,1722,1722,1722,1722,1713,1713,1713,1705,1705,1705,1705,1705,1705,1705,1705,1705,1705,1713,1713,1705,1705,1705,1705,1696,1696,1696,1696,1696,1688,1688,1688,1688,1688,1688,1688,1688,1696,1688,1688,1688,1688,1688,1680,1680,1680,1680,1688,1688,1688,1688,1688,1688,1688,1688,1688,1696,1696,1696,1696,1696,1696,1833,1833,1833,1833,1833,1833,1833,1843,1843,1843,1833,1833,1833,1823,1823,1813,1813,1813,1804,1794,1776,1731,1705,1705,1696,1696,1696,1696,1696,1696,1696,1705,1705,1705,1705,1722,1722,1722,1731,1731,1731,1739,1739,1748,1748,1748,1757,1757,1757,1766,1766,1766,1766,1776,1776,1776,1785,1785,1794,1794,1794,1804,1804,1804,1804,1804,1813,1813,1813,1823,1823,1833,1833,1833,1833,1833,1843,1843,1853,1863,1863,1873,1873,1873,1883,1883,1883,1883,1883,1883,1894,1904,1915,1915,1090,1090,1087,1087,1090,1087,1087,1090,1090,1090,1090,1094,1097,1101,1105,1105,1105,1105,1108,1108,1108,1108,1108,1115,1115,1115,1115,1115,1112,1112,1112,1112,1112,1112,1112,1115,1115,1115,1115,1119,1119,1115,1108,1108,1105,1105,1105,1105,1105,1105,1105,1804,1804,1794,1794,1794,1794,1794,1794,1785,1785,1785,1785,1776,1776,1766,1766,1766,1757,1757,1757,1748,1748,1739,1739,1731,1731,1731,1731,1731,1722,1722,1722,1722,1713,1713,1713,1713,1705,1705,1705,1696,1696,1696,1696,1688,1688,1680,1671,1671,1671,1671,1663,1663,1663,1663,1655,1655,1655,1647,1639,1639,1632,1632,1632,1632,1632,1632,1624,1624,1616,1616,1609,1609,1601,1601,1601,1601,1601,1601,1594,1594,1594,1586,1579,1579,1579,1579,1579,1572,1572,0,0,0,0,0,0,0,0,933,930,928,928,928,925,925,923,920,920,918,918,918,915,915,915,918,918,918,920,920,925,928,933,933,935,935,938,0,0,0,1489,1483,1483,1483,1477,1477,1470,1470,1470,1464,1464,1464,1464,1458,1458,1458,1452,1452,1452,1445,1445,1445,1439,1439,1439,1439,1433,1433,1433,1427,1421,1421,1421,1421,1421,1415,1415,1415,1415,1410,1404,1404,1398,1398,1398,1398,1398,1392,1392,1392,1392,1387,1387,1381,1376,1376,1376,1376,1376,1376,1370,1370,1365,1365,1359,1359,1359,1354,1354,1354,1354,1349,1349,1349,1349,1343,1343,1338,1338,1338,1338,1338,1333,1333,1328,1328,1328,1322,1322,1317,1317,1317,1312,1312,1312,1312,1307,1307,1307,1302,1302,1297,1297,1292,1292,1292,1288,1288,1288,1288,1288,1283,1278,1278,1278,1273,1273,1273,1268,1268,1268,1268,1264,1259,1259,1255,1255,1255,1255,1255,1250,1250,1250,1250,1250,1250,1245,1241,1236,1236,1236,1236,1236,1232,1232,1232,1232,1232,1227,1227,1227,1223,1219,1219,1219,1214,1214,1214,1210,1210,1206,1206,1202,1202,1202,1197,1197,1197,1197,1197,1197,1193,1193,1193,1189,1189,1185,1185,1185,1185,1181,1181,1181,1181,1177,1177,1173,1173,1169,1169,1169,1169,1165,1165,1165,0,0,0,0,0,0,0,0,0,0,0,0,0,0,0,0,0,0,0,0,0,0,0,0,0,0,0,0,0,0,0
0,0,0,0,0,0,0,0,0,0,0,0,1739,1739,1739,1739,1739,1748,1748,1748,1748,1748,1748,1748,1739,1739,1748,1739,1739,1748,1739,1739,1739,1731,1731,1731,1731,1731,1731,1731,1731,1731,1731,1731,1731,1731,1731,1731,1731,1731,1731,1731,1731,1722,1722,1722,1722,1731,1731,1722,1722,1722,1722,1722,1722,1722,1722,1722,1722,1722,1722,1722,1722,1722,1722,1722,1722,1722,1722,1722,1722,1722,1722,1713,1713,1713,1705,1705,1705,1705,1705,1705,1705,1705,1705,1705,1713,1713,1713,1705,1705,1705,1705,1696,1696,1696,1696,1688,1688,1688,1688,1688,1688,1688,1688,1696,1696,1696,1696,1688,1688,1688,1680,1680,1688,1688,1688,1688,1688,1688,1688,1688,1688,1688,1688,1696,1696,1696,1696,1696,1833,1833,1833,1833,1833,1843,1843,1843,1843,1843,1843,1843,1833,1823,1823,1823,1813,1813,1804,1794,1776,1731,1705,1705,1705,1696,1696,1696,1696,1696,1696,1705,1705,1705,1705,1722,1722,1722,1731,1731,1739,1739,1739,1748,1748,1748,1757,1757,1757,1766,1766,1766,1766,1776,1776,1776,1785,1794,1794,1794,1794,1804,1804,1804,1804,1804,1813,1813,1813,1823,1823,1823,1063,1063,1823,1823,1833,1833,1070,1070,1863,1073,1073,1073,1073,1073,1073,1073,1073,1883,1894,1915,1915,1087,1087,1087,1087,1084,1084,1087,1087,1087,1087,1087,1087,1090,1094,1101,1101,1101,1101,1101,1101,1101,1101,1101,1101,1108,1108,1108,1108,1112,1108,1108,1108,1105,1105,1105,1105,1112,1112,1112,1112,1115,1115,1112,1105,1105,1105,1101,1101,1101,1101,1101,1101,1101,1105,1794,1794,1794,1794,1794,1794,1785,1785,1785,1785,1785,1776,1766,1766,1766,1757,1757,1757,1748,1748,1739,1739,1731,1731,1731,1731,1731,1722,1722,1722,1722,1713,1713,1713,1713,1705,1705,1705,1705,1696,1696,1696,1688,1688,1680,1671,1671,1671,1671,1663,1663,1663,1663,1663,1655,1655,1655,1639,1639,1639,1632,1632,1632,1632,1632,1632,1624,1624,1616,1616,1609,1609,1609,1601,1601,1601,1601,1594,1594,1594,1586,1586,1586,1579,1579,1579,1572,1572,0,0,0,0,0,0,0,0,0,930,928,928,928,925,925,923,920,920,918,918,918,915,915,918,918,918,918,920,923,925,928,930,933,935,938,0,0,0,1489,1489,1483,1483,1483,1477,1477,1470,1470,1470,1464,1464,1464,1464,1458,1458,1458,1452,1452,1452,1445,1445,1445,1439,1439,1439,1439,1433,1433,1427,1427,1421,1421,1421,1421,1421,1415,1415,1415,1415,1410,1410,1404,1398,1398,1398,1398,1398,1398,1392,1392,1392,1392,1387,1381,1376,1376,1376,1376,1376,1376,1370,1370,1365,1365,1359,1359,1359,1354,1354,1354,1354,1349,1349,1349,1349,1343,1343,1343,1338,1338,1338,1338,1333,1333,1333,1328,1328,1322,1322,1317,1317,1317,1312,1312,1312,1312,1307,1307,1307,1302,1302,1297,1297,1292,1292,1292,1288,1288,1288,1288,1288,1283,1278,1278,1278,1273,1273,1273,1273,1268,1268,1268,1264,1259,1259,1255,1255,1255,1255,1255,1250,1250,1250,1250,1250,1245,1245,1241,1236,1236,1236,1236,1236,1232,1232,1232,1232,1227,1227,1227,1223,1223,1219,1219,1219,1214,1214,1214,1214,1210,1206,1206,1202,1202,1202,1197,1197,1197,1197,1197,1197,1197,1193,1193,1193,1189,1185,1185,1185,1185,1185,1181,1181,1181,1181,1177,1177,1173,1173,1169,1169,1169,1165,1165,1165,0,0,0,0,0,0,0,0,0,0,0,0,0,0,0,0,0,0,0,0,0,0,0,0,0,0,0,0,0,0,0
0,0,0,0,0,0,0,0,0,0,0,0,1739,1739,1739,1739,1739,1748,1748,1748,1748,1748,1748,1748,1739,1739,1748,1748,1748,1748,1748,1739,1739,1731,1731,1731,1731,1739,1739,1739,1731,1731,1739,1739,1731,1731,1731,1731,1731,1731,1731,1731,1731,1731,1731,1731,1731,1731,1731,1722,1722,1722,1722,1722,1722,1722,1722,1722,1722,1731,1731,1722,1722,1722,1722,1722,1722,1722,1731,1722,1722,1722,1722,1713,1713,1713,1705,1705,1705,1705,1705,1705,1705,1705,1713,1713,1713,1713,1713,1705,1705,1705,1705,1696,1696,1696,1696,1688,1688,1688,1688,1688,1688,1688,1688,1696,1696,1696,1696,1696,1696,1688,1688,1688,1688,1688,1688,1688,1688,1688,1688,1688,1688,1688,1688,1696,1696,1696,1696,1696,1833,1833,1833,1833,1833,1843,1843,1843,1843,1843,1843,1843,1833,1823,1823,1823,1813,1813,1813,1794,1776,1713,1705,1705,1705,1696,1696,1696,1696,1696,1696,1705,1705,1713,1713,1722,1722,1722,1731,1731,1739,1739,1739,1748,1748,1757,1757,1757,1766,1766,1766,1766,1766,1776,1776,1785,1785,1794,1794,1794,1794,1804,1804,1804,1804,1804,1813,1813,1813,1823,1823,1063,1063,1060,1060,1063,1063,1070,1070,1067,1067,1067,1067,1067,1067,1067,1067,1073,1073,1073,1073,1077,1077,1077,1080,1080,1084,1080,1080,1084,1084,1087,1084,1084,1087,1090,1090,1094,1094,1097,1097,1097,1097,1097,1097,1090,1090,1090,1094,1097,1097,1101,1101,1105,1101,1101,1101,1101,1101,1105,1105,1105,1108,1112,1112,1108,1105,1105,1101,1101,1101,1101,1101,1101,1097,1097,1101,1097,1094,1094,1094,1794,1794,1785,1785,1785,1785,1785,1776,1776,1766,1766,1757,1757,1757,1748,1748,1739,1739,1739,1731,1731,1731,1731,1722,1722,1722,1722,1713,1713,1713,1713,1705,1705,1705,1705,1696,1696,1696,1688,1688,1680,1680,1671,1671,1671,1663,1663,1663,1663,1663,1655,1655,1647,1639,1639,1639,1639,1632,1632,1632,1632,1632,1624,1624,1616,1609,1609,1609,1609,1601,1601,1601,1601,1601,1594,1594,1586,1586,1586,1579,1579,1579,1579,1579,0,0,0,0,0,0,0,0,0,928,928,928,928,925,925,923,920,920,918,918,918,918,918,918,918,918,918,920,925,925,928,930,933,0,0,0,0,0,1489,1489,1483,1483,1483,1477,1477,1477,1470,1470,1464,1464,1464,1464,1464,1458,1458,1458,1458,1452,1445,1445,1445,1445,1439,1439,1439,1433,1433,1427,1427,1421,1421,1421,1421,1421,1415,1415,1415,1415,1410,1410,1404,1398,1398,1398,1398,1398,1398,1398,1392,1392,1392,1387,1381,1376,1376,1376,1376,1376,1376,1370,1370,1370,1365,1359,1359,1359,1354,1354,1354,1354,1354,1349,1349,1349,1349,1343,1343,1338,1338,1338,1338,1333,1333,1333,1328,1328,1328,1322,1322,1317,1317,1317,1312,1312,1312,1307,1307,1307,1302,1302,1297,1297,1297,1292,1292,1288,1288,1288,1288,1288,1283,1283,1278,1278,1278,1273,1273,1273,1268,1268,1268,1264,1259,1259,1255,1255,1255,1255,1255,1250,1250,1250,1250,1250,1245,1245,1241,1236,1236,1236,1236,1236,1232,1232,1232,1232,1227,1227,1227,1223,1223,1219,1219,1219,1214,1214,1214,1214,1210,1206,1206,1202,1202,1202,1202,1197,1197,1197,1197,1197,1197,1197,1193,1193,1189,1189,1185,1185,1185,1185,1181,1181,1181,1181,1177,1177,1177,1173,1169,1169,1169,1165,1165,1165,0,0,0,0,0,0,0,0,0,0,0,0,0,0,0,0,0,0,0,0,0,0,0,0,0,0,0,0,0,0,0
