0,0,0,0,0,0,0,0,0,0,946,946,946,943,943,940,938,935,935,935,933,933,935,935,938,940,943,943,943,946,946,946,948,948,951,951,951,951,954,959,964,964,967,967,967,967,970,970,970,970,1145,1145,1145,1145,1145,1145,1145,1145,1145,1145,1141,1141,1141,1141,1138,1138,1138,1138,1138,1138,1138,1138,1138,1134,1134,1134,1134,1138,1138,1138,1141,1141,1138,1138,1134,1134,1134,1134,1134,1134,1134,1134,1134,1134,1134,1134,1134,1134,1134,1134,1134,1134,1134,1134,1134,0,0,0,0,0,0,0,0,0,0,0,0,0,0,680,678,678,675,675,674,672,670,668,668,668,668,668,668,670,671,672,672,674,675,676,679,680,680,682,686,686,687,687,687,690,691,691,0,0,0,0,0,0,0,0,0,1130,1126,1126,1123,1123,1123,1123,1126,1123,1123,1123,1126,1126,1126,1126,1126,1126,1126,1126,1126,1126,1126,1126,1126,1126,1126,1126,1126,1126,1126,1130,1126,1126,1126,1123,1119,1119,956,956,956,954,954,954,954,951,943,943,940,938,938,935,935,933,933,930,928,928,925,925,923,923,920,920,920,920,920,918,918,918,915,915,915,915,915,915,915,913,913,913,913,910,910,908,908,908,908,908,910,913,913,915,915,915,915,915,915,915,915,915,918,923,925,928,930,930,933,935,938,940,943,946,948,1108,1108,1108,1108,1108,1108,1108,1108,1105,1105,1105,1105,1105,1105,1105,1105,1105,1101,1101,1105,1105,1105,1105,1105,1105,1105,1105,1101,1101,1097,1094,1090,1090,1090,1090,1087,1087,1087,1084,1084,1084,1087,1087,1087,1090,1094,1101,1105,1105,1108,1108,1108,1108,1105,1105,1105,1105,1105,1105,1105,1105,1105,1105,1105,1105,1105,1105,1105,1105,1105,1105,1105,1105,1105,1105,1105,1105,1105,1105,1105,1105,1105,1105,1105,1101,1101,1097,1097,1097,1097,1097,1097,1097,1097,1097,1097,1101,1097,1097,1094,1094,1097,1097,1097,1097,1097,1097,1097,1097,1097,1097,1097,1101,1101,1101,1101,1101,1101,1097,1097,1097,1097,1097,1097,1097,1097,1097,1101,1101,1097,1094,1094,1090,1090,1090,1090,1090,1090,1090,1090,1090,1087,1087,1087,1087,1087,1087,1087,1090,1090,1090,1090,1090,1090,1090,1090,1087,1087,1090,1090,1090,1090,1090,1087,1087,1087,1084,1084,1084,1084,1084,1080,1080,1080,1080,1080,1080,1080,1084,1084,1080,1080,1080,1080,1080,1080,1080,1080,1080,1080,1080,1080,1080,1080,1077,1077,1077,1077,1077,1077,1080,1080,1080,1080,1080,1077,1077,1077,1077,1077,1077,1077,1077,1077,1077,1077,1077,1077,1077,1077,1077,962,962,962,959,959,956,956,956,956,956,951,951,951,951,896,896,896,896,896,896,896,896,896,896,896,896,896,896,896,896,896,896,896,896,896,898,898,898,898,901,901,903,906,906,908,918,920,923,925,928,928,928,928,925,925,925,925,925,923,923,923,923,923,920,920,920,918,918,915,913,913,910,908,908,908,906,906,903,903,903,903,903,901,898,898,896,894,894,889,889,885,880,878,875,873,871,869,867,864,862,860,860,858,856,854,851,849,847,847,0,0,0,0,0,0,0,0,0,0,0,0,0,0,0,0,0,0,0,0,0,0,0,0,0,0,0,0,0,0,0,0,0,0,0,0,0
0,0,0,0,0,0,0,0,0,0,0,946,946,946,943,943,940,938,935,935,935,935,935,935,938,940,943,943,943,943,946,946,948,948,951,951,951,951,954,959,964,967,970,967,967,970,970,970,970,1130,1141,1141,1141,1141,1141,1138,1138,1138,1138,1138,1138,1138,1138,1138,1138,1138,1138,1138,1138,1134,1134,1134,1134,1134,1134,1134,1134,1134,1134,1138,1138,1138,1138,1134,1134,1134,1130,1130,1130,1130,1130,1130,1130,1130,1130,1130,1134,1134,1130,1130,1130,1134,1134,1134,1134,1134,0,0,0,0,0,0,0,0,0,0,0,0,0,682,679,678,676,676,675,674,671,670,670,668,668,668,670,670,671,672,672,674,676,676,679,682,682,684,686,686,687,687,688,690,691,693,694,694,0,0,0,0,0,0,0,0,1123,1123,1119,1119,1123,1123,1123,1123,1123,1123,1123,1126,1126,1123,1123,1123,1123,1123,1123,1123,1126,1126,1126,1126,1126,1126,1123,1123,1123,1123,1123,1123,1123,1119,1119,1119,956,956,956,954,954,954,954,954,943,943,940,938,938,938,935,935,933,933,930,928,925,925,923,923,920,920,920,920,920,918,915,915,915,913,913,913,913,913,913,913,913,910,910,908,908,906,906,906,906,906,908,908,908,910,913,913,913,913,913,913,915,915,918,923,925,928,930,930,933,933,935,938,946,946,1105,1105,1108,1108,1105,1105,1105,1105,1105,1105,1105,1105,1105,1105,1105,1101,1101,1101,1101,1101,1101,1101,1101,1101,1101,1101,1101,1101,1101,1101,1097,1094,1094,1090,1090,1090,1090,1090,1087,1087,1087,1087,1087,1087,1090,1090,1094,1101,1105,1105,1105,1105,1105,1105,1105,1105,1105,1105,1105,1105,1105,1105,1105,1105,1105,1105,1105,1101,1101,1101,1101,1105,1105,1105,1105,1101,1101,1101,1101,1101,1101,1101,1101,1101,1101,1097,1097,1097,1097,1094,1094,1094,1094,1094,1094,1094,1094,1097,1094,1094,1094,1094,1094,1094,1094,1094,1094,1094,1094,1094,1094,1094,1094,1094,1097,1097,1097,1097,1097,1094,1094,1094,1094,1094,1094,1094,1094,1094,1097,1097,1097,1094,1094,1090,1090,1090,1090,1090,1090,1090,1087,1087,1087,1084,1084,1084,1084,1084,1084,1084,1084,1084,1087,1087,1087,1087,1087,1084,1084,1084,1084,1084,1084,1084,1084,1084,1084,1080,1080,1080,1080,1080,1080,1080,1080,1080,1080,1080,1080,1080,1080,1080,1080,1080,1077,1077,1077,1077,1077,1080,1080,1077,1077,1077,1077,1073,1073,1073,1073,1073,1077,1077,1077,1077,1077,1077,1077,1077,1077,1077,1073,1073,1073,1073,1073,1073,1073,1077,1077,1077,1077,964,964,962,962,959,959,956,956,956,956,956,956,954,954,951,896,896,896,896,896,896,896,896,896,896,896,896,896,896,896,896,896,896,896,896,896,896,898,898,898,901,901,903,906,906,908,920,920,925,925,928,928,928,928,928,925,925,925,925,925,923,923,923,923,923,920,920,920,918,915,913,913,910,908,908,906,906,906,903,903,901,901,901,898,896,896,896,894,889,889,887,882,878,875,873,871,871,867,867,864,862,860,860,858,856,854,851,849,845,845,0,0,0,0,0,0,0,0,0,0,0,0,0,0,0,0,0,0,0,0,0,0,0,0,0,0,0,0,0,0,0,0,0,0,0,0,0
0,0,0,0,0,0,0,0,0,0,0,0,946,946,943,943,940,938,935,935,935,935,935,935,938,940,940,940,943,943,946,948,951,951,951,951,951,951,954,964,964,967,970,970,970,970,1130,1130,1130,1130,1134,1134,1138,1138,1138,1134,1134,1134,1134,1134,1134,1134,1134,1134,1134,1134,1134,1134,1134,1134,1134,1134,1130,1130,1130,1130,1130,1130,1130,1134,1134,1134,1134,1134,1130,1130,1130,1130,1130,1130,1130,1130,1130,1130,1130,1130,1130,1130,1130,1130,1130,1130,1130,1130,1130,1134,1134,0,0,0,0,0,0,0,0,0,0,0,0,682,680,679,678,676,676,675,672,670,670,670,670,670,670,671,672,672,674,675,678,678,679,680,680,684,686,686,687,687,688,690,691,693,694,694,0,0,0,0,0,0,1115,1115,1119,1119,1119,1119,1119,1119,1119,1119,1119,1119,1119,1123,1119,1119,1119,1119,1119,1119,1119,1119,1123,1123,1123,1123,1123,1123,1123,1119,1119,1119,1119,1119,1119,1119,1119,1115,956,956,956,954,954,954,954,954,946,946,943,940,940,938,935,933,933,933,930,928,925,925,923,923,920,920,920,920,918,918,915,915,913,913,913,913,913,913,913,913,913,910,910,908,908,906,906,906,906,906,906,906,906,908,908,910,910,913,913,913,915,915,918,923,923,928,930,930,933,933,935,938,1105,1105,1105,1105,1105,1108,1105,1105,1105,1105,1105,1105,1101,1101,1101,1101,1101,1101,1101,1097,1097,1097,1097,1097,1097,1097,1097,1101,1101,1101,1097,1097,1097,1094,1094,1090,1090,1094,1090,1090,1090,1087,1087,1087,1087,1087,1090,1094,1101,1101,1105,1105,1105,1105,1105,1105,1101,1101,1101,1101,1101,1101,1101,1101,1101,1101,1101,1101,1101,1097,1097,1097,1097,1097,1101,1101,1101,1101,1101,1101,1101,1101,1097,1097,1097,1097,1097,1094,1094,1094,1094,1094,1094,1094,1094,1094,1094,1094,1094,1094,1090,1090,1094,1094,1094,1094,1094,1094,1094,1094,1094,1094,1090,1090,1090,1094,1094,1090,1090,1094,1094,1090,1090,1090,1094,1094,1094,1094,1090,1090,1094,1094,1094,1090,1090,1090,1090,1087,1087,1087,1087,1084,1084,1084,1084,1084,1084,1084,1084,1084,1084,1084,1080,1080,1080,1080,1084,1084,1084,1080,1080,1080,1080,1080,1080,1080,1080,1080,1080,1080,1080,1080,1080,1080,1080,1080,1080,1080,1080,1080,1077,1077,1077,1080,1080,1080,1077,1077,1077,1077,1077,1077,1077,1077,1077,1073,1073,1070,1070,1070,1070,1070,1070,1070,1077,1077,1077,1077,1077,1077,1073,1073,1073,1073,1070,1070,1073,1070,1070,1073,1073,967,967,964,964,962,962,959,959,956,956,956,956,956,956,954,954,956,887,887,894,896,896,896,894,894,894,896,896,894,894,896,896,896,896,896,896,896,896,896,898,898,898,898,898,901,903,906,908,923,923,925,925,928,928,928,928,928,925,925,925,925,925,925,925,923,923,923,920,920,920,918,918,913,910,908,908,906,906,903,903,901,901,898,898,898,896,896,894,894,891,889,889,887,882,878,875,873,871,871,867,867,864,862,860,860,856,856,851,849,849,845,845,0,0,0,0,0,0,0,0,0,0,0,0,0,0,0,0,0,0,0,0,0,0,0,0,0,0,0,0,0,0,0,0,0,0,0,0,0
0,0,0,0,0,0,0,0,0,0,0,0,951,948,946,946,943,943,940,935,935,935,935,938,938,940,940,940,943,943,946,948,951,951,951,951,951,951,956,967,967,970,970,970,970,1123,1123,1126,1126,1134,1134,1134,1138,1138,1134,1134,1134,1134,1134,1130,1130,1130,1130,1130,1130,1130,1130,1130,1134,1130,1130,1130,1130,1130,1130,1126,1126,1126,1126,1130,1130,1130,1130,1130,1130,1126,1126,1126,1126,1126,1126,1126,1130,1130,1126,1126,1126,1126,1130,1130,1130,1130,1130,1130,1130,1134,1134,0,0,0,0,0,0,0,0,0,0,0,0,683,683,683,679,678,676,675,674,671,671,670,670,670,670,671,672,672,674,675,678,678,679,680,680,684,686,686,687,687,688,690,691,693,694,694,0,0,0,0,0,0,1115,1115,1115,1115,1115,1115,1119,1119,1119,1115,1115,1119,1119,1119,1119,1119,1119,1119,1119,1119,1119,1119,1119,1119,1119,1119,1119,1119,1119,1119,1119,1119,1119,1119,1119,1119,1115,1115,1115,1112,956,956,1108,1108,954,954,946,946,943,940,940,938,935,933,933,933,930,928,928,925,925,923,920,920,920,918,918,915,913,913,913,913,913,913,910,910,910,910,910,910,910,908,908,906,906,903,903,903,903,903,903,903,906,908,910,910,913,913,915,915,918,923,923,928,928,930,933,933,935,938,1101,1101,1101,1101,1105,1105,1105,1105,1105,1105,1105,1101,1101,1101,1101,1101,1101,1101,1097,1097,1097,1094,1094,1097,1094,1094,1097,1097,1097,1097,1097,1097,1097,1094,1094,1090,1090,1094,1094,1090,1090,1090,1090,1090,1090,1090,1090,1094,1101,1101,1101,1105,1105,1101,1101,1101,1097,1097,1097,1097,1097,1097,1097,1097,1097,1097,1097,1097,1097,1097,1094,1094,1097,1097,1097,1097,1097,1097,1097,1097,1097,1097,1094,1094,1094,1094,1094,1094,1094,1094,1094,1094,1094,1094,1094,1090,1090,1090,1090,1090,1090,1087,1087,1090,1090,1090,1094,1090,1090,1094,1090,1090,1090,1090,1090,1090,1090,1087,1087,1087,1087,1087,1087,1087,1090,1090,1087,1087,1087,1087,1087,1087,1090,1090,1087,1087,1087,1087,1087,1084,1084,1080,1080,1080,1080,1080,1080,1080,1080,1080,1080,1080,1080,1080,1080,1080,1077,1077,1080,1080,1080,1080,1080,1080,1080,1080,1080,1080,1080,1077,1077,1080,1080,1080,1077,1077,1077,1077,1077,1077,1077,1077,1077,1077,1077,1077,1070,1070,1070,1073,1073,1073,1073,1073,1073,1073,1073,1070,1070,1067,1067,1067,1067,1067,1067,1067,1067,1073,1073,1073,1073,1070,1070,1070,1070,1070,1070,1070,1070,1070,1070,967,967,967,964,962,962,962,959,956,956,956,956,956,956,956,956,959,887,887,891,894,894,894,894,894,894,894,894,894,894,894,894,894,894,894,896,896,896,896,898,898,898,898,898,901,901,903,908,923,923,925,925,928,928,928,928,928,928,925,925,925,925,925,925,923,923,923,918,918,918,915,915,910,908,908,906,906,906,903,901,901,898,898,896,896,894,894,891,891,891,889,889,887,880,875,873,871,871,869,867,864,862,862,860,858,856,856,851,849,849,847,847,0,0,0,0,0,0,0,0,0,0,0,0,0,0,0,0,0,0,0,0,0,0,0,0,0,0,0,0,0,0,0,0,0,0,0,0,0
0,0,0,0,0,0,0,0,0,0,0,0,0,948,946,946,946,943,940,940,938,938,938,940,940,940,940,940,943,943,946,948,951,951,951,951,951,954,956,967,967,970,973,973,1130,1123,1123,1126,1126,1134,1134,1134,1134,1134,1134,1134,1130,1130,1130,1130,1130,1130,1130,1126,1126,1130,1130,1130,1130,1130,1126,1126,1126,1126,1126,1126,1123,1123,1123,1126,1126,1126,1126,1126,1126,1126,1126,1126,1126,1126,1126,1126,1126,1126,1123,1123,1123,1123,1123,1126,1126,1126,1126,1126,1126,1130,1130,0,0,0,0,0,0,0,0,0,0,0,684,684,683,683,683,682,678,676,674,671,671,671,670,670,670,671,672,672,674,675,678,678,679,680,682,686,686,686,687,687,688,690,693,694,694,694,0,0,0,0,0,0,0,1108,1108,1112,1115,1115,1115,1115,1115,1115,1115,1115,1115,1115,1115,1115,1115,1115,1115,1115,1115,1119,1119,1119,1119,1115,1115,1115,1112,1112,1112,1112,1115,1115,1115,1115,1115,1112,1112,1112,1112,1112,1108,1108,954,954,946,946,946,940,940,938,935,935,933,933,930,928,928,925,925,923,920,920,920,918,915,915,913,913,913,913,910,910,910,908,908,908,908,906,906,906,903,903,903,903,903,903,903,903,903,903,906,906,906,910,910,913,915,915,918,923,923,928,928,930,930,933,933,1101,1101,1101,1101,1101,1101,1105,1101,1101,1101,1101,1101,1101,1101,1101,1101,1101,1101,1097,1094,1094,1094,1094,1094,1094,1094,1094,1094,1094,1094,1094,1094,1094,1094,1094,1094,1090,1090,1094,1094,1090,1090,1090,1090,1090,1090,1090,1094,1094,1097,1101,1101,1101,1101,1097,1097,1097,1094,1094,1094,1094,1094,1094,1094,1094,1094,1094,1094,1094,1094,1094,1094,1094,1094,1094,1094,1094,1094,1094,1094,1094,1094,1094,1094,1094,1094,1094,1094,1090,1090,1090,1090,1090,1090,1090,1090,1090,1090,1090,1090,1084,1084,1084,1084,1084,1087,1087,1090,1090,1090,1090,1090,1090,1090,1087,1087,1087,1084,1084,1084,1084,1084,1084,1084,1084,1087,1087,1084,1084,1084,1084,1080,1080,1084,1084,1084,1084,1087,1084,1080,1080,1080,1077,1077,1077,1077,1077,1080,1080,1077,1077,1077,1077,1077,1073,1073,1073,1073,1073,1073,1077,1077,1077,1077,1077,1077,1077,1077,1077,1077,1077,1077,1077,1077,1077,1073,1073,1073,1077,1077,1077,1073,1073,1073,1077,1070,1070,1067,1067,1067,1070,1070,1070,1070,1073,1073,1073,1067,1067,1067,1067,1067,1067,1067,1067,1067,1063,1063,1063,1063,1067,1067,1067,1067,1067,1067,1067,1067,1067,1067,1067,1067,964,964,964,964,964,962,962,959,956,956,956,956,956,956,956,956,959,887,887,891,894,894,894,894,894,894,894,894,894,894,894,894,894,894,894,896,896,896,896,898,898,898,898,898,901,901,901,908,923,923,925,928,928,928,928,930,930,928,928,928,928,925,925,925,923,923,920,918,915,915,913,913,910,908,906,906,906,906,903,901,898,898,896,894,891,891,891,891,891,889,889,887,885,878,873,873,871,869,869,864,864,862,860,860,858,856,856,851,849,847,845,845,0,0,0,0,0,0,0,0,0,0,0,0,0,0,0,0,0,0,0,0,0,0,0,0,0,0,0,0,0,0,0,0,0,0,0,0,0
0,0,0,0,0,0,0,0,0,0,0,0,0,946,946,946,946,943,940,940,938,938,940,940,940,940,940,943,943,946,946,948,951,951,951,951,951,954,956,964,964,970,1123,1123,1130,1126,1126,1126,1130,1130,1130,1130,1130,1130,1130,1130,1130,1126,1126,1126,1126,1126,1123,1123,1123,1123,1123,1123,1126,1126,1123,1123,1123,1123,1126,1123,1123,1123,1123,1123,1123,1123,1123,1123,1123,1123,1123,1123,1126,1126,1123,1123,1123,1123,1119,1119,1119,1119,1119,1119,1119,1119,1123,1126,1126,1126,1126,1130,0,0,0,0,0,0,0,0,0,686,684,684,684,684,683,682,680,678,675,671,671,671,671,671,671,671,672,672,674,676,678,678,679,680,683,686,686,686,687,687,688,691,693,694,696,696,0,0,0,0,0,0,0,1105,1105,1105,1108,1108,1112,1112,1112,1112,1112,1112,1112,1112,1112,1112,1112,1112,1115,1115,1115,1115,1115,1115,1115,1112,1112,1112,1112,1108,1108,1112,1108,1108,1108,1112,1112,1108,1108,1108,1108,1108,1108,1108,1105,1101,946,946,946,940,940,938,938,935,933,933,933,930,930,925,925,925,923,920,920,918,915,913,913,913,913,910,910,910,908,908,906,906,906,906,903,903,903,903,903,901,901,901,901,901,903,903,906,906,906,910,910,913,915,915,920,923,925,928,928,928,928,930,933,1097,1097,1094,1094,1097,1101,1101,1101,1101,1101,1097,1097,1097,1097,1097,1097,1097,1097,1097,1094,1094,1094,1090,1090,1090,1090,1090,1094,1094,1094,1090,1090,1090,1090,1090,1090,1090,1090,1094,1090,1090,1090,1090,1090,1090,1090,1090,1094,1094,1094,1094,1094,1094,1097,1097,1094,1094,1094,1094,1094,1094,1094,1094,1094,1094,1094,1094,1094,1090,1090,1094,1090,1090,1090,1090,1090,1090,1090,1090,1090,1090,1090,1090,1090,1090,1090,1090,1090,1090,1090,1090,1090,1090,1090,1090,1090,1090,1087,1087,1084,1084,1084,1080,1080,1084,1084,1084,1084,1084,1084,1087,1090,1090,1087,1087,1087,1084,1080,1080,1080,1080,1080,1084,1084,1084,1084,1084,1084,1080,1080,1080,1080,1080,1080,1080,1080,1080,1084,1084,1080,1080,1080,1077,1077,1077,1077,1077,1077,1077,1077,1077,1077,1077,1073,1070,1070,1070,1073,1070,1070,1073,1073,1073,1073,1077,1077,1077,1077,1077,1077,1073,1073,1073,1073,1073,1070,1067,1067,1070,1070,1070,1070,1070,1070,1070,1067,1067,1067,1063,1063,1067,1067,1067,1067,1070,1067,1067,1067,1067,1067,1067,1067,1067,1067,1067,1063,1063,1063,1063,1063,1063,1063,1063,1063,1063,1063,1063,1063,1067,1067,1063,1063,964,964,964,964,964,962,962,959,959,956,956,956,956,956,956,959,959,889,889,889,891,891,894,891,891,894,894,894,894,894,894,894,894,894,894,894,896,896,896,898,898,898,898,901,901,901,901,906,923,923,923,928,930,930,930,930,930,930,928,928,928,925,925,923,923,920,920,918,915,913,910,910,910,906,906,906,906,906,903,901,898,898,896,894,891,889,889,889,891,889,887,885,885,878,873,871,871,869,869,864,864,862,860,860,858,856,854,851,849,847,845,845,0,0,0,0,0,0,0,0,0,0,0,0,0,0,0,0,0,0,0,0,0,0,0,0,0,0,0,0,0,0,0,0,0,0,0,0,0
0,0,0,0,0,0,0,0,0,0,0,0,0,946,946,946,946,943,940,940,938,938,940,940,940,940,940,943,943,946,946,948,951,951,951,951,951,954,956,959,964,1123,1123,1123,1123,1123,1126,1126,1130,1130,1130,1130,1130,1126,1126,1126,1126,1123,1123,1123,1123,1123,1123,1119,1119,1123,1119,1119,1119,1123,1119,1119,1119,1123,1123,1123,1119,1119,1119,1119,1119,1119,1119,1119,1119,1119,1119,1119,1123,1123,1123,1123,1123,1119,1115,1115,1115,1115,1115,1115,1115,1115,1119,1119,1119,1119,1119,1130,0,0,0,0,0,0,0,0,0,686,686,684,684,684,683,683,682,680,678,674,672,672,671,671,671,671,672,672,674,676,678,678,680,680,684,686,686,687,687,688,688,691,694,694,696,696,697,0,0,0,0,0,0,1105,1101,1101,1105,1108,1108,1108,1108,1108,1108,1108,1108,1108,1108,1108,1108,1108,1108,1108,1108,1108,1112,1108,1108,1108,1108,1108,1108,1108,1108,1108,1105,1105,1105,1105,1105,1105,1105,1108,1108,1108,1105,1105,1105,1101,1101,1097,1094,940,940,938,938,935,933,933,933,930,930,928,925,925,923,920,918,918,915,913,913,913,910,910,908,908,906,906,906,903,903,901,901,901,901,901,901,901,901,901,901,901,901,903,903,906,906,910,910,913,915,915,920,923,925,928,928,928,928,930,1094,1094,1094,1094,1094,1094,1094,1097,1097,1097,1097,1097,1097,1097,1097,1097,1097,1094,1094,1094,1090,1090,1090,1090,1090,1090,1090,1090,1090,1090,1090,1090,1090,1090,1090,1090,1090,1087,1087,1090,1090,1090,1090,1090,1090,1090,1090,1090,1090,1094,1090,1090,1090,1090,1094,1090,1090,1090,1090,1090,1090,1090,1090,1090,1090,1090,1090,1090,1090,1090,1090,1090,1090,1090,1087,1087,1087,1087,1087,1090,1090,1090,1090,1090,1087,1087,1090,1090,1090,1087,1087,1087,1087,1087,1087,1087,1087,1084,1084,1084,1080,1080,1080,1080,1080,1080,1080,1080,1080,1080,1080,1084,1084,1084,1087,1084,1084,1080,1080,1080,1080,1080,1080,1080,1080,1080,1080,1080,1080,1080,1080,1077,1077,1077,1077,1077,1077,1077,1077,1077,1077,1077,1077,1077,1077,1073,1073,1077,1077,1077,1077,1073,1073,1073,1067,1067,1067,1067,1070,1070,1070,1070,1070,1070,1070,1070,1070,1070,1073,1073,1073,1073,1070,1070,1070,1070,1070,1067,1067,1067,1067,1067,1067,1067,1063,1063,1067,1063,1063,1063,1063,1063,1067,1067,1067,1063,1063,1063,1063,1063,1063,1063,1063,1063,1063,1063,1063,1060,1060,1060,1057,1057,1057,1057,1057,1060,1060,1060,1063,1063,1063,1063,970,967,967,967,967,967,967,962,962,1044,956,956,956,956,956,956,959,959,959,889,889,891,891,894,891,891,894,894,891,891,891,891,891,891,891,894,894,894,896,896,896,896,898,898,898,901,901,901,903,906,908,923,930,930,930,930,930,930,930,928,928,928,925,925,923,920,920,918,918,913,910,908,908,908,906,906,903,903,906,903,901,898,898,896,891,889,889,889,889,889,887,887,880,875,875,871,871,871,869,867,864,864,862,860,858,856,854,854,849,847,847,845,845,0,0,0,0,0,0,0,0,0,0,0,0,0,0,0,0,0,0,0,0,0,0,0,0,0,0,0,0,0,0,0,0,0,0,0,0,0
0,0,0,0,0,0,0,0,0,0,0,0,0,0,946,943,943,943,940,940,938,938,938,940,940,940,940,943,946,946,946,948,951,951,951,951,954,956,956,959,959,1123,1123,1123,1123,1123,1126,1126,1130,1130,1130,1130,1126,1126,1126,1123,1123,1123,1119,1119,1119,1119,1119,1119,1119,1119,1119,1119,1119,1119,1119,1119,1119,1119,1119,1119,1119,1119,1119,1119,1119,1119,1119,1119,1119,1119,1119,1119,1119,1119,1119,1119,1119,1119,1115,1115,1115,1115,1115,1112,1112,1112,1115,1115,1112,1112,1115,0,0,0,0,0,0,0,0,0,0,686,686,686,686,684,684,683,682,682,679,676,674,672,671,671,672,672,672,674,674,678,678,679,680,680,684,686,686,687,687,688,688,691,694,694,696,697,697,0,0,0,0,0,0,0,1101,1101,1105,1105,1108,1108,1108,1105,1105,1105,1105,1105,1105,1105,1105,1105,1105,1105,1105,1105,1105,1105,1105,1105,1108,1105,1105,1105,1105,1105,1105,1105,1105,1105,1105,1105,1101,1101,1101,1105,1105,1105,1105,1101,1097,1097,1094,1094,1097,1097,938,935,933,930,930,928,928,928,925,925,923,920,918,918,915,913,913,913,910,910,908,908,906,903,903,901,898,898,896,896,896,896,896,898,898,898,901,901,901,903,903,906,906,910,913,913,915,915,918,923,925,928,930,928,928,1090,1090,1090,1090,1090,1090,1090,1090,1094,1094,1094,1094,1094,1094,1094,1094,1094,1094,1094,1094,1090,1090,1090,1090,1087,1087,1090,1090,1090,1090,1090,1090,1087,1087,1087,1087,1087,1087,1087,1087,1090,1090,1087,1087,1087,1090,1090,1090,1087,1087,1090,1087,1087,1087,1087,1090,1087,1087,1087,1084,1084,1090,1087,1087,1087,1087,1087,1087,1090,1087,1087,1087,1087,1087,1087,1084,1084,1084,1084,1084,1087,1087,1087,1087,1084,1084,1087,1087,1087,1084,1084,1084,1084,1084,1080,1080,1084,1080,1080,1080,1080,1080,1080,1080,1080,1080,1080,1080,1080,1080,1077,1077,1080,1080,1080,1080,1080,1080,1080,1080,1080,1080,1080,1080,1080,1080,1080,1080,1080,1080,1077,1077,1077,1073,1073,1073,1073,1073,1073,1077,1077,1073,1073,1073,1073,1073,1073,1073,1073,1073,1073,1073,1070,1070,1070,1067,1067,1067,1067,1067,1067,1067,1067,1067,1067,1067,1067,1067,1067,1067,1067,1070,1070,1067,1067,1067,1067,1067,1067,1067,1067,1067,1067,1067,1067,1063,1063,1063,1063,1063,1060,1060,1060,1063,1060,1060,1060,1060,1060,1060,1060,1060,1060,1060,1060,1057,1057,1057,1057,1057,1057,1057,1057,1057,1057,1057,1057,1054,1054,1057,1057,1057,1057,970,967,967,967,967,967,967,967,967,1041,962,959,959,956,956,956,959,959,959,889,889,889,891,894,891,891,891,891,891,891,891,891,891,891,891,894,894,894,894,896,896,896,896,898,898,901,901,901,903,906,908,930,930,930,930,930,933,930,930,928,928,928,925,925,923,920,920,918,918,913,910,908,908,908,906,906,903,903,903,901,898,898,896,891,889,887,887,887,887,887,887,880,878,873,873,871,871,871,869,867,864,862,862,860,858,854,854,851,849,847,845,843,843,0,0,0,0,0,0,0,0,0,0,0,0,0,0,0,0,0,0,0,0,0,0,0,0,0,0,0,0,0,0,0,0,0,0,0,0,0
0,0,0,0,0,0,0,0,0,0,0,0,0,0,946,943,943,940,938,938,938,938,938,938,940,940,940,946,946,946,946,948,948,951,954,954,956,959,959,959,959,1123,1123,1123,1119,1119,1119,1123,1123,1123,1126,1126,1126,1123,1123,1123,1119,1119,1119,1119,1119,1115,1115,1115,1115,1115,1119,1115,1115,1115,1115,1115,1115,1115,1115,1115,1115,1115,1115,1115,1115,1115,1115,1115,1115,1115,1115,1115,1115,1115,1115,1115,1119,1115,1115,1115,1115,1115,1112,1108,1108,1108,1112,1112,1112,1112,1112,0,0,0,0,0,0,0,0,0,0,686,686,686,686,686,686,684,683,682,679,676,675,674,672,672,672,672,672,674,676,678,678,679,680,682,684,686,686,687,687,688,688,691,694,694,696,697,697,0,0,0,0,0,0,0,1097,1097,1097,1101,1105,1105,1105,1105,1105,1105,1105,1105,1105,1105,1105,1105,1101,1101,1101,1101,1101,1101,1101,1105,1105,1105,1101,1101,1105,1105,1105,1101,1101,1101,1101,1101,1101,1101,1101,1101,1097,1097,1097,1097,1097,1097,1094,1094,1097,1094,1094,1097,933,928,928,925,925,925,925,925,923,923,920,918,915,915,913,913,910,910,908,906,903,903,901,896,896,896,894,894,894,894,894,896,896,896,898,898,898,901,903,906,908,910,913,915,915,915,918,923,925,928,930,930,1087,1087,1087,1087,1090,1090,1090,1087,1087,1090,1090,1087,1087,1087,1087,1090,1090,1090,1090,1090,1090,1087,1087,1087,1087,1087,1087,1087,1087,1087,1087,1087,1087,1087,1087,1087,1087,1087,1084,1084,1084,1087,1087,1084,1084,1087,1087,1087,1084,1084,1087,1087,1087,1087,1084,1084,1087,1087,1084,1084,1084,1084,1080,1080,1080,1080,1084,1084,1084,1084,1084,1084,1084,1080,1080,1080,1080,1080,1080,1080,1080,1084,1084,1084,1084,1080,1080,1080,1080,1080,1080,1080,1080,1080,1080,1077,1077,1077,1077,1077,1077,1077,1077,1077,1077,1077,1077,1077,1077,1077,1077,1077,1077,1077,1080,1080,1077,1077,1077,1080,1077,1077,1077,1077,1077,1077,1077,1077,1077,1077,1077,1077,1077,1077,1073,1073,1070,1070,1070,1070,1070,1070,1070,1070,1073,1073,1073,1070,1070,1070,1073,1073,1070,1067,1067,1067,1063,1063,1063,1063,1063,1063,1063,1063,1067,1063,1063,1067,1067,1067,1067,1067,1067,1067,1067,1067,1067,1067,1067,1067,1067,1067,1063,1063,1063,1063,1063,1060,1060,1060,1060,1060,1060,1060,1060,1057,1057,1057,1057,1057,1057,1057,1057,1057,1057,1057,1057,1057,1057,1054,1054,1057,1054,1054,1054,1054,1054,1054,1054,1054,1054,1054,967,967,970,967,967,967,970,970,967,967,967,1041,1041,1041,1041,1041,956,956,959,959,959,889,889,889,891,894,891,891,891,891,891,891,891,891,889,889,891,891,894,894,894,894,896,896,896,898,898,901,901,901,903,906,908,928,928,930,930,930,930,930,928,928,928,925,925,923,923,920,920,918,915,913,908,908,908,906,906,903,903,901,901,901,898,896,891,889,889,887,887,887,887,887,885,880,875,873,873,871,871,871,869,864,864,862,862,858,856,854,851,851,847,847,845,843,843,0,0,0,0,0,0,0,0,0,0,0,0,0,0,0,0,0,0,0,0,0,0,0,0,0,0,0,0,0,0,0,0,0,0,0,0,0
0,0,0,0,0,0,0,0,0,0,0,0,0,0,0,946,943,940,935,935,938,938,938,938,940,940,940,946,946,946,946,948,948,948,951,954,956,956,959,959,959,1123,1123,1119,1119,1115,1115,1119,1119,1115,1115,1115,1119,1119,1123,1119,1119,1119,1115,1115,1115,1115,1112,1112,1115,1115,1115,1115,1115,1115,1115,1115,1115,1115,1115,1115,1115,1115,1115,1112,1112,1115,1115,1115,1112,1112,1112,1112,1112,1108,1108,1112,1112,1112,1112,1112,1112,1112,1108,1108,1108,1108,1112,1108,1108,1108,1108,1108,0,0,0,0,0,0,0,0,0,686,686,686,686,686,686,686,684,682,679,676,675,674,674,674,674,674,674,674,676,678,679,680,680,683,684,686,686,687,688,688,690,691,694,694,696,697,697,0,0,0,0,0,0,0,1094,1094,1097,1101,1101,1101,1101,1101,1101,1105,1105,1101,1101,1101,1101,1101,1101,1097,1097,1101,1101,1101,1101,1101,1101,1101,1101,1101,1101,1101,1101,1101,1101,1101,1101,1101,1101,1097,1097,1101,1097,1094,1094,1094,1094,1094,1094,1094,1097,1094,1094,1094,1094,923,923,923,923,925,925,923,923,920,920,920,918,915,915,913,913,910,908,906,901,901,894,891,891,891,891,891,891,891,891,894,894,894,896,896,898,901,903,906,908,913,913,915,915,915,920,923,925,935,935,1084,1084,1087,1087,1087,1087,1087,1087,1087,1087,1087,1084,1084,1084,1084,1084,1087,1087,1087,1087,1087,1087,1084,1084,1087,1087,1087,1087,1087,1087,1087,1084,1084,1084,1084,1084,1084,1084,1084,1080,1080,1080,1084,1084,1080,1080,1080,1080,1080,1080,1080,1080,1080,1080,1080,1080,1080,1084,1084,1080,1080,1080,1080,1080,1077,1077,1077,1080,1080,1080,1080,1080,1080,1080,1080,1080,1080,1080,1077,1077,1080,1080,1080,1080,1080,1080,1077,1077,1077,1077,1077,1077,1077,1077,1077,1080,1077,1077,1077,1077,1073,1073,1077,1077,1077,1077,1077,1077,1077,1077,1077,1077,1073,1073,1073,1077,1077,1077,1077,1077,1077,1077,1077,1077,1077,1073,1073,1073,1073,1073,1073,1073,1073,1073,1073,1070,1070,1067,1067,1067,1067,1067,1067,1067,1067,1070,1070,1070,1070,1070,1070,1070,1067,1067,1063,1063,1063,1063,1063,1063,1063,1063,1063,1063,1063,1063,1063,1063,1063,1063,1063,1063,1063,1063,1060,1060,1060,1063,1063,1063,1063,1063,1063,1063,1063,1063,1063,1057,1057,1057,1060,1057,1057,1057,1057,1057,1057,1057,1054,1054,1054,1054,1054,1054,1054,1054,1054,1054,1054,1054,1054,1054,1054,1054,1054,1054,1054,1054,1054,1050,1050,1050,970,967,967,967,967,967,967,970,970,970,970,1041,1041,1041,1041,1041,1041,1041,1041,1041,1041,1041,889,889,889,891,891,891,891,891,891,891,891,891,891,889,889,891,891,891,894,894,894,896,896,896,898,898,901,901,903,903,906,908,910,925,930,930,930,930,930,928,928,928,925,925,923,923,920,920,918,915,913,908,908,906,906,906,903,901,901,901,898,896,891,889,889,889,887,887,887,887,887,882,880,875,873,873,871,869,869,869,864,860,860,860,858,854,851,851,849,847,845,845,843,843,0,0,0,0,0,0,0,0,0,0,0,0,0,0,0,0,0,0,0,0,0,0,0,0,0,0,0,0,0,0,0,0,0,0,0,0,0
0,0,0,0,0,0,0,0,0,0,0,0,0,0,0,946,940,938,935,935,935,935,938,938,938,940,943,946,946,946,948,948,948,948,951,954,956,956,956,956,956,1119,1119,1115,1115,1115,1115,1115,1115,1115,1115,1115,1119,1119,1115,1115,1115,1115,1115,1115,1112,1112,1108,1108,1112,1112,1115,1115,1115,1115,1115,1115,1112,1112,1112,1112,1112,1112,1112,1112,1112,1112,1112,1112,1108,1108,1108,1108,1105,1105,1105,1105,1105,1105,1105,1112,1112,1108,1105,1105,1105,1108,1108,1105,1105,1105,1101,1101,0,0,0,0,0,0,0,0,0,0,686,686,686,686,686,686,684,683,682,678,676,675,674,674,675,674,674,674,676,678,679,680,680,683,684,686,687,687,688,688,691,693,694,694,696,697,697,698,0,0,0,0,0,0,1094,1094,1097,1097,1101,1101,1101,1101,1101,1101,1101,1101,1101,1101,1101,1097,1097,1097,1097,1097,1094,1094,1097,1097,1101,1101,1097,1097,1097,1097,1097,1097,1097,1097,1097,1097,1097,1097,1097,1097,1094,1094,1094,1094,1094,1094,1094,1094,1094,1094,1094,1094,1090,923,923,923,923,923,923,923,923,920,920,920,918,915,915,913,913,910,908,903,889,889,889,889,889,889,889,889,889,889,891,891,891,891,894,896,896,901,906,908,910,913,915,915,915,915,918,923,933,935,1084,1084,1084,1087,1087,1087,1087,1087,1084,1084,1084,1084,1084,1080,1080,1080,1084,1084,1084,1080,1080,1080,1084,1080,1080,1080,1084,1084,1084,1084,1084,1080,1080,1080,1080,1080,1080,1080,1080,1080,1080,1077,1077,1080,1080,1080,1080,1077,1077,1077,1077,1077,1077,1077,1077,1077,1080,1080,1080,1080,1080,1080,1080,1077,1077,1077,1077,1077,1077,1077,1077,1077,1080,1080,1080,1077,1077,1077,1077,1077,1077,1077,1077,1077,1080,1077,1077,1077,1073,1073,1073,1070,1070,1073,1073,1077,1077,1077,1077,1077,1073,1073,1073,1073,1073,1073,1073,1073,1073,1073,1073,1073,1073,1073,1073,1070,1070,1073,1070,1067,1067,1067,1067,1073,1070,1067,1067,1067,1073,1073,1070,1070,1070,1070,1070,1070,1070,1067,1067,1067,1067,1067,1063,1063,1063,1063,1067,1067,1067,1067,1067,1067,1067,1063,1063,1063,1063,1063,1063,1063,1063,1063,1063,1063,1063,1063,1063,1060,1060,1063,1060,1060,1063,1060,1060,1057,1057,1057,1057,1057,1057,1060,1063,1063,1060,1057,1057,1057,1054,1054,1057,1057,1057,1057,1057,1057,1057,1054,1054,1054,1054,1054,1054,1054,1050,1050,1050,1050,1050,1050,1054,1050,1050,1050,1050,1050,1050,1050,1050,1050,1050,1050,1047,970,967,967,967,967,967,967,970,970,970,970,1041,1041,1041,1041,1041,1041,1041,1041,1041,1041,1041,889,889,889,891,891,891,891,891,891,891,891,891,891,889,889,891,891,891,891,894,894,896,896,896,898,898,901,901,903,903,906,906,910,925,930,930,930,930,928,928,928,925,925,923,923,920,920,918,918,913,910,908,908,906,906,906,903,901,901,901,898,891,891,889,889,889,887,887,887,887,887,882,880,873,871,871,869,869,869,862,862,860,860,858,856,851,849,849,847,845,845,845,843,843,0,0,0,0,0,0,0,0,0,0,0,0,0,0,0,0,0,0,0,0,0,0,0,0,0,0,0,0,0,0,0,0,0,0,0,0,0
0,0,0,0,0,0,0,0,0,0,0,0,0,0,0,0,940,935,935,935,935,935,935,938,938,940,943,946,946,946,948,951,951,951,954,956,956,956,956,956,956,956,1119,1112,1112,1112,1112,1115,1112,1112,1112,1112,1112,1115,1115,1115,1115,1115,1112,1112,1108,1108,1108,1108,1108,1108,1115,1115,1115,1112,1112,1112,1108,1108,1105,1105,1108,1108,1108,1108,1108,1108,1108,1108,1108,1105,1105,1105,1105,1105,1105,1105,1105,1105,1105,1108,1108,1105,1105,1105,1105,1105,1105,1105,1105,1101,1101,1101,0,0,0,0,0,0,0,0,0,0,0,686,686,687,687,686,684,683,682,679,678,676,675,675,675,674,674,675,678,678,679,680,683,684,686,686,687,687,688,690,691,693,694,696,697,697,697,697,0,0,0,0,0,0,0,1094,1094,1097,1097,1097,1097,1097,1097,1101,1097,1097,1101,1097,1097,1097,1094,1094,1094,1094,1090,1090,1094,1094,1094,1094,1097,1097,1097,1094,1094,1097,1097,1097,1094,1094,1094,1094,1094,1094,1090,1090,1090,1090,1090,1090,1090,1090,1090,1090,1090,1090,1090,1087,1087,1087,1087,923,923,923,923,920,920,918,918,915,915,913,910,906,903,901,885,885,887,887,887,887,887,887,887,889,889,887,887,889,891,891,894,896,906,910,910,913,915,915,915,915,918,923,933,1080,1080,1080,1084,1084,1084,1084,1084,1084,1084,1080,1080,1080,1077,1077,1080,1080,1080,1080,1080,1080,1080,1080,1077,1077,1077,1080,1080,1080,1080,1080,1080,1080,1077,1077,1080,1077,1077,1077,1077,1080,1077,1077,1077,1077,1077,1077,1077,1077,1077,1077,1077,1077,1077,1073,1073,1073,1077,1077,1077,1077,1077,1077,1077,1073,1073,1073,1073,1073,1073,1073,1073,1073,1073,1073,1077,1077,1077,1077,1077,1077,1077,1077,1077,1077,1077,1073,1073,1073,1070,1070,1070,1070,1070,1070,1073,1073,1073,1073,1073,1077,1073,1073,1073,1073,1073,1073,1073,1073,1070,1070,1070,1070,1070,1070,1067,1067,1067,1067,1067,1063,1063,1063,1063,1067,1063,1063,1063,1063,1067,1067,1070,1067,1067,1067,1067,1067,1067,1063,1063,1063,1063,1063,1063,1063,1063,1063,1063,1063,1063,1063,1063,1063,1063,1060,1060,1057,1057,1057,1057,1057,1060,1060,1060,1060,1060,1060,1060,1060,1060,1060,1060,1060,1060,1057,1057,1057,1057,1057,1054,1054,1054,1054,1054,1057,1057,1057,1054,1054,1054,1054,1054,1054,1054,1054,1054,1054,1054,1054,1054,1050,1050,1050,1050,1050,1050,1050,1047,1047,1047,1050,1050,1050,1050,1050,1050,1050,1050,1050,1050,1050,1047,1047,1044,967,967,967,967,967,967,970,970,973,970,970,1041,1041,1041,1041,1041,1041,1041,1041,1041,1041,1041,891,891,891,891,891,891,891,891,891,891,891,891,891,891,891,891,891,891,891,891,894,896,896,896,898,898,898,898,901,903,906,906,923,925,928,928,928,928,928,925,925,925,925,923,920,920,918,918,915,913,908,908,906,906,903,903,903,901,898,898,898,891,889,889,889,889,887,887,885,885,885,882,878,873,871,869,869,867,864,862,860,858,858,856,856,851,849,849,847,845,845,845,843,843,0,0,0,0,0,0,0,0,0,0,0,0,0,0,0,0,0,0,0,0,0,0,0,0,0,0,0,0,0,0,0,0,0,0,0,0,0
0,0,0,0,0,0,0,0,0,0,0,0,0,0,0,0,0,935,935,935,935,935,935,938,940,943,943,946,946,948,951,951,951,951,954,956,956,956,959,956,956,956,1108,1108,1108,1112,1112,1112,1112,1112,1112,1112,1112,1112,1112,1112,1112,1112,1112,1108,1105,1105,1101,1101,1105,1108,1112,1112,1112,1112,1112,1108,1108,1105,1105,1105,1105,1105,1105,1105,1105,1105,1108,1105,1105,1101,1101,1105,1101,1101,1101,1101,1101,1101,1105,1105,1105,1105,1105,1105,1105,1101,1101,1101,1101,1097,1094,1094,1097,0,0,0,0,0,0,0,0,0,0,0,688,688,687,687,686,683,682,680,678,676,676,675,675,674,674,675,678,678,679,682,683,684,686,686,687,688,688,690,691,693,696,696,697,697,697,697,698,0,0,0,0,0,0,1094,1094,1097,1097,1094,1094,1094,1094,1097,1094,1094,1097,1097,1097,1094,1094,1090,1090,1090,1090,1090,1090,1090,1090,1094,1094,1094,1094,1094,1094,1094,1094,1094,1094,1094,1094,1090,1090,1090,1090,1090,1090,1090,1090,1090,1090,1090,1090,1087,1087,1090,1087,1087,1087,1087,1084,1080,1080,923,923,920,920,918,918,915,913,913,910,906,903,885,885,885,885,885,887,887,887,887,887,887,887,887,887,889,889,891,894,896,906,910,913,913,915,915,915,915,918,1077,1077,1077,1077,1080,1080,1080,1080,1080,1084,1084,1080,1080,1077,1077,1077,1077,1077,1077,1077,1077,1077,1077,1077,1077,1077,1077,1077,1077,1077,1077,1077,1077,1077,1073,1073,1073,1073,1077,1073,1073,1077,1077,1077,1077,1077,1077,1077,1077,1077,1073,1073,1077,1073,1073,1073,1073,1073,1073,1073,1073,1073,1073,1073,1073,1073,1073,1073,1073,1073,1073,1073,1073,1073,1073,1073,1073,1073,1070,1070,1073,1073,1073,1073,1077,1073,1073,1073,1070,1070,1070,1070,1070,1067,1067,1070,1070,1070,1070,1070,1070,1070,1073,1067,1067,1067,1067,1070,1070,1070,1070,1067,1067,1067,1067,1067,1067,1067,1063,1063,1063,1063,1063,1063,1060,1060,1063,1060,1060,1060,1060,1063,1063,1067,1063,1063,1067,1063,1063,1063,1063,1063,1063,1063,1063,1063,1063,1063,1063,1060,1060,1063,1060,1060,1060,1060,1060,1057,1057,1057,1057,1057,1057,1057,1057,1057,1057,1057,1057,1060,1057,1057,1060,1057,1054,1054,1054,1054,1054,1054,1054,1054,1054,1050,1050,1050,1050,1054,1054,1054,1054,1054,1054,1054,1054,1050,1050,1050,1050,1050,1050,1050,1050,1050,1050,1050,1047,1047,1047,1047,1044,1044,1047,1047,1047,1047,1047,1050,1050,1050,1050,1050,1050,1044,1041,1041,967,964,964,967,970,970,970,970,970,970,970,1041,1038,1038,1041,1041,1041,1041,1041,1041,1041,1041,1041,891,891,891,891,891,891,891,891,891,891,891,891,891,891,891,891,891,891,891,894,896,896,896,898,898,898,898,901,901,906,908,923,925,928,928,928,928,925,925,925,923,923,923,920,918,918,918,915,913,908,908,906,906,903,903,903,901,896,896,891,891,889,889,887,887,885,885,882,882,882,880,875,873,871,869,869,867,864,862,860,858,858,856,854,851,851,849,849,845,845,843,843,843,0,0,0,0,0,0,0,0,0,0,0,0,0,0,0,0,0,0,0,0,0,0,0,0,0,0,0,0,0,0,0,0,0,0,0,0,0
0,0,0,0,0,0,0,0,0,0,0,0,0,0,0,0,0,930,930,933,935,935,938,938,940,943,946,946,946,948,951,951,954,954,956,959,959,959,959,959,956,956,1105,1105,1105,1105,1112,1108,1108,1108,1108,1108,1108,1108,1108,1108,1108,1108,1108,1105,1105,1105,1101,1101,1101,1101,1101,1101,1101,1105,1105,1105,1105,1101,1101,1101,1105,1101,1101,1101,1101,1105,1105,1105,1101,1101,1101,1101,1101,1101,1101,1101,1101,1101,1105,1105,1105,1105,1105,1101,1101,1101,1101,1097,1097,1094,1094,1094,1094,0,0,0,0,0,0,0,0,0,0,0,690,690,688,688,686,683,682,680,678,676,676,676,676,675,675,676,678,678,679,680,683,684,686,686,687,687,688,690,691,694,696,696,697,697,697,698,698,0,0,0,0,0,0,0,1094,1094,1094,1094,1090,1090,1090,1094,1094,1094,1094,1094,1094,1094,1090,1090,1090,1090,1090,1090,1090,1090,1090,1090,1090,1090,1090,1090,1090,1090,1087,1087,1087,1087,1087,1090,1090,1087,1087,1087,1087,1087,1087,1087,1087,1087,1087,1084,1084,1087,1084,1084,1084,1084,1080,1080,1077,1077,1077,1077,920,920,918,915,913,913,910,910,882,882,882,882,882,885,885,885,885,885,885,887,887,887,887,889,889,891,894,896,910,910,913,913,915,913,913,915,1077,1077,1077,1077,1077,1077,1077,1077,1077,1080,1080,1077,1077,1077,1077,1077,1077,1073,1073,1077,1073,1073,1073,1073,1073,1073,1073,1073,1073,1073,1073,1073,1073,1073,1073,1073,1073,1073,1073,1073,1073,1073,1073,1073,1073,1073,1073,1073,1073,1073,1073,1070,1070,1070,1070,1070,1070,1070,1070,1070,1070,1070,1070,1070,1070,1070,1070,1070,1070,1070,1070,1070,1070,1070,1070,1070,1070,1070,1070,1067,1067,1067,1067,1067,1070,1070,1070,1070,1070,1067,1067,1067,1067,1067,1067,1067,1067,1067,1067,1067,1070,1070,1070,1073,1067,1067,1067,1067,1067,1067,1067,1067,1067,1067,1067,1067,1067,1063,1063,1063,1063,1063,1063,1060,1060,1057,1057,1057,1057,1057,1057,1060,1060,1060,1063,1063,1063,1063,1063,1063,1060,1060,1060,1060,1060,1060,1060,1060,1060,1060,1057,1057,1057,1057,1057,1057,1054,1054,1054,1054,1054,1054,1054,1054,1054,1054,1054,1054,1054,1054,1054,1054,1054,1054,1054,1054,1054,1054,1054,1054,1050,1050,1050,1050,1050,1050,1047,1047,1050,1050,1047,1047,1050,1050,1050,1050,1047,1047,1050,1050,1047,1047,1047,1047,1047,1047,1047,1047,1044,1044,1044,1044,1044,1044,1044,1041,1041,1044,1044,1044,1044,1047,1044,1044,1041,1041,1041,967,964,964,967,970,970,970,970,970,970,970,1038,1038,1038,1041,1041,1041,1041,1041,1038,1038,1038,1038,891,891,891,891,891,891,891,891,891,891,891,894,891,891,891,891,891,891,891,894,894,896,896,898,898,898,898,901,901,906,908,925,925,928,928,928,928,925,925,925,923,923,920,920,918,918,918,913,913,908,908,906,906,903,903,901,901,896,896,891,889,889,889,887,887,885,885,882,880,880,878,875,871,871,869,864,864,862,860,860,858,856,856,854,851,851,849,849,845,845,843,843,843,0,0,0,0,0,0,0,0,0,0,0,0,0,0,0,0,0,0,0,0,0,0,0,0,0,0,0,0,0,0,0,0,0,0,0,0,0
0,0,0,0,0,0,0,0,0,0,0,0,0,0,0,0,0,930,930,933,935,938,938,943,943,946,946,946,946,948,948,951,954,954,956,959,959,959,959,959,959,959,1101,1101,1101,1101,1105,1105,1105,1105,1105,1105,1105,1105,1105,1105,1105,1105,1105,1105,1101,1101,1097,1097,1097,1097,1097,1097,1097,1097,1097,1097,1097,1101,1101,1101,1101,1101,1101,1101,1101,1101,1101,1101,1101,1097,1097,1101,1097,1097,1097,1097,1101,1101,1101,1101,1101,1101,1101,1101,1101,1097,1097,1094,1094,1090,1090,1090,1090,0,0,0,0,0,0,0,0,0,0,0,0,691,690,688,687,684,682,680,679,678,676,676,676,676,676,678,679,679,679,680,682,684,686,686,687,687,688,690,691,694,696,697,697,697,697,698,698,0,0,0,0,0,0,0,1094,1094,1090,1090,1090,1090,1090,1090,1090,1090,1090,1090,1090,1090,1087,1087,1087,1087,1087,1087,1087,1087,1087,1090,1090,1087,1087,1087,1087,1087,1084,1084,1080,1080,1080,1084,1084,1084,1084,1084,1084,1084,1084,1084,1084,1080,1080,1080,1080,1084,1080,1080,1080,1080,1080,1080,1077,1077,1077,1077,1077,918,918,918,915,878,878,880,880,880,880,880,880,882,882,882,882,882,885,885,887,887,887,889,891,891,894,896,910,910,913,913,913,913,913,1077,1077,1077,1077,1077,1077,1077,1077,1077,1077,1077,1077,1077,1077,1073,1073,1073,1073,1073,1073,1073,1073,1073,1073,1073,1070,1070,1070,1070,1070,1070,1070,1070,1070,1070,1070,1070,1070,1070,1070,1073,1073,1073,1073,1073,1073,1073,1073,1073,1073,1073,1073,1070,1067,1067,1067,1067,1067,1067,1067,1067,1067,1067,1067,1067,1067,1067,1067,1067,1067,1067,1067,1067,1067,1067,1067,1067,1067,1067,1067,1067,1067,1067,1063,1063,1063,1063,1067,1067,1067,1067,1067,1067,1067,1067,1067,1067,1067,1067,1067,1067,1067,1067,1067,1067,1063,1063,1067,1067,1067,1067,1067,1067,1063,1063,1063,1063,1063,1063,1063,1063,1060,1060,1060,1060,1057,1057,1054,1054,1054,1054,1054,1057,1057,1060,1060,1060,1060,1060,1057,1057,1057,1057,1057,1057,1057,1057,1057,1057,1057,1057,1057,1057,1054,1054,1054,1054,1054,1054,1054,1054,1054,1054,1054,1054,1054,1054,1054,1054,1054,1050,1050,1050,1050,1050,1050,1050,1050,1050,1050,1050,1050,1050,1050,1050,1047,1047,1044,1044,1047,1047,1044,1044,1047,1047,1047,1047,1044,1044,1044,1044,1044,1044,1044,1044,1044,1044,1044,1044,1044,1044,1041,1041,1041,1041,1041,1041,1041,1041,1041,1041,1041,1041,1041,1041,1041,1038,1038,967,967,967,967,970,970,970,970,970,973,1038,1038,1038,1038,1038,1041,1041,1041,1041,1038,1038,1038,1038,891,891,891,891,891,891,891,891,891,891,894,894,891,891,891,891,891,891,891,894,894,896,896,898,898,898,898,901,901,906,925,925,925,928,928,925,925,925,923,923,923,920,920,918,918,918,915,913,910,908,908,908,906,903,903,901,898,896,896,891,889,889,887,887,887,885,885,882,880,880,878,875,871,871,869,864,864,862,860,860,858,856,856,854,851,851,849,849,845,845,843,843,0,0,0,0,0,0,0,0,0,0,0,0,0,0,0,0,0,0,0,0,0,0,0,0,0,0,0,0,0,0,0,0,0,0,0,0,0,0
0,0,0,0,0,0,0,0,0,0,0,0,0,0,0,0,0,0,935,935,938,940,940,943,943,946,946,946,948,948,948,951,954,954,956,956,959,959,959,959,959,959,1105,1101,1101,1101,1105,1105,1105,1101,1101,1101,1101,1105,1105,1105,1105,1101,1101,1101,1101,1101,1097,1097,1097,1097,1097,1094,1094,1094,1094,1094,1094,1094,1094,1094,1101,1101,1101,1097,1097,1101,1101,1097,1097,1097,1097,1097,1097,1097,1097,1097,1097,1097,1097,1097,1101,1101,1101,1097,1097,1097,1094,1090,1090,1090,1090,1090,1090,1090,0,0,0,0,0,0,0,0,0,0,0,691,690,688,687,684,683,682,680,679,678,678,676,676,678,678,678,678,679,680,682,684,686,687,687,688,688,690,693,696,696,697,697,697,697,698,698,700,0,0,0,0,0,0,1094,1090,1090,1090,1087,1087,1090,1090,1087,1087,1087,1087,1087,1087,1087,1087,1087,1084,1084,1087,1087,1087,1087,1087,1087,1087,1087,1084,1084,1084,1080,1080,1080,1077,1077,1080,1080,1080,1080,1084,1080,1080,1080,1080,1080,1077,1077,1077,1077,1080,1080,1080,1080,1080,1080,1080,1077,1077,1077,1077,1077,1077,878,878,878,878,878,878,880,878,878,878,878,880,882,882,880,880,885,885,885,887,887,889,891,891,894,896,913,913,915,915,913,913,1073,1073,1073,1073,1073,1073,1073,1073,1073,1073,1073,1073,1073,1073,1073,1073,1073,1073,1073,1073,1073,1073,1070,1070,1070,1070,1067,1067,1067,1067,1067,1067,1067,1067,1067,1067,1067,1067,1067,1067,1067,1070,1073,1073,1070,1070,1070,1070,1070,1070,1070,1070,1067,1067,1067,1067,1067,1067,1067,1067,1067,1067,1067,1067,1063,1063,1067,1067,1067,1067,1063,1063,1063,1063,1063,1067,1067,1067,1067,1067,1063,1063,1063,1063,1060,1060,1060,1060,1063,1063,1063,1063,1063,1063,1063,1063,1063,1063,1063,1063,1063,1063,1063,1063,1063,1063,1063,1063,1063,1063,1063,1063,1060,1060,1063,1063,1060,1060,1057,1057,1057,1057,1057,1057,1057,1057,1057,1054,1050,1050,1050,1054,1054,1054,1054,1057,1057,1057,1057,1057,1054,1054,1054,1054,1054,1054,1054,1054,1054,1054,1054,1054,1054,1054,1054,1050,1050,1050,1050,1050,1050,1050,1050,1050,1050,1050,1050,1050,1050,1050,1050,1047,1047,1044,1044,1047,1047,1047,1047,1050,1050,1050,1050,1047,1047,1047,1047,1044,1044,1044,1044,1044,1041,1041,1041,1041,1041,1044,1041,1041,1041,1041,1041,1041,1044,1044,1044,1041,1041,1041,1041,1041,1041,1041,1041,1041,1041,1041,1041,1041,1041,1041,1038,1038,1038,1038,1038,1038,967,967,967,967,967,970,970,970,970,970,1038,1038,1038,1038,1038,1038,1038,1038,1038,1041,1038,1038,1038,1038,1038,891,891,891,891,891,891,891,891,894,894,894,894,894,894,891,891,894,894,894,894,896,896,898,898,898,898,901,901,906,925,925,925,925,928,925,925,923,923,923,923,920,920,918,918,915,915,913,910,908,908,906,906,903,901,901,898,896,896,891,889,887,887,887,887,882,882,882,880,878,875,873,871,871,864,862,860,860,858,858,856,856,854,854,851,849,849,847,845,843,841,841,0,0,0,0,0,0,0,0,0,0,0,0,0,0,0,0,0,0,0,0,0,0,0,0,0,0,0,0,0,0,0,0,0,0,0,0,0,0
0,0,0,0,0,0,0,0,0,0,0,0,0,0,0,0,0,0,946,943,943,943,943,943,946,946,946,946,948,948,951,951,954,954,956,956,959,959,959,962,964,1105,1105,1101,1101,1101,1101,1101,1101,1101,1101,1101,1101,1101,1101,1101,1101,1097,1097,1101,1097,1097,1094,1094,1094,1094,1094,1094,1094,1090,1090,1094,1094,1094,1090,1090,1094,1090,1090,1094,1094,1097,1097,1094,1094,1094,1094,1094,1094,1094,1094,1094,1094,1094,1094,1094,1094,1097,1094,1094,1094,1094,1090,1090,1090,1090,1090,1090,1090,1090,1090,0,0,0,0,0,0,0,0,0,0,0,691,688,688,686,684,683,682,682,679,678,676,676,678,678,678,678,679,680,682,684,686,687,688,688,688,691,693,696,697,697,698,698,698,698,698,700,0,0,0,0,0,0,1084,1084,1087,1087,1087,1087,1087,1087,1087,1087,1087,1084,1080,1080,1080,1080,1080,1080,1080,1084,1084,1084,1084,1084,1084,1084,1084,1080,1080,1080,1080,1077,1077,1077,1077,1077,1077,1077,1080,1080,1077,1077,1077,1077,1077,1077,1077,1077,1077,1077,1077,1077,1077,1077,1077,1077,1077,1077,1077,1077,1077,1077,873,878,878,878,878,878,878,878,878,878,878,878,878,880,880,880,882,885,885,887,887,889,891,891,894,896,896,1084,1084,1077,1073,1070,1070,1070,1070,1070,1070,1073,1073,1073,1073,1073,1073,1070,1070,1070,1070,1070,1070,1070,1070,1070,1067,1067,1067,1067,1067,1067,1067,1063,1063,1063,1063,1063,1063,1063,1063,1063,1063,1063,1063,1063,1063,1067,1070,1067,1067,1067,1067,1067,1067,1067,1067,1067,1067,1067,1067,1067,1067,1067,1067,1067,1067,1067,1063,1063,1063,1063,1063,1063,1063,1063,1063,1060,1060,1063,1063,1063,1063,1063,1063,1063,1063,1060,1060,1060,1057,1057,1057,1057,1060,1060,1060,1060,1060,1063,1063,1063,1063,1063,1063,1063,1060,1060,1060,1060,1060,1060,1063,1063,1063,1060,1060,1060,1057,1057,1060,1060,1057,1057,1057,1057,1054,1054,1054,1054,1054,1054,1054,1054,1050,1050,1050,1050,1050,1054,1054,1054,1054,1054,1054,1054,1054,1054,1054,1050,1050,1050,1050,1050,1054,1054,1054,1054,1050,1050,1047,1047,1047,1047,1047,1047,1047,1050,1050,1050,1050,1050,1050,1050,1050,1047,1047,1044,1044,1044,1044,1044,1047,1047,1047,1050,1050,1050,1050,1047,1047,1047,1044,1044,1044,1044,1041,1041,1041,1041,1038,1038,1038,1038,1038,1038,1041,1041,1041,1041,1041,1041,1041,1041,1041,1041,1041,1038,1038,1038,1038,1038,1038,1038,1038,1041,1038,1038,1038,1034,1034,1034,1038,1038,967,967,967,967,967,970,970,970,970,970,1038,1038,1038,1038,1038,1038,1038,1038,1038,1038,1034,1034,1034,1038,1038,894,894,891,891,891,891,891,894,894,894,896,894,894,894,891,891,894,894,894,894,896,896,898,898,898,898,898,898,901,925,925,925,925,925,925,923,923,920,920,920,918,918,918,918,915,915,910,910,908,908,906,906,903,901,901,901,898,898,889,889,887,887,885,885,882,882,880,878,875,871,871,869,864,864,862,860,860,858,856,854,854,854,851,849,849,849,847,845,841,841,841,0,0,0,0,0,0,0,0,0,0,0,0,0,0,0,0,0,0,0,0,0,0,0,0,0,0,0,0,0,0,0,0,0,0,0,0,0,0
0,0,0,0,0,0,0,0,0,0,0,0,0,0,0,0,0,0,0,946,946,946,946,946,946,946,946,946,948,948,951,951,954,956,956,962,962,962,962,962,964,1105,1105,1105,1101,1101,1097,1097,1097,1097,1097,1097,1097,1097,1097,1094,1094,1094,1094,1094,1094,1094,1090,1090,1090,1090,1090,1090,1090,1090,1090,1090,1090,1090,1090,1090,1090,1090,1090,1090,1090,1090,1090,1094,1094,1094,1090,1090,1090,1090,1090,1090,1090,1090,1090,1090,1094,1094,1090,1090,1090,1090,1090,1087,1087,1087,1087,1087,1087,1087,1090,0,0,0,0,0,0,0,0,0,0,0,691,690,690,687,686,683,683,682,679,678,676,676,678,678,678,678,679,680,682,684,686,687,688,688,690,693,694,696,697,697,698,698,698,698,700,700,0,0,0,0,0,0,1080,1080,1084,1084,1084,1084,1084,1084,1084,1084,1084,1080,1080,1077,1077,1077,1080,1077,1077,1080,1080,1080,1080,1080,1080,1080,1080,1077,1077,1077,1077,1077,1077,1077,1077,1077,1077,1077,1077,1077,1077,1077,1073,1073,1073,1073,1073,1073,1073,1073,1073,1077,1077,1073,1073,1077,1077,1073,1073,1077,1077,873,873,873,875,875,875,875,875,875,875,875,875,875,878,878,878,878,882,885,885,887,887,891,891,891,894,896,896,1073,1073,1070,1067,1067,1067,1067,1067,1067,1067,1067,1067,1067,1067,1067,1067,1067,1067,1067,1067,1067,1067,1067,1067,1063,1063,1063,1063,1063,1063,1063,1063,1063,1063,1063,1063,1063,1063,1063,1063,1063,1063,1063,1063,1063,1063,1063,1063,1063,1063,1060,1060,1063,1067,1063,1063,1063,1067,1067,1067,1067,1067,1067,1063,1063,1063,1063,1063,1060,1060,1060,1060,1060,1060,1060,1060,1060,1060,1060,1063,1063,1063,1063,1063,1063,1060,1060,1060,1057,1057,1057,1057,1057,1057,1057,1057,1057,1057,1057,1057,1057,1060,1060,1057,1057,1057,1054,1054,1054,1057,1057,1057,1057,1057,1057,1057,1057,1054,1054,1054,1054,1054,1054,1054,1054,1054,1054,1054,1054,1054,1054,1054,1054,1050,1050,1050,1050,1050,1050,1050,1050,1050,1054,1054,1054,1054,1054,1054,1050,1050,1050,1050,1050,1050,1050,1050,1050,1050,1047,1047,1047,1044,1044,1047,1047,1047,1047,1047,1047,1050,1047,1047,1047,1047,1047,1047,1044,1044,1041,1041,1044,1044,1044,1044,1047,1047,1047,1047,1044,1044,1044,1044,1041,1041,1041,1041,1038,1038,1038,1038,1038,1038,1038,1038,1038,1038,1038,1038,1038,1038,1038,1041,1041,1041,1038,1038,1038,1038,1038,1038,1038,1038,1038,1038,1038,1038,1038,1034,1034,1034,1034,1034,1028,1028,967,967,967,970,970,970,970,967,967,1038,1034,1034,1034,1034,1034,1034,1034,1034,1038,1031,1031,1031,1031,1034,1038,1038,891,891,891,889,889,891,891,891,894,894,894,894,894,894,894,894,894,894,896,896,896,898,898,898,898,898,901,925,925,925,925,925,925,923,923,920,920,920,918,918,915,915,915,913,910,908,908,906,906,906,903,901,901,898,898,896,889,889,887,887,885,882,882,880,880,878,875,871,871,869,864,862,860,860,858,858,856,854,854,854,851,849,849,847,845,843,841,839,839,0,0,0,0,0,0,0,0,0,0,0,0,0,0,0,0,0,0,0,0,0,0,0,0,0,0,0,0,0,0,0,0,0,0,0,0,0,0
0,0,0,0,0,0,0,0,0,0,0,0,0,0,0,0,0,0,0,948,948,948,948,948,948,946,946,946,951,951,951,954,954,956,959,962,962,962,962,964,964,1101,1101,1101,1097,1097,1094,1094,1094,1094,1094,1094,1094,1090,1090,1090,1090,1090,1090,1090,1090,1090,1090,1090,1090,1090,1090,1090,1090,1090,1090,1090,1087,1087,1087,1087,1087,1087,1087,1090,1090,1090,1090,1090,1090,1090,1087,1087,1090,1090,1087,1087,1090,1090,1090,1090,1090,1090,1087,1087,1087,1087,1087,1087,1087,1087,1087,1087,1087,1087,1087,1087,0,0,0,0,0,0,0,0,0,697,691,690,690,690,687,686,684,683,680,678,678,678,679,679,679,679,680,682,683,684,687,687,688,690,691,693,694,696,697,698,698,698,698,700,700,700,0,0,0,0,0,0,1077,1077,1080,1080,1080,1080,1080,1080,1080,1080,1080,1077,1077,1077,1077,1077,1077,1077,1077,1077,1077,1077,1077,1077,1077,1080,1077,1077,1077,1073,1073,1073,1073,1073,1073,1073,1073,1073,1073,1073,1073,1073,1073,1073,1073,1073,1073,1073,1073,1070,1070,1073,1073,1070,1070,1070,1073,1073,1073,1073,871,871,871,871,871,873,873,875,875,875,873,873,875,875,875,875,875,878,880,882,885,887,889,891,894,894,896,896,896,896,1073,1067,1067,1067,1063,1063,1063,1063,1063,1063,1063,1063,1063,1063,1063,1063,1063,1067,1067,1067,1063,1063,1063,1063,1063,1063,1063,1063,1063,1063,1063,1063,1063,1060,1060,1063,1063,1060,1060,1060,1060,1060,1060,1060,1060,1060,1060,1060,1060,1060,1060,1060,1063,1063,1063,1063,1063,1063,1063,1063,1063,1063,1063,1063,1063,1063,1063,1060,1060,1060,1060,1060,1057,1057,1057,1057,1057,1057,1057,1057,1057,1060,1060,1060,1057,1057,1057,1057,1054,1054,1054,1054,1054,1054,1054,1054,1054,1054,1054,1054,1054,1050,1050,1054,1054,1054,1054,1054,1054,1054,1054,1054,1054,1054,1054,1054,1054,1054,1054,1054,1054,1050,1050,1050,1050,1050,1050,1050,1050,1054,1050,1050,1050,1050,1050,1050,1047,1047,1047,1050,1050,1050,1050,1050,1050,1050,1050,1047,1047,1047,1047,1047,1047,1047,1047,1047,1047,1047,1044,1044,1044,1041,1041,1041,1041,1044,1047,1047,1047,1044,1044,1044,1044,1044,1044,1041,1041,1041,1041,1041,1041,1041,1041,1041,1044,1044,1041,1041,1041,1041,1041,1041,1041,1041,1038,1038,1038,1034,1034,1034,1034,1034,1034,1034,1034,1034,1034,1034,1038,1038,1038,1038,1038,1038,1038,1034,1034,1034,1034,1038,1038,1038,1038,1038,1038,1038,1034,1031,1031,1028,1028,1025,1025,967,967,967,970,970,970,970,967,967,1038,1031,1031,1034,1031,1031,1034,1034,1034,1034,1031,1031,1031,1031,1031,1028,1028,891,891,891,889,889,889,889,891,891,894,894,894,894,894,894,894,894,896,896,896,896,896,896,896,896,896,898,925,925,925,925,925,923,923,920,920,918,918,915,915,915,913,910,910,908,908,908,906,903,903,903,901,898,898,898,896,889,889,889,887,882,882,880,880,880,878,871,871,869,867,862,862,860,860,858,858,856,854,854,854,851,849,847,847,845,843,841,839,839,0,0,0,0,0,0,0,0,0,0,0,0,0,0,0,0,0,0,0,0,0,0,0,0,0,0,0,0,0,0,0,0,0,0,0,0,0,0
0,0,0,0,0,0,0,0,0,0,0,0,0,0,0,0,0,0,0,951,951,951,951,948,948,948,948,948,951,951,954,954,956,959,959,962,962,964,964,964,964,967,970,1101,1097,1094,1090,1090,1094,1090,1090,1090,1090,1090,1090,1090,1090,1090,1090,1090,1090,1090,1087,1087,1087,1087,1087,1087,1087,1087,1087,1087,1087,1087,1087,1084,1084,1087,1087,1087,1087,1087,1087,1087,1087,1087,1084,1084,1084,1084,1084,1087,1087,1087,1087,1087,1087,1087,1084,1084,1084,1084,1084,1084,1084,1087,1084,1084,1087,1084,1084,1087,0,0,0,0,0,0,0,0,0,697,693,691,691,690,688,687,686,684,682,682,680,680,680,680,680,680,680,682,683,684,687,687,688,690,691,694,694,697,698,698,698,700,700,700,700,700,0,0,0,0,0,0,1073,1073,1077,1077,1077,1080,1080,1080,1080,1077,1077,1073,1073,1073,1073,1073,1073,1073,1073,1077,1077,1077,1077,1073,1073,1077,1077,1073,1073,1073,1073,1073,1073,1073,1073,1070,1070,1070,1070,1070,1070,1070,1073,1073,1073,1073,1073,1073,1073,1070,1070,1070,1070,1067,1067,1070,1073,1073,1073,871,871,869,869,869,869,871,871,871,871,871,873,873,873,873,873,875,875,875,878,882,885,887,889,894,894,894,896,896,896,896,1067,1067,1063,1063,1063,1063,1063,1063,1063,1060,1060,1060,1060,1063,1063,1063,1063,1063,1063,1060,1060,1060,1060,1060,1060,1060,1060,1060,1060,1060,1060,1060,1060,1060,1060,1060,1060,1060,1060,1060,1060,1060,1057,1054,1054,1054,1054,1057,1057,1057,1057,1057,1060,1060,1060,1060,1060,1060,1060,1063,1063,1063,1063,1063,1060,1060,1060,1057,1057,1057,1057,1057,1054,1054,1054,1054,1054,1054,1054,1054,1054,1057,1057,1057,1057,1057,1057,1054,1054,1054,1054,1054,1054,1054,1054,1054,1054,1054,1054,1050,1050,1050,1050,1050,1050,1050,1050,1050,1050,1054,1054,1054,1054,1054,1054,1054,1050,1050,1050,1050,1050,1050,1050,1047,1047,1047,1047,1050,1050,1050,1050,1050,1050,1050,1050,1047,1044,1044,1044,1047,1047,1047,1047,1047,1047,1047,1047,1044,1044,1044,1044,1044,1044,1044,1044,1041,1041,1041,1041,1044,1041,1041,1041,1041,1041,1044,1044,1044,1044,1044,1041,1041,1041,1041,1041,1041,1041,1041,1041,1038,1038,1038,1038,1038,1041,1038,1038,1041,1041,1041,1041,1041,1041,1041,1038,1034,1034,1034,1034,1034,1034,1034,1034,1034,1034,1034,1034,1034,1034,1034,1034,1034,1034,1038,1034,1034,1034,1034,1034,1034,1034,1034,1034,1038,1034,1034,1034,1031,1031,1028,1025,1025,1025,967,967,967,970,970,970,970,967,967,1034,1031,1031,1031,1028,1028,1028,1028,1028,1031,1028,1028,1028,1031,1031,1028,1028,1031,891,891,889,889,889,889,891,891,891,894,894,894,894,894,894,894,896,896,896,896,896,894,894,894,896,898,0,925,925,925,925,923,923,920,918,918,918,915,913,913,910,908,908,908,906,906,906,903,903,901,901,898,898,898,896,889,889,887,887,882,882,880,880,878,875,871,871,869,867,862,862,860,860,858,858,856,854,854,851,851,849,847,847,845,843,841,839,839,0,0,0,0,0,0,0,0,0,0,0,0,0,0,0,0,0,0,0,0,0,0,0,0,0,0,0,0,0,0,0,0,0,0,0,0,0,0
0,0,0,0,0,0,0,0,0,0,0,0,0,0,0,0,0,0,0,0,954,951,951,951,948,948,948,948,951,951,954,954,956,959,959,962,962,964,964,964,964,967,967,1077,1077,1077,1090,1090,1090,1090,1090,1090,1090,1090,1090,1090,1090,1087,1087,1087,1087,1087,1087,1087,1087,1087,1087,1087,1087,1087,1087,1087,1084,1084,1084,1080,1080,1084,1084,1084,1084,1087,1087,1087,1084,1084,1080,1080,1080,1080,1080,1084,1080,1080,1080,1084,1084,1084,1080,1080,1080,1080,1080,1080,1084,1084,1084,1084,1084,1084,1084,0,0,0,0,0,0,0,0,0,0,694,693,691,691,690,690,687,687,684,683,682,682,680,680,680,680,680,682,682,683,684,687,688,688,691,693,694,694,697,698,698,698,700,700,701,701,701,0,0,0,0,0,0,1073,1073,1073,1073,1073,1073,1073,1077,1077,1077,1077,1073,1073,1073,1073,1073,1073,1073,1073,1073,1073,1073,1073,1073,1073,1073,1077,1073,1073,1073,1073,1073,1073,1070,1070,1070,1067,1067,1067,1067,1067,1067,1070,1070,1070,1070,1070,1070,1070,1067,1067,1067,1067,1067,1067,1067,864,867,867,867,867,869,869,869,869,869,869,869,869,869,869,869,871,871,871,873,875,875,878,882,887,889,894,896,896,896,896,898,898,898,1063,1063,1063,1063,1063,1063,1060,1060,1060,1060,1060,1060,1060,1060,1060,1060,1060,1060,1060,1057,1057,1057,1057,1057,1057,1057,1057,1060,1060,1057,1057,1060,1060,1057,1057,1060,1060,1057,1057,1057,1057,1057,1054,1050,1050,1050,1054,1054,1054,1054,1054,1054,1057,1057,1057,1057,1057,1057,1057,1060,1060,1060,1060,1060,1060,1060,1057,1057,1054,1054,1054,1054,1054,1054,1054,1054,1054,1054,1054,1054,1054,1054,1054,1054,1054,1054,1054,1054,1054,1054,1050,1050,1050,1050,1050,1050,1050,1050,1050,1050,1047,1047,1050,1050,1050,1050,1050,1050,1050,1050,1050,1050,1050,1050,1050,1050,1050,1050,1050,1047,1047,1047,1047,1044,1044,1044,1044,1044,1044,1047,1044,1044,1044,1044,1044,1044,1041,1041,1044,1044,1044,1044,1044,1044,1044,1044,1044,1041,1041,1041,1041,1041,1041,1041,1038,1038,1038,1038,1038,1038,1038,1038,1038,1038,1038,1038,1041,1041,1041,1041,1041,1041,1041,1041,1041,1038,1038,1038,1038,1038,1038,1038,1038,1038,1038,1038,1038,1038,1041,1041,1038,1038,1038,1038,1034,1034,1031,1031,1031,1031,1031,1031,1031,1034,1034,1034,1034,1031,1031,1028,1028,1028,1031,1034,1031,1031,1031,1031,1031,1031,1031,1031,1034,1034,1034,1034,1031,1031,1028,1028,1025,1022,970,970,970,970,970,970,970,970,967,967,1031,1028,1028,1028,1028,1025,1025,1025,1025,1025,1025,1025,1025,1028,1031,1028,1028,1031,898,891,889,889,889,889,889,889,891,894,894,894,894,894,896,896,896,896,896,896,894,891,891,891,894,898,0,0,925,925,925,923,920,920,918,918,915,915,913,913,910,908,908,906,906,906,906,903,903,901,901,898,898,898,896,891,889,887,887,880,880,878,878,878,875,871,871,869,867,860,860,860,860,858,856,854,854,854,851,849,847,847,845,845,843,841,839,839,0,0,0,0,0,0,0,0,0,0,0,0,0,0,0,0,0,0,0,0,0,0,0,0,0,0,0,0,0,0,0,0,0,0,0,0,0,0
0,0,0,0,0,0,0,0,0,0,0,0,0,0,0,0,0,0,0,0,954,954,951,951,951,948,948,948,951,951,954,954,956,956,959,962,964,964,964,964,964,967,967,1077,1077,1077,1087,1087,1090,1090,1087,1087,1087,1087,1087,1087,1087,1087,1087,1087,1087,1087,1087,1084,1084,1084,1087,1087,1087,1087,1087,1084,1084,1084,1080,1080,1080,1080,1080,1084,1084,1084,1084,1084,1080,1080,1080,1080,1080,1080,1080,1080,1080,1080,1080,1080,1080,1080,1080,1080,1080,1080,1080,1080,1080,1080,1077,1077,1077,1080,1080,0,0,0,0,0,0,0,0,0,0,694,694,693,693,691,690,688,687,686,683,683,682,682,680,680,680,680,682,682,684,684,687,687,688,691,693,694,696,697,698,698,700,701,701,703,703,703,704,0,0,0,0,0,1073,1073,1073,1073,1073,1073,1073,1073,1073,1070,1070,1073,1070,1070,1070,1070,1070,1070,1070,1070,1070,1070,1070,1070,1070,1070,1073,1070,1070,1070,1070,1070,1070,1070,1067,1067,1067,1063,1063,1063,1063,1063,1067,1067,1067,1067,1070,1070,1070,1063,1063,1067,1067,1067,0,864,864,864,864,867,867,869,869,867,867,867,867,867,867,867,867,867,871,871,871,873,875,875,878,882,887,889,894,896,896,896,896,896,896,1063,1063,1060,1060,1060,1060,1060,1060,1057,1057,1057,1057,1057,1057,1057,1057,1057,1057,1054,1054,1054,1054,1054,1054,1054,1054,1054,1054,1057,1054,1054,1054,1057,1057,1057,1057,1057,1060,1057,1057,1057,1054,1054,1054,1050,1050,1050,1050,1050,1050,1050,1050,1050,1057,1057,1054,1054,1054,1054,1054,1057,1057,1057,1057,1057,1057,1057,1054,1054,1054,1054,1054,1054,1050,1050,1050,1050,1050,1050,1050,1050,1050,1054,1054,1054,1054,1050,1050,1050,1050,1050,1050,1050,1047,1047,1050,1047,1047,1047,1047,1047,1047,1047,1047,1047,1047,1047,1047,1047,1047,1050,1050,1050,1050,1050,1047,1047,1047,1047,1047,1047,1047,1047,1047,1044,1044,1044,1044,1044,1044,1041,1041,1041,1041,1041,1041,1041,1041,1041,1041,1041,1041,1041,1041,1041,1041,1041,1041,1041,1038,1038,1038,1038,1038,1038,1034,1034,1034,1034,1034,1034,1034,1038,1034,1034,1034,1038,1038,1038,1038,1041,1041,1038,1038,1038,1038,1038,1034,1034,1034,1034,1034,1031,1031,1034,1034,1034,1031,1031,1034,1038,1038,1038,1034,1034,1034,1031,1031,1028,1028,1028,1028,1028,1028,1031,1031,1031,1031,1028,1028,1028,1028,1028,1028,1028,1031,1031,1031,1028,1028,1028,1028,1028,1031,1031,1031,1031,1028,1028,1028,1025,1025,1019,970,970,970,970,970,970,970,970,967,959,959,1028,1028,1028,1028,1025,1025,1025,1025,1025,1022,1022,1025,1028,1028,1031,1031,901,898,894,891,891,889,889,889,889,889,891,891,891,894,894,896,896,894,894,896,896,894,891,891,891,894,0,0,0,0,0,925,920,920,920,918,918,915,915,913,913,910,908,908,906,906,906,903,903,903,901,898,898,898,896,891,889,887,887,882,880,880,878,878,878,875,873,871,869,864,860,860,860,860,858,856,854,854,854,851,849,847,847,845,845,843,841,841,841,0,0,0,0,0,0,0,0,0,0,0,0,0,0,0,0,0,0,0,0,0,0,0,0,0,0,0,0,0,0,0,0,0,0,0,0,0,0
0,0,0,0,0,0,0,0,0,0,0,0,0,0,0,0,0,0,0,0,954,954,954,951,951,948,948,948,951,951,954,956,956,956,962,962,964,964,964,964,964,967,967,0,1077,1077,1087,1087,1090,1090,1087,1087,1087,1087,1087,1087,1087,1087,1087,1087,1087,1087,1087,1084,1084,1084,1087,1087,1087,1087,1087,1084,1084,1084,1080,1080,1080,1080,1080,1084,1084,1084,1084,1084,1080,1080,1080,1080,1080,1080,1080,1080,1080,1080,1080,1080,1080,1080,1077,1077,1077,1077,1077,1077,1077,1077,1077,1077,1077,1077,1077,0,0,0,0,0,0,0,0,0,0,0,694,693,693,691,690,688,687,686,684,683,683,682,680,680,680,682,682,683,684,684,687,687,688,691,693,694,696,697,698,700,701,703,703,704,703,703,704,0,0,0,0,0,0,1070,1070,1070,1070,1070,1070,1073,1070,1070,1070,1067,1067,1067,1067,1070,1070,1067,1067,1067,1067,1067,1067,1067,1067,1067,1067,1063,1063,1063,1063,1067,1067,1067,1067,1063,1063,1063,1063,1063,1063,1063,1063,1063,1063,1063,1063,1063,1063,1063,1063,1063,1067,0,0,0,862,862,862,864,864,867,867,864,864,864,864,864,867,867,867,867,869,869,871,873,875,875,878,882,887,887,894,894,896,896,896,896,896,1060,1060,1057,1057,1057,1060,1057,1057,1054,1054,1054,1054,1054,1054,1054,1054,1054,1054,1050,1050,1050,1050,1050,1054,1054,1054,1054,1054,1054,1054,1050,1050,1054,1054,1054,1054,1054,1057,1054,1054,1054,1050,1050,1050,1050,1050,1050,1050,1050,1050,1050,1050,1050,1054,1054,1054,1054,1054,1054,1054,1054,1054,1054,1057,1054,1054,1054,1054,1054,1050,1050,1050,1050,1050,1050,1050,1050,1050,1047,1047,1047,1047,1050,1050,1050,1050,1047,1047,1044,1044,1047,1047,1047,1047,1047,1047,1047,1047,1047,1047,1047,1044,1044,1044,1047,1044,1044,1044,1044,1044,1047,1044,1044,1044,1047,1047,1047,1044,1044,1044,1044,1044,1044,1044,1041,1041,1041,1041,1041,1041,1041,1038,1038,1041,1041,1041,1041,1041,1041,1041,1041,1041,1041,1038,1038,1038,1038,1038,1038,1038,1038,1038,1034,1034,1034,1031,1031,1031,1031,1031,1031,1034,1034,1031,1031,1031,1031,1034,1034,1034,1034,1038,1038,1038,1038,1034,1034,1034,1034,1031,1031,1031,1028,1028,1031,1031,1031,1028,1028,1031,1028,1028,1028,1034,1034,1031,1031,1031,1028,1028,1028,1028,1028,1028,1028,1028,1028,1028,1025,1025,1025,1025,1025,1025,1028,1028,1028,1028,1028,1028,1028,1028,1028,1028,1028,1028,1028,1028,1028,1028,1025,1025,1019,970,970,970,970,970,973,973,973,970,959,959,1025,1025,1025,1025,1025,1025,1025,1022,1022,1019,1019,1022,1028,1028,1031,901,898,898,898,894,894,891,891,889,889,889,889,889,889,894,894,894,894,894,894,896,894,894,891,889,889,894,0,0,0,0,0,0,920,920,918,918,918,918,915,913,913,910,906,906,906,903,903,903,898,898,898,898,898,896,891,889,889,887,885,882,880,880,878,878,878,875,871,871,869,862,860,860,860,858,856,854,854,854,854,851,849,847,847,845,845,843,841,841,841,0,0,0,0,0,0,0,0,0,0,0,0,0,0,0,0,0,0,0,0,0,0,0,0,0,0,0,0,0,0,0,0,0,0,0,0,0,0
0,0,0,0,0,0,0,0,0,0,0,0,0,0,0,0,0,0,0,0,0,0,0,0,0,0,0,0,0,0,0,0,0,0,0,0,0,0,0,0,0,0,0,0,0,0,0,0,0,0,0,0,0,0,0,0,0,0,0,0,0,0,0,0,0,0,0,0,0,0,0,0,0,0,0,0,0,0,0,0,0,0,0,0,0,0,0,0,0,0,0,0,0,0,0,0,0,0,1077,1077,1077,1077,1077,1077,1077,1077,1077,1077,1077,1077,1077,0,0,0,0,0,0,0,0,0,0,0,696,694,693,693,691,690,688,687,686,684,683,683,682,682,682,682,683,683,684,686,687,687,688,691,693,694,696,698,698,700,701,703,703,704,704,704,704,0,0,0,0,0,0,1070,1070,1070,1070,1070,1070,1073,1070,1070,1070,1067,1067,1067,1067,1067,1067,1063,1063,1063,1063,1063,1063,1063,1063,1063,1063,1063,1063,1063,1063,1063,1063,1063,1063,1063,1063,1060,1060,1060,1060,1060,1060,1060,1060,1060,1060,1060,1060,1060,1060,1063,0,0,0,0,862,862,862,862,862,862,864,862,862,862,864,864,864,867,867,867,869,869,871,873,875,875,878,880,885,887,889,894,894,894,896,896,896,1057,1057,1054,1054,1057,1057,1054,1054,1054,1050,1050,1050,1050,1050,1050,1050,1050,1050,1050,1050,1047,1047,1047,1050,1050,1050,1050,1050,1050,1050,1050,1050,1050,1050,1050,1050,1050,1050,1050,1050,1050,1050,1050,1047,1047,1047,1047,1047,1047,1047,1047,1047,1047,1050,1050,1047,1047,1047,1050,1050,1050,1050,1050,1054,1054,1050,1050,1050,1050,1050,1050,1050,1050,1050,1047,1047,1047,1047,1044,1044,1044,1044,1044,1044,1047,1047,1044,1044,1041,1041,1041,1044,1044,1044,1044,1044,1044,1044,1044,1044,1044,1044,1044,1044,1044,1044,1044,1044,1041,1041,1044,1044,1041,1041,1041,1041,1044,1041,1041,1041,1041,1041,1041,1041,1041,1041,1038,1038,1038,1038,1038,1038,1038,1038,1038,1041,1038,1038,1038,1038,1038,1038,1038,1038,1038,1034,1034,1034,1034,1034,1034,1034,1031,1031,1031,1028,1028,1028,1028,1031,1031,1031,1031,1028,1028,1028,1028,1031,1031,1031,1031,1031,1034,1034,1034,1028,1028,1031,1031,1031,1031,1028,1025,1025,1028,1028,1028,1028,1028,1028,1028,1028,1028,1028,1031,1031,1028,1028,1028,1025,1025,1025,1025,1025,1025,1025,1028,1028,1025,1025,1022,1022,1025,1025,1025,1025,1025,1022,1022,1022,1028,1025,1025,1025,1025,1025,1025,1028,1028,1025,1025,1025,1019,970,970,970,970,970,973,973,973,973,970,970,1022,1019,1019,1022,1022,1022,1016,1016,1019,1016,1016,1022,1028,901,901,901,898,898,898,896,894,891,891,889,889,889,889,889,889,891,891,891,894,891,891,894,891,889,889,889,889,0,0,0,0,0,0,0,0,0,918,918,918,918,915,913,913,910,906,906,906,903,903,901,898,898,894,894,894,894,889,889,887,885,882,882,880,880,878,878,875,873,871,871,869,862,860,860,860,858,856,854,854,854,854,851,849,847,847,845,845,843,843,841,841,0,0,0,0,0,0,0,0,0,0,0,0,0,0,0,0,0,0,0,0,0,0,0,0,0,0,0,0,0,0,0,0,0,0,0,0,0,0
0,0,0,0,0,0,0,0,0,0,0,0,0,0,0,0,0,0,0,0,0,0,0,0,0,0,0,0,0,0,0,0,0,0,0,0,0,0,0,0,0,0,0,0,0,0,0,0,0,0,0,0,0,0,0,0,0,0,0,0,0,0,0,0,0,0,0,0,0,0,0,0,0,0,0,0,0,0,0,0,0,0,0,0,0,0,0,0,0,0,0,0,0,0,0,0,0,0,0,0,0,0,0,0,0,0,0,0,0,0,0,0,0,0,0,0,0,0,0,0,0,0,0,0,0,0,0,0,0,0,0,0,0,0,0,0,0,0,0,0,0,0,0,0,0,0,0,0,0,0,0,0,0,0,0,0,0,0,0,0,0,0,0,0,0,0,0,0,0,0,0,0,0,0,0,0,0,0,1067,1067,1067,1063,1063,1063,1063,1063,1063,1063,1063,1063,1063,1063,1063,1063,1063,1063,1063,1063,1063,1063,1063,1060,1060,1060,1060,1060,1060,1060,1060,1060,1060,1060,1060,1060,1060,0,0,0,0,0,862,862,862,862,862,862,864,862,862,862,864,864,864,867,867,867,869,869,871,873,875,878,878,880,885,887,889,894,894,894,896,896,1054,1054,1054,1054,1050,1050,1050,1050,1050,1050,1050,1050,1050,1050,1050,1050,1050,1047,1047,1047,1047,1047,1047,1047,1047,1047,1047,1047,1050,1050,1050,1050,1050,1050,1050,1047,1047,1047,1050,1047,1047,1047,1047,1047,1047,1044,1044,1044,1044,1047,1044,1044,1044,1044,1047,1047,1047,1044,1044,1047,1047,1047,1050,1050,1050,1050,1050,1050,1050,1050,1047,1047,1047,1047,1047,1047,1047,1047,1044,1044,1044,1041,1041,1041,1041,1041,1041,1041,1041,1041,1041,1041,1041,1041,1041,1041,1041,1041,1044,1041,1041,1044,1041,1041,1044,1044,1044,1041,1041,1041,1041,1041,1041,1038,1038,1038,1038,1038,1041,1041,1041,1041,1038,1038,1038,1038,1038,1038,1038,1038,1038,1038,1038,1038,1038,1038,1038,1038,1038,1038,1034,1034,1034,1034,1034,1034,1034,1031,1031,1034,1031,1031,1031,1028,1028,1028,1028,1028,1028,1028,1028,1028,1028,1028,1028,1025,1025,1025,1028,1028,1028,1028,1028,1031,1031,1028,1028,1028,1028,1028,1028,1025,1025,1025,1025,1025,1028,1028,1025,1025,1025,1025,1025,1025,1025,1028,1028,1025,1025,1025,1025,1025,1025,1025,1025,1025,1025,1025,1025,1022,1022,1022,1022,1022,1022,1025,1025,1025,1019,1019,1016,1016,1019,1019,1019,1019,1022,1025,1025,1025,1025,1022,1019,1016,970,970,970,970,970,973,973,973,973,967,967,1022,1016,1016,1019,1019,1019,1016,1016,1016,1016,1016,906,906,901,901,901,898,898,898,896,894,891,891,889,889,889,889,889,889,891,891,891,894,891,891,894,889,889,889,889,0,0,0,0,0,0,0,0,0,0,0,928,920,920,918,915,913,910,908,906,906,903,901,901,898,896,894,894,894,891,889,889,887,885,882,882,880,880,878,878,875,873,871,871,869,864,860,860,860,858,856,854,854,854,854,851,849,847,847,845,845,843,843,841,841,0,0,0,0,0,0,0,0,0,0,0,0,0,0,0,0,0,0,0,0,0,0,0,0,0,0,0,0,0,0,0,0,0,0,0,0,0,0
0,0,0,0,0,0,0,0,0,0,0,0,0,0,0,0,0,0,0,0,0,0,0,0,0,0,0,0,0,0,0,0,0,0,0,0,0,0,0,0,0,0,0,0,0,0,0,0,0,0,0,0,0,0,0,0,0,0,0,0,0,0,0,0,0,0,0,0,0,0,0,0,0,0,0,0,0,0,0,0,0,0,0,0,0,0,0,0,0,0,0,0,0,0,0,0,0,0,0,0,0,0,0,0,0,0,0,0,0,0,0,0,0,0,0,0,0,0,0,0,0,0,0,0,0,0,0,0,0,0,0,0,0,0,0,0,0,0,0,0,0,0,0,0,0,0,0,0,0,0,0,0,0,0,0,0,0,0,0,0,0,0,0,0,0,0,0,0,0,0,0,0,0,0,0,0,0,0,0,0,0,0,0,0,0,0,0,0,0,0,0,0,0,0,0,0,0,0,0,0,0,0,0,0,0,0,0,0,0,0,0,0,0,0,0,0,0,0,0,0,0,0,0,0,0,0,0,0,0,0,0,0,0,0,0,0,0,0,0,0,0,0,0,0,0,0,894,894,894,894,896,896,0,1054,1054,1054,1050,1050,1050,1050,1050,1050,1050,1050,1050,1050,1050,1050,1050,1047,1047,1047,1047,1047,1047,1047,1047,1047,1047,1047,1050,1050,1050,1050,1050,1050,1050,1047,1047,1047,1050,1047,1047,1047,1047,1047,1047,1044,1044,1044,1044,1047,1044,1044,1044,1044,1047,1047,1047,1044,1044,1047,1047,1047,1047,1047,1047,1047,1047,1047,1047,1047,1047,1047,1047,1047,1044,1044,1044,1044,1044,1041,1041,1041,1041,1041,1041,1041,1041,1041,1041,1038,1038,1038,1041,1041,1041,1041,1041,1041,1041,1041,1041,1041,1041,1041,1041,1041,1041,1041,1038,1038,1038,1038,1038,1038,1038,1038,1038,1038,1034,1034,1034,1038,1034,1034,1034,1034,1038,1034,1034,1034,1034,1034,1034,1034,1034,1034,1034,1034,1034,1034,1034,1034,1031,1031,1031,1031,1031,1031,1031,1031,1031,1031,1031,1028,1028,1028,1025,1025,1028,1028,1025,1025,1028,1028,1028,1025,1025,1025,1025,1025,1025,1025,1025,1025,1028,1028,1028,1025,1025,1028,1025,1025,1025,1022,1022,1025,1025,1025,1025,1025,1025,1025,1022,1022,1025,1025,1025,1025,1025,1025,1022,1022,1022,1022,1022,1022,1022,1022,1022,1022,1019,1019,1019,1022,1022,1022,1025,1025,1019,1019,1016,1016,1016,1016,1016,1019,1019,1022,1022,1025,1022,1019,1016,1016,970,970,970,970,970,973,973,975,975,967,967,1016,1016,1016,1016,1016,1016,1013,1013,1016,1016,1016,901,901,901,898,898,898,898,898,896,896,891,891,889,889,889,889,887,887,887,887,889,894,894,894,894,889,889,889,0,0,0,0,0,0,0,0,0,0,0,0,933,925,925,923,923,915,913,908,906,906,903,901,901,898,896,894,894,894,891,889,887,887,882,882,882,880,880,878,875,875,873,871,871,869,864,860,860,860,858,856,856,854,854,851,851,847,847,847,845,845,843,843,841,841,0,0,0,0,0,0,0,0,0,0,0,0,0,0,0,0,0,0,0,0,0,0,0,0,0,0,0,0,0,0,0,0,0,0,0,0,0,0
0,0,0,0,0,0,0,0,0,0,0,0,0,0,0,0,0,0,0,0,0,0,0,0,0,0,0,0,0,0,0,0,0,0,0,0,0,0,0,0,0,0,0,0,0,0,0,0,0,0,0,0,0,0,0,0,0,0,0,0,0,0,0,0,0,0,0,0,0,0,0,0,0,0,0,0,0,0,0,0,0,0,0,0,0,0,0,0,0,0,0,0,0,0,0,0,0,0,0,0,0,0,0,0,0,0,0,0,0,0,0,0,0,0,0,0,0,0,0,0,0,0,0,0,0,0,0,0,0,0,0,0,0,0,0,0,0,0,0,0,0,0,0,0,0,0,0,0,0,0,0,0,0,0,0,0,0,0,0,0,0,0,0,0,0,0,0,0,0,0,0,0,0,0,0,0,0,0,0,0,0,0,0,0,0,0,0,0,0,0,0,0,0,0,0,0,0,0,0,0,0,0,0,0,0,0,0,0,0,0,0,0,0,0,0,0,0,0,0,0,0,0,0,0,0,0,0,0,0,0,0,0,0,0,0,0,0,0,0,0,0,0,0,0,0,0,0,0,0,0,0,0,0,0,0,0,0,0,0,0,0,0,0,0,0,0,0,0,0,0,0,0,0,0,0,0,0,0,0,0,0,0,0,0,0,0,0,0,0,0,0,0,0,0,0,0,0,0,0,0,0,0,0,0,0,0,0,0,0,0,0,0,0,1047,1047,1047,1047,1047,1047,1047,1047,1047,1047,1047,1047,1047,1044,1044,1044,1044,1044,1041,1041,1041,1041,1041,1041,1041,1041,1041,1041,1038,1038,1038,1041,1041,1041,1041,1041,1041,1041,1041,1041,1041,1041,1041,1041,1041,1041,1041,1038,1038,1038,1038,1038,1038,1038,1038,1038,1038,1034,1034,1034,1031,1031,1031,1028,1028,1028,1031,1031,1031,1034,1031,1031,1031,1031,1031,1031,1031,1031,1034,1034,1031,1031,1031,1031,1031,1028,1028,1028,1028,1028,1028,1028,1028,1028,1028,1025,1025,1025,1025,1025,1025,1025,1025,1025,1025,1025,1025,1025,1025,1025,1025,1025,1025,1025,1025,1025,1025,1025,1025,1025,1025,1025,1022,1022,1022,1022,1022,1022,1022,1022,1022,1022,1022,1022,1025,1025,1025,1025,1022,1022,1022,1016,1016,1019,1016,1016,1019,1019,1019,1016,1016,1016,1019,1019,1019,1019,1019,1016,1016,1016,1016,1016,1016,1016,1016,1016,1019,1019,1022,1016,1016,1013,1013,973,970,970,973,973,973,973,973,973,973,973,1007,1007,1010,1013,1013,1013,1013,1013,0,903,0,903,901,901,898,898,898,898,898,898,896,896,894,889,889,889,889,887,887,887,887,889,894,894,894,894,894,0,0,0,0,0,0,0,0,0,0,0,0,0,0,938,933,930,928,925,920,918,910,908,906,906,903,901,898,896,894,894,894,891,889,887,885,882,882,882,880,880,878,875,873,873,871,869,869,864,862,862,860,858,856,856,854,854,851,849,847,847,847,845,845,843,843,841,841,0,0,0,0,0,0,0,0,0,0,0,0,0,0,0,0,0,0,0,0,0,0,0,0,0,0,0,0,0,0,0,0,0,0,0,0,0,0
0,0,0,0,0,0,0,0,0,0,0,0,0,0,0,0,0,0,0,0,0,0,0,0,0,0,0,0,0,0,0,0,0,0,0,0,0,0,0,0,0,0,0,0,0,0,0,0,0,0,0,0,0,0,0,0,0,0,0,0,0,0,0,0,0,0,0,0,0,0,0,0,0,0,0,0,0,0,0,0,0,0,0,0,0,0,0,0,0,0,0,0,0,0,0,0,0,0,0,0,0,0,0,0,0,0,0,0,0,0,0,0,0,0,0,0,0,0,0,0,0,0,0,0,0,0,0,0,0,0,0,0,0,0,0,0,0,0,0,0,0,0,0,0,0,0,0,0,0,0,0,0,0,0,0,0,0,0,0,0,0,0,0,0,0,0,0,0,0,0,0,0,0,0,0,0,0,0,0,0,0,0,0,0,0,0,0,0,0,0,0,0,0,0,0,0,0,0,0,0,0,0,0,0,0,0,0,0,0,0,0,0,0,0,0,0,0,0,0,0,0,0,0,0,0,0,0,0,0,0,0,0,0,0,0,0,0,0,0,0,0,0,0,0,0,0,0,0,0,0,0,0,0,0,0,0,0,0,0,0,0,0,0,0,0,0,0,0,0,0,0,0,0,0,0,0,0,0,0,0,0,0,0,0,0,0,0,0,0,0,0,0,0,0,0,0,0,0,0,0,0,0,0,0,0,0,0,0,0,0,0,0,0,0,0,0,0,0,0,0,0,0,0,0,0,0,0,0,0,0,0,0,0,0,0,0,0,0,0,0,0,0,0,0,0,0,0,0,0,0,0,0,0,0,0,0,0,0,0,0,0,0,0,0,0,0,0,0,0,0,0,0,1034,1031,1031,1031,1028,1028,1028,1031,1031,1031,1034,1031,1031,1031,1031,1031,1031,1031,1031,1034,1034,1031,1031,1031,1031,1031,1028,1028,1028,1028,1028,1028,1028,1028,1028,1028,1025,1025,1025,1025,1025,1025,1025,1025,1025,1025,1025,1025,1025,1025,1025,1025,1025,1025,1025,1025,1025,1022,1022,1022,1022,1022,1022,1019,1019,1019,1019,1019,1019,1019,1016,1016,1019,1019,1019,1019,1022,1022,1022,1022,1019,1016,1016,1016,1016,1016,1016,1016,1016,1016,1016,1016,1016,1016,1016,1016,1016,1016,1016,1016,1013,1013,1013,1013,1013,1013,1013,1013,1013,1016,1013,1013,1010,1010,973,973,973,973,973,973,973,973,973,975,1004,1004,1004,1007,1010,1010,1013,1013,1013,0,0,0,903,903,901,901,901,898,898,898,898,896,896,896,896,891,891,891,889,889,889,0,0,0,0,0,0,0,0,0,0,0,0,0,0,0,0,0,0,0,0,0,938,933,930,930,928,925,918,913,908,908,906,901,898,898,898,896,894,894,891,889,887,885,882,882,882,880,878,875,873,873,871,871,869,869,864,862,862,862,860,858,856,854,854,851,849,847,847,847,845,845,843,843,843,843,0,0,0,0,0,0,0,0,0,0,0,0,0,0,0,0,0,0,0,0,0,0,0,0,0,0,0,0,0,0,0,0,0,0,0,0,0,0
0,0,0,0,0,0,0,0,0,0,0,0,0,0,0,0,0,0,0,0,0,0,0,0,0,0,0,0,0,0,0,0,0,0,0,0,0,0,0,0,0,0,0,0,0,0,0,0,0,0,0,0,0,0,0,0,0,0,0,0,0,0,0,0,0,0,0,0,0,0,0,0,0,0,0,0,0,0,0,0,0,0,0,0,0,0,0,0,0,0,0,0,0,0,0,0,0,0,0,0,0,0,0,0,0,0,0,0,0,0,0,0,0,0,0,0,0,0,0,0,0,0,0,0,0,0,0,0,0,0,0,0,0,0,0,0,0,0,0,0,0,0,0,0,0,0,0,0,0,0,0,0,0,0,0,0,0,0,0,0,0,0,0,0,0,0,0,0,0,0,0,0,0,0,0,0,0,0,0,0,0,0,0,0,0,0,0,0,0,0,0,0,0,0,0,0,0,0,0,0,0,0,0,0,0,0,0,0,0,0,0,0,0,0,0,0,0,0,0,0,0,0,0,0,0,0,0,0,0,0,0,0,0,0,0,0,0,0,0,0,0,0,0,0,0,0,0,0,0,0,0,0,0,0,0,0,0,0,0,0,0,0,0,0,0,0,0,0,0,0,0,0,0,0,0,0,0,0,0,0,0,0,0,0,0,0,0,0,0,0,0,0,0,0,0,0,0,0,0,0,0,0,0,0,0,0,0,0,0,0,0,0,0,0,0,0,0,0,0,0,0,0,0,0,0,0,0,0,0,0,0,0,0,0,0,0,0,0,0,0,0,0,0,0,0,0,0,0,0,0,0,0,0,0,0,0,0,0,0,0,0,0,0,0,0,0,0,0,0,0,0,0,0,0,0,0,0,0,0,0,0,0,0,0,0,0,0,0,0,0,0,0,0,0,0,0,0,0,0,0,0,0,0,0,0,0,0,0,0,0,0,0,0,0,0,0,0,0,0,0,0,0,0,0,0,0,0,0,1025,1022,1022,1022,1022,1022,1022,1019,1019,1019,1019,1019,1019,1019,1016,1016,1019,1019,1019,1019,1022,1022,1022,1022,1019,1016,1016,1016,1016,1016,1016,1016,1016,1016,1016,1016,1016,1016,1016,1016,1016,1016,1016,1016,1013,1013,1013,1013,1013,1013,1013,1013,1010,1010,1007,1007,1007,1007,973,973,973,973,973,973,973,973,973,975,1004,1004,1004,1004,1010,1010,1013,1013,0,0,0,0,0,903,901,898,898,901,901,898,898,898,898,898,898,898,898,898,894,894,0,0,0,0,0,0,0,0,0,0,0,0,0,0,0,0,0,0,0,0,0,0,938,935,935,935,933,930,923,915,910,908,906,901,898,898,898,896,896,894,891,889,887,885,882,880,880,880,878,875,873,873,871,871,869,869,864,862,862,862,860,858,856,856,854,854,851,847,847,847,845,845,843,843,843,843,0,0,0,0,0,0,0,0,0,0,0,0,0,0,0,0,0,0,0,0,0,0,0,0,0,0,0,0,0,0,0,0,0,0,0,0,0,0
0,0,0,0,0,0,0,0,0,0,0,0,0,0,0,0,0,0,0,0,0,0,0,0,0,0,0,0,0,0,0,0,0,0,0,0,0,0,0,0,0,0,0,0,0,0,0,0,0,0,0,0,0,0,0,0,0,0,0,0,0,0,0,0,0,0,0,0,0,0,0,0,0,0,0,0,0,0,0,0,0,0,0,0,0,0,0,0,0,0,0,0,0,0,0,0,0,0,0,0,0,0,0,0,0,0,0,0,0,0,0,0,0,0,0,0,0,0,0,0,0,0,0,0,0,0,0,0,0,0,0,0,0,0,0,0,0,0,0,0,0,0,0,0,0,0,0,0,0,0,0,0,0,0,0,0,0,0,0,0,0,0,0,0,0,0,0,0,0,0,0,0,0,0,0,0,0,0,0,0,0,0,0,0,0,0,0,0,0,0,0,0,0,0,0,0,0,0,0,0,0,0,0,0,0,0,0,0,0,0,0,0,0,0,0,0,0,0,0,0,0,0,0,0,0,0,0,0,0,0,0,0,0,0,0,0,0,0,0,0,0,0,0,0,0,0,0,0,0,0,0,0,0,0,0,0,0,0,0,0,0,0,0,0,0,0,0,0,0,0,0,0,0,0,0,0,0,0,0,0,0,0,0,0,0,0,0,0,0,0,0,0,0,0,0,0,0,0,0,0,0,0,0,0,0,0,0,0,0,0,0,0,0,0,0,0,0,0,0,0,0,0,0,0,0,0,0,0,0,0,0,0,0,0,0,0,0,0,0,0,0,0,0,0,0,0,0,0,0,0,0,0,0,0,0,0,0,0,0,0,0,0,0,0,0,0,0,0,0,0,0,0,0,0,0,0,0,0,0,0,0,0,0,0,0,0,0,0,0,0,0,0,0,0,0,0,0,0,0,0,0,0,0,0,0,0,0,0,0,0,0,0,0,0,0,0,0,0,0,0,0,0,0,0,0,0,0,0,0,0,0,0,0,0,0,0,0,0,0,0,0,0,0,0,0,0,0,0,0,0,0,0,0,0,0,0,0,0,0,0,0,0,0,0,0,0,0,0,0,0,0,0,0,0,0,0,0,0,0,0,1010,1010,1007,1007,1007,1007,0,973,973,973,973,973,973,973,973,975,0,1004,1004,1004,1010,1013,1013,1013,0,0,0,0,0,903,901,898,898,901,901,898,898,898,898,898,901,901,901,901,901,901,0,0,0,0,0,0,0,0,0,0,0,0,0,0,0,0,0,0,0,0,0,0,940,938,938,938,935,935,0,0,0,910,906,901,898,898,898,898,896,896,894,891,889,887,885,880,880,878,878,875,873,871,871,871,869,869,864,862,862,862,860,860,858,858,856,854,851,849,847,847,845,845,843,843,843,843,0,0,0,0,0,0,0,0,0,0,0,0,0,0,0,0,0,0,0,0,0,0,0,0,0,0,0,0,0,0,0,0,0,0,0,0,0,0
0,0,0,0,0,0,0,0,0,0,0,0,0,0,0,0,0,0,0,0,0,0,0,0,0,0,0,0,0,0,0,0,0,0,0,0,0,0,0,0,0,0,0,0,0,0,0,0,0,0,0,0,0,0,0,0,0,0,0,0,0,0,0,0,0,0,0,0,0,0,0,0,0,0,0,0,0,0,0,0,0,0,0,0,0,0,0,0,0,0,0,0,0,0,0,0,0,0,0,0,0,0,0,0,0,0,0,0,0,0,0,0,0,0,0,0,0,0,0,0,0,0,0,0,0,0,0,0,0,0,0,0,0,0,0,0,0,0,0,0,0,0,0,0,0,0,0,0,0,0,0,0,0,0,0,0,0,0,0,0,0,0,0,0,0,0,0,0,0,0,0,0,0,0,0,0,0,0,0,0,0,0,0,0,0,0,0,0,0,0,0,0,0,0,0,0,0,0,0,0,0,0,0,0,0,0,0,0,0,0,0,0,0,0,0,0,0,0,0,0,0,0,0,0,0,0,0,0,0,0,0,0,0,0,0,0,0,0,0,0,0,0,0,0,0,0,0,0,0,0,0,0,0,0,0,0,0,0,0,0,0,0,0,0,0,0,0,0,0,0,0,0,0,0,0,0,0,0,0,0,0,0,0,0,0,0,0,0,0,0,0,0,0,0,0,0,0,0,0,0,0,0,0,0,0,0,0,0,0,0,0,0,0,0,0,0,0,0,0,0,0,0,0,0,0,0,0,0,0,0,0,0,0,0,0,0,0,0,0,0,0,0,0,0,0,0,0,0,0,0,0,0,0,0,0,0,0,0,0,0,0,0,0,0,0,0,0,0,0,0,0,0,0,0,0,0,0,0,0,0,0,0,0,0,0,0,0,0,0,0,0,0,0,0,0,0,0,0,0,0,0,0,0,0,0,0,0,0,0,0,0,0,0,0,0,0,0,0,0,0,0,0,0,0,0,0,0,0,0,0,0,0,0,0,0,0,0,0,0,0,0,0,0,0,0,0,0,0,0,0,0,0,0,0,0,0,0,0,0,0,0,0,0,0,0,0,0,0,0,0,0,0,0,0,0,0,0,0,0,0,0,0,0,0,0,0,0,0,0,0,0,0,0,0,0,0,0,0,0,0,0,0,0,0,0,0,0,0,0,0,0,0,0,0,0,0,0,0,0,0,0,0,0,0,0,0,0,0,0,0,0,0,0,0,0,0,0,0,0,0,0,0,0,0,0,0,0,0,0,0,0,0,0,0,0,0,0,0,0,906,903,898,898,898,898,896,896,891,889,889,885,885,885,878,878,875,873,871,871,871,871,869,864,862,862,862,860,860,860,858,858,856,854,851,849,847,845,845,843,843,843,843,0,0,0,0,0,0,0,0,0,0,0,0,0,0,0,0,0,0,0,0,0,0,0,0,0,0,0,0,0,0,0,0,0,0,0,0,0,0
0,0,0,0,0,0,0,0,0,0,0,0,0,0,0,0,0,0,0,0,0,0,0,0,0,0,0,0,0,0,0,0,0,0,0,0,0,0,0,0,0,0,0,0,0,0,0,0,0,0,0,0,0,0,0,0,0,0,0,0,0,0,0,0,0,0,0,0,0,0,0,0,0,0,0,0,0,0,0,0,0,0,0,0,0,0,0,0,0,0,0,0,0,0,0,0,0,0,0,0,0,0,0,0,0,0,0,0,0,0,0,0,0,0,0,0,0,0,0,0,0,0,0,0,0,0,0,0,0,0,0,0,0,0,0,0,0,0,0,0,0,0,0,0,0,0,0,0,0,0,0,0,0,0,0,0,0,0,0,0,0,0,0,0,0,0,0,0,0,0,0,0,0,0,0,0,0,0,0,0,0,0,0,0,0,0,0,0,0,0,0,0,0,0,0,0,0,0,0,0,0,0,0,0,0,0,0,0,0,0,0,0,0,0,0,0,0,0,0,0,0,0,0,0,0,0,0,0,0,0,0,0,0,0,0,0,0,0,0,0,0,0,0,0,0,0,0,0,0,0,0,0,0,0,0,0,0,0,0,0,0,0,0,0,0,0,0,0,0,0,0,0,0,0,0,0,0,0,0,0,0,0,0,0,0,0,0,0,0,0,0,0,0,0,0,0,0,0,0,0,0,0,0,0,0,0,0,0,0,0,0,0,0,0,0,0,0,0,0,0,0,0,0,0,0,0,0,0,0,0,0,0,0,0,0,0,0,0,0,0,0,0,0,0,0,0,0,0,0,0,0,0,0,0,0,0,0,0,0,0,0,0,0,0,0,0,0,0,0,0,0,0,0,0,0,0,0,0,0,0,0,0,0,0,0,0,0,0,0,0,0,0,0,0,0,0,0,0,0,0,0,0,0,0,0,0,0,0,0,0,0,0,0,0,0,0,0,0,0,0,0,0,0,0,0,0,0,0,0,0,0,0,0,0,0,0,0,0,0,0,0,0,0,0,0,0,0,0,0,0,0,0,0,0,0,0,0,0,0,0,0,0,0,0,0,0,0,0,0,0,0,0,0,0,0,0,0,0,0,0,0,0,0,0,0,0,0,0,0,0,0,0,0,0,0,0,0,0,0,0,0,0,0,0,0,0,0,0,0,0,0,0,0,0,0,0,0,0,0,0,0,0,0,0,0,0,0,0,0,0,0,0,0,0,0,0,0,0,0,0,0,0,0,0,0,0,0,0,0,0,0,0,0,0,0,0,0,0,0,0,0,0,0,0,0,0,0,0,0,0,0,0,0,0,0,878,875,873,873,871,871,869,869,864,864,862,862,862,860,860,858,858,854,854,851,851,847,845,843,843,843,843,0,0,0,0,0,0,0,0,0,0,0,0,0,0,0,0,0,0,0,0,0,0,0,0,0,0,0,0,0,0,0,0,0,0,0,0,0,0
0,0,0,0,0,0,0,0,0,0,0,0,0,0,0,0,0,0,0,0,0,0,0,0,0,0,0,0,0,0,0,0,0,0,0,0,0,0,0,0,0,0,0,0,0,0,0,0,0,0,0,0,0,0,0,0,0,0,0,0,0,0,0,0,0,0,0,0,0,0,0,0,0,0,0,0,0,0,0,0,0,0,0,0,0,0,0,0,0,0,0,0,0,0,0,0,0,0,0,0,0,0,0,0,0,0,0,0,0,0,0,0,0,0,0,0,0,0,0,0,0,0,0,0,0,0,0,0,0,0,0,0,0,0,0,0,0,0,0,0,0,0,0,0,0,0,0,0,0,0,0,0,0,0,0,0,0,0,0,0,0,0,0,0,0,0,0,0,0,0,0,0,0,0,0,0,0,0,0,0,0,0,0,0,0,0,0,0,0,0,0,0,0,0,0,0,0,0,0,0,0,0,0,0,0,0,0,0,0,0,0,0,0,0,0,0,0,0,0,0,0,0,0,0,0,0,0,0,0,0,0,0,0,0,0,0,0,0,0,0,0,0,0,0,0,0,0,0,0,0,0,0,0,0,0,0,0,0,0,0,0,0,0,0,0,0,0,0,0,0,0,0,0,0,0,0,0,0,0,0,0,0,0,0,0,0,0,0,0,0,0,0,0,0,0,0,0,0,0,0,0,0,0,0,0,0,0,0,0,0,0,0,0,0,0,0,0,0,0,0,0,0,0,0,0,0,0,0,0,0,0,0,0,0,0,0,0,0,0,0,0,0,0,0,0,0,0,0,0,0,0,0,0,0,0,0,0,0,0,0,0,0,0,0,0,0,0,0,0,0,0,0,0,0,0,0,0,0,0,0,0,0,0,0,0,0,0,0,0,0,0,0,0,0,0,0,0,0,0,0,0,0,0,0,0,0,0,0,0,0,0,0,0,0,0,0,0,0,0,0,0,0,0,0,0,0,0,0,0,0,0,0,0,0,0,0,0,0,0,0,0,0,0,0,0,0,0,0,0,0,0,0,0,0,0,0,0,0,0,0,0,0,0,0,0,0,0,0,0,0,0,0,0,0,0,0,0,0,0,0,0,0,0,0,0,0,0,0,0,0,0,0,0,0,0,0,0,0,0,0,0,0,0,0,0,0,0,0,0,0,0,0,0,0,0,0,0,0,0,0,0,0,0,0,0,0,0,0,0,0,0,0,0,0,0,0,0,0,0,0,0,0,0,0,0,0,0,0,0,0,0,0,0,0,0,0,0,0,0,0,0,0,0,0,0,0,0,0,0,0,0,0,0,0,0,0,0,0,0,0,0,0,0,0,0,0,0,0,0,0,0,0,0,0,0,0,0,0,0,0,0,0,0,0,0,0,0,0,0,0,0,0,0,0,0,0,0,0,0,0,0,0,0,0,0,0,0,0,0,0,0,0,0,0,0,0,0,0,0,0
0,0,0,0,0,0,0,0,0,0,0,0,0,0,0,0,0,0,0,0,0,0,0,0,0,0,0,0,0,0,0,0,0,0,0,0,0,0,0,0,0,0,0,0,0,0,0,0,0,0,0,0,0,0,0,0,0,0,0,0,0,0,0,0,0,0,0,0,0,0,0,0,0,0,0,0,0,0,0,0,0,0,0,0,0,0,0,0,0,0,0,0,0,0,0,0,0,0,0,0,0,0,0,0,0,0,0,0,0,0,0,0,0,0,0,0,0,0,0,0,0,0,0,0,0,0,0,0,0,0,0,0,0,0,0,0,0,0,0,0,0,0,0,0,0,0,0,0,0,0,0,0,0,0,0,0,0,0,0,0,0,0,0,0,0,0,0,0,0,0,0,0,0,0,0,0,0,0,0,0,0,0,0,0,0,0,0,0,0,0,0,0,0,0,0,0,0,0,0,0,0,0,0,0,0,0,0,0,0,0,0,0,0,0,0,0,0,0,0,0,0,0,0,0,0,0,0,0,0,0,0,0,0,0,0,0,0,0,0,0,0,0,0,0,0,0,0,0,0,0,0,0,0,0,0,0,0,0,0,0,0,0,0,0,0,0,0,0,0,0,0,0,0,0,0,0,0,0,0,0,0,0,0,0,0,0,0,0,0,0,0,0,0,0,0,0,0,0,0,0,0,0,0,0,0,0,0,0,0,0,0,0,0,0,0,0,0,0,0,0,0,0,0,0,0,0,0,0,0,0,0,0,0,0,0,0,0,0,0,0,0,0,0,0,0,0,0,0,0,0,0,0,0,0,0,0,0,0,0,0,0,0,0,0,0,0,0,0,0,0,0,0,0,0,0,0,0,0,0,0,0,0,0,0,0,0,0,0,0,0,0,0,0,0,0,0,0,0,0,0,0,0,0,0,0,0,0,0,0,0,0,0,0,0,0,0,0,0,0,0,0,0,0,0,0,0,0,0,0,0,0,0,0,0,0,0,0,0,0,0,0,0,0,0,0,0,0,0,0,0,0,0,0,0,0,0,0,0,0,0,0,0,0,0,0,0,0,0,0,0,0,0,0,0,0,0,0,0,0,0,0,0,0,0,0,0,0,0,0,0,0,0,0,0,0,0,0,0,0,0,0,0,0,0,0,0,0,0,0,0,0,0,0,0,0,0,0,0,0,0,0,0,0,0,0,0,0,0,0,0,0,0,0,0,0,0,0,0,0,0,0,0,0,0,0,0,0,0,0,0,0,0,0,0,0,0,0,0,0,0,0,0,0,0,0,0,0,0,0,0,0,0,0,0,0,0,0,0,0,0,0,0,0,0,0,0,0,0,0,0,0,0,0,0,0,0,0,0,0,0,0,0,0,0,0,0,0,0,0,0,0,0,0,0,0,0,0,0,0,0,0,0,0,0,0,0,0,0,0,0,0,0,0,0,0,0,0,0,0,0
