0,0,0,0,0,0,0,0,0,0,0,0,1705,1705,1713,1722,1731,1731,1731,1722,1722,1713,1713,1713,1713,1722,1713,1713,1722,1722,1722,1713,1713,1713,1713,1713,1713,1722,1713,1713,1722,1722,1722,1722,1722,1722,1722,1722,1722,1722,1722,1722,1722,1722,1722,1722,1722,1722,1722,1722,1722,1722,1731,1731,1722,1722,1722,1722,1722,1713,1713,1713,1713,1722,1722,1722,1722,1722,1722,1722,1722,0,0,0,0,0,0,0,0,0,1010,1010,1010,1010,1010,1010,1010,1010,1010,0,0,0,0,0,0,0,0,0,683,682,682,682,682,682,679,678,678,678,679,680,680,680,680,680,680,680,682,682,682,683,683,682,682,682,682,682,682,680,680,680,680,680,680,680,680,680,683,683,684,684,684,686,686,686,687,687,687,688,690,690,691,693,693,694,694,696,697,697,698,698,698,700,701,701,703,704,706,706,706,706,707,708,710,713,713,714,714,716,716,716,717,717,720,723,727,728,730,731,734,734,734,736,738,738,738,739,739,742,744,746,746,747,747,749,749,750,752,752,754,754,754,755,757,759,759,759,761,761,762,764,766,766,766,767,767,767,769,771,773,773,774,778,778,780,780,780,781,781,783,785,787,787,787,789,789,790,790,792,792,794,794,796,798,800,802,802,802,803,803,805,807,809,809,811,811,813,813,815,817,817,819,819,819,819,821,821,821,823,825,825,827,827,829,831,831,833,833,835,835,835,835,837,1655,1655,1655,1655,1655,1663,1663,1663,1663,1663,1671,1663,1663,1671,1671,1671,1680,1671,1671,1671,1671,1671,1671,1671,1663,1655,1655,1655,0,0,0,0,0,0,0,0,0,918,915,913,913,906,903,903,901,898,898,898,898,898,898,898,898,901,901,903,906,906,906,908,908,910,910,910,915,0,0,0,0,0,0,1680,1671,1663,1663,1663,1655,1655,1655,1655,1655,1655,1647,1647,1655,1655,1647,1647,1647,1647,1647,1647,1639,1639,1639,1639,1632,1632,1632,1632,1624,1624,1616,1609,1609,1601,1601,1594,1586,1579,1579,1579,1572,1572,1572,1572,1564,1564,1557,1550,1550,1543,1543,1536,1529,1523,1523,1516,1516,1516,1509,1509,1503,1503,1496,1496,1489,1489,1483,1483,1477,1470,1464,1458,1458,1452,1445,1445,1445,1439,1439,1439,1439,1433,1433,1427,1421,1421,1415,1410,1404,1404,1404,1398,1398,1392,1392,1392,1392,1387,1381,1381,1381,1376,1370,1365,1359,1359,1354,1354,1349,1349,1343,1343,1338,1338,1333,1333,1328,1328,1328,1322,1322,1317,1312,1307,1302,1302,1297,1292,1292,1292,1288,1288,1283,1283,1278,1273,1268,1268,1268,1264,1264,1259,1255,1255,1250,1250,1250,1245,1241,1236,1236,1232,1232,1232,1227,1223,1219,1219,1214,1214,1214,1210,1210,1206,1206,1202,1197,1197,1193,1189,1189,1189,1185,1185,1185,1181,1177,1169,1169,1169,1165,1161,1161,1157,1153,1153,1153,1149,1149,1149,1145,1141,1141,1141,1138,1134,1134,1130,1126,1126,1123,1123,1119,1119,1115,1115,1112,1112,1108,1108,1105,1105,1101,1101,1097,1094,1094,1094,1090,1090,1084,1084,1080,1080,1077,1077,1077,1073,1070,1067,1067,1067,1063,1063,0,0,0,0,0,0,0,0,0,0,0,0,0,0,0,0,0,0,0,0,0,0,0,0,0,0,0,0,0,0,0,0
0,0,0,0,0,0,0,0,0,0,0,0,1705,1705,1705,1705,1713,1713,1713,1722,1713,1713,1713,1713,1713,1713,1713,1713,1713,1713,1713,1713,1713,1705,1705,1705,1705,1713,1713,1713,1713,1713,1722,1713,1713,1722,1722,1722,1713,1713,1713,1722,1722,1722,1713,1713,1722,1722,1722,1722,1722,1722,1722,1722,1722,1713,1713,1713,1705,1705,1713,1713,1713,1713,1713,1722,1722,1722,1722,1722,1722,0,0,0,0,0,0,0,0,0,1010,1010,1010,1010,1013,1010,1010,1010,1010,0,0,0,0,0,0,0,0,0,683,682,682,682,680,680,678,676,675,675,676,676,676,675,675,679,678,676,676,676,675,675,676,676,676,679,680,679,679,679,679,679,679,679,680,680,680,680,683,682,682,684,684,684,686,686,686,687,687,687,690,690,691,693,693,694,694,696,697,698,698,698,700,700,701,703,703,704,706,708,708,711,713,711,711,714,714,716,716,717,717,719,720,722,725,727,730,731,733,733,734,736,736,738,739,739,739,739,742,744,746,746,746,747,747,749,750,752,752,754,754,754,755,755,757,759,759,761,761,762,762,764,766,766,767,767,767,769,769,771,773,774,776,778,780,780,781,781,781,783,785,785,787,787,787,789,789,790,792,792,794,794,796,796,800,802,802,803,803,803,805,805,807,809,809,811,811,813,815,815,817,817,819,819,819,819,821,821,821,823,825,825,827,829,829,831,831,831,831,1647,1647,1655,1655,1655,1655,1655,1655,1655,1655,1663,1663,1663,1663,1663,1663,1663,1663,1663,1663,1663,1671,1671,1671,1671,1671,1663,1663,1655,1655,1639,1639,1647,0,0,0,0,0,0,0,0,0,918,918,915,910,906,903,903,901,898,898,898,898,898,898,898,898,901,901,903,906,906,908,908,910,910,913,913,915,0,0,0,0,0,0,0,1663,1655,1655,1655,1655,1655,1647,1647,1647,1647,1647,1647,1647,1647,1639,1639,1639,1639,1639,1639,1639,1639,1639,1639,1632,1632,1632,1632,1632,1624,1624,1609,1609,1601,1601,1594,1586,1579,1579,1579,1572,1572,1572,1572,1572,1564,1557,1550,1550,1543,1543,1536,1529,1523,1523,1516,1516,1516,1509,1509,1503,1503,1496,1496,1489,1489,1483,1483,1477,1470,1464,1464,1458,1452,1445,1445,1445,1439,1439,1439,1439,1433,1433,1427,1421,1421,1415,1410,1404,1404,1404,1398,1398,1392,1392,1392,1392,1387,1387,1381,1381,1376,1376,1370,1365,1359,1354,1354,1349,1349,1343,1343,1338,1333,1333,1333,1333,1328,1328,1322,1322,1317,1312,1307,1302,1302,1297,1292,1292,1292,1288,1288,1288,1283,1278,1273,1268,1268,1268,1264,1264,1259,1255,1255,1250,1250,1250,1245,1241,1236,1236,1232,1232,1232,1227,1223,1219,1219,1214,1214,1214,1210,1210,1206,1206,1202,1197,1197,1197,1193,1189,1189,1185,1185,1185,1181,1181,1177,1169,1169,1165,1161,1161,1157,1153,1153,1153,1149,1149,1149,1149,1141,1141,1141,1138,1134,1134,1130,1130,1126,1123,1123,1119,1119,1119,1115,1112,1112,1108,1108,1105,1105,1105,1101,1097,1097,1094,1094,1090,1090,1084,1084,1080,1080,1077,1077,1077,1073,1070,1067,1067,1067,1063,1063,0,0,0,0,0,0,0,0,0,0,0,0,0,0,0,0,0,0,0,0,0,0,0,0,0,0,0,0,0,0,0,0
0,0,0,0,0,0,0,0,0,0,0,0,1696,1696,1705,1705,1705,1705,1705,1705,1705,1705,1705,1705,1705,1705,1705,1705,1713,1713,1713,1705,1705,1705,1705,1696,1696,1696,1696,1696,1705,1705,1713,1705,1705,1705,1705,1705,1705,1705,1705,1713,1713,1713,1713,1713,1713,1713,1722,1722,1722,1722,1713,1713,1713,1705,1705,1705,1705,1705,1705,1705,1705,1705,1713,1713,1713,1705,1705,1705,1713,0,0,0,0,0,0,0,0,0,1013,1010,1010,1013,1013,1010,1010,1013,1013,1013,0,0,0,0,0,0,0,0,683,682,682,682,680,679,678,675,675,675,672,672,672,672,674,674,672,672,672,672,672,672,674,675,675,676,676,678,678,678,678,678,678,678,679,680,680,682,682,682,682,683,684,684,686,686,686,687,687,687,690,690,691,693,694,694,696,697,697,698,698,700,700,701,703,704,704,704,706,710,710,714,716,717,719,719,719,719,719,719,720,722,723,725,727,728,731,733,733,734,734,736,738,739,739,739,739,739,744,746,746,747,747,747,747,749,750,752,752,754,754,755,755,757,759,759,761,761,761,762,764,766,766,766,767,767,767,769,769,771,773,774,776,778,780,780,781,781,781,783,785,787,787,787,789,789,790,792,792,794,794,796,796,798,800,802,802,803,803,803,805,805,807,809,809,811,813,813,815,815,817,819,819,819,819,821,821,823,823,823,825,827,827,829,829,829,1647,1647,1647,1647,1647,1647,1647,1655,1655,1655,1655,1655,1655,1655,1655,1655,1655,1655,1655,1663,1663,1663,1663,1663,1663,1663,1663,1663,1663,1655,1655,1647,1647,1639,1639,1632,1632,0,0,0,0,0,0,0,0,0,915,915,910,908,903,903,901,901,898,898,898,898,898,898,901,901,903,906,906,908,908,908,913,913,913,915,915,918,0,0,0,0,0,0,1632,1632,1632,1647,1647,1639,1639,1639,1639,1639,1639,1639,1639,1639,1639,1632,1632,1639,1632,1632,1632,1632,1632,1639,1632,1632,1632,1632,1632,1624,1624,1616,1609,1601,1601,1594,1586,1579,1579,1579,1579,1572,1572,1572,1572,1564,1557,1550,1550,1543,1543,1536,1529,1523,1523,1516,1516,1509,1509,1509,1503,1496,1496,1496,1489,1489,1483,1483,1477,1470,1464,1464,1458,1452,1452,1445,1445,1445,1439,1439,1439,1433,1427,1421,1421,1415,1415,1410,1410,1410,1404,1404,1398,1398,1392,1392,1392,1392,1387,1381,1381,1376,1376,1370,1365,1365,1359,1354,1349,1349,1343,1343,1338,1333,1333,1333,1333,1328,1328,1328,1322,1322,1317,1307,1307,1302,1297,1292,1292,1292,1288,1288,1288,1283,1283,1278,1268,1268,1268,1264,1264,1259,1255,1255,1250,1250,1250,1245,1241,1236,1236,1232,1232,1232,1227,1223,1223,1219,1219,1214,1214,1210,1210,1206,1206,1202,1197,1197,1197,1193,1189,1189,1185,1185,1185,1181,1181,1177,1169,1169,1165,1165,1161,1157,1153,1153,1153,1149,1149,1149,1149,1141,1141,1138,1138,1138,1134,1130,1130,1126,1123,1123,1123,1119,1119,1115,1115,1112,1108,1108,1105,1105,1105,1101,1097,1097,1094,1094,1094,1090,1090,1084,1084,1080,1077,1077,1077,1077,1073,1070,1067,1067,1063,1063,0,0,0,0,0,0,0,0,0,0,0,0,0,0,0,0,0,0,0,0,0,0,0,0,0,0,0,0,0,0,0,0
0,0,0,0,0,0,0,0,0,0,0,0,1696,1696,1696,1696,1696,1696,1696,1696,1696,1696,1696,1696,1705,1696,1696,1696,1705,1705,1705,1705,1705,1705,1696,1696,1696,1688,1688,1688,1696,1696,1696,1696,1696,1696,1696,1696,1696,1696,1696,1705,1705,1705,1705,1705,1705,1705,1713,1713,1713,1713,1705,1705,1705,1696,1696,1696,1696,1696,1696,1696,1696,1705,1705,1696,1696,1705,1705,1705,1705,0,0,0,0,0,0,0,0,0,1013,1013,1013,1013,1013,1013,1013,1013,1013,1013,0,0,0,0,0,0,0,0,0,0,682,682,680,676,676,675,672,672,671,671,671,671,671,671,671,671,671,671,671,672,672,675,675,676,676,676,676,676,676,678,678,678,679,679,680,682,682,682,683,683,684,684,686,686,686,687,687,687,690,690,691,694,694,696,696,697,698,698,700,700,701,703,704,704,704,706,711,713,714,714,716,719,719,720,720,722,723,725,725,725,725,727,728,730,731,733,734,734,736,738,738,739,739,739,739,741,744,746,747,747,747,747,747,749,750,752,752,754,754,755,757,757,759,759,761,761,761,764,766,766,766,767,767,767,767,769,769,773,774,776,778,780,780,781,781,783,783,785,787,787,789,789,789,790,792,794,794,794,796,796,798,798,800,802,802,803,803,803,805,807,809,809,811,811,813,813,815,815,817,819,819,819,821,821,821,817,817,817,825,827,827,1210,1210,1214,1655,1647,1647,1647,1647,1647,1647,1655,1655,1655,1655,1655,1655,1655,1647,1647,1655,1655,1655,1655,1655,1655,1655,1655,1663,1655,1647,1647,1647,1647,1647,1647,1647,1639,1639,1632,1632,1639,0,0,0,0,0,0,0,0,915,915,913,910,906,906,903,901,901,901,898,898,901,901,901,901,903,906,906,908,908,908,913,913,915,915,915,918,0,0,0,0,0,0,1632,1632,1632,1639,1639,1639,1639,1632,1632,1639,1632,1632,1639,1632,1632,1632,1632,1632,1632,1632,1632,1632,1632,1632,1632,1632,1632,1632,1632,1624,1624,1616,1609,1601,1601,1594,1594,1586,1579,1579,1579,1572,1572,1572,1572,1564,1557,1550,1550,1543,1543,1536,1529,1523,1523,1516,1516,1509,1509,1509,1503,1496,1496,1496,1489,1489,1483,1483,1477,1470,1470,1464,1458,1458,1452,1445,1445,1445,1439,1439,1439,1433,1427,1421,1421,1415,1415,1410,1410,1410,1404,1404,1398,1398,1392,1392,1392,1392,1387,1381,1381,1376,1376,1370,1365,1365,1359,1354,1349,1349,1343,1343,1338,1333,1333,1333,1333,1328,1328,1328,1322,1322,1312,1307,1307,1302,1297,1297,1292,1292,1288,1288,1288,1288,1283,1278,1273,1273,1268,1264,1264,1259,1259,1255,1255,1250,1250,1245,1241,1236,1236,1232,1232,1232,1227,1227,1223,1219,1219,1214,1214,1210,1210,1206,1206,1202,1202,1197,1197,1197,1193,1193,1189,1189,1185,1185,1181,1177,1173,1169,1165,1165,1161,1161,1157,1153,1153,1153,1149,1149,1145,1141,1141,1138,1138,1138,1134,1130,1130,1130,1126,1123,1123,1119,1119,1119,1115,1112,1108,1108,1108,1105,1105,1101,1101,1097,1094,1094,1094,1090,1090,1084,1084,1080,1080,1077,1077,1077,1073,1070,1067,1067,1067,1067,0,0,0,0,0,0,0,0,0,0,0,0,0,0,0,0,0,0,0,0,0,0,0,0,0,0,0,0,0,0,0,0
0,0,0,0,0,0,0,0,0,0,0,0,1696,1696,1696,1696,1696,1696,1696,1696,1696,1696,1696,1696,1696,1696,1696,1696,1696,1696,1696,1696,1696,1696,1696,1696,1688,1688,1688,1688,1688,1688,1696,1696,1696,1696,1696,1696,1696,1688,1688,1696,1696,1696,1696,1696,1705,1705,1705,1705,1705,1696,1696,1696,1696,1688,1688,1688,1696,1696,1696,1696,1696,1696,1696,1696,1696,1696,1688,1688,1688,1688,0,0,0,0,0,0,0,0,1013,1013,1013,1013,1013,1013,1013,1013,1013,1013,0,0,0,0,0,0,0,0,0,0,682,682,680,676,675,674,671,671,670,670,670,670,670,670,670,670,670,670,671,672,672,674,674,674,676,676,676,676,676,678,678,678,679,679,680,682,682,683,683,684,684,686,686,687,687,687,687,687,690,690,694,696,696,696,697,698,698,700,701,703,704,704,706,707,708,710,713,714,716,717,719,719,720,720,722,722,725,725,727,727,727,728,730,731,731,733,734,734,736,738,738,739,739,739,741,741,744,746,747,747,747,749,749,750,750,752,752,754,755,757,757,757,759,759,761,761,762,764,766,766,767,767,767,767,769,769,773,774,776,778,778,780,781,781,783,783,783,785,787,787,789,789,789,790,792,794,794,794,796,796,798,798,802,802,802,803,803,803,807,807,809,809,811,811,813,813,815,815,817,819,819,819,1206,1206,1206,817,817,817,1210,1210,1210,1210,1214,1214,1655,1655,1647,1647,1647,1647,1647,1655,1655,1655,1647,1647,1647,1647,1647,1647,1647,1647,1647,1655,1655,1655,1647,1647,1655,1647,1639,1639,1639,1639,1639,1639,1639,1632,1632,1632,1632,1639,0,0,0,0,0,0,0,918,915,915,913,913,910,908,906,903,903,901,901,901,901,901,901,901,903,906,906,908,908,908,913,913,915,915,918,918,0,0,0,0,0,0,1639,1632,1632,1632,1632,1632,1632,1632,1632,1632,1632,1632,1632,1632,1632,1624,1624,1632,1624,1624,1632,1624,1624,1624,1624,1624,1624,1624,1616,1616,1616,1616,1609,1601,1601,1601,1594,1586,1579,1579,1579,1579,1579,1572,1572,1564,1557,1550,1550,1543,1543,1543,1536,1529,1523,1523,1516,1516,1509,1503,1503,1496,1496,1496,1489,1489,1489,1483,1477,1470,1470,1464,1464,1458,1452,1445,1445,1445,1439,1439,1439,1433,1427,1421,1421,1415,1415,1415,1410,1410,1404,1404,1398,1398,1398,1392,1392,1392,1387,1381,1381,1376,1376,1370,1365,1365,1359,1354,1349,1349,1349,1343,1338,1338,1333,1333,1333,1328,1328,1328,1322,1322,1312,1307,1307,1307,1302,1297,1292,1292,1292,1288,1288,1288,1283,1278,1273,1273,1268,1268,1264,1264,1259,1255,1255,1250,1250,1245,1241,1236,1236,1236,1232,1232,1227,1227,1223,1219,1219,1214,1214,1210,1210,1206,1206,1202,1197,1197,1197,1197,1193,1189,1189,1189,1185,1185,1181,1177,1173,1169,1169,1165,1165,1161,1157,1153,1153,1153,1149,1149,1145,1145,1141,1141,1138,1138,1134,1134,1130,1130,1126,1126,1123,1119,1119,1119,1115,1112,1108,1108,1108,1105,1105,1105,1101,1097,1097,1094,1094,1090,1090,1087,1084,1080,1080,1077,1077,1077,1073,1070,1070,1067,1067,1067,0,0,0,0,0,0,0,0,0,0,0,0,0,0,0,0,0,0,0,0,0,0,0,0,0,0,0,0,0,0,0,0
0,0,0,0,0,0,0,0,0,0,0,0,1688,1688,1688,1688,1688,1688,1688,1688,1688,1688,1696,1696,1688,1688,1688,1688,1688,1696,1696,1696,1688,1688,1688,1688,1680,1680,1680,1680,1688,1688,1688,1688,1688,1688,1688,1688,1688,1688,1688,1688,1688,1688,1696,1696,1696,1696,1696,1696,1696,1688,1688,1688,1688,1688,1688,1688,1688,1688,1688,1688,1688,1696,1696,1688,1688,1688,1688,1680,1671,1663,1663,0,0,0,0,0,0,0,1013,1013,1013,1013,1013,1013,1013,1013,1013,1013,1013,0,0,0,0,0,0,0,0,0,0,682,680,676,674,672,670,668,668,668,668,668,668,668,668,670,670,670,671,671,672,672,672,674,675,675,676,676,676,678,678,678,679,680,680,682,682,683,683,684,684,686,686,687,687,687,688,690,691,693,694,696,696,696,697,701,701,704,704,704,706,706,707,708,711,713,714,716,717,719,719,720,720,722,722,723,725,725,727,727,728,728,730,731,733,733,734,736,736,738,739,739,739,741,741,742,744,746,747,747,747,749,749,752,752,752,754,754,755,757,757,759,759,761,761,762,764,766,766,767,767,767,767,769,769,771,774,774,778,778,780,780,781,781,783,785,785,785,787,789,789,789,790,792,792,794,794,796,796,796,798,800,802,802,803,803,803,805,807,807,809,809,811,811,813,813,815,815,815,1206,1210,1210,1206,1206,1206,1210,1210,1210,1210,1210,1210,1210,1214,1214,1655,1655,1647,1647,1647,1647,1647,1647,1647,1647,1639,1639,1639,1639,1639,1639,1639,1639,1639,1647,1647,1647,1639,1639,1647,1639,1639,1639,1639,1639,1639,1639,1632,1632,1632,1624,1624,0,0,0,0,0,0,0,0,918,915,915,915,913,910,910,908,906,903,903,901,901,901,901,903,903,906,906,906,908,908,910,913,915,915,918,918,920,0,0,0,0,0,0,1632,1624,1624,1624,1616,1616,1624,1624,1624,1624,1624,1624,1624,1624,1624,1616,1616,1616,1616,1616,1624,1624,1624,1624,1624,1624,1624,1616,1616,1609,1609,1609,1609,1601,1601,1594,1594,1586,1586,1579,1579,1579,1579,1579,1572,1564,1557,1557,1550,1550,1543,1543,1536,1529,1523,1523,1516,1516,1509,1503,1503,1496,1496,1496,1489,1489,1489,1483,1477,1470,1470,1464,1464,1458,1458,1452,1452,1445,1445,1439,1439,1433,1427,1421,1421,1415,1415,1415,1410,1410,1410,1404,1398,1398,1398,1392,1392,1392,1387,1381,1381,1376,1376,1370,1370,1365,1359,1354,1349,1349,1349,1343,1343,1338,1333,1333,1333,1328,1328,1328,1322,1322,1312,1307,1307,1307,1302,1297,1292,1292,1292,1288,1288,1288,1283,1278,1273,1273,1268,1268,1264,1264,1259,1255,1255,1250,1250,1250,1241,1241,1236,1236,1232,1232,1232,1227,1223,1219,1219,1219,1214,1210,1210,1206,1206,1202,1197,1197,1197,1197,1193,1189,1189,1189,1185,1185,1181,1177,1173,1169,1169,1165,1165,1161,1157,1153,1153,1153,1149,1149,1145,1145,1141,1141,1138,1138,1134,1134,1134,1130,1126,1126,1123,1123,1119,1119,1119,1112,1108,1108,1108,1105,1105,1105,1101,1097,1097,1094,1094,1090,1090,1087,1087,1084,1080,1080,1077,1077,1073,1073,1070,1070,1067,1067,0,0,0,0,0,0,0,0,0,0,0,0,0,0,0,0,0,0,0,0,0,0,0,0,0,0,0,0,0,0,0,0
0,0,0,0,0,0,0,0,0,0,0,0,1688,1688,1688,1680,1680,1680,1680,1680,1680,1688,1688,1688,1688,1688,1688,1688,1688,1688,1688,1688,1688,1688,1688,1680,1671,1671,1680,1680,1680,1680,1680,1680,1680,1680,1680,1680,1680,1688,1688,1688,1688,1688,1688,1688,1688,1688,1688,1688,1680,1680,1680,1680,1680,1680,1680,1680,1680,1680,1680,1680,1680,1688,1688,1680,1680,1680,1680,1671,1663,1655,1655,1655,0,0,0,0,0,0,0,1013,1013,1013,1013,1013,1013,1013,1013,1013,1013,1013,0,0,0,0,0,0,0,0,0,682,676,676,671,671,670,668,667,667,667,667,667,667,667,667,670,670,670,671,671,672,672,674,675,675,676,676,676,678,678,679,679,680,680,682,682,683,684,684,684,687,687,688,688,690,691,691,693,693,696,697,698,698,701,704,704,704,706,706,707,707,710,710,713,714,717,717,719,719,720,720,722,723,723,725,727,727,727,728,728,730,731,731,733,734,734,736,736,738,739,739,741,741,741,744,746,746,747,747,749,749,750,752,752,754,754,755,755,757,759,759,761,761,762,764,766,766,767,767,767,767,769,769,771,773,774,774,778,778,780,780,781,781,783,785,785,787,787,789,789,790,792,792,794,794,794,796,796,798,798,800,802,802,803,803,803,807,807,809,809,809,811,811,813,813,813,1210,1206,1206,1206,1206,1206,1206,1206,1210,1210,1210,1210,1210,1210,1210,1214,1655,1655,1655,1655,1647,1647,1647,1647,1647,1647,1647,1639,1639,1632,1632,1632,1632,1632,1632,1632,1632,1639,1632,1632,1632,1639,1639,1639,1632,1632,1632,1632,1632,1624,1624,1616,1616,1616,0,0,0,0,0,0,0,0,0,915,915,915,913,910,910,908,906,906,903,903,903,903,903,903,903,906,906,908,908,908,910,913,915,915,918,918,920,0,0,0,0,0,0,1616,1616,1609,1609,1609,1609,1616,1616,1616,1616,1616,1616,1616,1616,1616,1609,1609,1609,1609,1609,1616,1616,1616,1616,1616,1616,1616,1616,1609,1609,1609,1609,1609,1601,1601,1594,1594,1586,1586,1579,1579,1579,1579,1579,1572,1564,1564,1557,1557,1550,1543,1543,1536,1529,1529,1523,1516,1516,1509,1503,1503,1496,1496,1496,1496,1489,1489,1483,1477,1470,1470,1464,1464,1464,1458,1458,1452,1445,1445,1445,1439,1433,1427,1421,1421,1415,1415,1415,1410,1410,1410,1404,1398,1398,1398,1392,1392,1392,1387,1381,1381,1376,1376,1370,1370,1365,1359,1354,1349,1349,1349,1343,1343,1338,1333,1333,1333,1333,1328,1328,1322,1322,1312,1312,1307,1307,1302,1297,1297,1292,1292,1288,1288,1288,1283,1278,1278,1273,1268,1268,1264,1264,1259,1255,1255,1255,1250,1250,1245,1241,1236,1236,1236,1232,1232,1227,1223,1223,1219,1219,1214,1214,1206,1206,1206,1202,1202,1202,1197,1197,1193,1193,1189,1189,1185,1185,1181,1177,1173,1169,1169,1169,1165,1165,1161,1157,1153,1153,1149,1149,1145,1145,1141,1141,1138,1138,1134,1134,1134,1130,1130,1126,1123,1123,1123,1119,1119,1112,1108,1108,1108,1105,1105,1105,1101,1097,1097,1094,1094,1090,1090,1090,1087,1084,1080,1080,1080,1077,1077,1073,1073,1070,1067,1067,0,0,0,0,0,0,0,0,0,0,0,0,0,0,0,0,0,0,0,0,0,0,0,0,0,0,0,0,0,0,0,0
0,0,0,0,0,0,0,0,0,0,0,0,1680,1680,1680,1671,1671,1671,1671,1671,1671,1671,1671,1680,1680,1680,1680,1680,1680,1688,1688,1688,1680,1680,1680,1680,1671,1671,1671,1671,1680,1680,1680,1680,1680,1680,1680,1680,1680,1688,1688,1688,1688,1688,1688,1688,1680,1680,1680,1680,1671,1671,1680,1680,1671,1671,1671,1671,1671,1671,1671,1671,1671,1680,1680,1671,1671,1671,1671,1671,1663,1655,1655,1655,1655,0,0,0,0,0,0,0,1013,1013,1013,1013,1013,1013,1013,1013,1013,1013,0,0,0,0,0,0,0,0,0,682,676,674,671,671,668,667,667,666,666,667,667,667,667,667,670,670,670,671,671,671,672,672,674,675,676,676,676,678,679,680,680,680,680,682,682,683,684,684,686,688,688,690,690,691,693,693,694,696,697,698,700,700,703,706,706,707,707,708,708,710,711,713,716,717,719,719,719,720,720,722,722,723,725,725,727,727,728,728,730,731,731,733,733,734,734,736,736,738,739,739,741,741,742,744,746,746,747,749,749,749,750,752,752,754,754,755,757,757,759,759,761,762,764,766,766,766,767,767,767,767,769,771,773,774,776,778,778,778,780,781,781,781,783,785,785,787,787,789,789,790,792,792,794,794,794,796,796,798,798,800,802,802,803,803,803,807,809,809,809,811,811,811,813,1210,1210,1210,1210,1206,1206,1206,1206,1206,1206,1210,1210,1210,1210,1210,1210,1210,1210,1655,1655,1655,1647,1647,1647,1647,1639,1639,1639,1632,1632,1632,1632,1632,1632,1632,1632,1632,1632,1632,1632,1632,1632,1632,1632,1632,1632,1632,1632,1624,1624,1624,1616,1616,1609,1609,1609,0,0,0,0,0,0,0,0,0,918,918,915,915,913,913,908,906,906,903,903,903,903,903,903,906,906,908,908,908,908,913,913,915,915,918,920,920,0,0,0,0,0,0,1616,1609,1609,1609,1609,1609,1609,1609,1609,1609,1616,1609,1609,1609,1609,1609,1609,1609,1609,1609,1609,1609,1609,1609,1609,1609,1609,1609,1609,1601,1601,1601,1601,1601,1601,1594,1594,1586,1586,1579,1579,1579,1579,1572,1572,1572,1564,1557,1557,1550,1550,1543,1536,1529,1529,1523,1516,1516,1509,1503,1503,1496,1496,1496,1496,1489,1489,1483,1483,1470,1470,1464,1464,1464,1458,1458,1452,1452,1445,1445,1439,1439,1433,1421,1421,1415,1415,1415,1415,1410,1410,1404,1398,1398,1398,1398,1392,1387,1381,1376,1376,1376,1376,1370,1370,1365,1359,1354,1354,1349,1349,1343,1343,1338,1338,1333,1333,1333,1328,1328,1322,1317,1317,1312,1312,1307,1302,1297,1297,1292,1292,1288,1288,1288,1283,1278,1273,1273,1268,1268,1264,1264,1259,1255,1255,1255,1250,1250,1245,1241,1236,1236,1236,1232,1232,1227,1227,1223,1219,1219,1214,1210,1206,1206,1206,1202,1202,1202,1197,1197,1193,1189,1189,1189,1185,1185,1181,1177,1173,1173,1169,1169,1165,1165,1161,1157,1157,1153,1153,1153,1149,1145,1141,1141,1138,1138,1134,1134,1134,1130,1130,1126,1123,1123,1123,1119,1115,1112,1108,1108,1108,1108,1105,1105,1105,1101,1097,1094,1094,1094,1090,1090,1090,1084,1080,1080,1080,1077,1077,1073,1073,1070,1070,1070,0,0,0,0,0,0,0,0,0,0,0,0,0,0,0,0,0,0,0,0,0,0,0,0,0,0,0,0,0,0,0,0
0,0,0,0,0,0,0,0,0,0,0,0,1663,1663,1663,1663,1663,1663,1663,1663,1663,1663,1663,1663,1663,1671,1671,1671,1671,1680,1680,1680,1680,1671,1671,1671,1663,1663,1671,1671,1671,1671,1671,1671,1680,1680,1680,1680,1680,1680,1688,1688,1688,1688,1688,1680,1680,1671,1671,1671,1671,1671,1671,1671,1671,1671,1671,1671,1671,1663,1663,1663,1663,1663,1671,1671,1671,1671,1671,1663,1663,1655,1655,1655,1655,1655,0,0,0,0,0,0,1013,1013,1013,1013,1016,1016,1016,1016,1016,1016,0,0,0,0,0,0,0,0,0,0,676,674,671,671,668,667,667,666,666,666,667,667,667,667,670,670,670,671,671,671,672,672,674,675,676,676,678,679,680,680,680,682,682,682,683,683,684,687,688,690,690,691,691,694,694,694,696,697,703,703,703,703,704,706,707,707,708,710,711,711,713,714,716,719,719,719,720,720,722,722,723,723,725,727,727,728,728,730,731,731,731,733,734,734,734,736,738,738,739,739,741,741,744,746,746,747,747,749,749,750,752,752,754,754,754,755,757,757,759,761,762,764,764,766,766,766,767,767,767,769,769,771,774,776,778,778,778,780,780,781,781,781,783,785,785,787,787,789,789,790,792,794,794,794,796,796,796,798,798,800,802,803,803,803,807,807,809,809,809,809,809,1210,1210,1210,1210,1210,1210,1210,1210,1210,1206,1206,1210,1210,1210,1210,1210,1210,1210,1210,1210,1210,1647,1647,1647,1639,1639,1639,1632,1632,1632,1632,1632,1624,1624,1624,1624,1624,1624,1624,1624,1624,1624,1624,1624,1624,1632,1632,1632,1624,1624,1616,1616,1616,1609,1609,1609,1601,1601,1601,0,0,0,0,0,0,0,0,0,918,918,915,915,913,910,908,906,906,903,903,906,906,906,906,908,908,908,908,908,913,915,915,918,920,920,923,0,0,0,0,0,0,1609,1609,1609,1609,1609,1609,1609,1609,1609,1609,1609,1609,1609,1609,1609,1609,1609,1609,1601,1601,1601,1601,1601,1601,1601,1601,1601,1601,1601,1601,1601,1601,1601,1601,1594,1594,1586,1586,1586,1579,1579,1579,1579,1572,1572,1572,1564,1564,1557,1550,1550,1543,1536,1529,1529,1523,1516,1516,1509,1503,1503,1496,1496,1496,1496,1489,1489,1483,1483,1477,1470,1470,1464,1464,1464,1458,1458,1452,1445,1445,1445,1439,1433,1421,1421,1415,1415,1415,1415,1410,1410,1404,1398,1398,1398,1398,1392,1387,1381,1376,1376,1376,1376,1370,1370,1365,1365,1354,1354,1349,1349,1343,1343,1338,1338,1333,1333,1333,1328,1328,1322,1317,1317,1312,1312,1307,1302,1297,1297,1292,1292,1288,1288,1288,1283,1278,1273,1273,1268,1268,1268,1264,1259,1259,1255,1255,1250,1250,1250,1241,1241,1236,1236,1236,1232,1232,1227,1223,1219,1219,1214,1210,1206,1206,1206,1202,1202,1202,1197,1197,1193,1189,1189,1189,1185,1185,1181,1177,1173,1173,1169,1169,1169,1165,1165,1161,1157,1153,1153,1153,1149,1145,1141,1141,1138,1138,1138,1134,1134,1130,1130,1126,1123,1123,1123,1123,1115,1115,1112,1108,1108,1108,1105,1105,1105,1101,1101,1094,1094,1094,1090,1090,1090,1084,1080,1080,1080,1077,1077,1077,1073,1073,1070,1070,0,0,0,0,0,0,0,0,0,0,0,0,0,0,0,0,0,0,0,0,0,0,0,0,0,0,0,0,0,0,0,0
0,0,0,0,0,0,0,0,0,0,0,0,1663,1655,1655,1655,1655,1655,1655,1655,1655,1655,1655,1655,1655,1663,1663,1663,1663,1663,1663,1663,1663,1663,1663,1663,1663,1663,1663,1663,1663,1663,1663,1671,1671,1671,1680,1680,1680,1680,1680,1680,1680,1680,1680,1671,1671,1671,1663,1663,1663,1663,1663,1663,1663,1663,1663,1663,1663,1663,1663,1663,1663,1663,1663,1663,1663,1663,1663,1663,1655,1655,1655,1655,1655,1655,0,0,0,0,0,0,1016,1016,1016,1016,1016,1016,1016,1016,1016,1016,1019,1019,0,0,0,0,0,0,0,0,0,676,672,671,668,667,667,666,666,666,667,667,667,667,670,670,671,671,671,671,672,672,674,675,676,676,679,680,680,680,682,682,682,683,683,684,684,687,688,691,691,693,694,696,697,697,698,698,703,703,704,704,706,707,708,708,710,711,713,713,713,716,716,719,719,720,720,722,722,723,723,725,727,727,728,728,730,730,731,733,733,733,734,734,736,736,738,739,739,739,741,741,744,746,746,747,747,750,750,752,752,754,754,754,755,757,757,759,761,761,762,764,764,766,766,766,767,767,767,769,771,773,774,776,778,778,780,780,781,781,781,783,785,785,785,787,787,789,790,792,792,794,794,794,796,796,796,798,798,800,802,803,803,805,807,809,809,809,811,811,0,1210,1210,1210,1210,1210,1210,1210,1210,1210,1210,1210,1210,1210,1210,1210,1210,1210,1210,1210,1210,1214,1647,1647,1639,1632,1632,1624,1624,1624,1624,1624,1624,1616,1616,1616,1616,1616,1616,1616,1616,1616,1616,1616,1616,1616,1624,1624,1624,1624,1616,1616,1616,1616,1609,1609,1601,1601,1594,1594,0,0,0,0,0,0,0,0,0,920,918,918,915,915,913,908,908,906,906,906,906,906,906,906,908,908,908,908,910,913,915,915,918,920,923,923,923,0,0,0,0,0,1609,1601,1601,1601,1601,1601,1601,1601,1601,1601,1601,1601,1601,1601,1601,1601,1601,1601,1601,1601,1601,1601,1601,1601,1601,1601,1601,1601,1601,1601,1601,1601,1594,1594,1594,1586,1586,1586,1579,1579,1579,1579,1579,1572,1572,1572,1564,1564,1557,1550,1550,1543,1543,1536,1529,1523,1523,1516,1516,1509,1503,1496,1496,1496,1496,1489,1489,1489,1483,1477,1470,1470,1470,1464,1464,1458,1458,1452,1445,1445,1445,1439,1433,1427,1421,1421,1415,1415,1415,1410,1410,1404,1398,1398,1398,1398,1392,1387,1381,1376,1376,1376,1376,1370,1370,1365,1365,1354,1354,1349,1349,1343,1343,1338,1338,1333,1333,1333,1328,1328,1322,1317,1317,1312,1312,1307,1307,1302,1297,1292,1292,1292,1288,1288,1283,1278,1273,1273,1273,1268,1268,1264,1259,1259,1255,1255,1255,1250,1250,1245,1241,1241,1236,1236,1232,1232,1227,1227,1223,1219,1214,1214,1210,1206,1206,1202,1202,1202,1197,1197,1193,1189,1189,1189,1185,1185,1181,1177,1173,1173,1169,1169,1169,1165,1165,1161,1161,1157,1153,1153,1149,1145,1141,1141,1138,1138,1138,1134,1134,1134,1130,1126,1123,1123,1123,1123,1119,1115,1112,1108,1108,1108,1105,1105,1105,1101,1101,1097,1094,1094,1094,1090,1090,1087,1084,1080,1080,1077,1077,1077,1077,1073,1070,1070,0,0,0,0,0,0,0,0,0,0,0,0,0,0,0,0,0,0,0,0,0,0,0,0,0,0,0,0,0,0,0,0
0,0,0,0,0,0,0,0,0,0,0,0,1655,1655,1655,1655,1655,1655,1655,1655,1655,1655,1655,1655,1655,1655,1655,1655,1655,1655,1655,1655,1647,1647,1655,1655,1655,1663,1663,1663,1663,1663,1663,1663,1663,1671,1671,1671,1680,1680,1680,1680,1671,1671,1671,1671,1663,1663,1663,1663,1663,1663,1663,1663,1663,1663,1663,1663,1655,1655,1655,1655,1655,1655,1663,1655,1655,1655,1655,1655,1655,1647,1647,1647,1647,1647,0,0,0,0,0,0,1019,1019,1019,1016,1016,1016,1019,1019,1019,1019,1019,1019,1022,1022,1022,0,0,0,0,0,0,676,672,671,668,667,667,666,666,667,667,667,668,668,670,671,671,671,671,672,672,674,675,675,676,676,679,680,680,682,682,683,683,684,686,686,688,691,691,693,693,696,696,697,698,698,700,703,703,703,704,706,707,707,710,710,711,711,713,713,714,716,717,719,720,720,720,722,722,723,725,725,727,728,728,728,730,730,731,733,733,733,734,734,736,736,738,739,739,741,741,742,746,746,746,747,749,750,750,752,754,754,754,755,757,757,759,759,761,761,762,764,766,766,766,767,767,769,769,769,771,773,774,778,778,780,780,781,781,781,781,783,785,785,787,787,789,789,790,792,792,794,794,794,796,796,796,798,798,800,803,803,803,805,807,809,809,809,809,809,0,1210,1210,1210,1210,1210,1210,1210,1210,1210,1210,1210,1210,1210,1210,1210,1214,1214,1214,1214,1214,1214,1223,1609,1609,1609,1616,1616,1616,1616,1616,1609,1609,1609,1609,1609,1609,1609,1609,1609,1609,1609,1609,1609,1609,1616,1616,1616,1616,1616,1609,1609,1609,1609,1609,1601,1601,1601,1594,1594,0,0,0,0,0,0,0,0,0,925,925,920,918,915,913,910,908,906,906,906,906,906,906,908,908,908,910,910,913,915,915,918,920,923,923,923,923,0,0,0,0,0,0,1594,1594,1594,1601,1601,1601,1594,1594,1601,1601,1601,1601,1601,1601,1594,1594,1594,1594,1594,1586,1586,1594,1594,1594,1594,1594,1594,1594,1594,1594,1594,1586,1586,1586,1579,1579,1579,1579,1579,1579,1572,1572,1572,1572,1564,1564,1564,1557,1550,1550,1543,1543,1536,1536,1529,1523,1516,1516,1509,1503,1496,1496,1496,1496,1496,1489,1489,1483,1477,1477,1470,1470,1470,1464,1464,1458,1452,1452,1445,1445,1439,1433,1427,1421,1421,1421,1415,1415,1410,1410,1404,1404,1398,1398,1398,1392,1387,1387,1376,1376,1376,1376,1370,1370,1365,1365,1354,1354,1349,1349,1349,1343,1338,1338,1333,1333,1333,1328,1322,1317,1317,1317,1312,1312,1307,1307,1302,1297,1297,1292,1292,1292,1288,1288,1278,1278,1273,1273,1268,1268,1268,1264,1259,1259,1255,1255,1250,1250,1250,1245,1241,1236,1236,1236,1232,1227,1227,1223,1219,1214,1214,1210,1210,1206,1202,1202,1202,1197,1193,1193,1189,1189,1189,1185,1185,1181,1177,1173,1173,1169,1169,1169,1165,1165,1161,1161,1157,1153,1153,1149,1145,1145,1141,1138,1138,1138,1134,1134,1134,1130,1126,1123,1123,1123,1119,1119,1115,1112,1108,1108,1108,1105,1105,1105,1101,1101,1097,1094,1094,1094,1090,1090,1087,1084,1080,1080,1077,1077,1077,1077,1073,1070,1070,0,0,0,0,0,0,0,0,0,0,0,0,0,0,0,0,0,0,0,0,0,0,0,0,0,0,0,0,0,0,0,0
0,0,0,0,0,0,0,0,0,0,0,1647,1647,1647,1647,1647,1647,1647,1647,1647,1647,1647,1655,1655,1655,1655,1655,1655,1655,1647,1647,1647,1647,1647,1647,1647,1647,1647,1655,1655,1663,1663,1663,1663,1663,1663,1655,1655,1663,1663,1671,1671,1671,1663,1663,1663,1663,1663,1663,1663,1663,1663,1655,1655,1655,1655,1655,1655,1655,1647,1647,1655,1655,1655,1655,1655,1655,1655,1655,1655,1655,1647,1647,1647,1647,1647,0,0,0,0,0,0,0,1019,1019,1019,1019,1019,1019,1019,1019,1019,1019,1022,1022,1022,1022,0,0,0,0,0,0,0,672,671,670,668,667,667,667,667,667,667,668,668,670,671,671,672,672,672,674,674,675,676,676,678,679,680,682,682,683,683,684,686,686,687,691,693,696,697,698,697,697,698,698,701,703,703,703,704,704,707,707,710,710,710,711,713,713,714,716,716,716,717,720,720,722,722,723,725,725,727,727,728,728,730,731,731,733,733,733,734,734,736,736,738,738,739,739,741,742,744,746,746,747,747,749,750,750,752,754,754,755,757,757,759,759,761,761,762,764,764,766,766,767,767,767,769,771,771,773,774,774,778,778,780,780,781,781,781,781,783,785,785,787,787,789,789,790,790,792,792,794,794,796,796,798,800,800,802,803,805,805,805,807,809,809,0,809,0,0,1210,1210,1210,1210,1210,1210,1210,1210,1210,1210,1210,1210,1210,1214,1214,1214,1214,1214,1214,1219,1219,1223,1609,1609,1609,1609,1609,1601,1601,1609,1609,1609,1601,1601,1601,1601,1601,1601,1601,1601,1601,1601,1601,1601,1609,1609,1609,1609,1609,1609,1609,1609,1609,1601,1601,1601,1601,1601,1601,1601,0,0,0,0,0,0,0,0,930,928,925,920,918,915,910,908,908,908,908,908,908,908,908,908,910,910,910,913,915,918,918,920,923,923,920,920,0,0,0,0,0,0,1586,1586,1586,1594,1594,1586,1586,1586,1594,1594,1594,1594,1594,1594,1586,1586,1586,1586,1586,1586,1586,1586,1586,1586,1586,1586,1586,1594,1586,1586,1586,1586,1586,1579,1579,1579,1579,1579,1572,1572,1572,1572,1572,1564,1564,1564,1557,1557,1550,1550,1543,1543,1536,1536,1529,1523,1523,1516,1509,1509,1503,1503,1496,1496,1496,1489,1489,1483,1483,1477,1477,1470,1470,1464,1464,1458,1452,1452,1445,1445,1445,1433,1427,1421,1421,1421,1415,1415,1415,1410,1404,1404,1398,1398,1398,1392,1387,1387,1376,1376,1376,1376,1370,1370,1365,1365,1354,1354,1349,1349,1349,1349,1343,1338,1333,1333,1333,1328,1322,1317,1317,1317,1312,1312,1307,1307,1302,1297,1297,1292,1292,1292,1288,1288,1278,1278,1273,1273,1273,1268,1268,1264,1259,1259,1255,1255,1250,1250,1250,1245,1241,1236,1236,1236,1232,1232,1227,1227,1223,1219,1214,1214,1214,1210,1202,1202,1202,1197,1193,1193,1189,1189,1189,1185,1185,1181,1181,1173,1173,1169,1169,1165,1165,1165,1165,1161,1157,1157,1153,1149,1145,1145,1141,1138,1138,1138,1134,1134,1134,1130,1130,1126,1123,1123,1119,1119,1115,1112,1112,1108,1108,1108,1105,1105,1105,1101,1097,1097,1094,1094,1094,1090,1087,1084,1080,1080,1077,1077,1077,1077,1073,1070,1070,0,0,0,0,0,0,0,0,0,0,0,0,0,0,0,0,0,0,0,0,0,0,0,0,0,0,0,0,0,0,0,0
0,0,0,0,0,0,0,0,0,0,0,1639,1639,1639,1639,1647,1647,1647,1647,1647,1647,1647,1647,1647,1647,1647,1647,1639,1639,1639,1639,1639,1632,1632,1632,1639,1639,1639,1647,1647,1655,1655,1655,1655,1655,1655,1647,1647,1647,1647,1655,1663,1663,1663,1663,1663,1655,1655,1655,1655,1655,1655,1655,1655,1655,1655,1655,1655,1647,1647,1647,1647,1647,1647,1647,1647,1647,1647,1647,1647,1647,1647,1647,1647,1647,1647,0,0,0,0,0,0,0,0,1019,1019,1019,1019,1019,1019,1019,1022,1022,1022,1022,1025,1025,0,0,0,0,0,0,0,0,671,670,668,668,667,667,667,668,668,668,670,670,671,671,672,672,672,674,675,676,676,678,679,680,680,683,683,683,684,684,686,687,688,691,694,696,697,698,698,698,701,703,703,703,704,704,704,706,707,708,710,710,713,713,713,714,714,716,716,716,717,720,722,722,723,725,725,725,727,727,728,728,730,731,731,733,733,733,734,736,736,736,738,738,739,739,741,742,746,746,747,747,747,749,750,750,752,754,755,755,757,759,759,761,761,761,762,764,766,766,767,767,767,767,771,771,773,773,774,778,778,778,780,780,781,781,781,781,783,785,785,787,787,789,789,790,790,792,792,794,794,796,796,798,800,802,802,805,805,805,1609,1601,1601,1601,0,0,0,1210,1210,1210,1210,1210,1210,1210,1210,1210,1210,1210,1210,1210,1210,1214,1214,1214,1214,1214,1214,1219,1223,1223,1601,1601,1601,1601,1601,1601,1601,1601,1601,1601,1601,1601,1601,1601,1601,1601,1594,1594,1594,1594,1594,1594,1601,1601,1601,1601,1601,1601,1601,1601,1601,1601,1601,1601,1594,1594,1594,1594,0,0,0,0,0,0,0,0,935,930,925,920,918,915,913,910,908,908,908,908,908,908,908,908,910,913,913,915,915,918,918,920,923,923,920,920,0,0,0,0,0,0,1579,1579,1579,1579,1586,1586,1579,1579,1586,1586,1586,1586,1586,1586,1579,1579,1579,1579,1579,1579,1579,1579,1579,1579,1579,1579,1579,1579,1579,1579,1579,1572,1572,1579,1572,1572,1572,1572,1572,1572,1572,1572,1572,1564,1564,1564,1557,1557,1550,1550,1543,1543,1543,1536,1536,1523,1523,1516,1516,1509,1503,1503,1503,1496,1496,1489,1489,1483,1483,1477,1477,1470,1470,1464,1464,1458,1452,1452,1445,1445,1439,1439,1433,1427,1421,1421,1415,1415,1415,1410,1404,1404,1398,1398,1398,1392,1392,1387,1381,1381,1376,1376,1370,1370,1365,1365,1354,1354,1349,1349,1349,1349,1343,1338,1333,1333,1333,1328,1328,1322,1317,1317,1312,1312,1312,1307,1302,1297,1297,1292,1292,1292,1292,1288,1283,1278,1273,1273,1273,1268,1268,1264,1264,1259,1255,1255,1250,1250,1250,1245,1241,1236,1236,1236,1232,1232,1227,1227,1223,1219,1214,1214,1214,1210,1206,1202,1202,1197,1197,1193,1189,1189,1189,1185,1185,1181,1181,1177,1173,1173,1169,1165,1165,1165,1165,1161,1157,1157,1157,1153,1149,1145,1141,1141,1138,1138,1134,1134,1134,1130,1130,1126,1123,1123,1119,1119,1115,1112,1112,1108,1108,1108,1105,1105,1105,1101,1097,1097,1094,1094,1090,1090,1087,1084,1084,1080,1080,1077,1077,1077,1073,1070,1070,0,0,0,0,0,0,0,0,0,0,0,0,0,0,0,0,0,0,0,0,0,0,0,0,0,0,0,0,0,0,0,0
0,0,0,0,0,0,0,0,0,0,0,1639,1639,1639,1639,1639,1639,1639,1647,1647,1639,1639,1639,1639,1639,1639,1639,1632,1632,1632,1632,1632,1624,1624,1632,1632,1632,1632,1639,1632,1632,1647,1632,1632,1632,1632,1624,1624,1639,1639,1639,1655,1655,1655,1655,1655,1655,1647,1647,1647,1647,1647,1647,1647,1647,1647,1647,1647,1647,1639,1639,1639,1639,1639,1639,1639,1639,1639,1647,1647,1647,1639,1639,1639,1639,1639,0,0,0,0,0,0,0,1022,1019,1019,1019,1019,1019,1019,1019,1022,1022,1022,1025,1025,1025,1031,0,0,0,0,0,0,0,671,670,668,668,668,667,667,668,668,668,670,671,672,672,672,672,674,675,676,676,680,680,680,682,682,684,684,684,684,684,686,687,690,693,696,697,698,698,700,701,703,703,704,704,704,704,707,707,708,708,711,711,713,713,714,714,716,716,716,716,719,720,722,722,723,725,727,727,727,728,728,730,730,731,733,733,733,734,734,736,736,738,738,739,739,741,741,742,746,747,747,747,747,750,750,752,752,755,755,757,759,759,761,761,761,761,762,764,766,766,767,767,767,769,771,771,773,773,774,778,778,778,780,780,781,781,781,781,783,785,785,787,787,789,790,790,792,792,794,794,794,796,796,1609,1601,1609,1609,1609,1601,1601,1601,1601,1601,1594,1594,1594,0,1210,1210,1210,1214,1214,1214,1214,1214,1210,1210,1210,1210,1214,1214,1214,1214,1214,1219,1219,1219,1219,1223,1223,1594,1594,1594,1601,1601,1601,1601,1594,1594,1594,1594,1594,1594,1594,1594,1594,1594,1594,1594,1594,1594,1594,1601,1601,1601,1601,1601,1601,1601,1601,1601,1601,1594,1594,1594,1594,1594,1594,0,0,0,0,0,0,0,0,935,930,928,923,918,915,915,910,910,908,908,908,908,908,910,910,913,913,913,915,915,918,918,920,923,923,920,920,0,0,0,0,0,0,1579,1579,1579,1579,1579,1579,1579,1579,1579,1579,1579,1579,1579,1579,1579,1579,1579,1579,1579,1579,1579,1579,1579,1579,1579,1572,1572,1572,1572,1572,1572,1564,1564,1572,1572,1572,1572,1572,1564,1564,1564,1564,1564,1564,1564,1564,1557,1557,1550,1550,1550,1543,1543,1543,1536,1529,1523,1516,1516,1509,1509,1503,1503,1496,1496,1496,1489,1489,1483,1477,1477,1470,1470,1464,1464,1458,1452,1452,1445,1445,1439,1439,1433,1427,1421,1421,1421,1415,1415,1415,1410,1404,1404,1398,1398,1392,1392,1387,1381,1381,1376,1376,1370,1370,1370,1365,1354,1354,1349,1349,1349,1349,1343,1338,1333,1333,1333,1328,1328,1322,1322,1317,1317,1312,1312,1307,1302,1302,1297,1292,1292,1292,1292,1288,1283,1283,1278,1278,1273,1268,1268,1264,1264,1259,1255,1255,1255,1250,1250,1245,1241,1241,1236,1236,1236,1232,1232,1227,1223,1219,1219,1214,1214,1210,1206,1202,1202,1197,1197,1193,1193,1189,1189,1185,1185,1181,1181,1177,1173,1173,1169,1165,1165,1165,1165,1161,1157,1157,1157,1153,1149,1145,1145,1141,1138,1138,1138,1138,1134,1134,1130,1126,1126,1123,1119,1119,1119,1115,1112,1112,1108,1108,1105,1105,1105,1101,1101,1097,1094,1094,1090,1090,1087,1084,1084,1080,1080,1077,1077,1077,1073,1070,1070,0,0,0,0,0,0,0,0,0,0,0,0,0,0,0,0,0,0,0,0,0,0,0,0,0,0,0,0,0,0,0,0
0,0,0,0,0,0,0,0,0,0,0,1632,1632,1639,1639,1639,1639,1639,1639,1639,1632,1632,1632,1639,1632,1632,1632,1632,1632,1624,1624,1624,1624,1624,1624,1624,1624,1624,1632,1632,1632,1639,1632,1624,1624,1632,1624,1624,1632,1632,1632,1647,1647,1639,1639,1647,1639,1639,1639,1639,1639,1639,1639,1639,1639,1639,1639,1639,1639,1639,1639,1632,1632,1639,1632,1632,1632,1632,1639,1639,1639,1639,1639,1639,1639,1639,0,0,0,0,0,0,0,1022,1022,1019,1019,1019,1019,1019,1022,1022,1022,1025,1025,1025,1028,1031,0,0,0,0,0,0,0,672,671,670,670,668,668,668,668,670,670,670,672,672,674,674,676,676,679,679,680,682,682,682,682,684,684,684,686,686,687,687,690,691,694,697,697,698,700,701,701,703,704,704,704,704,704,707,708,708,710,711,713,714,714,714,716,716,716,717,717,719,720,722,723,723,725,727,727,727,728,730,730,731,731,733,733,733,734,734,736,738,738,738,739,739,741,742,744,747,747,747,747,750,750,752,752,754,755,755,757,759,759,761,761,762,762,764,764,766,767,767,767,769,769,771,773,773,773,774,778,778,778,780,780,781,781,781,781,783,785,787,787,787,789,790,792,792,792,792,792,1601,1601,1609,1609,1601,1601,1601,1601,1601,1601,1594,1594,1594,1594,1594,0,0,1210,1210,1210,1214,1214,1214,1214,1214,1214,1214,1214,1214,1214,1214,1214,1214,1214,1219,1219,1219,1219,1223,1223,1594,1594,1594,1594,1594,1594,1594,1594,1594,1594,1594,1594,1586,1586,1586,1586,1586,1579,1579,1586,1586,1586,1594,1586,1586,1586,1594,1594,1594,1594,1594,1594,1594,1594,1594,1594,1594,0,0,0,0,0,0,0,0,0,0,930,928,925,920,918,915,913,910,908,908,908,908,910,910,910,913,915,915,918,918,920,920,920,923,923,923,923,0,0,0,0,0,1572,1572,1572,1572,1572,1572,1572,1572,1572,1572,1572,1572,1564,1564,1572,1572,1572,1572,1572,1572,1572,1572,1572,1572,1572,1572,1564,1564,1564,1564,1564,1564,1564,1564,1564,1564,1564,1564,1564,1557,1557,1557,1557,1557,1557,1557,1557,1557,1550,1550,1550,1550,1550,1543,1543,1543,1536,1523,1516,1516,1516,1509,1503,1503,1496,1496,1496,1489,1489,1483,1483,1477,1470,1470,1464,1464,1458,1452,1452,1452,1445,1445,1439,1433,1427,1427,1421,1421,1415,1415,1415,1410,1404,1404,1398,1398,1392,1392,1387,1381,1381,1376,1376,1370,1370,1370,1365,1354,1354,1349,1349,1349,1349,1343,1338,1338,1333,1333,1328,1328,1322,1322,1317,1317,1312,1312,1307,1302,1302,1297,1292,1292,1292,1292,1288,1283,1283,1278,1278,1273,1273,1268,1268,1264,1259,1255,1255,1255,1250,1250,1245,1241,1241,1236,1236,1236,1232,1232,1227,1223,1223,1219,1214,1214,1210,1206,1202,1202,1197,1197,1193,1193,1193,1189,1185,1185,1181,1181,1177,1173,1169,1169,1165,1165,1165,1165,1161,1157,1157,1157,1153,1153,1149,1145,1145,1141,1138,1138,1138,1134,1134,1130,1126,1126,1123,1123,1123,1119,1115,1112,1112,1108,1108,1105,1105,1105,1101,1101,1097,1094,1094,1090,1090,1087,1084,1084,1080,1080,1080,1077,1077,1073,1070,1070,0,0,0,0,0,0,0,0,0,0,0,0,0,0,0,0,0,0,0,0,0,0,0,0,0,0,0,0,0,0,0,0
0,0,0,0,0,0,0,0,0,0,0,1632,1632,1632,1632,1632,1632,1632,1632,1632,1632,1632,1632,1632,1632,1632,1624,1624,1624,1624,1624,1616,1616,1616,1624,1624,1624,1624,1624,1632,1632,1632,1632,1624,1624,1632,1624,1624,1624,1624,1624,1632,1632,1632,1632,1632,1632,1632,1632,1632,1632,1632,1632,1632,1632,1632,1632,1632,1639,1632,1632,1632,1632,1632,1632,1632,1632,1632,1632,1632,1632,1632,1632,1632,1632,1632,0,0,0,0,0,0,0,1022,1022,1022,1022,1022,1022,1022,1022,1022,1022,1025,1025,1025,1028,1031,1031,0,0,0,0,0,0,672,671,670,670,668,668,668,670,670,671,674,674,675,675,676,678,679,680,680,680,682,682,683,684,686,686,686,686,686,687,688,690,691,693,697,697,698,700,701,701,703,704,704,704,704,706,708,708,710,710,713,713,714,716,716,716,716,717,717,717,719,720,722,722,725,727,727,728,728,728,730,730,731,731,733,733,734,734,736,736,738,738,739,739,741,741,742,747,747,747,747,749,750,752,752,752,754,755,757,757,759,759,761,761,762,762,764,764,766,767,767,767,769,769,771,773,773,774,776,778,778,778,780,780,781,781,781,781,783,785,785,785,787,789,789,789,1572,1579,1579,1579,1601,1601,1601,1601,1601,1601,1601,1601,1601,1594,1594,1594,1594,1594,1594,1594,0,1214,1214,1214,1214,1219,1214,1214,1214,1214,1214,1214,1214,1214,1214,1214,1214,1219,1219,1219,1219,1223,1227,1227,1232,1594,1594,1594,1594,1594,1586,1586,1586,1586,1586,1586,1586,1579,1579,1586,1586,1579,1579,1579,1579,1579,1586,1586,1586,1586,1586,1586,1586,1586,1594,1594,1586,1586,1586,1586,1586,1586,0,0,0,0,0,0,0,0,0,930,928,925,923,920,915,913,910,910,910,910,910,910,910,910,913,915,915,918,918,920,920,920,923,923,923,923,0,0,0,0,0,1572,1572,1572,1572,1572,1572,1564,1564,1564,1564,1564,1557,1557,1557,1557,1564,1564,1564,1572,1572,1572,1572,1564,1564,1564,1564,1557,1557,1557,1557,1557,1557,1557,1557,1557,1557,1557,1557,1557,1557,1557,1557,1550,1550,1550,1550,1550,1550,1550,1550,1550,1550,1550,1543,1543,1543,1536,1523,1516,1516,1516,1509,1509,1503,1503,1496,1496,1489,1489,1483,1483,1477,1470,1470,1464,1464,1458,1458,1452,1452,1445,1445,1439,1439,1433,1433,1427,1421,1421,1415,1415,1410,1410,1404,1404,1398,1392,1392,1387,1381,1381,1376,1376,1376,1370,1370,1365,1354,1354,1349,1349,1349,1349,1343,1338,1338,1333,1333,1328,1328,1322,1322,1317,1317,1312,1312,1307,1307,1302,1297,1297,1292,1292,1292,1288,1283,1283,1278,1278,1273,1273,1268,1268,1264,1259,1259,1255,1255,1250,1250,1245,1245,1241,1236,1236,1236,1232,1227,1227,1223,1223,1219,1219,1214,1214,1210,1206,1202,1202,1197,1197,1193,1193,1189,1185,1185,1181,1181,1177,1173,1169,1169,1165,1165,1165,1165,1161,1157,1157,1153,1153,1153,1153,1149,1145,1141,1138,1138,1138,1134,1134,1130,1126,1126,1123,1123,1123,1119,1119,1115,1112,1112,1108,1105,1105,1105,1101,1101,1097,1097,1094,1094,1090,1090,1087,1084,1080,1080,1080,1077,1077,1073,1070,1070,0,0,0,0,0,0,0,0,0,0,0,0,0,0,0,0,0,0,0,0,0,0,0,0,0,0,0,0,0,0,0,0
0,0,0,0,0,0,0,0,0,0,0,1624,1624,1624,1624,1624,1624,1624,1624,1624,1624,1632,1632,1632,1632,1624,1624,1624,1616,1616,1616,1616,1616,1616,1624,1624,1624,1624,1624,1624,1632,1632,1632,1624,1624,1624,1624,1624,1624,1616,1616,1624,1624,1624,1624,1624,1624,1624,1624,1624,1624,1624,1632,1632,1632,1632,1632,1632,1632,1632,1624,1624,1624,1624,1624,1624,1624,1624,1624,1632,1624,1624,1624,1624,1624,1624,1624,0,0,0,0,0,0,1025,1022,1022,1022,1022,1022,1022,1022,1022,1025,1025,1025,1025,1028,1031,1031,0,0,0,0,0,0,0,671,670,670,670,670,670,670,671,672,674,675,675,676,678,679,680,680,680,683,683,684,684,686,686,686,686,687,687,688,688,690,691,693,697,697,698,700,701,701,703,704,704,706,706,707,708,710,710,710,713,713,714,716,716,716,717,719,719,719,720,720,722,722,725,725,727,727,727,728,728,730,731,733,733,733,734,734,736,736,738,738,739,739,741,742,744,747,747,747,749,749,752,752,752,754,754,755,757,759,759,761,761,761,762,762,764,766,766,767,767,769,769,769,771,773,773,774,776,778,778,778,780,781,781,781,783,783,783,785,785,785,785,1564,1564,1564,1572,1579,1579,1579,1579,1586,1586,1594,1594,1594,1594,1594,1594,1594,1594,1594,1594,1586,1586,1586,0,1564,1564,1219,1219,1219,1214,1214,1214,1214,1214,1214,1214,1214,1214,1219,1219,1219,1223,1223,1227,1227,1227,1227,1232,1586,1586,1586,1586,1586,1579,1579,1572,1572,1579,1579,1579,1572,1572,1579,1579,1572,1572,1572,1572,1572,1579,1579,1579,1579,1579,1579,1579,1579,1579,1586,1579,1579,1579,1579,1586,1586,0,0,0,0,0,0,0,0,935,930,928,928,923,920,918,913,913,910,910,910,910,910,910,910,913,915,915,918,918,920,923,923,923,923,923,923,0,0,0,0,0,1572,1564,1564,1564,1564,1564,1557,1557,1557,1557,1557,1557,1550,1550,1557,1557,1564,1564,1564,1564,1564,1564,1557,1557,1557,1557,1550,1550,1550,1550,1550,1557,1557,1557,1557,1550,1550,1550,1550,1550,1550,1550,1550,1550,1550,1550,1550,1550,1550,1550,1550,1550,1543,1543,1536,1536,1523,1523,1516,1516,1516,1516,1516,1509,1503,1496,1496,1489,1489,1483,1483,1477,1470,1470,1464,1464,1458,1458,1458,1452,1445,1445,1439,1439,1433,1433,1427,1421,1421,1415,1415,1410,1410,1404,1404,1398,1392,1392,1387,1381,1381,1376,1376,1376,1370,1370,1365,1365,1354,1354,1349,1349,1349,1343,1343,1338,1338,1333,1328,1328,1322,1322,1322,1317,1312,1312,1307,1307,1302,1302,1297,1292,1292,1292,1288,1288,1283,1278,1278,1273,1273,1268,1268,1264,1259,1259,1255,1255,1255,1250,1250,1245,1241,1241,1236,1236,1232,1227,1227,1223,1223,1219,1219,1214,1214,1210,1206,1202,1202,1197,1197,1193,1193,1189,1189,1185,1181,1181,1177,1177,1173,1169,1165,1165,1165,1165,1161,1157,1157,1153,1153,1153,1149,1149,1145,1141,1138,1138,1138,1134,1134,1130,1130,1126,1123,1123,1123,1119,1119,1115,1112,1112,1108,1108,1105,1105,1105,1101,1097,1097,1094,1090,1090,1090,1087,1087,1084,1080,1080,1077,1077,1073,1070,1070,0,0,0,0,0,0,0,0,0,0,0,0,0,0,0,0,0,0,0,0,0,0,0,0,0,0,0,0,0,0,0,0
0,0,0,0,0,0,0,0,0,0,0,1616,1616,1609,1609,1616,1616,1616,1616,1616,1616,1624,1624,1632,1624,1624,1616,1609,1609,1609,1609,1609,1609,1609,1616,1616,1616,1616,1624,1624,1624,1624,1624,1624,1624,1624,1624,1616,1609,1609,1609,1609,1609,1609,1609,1616,1616,1616,1616,1616,1616,1616,1616,1624,1624,1624,1624,1624,1632,1624,1624,1616,1616,1616,1624,1616,1616,1616,1624,1624,1624,1616,1616,1616,1616,1601,1601,0,0,0,0,0,0,1025,1025,1022,1022,1022,1022,1022,1022,1025,1025,1025,1025,1025,1028,1031,1034,0,0,1050,1050,1050,0,0,0,670,670,667,667,667,668,670,672,674,675,676,678,680,680,680,680,682,684,684,684,686,686,687,687,687,687,687,688,688,690,691,694,696,697,698,700,701,703,703,704,704,706,707,707,708,710,710,711,713,713,714,716,716,716,717,719,719,720,720,722,722,723,725,725,727,727,727,728,728,731,731,733,733,734,734,734,736,738,738,739,739,741,742,744,746,747,749,749,750,750,752,752,754,754,754,755,757,759,759,761,761,761,762,762,764,766,766,767,767,769,769,771,771,773,773,774,776,778,778,778,780,781,781,781,783,783,785,785,787,787,1572,1564,1564,1564,1572,1579,1579,1579,1579,1586,1586,1586,1586,1586,1586,1594,1594,1586,1586,1586,1586,1586,1579,1579,1564,1564,1564,0,1219,1219,1219,1219,1214,1214,1214,1214,1214,1214,1219,1219,1219,1223,1223,1227,1227,1227,1227,1227,1232,1586,1586,1579,1579,1579,1579,1572,1572,1572,1572,1572,1572,1572,1572,1572,1572,1572,1572,1572,1572,1572,1572,1572,1572,1572,1572,1572,1572,1572,1572,1579,1579,1572,1572,1579,1579,1579,0,0,0,0,0,0,0,0,935,933,930,928,925,920,918,915,913,910,910,910,910,913,913,913,913,915,918,918,920,920,923,923,925,925,923,923,0,0,0,0,0,0,1564,1557,1557,1557,1557,1550,1550,1550,1550,1550,1550,1543,1543,1550,1550,1557,1557,1557,1557,1557,1557,1557,1550,1550,1550,1550,1550,1550,1550,1550,1550,1550,1550,1550,1550,1550,1550,1550,1550,1550,1550,1543,1543,1543,1550,1550,1550,1550,1543,1543,1543,1543,1543,1536,1536,1523,1516,1516,1516,1516,1516,1516,1509,1509,1503,1496,1489,1489,1483,1477,1470,1470,1470,1464,1464,1464,1458,1458,1452,1445,1445,1439,1439,1433,1433,1427,1421,1421,1421,1415,1415,1410,1404,1398,1398,1392,1392,1392,1387,1381,1376,1376,1376,1370,1370,1370,1365,1354,1354,1349,1349,1349,1349,1343,1343,1338,1333,1328,1328,1322,1322,1322,1317,1312,1312,1307,1307,1302,1302,1297,1292,1292,1292,1288,1288,1283,1278,1278,1273,1268,1268,1268,1264,1259,1259,1255,1255,1255,1250,1250,1245,1245,1241,1236,1236,1232,1232,1227,1223,1223,1219,1219,1214,1214,1210,1206,1206,1202,1197,1197,1197,1193,1193,1189,1185,1185,1181,1181,1177,1173,1173,1169,1169,1165,1165,1161,1157,1157,1153,1153,1153,1149,1149,1145,1141,1141,1138,1138,1134,1134,1134,1130,1126,1123,1123,1123,1119,1119,1115,1112,1112,1108,1108,1105,1105,1105,1105,1101,1097,1094,1090,1090,1090,1087,1084,1084,1080,1080,1077,1077,1077,1070,1070,0,0,0,0,0,0,0,0,0,0,0,0,0,0,0,0,0,0,0,0,0,0,0,0,0,0,0,0,0,0,0,0
0,0,0,0,0,0,0,0,0,0,0,1616,1609,1601,1601,1609,1609,1609,1609,1609,1609,1616,1616,1624,1616,1609,1609,1609,1609,1609,1609,1609,1609,1609,1609,1609,1616,1616,1616,1616,1616,1616,1616,1616,1616,1609,1609,1609,1601,1601,1601,1601,1601,1601,1601,1609,1609,1609,1609,1609,1616,1616,1616,1616,1616,1616,1616,1616,1624,1616,1616,1609,1609,1609,1609,1609,1609,1609,1609,1616,1609,1601,1601,1601,1601,1594,1594,0,0,0,0,0,0,1025,1025,1025,1022,1022,1022,1022,1025,1025,1025,1025,1028,1028,1028,1031,1034,1034,1038,1050,1050,1050,0,0,0,0,0,667,667,667,668,670,674,675,676,679,679,680,680,680,682,683,684,684,684,686,686,687,687,687,687,687,688,688,690,690,693,696,697,698,700,701,703,703,704,706,706,707,707,708,710,710,711,713,713,714,716,716,716,717,719,719,720,720,722,722,723,725,725,727,728,728,728,728,731,733,733,734,734,736,736,738,738,739,739,741,741,744,744,746,747,750,750,750,752,752,754,754,754,755,755,757,759,761,761,761,762,762,764,764,766,766,767,767,769,769,771,771,773,773,774,776,778,778,778,781,781,781,783,783,783,1564,1564,1572,1572,1572,1572,1564,1564,1572,1572,1572,1572,1572,1579,1579,1579,1572,1572,1572,1572,1572,1579,1579,1579,1579,1579,1572,1572,1564,1564,1564,0,1219,1219,1219,1219,1214,1214,1214,1214,1214,1219,1219,1219,1219,1223,1223,1227,1227,1227,1227,1232,1232,1586,1586,1572,1572,1572,1572,1572,1572,1572,1564,1564,1564,1564,1564,1564,1564,1564,1564,1564,1564,1564,1572,1572,1572,1572,1572,1572,1564,1564,1564,1564,1564,1564,1572,1572,1572,1572,1572,0,0,0,0,0,0,0,0,933,930,928,925,923,918,915,915,913,913,913,913,913,913,913,915,915,918,918,920,923,923,925,925,925,925,925,0,0,0,0,0,0,1550,1550,1550,1550,1550,1550,1543,1543,1543,1543,1543,1543,1543,1543,1543,1543,1543,1550,1550,1550,1550,1550,1550,1550,1550,1550,1543,1543,1543,1543,1543,1543,1543,1543,1543,1543,1543,1543,1543,1543,1543,1543,1536,1536,1543,1543,1543,1543,1543,1543,1543,1543,1536,1529,1523,1523,1516,1516,1516,1516,1516,1516,1509,1509,1503,1496,1489,1489,1483,1477,1470,1470,1470,1464,1464,1464,1458,1458,1458,1452,1445,1445,1439,1439,1433,1427,1427,1421,1421,1421,1415,1415,1410,1398,1398,1392,1392,1392,1387,1381,1376,1376,1376,1370,1370,1370,1365,1354,1354,1349,1349,1349,1349,1343,1343,1338,1333,1328,1328,1328,1328,1322,1317,1317,1312,1307,1307,1302,1302,1297,1292,1292,1288,1288,1288,1283,1278,1278,1273,1268,1268,1268,1268,1259,1259,1255,1255,1255,1250,1250,1245,1245,1241,1236,1236,1232,1232,1227,1223,1223,1219,1219,1214,1214,1210,1206,1206,1202,1202,1197,1197,1197,1193,1189,1185,1185,1181,1181,1177,1177,1173,1169,1169,1169,1165,1165,1161,1157,1153,1153,1153,1149,1149,1145,1145,1141,1141,1138,1138,1134,1134,1130,1126,1123,1123,1123,1119,1119,1115,1112,1112,1108,1108,1105,1105,1105,1105,1101,1097,1094,1090,1090,1090,1087,1084,1084,1080,1080,1077,1077,1073,1070,1070,0,0,0,0,0,0,0,0,0,0,0,0,0,0,0,0,0,0,0,0,0,0,0,0,0,0,0,0,0,0,0,0
0,0,0,0,0,0,0,0,0,0,0,1609,1609,1601,1601,1601,1601,1601,1601,1601,1601,1609,1609,1609,1609,1609,1609,1601,1601,1601,1601,1601,1601,1601,1601,1601,1609,1609,1609,1601,1601,1601,1601,1609,1609,1609,1601,1601,1601,1601,1601,1601,1601,1601,1601,1601,1601,1601,1601,1601,1609,1609,1609,1609,1609,1601,1601,1609,1609,1609,1609,1609,1609,1609,1609,1609,1601,1601,1601,1609,1601,1601,1594,1594,1594,1586,1586,0,0,0,0,0,0,1025,1025,1025,1025,1025,1025,1025,1025,1025,1025,1028,1028,1028,1031,1031,1034,1034,1038,1038,1038,1047,0,0,0,0,0,0,0,0,0,0,679,679,679,679,680,680,682,682,683,683,684,684,686,686,686,687,687,687,687,688,688,690,690,690,693,696,698,698,701,703,703,704,704,706,706,707,708,708,710,710,711,713,713,714,716,716,717,717,719,720,720,720,722,723,725,727,727,728,728,728,728,731,731,733,733,734,736,736,738,738,739,739,741,741,742,744,746,747,747,750,750,752,752,754,754,754,754,755,755,757,759,761,761,761,762,764,764,766,766,766,767,767,769,769,771,771,773,773,776,776,776,1543,1550,1550,1550,1557,1557,1557,1564,1564,1564,1564,1572,1572,1572,1564,1564,1572,1572,1572,1572,1572,1572,1572,1572,1572,1564,1564,1564,1564,1572,1572,1564,1564,1564,1572,1557,1557,1557,1557,1557,1227,1227,1223,1223,1219,1219,1219,1219,1219,1219,1219,1219,1219,1223,1227,1227,1227,1227,1232,1232,1232,1232,1572,1572,1564,1564,1564,1564,1564,1564,1557,1557,1557,1557,1557,1557,1557,1557,1557,1557,1557,1557,1564,1564,1564,1564,1564,1564,1564,1557,1557,1557,1557,1557,1557,1557,1557,1564,1564,0,0,0,0,0,0,0,0,933,930,928,925,923,920,918,915,915,915,915,915,915,915,915,915,918,918,918,920,923,925,925,925,925,925,925,0,0,0,0,0,0,1543,1543,1543,1543,1543,1543,1543,1543,1543,1543,1543,1543,1543,1543,1543,1543,1543,1543,1536,1536,1543,1550,1543,1543,1543,1543,1543,1543,1543,1543,1543,1543,1543,1543,1543,1543,1543,1543,1543,1536,1536,1536,1529,1529,1536,1536,1529,1529,1529,1529,1536,1536,1529,1523,1523,1523,1516,1516,1516,1516,1516,1516,1509,1509,1503,1496,1489,1489,1483,1477,1477,1470,1470,1464,1464,1464,1464,1458,1458,1452,1445,1445,1439,1439,1433,1427,1427,1421,1421,1421,1415,1415,1410,1398,1398,1398,1392,1392,1387,1381,1376,1376,1370,1370,1370,1370,1365,1354,1354,1354,1349,1349,1349,1343,1343,1338,1333,1333,1328,1322,1322,1322,1317,1317,1312,1312,1307,1307,1302,1297,1297,1292,1288,1288,1288,1278,1278,1278,1273,1273,1268,1268,1268,1264,1259,1255,1255,1250,1250,1250,1245,1245,1241,1236,1236,1232,1232,1227,1223,1223,1219,1219,1214,1214,1210,1206,1206,1202,1202,1197,1197,1197,1193,1189,1185,1185,1181,1181,1181,1177,1173,1169,1169,1169,1165,1165,1161,1157,1157,1157,1153,1149,1149,1145,1145,1141,1141,1138,1138,1134,1134,1130,1126,1123,1123,1123,1119,1119,1115,1112,1112,1108,1108,1108,1105,1105,1105,1101,1097,1094,1090,1090,1090,1087,1084,1084,1080,1080,1077,1077,1073,1070,1070,0,0,0,0,0,0,0,0,0,0,0,0,0,0,0,0,0,0,0,0,0,0,0,0,0,0,0,0,0,0,0,0
0,0,0,0,0,0,0,0,0,0,0,1609,1609,1601,1601,1601,1601,1601,1601,1601,1601,1601,1601,1601,1601,1601,1601,1601,1601,1601,1601,1601,1601,1601,1601,1601,1601,1601,1601,1601,1601,1601,1601,1601,1601,1601,1601,1601,1601,1601,1601,1594,1594,1594,1594,1594,1601,1594,1594,1601,1601,1601,1601,1601,1601,1601,1601,1601,1601,1601,1601,1601,1594,1594,1601,1601,1601,1601,1601,1601,1594,1594,1594,1586,1586,1579,1579,1579,0,0,0,0,0,1025,1025,1025,1025,1025,1025,1025,1025,1025,1028,1028,1028,1028,1031,1034,1034,1034,1038,1038,1038,1047,0,0,0,0,0,0,0,0,0,0,0,680,680,680,680,680,682,682,683,684,684,684,686,686,687,687,688,688,690,690,690,690,691,691,693,696,698,698,701,703,704,704,704,706,707,707,708,708,710,710,711,713,714,714,716,716,717,717,720,720,720,722,722,725,727,727,727,728,728,728,731,731,733,733,734,736,736,736,738,739,739,741,742,742,744,746,746,747,747,750,752,752,752,754,754,754,754,755,757,759,759,761,761,762,762,764,764,764,766,766,767,767,769,769,771,771,773,773,773,1543,1543,1543,1550,1550,1550,1550,1550,1557,1564,1564,1564,1564,1572,1572,1564,1564,1564,1564,1564,1564,1564,1564,1564,1564,1564,1564,1564,1564,1564,1564,1564,1564,1564,1564,1564,1557,1557,1557,1557,1557,1557,1227,1227,1223,1223,1223,1219,1219,1219,1219,1219,1219,1223,1223,1223,1227,1227,1227,1227,1232,1232,1232,1232,1564,1564,1564,1557,1557,1557,1557,1557,1550,1550,1557,1557,1550,1550,1550,1550,1557,1550,1550,1550,1557,1557,1564,1564,1564,1557,1557,1557,1557,1550,1550,1550,1550,1550,1557,1557,1564,0,0,0,0,0,0,0,0,933,930,928,925,925,923,918,918,915,915,915,915,915,915,915,918,918,918,920,920,925,925,925,925,928,928,928,928,0,0,0,0,0,1543,1543,1543,1543,1543,1543,1543,1543,1543,1543,1543,1536,1536,1536,1536,1536,1536,1536,1529,1529,1536,1536,1536,1543,1543,1543,1536,1536,1536,1536,1536,1536,1536,1536,1536,1536,1536,1536,1536,1529,1529,1529,1529,1529,1529,1529,1529,1529,1529,1529,1529,1523,1523,1523,1523,1516,1516,1516,1516,1516,1516,1516,1509,1509,1503,1496,1489,1489,1483,1477,1477,1470,1470,1470,1464,1464,1464,1458,1452,1452,1445,1445,1439,1439,1433,1427,1427,1421,1421,1421,1415,1415,1410,1404,1398,1398,1392,1392,1387,1381,1376,1376,1370,1370,1370,1370,1365,1359,1354,1354,1354,1349,1349,1349,1343,1338,1333,1328,1328,1322,1322,1322,1317,1317,1312,1312,1307,1307,1302,1297,1297,1292,1292,1288,1288,1278,1278,1278,1273,1273,1268,1268,1268,1264,1259,1255,1255,1250,1250,1250,1245,1245,1241,1236,1236,1232,1232,1227,1227,1223,1219,1219,1214,1214,1214,1210,1206,1202,1202,1197,1197,1197,1197,1189,1185,1185,1185,1181,1181,1177,1173,1173,1169,1169,1165,1165,1161,1161,1157,1157,1153,1149,1149,1149,1145,1141,1141,1138,1138,1134,1134,1130,1126,1123,1123,1123,1119,1119,1119,1115,1112,1108,1108,1108,1108,1105,1105,1101,1097,1094,1090,1090,1090,1087,1087,1084,1080,1080,1077,1077,1073,1070,1070,0,0,0,0,0,0,0,0,0,0,0,0,0,0,0,0,0,0,0,0,0,0,0,0,0,0,0,0,0,0,0,0
0,0,0,0,0,0,0,0,0,0,0,1601,1601,1594,1594,1594,1594,1594,1594,1594,1594,1594,1594,1594,1594,1594,1594,1594,1594,1601,1601,1601,1594,1594,1601,1601,1594,1594,1594,1594,1594,1594,1594,1594,1594,1594,1594,1594,1594,1594,1594,1594,1594,1594,1594,1594,1594,1594,1594,1594,1594,1594,1594,1594,1594,1594,1586,1586,1594,1594,1594,1594,1594,1594,1594,1594,1594,1594,1594,1594,1594,1586,1586,1579,1579,1579,1579,1579,0,0,0,0,0,0,1028,1025,1025,1025,1025,1025,1025,1025,1028,1028,1028,1028,1031,1034,1034,1034,1038,1038,1038,0,0,0,0,0,0,0,0,0,0,0,0,680,680,680,682,682,682,682,683,684,684,686,686,686,687,687,688,688,690,690,691,691,691,693,694,696,697,698,701,703,704,704,704,706,706,707,707,708,710,710,711,713,714,714,716,716,717,719,720,720,720,722,723,725,727,727,728,728,730,730,731,731,733,734,736,738,738,738,739,739,739,741,744,744,746,746,746,747,747,750,752,752,752,754,754,754,755,755,757,759,759,761,761,762,762,764,764,764,764,766,767,767,769,771,771,771,771,1550,1550,1543,1543,1543,1550,1550,1550,1550,1550,1557,1564,1564,1564,1564,1564,1572,1564,1564,1564,1564,1564,1557,1557,1557,1557,1557,1557,1557,1557,1557,1557,1557,1557,1557,1557,1557,1557,1550,1550,1550,1557,1557,1564,1572,1227,1227,1227,1223,1223,1219,1219,1219,1219,1219,1223,1223,1223,1227,1227,1227,1227,1232,1232,1232,1232,1550,1550,1550,1550,1550,1550,1550,1550,1550,1550,1550,1550,1550,1543,1543,1543,1543,1543,1543,1543,1550,1550,1550,1550,1550,1550,1550,1550,1550,1550,1550,1550,1550,1550,1550,1550,0,0,0,0,0,0,0,0,0,933,930,928,928,925,923,920,918,915,915,915,915,915,915,915,918,918,918,920,920,925,925,925,925,928,928,928,928,0,0,0,0,0,1529,1529,1529,1536,1529,1529,1529,1536,1536,1536,1536,1536,1536,1536,1529,1529,1529,1529,1529,1529,1529,1529,1529,1529,1529,1529,1529,1529,1529,1529,1529,1529,1529,1529,1529,1529,1529,1529,1529,1523,1523,1523,1523,1523,1523,1523,1523,1523,1523,1523,1523,1523,1523,1523,1516,1516,1516,1516,1516,1516,1509,1509,1509,1503,1503,1496,1489,1489,1483,1477,1477,1470,1470,1470,1464,1464,1464,1464,1452,1452,1445,1445,1439,1439,1433,1427,1427,1421,1421,1421,1415,1415,1410,1404,1398,1398,1392,1392,1387,1381,1376,1376,1370,1370,1370,1370,1365,1359,1354,1354,1354,1354,1349,1349,1349,1343,1333,1328,1328,1322,1322,1322,1317,1317,1312,1312,1307,1307,1302,1297,1297,1292,1292,1288,1288,1283,1283,1278,1273,1273,1273,1268,1268,1264,1264,1259,1255,1255,1250,1250,1245,1245,1241,1241,1236,1232,1232,1227,1227,1223,1223,1219,1219,1214,1214,1210,1206,1202,1202,1197,1197,1197,1197,1189,1185,1185,1185,1181,1181,1177,1177,1173,1169,1169,1169,1165,1165,1161,1161,1161,1153,1153,1149,1149,1145,1145,1141,1138,1138,1134,1134,1130,1126,1126,1123,1123,1119,1119,1119,1115,1112,1112,1108,1108,1108,1105,1105,1101,1097,1094,1090,1090,1090,1087,1087,1084,1080,1080,1077,1077,1077,1073,1073,0,0,0,0,0,0,0,0,0,0,0,0,0,0,0,0,0,0,0,0,0,0,0,0,0,0,0,0,0,0,0,0
0,0,0,0,0,0,0,0,0,0,0,1579,1579,1586,1594,1594,1594,1594,1594,1594,1594,1594,1594,1594,1594,1586,1586,1594,1594,1594,1594,1594,1594,1594,1594,1594,1594,1594,1594,1586,1586,1586,1579,1579,1586,1586,1586,1586,1586,1586,1586,1586,1586,1586,1586,1586,1594,1586,1586,1594,1594,1594,1594,1594,1594,1586,1586,1586,1586,1586,1594,1594,1594,1594,1594,1594,1594,1586,1586,1579,1579,1579,1586,1579,1579,1572,1572,1572,1572,0,0,0,0,0,1028,1025,1025,1025,1025,1025,1028,1028,1028,1028,1028,1031,1031,1034,1034,1034,1038,1034,1034,0,0,0,0,0,0,0,0,0,0,0,0,683,683,683,683,682,682,683,684,686,686,686,686,687,687,687,688,688,690,691,691,691,693,693,694,696,697,698,701,703,704,704,706,706,706,707,707,708,710,710,714,714,714,716,716,717,717,719,720,720,722,722,723,727,727,728,728,728,730,730,731,733,734,736,738,738,739,739,739,739,741,741,744,744,746,746,746,747,747,749,749,752,752,754,754,755,755,755,757,759,761,761,761,762,762,764,764,764,764,766,767,767,767,1550,1550,1550,0,0,1550,1550,1543,1543,1550,1550,1550,1550,1550,1557,1557,1557,1557,1557,1557,1564,1557,1557,1557,1557,1557,1557,1557,1557,1557,1557,1557,1557,1557,1557,1550,1550,1557,1557,1550,1550,1550,1550,1550,1550,1550,1550,1250,1236,1232,1227,1227,1223,1223,1219,1219,1219,1219,1223,1223,1223,1227,1227,1232,1232,1232,1232,1232,1232,1232,1543,1543,1543,1543,1543,1543,1543,1543,1543,1543,1543,1543,1543,1543,1543,1543,1536,1536,1536,1536,1543,1543,1543,1543,1543,1550,1550,1550,1550,1543,1543,1543,1543,1543,1543,1543,0,0,0,0,0,0,0,0,0,933,930,930,928,925,923,920,918,915,915,915,915,915,915,915,918,918,920,920,923,925,925,928,928,928,930,928,928,0,0,0,0,1516,1516,1523,1523,1529,1529,1529,1529,1529,1529,1529,1529,1529,1529,1529,1529,1523,1523,1523,1523,1529,1529,1529,1529,1529,1523,1523,1523,1523,1523,1523,1523,1523,1523,1523,1523,1523,1523,1523,1523,1523,1523,1523,1516,1516,1516,1516,1516,1516,1516,1516,1523,1523,1523,1523,1516,1516,1509,1509,1509,1509,1509,1509,1509,1503,1503,1496,1489,1489,1483,1477,1477,1470,1470,1470,1464,1464,1464,1464,1458,1452,1445,1445,1445,1439,1433,1427,1427,1421,1421,1421,1415,1415,1410,1404,1398,1398,1392,1392,1387,1381,1376,1376,1376,1370,1370,1370,1365,1359,1354,1354,1354,1354,1349,1349,1349,1343,1338,1333,1328,1328,1328,1322,1317,1317,1312,1312,1307,1307,1302,1297,1297,1292,1292,1288,1288,1283,1283,1278,1273,1273,1273,1268,1268,1264,1264,1259,1255,1255,1250,1250,1250,1245,1241,1241,1236,1232,1232,1227,1227,1223,1223,1219,1219,1214,1214,1210,1206,1202,1202,1197,1197,1197,1197,1189,1185,1185,1185,1181,1181,1177,1177,1173,1169,1169,1169,1165,1165,1161,1161,1161,1157,1153,1149,1149,1145,1145,1141,1141,1138,1138,1134,1130,1126,1126,1123,1123,1119,1119,1119,1115,1115,1112,1112,1108,1108,1105,1105,1101,1097,1094,1094,1090,1090,1090,1087,1084,1080,1080,1077,1077,1077,1073,1073,0,0,0,0,0,0,0,0,0,0,0,0,0,0,0,0,0,0,0,0,0,0,0,0,0,0,0,0,0,0,0,0
0,0,0,0,0,0,0,0,0,0,0,1579,1572,1572,1572,1579,1579,1586,1594,1594,1586,1586,1586,1586,1586,1586,1586,1586,1594,1594,1594,1594,1594,1594,1594,1594,1586,1586,1586,1579,1579,1579,1572,1572,1579,1579,1579,1579,1579,1579,1579,1579,1579,1579,1579,1579,1586,1586,1586,1586,1586,1586,1586,1586,1586,1586,1579,1579,1579,1579,1586,1586,1586,1586,1586,1586,1586,1579,1579,1572,1572,1579,1579,1572,1572,1572,1572,1572,1572,0,0,0,0,0,0,1028,1028,1028,1028,1028,1028,1028,1028,1028,1031,1031,1034,1034,1034,1034,1038,1034,1034,0,0,0,0,0,0,0,0,0,0,0,0,686,684,684,684,684,684,684,686,686,686,686,687,687,687,687,690,690,690,691,691,693,693,693,694,696,697,698,701,703,704,704,704,706,706,707,708,708,710,711,714,714,714,716,717,717,719,720,720,722,722,723,725,727,728,728,728,730,730,731,733,733,736,738,738,739,739,739,739,741,741,742,744,746,746,746,747,747,747,747,749,750,750,752,754,754,755,757,757,759,761,761,762,764,764,766,766,766,766,766,766,766,0,0,1550,1550,1543,1543,1550,1550,1550,1550,1550,1550,1550,1550,1550,1550,1550,1557,1557,1557,1557,1557,1557,1550,1550,1550,1550,1550,1550,1550,1550,1550,1550,1550,1550,1550,1543,1543,1550,1550,1550,1550,1550,1543,1543,1543,1543,1543,1250,1236,1232,1232,1227,1223,1223,1219,1219,1219,1219,1223,1223,1223,1227,1227,1232,1232,1232,1232,1232,1232,1232,1536,1536,1536,1536,1536,1536,1536,1536,1536,1536,1536,1536,1536,1536,1536,1536,1536,1536,1536,1536,1543,1543,1543,1543,1543,1543,1543,1543,1543,1543,1536,1536,1536,1536,1536,1536,0,0,0,0,0,0,0,0,0,0,933,930,928,925,923,920,918,918,915,915,915,915,915,918,918,920,920,920,925,925,928,928,928,928,930,930,930,0,0,0,0,1516,1516,1516,1516,1523,1523,1523,1523,1523,1523,1523,1523,1523,1523,1523,1523,1523,1516,1516,1523,1523,1523,1523,1523,1523,1523,1523,1516,1516,1516,1516,1516,1516,1516,1523,1523,1523,1523,1523,1523,1516,1516,1516,1516,1516,1516,1516,1516,1516,1516,1516,1516,1516,1516,1516,1516,1509,1509,1509,1509,1509,1503,1503,1503,1503,1496,1496,1489,1489,1489,1483,1477,1470,1470,1470,1464,1464,1464,1464,1458,1452,1445,1445,1445,1439,1433,1427,1427,1421,1421,1421,1415,1415,1410,1404,1404,1398,1398,1392,1387,1381,1376,1376,1376,1370,1370,1370,1365,1359,1359,1354,1354,1354,1354,1349,1343,1343,1338,1333,1328,1328,1328,1322,1317,1317,1312,1307,1307,1307,1302,1297,1297,1292,1288,1288,1288,1283,1283,1278,1273,1273,1273,1268,1268,1268,1264,1259,1255,1255,1250,1250,1245,1245,1241,1241,1236,1236,1232,1232,1227,1223,1223,1219,1219,1214,1214,1210,1206,1202,1202,1197,1197,1197,1197,1189,1185,1185,1185,1181,1181,1181,1177,1177,1173,1169,1169,1165,1165,1165,1165,1161,1157,1153,1153,1149,1149,1145,1145,1141,1138,1138,1134,1130,1130,1126,1123,1123,1119,1119,1119,1115,1115,1112,1112,1108,1108,1105,1105,1101,1097,1094,1094,1090,1090,1090,1087,1084,1080,1080,1077,1077,1077,1073,1073,0,0,0,0,0,0,0,0,0,0,0,0,0,0,0,0,0,0,0,0,0,0,0,0,0,0,0,0,0,0,0,0
0,0,0,0,0,0,0,0,0,0,0,1572,1572,1572,1572,1572,1572,1572,1579,1572,1572,1579,1579,1579,1579,1579,1579,1586,1594,1594,1594,1594,1594,1594,1594,1594,1586,1579,1579,1579,1572,1572,1572,1572,1572,1572,1572,1579,1579,1579,1579,1579,1579,1579,1579,1579,1579,1579,1579,1579,1579,1579,1579,1579,1579,1579,1572,1572,1572,1572,1579,1579,1579,1572,1572,1572,1572,1579,1572,1564,1564,1572,1572,1572,1564,1564,1564,1564,1557,1557,0,0,0,0,0,1028,1028,1028,1028,1028,1031,1031,1031,1031,1034,1034,1034,1034,1038,1038,1034,1034,1034,0,0,0,0,0,0,0,0,0,0,0,0,686,684,684,684,684,684,684,686,686,686,686,687,687,687,688,690,690,690,691,691,693,693,694,694,696,697,698,700,703,704,704,704,706,706,708,708,710,711,713,714,714,716,717,717,719,720,720,720,722,723,725,725,728,728,728,728,730,730,731,733,734,736,738,738,739,739,739,741,741,741,742,744,746,746,747,747,747,747,747,747,749,749,749,750,754,755,757,759,761,761,762,762,764,766,766,766,766,766,767,767,1543,1543,1543,1550,1550,1543,1543,1543,1543,1550,1550,1550,1550,1550,1550,1550,1550,1550,1550,1550,1543,1543,1543,1543,1543,1543,1543,1543,1543,1543,1543,1543,1543,1543,1543,1543,1543,1543,1543,1543,1543,1543,1543,1543,1543,1536,1536,1543,1245,1245,1241,1232,1232,1227,1227,1223,1223,1219,1219,1223,1223,1223,1223,1227,1227,1232,1232,1232,1232,1232,1232,1232,1536,1536,1536,1536,1536,1536,1529,1529,1529,1529,1529,1529,1536,1529,1529,1529,1529,1529,1529,1529,1536,1536,1536,1536,1536,1536,1536,1536,1536,1529,1529,1529,1529,1529,1523,1523,1523,0,0,0,0,0,0,0,0,0,933,930,930,928,925,923,920,918,918,918,918,918,918,918,920,920,920,923,925,928,928,928,928,930,930,930,930,0,0,0,0,0,1516,1516,1516,1516,1516,1516,1516,1516,1516,1516,1516,1516,1516,1516,1516,1516,1509,1509,1516,1516,1516,1516,1516,1516,1516,1516,1509,1509,1509,1509,1509,1509,1509,1509,1509,1509,1509,1516,1516,1516,1509,1509,1516,1509,1509,1509,1509,1509,1509,1509,1516,1516,1516,1509,1509,1509,1503,1503,1503,1503,1503,1496,1496,1496,1496,1496,1489,1489,1483,1483,1477,1477,1470,1470,1470,1464,1464,1464,1464,1452,1452,1445,1445,1439,1439,1427,1427,1421,1421,1421,1415,1415,1410,1404,1404,1398,1398,1392,1392,1387,1381,1376,1376,1370,1370,1370,1365,1359,1359,1354,1354,1354,1354,1349,1343,1338,1338,1333,1328,1328,1328,1322,1317,1317,1312,1307,1307,1307,1302,1302,1292,1292,1288,1288,1288,1283,1278,1278,1273,1273,1273,1268,1268,1268,1264,1264,1255,1255,1250,1250,1245,1245,1241,1241,1236,1236,1232,1232,1227,1223,1223,1219,1219,1214,1214,1210,1206,1206,1202,1202,1197,1197,1197,1193,1189,1185,1185,1185,1181,1181,1177,1177,1173,1169,1169,1165,1165,1165,1165,1161,1157,1153,1153,1149,1149,1145,1145,1141,1141,1138,1134,1130,1130,1130,1123,1123,1119,1119,1119,1115,1115,1112,1112,1108,1108,1108,1105,1101,1097,1094,1094,1094,1090,1090,1087,1084,1080,1080,1077,1077,1077,1073,1073,0,0,0,0,0,0,0,0,0,0,0,0,0,0,0,0,0,0,0,0,0,0,0,0,0,0,0,0,0,0,0,0
0,0,0,0,0,0,0,0,0,0,0,1572,1564,1564,1564,1564,1572,1572,1572,1572,1572,1572,1572,1572,1579,1579,1579,1586,1586,1594,1594,1594,1586,1586,1594,1586,1579,1579,1579,1572,1572,1572,1564,1564,1572,1572,1572,1572,1572,1572,1572,1572,1572,1572,1572,1572,1572,1572,1572,1572,1572,1572,1579,1579,1579,1579,1572,1572,1572,1572,1572,1564,1564,1564,1564,1564,1564,1564,1564,1564,1564,1564,1564,1564,1564,1564,1564,1557,1550,1550,0,0,0,0,0,0,1028,1028,1031,1031,1031,1031,1031,1031,1034,1034,1034,1034,1038,1038,1034,1034,1038,0,0,0,0,0,0,0,0,0,0,0,0,686,684,684,684,684,684,686,686,686,686,686,687,687,688,688,690,690,691,691,691,693,694,696,696,697,697,698,698,701,704,704,704,706,708,708,708,710,711,713,714,716,716,717,719,720,720,720,720,722,723,725,727,728,730,730,730,730,730,731,733,734,736,738,738,739,739,739,739,739,741,741,744,746,746,747,747,747,747,747,747,747,747,749,750,754,755,757,759,762,762,762,764,766,766,766,1536,1536,1543,1543,1543,1543,1543,1543,1543,1543,1543,1543,1543,1543,1543,1550,1543,1543,1543,1543,1543,1543,1543,1543,1543,1543,1543,1543,1543,1536,1536,1536,1536,1543,1543,1543,1543,1543,1543,1543,1543,1543,1543,1543,1543,1536,1536,1536,1536,1536,1536,1536,1241,1241,1241,1241,1236,1232,1232,1227,1227,1223,1219,1219,1223,1223,1223,1223,1227,1227,1232,1232,1232,1232,1232,1232,1232,1529,1529,1529,1529,1529,1529,1529,1529,1529,1529,1523,1523,1529,1529,1529,1523,1523,1523,1523,1529,1529,1529,1529,1529,1529,1529,1529,1529,1529,1529,1523,1523,1523,1523,1523,1523,1523,0,0,0,0,0,0,0,0,0,933,930,930,928,928,925,920,920,918,918,918,918,918,920,920,920,923,923,925,928,928,928,930,933,933,930,930,0,0,0,0,1516,1516,1509,1509,1516,1516,1509,1509,1509,1509,1509,1509,1509,1509,1509,1509,1509,1509,1509,1509,1509,1509,1509,1509,1509,1509,1509,1503,1503,1503,1503,1503,1503,1503,1503,1503,1503,1503,1503,1503,1503,1503,1503,1509,1509,1509,1503,1503,1503,1503,1503,1503,1503,1503,1503,1503,1503,1503,1503,1496,1496,1496,1496,1496,1496,1496,1496,1489,1489,1483,1483,1477,1477,1470,1470,1470,1464,1464,1464,1464,1452,1452,1445,1445,1439,1439,1433,1427,1421,1421,1421,1415,1415,1410,1404,1404,1398,1398,1392,1392,1387,1381,1376,1376,1376,1370,1370,1365,1365,1359,1359,1354,1354,1354,1349,1343,1338,1338,1333,1328,1328,1328,1322,1317,1317,1312,1312,1307,1307,1302,1302,1292,1292,1288,1288,1288,1283,1278,1278,1273,1273,1273,1268,1268,1268,1264,1264,1255,1255,1255,1250,1250,1245,1241,1241,1236,1236,1232,1232,1227,1223,1223,1219,1219,1214,1214,1210,1210,1206,1202,1202,1197,1197,1197,1193,1189,1185,1185,1185,1181,1181,1177,1173,1169,1169,1169,1165,1165,1165,1165,1161,1161,1157,1153,1149,1149,1145,1145,1141,1141,1138,1134,1134,1130,1130,1123,1123,1123,1119,1119,1119,1115,1115,1112,1112,1108,1108,1105,1105,1097,1094,1094,1094,1090,1090,1087,1087,1084,1080,1080,1077,1077,1073,1073,0,0,0,0,0,0,0,0,0,0,0,0,0,0,0,0,0,0,0,0,0,0,0,0,0,0,0,0,0,0,0,0
0,0,0,0,0,0,0,0,0,0,0,1572,1564,1564,1564,1564,1564,1564,1564,1564,1564,1564,1564,1564,1564,1564,1564,1564,1572,1586,1586,1586,1586,1586,1586,1579,1572,1572,1564,1564,1564,1564,1564,1564,1564,1564,1564,1564,1564,1564,1564,1572,1572,1572,1572,1572,1572,1572,1572,1572,1572,1572,1572,1572,1572,1572,1564,1564,1572,1564,1564,1564,1564,1564,1564,1557,1557,1564,1564,1557,1557,1557,1557,1557,1557,1557,1550,1550,1543,1543,0,0,0,0,0,0,0,1028,1028,1031,1031,1031,1034,1034,1034,1034,1034,1038,1038,1038,1038,1038,0,0,0,0,0,0,0,0,0,0,0,0,0,686,686,686,686,684,684,686,686,686,686,687,687,688,688,688,691,691,693,693,693,693,694,696,696,697,697,698,698,700,704,704,706,708,708,708,710,710,713,714,716,716,717,719,720,720,720,722,722,723,725,725,727,728,730,730,730,731,731,731,733,734,736,738,738,739,739,739,739,739,741,741,744,746,746,747,747,747,747,747,747,747,747,747,747,1543,1543,1543,1543,1536,1536,1536,1529,1529,1536,1536,1536,1536,1536,1536,1536,1543,1536,1536,1536,1536,1536,1543,1536,1536,1543,1543,1543,1543,1543,1543,1543,1543,1543,1543,1536,1536,1536,1536,1536,1536,1536,1536,1536,1536,1536,1536,1536,1536,1536,1536,1536,1536,1536,1536,1536,1536,1536,1536,1536,1536,1529,1236,1236,1241,1241,1236,1236,1232,1232,1227,1227,1223,1223,1223,1223,1223,1223,1223,1227,1227,1232,1232,1232,1232,1232,1232,1232,1523,1523,1523,1523,1523,1523,1523,1523,1523,1523,1516,1516,1523,1516,1516,1516,1516,1516,1516,1523,1523,1529,1529,1529,1529,1529,1529,1523,1523,1523,1523,1523,1523,1523,1516,1516,1516,0,0,0,0,0,0,0,0,0,0,933,933,930,928,925,920,920,918,918,918,918,920,920,920,923,925,925,928,928,930,930,930,933,933,933,933,0,0,0,0,1516,1509,1503,1503,1503,1503,1503,1503,1503,1503,1503,1503,1503,1503,1503,1503,1503,1503,1503,1503,1503,1503,1503,1503,1503,1503,1503,1496,1496,1496,1496,1496,1496,1496,1496,1496,1496,1496,1496,1496,1496,1496,1496,1496,1496,1503,1503,1503,1503,1503,1503,1503,1503,1503,1503,1503,1496,1496,1496,1496,1496,1496,1496,1496,1496,1496,1489,1489,1483,1483,1483,1477,1477,1470,1470,1470,1464,1464,1464,1464,1452,1452,1445,1445,1445,1439,1433,1427,1421,1421,1421,1415,1415,1410,1410,1404,1398,1398,1398,1392,1392,1387,1381,1376,1376,1370,1370,1365,1365,1359,1359,1354,1354,1354,1349,1349,1343,1338,1333,1333,1333,1328,1322,1317,1317,1312,1312,1307,1307,1302,1302,1292,1292,1288,1288,1288,1283,1283,1278,1273,1273,1273,1268,1268,1268,1264,1259,1255,1255,1255,1250,1250,1245,1245,1241,1236,1236,1232,1232,1232,1227,1223,1219,1219,1214,1214,1210,1210,1206,1202,1202,1197,1197,1197,1193,1189,1185,1185,1185,1181,1181,1177,1173,1169,1169,1169,1165,1165,1165,1165,1161,1161,1157,1153,1149,1149,1145,1145,1141,1141,1138,1134,1134,1130,1130,1123,1123,1123,1119,1119,1119,1119,1115,1115,1112,1108,1108,1105,1105,1101,1097,1094,1094,1090,1090,1090,1090,1084,1084,1080,1080,1077,1073,1073,0,0,0,0,0,0,0,0,0,0,0,0,0,0,0,0,0,0,0,0,0,0,0,0,0,0,0,0,0,0,0,0
0,0,0,0,0,0,0,0,0,0,0,1564,1564,1557,1557,1557,1557,1557,1557,1557,1557,1557,1557,1557,1557,1557,1557,1557,1550,1550,1572,1572,1579,1579,1579,1564,1564,1557,1557,1557,1564,1564,1557,1557,1557,1557,1564,1564,1564,1564,1564,1564,1564,1564,1564,1564,1564,1564,1564,1564,1564,1564,1564,1564,1564,1564,1564,1564,1564,1557,1557,1557,1557,1557,1557,1550,1550,1557,1557,1557,1557,1550,1550,1550,1550,1550,1543,1536,1536,1529,1516,1516,0,0,0,0,0,1028,1028,1031,1031,1031,1034,1034,1034,1034,1038,1038,1038,1038,1038,1038,0,0,0,0,0,0,0,0,0,0,0,0,0,687,687,686,686,686,686,686,686,686,687,687,687,688,688,688,691,693,693,693,694,694,697,697,697,697,697,698,698,700,704,704,707,708,710,710,710,713,714,716,716,716,717,719,720,722,722,722,723,723,723,725,727,728,730,730,731,731,731,733,733,734,738,738,738,739,739,739,739,739,741,741,744,746,746,746,747,747,747,747,747,747,747,1529,0,0,1543,1543,1543,1536,1536,1536,1529,1529,1536,1536,1536,1536,1536,1536,1536,1536,1536,1536,1536,1536,1536,1536,1529,1529,1529,1536,1536,1536,1536,1543,1536,1536,1536,1536,1536,1529,1529,1529,1529,1529,1529,1529,1529,1536,1529,1529,1529,1529,1529,1529,1529,1529,1536,1536,1536,1536,1536,1536,1232,1232,1232,1232,1232,1232,1236,1236,1232,1232,1232,1227,1227,1223,1223,1223,1223,1223,1227,1227,1227,1227,1232,1232,1232,1232,1232,1232,1516,1516,1516,1523,1516,1516,1516,1516,1516,1516,1516,1509,1509,1509,1509,1509,1509,1509,1516,1516,1516,1523,1523,1523,1523,1523,1523,1523,1523,1516,1516,1516,1516,1516,1516,1516,1516,1516,1516,0,0,0,0,0,0,0,0,0,938,935,935,930,925,923,920,920,920,918,918,920,923,923,925,925,928,928,928,930,930,933,933,933,933,933,0,0,0,0,0,1509,1503,1503,1503,1503,1496,1496,1496,1496,1496,1496,1496,1496,1496,1496,1496,1496,1496,1496,1496,1496,1496,1496,1496,1496,1496,1496,1496,1496,1496,1496,1496,1496,1496,1496,1496,1489,1489,1489,1489,1489,1489,1489,1489,1489,1489,1489,1496,1496,1496,1496,1496,1496,1496,1496,1496,1496,1496,1496,1496,1496,1489,1489,1489,1489,1489,1489,1483,1477,1477,1477,1470,1470,1470,1470,1464,1464,1464,1464,1452,1452,1452,1445,1445,1439,1433,1433,1427,1421,1421,1415,1415,1415,1410,1404,1404,1398,1398,1392,1392,1387,1381,1376,1376,1370,1370,1365,1365,1359,1359,1354,1354,1354,1349,1349,1343,1338,1333,1333,1333,1328,1322,1317,1317,1312,1312,1307,1307,1302,1302,1292,1292,1288,1288,1288,1283,1283,1278,1273,1273,1273,1268,1268,1268,1268,1259,1259,1255,1255,1250,1250,1250,1245,1241,1236,1236,1236,1232,1232,1227,1223,1219,1219,1214,1214,1210,1210,1206,1202,1202,1197,1197,1197,1193,1189,1185,1185,1185,1181,1181,1177,1177,1173,1169,1169,1169,1165,1165,1165,1165,1161,1157,1153,1153,1149,1149,1145,1145,1141,1138,1138,1134,1134,1130,1130,1123,1123,1123,1119,1119,1119,1115,1115,1112,1108,1108,1105,1105,1101,1097,1094,1094,1090,1090,1090,1090,1087,1084,1080,1080,1077,1077,1077,0,0,0,0,0,0,0,0,0,0,0,0,0,0,0,0,0,0,0,0,0,0,0,0,0,0,0,0,0,0,0,0
0,0,0,0,0,0,0,0,0,0,0,1557,1557,1557,1550,1550,1550,1557,1557,1557,1557,1550,1550,1550,1550,1550,1550,1543,1543,1543,1550,1550,1543,1543,1550,1557,1550,1550,1550,1550,1557,1557,1557,1557,1557,1557,1557,1557,1557,1557,1557,1557,1564,1564,1564,1564,1564,1564,1564,1564,1564,1564,1564,1564,1557,1557,1557,1557,1564,1557,1557,1550,1550,1550,1550,1543,1543,1550,1550,1550,1550,1550,1543,1543,1543,1543,1536,1536,1523,1523,1509,1503,1503,1503,0,0,0,1031,1031,1031,1031,1031,1034,1034,1034,1038,1038,1038,1038,1041,1038,1038,0,0,0,0,0,0,0,0,0,0,0,0,0,0,687,686,686,686,686,686,687,687,687,687,687,688,690,691,693,694,694,694,694,696,697,697,697,698,698,700,700,704,704,706,707,710,711,710,710,713,714,716,716,717,719,720,720,722,722,722,723,723,723,725,727,728,730,730,731,731,731,733,733,734,738,738,738,739,739,739,739,739,742,742,744,744,746,746,746,747,747,747,1509,1509,1509,0,1529,1529,1543,1543,1543,1536,1536,1536,1529,1529,1536,1536,1529,1529,1529,1529,1529,1529,1529,1529,1523,1523,1523,1523,1523,1523,1523,1523,1523,1523,1529,1536,1529,1529,1529,1529,1523,1523,1523,1523,1523,1523,1523,1523,1523,1523,1523,1523,1523,1523,1529,1529,1529,1529,1529,1536,1536,1529,1232,1232,1232,1232,1232,1232,1232,1232,1232,1232,1232,1232,1227,1227,1227,1223,1223,1223,1227,1227,1227,1227,1227,1232,1232,1232,1232,1232,1232,1232,1509,1509,1509,1509,1509,1509,1516,1516,1516,1516,1509,1509,1509,1509,1509,1509,1509,1509,1509,1509,1509,1516,1516,1523,1516,1516,1516,1516,1516,1516,1516,1516,1516,1516,1516,1509,1509,1509,1509,0,0,0,0,0,0,0,0,0,938,935,935,933,930,928,923,923,923,920,920,920,923,923,925,925,928,928,930,930,933,933,933,933,935,935,0,0,0,0,0,1509,1503,1496,1496,1496,1496,1496,1489,1489,1496,1496,1496,1496,1496,1489,1489,1489,1489,1489,1489,1489,1489,1489,1496,1496,1489,1489,1489,1489,1489,1489,1489,1489,1489,1489,1489,1483,1483,1483,1483,1483,1483,1489,1489,1489,1489,1489,1489,1483,1483,1489,1489,1489,1496,1489,1489,1489,1489,1489,1489,1489,1489,1489,1489,1489,1483,1483,1477,1477,1477,1477,1470,1470,1470,1470,1464,1464,1464,1464,1458,1452,1452,1445,1445,1439,1439,1433,1427,1421,1421,1415,1415,1415,1410,1404,1404,1398,1398,1392,1392,1392,1381,1381,1376,1370,1370,1365,1365,1359,1359,1354,1354,1354,1349,1349,1343,1338,1333,1333,1333,1328,1322,1317,1317,1312,1312,1312,1307,1307,1302,1292,1292,1288,1288,1288,1283,1278,1278,1273,1273,1273,1273,1268,1268,1268,1259,1259,1255,1255,1250,1250,1250,1245,1241,1236,1236,1236,1232,1232,1232,1227,1219,1219,1214,1214,1210,1210,1206,1202,1202,1197,1197,1197,1193,1189,1185,1185,1185,1181,1181,1181,1177,1173,1169,1169,1169,1169,1165,1165,1161,1157,1157,1153,1153,1149,1149,1145,1145,1141,1138,1138,1134,1134,1134,1130,1123,1123,1123,1123,1119,1119,1115,1115,1112,1108,1108,1105,1105,1101,1097,1097,1094,1090,1090,1090,1090,1087,1084,1080,1080,1077,1077,1077,0,0,0,0,0,0,0,0,0,0,0,0,0,0,0,0,0,0,0,0,0,0,0,0,0,0,0,0,0,0,0,0
0,0,0,0,0,0,0,0,0,0,0,1550,1550,1550,1550,1550,1550,1550,1550,1550,1550,1543,1543,1543,1543,1543,1543,1536,1536,1536,1543,1543,1536,1536,1536,1543,1543,1543,1543,1543,1550,1550,1550,1550,1550,1550,1557,1557,1550,1550,1550,1550,1557,1557,1557,1564,1564,1564,1564,1557,1557,1557,1550,1550,1550,1550,1550,1550,1557,1550,1550,1550,1543,1543,1543,1543,1543,1543,1550,1543,1543,1543,1543,1543,1543,1536,1536,1529,1523,1523,1509,1503,1503,1509,0,0,0,1031,1031,1034,1034,1034,1034,1034,1038,1038,1038,1038,1038,1041,1041,1044,1044,1047,0,0,0,0,0,0,0,0,0,0,0,0,687,686,686,686,686,686,687,687,687,687,688,690,690,691,693,694,694,694,696,697,697,697,698,698,698,700,700,704,706,707,708,710,711,711,713,713,714,716,716,717,719,720,720,722,722,722,725,725,725,727,727,728,730,730,731,731,731,733,733,734,738,738,738,739,739,739,739,739,742,742,744,744,746,746,746,746,1516,1516,1509,1509,1509,1509,1529,1529,1529,1529,1536,1536,1536,1529,1529,1529,1529,1529,1529,1529,1529,1523,1523,1523,1523,1523,1523,1523,1523,1516,1516,1516,1523,1523,1523,1523,1523,1523,1516,1516,1523,1523,1523,1523,1516,1516,1516,1516,1516,1516,1516,1516,1516,1516,1516,1516,1516,1523,1529,1529,1529,1529,1227,1227,1227,1227,1227,1227,1227,1232,1232,1232,1232,1232,1232,1227,1227,1227,1227,1227,1227,1227,1227,1227,1227,1227,1227,1232,1232,1232,1232,1232,1232,1232,1509,1509,1509,1509,1509,1509,1509,1509,1509,1509,1509,1509,1509,1503,1503,1503,1503,1503,1503,1503,1503,1509,1516,1516,1516,1516,1516,1516,1516,1509,1509,1509,1516,1516,1516,1509,1509,1509,1509,0,0,0,0,0,0,0,0,0,938,935,935,933,930,928,925,925,925,923,923,923,923,923,925,925,928,930,930,933,933,935,935,935,935,935,0,0,0,0,0,1503,1496,1496,1496,1496,1489,1489,1489,1489,1489,1489,1489,1489,1489,1489,1489,1489,1489,1489,1489,1489,1489,1489,1489,1489,1489,1489,1489,1489,1489,1489,1489,1483,1483,1483,1483,1483,1477,1477,1477,1477,1477,1483,1483,1483,1483,1483,1483,1477,1477,1483,1483,1483,1489,1489,1489,1489,1489,1489,1489,1489,1483,1483,1483,1483,1483,1477,1477,1477,1477,1477,1470,1470,1470,1470,1464,1464,1464,1464,1458,1452,1452,1445,1445,1439,1439,1433,1427,1427,1421,1415,1415,1410,1410,1404,1398,1398,1398,1398,1392,1392,1387,1381,1381,1370,1370,1365,1365,1359,1359,1359,1354,1354,1349,1349,1343,1343,1333,1333,1328,1328,1322,1317,1317,1312,1312,1312,1307,1307,1307,1297,1292,1288,1288,1288,1283,1278,1278,1273,1273,1273,1273,1268,1268,1264,1259,1259,1255,1255,1250,1250,1250,1245,1241,1236,1236,1236,1232,1232,1232,1227,1223,1223,1219,1214,1214,1210,1206,1202,1202,1197,1197,1197,1193,1189,1185,1185,1185,1181,1181,1181,1177,1173,1169,1169,1169,1169,1165,1165,1161,1157,1157,1153,1153,1149,1149,1145,1145,1141,1138,1138,1134,1134,1134,1130,1123,1123,1123,1123,1119,1119,1119,1115,1112,1108,1108,1105,1105,1105,1101,1097,1094,1094,1090,1090,1090,1087,1084,1080,1080,1077,1077,1077,0,0,0,0,0,0,0,0,0,0,0,0,0,0,0,0,0,0,0,0,0,0,0,0,0,0,0,0,0,0,0,0
0,0,0,0,0,0,0,0,0,0,0,1550,1550,1550,1543,1543,1543,1543,1543,1543,1543,1543,1543,1536,1536,1536,1536,1536,1536,1536,1536,1536,1523,1523,1536,1543,1543,1536,1536,1536,1536,1543,1543,1543,1550,1550,1550,1550,1550,1550,1550,1550,1550,1557,1557,1557,1557,1557,1557,1557,1550,1550,1543,1543,1543,1543,1543,1543,1550,1543,1543,1543,1543,1543,1543,1536,1536,1543,1543,1543,1543,1536,1536,1536,1536,1536,1529,1529,1529,1516,1516,1509,1509,1509,0,0,0,1034,1034,1034,1034,1034,1034,1038,1038,1038,1038,1041,1041,1041,1044,1044,1044,1047,0,0,0,0,0,0,0,0,0,0,0,0,687,687,686,686,686,686,687,687,687,687,688,690,690,691,696,696,696,696,696,697,697,697,698,698,700,700,701,704,706,707,708,710,711,711,714,714,714,716,716,717,719,720,720,722,722,722,725,725,725,727,727,728,730,730,731,731,733,733,734,734,736,738,738,739,739,739,739,739,744,744,744,746,747,747,747,1509,1509,1509,1509,1509,1509,1509,1516,1516,1516,1516,1516,1523,1529,1529,1529,1529,1529,1529,1523,1523,1523,1516,1516,1516,1516,1516,1516,1516,1516,1516,1516,1516,1516,1516,1516,1516,1516,1516,1516,1516,1509,1509,1516,1516,1516,1516,1516,1516,1516,1516,1516,1516,1509,1509,1509,1509,1516,1516,1523,1523,1227,1223,1223,1227,1227,1227,1227,1227,1227,1227,1232,1232,1232,1232,1227,1227,1227,1227,1227,1227,1227,1227,1227,1227,1227,1227,1232,1232,1232,1236,1236,1236,1236,1236,1503,1503,1503,1503,1503,1503,1503,1503,1503,1503,1496,1496,1496,1503,1496,1496,1496,1496,1496,1496,1496,1503,1503,1503,1503,1509,1509,1509,1509,1509,1509,1509,1509,1509,1509,1503,1496,1496,1509,0,0,0,0,0,0,0,0,0,938,935,935,935,930,928,928,925,925,925,925,925,925,925,925,928,928,930,930,933,933,935,935,935,935,935,0,0,0,0,0,1503,1496,1496,1496,1489,1489,1489,1489,1489,1489,1489,1489,1489,1489,1489,1489,1483,1483,1483,1483,1483,1483,1483,1483,1483,1483,1483,1483,1483,1483,1483,1483,1483,1483,1483,1483,1477,1477,1470,1470,1477,1477,1477,1477,1477,1477,1477,1477,1470,1470,1477,1477,1477,1477,1477,1477,1477,1477,1483,1483,1483,1477,1477,1477,1477,1477,1470,1470,1470,1470,1470,1470,1470,1470,1470,1464,1464,1464,1464,1458,1452,1452,1445,1445,1439,1439,1433,1427,1427,1421,1415,1415,1410,1410,1404,1398,1398,1398,1398,1392,1392,1387,1387,1381,1370,1370,1365,1365,1359,1359,1359,1354,1354,1349,1349,1349,1343,1338,1333,1328,1328,1322,1317,1317,1312,1312,1312,1312,1307,1307,1302,1292,1288,1288,1288,1283,1278,1278,1273,1273,1273,1273,1268,1268,1264,1259,1259,1255,1255,1250,1250,1250,1245,1241,1241,1236,1236,1232,1232,1232,1227,1223,1223,1219,1219,1214,1214,1206,1202,1202,1197,1197,1197,1193,1189,1189,1185,1185,1181,1181,1181,1177,1173,1173,1169,1169,1169,1165,1165,1161,1157,1157,1153,1153,1149,1149,1145,1145,1141,1138,1138,1134,1134,1134,1126,1126,1123,1123,1123,1119,1119,1119,1115,1112,1108,1108,1105,1105,1101,1101,1097,1094,1094,1094,1090,1090,1087,1084,1080,1080,1077,1077,1077,0,0,0,0,0,0,0,0,0,0,0,0,0,0,0,0,0,0,0,0,0,0,0,0,0,0,0,0,0,0,0,0
0,0,0,0,0,0,0,0,0,0,0,1543,1543,1543,1543,1543,1543,1543,1543,1543,1543,1536,1536,1536,1536,1529,1529,1529,1529,1529,1529,1529,1523,1523,1529,1536,1536,1536,1536,1536,1536,1536,1536,1536,1536,1536,1536,1536,1543,1543,1543,1543,1550,1550,1550,1557,1550,1550,1550,1543,1543,1543,1543,1543,1536,1536,1536,1543,1543,1536,1536,1536,1536,1536,1536,1529,1529,1536,1536,1536,1536,1536,1536,1536,1536,1536,1529,1529,1529,1516,1516,1516,1516,1516,0,0,0,1034,1034,1034,1034,1034,1038,1038,1038,1038,1038,1041,1041,1041,1041,1041,1044,1047,0,0,0,0,0,0,0,0,0,0,0,0,687,687,687,687,687,687,687,687,687,687,688,688,690,693,696,696,696,696,697,697,697,698,698,698,700,701,701,704,707,708,710,710,711,711,714,714,716,717,717,719,719,720,720,722,722,722,725,725,727,727,727,728,728,730,731,731,731,731,733,734,736,738,739,739,739,739,741,741,741,1496,1496,1503,1509,1509,1509,1509,1509,1509,1509,1509,1509,1509,1516,1516,1516,1516,1516,1516,1516,1516,1516,1516,1516,1516,1516,1516,1516,1509,1509,1509,1509,1509,1509,1509,1509,1516,1516,1516,1516,1516,1516,1516,1509,1509,1509,1509,1509,1509,1509,1509,1509,1509,1509,1516,1509,1509,1509,1509,1509,1509,1509,1509,1219,1219,1223,1223,1223,1223,1223,1223,1223,1227,1227,1227,1227,1227,1227,1227,1232,1227,1227,1227,1227,1227,1227,1227,1227,1227,1227,1227,1232,1232,1232,1232,1236,1236,1236,1236,1241,1489,1489,1489,1496,1496,1496,1496,1496,1496,1496,1496,1489,1489,1489,1496,1489,1489,1496,1496,1489,1489,1496,1496,1496,1496,1503,1503,1503,1503,1503,1503,1503,1503,1503,1503,1503,1496,1489,1489,1483,1483,0,0,0,0,0,0,0,0,938,938,935,935,933,930,928,928,925,925,925,925,925,925,925,928,928,930,930,933,935,935,935,935,935,935,0,0,0,0,0,1496,1496,1489,1489,1489,1489,1489,1483,1483,1483,1483,1483,1483,1483,1483,1483,1483,1483,1483,1477,1477,1477,1483,1483,1483,1483,1483,1483,1483,1483,1483,1483,1483,1483,1483,1483,1477,1477,1470,1470,1470,1470,1470,1470,1470,1470,1470,1470,1470,1470,1470,1470,1470,1470,1470,1470,1470,1470,1470,1470,1470,1470,1470,1470,1470,1470,1470,1470,1470,1470,1470,1464,1464,1464,1464,1464,1464,1464,1458,1458,1452,1452,1445,1445,1439,1439,1433,1427,1427,1421,1415,1415,1415,1410,1410,1404,1398,1398,1398,1392,1392,1387,1387,1381,1376,1370,1365,1365,1359,1359,1359,1354,1354,1349,1349,1349,1343,1338,1338,1333,1328,1328,1322,1317,1317,1312,1312,1312,1307,1307,1302,1292,1292,1288,1288,1283,1283,1278,1273,1273,1273,1273,1268,1268,1264,1259,1259,1255,1255,1255,1250,1250,1245,1241,1241,1236,1236,1232,1232,1232,1227,1227,1223,1223,1219,1219,1214,1210,1206,1202,1202,1197,1197,1193,1189,1189,1185,1185,1181,1181,1181,1177,1173,1173,1169,1169,1169,1165,1165,1161,1157,1157,1153,1153,1149,1149,1149,1145,1141,1138,1138,1138,1134,1134,1126,1126,1123,1123,1123,1119,1119,1119,1115,1112,1108,1108,1105,1105,1101,1101,1097,1094,1094,1094,1090,1090,1087,1087,1084,1080,1080,1077,1077,0,0,0,0,0,0,0,0,0,0,0,0,0,0,0,0,0,0,0,0,0,0,0,0,0,0,0,0,0,0,0,0
0,0,0,0,0,0,0,0,0,0,0,1543,1543,1543,1543,1543,1543,1543,1536,1536,1536,1536,1536,1529,1529,1529,1529,1523,1523,1523,1523,1523,1529,1529,1529,1529,1536,1536,1529,1529,1529,1529,1529,1529,1529,1529,1529,1529,1523,1523,1523,1529,1536,1536,1543,1543,1543,1543,1536,1536,1536,1536,1536,1536,1529,1529,1529,1536,1536,1536,1536,1536,1536,1529,1529,1523,1523,1523,1523,1523,1523,1529,1529,1529,1529,1529,1529,1516,1516,1516,1516,1516,1516,1516,0,0,0,1034,1034,1038,1034,1034,1038,1038,1038,1041,1041,1041,1038,1038,1041,1038,1038,1038,0,0,0,0,0,0,0,0,0,0,0,0,0,688,688,687,687,687,687,687,687,687,688,688,690,693,696,696,696,697,697,697,697,698,698,700,700,703,703,706,707,708,710,711,711,711,714,714,716,717,719,719,720,720,722,722,722,725,725,725,727,727,727,728,728,728,730,731,731,731,731,734,736,738,739,739,741,741,741,1496,1496,1496,1496,1503,1509,1509,1509,1509,1509,1509,1509,1509,1509,1509,1509,1516,1509,1509,1516,1516,1509,1509,1509,1509,1509,1509,1509,1509,1509,1503,1503,1509,1509,1509,1509,1509,1509,1509,1509,1509,1509,1509,1509,1509,1509,1509,1509,1509,1503,1503,1503,1503,1503,1509,1210,1210,1210,1210,1210,1214,1214,1219,1214,1214,1214,1214,1219,1219,1219,1219,1219,1223,1223,1223,1227,1227,1227,1227,1227,1227,1227,1227,1227,1227,1227,1227,1227,1227,1227,1227,1227,1232,1232,1232,1232,1232,1236,1236,1241,1241,1241,1489,1489,1489,1489,1489,1489,1489,1489,1489,1489,1489,1489,1489,1489,1489,1489,1489,1483,1483,1483,1483,1496,1496,1496,1496,1496,1496,1496,1496,1496,1496,1496,1496,1496,1496,1489,1489,1489,1483,1477,1477,0,0,0,0,0,0,0,0,940,938,938,935,933,930,928,928,925,925,925,925,925,925,928,928,930,930,933,933,935,935,935,938,938,938,0,0,0,0,0,1489,1489,1483,1483,1483,1483,1483,1483,1483,1477,1477,1477,1477,1477,1477,1477,1477,1477,1477,1470,1470,1470,1477,1477,1477,1477,1477,1477,1470,1470,1477,1470,1470,1470,1470,1470,1470,1470,1470,1470,1470,1470,1470,1470,1470,1470,1464,1464,1464,1464,1464,1464,1464,1464,1464,1464,1464,1464,1464,1464,1464,1464,1464,1464,1470,1470,1470,1464,1464,1464,1464,1464,1464,1464,1464,1458,1458,1458,1458,1452,1452,1452,1445,1445,1439,1439,1433,1433,1427,1421,1415,1415,1415,1415,1410,1404,1398,1398,1398,1392,1392,1387,1387,1381,1370,1370,1365,1359,1359,1359,1359,1354,1354,1354,1349,1349,1343,1343,1333,1333,1328,1328,1322,1322,1317,1312,1312,1312,1307,1307,1302,1292,1292,1292,1288,1288,1283,1278,1273,1273,1273,1273,1268,1268,1264,1264,1259,1259,1255,1255,1250,1250,1245,1245,1241,1236,1236,1236,1232,1232,1227,1227,1227,1223,1219,1219,1214,1210,1206,1202,1202,1197,1197,1193,1193,1189,1189,1185,1181,1181,1181,1177,1177,1173,1169,1169,1169,1165,1165,1165,1161,1157,1153,1153,1149,1149,1149,1145,1141,1138,1138,1138,1134,1134,1126,1126,1123,1123,1123,1119,1119,1115,1115,1112,1108,1105,1105,1105,1101,1101,1097,1094,1094,1094,1090,1090,1087,1087,1084,1080,1080,1077,1077,0,0,0,0,0,0,0,0,0,0,0,0,0,0,0,0,0,0,0,0,0,0,0,0,0,0,0,0,0,0,0,0
