0,0,0,0,0,0,0,0,0,0,0,0,0,0,0,0,0,0,0,0,0,0,0,0,0,0,0,0,0,0,0,0,0,0,0,0,0,0,0,0,0,0,0,0,0,0,0,0,0,0,0,0,0,0,0,0,0,0,0,0,0,0,0,0,0,0,0,0,0,0,0,0,0,0,0,0,0,0,0,0,0,0,0,0,0,0,0,0,0,0,0,0,0,0,0,0,0,0,0,0,0,0,0,0,0,0,0,0,0,0,0,0,0,0,0,0,0,0,0,0,0,0,0,0,0,0,0,0,0,0,0,0,0,0,0,0,0,0,0,0,0,0,0,0,0,0,0,0,0,0,0,0,0,0,0,0,0,0,0,0,0,0,0,0,0,0,0,0,0,0,0,0,0,0,0,0,0,0,0,0,0,0,0,0,0,0,0,0,0,0,0,0,0,0,0,0,0,0,0,0,0,0,0,0,0,0,0,0,0,0,0,0,0,0,0,0,0,0,0,0,0,0,0,0,0,0,0,0,0,0,0,0,0,0,0,0,0,0,0,0,0,0,0,0,0,0,0,0,0,0,0,0,0,0,0,0,0,0,0,0,0,0,0,0,0,0,0,0,0,0,0,0,0,0,0,0,0,0,0,0,0,0,0,0,0,0,0,0,0,0,0,0,0,0,0,0,0,0,0,0,0,0,0,0,0,0,0,0,0,0,0,0,0,0,0,0,0,0,0,0,0,0,0,0,0,0,0,0,0,0,0,0,0,0,0,0,0,0,0,0,0,0,0,0,0,0,0,0,0,0,0,0,0,0,0,0,0,0,0,0,0,0,0,0,0,0,0,0,0,0,0,0,0,0,0,0,0,0,0,0,0,0,0,0,0,0,0,0,0,0,0,0,0,0,0,0,0,0,0,0,0,0,0,0,0,0,0,0,0,0,0,0,0,0,0,0,0,0,0,0,0,0,0,0,0,0,0,0,0,0,0,0,0,0,0,0,0,0,0,0,0,0,0,0,0,0,0,0,0,0,0,0,0,0,0,0,0,0,0,0,0,0,0,0,0,0,0,0,0,0,0,0,0,0,0,0,0,0,0,0,0,0,0,0,0,0,0,0,0,0,0,0,0,0,0,0,0,0,0,0,0,0,0,0,0,0,0,0,0,0,0,0,0,0,0,0,0,0,0,0,0,0,0,0,0,0,0,0,0,0,0,0,0,0,0,0,0,0,0,0,0,0,0,0,0,0,0,0,0,0,0,0,0,0,0,0,0,0,0,0,0,0,0,0,0,0,0,0,0,0,0,0,0,0,0,0,0,0,0,0,0,0,0,0,0,0,0,0,0,0,0,0,0,0,0,0,0,0,0,0,0,0,0,0,0,0,0,0,0,0,0,0,0,0,0,0,0,0,0,0,0,0,0,0,0,0,0,0,0,0,0,0,0,0,0,0,0,0,0,0
0,0,0,0,0,0,0,0,0,0,0,0,0,0,0,0,0,0,0,0,0,0,0,0,0,0,0,0,0,0,0,0,0,0,0,0,0,0,0,0,0,0,0,0,0,0,0,0,0,0,0,0,0,0,0,0,0,0,0,0,0,0,0,0,0,0,0,0,0,0,0,0,0,0,0,0,0,0,0,0,0,0,0,0,0,0,0,0,0,0,0,0,0,0,0,0,0,0,0,0,0,0,0,0,0,0,0,0,0,0,0,0,0,0,0,0,0,0,0,0,0,0,0,0,0,0,0,0,0,0,0,0,0,0,0,0,0,0,0,0,0,0,0,0,0,0,0,0,0,0,0,0,0,0,0,0,0,0,0,0,0,0,0,0,0,0,0,0,0,0,0,0,0,0,0,0,0,0,0,0,0,0,0,0,0,0,0,0,0,0,0,0,0,0,0,0,0,0,0,0,0,0,0,0,0,0,0,0,0,0,0,0,0,0,0,0,0,0,0,0,0,0,0,0,0,0,0,0,0,0,0,0,0,0,0,0,0,0,0,0,0,0,0,0,0,0,0,0,0,0,0,0,0,0,0,0,0,0,0,0,0,0,0,0,0,0,0,0,0,0,0,0,0,0,0,0,0,0,0,0,0,0,0,0,0,0,0,0,0,0,0,0,0,0,0,0,0,0,0,0,0,0,0,0,0,0,0,0,0,0,0,0,0,0,0,0,0,0,0,0,0,0,0,0,0,0,0,0,0,0,0,0,0,0,0,0,0,0,0,0,0,0,0,0,0,0,0,0,0,0,0,0,0,0,0,0,0,0,0,0,0,0,0,0,0,0,0,0,0,0,0,0,0,0,0,0,0,0,0,0,0,0,0,0,0,0,0,0,0,0,0,0,0,0,0,0,0,0,0,0,0,0,0,0,0,0,0,0,0,0,0,0,0,0,0,0,0,0,0,0,0,0,0,0,0,0,0,0,0,0,0,0,0,0,0,0,0,0,0,0,0,0,0,0,0,0,0,0,0,0,0,0,0,0,0,0,0,0,0,0,0,0,0,0,0,0,0,0,0,0,0,0,0,0,0,0,0,0,0,0,0,0,0,0,0,0,0,0,0,0,0,0,0,0,0,0,0,0,0,0,0,0,0,0,0,0,0,0,0,0,0,0,0,0,0,0,0,0,0,0,0,0,0,0,0,0,0,0,0,0,0,0,0,0,0,0,0,0,0,0,0,0,0,0,0,0,0,0,0,0,0,0,0,0,0,0,0,0,0,0,0,0,0,0,0,0,0,0,0,0,0,0,0,0,0,0,0,0,0,0,0,0,0,0,0,0,0,0,0,0,0,0,0,0,0,0,0,0,0,0,0,0,0,0,0,0,0,0,0,0,0,0,0,0,0,0,0,0,0,0,0,0,0,0,0,0,0,0,0,0,0,0,0,0,0,0,0,0,0,0
0,0,0,0,0,0,0,0,0,0,0,0,0,0,0,0,0,0,0,0,0,0,0,0,0,0,0,0,0,0,0,0,0,0,0,0,0,0,0,0,0,0,0,0,0,0,0,0,0,0,0,0,0,0,0,0,0,0,0,0,0,0,0,0,0,0,0,0,0,0,0,0,0,0,0,0,0,0,0,0,0,0,0,0,0,0,0,0,0,0,0,0,0,0,0,0,0,0,0,0,0,0,0,0,0,0,0,0,0,0,0,0,0,0,0,0,0,0,0,0,0,0,0,0,0,0,0,0,0,0,0,0,0,0,0,0,0,0,0,0,0,0,0,0,0,0,0,0,0,0,0,0,0,0,0,0,0,0,0,0,0,0,0,0,0,0,0,0,0,0,0,0,0,0,0,0,0,0,0,0,0,0,0,0,0,0,0,0,0,0,0,0,0,0,0,0,0,0,0,0,0,0,0,0,0,0,0,0,0,0,0,0,0,0,0,0,0,0,0,0,0,0,0,0,0,0,0,0,0,0,0,0,0,0,0,0,0,0,0,0,0,0,0,0,0,0,0,0,0,0,0,0,0,0,0,0,0,0,0,0,0,0,0,0,0,0,0,0,0,0,0,0,0,0,0,0,0,0,0,0,0,0,0,0,0,0,0,0,0,0,0,0,0,0,0,0,0,0,0,0,0,0,0,0,0,0,0,0,0,0,0,0,0,0,0,0,0,0,0,0,0,0,0,0,0,0,0,0,0,0,0,0,0,0,0,0,0,0,0,0,0,0,0,0,0,0,0,0,0,0,0,0,0,0,0,0,0,0,0,0,0,0,0,0,0,0,0,0,0,0,0,0,0,0,0,0,0,0,0,0,0,0,0,0,0,0,0,0,0,0,0,0,0,0,0,0,0,0,0,0,0,0,0,0,0,0,0,0,0,0,0,0,0,0,0,0,0,0,0,0,0,0,0,0,0,0,0,0,0,0,0,0,0,0,0,0,0,0,0,0,0,0,0,0,0,0,0,0,0,0,0,0,0,0,0,0,0,0,0,0,0,0,0,0,0,0,0,0,0,0,0,0,0,0,0,0,0,0,0,0,0,0,0,0,0,0,0,0,0,0,0,0,0,0,0,0,0,0,0,0,0,0,0,0,0,0,0,0,0,0,0,0,0,0,0,0,0,0,0,0,0,0,0,0,0,0,0,0,0,0,0,0,0,0,0,0,0,0,0,0,0,0,0,0,0,0,0,0,0,0,0,0,0,0,0,0,0,0,0,0,0,0,0,0,0,0,0,0,0,0,0,0,0,0,0,0,0,0,0,0,0,0,0,0,0,0,0,0,0,0,0,0,0,0,0,0,0,0,0,0,0,0,0,0,0,0,0,0,0,0,0,0,0,0,0,0,0,0,0,0,0,0,0,0,0,0,0,0,0,0,0,0,0,0,0,0,0,0,0,0
0,0,0,0,0,0,0,0,0,0,0,0,0,0,0,0,0,0,0,0,0,0,0,0,0,0,0,0,0,0,0,0,0,0,0,0,0,0,0,0,0,0,0,0,0,0,0,0,0,0,0,0,0,0,0,0,0,0,0,0,0,0,0,0,0,0,0,0,0,0,0,0,0,0,0,0,0,0,0,0,0,0,0,0,0,0,0,0,0,0,0,0,0,0,0,0,0,0,0,0,0,0,0,0,0,0,0,0,0,0,0,0,0,0,0,0,0,0,0,0,0,0,0,0,0,0,0,0,0,0,0,0,0,0,0,0,0,0,0,0,0,0,0,0,0,0,0,0,0,0,0,0,0,0,0,0,0,0,0,0,0,0,0,0,0,0,0,0,0,0,0,0,0,0,0,0,0,0,0,0,0,0,0,0,0,0,0,0,0,0,0,0,0,0,0,0,0,0,0,0,0,0,0,0,0,0,0,0,0,0,0,0,0,0,0,0,0,0,0,0,0,0,0,0,0,0,0,0,0,0,0,0,0,0,0,0,0,0,0,0,0,0,0,0,0,0,0,0,0,0,0,0,0,0,0,0,0,0,0,0,0,0,0,0,0,0,0,0,0,0,0,0,0,0,0,0,0,0,0,0,0,0,0,0,0,0,0,0,0,0,0,0,0,0,0,0,0,0,0,0,0,0,0,0,0,0,0,0,0,0,0,0,0,0,0,0,0,0,0,0,0,0,0,0,0,0,0,0,0,0,0,0,0,0,0,0,0,0,0,0,0,0,0,0,0,0,0,0,0,0,0,0,0,0,0,0,0,0,0,0,0,0,0,0,0,0,0,0,0,0,0,0,0,0,0,0,0,0,0,0,0,0,0,0,0,0,0,0,0,0,0,0,0,0,0,0,0,0,0,0,0,0,0,0,0,0,0,0,0,0,0,0,0,0,0,0,0,0,0,0,0,0,0,0,0,0,0,0,0,0,0,0,0,0,0,0,0,0,0,0,0,0,0,0,0,0,0,0,0,0,0,0,0,0,0,0,0,0,0,0,0,0,0,0,0,0,0,0,0,0,0,0,0,0,0,0,0,0,0,0,0,0,0,0,0,0,0,0,0,0,0,0,0,0,0,0,0,0,0,0,0,0,0,0,0,0,0,0,0,0,0,0,0,0,0,0,0,0,0,0,0,0,0,0,0,0,0,0,0,0,0,0,0,0,0,0,0,0,0,0,0,0,0,0,0,0,0,0,0,0,0,0,0,0,0,0,0,0,0,0,0,0,0,0,0,0,0,0,0,0,0,0,0,0,0,0,0,0,0,0,0,0,0,0,0,0,0,0,0,0,0,0,0,0,0,0,0,0,0,0,0,0,0,0,0,0,0,0,0,0,0,0,0,0,0,0,0,0,0,0,0,0,0,0,0,0,0,0,0,0,0,0,0,0,0,0,0,0,0,0
0,0,0,0,0,0,0,0,0,0,0,0,0,0,0,0,0,0,0,0,0,0,0,0,0,0,0,0,0,0,0,0,0,0,0,0,0,0,0,0,0,0,0,0,0,0,0,0,0,0,0,0,0,0,0,0,0,0,0,0,0,0,0,0,0,0,0,0,0,0,0,0,0,0,0,0,0,0,0,0,0,0,0,0,0,0,0,0,0,0,0,0,0,0,0,0,0,0,0,0,0,0,0,0,0,0,0,0,0,0,0,0,0,0,0,0,0,0,0,0,0,0,0,0,0,0,0,0,0,0,0,0,0,0,0,0,0,0,0,0,0,0,0,0,0,0,0,0,0,0,0,0,0,0,0,0,0,0,0,0,0,0,0,0,0,0,0,0,0,0,0,0,0,0,0,0,0,0,0,0,0,0,0,0,0,0,0,0,0,0,0,0,0,0,0,0,0,0,0,0,0,0,0,0,0,0,0,0,0,0,0,0,0,0,0,0,0,0,0,0,0,0,0,0,0,0,0,0,0,0,0,0,0,0,0,0,0,0,0,0,0,0,0,0,0,0,0,0,0,0,0,0,0,0,0,0,0,0,0,0,0,0,0,0,0,0,0,0,0,0,0,0,0,0,0,0,0,0,0,0,0,0,0,0,0,0,0,0,0,0,0,0,0,0,0,0,0,0,0,0,0,0,0,0,0,0,0,0,0,0,0,0,0,0,0,0,0,0,0,0,0,0,0,0,0,0,0,0,0,0,0,0,0,0,0,0,0,0,0,0,0,0,0,0,0,0,0,0,0,0,0,0,0,0,0,0,0,0,0,0,0,0,0,0,0,0,0,0,0,0,0,0,0,0,0,0,0,0,0,0,0,0,0,0,0,0,0,0,0,0,0,0,0,0,0,0,0,0,0,0,0,0,0,0,0,0,0,0,0,0,0,0,0,0,0,0,0,0,0,0,0,0,0,0,0,0,0,0,0,0,0,0,0,0,0,0,0,0,0,0,0,0,0,0,0,0,0,0,0,0,0,0,0,0,0,0,0,0,0,0,0,0,0,0,0,0,0,0,0,0,0,0,0,0,0,0,0,0,0,0,0,0,0,0,0,0,0,0,0,0,0,0,0,0,0,0,0,0,0,0,0,0,0,0,0,0,0,0,0,0,0,0,0,0,0,0,0,0,0,0,0,0,0,0,0,0,0,0,0,0,0,0,0,0,0,0,0,0,0,0,0,0,0,0,0,0,0,0,0,0,0,0,0,0,0,0,0,0,0,0,0,0,0,0,0,0,0,0,0,0,0,0,0,0,0,0,0,0,0,0,0,0,0,0,0,0,0,0,0,0,0,0,0,0,0,0,0,0,0,0,0,0,0,0,0,0,0,0,0,0,0,0,0,0,0,0,0,0,0,0,0,0,0,0,0,0,0,0,0,0,0,0,0,0,0,0,0,0,0,0
0,0,0,0,0,0,0,0,0,0,0,0,0,0,0,0,1883,1883,1883,1873,1873,1873,1853,1843,1843,1833,1833,1823,1823,1813,1813,1813,1813,1804,1804,1804,1804,1794,1794,1794,1785,1785,1776,1766,1766,1757,1757,1757,1757,1748,1748,1748,1748,1748,1748,1739,1739,1739,1731,1731,1731,1731,1731,1722,1722,1722,1705,1705,1705,1705,1696,1696,1696,1696,1688,1688,1688,1688,1688,1688,1680,1680,1680,1680,1680,1671,1671,1663,1663,1663,1663,1663,1663,0,0,0,0,0,0,0,0,0,0,0,0,0,0,0,0,0,0,0,0,0,0,0,0,0,0,0,0,0,0,0,0,0,0,0,0,0,0,0,0,0,0,0,0,0,0,0,0,0,0,0,0,0,0,0,0,0,0,0,0,0,0,0,0,0,0,0,0,0,0,0,0,0,0,0,0,0,0,0,0,0,0,0,0,0,0,0,0,0,0,0,0,0,0,0,0,0,0,0,0,0,0,0,0,0,0,0,0,0,0,0,0,0,0,0,0,0,0,0,0,0,0,0,0,0,0,0,0,0,0,0,0,0,0,0,0,0,0,0,0,0,0,0,0,0,0,0,0,0,0,0,0,0,0,0,0,0,0,0,0,0,0,0,0,0,0,0,0,0,0,0,0,0,0,0,0,0,0,0,0,0,0,0,0,0,0,0,0,0,0,0,0,0,0,0,0,0,0,0,0,0,0,0,0,0,0,0,0,0,0,0,0,0,0,0,0,0,0,0,0,0,0,0,0,0,0,0,0,0,0,0,0,0,0,0,0,0,0,0,0,0,0,0,0,0,0,0,0,0,0,0,0,0,0,0,0,0,0,0,0,0,0,0,0,0,0,0,0,0,0,0,0,0,0,0,0,0,0,0,0,0,0,0,0,0,0,0,0,0,0,0,0,0,0,0,0,0,0,0,0,0,0,0,0,0,0,0,0,0,0,0,0,0,0,0,0,0,0,0,0,0,0,0,0,0,0,0,0,0,0,0,0,0,0,0,0,0,0,0,0,0,0,0,0,0,0,0,0,0,0,0,0,0,0,0,0,0,0,0,0,0,0,0,0,0,0,0,0,0,0,0,0,0,0,0,0,0,0,0,0,0,0,0,0,0,0,0,0,0,0,0,0,0,0,0,0,0,0,0,0,0,0,0,0,0,0,0,0,0,0,0,0,0,0,0,0,0,0,0,0,0,0,0,0,0,0,0,0,0,0,0,0,0,0,0,0,0,0,0,0,0,0,0,0,0,0,0,0,0,0,0,0,0,0,0,0,0,0,0,0,0,0,0,0,0,0,0,0,0,0,0,0,0,0,0,0,0,0,0,0,0,0,0,0,0,0,0,0,0,0,0,0,0,0,0,0,0,0,0,0,0,0,0,0,0,0,0,0,0,0,0,0,0,0,0,0,0,0,0,0,0,0,0,0,0,0,0,0,0,0,0,0,0,0,0,0,0,0,0,0,0,0,0,0,0,0,0
0,0,0,0,0,0,0,0,0,0,0,0,0,0,0,0,1883,1883,1883,1873,1873,1863,1853,1843,1843,1833,1833,1823,1823,1823,1813,1813,1813,1804,1804,1804,1804,1794,1794,1794,1785,1785,1766,1766,1766,1757,1757,1757,1757,1748,1748,1748,1748,1748,1748,1739,1739,1731,1731,1731,1731,1731,1731,1722,1722,1722,1705,1705,1705,1705,1696,1696,1696,1696,1688,1688,1688,1688,1688,1688,1680,1680,1680,1680,1680,1671,1671,1663,1663,1663,1663,1663,1663,1663,1663,1663,1663,1655,1655,1655,1655,1655,1655,1655,1655,1655,1647,1639,1639,1639,1639,1639,1632,1632,1632,1632,1632,1632,1624,1624,1624,1624,1624,1624,1624,1624,1616,1616,1609,1609,1609,1609,1609,1609,1601,1601,1601,1601,1594,1594,1594,1594,1594,1594,1594,1594,1594,1594,0,0,0,0,0,0,0,0,0,0,0,0,0,0,0,0,0,0,0,0,0,0,0,0,0,0,0,0,0,0,0,0,0,0,0,0,0,0,0,0,0,0,0,0,0,0,0,0,0,0,0,0,0,0,0,0,0,0,0,0,0,0,0,0,0,0,0,0,0,0,0,0,0,0,0,0,0,0,0,0,0,0,0,0,0,0,0,0,0,0,0,0,0,0,0,0,0,0,0,0,0,0,0,0,0,0,0,0,0,0,0,0,0,0,0,0,0,0,0,0,0,0,0,0,0,0,0,0,0,0,0,0,0,0,0,0,0,0,0,0,0,0,0,0,0,0,0,0,0,0,0,0,0,0,0,0,0,0,0,0,0,0,0,0,0,0,0,0,0,0,0,0,0,0,0,0,0,0,0,0,0,0,0,0,0,0,0,0,0,0,0,0,0,0,0,0,0,0,0,0,0,0,0,0,0,0,0,0,0,0,0,0,0,0,0,0,0,0,0,0,0,0,0,0,0,0,0,0,0,0,0,0,0,0,0,0,0,0,0,0,0,0,0,0,0,0,0,0,0,0,0,0,0,0,0,0,0,0,0,0,0,0,0,0,0,0,0,0,0,0,0,0,0,0,0,0,0,0,0,0,0,0,0,0,0,0,0,0,0,0,0,0,0,0,0,0,0,0,0,0,0,0,0,0,0,0,0,0,0,0,0,0,0,0,0,0,0,0,0,0,0,0,0,0,0,0,0,0,0,0,0,0,0,0,0,0,0,0,0,0,0,0,0,0,0,0,0,0,0,0,0,0,0,0,0,0,0,0,0,0,0,0,0,0,0,0,0,0,0,0,0,0,0,0,0,0,0,0,0,0,0,0,0,0,0,0,0,0,0,0,0,0,0,0,0,0,0,0,0,0,0,0,0,0,0,0,0,0,0,0,0,0,0,0,0,0,0,0,0,0,0,0,0,0,0,0,0,0,0,0,0,0,0,0,0,0,0,0,0,0,0,0,0,0,0,0,0,0,0,0,0,0,0,0,0,0,0,0,0,0,0,0,0,0,0,0,0,0,0,0,0,0,0,0,0,0,0,0,0,0,0,0,0,0,0,0,0,0,0,0,0,0
0,0,0,0,0,0,0,0,0,0,0,0,0,0,0,0,1883,1883,1883,1873,1873,1863,1853,1843,1843,1833,1833,1823,1823,1823,1813,1813,1813,1804,1804,1804,1804,1804,1794,1794,1794,1785,1766,1766,1766,1757,1757,1757,1757,1757,1757,1757,1748,1748,1757,1748,1739,1731,1731,1731,1731,1731,1731,1722,1722,1713,1705,1705,1705,1705,1696,1696,1696,1696,1688,1688,1688,1688,1688,1688,1680,1680,1680,1680,1680,1680,1671,1671,1663,1663,1663,1663,1663,1663,1663,1663,1663,1655,1655,1655,1655,1655,1655,1655,1655,1655,1647,1639,1639,1639,1639,1639,1632,1632,1632,1632,1632,1632,1624,1624,1624,1624,1624,1624,1624,1624,1616,1616,1609,1609,1609,1609,1609,1609,1601,1601,1601,1601,1594,1594,1594,1594,1594,1594,1594,1594,1594,1594,1594,1594,1601,1609,1616,1616,1624,1624,1624,1624,1624,1981,1970,1970,1970,1959,1959,1947,1926,1926,1915,1904,1904,1904,1915,1594,1594,1594,1594,1586,1586,1586,1586,1586,1586,1586,1579,1579,1586,1594,1594,1594,1594,1594,1594,1594,1594,1601,1601,1601,1601,1609,1609,1609,1616,1616,1624,1624,1616,1616,1616,0,0,0,0,0,0,0,0,0,0,0,0,0,0,0,0,0,0,0,0,0,0,0,0,0,0,0,0,0,0,0,0,0,0,0,0,0,0,0,0,0,0,0,0,0,0,0,0,0,0,0,0,0,0,0,0,0,0,0,0,0,0,0,0,0,0,0,0,0,0,0,0,0,0,0,0,0,0,0,0,0,0,0,0,0,0,0,0,0,0,0,0,0,0,0,0,0,0,0,0,0,0,0,0,0,0,0,0,0,0,0,0,0,0,0,0,0,0,0,0,0,0,0,0,0,0,0,0,0,0,0,0,0,0,0,0,0,0,0,0,0,0,0,0,0,0,0,0,0,0,0,0,0,0,0,0,0,0,0,0,0,0,0,0,0,0,0,0,0,0,0,0,0,0,0,0,0,0,0,0,0,0,0,0,0,0,0,0,0,0,0,0,0,0,0,0,0,0,0,0,0,0,0,0,0,0,0,0,0,0,0,0,0,0,0,0,0,0,0,0,0,0,0,0,0,0,0,0,0,0,0,0,0,0,0,0,0,0,0,0,0,0,0,0,0,0,0,0,0,0,0,0,0,0,0,0,0,0,0,0,0,0,0,0,0,0,0,0,0,0,0,0,0,0,0,0,0,0,0,0,0,0,0,0,0,0,0,0,0,0,0,0,0,0,0,0,0,0,0,0,0,0,0,0,0,0,0,0,0,0,0,0,0,0,0,0,0,0,0,0,0,0,0,0,0,0,0,0,0,0,0,0,0,0,0,0,0,0,0,0,0,0,0,0,0,0,0,0,0,0,0,0,0,0,0,0,0,0,0,0,0,0,0,0,0,0,0,0,0,0,0,0,0,0,0,0,0,0,0,0,0,0,0,0,0,0,0,0,0,0,0,0,0,0,0,0,0,0,0,0,0,0,0,0,0,0,0,0,0,0,0,0,0,0,0,0,0,0,0,0,0,0,0,0,0,0,0,0,0,0,0
0,0,0,0,0,0,0,0,0,0,0,0,0,0,0,0,1883,1883,1883,1873,1873,1863,1853,1853,1843,1833,1823,1823,1823,1823,1804,1804,1804,1804,1804,1804,1804,1804,1794,1794,1794,1794,1776,1766,1766,1766,1757,1757,1757,1757,1757,1757,1757,1757,1757,1748,1739,1739,1739,1731,1731,1731,1731,1722,1722,1713,1705,1705,1696,1696,1696,1696,1696,1696,1696,1696,1696,1688,1688,1688,1688,1688,1688,1680,1680,1680,1671,1671,1671,1671,1663,1663,1663,1663,1663,1663,1663,1655,1655,1655,1655,1655,1655,1655,1655,1655,1647,1639,1639,1639,1639,1639,1632,1632,1639,1632,1632,1632,1632,1624,1624,1624,1624,1624,1624,1624,1616,1616,1609,1609,1609,1609,1609,1609,1601,1601,1601,1601,1594,1594,1594,1594,1594,1594,1594,1594,1594,1594,1594,1594,1601,1609,1616,1616,1616,1624,1624,1624,1624,1981,1970,1970,1970,1959,1959,1947,1926,1926,1915,1904,1904,1904,1915,1594,1594,1594,1594,1586,1586,1586,1586,1586,1586,1586,1579,1579,1586,1594,1594,1594,1594,1594,1594,1594,1594,1601,1601,1601,1601,1609,1609,1609,1616,1616,1624,1624,1616,1616,1616,1616,1616,0,0,0,0,0,0,1031,1028,1025,1025,1025,1022,1022,1022,1019,1019,1019,1019,1019,1013,1010,1007,1001,998,998,995,995,992,989,987,987,987,984,978,975,973,970,970,967,964,962,962,959,954,954,951,948,946,946,943,935,935,933,933,928,925,923,923,0,0,0,0,0,0,0,0,0,0,0,0,0,0,0,0,0,0,0,0,0,0,0,0,0,0,0,0,0,0,0,0,0,0,0,0,0,0,0,0,0,0,0,0,0,0,0,0,0,0,0,0,0,0,0,0,0,0,0,0,0,0,0,0,0,0,0,0,0,0,0,0,0,0,0,0,0,0,0,0,0,0,0,0,0,0,0,0,0,0,0,0,0,0,0,0,0,0,0,0,0,0,0,0,0,0,0,0,0,0,0,0,0,0,0,0,0,0,0,0,0,0,0,0,0,0,0,0,0,0,0,0,0,0,0,0,0,0,0,0,0,0,0,0,0,0,0,0,0,0,0,0,0,0,0,0,0,0,0,0,0,0,0,0,0,0,0,0,0,0,0,0,0,0,0,0,0,0,0,0,0,0,0,0,0,0,0,0,0,0,0,0,0,0,0,0,0,0,0,0,0,0,0,0,0,0,0,0,0,0,0,0,0,0,0,0,0,0,0,0,0,0,0,0,0,0,0,0,0,0,0,0,0,0,0,0,0,0,0,0,0,0,0,0,0,0,0,0,0,0,0,0,0,0,0,0,0,0,0,0,0,0,0,0,0,0,0,0,0,0,0,0,0,0,0,0,0,0,0,0,0,0,0,0,0,0,0,0,0,0,0,0,0,0,0,0,0,0,0,0,0,0,0,0,0,0,0,0,0,0,0,0,0,0,0,0,0,0,0,0,0,0,0,0,0,0,0,0,0,0,0,0,0,0,0,0,0,0,0,0,0,0,0,0,0,0,0,0,0,0,0,0,0,0,0,0,0,0,0,0,0,0,0,0,0,0,0,0,0,0,0
0,0,0,0,0,0,0,0,0,0,0,0,0,0,0,0,1883,1883,1883,1873,1873,1853,1853,1843,1843,1833,1823,1823,1823,1823,1804,1804,1804,1804,1804,1804,1804,1804,1794,1794,1794,1794,1776,1766,1766,1766,1757,1757,1766,1766,1757,1757,1757,1757,1757,1739,1739,1739,1739,1739,1739,1731,1731,1722,1722,1713,1705,1705,1696,1696,1696,1696,1696,1696,1696,1696,1696,1696,1688,1688,1688,1688,1688,1688,1688,1680,1671,1671,1671,1671,1663,1663,1663,1663,1663,1663,1663,1663,1655,1655,1655,1655,1655,1655,1655,1655,1647,1647,1639,1639,1639,1639,1639,1639,1639,1632,1632,1632,1632,1632,1632,1624,1624,1624,1624,1624,1624,1624,1616,1616,1616,1609,1609,1609,1609,1601,1601,1601,1601,1601,1594,1594,1594,1594,1594,1594,1594,1594,1601,1601,1601,1609,1616,1616,1616,1624,1624,1624,1624,1981,1970,1970,1970,1959,1959,1947,1936,1926,1915,1904,1904,1915,1915,1594,1594,1594,1594,1586,1586,1586,1586,1586,1586,1586,1579,1579,1586,1594,1594,1594,1594,1594,1594,1594,1594,1601,1601,1601,1609,1609,1609,1609,1616,1616,1624,1624,1616,1616,1616,1616,1616,0,0,0,0,0,0,1031,1028,1025,1025,1025,1022,1022,1022,1019,1019,1019,1019,1019,1013,1010,1007,1001,998,998,995,992,989,987,987,984,984,984,978,975,973,970,970,967,964,962,962,959,954,954,951,948,946,946,943,935,935,933,933,928,925,923,920,915,913,913,910,908,906,903,901,898,896,894,891,889,887,887,885,880,875,871,869,867,862,860,860,856,854,851,847,845,843,841,839,835,831,829,825,823,821,817,813,805,803,803,800,798,798,796,796,796,792,792,792,794,794,794,794,796,796,796,796,798,798,800,802,802,802,803,803,803,803,0,0,0,0,0,0,0,0,1470,1470,1470,0,0,0,0,0,0,0,0,0,0,0,0,0,0,0,0,0,0,0,0,0,0,0,0,0,0,0,0,0,0,0,0,0,0,0,0,0,0,0,0,0,0,0,0,0,0,0,0,0,0,0,0,0,0,0,0,0,0,0,0,0,0,0,0,0,0,0,0,0,0,0,0,0,0,0,0,0,0,0,0,0,0,0,0,0,0,0,0,0,0,0,0,0,0,0,0,0,0,0,0,0,0,0,0,0,0,0,0,0,0,0,0,0,0,0,0,0,0,0,0,0,0,0,0,0,0,0,0,0,0,0,0,0,0,0,0,0,0,0,0,0,0,0,0,0,0,0,0,0,0,0,0,0,0,0,0,0,0,0,0,0,0,0,0,0,0,0,0,0,0,0,0,0,0,0,0,0,0,0,0,0,0,0,0,0,0,0,0,0,0,0,0,0,0,0,0,0,0,0,0,0,0,0,0,0,0,0,0,0,0,0,0,0,0,0,0,0,0,0,0,0,0,0,0,0,0,0,0,0,0,0,0,0,0,0,0,0,0,0,0,0,0,0,0,0,0,0,0,0,0,0,0,0,0,0,0,0,0,0,0,0,0,0,0,0,0,0,0,0,0,0,0,0,0,0,0,0,0,0,0,0,0,0,0,0,0,0,0,0,0
0,0,0,0,0,0,0,0,0,0,0,0,0,0,0,0,1883,1883,1883,1873,1873,1853,1853,1843,1843,1833,1833,1833,1823,1813,1813,1813,1813,1804,1804,1804,1804,1804,1804,1794,1794,1785,1776,1766,1766,1766,1766,1766,1766,1766,1766,1757,1757,1757,1757,1731,1731,1739,1739,1739,1739,1731,1731,1722,1722,1713,1705,1705,1696,1696,1696,1696,1696,1696,1696,1696,1696,1696,1688,1688,1688,1688,1688,1688,1688,1680,1671,1671,1671,1671,1663,1663,1663,1663,1663,1663,1663,1663,1655,1655,1655,1655,1655,1655,1655,1647,1647,1639,1639,1639,1639,1639,1639,1639,1639,1639,1639,1632,1632,1632,1632,1632,1632,1632,1632,1624,1624,1624,1616,1616,1616,1616,1609,1609,1609,1609,1609,1601,1601,1601,1601,1601,1601,1601,1601,1601,1601,1601,1601,1601,1609,1609,1616,1616,1616,1624,1624,1624,1624,1993,1993,1970,1970,1970,1959,1959,1947,1936,1915,1904,1904,1904,1904,1594,1594,1594,1594,1586,1586,1586,1586,1586,1586,1586,1586,1586,1594,1594,1594,1594,1594,1594,1594,1594,1594,1601,1601,1601,1609,1609,1609,1616,1616,1624,1624,1624,1616,1616,1616,1616,1624,0,0,0,0,0,0,1031,1031,1025,1025,1025,1022,1022,1022,1022,1019,1019,1019,1019,1016,1013,1010,1001,1001,998,995,992,989,987,987,984,984,984,978,975,975,970,970,967,964,964,962,959,954,954,951,948,948,946,943,938,935,933,933,928,925,923,920,915,913,913,910,908,906,903,901,898,896,894,891,889,887,887,882,880,875,871,869,867,862,860,858,856,854,851,847,845,843,841,839,833,831,829,825,823,821,817,813,805,803,803,800,798,798,796,796,796,792,792,792,794,794,794,794,796,796,796,796,798,798,800,802,802,802,803,803,803,803,0,0,0,0,0,0,0,0,1470,1470,1470,1470,1470,1464,1464,1452,1452,1445,1445,1439,1439,1439,1433,1433,1421,1421,1415,1415,1410,1410,1404,1398,1398,1392,1392,1392,1392,1387,1387,1381,1376,1376,1370,1370,1370,1365,1359,1359,1354,1354,1349,1349,1349,1343,1333,1333,1333,1333,1328,1328,1328,1322,1317,1312,1312,1307,1307,1307,1302,1297,1297,1292,1292,1288,1288,1283,1278,1278,1273,1273,1273,1268,1264,1264,1259,1255,1255,1255,1250,1250,1245,1245,1241,1236,1236,1232,1232,0,0,0,0,0,0,0,0,0,0,0,0,0,0,0,0,0,0,0,0,0,0,0,0,0,0,0,0,0,0,0,0,0,0,0,0,0,0,0,0,0,0,0,0,0,0,0,0,0,0,0,0,0,0,0,0,0,0,0,0,0,0,0,0,0,0,0,0,0,0,0,0,0,0,0,0,0,0,0,0,0,0,0,0,0,0,0,0,0,0,0,0,0,0,0,0,0,0,0,0,0,0,0,0,0,0,0,0,0,0,0,0,0,0,0,0,0,0,0,0,0,0,0,0,0,0,0,0,0,0,0,0,0,0,0,0,0,0,0,0,0,0,0,0,0,0,0,0,0,0,0,0,0,0,0,0,0,0,0,0,0,0,0,0,0,0,0,0,0,0,0,0,0,0,0,0,0,0,0,0,0,0,0,0,0,0,0,0,0,0,0,0,0,0,0,0,0,0,0,0,0,0,0,0
0,0,0,0,0,0,0,0,0,0,0,0,0,0,0,0,1883,1883,1883,1873,1873,1853,1843,1843,1843,1833,1833,1833,1823,1813,1813,1813,1813,1813,1813,1804,1804,1804,1804,1794,1794,1785,1776,1766,1766,1766,1766,1766,1766,1766,1766,1757,1757,1757,1757,1731,1731,1739,1739,1739,1739,1731,1731,1722,1722,1713,1705,1705,1705,1705,1705,1696,1696,1696,1696,1696,1696,1696,1696,1696,1688,1688,1688,1688,1688,1680,1671,1671,1671,1671,1663,1663,1671,1671,1671,1671,1671,1663,1663,1663,1655,1655,1655,1647,1647,1647,1639,1639,1639,1639,1639,1639,1639,1639,1639,1639,1639,1639,1632,1632,1632,1632,1632,1632,1632,1624,1624,1624,1616,1616,1616,1616,1616,1616,1609,1609,1609,1609,1601,1601,1601,1601,1601,1601,1601,1601,1601,1601,1601,1601,1609,1616,1624,1624,1624,1624,1624,1624,1624,1632,1993,1993,1981,1970,1970,1959,1947,1947,1926,1904,1904,1904,1904,1586,1586,1594,1594,1594,1586,1586,1586,1586,1586,1586,1586,1586,1594,1594,1594,1594,1594,1594,1594,1594,1594,1601,1601,1609,1609,1609,1616,1616,1616,1624,1624,1624,1624,1624,1624,1624,0,0,0,0,0,0,0,1034,1031,1028,1025,1025,1022,1022,1022,1022,1022,1019,1019,1022,1022,1016,1010,1004,1004,1022,1022,1031,989,987,984,984,984,984,978,978,973,970,970,967,964,964,962,962,956,954,954,948,948,946,943,938,935,935,933,930,925,923,920,918,915,913,910,908,906,903,901,898,896,894,891,889,887,887,882,880,875,871,869,867,864,862,858,856,854,851,847,845,843,841,839,833,831,829,827,823,823,817,807,805,803,803,802,800,798,796,796,796,794,794,794,794,794,794,796,796,796,798,798,798,800,802,802,803,803,803,803,803,803,805,0,0,0,0,0,0,0,1470,1470,1470,1470,1470,1464,1464,1452,1452,1445,1445,1439,1439,1439,1433,1433,1421,1421,1415,1415,1410,1410,1404,1398,1398,1392,1392,1392,1392,1387,1387,1381,1376,1376,1370,1370,1370,1365,1359,1359,1354,1354,1349,1349,1349,1343,1333,1333,1333,1333,1328,1328,1328,1322,1317,1312,1312,1307,1307,1307,1302,1297,1297,1292,1292,1288,1288,1283,1278,1278,1273,1273,1273,1268,1264,1264,1259,1255,1255,1255,1250,1250,1245,1245,1241,1236,1236,1232,1232,1232,1227,1227,1223,1223,1223,1219,1219,1214,1214,1210,1206,1202,1202,1202,1197,1197,1193,1193,1189,1185,1185,1181,1181,1177,1177,1173,1173,1173,1169,1169,1165,1165,1161,1161,1157,1157,1153,1153,1149,1145,1145,1141,1138,1138,1134,1134,1130,1130,1130,1123,1123,1123,1119,1119,1119,1115,1115,1112,1108,1108,1108,1105,1105,1101,1101,1097,1097,1094,1094,1090,1090,1090,1087,1087,1084,1084,1080,1080,1077,1073,1073,1070,1070,1067,1067,1063,1063,1063,1060,1060,1057,1057,1054,1054,1050,1050,1047,1047,1044,1041,1041,1038,1038,1038,1031,1028,1028,0,0,0,0,0,0,0,0,0,0,0,0,0,0,0,0,0,0,0,0,0,0,0,0,0,0,0,0,0,0,0,0,0,0,0,0,0,0,0,0,0,0,0,0,0,0,0,0,0,0,0,0,0,0,0,0,0,0,0,0,0,0,0,0,0,0,0,0,0,0,0,0,0,0,0,0,0,0,0,0,0,0,0,0,0,0,0,0,0,0,0,0,0,0,0,0
0,0,0,0,0,0,0,0,0,0,0,0,0,0,0,0,1883,1873,1873,1873,1873,1853,1843,1843,1843,1843,1833,1833,1823,1823,1813,1813,1813,1813,1813,1804,1804,1804,1804,1804,1794,1785,1776,1766,1766,1766,1766,1766,1766,1766,1766,1766,1757,1757,1757,1739,1739,1739,1739,1739,1739,1731,1731,1731,1722,1722,1713,1705,1705,1705,1705,1696,1696,1696,1696,1696,1696,1696,1696,1696,1696,1696,1696,1688,1688,1688,1680,1680,1680,1680,1671,1671,1671,1671,1671,1671,1671,1663,1663,1663,1655,1655,1655,1647,1647,1647,1639,1639,1639,1639,1639,1639,1639,1639,1639,1639,1639,1639,1639,1639,1632,1632,1632,1632,1632,1632,1624,1624,1624,1616,1616,1616,1616,1616,1616,1609,1609,1609,1609,1601,1601,1601,1601,1601,1601,1601,1601,1601,1601,1601,1609,1616,1624,1624,1624,1624,1632,1632,1632,1632,1993,1993,1981,1970,1970,1959,1959,1947,1936,1915,1915,1915,1915,1586,1586,1594,1594,1594,1586,1586,1586,1586,1586,1594,1594,1594,1594,1594,1594,1594,1594,1594,1594,1594,1601,1601,1601,1609,1609,1609,1616,1616,1616,1624,1624,1624,1624,1624,1624,1624,0,0,0,0,0,0,0,1034,1034,1028,1025,1025,1022,1022,1022,1022,1022,1022,1022,1022,1022,1022,1019,1019,1019,1022,1028,1031,1034,1038,984,984,984,984,984,978,973,970,970,967,964,964,962,962,956,954,954,948,948,946,943,943,935,935,933,930,928,925,923,920,915,915,913,910,908,903,901,898,896,894,891,889,887,885,882,880,878,873,871,869,867,862,858,856,854,851,847,845,843,841,837,835,831,829,827,823,823,819,807,803,803,803,802,800,798,798,796,796,794,794,794,794,794,796,796,796,796,798,798,798,800,802,802,803,803,803,805,805,805,805,0,0,0,0,0,0,0,1470,1470,1470,1470,1470,1464,1464,1452,1452,1445,1445,1439,1439,1439,1433,1433,1421,1421,1421,1415,1415,1410,1404,1398,1398,1392,1392,1392,1392,1387,1381,1381,1376,1376,1370,1370,1370,1365,1359,1359,1354,1354,1349,1349,1349,1343,1333,1333,1333,1333,1328,1328,1328,1322,1317,1312,1312,1312,1307,1307,1302,1302,1297,1292,1292,1288,1288,1288,1283,1278,1273,1273,1273,1268,1264,1264,1259,1259,1259,1255,1255,1250,1250,1245,1241,1236,1236,1236,1232,1232,1227,1227,1223,1223,1219,1219,1219,1214,1210,1206,1206,1202,1202,1202,1197,1197,1193,1193,1189,1185,1185,1181,1181,1177,1177,1173,1173,1173,1169,1169,1165,1165,1161,1161,1157,1157,1153,1153,1149,1145,1145,1141,1138,1138,1134,1134,1130,1130,1130,1123,1123,1123,1119,1119,1119,1115,1115,1112,1108,1108,1108,1105,1105,1101,1101,1097,1097,1094,1094,1090,1090,1090,1087,1084,1084,1084,1080,1080,1077,1073,1073,1070,1070,1067,1067,1063,1063,1063,1060,1060,1057,1057,1054,1054,1050,1050,1047,1047,1044,1041,1041,1038,1038,1038,1031,1028,1028,1025,1025,1025,1022,1022,1019,1019,1016,1016,1016,1013,1013,1010,1010,1007,1004,1001,1001,1001,998,998,995,992,992,989,987,987,984,981,981,978,978,978,975,975,973,970,970,967,967,964,964,962,959,959,956,954,954,948,946,946,940,940,940,938,938,938,933,930,928,928,928,925,923,923,923,0,0,0,0,0,0,0,0,0,0,0,0,0,0,0,0,0,0,0,0,0,0,0,0,0,0,0,0,0,0
0,0,0,0,0,0,0,0,0,0,0,0,0,0,0,0,1883,1873,1873,1873,1873,1853,1853,1843,1843,1833,1833,1833,1823,1823,1813,1813,1813,1813,1813,1804,1804,1804,1804,1804,1804,1785,1785,1776,1776,1776,1766,1766,1766,1766,1766,1766,1757,1757,1757,1739,1739,1739,1739,1739,1739,1731,1731,1731,1731,1722,1713,1713,1722,1722,1705,1705,1696,1696,1696,1696,1696,1696,1696,1696,1696,1696,1696,1688,1688,1688,1688,1680,1680,1680,1671,1671,1680,1680,1680,1680,1671,1671,1663,1663,1655,1655,1655,1655,1647,1647,1639,1639,1639,1639,1639,1639,1639,1639,1639,1632,1632,1639,1639,1639,1632,1632,1639,1639,1632,1632,1624,1624,1624,1624,1624,1616,1616,1616,1616,1616,1616,1616,1616,1609,1609,1609,1601,1601,1601,1601,1601,1601,1601,1601,1616,1616,1624,1624,1624,1632,1632,1632,1632,1981,1981,1981,1981,1970,1970,1959,1959,1947,1936,1915,1915,1926,1926,1594,1594,1594,1594,1594,1594,1586,1586,1586,1586,1594,1594,1594,1594,1594,1594,1594,1594,1594,1594,1601,1601,1601,1601,1609,1609,1609,1616,1616,1616,1624,1624,1624,1624,1624,1624,1624,0,0,0,0,0,0,0,1038,1034,1031,1025,1025,1022,1022,1022,1022,1022,1022,1022,1022,1022,1022,1022,1022,1022,1025,1028,1031,1034,1031,1031,987,987,987,987,978,973,970,970,967,964,964,964,962,956,954,951,948,946,946,943,943,938,935,933,930,928,925,925,923,918,915,913,910,906,903,901,898,896,894,894,889,887,882,882,878,875,873,871,869,867,864,858,858,854,851,847,845,843,841,837,835,833,829,827,825,825,821,807,803,802,802,802,800,800,798,798,796,794,794,794,796,796,796,796,796,796,798,798,800,800,802,803,803,803,805,805,805,807,807,0,0,0,0,0,0,0,1470,1470,1470,1470,1470,1470,1464,1464,1452,1445,1445,1439,1439,1439,1433,1433,1427,1421,1421,1415,1415,1415,1410,1398,1398,1392,1392,1392,1392,1387,1381,1381,1376,1376,1376,1370,1370,1365,1365,1359,1359,1359,1354,1354,1349,1349,1338,1333,1333,1333,1328,1328,1328,1322,1317,1312,1312,1312,1307,1307,1307,1302,1302,1297,1292,1292,1288,1288,1283,1278,1273,1273,1273,1268,1268,1264,1264,1259,1259,1255,1255,1250,1250,1250,1250,1236,1236,1236,1232,1232,1232,1232,1223,1223,1219,1219,1219,1214,1210,1206,1206,1202,1202,1202,1197,1197,1197,1193,1189,1185,1185,1181,1181,1181,1177,1173,1173,1173,1169,1169,1165,1165,1161,1161,1157,1157,1153,1153,1149,1145,1145,1141,1141,1138,1138,1134,1134,1134,1130,1130,1123,1123,1119,1119,1119,1119,1115,1112,1112,1108,1108,1108,1101,1101,1101,1097,1097,1094,1094,1090,1090,1090,1087,1084,1084,1084,1080,1080,1077,1073,1073,1070,1070,1067,1067,1063,1063,1063,1063,1060,1060,1057,1054,1054,1050,1050,1047,1047,1044,1041,1041,1038,1038,1038,1034,1028,1028,1025,1025,1025,1022,1022,1019,1016,1016,1016,1016,1013,1013,1010,1010,1007,1004,1001,1001,1001,998,995,995,992,992,989,987,987,984,981,981,978,978,978,975,975,973,970,970,967,967,964,964,959,956,956,956,954,951,948,946,946,940,940,940,938,938,938,933,930,928,928,928,925,923,923,923,0,0,0,0,0,0,0,0,0,0,0,0,0,0,0,0,0,0,0,0,0,0,0,0,0,0,0,0,0,0
0,0,0,0,0,0,0,0,0,0,0,0,0,0,0,0,1883,1873,1873,1873,1873,1853,1853,1853,1843,1833,1833,1833,1833,1823,1823,1823,1813,1813,1813,1813,1804,1804,1804,1804,1794,1794,1785,1776,1776,1766,1766,1766,1766,1766,1766,1757,1757,1757,1757,1739,1739,1731,1731,1731,1739,1731,1731,1731,1731,1731,1722,1722,1722,1722,1713,1705,1696,1696,1696,1696,1696,1696,1696,1696,1696,1696,1696,1688,1688,1688,1688,1680,1680,1680,1680,1680,1680,1680,1680,1671,1671,1671,1663,1663,1663,1655,1655,1655,1655,1655,1655,1647,1647,1639,1639,1639,1639,1639,1639,1632,1632,1639,1639,1639,1639,1639,1639,1639,1632,1632,1624,1624,1624,1624,1624,1624,1616,1616,1616,1616,1616,1616,1616,1609,1609,1609,1601,1601,1601,1601,1601,1601,1601,1609,1616,1616,1624,1624,1624,1632,1632,1632,1632,1639,1970,1970,1970,1970,1970,1970,1959,1959,1947,1936,1926,1926,1926,1926,1594,1594,1594,1594,1594,1586,1586,1586,1586,1594,1594,1594,1594,1594,1594,1594,1594,1594,1594,1601,1601,1601,1601,1609,1609,1616,1616,1616,1616,1624,1624,1624,1624,1624,1624,1624,0,0,0,0,0,0,0,0,1034,1034,1028,1025,1025,1022,1022,1022,1022,1022,1022,1022,1025,1025,1025,1025,1025,1025,1028,1031,1034,1031,1031,987,987,987,987,984,984,978,967,967,964,964,964,962,954,951,948,946,946,946,943,943,940,935,933,930,928,925,925,923,920,918,913,910,906,903,903,901,898,896,894,889,887,882,882,878,875,873,873,869,867,862,860,858,856,854,849,847,843,841,837,835,833,829,827,825,825,823,815,803,802,802,802,800,800,798,798,796,796,794,794,796,796,796,796,798,798,798,798,800,802,803,803,803,805,805,805,805,807,807,0,0,0,0,0,0,0,1477,1470,1470,1470,1470,1470,1464,1464,1458,1445,1445,1445,1439,1439,1433,1433,1427,1421,1421,1415,1415,1415,1410,1404,1398,1392,1392,1392,1392,1387,1381,1381,1376,1376,1376,1370,1370,1370,1365,1365,1359,1359,1354,1354,1349,1349,1338,1333,1333,1333,1328,1328,1328,1328,1317,1317,1312,1312,1312,1307,1307,1307,1302,1297,1292,1292,1288,1288,1288,1283,1278,1278,1273,1273,1268,1268,1264,1264,1259,1255,1255,1255,1250,1250,1250,1241,1236,1236,1232,1232,1232,1232,1227,1227,1223,1223,1219,1214,1214,1210,1206,1206,1202,1202,1202,1197,1197,1193,1189,1185,1185,1185,1181,1181,1177,1177,1173,1173,1169,1169,1165,1165,1165,1161,1161,1157,1157,1153,1149,1149,1145,1145,1141,1141,1138,1138,1134,1134,1134,1130,1123,1123,1119,1119,1119,1119,1115,1115,1115,1112,1108,1108,1101,1101,1101,1097,1097,1094,1094,1090,1090,1090,1087,1087,1084,1084,1080,1077,1073,1073,1073,1070,1067,1067,1067,1067,1063,1063,1063,1060,1060,1057,1054,1054,1050,1050,1047,1047,1044,1041,1041,1038,1038,1034,1034,1028,1028,1028,1025,1025,1022,1022,1019,1016,1016,1016,1016,1013,1013,1013,1010,1007,1004,1001,1001,1001,998,995,995,992,992,989,987,987,984,981,981,981,978,978,978,975,973,970,970,967,967,967,964,959,956,956,956,954,951,951,948,948,943,943,940,940,938,938,938,933,930,928,928,925,925,925,925,0,0,0,0,0,0,0,0,0,0,0,0,0,0,0,0,0,0,0,0,0,0,0,0,0,0,0,0,0,0
0,0,0,0,0,0,0,0,0,0,0,0,0,0,0,0,1883,1883,1883,1873,1873,1853,1853,1853,1843,1833,1833,1833,1833,1823,1823,1823,1823,1823,1813,1813,1804,1804,1804,1804,1794,1794,1785,1766,1766,1766,1766,1766,1766,1766,1766,1757,1757,1757,1757,1739,1739,1731,1731,1731,1739,1731,1731,1731,1731,1731,1722,1722,1731,1722,1722,1705,1705,1705,1705,1705,1705,1705,1705,1696,1696,1696,1696,1696,1688,1688,1688,1680,1680,1680,1680,1680,1680,1680,1680,1671,1671,1671,1663,1663,1663,1663,1663,1655,1655,1655,1655,1655,1655,1647,1647,1647,1639,1639,1639,1639,1639,1639,1639,1639,1639,1639,1639,1639,1632,1632,1624,1624,1624,1624,1624,1624,1616,1616,1616,1616,1616,1616,1616,1616,1609,1609,1609,1601,1601,1601,1601,1601,1609,1609,1616,1616,1624,1624,1624,1632,1632,1632,1639,1639,1970,1970,1970,1970,1970,1970,1970,1959,1947,1936,1926,1926,1926,1926,1594,1594,1594,1594,1594,1594,1594,1594,1594,1594,1594,1594,1594,1594,1594,1594,1594,1601,1601,1601,1601,1609,1609,1609,1609,1616,1616,1624,1624,1624,1624,1624,1624,1624,1624,1624,0,0,0,0,0,0,0,0,1038,1034,1028,1025,1025,1025,1022,1022,1022,1022,1025,1025,1025,1028,1028,1028,1028,1028,1031,1034,1034,1031,1031,1031,987,987,987,1713,1713,1722,967,967,964,964,964,962,954,951,948,946,946,943,943,943,940,935,933,930,928,925,925,923,920,918,913,910,906,906,903,903,898,896,894,889,887,882,882,878,875,873,873,869,867,862,860,858,856,854,849,847,843,839,837,835,833,831,827,825,825,823,817,805,803,803,802,800,800,798,798,796,796,796,796,796,796,796,796,798,798,798,798,800,802,803,803,805,805,805,805,805,807,807,0,0,0,0,0,0,0,1477,1477,1477,1477,1470,1470,1464,1464,1458,1452,1445,1445,1439,1439,1439,1433,1427,1427,1421,1415,1415,1415,1415,1410,1398,1398,1392,1392,1392,1387,1381,1381,1376,1376,1376,1376,1370,1370,1370,1365,1365,1359,1354,1354,1354,1349,1343,1333,1333,1333,1333,1328,1328,1328,1322,1322,1322,1312,1312,1307,1307,1307,1302,1302,1292,1292,1292,1288,1288,1283,1283,1278,1273,1273,1268,1268,1264,1264,1259,1259,1255,1255,1250,1250,1250,1250,1241,1236,1232,1232,1232,1232,1227,1227,1223,1223,1219,1214,1214,1210,1206,1206,1202,1202,1202,1202,1197,1197,1193,1189,1185,1185,1181,1181,1181,1177,1173,1173,1169,1169,1165,1165,1165,1161,1161,1157,1157,1153,1153,1149,1145,1145,1141,1141,1138,1138,1134,1134,1134,1130,1123,1123,1123,1119,1119,1119,1115,1115,1115,1112,1112,1105,1105,1101,1101,1097,1097,1097,1094,1094,1090,1090,1087,1087,1084,1080,1080,1077,1073,1073,1073,1070,1067,1067,1067,1067,1067,1063,1063,1060,1060,1057,1054,1054,1050,1050,1047,1047,1044,1041,1041,1038,1038,1034,1034,1028,1028,1028,1025,1025,1025,1022,1019,1019,1016,1016,1016,1013,1013,1013,1010,1007,1004,1001,1001,1001,998,995,995,992,992,989,989,987,987,984,981,981,981,978,978,975,973,970,970,970,967,967,964,962,959,956,956,956,954,951,948,948,946,946,943,940,940,938,938,935,933,930,930,928,925,925,925,0,0,0,0,0,0,0,0,0,0,0,0,0,0,0,0,0,0,0,0,0,0,0,0,0,0,0,0,0,0
0,0,0,0,0,0,0,0,0,0,0,0,0,0,0,0,1883,1883,1883,1873,1873,1873,1853,1853,1843,1833,1833,1833,1833,1823,1823,1823,1823,1823,1813,1813,1804,1804,1804,1804,1794,1794,1785,1766,1766,1766,1766,1766,1766,1766,1766,1757,1757,1757,1757,1748,1748,1731,1731,1739,1739,1731,1731,1731,1731,1731,1731,1731,1731,1731,1722,1705,1705,1705,1705,1705,1705,1705,1705,1696,1696,1696,1696,1696,1688,1688,1688,1680,1680,1680,1680,1680,1680,1680,1680,1671,1671,1671,1663,1663,1663,1663,1663,1663,1655,1655,1655,1655,1655,1655,1647,1647,1647,1647,1639,1639,1639,1639,1639,1639,1639,1639,1639,1639,1632,1632,1624,1624,1624,1624,1624,1624,1624,1624,1624,1624,1624,1624,1616,1616,1616,1609,1609,1609,1601,1601,1601,1601,1609,1609,1616,1616,1624,1624,1632,1632,1632,1632,1632,1647,1970,1970,1981,1981,1981,1970,1970,1959,1959,1947,1926,1926,1926,1926,1926,1926,1601,1601,1594,1594,1594,1594,1594,1594,1594,1594,1594,1594,1594,1601,1601,1601,1601,1601,1609,1609,1609,1616,1616,1616,1616,1624,1624,1624,1624,1624,1624,1624,1624,1624,0,0,0,0,0,0,0,0,1038,1038,1034,1025,1025,1025,1022,1022,1025,1025,1025,1025,1028,1028,1028,1028,1031,1031,1034,1034,1038,1038,1038,1038,1038,1713,1713,1713,1713,1713,1713,1713,1722,1722,1722,1722,1722,1722,1722,946,943,943,943,943,940,938,938,930,928,925,923,923,920,920,915,910,906,906,903,903,898,896,894,891,887,882,882,878,875,875,873,871,869,864,860,858,856,854,849,847,843,839,837,835,833,831,827,827,827,825,825,805,803,803,803,800,800,798,798,796,796,796,796,796,796,796,798,798,798,798,800,802,802,803,803,805,805,805,805,807,807,807,0,0,0,0,0,0,0,1483,1477,1477,1477,1470,1470,1470,1464,1464,1458,1452,1445,1439,1439,1439,1433,1433,1427,1421,1421,1421,1415,1415,1410,1404,1404,1398,1392,1392,1387,1381,1381,1376,1376,1376,1376,1370,1370,1370,1370,1365,1365,1354,1354,1354,1349,1343,1338,1338,1338,1333,1333,1328,1328,1328,1322,1322,1312,1312,1307,1307,1307,1302,1302,1302,1297,1292,1292,1288,1288,1283,1278,1278,1273,1268,1268,1264,1264,1264,1259,1255,1255,1255,1255,1250,1250,1245,1236,1236,1232,1232,1232,1227,1227,1227,1223,1219,1214,1214,1214,1210,1210,1206,1206,1202,1202,1197,1197,1193,1189,1189,1185,1185,1181,1181,1177,1177,1173,1169,1169,1165,1165,1165,1165,1161,1157,1153,1153,1153,1149,1149,1145,1141,1141,1138,1138,1134,1134,1134,1130,1123,1123,1123,1119,1119,1119,1115,1115,1115,1112,1112,1105,1105,1101,1101,1097,1097,1097,1094,1094,1090,1090,1087,1087,1084,1080,1080,1080,1077,1073,1073,1070,1070,1070,1067,1067,1067,1063,1063,1063,1060,1057,1054,1054,1050,1050,1047,1047,1044,1041,1041,1041,1038,1038,1034,1028,1028,1028,1028,1025,1025,1022,1019,1019,1019,1016,1016,1013,1013,1013,1010,1007,1004,1004,1001,1001,998,995,995,992,992,989,989,987,987,984,981,981,981,978,978,975,973,973,970,970,967,967,967,962,959,959,956,956,954,951,948,948,946,946,943,940,940,938,938,935,933,930,930,928,928,925,925,0,0,0,0,0,0,0,0,0,0,0,0,0,0,0,0,0,0,0,0,0,0,0,0,0,0,0,0,0,0
0,0,0,0,0,0,0,0,0,0,0,0,0,0,0,0,1883,1883,1883,1883,1883,1863,1853,1853,1843,1833,1833,1833,1833,1823,1823,1823,1823,1813,1813,1813,1804,1804,1804,1794,1794,1794,1785,1776,1776,1766,1766,1766,1766,1766,1757,1757,1757,1757,1757,1757,1748,1748,1748,1748,1748,1739,1739,1731,1731,1731,1731,1731,1722,1722,1722,1713,1713,1713,1713,1705,1705,1705,1705,1705,1696,1696,1696,1696,1688,1688,1688,1688,1688,1688,1688,1688,1680,1680,1680,1671,1671,1671,1663,1663,1663,1663,1663,1663,1655,1655,1663,1655,1655,1655,1655,1655,1655,1647,1647,1639,1639,1639,1639,1639,1639,1639,1639,1639,1632,1632,1624,1624,1624,1624,1624,1624,1624,1624,1624,1624,1624,1624,1624,1616,1616,1609,1609,1609,1609,1609,1609,1609,1609,1609,1616,1616,1624,1624,1632,1632,1632,1632,1632,1970,1970,1970,1981,1981,1981,1981,1981,1970,1959,1959,1947,1926,1926,1926,1926,1926,1609,1609,1601,1601,1594,1594,1594,1594,1594,1594,1594,1594,1601,1601,1601,1601,1601,1609,1609,1609,1609,1616,1616,1624,1624,1624,1624,1624,1624,1624,1624,1624,1624,1624,0,0,0,0,0,0,0,0,1038,1038,1034,1028,1025,1025,1025,1025,1025,1025,1025,1025,1025,1028,1028,1028,1031,1031,1034,1034,1038,1038,1038,0,0,1713,1713,1705,1705,1713,1713,1713,1722,1722,1722,1722,1722,1722,1722,1731,943,943,940,940,940,938,935,930,928,925,923,923,920,918,915,910,906,906,903,903,898,896,894,891,885,885,882,878,878,875,873,871,869,864,862,860,858,854,849,847,843,839,837,837,833,831,829,827,827,825,811,805,803,803,803,802,800,798,798,798,796,796,796,796,796,798,798,798,798,798,800,802,803,803,805,805,805,805,805,807,809,809,0,0,0,0,0,0,0,1483,1483,1483,1477,1477,1470,1470,1470,1464,1458,1452,1445,1439,1439,1439,1439,1433,1433,1427,1421,1421,1421,1415,1415,1410,1404,1398,1392,1392,1387,1381,1381,1376,1376,1376,1376,1370,1370,1370,1370,1365,1365,1354,1354,1354,1349,1343,1343,1338,1338,1333,1333,1328,1328,1328,1322,1322,1312,1312,1307,1307,1307,1307,1302,1302,1297,1297,1292,1292,1288,1288,1283,1278,1273,1268,1268,1264,1264,1264,1259,1255,1255,1255,1255,1250,1250,1250,1236,1236,1232,1232,1227,1227,1227,1223,1223,1219,1214,1214,1214,1210,1206,1206,1206,1202,1202,1202,1197,1197,1189,1189,1185,1185,1181,1181,1181,1177,1177,1173,1169,1165,1165,1165,1165,1161,1157,1153,1153,1153,1149,1149,1149,1145,1141,1138,1138,1134,1134,1134,1130,1126,1123,1123,1119,1119,1119,1115,1115,1115,1112,1112,1105,1105,1105,1101,1097,1097,1097,1094,1094,1094,1090,1090,1087,1084,1084,1080,1080,1077,1073,1073,1070,1070,1070,1067,1067,1067,1063,1063,1063,1060,1057,1054,1054,1054,1050,1050,1050,1047,1041,1041,1041,1038,1038,1034,1034,1031,1028,1028,1028,1025,1025,1022,1022,1019,1019,1016,1016,1013,1010,1010,1007,1004,1004,1001,1001,1001,998,995,992,992,989,989,987,987,984,981,981,981,978,978,975,975,973,970,970,970,970,967,959,959,959,956,956,956,951,951,948,946,946,940,940,938,938,938,935,933,930,930,928,928,928,928,0,0,0,0,0,0,0,0,0,0,0,0,0,0,0,0,0,0,0,0,0,0,0,0,0,0,0,0,0,0
0,0,0,0,0,0,0,0,0,0,0,0,0,0,0,0,1883,1883,1883,1873,1873,1863,1853,1853,1843,1833,1833,1833,1833,1823,1823,1823,1823,1813,1813,1813,1804,1804,1804,1794,1794,1794,1785,1766,1766,1766,1766,1766,1766,1766,1757,1757,1757,1757,1757,1757,1748,1748,1757,1748,1748,1739,1739,1739,1731,1731,1731,1731,1722,1722,1722,1713,1713,1713,1713,1705,1705,1705,1705,1705,1705,1705,1705,1696,1696,1696,1696,1688,1688,1688,1688,1688,1688,1680,1680,1680,1671,1671,1663,1663,1663,1663,1663,1663,1663,1663,1663,1663,1663,1655,1655,1655,1655,1655,1647,1647,1647,1639,1639,1639,1639,1639,1639,1639,1632,1632,1624,1624,1624,1624,1624,1624,1624,1624,1624,1624,1624,1624,1624,1616,1616,1616,1616,1609,1609,1609,1609,1609,1609,1609,1616,1616,1624,1624,1632,1632,1632,1632,1632,1632,1970,1981,1993,1993,1993,1981,1981,1970,1970,1959,1947,1947,1926,1926,1926,1594,1594,1601,1601,1601,1594,1594,1594,1594,1594,1594,1594,1594,1601,1601,1601,1601,1609,1616,1616,1616,1616,1616,1624,1624,1624,1624,1624,1624,1624,1624,1624,1624,1624,1624,0,0,0,0,0,0,0,0,1038,1038,1034,1034,1025,1025,1025,1025,1025,1025,1025,1025,1025,1028,1028,1028,1031,1031,1034,1034,1038,1038,1041,1041,0,1713,1713,1696,1696,1713,1713,1713,1722,1722,1722,1722,1722,1722,1731,1731,1731,1731,940,940,940,938,935,935,1739,1739,923,920,920,918,915,908,906,903,903,901,898,896,894,891,885,885,882,878,878,875,875,873,871,864,862,860,858,854,849,847,843,839,837,837,835,831,829,829,827,825,811,809,805,805,803,802,800,798,798,798,796,796,796,796,796,798,798,798,798,800,802,803,803,805,805,805,805,805,805,807,809,809,0,0,0,0,0,0,0,1489,1483,1483,1477,1477,1477,1470,1470,1464,1458,1458,1445,1445,1439,1439,1439,1433,1433,1427,1427,1427,1421,1415,1415,1410,1410,1404,1398,1392,1387,1387,1381,1376,1376,1376,1376,1370,1370,1370,1370,1365,1365,1359,1354,1354,1349,1349,1343,1343,1343,1338,1333,1333,1333,1328,1328,1322,1312,1312,1307,1307,1307,1307,1307,1302,1297,1297,1292,1292,1288,1288,1283,1278,1273,1273,1268,1268,1268,1264,1259,1255,1255,1255,1255,1250,1250,1250,1241,1236,1236,1232,1227,1227,1232,1223,1223,1219,1214,1214,1214,1210,1206,1206,1206,1206,1202,1202,1197,1197,1193,1189,1189,1185,1185,1181,1181,1177,1177,1173,1169,1169,1169,1165,1165,1161,1161,1157,1153,1153,1153,1149,1149,1145,1145,1138,1138,1138,1134,1134,1134,1126,1126,1123,1123,1119,1119,1119,1115,1115,1115,1112,1108,1105,1105,1105,1101,1097,1097,1097,1094,1094,1090,1090,1087,1087,1084,1080,1080,1077,1077,1073,1070,1070,1070,1067,1067,1067,1063,1063,1063,1060,1060,1054,1054,1054,1050,1050,1050,1047,1044,1044,1041,1038,1038,1038,1034,1031,1031,1028,1028,1025,1025,1022,1022,1019,1019,1016,1016,1013,1010,1010,1007,1004,1004,1001,1001,1001,998,998,995,995,992,989,989,987,987,984,981,981,978,978,975,975,973,973,970,970,970,967,959,959,959,956,956,956,954,951,948,946,946,940,940,938,938,938,935,933,930,930,930,928,928,928,0,0,0,0,0,0,0,0,0,0,0,0,0,0,0,0,0,0,0,0,0,0,0,0,0,0,0,0,0,0
0,0,0,0,0,0,0,0,0,0,0,0,0,0,0,0,1883,1883,1883,1873,1873,1873,1863,1853,1843,1843,1833,1833,1833,1833,1833,1823,1823,1813,1813,1813,1804,1804,1804,1794,1794,1794,1794,1766,1766,1766,1766,1766,1766,1766,1766,1766,1757,1757,1757,1757,1757,1757,1757,1757,1748,1748,1739,1739,1731,1731,1731,1731,1722,1722,1722,1722,1722,1722,1713,1713,1713,1713,1713,1705,1705,1705,1705,1705,1696,1696,1696,1696,1688,1688,1688,1688,1688,1688,1680,1680,1671,1671,1663,1663,1663,1663,1663,1663,1663,1663,1663,1663,1663,1663,1655,1655,1655,1655,1655,1647,1647,1647,1647,1647,1639,1639,1639,1639,1632,1632,1632,1632,1632,1632,1632,1632,1632,1624,1624,1632,1624,1624,1624,1616,1616,1616,1616,1609,1609,1609,1609,1609,1609,1609,1616,1616,1624,1632,1632,1632,1632,1632,1632,1632,1981,1981,1993,1993,1993,1993,1981,1970,1970,1959,1947,1947,1947,1947,1947,1594,1594,1601,1601,1601,1594,1594,1594,1594,1594,1594,1594,1601,1601,1601,1601,1609,1609,1616,1616,1616,1616,1616,1624,1624,1624,1624,1632,1624,1624,1624,1624,1632,1624,1624,0,0,0,0,0,0,0,0,1038,1038,1034,1031,1028,1025,1025,1025,1025,1025,1028,1028,1028,1028,1028,1028,1031,1034,1038,1038,1038,1038,1041,0,0,1696,1696,1696,1696,1705,1713,1713,1722,1722,1722,1731,1731,1731,1731,1731,1731,1731,1731,1731,1731,1731,1731,1739,1739,1739,1748,920,920,918,915,908,906,903,901,901,898,896,894,887,885,885,882,878,878,875,875,873,871,864,862,860,858,856,851,847,843,839,837,837,835,833,829,829,827,825,813,809,807,807,805,803,802,800,798,798,796,796,796,796,796,798,798,798,800,800,802,803,803,805,805,805,807,807,807,809,811,811,0,0,0,0,0,0,0,1489,1483,1483,1483,1477,1477,1470,1470,1470,1464,1458,1452,1445,1445,1439,1439,1439,1433,1433,1427,1427,1421,1415,1415,1410,1410,1410,1404,1398,1392,1387,1381,1381,1376,1376,1376,1376,1370,1370,1370,1365,1365,1359,1354,1354,1349,1349,1343,1343,1343,1338,1338,1333,1328,1328,1328,1328,1317,1312,1307,1307,1307,1307,1307,1302,1297,1297,1292,1292,1288,1288,1283,1278,1273,1273,1268,1268,1268,1264,1264,1255,1255,1255,1255,1250,1250,1250,1241,1236,1236,1232,1232,1232,1232,1232,1227,1219,1214,1214,1214,1210,1206,1206,1206,1206,1202,1202,1197,1197,1197,1193,1193,1189,1185,1185,1181,1177,1177,1173,1169,1169,1169,1169,1165,1165,1161,1157,1157,1153,1153,1149,1149,1149,1145,1141,1138,1138,1138,1134,1134,1126,1126,1123,1123,1123,1123,1119,1119,1119,1115,1112,1112,1105,1105,1105,1101,1097,1097,1094,1094,1094,1090,1090,1090,1087,1084,1080,1080,1077,1077,1073,1070,1070,1070,1067,1067,1067,1067,1063,1063,1063,1060,1057,1054,1054,1050,1050,1050,1047,1044,1044,1041,1038,1038,1038,1034,1034,1034,1028,1028,1025,1025,1022,1022,1022,1019,1016,1016,1013,1013,1010,1010,1007,1004,1004,1001,1001,998,998,995,995,992,992,989,989,989,984,981,981,981,978,975,975,973,973,970,970,970,967,959,959,959,956,956,956,954,951,951,948,946,943,940,940,938,938,935,935,933,933,930,928,928,928,0,0,0,0,0,0,0,0,0,0,0,0,0,0,0,0,0,0,0,0,0,0,0,0,0,0,0,0,0,0
0,0,0,0,0,0,0,0,0,0,0,0,0,0,0,0,1894,1883,1883,1883,1883,1873,1873,1863,1843,1843,1843,1833,1833,1833,1833,1833,1823,1813,1813,1813,1804,1804,1804,1794,1794,1794,1794,1776,1776,1766,1766,1766,1766,1766,1766,1766,1757,1757,1757,1757,1757,1757,1757,1748,1748,1748,1748,1739,1731,1731,1731,1731,1731,1731,1722,1722,1722,1722,1722,1713,1713,1713,1713,1705,1705,1705,1705,1696,1696,1696,1696,1696,1688,1688,1688,1688,1688,1688,1688,1680,1680,1680,1671,1671,1671,1671,1671,1671,1671,1671,1663,1663,1663,1663,1663,1655,1655,1655,1655,1655,1655,1655,1647,1647,1647,1639,1639,1639,1632,1632,1632,1632,1632,1632,1632,1632,1632,1624,1624,1632,1624,1624,1624,1624,1616,1616,1616,1616,1616,1616,1616,1616,1616,1616,1616,1624,1624,1624,1632,1632,1632,1632,1632,1632,1981,1981,1993,1993,2005,1993,1981,1981,1970,1959,1959,1947,1947,1947,1936,1601,1601,1601,1601,1601,1594,1594,1594,1594,1594,1594,1594,1601,1601,1601,1601,1609,1609,1616,1616,1616,1616,1624,1624,1624,1624,1624,1632,1624,1624,1632,1632,1632,1624,1624,0,0,0,0,0,0,0,0,1038,1038,1034,1031,1028,1025,1025,1028,1028,1028,1028,1028,1031,1031,1034,1034,1034,1038,1038,1038,1038,1041,1041,0,0,0,0,1696,1696,1696,1705,1705,1713,1713,1722,1731,1731,1731,1731,1731,1731,1731,1731,1731,1739,1731,1731,1739,1739,1748,1748,1757,1757,1757,915,908,906,903,901,901,898,896,894,887,887,885,882,878,878,875,875,873,871,864,860,858,856,856,851,849,845,839,837,837,835,833,829,829,827,825,813,811,809,807,805,803,802,800,798,798,798,798,798,798,798,798,798,798,800,802,803,803,805,805,805,805,807,807,807,811,813,813,0,0,0,0,0,0,0,1489,1489,1483,1483,1477,1477,1477,1470,1470,1464,1464,1458,1445,1445,1445,1439,1439,1433,1433,1427,1427,1427,1415,1415,1415,1410,1410,1404,1398,1392,1392,1387,1381,1376,1376,1376,1376,1370,1370,1370,1365,1365,1359,1354,1349,1349,1349,1343,1343,1343,1338,1338,1333,1328,1328,1328,1328,1322,1312,1312,1307,1307,1307,1307,1302,1297,1297,1292,1292,1288,1288,1283,1278,1273,1273,1268,1268,1268,1268,1264,1259,1255,1255,1255,1250,1250,1250,1245,1236,1236,1232,1232,1232,1232,1232,1227,1219,1214,1214,1214,1214,1210,1210,1206,1206,1202,1202,1202,1197,1197,1197,1193,1189,1185,1185,1181,1177,1177,1177,1173,1169,1169,1169,1165,1165,1161,1157,1157,1153,1153,1153,1153,1149,1145,1141,1138,1138,1138,1134,1134,1130,1126,1123,1123,1123,1123,1119,1119,1119,1115,1112,1112,1105,1105,1105,1101,1097,1097,1094,1094,1094,1090,1090,1090,1087,1084,1080,1080,1077,1077,1077,1073,1070,1070,1067,1067,1067,1067,1063,1063,1063,1060,1057,1054,1054,1050,1050,1050,1047,1044,1044,1041,1038,1038,1038,1038,1034,1034,1031,1028,1028,1025,1025,1022,1022,1019,1019,1016,1013,1013,1010,1010,1007,1004,1004,1001,1001,1001,998,998,995,995,992,992,992,989,984,984,984,981,978,978,975,975,973,973,970,970,967,967,964,962,959,959,956,956,954,954,948,948,943,943,940,938,938,938,935,935,933,933,930,928,928,0,0,0,0,0,0,0,0,0,0,0,0,0,0,0,0,0,0,0,0,0,0,0,0,0,0,0,0,0,0
0,0,0,0,0,0,0,0,0,0,0,0,0,0,0,0,1883,1883,1883,1883,1873,1873,1873,1863,1843,1843,1843,1833,1833,1823,1823,1823,1823,1813,1813,1804,1804,1804,1804,1794,1794,1794,1794,1776,1776,1766,1766,1766,1766,1766,1766,1766,1766,1766,1757,1757,1757,1757,1757,1748,1748,1748,1748,1739,1739,1739,1731,1731,1731,1731,1731,1722,1722,1722,1722,1722,1722,1713,1713,1705,1705,1705,1705,1696,1696,1696,1696,1696,1696,1696,1688,1688,1688,1688,1688,1680,1680,1680,1671,1671,1671,1671,1671,1671,1671,1671,1671,1663,1663,1663,1663,1663,1663,1663,1663,1655,1655,1655,1655,1655,1655,1647,1647,1639,1639,1639,1632,1632,1632,1632,1632,1632,1632,1632,1632,1632,1624,1624,1624,1624,1616,1616,1616,1616,1616,1616,1616,1616,1616,1616,1616,1616,1624,1624,1632,1632,1632,1632,1632,1632,1981,1981,1993,1993,2005,1993,1981,1981,1970,1959,1959,1947,1947,1947,1936,1601,1601,1601,1609,1601,1601,1601,1594,1594,1594,1594,1594,1601,1601,1609,1609,1609,1616,1616,1616,1616,1616,1624,1624,1624,1624,1624,1632,1632,1632,1632,1632,1632,1624,1624,0,0,0,0,0,0,0,0,1038,1038,1034,1031,1028,1028,1028,1028,1028,1028,1028,1028,1031,1031,1034,1034,1038,1038,1041,1038,1038,1041,1041,0,0,0,0,0,1688,1688,1696,1705,1713,1713,1722,1731,1731,1731,1731,1731,1731,1731,1731,1731,1739,1739,1739,1739,1739,1748,1748,1757,1757,1757,1757,1757,1757,1757,1748,1748,1757,896,894,889,887,885,885,878,878,875,875,873,871,869,860,858,856,856,851,849,845,841,837,837,835,833,829,829,827,815,813,811,809,809,807,803,802,800,798,798,798,798,798,798,798,798,800,800,802,802,803,803,805,805,805,807,809,809,809,811,813,813,0,0,0,0,0,0,0,1489,1489,1483,1483,1477,1477,1477,1470,1470,1464,1464,1458,1452,1445,1445,1439,1439,1439,1433,1433,1433,1427,1421,1415,1415,1410,1410,1404,1398,1398,1392,1387,1381,1381,1376,1376,1376,1370,1370,1370,1365,1365,1359,1354,1349,1349,1349,1343,1343,1343,1343,1338,1333,1333,1328,1328,1328,1322,1312,1312,1307,1307,1307,1307,1302,1297,1297,1292,1292,1288,1288,1288,1283,1273,1273,1268,1268,1268,1268,1264,1264,1259,1255,1255,1255,1250,1250,1245,1241,1236,1232,1232,1232,1232,1232,1227,1219,1219,1214,1214,1214,1210,1210,1206,1206,1202,1202,1197,1197,1197,1197,1197,1189,1185,1185,1181,1177,1177,1177,1173,1169,1169,1169,1169,1165,1161,1161,1157,1157,1153,1153,1153,1149,1149,1141,1141,1138,1138,1134,1130,1130,1126,1123,1123,1123,1123,1119,1119,1119,1115,1112,1112,1105,1105,1105,1105,1101,1097,1094,1094,1094,1094,1090,1090,1087,1084,1080,1080,1077,1077,1077,1073,1070,1070,1067,1067,1067,1067,1063,1063,1063,1060,1057,1057,1054,1054,1050,1050,1047,1047,1044,1041,1041,1038,1038,1038,1034,1034,1031,1028,1028,1025,1025,1022,1022,1019,1019,1016,1013,1013,1013,1010,1007,1004,1004,1004,1004,1001,998,998,998,995,992,992,992,989,987,984,984,981,978,978,975,975,975,973,970,970,967,967,967,962,959,959,959,956,954,954,951,948,946,943,940,938,938,938,935,935,933,933,930,928,928,0,0,0,0,0,0,0,0,0,0,0,0,0,0,0,0,0,0,0,0,0,0,0,0,0,0,0,0,0,0
0,0,0,0,0,0,0,0,0,0,0,0,0,0,0,0,1883,1883,1883,1883,1873,1873,1863,1863,1843,1843,1843,1833,1833,1823,1823,1823,1813,1813,1813,1804,1804,1804,1804,1794,1794,1794,1794,1776,1776,1766,1766,1766,1766,1766,1766,1766,1766,1766,1757,1757,1748,1748,1748,1748,1748,1757,1757,1748,1739,1739,1731,1731,1731,1731,1731,1731,1731,1722,1722,1722,1722,1713,1713,1705,1705,1705,1705,1705,1696,1696,1696,1696,1696,1696,1688,1688,1688,1688,1688,1688,1688,1680,1680,1680,1680,1671,1671,1671,1671,1671,1663,1663,1663,1663,1663,1663,1663,1663,1663,1655,1655,1655,1655,1655,1655,1647,1647,1639,1639,1639,1632,1632,1632,1632,1632,1632,1632,1632,1632,1632,1632,1624,1624,1624,1624,1624,1624,1616,1616,1616,1616,1616,1616,1616,1616,1616,1624,1624,1632,1632,1632,1632,1632,1632,1993,1993,2005,2005,2005,1993,1993,1981,1970,1959,1959,1947,1947,1947,1947,1936,1616,1616,1609,1609,1601,1601,1601,1601,1601,1594,1594,1601,1601,1609,1609,1609,1616,1616,1624,1624,1624,1624,1624,1632,1632,1632,1632,1632,1632,1632,1632,1632,1632,1632,0,0,0,0,0,0,0,0,1041,1038,1038,1034,1031,1028,1028,1028,1028,1028,1028,1028,1031,1034,1034,1038,1038,1041,1041,1041,1041,1041,1041,1044,0,0,0,0,1688,1688,1696,1705,1713,1713,1722,1722,1731,1731,1731,1731,1731,1731,1731,1731,1739,1739,1739,1739,1748,1748,1748,1757,1757,1757,1757,1757,1757,1748,1748,1757,1748,1739,1739,1731,1731,1731,1731,1722,878,878,875,873,873,1696,1696,858,856,856,851,849,845,841,837,837,835,833,829,827,813,813,811,809,809,809,807,805,803,800,798,798,798,798,798,798,798,798,800,800,802,803,803,803,805,805,807,807,809,809,809,811,813,813,0,0,0,0,0,0,1496,1489,1489,1489,1483,1483,1477,1477,1470,1470,1464,1464,1458,1452,1452,1445,1445,1439,1439,1439,1433,1433,1427,1421,1415,1415,1410,1404,1404,1398,1398,1392,1392,1387,1381,1376,1376,1376,1376,1376,1370,1370,1370,1359,1354,1349,1349,1349,1343,1343,1343,1343,1338,1333,1333,1328,1328,1328,1317,1312,1312,1312,1312,1307,1307,1307,1302,1297,1292,1292,1292,1288,1283,1283,1273,1273,1268,1268,1268,1268,1268,1264,1259,1255,1255,1255,1250,1250,1245,1245,1236,1236,1236,1236,1236,1232,1232,1219,1219,1219,1219,1214,1214,1210,1206,1206,1202,1202,1197,1197,1197,1197,1197,1189,1185,1185,1181,1181,1181,1177,1177,1173,1173,1169,1169,1165,1165,1161,1161,1161,1153,1153,1153,1149,1149,1145,1141,1141,1138,1138,1130,1130,1126,1126,1123,1123,1123,1119,1119,1119,1115,1112,1112,1108,1108,1105,1105,1101,1097,1097,1097,1094,1094,1090,1090,1090,1087,1080,1080,1077,1077,1077,1073,1073,1070,1067,1067,1067,1067,1063,1063,1060,1060,1057,1057,1054,1054,1050,1050,1050,1047,1044,1044,1041,1041,1038,1038,1034,1034,1031,1028,1028,1028,1025,1025,1025,1022,1022,1016,1016,1013,1013,1010,1010,1007,1004,1004,1004,1001,1001,998,998,995,992,992,992,989,987,984,984,981,981,978,978,975,975,975,973,973,970,967,967,962,962,959,959,956,956,954,951,948,946,943,940,940,938,938,935,935,933,933,930,928,928,0,0,0,0,0,0,0,0,0,0,0,0,0,0,0,0,0,0,0,0,0,0,0,0,0,0,0,0,0,0
0,0,0,0,0,0,0,0,0,0,0,0,0,0,0,0,1883,1883,1883,1873,1873,1873,1863,1853,1853,1843,1843,1833,1833,1833,1833,1823,1813,1813,1813,1804,1804,1804,1804,1794,1794,1794,1794,1776,1766,1766,1766,1766,1766,1766,1776,1776,1766,1766,1757,1757,1748,1748,1748,1748,1748,1757,1757,1748,1739,1739,1739,1739,1731,1731,1731,1731,1731,1722,1722,1722,1722,1713,1713,1705,1705,1705,1705,1705,1705,1696,1696,1696,1696,1696,1696,1688,1688,1688,1688,1688,1688,1688,1688,1680,1680,1671,1671,1671,1671,1671,1663,1663,1663,1663,1663,1663,1663,1663,1663,1663,1655,1655,1655,1655,1655,1647,1647,1647,1647,1647,1639,1632,1632,1632,1632,1632,1632,1632,1632,1632,1632,1632,1624,1624,1624,1624,1624,1624,1616,1616,1616,1616,1616,1616,1616,1624,1624,1624,1632,1632,1632,1632,1632,1632,2005,2005,2005,2005,2005,2005,1993,1981,1970,1959,1959,1959,1947,1947,1947,1947,1616,1616,1616,1609,1609,1601,1601,1601,1601,1601,1601,1601,1601,1609,1609,1609,1616,1616,1624,1624,1624,1624,1624,1632,1632,1632,1632,1632,1632,1632,1632,1632,1632,1632,0,0,0,0,0,0,0,0,1041,1038,1038,1034,1034,1031,1031,1031,1031,1031,1031,1031,1034,1034,1038,1038,1041,1041,1041,1041,1041,1044,1044,1044,0,0,0,0,0,1696,1696,1705,1713,1713,1722,1722,1731,1731,1731,1731,1731,1731,1731,1731,1739,1739,1739,1748,1748,1748,1748,1757,1757,1757,1757,1757,1757,1748,1748,1748,1748,1731,1731,1722,1722,1722,1722,1722,1722,1713,1696,1696,1696,1696,1696,1696,0,0,0,0,0,0,0,0,835,833,833,827,813,813,811,809,807,807,805,805,803,802,798,798,798,798,798,798,798,800,802,802,803,803,803,805,805,805,807,807,809,809,809,811,813,0,0,0,0,0,0,0,1496,1489,1489,1489,1483,1483,1477,1477,1470,1470,1470,1464,1464,1458,1452,1445,1445,1439,1439,1439,1439,1433,1427,1421,1415,1415,1410,1404,1404,1398,1398,1398,1392,1387,1387,1387,1381,1376,1370,1370,1370,1370,1370,1370,1359,1354,1349,1349,1349,1349,1343,1343,1338,1333,1333,1328,1328,1328,1317,1312,1312,1312,1312,1307,1307,1307,1302,1297,1292,1292,1292,1288,1283,1283,1278,1273,1273,1268,1268,1268,1268,1264,1259,1259,1255,1255,1250,1250,1245,1245,1236,1236,1236,1236,1236,1232,1232,1223,1223,1219,1219,1214,1214,1210,1206,1202,1202,1202,1197,1197,1197,1197,1197,1189,1185,1185,1181,1181,1181,1177,1177,1173,1173,1173,1169,1165,1165,1165,1161,1161,1153,1153,1153,1153,1149,1145,1141,1141,1141,1134,1134,1130,1130,1126,1126,1123,1123,1123,1119,1119,1115,1115,1112,1108,1108,1105,1105,1101,1097,1097,1097,1094,1094,1090,1090,1090,1087,1084,1080,1080,1077,1077,1077,1073,1070,1070,1067,1067,1067,1063,1063,1060,1060,1057,1057,1054,1054,1050,1050,1050,1047,1044,1044,1041,1041,1038,1038,1034,1034,1031,1031,1028,1028,1025,1025,1025,1022,1022,1016,1016,1013,1013,1010,1010,1007,1007,1007,1004,1004,1001,998,998,998,995,992,992,989,989,987,987,981,981,978,978,975,975,975,973,973,970,967,967,967,964,959,959,959,959,956,954,951,946,943,940,940,938,938,938,935,935,933,930,928,928,0,0,0,0,0,0,0,0,0,0,0,0,0,0,0,0,0,0,0,0,0,0,0,0,0,0,0,0,0,0
0,0,0,0,0,0,0,0,0,0,0,0,0,0,0,0,1883,1873,1873,1873,1873,1873,1863,1853,1853,1843,1843,1833,1833,1833,1833,1823,1823,1813,1813,1813,1804,1804,1804,1794,1794,1794,1794,1776,1766,1766,1766,1766,1766,1766,1776,1776,1766,1766,1766,1757,1757,1757,1757,1757,1757,1757,1757,1757,1748,1748,1739,1739,1731,1731,1731,1731,1731,1722,1722,1722,1722,1722,1722,1705,1705,1705,1705,1705,1705,1705,1705,1705,1696,1696,1696,1696,1688,1688,1688,1688,1688,1688,1688,1688,1680,1680,1680,1671,1671,1671,1671,1671,1671,1663,1663,1663,1663,1663,1663,1663,1655,1655,1655,1655,1655,1655,1655,1647,1647,1647,1647,1639,1639,1639,1639,1639,1632,1632,1632,1632,1632,1632,1632,1624,1624,1624,1624,1624,1616,1616,1616,1616,1616,1616,1616,1624,1624,1624,1632,1632,1632,1632,1632,1632,2005,2005,2005,2005,2005,2005,1993,1981,1970,1959,1959,1959,1959,1947,1947,1947,1616,1616,1616,1609,1609,1601,1601,1601,1601,1601,1601,1601,1601,1609,1609,1616,1616,1616,1624,1624,1624,1624,1624,1632,1632,1632,1632,1632,1632,1632,1632,1632,1632,1632,0,0,0,0,0,0,0,0,1041,1038,1038,1034,1034,1034,1031,1031,1031,1031,1031,1031,1034,1038,1038,1038,1041,1041,1041,1041,1041,1044,1044,1044,0,0,0,0,0,1696,1696,1713,1722,1722,1722,1722,1731,1731,1731,1731,1731,1731,1739,1739,1739,1748,1748,1748,1757,1748,1748,1757,1757,1757,1757,1757,1757,1748,1748,1748,1748,1731,1731,1722,1722,1722,1722,1722,1722,1713,1705,1696,1696,1696,1696,1696,0,0,0,0,0,0,0,0,0,0,0,0,817,813,811,809,807,807,805,805,803,802,800,800,798,798,798,798,798,800,802,802,803,803,805,805,805,807,807,807,809,809,811,813,813,0,0,0,0,0,0,0,1496,1489,1489,1489,1489,1483,1477,1477,1470,1470,1470,1464,1464,1458,1452,1445,1445,1445,1439,1439,1439,1433,1427,1427,1421,1415,1410,1404,1404,1398,1398,1398,1392,1392,1392,1387,1381,1376,1370,1370,1370,1370,1370,1370,1365,1354,1354,1354,1349,1349,1343,1343,1338,1333,1333,1328,1328,1328,1317,1317,1317,1312,1312,1312,1312,1307,1302,1297,1292,1292,1292,1288,1288,1288,1278,1273,1273,1268,1268,1268,1268,1264,1259,1259,1255,1255,1250,1250,1250,1245,1236,1236,1236,1236,1236,1232,1232,1227,1227,1219,1219,1214,1214,1214,1206,1202,1202,1202,1197,1197,1197,1197,1197,1189,1185,1185,1181,1181,1181,1181,1177,1177,1173,1173,1169,1169,1165,1165,1161,1161,1153,1153,1153,1153,1149,1145,1145,1145,1141,1134,1134,1134,1130,1126,1126,1123,1123,1123,1119,1119,1115,1115,1112,1108,1108,1105,1105,1105,1101,1097,1097,1094,1094,1094,1090,1090,1090,1084,1080,1080,1077,1077,1077,1073,1070,1070,1067,1067,1063,1063,1063,1060,1060,1060,1057,1054,1054,1050,1050,1050,1047,1044,1044,1041,1041,1041,1038,1038,1034,1034,1031,1028,1028,1028,1025,1025,1022,1022,1019,1016,1016,1013,1010,1010,1010,1007,1007,1004,1004,1001,1001,998,998,998,995,992,992,989,989,987,984,984,981,978,978,975,975,973,973,970,970,970,964,964,962,959,959,959,956,956,954,948,946,943,940,938,938,938,935,935,933,930,928,928,0,0,0,0,0,0,0,0,0,0,0,0,0,0,0,0,0,0,0,0,0,0,0,0,0,0,0,0,0,0
0,0,0,0,0,0,0,0,0,0,0,0,0,0,0,0,1873,1873,1873,1873,1873,1873,1863,1853,1853,1853,1843,1833,1833,1833,1833,1833,1823,1813,1813,1813,1813,1813,1804,1794,1794,1794,1794,1776,1776,1766,1766,1766,1766,1766,1776,1776,1776,1766,1766,1757,1757,1757,1757,1757,1757,1757,1757,1757,1748,1748,1739,1739,1731,1731,1731,1731,1731,1731,1722,1722,1722,1722,1722,1713,1713,1713,1713,1713,1705,1705,1705,1696,1696,1696,1696,1696,1696,1688,1688,1688,1688,1688,1688,1688,1688,1688,1688,1680,1680,1680,1680,1680,1680,1671,1671,1671,1663,1663,1663,1663,1663,1663,1655,1655,1655,1655,1655,1655,1655,1655,1647,1639,1639,1639,1639,1639,1639,1639,1632,1632,1632,1632,1632,1632,1632,1624,1624,1624,1624,1624,1624,1624,1624,1624,1624,1624,1624,1632,1632,1639,1639,1639,1639,1647,2005,2005,2005,2005,2005,2005,1993,1981,1970,1959,1959,1959,1959,1947,1947,1947,1947,1616,1616,1616,1609,1609,1609,1601,1601,1601,1601,1601,1601,1609,1609,1616,1616,1616,1624,1624,1624,1624,1624,1632,1632,1632,1632,1639,1639,1639,1632,1632,1632,1632,0,0,0,0,0,0,0,1047,1041,1038,1034,1034,1034,1031,1031,1031,1031,1031,1031,1034,1034,1038,1038,1038,1041,1041,1041,1041,1041,1044,1044,1044,0,0,0,0,0,1696,1696,1713,1722,1722,1722,1722,1731,1731,1731,1731,1731,1739,1739,1739,1739,1748,1748,1748,1757,1757,1757,1757,1757,1757,1757,1757,1757,1757,1757,1757,1748,1739,1731,1731,1731,1722,1722,1722,1722,1713,1705,1696,1696,1696,1705,1705,0,0,0,0,0,0,0,0,0,0,0,0,813,813,811,811,807,807,807,805,805,802,800,800,798,798,798,798,798,800,802,803,803,803,805,805,807,807,809,809,811,811,811,813,813,0,0,0,0,0,0,1503,1496,1489,1489,1489,1489,1483,1483,1477,1477,1470,1470,1464,1464,1464,1458,1452,1445,1445,1439,1439,1439,1433,1433,1427,1421,1415,1415,1410,1410,1404,1398,1398,1398,1392,1392,1392,1392,1376,1376,1376,1376,1370,1370,1370,1370,1354,1354,1354,1349,1349,1343,1343,1338,1338,1338,1333,1333,1328,1322,1322,1317,1317,1317,1312,1312,1312,1307,1297,1292,1292,1292,1288,1288,1288,1283,1273,1273,1273,1273,1268,1268,1268,1264,1259,1259,1255,1250,1250,1250,1245,1241,1236,1236,1236,1236,1232,1232,1232,1232,1223,1223,1219,1219,1214,1214,1210,1202,1202,1197,1197,1197,1197,1197,1189,1185,1185,1185,1181,1181,1181,1177,1177,1173,1173,1169,1169,1165,1165,1161,1161,1153,1153,1153,1153,1149,1145,1145,1145,1138,1138,1138,1134,1134,1126,1126,1126,1123,1123,1123,1119,1119,1115,1112,1108,1108,1105,1105,1105,1101,1101,1097,1097,1094,1094,1094,1090,1090,1084,1080,1080,1077,1077,1077,1073,1073,1070,1067,1067,1063,1063,1063,1060,1060,1060,1057,1054,1054,1050,1050,1050,1047,1044,1044,1041,1041,1041,1038,1038,1038,1034,1031,1028,1028,1028,1025,1025,1022,1022,1019,1016,1016,1013,1010,1010,1010,1010,1010,1007,1004,1004,1001,1001,1001,998,998,992,992,989,989,987,984,984,981,981,978,978,975,973,973,973,970,970,964,964,962,959,959,959,956,956,954,954,948,946,940,938,938,938,935,935,935,933,930,930,0,0,0,0,0,0,0,0,0,0,0,0,0,0,0,0,0,0,0,0,0,0,0,0,0,0,0,0,0,0
0,0,0,0,0,0,0,0,0,0,0,0,0,0,0,0,1873,1873,1873,1873,1873,1873,1863,1853,1853,1853,1843,1843,1833,1833,1833,1833,1833,1823,1823,1823,1813,1813,1813,1804,1804,1804,1794,1785,1776,1766,1766,1766,1766,1766,1776,1776,1766,1766,1766,1766,1766,1757,1757,1757,1757,1757,1757,1757,1757,1757,1757,1748,1739,1739,1731,1731,1731,1731,1731,1722,1722,1722,1722,1713,1713,1722,1713,1713,1713,1713,1713,1696,1696,1696,1696,1696,1696,1688,1688,1688,1688,1688,1688,1688,1688,1688,1688,1688,1688,1680,1680,1680,1680,1671,1671,1671,1671,1663,1663,1663,1663,1663,1655,1655,1655,1655,1655,1655,1655,1655,1655,1647,1647,1639,1639,1639,1639,1639,1639,1639,1632,1632,1632,1632,1632,1624,1624,1624,1624,1624,1624,1624,1624,1624,1624,1624,1624,1632,1632,1639,1647,1647,1647,1647,2005,2005,2005,2005,2005,1993,1993,1981,1970,1959,1959,1959,1959,1959,1947,1936,1936,1624,1616,1616,1616,1609,1609,1601,1601,1601,1601,1601,1601,1609,1609,1616,1624,1624,1624,1624,1624,1624,1624,1632,1632,1632,1639,1639,1639,1639,1639,1639,1632,1632,0,0,0,0,0,0,0,1047,1044,1038,1034,1034,1034,1031,1031,1031,1031,1031,1034,1034,1034,1038,1038,1038,1041,1041,1041,1041,1041,1044,1044,1044,0,0,0,0,0,1696,1696,1722,1722,1722,1722,1722,1731,1731,1731,1731,1739,1739,1739,1739,1739,1748,1748,1748,1757,1757,1757,1757,1757,1757,1757,1757,1757,1757,1757,1757,1757,1748,1739,1731,1731,1731,1731,1731,1722,1722,1713,1696,1696,1696,1705,1705,0,0,0,0,0,0,0,0,0,0,0,0,813,811,811,809,809,809,807,805,805,803,802,800,798,798,798,798,798,800,802,803,803,805,805,805,807,807,809,809,811,811,811,813,0,0,0,0,0,0,0,1503,1496,1496,1496,1489,1489,1489,1483,1477,1477,1470,1470,1464,1464,1464,1458,1452,1452,1445,1445,1439,1439,1433,1433,1433,1421,1421,1415,1410,1410,1404,1404,1398,1398,1398,1392,1392,1392,1376,1376,1376,1376,1376,1376,1370,1370,1370,1354,1354,1354,1349,1349,1349,1343,1338,1338,1333,1333,1333,1322,1322,1322,1317,1317,1312,1312,1312,1307,1297,1297,1292,1292,1288,1288,1288,1283,1273,1273,1273,1273,1268,1268,1268,1264,1259,1259,1255,1250,1250,1250,1250,1241,1241,1236,1236,1236,1232,1232,1232,1227,1223,1223,1219,1219,1219,1214,1214,1202,1202,1202,1202,1197,1197,1197,1197,1189,1185,1185,1185,1185,1181,1181,1177,1177,1173,1169,1169,1165,1165,1161,1161,1153,1153,1153,1149,1149,1145,1145,1145,1138,1138,1138,1134,1134,1130,1130,1126,1126,1126,1123,1123,1119,1119,1115,1108,1108,1105,1105,1105,1101,1101,1097,1097,1094,1094,1094,1090,1090,1084,1084,1080,1080,1077,1077,1077,1073,1070,1070,1067,1067,1063,1063,1060,1060,1060,1057,1057,1054,1054,1050,1050,1047,1044,1044,1041,1041,1041,1038,1038,1038,1034,1031,1031,1028,1028,1028,1025,1022,1022,1019,1019,1016,1013,1013,1010,1010,1010,1010,1007,1004,1004,1001,1001,1001,998,998,992,992,989,989,987,984,984,981,981,978,978,975,975,975,973,973,967,967,964,962,962,959,959,956,956,956,954,948,943,940,938,938,938,935,935,935,933,930,930,0,0,0,0,0,0,0,0,0,0,0,0,0,0,0,0,0,0,0,0,0,0,0,0,0,0,0,0,0,0
0,0,0,0,0,0,0,0,0,0,0,0,0,0,0,0,1873,1873,1883,1883,1873,1873,1863,1853,1853,1853,1843,1843,1843,1843,1833,1833,1833,1833,1823,1823,1813,1813,1813,1804,1804,1804,1794,1794,1785,1776,1776,1776,1776,1776,1776,1776,1766,1766,1766,1766,1766,1757,1757,1757,1757,1757,1757,1757,1757,1757,1757,1748,1739,1739,1739,1731,1731,1731,1731,1722,1722,1722,1722,1722,1722,1722,1722,1722,1722,1722,1713,1713,1705,1696,1696,1696,1696,1688,1688,1688,1688,1688,1688,1688,1688,1688,1688,1688,1688,1680,1680,1680,1680,1680,1671,1671,1671,1671,1663,1663,1663,1663,1655,1655,1655,1655,1655,1655,1655,1655,1647,1647,1639,1639,1639,1639,1647,1639,1639,1639,1632,1632,1639,1632,1632,1632,1624,1624,1624,1624,1624,1624,1624,1624,1624,1624,1624,1632,1632,1639,1647,1647,1647,1647,1655,2005,2005,2005,2005,1993,1981,1981,1970,1959,1959,1959,1959,1959,1947,1936,1936,1624,1624,1616,1616,1609,1609,1601,1601,1601,1601,1601,1609,1616,1616,1616,1624,1624,1624,1624,1624,1632,1632,1632,1632,1632,1639,1639,1639,1639,1639,1639,1639,1639,0,0,0,0,0,0,0,1047,1044,1038,1038,1038,1034,1034,1034,1034,1034,1034,1034,1034,1034,1038,1038,1038,1038,1041,1041,1041,1044,1044,1044,1044,0,0,0,0,0,1713,1713,1722,1722,1722,1722,1722,1731,1731,1731,1739,1739,1739,1748,1748,1748,1748,1748,1748,1757,1757,1757,1757,1757,1757,1757,1757,1757,1766,1757,1757,1757,1757,1748,1739,1739,1731,1731,1731,1722,1722,1713,1696,1696,1696,1696,1696,0,0,0,0,0,0,0,0,0,0,0,0,813,811,811,809,809,809,807,807,805,803,802,800,800,800,798,798,800,802,803,803,803,805,805,805,807,807,809,809,811,811,811,813,0,0,0,0,0,0,0,1503,1496,1496,1496,1496,1489,1489,1483,1477,1477,1470,1470,1464,1464,1464,1458,1452,1452,1445,1445,1445,1439,1439,1439,1433,1427,1421,1415,1410,1410,1404,1404,1398,1398,1398,1392,1392,1392,1387,1387,1381,1381,1376,1376,1370,1370,1365,1365,1365,1354,1349,1349,1349,1343,1343,1338,1338,1333,1333,1328,1322,1322,1317,1317,1312,1312,1312,1307,1302,1297,1292,1292,1288,1288,1288,1283,1278,1278,1273,1273,1273,1268,1268,1264,1259,1259,1255,1250,1250,1250,1250,1241,1241,1236,1236,1236,1232,1232,1232,1227,1223,1223,1219,1219,1219,1219,1214,1214,1202,1202,1202,1202,1197,1197,1193,1189,1189,1185,1185,1185,1185,1181,1181,1177,1177,1173,1169,1165,1165,1161,1161,1157,1153,1153,1149,1149,1145,1145,1145,1138,1138,1138,1134,1134,1130,1130,1130,1126,1123,1123,1123,1119,1119,1115,1108,1108,1105,1105,1105,1101,1101,1097,1097,1094,1094,1094,1090,1090,1090,1084,1080,1080,1080,1077,1077,1073,1070,1070,1067,1067,1063,1063,1060,1060,1060,1057,1057,1054,1054,1050,1050,1047,1044,1044,1041,1041,1038,1038,1038,1038,1034,1034,1031,1028,1028,1028,1025,1022,1022,1019,1019,1016,1013,1013,1010,1010,1010,1010,1007,1004,1004,1001,1001,1001,998,998,992,992,989,989,987,984,984,984,981,978,978,978,975,975,973,973,967,967,964,962,962,959,959,956,956,956,954,948,943,940,938,938,938,935,935,935,933,930,930,0,0,0,0,0,0,0,0,0,0,0,0,0,0,0,0,0,0,0,0,0,0,0,0,0,0,0,0,0,0
0,0,0,0,0,0,0,0,0,0,0,0,0,0,0,0,1883,1883,1883,1883,1873,1873,1863,1853,1853,1853,1853,1843,1843,1843,1843,1843,1833,1833,1833,1823,1823,1823,1813,1804,1804,1804,1794,1794,1794,1776,1776,1776,1776,1776,1776,1776,1766,1766,1766,1766,1766,1757,1757,1757,1757,1757,1757,1757,1757,1757,1748,1748,1739,1739,1739,1731,1731,1731,1731,1722,1722,1722,1722,1722,1722,1722,1722,1722,1722,1722,1713,1713,1705,1696,1696,1696,1696,1696,1696,1696,1688,1688,1688,1688,1688,1688,1688,1688,1688,1688,1680,1680,1680,1680,1680,1671,1671,1671,1663,1663,1663,1663,1655,1655,1655,1655,1655,1655,1655,1655,1647,1647,1639,1639,1639,1639,1647,1647,1639,1639,1639,1639,1639,1632,1632,1632,1632,1632,1624,1624,1624,1624,1624,1624,1624,1624,1624,1632,1632,1639,1639,1639,1647,1632,1632,2005,2005,2005,2005,1993,1981,1970,1970,1959,1959,1959,1959,1959,1947,1947,1936,1632,1624,1624,1616,1616,1616,1609,1601,1601,1601,1609,1609,1616,1616,1624,1624,1624,1624,1624,1624,1632,1632,1632,1632,1632,1639,1639,1639,1639,1639,1639,1639,1639,1639,0,0,0,0,0,0,1047,1044,1038,1038,1038,1034,1034,1034,1034,1034,1034,1034,1034,1038,1038,1038,1038,1038,1038,1041,1041,1044,1044,1044,1044,0,0,0,0,0,1713,1713,1722,1731,1731,1731,1731,1731,1731,1739,1739,1748,1748,1748,1748,1748,1748,1748,1757,1757,1757,1757,1757,1757,1757,1757,1766,1766,1766,1757,1757,1757,1757,1748,1739,1739,1731,1731,1731,1722,1722,1713,1696,1696,1696,1696,1696,1696,0,0,0,0,0,0,0,0,0,0,0,813,811,811,809,809,809,807,807,805,803,802,800,800,800,800,800,802,803,803,803,805,805,805,805,807,809,809,809,811,811,811,813,0,0,0,0,0,0,1503,1503,1496,1496,1496,1496,1489,1489,1483,1477,1477,1470,1470,1464,1464,1464,1458,1458,1452,1452,1445,1445,1439,1439,1433,1433,1427,1421,1415,1415,1410,1410,1404,1404,1404,1398,1392,1392,1392,1387,1387,1387,1387,1376,1376,1370,1370,1365,1365,1359,1354,1354,1349,1349,1343,1343,1338,1338,1333,1333,1333,1328,1322,1322,1317,1312,1312,1312,1307,1302,1302,1297,1292,1288,1288,1288,1288,1283,1278,1273,1273,1273,1268,1268,1264,1259,1255,1255,1255,1255,1250,1250,1245,1241,1241,1236,1236,1232,1232,1232,1227,1223,1223,1223,1219,1219,1219,1214,1214,1206,1202,1202,1202,1197,1197,1193,1189,1189,1185,1185,1185,1185,1181,1181,1177,1177,1173,1169,1165,1165,1161,1161,1153,1153,1153,1149,1149,1145,1145,1141,1141,1138,1138,1138,1134,1134,1130,1130,1130,1123,1123,1119,1119,1119,1115,1112,1108,1108,1105,1105,1105,1101,1101,1097,1097,1094,1094,1094,1090,1090,1087,1084,1080,1080,1077,1077,1073,1070,1070,1067,1067,1063,1063,1063,1060,1060,1057,1057,1054,1054,1050,1050,1050,1044,1044,1044,1041,1038,1038,1038,1038,1034,1034,1031,1028,1028,1028,1025,1025,1025,1022,1022,1019,1016,1013,1013,1013,1013,1010,1007,1007,1004,1004,1001,1001,998,998,992,992,989,989,987,987,984,984,981,981,981,978,978,978,975,970,970,967,964,962,962,959,959,959,956,956,954,954,948,946,940,940,938,938,935,935,933,933,933,0,0,0,0,0,0,0,0,0,0,0,0,0,0,0,0,0,0,0,0,0,0,0,0,0,0,0,0,0,0
0,0,0,0,0,0,0,0,0,0,0,0,0,0,0,0,1883,1883,1883,1883,1873,1873,1873,1863,1853,1853,1853,1853,1843,1843,1843,1843,1833,1833,1833,1833,1823,1823,1813,1813,1804,1804,1794,1794,1794,1794,1785,1785,1776,1776,1776,1776,1766,1766,1766,1766,1766,1766,1766,1766,1766,1757,1757,1757,1757,1757,1748,1748,1739,1739,1739,1731,1731,1731,1731,1722,1722,1722,1722,1722,1722,1722,1722,1722,1722,1722,1722,1713,1713,1696,1696,1696,1696,1696,1696,1696,1688,1688,1688,1688,1688,1688,1688,1688,1688,1688,1688,1688,1680,1680,1680,1671,1671,1671,1663,1663,1663,1663,1663,1655,1655,1655,1655,1655,1655,1655,1655,1647,1647,1655,1655,1655,1655,1647,1647,1647,1647,1639,1639,1639,1632,1632,1632,1632,1632,1624,1624,1624,1624,1624,1624,1624,1624,1632,1632,1639,1639,1639,1647,1632,1632,2016,2016,2016,2016,2005,1993,1970,1970,1970,1959,1959,1959,1959,1947,1947,1936,1632,1624,1624,1616,1616,1616,1609,1609,1609,1609,1609,1616,1616,1616,1624,1624,1624,1624,1624,1624,1632,1632,1632,1639,1639,1639,1639,1639,1639,1639,1639,1639,1639,1639,0,0,0,0,0,0,1047,1044,1041,1038,1038,1038,1034,1034,1034,1034,1034,1034,1034,1038,1038,1038,1038,1038,1038,1041,1041,1044,1044,1044,1044,0,0,0,0,0,1722,1722,1722,1731,1731,1731,1731,1731,1731,1739,1748,1748,1748,1748,1748,1748,1748,1748,1757,1757,1757,1757,1757,1757,1766,1766,1766,1766,1766,1766,1766,1766,1757,1748,1748,1739,1739,1739,1731,1731,1722,1722,1696,1696,1696,1696,1696,1696,0,0,0,0,0,0,0,0,0,0,0,813,813,811,809,809,809,809,807,805,803,802,800,800,800,800,800,802,803,805,805,805,805,807,807,807,809,811,811,811,811,813,0,0,0,0,0,0,0,1503,1503,1496,1496,1496,1496,1489,1489,1483,1477,1477,1470,1470,1464,1464,1464,1464,1458,1452,1452,1445,1445,1439,1439,1433,1433,1427,1421,1421,1415,1410,1410,1404,1404,1404,1398,1392,1392,1392,1387,1387,1387,1387,1381,1376,1376,1370,1370,1365,1359,1354,1354,1349,1349,1349,1343,1343,1338,1338,1333,1333,1328,1328,1322,1317,1312,1312,1312,1312,1307,1302,1297,1292,1292,1288,1288,1288,1288,1278,1278,1278,1273,1273,1268,1264,1259,1255,1255,1255,1255,1250,1250,1245,1245,1241,1241,1236,1236,1236,1232,1227,1227,1223,1223,1219,1219,1219,1214,1214,1214,1202,1202,1202,1202,1197,1193,1193,1189,1189,1185,1185,1185,1185,1181,1177,1177,1173,1169,1169,1165,1165,1161,1153,1153,1153,1153,1149,1145,1145,1141,1141,1138,1138,1138,1134,1134,1134,1130,1126,1123,1123,1119,1119,1119,1115,1112,1108,1108,1108,1105,1105,1105,1101,1097,1097,1094,1094,1094,1090,1090,1087,1084,1084,1080,1080,1077,1073,1073,1070,1070,1067,1063,1063,1063,1060,1060,1057,1057,1054,1054,1054,1050,1050,1047,1047,1047,1041,1041,1038,1038,1038,1034,1034,1031,1028,1028,1028,1025,1025,1025,1022,1022,1019,1016,1013,1013,1013,1013,1010,1007,1007,1004,1004,1001,1001,1001,998,998,992,992,989,989,987,987,984,981,981,981,978,978,978,975,970,970,967,964,962,962,959,959,959,956,956,954,954,948,946,943,943,938,938,938,935,935,935,935,0,0,0,0,0,0,0,0,0,0,0,0,0,0,0,0,0,0,0,0,0,0,0,0,0,0,0,0,0,0
0,0,0,0,0,0,0,0,0,0,0,0,0,0,0,0,1883,1883,1883,1883,1883,1873,1873,1873,1863,1863,1853,1853,1853,1843,1843,1843,1843,1833,1833,1833,1823,1823,1813,1813,1804,1804,1794,1794,1794,1794,1785,1785,1776,1776,1776,1776,1766,1766,1776,1766,1766,1766,1766,1766,1766,1757,1757,1757,1757,1757,1757,1757,1748,1748,1748,1739,1731,1731,1731,1731,1722,1722,1722,1722,1722,1722,1722,1722,1722,1722,1722,1722,1713,1713,1696,1696,1696,1696,1696,1696,1696,1696,1696,1696,1688,1688,1688,1688,1688,1688,1688,1688,1680,1680,1680,1680,1680,1671,1671,1663,1663,1663,1663,1663,1663,1655,1655,1655,1655,1655,1655,1655,1655,1655,1655,1655,1655,1655,1647,1647,1647,1647,1639,1639,1639,1639,1639,1632,1632,1632,1632,1624,1624,1624,1624,1632,1632,1632,1632,1639,1639,1639,1647,1632,1632,2016,2016,2016,2016,2005,1993,1970,1970,1970,1959,1959,1959,1959,1947,1947,1936,1624,1624,1616,1616,1616,1616,1609,1609,1609,1616,1616,1616,1624,1624,1624,1624,1624,1624,1624,1632,1632,1632,1632,1639,1639,1647,1647,1647,1647,1647,1647,1647,1647,1655,0,0,0,0,0,0,1047,1044,1041,1041,1038,1034,1034,1034,1034,1034,1034,1034,1038,1038,1038,1038,1038,1038,1038,1041,1041,1044,1044,1044,1044,0,0,0,0,0,1722,1722,1731,1731,1731,1731,1731,1731,1739,1739,1748,1748,1748,1748,1748,1757,1748,1748,1757,1757,1757,1757,1757,1757,1766,1766,1766,1766,1766,1766,1766,1766,1757,1757,1748,1748,1748,1739,1739,1731,1722,1722,1696,1696,1696,1696,1696,1696,0,0,0,0,0,0,0,0,0,0,0,0,813,811,811,809,809,809,809,805,803,802,800,800,800,802,802,803,803,805,805,807,807,809,809,811,811,811,811,811,813,813,817,0,0,0,0,0,0,1509,1503,1496,1496,1496,1496,1489,1489,1483,1483,1477,1477,1470,1470,1464,1464,1464,1458,1458,1452,1445,1445,1439,1439,1439,1433,1433,1421,1421,1415,1415,1415,1410,1410,1404,1398,1392,1392,1392,1392,1392,1387,1387,1387,1381,1376,1370,1370,1370,1359,1354,1354,1354,1349,1349,1349,1343,1343,1338,1338,1333,1333,1328,1328,1317,1312,1312,1312,1312,1307,1307,1302,1302,1292,1288,1288,1288,1288,1283,1283,1278,1273,1273,1268,1264,1259,1259,1255,1255,1255,1250,1250,1250,1245,1241,1241,1236,1236,1236,1232,1227,1227,1227,1223,1223,1219,1219,1214,1214,1214,1210,1202,1202,1202,1197,1193,1193,1193,1189,1185,1185,1185,1181,1181,1177,1173,1173,1169,1169,1165,1165,1161,1157,1153,1153,1153,1149,1149,1149,1145,1141,1138,1138,1134,1134,1134,1134,1130,1126,1123,1123,1119,1119,1119,1119,1112,1112,1112,1108,1108,1105,1105,1105,1101,1097,1094,1094,1094,1090,1090,1087,1087,1084,1080,1080,1077,1077,1073,1070,1070,1067,1067,1063,1063,1060,1060,1060,1060,1057,1054,1054,1054,1050,1047,1047,1047,1041,1041,1038,1038,1038,1034,1034,1031,1028,1028,1028,1025,1025,1025,1022,1022,1019,1016,1013,1013,1013,1013,1010,1007,1007,1004,1004,1004,1001,1001,1001,998,992,992,989,989,987,987,984,981,981,981,981,978,978,978,973,970,967,967,964,962,962,959,959,956,956,954,954,948,948,946,946,943,940,938,938,935,935,935,0,0,0,0,0,0,0,0,0,0,0,0,0,0,0,0,0,0,0,0,0,0,0,0,0,0,0,0,0,0
0,0,0,0,0,0,0,0,0,0,0,0,0,0,0,0,1894,1883,1883,1883,1883,1873,1873,1873,1873,1863,1853,1853,1853,1843,1843,1843,1843,1833,1833,1833,1823,1823,1813,1813,1813,1804,1804,1804,1794,1794,1794,1785,1776,1776,1776,1776,1776,1776,1776,1766,1766,1766,1766,1766,1766,1757,1757,1757,1757,1757,1757,1757,1757,1757,1748,1739,1731,1731,1731,1731,1731,1722,1722,1722,1722,1722,1722,1722,1722,1722,1722,1722,1713,1713,1705,1705,1705,1696,1696,1696,1696,1696,1696,1696,1696,1696,1696,1696,1688,1688,1688,1688,1688,1688,1680,1680,1680,1671,1671,1671,1671,1663,1663,1663,1663,1663,1663,1663,1655,1655,1655,1655,1655,1655,1655,1655,1655,1655,1647,1647,1647,1647,1639,1639,1639,1639,1639,1632,1632,1632,1632,1632,1624,1624,1624,1632,1632,1632,1632,1639,1639,1647,1647,1632,1632,2016,2016,2016,2016,2005,2005,1970,1970,1970,1959,1959,1959,1959,1947,1936,1936,1624,1624,1616,1616,1616,1616,1616,1616,1616,1616,1616,1616,1624,1624,1624,1624,1624,1624,1632,1632,1632,1632,1632,1639,1639,1647,1647,1647,1647,1647,1647,1647,1647,1655,0,0,0,0,0,1050,1047,1044,1041,1038,1038,1034,1034,1034,1034,1034,1034,1034,1038,1038,1038,1038,1038,1038,1038,1041,1044,1044,1044,1044,1044,0,0,0,0,0,1722,1722,1731,1731,1731,1731,1739,1739,1739,1739,1748,1748,1748,1748,1748,1757,1757,1757,1757,1757,1757,1757,1766,1766,1766,1766,1766,1766,1766,1766,1766,1766,1757,1757,1757,1757,1748,1748,1739,1731,1722,1722,1722,1696,1696,1696,1696,1696,0,0,0,0,0,0,0,0,0,0,0,813,813,813,811,811,811,811,809,805,803,802,800,800,802,802,802,803,805,805,807,807,809,809,811,811,813,813,813,813,813,815,817,0,0,0,0,0,0,1516,1503,1496,1496,1496,1496,1489,1489,1483,1483,1477,1477,1470,1470,1470,1464,1464,1464,1458,1452,1452,1445,1439,1439,1439,1433,1433,1427,1421,1415,1415,1415,1415,1410,1410,1398,1398,1392,1392,1392,1392,1387,1387,1387,1381,1376,1376,1370,1370,1359,1359,1354,1354,1354,1349,1349,1349,1343,1343,1338,1333,1333,1328,1328,1317,1312,1312,1312,1312,1307,1307,1307,1307,1292,1292,1292,1292,1288,1288,1283,1283,1273,1273,1273,1268,1264,1259,1255,1255,1255,1250,1250,1250,1245,1245,1241,1236,1236,1236,1232,1227,1227,1227,1223,1223,1219,1219,1214,1214,1214,1210,1202,1202,1202,1197,1193,1193,1193,1189,1185,1185,1185,1181,1181,1177,1173,1173,1169,1169,1169,1165,1165,1157,1153,1153,1153,1153,1149,1149,1145,1145,1138,1138,1134,1134,1134,1134,1134,1126,1123,1123,1119,1119,1119,1119,1115,1115,1112,1108,1108,1108,1105,1105,1101,1097,1097,1094,1094,1094,1090,1090,1087,1084,1084,1080,1080,1077,1073,1073,1070,1070,1067,1063,1063,1063,1063,1060,1060,1057,1054,1054,1054,1050,1050,1050,1047,1044,1041,1041,1038,1038,1034,1034,1031,1028,1028,1028,1025,1025,1025,1022,1022,1019,1016,1016,1013,1013,1013,1013,1010,1007,1004,1004,1004,1004,1001,1001,998,992,992,989,989,987,987,987,984,981,981,981,978,978,975,975,970,970,967,964,962,962,959,959,956,956,956,954,954,951,946,946,943,943,938,938,935,935,935,0,0,0,0,0,0,0,0,0,0,0,0,0,0,0,0,0,0,0,0,0,0,0,0,0,0,0,0,0,0
0,0,0,0,0,0,0,0,0,0,0,0,0,0,0,0,1894,1894,1883,1883,1883,1883,1873,1873,1873,1863,1853,1853,1853,1843,1843,1843,1843,1833,1833,1833,1823,1823,1813,1813,1804,1804,1794,1794,1804,1794,1794,1785,1785,1785,1776,1776,1776,1776,1776,1766,1766,1766,1766,1766,1766,1757,1757,1757,1757,1757,1757,1757,1757,1757,1748,1748,1731,1731,1731,1731,1731,1731,1731,1731,1731,1722,1722,1722,1722,1722,1722,1722,1713,1713,1713,1713,1713,1705,1705,1705,1705,1696,1696,1696,1696,1696,1696,1696,1696,1688,1688,1688,1688,1688,1680,1680,1680,1680,1671,1671,1671,1671,1663,1663,1663,1663,1663,1663,1655,1655,1655,1655,1655,1655,1655,1655,1655,1655,1655,1655,1647,1647,1647,1639,1639,1639,1639,1632,1632,1632,1632,1632,1632,1632,1632,1632,1632,1632,1639,1639,1647,1647,1647,1639,1639,1639,2016,2016,2016,2016,2005,1981,1970,1970,1959,1959,1959,1959,1947,1936,1936,1624,1616,1616,1616,1616,1616,1616,1616,1616,1616,1616,1624,1624,1624,1624,1624,1624,1632,1632,1632,1632,1632,1639,1639,1639,1647,1647,1647,1647,1655,1655,1655,1655,1655,0,0,0,0,0,1050,1047,1044,1041,1038,1038,1038,1034,1034,1034,1034,1034,1034,1038,1038,1038,1038,1038,1038,1038,1044,1047,1047,1047,1047,1047,0,0,0,0,0,1722,1722,1731,1731,1731,1731,1739,1739,1739,1748,1748,1748,1748,1748,1748,1757,1757,1757,1757,1757,1757,1757,1766,1766,1766,1766,1766,1766,1766,1766,1766,1766,1766,1757,1757,1757,1748,1748,1739,1731,1722,1713,1713,1696,1696,1696,1696,0,0,0,0,0,0,0,0,0,0,0,0,813,813,813,811,811,811,811,809,805,803,802,802,802,802,802,803,805,805,805,807,807,809,809,811,811,813,815,815,815,815,817,817,0,0,0,0,0,0,0,1503,1496,1496,1496,1496,1489,1489,1483,1483,1483,1477,1470,1470,1470,1464,1464,1464,1458,1452,1452,1445,1445,1439,1439,1433,1433,1427,1421,1415,1415,1415,1415,1415,1410,1398,1398,1398,1392,1392,1392,1392,1387,1387,1381,1376,1376,1376,1370,1365,1359,1354,1354,1354,1349,1349,1349,1349,1343,1343,1333,1333,1328,1328,1317,1312,1312,1312,1312,1307,1307,1307,1307,1302,1292,1292,1292,1288,1288,1288,1283,1273,1273,1273,1268,1264,1259,1255,1255,1255,1255,1250,1250,1250,1245,1241,1241,1236,1236,1232,1232,1227,1227,1223,1223,1219,1219,1219,1214,1214,1214,1206,1202,1202,1197,1197,1193,1193,1193,1189,1185,1185,1185,1181,1177,1177,1173,1169,1169,1169,1165,1165,1157,1153,1153,1153,1153,1149,1149,1145,1145,1138,1138,1138,1138,1134,1134,1130,1126,1126,1123,1123,1123,1119,1119,1115,1115,1112,1112,1108,1108,1105,1105,1101,1097,1097,1094,1094,1090,1090,1090,1090,1087,1084,1084,1080,1080,1077,1073,1073,1070,1067,1067,1063,1063,1063,1060,1060,1057,1054,1054,1054,1050,1050,1050,1047,1044,1041,1041,1038,1038,1034,1034,1031,1028,1028,1028,1025,1025,1025,1022,1022,1019,1016,1016,1016,1013,1013,1013,1010,1007,1004,1004,1004,1004,1001,1001,998,992,992,989,989,989,987,987,984,984,981,981,978,978,975,975,973,970,967,967,964,962,959,959,959,956,956,954,954,951,948,948,946,943,940,938,935,935,935,0,0,0,0,0,0,0,0,0,0,0,0,0,0,0,0,0,0,0,0,0,0,0,0,0,0,0,0,0,0
0,0,0,0,0,0,0,0,0,0,0,0,0,0,0,0,1894,1894,1883,1883,1883,1883,1873,1873,1873,1863,1853,1853,1853,1843,1843,1843,1843,1833,1833,1833,1823,1823,1813,1813,1804,1804,1794,1794,1804,1794,1794,1794,1794,1794,1785,1776,1776,1776,1776,1776,1766,1766,1766,1766,1766,1757,1757,1757,1757,1757,1757,1757,1757,1757,1757,1748,1739,1731,1731,1731,1731,1731,1731,1731,1731,1731,1731,1722,1722,1722,1722,1722,1722,1722,1713,1713,1713,1713,1705,1705,1705,1705,1705,1696,1696,1696,1696,1696,1696,1688,1688,1688,1688,1688,1688,1680,1680,1680,1680,1671,1671,1671,1663,1663,1663,1663,1663,1663,1663,1663,1655,1655,1655,1655,1655,1655,1655,1655,1655,1655,1655,1647,1647,1639,1639,1639,1639,1639,1632,1632,1632,1632,1632,1632,1632,1632,1632,1632,1639,1639,1647,1647,1647,1647,1647,1655,0,1655,1981,1981,0,1981,1970,1970,1959,1959,1959,1959,1947,1936,1936,1936,1616,1616,1616,1624,1624,1624,1624,1624,1624,1624,1624,1624,1624,1624,1624,1624,1632,1632,1632,1632,1632,1639,1639,1639,1647,1647,1647,1647,1655,1655,1655,1655,1663,0,0,0,0,0,1050,1047,1044,1044,1041,1038,1038,1034,1034,1034,1034,1034,1038,1038,1038,1038,1041,1041,1041,1041,1047,1047,1047,1047,1047,1047,1050,0,0,0,0,1722,1722,1739,1739,1739,1739,1739,1739,1748,1748,1748,1748,1748,1748,1748,1757,1757,1757,1757,1757,1766,1766,1766,1766,1766,1766,1766,1766,1766,1766,1757,1757,1757,1757,1757,1757,1748,1748,1739,1731,1722,1713,1713,1696,1696,1696,1696,0,0,0,0,0,0,0,0,0,0,0,0,0,813,813,811,811,811,811,809,807,803,802,802,803,803,803,803,805,805,805,807,807,809,811,811,813,813,815,815,815,815,817,817,0,0,0,0,0,0,0,1503,1496,1496,1496,1496,1489,1489,1483,1483,1483,1477,1470,1470,1470,1464,1464,1464,1458,1452,1452,1445,1445,1439,1439,1433,1433,1427,1421,1415,1415,1415,1415,1415,1404,1398,1398,1398,1392,1392,1392,1392,1387,1387,1381,1381,1376,1376,1370,1365,1359,1359,1354,1354,1349,1349,1349,1349,1343,1343,1338,1333,1333,1328,1322,1317,1312,1312,1312,1312,1307,1307,1307,1302,1292,1292,1292,1288,1288,1288,1288,1278,1278,1273,1268,1264,1259,1255,1255,1255,1255,1255,1250,1250,1250,1245,1245,1241,1236,1232,1232,1227,1227,1223,1223,1219,1219,1219,1214,1214,1214,1210,1202,1202,1197,1197,1197,1193,1193,1189,1189,1185,1185,1181,1181,1177,1173,1173,1169,1169,1165,1165,1161,1157,1153,1153,1153,1149,1149,1145,1145,1141,1138,1138,1138,1134,1134,1130,1130,1126,1123,1123,1123,1119,1119,1115,1115,1115,1112,1108,1108,1108,1105,1101,1097,1097,1094,1094,1090,1090,1090,1090,1087,1084,1084,1080,1080,1077,1077,1073,1073,1070,1067,1067,1063,1063,1060,1060,1057,1054,1054,1054,1050,1050,1050,1047,1044,1041,1041,1038,1038,1034,1034,1031,1028,1028,1028,1028,1028,1025,1025,1022,1019,1016,1016,1016,1013,1013,1013,1010,1007,1004,1004,1004,1004,1001,1001,998,992,992,989,989,989,987,987,984,984,984,981,978,978,975,973,970,970,970,967,967,964,962,962,959,956,956,956,954,951,948,948,946,946,943,943,940,938,938,0,0,0,0,0,0,0,0,0,0,0,0,0,0,0,0,0,0,0,0,0,0,0,0,0,0,0,0,0,0
0,0,0,0,0,0,0,0,0,0,0,0,0,0,0,0,1894,1894,1883,1883,1883,1883,1873,1873,1873,1863,1853,1853,1853,1843,1843,1843,1843,1833,1833,1833,1833,1833,1823,1823,1813,1804,1794,1794,1794,1794,1794,1794,1794,1794,1794,1776,1776,1776,1776,1776,1766,1766,1766,1766,1766,1766,1757,1757,1757,1757,1766,1757,1757,1757,1757,1748,1739,1731,1731,1731,1731,1731,1731,1731,1731,1731,1731,1722,1722,1731,1731,1731,1722,1722,1722,1713,1713,1713,1713,1705,1705,1705,1705,1696,1696,1696,1696,1696,1696,1696,1688,1688,1688,1688,1688,1688,1688,1688,1680,1671,1671,1671,1663,1663,1663,1663,1663,1663,1663,1663,1663,1663,1663,1655,1655,1655,1655,1655,1655,1655,1655,1647,1647,1639,1639,1639,1639,1639,1639,1632,1632,1632,1632,1632,1632,1632,1632,1632,1639,1647,1647,1647,1647,1655,1655,1655,1655,0,0,0,2005,2005,1993,1970,1970,1970,1970,1959,1959,1947,1947,1947,1624,1624,1624,1624,1624,1624,1624,1624,1624,1624,1624,1624,1624,1624,1624,1632,1632,1632,1632,1632,1632,1639,1639,1639,1639,1647,1647,1647,1647,1647,1655,1655,1663,0,0,0,0,1050,1050,1047,1044,1044,1041,1038,1038,1038,1038,1038,1038,1038,1038,1038,1038,1038,1041,1041,1041,1044,1047,1047,1047,1047,1047,1047,1050,0,0,0,0,0,1739,1739,1739,1739,1739,1739,1739,1739,1739,1739,1748,1748,1748,1748,1757,1757,1757,1757,1757,1766,1766,1766,1766,1766,1766,1766,1766,1757,1757,1757,1757,1757,1757,1757,1757,1748,1748,1739,1731,1722,1713,1713,1696,1696,1696,0,0,0,0,0,0,0,0,0,0,0,0,0,0,0,813,813,811,811,811,809,807,805,803,803,803,803,803,805,805,805,807,807,809,811,813,813,813,815,815,815,815,817,817,819,0,0,0,0,0,0,1523,1509,1496,1496,1496,1496,1489,1489,1483,1483,1483,1477,1477,1470,1470,1464,1464,1464,1458,1452,1452,1445,1445,1439,1439,1433,1427,1427,1421,1421,1415,1415,1415,1415,1404,1398,1398,1398,1392,1392,1392,1392,1392,1392,1387,1381,1376,1370,1370,1359,1359,1359,1354,1354,1349,1349,1349,1349,1349,1343,1338,1333,1333,1328,1322,1317,1317,1317,1312,1312,1307,1307,1307,1302,1297,1292,1292,1288,1288,1288,1283,1283,1278,1273,1268,1268,1264,1259,1259,1255,1255,1255,1255,1250,1250,1250,1245,1245,1241,1232,1232,1227,1227,1223,1223,1219,1219,1219,1214,1214,1214,1210,1202,1202,1197,1197,1197,1197,1193,1189,1189,1185,1185,1181,1181,1177,1173,1173,1169,1169,1165,1165,1161,1157,1157,1157,1153,1153,1149,1145,1145,1145,1141,1138,1138,1138,1134,1134,1130,1130,1123,1123,1123,1123,1119,1119,1115,1115,1112,1112,1112,1108,1108,1105,1101,1097,1097,1094,1094,1090,1090,1090,1087,1084,1084,1084,1080,1080,1077,1073,1073,1070,1070,1067,1067,1063,1063,1060,1057,1054,1054,1054,1054,1050,1050,1047,1047,1044,1041,1041,1038,1038,1034,1031,1028,1028,1028,1028,1028,1025,1025,1022,1019,1019,1016,1016,1013,1013,1013,1013,1007,1007,1004,1004,1004,1001,1001,998,995,992,992,989,989,989,987,987,984,984,981,981,978,975,973,970,970,970,967,967,967,962,962,959,959,956,956,954,954,948,948,948,946,946,946,943,938,938,0,0,0,0,0,0,0,0,0,0,0,0,0,0,0,0,0,0,0,0,0,0,0,0,0,0,0,0,0,0
