0,0,0,0,0,0,0,0,0,0,0,1632,1632,1639,1639,1639,1639,1632,1624,1624,1632,1632,1632,1632,1632,1632,1639,1639,1639,1639,1639,1647,1647,1647,1647,1639,1632,1632,1632,1632,1632,1632,1632,1632,1632,1639,1632,1632,1632,1632,1632,1624,1624,1632,1632,1632,1632,1632,1632,1632,1632,1632,1632,1632,1632,1639,1639,1639,1647,1647,1647,1647,1647,1647,1647,1639,1639,1639,1647,1639,1639,1632,1632,1632,1632,1632,1632,0,0,0,0,0,0,0,1019,1019,1019,1019,1019,1019,1019,1019,1019,1019,1022,0,0,0,0,0,0,0,0,0,0,0,0,670,670,670,668,668,668,668,670,670,670,671,671,671,672,674,675,675,676,676,676,676,680,680,682,682,682,683,683,684,686,686,686,687,687,690,691,691,693,694,698,700,701,701,703,704,706,708,708,708,710,711,713,713,714,714,716,716,716,716,717,719,720,722,722,723,725,727,727,728,728,728,728,730,731,733,733,734,734,734,736,738,739,739,741,742,744,746,746,746,747,747,747,749,749,750,752,752,754,755,757,757,759,761,761,761,764,764,764,766,766,766,767,767,769,773,776,776,776,778,778,778,780,780,781,781,781,783,785,787,787,789,789,789,790,790,790,790,792,792,794,796,796,798,798,800,802,802,803,805,809,809,809,0,0,0,0,0,1214,1214,1214,1214,1214,1214,1210,1210,1210,1210,1210,1210,1210,1214,1214,1214,1214,1219,1219,1219,1223,1223,1609,1609,1609,1609,1601,1601,1601,1601,1594,1594,1594,1594,1594,1586,1586,1586,1586,1586,1586,1586,1586,1594,1594,1594,1594,1594,1594,1594,1594,1594,1594,1586,1586,1586,1586,1586,0,0,0,0,0,0,0,0,0,923,923,923,920,918,915,910,910,908,908,906,906,908,908,908,908,908,913,913,915,915,918,918,918,918,920,920,920,920,0,0,0,0,0,0,1586,1586,1586,1579,1579,1579,1579,1579,1579,1579,1572,1572,1579,1579,1579,1579,1579,1579,1579,1579,1586,1579,1579,1579,1579,1572,1572,1579,1579,1579,1579,1579,1579,1579,1572,1572,1572,1572,1572,1572,1564,1564,1564,1564,1557,1557,1550,1550,1550,1550,1550,1543,1543,1536,1523,1523,1523,1516,1516,1509,1509,1509,1503,1503,1496,1489,1489,1483,1477,1477,1470,1470,1464,1464,1464,1464,1458,1458,1445,1445,1439,1439,1433,1433,1427,1427,1421,1421,1415,1415,1415,1410,1398,1398,1392,1392,1387,1381,1381,1376,1376,1370,1370,1370,1365,1365,1359,1354,1354,1354,1349,1349,1349,1343,1338,1333,1328,1328,1322,1322,1317,1317,1312,1312,1307,1307,1302,1297,1297,1292,1292,1288,1288,1283,1278,1278,1273,1273,1268,1268,1268,1264,1259,1255,1255,1250,1250,1250,1245,1245,1241,1236,1236,1236,1232,1227,1227,1223,1219,1219,1214,1214,1214,1210,1206,1202,1202,1197,1197,1193,1193,1193,1189,1185,1181,1181,1177,1177,1173,1169,1169,1169,1165,1165,1161,1161,1157,1157,1157,1153,1149,1145,1145,1141,1138,1138,1138,1134,1134,1130,1126,1123,1123,1119,1119,1119,1115,1112,1112,1108,1108,1108,1105,1105,1105,1101,1097,1094,1094,1090,1090,1087,1087,1084,1080,1080,1077,1073,1073,1073,1070,1070,0,0,0,0,0,0,0,0,0,0,0,0,0,0,0,0,0,0,0,0,0,0,0,0,0,0,0,0,0,0,0,0
0,0,0,0,0,0,0,0,0,0,0,1624,1624,1632,1632,1632,1632,1632,1624,1624,1624,1624,1624,1624,1624,1632,1632,1632,1632,1639,1639,1639,1639,1639,1639,1639,1632,1632,1632,1632,1632,1632,1632,1632,1632,1632,1632,1632,1632,1632,1632,1624,1624,1624,1624,1624,1624,1624,1624,1624,1632,1632,1632,1632,1632,1632,1632,1632,1639,1632,1632,1632,1632,1632,1639,1639,1632,1632,1632,1632,1632,1632,1624,1624,1624,1624,1632,1632,0,0,0,0,0,0,1019,1019,1019,1019,1019,1019,1022,1022,1022,1022,1022,1022,0,0,0,0,0,0,0,0,0,0,0,670,670,670,670,670,670,670,670,670,671,671,671,672,674,674,675,675,676,676,676,679,680,680,682,682,683,684,684,686,686,686,687,687,688,691,693,693,697,698,700,701,701,703,704,704,707,708,708,710,711,713,713,713,714,714,716,716,716,717,717,720,722,723,723,723,725,727,727,728,728,730,730,731,731,733,733,734,734,736,736,739,739,741,741,742,744,746,746,747,747,747,749,749,750,750,752,754,754,755,759,759,759,761,761,762,764,764,766,766,766,767,767,769,769,773,776,776,776,778,778,778,780,780,781,781,781,781,785,785,787,789,789,789,789,790,790,790,792,792,796,796,798,798,800,802,802,803,803,803,1594,1586,1586,0,0,0,0,1219,1219,1219,1219,1214,1214,1214,1210,1210,1210,1210,1210,1210,1214,1214,1214,1214,1219,1219,1219,1219,1223,1223,1601,1601,1601,1601,1594,1594,1594,1594,1594,1594,1594,1594,1586,1586,1586,1586,1586,1586,1579,1579,1579,1586,1586,1586,1586,1586,1586,1586,1586,1586,1586,1586,1586,1586,1586,1586,0,0,0,0,0,0,0,0,0,923,923,923,920,918,915,913,910,910,908,908,908,908,908,908,908,910,913,913,915,915,918,918,918,918,920,923,920,920,923,0,0,0,0,0,1586,1579,1579,1579,1572,1572,1572,1579,1572,1572,1572,1572,1572,1572,1572,1572,1572,1572,1572,1572,1572,1572,1572,1572,1572,1572,1572,1572,1572,1572,1572,1572,1572,1572,1572,1572,1572,1564,1564,1564,1564,1564,1557,1557,1557,1557,1550,1550,1550,1550,1550,1543,1543,1536,1529,1523,1523,1516,1516,1516,1516,1509,1509,1503,1496,1489,1489,1483,1477,1470,1470,1470,1464,1464,1464,1464,1464,1458,1452,1445,1439,1439,1433,1433,1427,1421,1421,1421,1415,1415,1415,1410,1398,1398,1392,1392,1387,1381,1381,1376,1376,1370,1370,1370,1365,1365,1359,1359,1354,1354,1349,1349,1349,1343,1338,1333,1328,1328,1322,1322,1317,1317,1312,1312,1307,1307,1302,1302,1297,1297,1292,1288,1288,1283,1278,1278,1273,1273,1268,1268,1268,1264,1259,1255,1255,1255,1250,1250,1245,1245,1241,1236,1236,1236,1232,1232,1227,1223,1223,1219,1214,1214,1214,1210,1206,1202,1202,1197,1197,1197,1193,1193,1189,1185,1185,1181,1181,1181,1177,1173,1169,1169,1165,1165,1161,1161,1157,1157,1157,1153,1149,1149,1145,1141,1138,1138,1138,1134,1134,1130,1123,1123,1123,1119,1119,1119,1115,1115,1112,1108,1108,1108,1105,1105,1101,1101,1097,1097,1094,1090,1090,1087,1087,1084,1080,1080,1077,1073,1073,1073,1070,1070,0,0,0,0,0,0,0,0,0,0,0,0,0,0,0,0,0,0,0,0,0,0,0,0,0,0,0,0,0,0,0,0
0,0,0,0,0,0,0,0,0,0,0,1624,1624,1632,1632,1632,1632,1632,1632,1632,1624,1624,1624,1624,1624,1632,1632,1632,1632,1632,1632,1632,1632,1632,1632,1632,1632,1624,1624,1624,1624,1624,1632,1632,1632,1632,1632,1632,1632,1624,1624,1624,1624,1624,1624,1624,1624,1624,1624,1624,1624,1624,1624,1624,1624,1624,1624,1624,1632,1632,1632,1632,1632,1632,1632,1632,1624,1624,1624,1632,1632,1624,1624,1624,1624,1624,1624,1624,1624,0,0,0,0,0,1022,1022,1022,1022,1022,1022,1022,1022,1022,1022,1022,1022,0,0,0,0,0,0,0,0,0,0,0,0,670,670,670,670,670,670,670,670,671,671,672,672,674,674,675,675,676,676,676,680,680,682,682,683,684,684,686,687,687,687,688,690,691,691,693,697,698,700,700,701,703,703,704,704,708,708,710,710,711,713,713,714,714,716,716,717,717,719,719,720,722,723,723,723,725,727,727,728,728,730,731,733,733,733,734,734,734,736,739,739,739,741,741,744,744,746,747,747,747,747,749,749,750,752,752,754,755,757,759,759,759,761,761,762,766,766,766,767,767,767,769,769,771,773,776,776,776,778,778,778,780,780,780,781,781,781,785,785,787,789,789,789,789,790,790,792,792,794,796,798,800,802,802,802,802,803,803,1594,1594,1586,1586,1586,1572,1572,1572,1232,1223,1223,1219,1219,1214,1214,1210,1210,1210,1210,1210,1214,1214,1214,1214,1219,1219,1219,1223,1223,1227,1232,1601,1601,1594,1594,1586,1586,1586,1586,1586,1586,1579,1579,1579,1579,1579,1579,1579,1579,1572,1572,1572,1579,1579,1579,1579,1579,1586,1579,1579,1586,1579,1579,1579,1579,1579,1579,1579,0,0,0,0,0,0,0,0,923,923,923,920,918,918,913,913,910,908,908,908,908,908,908,908,910,913,915,915,918,918,918,918,918,920,923,923,923,923,0,0,0,0,0,0,1579,1579,1572,1572,1572,1572,1572,1572,1572,1564,1564,1572,1572,1564,1564,1572,1572,1572,1572,1572,1564,1564,1564,1564,1564,1572,1572,1572,1572,1572,1564,1564,1564,1564,1564,1564,1557,1557,1557,1557,1557,1557,1550,1550,1550,1550,1550,1550,1550,1550,1543,1543,1536,1529,1523,1523,1516,1516,1516,1516,1509,1509,1503,1496,1489,1489,1483,1477,1470,1470,1470,1464,1464,1464,1464,1464,1458,1452,1445,1439,1439,1433,1433,1427,1421,1421,1421,1421,1415,1415,1404,1398,1398,1392,1392,1387,1381,1381,1376,1376,1370,1370,1370,1365,1365,1359,1354,1354,1354,1354,1349,1349,1343,1338,1333,1328,1328,1322,1322,1317,1317,1312,1312,1307,1307,1307,1302,1297,1297,1292,1288,1288,1283,1278,1278,1273,1273,1268,1268,1268,1264,1259,1259,1255,1255,1250,1250,1250,1245,1241,1241,1236,1236,1232,1232,1227,1223,1223,1219,1214,1214,1214,1210,1206,1202,1202,1197,1197,1197,1193,1193,1189,1185,1185,1181,1181,1181,1177,1173,1173,1169,1165,1165,1161,1161,1157,1157,1157,1153,1149,1149,1145,1141,1141,1138,1138,1134,1134,1130,1123,1123,1123,1119,1119,1119,1115,1115,1112,1108,1108,1108,1105,1105,1101,1101,1097,1097,1094,1090,1090,1090,1087,1084,1080,1080,1077,1077,1073,1073,1070,1070,0,0,0,0,0,0,0,0,0,0,0,0,0,0,0,0,0,0,0,0,0,0,0,0,0,0,0,0,0,0,0,0
0,0,0,0,0,0,0,0,0,0,0,1609,1609,1624,1624,1624,1624,1624,1624,1624,1624,1624,1624,1624,1624,1624,1624,1624,1624,1624,1624,1624,1624,1624,1624,1624,1624,1624,1624,1624,1624,1624,1624,1624,1624,1624,1624,1624,1624,1624,1624,1624,1624,1624,1624,1616,1616,1616,1616,1616,1616,1616,1616,1616,1624,1624,1624,1624,1624,1624,1624,1624,1624,1624,1624,1624,1624,1616,1616,1616,1616,1616,1616,1624,1616,1616,1616,1616,1616,0,0,0,0,0,0,1022,1022,1022,1022,1022,1022,1022,1022,1022,1022,1022,1025,1031,0,0,0,0,0,0,0,0,0,0,670,670,670,670,670,670,670,671,671,672,672,672,674,675,676,676,676,676,680,680,682,682,683,683,684,686,686,687,687,688,690,690,691,693,694,697,700,701,701,703,703,703,704,706,708,708,710,710,713,713,713,714,716,716,717,717,719,719,720,720,722,723,723,725,725,727,727,728,730,730,731,733,733,734,734,734,734,736,739,739,739,741,741,744,744,746,747,747,747,749,750,750,752,752,754,754,755,757,759,759,761,761,762,764,766,766,766,767,767,767,769,769,771,773,774,776,776,776,776,778,780,780,780,781,781,783,785,785,787,789,789,789,789,790,792,792,794,794,1572,1572,1572,1586,1586,1586,1586,1586,1586,1586,1579,1579,1579,1572,1572,1572,1572,1232,1232,1227,1219,1219,1214,1214,1210,1210,1210,1210,1214,1214,1214,1214,1214,1219,1223,1223,1223,1223,1227,1232,1232,1586,1586,1579,1579,1579,1579,1579,1579,1579,1579,1579,1572,1572,1572,1572,1572,1572,1572,1572,1572,1572,1572,1572,1579,1579,1579,1579,1579,1579,1579,1579,1579,1579,1579,1579,1579,0,0,0,0,0,0,0,0,925,923,923,920,920,918,915,913,910,908,908,908,908,908,908,910,910,913,915,915,918,918,920,920,920,923,925,925,923,923,0,0,0,0,0,0,1579,1564,1564,1564,1564,1564,1572,1564,1564,1564,1564,1564,1564,1564,1564,1564,1564,1564,1564,1564,1564,1564,1564,1557,1557,1557,1557,1557,1557,1564,1564,1557,1557,1557,1557,1557,1557,1557,1557,1550,1550,1550,1550,1550,1550,1550,1550,1550,1550,1550,1543,1543,1536,1529,1523,1523,1516,1516,1516,1516,1509,1509,1503,1496,1489,1489,1483,1477,1477,1470,1470,1470,1470,1464,1464,1464,1458,1452,1445,1445,1439,1439,1433,1427,1421,1421,1421,1415,1415,1415,1404,1398,1398,1392,1392,1387,1387,1381,1376,1376,1370,1370,1370,1365,1359,1359,1354,1354,1354,1354,1349,1343,1343,1338,1333,1328,1328,1328,1328,1322,1317,1317,1312,1307,1307,1307,1302,1297,1297,1292,1288,1288,1288,1283,1278,1273,1273,1268,1268,1268,1264,1259,1259,1255,1255,1250,1250,1250,1245,1245,1241,1236,1236,1232,1232,1227,1223,1223,1219,1219,1214,1214,1210,1206,1206,1202,1197,1197,1197,1193,1193,1189,1185,1185,1181,1181,1181,1177,1173,1173,1169,1165,1165,1161,1161,1157,1157,1157,1153,1149,1149,1145,1141,1141,1138,1138,1134,1134,1130,1123,1123,1123,1119,1119,1119,1119,1115,1112,1112,1108,1108,1108,1105,1105,1101,1097,1094,1094,1090,1090,1087,1087,1084,1080,1080,1077,1077,1077,1073,1070,1070,0,0,0,0,0,0,0,0,0,0,0,0,0,0,0,0,0,0,0,0,0,0,0,0,0,0,0,0,0,0,0,0
0,0,0,0,0,0,0,0,0,0,0,1609,1609,1616,1616,1616,1616,1624,1624,1624,1624,1616,1616,1624,1624,1616,1616,1616,1624,1624,1624,1624,1624,1624,1624,1616,1616,1616,1616,1609,1609,1616,1616,1616,1624,1624,1624,1624,1624,1624,1616,1616,1616,1616,1616,1609,1609,1609,1609,1609,1609,1609,1616,1616,1616,1616,1616,1616,1616,1616,1616,1616,1616,1616,1616,1616,1616,1609,1609,1609,1609,1616,1616,1616,1616,1616,1616,1616,1616,0,0,0,0,0,0,1022,1022,1022,1022,1022,1022,1025,1025,1025,1025,1025,1025,1028,1031,1031,0,1041,1041,0,0,0,0,0,0,671,670,670,670,670,670,671,672,672,675,675,676,679,679,679,679,680,682,682,682,683,684,684,686,686,687,687,688,688,690,691,693,693,696,700,701,703,703,703,703,704,704,706,708,710,710,710,713,713,714,716,716,716,717,717,719,720,720,722,723,725,725,725,727,727,728,728,730,731,733,733,733,734,734,734,736,739,739,741,741,742,744,744,746,746,747,747,747,749,750,750,752,752,754,755,757,759,759,761,761,762,764,764,766,766,766,767,767,767,769,771,771,774,774,774,774,776,776,778,780,780,780,781,781,783,785,785,787,789,789,789,789,1572,1572,1572,1572,1572,1572,1572,1572,1572,1579,1579,1579,1579,1579,1579,1579,1579,1579,1572,1564,1564,1564,1232,1232,1227,1223,1219,1219,1214,1214,1214,1210,1210,1214,1214,1214,1214,1214,1223,1223,1223,1223,1223,1227,1227,1227,1579,1579,1572,1572,1572,1572,1572,1572,1572,1572,1572,1572,1572,1572,1564,1564,1564,1564,1564,1564,1572,1572,1572,1572,1572,1572,1572,1572,1572,1572,1572,1572,1572,1572,1572,1572,0,0,0,0,0,0,0,0,925,925,925,923,923,920,915,915,910,908,908,908,908,908,908,910,910,915,915,915,918,918,920,920,923,923,925,925,923,923,925,0,0,0,0,0,1557,1557,1557,1557,1557,1557,1564,1557,1557,1557,1557,1557,1557,1557,1557,1557,1557,1557,1557,1557,1557,1557,1557,1550,1550,1550,1550,1550,1550,1550,1550,1550,1557,1557,1557,1557,1550,1550,1550,1550,1550,1550,1550,1550,1550,1550,1550,1550,1543,1543,1543,1536,1529,1529,1523,1523,1523,1523,1516,1516,1509,1503,1503,1496,1489,1489,1483,1483,1477,1470,1470,1470,1470,1464,1464,1464,1458,1452,1445,1445,1439,1439,1433,1433,1427,1421,1421,1415,1415,1410,1404,1398,1398,1398,1392,1392,1387,1381,1376,1376,1370,1370,1370,1365,1359,1359,1354,1354,1354,1354,1349,1343,1343,1338,1333,1328,1328,1328,1328,1322,1317,1317,1312,1307,1307,1307,1302,1297,1297,1292,1288,1288,1288,1283,1278,1273,1273,1268,1268,1268,1264,1264,1259,1255,1255,1250,1250,1250,1245,1241,1241,1236,1236,1232,1232,1227,1223,1223,1219,1219,1214,1214,1210,1206,1206,1202,1202,1197,1197,1193,1193,1189,1185,1185,1181,1181,1181,1177,1177,1173,1169,1165,1165,1165,1161,1157,1157,1157,1153,1149,1149,1145,1145,1141,1138,1138,1138,1134,1130,1126,1126,1123,1123,1119,1119,1119,1115,1112,1112,1108,1108,1108,1105,1105,1101,1097,1094,1094,1090,1090,1087,1087,1084,1080,1080,1077,1077,1077,1073,1070,1070,0,0,0,0,0,0,0,0,0,0,0,0,0,0,0,0,0,0,0,0,0,0,0,0,0,0,0,0,0,0,0,0
0,0,0,0,0,0,0,0,0,0,0,1609,1609,1609,1609,1609,1609,1609,1609,1609,1609,1609,1616,1616,1609,1609,1609,1616,1616,1616,1616,1616,1616,1616,1616,1616,1609,1609,1609,1609,1609,1609,1609,1616,1616,1616,1616,1624,1624,1616,1616,1609,1609,1609,1609,1609,1601,1601,1609,1609,1609,1609,1609,1609,1609,1609,1616,1609,1609,1609,1601,1601,1609,1609,1609,1609,1609,1601,1601,1601,1601,1601,1609,1609,1609,1609,1609,1609,1616,1616,0,0,0,0,0,1022,1022,1025,1025,1025,1025,1025,1025,1025,1025,1025,1025,1028,1031,1031,1034,1038,1041,0,0,0,0,0,0,671,670,670,670,670,670,671,672,674,675,676,678,679,679,680,682,682,683,683,683,684,686,686,686,687,687,688,688,690,691,693,693,693,697,700,701,703,703,703,703,704,704,706,708,710,710,711,713,713,714,716,716,717,717,719,720,720,722,723,725,725,725,727,727,727,728,730,731,731,733,733,733,734,734,734,734,739,739,741,741,742,744,746,746,747,747,747,749,750,750,752,752,754,754,755,757,759,761,761,762,762,764,764,766,766,766,767,767,769,771,771,773,774,774,774,774,776,776,778,780,780,781,781,781,785,785,1557,1557,1557,1572,1572,1572,1572,1572,1572,1572,1572,1572,1572,1572,1572,1572,1572,1572,1579,1572,1572,1572,1572,1572,1564,1564,1564,1564,1564,1232,1227,1227,1223,1219,1214,1214,1214,1214,1214,1214,1214,1214,1214,1219,1223,1223,1223,1223,1223,1227,1227,1227,1572,1572,1572,1572,1572,1564,1564,1564,1564,1564,1564,1564,1564,1564,1564,1557,1557,1564,1564,1564,1572,1572,1572,1572,1572,1564,1564,1572,1572,1572,1572,1564,1564,1564,1564,1564,1572,0,0,0,0,0,0,0,925,925,925,923,923,920,918,918,913,910,910,910,910,910,910,910,913,915,915,918,918,920,920,920,923,925,925,925,925,925,925,0,0,0,0,0,1550,1550,1550,1550,1550,1550,1557,1550,1550,1550,1550,1550,1550,1550,1550,1550,1550,1550,1550,1550,1550,1550,1550,1550,1550,1550,1550,1550,1550,1550,1543,1543,1543,1543,1543,1550,1550,1550,1550,1550,1543,1543,1543,1543,1543,1543,1543,1543,1543,1543,1536,1529,1529,1523,1523,1523,1523,1523,1516,1516,1509,1503,1503,1496,1489,1489,1483,1483,1477,1470,1470,1470,1470,1464,1464,1464,1458,1452,1445,1445,1439,1439,1433,1433,1427,1421,1421,1421,1415,1410,1404,1404,1398,1398,1392,1392,1387,1387,1381,1376,1376,1370,1370,1370,1365,1359,1354,1354,1354,1354,1349,1343,1338,1333,1333,1328,1328,1328,1328,1322,1317,1317,1312,1307,1307,1307,1307,1302,1297,1292,1288,1288,1288,1283,1278,1273,1273,1268,1268,1268,1268,1264,1259,1255,1255,1255,1250,1250,1245,1241,1241,1236,1236,1232,1232,1227,1223,1223,1219,1219,1219,1214,1214,1210,1206,1202,1202,1197,1197,1197,1193,1189,1185,1185,1185,1181,1181,1177,1177,1173,1169,1165,1165,1165,1161,1157,1157,1157,1153,1149,1149,1145,1145,1145,1141,1138,1138,1134,1130,1130,1126,1123,1123,1119,1119,1119,1115,1115,1112,1108,1108,1108,1105,1105,1101,1101,1094,1094,1094,1090,1090,1087,1084,1080,1080,1077,1077,1077,1073,1070,1070,0,0,0,0,0,0,0,0,0,0,0,0,0,0,0,0,0,0,0,0,0,0,0,0,0,0,0,0,0,0,0,0
0,0,0,0,0,0,0,0,0,0,0,1601,1601,1601,1601,1601,1601,1601,1601,1601,1601,1601,1601,1601,1601,1601,1601,1601,1609,1616,1609,1609,1609,1616,1609,1609,1609,1609,1609,1609,1609,1609,1609,1616,1616,1616,1616,1616,1616,1616,1609,1601,1601,1601,1601,1601,1601,1601,1601,1601,1601,1601,1601,1601,1609,1609,1609,1601,1601,1601,1601,1601,1601,1601,1601,1601,1601,1601,1594,1594,1601,1601,1601,1601,1601,1594,1594,1594,1594,1594,0,0,0,0,0,1025,1025,1025,1025,1025,1025,1025,1025,1025,1028,1028,1028,1034,1034,1031,1031,1038,1041,0,0,0,0,0,0,0,671,671,670,670,671,672,672,675,676,678,679,680,680,682,682,683,684,684,686,686,686,686,687,687,688,688,690,691,691,693,693,694,697,698,701,703,703,703,704,704,706,707,708,710,710,713,713,714,716,716,716,717,719,720,720,722,722,723,723,725,725,727,727,727,728,730,731,731,733,733,733,734,734,734,734,739,739,741,742,744,744,746,747,747,749,750,750,752,752,752,754,754,755,757,759,759,761,761,762,762,764,764,766,766,767,767,767,769,771,773,773,774,774,774,774,774,776,780,780,780,780,780,1564,1564,1557,1557,1557,1557,1564,1572,1572,1572,1572,1564,1564,1564,1564,1564,1564,1564,1572,1572,1572,1572,1572,1572,1572,1572,1564,1564,1557,1557,1557,1557,1232,1227,1227,1227,1223,1223,1214,1214,1214,1214,1214,1214,1214,1214,1219,1223,1223,1227,1227,1227,1227,1232,1232,1557,1557,1557,1564,1564,1564,1564,1564,1564,1564,1564,1557,1557,1557,1557,1557,1557,1557,1557,1557,1564,1564,1564,1564,1564,1564,1564,1564,1564,1564,1564,1564,1557,1557,1557,1557,1564,0,0,0,0,0,0,0,0,925,925,925,923,923,920,918,915,913,913,913,910,910,910,913,915,915,918,918,918,920,920,923,925,925,925,925,925,925,928,0,0,0,0,0,1543,1543,1543,1543,1543,1550,1550,1550,1550,1550,1550,1550,1550,1543,1543,1543,1543,1543,1543,1543,1543,1543,1543,1543,1543,1543,1543,1543,1543,1543,1536,1536,1536,1536,1536,1536,1536,1536,1536,1543,1543,1543,1543,1543,1543,1543,1543,1543,1536,1536,1536,1529,1529,1523,1523,1523,1523,1523,1516,1516,1509,1509,1503,1496,1489,1489,1483,1483,1477,1470,1470,1470,1470,1464,1464,1464,1452,1452,1445,1445,1439,1439,1439,1433,1427,1421,1421,1421,1415,1415,1410,1404,1398,1398,1392,1392,1392,1387,1381,1376,1376,1376,1370,1370,1365,1359,1359,1359,1354,1354,1349,1343,1338,1333,1333,1328,1328,1328,1328,1322,1317,1317,1312,1312,1307,1307,1307,1302,1292,1292,1288,1288,1288,1283,1278,1273,1273,1268,1268,1268,1268,1264,1259,1259,1255,1255,1250,1250,1245,1245,1241,1236,1236,1232,1232,1227,1223,1223,1219,1219,1214,1214,1214,1210,1206,1206,1202,1197,1197,1197,1197,1189,1185,1185,1185,1181,1181,1177,1173,1173,1169,1165,1165,1165,1161,1161,1161,1157,1153,1153,1153,1149,1145,1145,1141,1138,1138,1134,1134,1130,1130,1126,1123,1123,1119,1119,1119,1119,1112,1112,1108,1108,1108,1105,1101,1101,1094,1094,1094,1090,1090,1087,1084,1084,1080,1080,1077,1077,1073,1070,1070,0,0,0,0,0,0,0,0,0,0,0,0,0,0,0,0,0,0,0,0,0,0,0,0,0,0,0,0,0,0,0,0
0,0,0,0,0,0,0,0,0,0,0,1594,1594,1594,1594,1594,1594,1594,1594,1594,1594,1594,1594,1586,1586,1594,1586,1586,1594,1601,1601,1601,1609,1609,1609,1601,1601,1601,1601,1601,1601,1601,1601,1601,1609,1609,1609,1609,1601,1601,1601,1601,1601,1601,1601,1601,1601,1601,1601,1601,1601,1601,1601,1601,1601,1601,1601,1601,1601,1594,1594,1594,1594,1594,1594,1594,1594,1594,1594,1594,1594,1594,1594,1594,1594,1586,1586,1594,1594,1594,0,0,0,0,0,1025,1025,1025,1025,1025,1028,1025,1025,1025,1025,1025,1028,1031,1034,1031,1031,1038,1038,0,0,0,0,0,0,0,0,671,670,670,671,672,674,678,679,679,680,680,682,683,683,684,684,686,686,686,687,687,688,690,690,690,691,691,693,693,694,696,697,698,701,703,704,704,704,706,707,708,708,710,710,713,713,714,716,716,717,717,719,720,720,722,722,723,723,725,725,727,727,727,728,730,731,733,733,733,734,734,734,734,734,739,739,741,742,746,746,747,747,747,749,750,750,752,752,752,754,755,757,757,759,759,761,762,762,762,764,764,766,766,767,767,767,769,771,773,773,774,774,774,774,774,774,774,1550,1564,1564,1564,1564,1564,1564,1557,1557,1557,1564,1564,1564,1564,1564,1564,1564,1564,1564,1564,1564,1564,1564,1564,1564,1564,1564,1564,1564,1564,1557,1557,1557,1550,1550,1550,1227,1227,1227,1227,1227,1223,1219,1219,1214,1214,1214,1214,1219,1219,1219,1223,1227,1227,1227,1227,1227,1232,1232,1557,1557,1557,1557,1557,1557,1557,1557,1557,1557,1550,1550,1550,1550,1550,1550,1550,1550,1550,1550,1557,1557,1564,1564,1564,1564,1564,1557,1557,1557,1557,1557,1557,1557,1557,1557,1564,0,0,0,0,0,0,0,0,0,0,925,925,923,923,920,915,913,913,913,913,913,913,913,915,918,918,918,918,920,923,923,925,925,925,925,928,928,928,0,0,0,0,0,1536,1536,1536,1536,1543,1543,1543,1543,1543,1536,1536,1536,1536,1536,1536,1536,1536,1536,1536,1536,1536,1536,1536,1536,1536,1536,1536,1536,1536,1536,1529,1529,1529,1529,1529,1529,1529,1529,1529,1529,1536,1536,1543,1536,1536,1536,1536,1536,1536,1536,1536,1529,1523,1523,1523,1523,1523,1523,1516,1516,1509,1509,1503,1496,1489,1489,1489,1483,1477,1477,1470,1470,1470,1464,1464,1464,1452,1452,1445,1445,1445,1439,1439,1433,1427,1421,1421,1421,1415,1415,1410,1404,1404,1398,1392,1392,1392,1387,1381,1376,1376,1376,1370,1370,1365,1365,1359,1359,1354,1354,1349,1343,1343,1338,1333,1333,1328,1328,1328,1322,1317,1317,1312,1312,1307,1307,1307,1302,1292,1292,1288,1288,1288,1283,1278,1273,1273,1268,1268,1268,1268,1264,1264,1259,1255,1255,1250,1250,1245,1245,1241,1236,1236,1232,1232,1227,1227,1223,1219,1214,1214,1214,1214,1210,1206,1206,1202,1197,1197,1197,1197,1189,1185,1185,1185,1181,1181,1177,1173,1173,1169,1165,1165,1165,1161,1161,1157,1157,1153,1153,1153,1149,1145,1145,1141,1138,1138,1134,1134,1130,1130,1126,1123,1123,1119,1119,1119,1119,1115,1115,1112,1108,1108,1105,1105,1101,1097,1094,1094,1090,1090,1090,1087,1084,1080,1080,1077,1077,1077,1073,1073,0,0,0,0,0,0,0,0,0,0,0,0,0,0,0,0,0,0,0,0,0,0,0,0,0,0,0,0,0,0,0,0
0,0,0,0,0,0,0,0,0,0,0,1594,1586,1586,1586,1586,1586,1586,1586,1586,1586,1586,1579,1579,1579,1579,1579,1572,1572,1579,1586,1594,1601,1601,1601,1601,1594,1594,1594,1594,1594,1594,1594,1594,1594,1601,1594,1594,1594,1594,1601,1601,1601,1594,1594,1594,1594,1594,1594,1594,1594,1594,1594,1594,1594,1594,1594,1594,1594,1594,1594,1586,1586,1586,1586,1586,1586,1586,1586,1594,1594,1594,1594,1594,1586,1586,1579,1579,1586,1586,1594,0,0,0,0,0,1025,1025,1025,1028,1028,1025,1025,1025,1025,1025,1028,1031,1034,1034,1034,1034,1038,0,0,0,0,0,0,0,0,0,670,670,672,672,678,679,680,680,680,682,682,683,684,684,686,686,686,686,687,687,688,690,690,691,691,693,693,694,694,696,697,698,701,703,704,706,706,707,707,708,708,711,711,713,713,714,716,716,717,719,720,720,720,722,722,725,725,725,725,727,727,728,728,731,733,733,733,734,734,734,734,734,739,739,741,741,744,746,746,747,747,747,749,750,750,752,752,754,754,755,757,759,759,761,761,762,762,762,764,764,766,766,766,767,769,769,771,773,773,774,774,774,774,774,1550,1550,1550,0,1564,1564,1564,1564,1564,1564,1564,1564,1564,1564,1564,1564,1557,1557,1557,1557,1557,1557,1557,1557,1564,1564,1564,1564,1564,1557,1557,1557,1550,1550,1550,1550,1550,1543,1227,1227,1227,1227,1227,1223,1219,1219,1219,1219,1219,1219,1219,1223,1223,1223,1227,1227,1227,1227,1227,1227,1227,1550,1550,1550,1550,1550,1550,1550,1550,1550,1550,1543,1543,1543,1543,1543,1543,1543,1543,1543,1543,1550,1557,1557,1557,1557,1557,1557,1550,1550,1550,1550,1550,1550,1550,1550,1550,0,0,0,0,0,0,0,0,0,0,0,0,928,928,923,923,918,915,913,913,913,913,913,915,915,918,918,920,920,920,923,923,925,925,925,925,928,928,928,0,0,0,0,1523,1523,1529,1536,1536,1536,1536,1536,1536,1536,1529,1529,1529,1529,1529,1529,1529,1529,1529,1529,1529,1529,1529,1529,1536,1529,1529,1529,1529,1529,1529,1523,1523,1523,1523,1523,1523,1523,1523,1523,1523,1529,1529,1529,1529,1529,1529,1536,1529,1529,1529,1523,1523,1523,1523,1523,1523,1516,1516,1516,1516,1509,1509,1503,1496,1496,1489,1489,1483,1483,1477,1470,1470,1470,1464,1464,1464,1452,1452,1445,1445,1445,1439,1439,1433,1433,1427,1421,1421,1415,1415,1410,1404,1404,1398,1392,1392,1392,1387,1381,1376,1376,1376,1370,1370,1365,1365,1359,1359,1354,1354,1349,1343,1343,1338,1333,1333,1333,1328,1328,1322,1317,1317,1312,1312,1307,1307,1307,1302,1292,1292,1288,1288,1288,1283,1278,1278,1273,1273,1273,1268,1268,1268,1264,1259,1255,1255,1250,1250,1245,1245,1241,1236,1236,1232,1232,1227,1227,1223,1219,1214,1214,1214,1214,1210,1206,1206,1202,1202,1197,1197,1193,1189,1185,1185,1185,1181,1181,1177,1177,1173,1169,1169,1165,1165,1165,1161,1157,1157,1153,1153,1153,1149,1149,1145,1141,1141,1138,1138,1134,1134,1130,1130,1123,1123,1123,1119,1119,1119,1115,1115,1112,1108,1108,1105,1105,1101,1097,1094,1094,1090,1090,1090,1087,1087,1084,1080,1080,1077,1077,1073,1073,0,0,0,0,0,0,0,0,0,0,0,0,0,0,0,0,0,0,0,0,0,0,0,0,0,0,0,0,0,0,0,0
0,0,0,0,0,0,0,0,0,0,0,1586,1586,1586,1586,1586,1586,1579,1579,1586,1579,1579,1572,1572,1572,1572,1572,1564,1564,1572,1579,1586,1586,1586,1586,1586,1594,1594,1586,1586,1594,1586,1586,1594,1594,1594,1594,1586,1586,1586,1594,1594,1594,1594,1594,1594,1594,1594,1594,1594,1594,1594,1594,1594,1594,1586,1586,1586,1586,1586,1586,1579,1579,1579,1579,1579,1579,1579,1586,1586,1586,1586,1586,1579,1579,1572,1572,1572,1579,1579,1579,0,0,0,0,0,1025,1025,1025,1025,1028,1025,1025,1028,1028,1028,1031,1034,1034,1034,1034,1034,1038,1038,0,0,0,0,0,0,0,0,0,0,676,676,679,680,680,680,682,682,683,683,684,684,686,686,686,687,687,688,690,690,691,691,693,693,694,696,697,698,698,701,703,703,704,706,707,707,708,708,710,711,711,713,713,714,716,716,717,719,720,720,720,722,722,725,725,725,727,727,728,728,730,731,733,733,733,734,734,736,736,736,739,739,741,741,744,746,746,747,747,749,749,750,752,752,752,754,754,755,755,757,759,761,761,762,762,764,764,764,766,766,766,767,767,769,771,773,773,774,774,774,1550,1550,1550,1550,1550,1550,1564,1564,1564,1564,1564,1564,1557,1557,1564,1564,1557,1557,1557,1550,1550,1550,1550,1550,1550,1557,1557,1557,1557,1557,1557,1557,1550,1550,1550,1550,1543,1543,1543,1543,1543,1232,1232,1232,1227,1227,1223,1219,1219,1219,1219,1223,1223,1223,1223,1227,1227,1227,1227,1227,1227,1227,1227,1543,1543,1543,1543,1543,1543,1550,1550,1543,1543,1543,1543,1543,1536,1536,1536,1536,1536,1536,1543,1550,1550,1550,1550,1550,1550,1550,1550,1550,1550,1550,1550,1543,1543,1543,1543,0,0,0,0,0,0,0,0,0,0,0,930,928,928,928,925,923,918,915,915,915,915,915,915,918,918,918,920,920,923,923,925,925,928,928,928,928,928,0,0,0,0,1523,1523,1523,1523,1529,1529,1529,1529,1529,1529,1529,1529,1523,1523,1523,1523,1523,1523,1523,1523,1523,1523,1523,1523,1529,1529,1529,1529,1529,1529,1523,1523,1523,1523,1523,1523,1523,1516,1516,1523,1523,1523,1523,1523,1523,1523,1523,1523,1516,1516,1523,1523,1523,1523,1523,1523,1523,1516,1516,1516,1516,1509,1509,1503,1503,1496,1496,1489,1489,1489,1483,1477,1477,1470,1470,1464,1464,1464,1452,1452,1445,1445,1445,1439,1439,1433,1433,1427,1421,1421,1415,1415,1410,1404,1404,1398,1392,1392,1392,1387,1387,1381,1381,1376,1370,1370,1365,1365,1359,1359,1354,1354,1349,1349,1343,1338,1338,1333,1333,1328,1328,1322,1317,1317,1312,1312,1307,1307,1307,1302,1292,1292,1288,1288,1283,1283,1278,1278,1273,1273,1273,1268,1268,1268,1264,1259,1259,1255,1250,1250,1245,1245,1241,1236,1236,1232,1232,1232,1227,1223,1219,1214,1214,1214,1214,1210,1206,1206,1202,1202,1197,1197,1193,1189,1185,1185,1185,1181,1181,1177,1177,1173,1169,1169,1169,1165,1165,1165,1161,1161,1157,1153,1153,1149,1149,1145,1145,1141,1138,1138,1134,1134,1130,1130,1123,1123,1123,1119,1119,1119,1115,1115,1112,1108,1108,1105,1105,1101,1097,1094,1094,1090,1090,1090,1087,1087,1084,1080,1080,1077,1077,1077,1077,0,0,0,0,0,0,0,0,0,0,0,0,0,0,0,0,0,0,0,0,0,0,0,0,0,0,0,0,0,0,0,0
0,0,0,0,0,0,0,0,0,0,0,1586,1579,1579,1579,1579,1579,1579,1579,1579,1572,1572,1572,1572,1572,1572,1564,1564,1564,1564,1572,1579,1579,1579,1579,1579,1579,1579,1579,1579,1586,1579,1579,1586,1579,1579,1579,1579,1579,1579,1579,1586,1586,1586,1586,1594,1594,1594,1594,1586,1586,1586,1586,1586,1586,1586,1586,1586,1586,1586,1586,1579,1579,1579,1579,1572,1572,1572,1579,1579,1579,1579,1579,1572,1572,1572,1572,1572,1572,1572,1572,1579,0,0,0,0,1028,1025,1025,1025,1025,1025,1025,1028,1031,1031,1031,1034,1034,1034,1034,1034,1038,1038,0,0,0,0,0,0,0,0,0,0,678,678,679,680,680,680,682,682,683,684,684,684,686,686,687,687,687,688,690,691,691,693,693,693,694,696,697,698,700,701,703,703,704,707,707,708,708,708,710,711,713,713,714,716,716,716,717,719,720,720,720,722,723,725,725,727,727,727,728,728,730,731,733,733,734,734,734,736,736,736,739,741,741,741,744,746,746,747,747,749,750,750,752,752,754,754,754,755,755,757,759,761,761,762,762,762,764,764,764,766,766,767,767,769,771,773,773,774,774,1550,1550,1550,1550,1543,1543,1550,1550,1550,1557,1557,1557,1557,1557,1557,1557,1557,1550,1550,1550,1550,1543,1543,1543,1543,1550,1550,1550,1557,1557,1557,1557,1550,1550,1543,1543,1543,1543,1543,1543,1543,1543,1232,1227,1227,1227,1227,1227,1223,1223,1223,1223,1223,1223,1223,1227,1227,1227,1227,1227,1227,1227,1227,1227,1536,1536,1536,1536,1536,1543,1543,1536,1536,1543,1536,1536,1536,1536,1536,1536,1536,1536,1536,1536,1543,1543,1550,1550,1550,1550,1543,1543,1543,1543,1543,1543,1543,1543,1543,1543,0,0,0,0,0,0,0,0,0,0,933,930,928,928,928,925,923,920,918,918,915,915,915,915,918,918,920,920,923,923,925,925,928,928,928,928,928,0,0,0,0,0,1523,1523,1523,1523,1523,1523,1523,1523,1523,1523,1523,1523,1523,1523,1523,1523,1523,1523,1523,1516,1516,1516,1516,1523,1523,1523,1523,1523,1523,1523,1523,1523,1516,1516,1516,1516,1516,1516,1516,1516,1516,1516,1516,1516,1516,1516,1516,1516,1509,1509,1516,1516,1516,1516,1516,1516,1516,1516,1516,1509,1509,1509,1503,1503,1496,1496,1496,1489,1489,1489,1483,1483,1477,1470,1470,1464,1464,1464,1458,1458,1452,1445,1445,1439,1439,1439,1433,1427,1421,1421,1415,1415,1410,1404,1404,1398,1398,1392,1392,1392,1387,1387,1381,1376,1370,1370,1365,1365,1359,1359,1354,1354,1349,1349,1349,1338,1338,1333,1333,1328,1328,1322,1317,1317,1312,1312,1307,1307,1307,1302,1297,1292,1288,1288,1283,1283,1278,1278,1273,1273,1273,1268,1268,1268,1264,1259,1259,1255,1250,1250,1245,1245,1241,1236,1236,1232,1232,1232,1227,1227,1219,1219,1219,1214,1214,1210,1210,1206,1202,1202,1197,1197,1197,1189,1185,1185,1185,1181,1181,1177,1177,1173,1169,1169,1169,1169,1165,1165,1161,1161,1157,1153,1153,1149,1149,1145,1145,1141,1141,1138,1138,1134,1130,1130,1123,1123,1123,1119,1119,1119,1115,1115,1112,1108,1108,1105,1101,1101,1097,1094,1094,1090,1090,1090,1087,1087,1084,1080,1080,1077,1077,1077,1077,0,0,0,0,0,0,0,0,0,0,0,0,0,0,0,0,0,0,0,0,0,0,0,0,0,0,0,0,0,0,0,0
0,0,0,0,0,0,0,0,0,0,0,1579,1572,1572,1572,1572,1572,1572,1572,1572,1572,1564,1564,1564,1564,1564,1564,1557,1557,1557,1564,1564,1564,1572,1572,1572,1572,1572,1572,1572,1572,1572,1572,1572,1579,1579,1579,1572,1572,1579,1579,1579,1586,1586,1586,1586,1594,1586,1586,1586,1586,1586,1579,1579,1579,1579,1579,1579,1579,1579,1579,1572,1572,1572,1572,1572,1572,1572,1572,1572,1572,1572,1572,1572,1572,1564,1564,1564,1572,1572,1572,1572,0,0,0,0,1028,1028,1025,1025,1025,1025,1025,1031,1031,1034,1034,1034,1038,1038,1038,1038,1038,1038,0,0,0,0,0,0,0,0,0,0,0,0,680,680,682,682,682,682,683,684,684,686,686,686,687,687,688,690,691,691,691,693,693,694,696,697,698,698,700,701,703,704,704,707,708,708,708,710,711,713,713,713,714,716,716,716,717,719,720,720,720,722,723,725,725,727,728,728,728,730,731,733,733,734,734,734,736,738,738,739,739,741,741,741,746,746,747,747,747,749,750,750,752,752,754,754,754,755,755,757,759,761,761,762,762,762,764,764,764,766,766,767,767,767,1523,1529,1529,1543,1543,1543,1543,1543,1543,1543,1543,1543,1543,1543,1543,1543,1550,1550,1557,1557,1550,1550,1550,1543,1543,1543,1543,1543,1536,1536,1543,1543,1543,1543,1543,1550,1550,1543,1543,1543,1543,1543,1536,1536,1536,1536,1529,1232,1227,1227,1227,1227,1227,1223,1223,1223,1223,1223,1223,1227,1227,1227,1227,1227,1227,1227,1227,1227,1227,1529,1529,1529,1529,1536,1536,1536,1536,1536,1536,1536,1536,1536,1529,1529,1529,1529,1529,1529,1529,1536,1536,1543,1543,1543,1543,1543,1536,1536,1536,1536,1536,1536,1536,1536,1523,1523,0,0,0,0,0,0,0,0,0,933,930,930,928,928,925,923,920,918,918,918,918,918,918,918,920,920,923,923,925,925,925,928,928,928,928,928,0,0,0,0,1516,1516,1516,1516,1523,1523,1523,1523,1523,1523,1523,1523,1523,1523,1523,1516,1516,1516,1516,1516,1516,1516,1516,1516,1516,1516,1516,1516,1516,1516,1516,1516,1516,1516,1516,1516,1516,1516,1516,1516,1516,1516,1516,1509,1509,1509,1509,1509,1509,1503,1503,1509,1509,1509,1509,1509,1509,1509,1509,1509,1509,1509,1503,1503,1496,1496,1496,1489,1489,1489,1489,1483,1483,1477,1470,1470,1464,1464,1464,1458,1458,1452,1445,1445,1439,1439,1433,1433,1427,1421,1421,1415,1415,1410,1410,1404,1398,1398,1392,1392,1392,1387,1387,1381,1381,1370,1370,1365,1365,1359,1359,1354,1354,1354,1349,1349,1343,1338,1333,1333,1328,1328,1322,1317,1317,1312,1312,1312,1307,1307,1302,1302,1292,1288,1288,1288,1283,1278,1278,1273,1273,1273,1273,1268,1268,1264,1259,1259,1255,1255,1250,1250,1245,1241,1241,1236,1236,1232,1232,1227,1227,1219,1219,1219,1214,1214,1210,1210,1206,1202,1202,1197,1197,1197,1193,1189,1185,1185,1181,1181,1181,1177,1177,1173,1169,1169,1169,1169,1165,1161,1161,1157,1153,1153,1149,1149,1145,1145,1141,1141,1138,1138,1134,1130,1130,1123,1123,1123,1119,1119,1119,1115,1115,1112,1108,1108,1105,1101,1101,1097,1094,1094,1094,1090,1090,1090,1087,1084,1084,1080,1077,1077,1077,1077,0,0,0,0,0,0,0,0,0,0,0,0,0,0,0,0,0,0,0,0,0,0,0,0,0,0,0,0,0,0,0,0
0,0,0,0,0,0,0,0,0,0,0,1572,1572,1572,1572,1572,1572,1572,1572,1572,1564,1564,1564,1564,1564,1564,1557,1557,1557,1557,1557,1564,1564,1564,1572,1572,1572,1564,1564,1564,1564,1564,1564,1572,1572,1572,1564,1564,1572,1572,1572,1572,1579,1579,1579,1579,1586,1572,1572,1572,1572,1572,1572,1572,1564,1564,1572,1572,1572,1572,1572,1572,1572,1564,1564,1564,1564,1564,1564,1564,1564,1572,1572,1564,1564,1564,1564,1564,1564,1564,1572,1572,0,0,0,0,0,1028,1028,1025,1025,1028,1031,1034,1034,1034,1034,1034,1038,1038,1038,1038,1038,1038,1038,0,0,0,0,0,0,0,0,0,0,0,682,682,683,683,683,683,684,684,686,686,686,686,687,687,688,690,691,691,691,693,693,694,696,697,698,698,700,701,703,704,704,707,708,708,710,710,711,713,713,714,714,716,717,717,717,720,720,720,722,723,723,725,725,727,728,728,730,731,731,733,733,734,734,736,738,739,739,739,741,741,741,741,746,746,747,747,747,749,750,750,752,752,754,754,754,755,755,757,759,761,762,762,762,764,764,766,766,766,766,1529,1529,1523,1523,1529,1529,1529,1536,1536,1543,1543,1543,1543,1543,1536,1536,1543,1543,1543,1543,1543,1543,1543,1543,1543,1543,1543,1543,1536,1536,1536,1536,1536,1536,1536,1543,1536,1536,1543,1543,1543,1543,1536,1536,1536,1536,1536,1536,1529,1529,1232,1232,1232,1232,1232,1227,1227,1227,1223,1223,1223,1223,1227,1227,1227,1227,1232,1227,1227,1227,1232,1523,1523,1523,1523,1523,1523,1523,1529,1529,1529,1529,1529,1529,1529,1523,1523,1523,1529,1523,1523,1529,1529,1529,1529,1529,1536,1536,1536,1536,1536,1529,1529,1529,1529,1529,1523,1523,1523,1516,1516,0,0,0,0,0,0,0,0,933,930,930,928,925,923,920,920,918,918,918,918,918,920,920,920,923,925,925,925,925,928,928,928,928,0,0,0,0,0,1516,1516,1516,1516,1516,1516,1523,1523,1523,1516,1516,1516,1516,1516,1516,1516,1516,1516,1516,1516,1509,1509,1509,1509,1509,1509,1509,1516,1516,1516,1516,1516,1516,1516,1509,1509,1516,1516,1509,1509,1509,1509,1509,1509,1503,1503,1503,1503,1503,1496,1496,1503,1503,1503,1503,1503,1503,1503,1503,1496,1496,1496,1496,1496,1496,1496,1489,1489,1489,1489,1489,1483,1477,1477,1470,1470,1464,1464,1464,1458,1458,1452,1445,1445,1439,1439,1433,1433,1427,1421,1421,1415,1415,1410,1410,1404,1398,1398,1392,1392,1392,1387,1387,1381,1381,1370,1370,1365,1365,1359,1359,1354,1354,1354,1349,1349,1343,1343,1338,1333,1328,1328,1322,1317,1317,1312,1312,1312,1307,1307,1302,1297,1292,1292,1288,1288,1283,1278,1278,1273,1273,1273,1273,1268,1268,1264,1259,1259,1255,1255,1250,1250,1245,1241,1241,1236,1236,1232,1232,1227,1227,1223,1219,1219,1214,1214,1214,1210,1206,1206,1202,1202,1197,1197,1189,1189,1185,1185,1181,1181,1181,1177,1177,1173,1173,1169,1169,1169,1165,1161,1161,1157,1153,1153,1149,1149,1145,1145,1141,1141,1138,1138,1134,1134,1130,1126,1123,1123,1119,1119,1119,1115,1115,1112,1108,1108,1105,1101,1101,1097,1094,1094,1094,1090,1090,1090,1090,1087,1084,1080,1080,1077,1077,1077,0,0,0,0,0,0,0,0,0,0,0,0,0,0,0,0,0,0,0,0,0,0,0,0,0,0,0,0,0,0,0,0
0,0,0,0,0,0,0,0,0,0,0,1564,1564,1564,1572,1564,1564,1564,1564,1564,1564,1564,1564,1564,1564,1564,1557,1557,1557,1557,1557,1557,1557,1564,1564,1564,1564,1564,1564,1564,1564,1564,1564,1564,1564,1564,1564,1557,1557,1557,1557,1557,1572,1572,1572,1572,1572,1572,1572,1572,1572,1572,1572,1564,1564,1564,1564,1564,1564,1564,1564,1572,1564,1564,1564,1557,1557,1557,1557,1557,1557,1564,1564,1564,1564,1564,1557,1557,1557,1557,1557,1572,0,0,0,0,0,0,1028,1025,1025,1028,1031,1034,1034,1034,1038,1038,1038,1038,1038,1034,1034,1034,1034,0,0,0,0,0,0,0,0,0,0,0,683,683,683,683,683,683,684,684,686,686,686,686,687,687,688,690,691,691,691,693,694,696,697,697,698,698,700,701,703,704,704,707,708,708,710,710,713,713,714,714,717,717,717,717,719,720,722,722,722,723,725,727,727,728,728,730,730,731,733,733,734,734,736,736,738,739,739,741,741,741,742,744,746,746,747,747,749,749,750,750,752,752,754,754,755,755,757,759,759,761,762,762,762,764,764,764,1523,1529,1529,1529,1529,1523,1523,1529,1529,1529,1529,1536,1536,1536,1536,1536,1536,1536,1536,1536,1536,1536,1536,1536,1536,1536,1536,1536,1536,1536,1536,1536,1536,1536,1536,1536,1536,1536,1536,1536,1536,1543,1543,1536,1536,1536,1536,1536,1529,1529,1529,1523,1523,1241,1236,1236,1232,1232,1227,1227,1227,1223,1223,1227,1227,1227,1227,1227,1227,1232,1227,1227,1232,1232,1516,1516,1516,1516,1523,1516,1516,1523,1523,1523,1523,1523,1523,1523,1523,1523,1516,1516,1516,1516,1523,1523,1523,1523,1523,1529,1529,1523,1523,1523,1523,1523,1523,1523,1523,1516,1516,1516,1516,1516,0,0,0,0,0,0,0,938,935,933,930,930,925,925,923,920,918,918,918,918,920,920,920,923,925,925,925,925,928,928,928,928,928,933,0,0,0,0,1509,1509,1509,1509,1509,1516,1516,1516,1516,1516,1516,1509,1509,1516,1516,1509,1509,1509,1509,1509,1509,1509,1503,1503,1503,1503,1503,1503,1509,1509,1509,1509,1509,1509,1509,1509,1509,1509,1509,1509,1503,1503,1503,1503,1503,1503,1503,1496,1496,1496,1496,1496,1496,1496,1496,1496,1496,1496,1496,1496,1496,1496,1489,1489,1489,1496,1489,1489,1489,1489,1489,1483,1477,1477,1470,1470,1470,1464,1464,1458,1452,1452,1445,1445,1439,1439,1439,1433,1427,1421,1415,1415,1415,1415,1410,1404,1398,1398,1398,1392,1392,1392,1387,1387,1381,1370,1370,1365,1359,1354,1354,1354,1354,1354,1349,1349,1343,1343,1338,1333,1328,1328,1322,1317,1317,1312,1312,1312,1307,1307,1302,1297,1292,1292,1288,1288,1283,1278,1278,1273,1273,1273,1273,1268,1268,1264,1259,1259,1259,1255,1255,1250,1245,1245,1241,1241,1236,1236,1232,1232,1227,1223,1223,1219,1219,1214,1214,1210,1210,1206,1202,1202,1197,1197,1189,1189,1185,1185,1185,1181,1181,1181,1177,1173,1173,1169,1169,1169,1165,1165,1161,1157,1153,1153,1149,1149,1145,1145,1141,1141,1138,1138,1134,1130,1130,1126,1123,1123,1119,1119,1119,1115,1112,1108,1108,1105,1105,1101,1101,1097,1097,1094,1094,1090,1090,1090,1090,1087,1084,1080,1080,1080,1077,1077,0,0,0,0,0,0,0,0,0,0,0,0,0,0,0,0,0,0,0,0,0,0,0,0,0,0,0,0,0,0,0,0
0,0,0,0,0,0,0,0,0,0,0,1564,1564,1564,1564,1564,1564,1564,1564,1564,1557,1557,1557,1557,1557,1557,1550,1550,1550,1550,1550,1550,1550,1557,1557,1557,1564,1557,1557,1557,1557,1557,1557,1557,1557,1557,1550,1550,1550,1550,1550,1550,1550,1557,1557,1564,1564,1564,1564,1557,1557,1564,1564,1564,1557,1557,1557,1557,1557,1557,1564,1564,1564,1564,1557,1557,1557,1550,1550,1550,1550,1557,1557,1557,1557,1557,1557,1557,1557,1557,1557,0,0,0,0,0,0,0,1031,1031,1031,1034,1034,1034,1034,1034,1038,1038,1038,1038,1038,1034,1034,1034,1034,1034,0,0,0,0,0,0,0,0,0,0,687,686,684,683,683,683,684,686,686,686,686,686,687,687,688,690,691,691,693,693,694,696,697,697,698,698,700,701,703,704,706,707,708,710,710,713,713,714,714,716,717,717,719,719,720,722,722,722,722,725,725,727,727,728,730,730,731,733,733,734,734,734,736,736,738,739,739,741,741,741,742,744,746,746,747,747,749,749,750,750,752,752,754,754,755,755,757,759,759,761,762,762,762,1529,1523,1523,1523,1529,1529,1529,1529,1523,1523,1529,1523,1523,1529,1529,1529,1529,1529,1536,1536,1529,1529,1529,1529,1529,1529,1529,1529,1529,1529,1529,1529,1529,1529,1529,1529,1529,1529,1529,1529,1536,1536,1529,1529,1536,1536,1536,1536,1536,1536,1529,1529,1529,1523,1523,1523,1241,1236,1232,1232,1232,1227,1227,1227,1227,1227,1227,1227,1227,1227,1227,1227,1232,1232,1232,1232,1232,1509,1509,1509,1509,1516,1516,1516,1516,1516,1516,1516,1516,1516,1516,1516,1516,1516,1516,1516,1516,1516,1516,1516,1523,1523,1523,1523,1523,1523,1516,1516,1516,1516,1516,1516,1516,1516,1516,1516,1516,0,0,0,0,0,0,0,938,935,933,933,930,928,925,923,920,918,918,918,918,920,920,923,923,925,925,925,925,928,928,928,930,930,933,0,0,0,0,1509,1509,1509,1509,1509,1509,1509,1503,1503,1509,1509,1503,1503,1509,1509,1509,1509,1509,1509,1503,1503,1503,1503,1496,1496,1503,1503,1503,1503,1496,1496,1503,1503,1503,1496,1496,1503,1503,1503,1496,1496,1496,1496,1496,1496,1496,1496,1496,1496,1496,1496,1496,1496,1496,1496,1489,1489,1489,1489,1489,1489,1489,1489,1489,1489,1489,1483,1483,1483,1483,1483,1477,1477,1470,1470,1470,1470,1470,1464,1458,1452,1452,1445,1445,1439,1439,1439,1433,1427,1421,1415,1415,1415,1410,1410,1404,1398,1398,1398,1392,1392,1392,1387,1387,1381,1370,1370,1365,1359,1354,1354,1354,1354,1354,1349,1349,1349,1343,1338,1333,1328,1328,1322,1322,1317,1312,1312,1307,1307,1307,1302,1297,1292,1292,1292,1288,1288,1283,1278,1273,1273,1273,1273,1268,1268,1264,1264,1259,1259,1255,1255,1250,1250,1245,1245,1241,1236,1236,1232,1232,1227,1223,1223,1219,1219,1214,1214,1210,1210,1206,1206,1202,1197,1197,1189,1189,1189,1185,1185,1181,1181,1181,1177,1177,1173,1169,1169,1169,1165,1165,1161,1157,1153,1153,1149,1149,1149,1145,1141,1141,1138,1138,1134,1130,1130,1126,1123,1123,1119,1119,1119,1115,1112,1108,1108,1105,1105,1101,1101,1101,1097,1094,1094,1094,1090,1090,1090,1087,1084,1080,1080,1080,1077,1077,0,0,0,0,0,0,0,0,0,0,0,0,0,0,0,0,0,0,0,0,0,0,0,0,0,0,0,0,0,0,0,0
0,0,0,0,0,0,0,0,0,0,0,1564,1564,1564,1564,1564,1557,1557,1557,1557,1557,1557,1550,1550,1550,1550,1550,1550,1543,1543,1543,1543,1543,1543,1550,1557,1557,1557,1557,1550,1550,1550,1550,1550,1550,1550,1543,1543,1543,1543,1543,1543,1543,1543,1543,1550,1557,1550,1550,1550,1550,1557,1557,1557,1557,1557,1557,1557,1557,1557,1557,1564,1557,1557,1557,1550,1550,1543,1543,1543,1543,1550,1550,1550,1550,1550,1550,1550,1550,1550,1550,1564,0,0,0,0,0,0,1034,1034,1034,1034,1034,1034,1034,1038,1038,1038,1038,1038,1038,1038,1034,1034,1034,1034,0,0,0,0,0,0,0,0,0,0,0,687,686,684,684,684,684,686,686,686,686,686,687,688,690,691,691,693,693,693,694,696,697,697,698,698,700,701,703,706,706,708,710,710,711,713,713,714,714,716,717,717,719,720,720,722,722,723,725,725,727,727,728,728,730,731,731,733,734,734,734,736,736,736,738,739,739,741,741,741,742,744,746,746,747,747,749,750,750,752,752,752,754,754,755,755,755,755,755,1529,1529,1529,1529,1529,1523,1523,1523,1523,1529,1529,1529,1529,1529,1529,1523,1523,1529,1529,1529,1529,1529,1529,1529,1523,1523,1523,1523,1523,1523,1523,1523,1523,1523,1523,1529,1529,1529,1529,1523,1523,1523,1523,1523,1523,1523,1523,1523,1529,1529,1536,1529,1529,1529,1529,1523,1523,1232,1232,1236,1236,1236,1232,1232,1232,1227,1227,1227,1227,1227,1227,1227,1227,1227,1227,1232,1232,1232,1232,1232,1232,1503,1503,1503,1509,1509,1509,1509,1509,1509,1509,1509,1509,1509,1509,1509,1509,1509,1509,1509,1509,1516,1516,1516,1516,1516,1516,1516,1516,1516,1516,1509,1509,1509,1509,1509,1509,1509,1516,1516,1516,1516,0,0,0,0,0,0,938,938,935,933,930,928,925,923,920,918,918,918,920,920,920,923,923,925,925,925,928,928,928,928,930,930,933,935,0,0,0,0,1509,1503,1503,1503,1503,1503,1496,1496,1496,1496,1496,1503,1503,1503,1503,1503,1503,1503,1496,1496,1496,1496,1496,1496,1496,1496,1496,1496,1496,1496,1489,1489,1489,1489,1489,1489,1489,1496,1489,1489,1489,1489,1489,1489,1489,1489,1496,1496,1496,1496,1496,1489,1489,1489,1489,1489,1489,1489,1489,1483,1483,1483,1483,1483,1483,1483,1483,1483,1477,1477,1477,1477,1470,1470,1470,1470,1470,1464,1458,1452,1445,1445,1445,1439,1439,1439,1433,1427,1421,1421,1415,1415,1410,1410,1404,1398,1398,1398,1398,1392,1392,1392,1387,1381,1376,1370,1365,1359,1359,1359,1354,1354,1354,1349,1349,1349,1343,1338,1333,1328,1328,1328,1322,1317,1312,1312,1307,1307,1307,1302,1297,1292,1292,1292,1288,1288,1283,1278,1273,1273,1273,1273,1268,1268,1264,1264,1259,1259,1255,1255,1250,1250,1245,1245,1241,1236,1236,1232,1232,1227,1227,1223,1223,1219,1219,1214,1214,1210,1206,1206,1202,1197,1197,1189,1189,1189,1185,1185,1185,1181,1181,1181,1177,1173,1173,1169,1165,1165,1165,1161,1161,1157,1153,1149,1149,1149,1145,1141,1141,1138,1138,1134,1130,1130,1126,1126,1123,1119,1119,1119,1115,1112,1108,1108,1108,1105,1101,1101,1101,1097,1094,1094,1094,1094,1090,1090,1087,1084,1080,1080,1080,1077,1077,0,0,0,0,0,0,0,0,0,0,0,0,0,0,0,0,0,0,0,0,0,0,0,0,0,0,0,0,0,0,0,0
0,0,0,0,0,0,0,0,0,0,0,1557,1557,1557,1557,1557,1550,1550,1550,1550,1550,1550,1543,1543,1543,1543,1543,1543,1543,1543,1543,1543,1543,1543,1543,1543,1543,1543,1543,1543,1543,1543,1543,1543,1543,1543,1543,1536,1536,1536,1536,1536,1543,1536,1536,1543,1543,1543,1543,1543,1543,1543,1550,1550,1550,1550,1550,1550,1550,1550,1550,1557,1557,1550,1550,1550,1550,1543,1543,1536,1536,1543,1543,1543,1543,1550,1543,1543,1543,1543,1550,1557,0,0,0,0,0,0,0,1034,1034,1034,1034,1034,1034,1038,1038,1038,1038,1038,1038,1038,1034,1034,1034,1034,0,0,0,0,0,0,0,0,0,0,690,687,687,686,684,684,686,686,686,686,686,686,687,688,690,691,691,693,693,693,694,696,697,697,698,698,700,701,704,706,707,708,710,711,713,713,714,714,714,716,717,719,720,720,722,722,723,725,725,727,727,728,728,730,730,731,733,733,734,734,734,736,736,738,739,739,739,741,741,741,742,744,746,747,747,747,749,750,750,752,752,752,754,754,754,754,754,0,0,0,1529,1529,1529,1529,1523,1523,1523,1523,1523,1523,1523,1523,1523,1523,1516,1516,1523,1523,1523,1523,1523,1523,1523,1523,1523,1523,1523,1523,1516,1516,1516,1516,1516,1516,1516,1523,1523,1523,1523,1523,1523,1523,1523,1523,1523,1523,1523,1523,1529,1219,1219,1227,1227,1227,1523,1232,1232,1232,1232,1232,1232,1232,1232,1232,1232,1227,1227,1227,1227,1227,1227,1227,1227,1227,1232,1232,1236,1236,1236,1236,1489,1489,1489,1503,1503,1509,1509,1509,1509,1509,1509,1509,1509,1509,1509,1509,1509,1503,1503,1503,1509,1509,1509,1509,1509,1509,1509,1509,1503,1503,1496,1496,1503,1503,1503,1503,1503,1509,1509,1509,1509,0,0,0,0,0,0,940,938,935,935,933,928,928,925,923,920,920,920,920,920,920,923,925,925,925,928,928,928,930,930,933,933,935,935,0,0,0,0,0,1496,1496,1496,1489,1489,1489,1489,1489,1496,1496,1496,1496,1496,1503,1496,1496,1496,1496,1496,1496,1496,1496,1489,1489,1489,1489,1489,1489,1483,1483,1483,1483,1483,1477,1477,1483,1483,1483,1483,1483,1483,1489,1489,1489,1489,1489,1489,1489,1489,1489,1489,1489,1489,1483,1483,1483,1483,1483,1483,1477,1477,1477,1477,1477,1477,1477,1477,1470,1470,1470,1470,1470,1470,1470,1464,1464,1464,1458,1452,1445,1445,1445,1439,1439,1439,1433,1427,1427,1421,1415,1415,1410,1410,1404,1398,1398,1398,1398,1392,1392,1392,1387,1381,1376,1370,1365,1359,1359,1359,1354,1354,1354,1349,1349,1343,1343,1338,1333,1333,1333,1328,1328,1322,1317,1312,1307,1307,1307,1302,1297,1292,1292,1292,1288,1288,1283,1278,1278,1273,1273,1273,1268,1268,1264,1264,1259,1259,1255,1255,1250,1250,1245,1245,1245,1241,1236,1236,1232,1227,1227,1223,1223,1219,1219,1214,1214,1210,1206,1206,1202,1197,1197,1193,1193,1189,1185,1185,1185,1181,1181,1181,1177,1173,1173,1169,1165,1165,1165,1161,1161,1157,1153,1149,1149,1149,1145,1141,1141,1138,1138,1134,1134,1130,1126,1126,1123,1123,1119,1119,1115,1112,1108,1108,1105,1105,1101,1101,1101,1097,1094,1094,1094,1094,1090,1090,1087,1087,1084,1080,1080,1080,1080,0,0,0,0,0,0,0,0,0,0,0,0,0,0,0,0,0,0,0,0,0,0,0,0,0,0,0,0,0,0,0,0
0,0,0,0,0,0,0,0,0,0,1550,1543,1543,1550,1550,1550,1543,1543,1543,1543,1543,1543,1543,1543,1543,1543,1543,1543,1543,1536,1536,1536,1536,1529,1529,1536,1536,1536,1536,1543,1543,1543,1536,1536,1536,1536,1536,1536,1536,1529,1529,1536,1536,1529,1529,1536,1536,1536,1536,1536,1536,1536,1543,1543,1543,1543,1543,1543,1543,1543,1543,1550,1550,1543,1543,1543,1543,1543,1536,1536,1536,1536,1536,1536,1536,1543,1543,1543,1543,1543,1550,1557,1557,0,0,0,0,0,0,1038,1038,1038,1038,1038,1038,1038,1038,1041,1041,1041,1038,1038,1034,1034,1034,1034,0,0,0,0,0,0,0,0,0,0,690,688,688,688,686,686,686,686,686,686,686,686,687,688,690,691,693,693,694,694,696,696,697,698,698,700,701,703,704,706,707,708,711,713,713,714,714,716,716,717,717,719,720,720,722,723,723,725,727,727,727,728,728,730,731,733,733,733,734,734,734,736,736,738,739,739,741,741,741,742,744,746,746,747,747,749,749,750,750,752,752,752,754,754,754,0,0,0,1523,1523,1529,1529,1523,1523,1516,1516,1523,1523,1523,1523,1516,1516,1516,1516,1516,1516,1516,1516,1516,1516,1516,1516,1516,1516,1516,1516,1516,1516,1516,1516,1516,1516,1516,1516,1516,1516,1516,1516,1516,1516,1523,1523,1223,1223,1223,1223,1223,1223,1223,1219,1219,1223,1227,1223,1223,1227,1227,1227,1232,1232,1232,1232,1232,1232,1232,1227,1227,1227,1227,1227,1227,1227,1232,1232,1232,1236,1236,1236,1236,1241,1489,1489,1489,1503,1503,1503,1503,1503,1503,1503,1503,1503,1503,1503,1503,1503,1503,1503,1503,1503,1509,1509,1509,1509,1509,1509,1509,1503,1496,1496,1496,1496,1496,1496,1496,1496,1496,1503,1503,1496,1496,0,0,0,0,0,946,946,940,938,935,935,930,928,925,923,923,920,920,920,923,923,923,925,925,928,928,928,930,930,933,933,935,935,935,0,0,0,0,0,1489,1489,1489,1489,1483,1483,1489,1489,1489,1489,1489,1489,1489,1496,1496,1489,1489,1489,1489,1489,1489,1489,1489,1489,1489,1489,1483,1483,1483,1477,1477,1477,1477,1477,1477,1477,1477,1477,1477,1477,1477,1477,1483,1483,1483,1483,1489,1489,1489,1483,1483,1483,1483,1483,1483,1477,1477,1477,1477,1477,1470,1470,1477,1477,1470,1470,1470,1470,1470,1470,1470,1464,1464,1464,1464,1464,1464,1452,1445,1445,1445,1439,1439,1439,1439,1433,1433,1427,1421,1415,1415,1415,1410,1404,1404,1398,1398,1398,1392,1392,1392,1387,1381,1376,1370,1365,1359,1359,1359,1354,1354,1354,1354,1349,1343,1343,1338,1333,1333,1333,1333,1328,1322,1322,1317,1312,1312,1307,1302,1297,1292,1292,1292,1288,1288,1283,1283,1278,1273,1273,1273,1268,1268,1264,1259,1259,1259,1255,1255,1250,1250,1250,1245,1245,1241,1236,1236,1232,1227,1227,1227,1223,1219,1219,1214,1214,1210,1206,1206,1202,1197,1197,1197,1193,1189,1189,1185,1185,1185,1181,1181,1181,1177,1173,1169,1169,1165,1165,1165,1161,1157,1153,1153,1149,1149,1149,1145,1141,1138,1138,1134,1134,1130,1126,1126,1123,1123,1119,1119,1115,1115,1112,1108,1105,1105,1105,1101,1101,1097,1097,1094,1094,1094,1090,1090,1090,1087,1084,1084,1080,1080,1080,0,0,0,0,0,0,0,0,0,0,0,0,0,0,0,0,0,0,0,0,0,0,0,0,0,0,0,0,0,0,0,0
0,0,0,0,0,0,0,0,0,0,1536,1536,1536,1536,1536,1536,1536,1536,1536,1536,1536,1536,1536,1536,1536,1536,1536,1536,1536,1536,1536,1529,1529,1529,1529,1523,1523,1529,1529,1536,1536,1536,1529,1529,1529,1529,1529,1529,1529,1529,1529,1529,1529,1529,1529,1529,1536,1536,1536,1536,1536,1536,1536,1536,1536,1536,1536,1536,1536,1536,1536,1543,1543,1543,1536,1536,1536,1536,1536,1529,1529,1529,1529,1536,1536,1536,1536,1536,1536,1536,1536,1536,1550,0,0,0,0,0,0,1041,1041,1038,1038,1038,1038,1038,1041,1041,1041,1041,1038,1038,1034,1034,1034,1034,0,0,0,0,0,0,0,0,0,0,690,690,690,690,686,686,686,686,686,686,686,686,687,688,691,693,693,697,694,694,696,697,697,698,698,700,701,703,704,706,707,710,713,713,714,714,716,716,716,717,719,720,720,722,723,723,725,727,727,727,728,728,730,730,731,733,733,733,734,734,734,736,738,738,739,739,741,741,742,744,744,746,746,747,747,749,749,750,750,752,752,752,752,1496,1496,1516,1516,1516,1523,1523,1523,1523,1516,1516,1516,1516,1516,1516,1516,1516,1516,1516,1516,1516,1509,1509,1509,1516,1516,1516,1516,1516,1516,1516,1516,1516,1516,1509,1509,1509,1509,1516,1516,1516,1516,1516,1516,1516,1516,1516,1516,1219,1219,1219,1219,1223,1223,1223,1223,1219,1219,1223,1223,1223,1223,1227,1227,1227,1232,1232,1232,1232,1232,1232,1232,1227,1227,1227,1227,1227,1227,1227,1232,1232,1236,1236,1236,1236,1236,1241,1241,1489,1489,1503,1503,1503,1503,1496,1496,1496,1496,1496,1496,1496,1496,1496,1496,1496,1496,1496,1503,1503,1503,1503,1496,1496,1496,1496,1496,1496,1489,1489,1489,1489,1489,1489,1489,1489,1496,1489,1489,0,0,0,0,0,946,946,943,943,940,938,933,928,925,923,923,923,923,923,923,923,925,925,928,928,928,930,930,933,935,935,935,935,935,0,0,0,0,0,1483,1483,1483,1483,1483,1483,1477,1477,1483,1483,1483,1483,1483,1489,1489,1483,1483,1483,1477,1477,1483,1483,1483,1483,1483,1483,1477,1477,1477,1477,1477,1470,1470,1470,1470,1470,1477,1477,1477,1470,1470,1477,1477,1477,1477,1477,1483,1483,1483,1477,1477,1477,1477,1477,1477,1477,1470,1470,1470,1470,1470,1470,1470,1470,1470,1470,1470,1470,1470,1470,1470,1464,1464,1464,1464,1464,1452,1445,1445,1445,1445,1439,1439,1439,1439,1433,1433,1427,1421,1421,1421,1415,1415,1410,1404,1404,1398,1398,1392,1392,1392,1381,1376,1376,1370,1365,1359,1359,1359,1354,1354,1354,1354,1349,1349,1343,1338,1333,1333,1333,1333,1328,1322,1322,1317,1312,1312,1307,1307,1302,1297,1292,1292,1292,1288,1288,1283,1278,1273,1273,1273,1268,1264,1264,1259,1259,1259,1259,1255,1250,1250,1250,1245,1245,1241,1236,1236,1232,1227,1227,1227,1223,1219,1219,1214,1214,1210,1206,1206,1202,1202,1197,1197,1193,1189,1189,1185,1185,1185,1181,1181,1181,1177,1177,1169,1169,1165,1165,1165,1161,1157,1153,1153,1149,1149,1149,1145,1141,1138,1138,1134,1134,1134,1130,1126,1123,1123,1123,1119,1115,1115,1112,1112,1108,1105,1105,1105,1101,1101,1097,1094,1094,1094,1090,1090,1090,1087,1084,1084,1080,1080,1080,0,0,0,0,0,0,0,0,0,0,0,0,0,0,0,0,0,0,0,0,0,0,0,0,0,0,0,0,0,0,0,0
0,0,0,0,0,0,0,0,0,0,1536,1536,1536,1536,1536,1536,1536,1536,1536,1536,1536,1536,1536,1529,1529,1529,1536,1536,1536,1529,1529,1523,1523,1523,1523,1523,1523,1529,1529,1536,1536,1529,1529,1529,1529,1523,1523,1523,1523,1523,1523,1529,1523,1523,1523,1523,1523,1529,1529,1529,1529,1529,1529,1529,1529,1529,1529,1529,1536,1529,1529,1529,1529,1529,1529,1529,1529,1536,1536,1529,1529,1523,1523,1529,1529,1529,1529,1529,1529,1529,1529,1529,1536,0,0,0,0,0,1050,1041,1041,1038,1038,1038,1038,1038,1041,1041,1041,1041,1041,1038,1038,1034,1034,1034,0,0,0,0,0,0,0,0,0,0,0,690,690,687,687,687,687,687,687,687,687,687,688,688,691,693,696,696,696,696,697,697,698,698,700,701,701,703,706,707,707,710,713,714,714,716,716,716,716,717,719,720,720,722,723,725,725,727,727,728,728,728,730,730,731,733,733,733,733,734,734,734,736,738,739,739,739,741,742,744,746,746,747,747,747,749,749,750,750,752,1489,1489,1496,1496,1496,1516,1516,1516,1516,1516,1516,1516,1516,1516,1509,1509,1509,1509,1509,1509,1509,1509,1509,1509,1509,1509,1509,1509,1509,1509,1509,1509,1516,1509,1509,1509,1509,1509,1509,1509,1509,1516,1516,1516,1516,1516,1516,1516,1516,1214,1214,1214,1214,1219,1219,1219,1223,1223,1223,1219,1219,1223,1223,1223,1223,1223,1223,1227,1227,1227,1227,1232,1232,1232,1232,1227,1227,1227,1227,1227,1227,1232,1232,1232,1236,1236,1241,1236,1236,1241,1241,1509,1509,1496,1496,1496,1496,1489,1489,1489,1489,1489,1489,1489,1489,1489,1496,1489,1489,1489,1496,1496,1496,1496,1496,1496,1489,1489,1489,1489,1489,1489,1489,1489,1489,1489,1489,1489,1483,1483,1477,1477,0,0,0,0,0,946,943,943,943,940,935,930,928,925,925,923,923,923,923,923,925,928,928,928,930,933,933,935,935,935,935,935,935,938,0,0,0,0,1483,1483,1483,1477,1477,1477,1477,1477,1477,1477,1477,1477,1477,1477,1483,1483,1477,1477,1470,1470,1470,1470,1470,1477,1477,1477,1477,1477,1470,1470,1470,1470,1470,1470,1470,1470,1470,1470,1470,1470,1470,1470,1470,1470,1470,1470,1470,1470,1470,1470,1470,1470,1470,1470,1470,1470,1470,1470,1464,1464,1464,1464,1464,1464,1464,1464,1464,1464,1464,1464,1464,1464,1464,1464,1458,1452,1445,1445,1445,1445,1439,1439,1439,1439,1439,1439,1433,1427,1421,1421,1421,1415,1415,1410,1404,1404,1398,1398,1392,1392,1392,1381,1376,1376,1370,1370,1365,1359,1359,1359,1359,1354,1354,1354,1349,1343,1338,1333,1333,1333,1333,1328,1322,1322,1317,1312,1312,1307,1307,1302,1297,1292,1292,1292,1288,1288,1283,1278,1273,1273,1273,1268,1264,1264,1259,1259,1259,1259,1255,1250,1250,1250,1245,1245,1241,1236,1236,1232,1227,1227,1227,1223,1219,1219,1214,1214,1210,1210,1206,1202,1202,1197,1197,1193,1189,1185,1185,1185,1185,1181,1181,1181,1177,1177,1169,1169,1169,1165,1165,1165,1161,1157,1153,1153,1149,1149,1145,1141,1138,1138,1134,1134,1134,1130,1126,1126,1123,1123,1119,1119,1115,1115,1112,1112,1105,1105,1105,1101,1101,1097,1094,1094,1094,1094,1090,1090,1087,1087,1084,1080,1080,1080,0,0,0,0,0,0,0,0,0,0,0,0,0,0,0,0,0,0,0,0,0,0,0,0,0,0,0,0,0,0,0,0
0,0,0,0,0,0,0,0,0,0,1529,1529,1529,1523,1523,1529,1529,1529,1529,1536,1536,1536,1529,1529,1529,1529,1529,1529,1523,1523,1523,1516,1516,1516,1516,1516,1516,1523,1523,1529,1529,1529,1529,1523,1523,1523,1516,1516,1516,1516,1523,1523,1523,1516,1516,1523,1523,1529,1523,1523,1529,1529,1523,1523,1523,1523,1523,1523,1523,1523,1523,1523,1523,1523,1523,1523,1523,1523,1523,1523,1523,1516,1516,1523,1523,1523,1523,1523,1523,1523,1523,1523,1523,1523,0,0,0,0,1050,1047,1044,1041,1041,1038,1038,1041,1041,1041,1044,1044,1044,1041,1038,1038,1038,0,0,0,0,0,0,0,0,0,0,0,0,690,690,687,687,687,687,687,687,687,687,687,690,691,693,694,696,696,696,696,697,697,698,698,700,701,703,704,706,707,708,711,713,714,714,716,716,716,717,719,720,720,720,722,723,725,725,727,727,728,728,728,730,730,730,731,733,733,733,733,734,734,736,736,738,739,739,739,746,746,746,747,747,747,749,749,750,1489,1489,1489,1489,1489,1496,1496,1503,1503,1509,1509,1509,1509,1516,1516,1509,1509,1509,1509,1509,1503,1503,1503,1503,1503,1503,1503,1503,1503,1503,1509,1509,1509,1509,1509,1509,1509,1509,1509,1509,1503,1503,1509,1509,1516,1516,1516,1516,1516,1516,1210,1210,1210,1214,1214,1214,1214,1214,1219,1219,1219,1219,1219,1219,1223,1223,1223,1223,1223,1223,1227,1227,1227,1227,1227,1232,1232,1232,1227,1227,1232,1232,1232,1232,1232,1232,1236,1236,1241,1241,1241,1241,1241,1241,1509,1509,1489,1489,1489,1489,1489,1489,1489,1483,1483,1489,1489,1489,1489,1489,1489,1483,1483,1489,1489,1489,1489,1489,1489,1483,1483,1489,1489,1489,1489,1483,1483,1483,1483,1483,1483,1483,1483,1477,1477,1470,1470,0,0,0,946,943,943,943,940,938,933,930,928,925,925,925,923,923,925,925,928,928,930,930,933,933,935,935,935,935,935,935,938,0,0,0,0,0,1477,1477,1477,1470,1470,1470,1470,1470,1470,1470,1470,1470,1470,1470,1470,1470,1470,1464,1464,1464,1464,1470,1470,1470,1470,1470,1470,1470,1470,1470,1470,1470,1470,1464,1464,1464,1470,1470,1470,1470,1470,1470,1470,1470,1470,1470,1470,1470,1470,1470,1470,1470,1470,1470,1464,1464,1464,1464,1464,1464,1464,1464,1464,1458,1458,1464,1464,1464,1464,1464,1464,1464,1452,1452,1445,1445,1445,1439,1439,1439,1439,1439,1439,1439,1439,1433,1427,1427,1421,1421,1421,1415,1410,1404,1404,1398,1398,1392,1392,1392,1381,1376,1376,1370,1370,1365,1365,1365,1359,1359,1354,1354,1354,1349,1343,1338,1333,1333,1333,1333,1328,1328,1322,1317,1312,1312,1307,1307,1302,1302,1297,1292,1292,1292,1288,1283,1278,1273,1273,1273,1268,1264,1264,1264,1259,1259,1255,1255,1250,1250,1250,1245,1245,1241,1236,1236,1232,1227,1227,1227,1223,1219,1219,1214,1214,1210,1210,1206,1202,1202,1197,1197,1193,1189,1185,1185,1185,1185,1185,1181,1181,1181,1177,1169,1169,1169,1165,1165,1165,1161,1161,1157,1153,1153,1149,1145,1141,1138,1138,1134,1134,1134,1130,1130,1126,1123,1123,1119,1119,1119,1115,1115,1112,1108,1105,1105,1105,1101,1097,1097,1094,1094,1094,1090,1090,1087,1087,1084,1080,1080,1080,0,0,0,0,0,0,0,0,0,0,0,0,0,0,0,0,0,0,0,0,0,0,0,0,0,0,0,0,0,0,0,0
0,0,0,0,0,0,0,0,0,0,1529,1529,1529,1523,1523,1523,1523,1523,1523,1529,1523,1523,1523,1523,1523,1523,1523,1523,1523,1523,1516,1516,1516,1516,1516,1516,1516,1516,1516,1523,1529,1529,1523,1523,1516,1516,1516,1516,1516,1516,1516,1516,1516,1516,1516,1516,1516,1523,1516,1516,1523,1523,1516,1516,1516,1516,1516,1516,1516,1516,1509,1509,1516,1516,1509,1509,1516,1516,1516,1509,1509,1509,1509,1516,1516,1516,1516,1516,1523,1516,1516,1516,1516,1516,0,0,0,0,1047,1047,1044,1044,1041,1041,1041,1041,1041,1044,1044,1044,1044,1044,1044,1041,1041,0,0,0,0,0,0,0,0,0,0,0,0,0,691,691,687,687,687,687,687,687,688,688,690,691,693,696,696,696,697,697,697,697,698,698,701,703,703,706,707,708,710,713,713,714,714,716,716,716,717,719,720,720,720,722,723,725,725,727,727,728,728,728,728,730,730,731,731,733,733,733,734,734,734,734,738,738,1496,1496,1496,1489,1489,1489,1496,1496,1489,1489,1489,1489,1489,1489,1489,1489,1489,1496,1496,1503,1503,1503,1503,1503,1503,1503,1509,1509,1503,1503,1503,1496,1496,1496,1496,1496,1503,1503,1503,1503,1503,1503,1503,1503,1503,1503,1509,1503,1503,1503,1503,1214,1214,1214,1206,1206,1202,1202,1516,1523,1206,1206,1210,1210,1210,1210,1214,1214,1214,1214,1214,1214,1219,1219,1219,1219,1223,1223,1223,1223,1223,1227,1227,1227,1227,1227,1227,1232,1232,1227,1227,1232,1232,1232,1232,1232,1232,1236,1241,1241,1241,1241,1241,1241,1241,1509,1509,1489,1489,1489,1489,1483,1483,1483,1483,1483,1483,1483,1483,1483,1483,1483,1477,1477,1483,1483,1483,1483,1483,1483,1477,1477,1483,1483,1483,1477,1477,1477,1477,1477,1477,1477,1477,1477,1477,1477,1470,1470,0,0,0,946,946,946,943,943,940,935,933,928,928,925,925,925,925,925,925,928,928,930,933,935,935,935,935,935,938,935,935,938,0,0,0,0,0,1470,1470,1470,1464,1464,1464,1464,1464,1464,1464,1464,1464,1458,1458,1458,1458,1464,1464,1464,1464,1464,1464,1464,1464,1464,1464,1464,1464,1464,1470,1464,1464,1464,1464,1464,1464,1464,1464,1464,1464,1464,1464,1464,1464,1464,1464,1464,1464,1464,1464,1464,1464,1464,1464,1464,1464,1464,1464,1458,1458,1458,1458,1458,1458,1458,1458,1458,1458,1458,1458,1458,1452,1452,1445,1445,1445,1439,1439,1439,1439,1439,1439,1439,1439,1439,1439,1433,1427,1427,1421,1421,1415,1410,1404,1404,1398,1398,1392,1392,1392,1381,1381,1376,1370,1370,1365,1365,1365,1359,1359,1354,1354,1354,1349,1343,1338,1333,1333,1333,1333,1328,1328,1322,1317,1312,1312,1307,1307,1302,1302,1297,1292,1292,1292,1288,1283,1278,1278,1273,1273,1268,1264,1264,1264,1259,1259,1255,1255,1250,1250,1245,1245,1241,1241,1236,1236,1232,1232,1232,1227,1223,1223,1219,1214,1214,1214,1210,1206,1202,1202,1197,1197,1193,1189,1189,1185,1185,1185,1185,1181,1181,1181,1177,1169,1169,1169,1165,1165,1165,1161,1161,1157,1153,1153,1149,1145,1141,1141,1138,1134,1134,1134,1130,1130,1126,1126,1123,1119,1119,1119,1119,1115,1112,1108,1108,1105,1105,1101,1097,1097,1097,1094,1094,1090,1090,1087,1087,1084,1084,1080,1080,0,0,0,0,0,0,0,0,0,0,0,0,0,0,0,0,0,0,0,0,0,0,0,0,0,0,0,0,0,0,0,0
0,0,0,0,0,0,0,0,0,0,1516,1516,1516,1516,1516,1516,1516,1516,1516,1523,1523,1523,1516,1516,1516,1516,1516,1516,1516,1516,1516,1509,1509,1509,1509,1509,1509,1509,1509,1516,1516,1516,1516,1516,1516,1516,1516,1509,1509,1509,1516,1516,1516,1516,1516,1516,1516,1516,1516,1516,1516,1516,1516,1509,1509,1509,1516,1516,1509,1509,1509,1509,1509,1509,1509,1509,1509,1509,1509,1509,1509,1503,1503,1509,1509,1509,1516,1516,1516,1516,1516,1516,1516,1516,0,0,0,0,1047,1044,1044,1044,1044,1041,1041,1041,1041,1044,1044,1044,1047,1047,1047,1044,1044,1047,0,0,0,0,0,0,0,0,0,0,0,0,693,690,690,690,690,690,690,690,690,690,691,693,693,696,696,696,697,697,698,698,698,700,701,703,703,706,707,708,711,713,713,714,714,716,716,716,719,720,720,720,722,722,723,725,725,727,727,727,727,728,728,728,730,731,731,733,733,733,734,734,734,734,734,1496,1496,1496,1496,1489,1489,1489,1489,1489,1489,1489,1489,1489,1489,1489,1489,1489,1489,1489,1496,1496,1496,1496,1496,1496,1496,1496,1496,1496,1489,1489,1496,1496,1496,1496,1496,1496,1496,1496,1496,1503,1503,1503,1503,1503,1503,1503,1503,1503,1496,1496,1214,1210,1206,1206,1206,1206,1202,1202,1202,1202,1202,1206,1206,1210,1210,1210,1210,1214,1214,1214,1214,1214,1214,1214,1214,1219,1219,1219,1219,1223,1223,1227,1227,1227,1227,1227,1227,1232,1232,1232,1232,1232,1232,1232,1232,1232,1232,1236,1241,1241,1245,1245,1245,1245,1245,1245,1509,1483,1483,1483,1483,1483,1483,1483,1483,1483,1483,1483,1483,1477,1477,1477,1470,1470,1477,1477,1477,1477,1477,1477,1470,1470,1477,1470,1470,1470,1470,1470,1470,1470,1470,1470,1470,1470,1477,1477,1477,0,0,0,0,946,946,946,943,943,940,935,933,930,928,928,925,925,925,925,928,928,930,933,933,935,935,935,938,938,938,938,938,938,0,0,0,0,0,1464,1464,1464,1464,1464,1464,1464,1464,1458,1458,1452,1452,1452,1452,1452,1452,1458,1458,1458,1458,1458,1458,1458,1458,1458,1458,1458,1458,1458,1458,1458,1458,1458,1464,1464,1464,1464,1464,1464,1464,1464,1464,1464,1464,1464,1464,1464,1458,1458,1458,1458,1458,1458,1458,1458,1458,1458,1458,1458,1452,1452,1452,1452,1452,1452,1452,1452,1452,1452,1452,1452,1445,1445,1445,1445,1439,1439,1439,1439,1439,1439,1439,1439,1439,1439,1439,1433,1427,1427,1427,1421,1415,1410,1410,1404,1398,1398,1392,1392,1392,1381,1381,1376,1376,1370,1370,1365,1365,1365,1359,1359,1354,1354,1349,1343,1338,1338,1333,1333,1333,1328,1328,1322,1322,1312,1312,1307,1307,1307,1302,1302,1297,1292,1292,1292,1288,1283,1278,1273,1273,1268,1268,1264,1264,1264,1259,1259,1255,1250,1250,1245,1245,1241,1241,1236,1232,1232,1232,1227,1227,1223,1223,1219,1214,1214,1214,1210,1206,1202,1202,1202,1197,1193,1193,1189,1185,1185,1185,1185,1181,1181,1181,1177,1177,1169,1169,1165,1165,1165,1161,1161,1157,1153,1153,1149,1149,1145,1141,1138,1134,1134,1134,1130,1130,1130,1126,1123,1123,1119,1119,1119,1115,1115,1112,1108,1105,1105,1105,1101,1097,1097,1094,1094,1094,1090,1087,1087,1084,1084,1080,1080,0,0,0,0,0,0,0,0,0,0,0,0,0,0,0,0,0,0,0,0,0,0,0,0,0,0,0,0,0,0,0,0
0,0,0,0,0,0,0,0,0,0,1516,1516,1516,1509,1509,1509,1509,1509,1509,1516,1516,1516,1516,1516,1516,1516,1509,1509,1509,1509,1509,1509,1509,1509,1509,1503,1503,1509,1509,1516,1516,1516,1516,1516,1516,1509,1509,1509,1509,1509,1509,1509,1509,1509,1509,1509,1509,1509,1509,1509,1509,1509,1509,1509,1509,1509,1509,1509,1509,1509,1503,1503,1503,1509,1503,1503,1503,1503,1503,1503,1503,1503,1503,1503,1503,1509,1509,1509,1509,1509,1509,1509,1503,1503,0,0,0,0,0,1044,1044,1044,1044,1038,1038,1041,1041,1044,1044,1044,1047,1047,1047,1047,1047,1047,0,0,0,0,0,0,0,0,0,0,0,0,693,690,690,690,690,690,690,691,691,691,693,693,694,696,696,697,697,697,698,698,698,698,701,703,704,707,708,710,711,713,713,714,714,716,716,717,719,720,720,722,722,722,723,723,725,727,727,727,727,727,727,727,730,731,731,734,733,733,734,734,734,1489,1489,1489,1489,1489,1489,1489,1489,1489,1489,1489,1489,1489,1489,1489,1489,1489,1483,1483,1489,1489,1489,1489,1489,1496,1496,1496,1496,1489,1489,1489,1489,1489,1489,1489,1489,1489,1489,1489,1496,1496,1496,1496,1496,1503,1503,1503,1503,1503,1489,1489,1202,1202,1202,1202,1202,1202,1202,1202,1202,1202,1202,1202,1202,1206,1206,1210,1210,1210,1210,1214,1214,1214,1214,1214,1214,1214,1214,1219,1219,1219,1219,1223,1223,1227,1227,1227,1227,1227,1227,1232,1232,1232,1232,1232,1232,1232,1232,1232,1232,1236,1241,1241,1245,1245,1245,1245,1241,1241,1483,1483,1477,1477,1477,1477,1477,1477,1477,1477,1477,1477,1477,1470,1470,1470,1470,1470,1470,1470,1470,1470,1470,1470,1470,1470,1470,1470,1470,1470,1464,1464,1464,1464,1464,1464,1464,1470,1470,1470,1470,0,0,0,0,0,946,946,943,943,940,938,935,933,928,928,925,925,925,928,928,928,930,933,935,935,935,938,938,938,938,938,938,938,0,0,0,0,0,1458,1458,1458,1458,1458,1458,1458,1458,1452,1452,1452,1445,1445,1445,1445,1445,1452,1452,1452,1452,1452,1452,1452,1452,1452,1452,1452,1452,1452,1452,1452,1452,1445,1445,1452,1458,1458,1458,1458,1458,1458,1458,1458,1458,1458,1458,1458,1452,1452,1452,1452,1452,1452,1452,1452,1452,1452,1452,1452,1445,1445,1445,1445,1445,1445,1445,1445,1445,1445,1445,1445,1445,1445,1439,1439,1439,1439,1439,1439,1439,1439,1439,1439,1439,1439,1439,1433,1427,1427,1427,1421,1415,1415,1410,1404,1398,1398,1392,1392,1392,1381,1381,1376,1376,1370,1370,1370,1365,1365,1359,1359,1354,1354,1349,1343,1338,1338,1333,1333,1333,1328,1328,1322,1322,1317,1312,1312,1307,1307,1302,1302,1297,1297,1292,1292,1288,1283,1278,1273,1273,1268,1268,1264,1264,1264,1259,1259,1255,1250,1250,1245,1245,1241,1241,1236,1232,1232,1227,1227,1227,1223,1223,1219,1219,1214,1214,1214,1210,1206,1202,1202,1197,1197,1193,1189,1189,1185,1185,1185,1181,1181,1181,1177,1169,1169,1169,1165,1165,1165,1165,1161,1157,1153,1153,1149,1149,1145,1141,1141,1138,1134,1134,1130,1130,1126,1126,1123,1123,1123,1123,1119,1119,1115,1112,1108,1105,1105,1105,1101,1097,1097,1094,1094,1094,1090,1090,1087,1087,1080,1080,1080,0,0,0,0,0,0,0,0,0,0,0,0,0,0,0,0,0,0,0,0,0,0,0,0,0,0,0,0,0,0,0,0
0,0,0,0,0,0,0,0,0,0,1509,1509,1509,1509,1509,1509,1503,1503,1503,1496,1496,1503,1503,1509,1509,1509,1509,1509,1509,1509,1503,1503,1503,1503,1503,1503,1503,1509,1509,1509,1509,1516,1516,1516,1509,1509,1509,1509,1509,1509,1509,1509,1509,1509,1509,1509,1509,1509,1503,1503,1503,1503,1503,1503,1503,1503,1503,1503,1503,1503,1496,1496,1496,1496,1496,1496,1496,1496,1496,1496,1496,1496,1496,1503,1503,1509,1509,1503,1503,1503,1496,1489,1489,1489,0,0,0,0,0,1041,1041,1041,1044,1038,1038,1041,1041,1044,1047,1047,1047,1047,1050,1047,1047,1050,1050,0,0,0,0,0,0,0,0,0,0,0,0,690,690,690,690,690,691,691,691,693,693,693,694,696,696,697,697,697,698,698,698,698,700,701,704,706,708,710,711,713,713,714,714,716,716,717,719,720,720,722,722,722,723,723,725,725,725,727,727,727,727,727,731,731,731,731,1477,1477,1477,1477,1483,1483,1483,1489,1489,1489,1483,1483,1489,1483,1483,1483,1483,1483,1483,1483,1483,1483,1483,1483,1483,1483,1483,1489,1489,1489,1489,1489,1489,1489,1489,1489,1489,1483,1483,1489,1489,1489,1489,1489,1489,1489,1489,1489,1489,1496,1193,1193,1197,1202,1202,1202,1202,1202,1202,1202,1202,1202,1202,1202,1202,1202,1202,1206,1206,1206,1210,1210,1210,1210,1210,1214,1214,1214,1214,1214,1214,1214,1214,1219,1219,1219,1219,1219,1223,1227,1227,1227,1227,1227,1232,1232,1232,1232,1236,1232,1232,1232,1232,1236,1236,1236,1241,1241,1245,1245,1245,1245,1241,1241,1250,1483,1477,1477,1477,1477,1477,1470,1470,1470,1477,1470,1470,1464,1464,1464,1464,1464,1470,1470,1470,1470,1470,1470,1464,1464,1464,1464,1464,1464,1464,1464,1464,1464,1464,1464,1464,1464,1464,1464,1470,0,0,0,0,0,946,943,943,943,940,938,935,933,930,928,928,928,928,928,928,930,930,933,935,935,935,938,938,938,938,938,938,938,0,0,0,0,0,1452,1452,1452,1452,1452,1452,1452,1452,1452,1445,1445,1445,1445,1445,1445,1445,1445,1445,1445,1445,1445,1445,1445,1445,1445,1445,1445,1445,1445,1445,1445,1445,1445,1445,1445,1445,1445,1445,1445,1452,1452,1452,1452,1452,1452,1452,1452,1452,1452,1452,1452,1445,1445,1445,1445,1445,1445,1445,1445,1445,1445,1445,1445,1439,1439,1439,1439,1439,1439,1439,1439,1439,1439,1439,1439,1439,1439,1439,1439,1439,1439,1439,1439,1439,1439,1433,1433,1427,1427,1421,1421,1415,1415,1410,1404,1398,1398,1392,1392,1392,1387,1381,1376,1376,1376,1370,1370,1370,1365,1359,1359,1354,1354,1349,1343,1338,1338,1333,1333,1333,1328,1328,1322,1322,1317,1312,1307,1307,1307,1302,1302,1297,1297,1292,1292,1288,1283,1278,1278,1273,1268,1268,1268,1264,1264,1259,1259,1255,1255,1250,1250,1245,1245,1241,1236,1232,1232,1227,1227,1227,1223,1223,1219,1219,1214,1214,1214,1210,1206,1202,1202,1197,1197,1193,1189,1189,1185,1185,1185,1181,1181,1181,1177,1169,1169,1169,1165,1165,1165,1165,1161,1157,1157,1153,1153,1149,1145,1141,1138,1138,1138,1134,1134,1130,1126,1126,1123,1123,1123,1123,1119,1119,1115,1112,1108,1108,1105,1105,1101,1097,1097,1094,1094,1094,1090,1090,1087,1087,1080,1080,1080,0,0,0,0,0,0,0,0,0,0,0,0,0,0,0,0,0,0,0,0,0,0,0,0,0,0,0,0,0,0,0,0
0,0,0,0,0,0,0,0,0,0,1503,1503,1503,1503,1509,1503,1496,1496,1496,1496,1496,1496,1496,1496,1503,1503,1503,1503,1503,1503,1503,1503,1503,1503,1496,1496,1503,1503,1503,1503,1509,1509,1509,1509,1503,1503,1503,1496,1496,1496,1496,1496,1496,1503,1503,1503,1503,1503,1503,1503,1503,1496,1496,1496,1496,1496,1496,1496,1496,1496,1496,1489,1489,1496,1496,1496,1489,1489,1489,1489,1489,1496,1496,1496,1496,1503,1503,1503,1496,1496,1489,1489,1489,1483,1483,0,0,0,0,1041,1038,1038,1041,1041,1041,1044,1047,1047,1047,1047,1047,1050,1050,1050,1050,1050,1047,1047,0,0,0,0,0,0,0,0,0,0,691,690,690,691,691,691,691,691,691,693,693,694,694,696,696,697,697,697,698,698,698,698,700,701,703,706,708,710,711,713,713,714,714,716,716,719,720,720,720,722,722,722,723,723,725,725,725,727,727,727,727,727,727,727,1470,0,0,1477,1477,1477,1477,1477,1483,1483,1483,1483,1483,1483,1483,1483,1483,1483,1483,1483,1483,1483,1483,1483,1483,1483,1483,1483,1483,1483,1483,1483,1483,1483,1483,1483,1483,1483,1489,1483,1483,1483,1489,1489,1483,1483,1189,1189,1189,1189,1189,1189,1193,1193,1197,1202,1202,1197,1197,1197,1197,1197,1197,1197,1197,1197,1202,1202,1202,1206,1206,1206,1206,1210,1210,1210,1210,1210,1214,1214,1214,1214,1214,1214,1214,1219,1219,1219,1219,1219,1223,1227,1227,1227,1227,1227,1232,1232,1232,1236,1236,1236,1236,1236,1236,1236,1236,1241,1241,1241,1245,1245,1245,1245,1245,1245,1250,1470,1470,1464,1464,1464,1464,1464,1464,1464,1464,1464,1464,1464,1464,1464,1464,1464,1464,1464,1464,1464,1464,1464,1464,1458,1458,1458,1458,1458,1458,1458,1458,1458,1458,1458,1458,1458,1464,1464,1464,0,0,0,0,0,0,943,943,943,943,940,938,935,933,930,928,928,928,928,928,930,930,933,935,935,938,938,938,940,940,940,940,943,0,946,0,1452,1452,1445,1445,1445,1445,1445,1445,1445,1445,1445,1445,1445,1445,1445,1445,1445,1445,1445,1445,1445,1445,1445,1445,1445,1445,1445,1445,1445,1445,1445,1445,1445,1445,1445,1445,1445,1445,1445,1445,1445,1445,1445,1445,1445,1445,1452,1445,1445,1445,1445,1445,1445,1439,1439,1439,1439,1439,1439,1445,1439,1439,1439,1439,1439,1439,1439,1439,1439,1439,1433,1433,1433,1433,1433,1439,1433,1433,1433,1433,1433,1439,1439,1433,1433,1433,1433,1433,1427,1427,1421,1421,1415,1415,1410,1410,1404,1398,1398,1392,1392,1392,1392,1381,1376,1376,1376,1370,1370,1370,1365,1359,1359,1354,1354,1349,1343,1343,1338,1333,1333,1333,1328,1328,1328,1322,1317,1312,1307,1307,1307,1302,1302,1297,1297,1292,1292,1288,1288,1283,1278,1273,1273,1268,1268,1268,1264,1264,1259,1255,1255,1250,1250,1245,1245,1241,1236,1232,1232,1232,1227,1227,1223,1223,1219,1219,1214,1214,1214,1210,1206,1202,1197,1197,1197,1193,1189,1189,1185,1185,1185,1181,1181,1181,1177,1169,1169,1169,1165,1165,1165,1165,1161,1157,1157,1153,1153,1149,1145,1145,1138,1138,1138,1134,1134,1130,1130,1130,1126,1123,1123,1123,1119,1119,1115,1112,1112,1108,1105,1105,1101,1101,1097,1097,1094,1094,1090,1090,1090,1087,1080,1080,0,0,0,0,0,0,0,0,0,0,0,0,0,0,0,0,0,0,0,0,0,0,0,0,0,0,0,0,0,0,0,0,0
0,0,0,0,0,0,0,0,0,0,1496,1496,1503,1503,1503,1503,1496,1489,1489,1489,1496,1496,1496,1496,1503,1503,1503,1496,1496,1496,1496,1496,1496,1496,1496,1496,1496,1496,1496,1496,1496,1496,1496,1503,1496,1496,1496,1489,1489,1496,1489,1489,1489,1496,1496,1496,1496,1496,1496,1496,1489,1489,1489,1489,1489,1489,1489,1489,1489,1489,1489,1489,1489,1489,1489,1489,1489,1489,1489,1489,1489,1489,1489,1489,1489,1496,1496,1496,1489,1489,1483,1483,1483,1477,1477,0,0,0,0,0,1038,1038,1041,1041,1041,1044,1047,1047,1047,1047,1047,1050,1050,1050,1050,1050,1047,1047,0,0,0,0,0,0,0,0,0,0,691,691,691,691,691,691,691,691,693,693,693,694,696,696,696,697,697,697,698,698,698,698,700,701,703,706,708,710,711,713,713,714,714,716,716,719,720,720,720,722,722,722,722,722,723,725,725,727,727,727,727,727,1470,1470,1470,1470,1470,1477,1477,1477,1477,1477,1477,1477,1477,1477,1477,1477,1477,1477,1477,1477,1483,1483,1483,1483,1483,1483,1483,1483,1477,1477,1483,1483,1483,1483,1483,1483,1483,1483,1483,1483,1483,1483,1483,1483,1489,1489,1185,1185,1185,1189,1189,1189,1189,1189,1189,1189,1193,1197,1197,1197,1197,1197,1197,1197,1197,1197,1197,1197,1202,1202,1202,1206,1206,1206,1206,1206,1210,1210,1210,1210,1210,1214,1214,1214,1214,1214,1214,1219,1219,1219,1219,1219,1227,1227,1227,1227,1227,1227,1232,1232,1232,1236,1236,1236,1236,1236,1236,1241,1241,1241,1241,1241,1245,1245,1245,1245,1245,1245,1250,1464,1464,1458,1458,1458,1458,1458,1458,1458,1458,1458,1458,1458,1458,1458,1458,1458,1464,1464,1464,1458,1458,1458,1458,1458,1458,1458,1452,1452,1452,1452,1452,1452,1452,1452,1452,1452,1452,1452,1452,0,0,0,0,0,0,946,943,943,943,940,938,935,933,930,928,928,928,928,930,930,933,935,935,938,938,938,940,940,943,943,943,943,946,0,0,0,1452,1445,1445,1445,1445,1445,1445,1445,1445,1445,1445,1439,1439,1439,1439,1439,1445,1445,1445,1445,1439,1439,1439,1439,1439,1439,1439,1439,1439,1439,1439,1439,1439,1439,1439,1439,1439,1439,1439,1439,1439,1439,1439,1439,1439,1439,1439,1439,1439,1439,1439,1439,1439,1439,1439,1439,1439,1439,1439,1439,1439,1439,1439,1439,1433,1433,1433,1433,1433,1433,1433,1427,1427,1433,1433,1433,1433,1433,1433,1433,1433,1433,1427,1427,1433,1433,1427,1427,1421,1421,1421,1415,1415,1410,1410,1404,1398,1398,1392,1392,1392,1392,1381,1376,1376,1376,1370,1370,1370,1365,1359,1359,1354,1354,1349,1349,1343,1338,1333,1333,1333,1328,1328,1328,1322,1317,1312,1312,1307,1307,1302,1302,1297,1297,1292,1292,1288,1288,1283,1278,1273,1273,1268,1268,1268,1264,1264,1259,1255,1255,1250,1250,1245,1245,1241,1236,1236,1232,1232,1227,1227,1223,1223,1219,1219,1214,1214,1214,1210,1210,1202,1197,1197,1197,1193,1189,1189,1185,1185,1185,1181,1181,1181,1177,1169,1169,1169,1165,1165,1165,1165,1161,1161,1157,1153,1153,1149,1149,1145,1141,1138,1138,1134,1134,1134,1130,1130,1126,1126,1123,1123,1119,1119,1119,1115,1112,1108,1105,1105,1105,1101,1097,1097,1094,1094,1090,1090,1090,1087,1084,1084,0,0,0,0,0,0,0,0,0,0,0,0,0,0,0,0,0,0,0,0,0,0,0,0,0,0,0,0,0,0,0,0,0
0,0,0,0,0,0,0,0,0,0,1489,1489,1489,1489,1496,1496,1489,1483,1483,1483,1489,1489,1489,1489,1496,1496,1496,1489,1489,1489,1489,1489,1489,1489,1489,1489,1489,1489,1489,1489,1489,1489,1496,1496,1496,1489,1489,1489,1489,1489,1489,1489,1489,1489,1496,1496,1496,1496,1496,1489,1489,1489,1483,1483,1483,1483,1483,1483,1483,1483,1489,1483,1483,1483,1489,1489,1483,1483,1483,1483,1483,1483,1483,1483,1483,1489,1489,1489,1489,1483,1483,1483,1477,1477,1470,1470,0,0,0,0,1038,1038,1041,1041,1041,1044,1047,1047,1047,1047,1047,1050,1050,1050,1050,1050,1050,1054,0,0,0,0,0,0,0,0,0,0,691,691,691,691,691,691,691,691,693,693,693,694,696,696,697,697,698,698,698,700,700,700,701,701,704,706,708,710,711,713,713,713,714,716,717,719,720,720,720,722,722,722,722,722,723,725,725,727,727,727,727,0,1470,1470,1470,1470,1470,1470,1470,1470,1470,1470,1470,1470,1470,1477,1477,1477,1477,1477,1477,1477,1477,1477,1477,1477,1477,1477,1477,1477,1477,1477,1477,1483,1477,1477,1477,1477,1477,1483,1477,1477,1483,1483,1483,1483,1185,1185,1185,1185,1185,1189,1189,1189,1189,1189,1189,1189,1189,1189,1193,1193,1193,1197,1197,1197,1197,1197,1197,1197,1197,1202,1202,1202,1206,1206,1206,1206,1210,1210,1210,1210,1210,1214,1214,1214,1214,1214,1214,1219,1219,1219,1223,1223,1227,1227,1227,1227,1227,1227,1232,1232,1232,1236,1236,1236,1241,1236,1236,1241,1241,1241,1245,1245,1245,1245,1245,1245,1245,1250,1250,1445,1445,1445,1445,1458,1458,1452,1452,1452,1452,1452,1452,1452,1452,1452,1452,1458,1458,1458,1458,1458,1452,1452,1452,1452,1452,1452,1445,1445,1445,1445,1445,1445,1445,1445,1445,1445,1445,1445,1452,0,0,0,0,0,0,946,946,943,943,940,938,938,935,930,930,930,930,930,930,930,933,935,935,938,938,938,940,940,943,943,943,946,946,0,0,0,0,1439,1439,1439,1439,1439,1439,1439,1439,1439,1439,1439,1439,1439,1439,1439,1439,1439,1439,1439,1439,1439,1439,1433,1433,1433,1433,1433,1433,1439,1433,1433,1433,1433,1433,1433,1433,1439,1439,1439,1433,1433,1433,1433,1433,1433,1433,1433,1433,1433,1433,1433,1433,1433,1433,1433,1433,1433,1433,1433,1433,1433,1433,1433,1433,1433,1433,1433,1427,1427,1427,1421,1421,1427,1427,1427,1427,1421,1421,1427,1427,1427,1427,1427,1427,1427,1421,1421,1415,1415,1415,1415,1415,1410,1404,1404,1404,1398,1398,1392,1392,1392,1381,1381,1376,1376,1370,1370,1370,1365,1359,1359,1354,1354,1349,1349,1343,1338,1333,1333,1333,1328,1328,1328,1322,1317,1312,1312,1307,1302,1302,1297,1297,1297,1292,1292,1288,1288,1283,1278,1278,1273,1268,1268,1268,1268,1264,1259,1255,1255,1255,1250,1250,1245,1241,1236,1236,1232,1232,1227,1227,1223,1223,1219,1219,1214,1214,1214,1210,1206,1202,1197,1197,1197,1197,1193,1189,1189,1185,1185,1185,1181,1181,1177,1169,1169,1169,1165,1165,1165,1165,1161,1161,1157,1153,1153,1149,1149,1145,1141,1138,1138,1134,1134,1134,1134,1130,1130,1126,1126,1123,1123,1119,1119,1115,1112,1108,1108,1105,1105,1101,1097,1097,1094,1094,1094,1090,1090,1087,1084,1084,0,0,0,0,0,0,0,0,0,0,0,0,0,0,0,0,0,0,0,0,0,0,0,0,0,0,0,0,0,0,0,0,0
0,0,0,0,0,0,0,0,0,0,1489,1489,1489,1489,1489,1489,1489,1483,1483,1483,1489,1489,1489,1489,1489,1489,1489,1489,1489,1489,1489,1483,1483,1489,1483,1483,1483,1483,1489,1489,1489,1489,1489,1489,1489,1489,1489,1489,1489,1489,1489,1489,1489,1489,1489,1489,1489,1489,1489,1489,1483,1483,1483,1483,1483,1483,1483,1483,1483,1483,1483,1483,1477,1477,1483,1483,1483,1483,1483,1483,1483,1483,1477,1477,1483,1483,1483,1483,1483,1483,1483,1483,1477,1477,1470,1470,0,0,0,0,1038,1038,1041,1041,1041,1044,1047,1047,1047,1047,1047,1050,1050,1050,1050,1050,1050,1054,1054,0,0,0,0,0,0,0,0,693,691,691,691,691,691,691,691,693,693,694,694,696,697,697,697,697,698,698,700,700,700,700,701,703,704,706,708,710,710,713,713,713,714,716,719,719,720,720,720,720,720,720,720,722,1458,1458,1458,1439,1439,1452,1452,1452,1470,1470,1470,1470,1470,1470,1470,1470,1464,1464,1464,1464,1464,1470,1470,1470,1470,1470,1470,1470,1470,1470,1470,1470,1470,1477,1477,1477,1470,1470,1477,1477,1470,1470,1477,1477,1477,1477,1477,1477,1181,1181,1181,1181,1181,1181,1185,1185,1185,1189,1185,1185,1189,1189,1189,1189,1189,1189,1189,1189,1189,1193,1193,1193,1193,1197,1197,1197,1197,1202,1202,1202,1206,1206,1206,1206,1210,1210,1210,1210,1214,1214,1214,1214,1214,1214,1219,1219,1219,1223,1223,1223,1227,1227,1227,1227,1227,1232,1232,1232,1236,1236,1241,1241,1241,1241,1241,1241,1241,1245,1245,1245,1245,1245,1245,1245,1245,1245,1250,1445,1445,1439,1439,1445,1445,1445,1445,1445,1445,1445,1445,1445,1445,1445,1445,1452,1458,1452,1452,1445,1445,1445,1445,1445,1445,1445,1445,1445,1445,1445,1445,1445,1445,1445,1439,1439,1439,1439,0,0,0,0,0,0,0,0,946,946,943,943,940,938,938,935,933,930,930,930,930,933,933,935,935,938,938,938,940,943,943,943,946,946,946,0,0,0,0,1439,1439,1439,1439,1439,1439,1439,1439,1439,1439,1439,1439,1439,1433,1433,1433,1433,1433,1433,1433,1433,1433,1433,1433,1433,1433,1433,1433,1433,1433,1433,1427,1427,1433,1427,1427,1433,1433,1433,1427,1427,1427,1427,1427,1427,1427,1427,1427,1427,1427,1427,1427,1427,1427,1427,1427,1427,1427,1427,1427,1421,1421,1427,1421,1421,1421,1421,1421,1421,1421,1421,1421,1421,1421,1421,1421,1421,1421,1421,1427,1427,1421,1421,1421,1421,1415,1415,1415,1415,1415,1415,1410,1410,1404,1398,1398,1398,1398,1392,1392,1392,1392,1387,1381,1376,1376,1370,1370,1365,1359,1354,1354,1354,1349,1349,1343,1338,1338,1333,1333,1333,1328,1328,1322,1317,1312,1312,1307,1302,1302,1297,1297,1297,1292,1292,1288,1288,1283,1283,1278,1273,1273,1268,1268,1268,1264,1259,1255,1255,1255,1250,1250,1245,1241,1236,1236,1232,1232,1227,1227,1223,1223,1219,1219,1214,1214,1214,1210,1206,1206,1202,1197,1197,1197,1193,1193,1189,1189,1185,1185,1181,1181,1177,1173,1169,1169,1169,1165,1165,1165,1161,1161,1157,1153,1153,1149,1149,1145,1145,1138,1138,1134,1134,1134,1134,1130,1130,1126,1126,1123,1123,1119,1119,1115,1112,1108,1108,1105,1105,1101,1101,1097,1094,1094,1094,1090,1090,1087,1084,1084,1087,0,0,0,0,0,0,0,0,0,0,0,0,0,0,0,0,0,0,0,0,0,0,0,0,0,0,0,0,0,0,0,0
0,0,0,0,0,0,0,0,0,0,1483,1483,1483,1483,1483,1489,1483,1483,1483,1483,1489,1483,1483,1483,1489,1489,1489,1483,1483,1483,1483,1483,1483,1483,1483,1483,1483,1483,1483,1477,1477,1477,1483,1483,1483,1483,1483,1483,1483,1483,1483,1483,1483,1483,1483,1483,1483,1483,1483,1483,1477,1477,1477,1477,1477,1477,1477,1477,1477,1477,1477,1477,1470,1470,1470,1470,1477,1477,1477,1477,1477,1477,1477,1477,1477,1477,1477,1483,1483,1483,1477,1477,1477,1477,1477,1477,0,0,0,0,0,1041,1041,1041,1044,1047,1047,1047,1047,1047,1050,1050,1050,1050,1050,1054,1054,1054,1054,0,0,0,0,0,0,0,0,691,691,691,691,691,691,691,691,693,693,694,696,697,697,697,698,698,698,700,700,701,701,701,703,703,704,706,708,710,710,713,713,713,714,716,719,719,720,720,720,719,719,720,720,1458,1458,1452,1445,1439,1439,1452,1452,1452,1452,1458,1464,1464,1464,1470,1464,1464,1464,1464,1464,1464,1464,1464,1464,1464,1464,1464,1464,1464,1464,1464,1464,1464,1464,1470,1470,1470,1464,1464,1458,1458,1470,1177,1177,1177,1177,1177,1177,1177,1181,1181,1181,1181,1181,1181,1181,1185,1185,1189,1185,1185,1185,1189,1189,1189,1185,1185,1189,1189,1189,1193,1193,1193,1193,1197,1197,1197,1197,1202,1202,1202,1206,1206,1206,1210,1210,1210,1210,1214,1214,1214,1214,1214,1214,1214,1219,1219,1219,1223,1223,1223,1227,1227,1227,1227,1227,1232,1232,1232,1236,1236,1241,1241,1241,1241,1241,1245,1245,1245,1245,1245,1245,1245,1245,1245,1245,1245,1250,1439,1439,1439,1439,1439,1439,1439,1439,1439,1439,1433,1433,1439,1439,1439,1439,1445,1452,1452,1445,1439,1439,1439,1439,1439,1439,1439,1439,1439,1445,1445,1445,1445,1445,1439,1439,1439,1439,1439,0,0,0,0,0,0,0,0,951,948,946,943,940,938,938,935,935,933,933,933,935,935,935,935,938,938,938,940,940,943,946,946,946,946,946,948,0,0,0,1439,1439,1439,1433,1433,1433,1433,1433,1433,1433,1433,1433,1433,1427,1427,1427,1427,1427,1427,1427,1427,1427,1427,1427,1427,1427,1427,1427,1427,1427,1427,1427,1427,1427,1421,1421,1427,1427,1427,1421,1421,1421,1421,1421,1421,1421,1421,1421,1421,1421,1421,1421,1421,1421,1421,1421,1421,1421,1421,1421,1421,1421,1421,1421,1421,1421,1421,1421,1421,1421,1415,1415,1421,1421,1421,1421,1421,1421,1421,1421,1421,1421,1421,1415,1415,1415,1415,1415,1415,1410,1410,1410,1404,1404,1398,1398,1398,1398,1392,1392,1392,1392,1387,1387,1381,1376,1370,1370,1365,1359,1354,1354,1354,1349,1349,1343,1343,1338,1333,1333,1333,1328,1328,1322,1317,1312,1312,1307,1302,1302,1302,1297,1297,1292,1292,1288,1288,1283,1283,1278,1273,1273,1268,1268,1268,1264,1259,1255,1255,1255,1250,1250,1250,1241,1236,1236,1232,1232,1227,1227,1223,1223,1219,1219,1214,1214,1214,1214,1210,1206,1202,1202,1197,1197,1193,1193,1189,1189,1185,1185,1181,1181,1177,1173,1169,1169,1165,1165,1165,1165,1161,1161,1157,1153,1153,1149,1149,1145,1145,1138,1138,1134,1134,1134,1134,1134,1130,1130,1126,1123,1119,1119,1115,1115,1112,1108,1108,1105,1105,1101,1101,1097,1094,1094,1094,1090,1090,1087,1084,1084,1087,0,0,0,0,0,0,0,0,0,0,0,0,0,0,0,0,0,0,0,0,0,0,0,0,0,0,0,0,0,0,0,0
0,0,0,0,0,0,0,0,0,0,1483,1483,1483,1477,1477,1483,1477,1477,1477,1477,1483,1483,1483,1483,1483,1483,1483,1483,1483,1483,1483,1483,1483,1483,1483,1477,1477,1477,1477,1477,1477,1470,1470,1470,1470,1477,1477,1483,1483,1483,1483,1483,1483,1483,1477,1477,1477,1477,1477,1477,1470,1470,1470,1477,1477,1477,1477,1477,1477,1470,1470,1470,1470,1470,1470,1470,1470,1470,1477,1470,1470,1470,1470,1470,1470,1470,1470,1477,1477,1477,1477,1477,1477,1470,1470,1470,0,0,0,0,0,1047,1047,1047,1047,1047,1047,1047,1047,1047,1050,1050,1050,1050,1050,1054,1054,1054,1054,0,0,0,0,0,0,0,0,691,691,691,691,691,691,691,693,693,694,694,696,697,697,698,698,698,700,700,701,701,701,701,703,703,704,706,708,708,710,710,710,714,716,0,0,0,0,0,720,719,719,1452,1452,1458,1458,1452,1445,1439,1439,1445,1445,1445,1452,1458,1458,1458,1458,1464,1464,1458,1458,1458,1458,1458,1458,1458,1464,1464,1464,1464,1464,1464,1464,1464,1458,1458,1458,1458,1458,1458,1458,1458,1181,1181,1177,1173,1173,1173,1177,1177,1177,1177,1177,1181,1177,1177,1181,1181,1181,1181,1181,1185,1185,1185,1185,1185,1185,1185,1185,1185,1189,1189,1189,1193,1193,1193,1193,1197,1197,1197,1197,1202,1202,1202,1206,1206,1210,1210,1210,1214,1214,1214,1214,1214,1214,1214,1219,1219,1219,1219,1219,1223,1223,1227,1227,1227,1227,1227,1227,1232,1232,1232,1236,1241,1241,1241,1245,1245,1245,1245,1245,1245,1245,1245,1245,1250,1250,1250,1250,1250,1250,1439,1439,1439,1439,1439,1439,1433,1433,1433,1433,1433,1433,1433,1433,1433,1433,1433,1445,1445,1439,1439,1439,1439,1439,1439,1439,1439,1439,1439,1439,1439,1439,1439,1439,1439,1439,1439,1433,1433,1433,0,0,0,0,0,0,0,951,948,946,943,943,940,938,938,935,935,933,933,935,935,935,938,938,938,938,940,940,943,946,946,946,946,946,946,946,0,1433,0,1433,1433,1433,1433,1427,1427,1427,1427,1427,1427,1427,1421,1421,1421,1421,1421,1421,1421,1421,1421,1421,1421,1421,1427,1427,1421,1421,1421,1421,1421,1421,1421,1421,1415,1415,1421,1421,1421,1421,1421,1421,1421,1415,1415,1415,1415,1415,1415,1415,1415,1415,1415,1415,1415,1415,1415,1415,1415,1421,1415,1415,1415,1415,1415,1415,1415,1415,1415,1415,1415,1415,1415,1415,1415,1415,1415,1415,1415,1415,1415,1415,1415,1415,1415,1415,1410,1410,1410,1410,1410,1404,1398,1398,1398,1398,1398,1398,1392,1392,1392,1392,1387,1381,1381,1376,1370,1370,1365,1359,1354,1354,1354,1349,1349,1349,1343,1338,1333,1333,1333,1328,1328,1328,1317,1312,1312,1307,1302,1302,1302,1297,1297,1292,1292,1288,1288,1283,1283,1278,1278,1273,1268,1268,1268,1264,1259,1255,1255,1255,1250,1250,1250,1241,1236,1236,1232,1232,1227,1227,1223,1223,1219,1219,1214,1214,1214,1214,1210,1206,1202,1202,1197,1197,1193,1193,1189,1189,1185,1185,1181,1181,1177,1173,1169,1169,1165,1165,1165,1165,1161,1161,1157,1153,1153,1149,1149,1145,1145,1141,1138,1138,1138,1134,1134,1134,1130,1130,1126,1123,1119,1119,1115,1115,1112,1108,1108,1105,1105,1105,1101,1097,1094,1094,1094,1090,1090,1087,1084,1084,0,0,0,0,0,0,0,0,0,0,0,0,0,0,0,0,0,0,0,0,0,0,0,0,0,0,0,0,0,0,0,0,0
0,0,0,0,0,0,0,0,0,0,1477,1477,1477,1470,1470,1470,1470,1470,1470,1470,1470,1477,1470,1470,1464,1464,1464,1470,1477,1477,1477,1477,1477,1477,1477,1470,1470,1470,1470,1470,1470,1470,1470,1470,1470,1470,1470,1470,1470,1470,1477,1477,1477,1470,1470,1470,1470,1470,1470,1470,1470,1470,1470,1470,1470,1470,1470,1477,1470,1470,1464,1464,1464,1464,1464,1464,1464,1464,1464,1464,1464,1464,1464,1464,1464,1464,1464,1464,1470,1470,1470,1470,1470,1464,1464,1464,0,0,1050,1050,0,1047,1047,1047,1047,1047,1047,1050,1047,1047,1050,1050,1050,1050,1050,1054,1054,1057,0,0,0,0,0,0,0,0,0,691,691,691,691,691,693,693,693,693,694,696,697,697,697,698,698,698,700,700,701,701,701,701,703,704,706,707,708,708,710,710,710,0,0,0,0,0,0,0,0,1452,1452,1452,1452,1452,1452,1445,1445,1445,1445,1445,1445,1445,1452,1452,1452,1458,1458,1458,1458,1452,1452,1458,1458,1458,1458,1458,1458,1458,1458,1458,1458,1458,1458,1458,1458,1458,1458,1458,1458,1165,1165,1458,1177,1177,1169,1169,1169,1173,1177,1177,1177,1177,1177,1181,1177,1177,1181,1181,1181,1181,1181,1181,1181,1181,1181,1185,1185,1185,1185,1185,1189,1189,1189,1193,1193,1197,1197,1197,1197,1197,1197,1202,1202,1206,1210,1210,1210,1210,1210,1214,1214,1214,1214,1219,1219,1219,1219,1219,1223,1223,1223,1223,1223,1227,1227,1227,1227,1227,1232,1232,1232,1232,1236,1241,1241,1241,1245,1245,1245,1245,1245,1245,1245,1245,1250,1250,1250,1250,1245,1245,1245,1245,1439,1439,1439,1433,1433,1433,1433,1433,1433,1433,1427,1427,1427,1427,1427,1427,1433,1433,1439,1433,1433,1433,1433,1433,1433,1433,1433,1433,1439,1439,1439,1433,1433,1439,1439,1433,1433,1433,1433,0,0,0,0,0,0,0,951,948,948,946,943,940,938,938,935,935,935,935,935,935,935,938,938,938,940,943,943,946,946,946,946,946,946,946,0,0,0,0,1427,1427,1427,1427,1421,1421,1421,1421,1421,1421,1421,1421,1421,1421,1421,1421,1415,1415,1415,1415,1415,1415,1415,1415,1421,1421,1421,1415,1415,1415,1415,1415,1415,1410,1410,1415,1415,1415,1415,1415,1415,1415,1415,1415,1415,1415,1410,1410,1410,1410,1410,1410,1410,1410,1415,1415,1410,1410,1410,1410,1410,1415,1410,1410,1410,1410,1410,1404,1404,1404,1404,1410,1410,1410,1410,1410,1410,1410,1410,1410,1410,1410,1410,1410,1410,1410,1410,1404,1404,1398,1398,1398,1398,1398,1392,1392,1392,1392,1392,1387,1387,1387,1381,1381,1376,1370,1370,1365,1359,1354,1354,1354,1349,1349,1343,1343,1338,1333,1333,1333,1328,1328,1328,1317,1312,1312,1307,1302,1302,1302,1297,1297,1292,1292,1288,1288,1283,1283,1278,1278,1273,1268,1268,1268,1264,1259,1255,1255,1255,1250,1250,1250,1241,1236,1236,1232,1232,1227,1227,1223,1223,1219,1219,1214,1214,1214,1214,1210,1206,1202,1202,1197,1197,1197,1197,1189,1189,1185,1185,1181,1181,1181,1177,1169,1169,1165,1165,1165,1165,1161,1161,1161,1157,1153,1149,1149,1145,1145,1141,1138,1138,1138,1138,1134,1134,1130,1130,1126,1123,1119,1119,1115,1115,1108,1108,1108,1105,1105,1105,1101,1101,1097,1094,1094,1090,1090,1087,1084,1084,1087,0,0,0,0,0,0,0,0,0,0,0,0,0,0,0,0,0,0,0,0,0,0,0,0,0,0,0,0,0,0,0,0
0,0,0,0,0,0,0,0,0,0,1470,1470,1470,1464,1464,1464,1464,1464,1464,1464,1458,1458,1458,1458,1458,1458,1458,1464,1464,1464,1464,1470,1470,1470,1470,1464,1464,1464,1464,1464,1464,1464,1464,1464,1464,1464,1464,1464,1464,1464,1464,1464,1464,1464,1464,1464,1464,1464,1464,1464,1464,1464,1464,1464,1464,1464,1464,1470,1470,1464,1464,1464,1464,1458,1458,1458,1458,1458,1458,1458,1458,1464,1458,1458,1458,1458,1458,1464,1464,1464,1464,1464,1464,1458,1458,1458,1458,0,1050,1050,1047,1047,1047,1047,1050,1047,1047,1050,1050,1050,1050,1050,1050,1050,1054,1054,1054,1054,1054,0,0,0,0,0,0,0,0,691,691,693,693,693,693,693,693,694,694,696,697,697,697,698,698,698,700,700,701,701,703,703,704,704,706,707,708,708,708,710,0,0,0,0,0,0,0,0,0,1452,1452,1452,1452,1452,1445,1445,1445,1445,1445,1445,1445,1445,1452,1452,1452,1452,1458,1458,1458,1452,1452,1452,1452,1452,1452,1452,1452,1452,1452,1452,1452,1458,1458,1452,1161,1161,1161,1165,1165,1165,1165,1165,1169,1173,1169,1169,1169,1173,1173,1173,1177,1177,1177,1177,1177,1177,1177,1177,1181,1181,1181,1181,1181,1181,1181,1185,1185,1185,1185,1185,1189,1189,1189,1193,1193,1197,1197,1197,1197,1202,1202,1206,1206,1206,1210,1210,1210,1210,1214,1214,1214,1214,1219,1219,1219,1219,1219,1223,1223,1223,1223,1223,1227,1227,1227,1227,1227,1232,1232,1232,1427,1236,1236,1241,1241,1241,1245,1245,1245,1245,1245,1245,1245,1250,1250,1250,1250,1250,1245,1245,1241,1241,1433,1433,1433,1433,1433,1433,1427,1427,1427,1427,1427,1427,1421,1421,1421,1427,1433,1427,1427,1427,1427,1427,1427,1427,1427,1433,1427,1427,1433,1433,1433,1433,1433,1433,1433,1433,1433,1433,1433,0,0,0,0,0,0,0,954,951,948,946,946,943,940,938,938,935,935,935,935,935,938,938,938,940,940,943,943,946,946,948,948,948,948,948,0,0,0,1415,1415,1415,1415,1415,1415,1421,1415,1415,1415,1415,1415,1415,1415,1415,1415,1415,1415,1415,1415,1415,1410,1410,1415,1415,1415,1415,1415,1415,1410,1410,1410,1410,1410,1404,1404,1404,1410,1410,1410,1410,1410,1410,1410,1410,1410,1410,1410,1404,1404,1404,1404,1404,1404,1404,1404,1404,1404,1404,1404,1404,1404,1404,1404,1404,1404,1404,1404,1404,1404,1404,1404,1404,1404,1404,1404,1404,1404,1404,1404,1404,1404,1404,1410,1404,1404,1404,1398,1398,1398,1398,1392,1392,1392,1392,1392,1392,1392,1392,1392,1387,1387,1387,1381,1381,1376,1370,1370,1370,1365,1359,1354,1354,1349,1349,1343,1343,1338,1333,1333,1333,1328,1328,1328,1322,1317,1312,1307,1302,1302,1302,1297,1297,1292,1292,1288,1288,1283,1283,1278,1278,1273,1268,1268,1268,1264,1264,1259,1255,1255,1250,1250,1250,1241,1241,1236,1232,1232,1227,1227,1223,1223,1219,1219,1214,1214,1214,1214,1206,1206,1206,1202,1197,1197,1197,1197,1189,1189,1185,1185,1185,1181,1181,1177,1169,1169,1169,1165,1165,1165,1165,1161,1161,1157,1153,1153,1149,1145,1145,1141,1141,1138,1138,1138,1134,1134,1134,1130,1126,1123,1119,1119,1115,1115,1108,1108,1108,1105,1105,1105,1101,1101,1097,1094,1094,1090,1090,1090,1087,1087,1087,0,0,0,0,0,0,0,0,0,0,0,0,0,0,0,0,0,0,0,0,0,0,0,0,0,0,0,0,0,0,0,0
