0,0,0,0,0,0,0,0,0,0,0,0,0,0,0,0,0,0,0,0,0,0,0,813,811,809,809,807,805,803,803,802,802,800,800,798,796,796,796,794,794,794,790,790,789,789,790,789,789,789,789,790,792,792,792,794,794,794,794,796,796,794,794,794,794,792,790,787,785,785,789,789,789,789,790,790,792,794,792,792,794,794,792,790,790,790,792,792,794,794,792,792,792,792,794,794,794,794,796,802,798,798,798,800,802,802,802,800,800,798,796,794,794,794,794,796,794,794,798,798,796,796,796,802,798,796,796,796,802,802,800,800,800,800,800,796,796,798,798,800,800,800,798,794,794,794,790,790,790,789,789,807,807,807,805,805,805,803,803,802,802,802,802,803,803,803,803,803,803,802,802,802,803,803,803,803,803,803,803,803,802,802,802,802,802,802,802,807,805,805,805,805,803,802,798,798,803,803,805,807,809,809,809,809,809,809,809,805,805,805,809,807,807,807,809,809,809,807,807,807,807,807,807,807,807,809,809,811,811,813,813,815,815,815,815,815,815,815,813,813,815,815,815,813,813,813,813,815,813,811,811,811,813,813,811,811,811,811,815,813,811,811,813,813,817,815,815,817,817,815,811,811,811,813,813,813,813,813,813,815,815,815,815,817,817,819,819,819,817,815,815,815,815,817,817,817,819,821,823,825,827,829,831,833,837,839,841,843,843,849,849,854,858,860,860,896,898,898,903,906,906,910,910,915,918,920,925,928,930,930,933,933,935,935,935,938,940,940,948,948,951,954,954,956,0,0,0,0,0,1550,1550,1550,1543,1543,1536,1536,1536,1536,1536,1536,1536,1529,1529,1529,1523,1523,1523,1516,1516,1516,1509,1509,1509,1503,1503,1496,1496,1496,1496,1496,1496,1489,1489,1489,1489,1483,1483,1477,1477,1470,1470,1470,1470,1470,1464,1464,1464,1464,1464,1464,1458,1458,1452,1445,1445,1445,1445,1445,1445,1445,1439,1439,1439,1439,1433,1433,1427,1427,1421,1421,1421,1421,1421,1421,1415,1415,1415,1410,1410,1410,1404,1404,1398,1398,1398,1398,1398,1392,1392,1392,1392,1392,1392,1392,1387,1381,1381,1376,1376,1376,1370,1370,1370,1370,1370,1370,1370,1370,1365,1365,1359,1354,1354,1354,1349,1349,1349,1349,1349,1343,1343,1338,1338,1333,1333,1333,1333,1333,1333,1333,1333,1328,1328,1328,1328,1322,1322,1317,1312,1312,1312,1307,1307,1307,1307,1302,1302,1297,1297,1297,1292,1292,1292,1292,1292,1292,1288,1288,1288,1288,1283,1283,1283,1278,1278,1273,1273,1268,1268,1268,1264,1264,1264,1264,1264,1259,1259,1255,1255,1255,1255,1250,1250,1250,1250,1250,1245,1245,1245,1241,1241,1236,1236,1236,1236,1232,1232,1232,1232,1232,1232,1227,1223,1223,1219,1219,1219,1219,1219,1214,1214,1214,1214,1214,1210,1210,1210,1206,1206,1202,1202,1202,1202,1197,1197,1197,1197,1197,1197,1193,1193,1189,1189,1189,1185,1185,1185,1185,1181,1181,1181,1181,1177,1177,1177,1177,1173,1173,1169,1169,1169,1169,1169,1169,1169,1165,1165,1161,1161,1161,0,0,0,0,0,0,0,0,0,0,0,0,0,0,0,0,0,0,0,0,0,0,0,0,0,0,0,0,0,0
0,0,0,0,0,0,0,0,0,0,0,0,0,0,0,0,0,0,0,0,0,0,0,813,813,811,809,807,803,803,802,802,800,800,798,798,796,796,794,794,794,789,789,787,787,787,787,787,785,785,785,783,783,781,781,787,789,789,790,790,792,792,792,792,792,789,787,783,783,785,785,781,781,785,787,787,790,790,789,789,789,789,789,789,787,787,790,790,789,789,792,792,790,790,789,787,787,787,790,792,794,796,798,796,796,798,794,794,796,792,792,790,790,790,792,794,792,792,792,790,790,790,789,789,790,790,789,789,789,789,789,792,796,792,792,794,794,794,796,796,796,796,794,792,792,792,789,789,789,789,789,789,789,790,805,800,800,798,798,796,796,800,800,800,800,800,798,798,798,798,798,798,798,798,802,800,800,802,802,800,800,800,798,798,798,798,798,800,800,802,802,798,798,796,796,796,798,796,796,796,796,805,803,803,805,807,805,802,798,798,807,803,803,803,805,807,807,807,805,803,803,805,803,803,803,803,803,803,805,809,809,809,809,813,813,813,815,813,811,811,813,811,811,811,807,807,809,809,809,809,807,807,809,811,805,805,809,809,813,813,809,809,809,811,813,811,811,811,813,811,809,809,809,809,809,811,811,811,811,811,811,813,813,815,815,815,813,811,811,811,813,813,813,815,815,817,819,821,823,825,827,829,831,833,837,839,841,841,843,845,845,854,858,860,896,896,898,901,906,906,906,910,913,915,918,920,925,928,930,933,933,933,935,935,938,938,940,943,948,948,951,954,954,956,0,0,0,0,0,1557,1550,1550,1550,1543,1543,1543,1536,1536,1536,1536,1536,1536,1529,1529,1523,1523,1523,1516,1516,1516,1509,1509,1509,1503,1503,1496,1496,1496,1496,1496,1496,1489,1489,1489,1489,1483,1483,1483,1477,1477,1470,1470,1470,1470,1470,1464,1464,1464,1464,1464,1458,1458,1452,1452,1445,1445,1445,1445,1445,1445,1439,1439,1439,1439,1433,1433,1433,1427,1427,1427,1421,1421,1421,1421,1421,1415,1415,1410,1410,1410,1404,1404,1398,1398,1398,1398,1398,1398,1392,1392,1392,1392,1392,1392,1387,1381,1381,1376,1376,1376,1370,1370,1370,1370,1370,1370,1370,1370,1365,1365,1359,1354,1354,1354,1349,1349,1349,1349,1349,1343,1343,1343,1338,1338,1338,1333,1333,1333,1333,1333,1333,1328,1328,1328,1328,1328,1322,1317,1317,1312,1312,1312,1307,1307,1307,1307,1302,1302,1297,1297,1297,1292,1292,1292,1292,1292,1288,1288,1288,1288,1288,1283,1283,1278,1278,1273,1273,1273,1268,1268,1268,1268,1268,1268,1264,1259,1259,1255,1255,1255,1255,1250,1250,1250,1250,1250,1245,1245,1245,1241,1241,1236,1236,1236,1236,1236,1232,1232,1232,1232,1232,1232,1227,1223,1223,1219,1219,1219,1219,1214,1214,1214,1214,1214,1210,1210,1210,1206,1206,1202,1202,1202,1202,1197,1197,1197,1197,1197,1197,1197,1193,1193,1189,1189,1185,1185,1185,1185,1181,1181,1181,1181,1177,1177,1177,1177,1173,1173,1173,1169,1169,1169,1169,1169,1169,1169,1165,1161,1161,1161,0,0,0,0,0,0,0,0,0,0,0,0,0,0,0,0,0,0,0,0,0,0,0,0,0,0,0,0,0,0
0,0,0,0,0,0,0,0,0,0,0,0,0,0,0,0,0,0,0,0,0,0,0,0,811,811,809,807,803,803,802,802,800,798,798,796,796,796,794,794,792,789,787,787,785,785,785,785,783,783,783,783,781,781,781,781,781,785,785,787,787,787,785,783,783,783,783,781,781,781,781,781,781,781,783,783,787,787,787,787,787,787,785,785,785,785,785,787,785,785,789,789,787,785,783,783,781,781,781,781,783,787,789,789,790,790,789,783,783,792,792,789,789,789,789,789,789,789,789,789,787,787,787,787,787,787,787,787,787,785,785,787,783,783,785,787,787,787,789,794,794,794,792,790,790,789,787,787,787,787,787,787,787,789,789,790,794,794,792,792,792,792,792,790,790,796,796,796,796,794,794,794,796,796,798,796,796,798,798,798,798,798,796,796,796,796,796,796,796,796,794,794,794,794,794,794,796,796,794,792,792,796,800,794,794,802,800,798,798,798,796,796,796,796,798,803,802,802,803,802,802,803,802,802,802,800,800,800,800,802,803,803,803,805,805,805,807,807,807,807,809,809,807,805,805,803,803,805,805,805,803,803,803,805,803,803,803,805,807,809,807,807,809,809,811,809,809,809,809,809,807,805,805,805,805,807,807,805,805,807,807,805,805,811,811,815,809,807,807,809,809,809,811,811,815,815,819,821,823,825,827,829,831,833,837,839,841,841,843,845,845,880,880,885,894,894,898,903,906,906,906,910,913,915,918,923,925,928,930,933,933,933,935,938,938,940,940,946,948,948,954,956,956,956,0,0,0,0,0,1557,1550,1550,1550,1550,1543,1543,1543,1536,1536,1536,1536,1536,1529,1529,1523,1523,1523,1523,1516,1516,1516,1509,1509,1503,1503,1503,1496,1496,1496,1496,1496,1496,1489,1489,1489,1489,1483,1483,1477,1477,1470,1470,1470,1470,1470,1464,1464,1464,1464,1464,1458,1458,1458,1452,1452,1445,1445,1445,1445,1445,1445,1439,1439,1439,1439,1433,1433,1427,1427,1427,1427,1421,1421,1421,1421,1415,1415,1410,1410,1410,1404,1404,1404,1398,1398,1398,1398,1398,1392,1392,1392,1392,1392,1392,1392,1387,1381,1376,1376,1376,1376,1370,1370,1370,1370,1370,1370,1370,1365,1365,1359,1359,1354,1354,1354,1354,1349,1349,1349,1349,1349,1343,1343,1338,1338,1333,1333,1333,1333,1333,1333,1333,1328,1328,1328,1328,1328,1322,1317,1312,1312,1312,1307,1307,1307,1307,1302,1302,1302,1297,1297,1292,1292,1292,1292,1292,1292,1292,1288,1288,1288,1288,1283,1278,1278,1273,1273,1273,1268,1268,1268,1268,1268,1268,1264,1259,1259,1259,1255,1255,1255,1250,1250,1250,1250,1250,1250,1245,1245,1241,1241,1241,1236,1236,1236,1236,1236,1232,1232,1232,1232,1232,1227,1227,1223,1223,1219,1219,1219,1219,1214,1214,1214,1214,1210,1210,1210,1206,1206,1206,1202,1202,1202,1197,1197,1197,1197,1197,1197,1197,1193,1193,1189,1189,1189,1185,1185,1185,1185,1181,1181,1181,1181,1177,1177,1177,1173,1173,1173,1169,1169,1169,1169,1169,1169,1169,1165,1161,1161,1161,0,0,0,0,0,0,0,0,0,0,0,0,0,0,0,0,0,0,0,0,0,0,0,0,0,0,0,0,0,0
0,0,0,0,0,0,0,0,0,0,0,0,0,0,0,0,0,0,0,0,0,0,0,837,839,809,809,807,805,803,803,802,800,798,798,796,796,794,794,789,789,787,787,787,783,783,783,781,781,781,781,780,780,774,774,774,774,774,774,778,776,776,780,778,776,776,778,778,780,780,780,780,780,780,781,781,781,780,780,780,778,778,780,781,780,780,780,783,781,781,781,780,780,780,781,781,780,780,780,778,778,780,776,774,774,790,787,781,781,787,787,787,787,787,787,787,785,783,781,781,783,783,783,783,783,783,785,783,783,783,783,783,781,781,785,785,785,785,787,787,787,789,789,787,787,785,785,785,785,785,785,785,785,787,787,787,789,789,789,790,789,789,789,789,789,787,787,787,787,792,792,792,792,792,794,794,794,794,794,796,794,794,794,794,794,794,794,794,794,794,792,792,792,792,792,792,794,792,792,792,792,792,792,792,792,794,794,794,794,792,790,790,790,790,790,790,792,792,792,800,800,800,800,798,798,796,796,796,796,796,796,798,798,800,800,802,802,802,800,796,790,790,794,796,798,798,798,800,802,802,802,800,800,800,800,800,800,802,805,805,805,805,805,809,809,807,805,805,803,803,803,803,803,802,802,802,802,802,802,800,800,802,802,800,800,800,803,805,805,807,807,809,811,811,813,815,817,821,823,825,827,829,831,833,837,839,841,841,843,845,880,880,880,887,894,894,898,903,906,906,908,910,913,915,918,923,928,930,933,933,935,935,935,938,938,940,943,946,951,951,954,956,956,959,0,0,0,0,0,1557,1557,1550,1550,1550,1543,1543,1543,1543,1536,1536,1536,1536,1536,1529,1523,1523,1523,1523,1516,1516,1516,1509,1509,1503,1503,1503,1496,1496,1496,1496,1496,1496,1489,1489,1489,1489,1483,1483,1477,1477,1470,1470,1470,1470,1470,1470,1464,1464,1464,1464,1458,1458,1458,1452,1452,1445,1445,1445,1445,1445,1445,1439,1439,1439,1439,1433,1433,1427,1427,1427,1427,1427,1421,1421,1421,1421,1415,1415,1410,1410,1404,1404,1404,1398,1398,1398,1398,1398,1398,1392,1392,1392,1392,1392,1387,1381,1381,1381,1376,1376,1376,1376,1370,1370,1370,1370,1370,1370,1365,1365,1359,1359,1354,1354,1354,1354,1349,1349,1349,1349,1349,1343,1343,1338,1338,1333,1333,1333,1333,1333,1333,1333,1328,1328,1328,1328,1328,1322,1317,1312,1312,1312,1312,1307,1307,1307,1302,1302,1302,1297,1297,1292,1292,1292,1292,1292,1292,1292,1288,1288,1288,1288,1288,1283,1278,1273,1273,1273,1273,1268,1268,1268,1268,1268,1268,1264,1259,1259,1259,1255,1255,1255,1250,1250,1250,1250,1250,1245,1245,1241,1241,1236,1236,1236,1236,1236,1236,1232,1232,1232,1232,1232,1227,1227,1223,1223,1223,1219,1219,1219,1219,1214,1214,1214,1214,1214,1210,1206,1206,1206,1202,1202,1202,1197,1197,1197,1197,1197,1197,1197,1197,1193,1193,1193,1189,1185,1185,1185,1185,1185,1181,1181,1181,1181,1177,1177,1173,1173,1173,1169,1169,1169,1169,1169,1169,1169,1165,1161,1161,1161,0,0,0,0,0,0,0,0,0,0,0,0,0,0,0,0,0,0,0,0,0,0,0,0,0,0,0,0,0,0
0,0,0,0,0,0,0,0,0,0,0,0,0,0,0,0,0,0,0,0,0,0,837,837,839,839,839,841,805,803,802,802,798,798,796,796,796,794,790,789,787,787,785,785,783,781,781,781,781,780,780,774,774,773,773,774,773,773,773,774,774,774,774,776,773,773,773,773,776,778,778,778,778,778,778,778,778,778,778,778,776,776,776,776,776,776,774,774,774,774,778,776,774,774,780,780,778,776,773,773,774,778,774,774,773,773,776,778,778,780,781,783,783,783,783,783,781,781,780,780,780,780,781,780,780,781,781,781,780,780,780,780,780,780,781,781,783,783,785,785,785,787,785,783,783,781,781,781,783,783,781,781,783,783,785,785,785,785,785,787,787,787,787,785,785,783,781,781,781,783,783,785,787,787,789,789,789,789,789,790,790,792,790,790,792,792,792,792,790,790,789,789,789,789,789,789,789,789,789,789,789,789,789,790,790,790,790,790,790,789,789,789,789,789,787,787,787,789,789,789,789,789,789,789,798,794,794,794,794,794,794,794,792,790,790,790,790,794,792,790,790,790,790,792,794,796,794,794,798,800,800,798,796,796,798,796,796,796,798,798,798,798,800,798,796,796,802,802,800,800,802,802,802,800,798,798,798,802,800,798,798,798,798,798,798,798,800,802,803,807,807,809,811,811,813,815,817,821,823,825,827,829,831,833,835,835,841,841,873,880,880,882,882,887,894,896,898,903,906,906,908,910,913,915,920,925,928,930,933,935,935,935,938,938,940,943,946,948,951,951,954,956,959,959,0,0,0,0,0,1557,1557,1550,1550,1550,1550,1543,1543,1543,1543,1543,1536,1536,1536,1529,1529,1523,1523,1523,1516,1516,1516,1509,1509,1509,1509,1503,1496,1496,1496,1496,1496,1489,1489,1489,1489,1489,1483,1483,1483,1477,1477,1470,1470,1470,1470,1470,1464,1464,1464,1464,1458,1458,1458,1458,1452,1445,1445,1445,1445,1445,1445,1439,1439,1439,1439,1439,1433,1433,1433,1433,1433,1427,1421,1421,1421,1421,1415,1415,1410,1410,1410,1404,1404,1398,1398,1398,1398,1398,1398,1392,1392,1392,1392,1392,1387,1381,1381,1381,1376,1376,1376,1376,1370,1370,1370,1370,1370,1370,1365,1365,1359,1359,1354,1354,1354,1354,1354,1349,1349,1349,1349,1343,1343,1338,1338,1333,1333,1333,1333,1333,1333,1333,1333,1328,1328,1328,1328,1322,1317,1317,1312,1312,1312,1307,1307,1307,1302,1302,1302,1297,1297,1297,1297,1292,1292,1292,1292,1292,1288,1288,1288,1288,1288,1283,1278,1278,1273,1273,1273,1268,1268,1268,1268,1268,1268,1264,1264,1259,1259,1259,1255,1255,1250,1250,1250,1250,1250,1245,1245,1241,1241,1236,1236,1236,1236,1236,1236,1232,1232,1232,1232,1232,1227,1227,1223,1223,1219,1219,1219,1219,1219,1219,1219,1214,1214,1214,1210,1206,1206,1206,1202,1202,1202,1202,1197,1197,1197,1197,1197,1197,1197,1193,1193,1193,1189,1185,1185,1185,1185,1185,1181,1181,1181,1181,1177,1177,1177,1173,1173,1169,1169,1169,1169,1169,1169,1169,1165,1165,1161,1161,0,0,0,0,0,0,0,0,0,0,0,0,0,0,0,0,0,0,0,0,0,0,0,0,0,0,0,0,0,0
0,0,0,0,0,0,0,0,0,0,0,0,0,0,0,0,0,0,0,0,0,839,837,837,837,837,839,839,839,839,802,798,798,796,796,796,794,794,790,789,787,787,785,785,783,781,781,780,780,780,780,774,774,773,773,773,771,771,773,771,771,771,773,774,773,773,773,773,774,774,774,774,774,776,774,774,774,774,774,774,774,774,774,774,774,774,773,773,771,771,771,771,771,771,773,778,774,771,771,771,771,771,771,771,771,771,773,776,776,776,778,780,780,780,780,780,778,778,776,776,778,778,780,780,780,780,780,780,778,776,776,778,778,778,778,778,780,780,780,780,780,780,774,774,776,780,778,776,776,776,776,776,776,776,776,776,778,780,781,783,783,783,783,783,783,781,781,781,781,781,781,781,780,780,780,781,787,787,787,787,787,789,789,789,789,790,789,789,787,787,787,787,787,787,787,787,785,785,785,785,785,787,787,787,789,789,789,790,789,787,787,787,787,787,787,785,785,783,783,783,781,781,781,783,783,792,792,792,792,792,792,792,790,789,787,787,789,789,789,789,790,790,790,790,792,794,790,790,794,794,796,794,790,790,792,794,790,790,794,794,792,792,792,792,794,794,794,798,798,794,794,796,794,794,794,794,796,796,796,796,796,796,796,796,796,796,798,800,802,805,807,807,809,809,811,813,817,821,825,825,827,829,831,833,835,835,869,873,875,880,880,882,882,887,894,896,898,903,906,906,908,910,913,918,923,925,928,930,933,935,935,935,938,940,940,943,946,951,954,954,956,959,959,959,0,0,0,0,0,1557,1557,1557,1550,1550,1550,1543,1543,1543,1543,1543,1536,1536,1536,1529,1529,1523,1523,1523,1523,1516,1516,1516,1516,1509,1509,1503,1503,1496,1496,1496,1496,1489,1489,1489,1489,1489,1483,1483,1483,1477,1477,1470,1470,1470,1470,1470,1470,1464,1464,1464,1464,1464,1458,1458,1452,1452,1445,1445,1445,1445,1445,1439,1439,1439,1439,1439,1433,1433,1433,1433,1433,1427,1427,1427,1421,1421,1415,1415,1415,1410,1410,1410,1404,1404,1398,1398,1398,1398,1398,1392,1392,1392,1392,1392,1387,1381,1381,1381,1381,1376,1376,1376,1376,1376,1376,1370,1370,1370,1370,1365,1365,1359,1354,1354,1354,1354,1354,1354,1349,1349,1349,1343,1343,1338,1338,1338,1338,1333,1333,1333,1333,1333,1333,1328,1328,1328,1328,1322,1322,1317,1312,1312,1312,1312,1307,1307,1302,1302,1302,1302,1297,1297,1297,1292,1292,1292,1292,1292,1292,1292,1288,1288,1288,1283,1278,1278,1278,1273,1273,1268,1268,1268,1268,1268,1268,1264,1264,1259,1259,1259,1255,1255,1255,1250,1250,1250,1250,1250,1250,1245,1241,1241,1236,1236,1236,1236,1236,1232,1232,1232,1232,1232,1227,1227,1223,1223,1219,1219,1219,1219,1219,1219,1219,1214,1214,1214,1210,1206,1206,1206,1202,1202,1202,1202,1202,1202,1202,1197,1197,1197,1197,1197,1193,1193,1189,1189,1185,1185,1185,1185,1181,1181,1181,1181,1181,1177,1177,1173,1173,1173,1173,1169,1169,1169,1169,1169,1165,1165,1161,1161,0,0,0,0,0,0,0,0,0,0,0,0,0,0,0,0,0,0,0,0,0,0,0,0,0,0,0,0,0,0
0,0,0,0,0,0,0,0,0,0,0,0,0,0,0,0,0,0,0,0,0,839,839,839,837,837,839,839,839,839,841,798,796,796,796,796,794,794,792,789,789,787,785,785,783,781,781,780,780,780,778,774,773,773,773,773,771,769,769,769,769,769,769,771,769,769,769,769,771,767,767,773,773,773,773,773,773,773,773,773,771,771,773,771,771,771,769,769,769,769,769,766,766,766,767,769,769,769,769,769,769,769,769,767,767,767,767,773,774,774,776,776,773,773,773,776,774,774,773,773,773,773,774,776,776,778,778,776,776,776,774,774,774,774,774,774,776,776,774,774,773,773,773,774,774,774,774,774,774,774,774,774,774,774,774,774,776,776,780,780,780,780,780,780,780,781,780,780,780,780,778,778,778,778,778,778,776,774,774,776,783,783,783,783,785,785,785,785,783,781,781,783,783,785,785,783,781,781,781,780,776,776,776,781,781,785,787,787,785,785,785,785,785,785,783,783,783,781,781,781,780,780,780,780,780,780,787,787,789,787,787,789,789,783,783,783,785,785,785,787,787,787,787,787,790,790,790,790,789,789,790,790,789,789,789,789,787,787,789,789,789,789,789,789,790,789,787,787,794,792,790,785,785,789,789,789,794,794,794,794,794,794,794,794,794,794,796,798,802,805,805,807,809,809,811,813,819,825,825,829,829,829,833,833,835,864,869,873,875,880,880,882,885,887,894,896,898,903,906,906,908,910,913,918,923,928,928,933,933,935,935,938,938,940,940,943,948,951,954,954,956,959,959,959,0,0,0,0,1550,1550,1557,1557,1550,1550,1550,1550,1543,1543,1543,1543,1536,1536,1536,1529,1529,1529,1523,1523,1523,1516,1516,1516,1516,1509,1509,1503,1503,1496,1496,1496,1496,1496,1489,1489,1489,1489,1489,1489,1483,1483,1477,1477,1470,1470,1470,1470,1470,1464,1464,1464,1464,1464,1458,1458,1452,1452,1445,1445,1445,1445,1445,1439,1439,1439,1439,1439,1439,1433,1433,1433,1433,1427,1427,1427,1421,1421,1415,1415,1415,1410,1410,1410,1404,1404,1398,1398,1398,1398,1398,1392,1392,1392,1392,1392,1387,1381,1381,1381,1381,1376,1376,1376,1376,1376,1376,1370,1370,1370,1370,1365,1365,1359,1359,1354,1354,1354,1354,1354,1349,1349,1349,1349,1343,1338,1338,1333,1333,1333,1333,1333,1333,1333,1333,1328,1328,1328,1328,1328,1322,1317,1317,1312,1312,1312,1307,1307,1307,1307,1302,1302,1302,1297,1297,1297,1292,1292,1292,1292,1292,1292,1288,1288,1288,1283,1283,1278,1278,1273,1273,1273,1273,1268,1268,1268,1268,1264,1264,1259,1259,1259,1255,1255,1255,1250,1250,1250,1250,1250,1250,1245,1241,1241,1236,1236,1236,1236,1236,1232,1232,1232,1232,1232,1227,1227,1223,1223,1223,1219,1219,1219,1219,1219,1219,1214,1214,1214,1214,1210,1210,1206,1206,1202,1202,1202,1202,1202,1202,1197,1197,1197,1197,1197,1193,1193,1189,1189,1185,1185,1185,1185,1181,1181,1181,1181,1181,1177,1177,1177,1177,1173,1173,1169,1169,1169,1169,1169,1165,1165,1165,1165,0,0,0,0,0,0,0,0,0,0,0,0,0,0,0,0,0,0,0,0,0,0,0,0,0,0,0,0,0,0
0,0,0,0,0,0,0,0,0,0,0,0,0,0,0,0,0,0,0,0,0,839,839,839,839,839,839,841,839,839,839,839,796,796,796,796,794,794,792,789,789,787,785,783,781,781,781,780,780,778,776,774,773,773,773,771,769,767,767,767,767,767,767,767,767,767,767,767,767,766,766,767,767,767,767,769,771,771,771,771,771,771,771,767,767,769,767,767,762,762,762,764,764,764,764,766,767,767,767,767,766,766,766,766,766,762,762,766,767,771,773,773,771,769,767,766,766,767,769,771,771,771,774,774,774,776,776,776,774,771,771,771,771,773,771,769,769,771,773,771,771,773,773,773,773,773,773,773,773,773,773,773,773,773,773,773,773,773,774,774,776,780,776,776,776,776,776,776,776,776,776,776,776,776,776,774,773,773,773,773,773,773,773,774,774,774,774,774,774,778,778,780,781,783,781,776,776,776,778,776,774,774,774,776,776,776,778,781,783,783,781,781,783,783,783,781,780,780,778,778,778,778,778,778,776,776,778,778,781,780,780,781,781,781,781,781,781,781,781,783,783,785,787,785,785,785,785,785,787,787,787,787,787,787,787,787,785,785,785,785,785,785,785,783,783,785,783,781,781,781,783,781,781,781,783,781,781,792,792,790,790,792,794,794,794,794,796,798,800,805,805,807,809,809,811,813,819,827,827,829,833,860,860,862,864,867,869,871,873,880,880,882,885,887,894,896,898,903,906,906,908,910,915,920,925,928,930,933,935,935,938,938,938,940,940,943,948,951,954,956,956,959,959,0,0,0,0,0,1550,1550,1557,1557,1550,1550,1550,1550,1543,1543,1543,1536,1536,1536,1536,1529,1529,1529,1523,1523,1523,1516,1516,1516,1516,1509,1509,1503,1503,1503,1496,1496,1496,1496,1489,1489,1489,1489,1489,1489,1483,1483,1477,1477,1470,1470,1470,1470,1470,1464,1464,1464,1464,1464,1464,1458,1458,1452,1452,1452,1445,1445,1445,1445,1439,1439,1439,1439,1439,1439,1433,1433,1433,1427,1427,1427,1421,1421,1415,1415,1415,1410,1410,1410,1410,1404,1404,1404,1398,1398,1398,1398,1398,1392,1392,1392,1387,1381,1381,1381,1381,1376,1376,1376,1376,1376,1376,1376,1370,1370,1370,1370,1365,1365,1359,1359,1354,1354,1354,1354,1354,1349,1349,1349,1343,1338,1338,1333,1333,1333,1333,1333,1333,1333,1333,1333,1328,1328,1328,1328,1322,1317,1317,1312,1312,1312,1312,1307,1307,1307,1307,1302,1302,1302,1297,1297,1297,1297,1292,1292,1292,1292,1288,1288,1288,1283,1283,1278,1278,1273,1273,1273,1273,1273,1268,1268,1268,1268,1264,1259,1259,1259,1255,1255,1255,1250,1250,1250,1250,1250,1250,1245,1245,1241,1236,1236,1236,1236,1236,1232,1232,1232,1232,1232,1232,1227,1223,1223,1223,1219,1219,1219,1219,1219,1219,1219,1214,1214,1214,1210,1210,1210,1206,1206,1202,1202,1202,1202,1202,1202,1197,1197,1197,1197,1193,1193,1189,1189,1185,1185,1185,1185,1181,1181,1181,1181,1181,1181,1177,1177,1177,1173,1173,1169,1169,1169,1169,1169,1169,1165,1165,0,0,0,0,0,0,0,0,0,0,0,0,0,0,0,0,0,0,0,0,0,0,0,0,0,0,0,0,0,0,0
0,0,0,0,0,0,0,0,0,0,0,0,0,0,0,0,0,0,0,0,0,841,841,841,841,841,841,841,839,839,839,839,839,796,796,796,794,794,792,789,789,787,787,783,781,781,781,780,780,776,774,774,773,771,771,769,769,767,767,766,766,766,764,764,764,764,764,764,762,762,762,762,762,762,762,764,766,766,762,762,767,767,764,764,761,761,759,759,759,759,761,761,762,762,762,762,766,764,764,764,764,764,762,762,762,761,761,761,761,761,761,769,767,766,766,764,764,764,766,766,766,766,771,773,773,773,773,773,767,767,767,766,766,769,767,766,766,767,767,767,769,769,769,769,769,769,771,769,769,769,769,771,769,769,771,773,771,771,771,771,769,769,773,773,773,773,773,773,773,773,771,771,771,769,769,769,769,771,771,771,771,771,771,769,767,767,767,771,771,773,774,776,776,776,776,774,774,774,774,774,774,774,774,774,776,776,776,776,776,780,780,780,780,780,781,778,778,776,776,776,774,774,776,776,774,774,774,774,774,774,776,780,780,780,780,780,780,781,781,781,783,785,785,783,781,781,780,780,780,780,780,785,785,785,785,785,783,780,780,781,781,781,781,778,778,780,780,780,780,780,780,780,780,781,781,781,781,781,781,787,789,790,792,792,794,794,794,796,798,802,805,807,809,811,811,813,833,829,829,831,833,856,860,862,864,867,869,871,873,878,880,882,885,889,894,896,898,903,906,908,908,913,918,920,925,928,930,933,935,935,938,938,938,940,943,946,948,951,954,956,956,959,959,0,0,0,0,0,1550,1550,1557,1557,1550,1550,1550,1550,1543,1543,1543,1536,1536,1536,1536,1536,1529,1529,1529,1523,1523,1516,1516,1516,1516,1509,1509,1503,1503,1503,1496,1496,1496,1496,1496,1489,1489,1489,1489,1489,1489,1483,1483,1477,1477,1470,1470,1470,1470,1470,1464,1464,1464,1464,1464,1464,1458,1452,1452,1452,1452,1445,1445,1445,1439,1439,1439,1439,1439,1439,1439,1439,1433,1433,1427,1427,1421,1421,1415,1415,1415,1410,1410,1410,1410,1410,1404,1404,1404,1404,1398,1398,1398,1398,1392,1392,1392,1387,1381,1381,1381,1376,1376,1376,1376,1376,1376,1376,1370,1370,1370,1370,1370,1365,1359,1359,1359,1354,1354,1354,1354,1349,1349,1349,1343,1343,1338,1338,1333,1333,1333,1333,1333,1333,1333,1333,1328,1328,1328,1328,1322,1317,1317,1312,1312,1312,1312,1307,1307,1307,1307,1307,1302,1302,1302,1302,1302,1297,1292,1292,1292,1292,1292,1288,1288,1283,1283,1283,1278,1278,1273,1273,1273,1273,1268,1268,1268,1268,1264,1259,1259,1259,1255,1255,1255,1255,1250,1250,1250,1250,1250,1250,1245,1241,1241,1236,1236,1236,1236,1236,1236,1232,1232,1232,1232,1232,1227,1223,1223,1223,1219,1219,1219,1219,1219,1219,1214,1214,1214,1210,1210,1210,1206,1206,1206,1206,1202,1202,1202,1202,1197,1197,1197,1197,1193,1193,1193,1189,1189,1185,1185,1185,1181,1181,1181,1181,1181,1181,1181,1177,1177,1173,1173,1173,1173,1169,1169,1169,1169,1165,1165,0,0,0,0,0,0,0,0,0,0,0,0,0,0,0,0,0,0,0,0,0,0,0,0,0,0,0,0,0,0,0
0,0,0,0,0,0,0,0,0,0,0,0,0,0,0,0,0,0,0,0,851,851,851,845,843,843,841,841,841,841,841,839,839,839,796,796,794,794,792,787,787,787,787,785,783,781,781,780,780,776,774,774,773,771,771,769,769,767,766,766,764,762,762,762,762,761,761,759,757,757,757,757,755,755,755,757,755,755,759,759,761,761,759,759,759,759,757,757,759,759,759,761,762,761,761,761,761,762,762,762,761,761,761,759,759,757,757,757,757,755,755,757,762,762,762,762,762,761,761,761,757,757,759,764,761,761,762,764,764,764,764,762,762,762,761,761,761,762,762,766,766,766,766,767,767,767,767,766,766,767,767,767,767,766,766,764,764,762,762,762,761,761,766,767,769,769,767,767,771,771,767,766,764,764,767,766,766,767,767,769,771,769,767,766,766,766,766,766,766,766,769,767,767,774,774,773,773,773,773,774,773,773,774,774,774,774,774,774,774,774,774,776,776,778,776,774,774,773,773,774,773,773,773,774,773,773,771,771,771,771,769,769,773,778,778,778,776,774,774,774,774,778,781,780,780,776,774,774,773,773,773,773,774,774,774,776,781,776,776,778,778,778,776,776,778,778,778,778,778,778,778,778,778,780,780,781,781,781,781,783,785,789,790,792,792,794,794,796,798,802,803,807,809,811,845,843,841,841,843,843,847,856,860,864,867,867,869,871,873,878,880,887,889,894,896,896,898,903,906,908,910,913,918,923,925,930,930,935,935,935,938,938,940,943,943,946,948,951,954,956,959,959,959,0,0,0,0,0,1550,1550,1557,1557,1557,1550,1550,1550,1543,1543,1543,1543,1543,1536,1536,1536,1536,1529,1529,1523,1523,1516,1516,1516,1516,1509,1509,1503,1503,1503,1503,1496,1496,1496,1496,1489,1489,1489,1489,1489,1489,1483,1483,1477,1477,1470,1470,1470,1470,1470,1464,1464,1464,1464,1464,1464,1458,1458,1452,1452,1452,1445,1445,1445,1445,1439,1439,1439,1439,1439,1439,1439,1433,1433,1427,1427,1427,1421,1415,1415,1415,1415,1415,1410,1410,1410,1404,1404,1404,1404,1398,1398,1398,1398,1392,1392,1392,1387,1387,1387,1381,1381,1381,1376,1376,1376,1376,1376,1376,1370,1370,1370,1370,1365,1365,1359,1359,1359,1354,1354,1354,1349,1349,1349,1343,1343,1338,1338,1338,1338,1333,1333,1333,1333,1333,1333,1328,1328,1328,1328,1322,1322,1317,1312,1312,1312,1312,1312,1307,1307,1307,1307,1307,1302,1302,1302,1302,1297,1292,1292,1292,1292,1292,1288,1288,1288,1283,1283,1283,1278,1273,1273,1273,1273,1268,1268,1268,1268,1264,1264,1259,1259,1259,1255,1255,1255,1255,1255,1250,1250,1250,1250,1245,1245,1241,1241,1236,1236,1236,1236,1236,1236,1232,1232,1232,1232,1227,1227,1223,1223,1219,1219,1219,1219,1219,1219,1214,1214,1214,1210,1210,1210,1206,1206,1206,1206,1202,1202,1202,1202,1197,1197,1197,1193,1193,1193,1193,1189,1189,1185,1185,1185,1185,1181,1181,1181,1181,1181,1181,1177,1177,1177,1173,1173,1173,1169,1169,1169,1169,1165,1165,0,0,0,0,0,0,0,0,0,0,0,0,0,0,0,0,0,0,0,0,0,0,0,0,0,0,0,0,0,0,0
0,0,0,0,0,0,0,0,0,0,0,0,0,0,0,0,0,0,0,0,851,851,849,849,849,843,843,841,841,841,841,839,839,839,839,837,794,794,792,787,785,785,785,783,783,781,781,780,780,776,774,773,773,771,771,769,769,767,766,764,764,761,759,757,757,757,755,755,754,754,754,754,754,752,752,752,750,750,750,752,752,752,754,755,755,755,755,755,755,755,755,755,759,759,759,759,759,759,759,759,757,757,757,755,755,755,754,754,754,754,754,757,759,759,761,761,761,759,759,757,755,754,754,754,754,755,757,761,761,761,761,761,761,759,759,759,759,761,761,761,761,762,762,762,762,762,764,762,762,762,762,762,762,761,761,762,755,755,757,757,757,757,757,764,762,762,764,764,764,764,761,761,761,761,761,761,761,761,761,761,761,762,762,762,762,762,762,764,764,764,764,762,762,762,769,769,771,771,771,773,773,773,773,773,773,771,771,771,771,773,773,771,771,771,773,771,771,769,769,773,773,773,773,773,771,771,769,767,767,766,764,762,762,767,771,767,766,766,766,771,771,769,769,771,773,773,769,767,767,769,769,767,767,771,771,771,773,773,773,773,774,774,774,774,776,776,776,776,776,774,774,776,776,776,776,778,780,781,781,783,783,787,789,790,792,792,794,796,798,802,803,807,809,811,845,843,843,843,845,849,851,856,860,864,867,867,869,871,873,878,882,887,889,894,896,898,898,903,906,908,910,915,920,923,928,930,933,935,935,938,938,938,940,943,943,946,948,951,954,956,959,959,962,0,0,0,0,0,1550,1550,1557,1557,1557,1550,1550,1550,1550,1543,1543,1543,1543,1536,1536,1536,1536,1529,1529,1523,1523,1523,1516,1516,1516,1516,1509,1509,1509,1503,1503,1496,1496,1496,1496,1496,1489,1489,1489,1489,1489,1483,1483,1477,1477,1477,1470,1470,1470,1470,1470,1464,1464,1464,1464,1464,1464,1458,1458,1458,1452,1452,1445,1445,1445,1445,1439,1439,1439,1439,1439,1439,1439,1433,1433,1427,1427,1421,1421,1415,1415,1415,1415,1415,1410,1410,1410,1410,1404,1404,1404,1398,1398,1398,1392,1392,1392,1387,1387,1387,1387,1387,1381,1376,1376,1376,1376,1376,1376,1376,1370,1370,1370,1370,1365,1365,1359,1359,1354,1354,1354,1354,1349,1349,1349,1343,1343,1338,1338,1338,1338,1338,1333,1333,1333,1333,1333,1328,1328,1328,1322,1322,1317,1317,1312,1312,1312,1312,1312,1307,1307,1307,1307,1307,1302,1302,1302,1302,1297,1292,1292,1292,1292,1288,1288,1288,1288,1288,1283,1283,1278,1273,1273,1273,1268,1268,1268,1268,1264,1264,1264,1259,1259,1255,1255,1255,1255,1255,1250,1250,1250,1250,1245,1245,1241,1241,1241,1236,1236,1236,1236,1236,1232,1232,1232,1232,1227,1227,1223,1223,1223,1223,1219,1219,1219,1219,1219,1219,1214,1214,1214,1214,1210,1210,1206,1206,1206,1202,1202,1202,1197,1197,1197,1193,1193,1193,1193,1189,1189,1189,1185,1185,1185,1185,1181,1181,1181,1181,1181,1177,1177,1177,1173,1173,1173,1173,1169,1169,1169,1165,1165,0,0,0,0,0,0,0,0,0,0,0,0,0,0,0,0,0,0,0,0,0,0,0,0,0,0,0,0,0,0,0
0,0,0,0,0,0,0,0,0,0,0,0,0,0,0,0,0,0,0,0,851,851,849,849,849,843,843,841,841,841,841,841,841,841,839,837,835,835,833,831,785,785,785,783,783,781,781,780,780,776,774,773,773,771,771,769,769,767,766,762,762,759,759,757,755,754,754,754,754,754,752,752,752,749,749,749,747,747,747,747,747,749,749,754,754,754,754,754,754,752,752,754,755,757,757,755,755,754,754,754,754,754,752,752,752,754,752,752,752,752,752,752,754,754,759,757,755,754,754,755,752,752,752,752,752,752,752,752,752,754,755,755,757,757,757,757,757,757,757,757,757,757,757,759,759,759,759,759,759,759,759,759,759,757,755,755,755,755,757,757,757,757,757,757,757,759,757,755,755,761,759,759,759,759,759,757,757,757,757,755,755,757,757,759,759,759,761,761,761,762,761,761,761,761,761,761,761,762,769,771,771,771,771,769,767,767,769,769,769,767,767,767,767,767,767,767,767,767,766,766,769,771,767,767,769,769,766,764,764,762,762,762,762,761,761,766,764,764,762,762,762,761,761,761,764,766,767,766,766,766,766,767,767,766,766,769,769,771,771,771,771,771,773,773,773,774,773,773,774,773,773,774,774,774,776,778,780,780,781,781,783,785,787,789,790,792,794,796,800,802,803,807,809,845,845,845,845,845,847,849,851,854,860,864,867,867,869,871,875,880,882,887,891,894,896,898,901,903,908,910,915,918,920,923,928,933,933,935,938,938,938,940,943,943,946,948,951,954,956,959,959,962,962,0,0,0,0,0,1557,1557,1564,1557,1557,1557,1550,1550,1550,1543,1543,1543,1543,1543,1536,1536,1536,1529,1529,1523,1523,1523,1523,1516,1516,1516,1516,1509,1509,1509,1503,1503,1496,1496,1496,1496,1489,1489,1489,1489,1489,1489,1483,1483,1483,1477,1477,1470,1470,1470,1470,1464,1464,1464,1464,1464,1464,1458,1458,1458,1452,1452,1445,1445,1445,1445,1445,1439,1439,1439,1439,1439,1439,1433,1433,1427,1427,1421,1421,1415,1415,1415,1415,1415,1415,1410,1410,1410,1410,1404,1404,1404,1398,1398,1398,1392,1392,1392,1392,1387,1387,1387,1387,1381,1376,1376,1376,1376,1376,1376,1370,1370,1370,1370,1365,1365,1365,1359,1354,1354,1354,1354,1349,1349,1349,1349,1343,1343,1343,1338,1338,1338,1333,1333,1333,1333,1333,1333,1328,1328,1328,1322,1322,1317,1317,1312,1312,1312,1312,1312,1307,1307,1307,1307,1307,1302,1302,1302,1297,1292,1292,1292,1292,1288,1288,1288,1288,1288,1283,1283,1278,1273,1273,1273,1268,1268,1268,1268,1264,1264,1264,1264,1259,1255,1255,1255,1255,1255,1250,1250,1250,1250,1250,1245,1245,1241,1241,1241,1236,1236,1236,1236,1232,1232,1232,1232,1232,1227,1223,1223,1223,1223,1219,1219,1219,1219,1219,1219,1214,1214,1214,1214,1210,1210,1210,1206,1206,1206,1202,1202,1197,1197,1197,1193,1193,1193,1193,1193,1189,1189,1189,1185,1185,1185,1185,1181,1181,1181,1181,1177,1177,1177,1173,1173,1173,1173,1169,1169,1169,1169,1169,0,0,0,0,0,0,0,0,0,0,0,0,0,0,0,0,0,0,0,0,0,0,0,0,0,0,0,0,0,0,0
0,0,0,0,0,0,0,0,0,0,0,0,0,0,0,0,0,0,0,0,0,851,849,849,847,843,843,843,841,841,841,841,841,841,839,837,835,835,835,831,831,787,785,783,781,780,780,780,776,774,774,773,773,771,771,769,769,767,766,762,762,759,759,757,755,754,754,752,752,752,750,750,750,747,747,747,746,746,746,747,747,749,749,752,752,752,752,752,752,749,749,750,755,757,757,755,752,750,750,749,749,750,750,750,750,750,750,750,750,750,750,750,750,752,752,752,750,749,749,749,750,750,749,749,750,749,746,746,750,750,752,754,754,754,754,754,754,755,755,755,754,754,752,752,757,757,757,755,755,755,754,749,749,754,752,752,752,754,754,754,755,755,755,754,754,754,755,754,754,754,755,755,755,755,755,755,754,754,754,754,754,754,754,754,755,757,757,757,757,759,759,759,755,755,759,757,757,754,754,754,755,755,764,766,766,766,766,766,767,766,766,766,766,764,764,764,764,762,761,761,766,769,766,766,766,764,762,761,761,761,761,761,761,761,761,762,762,762,761,761,761,761,761,761,761,761,766,764,762,762,764,766,766,764,764,767,767,769,769,769,771,769,769,771,769,769,771,773,773,773,773,773,773,773,774,776,778,780,780,781,783,785,787,789,790,792,794,798,800,803,803,841,841,843,843,845,845,847,847,849,851,854,862,864,867,869,869,871,875,880,882,887,891,894,898,901,903,906,908,910,915,918,920,923,930,935,935,938,938,938,940,940,943,943,946,948,951,954,956,959,959,962,962,967,0,0,0,0,1557,1557,1564,1564,1557,1557,1550,1550,1550,1543,1543,1543,1543,1543,1543,1536,1536,1536,1529,1523,1523,1523,1523,1523,1523,1516,1516,1516,1516,1509,1509,1503,1503,1496,1496,1496,1496,1496,1489,1489,1489,1489,1489,1483,1483,1477,1477,1477,1470,1470,1470,1464,1464,1464,1464,1464,1464,1464,1458,1458,1452,1452,1445,1445,1445,1445,1445,1439,1439,1439,1439,1439,1439,1433,1433,1427,1427,1427,1421,1421,1421,1415,1415,1415,1415,1415,1410,1410,1410,1410,1404,1404,1398,1398,1398,1398,1392,1392,1392,1392,1387,1387,1387,1381,1376,1376,1376,1376,1376,1376,1376,1370,1370,1370,1370,1370,1365,1359,1359,1354,1354,1354,1354,1354,1349,1349,1349,1343,1343,1343,1338,1338,1338,1333,1333,1333,1333,1333,1328,1328,1328,1322,1322,1317,1317,1317,1312,1312,1312,1312,1307,1307,1307,1307,1307,1307,1302,1302,1297,1292,1292,1292,1292,1288,1288,1288,1288,1288,1283,1283,1278,1278,1273,1273,1273,1273,1268,1268,1268,1264,1264,1264,1259,1259,1255,1255,1255,1255,1255,1250,1250,1250,1250,1245,1245,1241,1241,1241,1236,1236,1236,1236,1236,1232,1232,1232,1232,1227,1227,1227,1223,1223,1223,1219,1219,1219,1219,1219,1219,1214,1214,1214,1210,1210,1210,1206,1206,1206,1202,1202,1197,1197,1197,1193,1193,1193,1193,1193,1193,1189,1189,1189,1185,1185,1185,1185,1181,1181,1181,1181,1181,1177,1173,1173,1173,1173,1169,1169,1169,1169,1169,0,0,0,0,0,0,0,0,0,0,0,0,0,0,0,0,0,0,0,0,0,0,0,0,0,0,0,0,0,0,0
0,0,0,0,0,0,0,0,0,0,0,0,0,0,0,0,0,0,0,0,851,851,851,849,847,845,843,843,843,841,841,841,841,841,839,839,837,835,833,831,829,829,827,783,781,780,780,778,776,774,774,773,773,771,771,769,767,767,764,762,761,759,757,755,754,754,752,752,752,750,750,749,746,746,746,746,744,744,744,744,746,746,747,749,749,750,750,750,741,741,738,734,734,734,742,742,742,747,747,749,749,749,749,749,749,749,749,749,749,749,749,749,749,747,747,747,742,742,746,746,750,749,747,747,746,746,742,742,744,747,747,749,749,752,752,750,750,749,749,749,749,749,749,749,749,752,752,750,750,752,749,749,747,747,749,750,750,752,752,752,752,754,754,754,752,752,754,752,752,752,752,752,754,754,754,754,752,752,752,752,754,752,752,752,755,755,755,755,755,757,757,754,754,754,754,754,752,752,752,752,749,749,749,749,750,750,755,754,754,764,764,762,759,759,755,755,759,759,757,757,757,757,757,761,762,762,761,759,759,761,761,761,761,761,761,761,761,761,759,759,759,759,759,759,759,759,762,761,761,761,761,761,762,759,759,761,762,769,761,761,766,761,761,762,762,764,764,766,767,767,769,773,773,773,774,774,776,778,780,781,783,785,787,789,790,792,794,796,800,803,803,841,841,843,843,845,845,847,849,849,851,854,862,864,867,869,871,873,875,880,882,889,891,896,898,903,903,906,910,913,915,918,918,920,928,935,935,940,943,943,943,943,943,946,946,948,951,954,956,959,959,962,964,967,0,0,0,0,0,1564,1564,1564,1557,1557,1550,1550,1550,1543,1543,1543,1543,1543,1543,1536,1536,1536,1536,1523,1523,1523,1523,1523,1523,1516,1516,1516,1516,1509,1509,1509,1503,1503,1496,1496,1496,1496,1489,1489,1489,1489,1489,1483,1483,1477,1477,1477,1477,1470,1470,1470,1470,1470,1464,1464,1464,1464,1458,1458,1452,1452,1452,1445,1445,1445,1445,1445,1439,1439,1439,1439,1439,1439,1433,1433,1427,1427,1421,1421,1421,1421,1421,1415,1415,1415,1410,1410,1410,1410,1404,1404,1404,1398,1398,1398,1392,1392,1392,1392,1392,1392,1387,1381,1381,1381,1376,1376,1376,1376,1376,1370,1370,1370,1370,1370,1365,1359,1359,1354,1354,1354,1354,1354,1349,1349,1349,1349,1343,1343,1338,1338,1338,1333,1333,1333,1333,1333,1328,1328,1328,1328,1322,1322,1317,1317,1317,1312,1312,1312,1312,1307,1307,1307,1307,1307,1307,1302,1297,1297,1292,1292,1292,1292,1288,1288,1288,1288,1283,1283,1278,1278,1273,1273,1273,1273,1273,1268,1268,1268,1268,1268,1264,1259,1259,1255,1255,1255,1255,1250,1250,1250,1250,1245,1245,1245,1241,1241,1241,1241,1241,1236,1236,1236,1232,1232,1232,1232,1227,1227,1227,1223,1223,1219,1219,1219,1219,1219,1219,1214,1214,1214,1214,1210,1210,1210,1206,1206,1202,1202,1197,1197,1197,1197,1193,1193,1193,1193,1193,1193,1193,1189,1189,1185,1185,1185,1185,1181,1181,1181,1181,1181,1177,1177,1177,1177,1173,1169,1169,1169,1169,0,0,0,0,0,0,0,0,0,0,0,0,0,0,0,0,0,0,0,0,0,0,0,0,0,0,0,0,0,0,0
0,0,0,0,0,0,0,0,0,0,0,0,0,0,0,0,0,0,0,0,851,851,851,849,847,845,843,843,843,841,841,843,843,841,841,839,835,835,833,831,829,829,827,825,781,781,780,776,774,774,774,773,773,771,771,769,767,766,764,762,761,759,757,755,754,754,752,752,752,750,750,749,746,744,744,742,742,741,741,741,742,742,742,744,746,746,744,741,736,736,736,733,733,734,734,736,739,741,746,747,747,747,747,747,747,747,747,747,749,747,747,747,747,746,742,741,739,739,739,739,741,742,742,742,742,742,741,741,741,742,742,744,744,747,747,746,742,742,744,744,744,746,746,746,747,747,747,747,747,747,747,747,746,746,747,747,747,750,750,750,750,750,752,752,750,750,752,750,750,750,750,750,750,750,752,752,750,750,750,750,750,749,749,749,754,752,752,750,750,754,752,750,750,750,750,749,749,749,749,749,747,747,747,749,749,749,749,749,749,749,754,754,752,752,750,750,752,752,749,749,747,747,757,757,757,759,759,759,759,761,761,759,759,759,759,759,757,757,755,755,755,757,757,757,757,757,761,761,761,759,759,759,759,755,754,754,762,759,757,757,759,755,755,755,759,759,761,762,764,766,767,769,769,771,773,774,776,778,780,781,783,785,787,790,792,792,792,796,823,829,831,833,839,843,843,845,845,847,849,849,851,854,864,867,869,871,871,875,878,882,885,889,891,896,898,903,906,908,910,913,915,918,918,920,923,938,943,943,943,943,946,946,946,948,948,948,951,954,956,959,962,962,970,970,0,0,0,0,0,1564,1564,1564,1564,1557,1550,1550,1550,1550,1543,1543,1543,1543,1543,1543,1543,1536,1536,1536,1523,1523,1523,1523,1523,1516,1516,1516,1516,1509,1509,1509,1503,1503,1503,1496,1496,1496,1489,1489,1489,1489,1489,1489,1483,1483,1483,1483,1477,1477,1477,1470,1470,1470,1464,1464,1464,1464,1464,1458,1452,1452,1452,1445,1445,1445,1445,1445,1439,1439,1439,1439,1439,1439,1433,1433,1427,1427,1421,1421,1421,1421,1421,1421,1415,1415,1415,1415,1410,1410,1410,1410,1404,1398,1398,1398,1398,1392,1392,1392,1392,1392,1392,1387,1381,1381,1376,1376,1376,1376,1376,1370,1370,1370,1370,1370,1365,1365,1359,1359,1354,1354,1354,1354,1349,1349,1349,1349,1349,1343,1343,1338,1338,1338,1333,1333,1333,1333,1328,1328,1328,1328,1328,1322,1322,1317,1317,1317,1312,1312,1312,1312,1307,1307,1307,1307,1307,1302,1297,1297,1292,1292,1292,1292,1288,1288,1288,1288,1288,1283,1283,1278,1278,1273,1273,1273,1273,1268,1268,1268,1268,1268,1268,1264,1264,1259,1255,1255,1255,1250,1250,1250,1250,1250,1250,1245,1245,1245,1245,1245,1241,1241,1236,1236,1232,1232,1232,1232,1227,1227,1227,1223,1223,1223,1219,1219,1219,1219,1219,1219,1214,1214,1214,1214,1210,1210,1206,1206,1202,1202,1197,1197,1197,1197,1197,1193,1193,1193,1193,1193,1193,1189,1189,1185,1185,1185,1185,1181,1181,1181,1181,1181,1177,1177,1177,1177,1173,1169,1169,1169,1169,0,0,0,0,0,0,0,0,0,0,0,0,0,0,0,0,0,0,0,0,0,0,0,0,0,0,0,0,0,0,0
0,0,0,0,0,0,0,0,0,0,0,0,0,0,0,0,0,0,0,0,0,851,851,849,847,845,843,843,843,843,843,843,843,843,841,839,835,835,831,831,829,829,827,825,825,825,823,776,774,774,773,773,773,771,771,767,766,766,764,762,761,759,757,755,754,754,752,752,752,750,749,749,746,742,742,742,742,741,739,739,738,738,736,736,741,741,734,734,734,734,734,731,731,731,731,733,734,739,739,739,739,739,739,741,734,734,736,747,746,741,741,742,744,739,739,739,736,736,738,738,734,734,739,739,739,739,741,741,741,741,741,742,741,741,742,739,739,739,738,738,736,736,744,744,744,744,744,744,747,746,746,746,744,744,746,744,742,742,747,747,747,749,749,750,749,749,752,750,750,749,749,749,749,749,747,747,749,747,747,747,746,746,746,742,742,746,746,747,747,749,749,747,747,747,747,747,747,747,747,747,746,746,746,747,747,746,746,747,747,747,747,747,747,747,749,749,749,749,747,747,747,746,746,747,747,747,757,757,759,761,759,759,757,755,755,754,752,752,752,752,752,752,752,752,752,754,757,757,759,757,755,754,754,754,750,747,747,747,752,752,755,754,754,755,757,757,759,761,762,766,766,767,769,769,771,773,774,776,778,781,783,787,787,789,790,792,792,821,823,829,831,833,839,841,843,845,845,847,849,849,851,854,862,867,869,871,873,875,878,882,887,889,891,896,901,903,906,906,908,913,915,915,918,920,923,943,946,946,946,946,946,946,948,948,948,951,954,956,959,959,962,962,970,970,0,0,0,0,0,1572,1572,1572,1564,1557,1557,1550,1550,1550,1550,1543,1543,1543,1543,1543,1543,1543,1536,1536,1529,1529,1523,1523,1523,1523,1516,1516,1516,1516,1509,1509,1509,1503,1503,1496,1496,1496,1496,1489,1489,1489,1489,1489,1489,1483,1483,1483,1483,1477,1477,1470,1470,1470,1464,1464,1464,1464,1464,1464,1452,1452,1452,1445,1445,1445,1445,1445,1445,1439,1439,1439,1439,1439,1439,1433,1433,1427,1427,1421,1421,1421,1421,1421,1415,1415,1415,1415,1410,1410,1410,1410,1404,1404,1398,1398,1398,1398,1398,1392,1392,1392,1392,1387,1387,1381,1381,1376,1376,1376,1376,1376,1376,1370,1370,1370,1370,1365,1365,1359,1354,1354,1354,1354,1354,1349,1349,1349,1349,1349,1343,1338,1338,1338,1333,1333,1333,1333,1333,1328,1328,1328,1328,1322,1322,1322,1322,1317,1317,1312,1312,1312,1307,1307,1307,1307,1307,1302,1297,1297,1297,1297,1292,1292,1292,1288,1288,1288,1288,1288,1283,1278,1278,1273,1273,1273,1273,1268,1268,1268,1268,1268,1268,1264,1264,1259,1259,1259,1255,1250,1250,1250,1250,1250,1250,1250,1245,1245,1245,1245,1245,1241,1236,1236,1236,1232,1232,1232,1227,1227,1227,1227,1223,1223,1223,1223,1223,1219,1219,1219,1214,1214,1214,1214,1210,1210,1206,1206,1202,1202,1202,1197,1197,1197,1197,1197,1197,1197,1193,1193,1193,1189,1189,1185,1185,1185,1185,1185,1181,1181,1181,1181,1177,1177,1177,1177,1173,1173,1169,1169,1169,0,0,0,0,0,0,0,0,0,0,0,0,0,0,0,0,0,0,0,0,0,0,0,0,0,0,0,0,0,0,0
0,0,0,0,0,0,0,0,0,0,0,0,0,0,0,0,0,0,0,0,0,851,851,849,847,845,843,843,843,843,843,843,843,843,841,839,835,835,831,831,829,829,827,825,825,825,823,774,774,774,773,773,773,773,811,767,766,766,764,762,761,759,757,755,754,754,752,752,752,750,749,746,746,742,742,742,741,741,739,738,736,736,734,734,734,733,733,733,733,731,731,730,728,728,730,730,728,728,738,738,738,738,739,738,734,730,730,734,744,739,733,730,730,739,738,734,734,734,736,733,733,731,731,733,734,734,736,738,738,738,738,741,739,739,736,736,734,734,734,734,734,734,734,734,738,738,738,738,739,741,739,739,742,741,741,741,741,741,742,742,744,744,744,746,746,749,749,747,744,744,746,746,746,746,744,744,746,744,742,742,742,742,742,741,741,741,742,742,744,744,746,746,746,746,744,744,746,746,746,744,744,744,746,746,744,744,744,746,746,746,746,746,746,746,746,746,746,747,746,746,746,746,746,746,746,742,742,747,747,747,749,759,757,752,752,750,750,749,749,749,749,749,749,749,749,747,747,749,757,754,749,747,747,747,747,746,746,746,747,749,754,754,754,755,755,755,757,759,761,764,766,767,769,769,771,773,774,776,778,781,783,787,787,789,790,821,821,821,823,829,831,833,839,841,843,845,847,849,849,851,851,854,860,867,869,873,875,878,880,882,887,891,891,898,901,903,906,906,908,910,913,915,915,918,946,946,946,946,946,946,946,946,948,948,951,951,954,956,959,962,964,964,970,970,0,0,0,0,0,1572,1572,1572,1564,1557,1557,1557,1550,1550,1550,1550,1550,1543,1543,1543,1543,1543,1536,1536,1529,1529,1523,1523,1523,1523,1523,1516,1516,1516,1509,1509,1509,1503,1503,1496,1496,1496,1496,1496,1489,1489,1489,1489,1489,1483,1483,1483,1483,1477,1477,1470,1470,1470,1464,1464,1464,1464,1464,1464,1458,1452,1452,1452,1445,1445,1445,1445,1445,1445,1445,1439,1439,1439,1439,1433,1433,1433,1427,1427,1421,1421,1421,1421,1421,1415,1415,1415,1410,1410,1410,1410,1404,1404,1398,1398,1398,1398,1398,1392,1392,1392,1392,1392,1387,1387,1381,1376,1376,1376,1376,1376,1376,1370,1370,1370,1370,1370,1365,1359,1359,1354,1354,1354,1354,1354,1349,1349,1349,1349,1343,1338,1338,1338,1333,1333,1333,1333,1333,1328,1328,1328,1328,1322,1322,1322,1322,1317,1317,1317,1312,1312,1312,1307,1307,1307,1307,1302,1297,1297,1297,1297,1292,1292,1292,1288,1288,1288,1288,1288,1283,1283,1278,1278,1273,1273,1273,1273,1268,1268,1268,1268,1268,1268,1268,1264,1259,1259,1255,1250,1250,1250,1250,1250,1250,1250,1250,1245,1245,1245,1245,1241,1236,1236,1236,1232,1232,1232,1227,1227,1227,1227,1223,1223,1223,1223,1223,1219,1219,1219,1219,1214,1214,1214,1214,1210,1210,1206,1202,1202,1202,1197,1197,1197,1197,1197,1197,1197,1197,1193,1193,1193,1189,1189,1189,1185,1185,1185,1181,1181,1181,1181,1181,1181,1177,1177,1173,1173,1169,1169,1169,1173,0,0,0,0,0,0,0,0,0,0,0,0,0,0,0,0,0,0,0,0,0,0,0,0,0,0,0,0,0,0
0,0,0,0,0,0,0,0,0,0,0,0,0,0,0,0,0,0,0,0,0,851,851,849,847,845,845,845,843,843,843,843,843,843,841,841,835,835,833,833,831,829,827,825,825,825,823,774,774,774,774,813,811,811,811,809,807,807,764,762,761,759,759,755,754,754,752,752,752,750,749,746,746,742,741,741,741,741,739,738,736,734,733,733,733,733,731,730,728,728,728,728,728,728,728,728,728,728,736,736,736,736,736,736,731,728,728,728,728,728,728,728,728,730,734,733,733,733,733,731,730,730,730,730,730,730,733,734,734,734,734,734,733,731,731,731,730,730,730,733,733,733,733,734,734,734,734,733,733,734,736,736,736,736,736,738,738,734,734,738,738,739,739,741,739,739,741,741,738,738,734,734,734,734,734,741,741,741,739,739,741,741,741,739,739,739,741,741,742,742,741,741,742,742,741,741,742,742,744,744,742,742,742,744,744,742,742,744,744,742,742,741,741,744,742,742,742,744,742,742,742,744,744,744,744,742,742,744,742,742,742,742,742,744,744,744,744,746,744,744,744,744,744,744,746,744,742,742,742,742,746,746,746,744,744,741,741,742,742,746,747,752,752,754,754,755,757,759,761,762,766,767,769,771,771,773,774,774,778,781,783,787,787,819,819,821,821,823,825,829,833,835,839,841,843,847,847,849,851,851,854,856,860,867,869,873,875,878,880,885,887,891,891,898,903,906,906,906,908,910,910,910,913,918,951,948,948,948,948,948,948,948,948,948,951,954,956,959,959,962,964,967,970,970,0,0,0,0,0,1572,1572,1572,1564,1564,1564,1557,1557,1550,1550,1550,1550,1543,1543,1543,1543,1543,1543,1536,1529,1529,1529,1523,1523,1523,1523,1516,1516,1516,1516,1516,1509,1509,1503,1503,1496,1496,1496,1496,1489,1489,1489,1489,1489,1483,1483,1483,1483,1477,1477,1470,1470,1470,1470,1464,1464,1464,1464,1464,1458,1452,1452,1452,1445,1445,1445,1445,1445,1445,1445,1439,1439,1439,1439,1433,1433,1433,1427,1427,1421,1421,1421,1421,1421,1415,1415,1415,1410,1410,1410,1410,1404,1404,1404,1398,1398,1398,1398,1398,1392,1392,1392,1392,1387,1387,1381,1381,1376,1376,1376,1376,1376,1376,1370,1370,1370,1370,1365,1359,1359,1354,1354,1354,1354,1354,1354,1349,1349,1349,1349,1343,1338,1338,1338,1333,1333,1333,1333,1333,1328,1328,1328,1322,1322,1322,1322,1317,1317,1317,1317,1312,1312,1312,1307,1307,1307,1302,1302,1302,1297,1297,1292,1292,1292,1292,1288,1288,1288,1288,1288,1288,1283,1278,1278,1273,1273,1273,1268,1268,1268,1268,1268,1268,1268,1264,1264,1259,1255,1255,1250,1250,1250,1250,1250,1250,1250,1245,1245,1245,1245,1241,1236,1236,1236,1232,1232,1232,1232,1227,1227,1227,1223,1223,1223,1219,1219,1219,1219,1219,1214,1214,1214,1214,1214,1210,1210,1210,1206,1202,1202,1202,1197,1197,1197,1197,1197,1197,1197,1197,1197,1197,1189,1189,1189,1185,1185,1185,1185,1181,1181,1181,1181,1181,1181,1177,1177,1173,1173,1173,1173,1173,0,0,0,0,0,0,0,0,0,0,0,0,0,0,0,0,0,0,0,0,0,0,0,0,0,0,0,0,0,0
0,0,0,0,0,0,0,0,0,0,0,0,0,0,0,0,0,0,0,0,0,0,858,851,847,845,845,845,845,843,843,845,845,845,843,841,841,835,833,833,831,829,827,827,825,825,825,823,823,817,815,813,811,811,809,809,807,805,805,762,762,759,759,757,755,754,752,752,752,750,749,746,746,744,741,741,741,739,739,738,736,734,733,733,733,731,731,728,728,728,728,727,727,725,725,727,727,728,736,736,736,736,730,730,728,727,727,725,725,725,725,725,723,722,722,727,730,730,730,728,728,728,728,728,728,728,730,730,731,731,731,730,728,728,728,728,728,728,728,730,730,731,733,733,734,734,734,733,733,733,734,734,733,733,733,734,733,730,730,733,734,734,734,734,734,733,733,734,734,734,733,733,733,733,733,733,738,738,738,738,739,739,739,738,738,738,738,739,739,739,739,739,739,739,739,739,739,739,739,741,741,739,739,739,739,739,739,741,739,739,738,738,739,738,738,741,741,741,741,741,741,741,741,741,741,741,741,742,739,739,739,739,739,741,741,741,741,741,742,742,741,741,742,742,742,742,741,741,741,741,741,739,739,741,739,739,739,741,741,742,746,749,752,752,754,754,755,759,761,762,766,767,769,771,773,773,773,774,778,811,813,815,817,817,817,821,821,823,827,829,833,835,837,839,843,845,847,849,851,851,854,858,862,869,871,875,878,880,882,887,889,891,894,898,903,906,906,906,908,910,910,910,913,956,954,954,951,951,948,948,948,948,948,951,951,954,956,959,962,962,964,967,970,970,0,0,0,0,0,1572,1564,1564,1572,1564,1564,1557,1557,1550,1550,1550,1550,1550,1543,1543,1543,1543,1543,1536,1536,1529,1529,1523,1523,1523,1523,1516,1516,1516,1516,1516,1509,1509,1503,1503,1496,1496,1496,1496,1496,1489,1489,1489,1489,1489,1489,1483,1483,1483,1477,1477,1477,1470,1470,1464,1464,1464,1464,1464,1464,1458,1452,1452,1445,1445,1445,1445,1445,1445,1445,1445,1439,1439,1439,1433,1433,1433,1427,1427,1427,1421,1421,1421,1421,1415,1415,1415,1415,1410,1410,1410,1404,1404,1404,1398,1398,1398,1398,1398,1392,1392,1392,1392,1392,1387,1387,1381,1376,1376,1376,1376,1376,1376,1376,1370,1370,1370,1365,1365,1359,1354,1354,1354,1354,1354,1354,1354,1349,1349,1349,1343,1343,1343,1343,1333,1333,1333,1333,1333,1328,1328,1328,1328,1328,1322,1322,1322,1317,1317,1317,1312,1312,1312,1307,1307,1307,1302,1302,1302,1297,1297,1297,1292,1292,1292,1288,1288,1288,1288,1288,1288,1283,1278,1278,1278,1273,1273,1273,1273,1268,1268,1268,1268,1268,1264,1264,1259,1255,1255,1255,1255,1250,1250,1250,1250,1250,1245,1245,1245,1245,1241,1236,1236,1236,1232,1232,1232,1232,1227,1227,1227,1223,1223,1223,1219,1219,1219,1219,1219,1214,1214,1214,1214,1214,1210,1210,1210,1206,1202,1202,1202,1202,1202,1202,1197,1197,1197,1197,1197,1197,1197,1193,1189,1189,1185,1185,1185,1185,1185,1185,1181,1181,1181,1181,1181,1177,1177,1084,1084,1177,1177,0,0,0,0,0,0,0,0,0,0,0,0,0,0,0,0,0,0,0,0,0,0,0,0,0,0,0,0,0,0
0,0,0,0,0,0,0,0,0,0,0,0,0,0,0,0,0,0,0,0,0,0,858,856,851,851,849,849,845,845,845,845,845,845,843,843,841,835,835,833,833,831,829,827,827,825,825,823,823,819,817,815,811,811,809,809,807,805,803,803,762,761,759,757,755,754,754,752,752,750,749,746,746,744,741,741,741,739,739,738,736,734,733,733,731,731,730,728,727,727,727,727,725,723,723,723,723,725,738,738,738,733,727,725,725,725,723,722,722,723,723,723,722,720,720,722,723,725,725,723,723,727,727,727,727,728,728,728,730,728,728,728,727,727,727,727,727,725,725,725,727,725,725,727,727,731,728,727,727,728,730,730,730,730,730,730,731,730,730,731,731,730,730,731,733,731,731,731,731,731,731,730,730,731,730,730,731,731,731,733,733,736,736,736,736,736,736,734,734,734,734,736,734,734,734,734,734,734,734,736,736,733,733,734,734,734,734,734,734,736,734,734,734,734,733,733,733,739,739,739,739,739,739,739,738,738,739,739,738,738,738,738,738,739,739,739,739,741,741,741,741,741,741,741,742,741,741,741,739,738,738,736,736,739,738,738,739,739,741,741,744,747,750,752,754,754,755,759,761,762,764,767,769,771,773,773,773,774,809,811,811,815,817,817,817,821,823,823,829,831,833,835,837,839,843,845,847,849,851,851,856,858,862,869,871,875,878,880,882,887,889,891,894,898,901,903,906,906,908,910,910,910,956,956,956,956,954,954,951,948,948,948,951,951,954,956,956,959,962,962,964,967,973,973,0,0,0,0,0,1572,1564,1564,1572,1564,1564,1564,1557,1557,1550,1550,1550,1550,1543,1543,1543,1543,1543,1536,1536,1529,1529,1523,1523,1523,1516,1516,1516,1516,1516,1516,1509,1509,1503,1503,1496,1496,1496,1496,1496,1489,1489,1489,1489,1489,1489,1489,1489,1483,1483,1477,1477,1470,1470,1470,1464,1464,1464,1464,1464,1458,1452,1452,1452,1445,1445,1445,1445,1445,1445,1445,1445,1439,1439,1439,1433,1433,1427,1427,1427,1421,1421,1421,1421,1421,1415,1415,1415,1415,1410,1410,1404,1404,1404,1398,1398,1398,1398,1398,1398,1398,1392,1392,1392,1392,1387,1381,1376,1376,1376,1376,1376,1376,1376,1376,1370,1370,1365,1365,1359,1354,1354,1354,1354,1354,1354,1354,1349,1349,1349,1349,1349,1343,1343,1338,1338,1333,1333,1333,1333,1328,1328,1328,1328,1322,1322,1322,1322,1317,1317,1312,1312,1312,1307,1307,1307,1307,1302,1302,1297,1297,1297,1292,1292,1292,1288,1288,1288,1288,1288,1283,1283,1278,1278,1278,1273,1273,1273,1273,1268,1268,1268,1268,1268,1264,1264,1259,1255,1255,1255,1255,1255,1250,1250,1250,1250,1250,1250,1245,1245,1241,1241,1236,1236,1236,1232,1232,1232,1232,1227,1227,1227,1223,1223,1223,1223,1219,1219,1219,1219,1214,1214,1214,1214,1210,1210,1210,1206,1202,1202,1202,1202,1202,1202,1197,1197,1197,1197,1197,1197,1197,1193,1189,1189,1185,1185,1185,1185,1185,1185,1181,1181,1181,1181,1181,1090,1084,1084,1084,1177,0,0,0,0,0,0,0,0,0,0,0,0,0,0,0,0,0,0,0,0,0,0,0,0,0,0,0,0,0,0,0
0,0,0,0,0,0,0,0,0,0,0,0,0,0,0,0,0,0,0,0,0,0,0,858,856,856,851,851,849,849,847,847,845,845,845,845,841,837,837,835,835,831,829,827,827,827,825,823,823,819,817,815,811,811,809,809,807,805,803,803,803,803,759,757,755,752,752,752,752,750,747,746,746,744,741,741,739,739,738,738,736,734,733,733,731,730,728,728,727,725,725,723,723,722,722,720,720,719,717,717,716,716,723,722,722,723,722,722,722,720,720,720,720,720,720,722,722,723,723,723,723,725,725,725,725,725,725,725,725,723,723,725,725,725,725,725,725,723,723,723,723,723,722,722,719,719,722,720,720,720,722,728,727,727,728,728,730,728,728,730,730,728,728,728,728,727,725,725,728,728,728,728,728,728,728,728,728,728,730,730,733,733,733,733,734,734,734,733,733,733,733,733,733,733,733,733,733,733,733,731,731,731,730,730,733,733,731,731,731,733,733,733,731,731,730,730,731,733,734,733,733,738,738,728,728,733,736,734,733,733,734,734,736,736,736,738,738,739,739,739,739,739,739,739,741,739,739,738,736,734,734,734,736,738,738,738,739,739,741,741,744,747,749,750,752,754,755,757,759,761,764,766,769,769,773,773,773,807,809,809,811,813,817,817,819,821,823,825,831,833,833,835,837,841,843,845,849,851,854,854,856,860,862,869,873,875,880,880,885,887,891,891,894,898,901,903,906,906,908,910,913,913,959,959,959,956,956,954,951,951,951,951,951,954,954,956,956,959,962,964,967,970,973,975,0,0,0,0,0,1564,1564,1564,1572,1572,1564,1564,1564,1557,1557,1550,1550,1550,1550,1543,1543,1543,1543,1543,1536,1529,1529,1523,1523,1523,1516,1516,1516,1516,1516,1516,1509,1509,1503,1503,1503,1496,1496,1496,1496,1496,1496,1489,1489,1489,1489,1489,1489,1483,1483,1477,1477,1470,1470,1470,1470,1470,1464,1464,1464,1464,1452,1452,1452,1445,1445,1445,1445,1445,1445,1445,1445,1445,1439,1439,1433,1433,1427,1427,1427,1421,1421,1421,1421,1421,1415,1415,1415,1415,1410,1410,1410,1404,1404,1398,1398,1398,1398,1398,1398,1398,1392,1392,1392,1392,1387,1381,1376,1376,1376,1376,1376,1376,1376,1376,1370,1370,1370,1365,1365,1359,1354,1354,1354,1354,1354,1354,1354,1349,1349,1349,1349,1349,1349,1343,1338,1338,1333,1333,1333,1328,1328,1328,1328,1328,1328,1322,1322,1317,1317,1317,1312,1312,1312,1312,1307,1307,1302,1302,1302,1297,1297,1292,1292,1292,1292,1292,1288,1288,1288,1283,1283,1283,1278,1278,1278,1273,1273,1273,1273,1273,1268,1268,1268,1264,1264,1259,1259,1255,1255,1255,1255,1250,1250,1250,1250,1250,1250,1245,1245,1245,1241,1236,1236,1236,1232,1232,1232,1232,1232,1227,1227,1227,1227,1223,1223,1223,1219,1219,1219,1219,1219,1214,1214,1214,1214,1210,1206,1206,1202,1202,1202,1202,1202,1202,1202,1197,1197,1197,1197,1197,1193,1189,1189,1189,1185,1185,1185,1185,1185,1181,1181,1181,1084,1084,1084,1080,1080,1080,0,0,0,0,0,0,0,0,0,0,0,0,0,0,0,0,0,0,0,0,0,0,0,0,0,0,0,0,0,0,0,0
0,0,0,0,0,0,0,0,0,0,0,0,0,0,0,0,0,0,0,0,0,0,0,0,856,856,854,851,851,849,847,847,847,847,847,845,841,841,839,839,837,833,831,829,827,827,825,823,823,823,817,815,813,811,809,809,807,805,803,803,803,803,803,803,755,752,752,752,752,749,746,746,744,742,741,739,739,739,738,738,734,733,733,731,731,730,728,727,725,723,723,723,722,722,719,719,717,717,716,716,716,716,714,714,716,717,722,720,720,720,719,719,719,719,719,719,720,720,722,720,720,722,723,723,723,722,722,722,722,722,722,722,722,722,723,723,723,722,722,722,722,722,720,717,717,717,717,717,716,716,717,727,723,723,725,725,727,728,728,727,727,727,723,723,725,725,725,725,725,725,727,727,727,727,727,727,727,727,727,728,731,731,731,731,731,731,731,730,730,730,728,727,727,728,730,731,731,730,730,730,730,728,727,727,728,728,728,728,728,730,730,728,728,728,728,728,728,727,727,728,723,723,723,723,722,722,722,731,731,731,731,733,733,731,731,731,736,734,734,738,738,738,739,739,741,738,736,734,731,731,733,733,733,734,736,736,739,739,741,742,744,746,749,750,752,754,755,757,759,761,762,766,769,769,803,803,803,807,809,809,811,813,817,817,819,821,823,827,831,833,833,835,837,841,843,847,849,851,854,854,858,860,862,869,873,875,880,882,885,889,891,891,894,898,901,903,906,906,908,910,967,962,962,962,959,959,956,956,954,951,951,951,954,954,956,956,959,959,962,964,967,970,973,975,978,0,0,0,0,1564,1564,1564,1572,1572,1572,1564,1564,1564,1557,1550,1550,1550,1550,1543,1543,1543,1543,1543,1536,1536,1529,1529,1523,1523,1523,1516,1516,1516,1516,1516,1516,1516,1509,1503,1503,1503,1496,1496,1496,1496,1496,1489,1489,1489,1489,1489,1489,1483,1483,1477,1477,1470,1470,1470,1470,1470,1464,1464,1464,1464,1458,1452,1452,1445,1445,1445,1445,1445,1445,1445,1445,1445,1439,1439,1433,1433,1427,1427,1427,1421,1421,1421,1421,1421,1415,1415,1415,1415,1415,1410,1410,1404,1404,1398,1398,1398,1398,1398,1398,1398,1392,1392,1392,1392,1392,1387,1381,1381,1376,1376,1376,1376,1376,1376,1376,1370,1370,1370,1365,1365,1359,1354,1354,1354,1354,1354,1354,1349,1349,1349,1349,1349,1349,1343,1343,1338,1333,1333,1333,1333,1328,1328,1328,1328,1328,1322,1322,1322,1317,1317,1312,1312,1312,1312,1307,1307,1302,1302,1302,1297,1297,1292,1292,1292,1292,1292,1288,1288,1288,1288,1288,1283,1283,1278,1278,1273,1273,1273,1273,1273,1268,1268,1268,1264,1264,1264,1259,1259,1255,1255,1255,1255,1250,1250,1250,1250,1250,1245,1245,1241,1241,1236,1236,1236,1236,1236,1236,1232,1232,1232,1227,1227,1227,1223,1223,1223,1223,1219,1219,1219,1219,1214,1214,1214,1214,1210,1210,1206,1206,1202,1202,1202,1202,1202,1202,1202,1202,1197,1197,1197,1193,1193,1193,1189,1185,1185,1185,1185,1185,1181,1181,1080,1080,1080,1084,1080,1080,1080,0,0,0,0,0,0,0,0,0,0,0,0,0,0,0,0,0,0,0,0,0,0,0,0,0,0,0,0,0,0,0,0
0,0,0,0,0,0,0,0,0,0,0,0,0,0,0,0,0,0,0,0,0,0,0,0,0,856,854,854,851,849,847,847,847,847,847,847,847,845,841,839,837,835,833,833,831,827,825,825,823,823,819,815,813,811,809,809,807,805,803,802,802,802,802,802,800,794,792,752,752,749,746,744,742,741,741,739,739,739,738,738,734,733,733,731,731,730,728,727,725,723,723,722,722,720,719,717,717,716,716,714,714,713,713,713,713,713,714,716,716,716,717,717,719,717,716,716,719,719,720,719,719,720,720,722,722,720,720,720,719,717,716,716,719,719,720,720,720,720,720,720,720,720,719,716,716,716,716,716,714,714,714,716,716,716,716,717,719,720,722,722,722,717,717,719,722,722,722,720,720,722,723,722,720,719,719,723,725,723,723,727,728,728,728,728,727,723,723,725,725,725,725,725,725,725,727,728,728,727,727,727,727,727,725,725,727,727,725,725,725,727,727,727,725,725,727,727,727,727,725,723,722,722,722,722,722,720,720,720,722,723,725,728,728,727,723,723,722,722,722,738,738,738,739,739,738,733,730,730,730,730,731,731,733,734,734,734,738,739,741,742,744,746,749,750,752,754,755,759,759,761,762,766,769,796,802,803,803,805,807,809,811,813,817,819,819,821,825,827,831,833,833,835,837,841,845,849,851,856,856,858,860,860,862,867,871,875,880,882,885,889,889,891,894,898,903,906,906,908,908,970,967,964,964,962,962,959,959,956,956,954,954,954,954,956,956,956,959,959,962,964,967,970,973,975,978,0,0,0,0,0,1572,1572,1572,1572,1572,1564,1564,1564,1557,1557,1550,1550,1550,1550,1550,1543,1543,1543,1536,1536,1536,1529,1523,1523,1523,1523,1523,1516,1516,1516,1516,1516,1509,1509,1503,1503,1503,1496,1496,1496,1496,1496,1489,1489,1489,1489,1489,1483,1483,1477,1477,1470,1470,1470,1470,1470,1470,1464,1464,1464,1464,1452,1452,1445,1445,1445,1445,1445,1445,1445,1445,1445,1439,1439,1433,1433,1427,1427,1427,1421,1421,1421,1421,1421,1415,1415,1415,1415,1415,1410,1410,1404,1404,1404,1398,1398,1398,1398,1398,1398,1392,1392,1392,1392,1392,1392,1387,1381,1381,1376,1376,1376,1376,1376,1376,1370,1370,1370,1365,1365,1359,1354,1354,1354,1354,1354,1354,1354,1349,1349,1349,1349,1349,1349,1343,1338,1338,1338,1333,1333,1328,1328,1328,1328,1328,1322,1322,1322,1322,1317,1312,1312,1312,1312,1307,1307,1307,1307,1302,1302,1297,1292,1292,1292,1292,1292,1288,1288,1288,1288,1288,1283,1283,1283,1278,1273,1273,1273,1273,1273,1273,1268,1268,1268,1264,1264,1259,1259,1255,1255,1255,1255,1255,1250,1250,1250,1250,1245,1245,1241,1241,1236,1236,1236,1236,1236,1236,1236,1232,1232,1232,1227,1227,1223,1223,1223,1223,1223,1219,1219,1219,1214,1214,1214,1214,1214,1210,1210,1206,1206,1206,1202,1202,1202,1202,1202,1202,1197,1197,1197,1197,1193,1193,1189,1189,1185,1185,1185,1185,1185,1181,1080,1080,1080,1080,1080,1077,1077,0,0,0,0,0,0,0,0,0,0,0,0,0,0,0,0,0,0,0,0,0,0,0,0,0,0,0,0,0,0,0,0
0,0,0,0,0,0,0,0,0,0,0,0,0,0,0,0,0,0,0,0,0,0,0,0,860,858,854,854,851,849,849,849,849,849,849,847,847,847,841,841,839,839,833,833,831,827,827,825,825,825,823,819,815,813,811,811,809,805,803,800,798,798,798,796,794,792,790,790,790,789,746,744,741,741,741,739,739,739,738,736,734,734,733,733,731,730,728,727,725,723,722,722,722,720,719,717,716,716,714,714,713,711,711,711,711,713,713,713,714,714,716,716,716,716,716,716,716,717,716,716,716,716,717,717,719,717,717,717,716,716,714,714,714,714,716,716,716,716,716,716,717,717,713,713,713,713,714,713,713,713,713,713,713,713,713,713,711,711,714,711,711,714,714,716,716,719,719,719,719,719,719,719,716,716,716,716,716,716,717,719,719,720,720,720,720,722,722,722,722,722,722,722,720,720,720,720,719,719,722,723,723,723,723,723,725,725,723,722,722,725,725,723,723,723,725,727,723,723,723,722,722,720,720,720,720,719,719,719,720,722,722,722,722,722,722,722,722,720,720,720,720,720,722,738,738,728,728,728,730,730,731,731,733,733,734,734,736,738,741,742,744,747,749,750,752,754,757,759,759,761,796,796,796,796,798,802,802,803,807,809,811,813,817,819,819,821,825,829,831,833,835,837,839,843,845,849,851,856,858,858,860,862,864,867,871,875,880,882,885,887,889,891,894,898,903,906,908,908,908,970,967,967,967,964,964,962,959,956,956,956,956,956,956,956,956,959,959,962,964,967,970,973,975,978,978,0,0,0,0,0,1572,1572,1572,1572,1572,1564,1564,1564,1557,1557,1557,1550,1550,1550,1550,1550,1543,1543,1543,1536,1536,1536,1529,1523,1523,1523,1523,1523,1523,1516,1516,1516,1516,1509,1509,1509,1503,1503,1496,1496,1496,1496,1496,1489,1489,1489,1489,1483,1483,1477,1477,1470,1470,1470,1470,1470,1470,1464,1464,1464,1464,1458,1452,1452,1445,1445,1445,1445,1445,1445,1445,1445,1445,1439,1439,1433,1433,1427,1427,1427,1421,1421,1421,1421,1421,1421,1415,1415,1415,1415,1410,1404,1404,1404,1398,1398,1398,1398,1398,1398,1392,1392,1392,1392,1392,1392,1387,1381,1381,1376,1376,1376,1376,1376,1370,1370,1370,1370,1365,1365,1359,1359,1359,1354,1354,1354,1354,1354,1354,1354,1349,1349,1349,1349,1343,1343,1338,1338,1333,1333,1328,1328,1328,1328,1328,1328,1322,1322,1322,1317,1317,1312,1312,1312,1307,1307,1307,1307,1307,1302,1297,1297,1292,1292,1292,1292,1288,1288,1288,1288,1288,1288,1283,1283,1283,1278,1278,1278,1273,1273,1273,1268,1268,1268,1264,1264,1264,1259,1259,1259,1255,1255,1255,1255,1250,1250,1250,1250,1250,1245,1241,1241,1241,1236,1236,1236,1236,1236,1232,1232,1232,1232,1232,1227,1227,1227,1223,1223,1219,1219,1219,1219,1214,1214,1214,1214,1210,1210,1210,1206,1206,1206,1206,1202,1202,1202,1202,1202,1197,1197,1197,1193,1193,1189,1189,1189,1185,1185,1185,1080,1080,1080,1080,1080,1080,1077,1077,1077,0,0,0,0,0,0,0,0,0,0,0,0,0,0,0,0,0,0,0,0,0,0,0,0,0,0,0,0,0,0,0,0
0,0,0,0,0,0,0,0,0,0,0,0,0,0,0,0,0,0,0,0,0,0,0,0,860,858,856,856,854,851,851,849,849,849,849,849,849,847,845,843,841,839,837,837,835,831,827,825,825,825,823,821,819,817,813,813,811,811,803,800,798,798,798,796,794,792,790,790,790,789,789,789,741,741,781,739,739,739,738,734,734,733,733,731,730,728,727,725,723,723,722,722,722,719,717,716,716,714,714,713,713,711,710,710,710,710,710,713,711,711,713,713,711,711,710,710,710,714,714,714,714,714,714,714,716,714,714,714,713,713,711,711,713,713,713,711,711,711,710,710,710,711,711,711,713,713,711,711,711,713,713,711,711,710,710,710,708,708,710,710,710,710,711,710,708,708,708,714,714,714,714,716,714,714,714,714,713,713,714,714,714,714,719,719,719,720,720,720,720,719,719,719,719,719,719,719,717,717,719,722,722,722,723,723,723,722,722,720,720,722,722,722,722,722,723,725,722,720,720,720,720,719,719,719,720,717,716,716,716,716,720,719,719,722,720,720,720,719,719,719,717,717,717,717,719,720,723,727,727,728,730,731,731,733,734,734,736,738,741,742,746,747,749,750,754,755,757,761,761,761,787,792,794,796,798,800,802,803,805,807,811,813,817,819,819,823,825,829,831,833,835,837,839,843,845,851,854,856,858,860,860,862,864,869,873,875,878,882,882,887,889,889,894,898,903,906,908,910,970,970,967,967,967,964,964,962,959,959,956,956,956,956,956,956,959,959,959,962,967,967,970,973,975,978,978,0,0,0,0,0,1572,1572,1572,1572,1572,1572,1564,1564,1557,1557,1557,1550,1550,1550,1550,1550,1543,1543,1543,1536,1536,1536,1529,1529,1529,1523,1523,1523,1523,1516,1516,1516,1516,1509,1509,1509,1503,1503,1496,1496,1496,1496,1496,1489,1489,1489,1489,1489,1483,1483,1483,1477,1477,1470,1470,1470,1470,1470,1464,1464,1464,1458,1458,1452,1452,1445,1445,1445,1445,1445,1445,1445,1445,1439,1439,1433,1433,1427,1427,1427,1427,1427,1421,1421,1421,1421,1415,1415,1415,1415,1410,1410,1404,1404,1398,1398,1398,1398,1398,1398,1398,1398,1392,1392,1392,1392,1392,1387,1381,1376,1376,1376,1376,1376,1370,1370,1370,1370,1370,1365,1365,1359,1359,1354,1354,1354,1354,1354,1354,1354,1349,1349,1349,1349,1349,1343,1338,1338,1333,1333,1333,1328,1328,1328,1328,1328,1328,1322,1322,1322,1317,1317,1312,1312,1307,1307,1307,1307,1307,1302,1302,1297,1297,1292,1292,1292,1292,1288,1288,1288,1288,1288,1283,1283,1283,1278,1278,1278,1273,1273,1273,1273,1268,1268,1264,1264,1264,1264,1259,1259,1255,1255,1255,1255,1250,1250,1250,1250,1250,1245,1241,1241,1241,1241,1236,1236,1236,1236,1236,1236,1232,1232,1232,1227,1227,1227,1223,1223,1219,1219,1219,1219,1214,1214,1214,1214,1214,1214,1210,1210,1210,1206,1206,1202,1202,1202,1202,1202,1197,1197,1197,1197,1197,1193,1189,1189,1185,1185,1080,1080,1080,1080,1080,1077,1077,1073,1073,1073,0,0,0,0,0,0,0,0,0,0,0,0,0,0,0,0,0,0,0,0,0,0,0,0,0,0,0,0,0,0,0,0
0,0,0,0,0,0,0,0,0,0,0,0,0,0,0,0,0,0,0,0,0,0,0,0,860,858,858,856,856,851,851,851,849,849,851,849,849,849,847,845,843,841,839,839,835,831,829,827,827,825,823,821,819,819,817,815,811,811,803,802,802,800,800,800,796,794,792,790,789,789,787,787,783,781,781,780,780,780,778,734,734,733,733,731,730,728,727,725,723,723,722,722,720,719,717,716,716,714,714,713,711,711,710,708,708,708,708,708,710,710,708,708,708,708,707,706,701,701,700,700,713,713,713,713,711,711,711,710,710,710,710,710,710,710,710,710,710,710,708,708,710,708,708,708,710,711,710,710,710,710,710,710,708,707,707,707,707,707,708,707,707,708,710,708,708,707,707,710,710,710,711,711,713,711,711,711,711,711,711,711,710,708,708,708,708,708,714,714,716,716,716,711,711,714,714,714,714,714,714,714,717,719,720,717,717,716,716,717,713,713,713,716,719,719,722,719,719,719,716,716,716,716,716,716,716,714,714,713,713,713,717,719,719,719,719,719,719,717,717,717,716,716,716,716,717,719,720,722,723,727,728,730,731,733,734,734,738,739,741,742,746,747,749,750,754,757,759,780,783,785,787,792,794,794,798,800,802,803,805,807,811,813,817,819,819,823,827,829,831,833,835,837,841,845,847,851,854,856,858,860,860,862,867,869,873,878,878,882,882,887,887,889,894,898,0,0,0,0,970,970,970,967,967,967,964,962,959,959,956,956,956,956,956,956,959,959,959,962,967,970,970,973,975,978,978,0,0,0,0,0,1572,1572,1572,1572,1572,1572,1572,1564,1564,1564,1557,1557,1550,1550,1550,1550,1543,1543,1543,1543,1536,1536,1536,1529,1529,1523,1523,1523,1523,1523,1523,1516,1516,1516,1509,1509,1503,1503,1503,1496,1496,1496,1496,1489,1489,1489,1489,1489,1483,1483,1483,1477,1477,1470,1470,1470,1470,1470,1470,1464,1464,1458,1458,1452,1452,1452,1452,1452,1452,1452,1445,1445,1445,1439,1439,1433,1433,1427,1427,1427,1427,1427,1421,1421,1421,1421,1421,1415,1415,1415,1410,1410,1410,1410,1404,1398,1398,1398,1398,1398,1398,1398,1398,1392,1392,1392,1392,1387,1381,1376,1376,1376,1376,1376,1376,1370,1370,1370,1370,1370,1365,1365,1359,1359,1359,1354,1354,1354,1354,1354,1349,1349,1349,1349,1349,1343,1343,1338,1333,1333,1333,1328,1328,1328,1328,1328,1328,1322,1322,1322,1317,1317,1312,1312,1312,1312,1307,1307,1307,1302,1302,1297,1297,1297,1297,1292,1292,1292,1288,1288,1288,1288,1283,1283,1283,1278,1278,1278,1273,1273,1273,1273,1268,1268,1264,1264,1264,1264,1259,1259,1255,1255,1255,1255,1255,1250,1250,1250,1250,1245,1245,1241,1241,1241,1241,1236,1236,1236,1236,1236,1236,1232,1232,1232,1232,1227,1227,1223,1219,1219,1219,1219,1214,1214,1214,1214,1214,1214,1214,1210,1210,1210,1206,1202,1202,1202,1202,1202,1202,1202,1197,1197,1197,1193,1193,1189,1185,1084,1080,1080,1080,1080,1080,1077,1077,1073,1070,1070,0,0,0,0,0,0,0,0,0,0,0,0,0,0,0,0,0,0,0,0,0,0,0,0,0,0,0,0,0,0,0,0
0,0,0,0,0,0,0,0,0,0,0,0,0,0,0,0,0,0,0,0,0,0,0,0,860,858,858,858,856,854,854,851,851,851,851,849,849,849,847,845,843,843,841,839,835,833,829,827,827,825,823,821,821,819,819,817,813,811,805,802,802,802,802,802,796,794,792,790,789,789,787,787,783,781,781,780,780,780,776,734,733,731,731,730,730,730,727,727,725,723,722,722,720,719,717,716,716,714,714,713,711,711,708,708,707,707,707,707,707,707,707,706,706,703,701,701,700,698,698,697,694,694,697,697,703,704,706,706,706,706,706,708,707,707,707,707,707,707,704,704,707,704,704,706,706,708,707,707,707,707,707,707,706,706,706,704,704,704,706,706,706,706,707,707,706,706,706,706,708,708,708,710,711,711,711,710,710,710,710,708,708,706,706,706,707,707,707,706,706,706,708,708,708,707,707,708,708,708,708,710,706,706,708,710,707,707,707,707,710,710,710,710,711,719,722,714,714,713,713,711,711,713,714,714,714,714,711,711,711,711,713,716,716,717,717,717,717,716,716,716,716,716,716,716,717,719,720,722,723,725,728,730,731,733,734,734,738,739,741,744,746,747,749,750,754,778,780,780,783,785,789,790,794,794,798,800,802,803,805,807,811,813,817,819,821,823,827,829,831,833,835,837,843,847,849,851,854,858,858,860,862,864,867,869,871,878,878,882,882,887,887,889,0,0,0,0,0,0,970,970,970,970,967,967,964,964,959,959,959,956,956,956,956,956,959,959,962,962,967,970,973,975,975,978,978,0,0,0,0,0,1572,1572,1572,1572,1572,1572,1572,1564,1564,1564,1557,1557,1550,1550,1550,1550,1543,1543,1543,1543,1543,1543,1536,1529,1529,1529,1529,1523,1523,1523,1523,1516,1516,1516,1516,1509,1503,1503,1503,1496,1496,1496,1496,1489,1489,1489,1489,1489,1483,1483,1483,1477,1477,1477,1470,1470,1470,1470,1470,1464,1464,1464,1458,1452,1452,1452,1452,1452,1452,1452,1452,1445,1445,1439,1439,1433,1433,1433,1433,1427,1427,1427,1427,1421,1421,1421,1421,1421,1415,1415,1415,1410,1410,1410,1404,1404,1404,1398,1398,1398,1398,1398,1398,1392,1392,1392,1392,1387,1387,1381,1376,1376,1376,1376,1376,1376,1370,1370,1370,1370,1365,1365,1359,1359,1359,1354,1354,1354,1354,1354,1349,1349,1349,1349,1349,1343,1343,1338,1333,1333,1333,1333,1328,1328,1328,1328,1328,1328,1322,1322,1322,1317,1317,1312,1312,1312,1312,1307,1307,1307,1302,1302,1302,1297,1297,1297,1292,1292,1292,1288,1288,1288,1288,1283,1283,1278,1278,1278,1273,1273,1273,1273,1268,1268,1268,1268,1264,1264,1259,1259,1259,1255,1255,1255,1255,1250,1250,1250,1250,1250,1245,1241,1241,1241,1241,1241,1236,1236,1236,1236,1236,1232,1232,1232,1232,1227,1227,1223,1219,1219,1219,1219,1219,1219,1219,1214,1214,1214,1214,1210,1210,1210,1206,1202,1202,1202,1202,1202,1197,1197,1197,1197,1197,1197,1197,1090,1090,1084,1080,1080,1080,1077,1077,1077,1073,1073,1070,1070,0,0,0,0,0,0,0,0,0,0,0,0,0,0,0,0,0,0,0,0,0,0,0,0,0,0,0,0,0,0,0,0
0,0,0,0,0,0,0,0,0,0,0,0,0,0,0,0,0,0,0,0,0,0,0,0,0,860,858,858,858,856,854,851,851,851,851,851,851,851,847,847,845,843,841,839,837,835,833,829,827,825,825,823,821,821,819,819,817,813,805,803,803,803,802,802,802,796,792,790,789,787,787,787,783,781,781,780,780,778,776,774,733,731,731,730,730,730,728,728,725,725,722,722,722,719,717,717,716,714,714,713,711,710,708,707,707,707,706,706,706,704,704,703,701,700,700,700,698,698,697,697,694,694,694,694,694,697,698,698,703,703,703,704,704,704,704,704,704,703,701,700,700,703,703,703,704,704,704,704,704,704,704,704,703,703,704,704,703,703,704,706,706,706,706,706,704,704,704,704,704,704,706,706,708,708,710,710,708,708,708,708,708,706,704,701,701,703,706,704,704,704,704,706,706,706,706,706,706,707,707,706,704,704,704,706,706,706,706,706,708,708,708,708,708,708,707,707,713,711,710,708,708,710,710,711,711,711,711,711,710,708,708,708,708,717,717,717,716,714,714,714,716,716,716,716,717,717,719,720,722,725,728,730,731,733,734,734,738,739,742,744,746,747,749,752,778,778,780,781,785,787,789,790,794,794,798,800,802,803,807,807,811,815,817,819,821,823,827,829,831,833,837,839,843,847,849,854,856,858,860,860,862,862,867,869,871,875,878,885,885,887,0,0,0,0,0,0,0,0,973,970,970,970,967,967,967,964,962,959,959,959,959,956,956,959,959,959,962,964,967,970,973,975,978,978,978,0,0,0,0,0,1579,1579,1572,1572,1572,1572,1572,1572,1564,1564,1564,1557,1550,1550,1550,1550,1550,1543,1543,1543,1543,1543,1543,1536,1536,1529,1529,1523,1523,1523,1523,1516,1516,1516,1516,1509,1509,1503,1503,1503,1496,1496,1496,1489,1489,1489,1489,1489,1489,1483,1483,1483,1483,1477,1470,1470,1470,1470,1470,1470,1464,1464,1458,1458,1458,1452,1452,1452,1452,1452,1452,1452,1445,1445,1439,1439,1439,1433,1433,1433,1433,1427,1427,1421,1421,1421,1421,1421,1421,1415,1415,1415,1415,1410,1410,1404,1404,1398,1398,1398,1398,1398,1398,1392,1392,1392,1392,1387,1387,1381,1381,1376,1376,1376,1376,1376,1370,1370,1370,1370,1365,1365,1359,1359,1359,1354,1354,1354,1354,1354,1349,1349,1349,1349,1349,1349,1343,1343,1338,1333,1333,1333,1328,1328,1328,1328,1328,1322,1322,1322,1317,1317,1317,1312,1312,1312,1312,1312,1307,1307,1307,1307,1302,1302,1297,1297,1292,1292,1292,1288,1288,1288,1288,1288,1283,1278,1278,1278,1273,1273,1273,1273,1268,1268,1268,1268,1264,1264,1264,1259,1259,1255,1255,1255,1255,1250,1250,1250,1250,1250,1245,1241,1241,1241,1241,1241,1241,1236,1236,1236,1236,1232,1232,1232,1232,1227,1227,1223,1223,1219,1219,1219,1219,1219,1219,1219,1214,1214,1214,1210,1210,1210,1206,1202,1202,1202,1202,1202,1197,1197,1197,1197,1197,1197,1094,1090,1090,1084,1084,1080,1080,1077,1077,1077,1073,1070,1067,1067,0,0,0,0,0,0,0,0,0,0,0,0,0,0,0,0,0,0,0,0,0,0,0,0,0,0,0,0,0,0,0,0
0,0,0,0,0,0,0,0,0,0,0,0,0,0,0,0,0,0,0,0,0,0,0,0,0,860,860,860,858,856,854,854,851,851,851,851,851,851,849,849,845,845,841,839,837,835,833,831,827,825,825,823,821,821,819,819,817,817,813,807,805,803,803,803,802,798,796,792,789,787,787,787,783,783,781,781,780,778,776,774,773,771,731,731,730,728,728,728,725,725,723,722,720,719,717,717,716,714,714,713,711,710,708,707,706,706,704,704,704,703,701,700,698,698,697,696,696,696,697,694,693,693,693,693,693,696,696,697,698,698,698,698,701,701,701,701,701,701,700,698,698,698,698,698,698,698,700,700,703,703,703,703,701,701,701,701,700,700,701,703,703,703,703,703,703,703,701,700,700,701,700,700,708,706,706,707,707,707,707,706,704,701,700,698,698,700,701,701,701,701,703,703,703,703,703,703,703,706,704,703,703,703,701,701,703,704,704,704,704,704,703,703,700,700,704,704,713,708,708,706,706,707,707,710,710,710,710,710,708,707,706,704,704,704,704,719,711,711,711,713,714,716,716,716,717,717,719,720,722,725,728,731,731,733,734,734,739,741,744,746,747,749,750,773,778,780,780,783,785,787,789,792,794,796,798,800,802,803,805,807,811,815,817,821,821,825,827,831,833,835,837,839,843,847,849,854,856,858,860,860,862,862,867,869,869,875,878,885,885,0,0,0,0,0,0,0,0,0,978,975,973,970,970,967,967,964,962,962,959,959,959,959,959,959,959,962,962,964,970,973,973,975,978,978,978,0,0,0,0,0,1579,1579,1572,1572,1572,1572,1572,1572,1564,1564,1564,1557,1557,1550,1550,1550,1543,1543,1543,1543,1543,1543,1543,1536,1536,1529,1529,1523,1523,1523,1523,1516,1516,1516,1516,1509,1509,1509,1503,1503,1496,1496,1496,1496,1489,1489,1489,1489,1489,1489,1483,1483,1483,1483,1477,1470,1470,1470,1470,1470,1464,1464,1464,1458,1458,1458,1458,1458,1458,1452,1452,1452,1445,1445,1445,1439,1439,1439,1433,1433,1433,1427,1427,1421,1421,1421,1421,1421,1421,1415,1415,1415,1415,1410,1410,1404,1404,1404,1398,1398,1398,1398,1398,1398,1392,1392,1392,1387,1387,1381,1381,1381,1381,1376,1376,1376,1370,1370,1370,1370,1370,1365,1365,1359,1359,1359,1354,1354,1354,1354,1354,1349,1349,1349,1349,1349,1343,1343,1338,1333,1333,1333,1333,1328,1328,1328,1328,1322,1322,1322,1317,1317,1317,1312,1312,1312,1312,1312,1307,1307,1307,1307,1307,1302,1302,1297,1292,1292,1292,1292,1288,1288,1288,1288,1283,1278,1278,1278,1273,1273,1273,1273,1268,1268,1268,1268,1264,1264,1264,1259,1259,1259,1255,1255,1255,1255,1250,1250,1250,1250,1245,1245,1245,1241,1241,1241,1241,1241,1236,1236,1236,1232,1232,1232,1232,1232,1227,1223,1223,1223,1219,1219,1219,1219,1219,1219,1219,1214,1214,1214,1210,1210,1206,1202,1202,1202,1202,1197,1197,1197,1197,1197,1197,1197,1094,1090,1087,1084,1084,1080,1080,1077,1077,1073,1070,1067,1067,1067,0,0,0,0,0,0,0,0,0,0,0,0,0,0,0,0,0,0,0,0,0,0,0,0,0,0,0,0,0,0,0,0
0,0,0,0,0,0,0,0,0,0,0,0,0,0,0,0,0,0,0,0,0,0,0,0,864,862,862,860,860,858,856,854,854,851,851,854,854,854,851,849,849,845,843,839,837,835,833,831,827,827,825,825,821,821,821,819,817,817,815,813,807,805,805,803,802,798,796,794,790,789,789,787,787,783,783,781,780,778,776,774,771,771,769,767,730,728,728,727,727,725,723,722,720,719,717,717,716,714,714,711,711,708,708,707,706,706,704,704,703,701,700,698,697,697,696,696,696,696,696,693,691,691,691,690,690,691,691,691,696,696,696,696,696,696,698,701,701,701,698,697,696,696,696,696,696,696,697,697,698,700,700,700,700,700,700,700,698,698,698,700,700,700,698,698,698,698,698,697,697,697,697,697,697,696,696,693,693,698,693,693,696,696,697,697,697,697,698,698,698,698,700,701,701,700,700,701,701,701,701,701,701,701,700,700,703,703,703,703,703,703,701,700,698,698,698,698,698,707,707,704,703,703,704,704,706,707,710,708,707,701,701,701,701,703,703,704,708,708,710,711,713,714,716,716,717,719,720,720,722,725,728,731,731,733,734,734,741,742,746,747,747,766,769,773,776,780,780,783,785,787,789,792,794,796,798,802,803,803,805,807,811,815,817,821,821,825,829,831,833,835,839,841,843,847,849,854,856,858,860,860,862,864,867,869,869,0,0,0,0,0,0,0,0,0,0,0,0,0,978,978,975,973,970,970,967,967,967,962,962,959,959,959,959,959,959,962,964,967,970,973,975,978,978,981,981,984,0,0,0,0,1579,1579,1579,1572,1572,1572,1572,1572,1572,1572,1564,1557,1550,1550,1550,1550,1543,1543,1543,1543,1543,1543,1543,1536,1536,1529,1529,1523,1523,1523,1523,1516,1516,1516,1516,1509,1509,1509,1503,1503,1503,1496,1496,1496,1489,1489,1489,1489,1489,1489,1483,1483,1483,1483,1477,1470,1470,1470,1470,1470,1464,1464,1464,1458,1458,1458,1458,1458,1458,1452,1452,1452,1452,1445,1439,1439,1439,1439,1439,1433,1433,1433,1427,1427,1421,1421,1421,1421,1421,1415,1415,1415,1415,1410,1410,1410,1404,1404,1398,1398,1398,1398,1398,1398,1398,1392,1392,1387,1387,1381,1381,1381,1381,1376,1376,1376,1376,1370,1370,1370,1370,1370,1365,1365,1359,1359,1359,1354,1354,1354,1354,1354,1349,1349,1349,1349,1343,1338,1338,1333,1333,1333,1333,1328,1328,1328,1328,1322,1322,1322,1322,1317,1317,1312,1312,1312,1312,1312,1307,1307,1307,1307,1307,1302,1302,1302,1292,1292,1292,1292,1288,1288,1288,1288,1283,1278,1278,1278,1278,1273,1273,1273,1273,1268,1268,1268,1264,1264,1264,1264,1259,1259,1255,1255,1255,1255,1250,1250,1250,1250,1245,1245,1245,1245,1241,1241,1241,1241,1236,1236,1236,1236,1232,1232,1232,1232,1227,1223,1223,1223,1219,1219,1219,1219,1219,1219,1219,1214,1214,1214,1210,1210,1206,1202,1202,1202,1202,1197,1193,1193,1197,1197,1197,1097,1094,1090,1087,1084,1084,1080,1077,1077,1077,1070,1067,1067,1067,1067,0,0,0,0,0,0,0,0,0,0,0,0,0,0,0,0,0,0,0,0,0,0,0,0,0,0,0,0,0,0,0,0
0,0,0,0,0,0,0,0,0,0,0,0,0,0,0,0,0,0,0,0,0,0,0,0,864,864,864,862,860,858,856,856,854,851,851,854,854,854,851,851,854,851,847,841,837,835,833,829,827,827,825,825,823,823,821,819,819,817,815,815,811,807,807,803,802,802,802,800,792,790,789,787,785,783,783,781,780,778,776,774,771,771,769,767,767,728,727,727,727,725,723,722,720,719,717,716,716,714,713,711,711,708,708,707,706,704,704,703,703,701,700,698,697,697,696,694,694,693,693,691,691,691,690,688,688,688,688,688,688,690,688,688,688,688,688,691,691,693,693,694,694,694,694,694,693,693,693,694,696,696,696,697,697,698,698,698,697,697,696,696,696,696,696,694,694,696,694,694,696,694,693,693,694,693,693,693,693,691,691,691,693,693,696,696,696,696,696,697,697,697,698,700,700,698,698,700,698,698,698,698,698,700,698,698,701,700,700,700,700,700,698,698,697,697,697,697,698,700,701,701,698,698,698,697,697,698,698,698,704,698,698,700,700,700,701,703,704,707,710,710,711,714,714,716,717,719,720,720,722,725,727,731,731,734,736,736,742,747,747,747,769,771,773,773,776,780,780,783,785,787,789,790,794,796,798,802,803,803,805,807,811,815,817,821,821,825,829,831,835,837,841,843,845,847,849,851,854,858,858,860,862,864,867,869,871,0,0,0,0,0,0,0,0,0,0,0,0,0,981,978,978,975,973,970,970,970,967,967,964,964,962,959,959,959,962,964,964,967,970,973,975,978,981,981,981,984,0,0,0,0,0,1579,1579,1572,1572,1572,1572,1572,1572,1564,1564,1557,1550,1550,1550,1550,1543,1543,1543,1543,1543,1543,1543,1536,1536,1529,1529,1523,1523,1523,1523,1516,1516,1516,1516,1509,1509,1509,1503,1503,1503,1496,1496,1496,1496,1489,1489,1489,1489,1489,1489,1483,1483,1483,1477,1477,1470,1470,1470,1470,1470,1464,1464,1464,1464,1458,1458,1458,1458,1458,1452,1452,1452,1445,1439,1439,1439,1439,1439,1433,1433,1433,1433,1427,1427,1421,1421,1421,1421,1415,1415,1415,1415,1415,1415,1410,1410,1404,1404,1404,1398,1398,1398,1398,1398,1398,1392,1392,1387,1387,1387,1387,1387,1376,1376,1376,1376,1370,1370,1370,1370,1365,1365,1365,1359,1359,1359,1354,1354,1354,1354,1354,1349,1349,1349,1349,1343,1338,1338,1333,1333,1333,1333,1333,1328,1328,1328,1328,1322,1322,1322,1317,1317,1312,1312,1312,1312,1312,1307,1307,1307,1307,1307,1302,1302,1302,1292,1292,1292,1292,1288,1288,1288,1288,1288,1283,1283,1278,1278,1273,1273,1273,1273,1268,1268,1268,1268,1268,1264,1264,1264,1259,1259,1255,1255,1255,1255,1255,1250,1250,1250,1245,1245,1245,1241,1241,1241,1236,1236,1236,1236,1236,1232,1232,1232,1232,1227,1223,1223,1223,1223,1219,1219,1219,1219,1219,1219,1219,1214,1214,1210,1210,1206,1202,1202,1202,1202,1197,1193,1193,1197,1097,1094,1094,1094,1090,1087,1087,1084,1080,1077,1077,1073,1070,1067,1067,1063,1063,0,0,0,0,0,0,0,0,0,0,0,0,0,0,0,0,0,0,0,0,0,0,0,0,0,0,0,0,0,0,0,0
0,0,0,0,0,0,0,0,0,0,0,0,0,0,0,0,0,0,0,0,0,0,0,869,867,864,864,862,860,860,858,856,854,854,854,854,854,856,856,858,856,856,856,854,837,835,833,829,827,827,827,825,823,823,821,819,819,817,815,815,813,809,807,805,805,805,803,803,798,794,789,787,785,783,783,781,780,778,776,774,773,771,769,767,767,767,727,727,727,723,722,720,719,717,716,714,713,713,711,711,710,708,708,707,706,704,704,703,701,701,700,698,698,697,696,694,694,693,693,691,690,690,688,688,687,687,687,687,687,687,686,686,686,686,684,684,687,688,690,690,691,691,691,693,691,691,690,688,687,687,687,687,688,688,688,688,694,693,691,691,691,691,691,691,691,691,691,691,691,691,691,691,691,693,693,691,691,691,690,690,690,690,693,693,691,691,693,693,693,694,696,697,697,697,698,697,697,697,697,696,696,698,697,697,697,697,697,697,697,698,697,697,694,694,694,694,694,694,697,697,698,697,697,694,694,693,693,693,694,697,697,698,698,700,701,703,703,706,708,710,711,713,714,716,717,719,720,722,722,725,727,731,731,733,736,736,757,757,764,767,771,771,774,774,776,780,781,783,785,787,789,790,794,796,800,802,803,803,805,807,813,817,817,821,823,827,829,831,835,837,841,843,845,847,849,851,854,856,858,860,860,860,867,0,0,0,0,0,0,1688,1680,1680,0,0,0,0,0,981,981,981,978,978,975,973,973,970,970,967,967,964,964,962,962,962,964,964,964,967,970,973,975,978,981,981,981,987,0,0,0,0,0,1579,1579,1572,1572,1572,1572,1572,1572,1564,1564,1557,1550,1550,1550,1550,1543,1543,1543,1543,1543,1543,1543,1536,1536,1529,1529,1523,1523,1523,1523,1516,1516,1516,1516,1509,1509,1509,1509,1509,1503,1503,1496,1496,1496,1489,1489,1489,1489,1489,1489,1489,1489,1483,1477,1477,1470,1470,1470,1470,1464,1464,1464,1464,1464,1458,1458,1458,1458,1458,1452,1452,1452,1445,1439,1439,1439,1439,1439,1439,1433,1433,1433,1427,1427,1421,1421,1421,1421,1421,1415,1415,1415,1415,1415,1410,1410,1404,1404,1404,1398,1398,1398,1398,1398,1398,1392,1392,1392,1387,1387,1387,1387,1381,1381,1376,1376,1376,1376,1370,1370,1365,1365,1365,1359,1359,1359,1354,1354,1354,1354,1354,1354,1349,1349,1349,1349,1343,1338,1338,1333,1333,1333,1333,1328,1328,1328,1328,1322,1322,1322,1322,1317,1317,1312,1312,1312,1312,1312,1312,1307,1307,1307,1307,1302,1302,1292,1292,1292,1292,1292,1292,1288,1288,1288,1283,1283,1278,1278,1273,1273,1273,1273,1268,1268,1268,1268,1268,1264,1264,1264,1259,1259,1255,1255,1255,1255,1255,1250,1250,1250,1245,1245,1245,1245,1245,1241,1236,1236,1236,1236,1232,1232,1232,1232,1232,1227,1227,1223,1223,1223,1219,1219,1219,1219,1219,1219,1214,1214,1214,1214,1210,1210,1206,1206,1202,1202,1202,1202,1097,1097,1097,1094,1094,1090,1090,1087,1087,1084,1080,1077,1073,1073,1067,1067,1063,1063,1063,0,0,0,0,0,0,0,0,0,0,0,0,0,0,0,0,0,0,0,0,0,0,0,0,0,0,0,0,0,0,0,0
0,0,0,0,0,0,0,0,0,0,0,0,0,0,0,0,0,0,0,0,0,0,0,869,869,867,867,864,862,860,858,856,856,856,856,856,856,856,858,858,858,858,858,860,862,867,835,829,829,827,827,827,825,823,821,819,819,817,817,815,813,809,807,807,805,805,803,803,802,800,790,789,787,785,785,781,780,778,776,773,773,771,771,767,767,767,766,764,764,723,722,717,716,714,714,713,713,711,711,710,710,708,708,707,706,704,704,703,701,701,700,698,698,696,694,694,694,693,693,691,690,688,688,687,687,686,686,686,686,684,683,683,684,683,683,682,682,682,683,683,687,688,688,687,687,687,687,686,686,686,686,686,687,687,687,687,687,688,688,690,688,688,688,690,690,690,690,690,690,690,690,690,691,691,691,690,690,690,688,688,688,688,688,690,690,690,690,691,691,691,693,694,694,696,696,696,694,694,694,694,696,696,696,694,694,694,693,693,693,691,691,693,694,694,694,694,693,693,694,696,696,694,694,693,693,693,693,693,693,694,696,697,697,698,700,701,703,704,707,710,711,713,714,716,717,719,720,722,723,727,728,731,731,733,736,759,759,759,764,766,769,771,774,774,776,780,783,787,787,789,790,790,794,796,800,802,803,805,807,809,815,817,819,821,823,827,829,833,837,839,843,843,845,847,849,851,854,856,858,858,860,860,0,860,0,0,0,0,1688,1688,1680,1680,1680,0,0,0,0,981,981,981,978,978,975,973,973,970,970,967,967,967,964,964,964,964,964,967,967,967,970,973,975,981,981,984,984,987,0,0,0,0,1579,1579,1579,1572,1572,1572,1572,1572,1572,1564,1564,1557,1550,1550,1550,1550,1550,1550,1543,1543,1543,1543,1543,1536,1536,1536,1529,1523,1523,1523,1523,1516,1516,1516,1516,1516,1516,1509,1509,1509,1503,1503,1496,1496,1496,1496,1489,1489,1489,1489,1489,1489,1489,1483,1483,1477,1477,1470,1470,1470,1464,1464,1464,1464,1464,1464,1458,1458,1458,1458,1458,1452,1452,1452,1445,1445,1439,1439,1439,1439,1433,1433,1433,1433,1427,1427,1421,1421,1421,1421,1415,1415,1415,1415,1415,1410,1410,1410,1404,1404,1398,1398,1398,1398,1398,1398,1392,1392,1392,1392,1392,1392,1387,1387,1381,1381,1376,1376,1376,1370,1370,1365,1365,1365,1365,1359,1359,1354,1354,1354,1354,1354,1354,1354,1349,1349,1349,1343,1343,1338,1333,1333,1333,1333,1328,1328,1328,1328,1322,1322,1322,1322,1317,1317,1317,1317,1312,1312,1312,1312,1312,1312,1307,1307,1302,1302,1292,1292,1292,1292,1292,1292,1288,1288,1288,1283,1283,1283,1278,1278,1273,1273,1273,1273,1268,1268,1268,1268,1268,1264,1264,1259,1259,1259,1259,1255,1255,1255,1255,1250,1250,1250,1250,1245,1245,1245,1241,1236,1236,1236,1236,1232,1232,1232,1232,1232,1227,1227,1227,1223,1223,1219,1219,1219,1219,1219,1219,1214,1214,1214,1214,1214,1210,1206,1206,1105,1105,1105,1101,1097,1097,1094,1094,1094,1090,1090,1087,1084,1080,1080,1077,1073,1070,1067,1067,1063,1063,1063,0,0,0,0,0,0,0,0,0,0,0,0,0,0,0,0,0,0,0,0,0,0,0,0,0,0,0,0,0,0,0,0
0,0,0,0,0,0,0,0,0,0,0,0,0,0,0,0,0,0,0,0,0,0,0,869,869,869,867,867,864,862,860,858,856,856,856,856,856,856,858,858,858,858,860,860,864,867,867,829,829,827,827,827,825,823,823,821,819,819,817,817,815,809,809,807,805,805,803,803,802,800,794,790,789,789,787,785,783,781,780,773,773,771,771,769,767,767,766,764,762,762,762,717,716,714,713,713,711,711,711,710,710,708,708,707,706,704,704,703,703,701,700,698,698,696,694,693,693,693,691,690,690,688,687,686,686,686,684,684,684,684,683,683,683,683,682,682,680,680,682,682,682,682,684,684,684,684,682,682,682,682,683,683,684,684,686,686,687,687,687,688,688,688,688,690,690,690,688,688,690,688,688,688,691,691,691,688,688,688,687,687,687,687,687,688,687,687,688,688,690,690,690,690,691,693,693,693,693,693,693,693,693,693,693,691,691,691,690,690,691,691,691,691,691,691,691,691,691,691,693,693,693,691,691,691,691,691,691,693,693,694,694,696,697,698,700,701,703,704,706,710,711,713,714,717,717,719,720,722,723,727,728,731,754,754,755,759,759,761,764,766,769,771,774,776,778,781,783,787,787,790,792,792,796,798,802,802,803,805,809,811,815,817,819,823,825,829,829,833,837,839,841,843,845,847,849,851,854,856,856,858,860,860,860,0,0,0,0,0,1680,1680,1680,1680,1680,0,0,0,0,984,981,981,981,978,978,975,973,970,970,970,967,967,964,964,964,964,964,967,967,970,973,975,978,981,984,984,984,987,0,0,0,0,1579,1579,1579,1572,1572,1572,1572,1572,1572,1564,1564,1557,1557,1550,1550,1550,1550,1550,1550,1543,1543,1543,1543,1543,1536,1536,1529,1523,1523,1523,1523,1523,1516,1516,1516,1516,1516,1509,1509,1509,1503,1503,1496,1496,1496,1496,1496,1489,1489,1489,1489,1489,1489,1483,1483,1483,1477,1470,1470,1470,1470,1464,1464,1464,1464,1464,1464,1458,1458,1458,1458,1452,1452,1452,1445,1445,1445,1439,1439,1439,1433,1433,1433,1433,1427,1427,1421,1421,1421,1421,1415,1415,1415,1415,1415,1410,1410,1410,1404,1404,1398,1398,1398,1398,1398,1398,1392,1392,1392,1392,1392,1392,1387,1387,1381,1381,1376,1376,1376,1376,1370,1370,1370,1365,1365,1359,1359,1359,1354,1354,1354,1354,1354,1354,1349,1349,1349,1343,1343,1338,1338,1333,1333,1333,1328,1328,1328,1328,1328,1322,1322,1322,1322,1317,1317,1317,1317,1312,1312,1312,1312,1312,1307,1307,1302,1302,1292,1292,1292,1292,1292,1292,1288,1288,1288,1288,1283,1283,1283,1278,1278,1273,1273,1273,1273,1268,1268,1268,1268,1264,1264,1264,1259,1259,1259,1259,1255,1255,1255,1250,1250,1250,1250,1250,1245,1245,1241,1241,1236,1236,1236,1236,1232,1232,1232,1232,1232,1227,1227,1223,1223,1223,1223,1219,1219,1219,1219,1219,1214,1214,1214,1214,1214,1105,1105,1105,1105,1105,1101,1094,1094,1090,1090,1087,1087,1087,1087,1080,1080,1080,1073,1070,1067,1063,1063,1063,1063,1063,0,0,0,0,0,0,0,0,0,0,0,0,0,0,0,0,0,0,0,0,0,0,0,0,0,0,0,0,0,0,0,0
