0,0,0,0,0,0,0,0,0,0,0,0,0,1671,1671,1671,1671,1671,1671,1671,1671,1671,1671,1671,1671,1671,1671,1663,1663,1663,1663,1671,1671,1671,1671,1671,1663,1663,1663,1663,1663,1663,1663,1663,1663,1663,1663,1663,1655,1655,1663,1663,1655,1655,1655,1655,1655,1655,1655,1655,1655,1655,1655,1655,1655,1655,1655,1647,1647,1647,1647,1639,1639,1639,1639,1639,1639,1639,1639,1639,1639,1639,1639,1639,1647,1647,1647,1647,1639,1639,1639,1639,1639,1632,1632,1632,1632,1632,1632,1632,1632,1632,1632,1632,1632,1632,1624,1624,1624,1624,1624,1624,1624,1624,1632,1632,1624,1624,1632,1624,1624,1624,1616,1616,1616,1616,1616,1624,1624,1624,1624,1632,1632,1639,1639,1639,1647,1915,1915,1915,1915,1904,1904,1894,1894,1883,1883,1873,1873,1873,1873,1873,1873,1873,1873,1873,1873,1873,1632,1632,1632,1632,1624,1624,1624,1632,1632,1632,1632,1639,1639,1639,1639,1639,1647,1647,1655,1655,1655,1663,1663,1663,1663,1680,1680,1688,1688,1688,1688,1696,1696,1696,1696,1705,1705,1713,1713,1722,1722,1731,1731,1731,1731,1731,1731,1731,1739,1739,1748,1748,1757,1757,1757,1766,1766,1766,1776,1776,1776,1776,1785,1794,1794,1794,1804,1804,1804,1813,1813,1813,1823,1823,1833,1833,1833,1843,1843,1843,1843,1853,1853,1863,1863,1863,1873,1873,1863,1863,1853,1853,1853,1843,1843,1843,1843,1843,1833,1833,1833,1833,1833,0,0,0,0,0,0,0,1108,1108,1105,1105,1105,1101,1101,1101,1101,1097,1097,1097,1097,1094,1094,1094,1090,1087,1087,1087,1084,1084,1084,1080,1080,1077,1077,1077,1077,1077,1073,1073,1070,1070,1070,1067,1063,1063,1063,1063,1060,1060,1057,1057,1054,1050,1050,1054,1054,1050,1050,1050,1047,1047,1041,1041,1038,1038,1038,1038,1038,1034,1031,1031,1028,1028,1028,1025,1022,1019,1016,1016,1013,1013,1013,1010,1010,1007,1007,1004,1004,1001,1001,998,995,992,992,992,989,989,989,989,987,984,981,981,978,978,978,975,975,973,973,970,970,967,964,964,964,964,1509,1509,1509,1509,1509,1509,1509,1503,1489,1489,1489,0,0,0,0,0,0,0,0,918,915,915,915,915,915,913,913,910,908,908,908,906,906,906,906,906,906,908,910,910,913,915,918,918,920,923,0,0,0,0,0,1410,1410,1415,1410,1410,1404,1404,1398,1398,1398,1392,1392,1392,1392,1392,1387,1381,1381,1376,1376,1376,1376,1376,1376,1376,1370,1370,1370,1365,1365,1359,1354,1354,1354,1354,1354,1354,1349,1349,1349,1349,1343,1343,1343,1338,1333,1333,1328,1328,1328,1328,1328,1322,1322,1322,1322,1317,1317,1312,1312,1307,1307,1307,1302,1302,1297,1297,1292,1292,1292,1292,1292,1292,1288,1288,1288,1283,1283,1278,1273,1273,1273,1273,1273,1268,1268,1268,1264,1259,1259,1259,1255,1255,1255,1255,1250,1250,1250,1245,1245,1241,1241,1241,1236,1236,1236,1236,1232,1232,1232,1227,1227,1223,1223,1223,1223,1223,1219,1219,1219,1214,1214,1214,1214,1210,1210,1206,1206,1202,1202,1202,1202,1197,1197,1197,1197,1197,1193,1189,1189,1185,1185,1185,1181,1181,1181,1181,1181,1181,1177,1177,1173,1173,1173,1169,1169,1169,1169,1165,1161,1161,1161,1161,1161,1161,1157,1157,1153,1153,1153,1149,1149,1149,1149,1149,1145,1145,1141,1141,1138,1138,0,0,0,0,0,0,0,0,0,0,0,0,0,0,0,0,0,0,0,0,0,0,0,0,0,0,0,0,0,0
0,0,0,0,0,0,0,0,0,0,0,0,0,1680,1680,1671,1671,1671,1671,1671,1671,1671,1671,1671,1671,1671,1671,1671,1671,1671,1671,1671,1671,1671,1671,1671,1663,1663,1663,1663,1663,1663,1663,1663,1663,1663,1663,1663,1655,1655,1663,1663,1655,1655,1655,1663,1655,1655,1655,1655,1655,1655,1655,1655,1655,1655,1655,1647,1647,1647,1647,1639,1639,1639,1639,1639,1639,1639,1639,1639,1639,1639,1639,1639,1647,1639,1639,1639,1639,1639,1639,1639,1639,1639,1632,1632,1632,1632,1632,1632,1632,1632,1632,1632,1632,1632,1632,1632,1624,1624,1624,1624,1624,1624,1632,1632,1632,1632,1632,1624,1624,1624,1624,1624,1616,1616,1624,1624,1624,1624,1624,1632,1632,1639,1639,1639,1647,1915,1915,1915,1904,1904,1904,1894,1883,1883,1883,1873,1873,1873,1873,1873,1873,1873,1873,1873,1873,1647,1632,1632,1632,1632,1632,1632,1632,1632,1632,1632,1632,1632,1639,1639,1639,1639,1647,1647,1647,1655,1655,1663,1663,1663,1663,1680,1680,1688,1688,1688,1688,1696,1696,1696,1696,1705,1705,1713,1713,1722,1722,1731,1731,1731,1731,1731,1731,1731,1739,1739,1748,1748,1757,1766,1766,1766,1766,1766,1776,1776,1776,1776,1785,1794,1794,1804,1804,1804,1813,1813,1813,1823,1823,1833,1833,1833,1843,1843,1843,1843,1853,1853,1853,1863,1863,1863,1873,1873,1873,1863,1853,1853,1853,1853,1843,1843,1843,1843,1843,1833,1833,1833,1833,0,0,0,0,0,0,0,1108,1108,1108,1105,1105,1101,1101,1101,1101,1097,1097,1097,1097,1094,1094,1094,1090,1087,1087,1087,1084,1084,1080,1080,1077,1077,1077,1077,1077,1073,1073,1073,1070,1070,1067,1067,1063,1063,1063,1063,1060,1060,1057,1057,1054,1050,1050,1054,1054,1050,1050,1050,1047,1047,1041,1041,1038,1038,1038,1038,1038,1034,1031,1031,1028,1028,1028,1025,1022,1019,1016,1016,1013,1013,1013,1010,1010,1007,1007,1004,1004,1001,1001,998,995,992,992,992,989,989,989,987,984,981,981,978,978,978,975,975,973,970,970,970,967,967,964,962,962,962,962,962,1516,1516,1509,1509,1509,1503,1496,1496,0,0,0,0,0,0,0,0,918,918,915,915,915,915,915,913,910,908,908,908,908,906,906,906,906,906,906,908,910,913,913,915,918,918,920,923,0,0,0,0,0,1410,1410,1415,1410,1410,1404,1404,1404,1398,1398,1398,1392,1392,1392,1392,1387,1381,1381,1376,1376,1376,1376,1376,1376,1376,1370,1370,1370,1365,1365,1359,1354,1354,1354,1354,1354,1354,1349,1349,1349,1349,1349,1343,1338,1338,1333,1333,1333,1328,1328,1328,1328,1328,1322,1322,1322,1322,1317,1312,1312,1312,1307,1307,1302,1302,1302,1297,1297,1297,1292,1292,1292,1292,1288,1288,1288,1283,1283,1278,1273,1273,1273,1273,1273,1268,1268,1268,1264,1264,1259,1259,1255,1255,1255,1255,1250,1250,1250,1250,1245,1245,1241,1241,1236,1236,1236,1236,1232,1232,1232,1232,1227,1227,1223,1223,1223,1223,1219,1219,1214,1214,1214,1214,1214,1210,1210,1206,1206,1202,1202,1202,1202,1197,1197,1197,1197,1197,1193,1193,1189,1185,1185,1185,1181,1181,1181,1181,1181,1181,1177,1177,1177,1177,1173,1173,1169,1169,1169,1165,1165,1161,1161,1157,1157,1157,1157,1157,1153,1153,1153,1153,1149,1149,1149,1149,1145,1145,1145,1141,1141,1141,0,0,0,0,0,0,0,0,0,0,0,0,0,0,0,0,0,0,0,0,0,0,0,0,0,0,0,0,0,0
0,0,0,0,0,0,0,0,0,0,0,0,0,1680,1680,1680,1680,1671,1671,1671,1671,1671,1671,1671,1671,1671,1671,1671,1671,1671,1671,1671,1671,1671,1671,1671,1671,1671,1671,1671,1663,1663,1663,1663,1663,1663,1663,1663,1663,1663,1663,1663,1655,1655,1655,1655,1655,1655,1655,1655,1655,1655,1655,1655,1655,1655,1655,1647,1647,1655,1647,1647,1647,1647,1639,1639,1639,1639,1639,1639,1639,1639,1639,1639,1647,1639,1639,1639,1639,1639,1639,1639,1639,1639,1632,1632,1632,1632,1632,1632,1632,1632,1632,1632,1632,1632,1632,1632,1632,1624,1624,1624,1624,1624,1632,1632,1632,1632,1632,1632,1624,1624,1624,1624,1624,1624,1624,1624,1624,1624,1632,1632,1632,1639,1639,1639,1655,1915,1915,1915,1904,1904,1904,1894,1883,1883,1883,1873,1873,1883,1873,1873,1873,1873,1873,1863,1863,1647,1639,1632,1632,1632,1632,1632,1632,1632,1632,1632,1632,1632,1639,1639,1639,1639,1647,1647,1647,1655,1655,1663,1663,1663,1671,1680,1680,1688,1688,1688,1688,1696,1696,1696,1696,1705,1713,1713,1722,1722,1722,1731,1731,1731,1731,1731,1731,1739,1739,1739,1748,1757,1757,1766,1766,1766,1776,1776,1776,1785,1785,1794,1794,1804,1804,1804,1804,1804,1813,1813,1813,1813,1823,1833,1833,1833,1843,1843,1843,1843,1853,1853,1853,1863,1863,1873,1873,1873,1873,1873,1853,1853,1853,1853,1843,1843,1843,1843,1843,1833,1833,1833,1833,0,0,0,0,0,0,0,1108,1108,1108,1105,1105,1105,1101,1101,1101,1097,1097,1097,1097,1097,1094,1090,1090,1087,1087,1087,1084,1084,1080,1080,1077,1077,1077,1077,1077,1073,1073,1073,1070,1070,1067,1067,1063,1063,1063,1063,1060,1057,1057,1057,1054,1050,1050,1054,1054,1050,1050,1050,1047,1044,1041,1041,1038,1038,1038,1038,1038,1034,1031,1031,1028,1028,1028,1025,1019,1016,1016,1016,1013,1013,1013,1010,1010,1007,1004,1004,1004,1001,1001,998,995,992,992,992,989,989,989,987,984,981,981,978,978,978,975,975,973,970,970,970,967,967,964,962,962,959,959,959,956,956,956,1509,1509,1503,1496,1496,1496,0,0,0,0,0,0,0,915,915,915,915,915,915,913,913,910,908,908,908,908,906,906,906,906,906,906,908,910,913,913,915,918,918,920,923,0,0,0,0,0,1415,1415,1415,1415,1410,1410,1404,1404,1398,1398,1398,1392,1392,1392,1392,1392,1381,1381,1381,1376,1376,1376,1376,1376,1376,1376,1370,1370,1370,1365,1365,1359,1354,1354,1354,1354,1354,1354,1349,1349,1349,1349,1343,1338,1338,1333,1333,1333,1328,1328,1328,1328,1328,1328,1328,1322,1322,1317,1312,1312,1312,1312,1307,1307,1307,1302,1297,1297,1297,1292,1292,1292,1292,1288,1288,1288,1288,1283,1278,1278,1273,1273,1273,1273,1268,1268,1268,1268,1264,1259,1259,1259,1255,1255,1255,1255,1250,1250,1250,1245,1245,1241,1241,1236,1236,1236,1236,1232,1232,1232,1232,1227,1227,1223,1223,1223,1219,1219,1219,1214,1214,1214,1214,1210,1210,1210,1206,1202,1202,1202,1202,1202,1197,1197,1197,1197,1197,1193,1193,1189,1189,1185,1185,1185,1185,1181,1181,1181,1181,1177,1177,1177,1177,1173,1173,1169,1169,1169,1165,1161,1161,1161,1157,1157,1157,1157,1157,1153,1153,1153,1153,1149,1149,1149,1149,1145,1145,1145,1141,1141,1141,0,0,0,0,0,0,0,0,0,0,0,0,0,0,0,0,0,0,0,0,0,0,0,0,0,0,0,0,0,0
0,0,0,0,0,0,0,0,0,0,0,0,0,1680,1680,1680,1680,1671,1671,1671,1671,1671,1671,1671,1671,1671,1671,1671,1671,1671,1671,1671,1671,1671,1671,1671,1663,1663,1663,1671,1671,1663,1663,1663,1663,1663,1663,1663,1663,1663,1663,1663,1663,1655,1655,1655,1655,1655,1655,1655,1655,1655,1655,1655,1655,1655,1655,1655,1655,1655,1647,1647,1647,1647,1647,1639,1639,1639,1639,1647,1647,1639,1639,1647,1647,1639,1639,1639,1639,1639,1639,1639,1639,1639,1632,1632,1632,1632,1632,1632,1632,1632,1632,1632,1632,1632,1632,1632,1632,1624,1624,1624,1632,1632,1632,1632,1632,1632,1632,1632,1624,1624,1624,1624,1624,1624,1624,1624,1624,1624,1632,1632,1632,1639,1639,1639,1655,1655,1915,1915,1904,1904,1904,1894,1883,1883,1883,1873,1873,1883,1873,1873,1873,1873,1873,1863,1863,1655,1639,1632,1632,1632,1632,1632,1632,1632,1632,1632,1632,1639,1639,1639,1639,1639,1647,1647,1647,1655,1655,1663,1663,1663,1671,1680,1680,1688,1688,1688,1688,1696,1696,1696,1705,1705,1713,1713,1722,1722,1722,1731,1731,1731,1731,1731,1731,1739,1739,1739,1748,1757,1757,1766,1766,1766,1776,1776,1785,1785,1785,1794,1794,1804,1804,1804,1804,1804,1813,1813,1813,1813,1823,1833,1833,1843,1843,1843,1843,1843,1853,1853,1863,1863,1863,1873,1873,1873,1873,1873,1853,1853,1853,1853,1843,1843,1843,1843,1843,1833,1833,1833,1833,0,0,0,0,0,0,1108,1105,1105,1105,1105,1105,1101,1101,1101,1101,1097,1097,1097,1097,1097,1094,1090,1090,1087,1087,1087,1087,1087,1087,1084,1080,1077,1077,1077,1077,1073,1073,1073,1070,1070,1067,1067,1063,1063,1063,1060,1060,1057,1057,1057,1054,1050,1050,1054,1054,1050,1050,1050,1047,1044,1041,1041,1041,1038,1038,1038,1038,1034,1028,1028,1028,1025,1022,1019,1019,1016,1016,1013,1013,1013,1013,1010,1010,1007,1004,1004,1001,1001,1001,998,995,992,992,992,989,989,987,987,981,981,978,978,978,978,975,973,973,970,970,970,967,967,962,959,959,959,959,956,956,954,948,946,943,943,943,943,0,0,0,0,0,0,0,0,915,915,915,915,915,915,913,910,910,908,908,908,908,906,906,906,906,906,906,908,910,910,913,918,918,920,923,925,0,0,0,0,1415,1415,1415,1415,1415,1415,1410,1410,1404,1404,1398,1398,1392,1392,1392,1392,1392,1381,1381,1381,1376,1376,1376,1376,1376,1376,1376,1370,1370,1370,1365,1365,1359,1354,1354,1354,1354,1354,1354,1349,1349,1349,1349,1343,1343,1338,1333,1333,1333,1328,1328,1328,1328,1328,1328,1328,1322,1322,1317,1312,1312,1312,1307,1307,1307,1307,1302,1302,1297,1297,1292,1292,1292,1292,1288,1288,1288,1288,1283,1278,1278,1278,1273,1273,1273,1268,1268,1268,1268,1264,1264,1259,1259,1255,1255,1255,1255,1255,1250,1250,1250,1245,1245,1245,1241,1236,1236,1236,1236,1232,1232,1232,1227,1227,1223,1223,1223,1219,1219,1214,1214,1214,1214,1214,1210,1210,1210,1206,1202,1202,1202,1202,1197,1197,1197,1197,1197,1197,1193,1193,1193,1189,1185,1185,1185,1185,1181,1181,1181,1181,1177,1177,1177,1177,1173,1173,1169,1169,1169,1165,1161,1161,1161,1161,1157,1157,1157,1157,1157,1153,1153,1153,1149,1149,1149,1145,1145,1145,1145,1141,1141,1141,0,0,0,0,0,0,0,0,0,0,0,0,0,0,0,0,0,0,0,0,0,0,0,0,0,0,0,0,0,0
0,0,0,0,0,0,0,0,0,0,0,0,0,1688,1688,1680,1680,1680,1671,1671,1671,1671,1671,1671,1671,1671,1671,1671,1671,1671,1671,1671,1671,1671,1663,1663,1663,1663,1663,1663,1671,1663,1663,1663,1663,1663,1663,1663,1663,1663,1663,1663,1663,1655,1655,1663,1655,1655,1655,1655,1655,1655,1655,1655,1655,1655,1655,1655,1655,1655,1655,1647,1647,1647,1647,1647,1647,1639,1639,1647,1647,1639,1639,1647,1647,1647,1647,1639,1639,1639,1639,1639,1639,1639,1639,1639,1632,1632,1632,1632,1632,1632,1632,1632,1632,1632,1632,1632,1632,1632,1632,1632,1632,1632,1632,1632,1632,1632,1632,1632,1632,1624,1624,1624,1624,1624,1624,1624,1624,1624,1632,1632,1632,1639,1639,1639,1647,1655,1915,1915,1915,1904,1904,1904,1894,1883,1883,1883,1883,1883,1873,1873,1873,1873,1873,1873,1873,1663,1647,1639,1639,1632,1632,1632,1632,1632,1632,1639,1639,1639,1639,1639,1639,1639,1647,1647,1647,1655,1655,1663,1663,1663,1680,1680,1680,1688,1688,1688,1688,1696,1696,1696,1705,1705,1713,1713,1722,1722,1722,1731,1731,1731,1731,1731,1731,1739,1739,1748,1748,1757,1757,1766,1766,1776,1776,1785,1785,1785,1785,1794,1794,1804,1804,1804,1804,1804,1813,1813,1813,1813,1823,1833,1833,1843,1843,1843,1843,1853,1853,1853,1863,1863,1873,1873,1873,1873,1873,1873,1873,1863,1853,1853,1843,1843,1843,1843,1843,1833,1833,1833,1833,0,0,0,0,0,0,1108,1105,1105,1105,1105,1105,1101,1101,1101,1101,1101,1101,1097,1097,1097,1094,1090,1090,1087,1087,1087,1087,1087,1087,1084,1084,1077,1077,1077,1077,1073,1073,1073,1070,1070,1067,1067,1063,1063,1063,1060,1060,1057,1057,1057,1054,1050,1050,1054,1054,1050,1050,1047,1047,1044,1041,1041,1041,1038,1038,1038,1038,1034,1028,1028,1025,1025,1019,1019,1019,1016,1016,1013,1013,1013,1013,1010,1010,1007,1004,1004,1001,1001,1001,998,995,992,992,989,989,989,987,987,981,981,978,978,978,978,975,973,970,970,970,967,967,964,962,959,959,956,956,956,956,954,948,943,943,943,943,943,938,935,935,933,933,0,0,918,918,915,915,915,915,915,913,910,910,908,908,908,906,906,906,906,906,906,906,908,908,910,913,918,918,920,923,0,0,0,0,1415,1415,1415,1415,1415,1415,1415,1410,1410,1404,1404,1398,1398,1392,1392,1392,1392,1392,1387,1381,1381,1376,1376,1376,1376,1376,1376,1376,1370,1370,1370,1365,1365,1359,1354,1354,1354,1354,1354,1349,1349,1349,1349,1349,1349,1343,1338,1333,1333,1333,1328,1328,1328,1328,1328,1322,1322,1322,1317,1317,1312,1312,1312,1307,1307,1307,1307,1302,1302,1297,1297,1297,1292,1292,1292,1292,1288,1288,1283,1283,1283,1278,1278,1278,1273,1273,1273,1268,1268,1268,1268,1264,1264,1259,1255,1255,1255,1255,1255,1250,1250,1250,1250,1245,1245,1245,1241,1236,1236,1236,1232,1232,1232,1232,1227,1223,1223,1223,1223,1219,1214,1214,1214,1214,1210,1210,1210,1206,1206,1202,1202,1202,1202,1197,1197,1197,1197,1197,1197,1193,1193,1193,1189,1185,1185,1185,1185,1181,1181,1181,1181,1181,1177,1177,1177,1177,1173,1173,1169,1165,1165,1165,1165,1161,1161,1157,1157,1157,1157,1157,1153,1153,1153,1149,1149,1149,1145,1145,1145,1145,1141,1141,1141,0,0,0,0,0,0,0,0,0,0,0,0,0,0,0,0,0,0,0,0,0,0,0,0,0,0,0,0,0,0
0,0,0,0,0,0,0,0,0,0,0,0,0,1688,1688,1680,1680,1680,1671,1671,1680,1680,1671,1671,1671,1671,1671,1671,1671,1680,1680,1680,1671,1671,1663,1663,1663,1663,1663,1663,1671,1663,1663,1663,1663,1663,1663,1663,1663,1663,1663,1663,1663,1663,1663,1663,1663,1655,1655,1655,1655,1655,1655,1655,1655,1655,1655,1655,1655,1655,1655,1647,1647,1647,1647,1647,1647,1647,1647,1647,1647,1647,1647,1647,1647,1647,1647,1639,1639,1639,1639,1639,1639,1639,1639,1639,1639,1639,1639,1632,1632,1632,1632,1632,1632,1632,1632,1632,1632,1632,1632,1632,1632,1632,1632,1632,1632,1632,1632,1632,1632,1624,1624,1624,1624,1624,1624,1624,1624,1624,1624,1624,1632,1632,1639,1639,1647,1655,1926,1915,1915,1915,1915,1904,1904,1894,1883,1883,1883,1883,1883,1873,1873,1873,1873,1873,1873,1663,1647,1647,1647,1639,1632,1632,1632,1632,1632,1639,1639,1639,1647,1647,1647,1647,1655,1655,1655,1655,1655,1663,1663,1663,1680,1680,1680,1688,1688,1688,1688,1696,1696,1705,1705,1705,1713,1713,1722,1722,1722,1731,1731,1731,1731,1731,1731,1731,1739,1748,1748,1757,1757,1766,1766,1776,1785,1785,1785,1794,1794,1794,1804,1804,1804,1804,1804,1804,1813,1813,1813,1823,1823,1833,1833,1843,1843,1843,1843,1853,1853,1853,1863,1863,1873,1873,1873,1873,1873,1873,1853,1853,1853,1843,1843,1843,1843,1843,1843,1833,1833,1833,0,0,0,0,0,0,0,1112,1108,1105,1105,1105,1105,1101,1101,1101,1101,1101,1101,1101,1097,1097,1097,1090,1090,1090,1090,1087,1087,1087,1087,1087,1084,1080,1080,1077,1077,1073,1073,1073,1070,1067,1067,1067,1063,1063,1063,1060,1060,1057,1057,1054,1054,1054,1054,1054,1054,1050,1050,1047,1047,1044,1041,1041,1041,1038,1038,1034,1034,1031,1028,1028,1025,1025,1019,1019,1019,1016,1016,1013,1013,1013,1013,1010,1010,1007,1004,1004,1001,1001,1001,998,998,992,992,989,989,989,987,987,981,981,978,978,978,975,973,973,970,970,970,967,967,964,962,959,959,956,956,956,956,951,951,943,943,940,940,938,938,935,935,933,933,933,918,918,918,915,915,915,915,915,915,913,910,908,908,908,906,906,906,906,906,906,906,908,908,910,913,918,920,920,0,0,0,0,0,1415,1415,1415,1415,1415,1415,1410,1410,1410,1404,1404,1398,1398,1398,1398,1392,1392,1392,1387,1381,1381,1381,1376,1376,1376,1376,1376,1376,1370,1370,1370,1370,1365,1359,1354,1354,1354,1354,1354,1349,1349,1349,1349,1349,1349,1343,1338,1338,1333,1333,1333,1328,1328,1328,1328,1322,1322,1322,1317,1317,1312,1312,1312,1307,1307,1307,1307,1302,1302,1297,1297,1297,1292,1292,1292,1292,1288,1288,1283,1283,1283,1283,1278,1278,1273,1273,1273,1268,1268,1268,1268,1264,1264,1259,1255,1255,1255,1255,1255,1250,1250,1250,1250,1250,1250,1245,1241,1241,1236,1236,1232,1232,1232,1232,1232,1227,1223,1223,1223,1219,1214,1214,1214,1214,1210,1210,1206,1206,1206,1202,1202,1202,1202,1197,1197,1197,1197,1197,1197,1193,1193,1193,1189,1185,1185,1185,1185,1185,1181,1181,1181,1181,1177,1177,1177,1177,1173,1173,1169,1165,1165,1165,1165,1161,1161,1157,1157,1157,1157,1157,1153,1153,1153,1153,1149,1149,1149,1145,1145,1145,1145,1141,1141,0,0,0,0,0,0,0,0,0,0,0,0,0,0,0,0,0,0,0,0,0,0,0,0,0,0,0,0,0,0
0,0,0,0,0,0,0,0,0,0,0,0,0,1688,1688,1688,1688,1680,1680,1680,1680,1680,1680,1680,1671,1671,1680,1680,1680,1680,1671,1671,1671,1671,1663,1663,1663,1663,1663,1663,1663,1663,1663,1663,1663,1663,1663,1663,1663,1663,1663,1663,1663,1663,1663,1663,1663,1655,1655,1655,1655,1655,1655,1655,1655,1655,1655,1655,1655,1655,1655,1655,1655,1655,1655,1655,1655,1655,1647,1647,1647,1647,1647,1647,1647,1647,1647,1639,1639,1639,1639,1639,1639,1639,1639,1639,1639,1639,1639,1632,1632,1632,1632,1632,1632,1632,1632,1632,1632,1632,1632,1632,1632,1632,1632,1632,1632,1632,1632,1632,1632,1624,1624,1624,1624,1624,1624,1624,1624,1624,1624,1624,1632,1632,1639,1639,1647,1647,1926,1915,1915,1915,1915,1904,1904,1894,1883,1883,1883,1883,1883,1883,1873,1873,1873,1873,1873,1655,1647,1647,1647,1639,1632,1632,1632,1632,1632,1639,1639,1647,1647,1647,1647,1655,1655,1655,1655,1655,1655,1663,1663,1671,1671,1680,1680,1688,1688,1688,1688,1696,1696,1705,1705,1713,1713,1722,1722,1722,1722,1731,1731,1731,1731,1731,1731,1731,1739,1748,1757,1757,1766,1766,1776,1776,1785,1785,1785,1794,1794,1794,1804,1804,1804,1804,1804,1804,1813,1813,1813,1823,1823,1833,1833,1843,1843,1843,1843,1853,1853,1853,1863,1863,1873,1873,1873,1873,1873,1873,1853,1853,1843,1843,1843,1843,1843,1843,1843,1833,1833,1833,0,0,0,0,0,0,0,1112,1108,1105,1105,1105,1101,1101,1101,1101,1101,1101,1101,1101,1097,1097,1097,1094,1090,1090,1090,1090,1087,1087,1087,1087,1084,1080,1080,1077,1077,1077,1073,1073,1070,1067,1067,1067,1063,1063,1063,1060,1060,1057,1057,1054,1054,1054,1054,1054,1054,1050,1050,1047,1047,1041,1041,1041,1041,1038,1038,1034,1034,1031,1028,1028,1025,1025,1022,1019,1019,1016,1016,1013,1013,1013,1013,1010,1010,1007,1004,1001,1001,1001,998,998,995,995,992,992,989,987,987,984,981,981,978,978,978,975,973,973,970,970,970,970,967,964,962,959,959,956,956,956,954,951,951,946,943,940,940,938,938,938,935,933,933,933,928,920,918,918,915,915,915,915,913,913,910,908,908,908,906,906,906,906,906,906,906,908,908,910,915,918,920,920,0,0,0,0,0,1415,1415,1415,1415,1415,1410,1410,1410,1404,1404,1404,1398,1398,1398,1398,1392,1392,1392,1392,1387,1381,1381,1376,1376,1376,1376,1376,1376,1376,1370,1370,1370,1365,1365,1359,1359,1359,1354,1354,1354,1349,1349,1349,1349,1343,1343,1338,1338,1333,1333,1333,1328,1328,1328,1328,1328,1322,1322,1317,1317,1312,1312,1312,1307,1307,1307,1307,1307,1302,1302,1297,1297,1292,1292,1288,1288,1288,1288,1288,1283,1283,1283,1278,1278,1273,1273,1273,1273,1268,1268,1268,1264,1259,1259,1255,1255,1255,1255,1255,1250,1250,1250,1250,1250,1250,1245,1245,1241,1236,1236,1232,1232,1232,1232,1232,1227,1227,1227,1223,1219,1219,1214,1214,1214,1214,1210,1206,1206,1206,1202,1202,1202,1202,1197,1197,1197,1197,1197,1197,1197,1193,1193,1189,1189,1185,1185,1185,1185,1181,1181,1181,1181,1181,1177,1177,1177,1173,1173,1169,1165,1165,1165,1165,1165,1161,1157,1157,1157,1157,1157,1153,1153,1153,1153,1153,1149,1149,1145,1145,1145,1145,1145,1145,0,0,0,0,0,0,0,0,0,0,0,0,0,0,0,0,0,0,0,0,0,0,0,0,0,0,0,0,0,0
0,0,0,0,0,0,0,0,0,0,0,0,0,1680,1680,1680,1680,1680,1680,1680,1680,1680,1680,1680,1671,1671,1680,1680,1680,1680,1671,1671,1671,1671,1663,1663,1663,1663,1663,1663,1663,1663,1663,1663,1663,1663,1671,1671,1671,1671,1663,1663,1663,1663,1663,1663,1663,1663,1655,1655,1655,1655,1655,1655,1655,1655,1663,1655,1655,1655,1655,1655,1655,1655,1655,1655,1655,1655,1655,1647,1647,1647,1647,1647,1647,1647,1647,1639,1639,1639,1639,1639,1639,1639,1639,1647,1639,1639,1639,1639,1639,1632,1632,1632,1632,1632,1632,1639,1632,1632,1632,1632,1632,1632,1632,1632,1632,1632,1632,1632,1632,1632,1624,1624,1624,1624,1624,1624,1624,1632,1624,1624,1632,1632,1639,1639,1647,1647,1926,1926,1915,1915,1915,1904,1904,1894,1894,1883,1883,1883,1883,1883,1883,1883,1873,1873,1873,1655,1647,1647,1647,1639,1639,1632,1632,1632,1632,1639,1639,1647,1647,1647,1655,1655,1655,1655,1655,1655,1655,1663,1663,1671,1671,1680,1680,1688,1688,1688,1688,1696,1705,1705,1713,1713,1722,1722,1722,1722,1731,1731,1731,1731,1731,1731,1731,1731,1739,1748,1757,1757,1766,1766,1776,1776,1785,1785,1785,1794,1794,1794,1804,1804,1804,1804,1813,1813,1813,1813,1813,1823,1833,1833,1843,1843,1843,1843,1843,1853,1853,1863,1863,1873,1873,1873,1873,1873,1873,1873,1853,1853,1843,1843,1843,1843,1843,1843,1843,1833,1833,1833,0,0,0,0,0,0,0,1112,1108,1105,1105,1105,1101,1101,1101,1101,1101,1101,1101,1101,1097,1097,1097,1094,1090,1090,1090,1090,1087,1087,1087,1087,1084,1080,1080,1077,1077,1077,1073,1073,1073,1073,1067,1067,1063,1063,1063,1060,1057,1057,1057,1054,1054,1050,1050,1054,1054,1050,1050,1047,1047,1041,1041,1041,1041,1038,1038,1038,1034,1031,1028,1028,1028,1025,1022,1019,1019,1016,1016,1013,1013,1013,1013,1010,1010,1007,1004,1001,1001,1001,998,998,995,995,992,992,989,987,984,981,981,981,978,978,978,975,973,973,970,970,970,967,964,964,962,959,959,956,956,956,954,954,946,946,943,940,938,938,938,938,935,935,933,930,925,920,918,918,918,918,915,915,913,913,910,908,908,906,906,906,906,906,906,906,908,908,910,913,915,918,918,920,0,0,0,0,0,1415,1415,1415,1415,1415,1410,1410,1410,1404,1404,1404,1398,1398,1398,1398,1398,1392,1392,1392,1387,1381,1381,1376,1376,1376,1376,1376,1376,1370,1370,1370,1370,1365,1365,1359,1359,1359,1354,1354,1354,1349,1349,1349,1349,1343,1343,1338,1338,1333,1333,1333,1333,1333,1328,1328,1328,1328,1322,1317,1317,1312,1312,1312,1312,1307,1307,1307,1307,1302,1302,1297,1297,1292,1292,1288,1288,1288,1288,1288,1283,1283,1283,1278,1278,1273,1273,1273,1273,1268,1268,1268,1264,1259,1259,1255,1255,1255,1255,1255,1255,1250,1250,1250,1250,1250,1245,1245,1241,1236,1236,1232,1232,1232,1232,1232,1227,1227,1223,1223,1219,1219,1214,1214,1214,1214,1210,1206,1206,1206,1202,1202,1202,1202,1202,1197,1197,1197,1197,1197,1197,1197,1193,1189,1189,1189,1185,1185,1185,1185,1181,1181,1181,1181,1177,1177,1177,1173,1173,1169,1165,1165,1165,1165,1165,1161,1157,1157,1157,1157,1157,1153,1153,1153,1153,1153,1149,1149,1149,1145,1145,1145,1145,1145,0,0,0,0,0,0,0,0,0,0,0,0,0,0,0,0,0,0,0,0,0,0,0,0,0,0,0,0,0,0
0,0,0,0,0,0,0,0,0,0,0,0,0,1680,1680,1680,1680,1680,1680,1680,1680,1680,1680,1680,1680,1680,1680,1671,1671,1680,1680,1680,1671,1671,1663,1663,1663,1663,1663,1663,1663,1663,1663,1663,1663,1663,1671,1671,1671,1671,1663,1663,1663,1663,1663,1663,1663,1663,1655,1655,1663,1663,1655,1655,1655,1655,1663,1655,1655,1655,1655,1655,1655,1655,1655,1655,1655,1655,1655,1655,1655,1647,1647,1647,1647,1647,1647,1639,1639,1639,1639,1639,1639,1639,1639,1647,1647,1647,1647,1647,1639,1639,1639,1639,1639,1639,1639,1639,1639,1632,1632,1632,1632,1632,1632,1632,1632,1632,1632,1632,1632,1632,1632,1632,1624,1624,1624,1624,1632,1632,1632,1632,1632,1632,1639,1647,1647,1655,1926,1926,1915,1915,1915,1915,1904,1894,1894,1883,1883,1883,1883,1883,1883,1883,1883,1873,1873,1655,1655,1647,1647,1639,1639,1632,1632,1632,1639,1639,1639,1647,1647,1647,1655,1655,1655,1655,1655,1663,1663,1663,1663,1671,1680,1680,1680,1688,1688,1688,1696,1696,1705,1705,1722,1722,1722,1722,1722,1722,1731,1731,1731,1731,1731,1739,1739,1739,1748,1757,1757,1766,1766,1766,1776,1776,1785,1785,1785,1794,1794,1794,1804,1804,1804,1804,1813,1813,1813,1813,1813,1823,1833,1833,1833,1843,1843,1843,1843,1853,1853,1863,1863,1873,1873,1873,1883,1883,1883,1873,1873,1853,1843,1843,1843,1843,1843,1843,1843,1833,1833,1833,0,0,0,0,0,0,0,1105,1105,1105,1105,1105,1101,1101,1101,1101,1101,1101,1101,1097,1097,1097,1097,1094,1094,1090,1090,1090,1087,1087,1087,1087,1087,1084,1080,1077,1077,1077,1073,1073,1073,1073,1073,1070,1067,1063,1063,1060,1057,1057,1057,1054,1054,1050,1050,1054,1054,1050,1050,1047,1044,1041,1041,1041,1041,1038,1038,1038,1034,1031,1031,1028,1028,1022,1022,1019,1019,1016,1016,1013,1013,1013,1013,1010,1010,1007,1004,1001,1001,1001,998,998,995,992,992,989,989,987,984,981,981,981,978,978,978,975,973,973,970,970,970,967,964,964,962,959,959,956,956,956,954,954,946,946,943,940,938,938,938,935,935,933,930,928,925,923,920,918,918,918,915,915,913,913,910,908,908,906,906,906,906,906,906,906,908,908,910,913,915,918,918,920,0,0,0,0,0,1415,1415,1415,1415,1415,1410,1410,1410,1404,1404,1404,1398,1398,1398,1398,1398,1392,1392,1392,1387,1387,1381,1376,1376,1376,1376,1376,1376,1370,1370,1370,1370,1365,1365,1359,1359,1359,1354,1354,1354,1349,1349,1349,1349,1349,1343,1343,1338,1333,1333,1333,1333,1333,1328,1328,1328,1322,1322,1317,1317,1312,1312,1312,1312,1307,1307,1307,1307,1307,1302,1297,1297,1297,1292,1292,1292,1288,1288,1288,1283,1283,1283,1278,1278,1278,1278,1273,1273,1273,1268,1268,1264,1259,1259,1259,1255,1255,1255,1255,1255,1250,1250,1250,1250,1250,1245,1245,1241,1236,1232,1232,1232,1232,1232,1232,1227,1223,1223,1223,1219,1219,1214,1214,1214,1214,1214,1210,1210,1206,1202,1202,1202,1202,1202,1197,1197,1197,1197,1197,1197,1197,1193,1189,1189,1189,1185,1185,1185,1185,1181,1181,1181,1181,1177,1177,1177,1173,1169,1169,1165,1165,1165,1165,1165,1161,1161,1161,1161,1157,1157,1157,1153,1153,1153,1153,1149,1149,1149,1145,1145,1145,1145,1145,0,0,0,0,0,0,0,0,0,0,0,0,0,0,0,0,0,0,0,0,0,0,0,0,0,0,0,0,0,0
0,0,0,0,0,0,0,0,0,0,0,0,0,1680,1680,1680,1680,1680,1680,1680,1680,1680,1680,1680,1680,1680,1680,1671,1671,1671,1680,1680,1680,1680,1663,1663,1663,1663,1663,1663,1663,1663,1663,1663,1663,1663,1663,1663,1671,1671,1663,1663,1663,1663,1663,1663,1663,1663,1663,1663,1655,1655,1655,1663,1663,1663,1663,1663,1655,1655,1655,1655,1655,1655,1655,1655,1655,1655,1655,1655,1655,1655,1655,1655,1647,1647,1647,1639,1639,1639,1639,1639,1639,1639,1639,1647,1647,1647,1647,1647,1639,1639,1639,1639,1639,1639,1639,1639,1639,1639,1639,1632,1632,1632,1632,1632,1632,1632,1632,1632,1632,1632,1632,1632,1632,1632,1624,1624,1632,1632,1632,1632,1632,1632,1639,1647,1647,1655,1936,1926,1915,1915,1915,1915,1904,1894,1894,1894,1883,1883,1883,1883,1883,1883,1873,1873,1873,1655,1647,1647,1647,1639,1639,1639,1639,1639,1639,1639,1639,1647,1647,1655,1655,1655,1655,1663,1663,1663,1663,1663,1671,1671,1680,1688,1688,1688,1688,1688,1696,1696,1705,1705,1713,1713,1713,1722,1722,1722,1722,1731,1731,1731,1739,1739,1739,1748,1757,1757,1757,1757,1766,1766,1776,1776,1785,1785,1794,1794,1794,1794,1804,1804,1804,1804,1804,1804,1813,1813,1813,1823,1833,1833,1833,1843,1843,1843,1843,1853,1853,1863,1863,1873,1873,1873,1883,1883,1883,1883,1873,1863,1853,1853,1843,1843,1843,1843,1843,1843,1843,1843,0,0,0,0,0,0,0,1105,1105,1105,1105,1105,1101,1101,1101,1101,1101,1101,1101,1097,1097,1097,1097,1094,1094,1090,1090,1090,1087,1087,1087,1087,1087,1080,1077,1077,1077,1077,1073,1073,1073,1073,1073,1070,1070,1063,1063,1060,1060,1057,1057,1054,1054,1054,1054,1054,1050,1050,1050,1047,1044,1044,1041,1041,1041,1038,1038,1038,1034,1031,1031,1028,1028,1022,1022,1019,1019,1016,1016,1016,1013,1013,1010,1010,1010,1007,1001,1001,1001,998,998,998,995,992,992,989,989,989,984,981,981,981,978,978,978,975,975,973,970,970,970,967,964,964,962,959,956,956,956,956,954,951,948,946,943,940,938,938,938,935,935,933,930,928,925,923,920,918,918,918,915,915,913,913,910,908,908,906,906,906,906,906,906,906,908,908,910,915,918,918,918,920,0,0,0,0,0,1415,1415,1415,1415,1415,1410,1410,1404,1404,1404,1398,1398,1398,1398,1398,1398,1392,1392,1392,1387,1387,1381,1381,1381,1376,1376,1376,1376,1370,1370,1370,1370,1365,1365,1365,1365,1365,1354,1354,1354,1349,1349,1349,1349,1349,1343,1343,1338,1333,1333,1333,1333,1333,1328,1328,1328,1322,1322,1317,1317,1312,1312,1312,1312,1307,1307,1307,1307,1307,1302,1302,1297,1297,1292,1292,1292,1288,1288,1288,1283,1283,1283,1278,1278,1278,1278,1273,1273,1273,1273,1268,1268,1259,1259,1259,1259,1255,1255,1255,1255,1250,1250,1250,1250,1250,1245,1245,1236,1236,1232,1232,1232,1232,1232,1232,1227,1223,1223,1223,1219,1219,1219,1219,1219,1214,1214,1210,1210,1206,1202,1202,1202,1202,1202,1202,1202,1197,1197,1197,1197,1197,1193,1189,1189,1189,1185,1185,1185,1185,1181,1181,1181,1181,1177,1177,1177,1173,1169,1169,1165,1165,1165,1165,1165,1161,1161,1161,1161,1157,1157,1157,1153,1153,1153,1153,1153,1149,1149,1145,1145,1145,1141,1141,0,0,0,0,0,0,0,0,0,0,0,0,0,0,0,0,0,0,0,0,0,0,0,0,0,0,0,0,0,0
0,0,0,0,0,0,0,0,0,0,0,0,0,1680,1680,1680,1680,1680,1688,1688,1688,1680,1680,1680,1680,1680,1680,1671,1671,1671,1671,1680,1680,1680,1680,1680,1680,1680,1671,1671,1671,1671,1663,1663,1663,1663,1663,1663,1663,1663,1671,1671,1671,1663,1663,1663,1663,1663,1663,1663,1655,1655,1655,1655,1655,1655,1663,1663,1663,1655,1655,1655,1655,1655,1655,1663,1663,1655,1655,1655,1655,1655,1655,1655,1655,1655,1647,1647,1647,1647,1647,1647,1647,1647,1647,1647,1647,1647,1647,1647,1647,1639,1639,1639,1639,1639,1639,1639,1639,1639,1639,1639,1632,1632,1632,1632,1632,1632,1632,1632,1632,1632,1632,1632,1632,1632,1632,1632,1632,1632,1632,1632,1639,1639,1647,1647,1655,1655,1936,1926,1926,1926,1915,1915,1904,1904,1894,1894,1883,1883,1883,1883,1883,1883,1873,1873,1873,1883,1647,1647,1647,1639,1639,1639,1639,1639,1639,1639,1647,1647,1655,1655,1655,1655,1663,1663,1663,1663,1663,1663,1671,1671,1680,1688,1688,1688,1688,1696,1696,1705,1705,1705,1713,1713,1713,1722,1722,1722,1722,1731,1731,1731,1739,1739,1748,1748,1757,1757,1757,1757,1766,1766,1776,1776,1785,1785,1794,1794,1794,1794,1794,1794,1804,1804,1804,1804,1813,1813,1813,1823,1833,1833,1843,1843,1843,1843,1843,1853,1853,1853,1863,1873,1873,1883,1883,1894,1883,1883,1873,1873,1853,1853,1853,1853,1843,1843,1843,1843,1843,1843,1843,0,0,0,0,0,0,1108,1105,1105,1105,1105,1105,1101,1101,1101,1101,1101,1101,1097,1097,1097,1097,1097,1094,1090,1090,1090,1087,1087,1087,1087,1084,1080,1077,1077,1077,1077,1073,1073,1073,1073,1073,1070,1070,1063,1063,1060,1060,1057,1057,1054,1054,1050,1050,1054,1050,1050,1047,1047,1044,1044,1041,1041,1041,1038,1038,1034,1034,1031,1028,1028,1025,1025,1022,1022,1019,1019,1016,1016,1013,1013,1010,1007,1007,1004,1001,1001,1001,998,998,995,995,992,992,989,989,987,984,981,981,981,978,978,978,975,975,973,970,970,970,967,964,964,962,959,956,956,956,956,954,951,951,946,943,943,938,938,938,935,935,933,930,928,925,923,920,920,918,918,915,915,913,910,910,908,908,906,906,906,906,906,906,908,908,910,913,915,918,918,918,920,0,0,0,0,1415,1415,1415,1415,1415,1415,1410,1410,1404,1404,1404,1398,1398,1398,1398,1398,1398,1392,1392,1392,1387,1387,1381,1381,1381,1376,1376,1376,1376,1370,1370,1370,1370,1365,1365,1365,1365,1365,1359,1354,1354,1349,1349,1349,1349,1349,1343,1343,1338,1333,1333,1333,1333,1333,1328,1328,1328,1322,1322,1317,1317,1312,1312,1312,1312,1307,1307,1307,1307,1307,1302,1302,1297,1297,1292,1292,1292,1288,1288,1288,1283,1283,1283,1278,1278,1278,1273,1273,1273,1273,1273,1268,1268,1264,1264,1259,1259,1255,1255,1255,1255,1255,1250,1250,1250,1250,1245,1245,1236,1236,1232,1232,1232,1232,1232,1232,1227,1227,1227,1223,1223,1219,1219,1219,1219,1214,1214,1210,1210,1210,1206,1206,1202,1202,1202,1202,1202,1202,1197,1197,1197,1197,1193,1189,1189,1189,1185,1185,1185,1185,1181,1181,1181,1181,1181,1177,1177,1177,1169,1169,1165,1165,1165,1165,1165,1161,1161,1161,1161,1157,1157,1157,1153,1153,1153,1153,1153,1153,1149,1149,1145,1145,1141,1141,0,0,0,0,0,0,0,0,0,0,0,0,0,0,0,0,0,0,0,0,0,0,0,0,0,0,0,0,0,0
0,0,0,0,0,0,0,0,0,0,0,0,0,1688,1688,1688,1688,1688,1688,1688,1688,1688,1680,1680,1680,1680,1671,1663,1663,1671,1671,1671,1680,1671,1671,1680,1680,1671,1671,1671,1671,1671,1671,1671,1663,1663,1663,1663,1663,1663,1671,1671,1671,1663,1663,1663,1663,1663,1663,1663,1655,1655,1655,1655,1655,1655,1663,1663,1663,1663,1663,1655,1655,1655,1655,1655,1655,1655,1655,1655,1655,1655,1655,1655,1655,1655,1647,1647,1647,1647,1647,1647,1647,1647,1647,1655,1655,1655,1655,1655,1647,1647,1639,1639,1639,1639,1639,1647,1647,1639,1639,1639,1639,1632,1632,1632,1632,1632,1632,1632,1632,1632,1632,1632,1632,1632,1632,1632,1632,1632,1632,1632,1639,1639,1647,1655,1655,1655,1663,1926,1926,1926,1926,1915,1915,1904,1904,1894,1894,1883,1883,1883,1883,1883,1873,1873,1873,1873,1647,1647,1647,1639,1639,1639,1639,1639,1639,1639,1647,1647,1655,1655,1655,1655,1663,1663,1663,1663,1663,1663,1671,1671,1680,1688,1688,1688,1696,1696,1696,1705,1713,1713,1713,1713,1722,1722,1722,1722,1731,1731,1731,1731,1739,1748,1748,1748,1757,1757,1766,1766,1766,1766,1776,1776,1785,1785,1785,1794,1794,1794,1794,1794,1804,1804,1804,1804,1813,1813,1823,1823,1833,1833,1843,1843,1843,1843,1843,1853,1853,1853,1863,1873,1873,1883,1883,1894,1894,1883,1873,1873,1853,1853,1853,1853,1853,1843,1843,1843,1843,1843,1843,1863,0,0,0,0,1115,1115,1108,1105,1105,1105,1105,1101,1101,1101,1101,1101,1101,1097,1097,1097,1097,1094,1094,1090,1090,1090,1090,1087,1087,1087,1084,1080,1077,1077,1077,1077,1073,1073,1073,1073,1073,1070,1070,1063,1063,1060,1060,1057,1057,1057,1054,1050,1050,1054,1050,1050,1047,1044,1044,1041,1041,1038,1038,1038,1034,1034,1031,1031,1028,1028,1025,1025,1022,1022,1019,1019,1016,1016,1013,1013,1010,1007,1007,1004,1004,1001,1001,998,998,995,995,992,992,989,989,987,984,981,981,981,981,978,978,975,975,973,970,970,970,967,964,964,959,959,956,956,956,956,954,951,951,946,943,943,938,938,938,935,935,933,930,928,925,923,920,920,918,918,915,915,913,910,908,908,908,906,906,906,906,906,906,908,908,910,913,918,918,918,918,0,0,0,0,0,1415,1415,1415,1415,1415,1415,1410,1410,1410,1404,1404,1404,1398,1398,1398,1398,1398,1398,1392,1392,1387,1387,1381,1381,1381,1376,1376,1376,1376,1370,1370,1370,1370,1365,1365,1365,1365,1365,1359,1354,1354,1354,1349,1349,1349,1349,1343,1343,1338,1333,1333,1333,1333,1333,1328,1328,1328,1322,1322,1317,1317,1312,1312,1312,1312,1307,1307,1307,1307,1307,1302,1302,1297,1297,1292,1292,1292,1288,1288,1288,1283,1283,1283,1278,1278,1278,1273,1273,1273,1273,1273,1268,1268,1264,1264,1259,1259,1259,1255,1255,1255,1255,1250,1250,1250,1250,1245,1241,1236,1236,1232,1232,1232,1232,1232,1232,1232,1227,1227,1223,1223,1219,1219,1219,1219,1219,1214,1214,1214,1210,1206,1206,1206,1202,1202,1202,1202,1202,1197,1197,1197,1197,1193,1189,1189,1189,1189,1185,1185,1185,1185,1181,1181,1181,1181,1177,1177,1177,1169,1169,1169,1169,1165,1165,1165,1165,1165,1161,1161,1157,1157,1157,1153,1153,1153,1153,1153,1153,1149,1145,1145,1145,1141,1141,0,0,0,0,0,0,0,0,0,0,0,0,0,0,0,0,0,0,0,0,0,0,0,0,0,0,0,0,0,0
0,0,0,0,0,0,0,0,0,0,0,0,0,1688,1688,1688,1688,1688,1688,1688,1680,1680,1680,1680,1680,1680,1671,1663,1663,1671,1671,1671,1680,1671,1671,1680,1680,1671,1671,1671,1671,1671,1671,1671,1663,1663,1663,1663,1663,1663,1671,1671,1671,1663,1663,1663,1663,1663,1663,1663,1655,1655,1655,1663,1663,1663,1663,1663,1663,1663,1663,1663,1663,1663,1655,1655,1655,1655,1655,1655,1655,1655,1655,1655,1655,1655,1655,1655,1647,1647,1647,1647,1647,1647,1647,1655,1655,1655,1655,1655,1647,1647,1647,1647,1647,1639,1639,1647,1647,1647,1647,1639,1639,1639,1632,1632,1632,1632,1632,1632,1632,1632,1632,1632,1632,1632,1632,1632,1632,1632,1632,1632,1639,1647,1647,1655,1655,1655,1663,1926,1926,1926,1926,1915,1904,1904,1904,1894,1894,1883,1883,1883,1883,1883,1873,1873,1873,1647,1647,1647,1639,1639,1639,1639,1639,1639,1639,1639,1647,1647,1655,1655,1655,1655,1663,1663,1663,1663,1663,1671,1671,1680,1680,1688,1688,1688,1696,1696,1696,1705,1713,1713,1713,1713,1722,1722,1722,1731,1731,1731,1739,1739,1739,1748,1748,1757,1757,1757,1757,1766,1766,1766,1776,1776,1785,1785,1785,1794,1794,1794,1794,1794,1804,1804,1804,1804,1813,1833,1833,1833,1833,1843,1843,1843,1843,1843,1843,1853,1853,1863,1863,1873,1873,1883,1883,1894,1894,1883,1873,1873,1853,1853,1853,1853,1853,1843,1843,1843,1843,1853,1853,1863,0,0,0,0,1112,1112,1108,1105,1105,1105,1105,1101,1101,1101,1101,1101,1101,1101,1097,1097,1094,1094,1090,1090,1090,1087,1087,1087,1087,1087,1084,1080,1077,1077,1077,1077,1073,1073,1073,1073,1070,1070,1067,1063,1063,1060,1060,1060,1057,1057,1050,1050,1050,1050,1050,1050,1047,1044,1044,1041,1041,1038,1038,1038,1034,1034,1031,1031,1028,1028,1025,1025,1022,1022,1019,1019,1016,1016,1013,1010,1010,1007,1007,1004,1001,1001,998,998,998,995,992,992,992,989,989,987,984,981,981,981,978,978,978,975,975,973,970,970,967,964,964,962,959,959,956,956,956,956,954,951,948,946,943,943,940,938,935,935,935,933,930,928,925,923,920,920,918,918,915,915,913,910,908,908,906,906,906,906,906,906,906,908,910,913,915,918,918,918,918,0,0,0,0,0,1415,1415,1415,1415,1415,1415,1415,1410,1410,1410,1404,1404,1404,1398,1398,1398,1398,1398,1392,1392,1387,1387,1381,1381,1381,1376,1376,1376,1376,1370,1370,1370,1370,1370,1365,1365,1365,1365,1359,1354,1354,1354,1349,1349,1349,1349,1349,1343,1338,1338,1333,1333,1333,1333,1333,1328,1328,1322,1322,1317,1317,1312,1312,1312,1312,1307,1307,1307,1307,1307,1302,1302,1297,1297,1292,1292,1288,1288,1288,1288,1283,1283,1283,1278,1278,1278,1278,1273,1273,1273,1273,1268,1268,1268,1268,1259,1259,1259,1255,1255,1255,1255,1250,1250,1250,1250,1245,1241,1236,1236,1232,1232,1232,1232,1232,1232,1232,1232,1227,1227,1223,1223,1219,1219,1219,1219,1214,1214,1214,1210,1206,1206,1206,1202,1202,1202,1202,1202,1197,1197,1197,1197,1197,1189,1189,1189,1189,1189,1185,1185,1185,1181,1181,1181,1181,1177,1177,1177,1169,1169,1169,1169,1169,1169,1165,1165,1165,1165,1161,1157,1157,1157,1153,1153,1153,1153,1153,1149,1149,1145,1145,1145,1141,1141,0,0,0,0,0,0,0,0,0,0,0,0,0,0,0,0,0,0,0,0,0,0,0,0,0,0,0,0,0,0
0,0,0,0,0,0,0,0,0,0,0,0,0,1688,1688,1688,1688,1688,1688,1688,1680,1680,1680,1680,1680,1680,1671,1671,1671,1671,1671,1671,1680,1680,1680,1680,1680,1680,1680,1671,1671,1671,1671,1671,1671,1671,1671,1671,1680,1671,1671,1671,1671,1671,1663,1663,1663,1663,1663,1663,1655,1655,1655,1663,1663,1663,1663,1663,1663,1663,1663,1663,1663,1663,1663,1663,1663,1655,1655,1655,1655,1655,1655,1655,1655,1655,1655,1655,1655,1655,1655,1655,1655,1655,1655,1655,1655,1655,1655,1655,1655,1647,1647,1647,1647,1639,1639,1647,1647,1647,1647,1639,1639,1639,1632,1632,1632,1632,1632,1632,1632,1632,1632,1632,1632,1632,1632,1632,1632,1632,1632,1632,1647,1647,1655,1655,1655,1655,1926,1926,1926,1926,1915,1904,1904,1904,1904,1894,1894,1883,1883,1883,1883,1883,1883,1883,1873,1647,1647,1639,1639,1639,1639,1639,1639,1639,1639,1639,1647,1647,1655,1655,1655,1655,1663,1663,1663,1663,1671,1671,1680,1680,1688,1688,1688,1696,1696,1696,1696,1705,1713,1713,1713,1713,1722,1722,1722,1722,1731,1739,1739,1739,1748,1748,1748,1757,1757,1757,1757,1766,1766,1766,1766,1776,1776,1785,1785,1785,1794,1794,1794,1794,1804,1804,1804,1804,1813,1833,1833,1833,1833,1843,1843,1843,1843,1843,1853,1853,1853,1863,1863,1873,1873,1883,1883,1894,1894,1883,1883,1873,1853,1853,1853,1853,1853,1843,1843,1843,1843,1853,1853,0,0,0,0,1115,1112,1112,1108,1108,1108,1105,1105,1101,1101,1101,1101,1101,1101,1101,1097,1097,1094,1094,1090,1090,1090,1087,1087,1087,1087,1087,1084,1077,1077,1077,1077,1077,1073,1073,1073,1070,1070,1070,1067,1067,1063,1060,1060,1060,1057,1057,1050,1050,1050,1050,1050,1050,1047,1044,1044,1041,1041,1038,1038,1038,1038,1034,1031,1031,1028,1028,1025,1025,1022,1019,1019,1019,1016,1016,1013,1010,1010,1007,1007,1004,1001,1001,998,998,995,995,992,992,992,989,989,987,984,981,981,981,978,978,978,975,975,973,970,970,967,964,964,962,959,959,956,956,956,954,954,951,948,946,943,943,940,938,935,935,935,933,930,928,925,923,920,920,918,918,915,915,913,910,908,908,906,906,906,906,906,906,908,908,910,913,915,918,918,918,918,0,0,0,0,0,1415,1415,1415,1415,1415,1415,1415,1410,1410,1410,1410,1404,1404,1404,1398,1398,1398,1398,1392,1392,1387,1387,1381,1381,1381,1376,1376,1376,1376,1370,1370,1370,1370,1370,1365,1365,1365,1365,1359,1359,1354,1354,1349,1349,1349,1349,1349,1343,1338,1338,1333,1333,1333,1333,1333,1328,1328,1322,1322,1317,1317,1312,1312,1312,1312,1312,1307,1307,1307,1307,1307,1302,1302,1297,1292,1292,1288,1288,1288,1288,1283,1283,1283,1283,1283,1278,1278,1273,1273,1273,1273,1268,1268,1268,1264,1259,1259,1259,1255,1255,1255,1255,1250,1250,1250,1250,1245,1241,1236,1236,1236,1236,1236,1232,1232,1232,1232,1232,1227,1227,1223,1219,1219,1219,1219,1219,1214,1214,1214,1210,1206,1206,1206,1202,1202,1202,1202,1202,1197,1197,1197,1197,1197,1193,1189,1189,1189,1189,1189,1185,1185,1185,1181,1181,1181,1177,1177,1177,1169,1169,1169,1169,1169,1169,1165,1165,1165,1165,1165,1161,1157,1157,1153,1153,1153,1153,1153,1149,1149,1149,1145,1145,1141,1141,0,0,0,0,0,0,0,0,0,0,0,0,0,0,0,0,0,0,0,0,0,0,0,0,0,0,0,0,0,0
0,0,0,0,0,0,0,0,0,0,0,0,0,1688,1688,1688,1688,1688,1688,1688,1688,1680,1680,1680,1680,1680,1671,1671,1671,1671,1671,1680,1680,1680,1680,1680,1680,1680,1680,1671,1671,1671,1671,1671,1671,1671,1671,1671,1680,1671,1671,1671,1671,1671,1671,1663,1663,1663,1663,1663,1655,1655,1655,1663,1663,1663,1663,1663,1663,1663,1663,1663,1663,1663,1663,1663,1663,1663,1663,1663,1655,1655,1655,1655,1655,1655,1655,1655,1655,1655,1655,1655,1655,1655,1655,1655,1655,1655,1655,1655,1655,1647,1647,1647,1647,1639,1639,1647,1647,1647,1647,1639,1639,1639,1632,1632,1632,1632,1632,1632,1632,1632,1632,1632,1632,1632,1632,1632,1632,1632,1632,1639,1647,1655,1655,1655,1655,1663,1926,1926,1926,1926,1915,1904,1904,1904,1904,1894,1894,1883,1883,1883,1883,1883,1883,1883,1873,1873,1647,1639,1639,1639,1639,1639,1639,1639,1639,1639,1647,1647,1655,1655,1655,1655,1663,1663,1663,1663,1671,1671,1680,1680,1688,1688,1688,1696,1696,1696,1705,1713,1713,1713,1713,1713,1722,1722,1722,1722,1731,1731,1739,1748,1748,1757,1757,1757,1757,1766,1766,1766,1766,1766,1766,1776,1776,1785,1785,1785,1794,1794,1794,1794,1804,1804,1804,1813,1833,1843,1843,1843,1843,1843,1843,1843,1843,1853,1853,1853,1863,1863,1863,1873,1873,1883,1883,1883,1883,1883,1883,1873,1863,1853,1853,1853,1853,1853,1853,1853,1853,1853,1853,0,0,0,1130,1115,1115,1115,1112,1108,1108,1105,1105,1101,1101,1101,1101,1101,1101,1101,1097,1097,1094,1094,1090,1090,1090,1090,1087,1087,1087,1084,1084,1077,1077,1077,1077,1073,1073,1073,1070,1070,1070,1067,1067,1063,1063,1063,1060,1060,1057,1057,1050,1050,1050,1050,1050,1050,1047,1044,1044,1041,1041,1038,1038,1038,1038,1034,1031,1031,1028,1025,1025,1025,1022,1019,1019,1019,1016,1016,1013,1010,1010,1007,1004,1004,1004,1001,1001,998,995,995,992,992,992,989,989,984,984,981,981,981,978,978,978,975,973,973,970,970,967,964,962,962,959,959,956,956,956,954,951,951,948,946,943,943,940,938,938,935,935,933,928,928,925,923,920,918,918,918,915,915,913,910,908,908,906,906,906,906,906,906,908,908,910,913,915,918,918,918,918,0,0,0,0,0,1421,1415,1415,1415,1415,1415,1415,1415,1415,1410,1410,1410,1404,1404,1404,1398,1398,1398,1392,1392,1387,1387,1387,1381,1381,1381,1376,1376,1376,1370,1370,1370,1370,1370,1365,1365,1365,1359,1359,1354,1354,1354,1354,1349,1349,1349,1349,1343,1338,1338,1338,1333,1333,1333,1333,1328,1328,1328,1322,1322,1317,1312,1312,1312,1312,1307,1307,1307,1307,1307,1307,1302,1302,1297,1297,1292,1292,1288,1288,1288,1288,1283,1283,1283,1283,1283,1278,1278,1273,1273,1273,1268,1268,1268,1264,1259,1259,1259,1255,1255,1255,1255,1250,1250,1250,1250,1245,1241,1241,1236,1236,1236,1236,1236,1236,1232,1232,1232,1227,1227,1223,1219,1219,1219,1219,1219,1214,1214,1214,1214,1210,1206,1206,1206,1206,1202,1202,1202,1197,1197,1197,1197,1197,1193,1189,1189,1193,1189,1189,1185,1185,1185,1181,1181,1181,1177,1177,1177,1173,1169,1169,1169,1169,1169,1165,1165,1165,1165,1165,1161,1157,1157,1153,1153,1153,1153,1153,1149,1149,1149,1145,1145,1145,1145,0,0,0,0,0,0,0,0,0,0,0,0,0,0,0,0,0,0,0,0,0,0,0,0,0,0,0,0,0,0
0,0,0,0,0,0,0,0,0,0,0,0,0,1688,1688,1688,1688,1688,1688,1688,1688,1680,1680,1680,1680,1680,1680,1680,1680,1680,1680,1680,1680,1680,1680,1680,1680,1680,1680,1680,1680,1680,1663,1663,1671,1663,1663,1680,1671,1671,1671,1671,1671,1671,1671,1671,1671,1663,1663,1663,1655,1655,1655,1663,1663,1663,1663,1663,1663,1663,1663,1663,1663,1663,1663,1663,1663,1663,1663,1663,1655,1655,1655,1655,1655,1655,1655,1655,1655,1655,1655,1655,1655,1655,1655,1655,1655,1655,1655,1655,1655,1647,1647,1647,1647,1639,1639,1647,1647,1647,1647,1647,1647,1639,1632,1632,1632,1632,1632,1632,1632,1632,1632,1632,1632,1632,1632,1632,1632,1632,1632,1639,1647,1655,1655,1655,1655,1936,1936,1926,1926,1926,1915,1915,1904,1904,1904,1894,1894,1894,1883,1883,1883,1883,1883,1883,1873,1873,1639,1639,1639,1639,1639,1639,1639,1639,1639,1639,1647,1647,1655,1655,1655,1655,1663,1663,1663,1663,1671,1671,1680,1680,1688,1688,1688,1696,1696,1705,1705,1713,1713,1713,1713,1713,1722,1722,1722,1722,1731,1731,1739,1748,1748,1757,1757,1757,1757,1766,1766,1766,1766,1766,1766,1766,1776,1785,1785,1785,1794,1794,1794,1804,1804,1804,1804,1804,1833,1833,1833,1833,1843,1843,1843,1843,1843,1853,1853,1863,1863,1863,1863,1873,1873,1883,1883,1883,1883,1883,1883,1873,1863,1853,1853,1853,1853,1853,1853,1853,1853,1863,0,0,0,0,1126,1119,1119,1115,1112,1112,1108,1105,1105,1101,1101,1101,1101,1101,1101,1101,1101,1101,1097,1094,1094,1090,1090,1090,1087,1087,1087,1084,1084,1077,1077,1077,1073,1073,1073,1073,1070,1067,1063,1063,1063,1063,1063,1060,1060,1060,1057,1054,1050,1050,1050,1050,1050,1050,1047,1047,1044,1041,1041,1041,1038,1038,1038,1034,1028,1028,1028,1025,1025,1025,1022,1019,1019,1016,1016,1016,1013,1010,1010,1007,1004,1004,1004,1001,1001,998,995,995,992,992,992,989,989,984,984,981,981,981,978,978,975,975,973,973,970,970,967,964,962,962,959,959,956,956,956,954,951,948,948,946,943,943,940,938,938,938,935,933,928,928,925,920,920,918,918,915,915,915,913,910,908,908,906,906,906,906,906,906,908,908,910,913,915,918,918,918,918,0,0,0,0,1421,1421,1415,1415,1415,1421,1415,1415,1415,1415,1415,1410,1410,1404,1404,1404,1398,1398,1398,1392,1392,1387,1387,1387,1381,1381,1381,1376,1376,1376,1370,1370,1370,1370,1370,1365,1365,1365,1359,1359,1354,1354,1354,1354,1349,1349,1349,1349,1343,1338,1338,1338,1333,1333,1333,1333,1328,1328,1328,1322,1322,1317,1312,1312,1312,1312,1307,1307,1307,1307,1307,1307,1302,1302,1302,1297,1292,1292,1288,1288,1288,1288,1288,1288,1283,1283,1283,1278,1273,1273,1273,1273,1268,1268,1268,1268,1264,1259,1259,1255,1255,1255,1255,1255,1250,1250,1250,1250,1241,1241,1241,1236,1236,1236,1236,1236,1232,1232,1232,1232,1227,1227,1223,1219,1219,1219,1219,1214,1214,1214,1214,1210,1210,1206,1206,1206,1202,1202,1202,1197,1197,1197,1197,1197,1193,1189,1189,1193,1189,1189,1185,1185,1185,1185,1181,1181,1181,1177,1177,1173,1173,1169,1169,1169,1169,1169,1165,1165,1165,1161,1161,1161,1157,1153,1153,1153,1153,1153,1149,1149,1149,1145,1145,1145,1145,0,0,0,0,0,0,0,0,0,0,0,0,0,0,0,0,0,0,0,0,0,0,0,0,0,0,0,0,0,0
0,0,0,0,0,0,0,0,0,0,0,0,0,1688,1688,1688,1688,1688,1688,1688,1688,1688,1688,1688,1688,1688,1680,1680,1680,1680,1680,1680,1680,1680,1680,1680,1680,1680,1680,1680,1680,1680,1663,1663,1663,1663,1663,1663,1663,1671,1671,1671,1671,1671,1671,1671,1671,1671,1663,1663,1663,1663,1663,1663,1663,1663,1663,1663,1663,1663,1663,1663,1663,1663,1663,1663,1663,1663,1663,1663,1655,1655,1655,1655,1655,1655,1655,1655,1655,1655,1655,1655,1655,1655,1655,1655,1655,1655,1663,1655,1655,1647,1647,1647,1647,1639,1639,1647,1647,1647,1647,1647,1647,1639,1632,1632,1632,1632,1632,1632,1632,1632,1632,1632,1632,1632,1632,1632,1632,1632,1632,1639,1647,1655,1655,1655,1655,1936,1936,1936,1936,1926,1915,1915,1904,1904,1904,1904,1894,1894,1883,1883,1883,1883,1883,1883,1873,1873,1639,1639,1639,1639,1639,1639,1639,1639,1639,1639,1647,1655,1655,1655,1655,1655,1663,1663,1663,1663,1671,1671,1680,1680,1688,1688,1688,1696,1696,1705,1705,1713,1713,1713,1713,1713,1722,1722,1722,1722,1731,1731,1739,1748,1748,1757,1757,1757,1757,1766,1766,1766,1766,1766,1766,1766,1776,1785,1785,1794,1794,1794,1804,1804,1804,1804,1804,1804,1833,1833,1833,1833,1843,1843,1843,1843,1843,1853,1853,1863,1863,1863,1873,1873,1883,1883,1883,1883,1883,1883,1883,1873,1873,1853,1853,1853,1853,1853,1853,1853,1853,0,0,0,0,0,1123,1119,1115,1115,1115,1112,1112,1105,1105,1105,1101,1101,1101,1101,1101,1101,1105,1101,1097,1094,1094,1094,1090,1090,1087,1087,1087,1084,1084,1077,1077,1077,1073,1073,1073,1070,1070,1067,1063,1063,1063,1063,1063,1060,1060,1060,1057,1054,1050,1050,1050,1050,1050,1047,1047,1044,1044,1041,1041,1038,1038,1038,1038,1034,1028,1028,1028,1025,1025,1022,1022,1019,1019,1016,1016,1016,1013,1013,1010,1010,1004,1004,1004,1001,998,998,995,992,992,992,989,989,989,984,981,981,981,978,978,978,975,973,973,970,970,967,967,964,962,962,959,959,956,956,956,954,951,948,946,946,943,943,940,938,938,938,935,933,928,925,925,920,918,918,918,915,915,915,913,910,908,908,906,906,906,906,906,908,908,908,913,913,915,918,918,918,0,0,0,0,0,1421,1421,1415,1415,1415,1415,1415,1415,1415,1415,1415,1410,1410,1410,1404,1404,1404,1398,1392,1392,1392,1387,1387,1387,1381,1381,1381,1376,1376,1376,1376,1370,1370,1370,1370,1365,1365,1365,1359,1359,1354,1354,1354,1354,1354,1349,1349,1349,1343,1343,1338,1338,1338,1333,1333,1333,1328,1328,1328,1328,1322,1317,1312,1312,1312,1312,1312,1307,1307,1307,1307,1307,1302,1302,1302,1297,1292,1292,1292,1292,1288,1288,1288,1288,1283,1283,1283,1278,1273,1273,1273,1268,1268,1268,1268,1268,1264,1259,1259,1255,1255,1255,1255,1255,1250,1250,1250,1250,1241,1241,1241,1236,1236,1236,1236,1236,1232,1232,1232,1232,1227,1227,1223,1223,1219,1219,1219,1219,1214,1214,1214,1210,1210,1210,1206,1206,1202,1202,1202,1197,1197,1197,1197,1197,1197,1193,1193,1193,1193,1189,1185,1185,1185,1185,1185,1181,1181,1181,1177,1177,1173,1173,1169,1169,1169,1169,1165,1165,1165,1161,1161,1161,1157,1153,1153,1153,1153,1153,1153,1149,1149,1149,1145,1145,1145,0,0,0,0,0,0,0,0,0,0,0,0,0,0,0,0,0,0,0,0,0,0,0,0,0,0,0,0,0,0
0,0,0,0,0,0,0,0,0,0,0,0,0,1688,1688,1688,1688,1688,1688,1688,1688,1688,1688,1680,1680,1688,1680,1680,1680,1680,1680,1680,1680,1680,1680,1680,1680,1680,1680,1680,1680,1680,1663,1663,1663,1663,1663,1663,1663,1671,1671,1671,1671,1671,1671,1671,1671,1671,1663,1663,1663,1663,1663,1663,1663,1663,1663,1663,1663,1663,1663,1655,1655,1663,1663,1663,1663,1663,1663,1663,1663,1663,1663,1663,1663,1655,1655,1655,1655,1655,1655,1655,1655,1655,1655,1655,1655,1655,1655,1655,1655,1647,1647,1647,1647,1639,1639,1647,1647,1647,1647,1647,1647,1639,1632,1632,1632,1632,1632,1632,1632,1632,1632,1632,1632,1632,1632,1632,1632,1632,1632,1639,1647,1655,1655,1655,1655,1936,1936,1926,1926,1926,1915,1915,1915,1904,1904,1894,1894,1894,1883,1883,1883,1883,1883,1883,1883,1873,1639,1639,1639,1639,1639,1639,1647,1639,1639,1647,1647,1655,1655,1655,1655,1655,1663,1663,1663,1663,1671,1680,1680,1680,1688,1688,1688,1696,1696,1696,1705,1713,1713,1713,1713,1722,1722,1722,1722,1722,1731,1731,1739,1748,1748,1757,1757,1757,1766,1766,1766,1766,1766,1776,1776,1776,1776,1785,1794,1794,1794,1794,1804,1804,1804,1804,1804,1813,1833,1833,1833,1833,1833,1843,1843,1843,1843,1853,1863,1863,1863,1863,1873,1873,1883,1883,1883,1883,1883,1883,1883,1873,1873,1873,1863,1853,1853,1853,1853,1863,0,0,0,0,0,0,1119,1115,1115,1115,1115,1112,1112,1108,1105,1105,1105,1105,1105,1105,1105,1105,1105,1108,1105,1097,1094,1094,1090,1090,1087,1087,1087,1084,1077,1077,1077,1073,1073,1073,1073,1070,1067,1067,1063,1063,1063,1063,1060,1060,1060,1060,1057,1054,1050,1050,1050,1050,1050,1047,1047,1044,1044,1041,1041,1038,1038,1038,1038,1034,1031,1028,1028,1025,1025,1022,1022,1019,1019,1016,1016,1016,1013,1013,1013,1007,1004,1004,1004,1001,998,998,995,992,992,992,989,989,989,984,981,981,981,978,978,978,975,973,973,970,970,967,967,967,964,962,959,959,956,956,954,954,951,948,946,946,943,943,940,938,938,935,935,930,928,925,925,920,918,918,918,915,915,915,913,910,908,908,906,906,906,906,906,908,908,908,913,913,915,918,918,918,0,0,0,0,0,1421,1421,1421,1415,1415,1415,1415,1415,1415,1415,1415,1415,1410,1410,1404,1404,1398,1398,1392,1392,1392,1387,1387,1387,1381,1381,1381,1381,1376,1376,1376,1376,1370,1370,1370,1370,1365,1365,1359,1359,1354,1354,1354,1349,1349,1349,1349,1349,1349,1343,1338,1338,1338,1333,1333,1333,1333,1328,1328,1328,1322,1317,1317,1312,1312,1312,1312,1307,1307,1307,1307,1307,1302,1302,1302,1302,1292,1292,1292,1292,1288,1288,1288,1288,1288,1288,1283,1278,1278,1273,1273,1268,1268,1268,1268,1264,1264,1259,1259,1255,1255,1255,1255,1255,1255,1250,1250,1250,1250,1245,1241,1241,1236,1236,1236,1236,1232,1232,1232,1232,1227,1227,1227,1223,1219,1219,1219,1219,1214,1214,1214,1214,1210,1210,1210,1206,1202,1202,1197,1197,1197,1197,1197,1197,1197,1193,1193,1193,1193,1189,1189,1185,1185,1185,1185,1181,1181,1181,1177,1177,1173,1173,1173,1169,1169,1169,1165,1165,1165,1165,1161,1161,1157,1157,1153,1153,1153,1153,1153,1149,1149,1149,1149,1145,1145,0,0,0,0,0,0,0,0,0,0,0,0,0,0,0,0,0,0,0,0,0,0,0,0,0,0,0,0,0,0
0,0,0,0,0,0,0,0,0,0,0,0,0,1688,1688,1688,1688,1688,1688,1688,1688,1688,1688,1680,1680,1688,1680,1680,1680,1680,1680,1680,1680,1680,1680,1688,1680,1680,1680,1680,1680,1680,1671,1671,1680,1680,1680,1680,1680,1671,1671,1671,1671,1671,1671,1671,1671,1671,1663,1663,1663,1663,1663,1663,1663,1663,1663,1663,1663,1663,1663,1655,1655,1663,1663,1663,1663,1663,1663,1663,1663,1663,1663,1663,1663,1655,1655,1655,1655,1655,1655,1655,1655,1655,1655,1655,1655,1655,1655,1655,1655,1655,1647,1647,1647,1647,1647,1647,1647,1647,1647,1647,1647,1647,1639,1639,1632,1632,1632,1632,1632,1632,1632,1632,1632,1632,1632,1632,1632,1639,1639,1639,1647,1655,1655,1655,1655,1936,1936,1926,1926,1926,1915,1915,1915,1904,1904,1894,1894,1894,1883,1883,1883,1883,1883,1883,1883,1883,1647,1647,1647,1647,1647,1647,1647,1647,1647,1647,1647,1655,1655,1655,1655,1655,1663,1663,1663,1663,1671,1680,1680,1680,1688,1688,1688,1696,1696,1696,1705,1713,1713,1713,1713,1722,1722,1722,1722,1722,1731,1731,1739,1748,1748,1757,1757,1757,1766,1766,1766,1766,1766,1776,1776,1776,1776,1785,1794,1794,1794,1794,1804,1804,1804,1804,1804,1813,1823,1823,1833,1833,1833,1843,1843,1843,1843,1853,1863,1863,1863,1863,1873,1873,1883,1883,1883,1883,1883,1883,1883,1873,1873,1873,1863,1853,1853,1853,1843,1843,0,0,0,0,0,0,1119,1115,1115,1115,1115,1112,1112,1108,1105,1105,1105,1105,1105,1105,1105,1108,1108,1108,1108,1105,1105,1094,1094,1090,1087,1087,1087,1084,1077,1077,1077,1073,1073,1073,1073,1070,1063,1063,1063,1063,1063,1060,1060,1060,1060,1060,1057,1054,1050,1050,1050,1050,1050,1047,1047,1047,1044,1041,1041,1041,1038,1038,1038,1034,1031,1031,1025,1025,1022,1022,1022,1019,1019,1019,1016,1016,1016,1013,1013,1007,1004,1004,1004,1001,998,998,995,992,992,992,989,989,987,984,984,981,981,978,978,978,975,973,973,970,970,967,967,964,964,962,959,959,956,956,954,954,951,948,946,946,946,943,940,938,938,935,935,930,928,928,925,920,920,918,918,915,915,915,913,910,908,908,906,906,906,906,906,908,908,908,913,915,915,918,918,920,0,0,0,0,0,1433,1427,1421,1421,1421,1421,1415,1415,1415,1415,1415,1410,1410,1410,1404,1404,1398,1398,1392,1392,1392,1387,1387,1387,1387,1381,1381,1381,1376,1376,1376,1376,1370,1370,1370,1370,1365,1365,1359,1359,1354,1354,1354,1349,1349,1349,1349,1349,1343,1343,1338,1338,1338,1333,1333,1333,1333,1328,1328,1328,1328,1322,1317,1312,1312,1312,1312,1312,1312,1307,1307,1307,1302,1302,1302,1302,1292,1292,1292,1292,1288,1288,1288,1288,1288,1288,1283,1283,1278,1273,1273,1268,1268,1268,1268,1264,1264,1259,1259,1255,1255,1255,1255,1255,1255,1250,1250,1250,1250,1245,1245,1241,1241,1236,1236,1236,1232,1232,1232,1232,1227,1227,1227,1223,1223,1219,1219,1219,1219,1214,1214,1214,1210,1210,1210,1206,1202,1202,1197,1197,1197,1197,1197,1197,1193,1193,1193,1193,1193,1189,1189,1185,1185,1185,1185,1181,1181,1181,1177,1177,1177,1173,1173,1169,1169,1169,1169,1165,1165,1165,1161,1161,1157,1157,1153,1153,1153,1153,1153,1149,1149,1149,1149,1145,1145,0,0,0,0,0,0,0,0,0,0,0,0,0,0,0,0,0,0,0,0,0,0,0,0,0,0,0,0,0,0
0,0,0,0,0,0,0,0,0,0,0,0,0,1688,1688,1688,1688,1688,1688,1688,1688,1688,1688,1688,1688,1688,1680,1680,1680,1680,1680,1680,1680,1680,1680,1680,1680,1680,1688,1688,1680,1680,1680,1680,1680,1680,1680,1680,1680,1680,1671,1671,1671,1671,1671,1671,1671,1671,1663,1663,1663,1663,1663,1663,1663,1663,1663,1663,1663,1663,1663,1663,1663,1663,1663,1663,1663,1663,1663,1663,1663,1663,1663,1663,1663,1655,1655,1655,1655,1655,1655,1655,1655,1655,1655,1655,1655,1655,1655,1655,1655,1655,1647,1647,1647,1647,1647,1647,1647,1647,1647,1647,1647,1647,1639,1639,1639,1632,1632,1632,1632,1632,1632,1632,1632,1632,1632,1632,1632,1639,1639,1647,1647,1655,1655,1655,1936,1936,1936,1936,1936,1926,1926,1915,1915,1915,1904,1904,1904,1894,1894,1883,1883,1883,1883,1883,1883,1883,1873,1647,1647,1647,1647,1647,1647,1647,1647,1647,1655,1655,1655,1655,1655,1655,1663,1663,1663,1663,1671,1680,1680,1688,1688,1688,1688,1696,1696,1696,1705,1713,1713,1713,1713,1722,1722,1722,1722,1722,1731,1731,1739,1748,1748,1757,1757,1766,1766,1766,1766,1766,1766,1776,1776,1776,1776,1785,1794,1794,1794,1804,1804,1804,1804,1813,1813,1823,1823,1823,1833,1833,1843,1843,1843,1843,1853,1853,1863,1863,1863,1873,1873,1873,1883,1883,1883,1883,1883,1873,1873,1873,1873,1863,1863,1853,1853,1843,1843,1843,0,0,0,0,0,0,1119,1115,1115,1115,1115,1112,1108,1108,1105,1105,1105,1105,1105,1105,1105,1108,1108,1112,1112,1112,1108,1108,1115,1090,1087,1087,1087,1077,1077,1077,1077,1077,1073,1073,1073,1063,1063,1063,1063,1063,1063,1060,1060,1060,1060,1057,1057,1050,1050,1050,1050,1050,1050,1047,1047,1047,1044,1041,1041,1041,1038,1038,1038,1034,1034,1031,1025,1025,1022,1022,1022,1019,1019,1016,1016,1016,1013,1013,1010,1007,1007,1004,1004,1001,1001,998,995,992,992,992,989,989,987,984,984,981,981,978,978,978,975,973,970,970,970,967,967,964,964,962,959,959,956,956,954,954,951,948,946,946,946,943,940,938,938,935,935,930,928,925,925,920,920,918,918,915,915,915,913,910,908,908,906,906,906,906,906,908,908,910,915,915,918,918,918,920,0,0,0,0,0,1433,1433,1427,1421,1421,1421,1415,1415,1415,1415,1415,1410,1410,1404,1404,1404,1398,1398,1392,1392,1392,1392,1387,1387,1387,1387,1381,1381,1376,1376,1376,1376,1370,1370,1370,1370,1365,1365,1359,1359,1354,1354,1354,1354,1354,1349,1349,1349,1343,1343,1338,1338,1338,1333,1333,1333,1333,1328,1328,1328,1328,1322,1317,1317,1312,1312,1312,1312,1312,1307,1307,1307,1302,1302,1302,1302,1292,1292,1292,1292,1292,1288,1288,1288,1288,1288,1283,1278,1278,1273,1273,1268,1268,1268,1268,1264,1264,1259,1259,1259,1255,1255,1255,1255,1255,1250,1250,1250,1250,1245,1245,1241,1241,1236,1236,1236,1232,1232,1232,1232,1227,1227,1227,1223,1223,1219,1219,1219,1219,1214,1214,1214,1210,1210,1210,1206,1202,1202,1202,1197,1197,1197,1197,1197,1193,1193,1193,1193,1193,1189,1189,1185,1185,1185,1181,1181,1181,1181,1177,1177,1177,1173,1173,1169,1169,1169,1169,1165,1165,1165,1165,1161,1157,1157,1157,1153,1153,1153,1153,1149,1149,1149,1149,1145,1145,0,0,0,0,0,0,0,0,0,0,0,0,0,0,0,0,0,0,0,0,0,0,0,0,0,0,0,0,0,0
0,0,0,0,0,0,0,0,0,0,0,0,0,1696,1696,1696,1688,1688,1688,1688,1688,1688,1688,1688,1688,1688,1680,1680,1680,1680,1680,1680,1680,1680,1680,1680,1680,1680,1688,1688,1688,1688,1680,1680,1688,1680,1680,1680,1680,1680,1680,1671,1671,1671,1671,1671,1671,1671,1671,1671,1663,1663,1663,1663,1663,1663,1663,1663,1663,1663,1663,1663,1663,1663,1663,1663,1663,1663,1663,1663,1663,1663,1663,1663,1663,1655,1655,1655,1655,1655,1655,1655,1655,1655,1655,1655,1655,1655,1655,1655,1647,1647,1647,1639,1639,1647,1647,1639,1639,1647,1647,1647,1647,1647,1639,1639,1639,1632,1632,1632,1632,1632,1632,1632,1632,1632,1632,1632,1639,1639,1639,1647,1655,1655,1655,1655,1655,1936,1936,1936,1936,1936,1926,1926,1915,1915,1915,1904,1904,1904,1894,1894,1894,1894,1894,1883,1883,1883,1655,1655,1647,1647,1647,1647,1647,1647,1647,1647,1655,1655,1655,1655,1655,1655,1663,1663,1663,1663,1671,1680,1688,1688,1688,1688,1688,1696,1696,1696,1705,1713,1713,1713,1713,1722,1722,1722,1722,1722,1731,1731,1739,1748,1748,1757,1757,1766,1766,1766,1766,1766,1776,1776,1776,1776,1785,1785,1794,1794,1794,1804,1804,1804,1813,1813,1823,1823,1823,1833,1833,1833,1843,1843,1843,1843,1853,1853,1863,1863,1863,1863,1873,1883,1883,1883,1883,1883,1883,1873,1873,1883,1873,1863,1863,1853,1853,1843,1843,0,0,0,0,0,0,0,1119,1115,1115,1115,1115,1112,1108,1108,1105,1105,1105,1105,1105,1105,1105,1108,1112,1112,1115,1115,1115,1115,1115,1115,1115,1748,1077,0,1077,1077,1077,1077,1731,1731,1722,1722,1731,1722,1063,1063,1060,1060,1060,1060,1060,1057,1054,1050,1050,1050,1050,1050,1050,1047,1047,1047,1044,1041,1041,1041,1038,1038,1038,1038,1031,1031,1028,1025,1025,1022,1022,1019,1019,1016,1016,1016,1013,1013,1010,1007,1007,1004,1004,1001,1001,998,995,995,992,992,989,989,987,984,984,981,981,978,978,975,975,973,970,970,970,967,967,967,964,962,959,959,956,956,956,954,951,948,946,946,943,943,940,938,938,935,935,930,928,925,923,920,918,918,918,915,915,915,913,910,908,908,908,906,906,908,908,908,910,910,915,915,918,920,920,923,925,0,0,0,0,1433,1427,1421,1421,1421,1415,1415,1415,1415,1415,1410,1410,1404,1404,1404,1404,1398,1398,1392,1392,1392,1392,1392,1387,1387,1387,1387,1381,1381,1376,1376,1376,1376,1370,1370,1370,1365,1365,1359,1359,1354,1354,1354,1354,1354,1349,1349,1349,1349,1343,1343,1338,1338,1333,1333,1333,1333,1333,1328,1328,1328,1322,1317,1317,1312,1312,1312,1312,1312,1307,1307,1307,1307,1302,1302,1302,1292,1292,1292,1292,1292,1288,1288,1288,1288,1288,1283,1278,1273,1273,1273,1268,1268,1268,1268,1264,1264,1259,1259,1259,1255,1255,1255,1255,1255,1250,1250,1250,1250,1250,1245,1241,1241,1241,1236,1236,1236,1232,1232,1232,1232,1227,1227,1227,1223,1223,1219,1219,1219,1214,1214,1214,1214,1210,1210,1206,1206,1202,1202,1197,1197,1197,1197,1197,1193,1193,1193,1193,1193,1189,1189,1185,1185,1185,1181,1181,1181,1181,1177,1177,1177,1173,1173,1169,1169,1169,1169,1165,1165,1165,1165,1161,1157,1157,1157,1153,1153,1153,1153,1153,1149,1149,1149,1149,1149,0,0,0,0,0,0,0,0,0,0,0,0,0,0,0,0,0,0,0,0,0,0,0,0,0,0,0,0,0,0
0,0,0,0,0,0,0,0,0,0,0,0,0,1696,1696,1696,1688,1688,1688,1688,1688,1688,1688,1688,1680,1680,1680,1671,1671,1671,1671,1680,1680,1680,1680,1688,1688,1688,1688,1688,1688,1688,1680,1680,1688,1680,1680,1680,1680,1680,1680,1671,1671,1671,1671,1671,1671,1671,1671,1671,1663,1663,1663,1663,1663,1663,1663,1663,1663,1663,1663,1663,1663,1663,1663,1663,1663,1663,1663,1663,1663,1663,1663,1663,1663,1655,1655,1655,1655,1655,1655,1655,1655,1655,1655,1655,1655,1655,1655,1655,1647,1647,1647,1639,1639,1647,1647,1639,1639,1647,1647,1647,1647,1647,1647,1647,1639,1639,1639,1632,1632,1632,1632,1632,1632,1632,1632,1632,1639,1639,1647,1647,1655,1655,1655,1655,1655,1947,1947,1947,1936,1936,1926,1926,1926,1915,1915,1915,1904,1904,1894,1894,1894,1894,1894,1883,1883,1883,1647,1647,1655,1655,1655,1655,1655,1655,1647,1647,1655,1655,1655,1655,1655,1655,1663,1663,1663,1671,1671,1680,1688,1688,1688,1688,1688,1696,1696,1696,1705,1713,1713,1713,1713,1722,1722,1722,1722,1731,1731,1739,1739,1748,1757,1757,1757,1766,1766,1766,1766,1766,1776,1776,1776,1776,1785,1794,1794,1794,1804,1804,1804,1813,1813,1813,1823,1823,1823,1833,1833,1833,1843,1843,1843,1853,1853,1853,1863,1863,1863,1863,1873,1883,1883,1883,1883,1883,1883,1883,1883,1883,1873,1873,1863,1863,1843,1843,0,0,0,0,0,0,0,0,1115,1115,1115,1115,1115,1112,1108,1108,1105,1105,1105,1105,1105,1105,1108,1108,1112,1112,1115,1115,1115,1119,1119,0,0,0,1748,1757,1757,1757,1757,1748,1731,1731,1722,1722,1722,1722,1713,1713,1060,1060,1060,1060,1060,1057,1054,1050,1050,1047,1047,1050,1050,1047,1047,1047,1044,1041,1041,1038,1038,1038,1038,1034,1031,1028,1028,1025,1025,1022,1022,1019,1019,1016,1016,1016,1013,1013,1010,1007,1004,1004,1004,1001,1001,998,995,995,992,992,989,987,987,984,981,981,981,978,978,975,973,973,970,970,970,967,967,964,964,962,959,959,956,956,954,954,951,948,946,946,943,940,940,938,935,935,933,930,928,925,923,920,918,918,918,915,915,915,913,910,908,908,908,908,908,908,908,908,910,913,915,918,920,920,923,923,925,0,0,0,0,0,1427,1421,1421,1421,1415,1415,1415,1415,1415,1410,1410,1404,1404,1404,1404,1398,1398,1392,1392,1392,1392,1392,1392,1392,1387,1387,1381,1381,1381,1376,1376,1376,1370,1370,1370,1370,1365,1365,1359,1354,1354,1354,1354,1354,1349,1349,1349,1349,1343,1343,1338,1338,1333,1333,1333,1333,1333,1328,1328,1328,1328,1322,1317,1317,1312,1312,1312,1312,1307,1307,1307,1307,1307,1302,1302,1292,1292,1292,1292,1292,1292,1288,1288,1288,1288,1283,1278,1273,1273,1273,1273,1268,1268,1268,1264,1264,1259,1259,1259,1259,1255,1255,1255,1255,1250,1250,1250,1250,1250,1245,1241,1241,1241,1236,1236,1236,1232,1232,1232,1232,1227,1227,1227,1223,1223,1219,1219,1219,1214,1214,1214,1214,1210,1210,1210,1206,1202,1202,1197,1197,1197,1197,1197,1193,1193,1193,1193,1193,1189,1189,1185,1185,1185,1181,1181,1181,1181,1181,1177,1177,1173,1173,1169,1169,1169,1169,1165,1165,1165,1165,1161,1157,1157,1157,1153,1153,1153,1153,1153,1149,1149,1149,1149,1149,0,0,0,0,0,0,0,0,0,0,0,0,0,0,0,0,0,0,0,0,0,0,0,0,0,0,0,0,0,0
0,0,0,0,0,0,0,0,0,0,0,0,0,1696,1696,1696,1688,1688,1688,1688,1688,1688,1688,1680,1680,1680,1680,1671,1671,1671,1671,1680,1680,1680,1680,1688,1688,1688,1688,1688,1688,1688,1680,1680,1680,1680,1680,1680,1688,1680,1680,1671,1671,1671,1671,1671,1671,1671,1671,1671,1671,1671,1663,1663,1663,1663,1663,1663,1663,1663,1671,1663,1663,1663,1663,1663,1663,1663,1663,1663,1663,1663,1663,1663,1663,1655,1655,1655,1655,1655,1655,1655,1655,1655,1655,1655,1655,1655,1655,1655,1655,1647,1647,1647,1647,1647,1647,1647,1647,1647,1647,1647,1647,1647,1647,1647,1647,1647,1639,1632,1632,1632,1632,1632,1632,1632,1632,1632,1639,1639,1647,1647,1655,1655,1655,1655,1655,1663,1947,1947,1936,1936,1936,1936,1926,1926,1915,1915,1904,1904,1894,1894,1894,1894,1894,1883,1883,1883,1647,1647,1655,1655,1655,1655,1655,1655,1655,1655,1655,1655,1655,1655,1655,1655,1663,1663,1663,1671,1680,1680,1688,1688,1688,1688,1688,1696,1696,1696,1705,1713,1713,1722,1722,1722,1722,1731,1731,1731,1731,1739,1748,1748,1757,1757,1757,1766,1766,1766,1766,1766,1766,1776,1776,1785,1785,1794,1794,1794,1804,1804,1813,1813,1813,1823,1823,1823,1823,1833,1833,1833,1843,1843,1853,1853,1853,1863,1863,1863,1873,1873,1873,1873,1883,1883,1894,1883,1883,1883,1883,1883,1873,1873,1873,1853,1843,1843,0,0,0,0,0,0,0,0,1115,1115,1115,1115,1112,1112,1108,1108,1105,1105,1105,1105,1105,1105,1108,1108,1112,1112,1115,1115,1115,1119,1119,1119,0,0,1748,1748,1748,1748,1748,1748,1739,1731,1731,1722,1722,1722,1713,1713,1705,1063,1063,1063,1060,1057,1054,1050,1050,1047,1047,1047,1047,1047,1047,1050,1044,1041,1041,1038,1038,1038,1034,1034,1031,1028,1028,1025,1025,1025,1022,1019,1019,1016,1016,1016,1013,1013,1007,1007,1004,1004,1004,1001,1001,998,995,995,992,992,989,987,987,984,981,981,981,978,978,975,973,973,970,970,967,967,967,964,962,962,959,956,956,954,954,951,951,948,946,943,943,940,938,938,935,935,933,930,928,925,923,918,918,918,918,915,915,915,913,910,908,908,908,908,908,908,908,910,910,913,918,918,920,923,925,925,925,0,0,0,0,0,1433,1427,1421,1421,1421,1415,1415,1415,1415,1415,1410,1404,1404,1404,1404,1398,1398,1398,1392,1392,1392,1392,1392,1392,1387,1387,1387,1381,1381,1376,1376,1376,1370,1370,1370,1370,1370,1365,1359,1359,1354,1354,1354,1354,1349,1349,1349,1349,1343,1343,1338,1338,1333,1333,1333,1333,1333,1328,1328,1328,1328,1322,1317,1317,1317,1312,1312,1312,1307,1307,1307,1307,1307,1302,1302,1297,1292,1292,1292,1292,1292,1288,1288,1288,1288,1283,1278,1273,1273,1273,1273,1268,1268,1268,1268,1264,1264,1259,1259,1259,1255,1255,1255,1255,1250,1250,1250,1250,1250,1245,1241,1241,1241,1236,1236,1236,1236,1232,1232,1232,1227,1227,1227,1223,1223,1219,1219,1219,1214,1214,1214,1214,1210,1210,1210,1206,1202,1202,1202,1197,1197,1197,1197,1197,1193,1193,1193,1193,1189,1189,1185,1185,1185,1181,1181,1181,1181,1181,1177,1177,1173,1173,1169,1169,1169,1169,1165,1165,1165,1165,1165,1161,1157,1157,1157,1157,1153,1153,1153,1149,1149,1149,1149,1149,0,0,0,0,0,0,0,0,0,0,0,0,0,0,0,0,0,0,0,0,0,0,0,0,0,0,0,0,0,0
0,0,0,0,0,0,0,0,0,0,0,0,0,1696,1696,1696,1688,1688,1688,1688,1688,1688,1688,1680,1680,1680,1680,1671,1671,1680,1680,1680,1680,1680,1680,1680,1688,1688,1688,1688,1688,1688,1680,1680,1680,1680,1680,1680,1680,1680,1680,1680,1680,1671,1671,1671,1671,1671,1671,1671,1671,1671,1671,1663,1663,1663,1663,1663,1663,1663,1663,1663,1663,1663,1663,1663,1663,1663,1663,1663,1663,1663,1663,1663,1663,1655,1655,1655,1655,1655,1655,1655,1655,1655,1655,1655,1655,1655,1655,1655,1655,1655,1647,1647,1647,1647,1647,1647,1647,1647,1647,1655,1655,1647,1647,1647,1647,1647,1639,1632,1632,1632,1632,1632,1632,1639,1639,1639,1639,1639,1647,1647,1655,1655,1655,1655,1655,1663,1947,1947,1947,1936,1936,1936,1936,1926,1915,1915,1904,1904,1894,1894,1894,1894,1894,1883,1883,1883,1655,1655,1655,1655,1655,1655,1655,1655,1655,1655,1655,1655,1655,1655,1655,1663,1663,1663,1663,1671,1680,1680,1688,1688,1688,1688,1696,1696,1696,1696,1705,1713,1713,1713,1722,1722,1722,1731,1731,1731,1731,1739,1748,1748,1757,1757,1757,1766,1766,1766,1766,1766,1766,1776,1776,1785,1785,1794,1794,1804,1804,1804,1813,1813,1823,1823,1823,1833,1833,1833,1833,1833,1843,1853,1853,1863,1863,1863,1863,1863,1873,1873,1873,1873,1883,1883,1883,1883,1883,1883,1883,1883,1873,1873,1863,1853,1843,1843,0,0,0,0,0,0,0,0,1115,1115,1115,1115,1112,1112,1108,1108,1108,1105,1105,1105,1105,1105,1108,1112,1112,1115,1115,1115,1119,1119,1119,0,0,0,1748,1748,1748,1748,1748,1748,1739,1731,1731,1731,1722,1722,1713,1713,1705,1696,1696,1696,1696,1696,1696,1688,1688,1688,1050,1047,1047,1047,1047,1054,1050,1041,1041,1041,1038,1038,1034,1034,1031,1028,1028,1025,1025,1025,1022,1019,1019,1016,1016,1016,1013,1013,1007,1007,1004,1004,1004,1001,1001,998,995,995,992,992,989,987,987,984,981,981,981,978,978,975,975,973,970,970,967,967,964,964,962,959,959,956,956,954,954,951,951,948,946,943,940,940,938,935,935,935,933,930,928,925,923,918,918,918,918,915,915,915,913,908,908,908,908,908,908,908,908,910,913,913,918,920,923,923,925,925,925,0,0,0,0,0,1433,1427,1421,1421,1421,1421,1415,1415,1415,1415,1410,1410,1404,1404,1404,1398,1398,1398,1398,1392,1392,1392,1392,1392,1392,1387,1387,1381,1381,1376,1376,1376,1370,1370,1370,1370,1370,1370,1365,1359,1354,1354,1354,1354,1349,1349,1349,1349,1343,1343,1338,1333,1333,1333,1333,1333,1333,1328,1328,1328,1328,1322,1322,1317,1317,1312,1312,1312,1307,1307,1307,1307,1302,1302,1302,1297,1297,1292,1292,1292,1292,1292,1288,1288,1288,1283,1283,1278,1273,1273,1273,1273,1268,1268,1268,1264,1264,1259,1259,1259,1259,1255,1255,1255,1250,1250,1250,1250,1250,1245,1241,1241,1241,1236,1236,1236,1236,1232,1232,1232,1227,1227,1227,1223,1223,1219,1219,1219,1214,1214,1214,1214,1210,1210,1210,1206,1206,1202,1202,1202,1197,1197,1197,1197,1197,1193,1193,1193,1189,1189,1189,1185,1185,1181,1181,1181,1181,1181,1177,1177,1173,1173,1169,1169,1169,1169,1165,1165,1165,1165,1165,1161,1161,1157,1157,1157,1153,1153,1153,1149,1149,1149,1149,1149,0,0,0,0,0,0,0,0,0,0,0,0,0,0,0,0,0,0,0,0,0,0,0,0,0,0,0,0,0,0
0,0,0,0,0,0,0,0,0,0,0,0,0,1696,1696,1696,1688,1688,1688,1688,1688,1688,1688,1688,1680,1680,1680,1680,1680,1680,1680,1688,1680,1680,1680,1680,1680,1680,1688,1688,1688,1688,1688,1688,1680,1680,1680,1680,1680,1680,1680,1680,1680,1671,1671,1671,1671,1671,1671,1671,1671,1671,1671,1671,1671,1663,1663,1663,1663,1663,1663,1663,1663,1671,1663,1663,1671,1671,1663,1663,1663,1663,1663,1663,1663,1655,1655,1655,1655,1655,1655,1655,1655,1655,1655,1655,1655,1655,1655,1655,1655,1655,1647,1647,1647,1647,1647,1647,1647,1647,1647,1655,1655,1655,1655,1655,1647,1647,1639,1639,1639,1639,1632,1632,1632,1639,1639,1639,1639,1639,1647,1647,1655,1655,1663,1663,1663,1663,1663,1671,1947,1936,1936,1936,1926,1926,1926,1915,1915,1904,1904,1894,1894,1894,1894,1883,1883,1883,1655,1655,1655,1655,1655,1655,1655,1655,1655,1655,1655,1655,1655,1655,1655,1663,1663,1663,1671,1680,1680,1688,1688,1688,1688,1696,1696,1696,1696,1696,1705,1713,1713,1713,1722,1722,1722,1731,1731,1731,1731,1739,1748,1748,1757,1757,1757,1757,1766,1766,1766,1766,1766,1776,1776,1785,1794,1794,1794,1804,1804,1813,1813,1823,1823,1833,1833,1833,1833,1833,1833,1843,1843,1853,1853,1863,1863,1863,1863,1863,1873,1873,1873,1873,1883,1883,1883,1883,1883,1883,1883,1883,1883,1873,1863,1853,1843,1843,0,0,0,0,0,0,0,0,1115,1115,1115,1115,1112,1108,1105,1105,1105,1105,1105,1105,1105,1105,1108,1108,1112,1115,1115,1115,1119,1119,1119,0,0,0,1748,1748,1748,1748,1748,1739,1739,1731,1731,1731,1722,1722,1722,1722,1713,1713,1705,1696,1696,1696,1696,1688,1688,1688,1688,1688,1050,1050,1054,1054,1054,1050,1050,1663,1041,1038,1034,1034,1031,1028,1028,1025,1025,1022,1019,1019,1019,1016,1016,1013,1013,1010,1010,1007,1004,1004,1004,1001,1001,998,995,995,992,992,992,987,987,984,981,981,981,978,978,978,975,973,970,970,967,967,964,962,962,959,959,956,956,954,954,951,948,948,946,943,940,940,938,935,935,935,933,930,928,925,920,918,918,918,918,915,915,913,913,908,908,908,908,908,908,908,908,910,913,915,918,920,923,925,925,925,928,928,0,0,0,0,1433,1427,1421,1421,1421,1421,1415,1415,1415,1415,1410,1410,1404,1404,1404,1398,1398,1398,1398,1398,1392,1392,1392,1392,1392,1392,1387,1381,1381,1376,1376,1376,1370,1370,1370,1370,1370,1370,1365,1359,1354,1354,1354,1354,1349,1349,1349,1349,1343,1343,1338,1333,1333,1333,1333,1333,1333,1328,1328,1328,1328,1322,1322,1317,1317,1312,1312,1312,1307,1307,1307,1307,1302,1302,1302,1302,1297,1292,1292,1292,1292,1292,1288,1288,1288,1283,1283,1278,1273,1273,1273,1273,1268,1268,1268,1264,1264,1264,1259,1259,1255,1255,1255,1255,1255,1250,1250,1250,1250,1245,1241,1241,1241,1236,1236,1236,1236,1232,1232,1232,1227,1227,1227,1223,1223,1219,1219,1219,1219,1214,1214,1214,1210,1210,1210,1206,1206,1202,1202,1202,1197,1197,1197,1197,1197,1193,1193,1193,1189,1189,1189,1185,1185,1181,1181,1181,1181,1181,1177,1177,1173,1173,1169,1169,1169,1169,1165,1165,1165,1165,1165,1161,1161,1157,1157,1157,1153,1153,1153,1149,1149,1149,1149,1149,0,0,0,0,0,0,0,0,0,0,0,0,0,0,0,0,0,0,0,0,0,0,0,0,0,0,0,0,0,0
0,0,0,0,0,0,0,0,0,0,0,0,0,1696,1696,1688,1688,1688,1688,1688,1688,1688,1688,1688,1688,1688,1680,1680,1688,1680,1680,1688,1680,1680,1680,1680,1680,1680,1688,1688,1688,1688,1688,1688,1680,1680,1680,1680,1680,1680,1680,1680,1671,1671,1671,1671,1671,1680,1671,1671,1671,1671,1671,1671,1671,1663,1663,1663,1663,1663,1663,1663,1663,1671,1671,1671,1671,1671,1671,1671,1663,1663,1663,1663,1663,1655,1655,1655,1655,1655,1655,1655,1655,1655,1655,1655,1655,1655,1655,1655,1655,1655,1647,1647,1647,1647,1647,1647,1647,1647,1647,1655,1655,1655,1655,1647,1647,1647,1647,1639,1639,1639,1639,1639,1639,1639,1639,1639,1639,1647,1647,1655,1655,1655,1663,1663,1663,1663,1663,1671,1947,1947,1936,1936,1926,1926,1926,1915,1915,1904,1904,1894,1894,1894,1894,1883,1883,1894,1655,1655,1655,1655,1655,1655,1655,1655,1655,1655,1655,1655,1655,1655,1655,1663,1663,1663,1671,1680,1680,1688,1688,1688,1688,1696,1696,1696,1705,1705,1705,1713,1713,1713,1722,1722,1722,1731,1731,1739,1739,1748,1748,1748,1757,1757,1757,1757,1766,1766,1766,1766,1766,1776,1776,1785,1794,1794,1794,1804,1804,1813,1823,1823,1833,1833,1833,1833,1833,1833,1833,1843,1843,1853,1863,1863,1863,1863,1873,1873,1873,1873,1873,1873,1883,1883,1883,1883,1883,1883,1883,1883,1873,1873,1863,1863,1843,1843,0,0,0,0,0,0,0,0,1115,1115,1115,1115,1112,1108,1105,1105,1105,1105,1105,1105,1105,1105,1108,1108,1112,1115,1115,1115,1119,1119,1119,0,0,0,1748,1748,1748,1748,1748,1739,1739,1731,1731,1731,1722,1722,1722,1722,1713,1713,1705,1705,1696,1696,1696,1688,1688,1688,1680,1680,1680,1671,1671,1680,1671,1663,1663,1663,1663,1663,1041,1038,1034,1028,1028,1025,1022,1022,1016,1016,1016,1016,1013,1013,1013,1010,1010,1007,1004,1004,1001,1001,1001,998,995,995,992,992,989,989,987,984,981,981,981,978,978,978,975,973,970,970,967,967,964,962,962,959,956,956,956,954,954,951,948,948,946,943,940,940,938,935,935,935,933,930,928,923,920,918,918,918,915,915,915,913,910,908,908,908,908,908,908,908,908,910,913,915,920,923,923,925,925,925,928,928,0,0,0,0,0,1427,1421,1421,1421,1421,1421,1415,1415,1415,1410,1410,1410,1404,1404,1398,1398,1398,1398,1398,1392,1392,1392,1392,1392,1392,1387,1381,1381,1376,1376,1376,1376,1370,1370,1370,1370,1370,1365,1359,1354,1354,1354,1354,1349,1349,1349,1349,1343,1343,1338,1338,1338,1333,1333,1333,1333,1328,1328,1328,1328,1322,1322,1317,1317,1312,1312,1312,1307,1307,1307,1307,1302,1302,1302,1302,1297,1297,1292,1292,1292,1292,1288,1288,1288,1288,1283,1278,1278,1273,1273,1273,1273,1268,1268,1264,1264,1264,1264,1259,1255,1255,1255,1255,1255,1250,1250,1250,1245,1245,1241,1241,1241,1241,1236,1236,1236,1236,1232,1232,1227,1227,1227,1227,1223,1219,1219,1219,1219,1214,1214,1214,1210,1210,1210,1206,1206,1202,1202,1202,1202,1197,1197,1197,1197,1193,1193,1193,1189,1189,1185,1185,1185,1181,1181,1181,1181,1181,1177,1177,1173,1173,1169,1169,1169,1169,1169,1165,1165,1165,1165,1165,1161,1157,1157,1157,1153,1153,1153,1149,1149,1149,1149,1149,0,0,0,0,0,0,0,0,0,0,0,0,0,0,0,0,0,0,0,0,0,0,0,0,0,0,0,0,0,0
0,0,0,0,0,0,0,0,0,0,0,0,0,1688,1688,1688,1688,1688,1688,1688,1688,1688,1688,1688,1688,1688,1688,1688,1688,1688,1688,1688,1688,1688,1680,1680,1688,1688,1688,1688,1688,1688,1688,1680,1680,1680,1680,1680,1680,1680,1680,1680,1671,1671,1671,1671,1671,1680,1680,1680,1680,1680,1680,1671,1671,1671,1671,1671,1671,1671,1671,1671,1671,1671,1671,1671,1671,1671,1671,1671,1663,1663,1663,1663,1663,1663,1663,1663,1655,1655,1655,1655,1655,1655,1655,1655,1655,1655,1655,1655,1655,1647,1647,1647,1647,1647,1647,1647,1647,1647,1647,1655,1655,1655,1655,1647,1647,1647,1647,1639,1639,1639,1639,1639,1639,1639,1639,1639,1639,1639,1647,1655,1655,1655,1663,1663,1663,1663,1663,1671,1959,1947,1936,1936,1926,1926,1926,1915,1915,1915,1904,1904,1894,1894,1894,1894,1894,1894,1655,1655,1655,1655,1655,1655,1655,1655,1655,1655,1655,1655,1655,1655,1655,1663,1663,1671,1671,1680,1680,1688,1688,1688,1688,1696,1696,1696,1705,1705,1705,1713,1713,1713,1713,1722,1722,1731,1731,1739,1748,1748,1748,1748,1757,1757,1757,1757,1766,1766,1766,1766,1776,1776,1785,1785,1794,1794,1804,1804,1813,1813,1823,1823,1823,1833,1833,1833,1833,1843,1843,1843,1853,1863,1863,1863,1863,1863,1873,1873,1873,1873,1873,1883,1883,1883,1883,1883,1883,1883,1883,1873,1873,1863,1853,1853,1863,0,0,0,0,0,0,0,0,0,1119,1115,1115,1115,1112,1108,1105,1105,1105,1105,1105,1105,1105,1108,1108,1112,1115,1115,1115,1115,1119,1115,1115,1115,0,0,1748,1748,1748,1748,1748,1739,1739,1739,1731,1731,1722,1722,1722,1722,1722,1713,1705,1705,1696,1696,1696,1696,1688,1688,1680,1680,1680,1671,1671,1671,1671,1663,1663,1663,1663,1663,1663,1655,1655,1038,1028,1025,1022,1022,1016,1016,1016,1013,1013,1013,1013,1010,1010,1007,1004,1004,1001,1001,1001,998,995,995,992,992,989,989,987,984,981,981,978,978,978,978,975,973,970,970,967,967,964,962,959,959,956,956,956,954,951,948,946,946,946,943,940,938,938,935,935,933,930,928,925,923,920,918,918,918,915,915,915,913,910,908,908,908,908,908,908,908,908,910,913,915,920,923,923,925,925,925,928,928,0,0,0,0,0,1427,1427,1421,1421,1421,1421,1415,1415,1415,1415,1410,1410,1404,1404,1398,1398,1398,1398,1398,1398,1392,1392,1392,1392,1392,1387,1381,1381,1376,1376,1376,1376,1376,1370,1370,1370,1370,1365,1359,1359,1354,1354,1354,1349,1349,1349,1349,1343,1343,1343,1338,1338,1333,1333,1333,1333,1328,1328,1328,1328,1328,1322,1322,1317,1312,1312,1312,1307,1307,1307,1307,1307,1302,1302,1302,1302,1297,1292,1292,1292,1292,1288,1288,1288,1288,1283,1278,1278,1273,1273,1273,1273,1268,1268,1268,1264,1264,1264,1259,1259,1255,1255,1255,1255,1250,1250,1250,1245,1245,1241,1241,1241,1241,1236,1236,1236,1236,1232,1232,1227,1227,1227,1227,1223,1219,1219,1219,1219,1219,1214,1214,1214,1210,1210,1206,1206,1202,1202,1202,1202,1197,1197,1197,1197,1193,1193,1193,1189,1189,1185,1185,1185,1185,1181,1181,1181,1181,1177,1177,1173,1173,1169,1169,1169,1169,1169,1169,1169,1165,1165,1165,1161,1157,1157,1157,1153,1153,1153,1149,1149,1149,1149,1149,0,0,0,0,0,0,0,0,0,0,0,0,0,0,0,0,0,0,0,0,0,0,0,0,0,0,0,0,0,0
0,0,0,0,0,0,0,0,0,0,0,0,0,1688,1688,1688,1688,1688,1688,1688,1696,1688,1688,1688,1688,1688,1688,1688,1688,1688,1688,1688,1688,1688,1688,1688,1688,1688,1688,1688,1688,1688,1688,1680,1680,1680,1680,1680,1680,1680,1680,1680,1680,1671,1671,1671,1671,1680,1680,1680,1680,1680,1680,1671,1671,1671,1671,1671,1671,1671,1663,1663,1663,1671,1671,1671,1671,1671,1671,1671,1671,1663,1663,1663,1663,1663,1663,1663,1655,1655,1655,1655,1655,1655,1655,1655,1655,1655,1655,1655,1655,1647,1647,1647,1647,1647,1647,1647,1647,1655,1655,1655,1655,1655,1655,1647,1647,1647,1647,1647,1647,1647,1639,1639,1647,1639,1639,1639,1639,1639,1647,1647,1655,1655,1663,1663,1663,1663,1663,1663,1959,1936,1926,1926,1926,1926,1915,1915,1915,1904,1904,1894,1894,1894,1894,1894,1894,1894,1655,1655,1655,1655,1655,1655,1655,1655,1655,1655,1655,1655,1655,1655,1655,1663,1663,1671,1671,1680,1680,1688,1688,1688,1688,1696,1696,1696,1713,1713,1713,1713,1713,1713,1713,1722,1722,1731,1731,1739,1748,1748,1748,1748,1757,1757,1757,1757,1766,1766,1766,1766,1776,1776,1785,1785,1794,1794,1804,1804,1813,1813,1813,1823,1823,1823,1833,1833,1833,1843,1843,1843,1853,1863,1863,1863,1863,1863,1873,1873,1873,1873,1883,1883,1883,1894,1883,1883,1883,1883,1883,1873,1873,1863,1853,1853,0,0,0,0,0,0,0,0,0,0,1119,1115,1115,1115,1112,1112,1108,1108,1105,1105,1105,1105,1105,1108,1108,1112,1115,1115,1115,1115,1119,1115,1115,0,0,1731,1748,1748,1748,1748,1748,1739,1739,1731,1731,1731,1722,1722,1722,1722,1722,1713,1705,1705,1696,1696,1696,1696,1688,1688,1680,1680,1680,1671,1671,1671,1671,1671,1671,1663,1663,1663,1663,1655,1655,1038,1034,1028,1022,1022,1016,1016,1016,1013,1013,1013,1013,1010,1010,1007,1007,1004,1004,1001,1001,998,995,995,992,992,989,989,987,984,981,978,978,978,978,978,975,973,970,967,967,964,964,962,959,959,956,956,956,954,951,948,946,946,946,940,940,938,938,935,935,933,930,928,925,923,920,918,918,918,915,915,915,913,910,908,908,908,908,908,908,908,908,910,913,915,920,923,923,925,925,925,928,928,0,0,0,1439,1433,1427,1427,1421,1421,1421,1421,1421,1421,1415,1415,1410,1410,1410,1404,1398,1398,1398,1398,1398,1398,1392,1392,1392,1392,1392,1387,1381,1381,1376,1376,1376,1376,1376,1370,1370,1370,1370,1370,1365,1359,1354,1354,1354,1349,1349,1349,1349,1349,1343,1343,1338,1338,1338,1333,1333,1333,1333,1333,1328,1328,1328,1322,1322,1317,1317,1312,1312,1312,1307,1307,1307,1307,1302,1302,1302,1302,1297,1292,1292,1292,1292,1288,1288,1288,1288,1283,1283,1278,1273,1273,1273,1273,1268,1268,1268,1268,1268,1264,1259,1259,1255,1255,1255,1255,1255,1250,1250,1250,1245,1245,1241,1241,1241,1236,1236,1236,1236,1232,1232,1232,1232,1227,1227,1223,1223,1223,1219,1219,1219,1214,1214,1214,1214,1210,1210,1210,1206,1202,1202,1202,1202,1197,1197,1197,1197,1193,1193,1189,1189,1189,1185,1185,1185,1185,1181,1181,1181,1177,1177,1173,1173,1169,1169,1169,1169,1169,1169,1169,1165,1165,1165,1161,1157,1157,1153,1153,1153,1153,1149,1149,1149,1149,1149,0,0,0,0,0,0,0,0,0,0,0,0,0,0,0,0,0,0,0,0,0,0,0,0,0,0,0,0,0,0
0,0,0,0,0,0,0,0,0,0,0,0,0,1688,1688,1688,1688,1688,1688,1688,1688,1696,1696,1696,1696,1688,1688,1688,1688,1688,1688,1688,1688,1688,1688,1688,1688,1688,1688,1688,1688,1688,1688,1680,1680,1680,1680,1680,1680,1680,1680,1680,1680,1680,1680,1680,1680,1680,1680,1680,1680,1680,1680,1680,1671,1671,1671,1671,1663,1663,1663,1663,1663,1663,1671,1671,1671,1680,1680,1671,1671,1663,1663,1663,1663,1663,1663,1663,1663,1655,1655,1655,1655,1655,1655,1655,1655,1655,1655,1655,1655,1655,1655,1655,1655,1655,1655,1655,1655,1655,1655,1655,1655,1647,1647,1647,1647,1647,1647,1647,1647,1647,1647,1647,1647,1647,1639,1639,1647,1647,1647,1647,1655,1655,1663,1663,1663,1663,1663,1663,1959,1936,1926,1915,1915,1915,1915,1915,1904,1904,1894,1894,1894,1883,1883,1883,1883,1663,1655,1655,1655,1655,1655,1655,1655,1655,1655,1655,1655,1655,1655,1655,1655,1663,1663,1671,1671,1680,1680,1688,1688,1688,1696,1696,1705,1705,1713,1713,1713,1722,1722,1722,1722,1722,1722,1731,1731,1748,1748,1757,1757,1757,1757,1757,1757,1766,1766,1766,1766,1766,1776,1776,1785,1785,1794,1794,1804,1804,1813,1813,1813,1823,1823,1823,1833,1833,1833,1843,1843,1853,1853,1853,1863,1863,1863,1873,1873,1873,1883,1883,1883,1883,1883,1894,1883,1883,1883,1883,1883,1873,1863,1853,1853,1853,1853,0,0,0,0,0,0,0,0,0,1119,1115,1115,1115,1112,1112,1112,1108,1108,1105,1105,1105,1108,1108,1112,1112,1115,1115,1119,1119,1119,1115,1115,1115,0,1731,1731,1739,1748,1748,1748,1739,1739,1731,1731,1731,1722,1722,1722,1722,1722,1713,1705,1705,1696,1696,1696,1696,1688,1688,1680,1680,1680,1680,1671,1671,1680,1671,1671,1663,1663,1663,1663,1655,1655,1655,1655,1647,1647,1639,1639,1639,1632,1013,1013,1013,1616,1616,1609,1609,1609,1609,1004,1004,1001,998,998,995,992,992,989,989,987,984,981,978,978,978,978,978,975,973,970,967,967,964,964,962,959,959,956,956,956,954,951,948,946,946,943,940,940,938,938,935,935,935,933,928,925,923,920,918,918,918,915,915,915,913,910,908,908,908,908,908,908,908,908,910,913,918,920,923,923,925,925,925,0,0,0,0,0,1439,1433,1433,1433,1427,1427,1421,1421,1421,1421,1415,1415,1410,1410,1410,1404,1398,1398,1398,1398,1398,1398,1392,1392,1392,1392,1392,1387,1381,1381,1376,1376,1376,1376,1376,1370,1370,1370,1370,1370,1365,1359,1354,1354,1354,1349,1349,1349,1349,1349,1343,1343,1343,1338,1338,1333,1333,1333,1333,1333,1328,1328,1328,1322,1322,1322,1317,1312,1312,1312,1307,1307,1307,1307,1307,1302,1302,1302,1297,1292,1292,1292,1292,1288,1288,1288,1288,1288,1283,1278,1278,1278,1273,1273,1273,1268,1268,1268,1268,1268,1259,1259,1255,1255,1255,1255,1255,1255,1250,1250,1245,1245,1241,1241,1236,1236,1236,1236,1236,1232,1232,1232,1232,1227,1227,1223,1223,1223,1219,1219,1219,1219,1214,1214,1214,1210,1210,1210,1206,1206,1202,1202,1202,1197,1197,1197,1197,1193,1193,1189,1189,1185,1185,1185,1185,1185,1181,1181,1181,1177,1177,1173,1173,1169,1169,1169,1169,1169,1169,1169,1165,1165,1165,1161,1161,1161,1153,1153,1153,1153,1149,1149,1149,1149,1149,0,0,0,0,0,0,0,0,0,0,0,0,0,0,0,0,0,0,0,0,0,0,0,0,0,0,0,0,0,0
0,0,0,0,0,0,0,0,0,0,0,0,0,1688,1688,1688,1688,1688,1688,1688,1688,1696,1696,1696,1696,1688,1688,1688,1688,1688,1688,1688,1688,1688,1688,1688,1688,1688,1688,1688,1688,1688,1688,1688,1688,1688,1688,1688,1680,1680,1680,1680,1680,1680,1680,1680,1688,1688,1688,1688,1688,1688,1680,1671,1671,1671,1671,1671,1663,1663,1663,1663,1663,1663,1671,1663,1663,1663,1671,1671,1671,1663,1663,1663,1663,1663,1663,1663,1663,1655,1655,1655,1655,1655,1655,1655,1655,1655,1655,1655,1655,1655,1655,1655,1655,1655,1655,1655,1655,1655,1655,1655,1647,1647,1647,1647,1647,1647,1647,1647,1647,1647,1647,1647,1647,1647,1647,1647,1647,1647,1647,1655,1655,1663,1663,1663,1663,1663,1663,1663,1883,1883,1894,1904,1904,1915,1915,1904,1904,1894,1894,1883,1883,1883,1883,1883,1663,1663,1663,1655,1655,1655,1655,1655,1655,1655,1655,1655,1655,1655,1655,1663,1663,1663,1671,1680,1680,1680,1688,1688,1688,1688,1696,1705,1713,1713,1722,1722,1722,1722,1722,1722,1722,1722,1722,1731,1731,1748,1748,1757,1757,1757,1757,1757,1757,1766,1766,1766,1766,1776,1776,1776,1785,1785,1794,1794,1804,1804,1813,1813,1813,1823,1823,1833,1833,1833,1843,1843,1843,1853,1853,1853,1863,1863,1863,1873,1873,1873,1883,1883,1883,1883,1883,1894,1883,1883,1883,1883,1873,1873,1863,1853,1853,1853,1853,0,0,0,0,0,0,0,0,0,1119,1115,1115,1115,1112,1112,1112,1108,1108,1108,1108,1108,1108,1112,1112,1115,1115,1115,1119,1119,1119,1119,1119,0,1731,1731,1731,1739,1748,1748,1748,1739,1739,1731,1731,1731,1722,1722,1722,1722,1722,1713,1713,1705,1696,1696,1696,1696,1688,1688,1688,1688,1680,1680,1671,1671,1680,1671,1671,1671,1671,1663,1663,1655,1655,1655,1655,1647,1639,1639,1639,1639,1639,1632,1624,1624,1624,1616,1609,1609,1609,1609,1609,1609,1609,1609,1609,1609,992,992,992,992,987,984,981,978,978,978,978,978,975,973,970,967,967,964,964,962,959,959,956,956,956,954,951,948,946,946,943,940,940,938,938,938,935,935,933,928,925,923,920,918,918,918,915,915,915,913,910,908,908,908,908,908,908,908,908,913,913,918,920,923,923,925,925,925,0,0,0,0,0,1439,1433,1433,1433,1427,1427,1421,1421,1421,1421,1415,1415,1410,1410,1410,1404,1398,1398,1398,1398,1398,1398,1392,1392,1392,1392,1387,1387,1381,1381,1381,1376,1376,1376,1376,1376,1370,1370,1370,1370,1365,1365,1359,1354,1354,1349,1349,1349,1349,1349,1349,1343,1343,1343,1338,1338,1333,1333,1333,1333,1328,1328,1328,1322,1322,1322,1317,1317,1312,1312,1307,1307,1307,1307,1307,1302,1302,1302,1297,1292,1292,1292,1292,1288,1288,1288,1288,1288,1283,1283,1278,1278,1273,1273,1273,1273,1268,1268,1268,1268,1264,1259,1259,1255,1255,1255,1255,1255,1250,1250,1245,1245,1241,1241,1236,1236,1236,1236,1236,1232,1232,1232,1232,1232,1227,1227,1223,1223,1223,1219,1219,1219,1214,1214,1214,1210,1210,1210,1206,1206,1202,1202,1202,1197,1197,1197,1197,1193,1193,1189,1189,1185,1185,1185,1185,1185,1181,1181,1181,1177,1177,1173,1173,1169,1169,1169,1169,1169,1169,1169,1165,1165,1165,1161,1161,1161,1157,1157,1153,1153,1153,1149,1149,1149,1149,0,0,0,0,0,0,0,0,0,0,0,0,0,0,0,0,0,0,0,0,0,0,0,0,0,0,0,0,0,0
0,0,0,0,0,0,0,0,0,0,0,0,0,1688,1688,1688,1688,1688,1688,1688,1696,1696,1696,1696,1696,1688,1688,1688,1688,1688,1688,1688,1688,1696,1688,1688,1696,1696,1696,1696,1688,1688,1696,1688,1688,1688,1688,1688,1680,1680,1680,1680,1680,1680,1680,1680,1680,1688,1688,1688,1688,1680,1680,1671,1671,1671,1671,1671,1663,1663,1663,1663,1663,1663,1671,1663,1663,1663,1671,1671,1671,1663,1663,1663,1663,1663,1663,1663,1663,1663,1663,1663,1663,1655,1655,1655,1655,1655,1655,1655,1655,1655,1655,1655,1655,1655,1655,1655,1655,1655,1655,1655,1647,1647,1647,1647,1647,1647,1647,1647,1647,1647,1647,1647,1647,1647,1647,1647,1647,1647,1647,1655,1655,1655,1663,1663,1663,1663,1655,1655,1883,1883,1883,1873,1873,1883,1883,1904,1894,1883,1883,1883,1873,1873,1873,1873,1663,1663,1663,1663,1663,1663,1655,1655,1655,1655,1655,1655,1655,1655,1655,1663,1663,1663,1671,1680,1680,1688,1688,1688,1688,1688,1696,1705,1713,1713,1722,1722,1722,1722,1722,1722,1722,1722,1722,1731,1739,1748,1757,1757,1757,1757,1757,1757,1757,1766,1766,1766,1766,1776,1776,1785,1785,1785,1794,1804,1804,1813,1813,1813,1813,1823,1823,1833,1833,1833,1843,1843,1843,1853,1853,1853,1863,1863,1863,1873,1873,1883,1883,1883,1883,1883,1894,1894,1883,1883,1883,1883,1873,1873,1863,1843,1843,1853,0,0,0,0,0,0,0,0,0,1115,1115,1115,1115,1115,1115,1112,1112,1108,1108,1108,1108,1108,1112,1112,1112,1115,1115,1115,1119,1119,1119,1119,0,0,1731,1731,1731,1739,1748,1748,1748,1748,1739,1731,1731,1731,1731,1722,1722,1722,1722,1722,1713,1705,1705,1696,1696,1696,1688,1688,1688,1688,1688,1680,1680,1680,1680,1680,1671,1671,1671,1663,1663,1663,1655,1655,1647,1647,1639,1639,1639,1639,1639,1632,1632,1632,1624,1616,1616,1616,1609,1609,1609,1609,1609,1609,1609,1609,1601,1601,1594,1586,1586,984,981,978,978,978,978,978,975,973,970,970,967,964,964,962,959,959,956,956,956,954,951,948,946,946,943,940,940,938,938,938,935,935,933,928,925,923,920,918,918,918,915,915,915,913,910,910,908,908,908,908,908,908,908,913,913,918,920,923,923,925,925,925,0,0,0,0,0,1439,1433,1433,1433,1427,1427,1421,1421,1421,1421,1415,1415,1410,1410,1410,1404,1404,1404,1398,1398,1398,1398,1392,1392,1392,1392,1387,1387,1381,1381,1381,1376,1376,1376,1376,1376,1370,1370,1370,1370,1365,1365,1359,1354,1354,1349,1349,1349,1349,1349,1349,1343,1343,1343,1338,1338,1333,1333,1333,1333,1328,1328,1328,1328,1322,1322,1317,1317,1312,1312,1307,1307,1307,1307,1307,1302,1302,1302,1297,1292,1292,1292,1292,1288,1288,1288,1288,1288,1283,1283,1278,1278,1273,1273,1273,1273,1268,1268,1268,1268,1264,1264,1259,1255,1255,1255,1255,1255,1250,1250,1250,1245,1241,1241,1236,1236,1236,1236,1236,1232,1232,1232,1232,1232,1227,1227,1223,1223,1223,1219,1219,1219,1214,1214,1214,1214,1210,1210,1206,1202,1202,1202,1202,1197,1197,1197,1197,1197,1193,1189,1189,1189,1185,1185,1185,1185,1181,1181,1181,1177,1177,1173,1173,1169,1169,1169,1169,1169,1169,1169,1165,1165,1165,1165,1161,1161,1157,1157,1153,1153,1153,1153,1149,1149,1149,0,0,0,0,0,0,0,0,0,0,0,0,0,0,0,0,0,0,0,0,0,0,0,0,0,0,0,0,0,0
0,0,0,0,0,0,0,0,0,0,0,0,0,1696,1696,1696,1688,1688,1696,1696,1696,1696,1696,1696,1696,1696,1688,1688,1688,1688,1688,1688,1696,1696,1696,1696,1696,1696,1696,1696,1696,1696,1696,1688,1688,1688,1688,1688,1680,1680,1680,1680,1680,1680,1688,1680,1680,1688,1688,1688,1688,1680,1680,1671,1671,1671,1671,1671,1663,1663,1663,1663,1663,1663,1671,1663,1663,1671,1671,1671,1671,1671,1671,1663,1663,1663,1663,1663,1663,1663,1663,1663,1663,1655,1655,1655,1655,1655,1655,1655,1655,1655,1655,1655,1655,1655,1655,1655,1655,1655,1655,1655,1647,1647,1647,1647,1647,1647,1647,1655,1655,1647,1647,1647,1647,1647,1647,1647,1647,1647,1647,1647,1655,1655,1655,1655,1663,1663,1655,1655,1873,1873,1873,1863,1863,1863,1863,1863,1853,1853,1873,1873,1873,1873,1873,1873,1671,1663,1663,1663,1663,1663,1655,1655,1655,1655,1655,1655,1655,1663,1663,1663,1663,1671,1671,1680,1680,1688,1688,1688,1688,1696,1705,1713,1722,1722,1722,1722,1722,1722,1722,1722,1722,1722,1731,1739,1739,1757,1757,1757,1757,1757,1757,1757,1757,1766,1766,1766,1776,1776,1785,1785,1785,1794,1794,1804,1804,1813,1813,1813,1813,1823,1823,1833,1833,1843,1843,1843,1853,1853,1853,1863,1863,1863,1873,1873,1873,1883,1883,1883,1883,1883,1894,1894,1894,1894,1883,1883,1883,1873,1853,1843,1843,0,0,0,0,0,0,0,0,0,1119,1115,1115,1119,1115,1115,1115,1112,1112,1108,1108,1108,1108,1108,1112,1112,1112,1115,1115,1119,1119,1119,1119,1119,1123,0,1731,1731,1731,1739,1748,1748,1748,1748,1739,1731,1731,1731,1731,1722,1722,1722,1722,1722,1713,1705,1705,1696,1696,1696,1688,1688,1688,1688,1688,1680,1680,1680,1680,1680,1671,1671,1671,1663,1663,1663,1655,1655,1647,1647,1647,1639,1639,1639,1639,1632,1632,1632,1624,1616,1616,1616,1609,1609,1609,1609,1609,1609,1609,1601,1601,1601,1594,1586,1586,1579,981,978,978,978,981,978,978,973,973,970,970,967,964,962,959,959,956,956,954,951,951,948,946,946,943,940,940,938,938,938,935,935,933,928,925,923,920,918,918,918,915,915,915,913,910,910,908,908,908,908,908,908,908,913,915,918,920,920,923,925,925,925,0,0,0,0,0,1439,1439,1433,1433,1427,1427,1421,1421,1421,1421,1415,1415,1415,1410,1410,1404,1404,1404,1404,1404,1398,1398,1392,1392,1392,1392,1387,1387,1381,1381,1381,1376,1376,1376,1376,1370,1370,1370,1370,1370,1365,1365,1359,1354,1354,1354,1349,1349,1349,1349,1349,1349,1343,1343,1338,1338,1333,1333,1333,1333,1328,1328,1328,1328,1322,1322,1317,1317,1312,1312,1312,1307,1307,1307,1307,1302,1302,1302,1297,1297,1292,1292,1292,1288,1288,1288,1288,1288,1283,1283,1278,1278,1273,1273,1273,1273,1268,1268,1268,1268,1264,1264,1259,1255,1255,1255,1255,1250,1250,1250,1250,1245,1245,1241,1241,1236,1236,1236,1236,1232,1232,1232,1232,1227,1227,1227,1223,1223,1223,1219,1219,1219,1214,1214,1214,1214,1210,1210,1206,1202,1202,1202,1202,1197,1197,1197,1197,1197,1193,1193,1189,1189,1185,1185,1185,1185,1185,1181,1181,1177,1177,1173,1173,1169,1169,1169,1169,1169,1169,1169,1165,1165,1165,1165,1165,1161,1161,1157,1153,1153,1153,1153,1153,1149,1149,0,0,0,0,0,0,0,0,0,0,0,0,0,0,0,0,0,0,0,0,0,0,0,0,0,0,0,0,0,0
