0,0,0,0,0,0,0,0,0,0,0,0,0,0,0,0,2432,2432,2432,2450,2432,2432,2432,2432,2432,2432,2432,2432,2432,2432,2432,2432,2432,2432,2450,2450,2467,2467,2467,2467,2450,2450,2432,2432,2432,2432,2432,2432,2432,2415,2415,2398,2398,2256,2241,2241,2226,2226,2226,2226,2226,2212,2212,2198,2198,2198,2198,2198,2198,2198,2198,2184,2184,2184,2170,2170,2170,2170,2170,2156,2156,2156,2143,2143,2129,2129,2129,2116,2116,2116,2116,2116,2116,2116,2116,2116,2116,2103,2103,2090,2090,2078,2078,2078,2065,2065,2078,2065,2065,2065,2065,2065,2065,2065,2065,2053,2053,2053,2053,2053,2040,2040,2028,2028,2016,2016,2016,2005,2005,2005,2005,2005,2005,2005,2005,1993,1993,1993,1025,1025,1025,1025,1028,1028,1031,1970,1970,1959,1034,1034,1034,1034,1031,1031,1034,1034,1034,1034,1034,1034,1034,1038,1038,1038,1038,1044,1044,1047,1047,1047,1047,1047,1047,1047,1047,1047,1047,1041,1041,1047,1054,1054,1050,1047,1047,1047,1050,1054,1054,1054,1057,1060,1054,1054,1054,1054,1050,1050,1050,1047,1047,1044,1044,1044,1044,1047,1047,1047,1050,1047,1047,1047,1047,1050,1050,1054,1057,1057,1060,1060,1060,1060,1057,1057,1047,1044,1044,1044,1041,1041,1044,1044,1044,1047,1047,1047,1047,1054,1057,1057,1057,1054,1050,1050,1054,1054,1057,1057,1057,1057,1054,1054,1054,1050,1050,1054,1054,1054,1054,1050,1050,1047,1047,1047,1047,1047,1050,1054,1060,1060,1054,1054,1054,1050,1050,1047,1047,1041,1041,1047,1047,1047,1050,1047,1047,1047,1047,1050,1047,1047,1050,1054,1057,1054,1047,1044,1044,1044,1044,1044,1915,1915,1915,1904,1904,1904,1894,1894,1904,1915,1915,1926,1926,1926,1926,1926,1926,1926,1926,1926,1936,1947,1947,1947,1947,1947,1947,1947,1936,1936,1936,0,0,0,0,0,0,0,0,0,0,0,0,0,862,862,860,860,860,858,854,851,847,845,845,845,845,845,845,845,847,847,851,851,851,851,854,854,854,856,856,856,858,860,860,0,0,0,0,0,0,1639,1639,1632,1632,1632,1632,1632,1624,1609,1609,1609,1601,1601,1601,1594,1586,1579,1579,1572,1572,1572,1564,1557,1557,1550,1550,1550,1543,1543,1536,1529,1523,1523,1516,1516,1516,1509,1503,1503,1496,1496,1489,1483,1483,1477,1470,1470,1464,1464,1458,1458,1452,1452,1445,1445,1439,1439,1433,1433,1427,1421,1415,1415,1410,1404,1398,1398,1398,1392,1392,1392,1381,1381,1376,1376,1376,1370,1370,1365,1365,1359,1354,1354,1349,1349,1343,1338,1333,1333,1333,1328,1328,1328,1322,1317,1312,1312,1312,1307,1307,1302,1302,1297,1292,1292,1288,1288,1283,1278,1278,1273,1273,1268,1268,1264,1264,1259,1255,1255,1255,1250,1250,1250,1245,1241,1236,1232,1232,1227,1223,1219,1219,1219,1214,1214,1214,1214,1206,1202,1202,1197,1197,1193,1189,1185,1185,1181,1181,1181,1181,1177,1177,1169,1169,1169,1165,1161,1157,1157,1157,1153,1153,1149,1145,1145,1138,1138,1138,1138,1134,1134,1134,1130,1130,1126,1126,1123,1123,1119,1115,1108,1108,1108,1105,1105,1105,1101,1101,1097,1094,1094,1094,1090,1090,1090,1084,1080,1080,1077,1077,1073,1073,1070,1067,1067,1063,1063,1063,1060,1057,1054,1054,1054,1050,1050,1047,1044,1041,1041,1041,1038,1038,1038,1034,1028,1028,1028,0,0,0,0,0,0,0,0,0,0,0,0,0,0,0,0,0,0,0,0,0,0,0,0,0,0,0,0,0,0,0,0
0,0,0,0,0,0,0,0,0,0,0,0,0,0,0,0,2415,2415,2415,2432,2415,2415,2415,2415,2415,2415,2415,2415,2415,2415,2415,2415,2415,2415,2432,2432,2450,2450,2450,2450,2432,2432,2432,2432,2415,2415,2432,2432,2432,2415,2415,2398,2398,2256,2241,2241,2226,2226,2226,2226,2226,2212,2212,2212,2212,2212,2198,2198,2198,2198,2198,2198,2184,2184,2184,2170,2170,2170,2170,2170,2156,2156,2143,2143,2143,2143,2129,2129,2129,2129,2129,2129,2129,2116,2116,2116,2116,2103,2103,2103,2103,2090,2090,2078,2078,2078,2078,2078,2078,2078,2065,2065,2065,2065,2065,2053,2053,2053,2053,2053,2040,2040,2028,2016,2016,2016,2016,2005,2005,2005,2005,2005,2005,2005,1993,1993,1025,1025,1025,1025,1025,1025,1025,1025,1025,1028,1028,1028,1028,1031,1028,1028,1028,1028,1031,1031,1031,1031,1031,1034,1034,1038,1038,1038,1038,1038,1034,1031,1031,1031,1034,1038,1038,1038,1038,1038,1041,1031,1031,1025,1025,1044,1044,1044,1041,1041,1044,1044,1044,1041,1038,1038,1038,1038,1038,1038,1041,1041,1044,1041,1041,1041,1041,1041,1041,1041,1041,1041,1041,1044,1044,1044,1041,1041,1044,1044,1047,1047,1050,1050,1054,1054,1041,1038,1038,1041,1038,1038,1038,1038,1038,1038,1038,1038,1041,1041,1041,1041,1044,1041,1041,1044,1044,1044,1044,1050,1047,1047,1047,1050,1047,1047,1044,1044,1047,1047,1047,1047,1047,1044,1044,1044,1044,1044,1044,1044,1044,1041,1038,1038,1038,1044,1044,1044,1044,1044,1041,1038,1034,1034,1031,1031,1044,1041,1041,1041,1041,1041,1041,1038,1034,1034,1038,1044,1041,1041,1038,1038,1041,1034,1034,1034,1022,1904,1904,1904,1894,1894,1904,1904,1915,1926,1926,1926,1926,1926,1926,1926,1926,1926,1936,1947,1947,1947,1947,1947,1947,1947,1936,1936,1936,0,0,0,0,0,0,0,0,0,0,0,0,0,862,862,860,860,860,858,854,854,851,847,845,845,845,845,845,847,849,849,851,851,851,854,854,854,854,856,856,856,858,860,0,0,0,0,0,0,0,1639,1639,1632,1632,1632,1632,1632,1624,1616,1609,1609,1609,1601,1601,1594,1594,1586,1579,1579,1572,1572,1564,1557,1557,1557,1550,1550,1543,1543,1536,1529,1523,1523,1516,1516,1516,1509,1509,1503,1496,1496,1489,1489,1483,1477,1477,1470,1464,1464,1464,1458,1452,1452,1445,1445,1439,1439,1433,1433,1427,1421,1415,1415,1415,1410,1404,1398,1398,1392,1392,1392,1387,1381,1376,1376,1376,1370,1370,1370,1365,1359,1354,1354,1349,1349,1343,1338,1333,1333,1333,1328,1328,1328,1322,1317,1312,1312,1312,1307,1307,1302,1302,1297,1292,1292,1288,1288,1283,1283,1278,1273,1273,1268,1268,1268,1264,1259,1259,1255,1255,1250,1250,1250,1250,1241,1236,1236,1232,1227,1223,1223,1219,1219,1214,1214,1214,1214,1206,1202,1202,1197,1197,1193,1189,1185,1185,1185,1181,1181,1181,1177,1177,1173,1169,1169,1165,1161,1161,1157,1157,1153,1153,1149,1145,1145,1141,1138,1138,1138,1134,1134,1134,1130,1130,1126,1126,1123,1123,1119,1112,1108,1108,1108,1105,1105,1105,1101,1101,1097,1097,1094,1094,1094,1090,1090,1084,1080,1080,1077,1077,1073,1073,1070,1067,1067,1063,1063,1063,1060,1057,1057,1054,1054,1054,1050,1047,1044,1044,1041,1041,1041,1038,1038,1034,1031,1028,1028,0,0,0,0,0,0,0,0,0,0,0,0,0,0,0,0,0,0,0,0,0,0,0,0,0,0,0,0,0,0,0,0
0,0,0,0,0,0,0,0,0,0,0,0,0,0,0,0,2415,2415,2415,2415,2415,2415,2415,2415,2415,2415,2398,2398,2398,2398,2398,2398,2398,2398,2398,2415,2432,2432,2432,2415,2415,2415,2415,2415,2415,2415,2415,2415,2415,2415,2398,2398,2381,2365,2241,2241,2226,2226,2226,2226,2226,2226,2212,2212,2212,2212,2212,2212,2212,2198,2198,2198,2198,2184,2184,2184,2170,2170,2170,2170,2156,2156,2156,2156,2143,2143,2129,2129,2129,2129,2129,2129,2116,2116,2116,2116,2116,2103,2103,2103,2103,2090,2090,2078,2078,2078,2078,2078,2078,2078,2065,2065,2065,2065,2065,2065,2053,2053,2053,2053,2040,2040,2028,2016,2016,2016,2005,1993,1022,1022,1981,1993,1993,1022,1022,1022,1022,1022,1022,1022,1022,1025,1025,1025,1025,1025,1025,1025,1028,1028,1028,1025,1025,1028,1028,1028,1028,1028,1028,1031,1034,1034,1034,1034,1034,1034,1031,1028,1028,1028,1028,1034,1031,1031,1031,1028,1028,1025,1025,1025,1025,1028,1028,1028,1034,1034,1038,1031,1031,1031,1034,1034,1034,1031,1031,1028,1028,1034,1034,1034,1034,1034,1034,1034,1034,1034,1038,1034,1034,1038,1041,1038,1038,1034,1034,1031,1028,1028,1028,1028,1054,1054,1038,1038,1038,1038,1038,1034,1034,1034,1034,1034,1031,1031,1038,1038,1038,1038,1038,1038,1038,1034,1031,1031,1041,1047,1044,1038,1038,1041,1044,1038,1031,1031,1031,1044,1041,1041,1041,1038,1038,1041,1041,1041,1041,1041,1041,1038,1034,1034,1034,1034,1038,1038,1041,1041,1038,1034,1031,1031,1028,1028,1028,1038,1038,1034,1034,1038,1038,1034,1028,1028,1031,1031,1034,1034,1034,1034,1034,1028,1025,1025,1022,1022,1022,1022,1022,1019,1019,1904,1915,1926,1926,1926,1926,1926,1936,1936,1926,1926,1936,1947,1947,1947,1947,1947,1947,1947,1936,1936,1936,0,0,0,0,0,0,0,0,0,0,0,0,0,862,862,860,860,860,858,854,854,851,847,845,845,845,845,847,849,849,851,851,851,854,854,854,854,856,856,858,858,860,860,0,0,0,0,0,0,0,1639,1639,1639,1639,1632,1632,1632,1624,1616,1609,1609,1609,1601,1601,1594,1594,1586,1579,1579,1579,1572,1564,1564,1557,1557,1550,1550,1543,1543,1536,1529,1523,1516,1516,1516,1516,1509,1509,1503,1496,1496,1489,1489,1483,1483,1477,1470,1470,1464,1464,1458,1458,1452,1445,1445,1439,1439,1433,1433,1427,1421,1421,1415,1415,1410,1404,1404,1398,1398,1392,1392,1392,1381,1376,1376,1376,1370,1370,1370,1365,1359,1354,1354,1349,1349,1343,1338,1333,1333,1333,1328,1328,1328,1322,1322,1317,1312,1312,1307,1307,1307,1302,1297,1292,1292,1288,1288,1283,1283,1278,1278,1273,1273,1268,1268,1264,1264,1259,1255,1255,1250,1250,1250,1250,1241,1241,1236,1232,1227,1223,1223,1219,1219,1214,1214,1214,1214,1206,1202,1202,1197,1197,1193,1189,1189,1185,1185,1181,1181,1181,1181,1177,1177,1169,1169,1165,1161,1161,1157,1157,1153,1153,1149,1149,1145,1141,1138,1138,1138,1134,1134,1134,1130,1126,1126,1126,1123,1123,1119,1112,1112,1112,1108,1108,1105,1105,1105,1101,1097,1097,1097,1094,1094,1090,1090,1084,1080,1080,1077,1077,1073,1073,1070,1067,1067,1063,1063,1063,1060,1060,1057,1054,1054,1054,1050,1050,1047,1044,1044,1041,1041,1038,1038,1034,1031,1028,1028,0,0,0,0,0,0,0,0,0,0,0,0,0,0,0,0,0,0,0,0,0,0,0,0,0,0,0,0,0,0,0,0
0,0,0,0,0,0,0,0,0,0,0,0,0,0,0,0,2398,2398,2398,2398,2398,2398,2398,2398,2398,2398,2381,2381,2381,2381,2381,2381,2381,2365,2365,2381,2398,2398,2398,2398,2415,2415,2415,2415,2398,2398,2415,2415,2415,2415,2398,2381,2381,2365,2349,2271,2241,2241,2226,2226,2226,2226,2226,2212,2212,2212,2212,2212,2212,2198,2198,2198,2198,2198,2184,2184,2170,2170,2170,2170,2170,2156,2156,2156,2156,2156,2143,2143,2129,2129,2129,2116,2116,2116,2116,2116,2116,2103,2103,2103,2103,2103,2090,2090,2090,2090,1007,1007,1007,1007,1010,1010,1010,1010,1010,1013,1013,1013,2053,2053,2053,2040,2040,2016,1970,1019,1019,1016,1016,1019,1019,1019,1019,1019,1019,1019,1022,1022,1022,1022,1022,1025,1025,1025,1025,1025,1025,1025,1028,1025,1025,1025,1025,1025,1025,1025,1025,1025,1025,1028,1028,1028,1028,1028,1028,1028,1025,1025,1025,1025,1025,1025,1025,1025,1025,1025,1022,1022,1022,1022,1022,1022,1019,1019,1025,1028,1025,1025,1025,1031,1028,1028,1031,1028,1028,1028,1028,1028,1031,1031,1031,1031,1031,1031,1031,1031,1034,1031,1031,1031,1034,1031,1031,1028,1025,1025,1025,1022,1022,1025,1028,1028,1031,1031,1031,1031,1031,1031,1031,1031,1028,1028,1028,1028,1031,1031,1034,1031,1031,1031,1028,1028,1028,1028,1025,1025,1025,1025,1028,1028,1028,1028,1028,1028,1028,1038,1034,1031,1031,1034,1034,1034,1034,1038,1038,1038,1038,1038,1034,1031,1031,1031,1031,1034,1034,1034,1034,1034,1028,1028,1028,1028,1028,1028,1031,1028,1028,1031,1031,1028,1025,1025,1025,1028,1028,1028,1028,1025,1025,1025,1022,1022,1022,1022,1022,1022,1022,1019,1016,1013,1013,1936,1936,1936,1936,1936,1936,1936,1936,1936,1947,1959,1959,1959,1959,1947,1947,1947,1936,1936,1936,0,0,0,0,0,0,0,0,0,0,0,0,0,862,862,860,860,860,858,854,851,851,849,845,845,845,845,847,849,849,851,851,851,854,854,856,856,856,856,858,858,860,860,0,0,0,0,0,0,0,1639,1639,1639,1639,1632,1632,1632,1632,1624,1609,1609,1609,1601,1601,1594,1594,1586,1579,1579,1579,1572,1564,1564,1564,1557,1550,1550,1543,1543,1536,1529,1523,1516,1516,1516,1516,1509,1509,1503,1496,1496,1489,1489,1483,1483,1477,1470,1470,1464,1464,1458,1458,1452,1445,1445,1445,1439,1439,1433,1421,1421,1421,1415,1415,1410,1410,1404,1398,1398,1398,1392,1392,1387,1381,1376,1376,1370,1370,1370,1365,1365,1359,1354,1354,1349,1349,1343,1338,1333,1333,1333,1333,1328,1328,1322,1317,1312,1312,1307,1307,1307,1302,1297,1292,1292,1288,1288,1288,1283,1278,1278,1273,1273,1268,1268,1264,1264,1259,1255,1255,1250,1250,1250,1250,1241,1241,1236,1232,1232,1227,1223,1219,1219,1219,1214,1214,1210,1206,1202,1202,1197,1197,1193,1193,1189,1185,1185,1185,1185,1181,1181,1181,1177,1173,1169,1165,1165,1161,1157,1157,1153,1153,1149,1149,1145,1141,1141,1138,1138,1134,1134,1134,1130,1126,1126,1126,1123,1123,1119,1115,1112,1112,1108,1108,1105,1105,1105,1101,1101,1097,1097,1094,1094,1090,1090,1087,1080,1080,1080,1077,1073,1073,1070,1070,1067,1067,1063,1063,1060,1060,1057,1054,1054,1054,1050,1050,1047,1044,1044,1041,1041,1038,1038,1038,1034,1028,1028,0,0,0,0,0,0,0,0,0,0,0,0,0,0,0,0,0,0,0,0,0,0,0,0,0,0,0,0,0,0,0,0
0,0,0,0,0,0,0,0,0,0,0,0,0,0,0,0,2398,2398,2398,2398,2398,2398,2381,2381,2381,2381,2381,2381,2365,2365,2365,2365,2365,2365,2365,2381,2381,2381,2398,2398,2415,2398,2398,2398,2398,2398,2398,2398,2398,2398,2381,2381,2365,2365,2349,2317,2256,2241,2226,2226,2241,2241,2226,2226,2226,2226,2212,2212,2212,2212,2198,2198,2198,2198,2184,2184,2170,2170,2170,2170,2170,2170,2156,2156,2156,2156,2143,2143,2143,2129,2129,2116,2116,2116,2116,2116,2116,2103,2103,2103,2103,2103,2103,2103,2090,1010,1007,1007,1007,1007,1007,1007,1007,1007,1007,1010,1010,1010,1010,1010,1010,1010,1010,1010,1010,1019,1016,1016,1016,1016,1019,1016,1016,1016,1016,1016,1016,1016,1016,1019,1019,1022,1022,1019,1019,1022,1022,1022,1022,1022,1022,1022,1022,1022,1022,1022,1022,1022,1025,1025,1022,1022,1022,1022,1022,1022,1022,1022,1022,1022,1022,1022,1022,1022,1022,1016,1016,1019,1019,1019,1019,1016,1016,1016,1016,1019,1019,1022,1022,1025,1028,1028,1028,1025,1025,1025,1025,1025,1025,1025,1025,1025,1028,1025,1025,1025,1028,1028,1028,1028,1028,1025,1025,1022,1022,1022,1022,1022,1022,1022,1022,1025,1025,1028,1028,1028,1028,1028,1028,1025,1025,1025,1025,1025,1025,1025,1028,1028,1025,1025,1025,1025,1022,1022,1022,1022,1022,1022,1022,1025,1025,1025,1028,1025,1025,1025,1025,1025,1028,1028,1028,1031,1031,1034,1034,1034,1034,1034,1028,1028,1028,1028,1028,1028,1031,1031,1031,1031,1025,1025,1025,1025,1025,1028,1031,1028,1028,1028,1028,1028,1025,1025,1025,1025,1025,1025,1022,1022,1022,1022,1019,1019,1019,1019,1019,1019,1016,1016,1013,1013,1013,1010,1010,0,1947,1947,1936,1936,1936,1936,1947,1959,1959,1959,1959,1959,1959,1947,1947,1947,0,0,0,0,0,0,0,0,0,0,0,0,0,0,862,862,860,860,858,856,854,851,851,849,845,845,845,847,847,849,849,851,851,854,854,854,856,856,858,858,858,860,860,862,0,0,0,0,0,0,0,1639,1639,1639,1639,1639,1632,1632,1632,1624,1609,1609,1609,1601,1601,1594,1594,1586,1579,1579,1579,1572,1564,1564,1564,1557,1550,1550,1543,1543,1536,1529,1523,1516,1516,1516,1516,1509,1509,1503,1496,1496,1489,1489,1483,1483,1477,1470,1470,1464,1464,1458,1458,1452,1445,1445,1445,1439,1439,1433,1421,1421,1421,1415,1415,1415,1415,1410,1404,1398,1398,1392,1392,1392,1381,1381,1376,1376,1370,1370,1370,1365,1359,1354,1354,1349,1349,1343,1338,1338,1333,1333,1333,1328,1328,1322,1317,1312,1312,1307,1307,1307,1302,1297,1292,1292,1292,1288,1288,1283,1283,1278,1273,1273,1268,1268,1268,1264,1259,1255,1255,1250,1250,1250,1245,1241,1236,1236,1236,1232,1227,1227,1223,1219,1219,1214,1214,1210,1206,1202,1202,1202,1197,1197,1193,1193,1189,1185,1185,1185,1181,1181,1181,1177,1173,1169,1165,1165,1161,1157,1157,1153,1153,1153,1149,1145,1141,1141,1138,1138,1134,1134,1134,1130,1130,1126,1126,1123,1123,1119,1115,1112,1112,1108,1108,1105,1105,1105,1101,1101,1097,1097,1094,1094,1090,1090,1087,1084,1080,1080,1077,1073,1073,1073,1070,1067,1067,1063,1063,1060,1060,1057,1057,1054,1054,1050,1050,1047,1044,1044,1041,1041,1038,1038,1038,1034,1028,1028,0,0,0,0,0,0,0,0,0,0,0,0,0,0,0,0,0,0,0,0,0,0,0,0,0,0,0,0,0,0,0,0
0,0,0,0,0,0,0,0,0,0,0,0,0,0,0,0,2381,2381,2381,2381,2381,2381,2365,2365,2365,2365,2365,2365,2365,2365,2365,2365,2349,2349,2349,2365,2365,2381,2381,2381,2398,2398,2398,2398,2398,2381,2381,2381,2381,2381,2365,2365,2349,2349,2349,2333,2317,2256,2241,2241,2241,2241,2226,2226,2226,2226,2212,2212,2212,2212,2198,2198,2198,2198,2184,2184,2184,2170,2170,2170,2170,2170,2170,2156,2156,2156,2156,2143,2143,2143,2129,2129,998,998,998,998,998,998,995,995,998,998,998,998,998,1001,1004,1004,1004,1004,1004,1007,1004,1004,1004,1004,1004,1007,1004,1004,1007,1010,1007,1007,1010,1010,1013,1013,1013,1013,1016,1016,1013,1013,1013,1013,1013,1013,1013,1013,1013,1016,1019,1016,1016,1019,1016,1016,1019,1016,1016,1016,1016,1019,1019,1019,1019,1022,1022,1019,1019,1010,1010,1004,1004,1013,1013,1016,1019,1016,1016,1016,1016,1016,1016,1013,1013,1016,1016,1016,1013,1013,1013,1013,1013,1013,1016,1016,1019,1019,1019,1025,1025,1022,1022,1022,1022,1025,1022,1022,1022,1022,1025,1025,1025,1025,1025,1025,1022,1022,1022,1022,1022,1019,1019,1019,1019,1019,1019,1019,1019,1019,1019,1022,1025,1022,1022,1022,1022,1022,1019,1019,1019,1016,1016,1022,1022,1022,1019,1019,1019,1019,1019,1019,1019,1022,1022,1019,1019,1022,1022,1019,1019,1016,1016,1016,1019,1019,1019,1022,1022,1025,1025,1025,1025,1025,1022,1022,1022,1022,1022,1022,1019,1019,1016,1016,1022,1022,1022,1022,1022,1022,1022,1019,1019,1022,1022,1025,1025,1025,1022,1019,1019,1019,1019,1019,1019,1019,1019,1019,1019,1019,1019,1019,1016,1016,1013,1013,1013,1010,1010,1010,1010,0,0,1010,1959,0,0,1959,1959,1959,1959,1959,1959,1959,1959,1947,1936,1936,0,0,0,0,0,0,0,0,0,0,0,0,0,0,862,860,860,860,858,856,854,851,851,849,847,847,847,847,847,849,851,851,854,854,854,854,856,858,858,860,860,860,862,862,0,0,0,0,0,0,0,1639,1639,1639,1639,1639,1632,1632,1632,1624,1616,1609,1609,1601,1601,1594,1594,1586,1579,1579,1579,1572,1572,1564,1564,1557,1557,1550,1543,1543,1536,1529,1523,1516,1516,1516,1516,1516,1509,1503,1503,1496,1489,1489,1483,1483,1477,1470,1470,1470,1464,1464,1458,1452,1445,1445,1445,1439,1439,1433,1421,1421,1421,1415,1415,1415,1415,1410,1404,1398,1398,1398,1392,1392,1387,1381,1381,1376,1376,1370,1370,1365,1365,1354,1354,1349,1349,1343,1338,1338,1338,1333,1333,1328,1328,1322,1317,1312,1307,1307,1307,1307,1302,1297,1292,1292,1292,1288,1288,1288,1283,1278,1273,1273,1268,1268,1268,1264,1259,1259,1255,1250,1250,1250,1245,1241,1236,1236,1236,1232,1232,1227,1223,1223,1219,1219,1214,1214,1210,1206,1202,1202,1197,1197,1197,1193,1189,1189,1185,1185,1181,1181,1181,1177,1173,1169,1165,1165,1161,1157,1157,1157,1153,1153,1149,1145,1141,1141,1141,1138,1134,1134,1134,1130,1130,1126,1126,1123,1123,1119,1115,1115,1112,1108,1108,1108,1105,1105,1105,1101,1097,1097,1094,1094,1094,1090,1087,1084,1080,1080,1077,1073,1073,1073,1070,1067,1067,1063,1063,1060,1060,1057,1057,1054,1054,1050,1050,1050,1047,1044,1041,1041,1041,1038,1038,1034,1028,1028,0,0,0,0,0,0,0,0,0,0,0,0,0,0,0,0,0,0,0,0,0,0,0,0,0,0,0,0,0,0,0,0
0,0,0,0,0,0,0,0,0,0,0,0,0,0,0,0,2381,2365,2365,2365,2365,2365,2349,2349,2349,2365,2349,2349,2349,2349,2349,2349,2349,2349,2349,2365,2365,2365,2365,2365,2381,2365,2365,2381,2365,2365,2365,2365,2365,2349,2349,2349,2349,2349,2349,2333,2317,2286,2256,2256,2241,2241,2226,2226,2226,2226,2212,2212,2212,2212,2198,2198,2198,2198,2184,2184,2184,2170,2170,2170,2170,2170,2170,2170,989,989,2156,2156,2156,995,995,998,998,998,998,998,998,998,995,995,992,992,995,995,995,995,998,1001,1001,1004,1004,1004,1001,1001,1001,1001,1001,1001,1001,1001,1001,1004,1004,1004,1004,1004,1004,1007,1007,1010,1013,1013,1013,1013,1013,1013,1013,1010,1010,1010,1010,1010,1010,1010,1010,1010,1013,1013,1013,1010,1010,1013,1013,1013,1013,1016,1016,1016,1013,1010,1010,1007,1004,1001,1001,1004,1004,1010,1013,1013,1013,1013,1013,1013,1013,1013,1013,1013,1013,1013,1010,1010,1010,1010,1010,1010,1010,1010,1013,1016,1016,1013,1010,1010,1013,1019,1019,1019,1019,1019,1019,1019,1019,1019,1019,1019,1022,1022,1019,1016,1016,1016,1016,1013,1013,1013,1013,1013,1013,1013,1016,1019,1019,1019,1019,1010,1010,1010,1013,1013,1013,1013,1013,1013,1013,1013,1013,1013,1013,1013,1013,1016,1016,1016,1016,1019,1019,1016,1016,1013,1013,1013,1013,1013,1013,1013,1013,1010,1010,1013,1013,1016,1013,1013,1013,1013,1013,1013,1013,1016,1016,1013,1013,1013,1013,1013,1013,1013,1013,1016,1016,1013,1013,1013,1013,1013,1013,1016,1016,1016,1019,1013,1013,1013,1013,1013,1013,1013,1013,1013,1016,1016,1013,1013,1013,1010,1010,1010,1010,1010,1007,1007,1007,1007,0,0,0,0,1970,1970,1970,1970,1970,1959,1959,1959,1959,1947,1936,1936,0,0,0,0,0,0,0,0,0,0,0,0,0,0,862,860,860,860,858,856,854,851,851,849,847,847,847,847,847,849,851,851,854,854,854,856,856,858,860,860,860,860,862,864,0,0,0,0,0,0,0,1647,1647,1639,1639,1639,1639,1632,1632,1624,1616,1609,1609,1609,1601,1601,1594,1594,1586,1579,1579,1572,1572,1564,1564,1557,1557,1550,1543,1543,1536,1529,1523,1523,1523,1516,1516,1516,1509,1509,1503,1496,1496,1489,1489,1489,1483,1477,1470,1470,1464,1464,1458,1452,1452,1445,1445,1439,1439,1439,1427,1421,1421,1421,1421,1415,1415,1410,1404,1404,1398,1398,1398,1392,1387,1387,1381,1376,1376,1370,1370,1365,1365,1359,1354,1354,1349,1349,1343,1338,1338,1333,1333,1333,1328,1322,1317,1312,1307,1307,1307,1307,1302,1302,1297,1292,1292,1292,1288,1288,1283,1278,1273,1273,1273,1268,1268,1264,1264,1259,1255,1250,1250,1250,1245,1241,1236,1236,1236,1232,1232,1227,1223,1223,1219,1219,1214,1214,1210,1206,1206,1202,1197,1197,1197,1193,1193,1189,1185,1185,1185,1185,1181,1177,1173,1169,1165,1165,1161,1161,1157,1157,1153,1153,1149,1149,1145,1141,1141,1138,1138,1134,1134,1130,1130,1126,1126,1123,1123,1119,1115,1115,1112,1108,1108,1108,1105,1105,1105,1101,1101,1097,1094,1094,1094,1090,1087,1084,1080,1080,1077,1077,1073,1073,1070,1067,1067,1063,1063,1063,1060,1057,1057,1054,1054,1050,1050,1050,1047,1044,1041,1041,1038,1038,1038,1031,1028,1028,0,0,0,0,0,0,0,0,0,0,0,0,0,0,0,0,0,0,0,0,0,0,0,0,0,0,0,0,0,0,0,0
0,0,0,0,0,0,0,0,0,0,0,0,0,0,0,2349,2349,2333,2333,2333,2349,2349,2333,2333,2333,2349,2349,2349,2349,2349,2349,2349,2349,2349,2365,2349,2349,2349,2349,2349,2349,2349,2349,2349,2349,2349,2349,2349,2349,2349,2349,2349,2349,2349,2333,2333,2317,2286,2271,2256,2256,2256,2241,2241,2241,2226,2226,2212,2212,2212,2212,2212,2198,2198,2184,2184,2184,2170,2170,2170,987,987,987,989,989,989,989,989,989,992,992,998,995,995,998,998,998,998,995,992,992,992,992,992,992,995,995,998,998,1001,998,998,998,998,1001,998,998,998,998,998,998,998,998,998,995,995,995,995,998,1001,1007,1007,1007,1007,1007,1010,1010,1004,1004,1004,1004,1004,1004,1007,1007,1007,1007,1010,1001,1001,1007,1004,1004,1007,1007,1007,1007,1007,1004,1004,1001,1001,1001,998,998,998,1001,1001,1001,1001,1001,1001,1004,1007,1007,1007,1007,1007,1007,1007,1007,1004,1004,1004,1004,1004,1004,1004,1007,1010,1010,1010,1007,1004,1004,1001,1001,1001,1001,1010,1010,1013,1013,1013,1013,1013,1013,1010,1010,1013,1013,1013,1004,1004,1004,1004,1007,1007,1007,1010,1010,1010,1007,1001,1001,1001,1004,1004,1004,1004,1010,1010,1007,1007,1007,1007,1004,1004,1004,1007,1007,1007,1007,1010,1010,1010,1013,1010,1004,1004,1004,1010,1010,1010,1010,1013,1010,1010,1010,1007,1007,1007,1007,1010,1010,1010,1010,1010,1010,1010,1010,1010,1010,1010,1010,1010,1007,1007,1010,1010,1010,1010,1010,1007,1007,1010,1010,1010,1010,1010,1010,1010,1010,1007,1007,1007,1007,1007,1010,1010,1010,1010,1010,1010,1010,1010,1007,1007,1007,1007,1004,1004,1004,1004,0,0,0,0,1981,1981,1981,1970,1970,1970,1970,1970,1970,1947,1936,1936,0,0,0,0,0,0,0,0,0,0,0,0,0,0,862,862,860,860,858,856,854,854,851,849,847,847,847,847,849,851,851,851,854,854,854,856,858,858,860,860,860,862,862,867,0,0,0,0,0,0,1655,1647,1647,1647,1639,1639,1639,1639,1632,1632,1616,1616,1609,1609,1601,1601,1594,1594,1586,1586,1579,1579,1572,1564,1564,1557,1557,1550,1543,1543,1536,1529,1523,1523,1523,1516,1516,1516,1516,1509,1503,1496,1496,1489,1489,1489,1483,1477,1470,1470,1464,1464,1458,1458,1452,1445,1445,1439,1439,1433,1427,1421,1421,1421,1421,1415,1415,1410,1410,1404,1398,1398,1398,1392,1392,1392,1387,1381,1376,1376,1370,1370,1365,1365,1359,1354,1349,1349,1349,1343,1338,1338,1333,1333,1328,1328,1322,1312,1312,1312,1307,1307,1302,1302,1297,1297,1292,1292,1288,1288,1283,1278,1278,1273,1273,1268,1268,1264,1264,1259,1255,1255,1250,1250,1245,1241,1241,1236,1236,1236,1232,1227,1227,1223,1219,1219,1214,1214,1214,1210,1206,1206,1202,1197,1197,1197,1193,1189,1189,1185,1185,1185,1181,1177,1173,1169,1169,1165,1161,1161,1157,1157,1153,1153,1149,1149,1145,1145,1141,1138,1138,1134,1134,1130,1130,1126,1126,1123,1123,1119,1115,1115,1112,1108,1108,1108,1108,1105,1105,1101,1101,1097,1094,1094,1094,1090,1087,1084,1080,1080,1077,1077,1073,1073,1073,1070,1067,1067,1063,1063,1060,1060,1057,1054,1054,1054,1050,1050,1047,1044,1041,1041,1038,1038,1038,1031,1028,1028,0,0,0,0,0,0,0,0,0,0,0,0,0,0,0,0,0,0,0,0,0,0,0,0,0,0,0,0,0,0,0,0
0,0,0,0,0,0,0,0,0,0,0,0,0,0,0,2349,2333,2333,2333,2333,2317,2317,2317,2317,2333,2333,2333,2333,2333,2333,2333,2349,2333,2333,2349,2349,2349,2349,2349,2349,2349,2349,2333,2333,2333,2333,2333,2333,2333,2333,2333,2333,2333,2333,2333,2317,2301,2286,2271,2256,2256,2256,2256,2241,2241,2241,2226,2226,2212,2212,2212,2212,2198,2198,2184,2184,2184,2170,984,984,984,984,987,987,987,987,987,987,987,989,989,995,995,995,995,995,995,992,989,989,989,989,989,989,989,992,995,995,995,998,995,995,995,995,998,998,992,992,995,992,992,992,992,992,989,989,989,989,984,984,981,981,998,1001,1001,998,998,998,998,1001,998,998,998,1001,995,992,992,992,992,992,992,998,998,998,998,1001,1001,998,995,995,998,998,998,998,998,998,998,998,998,998,998,1001,1001,1001,1001,1001,1001,998,998,998,1001,1001,1001,1001,1001,1001,1001,1001,1001,1001,1004,1004,1004,1001,1001,1001,998,998,998,998,995,995,1001,1004,1004,1007,1007,1007,1007,1007,1004,1001,1001,1001,1001,1001,1001,1001,1001,1004,1004,1004,1001,998,998,1001,1001,1001,1001,1001,1001,1001,1004,1001,1001,1001,998,998,998,998,998,998,998,1001,992,992,992,992,1001,1001,1001,1004,1004,1007,1007,1010,1007,1007,1007,1004,1004,1004,1007,1007,1004,1001,1001,1007,1007,1001,1001,1001,1007,1007,1007,1007,1004,1004,1004,1004,1004,1004,1001,1001,1001,1001,1004,1004,1004,1004,1004,1004,1001,1001,1004,1004,1004,1004,1007,1007,1007,1007,1007,1007,1007,1007,1007,1007,1004,1004,1001,1001,1001,1001,0,0,992,992,1981,1981,1981,1981,1970,1970,1970,1970,1970,1970,0,0,0,0,0,0,0,0,0,0,0,0,0,0,0,864,862,862,860,858,856,856,854,851,851,849,847,847,847,847,849,851,851,851,854,854,856,856,858,860,860,860,862,862,862,0,0,0,0,0,0,0,1655,1647,1647,1647,1647,1639,1639,1639,1632,1632,1616,1616,1609,1609,1609,1601,1594,1594,1586,1586,1579,1579,1572,1572,1564,1564,1557,1550,1543,1543,1536,1529,1523,1523,1523,1523,1516,1516,1509,1509,1503,1496,1496,1489,1489,1489,1483,1477,1477,1470,1470,1464,1464,1458,1452,1445,1445,1445,1439,1433,1427,1427,1421,1421,1421,1415,1415,1415,1410,1404,1398,1398,1398,1392,1392,1392,1387,1381,1376,1376,1370,1370,1370,1365,1365,1354,1354,1349,1349,1349,1343,1338,1333,1333,1328,1328,1322,1317,1312,1312,1307,1307,1307,1302,1302,1297,1292,1292,1288,1288,1288,1283,1278,1273,1273,1273,1268,1268,1264,1259,1255,1255,1250,1250,1250,1241,1241,1241,1236,1236,1232,1227,1227,1223,1219,1219,1214,1214,1214,1210,1206,1206,1202,1202,1197,1197,1193,1193,1189,1185,1185,1181,1181,1177,1173,1169,1169,1165,1161,1161,1161,1157,1157,1153,1153,1149,1145,1145,1141,1141,1138,1138,1134,1134,1130,1126,1126,1123,1123,1119,1119,1115,1112,1112,1108,1108,1108,1105,1105,1101,1101,1097,1094,1094,1090,1090,1087,1084,1084,1080,1077,1077,1073,1073,1073,1070,1067,1067,1063,1063,1060,1060,1057,1054,1054,1054,1054,1050,1047,1047,1041,1041,1038,1038,1034,1034,1031,1031,0,0,0,0,0,0,0,0,0,0,0,0,0,0,0,0,0,0,0,0,0,0,0,0,0,0,0,0,0,0,0,0
0,0,0,0,0,0,0,0,0,0,0,0,0,0,0,2333,2333,2317,2317,2317,2317,2317,2317,2317,2317,2317,2317,2333,2333,2333,2333,2333,2333,2333,2333,2333,2333,2333,2349,2349,2333,2333,2333,2333,2333,2333,2333,2333,2333,2333,2333,2333,2333,2333,2317,2317,2301,2286,2271,2256,2256,2256,2256,2256,2256,2241,2226,2226,2226,2226,2212,2212,2198,2198,2198,978,978,978,978,978,984,984,987,987,987,987,987,987,987,989,989,995,995,995,995,995,995,992,987,987,987,987,987,987,987,992,992,992,995,995,992,989,989,989,992,992,992,989,989,992,989,989,989,989,987,987,987,984,981,981,981,981,981,984,984,987,989,992,992,989,989,989,992,992,989,987,987,989,989,989,989,989,989,989,992,992,989,989,989,989,995,995,998,992,992,992,992,992,992,992,992,992,995,995,995,992,992,992,992,992,995,998,998,998,995,995,995,995,995,995,995,995,998,998,998,995,992,992,995,992,992,989,989,989,989,989,992,992,995,998,998,995,995,995,995,995,998,998,998,998,1001,1001,998,995,995,998,998,998,995,995,995,995,995,995,995,995,995,995,992,992,992,992,992,995,992,992,992,992,992,998,998,1001,1001,1001,1001,1001,998,998,998,998,1001,1001,1001,998,992,992,989,989,987,987,995,995,1001,1004,1004,1004,1001,1001,1001,1001,1001,1001,998,998,998,998,998,998,998,998,998,1001,998,998,998,998,1001,1001,1001,998,995,995,998,998,998,998,998,1001,992,992,998,995,995,0,0,992,992,992,989,987,987,1981,1981,1981,1970,1970,1970,0,0,0,0,0,0,0,0,0,0,0,0,0,0,0,0,864,862,862,860,858,856,856,854,851,851,849,849,849,849,849,849,851,851,851,854,854,856,856,858,860,860,860,862,862,862,0,0,0,0,0,0,0,1655,1655,1647,1647,1647,1639,1639,1639,1632,1632,1624,1616,1609,1609,1609,1601,1601,1594,1586,1586,1579,1579,1572,1572,1564,1564,1557,1550,1543,1543,1536,1529,1523,1523,1523,1523,1516,1516,1509,1509,1503,1496,1496,1489,1489,1483,1483,1477,1470,1470,1470,1464,1464,1458,1452,1452,1445,1445,1445,1439,1433,1427,1421,1421,1421,1421,1415,1415,1410,1404,1404,1398,1398,1392,1392,1392,1387,1381,1376,1376,1376,1370,1370,1370,1365,1354,1354,1349,1349,1349,1343,1338,1333,1333,1333,1328,1322,1317,1312,1312,1307,1307,1307,1302,1302,1297,1297,1292,1292,1288,1288,1283,1278,1273,1273,1273,1268,1264,1264,1259,1255,1255,1255,1250,1250,1250,1241,1241,1236,1236,1232,1232,1227,1223,1223,1219,1214,1214,1214,1210,1210,1206,1202,1202,1197,1197,1193,1193,1193,1189,1185,1181,1181,1177,1173,1169,1169,1165,1165,1161,1161,1161,1157,1153,1153,1149,1145,1145,1141,1141,1138,1138,1134,1134,1134,1130,1126,1126,1123,1123,1119,1115,1115,1112,1108,1108,1108,1105,1105,1101,1101,1097,1094,1094,1090,1090,1087,1087,1084,1080,1080,1077,1073,1073,1073,1070,1067,1067,1063,1063,1060,1060,1057,1054,1054,1054,1054,1050,1047,1047,1044,1041,1041,1038,1034,1034,1031,1031,0,0,0,0,0,0,0,0,0,0,0,0,0,0,0,0,0,0,0,0,0,0,0,0,0,0,0,0,0,0,0,0
0,0,0,0,0,0,0,0,0,0,0,0,0,0,0,2317,2301,2301,2301,2301,2301,2301,2301,2301,2301,2301,2301,2317,2317,2301,2301,2317,2317,2317,2317,2317,2333,2333,2333,2333,2333,2333,2333,2333,2333,2333,2317,2317,2317,2333,2333,2333,2333,2333,2317,2301,2301,2286,2256,2256,2256,2256,2256,2256,2256,2241,2241,0,2226,2226,2212,2212,2212,0,975,978,978,975,975,978,978,978,978,987,981,981,984,984,984,984,987,989,992,992,992,992,992,989,987,984,984,981,981,981,981,987,987,989,989,989,989,989,989,989,989,989,989,989,989,989,989,987,987,984,984,981,981,981,978,978,978,978,978,978,978,978,981,981,981,984,981,981,978,978,981,981,984,984,984,987,987,987,987,987,984,984,984,981,981,984,984,987,987,989,987,987,987,987,987,987,989,989,989,989,989,989,989,989,989,989,989,989,989,989,992,989,989,989,989,989,989,989,992,992,992,989,989,989,989,987,987,987,987,987,987,984,984,984,984,987,989,989,992,992,992,995,995,995,992,992,995,995,995,995,995,995,995,992,992,992,992,992,989,989,989,989,989,992,992,989,989,989,989,992,989,989,989,989,989,989,989,995,995,995,995,992,989,989,989,989,989,992,995,995,989,989,987,987,984,984,984,987,987,987,998,1001,998,998,998,995,995,995,995,992,992,995,995,995,995,995,995,995,998,995,995,995,992,989,989,989,989,989,989,989,989,995,995,995,989,989,989,989,989,992,992,992,989,989,987,984,984,981,978,978,978,1970,0,0,0,0,0,0,0,0,0,0,0,0,0,0,0,0,0,869,862,862,860,858,856,854,854,851,851,851,849,849,849,849,851,851,851,854,854,856,856,858,858,860,860,862,862,862,862,0,0,0,0,0,0,0,1655,1655,1655,1647,1647,1647,1639,1639,1632,1632,1624,1624,1616,1609,1609,1601,1601,1594,1586,1586,1579,1579,1572,1572,1564,1564,1557,1550,1550,1543,1543,1536,1523,1523,1523,1523,1523,1516,1516,1509,1503,1503,1496,1489,1489,1483,1483,1477,1470,1470,1470,1464,1464,1458,1458,1452,1445,1445,1445,1439,1433,1427,1421,1421,1421,1421,1415,1415,1410,1404,1404,1398,1398,1392,1392,1392,1392,1387,1381,1376,1376,1370,1370,1370,1365,1359,1354,1354,1349,1349,1343,1338,1338,1333,1333,1328,1322,1317,1312,1312,1307,1307,1307,1302,1302,1297,1297,1292,1292,1288,1288,1283,1278,1273,1273,1273,1268,1264,1264,1259,1255,1255,1255,1250,1250,1245,1241,1241,1236,1236,1232,1232,1227,1223,1223,1219,1214,1214,1214,1210,1210,1206,1202,1202,1197,1197,1197,1193,1193,1189,1185,1181,1181,1177,1173,1169,1169,1169,1165,1161,1161,1161,1157,1153,1153,1149,1145,1145,1141,1141,1138,1138,1134,1134,1130,1130,1126,1123,1123,1123,1119,1119,1115,1112,1108,1108,1108,1105,1105,1101,1097,1097,1094,1094,1090,1090,1087,1087,1084,1080,1080,1077,1073,1073,1073,1070,1067,1067,1063,1063,1063,1060,1057,1057,1057,1054,1054,1050,1047,1047,1044,1041,1041,1038,1038,1034,1031,1031,0,0,0,0,0,0,0,0,0,0,0,0,0,0,0,0,0,0,0,0,0,0,0,0,0,0,0,0,0,0,0,0
0,0,0,0,0,0,0,0,0,0,0,0,0,0,0,2301,2301,2301,2301,2301,2301,2286,2286,2286,2286,2286,2286,2286,2286,2286,2286,2286,2286,2286,2301,2301,2301,2317,2317,2317,2333,2333,2333,2333,2317,2317,2317,2317,2317,2317,2317,2333,2317,2317,2317,2301,2286,2271,2256,2256,2256,2256,2256,0,0,0,0,0,0,0,0,0,0,0,975,975,975,975,975,975,978,975,975,973,973,973,973,973,973,970,970,978,981,981,984,984,978,978,978,978,975,975,978,978,978,981,981,981,981,981,981,984,984,981,981,987,987,987,987,987,984,984,984,984,978,978,978,978,975,975,975,975,975,975,975,975,978,978,978,978,978,978,978,978,978,978,978,978,978,981,984,984,984,984,981,981,978,978,978,978,978,981,984,984,984,984,984,984,984,987,987,987,987,987,987,987,984,984,984,984,987,987,987,987,987,987,987,984,981,981,978,978,978,981,987,987,984,981,981,984,984,984,984,984,984,978,978,981,981,981,981,984,984,987,984,984,984,981,981,984,984,987,987,989,989,992,992,989,989,989,989,989,987,987,984,984,987,987,987,987,987,987,987,987,987,987,987,987,987,987,987,987,987,987,987,981,981,981,981,981,981,984,987,989,987,987,984,984,981,981,981,984,984,984,984,984,987,987,992,992,992,992,992,989,989,989,992,989,989,989,992,992,992,989,989,992,987,987,987,984,984,984,987,987,987,992,995,995,987,984,984,984,984,984,987,987,987,987,984,981,981,978,978,978,978,975,975,0,0,0,0,0,0,0,0,0,0,0,0,0,0,0,0,871,869,864,860,858,856,854,854,851,851,851,849,849,849,851,851,851,854,854,856,856,858,858,860,860,862,862,862,862,862,0,0,0,0,0,0,0,1663,1655,1655,1655,1647,1647,1639,1639,1639,1632,1624,1624,1616,1609,1609,1601,1601,1594,1586,1586,1579,1579,1572,1572,1572,1564,1557,1550,1550,1543,1543,1536,1536,1523,1523,1523,1523,1516,1516,1509,1503,1503,1496,1496,1489,1489,1483,1477,1477,1470,1470,1470,1464,1464,1458,1452,1445,1445,1439,1439,1439,1433,1427,1421,1421,1421,1415,1415,1410,1410,1404,1404,1398,1398,1392,1392,1392,1387,1381,1376,1376,1376,1370,1370,1365,1365,1354,1354,1349,1349,1343,1338,1338,1333,1333,1328,1322,1317,1312,1312,1307,1307,1307,1307,1302,1302,1297,1297,1292,1292,1288,1283,1278,1278,1273,1273,1268,1268,1264,1264,1259,1259,1255,1255,1250,1245,1241,1241,1236,1236,1232,1232,1227,1223,1223,1223,1214,1214,1214,1210,1206,1206,1202,1202,1197,1197,1197,1193,1193,1189,1185,1181,1181,1177,1173,1169,1169,1169,1165,1165,1161,1161,1157,1157,1153,1149,1145,1145,1141,1141,1138,1138,1134,1134,1130,1130,1126,1123,1123,1119,1119,1115,1115,1112,1112,1108,1108,1105,1105,1101,1097,1097,1094,1094,1090,1090,1087,1087,1084,1080,1080,1077,1077,1073,1073,1070,1067,1067,1067,1063,1063,1060,1060,1057,1057,1054,1054,1050,1047,1047,1044,1041,1041,1038,1038,1034,1034,1034,0,0,0,0,0,0,0,0,0,0,0,0,0,0,0,0,0,0,0,0,0,0,0,0,0,0,0,0,0,0,0,0
0,0,0,0,0,0,0,0,0,0,0,0,0,0,0,2286,2286,2286,2286,2286,2286,2286,2286,2286,2286,2286,2286,2271,2271,2286,2286,2286,2286,2286,2286,2286,2286,2301,2301,2301,2301,2317,2317,2317,2301,2301,2286,2286,2301,2301,2301,2301,2301,2301,2301,2286,2286,2271,2256,2256,2256,0,0,0,0,0,0,0,0,0,0,0,0,0,975,975,975,970,970,973,973,973,973,970,970,970,967,967,964,964,964,970,973,973,973,975,973,973,973,973,973,973,975,975,975,975,975,975,975,973,973,973,975,973,973,967,967,970,975,975,978,981,981,981,978,978,978,975,975,975,973,973,973,973,973,973,975,975,975,975,975,975,975,975,975,975,975,978,978,975,975,975,975,978,975,975,975,975,975,975,975,975,978,978,978,978,978,978,978,981,984,984,984,978,978,978,978,978,978,978,981,981,981,981,984,981,978,975,975,975,973,973,973,975,975,975,978,978,978,978,978,978,978,978,975,973,973,975,973,973,975,978,973,973,973,975,975,978,978,978,978,978,981,981,984,987,987,989,987,987,987,984,984,984,981,981,981,981,984,984,984,978,978,984,984,984,981,981,981,981,981,978,978,975,975,973,973,975,978,978,978,978,978,981,981,981,981,978,978,981,981,978,978,978,978,981,981,981,981,984,984,984,987,987,987,987,987,987,987,987,987,987,987,984,984,987,984,984,984,981,981,978,978,978,978,978,978,978,978,978,978,978,981,981,984,984,981,981,981,975,975,975,975,975,975,975,975,0,0,0,0,0,0,0,0,0,0,0,0,0,0,0,871,871,869,867,862,858,856,854,854,851,851,851,851,851,851,851,851,854,854,854,856,858,858,858,860,862,862,862,862,862,864,0,0,0,0,0,0,0,1663,1663,1655,1655,1655,1647,1639,1639,1639,1632,1624,1624,1616,1609,1609,1601,1601,1601,1594,1594,1586,1579,1572,1572,1572,1564,1557,1550,1550,1550,1543,1536,1536,1529,1523,1523,1523,1516,1516,1509,1509,1503,1496,1496,1489,1489,1483,1477,1477,1470,1470,1470,1464,1464,1458,1452,1445,1445,1439,1439,1439,1433,1427,1421,1421,1421,1415,1415,1410,1410,1404,1404,1398,1398,1392,1392,1387,1387,1381,1376,1376,1376,1370,1370,1370,1365,1354,1354,1349,1349,1343,1343,1338,1333,1333,1328,1322,1322,1317,1312,1312,1307,1307,1307,1302,1302,1297,1297,1292,1292,1288,1283,1283,1278,1273,1273,1268,1268,1264,1264,1259,1255,1255,1255,1250,1245,1241,1241,1236,1236,1232,1232,1227,1227,1223,1223,1214,1214,1214,1210,1206,1206,1202,1202,1197,1197,1197,1193,1193,1189,1181,1181,1181,1177,1177,1169,1169,1169,1165,1165,1161,1161,1157,1157,1153,1149,1149,1145,1141,1141,1138,1138,1134,1134,1130,1130,1126,1123,1123,1119,1119,1115,1115,1112,1112,1108,1108,1108,1105,1101,1101,1097,1094,1094,1090,1090,1087,1087,1084,1080,1080,1080,1077,1073,1073,1070,1070,1067,1067,1067,1063,1063,1060,1057,1057,1054,1054,1050,1050,1047,1044,1041,1041,1041,1038,1038,1034,1034,0,0,0,0,0,0,0,0,0,0,0,0,0,0,0,0,0,0,0,0,0,0,0,0,0,0,0,0,0,0,0,0
0,0,0,0,0,0,0,0,0,0,0,0,0,0,0,2286,2286,2286,2286,2286,2286,2286,2286,2286,2286,2271,2271,2271,2271,2271,2271,2271,2271,2271,2271,2271,2286,2286,2286,2286,2286,2286,2286,2286,2286,2286,2286,2286,2286,2286,2286,2286,2286,2286,2286,2271,2271,2256,2256,0,0,0,0,0,0,0,0,0,0,0,0,0,0,0,973,967,967,967,967,967,967,967,967,967,967,967,967,967,964,964,964,964,967,967,970,970,970,967,967,973,970,970,973,970,970,970,970,970,970,970,967,967,967,967,967,964,964,967,967,967,973,975,975,975,975,973,973,973,973,973,973,973,973,973,973,973,973,973,970,970,973,973,973,973,973,973,973,973,973,973,973,970,970,970,967,967,967,973,973,973,973,973,973,973,973,973,973,973,973,975,975,964,964,973,973,973,973,973,973,975,975,975,975,975,975,973,970,967,967,967,967,970,970,970,970,970,973,973,973,967,967,973,975,973,970,970,970,970,967,967,967,970,970,970,970,970,970,970,970,970,973,975,978,981,981,984,984,987,984,984,981,978,978,981,978,978,978,978,978,978,981,978,978,978,978,978,975,975,975,975,970,970,973,970,970,967,967,973,973,973,973,973,973,975,975,978,975,975,975,978,975,975,973,973,970,970,967,967,978,978,981,978,978,978,975,975,978,978,978,978,975,975,975,975,978,973,973,973,978,978,978,975,975,975,975,973,973,975,975,975,975,975,978,981,981,978,978,978,978,973,973,973,973,973,973,970,970,0,0,0,0,0,0,0,0,0,0,0,0,0,0,0,871,871,869,867,862,858,856,854,854,851,851,851,851,851,851,851,851,854,854,856,856,858,858,860,860,862,862,862,862,862,864,0,0,0,0,0,0,1671,1663,1663,1655,1655,1655,1647,1647,1639,1632,1632,1624,1624,1616,1609,1609,1609,1601,1601,1594,1594,1586,1579,1572,1572,1564,1557,1557,1550,1550,1550,1543,1543,1536,1536,1523,1523,1523,1516,1516,1509,1509,1503,1503,1496,1489,1489,1483,1483,1477,1470,1470,1470,1464,1464,1464,1452,1445,1445,1439,1439,1439,1433,1427,1427,1421,1421,1415,1415,1410,1410,1404,1404,1398,1398,1392,1392,1387,1387,1381,1376,1376,1376,1370,1370,1370,1365,1354,1354,1349,1349,1343,1343,1338,1333,1333,1328,1328,1322,1317,1312,1312,1307,1307,1307,1302,1302,1302,1297,1297,1292,1288,1288,1283,1278,1278,1273,1273,1268,1264,1264,1259,1255,1255,1255,1250,1245,1245,1241,1236,1236,1232,1232,1227,1227,1223,1223,1214,1214,1214,1210,1206,1202,1202,1202,1197,1197,1197,1193,1189,1189,1181,1181,1181,1177,1177,1169,1169,1169,1165,1165,1165,1161,1161,1157,1153,1153,1149,1149,1145,1141,1138,1138,1138,1134,1134,1130,1126,1123,1123,1119,1119,1119,1115,1115,1112,1108,1108,1108,1105,1105,1101,1097,1097,1094,1090,1090,1087,1087,1084,1084,1080,1080,1077,1073,1073,1070,1070,1067,1067,1067,1063,1063,1060,1057,1057,1054,1054,1050,1050,1047,1044,1044,1041,1041,1038,1038,1034,1034,0,0,0,0,0,0,0,0,0,0,0,0,0,0,0,0,0,0,0,0,0,0,0,0,0,0,0,0,0,0,0,0
0,0,0,0,0,0,0,0,0,0,0,0,0,0,0,2271,2271,2286,2286,2271,2271,2271,2271,2271,2271,2271,2271,2271,2256,2256,2256,2256,2256,2271,2271,2271,2271,2271,2271,2271,2271,2271,2271,2271,2271,2271,2271,2271,2271,2271,2271,2271,2271,2271,2256,2256,2256,2256,2256,0,0,0,0,0,0,0,0,0,0,0,0,0,0,0,970,967,967,967,964,956,954,954,956,964,964,964,964,964,964,962,962,962,964,964,964,964,964,964,967,967,967,967,967,967,967,967,967,967,964,964,964,959,959,959,962,962,962,964,964,964,967,967,967,970,970,973,970,967,967,967,967,967,967,967,967,964,964,967,967,967,964,964,967,967,967,967,967,970,970,967,967,964,964,964,964,967,967,967,967,967,967,970,970,970,970,967,967,967,967,964,962,962,962,964,967,970,967,967,967,967,973,970,967,964,964,964,967,964,964,964,964,967,967,967,967,967,967,964,964,964,964,964,964,970,967,967,967,967,967,964,964,967,967,967,967,967,967,967,967,967,967,967,964,964,970,967,967,984,975,975,975,975,975,975,975,975,975,975,975,975,975,975,975,975,975,975,973,973,970,970,967,967,967,967,967,967,967,967,970,967,967,967,970,967,967,970,973,970,970,973,973,973,967,967,964,964,964,964,964,973,978,978,975,975,973,970,967,967,967,967,973,973,973,970,967,967,967,970,970,970,975,973,973,973,973,973,970,970,970,973,973,973,975,975,973,973,973,973,973,970,970,970,970,970,970,967,967,967,0,0,0,0,0,0,0,0,0,0,0,0,0,0,873,871,867,867,862,860,856,854,854,851,851,851,851,851,851,851,851,854,854,856,858,858,860,860,860,862,862,862,862,862,867,0,0,0,0,0,0,1671,1663,1663,1663,1655,1655,1647,1639,1639,1632,1632,1624,1624,1616,1609,1609,1609,1601,1601,1594,1594,1586,1579,1572,1572,1564,1557,1557,1550,1550,1550,1543,1543,1543,1536,1529,1523,1523,1516,1516,1509,1509,1503,1503,1496,1489,1489,1483,1483,1477,1470,1470,1470,1464,1464,1464,1458,1452,1445,1439,1439,1439,1433,1427,1427,1421,1421,1415,1415,1410,1410,1404,1398,1398,1398,1392,1392,1387,1381,1381,1376,1376,1376,1370,1370,1370,1359,1354,1354,1349,1349,1349,1343,1338,1333,1333,1328,1328,1322,1317,1312,1312,1307,1307,1307,1302,1302,1302,1297,1292,1292,1288,1288,1283,1283,1278,1273,1273,1268,1268,1264,1259,1259,1255,1255,1250,1245,1245,1241,1236,1236,1232,1232,1232,1227,1227,1223,1219,1214,1214,1210,1206,1202,1202,1202,1197,1197,1197,1193,1189,1189,1185,1181,1181,1181,1177,1173,1169,1169,1165,1165,1165,1165,1161,1157,1153,1153,1149,1149,1145,1141,1141,1138,1138,1134,1134,1130,1126,1126,1123,1123,1119,1119,1115,1115,1112,1108,1108,1108,1105,1105,1101,1097,1097,1094,1090,1090,1090,1087,1087,1084,1080,1080,1077,1077,1073,1073,1070,1067,1067,1067,1063,1063,1060,1057,1057,1054,1054,1050,1050,1047,1047,1044,1041,1041,1041,1038,1038,1038,0,0,0,0,0,0,0,0,0,0,0,0,0,0,0,0,0,0,0,0,0,0,0,0,0,0,0,0,0,0,0,0
0,0,0,0,0,0,0,0,0,0,0,0,0,0,0,2271,2271,2271,2271,2271,2271,2256,2256,2256,2256,2256,2256,2256,2256,2256,2256,2256,2256,2256,2256,2256,2256,2256,2256,2256,2256,2256,2256,2256,2241,2241,2256,2256,2256,2271,2271,2271,2271,2271,2256,2256,2241,2241,2226,2226,0,0,0,0,0,0,0,0,0,0,0,0,0,967,967,964,964,962,959,954,951,951,951,956,956,956,956,956,956,956,956,956,962,962,962,962,962,962,959,956,956,964,964,964,964,964,962,962,959,959,959,956,956,956,959,959,959,959,959,959,962,962,954,954,959,962,964,962,962,962,962,964,964,962,959,959,959,962,962,962,959,959,964,964,964,964,964,964,962,956,956,956,956,959,959,959,959,959,962,962,964,964,962,962,962,962,962,962,959,959,959,959,962,962,964,964,959,959,959,956,956,956,956,959,959,962,962,962,962,962,962,964,964,964,962,962,962,962,962,962,962,962,964,964,964,964,959,956,956,959,959,959,959,962,964,964,964,964,964,964,962,962,959,959,959,959,956,956,967,967,967,970,970,970,970,970,970,970,970,970,967,967,967,967,967,967,967,967,967,964,964,964,964,964,964,964,964,964,964,964,962,962,964,964,964,964,964,964,967,967,967,967,964,964,962,962,962,959,959,964,973,975,973,973,970,967,964,962,962,959,959,959,959,964,962,962,962,964,967,967,967,970,970,970,970,970,970,970,970,970,970,970,970,970,967,967,967,967,967,967,967,967,967,967,967,964,962,962,959,956,956,0,951,948,948,946,946,946,0,0,0,0,873,871,867,867,862,860,858,856,854,851,851,851,851,851,851,851,854,854,856,856,858,860,860,860,862,862,862,862,862,862,864,0,0,0,0,0,0,0,1663,1663,1663,1663,1655,1647,1639,1639,1632,1632,1624,1624,1616,1609,1609,1609,1601,1601,1594,1594,1586,1579,1579,1572,1564,1557,1550,1550,1550,1550,1543,1543,1543,1536,1529,1523,1523,1516,1516,1509,1509,1503,1496,1496,1496,1489,1489,1483,1477,1477,1470,1470,1470,1464,1464,1458,1452,1445,1445,1439,1439,1439,1427,1427,1421,1421,1415,1415,1410,1410,1404,1398,1398,1398,1392,1392,1387,1381,1381,1376,1376,1376,1370,1370,1370,1359,1354,1354,1349,1349,1349,1343,1338,1333,1333,1328,1328,1322,1317,1312,1312,1307,1307,1307,1307,1302,1302,1297,1292,1292,1288,1288,1283,1283,1283,1273,1273,1268,1268,1264,1259,1259,1255,1255,1250,1245,1245,1241,1236,1236,1232,1232,1232,1227,1227,1223,1219,1214,1214,1210,1206,1206,1202,1202,1197,1197,1197,1193,1193,1189,1185,1181,1181,1181,1177,1173,1169,1169,1169,1165,1165,1165,1161,1161,1157,1153,1149,1149,1145,1145,1141,1141,1138,1134,1134,1134,1130,1126,1123,1123,1119,1119,1119,1115,1112,1108,1108,1108,1105,1105,1101,1097,1097,1094,1090,1090,1090,1090,1087,1084,1080,1080,1077,1077,1073,1073,1070,1067,1067,1067,1063,1063,1060,1057,1057,1054,1054,1050,1050,1050,1047,1044,1041,1041,1041,1038,1038,1038,0,0,0,0,0,0,0,0,0,0,0,0,0,0,0,0,0,0,0,0,0,0,0,0,0,0,0,0,0,0,0,0
0,0,0,0,0,0,0,0,0,0,0,0,0,0,0,2241,2241,2256,2256,2256,2256,2241,2241,2241,2241,2241,2241,2241,2241,2241,2241,2241,2241,2241,2256,2241,2241,2241,2241,2241,2241,2226,2226,2241,2226,2226,2241,2241,2241,2241,2241,2271,2256,2256,2241,2241,2241,2226,2226,2226,2226,0,0,0,0,0,0,0,0,0,0,0,0,967,967,964,962,959,956,951,948,948,951,951,951,954,951,951,951,951,948,948,954,956,956,954,954,954,948,946,946,946,946,946,954,954,954,954,954,954,956,954,954,954,954,954,954,954,948,948,956,956,948,948,951,954,954,956,956,956,956,956,956,954,948,948,951,954,956,956,954,954,959,962,956,956,954,954,954,954,954,954,954,954,954,954,954,954,956,956,954,954,956,954,951,951,951,951,956,956,956,956,956,959,959,959,956,956,956,954,954,954,954,956,956,956,956,959,959,959,959,959,962,962,959,959,959,959,959,959,959,959,962,962,959,956,954,954,954,956,956,956,956,956,962,962,962,962,962,959,956,956,956,956,956,956,956,954,954,954,954,956,964,964,967,964,964,964,959,959,959,959,959,959,959,959,962,962,962,962,959,959,959,959,962,959,959,959,959,959,959,959,962,962,962,962,962,962,962,962,964,962,962,962,959,959,959,956,956,956,956,956,967,967,967,962,962,959,959,959,956,956,956,956,956,956,956,959,962,962,964,964,964,964,967,967,967,967,967,970,970,970,967,967,964,964,964,962,962,962,962,964,959,959,959,962,959,959,956,956,951,951,948,948,946,946,946,946,946,0,878,878,873,871,869,867,864,860,858,856,854,854,851,851,851,851,851,854,854,854,856,858,860,860,860,860,862,862,862,862,862,862,864,0,0,0,0,0,0,0,1671,1671,1663,1663,1655,1647,1647,1639,1632,1632,1632,1624,1616,1609,1609,1609,1601,1601,1601,1594,1586,1579,1579,1572,1564,1557,1550,1550,1550,1550,1543,1543,1543,1536,1536,1523,1523,1516,1516,1509,1509,1503,1496,1496,1496,1489,1489,1483,1477,1477,1477,1470,1470,1464,1464,1458,1452,1445,1445,1445,1439,1439,1433,1427,1427,1421,1421,1415,1415,1410,1410,1404,1398,1398,1392,1392,1387,1381,1381,1376,1376,1376,1370,1370,1370,1359,1354,1354,1349,1349,1349,1343,1338,1333,1333,1328,1328,1322,1317,1317,1312,1312,1307,1307,1307,1307,1302,1297,1297,1292,1288,1288,1288,1283,1283,1273,1273,1268,1268,1264,1259,1259,1255,1255,1250,1245,1245,1241,1236,1236,1232,1232,1232,1227,1227,1223,1219,1214,1214,1214,1210,1206,1202,1202,1197,1197,1197,1193,1193,1189,1185,1181,1181,1181,1177,1173,1169,1169,1169,1165,1165,1165,1161,1161,1157,1153,1149,1149,1145,1145,1145,1141,1138,1134,1134,1134,1130,1126,1123,1123,1119,1119,1119,1115,1115,1112,1108,1108,1108,1105,1101,1101,1097,1094,1090,1090,1090,1090,1087,1084,1084,1080,1080,1077,1077,1073,1073,1070,1067,1067,1063,1063,1060,1060,1057,1054,1054,1050,1050,1050,1047,1044,1041,1041,1041,1038,1038,1038,0,0,0,0,0,0,0,0,0,0,0,0,0,0,0,0,0,0,0,0,0,0,0,0,0,0,0,0,0,0,0,0
0,0,0,0,0,0,0,0,0,0,0,0,0,0,0,2241,2241,2241,2241,2241,2241,2226,2226,2226,2226,2226,2226,2226,2226,2241,2226,2226,2226,2241,2241,2226,2226,2226,2226,2241,2241,2226,2226,2226,2226,2226,2226,2226,2226,2241,2241,2241,2241,2226,2226,2226,2226,2226,2226,2226,2226,2226,0,0,0,0,0,0,0,0,0,0,0,967,962,959,959,951,951,946,946,946,946,946,946,948,946,946,946,943,940,940,928,928,928,940,940,940,946,943,943,946,946,946,946,946,946,946,951,951,954,951,951,951,951,951,946,946,946,943,943,943,943,946,946,948,948,951,948,948,951,946,946,946,943,943,946,946,951,948,948,948,948,948,951,948,948,951,951,951,951,946,946,946,946,946,948,951,951,948,946,946,948,948,946,946,948,948,948,948,948,948,954,954,954,954,954,954,951,951,951,951,951,954,954,954,954,956,956,956,956,956,956,956,956,954,954,954,954,954,951,948,948,948,948,951,951,948,948,951,951,951,951,951,954,956,956,959,959,956,954,954,954,954,954,954,951,943,943,946,946,946,946,946,948,956,956,956,954,954,954,954,954,954,956,956,959,959,959,959,956,956,956,956,956,956,954,954,954,954,956,954,954,954,954,954,956,956,956,956,956,956,956,956,954,954,954,954,954,946,946,948,956,956,959,959,959,956,954,954,954,954,954,954,954,951,951,951,954,954,954,962,962,962,964,964,964,964,964,964,964,967,964,964,962,962,962,959,959,959,959,959,956,956,959,959,959,956,956,954,951,951,948,946,946,946,943,943,943,943,878,878,873,871,867,864,862,860,858,856,854,854,854,854,854,854,854,854,854,856,856,858,860,860,860,862,862,862,862,864,862,862,864,0,0,0,0,0,0,0,1671,1671,1663,1663,1655,1647,1647,1639,1639,1632,1632,1624,1616,1609,1609,1609,1601,1601,1601,1601,1594,1586,1579,1572,1572,1564,1557,1557,1550,1550,1543,1543,1543,1536,1536,1529,1523,1523,1516,1509,1509,1503,1503,1496,1496,1489,1489,1489,1483,1483,1477,1477,1470,1470,1464,1458,1452,1445,1445,1445,1439,1439,1433,1433,1427,1427,1421,1415,1415,1410,1410,1404,1398,1398,1392,1392,1387,1381,1381,1376,1376,1376,1370,1370,1370,1359,1354,1354,1349,1349,1349,1343,1343,1338,1333,1333,1328,1328,1322,1317,1312,1312,1312,1307,1307,1307,1302,1297,1292,1292,1288,1288,1288,1283,1283,1278,1273,1268,1268,1264,1264,1259,1255,1255,1250,1245,1245,1241,1236,1236,1232,1232,1232,1227,1227,1223,1219,1219,1214,1214,1210,1206,1202,1202,1202,1197,1197,1197,1193,1189,1185,1185,1181,1181,1177,1173,1173,1169,1169,1165,1165,1165,1165,1161,1153,1153,1149,1149,1145,1145,1145,1141,1138,1138,1134,1134,1130,1130,1126,1123,1119,1119,1119,1115,1115,1112,1108,1108,1108,1105,1105,1101,1097,1094,1090,1090,1090,1090,1087,1084,1084,1080,1080,1077,1077,1077,1073,1070,1070,1067,1067,1063,1063,1060,1057,1054,1054,1050,1050,1050,1047,1044,1044,1041,1041,1038,1038,1038,0,0,0,0,0,0,0,0,0,0,0,0,0,0,0,0,0,0,0,0,0,0,0,0,0,0,0,0,0,0,0,0
0,0,0,0,0,0,0,0,0,0,0,0,0,0,0,2226,2226,2212,2212,2212,2212,2212,2212,2212,2226,2212,2212,2212,2226,2226,2226,2226,2226,2226,2226,2226,2226,2226,2226,2226,2226,2226,2226,2226,2226,2226,2226,2226,2226,2226,2226,2226,2226,2226,2226,2226,2226,2226,2226,2226,2226,2226,0,0,0,0,0,0,0,0,0,0,0,0,962,956,954,948,948,943,943,943,943,940,940,940,938,938,938,935,935,933,928,928,928,930,933,933,935,940,940,940,940,940,940,940,940,940,940,940,943,943,948,948,948,946,946,943,943,940,940,940,940,940,940,946,946,943,943,943,943,943,940,940,943,943,946,946,946,946,946,946,946,948,946,946,946,946,946,946,943,940,940,940,940,943,943,943,946,943,943,943,940,940,943,943,943,946,946,943,943,946,946,946,943,943,948,948,951,948,948,948,948,951,951,951,951,954,954,954,954,954,954,954,951,951,951,948,948,948,946,946,946,946,946,946,946,948,948,948,948,948,948,948,951,946,946,951,951,951,951,948,948,951,948,946,943,940,940,943,943,943,943,943,946,946,943,943,946,951,951,951,951,954,954,954,954,954,954,954,954,951,951,951,954,954,951,951,951,951,951,951,948,948,948,948,948,948,948,948,948,951,951,951,948,948,951,951,948,946,946,946,946,946,946,956,956,956,954,951,951,951,951,951,951,946,946,946,946,946,946,946,946,946,962,962,962,954,954,946,946,959,959,959,956,956,956,956,956,956,956,956,954,954,956,956,954,954,954,951,951,948,946,946,946,943,943,940,940,940,878,878,875,869,867,864,862,860,858,856,854,854,854,854,854,854,854,854,854,858,858,858,860,860,860,862,862,864,864,864,864,864,867,0,0,0,0,0,0,0,1671,1671,1663,1663,1655,1647,1647,1639,1639,1632,1632,1624,1624,1616,1609,1609,1609,1601,1601,1601,1594,1586,1579,1572,1572,1564,1557,1557,1550,1550,1543,1543,1543,1536,1536,1529,1523,1523,1516,1516,1509,1503,1503,1496,1496,1489,1489,1489,1489,1483,1483,1477,1470,1470,1464,1458,1452,1445,1445,1445,1439,1439,1439,1439,1433,1427,1421,1415,1415,1410,1404,1398,1398,1398,1392,1392,1387,1381,1381,1376,1376,1370,1370,1370,1365,1359,1354,1354,1354,1349,1349,1349,1343,1338,1333,1333,1328,1328,1322,1317,1312,1312,1312,1307,1307,1307,1302,1297,1292,1292,1292,1288,1288,1283,1283,1278,1273,1273,1268,1264,1264,1259,1255,1255,1250,1250,1245,1241,1236,1236,1232,1232,1232,1227,1227,1223,1219,1219,1214,1214,1210,1206,1202,1202,1202,1197,1197,1197,1193,1189,1185,1185,1181,1181,1177,1173,1173,1169,1169,1169,1165,1165,1165,1161,1153,1153,1149,1149,1149,1145,1145,1141,1141,1138,1138,1134,1134,1130,1130,1123,1119,1119,1119,1119,1115,1112,1112,1108,1108,1105,1105,1101,1097,1094,1090,1090,1090,1090,1087,1087,1084,1084,1080,1080,1077,1077,1073,1070,1070,1067,1067,1063,1063,1060,1057,1057,1054,1054,1050,1050,1050,1044,1044,1041,1038,1038,1038,1038,0,0,0,0,0,0,0,0,0,0,0,0,0,0,0,0,0,0,0,0,0,0,0,0,0,0,0,0,0,0,0,0
0,0,0,0,0,0,0,0,0,0,0,0,0,0,0,2212,2212,2212,2212,2212,2212,2212,2212,2212,2212,2212,2212,2212,2212,2212,2212,2212,2226,2226,2212,2212,2212,2212,2212,2212,2212,2212,2212,2226,2226,2226,2226,2212,2212,2212,2212,2212,2212,2212,2212,2212,2212,2212,2212,2212,2212,2212,2226,0,0,0,0,0,0,0,0,0,0,0,0,956,951,946,946,943,940,940,938,938,938,938,935,935,935,933,933,930,930,928,928,930,933,933,933,933,935,938,935,935,935,935,935,935,933,930,930,935,935,935,938,938,940,940,940,938,938,938,938,938,940,940,940,935,935,935,935,935,935,935,938,938,940,940,943,943,943,940,940,943,943,940,940,943,943,943,938,935,935,935,935,935,938,938,938,938,938,935,935,935,940,940,940,940,940,940,940,938,938,938,935,935,938,940,943,946,946,946,948,948,948,948,948,951,951,951,951,951,951,943,943,948,946,946,946,943,940,940,943,940,940,943,943,943,943,943,943,940,940,938,935,935,938,938,943,946,946,946,946,946,943,938,938,938,938,940,938,938,940,940,940,940,938,938,940,940,943,943,940,940,948,951,951,948,948,948,948,946,946,946,946,948,946,946,946,943,943,943,943,943,940,940,943,946,946,946,946,946,946,946,946,946,946,948,946,946,940,940,943,943,943,948,951,954,951,948,946,946,943,943,943,943,940,940,940,940,940,938,938,938,938,938,938,938,940,943,943,946,948,951,948,948,948,948,948,948,946,946,946,946,948,946,946,948,948,948,948,946,946,943,943,943,940,940,938,938,875,875,873,869,867,864,862,860,858,856,856,854,854,854,854,854,854,854,858,858,860,860,860,862,862,862,864,864,864,864,864,864,867,0,0,0,0,0,0,0,1671,1671,1663,1655,1647,1647,1647,1639,1639,1632,1632,1624,1624,1616,1609,1609,1609,1601,1601,1601,1594,1586,1579,1572,1572,1564,1557,1557,1550,1550,1550,1543,1543,1536,1529,1529,1523,1523,1516,1516,1509,1509,1503,1496,1496,1489,1489,1489,1489,1483,1483,1477,1470,1470,1470,1464,1452,1452,1445,1445,1439,1439,1439,1439,1433,1433,1421,1421,1415,1410,1404,1398,1398,1398,1392,1392,1387,1381,1381,1376,1376,1370,1370,1370,1365,1359,1359,1354,1354,1349,1349,1349,1343,1338,1333,1333,1333,1328,1322,1317,1317,1312,1312,1312,1307,1307,1302,1297,1292,1292,1292,1288,1288,1288,1283,1278,1278,1273,1268,1268,1264,1264,1259,1255,1250,1250,1245,1245,1236,1236,1236,1236,1232,1227,1227,1223,1219,1219,1214,1214,1214,1210,1206,1206,1202,1202,1197,1197,1193,1189,1185,1185,1181,1181,1177,1177,1173,1173,1169,1169,1165,1165,1165,1161,1153,1153,1149,1149,1149,1145,1145,1141,1141,1138,1138,1138,1134,1130,1130,1123,1123,1119,1119,1119,1115,1112,1112,1108,1108,1108,1105,1101,1097,1094,1094,1094,1094,1090,1087,1087,1084,1084,1080,1080,1080,1077,1077,1073,1070,1067,1067,1063,1063,1060,1057,1057,1054,1054,1050,1050,1050,1047,1044,1041,1038,1038,1038,1038,0,0,0,0,0,0,0,0,0,0,0,0,0,0,0,0,0,0,0,0,0,0,0,0,0,0,0,0,0,0,0,0
0,0,0,0,0,0,0,0,0,0,0,0,0,0,0,2212,2198,2184,2184,2198,2212,2198,2198,2198,2198,2198,2184,2184,2198,2198,2198,2198,2212,2212,2198,2198,2198,2198,2198,2198,2212,2212,2212,2212,2212,2212,2212,2212,2212,2212,2212,2198,2198,2212,2198,2198,2198,2198,2198,2212,2212,2212,2212,2212,0,0,0,0,0,0,0,0,0,0,0,0,951,943,940,940,938,933,933,933,933,933,933,930,930,928,925,925,928,925,925,928,930,930,930,930,933,933,930,930,930,933,930,928,928,928,928,930,928,928,933,933,933,933,933,935,935,935,935,933,933,933,933,928,928,928,928,928,928,933,935,935,935,935,938,935,935,935,935,935,935,935,935,938,938,933,933,933,933,933,933,933,933,933,935,933,933,933,933,933,935,935,935,938,938,938,938,933,933,933,933,933,935,935,938,940,940,940,940,943,943,943,940,940,948,951,948,948,948,940,940,946,943,943,943,940,938,938,940,938,938,940,940,940,940,940,938,938,938,935,935,935,935,935,935,935,938,938,938,938,938,938,935,935,935,938,935,935,938,938,938,935,935,935,938,938,935,935,935,935,935,935,935,943,940,940,940,940,940,938,938,940,940,943,940,940,940,940,938,938,935,935,938,938,938,938,940,938,938,938,940,940,940,943,940,940,938,938,938,938,938,938,943,946,948,946,943,943,940,940,940,938,933,930,928,928,928,928,933,935,935,933,933,933,935,935,935,935,940,943,946,943,940,940,940,940,940,938,938,938,940,940,943,943,946,946,946,943,943,943,940,940,938,935,935,935,878,875,873,869,867,864,862,860,858,856,856,854,854,854,854,854,856,856,858,858,860,860,862,862,862,864,867,867,867,867,867,867,867,0,0,0,0,0,0,1671,1671,1671,1663,1655,1647,1647,1647,1639,1639,1632,1632,1624,1624,1616,1609,1609,1609,1601,1601,1601,1594,1586,1579,1579,1572,1564,1557,1557,1550,1550,1550,1543,1543,1536,1529,1529,1523,1523,1516,1516,1516,1509,1503,1503,1496,1496,1489,1489,1489,1489,1483,1483,1470,1470,1470,1464,1452,1452,1445,1445,1439,1439,1439,1439,1433,1427,1421,1421,1415,1410,1404,1398,1398,1398,1392,1392,1387,1381,1381,1376,1376,1376,1370,1370,1365,1359,1359,1354,1354,1354,1349,1349,1343,1338,1338,1333,1333,1328,1322,1322,1317,1312,1312,1312,1307,1307,1302,1292,1292,1292,1292,1288,1288,1288,1283,1278,1273,1273,1268,1268,1264,1264,1255,1255,1255,1250,1250,1245,1241,1236,1236,1236,1232,1232,1227,1223,1223,1219,1214,1214,1214,1210,1210,1206,1202,1202,1197,1197,1193,1193,1189,1185,1185,1181,1181,1177,1177,1173,1169,1169,1169,1165,1165,1165,1157,1153,1153,1149,1149,1145,1145,1141,1141,1138,1138,1138,1134,1134,1130,1123,1123,1119,1119,1119,1115,1112,1112,1108,1108,1108,1105,1101,1097,1094,1094,1094,1094,1090,1090,1087,1084,1084,1080,1080,1080,1077,1077,1073,1070,1067,1067,1063,1063,1060,1057,1057,1054,1054,1050,1050,1047,1047,1044,1041,1038,1038,1038,1038,0,0,0,0,0,0,0,0,0,0,0,0,0,0,0,0,0,0,0,0,0,0,0,0,0,0,0,0,0,0,0,0
0,0,0,0,0,0,0,0,0,0,0,0,0,0,0,2184,2184,2170,2170,2170,2198,2198,2198,2184,2184,2184,2184,2184,2184,2184,2184,2184,2184,2184,2170,2170,2156,2156,2184,2198,2198,2198,2198,2198,2198,2198,2198,2198,2198,2198,2198,2198,2198,2198,2198,2198,2198,2198,2198,2198,2198,2198,2170,2170,0,0,0,0,0,0,0,0,0,0,0,0,0,940,935,935,933,930,930,930,930,930,930,930,930,923,923,923,923,925,925,925,928,928,928,928,930,930,928,928,928,930,928,925,925,925,925,928,925,925,928,928,928,930,930,933,930,928,928,930,930,928,928,925,925,925,925,925,925,928,930,930,925,925,925,933,930,930,930,930,930,930,930,930,930,925,925,928,928,928,928,925,925,925,928,928,925,925,925,928,930,930,933,933,933,933,930,928,925,925,928,928,925,923,923,930,933,930,930,933,933,933,933,933,933,935,933,933,933,935,935,940,940,935,935,935,935,935,938,935,935,938,935,935,938,935,935,933,933,933,933,933,933,933,933,933,933,933,935,935,933,933,933,933,935,935,935,935,935,935,933,933,933,933,933,933,933,933,933,933,930,930,930,930,930,930,930,938,938,935,935,935,935,938,935,935,935,938,938,935,935,933,933,933,933,933,933,935,935,935,933,933,935,933,933,935,933,930,930,930,933,933,925,925,935,943,940,940,935,935,933,933,930,928,925,925,928,928,930,930,930,930,930,930,930,930,930,930,930,930,930,938,938,938,938,938,938,938,938,938,938,938,938,938,938,938,940,938,935,935,935,935,935,930,930,930,878,875,873,869,867,864,862,860,858,858,856,854,854,854,854,856,856,856,860,860,860,862,862,862,864,867,867,867,867,867,867,867,0,0,0,0,0,0,0,1671,1671,1671,1663,1655,1655,1647,1639,1639,1639,1632,1632,1624,1616,1616,1609,1609,1609,1601,1601,1601,1594,1586,1586,1579,1572,1572,1564,1564,1557,1557,1550,1550,1543,1536,1536,1529,1523,1523,1516,1516,1516,1509,1509,1503,1496,1496,1489,1489,1489,1489,1483,1483,1470,1470,1470,1464,1452,1452,1445,1445,1439,1439,1439,1439,1433,1427,1421,1421,1415,1410,1404,1404,1398,1398,1392,1392,1387,1381,1381,1376,1376,1376,1370,1370,1365,1359,1359,1354,1354,1354,1349,1349,1343,1338,1338,1333,1333,1328,1328,1322,1317,1312,1312,1312,1307,1307,1302,1292,1292,1292,1292,1288,1288,1288,1283,1278,1273,1273,1268,1268,1264,1264,1255,1255,1255,1250,1250,1245,1245,1241,1236,1236,1232,1232,1227,1223,1223,1219,1214,1214,1214,1210,1210,1206,1202,1202,1202,1197,1197,1193,1189,1185,1185,1181,1181,1177,1177,1173,1169,1169,1169,1165,1165,1161,1157,1153,1153,1149,1149,1145,1145,1145,1141,1138,1138,1138,1134,1134,1130,1123,1123,1119,1119,1119,1115,1115,1112,1108,1108,1108,1105,1101,1097,1094,1094,1094,1094,1090,1090,1087,1087,1084,1080,1080,1080,1080,1077,1073,1067,1067,1067,1067,1063,1060,1060,1057,1054,1054,1050,1050,1047,1044,1041,1041,1038,1038,1038,1038,0,0,0,0,0,0,0,0,0,0,0,0,0,0,0,0,0,0,0,0,0,0,0,0,0,0,0,0,0,0,0,0
0,0,0,0,0,0,0,0,0,0,0,0,0,0,0,2170,2170,2170,2170,2170,2184,2184,2170,2170,2170,2170,2170,2170,2170,2170,2170,2170,2170,2170,2156,2156,2156,2156,2170,2184,2184,2184,2184,2184,2184,2184,2184,2184,2184,2184,2184,2184,2184,2184,2184,2184,2184,2184,2184,2184,2170,2170,2170,2170,0,0,0,0,0,0,0,0,0,0,0,0,0,940,935,933,930,930,928,925,925,925,925,920,920,920,920,920,920,923,923,925,925,925,925,925,928,925,923,923,925,925,923,923,923,920,920,923,923,923,923,923,923,923,923,923,923,923,925,923,923,923,923,920,920,920,923,923,925,925,925,925,925,925,925,928,928,928,928,925,925,925,925,923,918,918,925,923,923,923,923,923,923,920,920,923,923,920,920,920,920,925,928,928,930,930,925,923,923,920,920,920,920,920,920,920,923,923,920,920,920,925,925,925,923,923,925,928,928,930,930,930,935,930,930,933,933,933,935,935,935,935,935,935,933,933,933,933,933,933,930,930,930,930,928,928,928,928,928,928,930,930,930,930,933,933,933,933,933,933,930,928,928,928,930,928,928,928,928,928,928,928,928,928,928,925,925,928,930,928,928,928,928,930,930,930,930,933,933,933,933,930,930,930,930,928,928,928,928,928,928,928,928,928,928,928,928,928,925,925,925,925,918,918,928,925,925,928,925,925,925,925,925,925,923,923,925,925,925,925,925,925,923,923,925,925,928,928,928,928,928,928,928,928,928,933,933,933,933,933,933,930,930,928,928,928,928,930,928,928,928,930,930,928,928,878,878,875,871,869,867,864,862,860,858,856,856,854,854,854,854,856,856,858,860,860,860,862,862,864,864,867,869,869,869,869,869,869,0,0,0,0,0,0,0,1671,1671,1671,1663,1663,1655,1647,1639,1639,1639,1632,1632,1624,1616,1616,1609,1609,1609,1601,1601,1601,1594,1586,1586,1579,1579,1572,1564,1564,1564,1557,1550,1550,1543,1536,1536,1529,1523,1523,1516,1516,1516,1509,1509,1503,1503,1496,1496,1489,1489,1489,1483,1483,1470,1470,1470,1464,1452,1452,1445,1445,1439,1439,1439,1439,1439,1433,1427,1421,1421,1410,1404,1404,1398,1398,1392,1392,1392,1387,1381,1376,1376,1376,1370,1370,1370,1359,1359,1354,1354,1354,1349,1349,1343,1343,1338,1333,1333,1328,1328,1322,1317,1312,1312,1312,1307,1307,1302,1297,1292,1292,1292,1288,1288,1288,1283,1278,1278,1273,1273,1268,1268,1264,1259,1255,1255,1255,1250,1250,1245,1241,1236,1236,1232,1232,1227,1223,1223,1219,1214,1214,1214,1210,1210,1206,1206,1202,1202,1197,1197,1197,1193,1189,1185,1185,1181,1181,1177,1173,1173,1169,1169,1165,1165,1161,1157,1153,1153,1149,1149,1149,1145,1145,1141,1141,1138,1138,1134,1134,1130,1123,1123,1119,1119,1119,1115,1115,1112,1112,1108,1108,1105,1101,1097,1094,1094,1094,1094,1090,1090,1087,1087,1084,1084,1080,1080,1080,1077,1073,1067,1067,1067,1067,1063,1063,1060,1057,1054,1054,1054,1050,1047,1044,1041,1041,1038,1038,1038,1038,0,0,0,0,0,0,0,0,0,0,0,0,0,0,0,0,0,0,0,0,0,0,0,0,0,0,0,0,0,0,0,0
0,0,0,0,0,0,0,0,0,0,0,0,0,0,0,2156,2156,2170,2170,2170,2170,2170,2170,2170,2170,2170,2156,2156,2156,2170,2170,2156,2156,2156,2156,2156,2156,2156,2156,2170,2170,2170,2170,2170,2170,2170,2170,2170,2170,2170,2170,2170,2170,2170,2170,2170,2170,2170,2170,2170,2170,2170,2170,2170,0,0,0,0,0,0,0,0,0,0,0,0,0,0,935,933,930,925,923,920,920,920,918,915,915,915,915,918,918,918,918,920,920,920,923,923,923,920,920,920,918,918,918,918,915,915,918,918,918,915,915,918,918,918,918,918,918,920,920,920,920,913,913,913,915,915,920,923,923,923,923,923,923,923,923,923,920,920,915,915,918,918,915,915,915,915,923,920,920,920,920,920,918,918,918,918,918,918,918,918,918,920,920,923,925,925,920,918,918,918,918,918,918,918,915,915,918,918,913,913,915,918,918,920,913,913,913,913,913,915,915,915,925,928,925,925,930,930,930,930,930,930,930,930,930,928,928,930,928,928,928,928,923,923,925,923,923,923,925,925,925,928,928,928,930,930,930,930,930,930,930,925,925,925,925,923,923,923,925,925,925,925,925,925,925,925,925,925,925,925,925,925,925,925,925,925,928,930,930,930,930,928,925,925,925,925,923,923,923,923,923,923,925,923,923,923,923,923,920,920,918,918,918,918,918,915,915,920,920,918,918,920,920,920,920,920,920,920,920,918,918,918,918,915,915,918,920,920,920,920,923,923,923,923,923,920,920,918,918,918,918,918,918,918,923,923,925,925,925,925,928,928,928,928,928,875,875,875,871,869,867,864,862,860,858,856,856,854,854,854,856,856,858,860,860,860,862,862,862,864,864,867,869,869,869,869,869,871,0,0,0,0,0,0,0,1671,1671,1671,1663,1663,1655,1655,1639,1639,1639,1632,1632,1624,1624,1616,1609,1609,1609,1609,1601,1601,1594,1586,1586,1579,1579,1572,1564,1564,1564,1557,1557,1550,1543,1536,1529,1529,1523,1523,1523,1516,1516,1516,1509,1503,1503,1496,1496,1489,1489,1489,1483,1483,1470,1470,1470,1464,1458,1452,1445,1445,1445,1439,1439,1439,1439,1433,1427,1421,1421,1415,1410,1404,1398,1398,1398,1392,1392,1387,1381,1381,1376,1376,1370,1370,1370,1365,1365,1359,1354,1354,1349,1349,1343,1343,1338,1333,1333,1328,1328,1322,1322,1317,1312,1312,1312,1307,1307,1302,1297,1292,1292,1292,1288,1288,1288,1283,1278,1273,1273,1268,1264,1259,1255,1255,1255,1255,1250,1250,1245,1241,1236,1236,1236,1232,1227,1227,1223,1219,1214,1214,1214,1210,1210,1206,1206,1202,1202,1197,1197,1193,1193,1185,1185,1185,1181,1181,1177,1177,1173,1169,1169,1165,1165,1161,1161,1157,1153,1153,1149,1149,1145,1145,1141,1141,1138,1138,1134,1134,1130,1123,1123,1119,1119,1119,1115,1115,1112,1112,1108,1108,1105,1101,1101,1097,1094,1094,1094,1090,1090,1087,1087,1084,1084,1080,1080,1080,1077,1073,1070,1067,1067,1067,1063,1063,1063,1060,1057,1054,1054,1054,1050,1047,1044,1041,1038,1038,1038,1038,0,0,0,0,0,0,0,0,0,0,0,0,0,0,0,0,0,0,0,0,0,0,0,0,0,0,0,0,0,0,0,0
0,0,0,0,0,0,0,0,0,0,0,0,0,0,0,2156,2156,2156,2156,2170,2170,2170,2156,2156,2156,2156,2156,2156,2156,2156,2156,2156,2156,2156,2156,2156,2156,2156,2156,2156,2156,2156,2156,2156,2156,2156,2156,2170,2156,2156,2156,2156,2156,2170,2170,2156,2156,2170,2156,2156,2156,2156,2156,2170,0,0,0,0,0,0,0,0,0,0,0,0,0,0,935,933,928,918,915,915,918,918,915,913,913,913,913,913,910,908,908,910,913,913,913,913,918,918,915,915,913,913,913,913,913,913,913,915,915,915,915,915,915,915,915,910,910,915,915,915,915,913,913,913,913,913,913,908,908,920,920,920,920,918,918,918,915,915,913,910,910,910,910,910,910,913,915,915,915,920,918,918,918,915,915,915,915,915,915,915,915,915,915,918,915,915,915,915,915,915,915,913,913,915,913,913,913,913,910,910,913,913,913,913,913,913,910,910,910,913,913,913,910,910,923,923,925,925,925,925,925,925,925,923,923,920,920,920,920,918,918,918,920,920,923,923,920,920,920,920,920,920,920,920,920,923,923,923,923,923,923,923,923,923,920,920,918,918,920,923,923,923,923,923,923,923,923,923,920,920,923,920,920,920,920,920,920,920,925,925,925,925,923,923,923,923,920,920,923,920,920,923,923,920,920,920,920,918,918,918,915,915,915,915,915,915,915,918,915,915,918,918,918,918,918,915,915,918,915,913,913,913,913,913,913,913,915,918,918,918,918,918,918,915,915,918,918,915,913,913,915,915,915,918,918,920,923,923,923,923,925,925,925,925,925,875,875,875,871,869,867,864,862,860,860,858,856,856,856,856,856,856,858,860,860,860,862,862,862,864,867,867,869,869,869,869,869,871,0,0,0,0,0,0,0,1671,1671,1671,1663,1663,1655,1655,1639,1639,1639,1632,1632,1624,1624,1616,1609,1609,1609,1609,1601,1601,1594,1586,1579,1579,1579,1572,1572,1572,1564,1564,1557,1550,1543,1536,1529,1529,1523,1523,1523,1516,1516,1516,1509,1503,1503,1496,1496,1489,1489,1489,1489,1483,1477,1470,1470,1464,1464,1452,1452,1445,1445,1445,1439,1439,1439,1433,1427,1421,1421,1415,1410,1404,1404,1398,1398,1398,1392,1387,1387,1381,1376,1376,1370,1370,1370,1365,1365,1359,1354,1354,1354,1349,1349,1343,1338,1333,1333,1328,1328,1322,1322,1317,1312,1312,1312,1307,1307,1302,1297,1292,1292,1292,1288,1288,1288,1283,1278,1273,1273,1268,1264,1259,1255,1255,1255,1255,1250,1250,1245,1241,1236,1236,1236,1232,1232,1227,1223,1219,1219,1219,1219,1214,1210,1206,1206,1202,1202,1197,1197,1193,1193,1185,1185,1185,1181,1181,1181,1177,1173,1169,1169,1165,1165,1161,1161,1157,1153,1153,1149,1149,1145,1145,1141,1141,1138,1138,1134,1134,1130,1123,1123,1119,1119,1119,1115,1115,1112,1112,1108,1108,1105,1101,1101,1097,1097,1094,1094,1090,1090,1090,1087,1087,1084,1080,1080,1080,1080,1073,1070,1067,1067,1067,1063,1063,1063,1060,1057,1054,1054,1054,1050,1047,1044,1041,1041,1038,1038,1038,0,0,0,0,0,0,0,0,0,0,0,0,0,0,0,0,0,0,0,0,0,0,0,0,0,0,0,0,0,0,0,0
0,0,0,0,0,0,0,0,0,0,0,0,0,0,0,2143,2143,2143,2156,2156,2170,2156,2156,2156,2156,2156,2156,2156,2156,2156,2156,2156,2156,2156,2156,2156,2143,2143,2143,2143,2143,2143,2156,2156,2143,2143,2156,2156,2156,2156,2156,2156,2156,2156,2156,2156,2156,2156,2156,2156,2156,2156,2156,2170,0,0,0,0,0,0,0,0,0,0,0,0,0,0,0,933,928,913,910,908,908,908,908,908,908,908,910,910,910,906,906,906,906,906,906,906,910,913,913,910,908,908,908,908,908,908,908,908,913,913,910,910,910,910,910,908,908,908,908,908,910,910,908,908,910,906,906,908,908,908,908,910,910,915,913,913,913,913,913,910,910,908,908,910,910,910,913,913,913,915,915,915,915,913,913,913,910,910,913,913,913,913,913,913,913,913,913,913,913,913,913,910,910,913,910,910,910,910,910,910,910,910,910,910,910,910,910,908,908,910,910,910,910,910,910,908,908,915,920,920,920,920,920,918,918,915,915,915,915,915,915,915,915,915,915,915,915,915,915,915,915,915,915,915,915,915,915,915,915,915,915,918,918,915,915,915,915,913,913,915,918,918,918,920,920,920,918,915,915,918,918,915,915,915,918,918,918,918,920,915,915,918,920,920,920,918,918,918,918,918,920,920,918,918,918,918,918,915,915,915,915,915,913,913,915,913,913,915,915,915,915,915,915,913,913,913,913,913,910,908,908,908,908,908,908,908,913,915,915,913,913,915,913,910,910,910,910,910,910,910,913,913,913,913,913,913,913,918,920,920,923,920,920,920,918,878,878,875,871,869,869,867,862,862,860,858,858,856,856,856,856,858,858,860,860,862,862,862,864,864,867,869,869,869,869,869,871,871,0,0,0,0,0,0,0,1680,1680,1671,1671,1663,1663,1655,1647,1639,1639,1639,1632,1632,1624,1616,1616,1609,1609,1609,1601,1601,1594,1586,1579,1579,1579,1572,1572,1572,1564,1564,1557,1550,1543,1536,1536,1529,1523,1523,1523,1516,1516,1516,1516,1509,1503,1496,1496,1489,1489,1489,1489,1483,1477,1470,1470,1464,1464,1458,1452,1445,1445,1445,1439,1439,1439,1433,1427,1421,1421,1415,1410,1404,1404,1398,1398,1398,1392,1392,1387,1387,1376,1376,1370,1370,1370,1365,1365,1359,1354,1354,1354,1349,1349,1343,1338,1333,1333,1328,1328,1328,1322,1317,1312,1312,1312,1307,1307,1302,1297,1292,1292,1292,1288,1288,1288,1283,1278,1273,1273,1268,1264,1259,1255,1255,1255,1255,1250,1250,1245,1241,1241,1236,1236,1232,1232,1232,1223,1223,1219,1219,1219,1214,1210,1210,1206,1202,1202,1197,1197,1197,1193,1189,1185,1185,1181,1181,1181,1177,1177,1173,1169,1169,1165,1161,1161,1157,1153,1153,1149,1149,1149,1145,1141,1138,1138,1138,1134,1134,1126,1123,1123,1119,1119,1119,1115,1115,1115,1112,1108,1108,1105,1101,1101,1097,1097,1094,1094,1094,1090,1090,1087,1087,1084,1080,1080,1080,1077,1073,1070,1070,1067,1067,1063,1063,1063,1060,1060,1057,1054,1054,1050,1047,1044,1041,1041,1041,1038,1038,0,0,0,0,0,0,0,0,0,0,0,0,0,0,0,0,0,0,0,0,0,0,0,0,0,0,0,0,0,0,0,0
0,0,0,0,0,0,0,0,0,0,0,0,0,0,0,2129,2129,2129,2129,2143,2156,2143,2143,2143,2156,2143,2143,2143,2143,2156,2156,2156,2156,2156,2143,2143,2129,2129,2129,2129,2129,2129,2129,2129,2129,2129,2129,2143,2143,2143,2156,2156,2156,2156,2156,2143,2143,2156,2156,2156,2156,2156,2156,2156,2156,0,0,0,0,0,0,0,0,0,0,0,0,0,0,0,0,910,910,906,906,906,906,906,906,906,906,906,903,903,901,901,901,901,898,898,898,898,898,903,903,906,906,906,906,906,906,906,906,906,908,908,906,906,906,906,906,906,906,903,903,903,903,903,903,903,903,906,903,903,906,903,903,903,903,903,903,910,910,910,910,908,908,906,906,908,908,908,906,906,913,910,910,910,910,908,906,906,903,903,903,906,906,906,908,908,908,910,910,910,910,908,908,908,906,906,906,906,906,906,906,908,906,906,906,906,906,906,906,908,908,908,908,908,908,903,903,906,906,906,908,908,908,910,910,913,913,910,910,910,913,913,913,913,915,913,913,913,913,913,913,913,913,913,913,913,913,913,910,910,910,913,913,913,913,913,913,910,910,910,913,913,915,915,918,918,915,913,913,913,913,913,910,910,913,913,910,910,910,910,910,908,908,908,908,913,913,913,913,913,918,915,915,915,913,913,913,913,913,913,913,913,913,913,913,913,913,913,913,913,913,910,910,910,910,910,910,908,908,906,906,908,908,906,906,906,908,910,910,910,910,910,910,908,908,910,910,910,908,908,908,910,910,908,908,908,908,908,908,908,908,913,913,913,915,878,878,873,871,869,869,867,862,862,860,858,858,856,856,856,858,858,860,860,862,862,862,864,864,867,869,869,869,869,869,871,871,871,0,0,0,0,0,0,0,1680,1680,1680,1671,1671,1663,1663,1647,1647,1639,1639,1632,1632,1624,1624,1616,1609,1609,1609,1601,1601,1594,1586,1579,1579,1579,1572,1572,1572,1572,1564,1557,1550,1543,1543,1536,1529,1523,1523,1523,1516,1516,1516,1516,1509,1503,1496,1496,1489,1489,1489,1489,1483,1477,1470,1470,1464,1464,1464,1452,1452,1445,1445,1445,1439,1439,1433,1427,1421,1421,1415,1410,1410,1404,1404,1398,1398,1392,1392,1392,1387,1381,1376,1370,1370,1370,1365,1365,1359,1354,1354,1354,1349,1349,1343,1338,1338,1333,1333,1328,1328,1322,1317,1317,1312,1312,1307,1307,1302,1297,1292,1292,1292,1288,1288,1288,1283,1278,1273,1273,1268,1264,1264,1259,1255,1255,1255,1255,1250,1250,1241,1241,1236,1236,1232,1232,1232,1223,1223,1219,1219,1219,1214,1210,1210,1206,1202,1202,1197,1197,1197,1197,1189,1185,1185,1185,1181,1181,1181,1177,1173,1169,1169,1165,1161,1161,1157,1153,1153,1153,1149,1149,1145,1141,1138,1138,1138,1134,1134,1126,1123,1123,1119,1119,1119,1119,1115,1115,1112,1112,1108,1105,1105,1101,1097,1097,1094,1094,1094,1090,1090,1090,1087,1084,1080,1080,1080,1077,1073,1070,1070,1067,1067,1063,1063,1063,1060,1060,1060,1057,1054,1050,1047,1044,1044,1041,1041,1038,1038,0,0,0,0,0,0,0,0,0,0,0,0,0,0,0,0,0,0,0,0,0,0,0,0,0,0,0,0,0,0,0,0
0,0,0,0,0,0,0,0,0,0,0,0,0,0,2116,2116,2116,2129,2129,2143,2143,2143,2129,2129,2129,2129,2129,2129,2143,2143,2156,2143,2143,2143,2143,2129,2129,2129,2129,2129,2116,2116,2129,2129,2116,2116,2116,2129,2143,2143,2143,2143,2156,2156,2143,2129,2129,2129,2143,2143,2143,2143,2143,2143,2143,0,0,0,0,0,0,0,0,0,0,0,0,0,0,0,0,910,908,906,906,903,903,903,903,903,901,901,903,901,898,898,898,898,898,896,896,896,896,896,896,898,901,903,903,901,901,901,901,901,903,903,901,898,898,901,901,898,898,898,898,898,898,898,898,898,898,898,901,901,901,898,898,898,898,898,898,898,896,896,906,906,906,903,903,903,903,903,901,901,903,908,906,906,906,903,903,901,898,898,898,898,898,901,903,903,906,906,906,906,906,906,906,903,903,903,903,903,903,903,903,906,903,903,903,903,906,903,903,903,903,906,906,906,903,903,903,901,898,898,903,901,901,901,903,908,908,908,908,908,910,910,910,910,913,913,910,910,908,908,910,910,910,910,910,908,908,908,906,906,906,906,908,908,908,910,910,908,906,906,908,908,896,896,896,903,901,901,906,906,906,906,903,903,910,906,901,901,903,903,903,903,903,903,906,903,903,903,906,910,910,910,910,910,910,910,910,910,910,910,910,910,908,908,910,910,908,908,910,910,908,908,908,906,906,906,903,903,903,903,903,903,903,903,903,903,906,908,908,908,906,906,908,906,906,906,906,908,908,906,906,906,906,906,906,903,901,901,901,901,901,898,898,898,878,878,878,873,871,869,867,867,862,862,860,858,858,856,856,856,858,858,860,860,862,862,862,864,864,867,869,869,869,869,869,871,871,871,0,0,0,0,0,0,1696,1680,1680,1680,1671,1671,1671,1663,1647,1647,1647,1639,1632,1632,1624,1624,1616,1616,1609,1609,1609,1601,1594,1586,1586,1579,1579,1579,1572,1572,1572,1564,1557,1550,1543,1543,1536,1529,1529,1523,1523,1523,1523,1516,1516,1509,1503,1496,1496,1489,1489,1489,1489,1483,1477,1470,1470,1464,1464,1464,1458,1452,1445,1445,1445,1439,1439,1433,1427,1427,1421,1415,1410,1410,1404,1404,1398,1398,1398,1392,1392,1387,1381,1376,1376,1370,1370,1370,1365,1359,1354,1354,1354,1349,1349,1343,1338,1338,1333,1333,1328,1328,1328,1317,1317,1312,1312,1307,1307,1302,1302,1292,1292,1292,1288,1288,1288,1283,1278,1273,1273,1268,1268,1264,1259,1259,1255,1255,1255,1250,1250,1245,1241,1236,1236,1232,1232,1227,1223,1223,1219,1219,1219,1214,1210,1210,1206,1202,1202,1197,1197,1197,1197,1193,1189,1185,1185,1181,1181,1181,1177,1173,1173,1169,1165,1161,1161,1157,1153,1153,1153,1149,1149,1149,1145,1141,1138,1138,1134,1134,1130,1126,1123,1123,1119,1119,1119,1119,1115,1115,1112,1112,1105,1105,1105,1101,1097,1094,1094,1094,1090,1090,1090,1087,1087,1084,1080,1080,1077,1073,1070,1070,1067,1067,1063,1063,1063,1060,1060,1060,1057,1054,1050,1047,1047,1044,1044,1041,1041,1041,0,0,0,0,0,0,0,0,0,0,0,0,0,0,0,0,0,0,0,0,0,0,0,0,0,0,0,0,0,0,0,0
0,0,0,0,0,0,0,0,0,0,0,0,0,0,2116,2116,2116,2116,2116,2129,2129,2129,2116,2116,2116,2116,2116,2116,2116,2129,2129,2143,2143,2143,2143,2116,2116,2116,2116,2116,2116,2116,2116,2116,2116,2116,2116,2116,2116,2129,2129,2129,2143,2129,2116,2116,2116,2116,2116,2116,2129,2129,2129,2129,2116,2116,0,0,0,0,0,0,0,0,0,0,0,0,0,0,0,0,908,896,896,901,901,901,901,898,898,898,901,898,898,898,898,896,896,896,894,894,894,894,894,896,898,898,898,898,896,896,894,894,901,901,898,896,896,896,896,896,894,894,894,894,896,896,896,894,894,894,894,894,894,894,891,891,891,894,894,894,894,896,898,898,898,898,901,901,901,901,898,896,896,901,901,901,901,898,898,896,896,896,896,896,896,896,898,901,903,903,903,903,903,901,898,896,896,898,898,898,898,898,901,901,901,901,901,901,901,901,901,901,901,901,903,903,901,896,896,898,896,896,898,898,898,898,898,898,901,901,901,903,903,906,906,906,910,910,908,908,906,906,906,906,906,906,901,898,898,898,898,898,898,898,901,903,903,906,908,903,901,898,896,894,894,894,894,896,896,896,903,903,903,901,898,898,898,898,896,896,896,896,896,898,898,898,898,898,896,896,896,896,896,896,896,906,903,903,906,906,906,906,903,903,903,903,906,903,898,898,906,906,906,903,903,903,903,903,903,901,901,901,903,901,901,901,901,901,903,906,903,903,903,903,903,903,903,903,903,903,903,903,903,903,903,901,901,901,898,898,896,896,896,896,896,896,878,878,878,873,871,869,867,867,864,862,860,858,858,856,856,856,858,858,860,860,862,862,864,864,864,867,869,869,869,869,869,871,871,0,0,0,0,0,0,0,1696,1688,1688,1680,1671,1671,1671,1663,1663,1647,1647,1639,1632,1632,1624,1624,1616,1616,1609,1609,1609,1601,1594,1586,1586,1579,1579,1579,1572,1572,1572,1564,1557,1550,1543,1543,1536,1529,1529,1523,1523,1523,1523,1516,1516,1509,1503,1496,1496,1489,1489,1489,1489,1483,1477,1470,1470,1470,1464,1464,1458,1452,1452,1445,1445,1445,1439,1439,1433,1427,1421,1415,1415,1410,1404,1404,1404,1398,1398,1392,1392,1387,1381,1376,1376,1370,1370,1370,1365,1365,1359,1354,1354,1349,1349,1343,1338,1338,1333,1333,1333,1328,1328,1322,1317,1317,1312,1307,1307,1307,1302,1292,1292,1292,1288,1288,1288,1283,1278,1273,1273,1268,1268,1264,1264,1264,1259,1255,1255,1250,1250,1245,1241,1241,1236,1236,1232,1227,1227,1223,1219,1219,1219,1214,1214,1210,1206,1202,1202,1202,1197,1197,1193,1193,1189,1185,1185,1181,1181,1181,1177,1177,1173,1169,1165,1165,1161,1157,1153,1153,1153,1149,1149,1149,1145,1141,1138,1138,1134,1134,1130,1126,1123,1123,1119,1119,1119,1119,1119,1115,1112,1112,1108,1105,1105,1101,1097,1094,1094,1094,1090,1090,1090,1087,1087,1084,1080,1080,1077,1077,1070,1070,1067,1067,1067,1063,1063,1063,1060,1060,1057,1054,1054,1047,1047,1047,1044,1041,1041,1041,0,0,0,0,0,0,0,0,0,0,0,0,0,0,0,0,0,0,0,0,0,0,0,0,0,0,0,0,0,0,0,0
0,0,0,0,0,0,0,0,0,0,0,0,0,0,2103,2103,2116,2116,2116,2116,2129,2116,2116,2116,2103,2103,2116,2116,2116,2116,2116,2116,2116,2129,2129,2116,2116,2116,2116,2116,2116,2116,2116,2116,2116,2116,2116,2116,2116,2129,2129,2129,2116,2103,2103,2103,2103,2103,2103,2116,2116,2116,2116,2116,2103,2103,0,0,0,0,0,0,0,0,0,0,0,0,0,0,0,0,891,891,891,889,887,887,889,889,891,894,894,896,894,894,894,894,894,894,891,889,889,889,894,894,896,894,894,894,894,891,889,889,896,896,896,894,894,896,896,894,894,891,891,894,891,891,891,889,889,889,889,889,889,889,889,889,889,885,885,885,882,882,882,891,891,894,889,889,889,889,894,891,891,891,891,891,891,891,891,894,894,891,891,894,894,894,896,896,901,901,896,896,896,891,891,891,891,894,894,894,894,894,896,896,896,896,896,896,896,896,896,894,894,896,898,898,896,896,896,894,894,894,894,894,896,896,898,898,898,896,896,894,889,889,891,891,896,898,901,898,898,898,898,898,898,898,896,896,896,896,896,896,896,896,896,898,898,898,898,896,894,891,889,889,891,891,891,891,891,891,894,898,898,898,894,891,891,891,894,891,891,891,894,896,894,894,894,894,894,891,891,891,891,891,891,894,894,894,896,901,901,898,896,896,898,896,891,891,894,891,891,896,896,898,898,898,898,901,898,898,898,901,901,898,898,898,896,896,898,898,898,898,898,898,898,898,898,896,896,896,898,898,898,898,898,898,898,896,896,894,894,894,896,894,894,894,891,880,878,873,871,869,869,867,864,862,860,860,858,858,856,856,858,858,860,860,862,862,864,864,867,869,869,869,871,871,871,871,871,0,0,0,0,0,0,0,1705,1696,1688,1688,1680,1671,1671,1663,1663,1647,1647,1639,1639,1632,1632,1624,1624,1616,1609,1609,1601,1601,1601,1594,1586,1579,1579,1579,1572,1572,1572,1564,1564,1550,1543,1543,1536,1536,1529,1523,1523,1523,1523,1516,1516,1509,1503,1496,1496,1489,1489,1489,1489,1483,1477,1470,1470,1470,1464,1464,1458,1452,1452,1445,1445,1445,1439,1439,1433,1427,1421,1415,1415,1415,1410,1404,1404,1398,1398,1398,1392,1392,1387,1376,1376,1376,1370,1370,1365,1365,1359,1354,1354,1349,1349,1343,1343,1338,1333,1333,1333,1328,1328,1322,1317,1317,1312,1312,1307,1307,1302,1292,1292,1292,1292,1288,1288,1283,1278,1278,1273,1273,1268,1268,1268,1264,1259,1255,1255,1255,1250,1245,1245,1241,1236,1236,1236,1232,1227,1223,1219,1219,1219,1214,1214,1210,1206,1206,1202,1202,1197,1197,1193,1193,1189,1185,1185,1181,1181,1181,1177,1177,1173,1169,1165,1165,1161,1157,1157,1153,1153,1153,1149,1149,1145,1141,1138,1138,1138,1134,1130,1126,1126,1123,1123,1119,1119,1119,1119,1115,1112,1112,1108,1105,1105,1101,1101,1094,1094,1094,1090,1090,1090,1087,1087,1084,1080,1080,1077,1077,1073,1070,1067,1067,1067,1063,1063,1063,1060,1060,1057,1054,1054,1050,1047,1047,1047,1044,1041,1041,0,0,0,0,0,0,0,0,0,0,0,0,0,0,0,0,0,0,0,0,0,0,0,0,0,0,0,0,0,0,0,0
0,0,0,0,0,0,0,0,0,0,0,0,0,0,2090,2090,2103,2103,2103,2103,2116,2103,2103,2103,2090,2090,2103,2103,2103,2103,2103,2116,2116,2103,2103,2103,2103,2103,2103,2116,2116,2103,2103,2103,2103,2103,2103,2103,2103,2116,2103,2103,2103,2103,2103,2103,2103,2103,2103,2103,2116,2116,2116,2078,2065,2065,2065,2078,0,0,0,0,0,0,0,0,0,0,0,0,0,0,887,887,887,887,887,885,885,885,885,885,889,891,891,891,891,891,889,889,889,889,887,887,889,891,889,885,885,885,885,885,887,887,887,889,891,889,889,891,891,891,889,885,885,891,889,887,887,887,887,885,885,885,885,885,885,885,885,885,882,882,880,878,878,878,882,882,885,885,885,885,887,887,885,885,887,887,887,889,889,889,889,889,889,891,891,891,891,891,894,891,889,889,889,887,887,887,887,887,887,887,887,889,887,887,887,887,891,889,887,887,889,889,889,891,891,891,891,889,889,889,889,889,889,889,891,894,896,896,896,894,894,889,887,887,887,887,887,887,887,887,889,894,894,896,896,896,894,894,894,894,894,894,894,894,894,894,894,894,891,889,889,889,889,887,887,887,889,887,887,889,889,889,889,889,891,889,889,889,891,889,889,889,889,891,891,889,887,887,889,889,887,887,887,887,887,889,889,891,891,894,891,891,894,894,894,891,889,889,891,889,889,891,891,894,896,896,896,896,896,894,894,896,896,896,894,894,894,894,894,894,894,896,894,894,894,894,894,891,889,889,894,894,896,894,894,896,896,894,889,889,889,894,894,891,891,889,889,887,878,873,871,869,867,864,862,862,860,860,858,858,858,858,858,860,860,862,862,864,864,867,867,869,869,869,871,871,871,871,871,0,0,0,0,0,0,0,1696,1696,1688,1688,1680,1680,1671,1671,1663,1655,1647,1639,1639,1632,1632,1624,1624,1616,1609,1609,1601,1601,1601,1594,1586,1579,1579,1579,1572,1572,1572,1564,1557,1550,1550,1543,1536,1536,1529,1523,1523,1523,1523,1523,1516,1516,1503,1496,1496,1496,1489,1489,1489,1483,1477,1470,1470,1470,1464,1464,1458,1458,1452,1452,1445,1445,1439,1439,1433,1427,1421,1421,1415,1415,1410,1410,1404,1404,1398,1398,1398,1392,1387,1381,1376,1376,1370,1370,1365,1365,1359,1354,1354,1349,1349,1349,1343,1338,1333,1333,1333,1328,1328,1322,1322,1317,1312,1312,1307,1307,1302,1302,1292,1292,1292,1288,1288,1283,1283,1278,1273,1268,1268,1268,1268,1264,1259,1255,1255,1255,1250,1245,1245,1241,1236,1236,1232,1232,1227,1227,1223,1219,1219,1214,1214,1214,1210,1210,1206,1202,1202,1197,1197,1193,1189,1185,1185,1181,1181,1181,1177,1177,1177,1169,1165,1165,1161,1157,1157,1153,1153,1153,1153,1149,1145,1141,1141,1138,1138,1134,1134,1130,1126,1123,1123,1119,1119,1119,1119,1115,1112,1112,1108,1105,1105,1105,1101,1094,1094,1094,1090,1090,1090,1090,1087,1084,1080,1080,1077,1077,1073,1073,1070,1067,1067,1063,1063,1063,1060,1060,1057,1054,1054,1050,1050,1047,1047,1044,1041,1041,0,0,0,0,0,0,0,0,0,0,0,0,0,0,0,0,0,0,0,0,0,0,0,0,0,0,0,0,0,0,0,0
0,0,0,0,0,0,0,0,0,0,0,0,0,0,2078,2078,2090,2090,2090,2090,2103,2090,2090,2078,2065,2065,2090,2103,2090,2090,2090,2090,2078,2065,2065,2090,2090,2090,2090,2090,2090,2090,2103,2103,2103,2103,2103,2103,2103,2090,2078,2078,2090,2090,2090,2103,2103,2103,2103,2103,2103,2103,2103,2078,2065,2065,2065,2065,0,0,0,0,0,0,0,0,0,0,0,0,0,887,887,887,887,885,885,882,882,880,880,875,875,875,882,882,887,887,887,887,887,887,885,885,887,885,885,880,880,880,882,882,882,882,882,882,885,885,880,880,887,885,885,880,880,887,885,885,885,882,882,882,882,880,880,882,882,882,882,880,880,878,878,875,873,873,873,873,875,875,875,882,882,882,880,880,878,878,880,885,885,885,885,885,885,889,887,885,885,885,887,885,885,885,885,882,882,880,880,880,880,880,880,882,882,885,885,885,885,885,882,880,880,887,880,880,887,887,887,887,885,885,887,885,885,882,882,887,889,885,885,887,889,887,885,885,885,885,885,885,885,882,882,885,889,891,891,889,889,889,891,889,889,889,891,889,889,891,889,889,889,887,887,887,887,887,887,887,887,887,887,887,887,887,887,887,887,887,887,887,887,889,887,887,887,889,887,887,885,885,885,887,887,887,887,885,885,887,887,887,889,889,889,889,887,887,887,887,887,887,887,887,887,887,889,891,889,889,891,891,889,889,889,889,891,891,889,889,887,887,887,887,887,889,889,887,887,889,889,887,885,885,885,887,889,889,889,889,889,889,887,885,885,887,889,887,887,887,887,882,878,873,871,869,867,864,862,862,860,860,860,858,858,858,858,860,860,862,862,864,867,867,869,869,869,871,871,871,871,871,871,0,0,0,0,0,0,1705,1696,1696,1688,1688,1688,1680,1671,1671,1663,1655,1647,1639,1639,1639,1632,1632,1624,1616,1616,1609,1601,1601,1601,1594,1586,1586,1579,1579,1572,1572,1572,1572,1557,1557,1550,1543,1543,1543,1536,1529,1523,1523,1523,1523,1516,1516,1503,1496,1496,1496,1489,1489,1489,1483,1477,1477,1470,1470,1464,1464,1458,1458,1452,1452,1445,1445,1445,1439,1439,1427,1427,1415,1415,1415,1410,1410,1404,1404,1398,1398,1398,1392,1387,1381,1376,1376,1370,1370,1365,1365,1359,1354,1354,1349,1349,1349,1343,1338,1338,1333,1333,1333,1328,1328,1322,1317,1312,1312,1312,1307,1307,1302,1292,1292,1292,1288,1288,1283,1283,1278,1273,1268,1268,1268,1268,1264,1264,1259,1255,1255,1250,1250,1245,1241,1236,1236,1232,1232,1227,1227,1223,1219,1219,1214,1214,1214,1210,1210,1206,1202,1202,1202,1197,1193,1193,1189,1185,1185,1181,1181,1177,1177,1173,1169,1169,1165,1165,1161,1161,1157,1153,1153,1153,1149,1149,1145,1141,1138,1134,1134,1134,1130,1126,1123,1123,1123,1119,1119,1119,1115,1112,1112,1108,1105,1105,1101,1097,1094,1094,1094,1094,1094,1090,1090,1087,1084,1080,1080,1077,1077,1077,1073,1070,1067,1067,1067,1063,1063,1060,1060,1057,1054,1054,1050,1050,1047,1047,1044,1044,1044,0,0,0,0,0,0,0,0,0,0,0,0,0,0,0,0,0,0,0,0,0,0,0,0,0,0,0,0,0,0,0,0
0,0,0,0,0,0,0,0,0,0,0,0,0,0,2078,2078,2090,2090,2078,2078,2090,2078,2078,2065,2065,2065,2065,2078,2078,2078,2078,2078,2065,2065,2065,2078,2090,2090,2090,2090,2090,2090,2090,2090,2090,2090,2090,2078,2065,2065,2065,2065,2078,2078,2078,2090,2090,2103,2103,2103,2090,2090,2090,2065,2065,2065,2065,2065,2065,0,0,0,0,0,0,0,0,0,0,0,0,887,885,885,885,885,885,882,880,878,878,873,873,871,871,871,871,873,875,885,885,885,882,880,878,878,878,878,878,878,878,878,880,878,878,882,882,875,875,875,875,875,875,875,875,878,878,878,878,878,878,878,878,878,878,878,880,880,880,878,878,875,875,873,871,871,871,871,871,871,869,869,869,873,873,873,873,875,875,875,878,878,878,880,880,882,880,880,880,880,882,880,880,880,882,882,880,880,880,878,878,878,878,878,878,878,878,875,875,878,878,878,878,878,878,878,878,878,885,882,880,880,880,880,878,878,880,880,882,880,880,882,885,882,880,880,882,882,882,882,880,880,878,878,878,878,878,882,885,885,885,885,887,887,889,887,887,887,887,887,885,885,885,885,885,885,885,885,885,885,885,885,885,885,885,885,885,885,885,885,885,885,885,885,885,885,885,885,882,882,882,882,882,882,882,880,880,880,880,880,880,882,882,885,885,885,882,882,880,880,880,880,882,882,882,882,885,880,880,882,882,880,880,882,882,882,882,882,882,880,880,880,880,882,882,882,882,882,882,882,882,882,880,880,880,880,882,880,880,880,882,882,880,880,885,885,887,885,885,880,875,873,869,869,867,864,862,862,860,860,860,858,858,860,860,860,862,862,864,867,867,869,869,869,871,871,871,871,871,871,0,0,0,0,0,0,0,1705,1696,1696,1696,1688,1688,1680,1671,1671,1663,1663,1647,1647,1639,1639,1632,1632,1624,1616,1609,1609,1609,1601,1601,1601,1594,1586,1579,1579,1579,1572,1572,1572,1557,1557,1550,1543,1543,1543,1543,1536,1529,1529,1523,1523,1516,1509,1503,1496,1496,1496,1489,1489,1489,1483,1477,1477,1470,1470,1464,1464,1458,1458,1452,1452,1445,1445,1445,1439,1439,1427,1427,1415,1415,1415,1410,1410,1404,1404,1398,1398,1398,1392,1387,1381,1376,1376,1370,1370,1370,1365,1365,1354,1354,1354,1349,1349,1343,1338,1338,1333,1333,1328,1328,1328,1322,1322,1317,1312,1312,1307,1307,1302,1297,1292,1292,1288,1288,1288,1283,1278,1273,1273,1268,1268,1268,1268,1264,1259,1259,1255,1255,1250,1250,1245,1241,1236,1232,1232,1227,1227,1223,1219,1219,1214,1214,1214,1214,1210,1206,1202,1202,1202,1197,1197,1193,1189,1185,1185,1181,1181,1181,1177,1173,1169,1169,1165,1165,1161,1161,1157,1153,1153,1153,1149,1149,1145,1141,1138,1134,1134,1134,1134,1130,1126,1123,1123,1119,1119,1119,1115,1112,1112,1112,1108,1105,1101,1097,1094,1094,1094,1094,1094,1090,1090,1087,1087,1080,1080,1080,1077,1077,1073,1073,1070,1067,1067,1063,1063,1063,1060,1057,1057,1054,1054,1050,1047,1047,1044,1044,1044,0,0,0,0,0,0,0,0,0,0,0,0,0,0,0,0,0,0,0,0,0,0,0,0,0,0,0,0,0,0,0,0
0,0,0,0,0,0,0,0,0,0,0,0,0,0,2065,2065,2078,2078,2078,2078,2053,2053,2065,2065,2065,2065,2065,2065,2065,2065,2065,2065,2065,2065,2065,2065,2065,2065,2065,2065,2065,2065,2078,2078,2065,2065,2065,2065,2065,2065,2065,2065,2065,2078,2078,2078,2078,2090,2090,2090,2078,2078,2078,2065,2065,2065,2065,2065,2065,0,0,0,0,0,0,0,0,0,0,0,0,0,885,885,885,882,882,880,880,875,875,871,871,869,867,867,869,869,869,869,869,869,873,875,875,875,875,875,875,875,875,875,875,871,869,869,869,871,871,869,869,873,873,871,871,871,871,871,873,869,869,869,875,875,875,878,878,878,878,875,875,873,873,871,869,869,869,869,869,869,869,869,869,869,869,871,871,871,871,869,869,869,875,869,869,869,869,878,878,878,878,878,878,878,880,880,878,878,878,875,875,878,875,875,875,875,873,871,871,871,873,873,875,875,875,875,873,873,875,878,875,875,875,875,875,875,875,875,875,873,873,878,878,878,878,878,878,878,875,873,873,875,875,875,875,875,875,875,878,878,878,880,882,882,885,882,882,885,885,885,882,882,882,882,882,882,880,880,882,882,880,880,880,880,880,882,882,882,882,882,882,882,882,882,882,880,880,882,880,880,878,878,878,878,878,875,875,873,873,871,871,875,875,878,880,880,880,878,878,878,878,878,878,878,878,880,880,878,878,878,878,875,875,875,875,875,878,878,875,875,878,878,878,878,878,878,878,878,878,880,878,878,878,878,878,878,878,878,875,875,878,878,875,875,878,878,880,882,880,873,873,871,869,867,864,864,862,862,860,860,860,860,860,860,860,862,862,862,864,867,867,869,869,869,871,871,871,871,871,871,0,0,0,0,0,0,0,1696,1696,1696,1688,1688,1688,1680,1671,1671,1663,1663,1647,1647,1639,1639,1632,1632,1632,1624,1609,1609,1609,1609,1601,1601,1594,1586,1579,1579,1579,1572,1572,1564,1564,1557,1550,1550,1550,1543,1543,1536,1529,1529,1523,1523,1523,1509,1503,1496,1496,1496,1489,1489,1489,1483,1477,1477,1470,1470,1470,1464,1458,1458,1452,1452,1445,1445,1445,1439,1439,1433,1427,1421,1415,1415,1410,1410,1410,1404,1404,1398,1398,1392,1392,1381,1376,1376,1376,1370,1370,1365,1365,1359,1354,1354,1354,1349,1343,1338,1338,1333,1333,1328,1328,1328,1322,1322,1317,1317,1312,1307,1307,1302,1297,1292,1292,1288,1288,1288,1283,1278,1273,1273,1268,1268,1268,1268,1264,1264,1259,1255,1255,1250,1250,1245,1241,1236,1232,1232,1227,1227,1223,1219,1219,1219,1214,1214,1214,1210,1206,1202,1202,1202,1197,1197,1193,1189,1185,1185,1181,1181,1181,1177,1173,1169,1169,1165,1165,1161,1161,1157,1153,1153,1153,1149,1149,1149,1145,1141,1134,1134,1134,1134,1130,1126,1123,1123,1123,1119,1119,1115,1115,1112,1112,1108,1105,1105,1101,1097,1094,1094,1094,1094,1090,1090,1087,1087,1080,1080,1080,1077,1077,1073,1073,1070,1067,1067,1063,1063,1063,1060,1057,1057,1054,1050,1050,1047,1047,1044,1044,1044,0,0,0,0,0,0,0,0,0,0,0,0,0,0,0,0,0,0,0,0,0,0,0,0,0,0,0,0,0,0,0,0
