0,0,0,0,0,0,0,0,0,0,0,0,0,0,0,0,2040,2040,2028,2028,2028,2028,2028,2028,2016,2016,2016,2005,2005,2005,2005,2016,2005,2005,2005,2005,1981,1981,1970,1970,1970,1970,1970,1970,1970,1970,1970,1970,1970,1970,1970,1970,1970,1970,1959,1959,1959,1959,1959,1947,1947,1936,1936,1936,1936,1936,1926,1926,1926,1926,1926,1926,1915,1915,1915,1915,1915,1915,1915,1904,1904,1894,1894,1894,1894,1894,1894,1894,1883,1883,1883,1883,1873,1873,1873,1873,1873,1873,1873,1873,1873,1873,1873,1873,1873,1853,1853,1853,1843,1843,1843,1843,1843,1833,1833,1833,1833,1833,1833,1833,1833,1833,1833,1823,1823,1804,1804,1804,1804,1804,1804,1804,1804,1794,1794,1794,1794,1794,1794,1785,1785,1785,1776,1776,1776,1766,1766,1766,1766,1766,1766,1766,1766,1766,1757,1757,1757,1757,1757,1757,1748,1748,1748,1739,1731,1731,1731,1731,1731,1731,1731,1731,1731,1731,1731,1731,1731,1731,1731,1731,1731,1731,1731,1731,1731,1722,1722,1883,1873,1873,1873,1863,1863,1863,1873,1873,1873,1873,1873,1873,1873,1873,1713,1713,1713,1713,1705,1705,1705,1705,1705,1705,1705,1705,1705,1713,1713,1713,1713,1713,1713,1713,1713,1077,1077,1077,1084,1090,1087,1080,1080,1077,1077,1077,1073,1073,1073,1073,1073,1073,1073,1073,1073,1077,1080,1084,1084,1084,1084,1087,1087,1084,1084,0,0,0,0,1794,1794,1794,1804,1804,1813,1813,1813,1813,1823,1823,1823,1833,1833,1833,1833,1833,1833,1833,1843,1843,1843,1843,1853,1853,1853,1853,1843,1843,1853,1853,1853,1853,1863,1863,1873,1873,1873,1863,1863,1873,1873,1863,1853,1853,0,0,0,0,0,0,0,0,0,0,0,0,843,841,839,839,837,835,835,833,829,829,827,827,827,825,825,825,827,827,827,827,829,829,831,833,835,835,835,837,837,837,837,839,839,841,0,0,0,0,0,0,0,1609,1601,1594,1586,1586,1579,1572,1572,1572,1564,1564,1557,1550,1550,1543,1543,1543,1543,1536,1529,1523,1523,1523,1516,1509,1509,1503,1503,1496,1489,1489,1483,1483,1477,1470,1470,1464,1464,1464,1458,1452,1445,1445,1445,1439,1439,1439,1433,1427,1427,1427,1421,1421,1410,1404,1404,1398,1398,1398,1392,1392,1387,1381,1376,1376,1376,1376,1370,1370,1365,1365,1359,1354,1354,1354,1349,1349,1343,1338,1333,1333,1328,1328,1328,1322,1322,1317,1312,1312,1307,1307,1302,1302,1292,1292,1292,1288,1288,1288,1283,1278,1273,1273,1273,1268,1264,1264,1259,1255,1250,1250,1250,1250,1245,1241,1241,1241,1236,1232,1232,1227,1227,1223,1223,1219,1219,1214,1214,1214,1210,1206,1202,1202,1197,1197,1197,1193,1189,1185,1185,1185,1181,1181,1181,1181,1177,1177,1169,1169,1169,1165,1165,1157,1153,1153,1149,1149,1145,1145,1141,1141,1138,1138,1138,1134,1134,1130,1126,1126,1123,1123,1119,1119,1115,1112,1108,1108,1105,1101,1101,1101,1097,1097,1094,1094,1094,1090,1090,1084,1080,1080,1077,1077,1077,1077,1073,1070,1067,1067,1063,1063,1063,1060,1057,1054,1054,1054,1050,1050,1047,1047,1044,1044,1041,1041,1038,1038,1034,1031,1028,1028,1025,1025,1022,1022,1019,1016,1016,1016,1016,1013,1013,1010,1007,1007,1004,1001,1001,1001,1001,998,998,995,995,992,992,987,987,984,981,981,981,978,978,0,0,0,0,0,0,0,0,0,0,0,0,0,0,0,0,0,0,0,0,0,0,0,0,0,0,0,0,0,0,0
0,0,0,0,0,0,0,0,0,0,0,0,0,0,0,0,2040,2040,2028,2028,2028,2028,2028,2028,2028,2016,2016,2016,2016,2005,2005,2016,2005,2005,2005,1993,1981,1981,1970,1970,1970,1970,1970,1970,1970,1970,1970,1970,1970,1970,1970,1970,1970,1970,1959,1959,1959,1959,1959,1947,1947,1947,1947,1947,1936,1936,1936,1936,1936,1936,1936,1926,1926,1915,1915,1915,1915,1915,1915,1904,1904,1894,1894,1894,1894,1894,1894,1894,1883,1883,1883,1883,1883,1883,1873,1873,1873,1873,1873,1873,1873,1873,1873,1873,1863,1863,1863,1863,1853,1853,1843,1843,1843,1843,1833,1833,1833,1833,1833,1833,1833,1833,1833,1823,1823,1813,1813,1804,1804,1804,1804,1804,1804,1804,1794,1794,1794,1794,1794,1794,1794,1785,1785,1785,1776,1776,1776,1776,1776,1776,1766,1766,1766,1766,1757,1757,1757,1757,1757,1757,1748,1748,1748,1739,1739,1731,1731,1731,1731,1731,1731,1731,1731,1731,1731,1731,1731,1731,1731,1731,1731,1731,1739,1731,1731,1731,1883,1873,1873,1873,1873,1863,1863,1863,1863,1863,1873,1873,1873,1873,1873,1873,1873,1722,1713,1713,1705,1705,1705,1705,1705,1705,1705,1705,1705,1713,1713,1713,1060,1060,1063,1063,1067,1067,1067,1077,1080,1084,1084,1080,1080,1077,1077,1077,1073,1073,1073,1073,1073,1073,1073,1073,1077,1077,1080,1084,1084,1084,1087,1087,1087,1084,1084,0,0,0,0,1794,1794,1794,1804,1804,1813,1813,1813,1823,1823,1833,1833,1833,1833,1833,1833,1833,1833,1833,1833,1833,1843,1843,1853,1853,1853,1853,1853,1853,1853,1863,1863,1863,1863,1863,1873,1873,1873,1863,1863,1873,1863,1863,1863,0,0,0,0,0,0,0,0,0,0,0,0,0,841,841,839,839,837,835,835,833,829,829,827,827,827,825,825,825,827,827,827,829,829,829,833,833,835,835,835,837,837,837,839,839,841,843,0,0,0,0,0,0,0,1609,1601,1601,1594,1586,1579,1579,1572,1572,1564,1564,1557,1550,1550,1550,1543,1543,1536,1536,1529,1523,1523,1523,1516,1509,1509,1509,1503,1496,1489,1489,1483,1483,1477,1470,1470,1464,1464,1464,1464,1452,1452,1452,1445,1445,1439,1439,1433,1433,1427,1427,1421,1421,1410,1404,1404,1398,1398,1398,1398,1392,1392,1381,1381,1376,1376,1376,1370,1370,1365,1365,1359,1359,1354,1354,1354,1349,1349,1343,1338,1333,1333,1328,1328,1328,1322,1317,1312,1312,1307,1307,1307,1302,1292,1292,1292,1288,1288,1288,1283,1278,1278,1273,1268,1268,1264,1264,1259,1255,1250,1250,1250,1250,1245,1241,1241,1241,1241,1232,1232,1227,1227,1223,1223,1219,1219,1214,1214,1214,1210,1206,1206,1202,1202,1197,1197,1193,1189,1189,1185,1185,1181,1181,1181,1181,1177,1177,1173,1169,1169,1169,1165,1161,1157,1153,1153,1153,1145,1145,1145,1141,1138,1138,1138,1134,1134,1130,1126,1126,1123,1123,1119,1119,1115,1112,1108,1108,1105,1105,1105,1101,1101,1097,1097,1094,1094,1090,1090,1084,1080,1080,1077,1077,1077,1077,1073,1070,1067,1067,1063,1063,1063,1060,1057,1054,1054,1054,1050,1050,1047,1047,1044,1044,1041,1041,1041,1038,1034,1031,1028,1028,1025,1025,1022,1022,1019,1019,1016,1016,1016,1013,1013,1010,1007,1007,1004,1001,1001,1001,1001,998,998,998,995,995,989,987,987,984,984,981,981,978,978,0,0,0,0,0,0,0,0,0,0,0,0,0,0,0,0,0,0,0,0,0,0,0,0,0,0,0,0,0,0,0
0,0,0,0,0,0,0,0,0,0,0,0,0,0,0,0,2053,2053,2028,2028,2028,2028,2040,2028,2028,2028,2016,2016,2016,2016,2016,2016,2005,2005,2005,1993,1981,1981,1970,1970,1970,1970,1981,1970,1970,1981,1981,1981,1981,1970,1970,1970,1970,1970,1959,1959,1959,1959,1959,1947,1947,1947,1947,1947,1947,1947,1936,1936,1947,1947,1936,1926,1926,1926,1926,1926,1915,1915,1915,1904,1904,1904,1904,1904,1904,1894,1894,1894,1883,1883,1883,1883,1883,1883,1873,1873,1873,1873,1873,1873,1873,1873,1873,1873,1863,1863,1863,1863,1863,1853,1853,1843,1843,1843,1843,1833,1833,1833,1833,1833,1833,1833,1833,1833,1823,1823,1813,1813,1813,1804,1804,1804,1804,1804,1794,1794,1794,1794,1794,1794,1794,1794,1794,1785,1785,1776,1776,1776,1776,1766,1766,1766,1766,1766,1757,1757,1757,1757,1757,1757,1757,1757,1748,1748,1748,1739,1731,1731,1731,1731,1731,1731,1731,1731,1731,1731,1731,1731,1731,1731,1731,1731,1739,1739,1731,1731,1731,1873,1873,1873,1873,1863,1863,1863,1863,1863,1873,1873,1873,1873,1873,1873,1873,1713,1713,1705,1705,1705,1705,1705,1705,1705,1705,1705,1705,1713,1057,1057,1060,1060,1063,1063,1067,1067,1067,1073,1077,1084,1077,1077,1077,1077,1077,1077,1077,1073,1073,1073,1073,1073,1073,1073,1077,1077,1080,1080,1084,1084,1087,1087,1087,1087,1087,0,0,0,0,1794,1794,1804,1804,1804,1813,1813,1823,1823,1823,1833,1833,1833,1833,1833,1833,1833,1833,1833,1833,1833,1843,1843,1853,1853,1853,1863,1863,1863,1863,1863,1863,1863,1863,1863,1873,1873,1873,1873,1873,1873,1863,1863,1863,1863,0,0,0,0,0,0,0,0,0,0,0,843,841,839,839,839,837,835,835,833,829,829,827,827,827,827,827,827,827,827,829,829,829,831,833,833,835,835,837,837,837,837,839,839,843,843,0,0,0,0,0,0,0,1609,1601,1601,1594,1586,1579,1579,1572,1572,1572,1564,1557,1557,1550,1550,1543,1543,1536,1536,1529,1523,1523,1523,1516,1516,1509,1509,1503,1496,1496,1489,1483,1483,1477,1470,1470,1470,1464,1464,1464,1452,1452,1452,1445,1445,1439,1439,1439,1433,1427,1427,1421,1415,1410,1404,1404,1404,1398,1398,1398,1392,1392,1387,1381,1381,1376,1376,1376,1370,1370,1365,1365,1359,1354,1354,1354,1349,1349,1343,1338,1333,1333,1333,1328,1328,1322,1317,1312,1312,1307,1307,1307,1302,1292,1292,1292,1288,1288,1288,1283,1283,1278,1273,1268,1268,1268,1264,1259,1255,1250,1250,1250,1250,1245,1241,1241,1241,1236,1236,1232,1232,1227,1227,1223,1223,1219,1219,1214,1214,1214,1210,1206,1202,1202,1197,1197,1193,1193,1189,1185,1185,1181,1181,1181,1181,1177,1177,1173,1169,1169,1165,1165,1161,1157,1153,1153,1153,1149,1149,1145,1141,1141,1138,1138,1134,1134,1130,1126,1126,1123,1123,1119,1119,1115,1112,1108,1108,1108,1105,1105,1105,1101,1097,1097,1094,1094,1094,1090,1084,1084,1080,1077,1077,1077,1077,1073,1070,1067,1067,1067,1063,1063,1060,1057,1054,1054,1054,1054,1050,1050,1047,1047,1044,1041,1041,1041,1038,1038,1034,1031,1028,1028,1028,1025,1022,1022,1019,1016,1016,1016,1013,1013,1010,1010,1007,1004,1004,1001,1001,1001,998,998,998,995,995,989,989,987,984,984,981,981,981,981,0,0,0,0,0,0,0,0,0,0,0,0,0,0,0,0,0,0,0,0,0,0,0,0,0,0,0,0,0,0,0
0,0,0,0,0,0,0,0,0,0,0,0,0,0,0,0,2065,2053,2040,2028,2028,2028,2040,2028,2028,2028,2028,2028,2028,2016,2016,2016,2016,2005,2005,1993,1981,1981,1981,1981,1981,1981,1981,1970,1970,1981,1981,1981,1981,1970,1970,1970,1970,1970,1959,1959,1959,1959,1959,1959,1947,1947,1947,1947,1947,1947,1947,1947,1947,1947,1947,1936,1926,1926,1926,1926,1926,1915,1915,1904,1904,1904,1904,1904,1904,1894,1894,1894,1894,1894,1883,1883,1883,1883,1883,1873,1873,1873,1873,1873,1873,1873,1873,1873,1873,1873,1863,1863,1863,1853,1853,1853,1843,1843,1843,1843,1843,1843,1843,1843,1843,1833,1833,1833,1823,1823,1823,1813,1813,1813,1804,1804,1804,1804,1804,1794,1794,1804,1794,1794,1794,1794,1794,1794,1785,1785,1776,1776,1776,1766,1766,1766,1766,1766,1766,1757,1757,1757,1757,1757,1757,1757,1748,1748,1748,1739,1739,1739,1731,1731,1731,1731,1731,1731,1731,1731,1731,1731,1731,1731,1731,1731,1739,1731,1731,1731,1731,1883,1873,1873,1873,1873,1873,1873,1873,1873,1873,1873,1873,1873,1873,1873,1873,1713,1713,1705,1705,1705,1696,1696,1705,1705,1705,1705,1057,1057,1057,1057,1060,1063,1063,1063,1063,1063,1067,1070,1073,1073,1077,1073,1073,1077,1077,1077,1073,1073,1073,1073,1073,1073,1073,1073,1077,1077,1077,1080,1084,1084,1087,1087,1087,1087,1087,0,0,0,0,1794,1794,1804,1804,1804,1813,1813,1823,1823,1823,1833,1833,1833,1833,1833,1833,1833,1833,1833,1833,1843,1843,1843,1853,1853,1853,1863,1863,1863,1863,1863,1863,1863,1863,1863,1873,1873,1873,1873,1873,1873,1873,1863,1863,1863,0,0,0,0,0,0,0,0,0,0,845,843,841,839,839,839,837,835,835,833,829,829,827,827,827,827,827,827,827,829,829,829,829,831,833,835,835,837,837,837,837,839,841,841,843,843,0,0,0,0,0,0,0,1609,1601,1601,1594,1586,1586,1579,1572,1572,1572,1564,1564,1557,1550,1550,1543,1543,1536,1536,1529,1529,1523,1523,1523,1516,1509,1509,1509,1503,1496,1489,1483,1483,1477,1477,1470,1470,1464,1464,1464,1452,1452,1452,1452,1445,1445,1439,1439,1433,1433,1427,1421,1415,1410,1410,1404,1404,1398,1398,1398,1392,1392,1387,1387,1381,1376,1376,1376,1370,1370,1365,1365,1359,1354,1354,1354,1349,1349,1343,1338,1333,1333,1333,1328,1328,1322,1317,1317,1312,1307,1307,1307,1302,1292,1292,1292,1288,1288,1288,1283,1283,1278,1278,1273,1268,1268,1264,1259,1259,1255,1250,1250,1250,1245,1241,1241,1241,1236,1236,1232,1232,1232,1227,1227,1223,1219,1219,1214,1214,1214,1210,1206,1202,1202,1197,1197,1193,1193,1189,1189,1185,1181,1181,1181,1181,1177,1177,1173,1169,1169,1165,1165,1161,1157,1157,1153,1153,1153,1149,1145,1145,1141,1138,1138,1134,1134,1130,1126,1123,1123,1123,1119,1119,1115,1112,1108,1108,1108,1105,1105,1105,1101,1101,1097,1097,1094,1094,1090,1087,1084,1080,1080,1077,1077,1077,1073,1073,1070,1067,1067,1067,1063,1060,1057,1057,1054,1054,1054,1050,1050,1050,1047,1047,1044,1041,1041,1038,1038,1034,1031,1031,1028,1028,1025,1025,1022,1022,1019,1019,1016,1016,1016,1010,1010,1010,1007,1004,1004,1001,1001,1001,1001,998,995,995,989,989,989,987,987,984,981,981,981,0,0,0,0,0,0,0,0,0,0,0,0,0,0,0,0,0,0,0,0,0,0,0,0,0,0,0,0,0,0,0
0,0,0,0,0,0,0,0,0,0,0,0,0,0,0,0,2065,2065,2040,2028,2028,2028,2040,2028,2028,2028,2028,2028,2028,2016,2016,2016,2016,2005,2005,2005,1993,1993,1993,1993,1981,1981,1981,1981,1981,1981,1981,1981,1981,1981,1981,1981,1970,1970,1970,1970,1970,1959,1959,1959,1959,1959,1959,1959,1947,1947,1947,1947,1947,1936,1936,1936,1926,1926,1926,1926,1926,1926,1915,1915,1915,1915,1915,1915,1915,1904,1904,1915,1894,1894,1883,1883,1883,1883,1883,1883,1883,1873,1873,1873,1873,1873,1873,1873,1863,1863,1863,1863,1863,1863,1853,1853,1853,1843,1843,1843,1843,1843,1843,1843,1843,1833,1833,1833,1823,1823,1823,1813,1813,1813,1804,1804,1804,1804,1804,1804,1804,1804,1804,1804,1804,1794,1794,1794,1785,1785,1785,1776,1776,1776,1776,1776,1766,1766,1766,1766,1757,1757,1757,1757,1757,1757,1748,1748,1748,1739,1739,1739,1731,1731,1731,1731,1731,1731,1731,1731,1731,1731,1731,1731,1731,1731,1739,1731,1731,1722,1722,1883,1873,1873,1873,1873,1873,1873,1873,1873,1873,1873,1873,1873,1873,1873,1873,1722,1713,1713,1705,1705,1696,1696,1696,1696,1705,1060,1057,1057,1060,1060,1060,1063,1063,1063,1063,1063,1063,1063,1063,1067,1070,1073,1073,1077,1077,1073,1073,1073,1073,1073,1073,1073,1073,1073,1077,1077,1077,1080,1084,1084,1087,1087,1084,1084,1087,1087,0,0,1794,1794,1794,1804,1804,1813,1813,1823,1823,1823,1823,1833,1833,1833,1833,1833,1833,1833,1833,1833,1843,1843,1843,1843,1853,1853,1863,1863,1863,1863,1863,1863,1863,1873,1863,1863,1873,1883,1883,1873,1873,1873,1873,1863,1863,1863,0,0,0,0,0,0,0,0,0,0,845,843,841,841,839,839,837,835,835,833,829,829,827,827,827,827,827,827,829,829,829,829,831,833,835,835,835,837,837,837,837,839,841,841,843,843,0,0,0,0,0,0,0,1609,1601,1601,1594,1586,1586,1579,1579,1572,1572,1564,1564,1557,1550,1550,1550,1543,1543,1536,1529,1529,1523,1523,1523,1516,1516,1509,1509,1503,1496,1489,1489,1483,1477,1477,1470,1470,1470,1470,1464,1464,1458,1452,1452,1445,1445,1439,1439,1433,1433,1427,1421,1415,1415,1410,1410,1404,1404,1404,1398,1398,1392,1387,1387,1381,1376,1376,1376,1370,1370,1370,1365,1359,1359,1354,1354,1349,1349,1343,1338,1338,1333,1333,1328,1328,1322,1317,1317,1312,1312,1312,1307,1307,1297,1292,1292,1288,1288,1288,1288,1283,1283,1278,1278,1268,1268,1264,1264,1259,1255,1255,1250,1250,1245,1245,1245,1241,1236,1236,1236,1232,1232,1232,1227,1223,1219,1219,1219,1214,1214,1210,1206,1202,1202,1197,1197,1197,1193,1189,1189,1185,1185,1181,1181,1181,1177,1177,1173,1169,1169,1169,1165,1165,1161,1157,1157,1153,1153,1149,1149,1145,1141,1138,1138,1134,1134,1130,1126,1123,1123,1123,1119,1119,1115,1112,1112,1108,1108,1108,1105,1105,1101,1101,1097,1097,1094,1094,1090,1087,1087,1084,1080,1077,1077,1077,1073,1073,1070,1067,1067,1067,1063,1063,1060,1057,1054,1054,1054,1050,1050,1050,1050,1047,1044,1044,1041,1038,1038,1034,1031,1031,1028,1028,1025,1025,1022,1022,1022,1019,1019,1016,1016,1013,1010,1010,1007,1004,1004,1001,1001,1001,1001,998,995,992,992,989,989,987,987,984,984,981,981,0,0,0,0,0,0,0,0,0,0,0,0,0,0,0,0,0,0,0,0,0,0,0,0,0,0,0,0,0,0,0
0,0,0,0,0,0,0,0,0,0,0,0,0,0,0,0,2078,2065,2065,2053,2053,2053,2053,2028,2028,2028,2028,2028,2028,2016,2016,2016,2016,2016,2016,2005,2005,1993,1993,1993,1993,1993,1993,1981,1981,1981,1981,1981,1981,1981,1981,1981,1970,1970,1970,1970,1970,1959,1959,1959,1959,1959,1959,1959,1959,1947,1947,1947,1947,1936,1936,1936,1926,1926,1926,1926,1926,1926,1915,1915,1915,1915,1915,1915,1915,1904,1904,1915,1904,1894,1894,1883,1883,1883,1883,1883,1883,1883,1873,1873,1873,1873,1873,1873,1863,1863,1863,1863,1863,1863,1853,1853,1853,1843,1843,1843,1843,1843,1843,1843,1843,1833,1833,1833,1833,1823,1823,1823,1813,1813,1813,1813,1804,1804,1804,1804,1804,1804,1804,1804,1804,1794,1794,1794,1785,1785,1785,1776,1776,1776,1776,1776,1766,1766,1766,1766,1757,1757,1757,1757,1757,1757,1757,1748,1748,1739,1739,1739,1739,1731,1731,1731,1731,1731,1731,1731,1731,1731,1731,1731,1731,1731,1739,1731,1731,1722,1722,1894,1873,1873,1873,1873,1873,1025,1025,1863,1873,1873,1873,1060,1060,1060,1883,1713,1713,1713,1696,1696,1696,1057,1054,1054,1054,1057,1057,1057,1060,1060,1060,1060,1060,1060,1060,1060,1060,1060,1060,1060,1063,1063,1070,1073,1073,1073,1073,1073,1070,1070,1070,1070,1070,1070,1073,1073,1077,1080,1080,1084,1087,1084,1084,1084,0,1084,0,0,1794,1794,1794,1804,1804,1804,1813,1823,1823,1823,1823,1833,1833,1833,1833,1833,1833,1833,1833,1833,1843,1843,1843,1853,1853,1853,1863,1863,1863,1863,1853,1853,1863,1873,1873,1873,1883,1883,1883,1873,1873,1873,1873,1863,1863,1863,0,0,0,0,0,0,0,0,0,0,845,843,843,841,839,839,837,835,835,833,829,829,827,827,827,827,827,827,829,829,829,829,831,833,835,835,837,837,837,837,839,841,841,843,843,843,0,0,0,0,0,0,0,1609,1601,1601,1594,1594,1586,1579,1579,1572,1572,1564,1564,1557,1550,1550,1550,1543,1543,1536,1529,1529,1529,1523,1523,1516,1516,1516,1509,1503,1496,1489,1489,1483,1477,1477,1470,1470,1470,1470,1464,1464,1458,1458,1452,1452,1445,1445,1439,1439,1433,1427,1421,1415,1415,1410,1410,1410,1404,1404,1398,1398,1392,1392,1387,1381,1376,1376,1376,1370,1370,1370,1365,1365,1359,1354,1354,1354,1349,1349,1343,1338,1338,1333,1333,1328,1322,1322,1317,1317,1312,1312,1307,1307,1302,1297,1292,1292,1288,1288,1288,1283,1283,1278,1278,1273,1268,1264,1264,1259,1255,1255,1250,1250,1250,1245,1245,1241,1236,1236,1236,1232,1232,1232,1227,1223,1223,1219,1219,1214,1214,1210,1206,1202,1202,1202,1197,1197,1193,1189,1189,1185,1185,1181,1181,1181,1177,1173,1173,1169,1169,1169,1165,1165,1161,1157,1157,1157,1153,1149,1149,1145,1141,1138,1138,1134,1134,1130,1126,1126,1123,1123,1119,1119,1119,1112,1112,1108,1108,1108,1105,1105,1105,1101,1097,1097,1094,1094,1090,1087,1084,1080,1080,1080,1077,1077,1077,1073,1070,1070,1067,1067,1063,1063,1060,1057,1054,1054,1054,1054,1050,1050,1050,1047,1047,1044,1041,1038,1038,1034,1031,1031,1028,1028,1025,1025,1025,1025,1022,1019,1019,1016,1016,1013,1013,1010,1010,1007,1004,1004,1001,1001,1001,998,995,992,992,989,989,989,987,987,984,981,981,0,0,0,0,0,0,0,0,0,0,0,0,0,0,0,0,0,0,0,0,0,0,0,0,0,0,0,0,0,0,0
0,0,0,0,0,0,0,0,0,0,0,0,0,0,0,0,2078,2078,2065,2065,2053,2053,2053,2040,2028,2028,2028,2028,2028,2028,2028,2028,2016,2016,2016,2016,2005,1993,1993,1993,1993,1993,1993,1993,1993,1993,1993,1993,1993,1993,1981,1981,1981,1970,1970,1970,1970,1970,1970,1959,1959,1959,1959,1959,1959,1959,1959,1947,1947,1947,1936,1936,1926,1926,1926,1926,1926,1926,1915,1915,1915,1915,1915,1915,1915,1904,1904,1915,1894,1894,1894,1894,1894,1883,1883,1883,1883,1883,1883,1883,1883,1883,1873,1873,1863,1863,1863,1863,1863,1863,1853,1853,1853,1853,1843,1843,1843,1843,1843,1843,1843,1833,1833,1833,1833,1823,1823,1823,1823,1823,1813,1813,1813,1813,1804,1804,1804,1804,1804,1804,1804,1794,1794,1794,1794,1785,1785,1785,1776,1776,1776,1776,1766,1766,1766,1766,1766,1766,1757,1757,1757,1757,1757,1748,1748,1748,1748,1739,1739,1731,1731,1731,1731,1731,1731,1731,1731,1731,1731,1731,1731,1739,1739,1731,1731,1722,1722,1722,1873,1873,1873,1873,1873,1025,1025,1038,1873,1873,1873,1057,1057,1050,1050,1050,1050,1696,1696,1054,1054,1057,1054,1054,1054,1057,1057,1057,1057,1060,1060,1060,1060,1060,1060,1060,1060,1057,1057,1057,1057,1057,1063,1067,1067,1067,1067,1067,1067,1067,1067,1063,1063,1070,1070,1070,1077,1080,1080,1084,1087,1084,1084,1084,0,1038,1038,1038,1804,1804,1804,1804,1804,1804,1823,1823,1823,1823,1823,1833,1833,1833,1833,1833,1833,1833,1843,1843,1843,1843,1843,1843,1853,1853,1853,1863,1863,1863,1853,1853,1853,1863,1873,1873,1883,1883,1883,1873,1873,1873,1873,1873,1863,1863,0,0,0,0,0,0,0,0,0,0,847,845,845,845,841,839,837,837,835,833,829,829,827,827,827,827,827,827,829,829,829,831,833,833,835,835,837,837,837,839,839,841,843,843,843,0,0,0,0,0,0,0,0,1609,1609,1601,1601,1594,1586,1586,1579,1579,1572,1564,1564,1557,1550,1550,1550,1543,1543,1536,1529,1529,1529,1523,1523,1523,1516,1516,1509,1503,1496,1489,1489,1489,1483,1477,1477,1470,1470,1470,1464,1464,1464,1458,1452,1452,1445,1445,1439,1439,1433,1427,1427,1421,1415,1415,1415,1415,1410,1410,1404,1398,1398,1392,1387,1381,1376,1376,1376,1376,1370,1370,1365,1365,1359,1354,1354,1354,1349,1349,1343,1338,1338,1333,1333,1328,1328,1322,1317,1317,1312,1312,1307,1307,1307,1302,1297,1292,1292,1288,1288,1288,1283,1278,1278,1273,1268,1268,1264,1264,1259,1255,1255,1250,1250,1245,1245,1245,1241,1236,1236,1236,1232,1232,1227,1227,1223,1219,1219,1219,1214,1214,1206,1206,1202,1202,1197,1197,1193,1193,1189,1185,1185,1181,1181,1181,1177,1173,1173,1169,1169,1169,1165,1165,1165,1161,1157,1157,1153,1153,1149,1145,1145,1141,1138,1134,1134,1130,1126,1126,1123,1123,1119,1119,1119,1115,1112,1108,1108,1108,1105,1105,1105,1101,1097,1097,1094,1094,1090,1087,1084,1080,1080,1080,1077,1077,1077,1073,1070,1070,1067,1067,1063,1063,1060,1060,1057,1054,1054,1054,1050,1050,1050,1047,1047,1041,1041,1038,1038,1034,1034,1031,1031,1028,1028,1025,1025,1025,1025,1022,1019,1016,1016,1013,1013,1013,1010,1007,1004,1004,1001,1001,1001,998,995,992,992,989,989,989,989,987,984,984,984,0,0,0,0,0,0,0,0,0,0,0,0,0,0,0,0,0,0,0,0,0,0,0,0,0,0,0,0,0,0,0
0,0,0,0,0,0,0,0,0,0,0,0,0,0,0,0,2065,2065,2065,2065,2053,2053,2053,2040,2040,2040,2028,2028,2028,2028,2028,2028,2028,2016,2016,2016,2005,1993,1993,1993,1993,1993,1993,1993,1993,1993,1993,1993,1993,1993,1981,1981,1981,1981,1970,1970,1970,1970,1970,1959,1959,1959,1959,1959,1959,1959,1947,1947,1947,1947,1947,1936,1926,1926,1926,1926,1926,1926,1915,1915,1915,1915,1915,1915,1915,1915,1904,1904,1894,1894,1894,1894,1894,1883,1883,1883,1883,1883,1883,1883,1873,1873,1873,1873,1863,1863,1863,1863,1863,1863,1863,1863,1863,1853,1853,1843,1843,1843,1843,1843,1843,1843,1843,1833,1833,1833,1833,1823,1823,1823,1823,1823,1813,1813,1813,1804,1804,1804,1804,1804,1804,1794,1794,1794,1794,1785,1785,1785,1776,1776,1776,1776,1766,1766,1766,1766,1766,1766,1757,1757,1757,1757,1757,1757,1748,1748,1748,1739,1739,1731,1731,1731,1731,1731,1722,1722,1722,1731,1731,1731,1731,1731,1739,1731,1722,1722,1713,1713,1696,1038,1038,1038,1038,1034,1034,1034,1034,1034,1873,1054,1054,1050,1050,1050,1050,1047,1047,1047,1050,1057,1054,1054,1054,1057,1054,1054,1050,1050,1054,1060,1060,1060,1060,1057,1054,1050,1050,1050,1044,1025,1025,1025,1063,1063,1063,1063,1063,1057,1057,1050,1047,1047,1047,1038,1031,1031,1084,1084,1025,1025,1025,1038,1038,1038,1038,1038,1031,1034,1031,1804,1804,1804,1823,1823,1823,1823,1823,1833,1833,1833,1833,1833,1833,1833,1843,1843,1843,1843,1843,1843,1853,1853,1853,1863,1863,1863,1853,1853,1853,1863,1873,1873,1883,1883,1883,1883,1873,1873,1873,1873,1873,1873,0,0,0,0,0,0,0,0,0,0,847,845,845,845,843,841,837,837,835,833,829,829,829,829,827,827,827,829,829,831,831,833,833,835,835,835,837,837,837,841,841,843,843,843,843,0,0,0,0,0,0,0,1609,1609,1609,1601,1601,1594,1586,1586,1579,1579,1572,1572,1564,1557,1550,1550,1550,1543,1543,1536,1529,1529,1529,1523,1523,1523,1516,1516,1509,1503,1496,1496,1496,1489,1483,1483,1477,1477,1470,1470,1464,1464,1464,1458,1458,1452,1452,1445,1439,1439,1433,1427,1427,1421,1421,1415,1415,1415,1415,1410,1404,1398,1398,1392,1387,1381,1376,1376,1376,1376,1370,1370,1370,1365,1359,1354,1354,1354,1349,1343,1343,1338,1338,1333,1333,1328,1328,1322,1317,1317,1312,1312,1307,1307,1307,1302,1297,1292,1292,1288,1288,1288,1283,1278,1278,1273,1268,1268,1264,1264,1259,1255,1255,1250,1250,1245,1245,1245,1241,1236,1236,1236,1232,1232,1227,1227,1223,1223,1219,1219,1214,1214,1210,1206,1202,1202,1197,1197,1193,1193,1189,1185,1185,1181,1181,1181,1177,1177,1173,1169,1169,1169,1165,1165,1165,1161,1157,1157,1153,1153,1149,1145,1145,1141,1138,1138,1134,1130,1126,1126,1123,1123,1119,1119,1119,1115,1112,1108,1108,1108,1105,1105,1105,1101,1097,1097,1097,1094,1090,1090,1087,1080,1080,1080,1077,1077,1077,1073,1073,1070,1070,1067,1067,1063,1060,1060,1057,1054,1054,1054,1050,1050,1050,1050,1047,1041,1041,1041,1038,1038,1034,1031,1031,1031,1028,1028,1025,1025,1025,1022,1022,1019,1016,1013,1013,1013,1010,1010,1007,1004,1004,1004,1001,1001,998,992,992,989,989,989,989,987,987,984,984,0,0,0,0,0,0,0,0,0,0,0,0,0,0,0,0,0,0,0,0,0,0,0,0,0,0,0,0,0,0,0
0,0,0,0,0,0,0,0,0,0,0,0,0,0,0,0,2065,2065,2065,2065,2053,2053,2053,2040,2040,2040,2040,2040,2040,2040,2040,2028,2028,2028,2028,2028,2016,2005,2005,2005,2005,2005,1993,1993,1993,1993,2005,1993,1993,1993,1993,1981,1981,1981,1970,1970,1970,1970,1970,1959,1959,1959,1959,1959,1959,1959,1947,1947,1947,1947,1947,1936,1926,1926,1926,1926,1926,1926,1926,1926,1926,1926,1915,1915,1915,1915,1904,1904,1894,1894,1894,1894,1894,1883,1883,1883,1883,1883,1883,1883,1873,1873,1873,1873,1863,1863,1863,1863,1863,1863,1863,1863,1863,1853,1853,1843,1843,1843,1843,1843,1843,1843,1843,1833,1833,1833,1833,1833,1833,1833,1823,1823,1823,1823,1813,1813,1813,1804,1804,1804,1804,1794,1794,1794,1794,1794,1785,1785,1776,1776,1776,1776,1766,1766,1766,1766,1766,1766,1757,1757,1757,1757,1757,1748,1748,1748,1748,1748,1739,1731,1731,1731,1731,1731,1722,1722,1722,1731,1731,1731,1731,1731,1731,1034,1034,1705,1025,1025,1022,1022,1034,1038,1038,1034,1034,1034,1034,1034,1038,1041,1050,1050,1047,1047,1047,1047,1044,1044,1047,1054,1050,1050,1050,1050,1047,1047,1047,1050,1050,1050,1050,1054,1054,1050,1050,1047,1041,1038,1038,1025,1025,1025,1025,1063,1060,1060,1054,1047,1047,1047,1044,1038,1038,1038,1025,1025,1028,1028,1025,1025,1025,1028,1028,1028,1031,1031,1031,1034,1031,1031,1034,1034,1823,1823,1823,1823,1823,1823,1823,1823,1823,1833,1833,1843,1843,1843,1843,1843,1843,1843,1853,1853,1863,1863,1863,1863,1853,1853,1853,1863,1873,1873,1883,1883,1883,1883,1883,1873,1873,1863,1863,1873,0,0,0,0,0,0,0,0,0,0,0,845,845,845,843,841,837,837,835,833,831,829,829,829,829,829,829,829,831,831,831,833,835,835,835,837,837,837,839,841,843,843,843,843,845,0,0,0,0,0,0,0,1609,1609,1609,1601,1601,1594,1594,1586,1586,1579,1579,1572,1564,1564,1557,1550,1550,1543,1543,1543,1536,1536,1529,1529,1523,1523,1516,1516,1509,1503,1496,1496,1496,1489,1489,1483,1483,1477,1477,1470,1470,1464,1464,1458,1458,1452,1452,1445,1445,1439,1439,1433,1427,1421,1421,1415,1415,1415,1415,1410,1410,1404,1398,1392,1387,1381,1376,1376,1376,1376,1376,1370,1370,1365,1359,1354,1354,1354,1349,1343,1343,1343,1338,1333,1333,1328,1328,1322,1317,1317,1312,1312,1307,1307,1307,1302,1297,1297,1292,1292,1288,1288,1283,1283,1278,1278,1273,1268,1268,1264,1259,1259,1255,1250,1250,1250,1250,1245,1241,1241,1236,1236,1232,1232,1232,1227,1227,1223,1219,1219,1214,1210,1210,1206,1202,1202,1197,1197,1197,1193,1193,1189,1185,1181,1181,1181,1177,1177,1173,1169,1169,1169,1165,1165,1165,1161,1157,1157,1153,1153,1149,1145,1145,1141,1138,1138,1134,1134,1130,1126,1126,1123,1123,1119,1119,1115,1112,1112,1108,1108,1108,1105,1105,1101,1097,1097,1097,1094,1090,1090,1087,1084,1080,1080,1080,1077,1077,1073,1073,1070,1070,1070,1067,1063,1060,1060,1057,1054,1054,1054,1054,1050,1050,1050,1047,1044,1041,1041,1041,1038,1038,1031,1031,1031,1028,1028,1025,1025,1025,1022,1022,1019,1016,1016,1013,1013,1010,1010,1007,1007,1004,1004,1004,1001,998,998,992,992,989,989,989,987,987,984,984,0,0,0,0,0,0,0,0,0,0,0,0,0,0,0,0,0,0,0,0,0,0,0,0,0,0,0,0,0,0,0
0,0,0,0,0,0,0,0,0,0,0,0,0,0,0,0,2065,2065,2065,2065,2065,2053,2053,2053,2053,2040,2040,2040,2040,2040,2040,2028,2028,2028,2028,2028,2016,2005,2005,2005,2005,2005,2005,1993,1993,1993,2005,1993,1993,1993,1993,1993,1993,1981,1981,1970,1970,1970,1970,1970,1959,1959,1959,1959,1959,1959,1947,1947,1947,1947,1936,1936,1936,1936,1936,1926,1926,1926,1926,1926,1926,1926,1915,1915,1915,1915,1915,1904,1904,1904,1894,1894,1894,1894,1883,1883,1883,1883,1883,1883,1883,1883,1883,1873,1873,1873,1873,1873,1863,1863,1863,1863,1863,1863,1853,1853,1843,1843,1843,1843,1843,1843,1843,1833,1833,1833,1833,1833,1833,1833,1833,1833,1833,1823,1823,1813,1813,1804,1804,1804,1804,1804,1794,1794,1794,1794,1785,1785,1776,1776,1776,1776,1766,1766,1766,1766,1766,1766,1757,1757,1757,1757,1757,1748,1748,1031,1031,1748,1739,1731,1025,1025,1025,1025,1022,1022,1025,1025,1731,1731,1034,1034,1034,1031,1031,1031,1025,1025,1022,1022,1034,1034,1034,1034,1031,1031,1034,1034,1034,1038,1041,1050,1047,1047,1047,1044,1038,1034,1034,1034,1038,1025,1025,1047,1044,1044,1044,1044,1044,1044,1044,1047,1047,1047,1047,1044,1041,1038,1038,1025,1025,1025,1025,1028,1028,1057,1050,1044,1044,1044,1044,1038,1038,1034,1025,1025,1028,1028,1025,1025,1025,1028,1028,1028,1028,1025,1025,1028,1028,1028,1034,1028,1025,1025,1025,1013,1823,1823,1823,1823,1823,1823,1833,1833,1843,1843,1843,1843,1843,1843,1853,1853,1863,1863,1863,1863,1863,1863,1863,1863,1873,1873,1883,1883,1883,1883,1883,1873,1873,1863,1863,1873,0,0,0,0,0,0,0,0,0,0,0,0,845,845,843,841,837,837,835,833,831,829,829,829,829,829,829,829,831,831,833,833,835,835,837,837,837,839,841,843,843,843,843,843,845,0,0,0,0,0,0,0,1616,1609,1609,1601,1601,1594,1594,1586,1586,1579,1579,1572,1572,1564,1557,1557,1550,1550,1543,1543,1543,1536,1529,1529,1523,1523,1516,1516,1509,1503,1496,1496,1496,1489,1489,1489,1483,1483,1477,1470,1470,1464,1464,1458,1458,1452,1452,1445,1445,1439,1439,1433,1427,1427,1421,1421,1421,1415,1415,1415,1410,1404,1398,1392,1387,1381,1376,1376,1376,1376,1376,1370,1370,1365,1359,1354,1354,1354,1349,1349,1343,1343,1343,1338,1333,1333,1328,1322,1322,1317,1317,1312,1312,1307,1307,1307,1302,1297,1292,1292,1288,1288,1288,1283,1278,1278,1273,1268,1268,1268,1264,1264,1259,1255,1250,1250,1250,1250,1245,1241,1236,1236,1232,1232,1232,1227,1227,1223,1219,1219,1214,1210,1206,1206,1202,1202,1202,1197,1197,1193,1193,1189,1185,1185,1181,1181,1177,1177,1173,1169,1169,1169,1165,1165,1165,1161,1157,1157,1153,1153,1149,1149,1145,1141,1141,1138,1138,1134,1130,1126,1126,1123,1123,1123,1119,1119,1115,1112,1112,1112,1108,1105,1105,1101,1097,1097,1097,1094,1090,1090,1087,1084,1084,1080,1080,1077,1077,1077,1073,1070,1070,1070,1067,1063,1060,1060,1057,1057,1054,1054,1054,1054,1050,1050,1047,1044,1044,1041,1041,1038,1038,1034,1034,1031,1028,1028,1025,1025,1025,1022,1022,1019,1016,1016,1013,1013,1013,1010,1010,1007,1004,1004,1004,1001,1001,998,998,992,992,989,989,987,987,984,984,0,0,0,0,0,0,0,0,0,0,0,0,0,0,0,0,0,0,0,0,0,0,0,0,0,0,0,0,0,0,0
0,0,0,0,0,0,0,0,0,0,0,0,0,0,0,0,2065,2065,2065,2065,2065,2065,2053,2053,2053,2053,2040,2040,2040,2040,2028,2028,2028,2028,2028,2028,2016,2016,2005,2005,2005,2005,2005,2005,2005,2005,2005,2005,2005,1993,1993,1993,1993,1993,1981,1981,1981,1970,1970,1970,1959,1959,1959,1959,1959,1959,1947,1947,1947,1947,1936,1936,1936,1936,1936,1926,1926,1936,1926,1926,1926,1926,1926,1926,1915,1915,1915,1904,1904,1904,1894,1894,1894,1894,1883,1883,1894,1894,1883,1883,1883,1883,1883,1873,1873,1873,1873,1873,1863,1863,1863,1863,1863,1863,1853,1853,1843,1843,1843,1843,1843,1843,1843,1833,1833,1833,1833,1833,1833,1833,1833,1833,1833,1823,1823,1813,1813,1804,1804,1804,1804,1804,1804,1794,1794,1794,1794,1785,1785,1776,1776,1776,1776,1776,1776,1766,1766,1022,1022,1757,1757,1025,1025,1025,1025,1025,1025,1025,1022,1022,1025,1025,1022,1022,1022,1022,1022,1022,1025,1025,1025,1028,1028,1028,1028,1028,1028,1031,1028,1028,1031,1034,1031,1025,1025,1028,1031,1031,1034,1038,1038,1038,1038,1038,1041,1038,1031,1031,1031,1031,1031,1025,1025,1025,1025,1031,1031,1031,1031,1034,1034,1034,1044,1044,1044,1038,1038,1034,1034,1025,1025,1025,1025,1025,1025,1022,1019,1019,1044,1044,1044,1041,1038,1034,1028,1028,1025,1025,1025,1025,1025,1025,1025,1025,1025,1025,1025,1025,1022,1019,1019,1022,1019,1016,1013,1013,1013,1007,1007,1823,1823,1823,1833,1833,1843,1843,1843,1853,1853,1853,1853,1853,1863,1863,1863,1863,1863,1863,1863,1873,1873,1873,1883,1894,1883,1883,1883,1873,1873,1873,1873,0,0,0,0,0,0,0,0,0,0,0,0,0,847,847,845,843,839,837,835,833,831,831,829,829,829,829,829,829,831,831,833,835,835,835,837,837,839,841,841,843,843,843,843,843,0,0,0,0,0,0,0,0,1616,1616,1609,1601,1601,1594,1594,1586,1586,1579,1579,1579,1572,1572,1564,1557,1550,1550,1543,1543,1543,1543,1536,1529,1523,1523,1516,1516,1516,1503,1496,1496,1496,1496,1489,1489,1483,1483,1477,1470,1470,1470,1464,1458,1458,1452,1452,1445,1445,1439,1439,1439,1433,1427,1421,1421,1421,1415,1415,1415,1410,1410,1404,1392,1381,1381,1376,1376,1376,1376,1376,1370,1370,1365,1365,1359,1354,1354,1349,1349,1349,1343,1343,1338,1338,1333,1328,1328,1322,1317,1317,1312,1312,1307,1307,1307,1302,1302,1292,1292,1288,1288,1288,1283,1278,1278,1273,1268,1268,1268,1264,1264,1259,1255,1255,1255,1250,1250,1250,1241,1241,1236,1236,1232,1232,1232,1227,1223,1223,1219,1214,1210,1206,1206,1202,1202,1202,1197,1197,1197,1197,1193,1189,1185,1185,1181,1181,1177,1173,1169,1169,1169,1165,1165,1165,1161,1161,1157,1153,1153,1149,1149,1145,1145,1141,1138,1138,1134,1134,1130,1126,1123,1123,1123,1119,1119,1115,1115,1112,1112,1108,1108,1105,1105,1101,1101,1097,1094,1090,1090,1087,1084,1084,1080,1080,1077,1077,1077,1073,1073,1070,1070,1070,1063,1063,1060,1057,1057,1054,1054,1054,1054,1050,1050,1047,1044,1044,1041,1041,1038,1038,1034,1034,1034,1028,1028,1028,1028,1025,1025,1022,1019,1016,1016,1013,1013,1013,1013,1010,1007,1007,1004,1004,1001,1001,1001,998,992,992,989,989,987,987,984,984,0,0,0,0,0,0,0,0,0,0,0,0,0,0,0,0,0,0,0,0,0,0,0,0,0,0,0,0,0,0,0
0,0,0,0,0,0,0,0,0,0,0,0,0,0,0,0,2065,2065,2065,2065,2065,2065,2065,2053,2053,2053,2053,2053,2053,2040,2028,2028,2028,2028,2028,2016,2016,2016,2016,2005,2005,2016,2005,2005,2005,2005,2005,2005,2005,2005,2005,2005,1993,1993,1993,1981,1981,1970,1970,1970,1959,1959,1959,1959,1959,1959,1959,1959,1947,1947,1947,1947,1936,1936,1936,1936,1936,1936,1926,1926,1926,1926,1926,1926,1915,1915,1915,1915,1904,1904,1904,1904,1904,1904,1894,1894,1894,1894,1883,1883,1883,1883,1883,1883,1873,1873,1873,1873,1873,1873,1873,1873,1863,1863,1853,1853,1853,1843,1843,1843,1843,1843,1843,1843,1843,1843,1843,1843,1833,1833,1833,1833,1833,1823,1823,1813,1813,1804,1804,1804,1804,1804,1804,1794,1794,1794,1794,1785,1785,1785,1776,1776,1776,1776,1022,1022,1022,1022,1022,1022,1022,1019,1019,1019,1022,1022,1022,1022,1022,1022,1022,1022,1022,1022,1022,1022,1019,1019,1022,1022,1022,1022,1022,1025,1025,1025,1028,1028,1025,1025,1028,1028,1025,1025,1025,1025,1025,1016,1016,1013,1013,1016,1031,1031,1031,1031,1028,1028,1028,1025,1025,1022,1019,1019,1022,1016,1016,1019,1016,1016,1025,1022,1022,1028,1025,1025,1028,1028,1025,1022,1022,1022,1022,1022,1016,1016,1016,1016,1016,1013,1013,1034,1034,1034,1028,1028,1025,1025,1025,1025,1025,1025,1025,1025,1025,1022,1022,1022,1010,1010,1010,1010,1013,1010,1010,1010,1010,1007,1007,1004,1004,1004,1004,1843,1843,1843,1843,1853,1853,1853,1853,1853,1863,1863,1863,1863,1863,1863,1863,1873,1883,1883,1883,1894,1883,1883,1873,1873,1873,1873,1873,0,0,0,0,0,0,0,0,0,0,0,0,0,849,847,845,843,839,837,835,833,833,831,831,829,829,829,829,831,831,833,835,835,835,837,837,839,839,841,843,843,843,843,843,843,0,0,0,0,0,0,0,0,1624,1616,1609,1609,1601,1601,1594,1594,1586,1579,1579,1579,1572,1572,1564,1557,1550,1550,1543,1543,1543,1543,1536,1529,1529,1523,1523,1516,1516,1503,1503,1496,1496,1496,1489,1489,1489,1483,1477,1470,1470,1470,1464,1458,1458,1458,1452,1445,1445,1439,1439,1439,1433,1427,1427,1421,1421,1415,1415,1415,1410,1410,1404,1392,1381,1381,1376,1376,1376,1376,1376,1376,1370,1370,1365,1359,1359,1354,1349,1349,1349,1343,1338,1338,1333,1333,1328,1328,1322,1317,1317,1312,1312,1307,1307,1307,1302,1302,1297,1292,1292,1288,1288,1283,1278,1278,1273,1273,1268,1268,1268,1264,1264,1259,1255,1255,1255,1250,1250,1250,1241,1236,1236,1236,1232,1232,1232,1227,1223,1219,1214,1214,1210,1206,1206,1202,1202,1202,1202,1197,1197,1193,1189,1185,1185,1181,1181,1177,1177,1173,1169,1169,1169,1165,1165,1161,1161,1161,1157,1153,1149,1149,1145,1145,1145,1138,1138,1138,1134,1130,1130,1126,1123,1123,1119,1119,1119,1115,1112,1112,1108,1108,1105,1105,1105,1101,1097,1097,1094,1090,1087,1084,1084,1080,1080,1077,1077,1077,1077,1073,1073,1073,1070,1067,1063,1060,1060,1057,1057,1054,1054,1054,1050,1047,1047,1044,1044,1041,1041,1038,1038,1038,1034,1034,1031,1031,1028,1028,1025,1025,1022,1019,1016,1016,1013,1013,1013,1013,1010,1007,1007,1004,1004,1004,1001,1001,998,998,992,989,989,987,987,984,984,0,0,0,0,0,0,0,0,0,0,0,0,0,0,0,0,0,0,0,0,0,0,0,0,0,0,0,0,0,0,0
0,0,0,0,0,0,0,0,0,0,0,0,0,0,0,0,2065,2065,2065,2065,2065,2065,2065,2065,2065,2065,2065,2053,2053,2040,2040,2028,2028,2028,2028,2016,2016,2016,2016,2005,2005,2016,2005,2005,2005,2005,2005,2005,2005,2005,2005,2005,2005,2005,1993,1981,1981,1981,1970,1970,1970,1970,1959,1959,1970,1959,1959,1959,1959,1959,1959,1959,1947,1947,1936,1936,1936,1936,1936,1926,1926,1926,1926,1926,1926,1915,1915,1915,1915,1904,1904,1904,1904,1904,1894,1894,1894,1894,1894,1894,1883,1883,1883,1883,1883,1883,1883,1873,1873,1873,1873,1873,1863,1863,1863,1853,1853,1843,1843,1843,1843,1843,1843,1843,1843,1843,1843,1843,1833,1833,1833,1833,1833,1823,1823,1813,1813,1813,1804,1804,1007,1004,1001,1001,1010,1010,1010,1010,1785,1785,1785,1776,1025,1025,1022,1019,1019,1019,1019,1016,1016,1016,1016,1016,1016,1019,1022,1022,1022,1022,1022,1022,1019,1019,1019,1016,1016,1016,1016,1010,1010,1010,1013,1013,1022,1022,1025,1025,1019,1019,1016,1016,1016,1016,1016,1016,1016,1013,1013,1013,1013,1013,1016,1019,1019,1028,1025,1025,1025,1019,1019,1016,1016,1016,1019,1016,1010,1010,1013,1013,1019,1016,1013,1013,1013,1013,1019,1022,1022,1022,1019,1019,1013,1013,1013,1013,1013,1013,1013,1013,1013,1013,1013,1028,1028,1028,1025,1025,1025,1025,1025,1022,1022,1022,1022,1010,1010,1007,1004,1001,1001,1001,1007,1007,1007,1004,1001,1001,1001,1001,1001,1001,0,0,978,1863,1863,1863,1853,1853,1853,1853,1863,1863,1863,1863,1863,1863,1873,1873,1883,1883,1883,1894,1883,1883,1873,1873,1873,1873,0,0,0,0,0,0,0,0,0,0,0,0,0,0,849,845,845,843,841,837,835,833,833,831,831,831,831,829,829,831,833,835,835,835,837,837,839,839,841,841,843,843,843,843,843,843,0,0,0,0,0,0,0,1632,1624,1624,1609,1609,1601,1601,1594,1594,1586,1579,1579,1579,1572,1572,1564,1557,1550,1550,1543,1543,1543,1543,1543,1536,1529,1523,1523,1523,1509,1509,1503,1496,1496,1496,1489,1489,1489,1483,1477,1470,1470,1470,1464,1464,1458,1458,1452,1445,1445,1445,1439,1439,1433,1433,1427,1421,1421,1421,1415,1415,1410,1410,1404,1392,1392,1381,1376,1376,1376,1376,1376,1376,1370,1370,1365,1365,1359,1359,1354,1349,1349,1343,1338,1338,1333,1333,1328,1328,1322,1322,1317,1317,1312,1307,1307,1307,1307,1302,1297,1297,1292,1292,1288,1283,1283,1278,1273,1273,1273,1268,1268,1268,1264,1259,1255,1255,1255,1250,1250,1250,1241,1236,1236,1236,1232,1232,1232,1227,1223,1219,1214,1214,1210,1210,1206,1206,1202,1202,1202,1197,1197,1193,1189,1185,1185,1181,1181,1177,1177,1173,1173,1169,1169,1165,1165,1161,1161,1161,1157,1153,1149,1149,1145,1145,1145,1138,1138,1138,1134,1134,1130,1130,1126,1123,1123,1119,1119,1115,1115,1112,1108,1108,1105,1105,1105,1105,1101,1097,1094,1094,1090,1087,1087,1084,1080,1080,1077,1077,1077,1077,1077,1073,1070,1067,1067,1063,1063,1060,1057,1057,1054,1054,1050,1047,1047,1044,1044,1044,1041,1041,1041,1038,1038,1034,1031,1031,1028,1028,1025,1025,1022,1019,1016,1016,1016,1013,1013,1013,1010,1007,1007,1004,1004,1004,1001,1001,1001,998,992,989,989,987,987,987,987,0,0,0,0,0,0,0,0,0,0,0,0,0,0,0,0,0,0,0,0,0,0,0,0,0,0,0,0,0,0,0
0,0,0,0,0,0,0,0,0,0,0,0,0,0,0,0,2065,2065,2065,2065,2065,2065,2065,2065,2065,2065,2065,2053,2053,2053,2053,2040,2028,2028,2016,2016,2016,2016,2016,2016,2016,2016,2016,2016,2016,2016,2016,2005,2005,2005,2005,2005,2005,2005,1993,1993,1993,1981,1981,1970,1970,1970,1970,1970,1970,1970,1970,1959,1959,1959,1959,1959,1959,1947,1947,1936,1936,1936,1936,1926,1926,1926,1926,1926,1926,1926,1926,1915,1915,1915,1915,1915,1915,1915,1904,1904,1904,1894,1894,1894,1883,1883,1883,1883,1883,1883,1883,1883,1873,1873,1873,1873,1873,1863,1863,1853,1853,1843,1843,1843,1843,1843,1843,1843,1843,1843,1843,1843,998,998,1001,1004,1833,1823,1823,1813,1813,1804,1804,1004,1004,1001,1001,1001,1001,1007,1007,1004,1004,998,998,1016,1016,1019,1016,1016,1016,1016,1016,1013,1013,1013,1013,1013,1013,1019,1019,1019,1022,1019,1019,1019,1016,1016,1016,1013,1013,1013,1013,1007,1007,1007,1007,1010,1013,1013,1013,1013,1010,1010,1010,1010,1010,1010,1013,1013,1013,1010,1010,1007,1007,1007,1007,1007,1010,1010,1013,1013,1019,1013,1013,1010,1010,1010,1010,1007,1004,1004,1004,1004,1004,1004,1001,1001,1001,1001,1016,1010,1010,1019,1019,1019,1013,1013,1013,1013,1010,1010,1001,998,998,995,992,992,989,989,989,1022,1022,1022,1022,1022,1007,998,998,1004,1001,1001,1001,998,992,992,1001,998,998,1001,998,998,998,989,989,989,987,978,978,978,1863,1863,1853,1853,1853,1853,1863,1863,1863,1863,1863,1873,1873,1873,1883,1883,1894,1894,1894,1883,1873,1873,1873,1873,0,0,0,0,0,0,0,0,0,0,0,0,0,0,847,845,845,843,841,839,837,835,833,833,831,831,831,831,831,833,835,835,835,837,837,837,839,841,841,843,843,843,843,843,843,0,0,0,0,0,0,0,0,1624,1624,1624,1616,1609,1601,1601,1594,1594,1586,1579,1579,1579,1572,1572,1572,1557,1550,1550,1550,1543,1543,1543,1543,1536,1529,1523,1523,1523,1509,1509,1503,1503,1503,1496,1496,1489,1489,1483,1477,1477,1470,1470,1464,1464,1458,1458,1452,1445,1445,1445,1439,1439,1439,1433,1427,1421,1421,1421,1415,1415,1410,1410,1398,1398,1392,1381,1381,1381,1376,1376,1376,1376,1370,1370,1365,1365,1359,1354,1354,1349,1349,1343,1343,1338,1333,1333,1333,1328,1328,1322,1322,1312,1312,1312,1307,1307,1307,1302,1297,1297,1292,1292,1288,1288,1283,1278,1278,1273,1273,1268,1268,1268,1268,1264,1259,1255,1255,1255,1250,1250,1241,1241,1236,1236,1232,1232,1232,1227,1223,1223,1214,1214,1214,1210,1210,1206,1206,1206,1202,1202,1197,1197,1193,1189,1185,1181,1181,1177,1177,1173,1173,1169,1169,1165,1165,1165,1161,1161,1157,1153,1149,1149,1149,1145,1145,1141,1141,1138,1134,1134,1134,1130,1130,1123,1123,1123,1119,1119,1115,1115,1112,1112,1108,1108,1105,1101,1101,1097,1094,1094,1090,1090,1087,1084,1084,1080,1080,1077,1077,1077,1077,1073,1070,1070,1067,1063,1063,1060,1060,1057,1054,1054,1054,1054,1047,1044,1044,1044,1041,1041,1041,1038,1038,1034,1034,1031,1028,1028,1025,1025,1022,1022,1019,1016,1016,1016,1013,1013,1010,1007,1007,1004,1004,1004,1001,1001,1001,1001,992,989,989,987,987,987,987,0,0,0,0,0,0,0,0,0,0,0,0,0,0,0,0,0,0,0,0,0,0,0,0,0,0,0,0,0,0,0
0,0,0,0,0,0,0,0,0,0,0,0,0,0,0,0,2065,2065,2065,2065,2065,2065,2065,2065,2065,2065,2065,2065,2065,2065,2053,2053,2040,2028,2016,2016,2016,2016,2016,2016,2016,2016,2016,2016,2016,2016,2016,2005,2005,2005,2005,2005,2005,2005,1993,1993,1993,1993,1981,1970,1970,1970,1970,1970,1970,1970,1970,1959,1959,1959,1959,1959,1959,1959,1947,1947,1947,1947,1947,1936,1936,1936,1936,1936,1926,1926,1926,1915,1915,1915,1915,1915,1915,1915,1904,1904,1904,1904,1894,1894,1894,1894,1894,1883,1883,1883,1883,1883,1883,1883,1873,1873,1873,1863,1863,1853,1853,1843,1843,1843,1843,1843,995,995,995,995,992,992,995,998,1001,1001,1004,1010,1007,1007,1007,1007,1004,1004,1001,1001,998,998,998,1001,1001,998,992,992,995,998,1016,1013,1013,1013,1013,1013,1013,1013,1013,1013,1013,1013,1013,1019,1019,1019,1019,1019,1019,1016,1013,1013,1013,1010,1010,1010,1004,1004,1004,1004,1004,1007,1010,1010,1010,1010,1007,1007,1004,1004,1007,1007,1007,1010,1010,1007,1007,1007,1007,1007,1007,1007,1010,1010,1007,1007,1007,1004,1004,1004,1004,1004,1004,1004,1001,1001,1001,1001,1001,1004,1001,1001,1001,1001,1007,1004,1004,1007,1019,1019,1013,1010,1010,1013,1010,1001,998,992,992,989,984,984,984,984,984,987,992,992,989,989,992,989,989,998,995,995,995,992,992,992,992,992,992,992,992,992,992,989,987,987,987,978,978,978,1863,1863,1853,1843,1843,1843,1863,978,978,1873,1873,1873,1883,1894,1894,1894,967,967,1894,1883,1883,1883,1873,1873,0,0,0,0,0,0,0,0,0,0,0,0,0,854,847,845,845,843,841,839,837,835,833,833,831,831,833,833,833,833,835,837,837,837,837,839,841,841,841,843,843,845,845,843,843,0,0,0,0,0,0,0,0,1624,1624,1624,1616,1609,1601,1601,1594,1594,1586,1579,1579,1579,1579,1572,1572,1557,1550,1550,1550,1543,1543,1543,1543,1536,1529,1529,1523,1523,1516,1509,1503,1503,1503,1496,1496,1496,1489,1483,1477,1477,1470,1470,1464,1464,1458,1458,1452,1445,1445,1445,1439,1439,1439,1439,1433,1421,1421,1421,1415,1415,1410,1410,1398,1398,1392,1392,1381,1381,1381,1376,1376,1376,1370,1370,1370,1365,1365,1354,1354,1354,1349,1349,1343,1343,1338,1333,1333,1333,1328,1328,1322,1312,1312,1312,1307,1307,1307,1302,1297,1297,1292,1292,1288,1288,1283,1278,1278,1273,1273,1273,1268,1268,1268,1264,1259,1259,1255,1255,1250,1245,1245,1241,1236,1236,1236,1232,1232,1227,1227,1223,1219,1214,1214,1214,1210,1206,1206,1206,1202,1202,1197,1197,1193,1193,1185,1185,1181,1181,1177,1173,1173,1169,1169,1165,1165,1165,1161,1161,1157,1153,1153,1149,1149,1145,1145,1141,1138,1138,1134,1134,1134,1130,1130,1126,1123,1123,1123,1119,1119,1115,1115,1112,1108,1108,1105,1101,1101,1097,1094,1094,1090,1090,1090,1087,1087,1084,1080,1080,1080,1077,1077,1073,1073,1070,1067,1063,1063,1060,1060,1057,1057,1054,1054,1054,1050,1047,1044,1044,1044,1041,1041,1038,1038,1034,1034,1031,1028,1028,1025,1025,1022,1022,1019,1016,1016,1016,1013,1013,1010,1010,1007,1007,1004,1004,1004,1001,1001,998,992,989,989,989,987,987,987,0,0,0,0,0,0,0,0,0,0,0,0,0,0,0,0,0,0,0,0,0,0,0,0,0,0,0,0,0,0,0
0,0,0,0,0,0,0,0,0,0,0,0,0,0,0,0,2065,2065,2065,2065,2065,2065,2065,2065,2065,2065,2065,2065,2065,2053,2053,2053,2040,2028,2016,2016,2028,2016,2016,2016,2016,2016,2016,2016,2016,2016,2016,2005,2005,2005,2005,2005,2005,2005,2005,2005,1993,1993,1981,1981,1970,1970,1970,1970,1970,1970,1970,1970,1970,1970,1959,1959,1959,1959,1947,1947,1947,1947,1947,1936,1936,1936,1936,1936,1936,1926,1926,1926,1915,1915,1915,1915,1915,1915,1915,1915,1915,1915,1904,1904,1894,1894,1894,1894,1883,1883,1883,1883,1883,1883,1883,1873,1873,1863,992,992,992,1843,1843,1843,1843,992,992,995,995,995,992,992,995,998,998,998,1001,1007,1007,1007,1007,1004,1004,1001,998,998,998,995,995,998,995,995,992,989,989,989,989,989,998,1010,1010,1010,1010,1010,1010,1010,1010,1007,1007,1007,1016,1016,1019,1007,1007,1016,1013,1013,1013,1010,1007,1007,1004,1004,1004,1004,1004,1007,1010,1010,1010,1007,1001,1001,998,995,989,989,989,998,998,989,989,1004,998,998,998,1001,1007,1001,995,989,989,995,995,998,995,995,995,995,998,998,998,998,1001,1001,1001,1001,998,998,1001,995,995,978,978,978,978,1010,1010,1013,1010,998,995,987,987,984,981,981,984,984,984,984,981,981,989,987,987,987,987,989,989,989,989,989,989,989,989,989,989,989,989,989,989,987,978,975,975,975,975,975,975,978,978,978,978,975,975,975,975,975,1873,1883,1883,1894,1894,1894,964,964,964,964,1883,1883,1883,1883,0,0,0,0,0,0,0,0,0,0,0,0,0,851,851,847,845,843,841,839,837,835,833,833,833,833,833,833,833,835,835,837,837,837,839,841,843,843,843,843,845,845,845,843,843,0,0,0,0,0,0,0,1632,1632,1632,1624,1616,1609,1609,1601,1601,1601,1594,1586,1579,1579,1579,1579,1572,1557,1557,1550,1550,1550,1543,1543,1543,1536,1536,1529,1523,1523,1516,1516,1509,1503,1503,1503,1496,1496,1489,1483,1477,1477,1470,1470,1464,1464,1464,1458,1452,1452,1445,1445,1439,1439,1439,1439,1427,1421,1421,1421,1415,1415,1415,1410,1410,1398,1392,1392,1387,1387,1381,1381,1376,1376,1376,1370,1370,1365,1365,1354,1354,1354,1349,1349,1349,1343,1338,1333,1333,1333,1328,1328,1322,1317,1312,1312,1312,1307,1307,1302,1297,1297,1292,1292,1292,1288,1288,1283,1278,1278,1273,1273,1268,1268,1268,1268,1264,1259,1255,1255,1250,1245,1245,1241,1241,1236,1236,1232,1232,1227,1227,1223,1219,1214,1214,1214,1210,1206,1206,1206,1202,1202,1202,1197,1193,1193,1185,1185,1181,1181,1177,1177,1173,1169,1169,1165,1165,1165,1161,1161,1161,1153,1153,1149,1149,1145,1145,1141,1138,1138,1134,1134,1134,1134,1130,1130,1123,1123,1123,1119,1119,1115,1115,1112,1108,1108,1105,1101,1101,1097,1094,1094,1090,1090,1090,1087,1087,1084,1080,1080,1080,1080,1080,1077,1073,1070,1070,1067,1063,1060,1060,1057,1057,1054,1054,1054,1050,1047,1047,1044,1044,1041,1041,1038,1038,1038,1034,1031,1028,1028,1028,1025,1022,1022,1019,1016,1016,1016,1013,1013,1010,1010,1007,1007,1004,1004,1004,1001,1001,998,992,992,989,989,987,987,987,0,0,0,0,0,0,0,0,0,0,0,0,0,0,0,0,0,0,0,0,0,0,0,0,0,0,0,0,0,0,0
0,0,0,0,0,0,0,0,0,0,0,0,0,0,0,0,2065,2065,2065,2065,2065,2065,2065,2065,2065,2065,2065,2065,2065,2053,2053,2053,2053,2040,2028,2028,2028,2028,2028,2028,2028,2028,2016,2016,2016,2016,2016,2016,2005,2005,2005,2005,2005,2005,2005,2005,2005,1993,1993,1981,1981,1970,1970,1970,1970,1970,1970,1970,1970,1970,1970,1959,1959,1959,1959,1959,1936,1936,1936,1936,1936,1936,1936,1936,1936,1936,1926,1926,1915,1915,1915,1915,1915,1915,1915,1915,1915,1915,1904,1904,1904,1894,1894,1894,1894,1894,1894,1883,987,987,987,987,987,989,992,992,992,989,989,992,992,992,992,992,995,992,992,992,995,992,992,992,992,998,1001,1001,1004,1001,1001,1001,998,998,998,995,995,998,995,995,992,989,989,987,987,987,987,987,987,1007,1007,1007,1007,1004,1004,1001,998,998,1004,1004,1001,1001,1001,1001,1001,998,998,998,992,992,992,995,1001,998,998,1001,1004,1007,1010,1007,1001,1001,998,992,989,989,989,987,984,984,984,989,987,984,984,989,992,995,992,981,981,989,992,992,992,992,992,992,995,995,995,995,998,1001,1001,998,995,995,995,978,978,978,978,978,978,978,978,978,975,970,970,978,978,978,978,978,978,978,978,978,978,978,978,984,981,978,978,981,987,987,987,987,987,987,987,987,987,987,987,987,987,987,975,973,973,973,973,973,975,975,975,967,967,970,970,973,973,973,1883,1883,1883,1883,959,959,959,959,959,959,1883,1883,1883,1883,0,0,0,0,0,0,0,0,0,0,0,0,856,851,849,847,847,845,843,839,837,835,835,833,833,833,835,835,835,835,837,837,837,839,841,841,843,843,843,845,845,845,845,843,843,0,0,0,0,0,0,0,1632,1632,1632,1624,1624,1609,1609,1601,1601,1601,1594,1586,1579,1579,1579,1579,1572,1564,1557,1557,1550,1550,1543,1543,1543,1536,1536,1529,1523,1523,1516,1516,1509,1509,1509,1503,1503,1496,1489,1483,1477,1477,1470,1470,1464,1464,1464,1458,1458,1452,1445,1445,1439,1439,1439,1439,1427,1421,1421,1421,1415,1415,1415,1410,1410,1404,1398,1392,1392,1387,1387,1381,1381,1376,1376,1370,1370,1370,1365,1359,1354,1354,1354,1349,1349,1343,1338,1333,1333,1333,1328,1328,1322,1317,1317,1312,1312,1307,1307,1302,1302,1297,1297,1292,1292,1288,1288,1283,1278,1278,1273,1273,1273,1268,1268,1268,1264,1264,1259,1255,1255,1250,1245,1245,1241,1236,1236,1236,1232,1232,1227,1227,1223,1219,1214,1214,1214,1210,1206,1206,1202,1202,1202,1197,1197,1197,1189,1185,1185,1181,1177,1177,1173,1173,1169,1165,1165,1165,1165,1161,1157,1153,1153,1149,1149,1149,1145,1141,1138,1138,1134,1134,1134,1134,1130,1130,1126,1123,1123,1123,1119,1115,1115,1112,1108,1108,1105,1105,1101,1097,1097,1097,1094,1094,1090,1087,1087,1087,1084,1080,1080,1080,1077,1073,1073,1070,1070,1067,1063,1063,1060,1060,1057,1054,1054,1054,1050,1047,1047,1044,1044,1041,1041,1041,1038,1038,1038,1034,1031,1028,1025,1025,1025,1022,1019,1019,1016,1016,1013,1013,1013,1010,1010,1007,1004,1004,1004,1001,1001,998,995,992,992,989,989,987,987,0,0,0,0,0,0,0,0,0,0,0,0,0,0,0,0,0,0,0,0,0,0,0,0,0,0,0,0,0,0,0
0,0,0,0,0,0,0,0,0,0,0,0,0,0,0,0,2090,2078,2078,2078,2065,2065,2065,2065,2065,2065,2065,2065,2065,2053,2053,2053,2053,2040,2028,2028,2028,2028,2028,2028,2028,2028,2028,2028,2016,2016,2016,2016,2005,2005,2005,2005,2005,2005,2005,2005,1993,1993,1993,1993,1981,1981,1970,1970,1970,1970,1970,1970,1970,1970,1970,1959,1959,1959,1959,1959,1936,1936,1936,1936,1936,1936,1936,1936,1936,1936,1926,1926,1915,1915,1915,1915,978,978,1915,1915,978,978,978,1904,1904,1894,1894,1894,1894,1894,1894,981,981,984,987,987,987,989,989,992,989,989,989,989,989,989,989,989,992,992,992,995,992,989,989,987,987,987,987,987,989,995,998,998,995,995,995,995,995,995,995,992,989,989,987,987,987,984,981,978,978,978,981,981,981,998,998,998,995,995,995,998,998,995,995,998,992,989,987,987,987,987,987,987,989,992,995,995,998,995,989,989,989,989,989,987,987,987,987,987,981,981,981,981,984,981,981,981,981,987,987,978,975,975,975,978,978,987,987,987,989,987,984,984,989,989,998,995,987,981,981,978,975,975,975,975,975,975,975,975,975,970,970,973,973,973,975,975,975,975,973,973,973,973,975,975,978,973,973,975,981,981,981,981,984,978,978,981,978,978,981,981,981,975,973,973,973,973,973,973,973,973,970,967,967,967,962,962,964,964,964,964,959,959,959,959,956,956,956,956,1883,1883,1883,1883,0,0,0,0,0,0,0,0,0,0,0,0,856,854,849,847,847,845,843,841,837,835,835,835,835,835,835,835,835,835,837,837,839,839,841,841,843,843,843,845,845,847,845,845,0,0,0,0,0,0,0,0,1632,1632,1632,1624,1624,1609,1609,1601,1601,1601,1594,1586,1586,1579,1579,1579,1572,1564,1557,1557,1550,1550,1550,1543,1543,1543,1536,1529,1529,1523,1516,1516,1516,1509,1509,1503,1503,1496,1489,1483,1477,1477,1470,1470,1470,1464,1464,1464,1458,1452,1452,1445,1439,1439,1439,1439,1433,1427,1421,1421,1415,1415,1415,1410,1410,1404,1398,1398,1392,1392,1387,1387,1381,1376,1376,1370,1370,1370,1370,1365,1354,1354,1354,1349,1349,1343,1338,1333,1333,1333,1328,1328,1322,1317,1317,1312,1312,1307,1307,1307,1302,1302,1297,1292,1292,1288,1288,1283,1278,1278,1273,1273,1273,1268,1268,1268,1268,1264,1259,1255,1255,1250,1250,1245,1245,1236,1236,1236,1232,1232,1227,1227,1223,1219,1219,1219,1214,1210,1206,1206,1206,1202,1202,1197,1197,1197,1189,1185,1185,1181,1177,1177,1177,1173,1169,1169,1165,1165,1165,1161,1157,1157,1153,1149,1149,1149,1145,1141,1138,1138,1134,1134,1134,1134,1130,1130,1126,1123,1123,1123,1119,1115,1115,1112,1112,1108,1105,1105,1101,1101,1097,1097,1094,1094,1090,1090,1087,1087,1084,1080,1080,1080,1077,1073,1073,1070,1070,1067,1063,1063,1060,1060,1057,1057,1054,1054,1050,1047,1047,1047,1044,1041,1041,1041,1038,1038,1038,1034,1031,1031,1025,1025,1025,1022,1022,1019,1016,1016,1016,1013,1013,1010,1010,1007,1004,1004,1004,1001,998,995,995,992,992,992,989,989,989,0,0,0,0,0,0,0,0,0,0,0,0,0,0,0,0,0,0,0,0,0,0,0,0,0,0,0,0,0,0,0
0,0,0,0,0,0,0,0,0,0,0,0,0,0,0,0,2090,2078,2078,2078,2065,2065,2065,2065,2065,2065,2065,2065,2065,2065,2065,2065,2053,2040,2028,2028,2028,2028,2028,2028,2028,2028,2028,2028,2016,2016,2016,2016,2005,2005,2005,2005,2005,2005,2005,2005,1993,1993,1993,1993,1981,1981,1970,1970,1970,1970,1970,1970,1970,1970,1959,1959,1959,1947,1936,1936,1926,1926,1936,1936,1936,1936,1936,1936,1936,967,967,964,964,967,1926,975,975,975,978,978,978,978,978,978,978,1904,1904,978,978,1894,981,981,981,984,987,987,987,987,989,989,984,981,981,989,989,989,989,989,992,989,989,992,989,987,984,984,984,981,981,984,984,984,987,992,989,987,987,989,989,989,989,989,989,987,987,984,984,981,978,975,975,975,973,973,973,967,967,989,989,995,995,989,989,989,989,992,989,987,987,987,984,975,975,978,978,970,970,970,964,964,975,975,987,987,987,987,987,984,984,984,978,975,973,973,978,975,975,973,973,975,978,975,970,967,967,973,973,975,975,975,981,981,973,970,967,967,967,967,967,967,975,975,975,975,975,975,975,975,975,973,973,970,970,970,967,967,967,967,967,967,970,970,973,973,973,975,973,970,970,973,975,975,975,975,984,975,975,975,973,973,975,975,967,967,967,967,967,967,967,967,970,970,970,964,964,964,962,962,964,962,962,959,959,959,956,956,954,954,954,954,1883,1883,1883,1883,0,0,0,0,0,0,0,0,0,0,0,856,856,854,851,849,847,845,843,839,837,835,835,835,835,835,835,835,835,837,837,837,839,839,841,843,843,843,845,845,847,847,845,845,0,0,0,0,0,0,0,0,1632,1632,1632,1624,1624,1609,1609,1601,1601,1601,1594,1594,1586,1579,1579,1579,1572,1564,1564,1557,1557,1550,1550,1550,1543,1543,1536,1536,1529,1523,1523,1516,1516,1509,1509,1509,1503,1503,1496,1489,1483,1477,1470,1470,1470,1464,1464,1464,1458,1452,1452,1445,1445,1445,1439,1439,1433,1427,1427,1421,1421,1415,1415,1410,1410,1404,1404,1398,1392,1392,1387,1387,1381,1381,1376,1376,1370,1370,1370,1365,1354,1354,1354,1349,1349,1343,1338,1333,1333,1333,1328,1328,1322,1322,1317,1317,1312,1312,1307,1307,1302,1302,1297,1297,1292,1288,1288,1288,1283,1278,1278,1273,1273,1273,1268,1268,1268,1264,1259,1255,1255,1250,1250,1250,1245,1241,1236,1236,1232,1232,1227,1227,1227,1223,1219,1219,1214,1210,1206,1206,1206,1202,1202,1197,1197,1197,1197,1189,1185,1185,1181,1181,1181,1177,1173,1169,1169,1165,1165,1165,1157,1157,1153,1153,1149,1149,1145,1141,1141,1138,1138,1138,1134,1134,1134,1130,1126,1126,1123,1123,1119,1119,1115,1115,1112,1108,1105,1105,1105,1101,1097,1097,1094,1094,1090,1090,1087,1087,1084,1080,1080,1080,1077,1073,1073,1070,1070,1067,1063,1063,1063,1060,1060,1057,1054,1054,1054,1050,1047,1047,1047,1044,1041,1041,1038,1038,1038,1034,1031,1028,1025,1025,1025,1022,1022,1019,1016,1016,1016,1013,1013,1010,1010,1007,1007,1004,1004,1001,998,995,995,992,992,992,989,989,989,0,0,0,0,0,0,0,0,0,0,0,0,0,0,0,0,0,0,0,0,0,0,0,0,0,0,0,0,0,0,0
0,0,0,0,0,0,0,0,0,0,0,0,0,0,0,0,2078,2078,2078,2078,2078,2065,2065,2065,2065,2078,2065,2065,2065,2065,2065,2065,2053,2040,2040,2040,2040,2040,2028,2028,2028,2028,2028,2016,2016,2016,2016,2016,2016,2016,2016,2005,2005,2005,2005,2005,2005,2005,1993,1993,1981,1970,1970,1970,1970,1970,1970,1970,1970,1970,1959,1959,1959,1947,1936,1936,1926,1926,1936,1936,1936,1936,1936,1936,967,967,967,964,964,964,964,970,973,975,978,978,975,975,975,975,975,973,973,973,973,975,975,978,981,984,984,984,984,984,984,984,978,978,978,978,978,978,978,978,987,987,989,989,984,984,981,981,981,981,981,981,978,978,978,978,978,978,978,978,978,989,987,987,987,984,984,981,978,975,975,973,970,970,970,970,967,962,962,964,967,964,964,989,975,975,975,981,987,984,981,981,978,975,973,973,970,967,967,967,964,964,964,964,964,987,987,984,978,978,975,975,973,970,967,967,973,975,973,970,970,973,973,975,970,967,967,967,967,964,959,956,956,956,962,956,956,959,962,959,959,959,959,964,967,973,970,970,973,973,973,970,970,967,967,967,964,964,964,962,962,967,967,967,967,970,970,967,967,967,967,967,967,970,970,970,973,973,970,967,967,967,970,970,967,964,964,964,964,962,962,964,964,964,967,964,962,962,962,962,962,959,959,956,956,956,956,954,951,951,951,948,948,948,1883,1883,0,0,0,0,0,0,0,0,0,0,0,856,856,854,851,849,847,845,843,839,837,835,835,835,835,835,835,835,835,837,837,837,839,841,841,843,843,845,845,847,847,847,847,847,847,0,0,0,0,0,0,0,1632,1632,1632,1624,1624,1616,1609,1609,1601,1601,1594,1594,1586,1579,1579,1579,1579,1572,1564,1564,1557,1557,1550,1550,1543,1543,1536,1536,1523,1523,1523,1516,1516,1516,1516,1509,1509,1503,1496,1489,1483,1477,1470,1470,1470,1464,1464,1464,1458,1452,1452,1445,1445,1445,1439,1439,1433,1427,1427,1421,1421,1415,1415,1415,1410,1410,1404,1398,1392,1392,1392,1387,1381,1381,1376,1376,1370,1370,1370,1365,1354,1354,1354,1349,1349,1343,1338,1338,1333,1333,1328,1328,1322,1322,1317,1317,1312,1312,1307,1307,1307,1302,1302,1297,1292,1292,1288,1288,1283,1283,1278,1273,1273,1273,1268,1268,1268,1264,1259,1259,1255,1250,1250,1250,1245,1241,1241,1236,1232,1232,1227,1227,1227,1223,1219,1219,1214,1210,1206,1206,1206,1202,1202,1202,1197,1197,1197,1189,1189,1185,1185,1181,1181,1177,1177,1173,1169,1169,1165,1161,1161,1157,1153,1153,1149,1149,1145,1145,1141,1138,1138,1138,1134,1134,1134,1130,1130,1126,1126,1123,1119,1119,1119,1115,1112,1108,1105,1105,1105,1101,1101,1097,1097,1094,1094,1090,1090,1087,1084,1080,1080,1080,1077,1073,1073,1070,1070,1067,1063,1063,1063,1063,1060,1057,1054,1054,1054,1050,1050,1047,1047,1044,1041,1041,1038,1038,1038,1034,1031,1028,1025,1025,1025,1022,1022,1022,1019,1016,1016,1016,1013,1013,1010,1007,1007,1004,1004,1001,1001,998,995,992,992,992,989,989,989,0,0,0,0,0,0,0,0,0,0,0,0,0,0,0,0,0,0,0,0,0,0,0,0,0,0,0,0,0,0,0
0,0,0,0,0,0,0,0,0,0,0,0,0,0,0,0,2078,2078,2078,2078,2078,2065,2065,2078,2078,2090,2078,2065,2065,2065,2065,2065,2053,2040,2040,2040,2040,2040,2028,2028,2028,2028,2016,2016,2016,2016,2016,2016,2016,2016,2016,2016,2016,2005,2005,2005,2005,1993,1993,1993,1993,1970,1970,1970,1970,1970,1970,1970,1970,967,967,967,1947,1947,1936,1936,1936,1936,1936,1936,1936,964,964,964,967,967,967,964,964,964,964,970,973,973,975,975,973,973,973,973,973,973,973,973,973,970,970,978,975,975,981,981,978,978,978,978,975,975,975,975,975,975,975,975,978,978,978,978,978,978,978,978,978,978,978,975,973,973,970,967,967,970,970,970,970,967,967,967,978,978,975,975,973,973,973,967,967,967,967,967,964,959,959,959,964,962,962,962,962,962,967,967,967,970,973,975,975,967,967,967,967,964,964,962,959,959,956,954,951,948,948,948,975,975,967,967,967,964,964,959,959,973,970,964,959,959,973,973,967,964,964,967,959,959,956,956,956,956,956,956,954,954,954,956,956,956,956,962,962,964,964,964,970,970,967,967,964,956,956,959,959,959,959,962,962,964,964,964,964,967,967,964,964,962,959,959,964,962,962,967,967,964,959,959,962,959,959,962,962,962,962,956,956,954,954,956,956,962,962,962,962,962,959,959,962,956,956,954,954,951,948,948,948,946,943,943,943,943,943,943,0,0,0,0,0,0,0,0,0,0,0,856,856,854,851,851,849,845,843,839,837,837,835,835,835,835,835,835,835,837,837,837,839,841,843,843,845,845,847,847,849,849,847,847,847,0,0,0,0,0,0,0,1632,1632,1632,1632,1624,1624,1609,1609,1601,1601,1601,1594,1594,1586,1579,1579,1579,1572,1572,1564,1564,1557,1550,1550,1543,1543,1543,1536,1523,1523,1523,1516,1516,1516,1516,1509,1509,1503,1496,1489,1483,1477,1470,1470,1470,1464,1464,1464,1458,1458,1452,1445,1445,1439,1439,1439,1433,1433,1427,1421,1421,1421,1415,1415,1415,1410,1404,1398,1392,1392,1392,1387,1387,1381,1381,1376,1376,1370,1370,1365,1359,1354,1354,1354,1349,1349,1343,1343,1338,1333,1333,1328,1322,1322,1317,1317,1312,1312,1312,1307,1307,1307,1302,1302,1297,1288,1288,1288,1283,1283,1278,1278,1273,1273,1268,1268,1268,1264,1264,1259,1255,1255,1250,1250,1250,1241,1241,1236,1232,1232,1232,1227,1227,1223,1219,1219,1214,1210,1210,1206,1206,1202,1202,1202,1197,1197,1197,1189,1189,1185,1185,1181,1181,1177,1177,1173,1169,1169,1165,1161,1161,1157,1153,1153,1149,1149,1149,1145,1141,1138,1138,1138,1138,1134,1134,1130,1130,1126,1126,1123,1123,1119,1119,1115,1112,1108,1105,1105,1105,1101,1101,1097,1097,1094,1094,1090,1090,1087,1084,1080,1080,1080,1077,1077,1073,1073,1070,1067,1067,1063,1063,1063,1060,1057,1054,1054,1054,1054,1050,1050,1050,1047,1044,1041,1038,1038,1038,1034,1031,1028,1025,1025,1025,1022,1022,1019,1019,1016,1016,1016,1013,1013,1010,1010,1007,1004,1001,1001,1001,998,995,992,992,992,989,989,989,0,0,0,0,0,0,0,0,0,0,0,0,0,0,0,0,0,0,0,0,0,0,0,0,0,0,0,0,0,0,0
0,0,0,0,0,0,0,0,0,0,0,0,0,0,0,0,2103,2078,2078,2078,2078,2078,2078,2078,2078,2078,2078,2065,2065,2065,2065,2065,2053,2053,2040,2040,2053,2040,2040,2040,2028,2028,2016,2016,2016,2016,2016,2016,2016,2016,2016,2016,2016,2005,2005,2005,2005,1993,1993,1993,1959,1959,1959,1959,1970,1970,1970,1970,967,964,964,967,967,967,1936,1926,1926,1936,962,962,962,964,964,964,967,967,967,964,964,964,964,967,970,970,973,973,970,970,973,970,970,964,964,970,970,964,964,964,964,964,964,964,967,967,973,973,973,973,973,973,973,973,970,970,973,973,973,973,975,975,975,975,975,975,975,967,967,967,964,964,962,962,962,964,967,967,964,964,964,964,962,962,964,970,970,967,967,967,964,964,962,959,959,959,959,959,959,959,962,962,964,964,964,964,970,967,967,967,964,964,964,964,962,962,956,956,954,948,946,946,946,946,948,951,951,959,962,962,959,956,956,956,951,951,951,951,956,956,959,954,954,954,954,954,954,954,954,954,956,954,951,951,954,954,954,954,954,956,956,959,956,956,959,967,964,962,959,954,954,956,956,956,956,962,962,964,964,962,959,959,959,956,956,956,956,956,956,956,954,951,951,951,951,951,951,954,951,951,948,948,951,946,946,946,946,946,948,951,954,956,956,959,956,956,956,954,954,946,943,943,943,943,943,943,940,940,940,938,938,935,935,935,935,935,0,0,0,0,0,0,858,856,854,854,854,851,849,845,843,839,837,837,837,835,835,835,835,835,837,837,837,839,839,841,843,843,845,847,847,849,849,849,849,849,0,0,0,0,0,0,0,0,1632,1632,1632,1632,1632,1624,1616,1609,1609,1601,1601,1594,1594,1586,1586,1579,1579,1579,1572,1572,1564,1557,1557,1550,1550,1543,1543,1536,1529,1523,1523,1523,1516,1516,1516,1509,1509,1509,1496,1496,1489,1477,1477,1470,1470,1470,1464,1464,1464,1458,1452,1445,1445,1439,1439,1439,1433,1433,1427,1421,1421,1421,1415,1415,1415,1410,1410,1404,1392,1392,1392,1387,1387,1381,1381,1376,1376,1376,1370,1370,1365,1359,1354,1354,1349,1349,1343,1343,1338,1338,1333,1328,1322,1322,1322,1317,1312,1312,1312,1312,1307,1307,1307,1302,1297,1288,1288,1288,1283,1283,1278,1278,1273,1273,1273,1268,1268,1268,1264,1255,1255,1255,1250,1250,1250,1241,1241,1236,1232,1232,1232,1232,1227,1223,1219,1219,1214,1210,1210,1206,1206,1202,1202,1202,1197,1197,1197,1189,1189,1185,1185,1185,1181,1181,1177,1173,1169,1169,1165,1165,1161,1157,1153,1153,1153,1149,1149,1145,1145,1141,1138,1138,1138,1134,1134,1130,1130,1126,1126,1123,1123,1119,1119,1115,1112,1112,1108,1105,1105,1105,1101,1101,1097,1094,1094,1090,1090,1087,1084,1080,1080,1080,1077,1077,1073,1073,1070,1067,1067,1063,1063,1063,1060,1060,1057,1057,1054,1054,1050,1050,1050,1047,1044,1041,1038,1038,1038,1034,1034,1028,1028,1025,1025,1022,1022,1019,1019,1016,1016,1016,1013,1013,1013,1010,1007,1004,1001,1001,1001,998,998,995,992,992,992,989,989,0,0,0,0,0,0,0,0,0,0,0,0,0,0,0,0,0,0,0,0,0,0,0,0,0,0,0,0,0,0,0
0,0,0,0,0,0,0,0,0,0,0,0,0,0,0,0,2090,2078,2078,2090,2078,2078,2078,2078,2078,2078,2078,2065,2065,2065,2065,2065,2053,2053,2053,2053,2053,2053,2040,2040,2040,2040,2028,2016,2016,2016,2016,2016,2016,2016,2016,2016,2016,2005,2005,2005,2005,1993,1993,1947,1947,1959,1959,1959,1959,964,964,964,962,962,962,964,964,959,959,959,956,954,954,956,962,964,964,964,964,964,964,964,964,964,964,967,967,967,967,967,967,967,967,967,967,962,962,964,964,959,959,959,959,956,956,956,959,962,964,964,964,967,970,970,970,967,964,964,964,967,964,964,967,967,970,973,973,973,967,964,964,962,962,959,956,956,956,959,962,962,962,959,959,959,956,956,956,956,964,964,964,964,964,962,962,959,956,956,956,956,956,956,954,954,956,954,951,951,959,959,959,964,962,962,959,959,959,956,954,954,948,946,946,943,943,943,946,948,951,956,959,959,956,954,954,954,948,948,948,946,946,948,951,951,951,951,951,951,951,954,946,946,954,943,943,946,948,951,951,951,951,948,948,954,951,951,959,967,964,943,943,940,940,954,956,956,956,956,959,959,959,959,959,959,954,954,951,951,951,951,951,951,951,948,948,948,948,948,946,946,946,946,943,943,946,943,943,943,943,943,943,943,948,956,956,956,954,951,951,946,946,940,940,940,938,938,938,938,938,938,935,935,933,933,933,930,925,925,925,925,0,0,0,0,858,856,854,854,854,851,849,845,845,839,837,837,837,837,835,835,835,837,837,837,837,839,839,841,843,845,845,847,849,849,851,849,849,849,0,0,0,0,0,0,0,0,1632,1632,1632,1632,1632,1624,1616,1609,1609,1601,1601,1594,1594,1586,1586,1579,1579,1579,1579,1572,1572,1564,1557,1557,1550,1543,1543,1536,1536,1523,1523,1523,1516,1516,1516,1516,1509,1509,1503,1496,1496,1483,1477,1477,1470,1470,1470,1464,1464,1458,1452,1452,1445,1445,1439,1439,1439,1433,1427,1421,1421,1421,1415,1415,1415,1410,1410,1404,1392,1392,1392,1387,1387,1381,1381,1376,1376,1376,1370,1370,1370,1359,1354,1354,1349,1349,1343,1343,1338,1338,1333,1333,1328,1322,1322,1317,1317,1312,1312,1312,1307,1307,1307,1302,1297,1292,1288,1288,1283,1283,1278,1278,1273,1273,1273,1268,1268,1268,1264,1255,1255,1255,1255,1250,1250,1241,1241,1236,1236,1232,1232,1232,1227,1223,1219,1219,1214,1214,1210,1210,1206,1206,1202,1202,1202,1197,1197,1193,1189,1185,1185,1185,1181,1181,1177,1173,1173,1169,1165,1165,1161,1157,1153,1153,1153,1149,1149,1149,1145,1145,1141,1141,1138,1138,1134,1130,1130,1126,1123,1123,1123,1119,1119,1115,1115,1112,1108,1108,1105,1105,1101,1101,1101,1097,1094,1090,1090,1087,1084,1080,1080,1080,1077,1077,1073,1073,1070,1067,1067,1067,1063,1063,1063,1060,1057,1057,1054,1054,1050,1050,1050,1047,1044,1041,1041,1038,1038,1034,1034,1028,1028,1025,1025,1025,1025,1022,1019,1016,1016,1016,1016,1013,1013,1010,1010,1007,1004,1001,1001,1001,998,995,992,992,992,989,989,0,0,0,0,0,0,0,0,0,0,0,0,0,0,0,0,0,0,0,0,0,0,0,0,0,0,0,0,0,0,0
0,0,0,0,0,0,0,0,0,0,0,0,0,0,0,0,2090,2078,2078,2090,2090,2078,2078,2078,2090,2090,2078,2078,2065,2065,2078,2065,2053,2053,2053,2053,2053,2040,2040,2016,2016,2016,2028,2016,2016,2016,2016,2028,2016,2016,2016,2016,2016,2005,2005,948,948,948,948,951,951,951,956,956,956,964,964,964,962,962,962,962,962,956,956,956,954,954,954,956,962,964,964,964,964,964,964,962,962,962,962,964,964,962,962,962,962,962,962,959,959,959,956,956,954,954,954,956,956,954,954,948,948,951,946,946,956,962,962,964,962,962,959,959,954,954,954,954,954,954,954,967,970,964,962,959,959,959,959,956,954,954,954,954,954,956,956,956,954,954,954,954,954,954,956,962,959,959,964,956,956,956,954,954,954,956,954,954,954,954,954,948,946,946,940,940,940,951,948,948,954,951,951,948,943,943,943,940,940,940,940,940,943,948,951,956,956,956,956,946,946,946,943,943,946,943,943,940,940,943,943,943,943,946,946,951,940,935,935,938,938,938,943,943,943,943,943,943,943,943,951,951,935,935,935,938,938,935,935,935,951,940,940,956,956,959,959,946,935,935,951,938,935,935,935,935,935,935,935,940,940,940,943,948,943,943,943,943,938,938,943,940,940,940,940,938,935,935,938,956,956,956,954,951,951,943,940,938,935,935,935,935,935,935,933,933,930,930,930,930,930,923,923,923,923,923,920,920,920,858,858,856,856,854,854,851,849,845,845,841,839,837,837,837,837,835,835,837,837,839,839,839,841,843,843,845,845,847,849,851,851,851,849,849,0,0,0,0,0,0,0,0,1639,1639,1632,1632,1632,1624,1616,1609,1609,1609,1601,1601,1594,1586,1586,1579,1579,1579,1579,1572,1572,1564,1557,1557,1550,1550,1543,1543,1536,1523,1523,1523,1516,1516,1516,1516,1509,1509,1503,1496,1496,1489,1483,1477,1477,1470,1470,1464,1464,1458,1458,1452,1445,1445,1445,1439,1439,1439,1427,1421,1421,1421,1421,1415,1415,1410,1410,1398,1398,1392,1392,1392,1387,1387,1381,1376,1376,1376,1370,1370,1370,1359,1359,1354,1354,1349,1349,1343,1343,1338,1333,1333,1333,1328,1322,1322,1317,1312,1312,1312,1312,1307,1307,1302,1297,1292,1288,1288,1288,1283,1283,1278,1273,1273,1273,1268,1268,1268,1264,1259,1259,1255,1255,1250,1250,1241,1241,1236,1236,1236,1232,1232,1232,1223,1219,1219,1219,1214,1214,1210,1210,1206,1206,1202,1202,1197,1197,1193,1189,1189,1185,1185,1181,1181,1177,1173,1169,1169,1165,1165,1165,1157,1157,1153,1153,1153,1149,1149,1149,1145,1145,1141,1141,1138,1134,1130,1130,1126,1123,1123,1123,1119,1119,1115,1115,1112,1108,1108,1105,1105,1105,1101,1101,1097,1094,1090,1090,1087,1084,1080,1080,1080,1077,1077,1073,1073,1070,1067,1067,1067,1067,1063,1063,1060,1060,1057,1054,1054,1050,1050,1050,1047,1044,1041,1041,1038,1038,1034,1034,1031,1028,1025,1025,1025,1025,1022,1019,1016,1016,1016,1016,1013,1013,1013,1010,1007,1004,1004,1004,1001,998,995,995,992,992,992,992,0,0,0,0,0,0,0,0,0,0,0,0,0,0,0,0,0,0,0,0,0,0,0,0,0,0,0,0,0,0,0
0,0,0,0,0,0,0,0,0,0,0,0,0,0,0,0,2103,2103,2103,2090,2090,2090,2078,2078,2090,2103,2090,2090,2065,2065,2090,2065,2053,2053,2053,2053,2053,2040,2040,2016,2016,2016,2028,2016,2016,2016,2016,2028,2028,2016,2016,946,946,946,946,943,943,943,943,946,943,940,940,951,951,962,962,962,959,959,959,959,959,956,954,954,948,946,946,954,954,956,954,954,954,962,964,962,962,962,962,954,954,946,946,948,948,956,956,956,956,956,954,954,951,951,951,951,946,946,943,943,946,946,946,946,948,946,946,948,948,948,948,954,951,951,954,954,954,951,946,946,964,956,956,954,951,951,951,951,948,948,948,951,951,956,956,956,954,954,951,951,948,948,948,951,946,946,962,954,954,954,954,954,954,954,951,951,948,946,946,943,940,935,930,930,935,935,935,935,935,935,935,943,943,943,940,940,940,938,938,935,935,943,943,954,954,954,951,943,943,943,943,940,940,940,938,938,935,935,935,935,935,935,935,935,935,935,935,935,935,935,935,938,938,938,938,938,943,943,943,933,933,933,933,933,935,933,930,930,948,933,928,918,918,954,954,933,930,930,935,935,935,935,935,935,935,935,935,935,933,933,943,943,943,943,933,933,935,935,935,935,933,933,935,935,928,925,918,918,956,913,913,913,935,935,935,935,935,935,933,933,933,930,930,925,925,928,928,928,928,923,923,923,923,923,920,920,920,920,858,856,856,854,854,851,849,847,845,841,839,837,837,837,837,837,837,837,837,839,839,839,841,843,843,845,847,847,849,851,851,851,849,849,0,0,0,0,0,0,0,0,1639,1639,1639,1632,1632,1624,1616,1616,1609,1609,1601,1601,1594,1594,1586,1579,1579,1579,1572,1572,1572,1564,1564,1557,1550,1550,1550,1543,1543,1536,1523,1523,1523,1516,1516,1516,1509,1509,1503,1496,1496,1489,1489,1483,1477,1477,1470,1470,1464,1464,1458,1452,1445,1445,1445,1439,1439,1439,1433,1427,1427,1421,1421,1415,1415,1410,1410,1398,1398,1398,1392,1392,1392,1387,1381,1381,1376,1376,1376,1370,1370,1365,1359,1354,1354,1349,1349,1349,1343,1338,1338,1333,1333,1328,1322,1322,1317,1317,1312,1312,1312,1307,1307,1302,1302,1292,1292,1288,1288,1288,1283,1278,1273,1273,1273,1273,1268,1268,1264,1264,1259,1255,1255,1250,1250,1245,1241,1236,1236,1236,1232,1232,1232,1223,1223,1219,1219,1214,1214,1210,1210,1206,1206,1202,1202,1197,1197,1193,1193,1189,1189,1185,1181,1181,1177,1173,1169,1169,1169,1165,1165,1161,1157,1153,1153,1153,1149,1149,1149,1145,1145,1141,1141,1138,1134,1134,1130,1126,1126,1123,1123,1123,1119,1119,1115,1115,1112,1108,1105,1105,1105,1101,1101,1097,1094,1090,1090,1087,1087,1084,1080,1080,1080,1077,1077,1073,1073,1070,1067,1067,1067,1067,1063,1063,1060,1060,1054,1054,1050,1050,1050,1047,1044,1041,1041,1038,1038,1038,1034,1034,1028,1028,1025,1025,1025,1022,1019,1019,1016,1016,1016,1013,1013,1013,1010,1007,1004,1004,1004,1001,1001,998,995,992,992,992,992,0,0,0,0,0,0,0,0,0,0,0,0,0,0,0,0,0,0,0,0,0,0,0,0,0,0,0,0,0,0,0
0,0,0,0,0,0,0,0,0,0,0,0,0,0,0,0,2103,2103,2103,2103,2103,2090,2090,2090,2090,2103,2090,2090,2090,2090,2090,2090,2053,2053,2053,2053,2053,935,935,935,935,933,933,933,933,933,2028,2040,2028,2028,2028,946,943,943,943,938,938,938,938,938,938,938,938,938,946,946,940,940,954,951,951,951,948,948,948,946,946,943,943,943,948,948,951,951,951,951,959,959,959,954,946,946,946,943,943,946,946,948,954,954,954,954,951,948,946,946,946,946,943,940,940,938,938,938,940,940,943,946,946,946,946,946,946,943,943,940,940,946,946,943,935,935,930,930,935,938,935,935,943,946,946,943,943,943,951,954,954,954,954,951,946,940,940,943,943,943,938,928,928,948,948,948,948,954,954,951,946,938,938,935,930,930,933,930,928,928,930,930,933,933,933,933,933,933,933,933,933,938,938,935,935,933,933,935,935,935,946,951,943,940,940,938,938,935,935,935,935,935,933,933,930,930,933,933,933,933,935,933,933,933,933,933,933,935,935,935,935,935,920,920,920,915,933,933,930,930,933,930,930,928,925,925,925,918,918,918,920,923,923,923,930,933,933,933,935,933,930,930,933,928,928,915,915,928,928,925,925,933,930,930,930,933,933,933,933,933,925,918,918,918,920,913,913,915,915,925,925,928,930,925,925,928,928,928,925,923,923,925,925,920,920,920,920,920,923,923,920,920,920,920,858,858,856,854,854,851,849,847,845,841,839,837,837,837,837,837,837,837,837,839,841,841,843,843,845,845,847,849,851,851,851,851,849,849,0,0,0,0,0,0,0,0,1639,1639,1639,1639,1632,1624,1624,1616,1616,1609,1609,1601,1601,1594,1586,1586,1579,1579,1572,1572,1572,1564,1564,1557,1550,1550,1550,1543,1543,1536,1529,1523,1523,1516,1516,1516,1509,1509,1503,1496,1496,1489,1489,1483,1477,1477,1470,1470,1470,1464,1458,1458,1452,1445,1445,1439,1439,1439,1433,1427,1427,1421,1421,1421,1415,1415,1410,1404,1398,1398,1392,1392,1392,1387,1381,1381,1376,1376,1376,1376,1370,1365,1365,1359,1354,1349,1349,1349,1343,1343,1338,1333,1333,1328,1322,1322,1317,1317,1312,1312,1312,1307,1307,1307,1302,1292,1292,1288,1288,1288,1283,1278,1278,1278,1273,1273,1273,1268,1264,1264,1259,1255,1255,1250,1250,1245,1241,1236,1236,1236,1232,1232,1232,1223,1223,1219,1219,1214,1214,1214,1210,1206,1206,1202,1202,1197,1197,1193,1193,1189,1189,1185,1185,1181,1177,1173,1173,1169,1169,1165,1165,1161,1157,1157,1153,1153,1149,1149,1149,1149,1145,1145,1138,1138,1138,1134,1130,1126,1126,1123,1123,1123,1119,1119,1119,1115,1112,1108,1105,1105,1101,1097,1097,1094,1094,1090,1090,1087,1087,1084,1080,1080,1080,1077,1077,1077,1073,1070,1070,1067,1067,1067,1063,1063,1060,1060,1054,1054,1050,1050,1050,1047,1044,1041,1041,1038,1038,1038,1034,1034,1028,1028,1028,1025,1025,1022,1019,1019,1016,1016,1016,1016,1013,1013,1010,1007,1004,1004,1004,1004,1001,998,998,995,995,992,992,0,0,0,0,0,0,0,0,0,0,0,0,0,0,0,0,0,0,0,0,0,0,0,0,0,0,0,0,0,0,0
0,0,0,0,0,0,0,0,0,0,0,0,0,0,0,0,2103,2103,2103,2103,2103,2090,2090,2090,2090,2103,2090,2090,2103,2103,0,0,0,0,0,0,2053,935,935,933,933,930,930,930,930,930,930,930,930,935,935,935,935,935,933,933,935,938,938,938,938,935,935,938,940,940,928,928,935,940,938,938,943,943,946,943,943,938,938,940,940,946,946,946,946,946,946,943,943,935,935,935,935,940,940,943,943,938,935,935,948,948,943,943,943,940,938,938,935,935,933,933,928,928,925,925,925,940,940,940,940,940,940,938,938,935,928,925,925,935,930,930,928,928,935,935,933,933,938,938,938,938,935,935,928,928,928,928,954,946,935,933,933,933,933,935,930,928,925,925,938,940,938,938,956,940,938,935,933,930,923,923,923,923,923,920,920,928,928,928,930,930,928,928,928,928,928,930,930,933,933,933,933,933,933,935,946,951,940,935,935,935,933,933,933,930,930,933,928,928,928,928,930,928,925,925,933,930,930,930,930,930,933,933,933,933,923,918,918,913,913,915,933,933,930,930,933,930,928,925,918,918,918,915,915,915,915,915,920,920,920,923,925,925,930,928,925,920,920,918,915,915,915,923,923,923,923,925,925,925,928,928,928,928,928,928,925,915,915,915,913,913,915,913,913,923,925,925,928,925,925,925,925,925,923,923,923,923,915,915,915,918,918,920,920,920,918,918,915,915,858,858,856,856,854,851,849,847,845,841,839,837,837,837,837,837,837,839,839,841,841,843,843,845,845,847,849,851,851,851,854,851,851,851,0,0,0,0,0,0,0,0,1647,1639,1639,1639,1632,1624,1624,1616,1616,1616,1609,1609,1601,1594,1594,1586,1586,1579,1572,1572,1572,1564,1564,1557,1550,1550,1550,1543,1543,1543,1536,1523,1523,1516,1516,1516,1509,1509,1503,1496,1496,1489,1489,1483,1477,1477,1470,1470,1470,1464,1464,1458,1452,1452,1445,1445,1439,1439,1433,1427,1427,1421,1421,1421,1415,1415,1410,1404,1398,1398,1392,1392,1392,1387,1387,1381,1376,1376,1376,1376,1370,1370,1365,1359,1354,1349,1349,1349,1343,1343,1338,1338,1333,1333,1322,1322,1317,1317,1312,1312,1312,1307,1307,1307,1302,1292,1292,1292,1288,1288,1283,1283,1278,1278,1273,1273,1273,1268,1264,1264,1259,1255,1255,1250,1250,1245,1241,1241,1236,1236,1236,1232,1227,1227,1223,1219,1219,1214,1214,1214,1210,1210,1206,1202,1202,1197,1197,1193,1193,1193,1189,1185,1185,1181,1177,1173,1173,1169,1169,1165,1165,1165,1161,1157,1153,1153,1149,1149,1149,1149,1145,1145,1138,1138,1138,1134,1130,1126,1126,1123,1123,1123,1119,1119,1119,1115,1115,1112,1105,1105,1101,1097,1097,1094,1094,1090,1090,1090,1087,1084,1084,1080,1080,1080,1077,1077,1073,1073,1070,1067,1067,1067,1063,1063,1060,1060,1057,1054,1050,1050,1050,1050,1044,1044,1041,1041,1038,1038,1038,1034,1034,1028,1028,1025,1025,1025,1022,1019,1019,1019,1016,1016,1013,1013,1010,1007,1004,1004,1004,1004,1001,998,998,995,995,992,992,0,0,0,0,0,0,0,0,0,0,0,0,0,0,0,0,0,0,0,0,0,0,0,0,0,0,0,0,0,0,0
0,0,0,0,0,0,0,0,0,0,0,0,0,0,0,0,2103,2103,2103,2103,2103,2090,2078,2078,2078,2090,2090,2090,2103,0,0,0,0,0,0,0,2053,935,935,933,933,930,930,930,930,930,930,930,930,933,933,933,930,930,928,928,930,933,935,935,935,935,935,935,935,930,928,928,930,935,933,930,930,930,943,940,940,935,935,935,930,928,928,930,933,930,928,928,930,933,933,933,933,935,940,940,940,938,935,935,943,940,940,938,938,935,935,933,930,930,928,928,925,925,925,925,925,925,925,925,933,933,930,930,933,928,925,923,923,923,923,923,923,925,933,933,933,933,938,935,935,928,925,925,925,925,925,925,925,925,930,928,928,925,925,928,928,923,923,925,935,930,928,918,918,933,933,930,928,925,918,918,920,920,918,918,918,920,923,923,925,925,925,925,923,923,923,923,923,925,923,915,915,923,915,910,910,913,915,928,928,930,930,928,925,925,928,930,925,925,923,923,923,925,925,925,930,928,928,928,925,920,908,908,920,920,918,915,915,913,913,913,915,915,918,918,933,930,923,920,918,915,915,915,913,913,913,913,915,915,915,920,920,918,918,923,920,920,920,918,915,913,908,908,918,918,918,918,923,925,925,925,925,925,925,925,915,913,910,910,910,910,913,910,910,913,920,920,915,913,913,920,923,923,920,920,923,913,913,913,913,913,915,915,915,915,915,913,913,910,910,860,858,856,856,851,849,847,845,841,839,837,837,837,837,839,839,839,841,841,843,843,843,845,845,847,849,851,851,851,854,854,851,851,0,0,0,0,0,0,0,0,1647,1639,1639,1639,1639,1632,1624,1624,1616,1616,1609,1609,1601,1601,1594,1594,1586,1579,1579,1572,1572,1564,1564,1564,1550,1550,1550,1543,1543,1543,1536,1529,1523,1523,1516,1516,1516,1509,1503,1496,1496,1489,1489,1483,1477,1477,1470,1470,1470,1464,1464,1458,1452,1452,1445,1445,1439,1439,1433,1427,1427,1421,1421,1421,1415,1415,1410,1404,1404,1398,1392,1392,1392,1387,1387,1381,1381,1376,1376,1376,1370,1370,1365,1359,1354,1349,1349,1349,1343,1343,1338,1338,1333,1333,1328,1322,1322,1317,1312,1312,1312,1312,1307,1307,1302,1297,1292,1292,1292,1288,1288,1283,1283,1278,1278,1273,1273,1268,1268,1268,1264,1259,1255,1255,1250,1245,1245,1241,1236,1236,1236,1232,1227,1227,1223,1219,1219,1214,1214,1214,1210,1210,1206,1202,1202,1202,1197,1193,1193,1193,1189,1185,1185,1181,1177,1173,1173,1169,1169,1169,1165,1165,1161,1161,1157,1153,1153,1153,1149,1149,1149,1145,1141,1138,1138,1134,1130,1126,1126,1123,1123,1123,1119,1119,1119,1119,1115,1108,1108,1105,1101,1097,1097,1094,1090,1090,1090,1090,1087,1084,1084,1084,1080,1080,1077,1077,1077,1073,1073,1070,1067,1067,1063,1063,1060,1060,1057,1054,1050,1050,1050,1047,1047,1044,1041,1041,1038,1038,1038,1034,1034,1028,1028,1028,1025,1025,1022,1022,1019,1019,1016,1016,1013,1013,1010,1007,1007,1004,1004,1004,1001,1001,998,998,995,995,995,0,0,0,0,0,0,0,0,0,0,0,0,0,0,0,0,0,0,0,0,0,0,0,0,0,0,0,0,0,0,0
0,0,0,0,0,0,0,0,0,0,0,0,0,0,0,0,2103,2103,2103,2103,2103,2103,2065,2065,2065,2090,2090,2090,0,0,0,0,0,0,0,0,0,933,933,933,930,930,930,928,928,928,925,925,925,928,928,928,925,925,925,925,925,930,930,933,933,933,933,933,928,928,923,923,925,928,925,925,925,925,925,928,925,925,928,928,928,925,925,928,930,928,925,925,928,928,925,925,928,928,933,935,938,935,933,933,935,935,935,930,930,930,930,928,925,925,925,925,923,920,920,923,923,923,923,925,925,925,925,925,925,925,923,920,918,918,918,920,920,920,920,925,930,930,933,930,928,928,925,925,925,925,923,923,920,920,925,923,923,923,920,920,923,918,915,915,915,915,915,915,910,910,918,920,923,920,915,915,918,918,915,915,915,915,918,918,920,918,918,923,920,918,918,915,915,915,913,910,910,910,908,906,906,906,906,906,928,930,925,923,923,920,920,920,918,918,918,915,915,918,918,920,923,923,923,920,918,910,908,908,908,913,908,908,913,910,910,913,913,915,918,918,928,925,918,915,915,913,913,913,910,910,908,908,910,910,906,906,908,906,906,906,910,903,903,903,913,910,908,908,910,913,913,913,908,908,908,925,925,906,906,918,915,913,910,910,910,910,913,908,906,901,901,906,906,908,908,920,923,918,913,913,913,910,910,910,910,910,908,908,908,910,910,908,903,903,860,860,858,858,856,854,849,847,845,841,839,837,837,837,837,839,839,841,841,843,843,845,845,845,845,847,849,851,851,854,854,854,851,851,854,0,0,0,0,0,0,0,1647,1639,1639,1639,1639,1632,1632,1624,1624,1616,1609,1609,1601,1601,1601,1594,1594,1579,1579,1572,1572,1564,1564,1557,1550,1550,1550,1543,1543,1543,1536,1529,1523,1523,1516,1516,1516,1509,1503,1496,1496,1489,1489,1483,1483,1483,1477,1477,1470,1470,1464,1464,1458,1452,1445,1445,1439,1439,1433,1427,1427,1421,1421,1421,1415,1415,1410,1404,1404,1398,1392,1392,1392,1387,1387,1381,1381,1376,1376,1376,1370,1370,1365,1359,1354,1354,1349,1349,1343,1343,1338,1338,1333,1333,1328,1322,1322,1317,1312,1312,1312,1312,1307,1307,1302,1297,1292,1292,1292,1288,1288,1288,1283,1278,1278,1273,1273,1268,1268,1268,1264,1259,1255,1255,1250,1250,1245,1245,1241,1236,1236,1232,1232,1227,1223,1223,1219,1219,1219,1214,1214,1210,1210,1206,1202,1202,1197,1197,1193,1193,1189,1185,1185,1181,1177,1177,1173,1173,1169,1169,1169,1165,1165,1161,1157,1153,1153,1153,1149,1149,1149,1145,1141,1138,1138,1134,1130,1130,1126,1123,1123,1123,1119,1119,1119,1115,1115,1108,1105,1105,1101,1097,1097,1094,1090,1090,1090,1090,1087,1084,1084,1084,1080,1080,1077,1077,1077,1073,1073,1070,1070,1067,1067,1063,1063,1060,1057,1054,1054,1050,1050,1047,1047,1044,1041,1041,1041,1038,1038,1038,1034,1028,1028,1028,1025,1025,1022,1022,1019,1019,1016,1016,1013,1013,1010,1007,1007,1004,1004,1004,1001,1001,1001,998,998,995,995,0,0,0,0,0,0,0,0,0,0,0,0,0,0,0,0,0,0,0,0,0,0,0,0,0,0,0,0,0,0,0
0,0,0,0,0,0,0,0,0,0,0,0,0,0,0,2103,2103,2103,2103,2103,2103,2103,2065,2065,2065,0,0,0,0,0,0,0,0,0,0,0,0,933,930,930,930,928,928,925,925,923,923,923,923,923,925,925,925,925,923,923,925,925,928,930,930,930,925,925,923,920,920,920,920,923,923,923,920,920,920,923,923,923,923,923,923,923,923,923,923,923,923,923,923,923,923,920,920,923,925,928,933,930,930,930,930,930,928,925,925,928,925,925,923,920,920,920,920,920,920,920,920,920,923,923,923,925,923,923,918,918,918,915,915,915,918,918,918,918,915,915,913,913,930,928,925,925,923,920,920,923,920,918,915,915,918,920,920,918,918,920,920,918,915,913,913,913,913,913,910,910,910,913,913,913,915,915,915,915,913,913,910,910,913,913,915,915,915,918,918,915,915,913,913,913,906,906,908,908,906,903,903,903,903,901,901,908,908,920,918,915,915,915,915,913,913,910,910,910,910,913,913,915,908,908,906,906,906,906,908,913,908,908,908,908,908,910,910,910,928,928,928,923,915,915,913,910,910,910,908,908,906,906,906,906,906,903,903,898,898,901,898,898,901,898,898,898,896,896,903,906,913,913,908,908,908,901,901,898,898,915,915,910,908,903,903,908,910,903,898,896,896,896,894,889,889,889,887,887,913,889,889,903,903,906,903,903,906,903,903,903,903,901,898,898,860,860,858,858,856,854,849,847,845,841,841,839,839,839,839,839,839,841,843,843,843,845,845,845,847,849,849,851,851,854,854,854,854,854,854,0,0,0,0,0,0,1655,1647,1639,1639,1639,1639,1632,1632,1624,1624,1616,1609,1609,1601,1601,1601,1594,1594,1586,1579,1572,1572,1572,1564,1557,1550,1550,1550,1550,1543,1543,1536,1529,1523,1523,1516,1516,1516,1509,1503,1503,1496,1489,1489,1489,1483,1483,1483,1477,1470,1470,1464,1464,1458,1458,1452,1445,1445,1439,1433,1433,1427,1427,1421,1421,1421,1415,1410,1410,1404,1398,1398,1392,1392,1387,1387,1387,1381,1381,1376,1376,1370,1370,1370,1359,1359,1354,1349,1349,1349,1343,1343,1338,1333,1333,1328,1328,1322,1317,1317,1312,1312,1312,1307,1307,1302,1302,1297,1292,1292,1292,1288,1288,1283,1283,1278,1273,1273,1273,1268,1268,1264,1259,1259,1255,1255,1250,1250,1245,1241,1241,1236,1232,1232,1227,1227,1223,1219,1219,1219,1219,1214,1214,1210,1206,1202,1202,1197,1197,1193,1193,1189,1185,1185,1181,1177,1177,1177,1173,1169,1169,1169,1169,1165,1161,1161,1157,1153,1153,1153,1149,1149,1145,1141,1138,1138,1138,1134,1130,1126,1126,1123,1123,1123,1119,1119,1115,1115,1108,1105,1105,1101,1097,1097,1094,1094,1090,1090,1090,1090,1087,1087,1084,1080,1080,1077,1077,1077,1073,1073,1070,1070,1067,1067,1063,1063,1060,1057,1054,1054,1050,1050,1050,1047,1044,1044,1041,1041,1038,1038,1038,1038,1031,1031,1028,1028,1025,1025,1022,1022,1019,1019,1016,1016,1013,1010,1007,1007,1004,1004,1004,1001,1001,1001,1001,998,995,995,0,0,0,0,0,0,0,0,0,0,0,0,0,0,0,0,0,0,0,0,0,0,0,0,0,0,0,0,0,0,0
0,0,0,0,0,0,0,0,0,0,0,0,0,0,0,2103,2103,2103,2103,2103,2103,2103,0,0,0,0,0,0,0,0,0,0,0,0,0,0,0,933,925,925,923,923,923,920,918,918,915,915,915,920,923,923,923,923,923,923,923,923,925,925,915,913,913,913,915,915,915,915,915,915,915,918,918,915,915,915,918,918,918,918,920,918,915,915,923,920,920,920,920,920,920,915,915,920,920,920,920,930,930,928,925,925,925,923,923,923,923,923,918,918,918,918,918,918,918,915,915,915,920,918,918,918,918,918,915,915,915,915,915,915,915,915,915,913,913,910,908,903,903,928,925,913,913,915,915,918,915,915,913,913,913,913,913,913,913,918,920,915,910,910,910,910,910,910,908,908,908,908,908,908,913,913,913,915,913,910,908,908,910,910,910,910,910,913,915,913,910,910,906,906,906,906,906,906,903,898,898,903,901,898,898,898,898,901,913,913,913,915,910,908,908,908,903,903,903,906,901,901,903,903,903,906,903,903,903,901,901,901,903,903,903,903,906,906,906,887,923,923,913,913,910,906,906,908,906,903,901,901,901,901,901,898,898,896,896,896,896,896,896,896,896,896,894,894,894,891,891,894,894,894,894,891,891,891,891,896,896,896,903,896,896,896,896,896,896,891,891,891,889,887,887,887,887,887,887,887,887,887,896,901,898,898,901,901,898,896,896,889,889,898,860,860,860,858,856,854,851,847,845,843,841,841,839,839,839,841,841,841,843,843,845,845,845,847,847,849,851,851,851,854,854,854,854,856,0,0,0,0,0,0,0,1655,1655,1647,1647,1647,1639,1632,1632,1624,1624,1616,1609,1609,1609,1601,1601,1601,1601,1586,1579,1579,1572,1572,1564,1557,1550,1550,1550,1550,1543,1543,1536,1529,1523,1523,1516,1516,1516,1516,1509,1503,1496,1489,1489,1489,1483,1483,1483,1477,1477,1470,1470,1464,1464,1458,1452,1445,1445,1439,1439,1433,1433,1427,1421,1421,1421,1415,1415,1410,1410,1404,1398,1392,1392,1387,1387,1387,1381,1381,1376,1376,1370,1370,1370,1359,1359,1354,1354,1349,1349,1343,1343,1338,1333,1333,1328,1328,1328,1322,1317,1312,1312,1312,1307,1307,1307,1302,1302,1297,1292,1292,1288,1288,1288,1283,1278,1278,1273,1273,1268,1268,1264,1259,1259,1255,1255,1255,1250,1245,1245,1241,1236,1232,1232,1227,1227,1223,1219,1219,1219,1219,1214,1214,1210,1206,1202,1202,1197,1197,1193,1193,1189,1185,1185,1181,1181,1177,1177,1177,1173,1169,1169,1169,1165,1165,1161,1157,1153,1153,1153,1149,1149,1145,1145,1141,1138,1138,1134,1134,1130,1126,1126,1123,1123,1119,1119,1119,1112,1108,1108,1105,1105,1101,1097,1094,1094,1094,1090,1090,1090,1090,1087,1087,1084,1080,1080,1077,1077,1077,1073,1073,1070,1067,1067,1063,1063,1060,1057,1054,1054,1050,1050,1050,1047,1044,1044,1041,1041,1041,1038,1038,1038,1031,1031,1028,1028,1028,1025,1022,1022,1022,1019,1016,1016,1010,1007,1007,1007,1004,1004,1004,1004,1001,1001,1001,998,995,995,0,0,0,0,0,0,0,0,0,0,0,0,0,0,0,0,0,0,0,0,0,0,0,0,0,0,0,0,0,0,0
0,0,0,0,0,0,0,0,0,0,0,0,0,0,0,0,2116,2116,2116,2116,2116,0,0,0,0,0,0,0,0,0,0,0,0,0,0,0,0,0,920,920,918,915,915,915,913,913,915,915,915,918,920,920,920,920,920,920,915,915,915,910,908,908,908,908,910,913,913,913,913,913,915,915,913,913,910,910,910,910,908,908,908,910,908,908,908,910,910,915,915,915,915,913,908,908,910,906,906,906,906,915,915,923,923,920,920,920,920,920,915,913,913,913,913,915,915,913,913,913,913,913,913,913,913,915,913,913,913,913,913,913,913,908,903,903,903,903,901,901,898,898,898,901,901,908,908,910,913,910,906,906,906,906,906,908,908,913,915,913,910,910,908,908,908,908,906,906,906,906,906,906,908,908,910,910,908,908,906,906,906,906,903,903,896,896,915,913,910,898,898,898,903,903,903,903,901,898,898,901,901,898,898,896,896,894,889,889,889,896,896,896,896,896,898,896,896,896,896,896,896,898,896,896,896,896,896,894,894,894,896,898,896,896,906,906,906,887,887,887,887,880,880,887,887,908,903,901,898,898,898,898,898,898,896,896,894,894,894,894,891,891,891,891,891,891,889,889,887,887,887,887,887,889,889,889,889,889,889,889,889,894,891,889,889,891,891,889,889,887,887,887,887,885,885,885,885,885,885,887,891,891,896,896,896,891,891,891,887,885,878,873,860,860,860,858,858,854,851,847,847,843,841,841,841,841,841,841,843,843,843,845,845,845,845,847,847,849,851,851,851,854,854,856,856,856,858,0,0,0,0,0,0,1655,1655,1647,1647,1639,1639,1632,1632,1624,1624,1616,1609,1609,1609,1601,1601,1601,1594,1586,1586,1579,1572,1572,1564,1564,1557,1557,1550,1550,1543,1543,1536,1529,1529,1523,1523,1516,1516,1516,1509,1509,1503,1496,1489,1489,1489,1483,1483,1483,1477,1470,1470,1464,1464,1458,1452,1445,1445,1439,1439,1433,1433,1427,1421,1421,1421,1415,1415,1410,1410,1404,1398,1392,1392,1387,1387,1387,1381,1381,1376,1376,1370,1370,1370,1359,1359,1354,1354,1349,1349,1349,1343,1338,1333,1333,1328,1328,1328,1322,1317,1317,1312,1312,1312,1307,1307,1307,1302,1297,1292,1292,1292,1288,1288,1283,1283,1278,1273,1273,1268,1268,1264,1259,1259,1255,1255,1255,1250,1250,1250,1245,1236,1236,1232,1227,1227,1223,1219,1219,1219,1219,1214,1214,1210,1206,1202,1202,1197,1197,1197,1193,1189,1189,1185,1185,1181,1181,1181,1177,1177,1169,1169,1169,1165,1165,1161,1157,1157,1153,1153,1153,1149,1149,1145,1141,1138,1138,1138,1134,1130,1126,1126,1123,1123,1119,1119,1119,1112,1112,1108,1108,1105,1101,1097,1094,1094,1094,1094,1090,1090,1090,1087,1087,1084,1080,1080,1080,1077,1077,1077,1073,1073,1070,1067,1063,1063,1060,1057,1054,1054,1050,1050,1050,1050,1047,1044,1044,1041,1041,1041,1038,1034,1031,1031,1028,1028,1028,1025,1025,1025,1022,1019,1016,1016,1010,1007,1007,1007,1004,1004,1004,1004,1001,1001,1001,998,998,998,0,0,0,0,0,0,0,0,0,0,0,0,0,0,0,0,0,0,0,0,0,0,0,0,0,0,0,0,0,0,0
0,0,0,0,0,0,0,0,0,0,0,0,0,0,0,0,2143,2116,2116,2116,2116,2143,0,0,0,0,0,0,0,0,0,0,0,0,0,0,0,0,920,915,913,910,910,908,908,908,910,913,913,915,915,918,920,918,915,913,910,906,903,903,906,906,906,906,906,910,910,910,910,910,910,910,910,908,906,906,906,906,906,906,906,908,908,908,908,908,906,903,898,898,913,903,903,903,906,901,901,901,903,903,898,887,887,920,906,898,898,915,913,908,908,906,906,910,910,910,908,908,910,908,908,908,910,910,910,910,910,910,910,903,898,898,898,896,896,901,901,901,898,898,898,901,901,901,898,898,901,896,896,901,898,898,901,903,903,903,903,903,903,901,901,901,901,901,903,894,894,896,896,896,896,896,898,906,906,903,903,903,903,901,898,896,891,889,889,889,889,889,896,894,894,896,898,898,898,896,896,898,898,894,894,891,889,889,887,887,887,887,887,889,889,894,891,891,889,889,889,889,889,891,894,891,887,887,887,887,887,887,887,891,894,894,894,896,896,891,885,878,878,878,878,878,878,878,885,901,894,894,896,898,896,896,896,894,891,889,885,885,885,887,887,889,889,889,889,889,887,887,887,885,885,885,885,885,885,889,887,887,887,887,887,887,887,887,887,887,887,885,885,882,882,885,882,882,885,885,885,885,887,887,894,894,894,887,887,887,882,878,873,862,862,860,860,858,856,854,851,847,847,845,843,841,841,841,841,843,843,843,843,845,847,847,847,849,849,849,851,851,854,854,856,856,856,858,858,0,0,0,0,0,0,1663,1655,1647,1647,1639,1639,1632,1632,1624,1624,1616,1609,1609,1609,1609,1601,1601,1594,1594,1586,1579,1579,1572,1572,1564,1564,1564,1557,1550,1550,1543,1536,1529,1529,1523,1523,1516,1516,1516,1509,1509,1503,1496,1489,1489,1489,1489,1483,1483,1477,1470,1470,1470,1464,1464,1452,1445,1445,1445,1439,1439,1433,1427,1421,1421,1421,1415,1415,1410,1410,1404,1398,1392,1392,1387,1387,1387,1381,1381,1376,1376,1370,1370,1370,1365,1359,1354,1354,1354,1349,1349,1343,1338,1338,1333,1333,1328,1328,1328,1322,1317,1317,1312,1312,1312,1307,1307,1302,1297,1297,1292,1292,1292,1288,1288,1283,1278,1278,1273,1268,1268,1264,1264,1259,1259,1255,1255,1255,1250,1250,1245,1241,1236,1232,1227,1227,1223,1223,1219,1219,1219,1219,1214,1214,1206,1206,1202,1197,1197,1197,1193,1189,1189,1185,1185,1181,1181,1181,1177,1177,1169,1169,1169,1169,1165,1165,1161,1157,1153,1153,1153,1149,1149,1145,1141,1141,1138,1138,1134,1130,1126,1126,1123,1123,1123,1119,1119,1115,1115,1112,1108,1108,1105,1101,1097,1094,1094,1094,1090,1090,1090,1087,1087,1084,1080,1080,1080,1077,1077,1077,1077,1073,1070,1067,1063,1063,1060,1057,1057,1054,1054,1050,1050,1050,1047,1047,1044,1041,1041,1041,1038,1034,1034,1031,1028,1028,1028,1025,1025,1025,1022,1019,1019,1016,1016,1010,1010,1010,1007,1004,1004,1004,1004,1001,1001,998,998,998,0,0,0,0,0,0,0,0,0,0,0,0,0,0,0,0,0,0,0,0,0,0,0,0,0,0,0,0,0,0,0
