0,0,0,0,0,0,0,0,1255,1255,1255,1255,1250,1250,1250,1250,1250,1255,1255,1255,1255,1255,1255,1255,1255,1255,1255,1250,1250,1255,1250,1250,1250,1250,1250,1250,1250,1245,1245,1245,1245,1245,1250,1250,1250,1255,1255,1255,1255,1255,1255,1255,1250,1250,1250,1245,1245,1245,1245,1245,1245,1250,1250,1250,1250,1245,1245,1245,1245,1250,1250,1250,1250,1245,1245,1245,984,984,981,978,975,970,967,967,964,964,964,964,964,964,964,964,967,967,967,970,973,973,975,978,981,987,989,992,995,998,998,998,1001,1001,1001,1001,1004,1007,1010,1010,1013,1013,1016,1016,1016,1019,1022,1025,1025,1028,1028,1031,1034,1034,1034,1034,1219,1219,1227,1227,1232,1236,1236,1236,1236,1236,1236,1241,1241,1241,1241,1236,1236,1236,1236,1236,1236,1236,1236,1232,1232,1232,1232,1232,1232,1232,1232,1232,1232,1232,1232,1227,1227,1232,1232,1232,1232,1232,1232,1232,1232,1232,1232,1232,1232,1232,1232,1232,1232,1232,1232,1232,1232,1227,1227,1227,1223,1223,1223,1223,1223,0,0,0,0,0,0,0,0,0,0,722,722,720,720,719,717,716,716,714,713,711,710,708,708,708,707,707,708,708,708,710,711,714,714,716,717,720,722,723,727,728,728,728,728,728,730,730,0,0,1013,1013,1013,1013,1010,1010,1010,1007,1007,1004,1001,1001,998,998,995,992,992,989,989,989,987,987,987,984,984,984,981,981,981,981,978,978,978,978,975,975,975,978,978,975,975,975,1232,1232,1227,1227,1227,1227,1227,1223,1219,1214,1214,1214,1214,1210,1210,1210,1210,1210,1210,1210,1210,1210,1210,967,970,970,970,970,970,970,970,970,970,970,970,973,973,975,978,978,981,981,984,989,995,998,1001,1001,1004,1004,1004,1007,1013,1013,1202,1206,1206,1206,1206,1206,1206,1206,1119,1119,1119,1119,1119,1115,1112,1108,1108,1108,1105,1105,1105,1108,1108,1112,1115,1115,1115,1115,1197,1197,1197,1197,1197,1197,1197,1197,1197,1197,1197,1197,1197,1197,1197,1197,1197,1193,1193,1197,1197,1197,1197,1202,1202,1197,1197,1197,1197,1197,1197,1197,1197,1197,1197,1197,1193,1193,1189,1189,1193,1193,1193,1193,1189,1189,1193,1189,1189,1189,1189,1189,1189,1189,1189,1189,1189,1189,1193,1189,1189,1193,1193,1193,1193,1189,1189,1189,1185,1185,1185,1185,1185,1185,1185,1185,1185,1185,1185,1185,1185,1185,1185,1185,1185,1185,1185,1185,1185,1185,1185,1185,1185,1185,1185,1185,1185,1185,1185,1185,1185,1185,1185,1185,1185,1185,1181,1181,1181,1181,1181,1177,1177,1177,1177,1177,1177,1177,1177,1177,1177,1173,1173,1177,1177,1177,1177,1177,1177,1177,1177,1173,1173,1173,1173,1173,1173,1173,1173,1173,1173,1173,1173,1173,1169,1169,1169,1169,1169,1169,1173,1173,1173,1169,1169,1169,1169,1169,1169,1169,1169,1169,1169,1173,1173,1173,1169,1169,1169,1169,1169,1165,1165,1165,1165,1165,1165,1165,1165,1165,1165,1165,1165,981,981,981,981,981,981,981,978,938,938,938,938,938,938,938,938,938,938,938,938,938,938,940,938,938,938,940,943,943,943,946,946,946,946,948,948,948,951,956,967,967,970,973,970,970,967,967,964,962,959,959,959,959,0,0,0,0,0,0,0,0,0,0,0,0,0,0,0,0,0,0,0,0,0,0,0,0,0,0,0,0,0,0,0,0,0,0
0,0,0,0,0,0,0,0,1250,1250,1250,1250,1250,1250,1245,1245,1245,1250,1250,1250,1250,1250,1250,1250,1250,1250,1250,1250,1250,1250,1245,1245,1250,1245,1245,1245,1245,1245,1245,1245,1245,1245,1245,1250,1250,1250,1250,1250,1250,1255,1255,1255,1250,1250,1245,1245,1241,1241,1241,1241,1245,1245,1245,1245,1245,1245,1245,1245,1245,1245,1245,1245,1245,1245,1245,1245,984,984,981,981,978,973,970,967,967,967,967,964,964,964,964,967,967,967,970,973,973,975,975,978,981,984,989,992,995,998,998,1001,1001,1001,1001,1004,1007,1010,1010,1010,1013,1013,1016,1016,1016,1019,1022,1025,1025,1028,1028,1034,1214,1214,1214,1219,1219,1219,1227,1227,1227,1227,1227,1227,1227,1232,1232,1236,1236,1236,1236,1232,1232,1232,1232,1232,1232,1232,1232,1232,1232,1232,1232,1232,1232,1232,1232,1232,1227,1227,1227,1227,1227,1227,1227,1227,1227,1227,1227,1227,1227,1227,1227,1227,1227,1227,1227,1227,1227,1227,1227,1227,1227,1227,1227,1227,1223,1223,1223,1223,1223,1223,0,0,0,0,0,0,0,0,0,722,722,722,722,720,717,717,716,714,713,711,710,710,708,708,708,708,708,708,710,711,713,714,716,716,719,720,722,725,727,728,728,728,728,730,730,0,0,0,1013,1013,1013,1013,1010,1010,1010,1007,1007,1004,1001,1001,998,998,995,995,992,989,989,989,987,987,984,984,981,981,981,978,978,978,978,975,975,975,975,975,975,975,975,975,973,973,970,970,967,967,967,967,970,975,975,975,1214,1214,1210,1206,1206,1206,1206,1206,1206,1206,1210,1210,962,967,967,964,964,967,967,967,967,967,967,970,970,970,973,975,978,978,981,981,987,992,995,998,1001,1001,1001,1001,1001,1007,1202,1202,1202,1202,1202,1202,1202,1202,1202,1202,1119,1119,1123,1123,1119,1115,1115,1112,1108,1108,1108,1108,1108,1108,1108,1112,1115,1119,1119,1119,1119,1197,1197,1197,1197,1197,1197,1197,1197,1197,1193,1193,1193,1193,1193,1193,1193,1193,1193,1193,1193,1193,1193,1193,1193,1193,1193,1193,1193,1193,1193,1193,1193,1193,1189,1189,1189,1189,1189,1189,1189,1189,1189,1189,1189,1189,1189,1189,1185,1185,1185,1185,1185,1185,1185,1185,1185,1185,1185,1185,1185,1185,1185,1189,1189,1189,1185,1185,1185,1185,1181,1181,1181,1181,1181,1181,1181,1181,1181,1181,1181,1181,1181,1181,1181,1181,1181,1185,1181,1181,1181,1181,1181,1181,1181,1181,1181,1181,1181,1181,1181,1181,1181,1181,1181,1181,1181,1181,1181,1177,1177,1173,1173,1177,1173,1173,1173,1173,1173,1173,1173,1173,1173,1173,1173,1173,1173,1173,1173,1173,1169,1169,1173,1169,1169,1169,1169,1169,1169,1169,1169,1169,1169,1169,1169,1169,1169,1169,1165,1165,1165,1165,1165,1169,1169,1165,1165,1165,1165,1165,1165,1165,1165,1165,1165,1165,1165,1165,1161,1161,1165,1165,1165,1165,1165,1165,1165,1165,1165,1165,1165,1165,987,987,984,984,984,984,984,981,978,938,938,943,940,940,940,938,938,938,938,938,938,938,940,940,940,940,940,940,943,943,943,946,946,946,946,948,948,948,954,962,970,970,970,970,967,967,967,964,962,959,959,959,959,959,0,0,0,0,0,0,0,0,0,0,0,0,0,0,0,0,0,0,0,0,0,0,0,0,0,0,0,0,0,0,0,0,0,0
0,0,0,0,0,0,0,0,1245,1245,1250,1250,1250,1245,1245,1245,1245,1245,1245,1245,1245,1250,1250,1250,1250,1250,1250,1245,1245,1245,1245,1245,1245,1245,1245,1245,1245,1241,1241,1241,1245,1245,1245,1245,1250,1250,1250,1250,1250,1250,1250,1250,1245,1245,1245,1241,1241,1241,1241,1241,1241,1241,1241,1241,1241,1241,1236,1236,1241,1241,1241,1241,1241,1241,1241,1241,1241,984,981,981,978,975,970,970,967,967,967,967,967,967,967,967,970,970,970,973,975,975,978,978,981,984,987,992,995,995,998,1001,1001,1001,1004,1004,1007,1010,1010,1010,1013,1013,1013,1013,1013,1022,1022,1025,1025,1219,1219,1219,1214,1214,1219,1219,1223,1223,1227,1227,1227,1227,1227,1227,1227,1227,1227,1227,1227,1227,1232,1232,1232,1227,1227,1227,1227,1227,1227,1227,1227,1227,1227,1227,1227,1227,1227,1227,1227,1227,1227,1223,1223,1223,1223,1223,1223,1223,1227,1227,1223,1223,1227,1227,1227,1227,1223,1223,1223,1223,1223,1223,1223,1223,1223,1223,1219,1219,1219,1219,1219,1219,0,0,0,0,0,0,0,0,0,723,723,723,722,720,719,717,716,714,714,713,711,710,710,708,708,708,708,710,710,711,714,714,716,717,719,720,723,725,727,728,728,728,728,730,730,0,0,0,1022,1016,1016,1013,1013,1010,1010,1007,1007,1004,1001,1001,1001,998,998,995,992,992,989,989,987,987,984,984,981,981,978,978,975,975,975,973,973,973,973,973,973,975,975,973,973,970,970,967,967,967,967,967,967,970,973,970,970,1210,1210,1202,1202,1202,1202,1206,1206,1206,1206,959,962,962,962,962,964,964,964,967,967,967,967,967,970,970,970,975,978,978,981,981,987,992,995,995,998,1001,1001,1001,1001,1197,1197,1197,1197,1202,1202,1202,1197,1197,1202,1202,1123,1123,1123,1123,1119,1119,1115,1112,1112,1108,1108,1108,1108,1108,1112,1112,1115,1119,1119,1119,1119,1193,1193,1189,1189,1193,1193,1193,1189,1189,1189,1189,1189,1189,1189,1189,1189,1189,1189,1189,1189,1189,1189,1189,1189,1185,1185,1185,1185,1185,1185,1189,1189,1189,1189,1189,1189,1189,1189,1189,1189,1189,1189,1185,1185,1185,1185,1185,1185,1185,1185,1185,1185,1185,1185,1185,1181,1181,1181,1181,1185,1185,1185,1185,1185,1185,1185,1185,1185,1181,1181,1181,1181,1181,1181,1181,1181,1181,1181,1181,1181,1181,1181,1177,1177,1177,1177,1177,1177,1173,1173,1177,1177,1177,1177,1177,1181,1177,1177,1181,1181,1181,1177,1177,1177,1177,1177,1177,1177,1173,1173,1173,1173,1173,1173,1169,1169,1169,1169,1169,1169,1169,1169,1169,1169,1169,1169,1169,1169,1169,1169,1169,1169,1169,1169,1169,1169,1169,1169,1169,1165,1165,1165,1165,1165,1165,1161,1161,1165,1161,1161,1161,1161,1165,1165,1165,1165,1165,1161,1161,1161,1161,1161,1161,1161,1161,1161,1161,1161,1161,1161,1161,1161,1161,1165,1165,1165,1161,1161,1165,1165,1165,989,987,987,984,984,984,984,981,981,943,943,943,943,940,940,940,940,940,938,938,940,940,940,940,940,940,940,940,943,943,943,946,946,946,946,948,948,951,956,962,964,970,970,967,967,967,964,964,962,959,959,959,959,959,0,0,0,0,0,0,0,0,0,0,0,0,0,0,0,0,0,0,0,0,0,0,0,0,0,0,0,0,0,0,0,0,0,0
0,0,0,0,0,0,0,0,1245,1245,1245,1245,1245,1245,1245,1245,1245,1241,1241,1241,1241,1245,1245,1245,1245,1245,1245,1245,1245,1245,1241,1241,1245,1245,1245,1241,1241,1241,1241,1241,1241,1241,1241,1245,1245,1245,1245,1245,1245,1245,1245,1245,1241,1241,1241,1241,1236,1236,1236,1236,1236,1236,1236,1236,1236,1236,1236,1236,1236,1236,1236,1236,1236,1236,1236,1236,1236,1241,981,981,981,975,970,970,970,970,967,967,967,967,967,970,970,970,973,973,975,975,978,978,981,984,987,992,995,995,998,1001,1001,1001,1004,1007,1007,1010,1010,1010,1013,1013,1013,1013,1013,1022,1025,1025,1223,1223,1219,1219,1219,1219,1219,1219,1219,1219,1223,1223,1223,1223,1223,1223,1223,1223,1223,1223,1223,1219,1219,1223,1223,1223,1227,1227,1227,1227,1223,1223,1227,1227,1227,1227,1227,1227,1227,1223,1223,1223,1223,1219,1219,1219,1219,1219,1219,1219,1219,1223,1223,1223,1223,1227,1223,1223,1223,1223,1223,1223,1219,1219,1219,1219,1219,1219,1214,1214,1214,1214,1214,1214,0,0,0,0,0,0,0,0,0,723,723,723,723,722,720,719,719,716,714,714,713,711,710,710,710,710,710,710,711,711,714,716,716,717,720,722,725,727,728,728,730,730,730,730,733,0,0,0,1022,1019,1016,1013,1013,1010,1010,1007,1007,1004,1004,1001,1001,998,998,998,995,992,992,989,989,987,984,984,981,981,978,978,975,975,975,973,973,973,973,970,970,973,973,973,970,970,967,967,967,967,967,967,967,970,973,970,967,967,962,962,962,1197,1197,1206,1206,1206,956,959,959,959,962,962,962,962,964,964,964,964,967,967,967,970,970,975,978,978,981,984,987,989,992,995,998,998,1001,1001,1197,1193,1193,1193,1193,1197,1197,1197,1197,1197,1197,1197,1123,1123,1123,1123,1119,1119,1115,1115,1112,1112,1108,1108,1108,1112,1112,1112,1115,1119,1119,1119,1119,1189,1189,1189,1189,1189,1189,1189,1189,1185,1185,1185,1185,1185,1189,1185,1185,1185,1185,1185,1185,1185,1185,1185,1185,1185,1185,1181,1181,1181,1181,1181,1181,1181,1185,1185,1185,1185,1185,1185,1185,1185,1185,1185,1185,1185,1185,1185,1185,1185,1181,1181,1181,1181,1181,1181,1181,1181,1181,1181,1181,1181,1181,1185,1185,1185,1181,1181,1181,1181,1181,1177,1177,1177,1177,1177,1177,1177,1177,1177,1177,1177,1177,1173,1173,1173,1173,1173,1173,1173,1173,1173,1173,1173,1173,1173,1177,1173,1173,1177,1177,1177,1177,1173,1173,1173,1173,1173,1173,1173,1169,1169,1169,1169,1169,1169,1169,1169,1165,1165,1169,1169,1169,1169,1165,1165,1165,1161,1161,1161,1165,1165,1165,1165,1165,1165,1165,1165,1165,1165,1165,1165,1165,1165,1161,1161,1157,1157,1157,1157,1157,1157,1161,1161,1161,1161,1161,1161,1157,1157,1157,1157,1157,1157,1157,1157,1157,1157,1157,1157,1157,1157,1157,1157,1157,1157,1161,1161,1161,1165,1169,989,989,989,989,987,987,987,984,981,981,940,940,940,943,940,940,940,940,940,938,938,938,938,938,938,938,938,940,943,943,943,943,946,946,946,946,948,948,954,956,962,964,967,967,967,967,967,964,962,962,959,959,959,959,959,0,0,0,0,0,0,0,0,0,0,0,0,0,0,0,0,0,0,0,0,0,0,0,0,0,0,0,0,0,0,0,0,0,0
0,0,0,0,0,0,0,0,1241,1241,1245,1245,1245,1245,1245,1245,1245,1241,1236,1236,1236,1241,1241,1241,1241,1241,1241,1241,1241,1241,1236,1236,1241,1241,1241,1241,1241,1241,1236,1236,1236,1236,1236,1241,1241,1241,1241,1241,1241,1241,1241,1236,1236,1236,1236,1236,1236,1232,1232,1236,1232,1232,1232,1232,1232,1232,1232,1232,1232,1232,1232,1236,1236,1236,1236,1232,1232,1232,1232,987,981,975,973,970,970,970,970,970,967,967,970,970,970,970,973,975,975,975,978,978,981,981,984,989,992,995,998,1001,1001,1001,1004,1007,1007,1010,1010,1010,1013,1013,1016,1016,1019,1025,1219,1219,1219,1214,1214,1219,1219,1219,1219,1219,1219,1219,1219,1219,1219,1223,1223,1219,1219,1223,1219,1219,1219,1219,1219,1219,1219,1219,1219,1219,1219,1223,1223,1223,1223,1223,1223,1227,1223,1223,1223,1223,1219,1219,1219,1219,1219,1214,1214,1214,1214,1214,1219,1219,1219,1219,1219,1223,1223,1223,1219,1219,1219,1219,1219,1219,1219,1214,1214,1214,1214,1210,1210,1210,1210,1210,0,0,0,0,0,0,0,0,0,725,725,725,725,722,720,720,719,716,716,714,714,713,711,710,710,710,710,710,711,713,714,716,717,719,720,723,725,727,728,730,730,730,731,731,733,0,0,0,0,1019,1019,1016,1013,1010,1007,1007,1004,1004,1004,1001,1001,1001,998,998,998,995,992,989,989,987,987,984,981,981,978,978,975,975,975,973,970,970,970,970,970,970,970,970,970,967,967,967,967,967,967,967,967,967,964,964,959,959,959,959,956,956,1197,1197,954,956,956,956,959,959,959,959,959,962,962,962,962,962,964,967,967,970,970,975,978,978,981,984,987,989,992,992,995,998,1001,1001,1193,1193,1193,1193,1193,1193,1193,1193,1193,1193,1197,1197,1123,1123,1123,1123,1123,1119,1119,1119,1115,1112,1112,1112,1112,1112,1112,1115,1119,1119,1119,1123,1123,1189,1189,1185,1185,1185,1185,1185,1185,1185,1185,1185,1185,1185,1185,1181,1181,1185,1185,1181,1181,1181,1181,1181,1181,1181,1181,1181,1181,1181,1177,1177,1177,1177,1177,1177,1181,1181,1185,1185,1185,1181,1181,1181,1181,1181,1181,1181,1181,1181,1181,1181,1181,1181,1181,1181,1177,1177,1177,1177,1177,1177,1177,1181,1181,1181,1181,1181,1181,1181,1177,1177,1173,1173,1173,1173,1173,1173,1173,1173,1173,1173,1173,1169,1169,1169,1169,1169,1169,1169,1169,1169,1169,1169,1169,1169,1169,1173,1173,1173,1173,1173,1173,1173,1173,1169,1169,1169,1169,1169,1169,1169,1169,1165,1165,1165,1165,1165,1165,1165,1165,1165,1165,1165,1161,1161,1161,1161,1161,1161,1161,1161,1161,1161,1161,1161,1161,1165,1165,1161,1161,1161,1161,1161,1161,1157,1153,1153,1153,1153,1153,1153,1153,1153,1153,1161,1157,1157,1157,1153,1153,1153,1153,1153,1153,1153,1153,1153,1153,1153,1153,1153,1153,1153,1153,1153,1157,1161,1161,1165,989,989,989,989,989,987,987,984,984,984,938,938,938,940,940,940,940,940,940,938,938,938,938,938,938,938,938,938,938,940,940,943,943,946,946,946,946,948,951,954,956,962,964,967,967,967,967,964,964,962,962,959,959,959,959,959,0,0,0,0,0,0,0,0,0,0,0,0,0,0,0,0,0,0,0,0,0,0,0,0,0,0,0,0,0,0,0,0,0,0
0,0,0,0,0,0,0,0,1241,1241,1241,1241,1241,1241,1236,1236,1236,1236,1232,1232,1232,1236,1241,1236,1236,1236,1236,1236,1236,1232,1232,1232,1236,1236,1236,1236,1236,1236,1232,1232,1232,1232,1232,1236,1236,1236,1236,1236,1236,1236,1232,1232,1232,1232,1232,1232,1232,1232,1232,1232,1232,1232,1232,1232,1232,1232,1232,1232,1232,1232,1232,1232,1236,1232,1232,1232,1232,1232,1232,981,981,978,975,973,973,973,970,970,970,970,970,970,970,973,973,975,975,975,978,978,981,981,984,989,992,995,998,1001,1001,1004,1004,1007,1010,1010,1010,1010,1013,1013,1013,1016,1219,1219,1219,1214,1214,1214,1214,1214,1214,1214,1214,1219,1219,1219,1219,1219,1219,1219,1219,1219,1219,1219,1214,1214,1214,1214,1214,1219,1214,1214,1214,1214,1214,1214,1214,1214,1214,1223,1223,1223,1219,1219,1219,1214,1214,1214,1214,1214,1214,1214,1214,1214,1214,1214,1214,1214,1214,1214,1214,1219,1219,1219,1214,1214,1214,1214,1214,1214,1214,1214,1214,1214,1210,1210,1210,1210,1210,1210,0,0,0,0,0,0,0,0,0,727,727,727,727,725,722,720,719,717,716,716,714,714,713,711,711,711,711,711,713,713,716,716,717,719,722,725,725,727,728,730,730,731,733,733,0,0,0,0,0,0,0,1202,1202,1202,1007,1007,1001,1001,1004,1001,1001,1001,1001,998,998,995,992,992,989,987,987,987,984,981,978,978,978,975,975,973,970,970,967,967,967,967,967,967,967,967,967,964,964,964,964,962,959,959,959,959,959,956,956,956,956,954,954,954,954,954,954,954,956,959,959,959,959,959,959,959,959,959,962,964,967,970,970,975,978,978,981,984,987,989,992,992,992,1193,1193,1193,1193,1193,1193,1193,1193,1189,1189,1189,1189,1185,1185,1185,1193,1126,1126,1123,1123,1123,1119,1119,1115,1115,1112,1112,1112,1115,1115,1115,1119,1119,1119,1123,1123,1189,1185,1185,1185,1185,1181,1181,1185,1181,1181,1181,1181,1185,1181,1181,1181,1181,1181,1181,1177,1177,1177,1177,1177,1177,1177,1177,1177,1177,1173,1173,1173,1173,1173,1173,1173,1177,1177,1177,1181,1181,1181,1177,1177,1177,1177,1177,1177,1177,1177,1177,1177,1177,1177,1177,1177,1177,1177,1177,1173,1173,1173,1173,1173,1177,1173,1173,1173,1173,1173,1173,1173,1173,1169,1169,1169,1169,1169,1169,1169,1169,1169,1169,1169,1169,1169,1169,1169,1169,1169,1169,1169,1169,1169,1169,1169,1165,1165,1165,1169,1169,1169,1169,1169,1169,1165,1165,1165,1165,1165,1165,1165,1165,1165,1165,1165,1161,1161,1161,1161,1161,1161,1161,1157,1157,1157,1157,1157,1157,1157,1157,1157,1157,1157,1157,1157,1157,1157,1161,1157,1157,1157,1157,1157,1153,1153,1153,1153,1153,1153,1153,1153,1153,1153,1153,1153,1153,1153,1153,1153,1153,1153,1149,1149,1153,1153,1153,1153,1153,1153,1153,1153,1153,1149,1149,1153,1153,995,992,992,989,989,989,989,987,987,984,984,984,938,938,938,938,940,940,940,940,938,938,938,938,938,938,938,938,938,938,938,938,938,940,943,943,946,946,946,948,951,954,959,964,964,967,967,967,967,964,964,962,962,959,959,959,959,959,0,0,0,0,0,0,0,0,0,0,0,0,0,0,0,0,0,0,0,0,0,0,0,0,0,0,0,0,0,0,0,0,0,0
0,0,0,0,0,0,0,0,1241,1241,1236,1236,1236,1232,1232,1232,1232,1227,1227,1227,1232,1232,1232,1227,1227,1232,1232,1232,1232,1232,1232,1232,1232,1232,1232,1232,1232,1232,1232,1232,1232,1232,1232,1232,1232,1232,1236,1232,1232,1232,1232,1232,1232,1227,1227,1227,1232,1232,1232,1232,1232,1232,1227,1227,1227,1227,1227,1227,1227,1227,1227,1227,1227,1227,1223,1223,1227,1232,1232,981,981,981,975,975,973,973,973,970,970,970,970,970,973,973,975,975,975,978,978,981,981,984,987,989,992,995,998,1001,1001,1004,1007,1010,1010,1010,1010,1010,1010,1013,1013,1214,1214,1219,1214,1214,1214,1214,1214,1214,1214,1214,1214,1214,1214,1214,1214,1214,1214,1214,1219,1214,1214,1214,1214,1214,1214,1214,1214,1214,1214,1214,1210,1210,1210,1210,1210,1210,1210,1214,1214,1214,1214,1214,1214,1214,1214,1214,1210,1210,1210,1214,1214,1214,1214,1214,1214,1214,1214,1214,1214,1214,1214,1214,1214,1214,1214,1214,1214,1214,1214,1214,1210,1210,1210,1206,1206,1206,1206,1206,0,0,0,0,0,0,0,0,0,0,728,728,727,727,725,722,722,720,717,716,716,714,714,713,711,711,713,713,713,714,716,716,717,720,723,725,727,728,728,730,731,733,733,733,0,0,0,0,0,0,0,1202,1202,1202,1197,1197,1001,1001,1004,1001,1001,1001,1001,998,998,998,995,992,989,989,987,987,984,984,981,978,978,975,975,973,970,970,967,967,967,964,964,964,964,964,964,964,962,962,962,959,959,959,959,959,956,956,954,954,954,951,951,951,951,951,951,951,954,956,956,956,956,956,956,959,959,959,959,962,967,970,970,975,978,981,984,987,987,989,992,992,992,1189,1189,1193,1189,1189,1189,1189,1189,1189,1189,1185,1185,1185,1185,1185,1185,1126,1126,1123,1123,1123,1119,1119,1119,1115,1115,1115,1115,1115,1115,1115,1119,1119,1119,1123,1123,1185,1185,1181,1181,1181,1181,1181,1181,1181,1181,1181,1181,1181,1177,1177,1177,1177,1177,1177,1173,1173,1173,1173,1173,1173,1173,1173,1173,1173,1173,1169,1169,1169,1169,1169,1173,1173,1173,1173,1173,1173,1169,1169,1173,1173,1173,1177,1177,1177,1177,1173,1173,1173,1173,1173,1173,1173,1173,1173,1173,1173,1173,1173,1173,1173,1173,1169,1169,1169,1169,1169,1169,1169,1169,1169,1169,1165,1165,1165,1165,1165,1165,1165,1165,1165,1165,1165,1169,1169,1169,1169,1165,1165,1165,1165,1165,1165,1165,1165,1165,1165,1165,1165,1165,1165,1165,1165,1165,1165,1165,1165,1161,1161,1161,1161,1161,1161,1157,1157,1157,1157,1157,1157,1153,1153,1157,1153,1153,1153,1153,1153,1153,1153,1153,1153,1153,1153,1153,1153,1153,1153,1153,1153,1153,1153,1153,1149,1149,1153,1153,1153,1149,1149,1149,1149,1149,1149,1145,1145,1149,1149,1149,1149,1149,1149,1149,1149,1149,1149,1149,1149,1153,1149,1149,1149,1153,1153,995,995,992,992,992,992,989,989,989,987,987,938,938,938,938,938,940,940,938,938,938,938,938,938,938,938,938,938,938,938,938,938,938,940,940,943,943,946,946,948,951,956,959,967,967,967,967,967,967,964,964,962,962,959,959,959,959,959,0,0,0,0,0,0,0,0,0,0,0,0,0,0,0,0,0,0,0,0,0,0,0,0,0,0,0,0,0,0,0,0,0,0
0,0,0,0,0,0,0,0,1232,1232,1232,1232,1232,1232,1227,1227,1227,1227,1227,1223,1223,1219,1219,1219,1219,1223,1227,1227,1227,1227,1227,1227,1227,1227,1227,1227,1227,1227,1227,1227,1227,1227,1227,1227,1227,1227,1232,1232,1227,1227,1227,1227,1227,1227,1223,1223,1227,1227,1227,1227,1227,1227,1227,1227,1227,1227,1223,1223,1219,1219,1219,1219,1219,1219,1219,1219,1219,1223,1223,981,981,984,978,978,975,975,973,973,973,973,973,973,973,973,975,975,975,978,978,981,981,984,987,989,992,995,998,1001,1001,1004,1007,1010,1010,1010,1010,1010,1010,1214,1214,1214,1214,1214,1214,1214,1214,1214,1214,1210,1210,1214,1214,1214,1214,1214,1214,1214,1214,1214,1214,1214,1214,1214,1210,1210,1210,1210,1210,1210,1210,1210,1210,1210,1210,1210,1210,1210,1210,1210,1210,1210,1210,1206,1206,1210,1210,1210,1210,1210,1210,1210,1210,1210,1210,1210,1210,1210,1210,1210,1210,1210,1210,1214,1210,1210,1210,1210,1210,1210,1210,1210,1210,1206,1206,1206,1206,1202,1197,1197,1197,0,0,0,0,0,0,0,0,0,728,728,728,727,727,727,722,722,719,717,717,716,714,714,713,713,713,713,713,714,716,716,717,720,723,725,727,728,728,730,731,733,733,733,0,0,0,0,0,0,0,1197,1197,1202,1197,1197,1197,1197,1004,1001,1001,1001,1001,1001,998,998,995,992,992,989,989,987,984,984,981,978,978,975,975,973,970,967,967,967,967,964,964,964,964,964,962,959,959,959,959,956,956,956,956,956,956,954,954,954,954,951,948,948,948,948,948,948,951,951,954,954,954,956,956,956,956,956,959,962,967,970,970,975,978,981,984,987,987,989,989,992,1185,1181,1181,1185,1185,1185,1185,1185,1185,1185,1185,1185,1185,1185,1181,1181,1181,1130,1130,1130,1126,1123,1123,1123,1119,1119,1115,1115,1115,1119,1119,1119,1119,1119,1119,1123,1123,1181,1181,1181,1181,1181,1177,1177,1181,1181,1177,1177,1177,1177,1177,1173,1173,1173,1173,1173,1173,1173,1173,1173,1173,1173,1173,1173,1173,1173,1169,1169,1169,1169,1169,1169,1169,1169,1169,1169,1169,1169,1169,1169,1169,1169,1169,1173,1173,1173,1173,1173,1173,1173,1173,1173,1173,1169,1169,1169,1169,1169,1169,1169,1169,1169,1169,1169,1169,1169,1169,1165,1165,1165,1165,1165,1165,1165,1165,1165,1165,1165,1165,1165,1165,1165,1165,1165,1165,1165,1165,1165,1165,1165,1165,1165,1161,1161,1161,1157,1157,1161,1161,1161,1161,1161,1161,1161,1161,1161,1161,1161,1161,1161,1161,1161,1161,1157,1157,1157,1157,1153,1153,1153,1153,1153,1153,1153,1153,1153,1153,1153,1153,1153,1153,1149,1149,1149,1149,1149,1149,1149,1149,1149,1149,1149,1149,1149,1149,1149,1149,1149,1149,1145,1145,1145,1145,1145,1141,1141,1145,1145,1145,1145,1145,1149,1149,1145,1145,1145,1149,1149,1149,1149,1149,995,992,992,992,995,992,992,992,992,992,989,989,989,989,938,938,938,938,938,940,938,938,938,938,938,938,938,938,938,938,938,938,938,938,938,938,940,940,943,943,946,946,948,951,956,959,967,967,967,967,967,967,964,964,964,964,962,962,962,962,962,0,0,0,0,0,0,0,0,0,0,0,0,0,0,0,0,0,0,0,0,0,0,0,0,0,0,0,0,0,0,0,0,0,0
0,0,0,0,0,0,0,0,1232,1232,1227,1227,1227,1227,1227,1227,1223,1223,1223,1223,1219,1219,1219,1219,1219,1223,1223,1223,1223,1227,1227,1227,1227,1227,1227,1227,1227,1227,1223,1223,1223,1219,1219,1223,1223,1223,1223,1227,1227,1223,1223,1223,1223,1223,1219,1219,1223,1227,1227,1227,1227,1227,1227,1223,1223,1223,1219,1219,1214,1214,1214,1214,1214,1214,1219,1219,1219,1219,1223,1210,984,984,981,981,978,978,975,975,973,973,973,973,973,975,975,975,978,978,978,981,981,984,987,987,989,995,998,1001,1001,1004,1007,1010,1010,1013,1013,1013,1013,1210,1210,1210,1210,1214,1214,1210,1210,1210,1210,1210,1210,1210,1210,1210,1210,1210,1210,1210,1210,1214,1210,1210,1210,1210,1210,1206,1206,1210,1210,1210,1210,1210,1210,1210,1206,1206,1206,1206,1206,1206,1206,1206,1206,1206,1206,1206,1206,1206,1206,1206,1206,1210,1210,1210,1210,1210,1206,1206,1210,1206,1206,1206,1206,1210,1210,1210,1210,1210,1206,1206,1206,1206,1206,1202,1202,1202,1202,1197,1197,1193,1193,0,0,0,0,0,0,0,0,0,728,728,728,727,727,727,725,723,722,719,717,716,716,714,714,714,714,714,714,714,716,716,719,720,725,725,727,728,728,730,731,733,734,734,0,0,0,0,0,0,0,1197,1197,1197,1197,1193,1193,1193,1193,1193,1001,1001,1001,1001,998,998,995,992,992,989,989,987,987,984,981,981,978,975,975,973,970,967,967,967,967,964,964,964,964,962,959,959,956,956,956,956,956,956,956,956,954,954,954,951,951,948,948,948,946,946,946,948,948,951,951,951,951,954,954,954,956,956,959,959,964,970,973,978,981,981,984,987,987,989,989,1181,1181,1177,1177,1181,1181,1185,1185,1185,1185,1181,1181,1181,1181,1181,1177,1173,1173,1134,1134,1130,1126,1126,1123,1123,1119,1119,1119,1119,1119,1119,1119,1119,1119,1123,1123,1123,1123,1177,1177,1177,1177,1177,1177,1177,1177,1177,1177,1177,1177,1173,1173,1173,1169,1169,1169,1169,1169,1169,1169,1169,1169,1169,1169,1169,1169,1169,1169,1169,1169,1165,1165,1165,1165,1165,1169,1169,1169,1169,1169,1169,1169,1165,1165,1165,1169,1169,1169,1169,1169,1169,1169,1169,1169,1169,1169,1169,1165,1165,1165,1165,1165,1165,1165,1165,1165,1165,1165,1165,1165,1165,1165,1165,1165,1161,1161,1161,1161,1161,1161,1161,1165,1165,1161,1161,1161,1161,1161,1161,1161,1161,1161,1161,1157,1157,1157,1153,1153,1153,1153,1153,1153,1153,1153,1153,1153,1157,1157,1157,1157,1157,1157,1157,1153,1153,1153,1153,1153,1153,1153,1153,1153,1149,1149,1149,1149,1149,1149,1149,1149,1149,1149,1145,1145,1145,1145,1145,1145,1145,1145,1145,1145,1145,1145,1145,1145,1145,1145,1145,1145,1141,1141,1141,1141,1138,1138,1141,1141,1141,1141,1141,1141,1141,1141,1145,1141,1141,1145,1145,1149,1145,998,995,992,992,992,995,995,995,995,995,992,992,992,992,938,938,938,938,938,938,938,938,938,938,938,938,938,938,938,938,938,938,938,938,938,938,938,940,943,943,943,946,946,948,951,956,962,967,967,967,967,967,967,967,964,964,964,964,964,964,962,962,0,0,0,0,0,0,0,0,0,0,0,0,0,0,0,0,0,0,0,0,0,0,0,0,0,0,0,0,0,0,0,0,0,0
0,0,0,0,0,0,0,0,1227,1227,1227,1227,1223,1223,1223,1223,1219,1219,1219,1219,1219,1214,1214,1214,1214,1219,1219,1219,1219,1219,1223,1223,1223,1223,1227,1227,1223,1223,1219,1219,1219,1219,1219,1219,1219,1219,1219,1223,1223,1223,1223,1223,1219,1219,1219,1219,1223,1223,1223,1223,1223,1223,1223,1219,1219,1219,1214,1214,1214,1214,1214,1214,1214,1214,1214,1214,1214,1214,1219,1210,987,984,984,984,981,978,978,975,975,975,973,973,975,975,975,978,978,978,981,981,981,984,987,987,989,995,998,1001,1001,1007,1007,1010,1013,1013,1013,1013,1206,1206,1210,1210,1210,1210,1210,1210,1210,1210,1210,1206,1206,1206,1210,1210,1206,1206,1206,1206,1210,1210,1210,1206,1206,1206,1206,1202,1202,1206,1206,1206,1202,1202,1206,1206,1202,1202,1202,1202,1202,1202,1202,1202,1202,1202,1202,1202,1202,1202,1202,1202,1202,1202,1202,1202,1206,1206,1202,1202,1202,1202,1202,1202,1202,1202,1202,1202,1202,1206,1202,1202,1202,1202,1202,1202,1202,1197,1197,1197,1193,1193,1193,0,0,0,0,0,0,0,0,0,0,728,728,728,727,727,727,725,723,720,719,719,717,716,714,714,714,714,714,716,716,717,719,720,725,725,727,728,728,730,731,734,734,734,0,0,0,0,0,0,0,1197,1193,1193,1193,1193,1193,1189,1189,1189,1189,1189,1189,1001,998,998,995,992,992,989,989,989,987,987,984,981,978,978,975,975,973,970,967,967,967,967,964,964,964,962,959,959,956,956,956,954,954,954,954,954,954,951,951,951,951,948,948,948,946,946,946,948,948,948,948,948,948,951,951,954,954,956,956,959,964,970,975,978,981,981,984,987,987,989,1177,1177,1177,1173,1173,1177,1177,1177,1177,1177,1177,1181,1181,1181,1181,1177,1173,1169,1161,1149,1138,1138,1134,1130,1126,1123,1123,1119,1119,1119,1119,1119,1119,1119,1119,1123,1123,1123,1123,1173,1173,1173,1173,1173,1173,1173,1173,1173,1173,1173,1169,1169,1169,1169,1169,1169,1169,1169,1169,1169,1165,1165,1165,1169,1169,1165,1165,1165,1165,1165,1165,1165,1165,1165,1165,1165,1165,1165,1165,1165,1165,1165,1165,1165,1165,1165,1165,1165,1165,1165,1165,1169,1165,1165,1165,1165,1165,1165,1165,1161,1161,1161,1161,1161,1161,1161,1161,1161,1161,1161,1161,1161,1161,1161,1161,1161,1161,1161,1161,1161,1157,1157,1161,1161,1161,1157,1157,1161,1157,1157,1157,1157,1157,1157,1153,1153,1153,1153,1149,1149,1153,1149,1149,1149,1149,1153,1149,1149,1149,1149,1153,1153,1153,1149,1149,1149,1149,1149,1149,1149,1149,1149,1149,1149,1149,1149,1149,1149,1145,1145,1145,1145,1145,1145,1145,1145,1141,1141,1141,1141,1141,1141,1141,1141,1141,1141,1141,1141,1141,1141,1141,1138,1138,1138,1138,1138,1138,1138,1138,1138,1138,1138,1138,1134,1134,1138,1138,1138,1141,1141,1145,1145,998,995,995,995,995,995,995,995,995,995,995,995,995,995,938,938,938,938,938,938,938,938,938,938,938,938,938,938,938,938,938,938,938,938,938,938,938,940,940,943,943,946,946,948,948,956,962,964,967,967,967,967,967,967,967,967,967,964,964,964,964,964,0,0,0,0,0,0,0,0,0,0,0,0,0,0,0,0,0,0,0,0,0,0,0,0,0,0,0,0,0,0,0,0,0,0
0,0,0,0,0,0,0,0,1227,1227,1227,1223,1219,1219,1219,1219,1214,1214,1219,1219,1214,1214,1214,1214,1214,1214,1214,1214,1214,1219,1219,1219,1219,1219,1219,1219,1219,1219,1219,1219,1219,1214,1214,1214,1214,1219,1219,1219,1219,1219,1223,1219,1219,1219,1219,1219,1219,1219,1219,1219,1219,1219,1219,1219,1214,1214,1214,1214,1210,1210,1210,1210,1210,1210,1210,1210,1210,1210,1210,1210,984,984,984,984,981,978,978,975,975,975,973,973,975,975,978,978,978,978,981,984,984,984,987,989,989,995,998,1001,1001,1007,1007,1010,1013,1013,1013,1193,1202,1206,1206,1206,1206,1210,1210,1206,1206,1206,1206,1202,1202,1202,1202,1202,1202,1202,1202,1202,1206,1206,1202,1202,1202,1202,1202,1197,1197,1202,1202,1202,1197,1197,1202,1202,1202,1197,1197,1197,1197,1197,1197,1197,1197,1197,1197,1197,1197,1197,1197,1197,1197,1197,1197,1197,1197,1197,1197,1197,1197,1197,1197,1197,1197,1197,1197,1197,1197,1197,1197,1197,1197,1197,1197,1197,1197,1197,1197,1193,1193,1189,1189,0,0,0,0,0,0,0,0,0,0,730,728,728,728,728,727,725,723,720,720,719,717,716,716,716,716,716,716,716,716,717,720,720,725,725,727,728,730,731,733,734,734,736,739,741,0,0,0,0,0,0,1193,1193,1189,1189,1189,1189,1185,1185,1189,1189,1185,1185,1185,998,998,995,992,989,989,987,987,987,984,981,978,978,978,975,975,970,970,967,967,967,964,964,964,962,959,959,956,956,956,954,954,954,951,951,951,948,948,948,948,946,946,946,946,943,943,946,946,946,946,946,948,948,948,951,954,956,956,959,964,967,973,975,978,981,984,984,987,1173,1173,1173,1173,1173,1173,1173,1173,1173,1173,1169,1169,1173,1173,1173,1173,1173,1169,1165,1161,1149,1141,1138,1138,1134,1130,1126,1123,1123,1119,1119,1119,1119,1119,1119,1123,1123,1123,1126,1126,1169,1169,1169,1169,1169,1169,1169,1169,1169,1169,1169,1169,1169,1169,1165,1165,1165,1165,1165,1165,1165,1165,1165,1165,1165,1165,1165,1165,1165,1165,1165,1165,1165,1165,1165,1165,1165,1165,1165,1161,1161,1165,1161,1161,1161,1161,1165,1165,1161,1161,1161,1161,1161,1161,1161,1161,1161,1161,1161,1161,1161,1161,1161,1161,1161,1157,1157,1157,1157,1157,1157,1157,1157,1157,1157,1157,1157,1157,1157,1157,1157,1157,1157,1157,1157,1157,1153,1153,1157,1153,1153,1153,1153,1153,1153,1153,1153,1149,1149,1149,1149,1149,1145,1145,1145,1145,1149,1145,1145,1145,1145,1149,1149,1145,1145,1145,1145,1149,1149,1149,1149,1149,1149,1149,1149,1149,1145,1145,1145,1145,1145,1141,1141,1141,1141,1141,1141,1141,1141,1138,1138,1138,1138,1138,1141,1141,1141,1141,1141,1141,1138,1138,1138,1138,1134,1134,1134,1134,1134,1134,1134,1134,1130,1130,1130,1130,1134,1134,1004,1001,1001,1141,998,998,998,998,995,995,998,998,998,998,998,1001,1001,1001,935,935,935,938,938,938,938,938,938,938,938,938,938,938,935,935,935,935,938,938,938,938,938,938,938,940,943,943,946,946,948,948,956,964,964,967,970,967,967,967,967,967,967,967,967,967,964,964,964,0,0,0,0,0,0,0,0,0,0,0,0,0,0,0,0,0,0,0,0,0,0,0,0,0,0,0,0,0,0,0,0,0,0
0,0,0,0,0,0,0,0,1227,1223,1223,1214,1214,1214,1214,1214,1210,1210,1214,1214,1214,1210,1210,1210,1210,1214,1214,1214,1214,1214,1219,1214,1214,1214,1214,1214,1214,1214,1210,1210,1214,1214,1214,1214,1214,1214,1214,1214,1214,1214,1214,1214,1214,1214,1214,1214,1214,1214,1214,1214,1214,1214,1214,1214,1214,1214,1210,1210,1210,1210,1210,1210,1210,1210,1206,1206,1202,1202,1202,1202,984,984,984,984,984,981,978,978,975,975,975,975,975,975,978,978,978,981,984,984,984,987,987,989,992,995,998,1001,1001,1007,1007,1197,1197,1197,1197,1197,1202,1202,1206,1206,1206,1206,1206,1206,1202,1202,1202,1202,1202,1202,1202,1202,1202,1197,1197,1197,1197,1202,1197,1197,1197,1197,1197,1197,1197,1197,1197,1197,1197,1197,1197,1197,1197,1197,1197,1197,1197,1197,1197,1197,1197,1197,1197,1193,1193,1193,1193,1193,1193,1193,1193,1193,1193,1193,1193,1193,1193,1193,1193,1197,1197,1197,1197,1193,1193,1193,1197,1197,1193,1193,1193,1193,1193,1193,1193,1193,1189,1185,1185,0,0,0,0,0,0,0,0,0,0,0,730,728,728,728,727,727,725,722,720,720,719,717,716,716,716,716,717,717,717,719,720,722,725,727,728,730,730,731,734,734,734,738,739,739,739,0,0,0,0,0,1193,1189,1189,1185,1185,1185,1185,1185,1185,1185,1185,1181,1181,1181,1177,995,992,989,989,987,987,987,984,981,978,978,978,975,975,973,970,970,967,967,967,964,964,964,959,959,956,956,954,954,954,951,951,951,948,946,946,943,940,940,940,940,940,940,940,943,943,943,943,946,946,948,948,951,954,956,956,959,962,964,970,975,978,981,984,984,1169,1169,1169,1169,1169,1169,1169,1169,1169,1169,1169,1169,1169,1169,1169,1169,1169,1169,1169,1165,1157,1149,1145,1141,1138,1134,1130,1126,1126,1123,1123,1123,1123,1123,1123,1123,1123,1123,1126,1126,1130,1161,1161,1165,1165,1165,1165,1165,1165,1165,1165,1165,1165,1165,1165,1165,1165,1165,1165,1165,1165,1165,1165,1161,1161,1161,1161,1161,1161,1161,1161,1161,1161,1161,1161,1161,1161,1161,1161,1161,1161,1161,1161,1161,1161,1157,1157,1161,1161,1157,1157,1157,1157,1157,1157,1157,1157,1157,1157,1157,1157,1157,1157,1157,1157,1157,1153,1153,1153,1153,1153,1153,1153,1153,1153,1153,1153,1153,1153,1153,1153,1153,1153,1153,1153,1153,1153,1153,1153,1153,1153,1153,1153,1153,1149,1149,1149,1149,1145,1145,1145,1145,1145,1141,1141,1141,1145,1145,1145,1141,1141,1141,1141,1141,1141,1141,1141,1141,1141,1145,1145,1145,1145,1145,1145,1145,1145,1145,1145,1141,1141,1141,1141,1141,1141,1141,1141,1138,1138,1138,1138,1138,1138,1138,1138,1138,1138,1138,1138,1138,1138,1138,1138,1138,1134,1134,1134,1134,1134,1134,1134,1134,1130,1130,1130,1130,1130,1134,1134,1004,1001,998,998,998,998,998,998,998,998,998,1001,998,998,1001,1001,1001,1004,935,935,935,935,935,935,938,938,935,935,938,935,935,935,935,935,935,935,938,938,938,938,938,938,938,940,943,943,946,946,948,948,956,964,964,970,970,970,970,967,967,967,967,967,967,967,964,964,964,0,0,0,0,0,0,0,0,0,0,0,0,0,0,0,0,0,0,0,0,0,0,0,0,0,0,0,0,0,0,0,0,0,0
0,0,0,0,0,0,0,0,0,1210,1206,1206,1210,1210,1210,1210,1210,1210,1210,1210,1210,1210,1210,1210,1210,1214,1214,1210,1210,1214,1214,1214,1214,1214,1214,1214,1214,1210,1210,1210,1210,1210,1210,1210,1210,1210,1210,1210,1210,1214,1214,1214,1214,1214,1214,1210,1210,1210,1210,1210,1210,1210,1210,1210,1210,1210,1210,1210,1210,1210,1210,1206,1206,1206,1202,1202,1202,1197,1197,1197,984,984,984,984,984,984,981,978,978,978,975,975,978,978,978,978,981,981,984,984,987,987,989,989,992,995,998,998,998,1197,1197,1197,1197,1197,1197,1202,1202,1202,1202,1202,1202,1202,1202,1197,1197,1197,1197,1197,1197,1197,1197,1197,1197,1197,1197,1197,1197,1197,1193,1193,1197,1193,1193,1193,1193,1193,1193,1193,1193,1193,1193,1193,1193,1193,1193,1193,1193,1193,1193,1193,1193,1193,1193,1193,1189,1189,1189,1193,1193,1193,1193,1193,1193,1193,1193,1193,1193,1193,1193,1189,1189,1189,1189,1189,1189,1193,1193,1193,1193,1193,1193,1193,1193,1189,1189,1189,1185,1181,1177,1177,0,0,0,0,0,0,0,0,0,0,730,730,728,728,728,727,725,723,722,720,719,717,717,717,717,717,719,719,719,720,722,722,725,727,728,730,730,731,734,734,734,738,739,739,739,0,0,0,0,0,1181,1181,1185,1181,1181,1181,1181,1181,1181,1181,1181,1181,1181,1181,1177,1177,989,989,989,989,987,987,984,978,978,981,978,978,975,973,973,970,970,967,967,967,964,964,962,959,956,956,954,954,954,951,948,948,946,946,943,943,940,938,938,938,935,935,935,940,940,940,943,943,946,948,948,951,954,956,956,959,962,964,967,975,978,981,984,1169,1169,1169,1169,1169,1169,1169,1165,1165,1165,1165,1165,1165,1165,1165,1165,1165,1165,1165,1165,1161,1157,1149,1145,1141,1138,1134,1130,1130,1126,1126,1123,1123,1123,1123,1123,1126,1126,1126,1134,1138,1141,1153,1157,1157,1161,1161,1165,1165,1165,1161,1161,1165,1161,1161,1161,1161,1161,1161,1161,1161,1161,1161,1161,1157,1157,1157,1157,1157,1157,1157,1157,1157,1157,1157,1157,1161,1157,1157,1157,1161,1157,1157,1157,1153,1153,1153,1153,1153,1157,1153,1153,1153,1153,1153,1153,1153,1153,1153,1153,1153,1153,1153,1153,1153,1153,1153,1153,1153,1153,1153,1153,1149,1149,1149,1149,1149,1149,1149,1149,1149,1149,1149,1149,1149,1149,1149,1149,1149,1149,1149,1149,1149,1149,1149,1149,1149,1149,1145,1145,1145,1145,1145,1141,1141,1141,1141,1141,1141,1141,1138,1138,1138,1138,1138,1138,1138,1138,1138,1138,1138,1141,1141,1145,1145,1141,1141,1141,1141,1141,1138,1138,1138,1138,1138,1138,1138,1138,1138,1134,1134,1134,1134,1134,1134,1134,1134,1134,1138,1138,1138,1138,1134,1134,1134,1134,1134,1134,1130,1130,1130,1130,1130,1130,1126,1126,1130,1130,1134,1130,1004,1001,998,998,998,998,998,998,998,998,1001,1001,1001,1001,1001,1001,1001,1001,1001,935,935,935,935,935,938,938,935,935,935,935,935,935,935,935,935,935,935,938,935,935,938,938,940,940,943,946,946,946,948,948,951,962,964,970,970,970,970,970,970,967,967,967,967,967,964,964,964,0,0,0,0,0,0,0,0,0,0,0,0,0,0,0,0,0,0,0,0,0,0,0,0,0,0,0,0,0,0,0,0,0,0
0,0,0,0,0,0,0,0,0,1202,1197,1197,1202,1206,1206,1206,1206,1206,1206,1206,1206,1206,1206,1206,1206,1206,1206,1206,1206,1206,1210,1210,1210,1210,1210,1210,1210,1210,1210,1206,1206,1206,1210,1210,1210,1210,1210,1210,1210,1210,1210,1210,1210,1210,1210,1210,1206,1206,1206,1206,1206,1206,1206,1206,1206,1206,1206,1206,1206,1206,1206,1206,1206,1202,1202,1202,1197,1197,1197,1197,1197,984,984,984,987,984,984,984,978,978,978,978,978,978,978,978,981,981,984,987,987,987,989,989,992,992,995,998,998,1197,1197,1197,1197,1197,1197,1197,1197,1197,1197,1197,1197,1197,1197,1197,1193,1193,1197,1197,1197,1197,1197,1197,1197,1193,1193,1193,1197,1193,1193,1193,1193,1193,1189,1189,1189,1189,1189,1189,1189,1189,1189,1189,1189,1189,1189,1193,1193,1193,1193,1189,1189,1189,1189,1189,1185,1185,1185,1189,1189,1189,1189,1189,1189,1189,1189,1189,1189,1185,1185,1185,1185,1185,1185,1181,1181,1185,1189,1189,1189,1189,1189,1189,1189,1185,1185,1185,1181,1181,1177,1173,1165,1165,0,0,0,0,0,0,0,0,0,730,728,728,728,728,725,723,722,720,720,719,719,719,719,719,719,719,719,720,722,722,725,727,730,731,731,733,734,736,736,738,741,0,0,0,0,0,0,1181,1181,1181,1181,1181,1181,1181,1181,1181,1181,1181,1181,1177,1177,1177,1173,1173,989,989,989,989,987,987,981,978,978,978,978,978,975,975,973,973,970,970,967,967,964,964,962,959,959,956,954,954,954,951,948,946,943,943,940,938,935,935,935,935,935,933,933,935,938,938,940,943,946,946,948,951,954,956,959,959,962,964,967,970,978,981,1157,1165,1165,1165,1165,1165,1165,1165,1165,1165,1165,1165,1165,1165,1165,1165,1165,1165,1161,1161,1161,1157,1153,1149,1145,1145,1141,1138,1134,1130,1130,1126,1126,1126,1126,1126,1126,1126,1126,1134,1138,1145,1149,1153,1153,1153,1157,1157,1157,1161,1161,1157,1157,1161,1157,1157,1157,1161,1157,1157,1157,1157,1157,1157,1157,1153,1153,1153,1153,1153,1153,1153,1153,1153,1153,1153,1153,1153,1153,1153,1153,1153,1153,1153,1153,1149,1149,1149,1149,1149,1149,1149,1149,1149,1149,1149,1153,1153,1153,1153,1149,1149,1149,1149,1149,1149,1149,1149,1149,1149,1149,1149,1149,1149,1145,1145,1145,1149,1149,1145,1145,1145,1145,1145,1145,1145,1145,1145,1145,1149,1149,1149,1145,1145,1149,1145,1145,1145,1145,1145,1141,1141,1141,1138,1138,1138,1138,1138,1138,1138,1138,1138,1138,1138,1138,1138,1138,1138,1138,1138,1138,1138,1138,1138,1138,1138,1138,1141,1141,1138,1138,1138,1138,1138,1134,1134,1134,1134,1134,1134,1130,1130,1130,1130,1130,1134,1134,1134,1134,1134,1134,1134,1134,1134,1134,1134,1130,1130,1130,1130,1126,1126,1126,1126,1126,1126,1126,1126,1126,1130,1130,1004,1004,1001,1001,1001,1001,1001,998,998,1001,1001,1001,1001,1001,1001,1001,1001,1001,1001,0,935,935,935,935,935,935,935,935,935,935,935,935,935,935,935,935,935,935,935,935,938,938,940,940,943,946,946,946,946,948,951,962,970,973,970,970,970,970,970,970,967,967,967,967,964,964,964,0,0,0,0,0,0,0,0,0,0,0,0,0,0,0,0,0,0,0,0,0,0,0,0,0,0,0,0,0,0,0,0,0,0
0,0,0,0,0,0,0,0,0,1193,1193,1197,1197,1197,1202,1202,1202,1202,1202,1202,1202,1202,1202,1202,1202,1202,1202,1202,1197,1197,1206,1210,1206,1206,1210,1206,1206,1206,1206,1202,1202,1206,1206,1206,1206,1206,1206,1197,1197,1202,1202,1202,1202,1202,1206,1206,1202,1202,1202,1202,1202,1202,1202,1202,1202,1202,1202,1202,1202,1202,1206,1202,1202,1202,1197,1197,1197,1197,1193,1193,1193,984,984,987,987,984,984,984,981,978,978,978,978,978,978,978,981,984,984,987,987,989,989,992,992,992,995,998,998,998,1202,1197,1197,1197,1197,1193,1193,1193,1193,1193,1193,1193,1193,1193,1193,1193,1193,1193,1193,1193,1193,1193,1193,1193,1193,1193,1193,1193,1193,1193,1189,1189,1185,1185,1185,1185,1185,1185,1185,1185,1185,1185,1185,1185,1185,1185,1189,1189,1185,1185,1185,1185,1185,1185,1181,1181,1181,1185,1185,1185,1185,1189,1189,1189,1189,1189,1185,1181,1181,1181,1181,1181,1181,1181,1181,1181,1185,1185,1185,1185,1185,1185,1185,1185,1185,1181,1181,1181,1177,1173,1165,1165,0,0,0,0,0,0,0,0,0,733,730,728,728,728,727,725,723,722,720,719,719,720,720,719,719,719,720,720,722,723,725,728,731,733,733,734,736,738,738,739,741,0,0,0,0,0,0,1177,1177,1181,1177,1177,1177,1177,1177,1177,1177,1177,1177,1177,1177,1173,1169,1169,1169,1169,1165,1165,987,987,981,978,978,978,978,978,975,975,975,973,973,970,970,967,967,964,962,962,956,956,954,954,951,948,946,943,940,933,933,933,933,933,933,933,930,930,930,933,935,935,938,940,946,946,948,951,956,956,959,959,962,964,967,970,1157,1157,1157,1161,1165,1165,1165,1165,1165,1161,1161,1161,1165,1165,1165,1161,1161,1161,1161,1161,1157,1157,1157,1157,1153,1149,1149,1145,1141,1138,1134,1134,1130,1130,1126,1126,1126,1126,1126,1126,1130,1134,1141,1145,1149,1149,1153,1153,1153,1153,1153,1153,1153,1153,1153,1157,1153,1153,1153,1153,1153,1153,1153,1153,1153,1153,1153,1153,1153,1153,1153,1153,1153,1153,1153,1149,1149,1149,1149,1149,1149,1149,1149,1149,1149,1149,1149,1145,1145,1145,1145,1145,1145,1145,1145,1145,1149,1149,1149,1149,1149,1149,1149,1149,1149,1149,1145,1145,1145,1145,1145,1141,1141,1141,1145,1145,1145,1145,1145,1145,1145,1145,1141,1141,1141,1141,1141,1141,1141,1141,1141,1145,1141,1141,1145,1145,1145,1145,1145,1145,1141,1141,1138,1138,1138,1138,1138,1138,1138,1138,1138,1134,1134,1134,1134,1134,1134,1134,1134,1134,1134,1134,1134,1134,1134,1134,1134,1138,1134,1134,1134,1134,1134,1134,1134,1134,1134,1134,1134,1130,1130,1130,1126,1126,1126,1126,1126,1126,1130,1130,1130,1134,1134,1134,1134,1130,1130,1130,1130,1130,1130,1126,1126,1123,1123,1123,1123,1123,1123,1123,1123,1126,1126,1004,1004,1004,1004,1001,1001,1001,1001,1001,1001,1001,1004,1001,1001,1004,1001,1001,1001,0,0,935,935,935,935,935,935,935,935,935,935,935,935,935,935,935,935,935,935,935,935,938,938,940,940,943,946,946,946,946,948,951,959,967,973,973,973,970,970,970,970,967,967,967,967,964,962,962,0,0,0,0,0,0,0,0,0,0,0,0,0,0,0,0,0,0,0,0,0,0,0,0,0,0,0,0,0,0,0,0,0,0
0,0,0,0,0,0,0,0,1197,1193,1193,1197,1197,1197,1197,1197,1197,1197,1197,1197,1197,1197,1197,1197,1197,1197,1197,1197,1197,1197,1202,1202,1202,1202,1202,1202,1202,1202,1202,1197,1197,1197,1197,1202,1202,1202,1197,1193,1193,1197,1197,1193,1193,1197,1197,1197,1202,1202,1197,1197,1202,1202,1197,1197,1197,1197,1197,1197,1197,1197,1197,1197,1197,1197,1197,1197,1193,1193,1193,1193,1193,1193,989,987,987,987,987,984,981,981,978,978,978,978,978,978,981,984,984,987,987,989,989,992,995,995,998,998,998,998,1189,1189,1189,1193,1193,1193,1189,1189,1189,1189,1189,1189,1189,1189,1185,1185,1189,1193,1193,1189,1189,1189,1189,1189,1193,1193,1189,1189,1189,1189,1189,1185,1185,1185,1185,1185,1185,1181,1181,1181,1185,1181,1181,1181,1181,1181,1185,1185,1181,1181,1181,1181,1181,1181,1181,1181,1181,1181,1181,1185,1185,1185,1185,1185,1185,1185,1181,1177,1177,1177,1177,1177,1177,1177,1177,1181,1181,1181,1181,1181,1181,1181,1177,1177,1181,1177,1177,1177,1173,1169,1165,1165,0,0,0,0,0,0,0,0,0,736,730,728,728,728,727,727,725,723,722,720,720,720,720,720,720,720,720,722,723,723,727,728,731,733,733,734,736,738,739,739,742,0,0,0,0,0,0,1177,1177,1177,1177,1177,1177,1173,1173,1173,1173,1173,1173,1173,1173,1169,1169,1169,1169,1165,1165,1165,1165,1165,1165,1165,1165,1165,978,978,978,978,975,975,973,970,970,967,967,964,962,962,956,956,954,954,951,948,946,928,928,928,928,928,928,928,928,928,928,928,928,930,933,933,935,938,943,946,948,954,956,956,959,959,962,964,970,970,1153,1153,1157,1161,1157,1157,1161,1161,1161,1161,1161,1161,1161,1161,1161,1157,1157,1157,1157,1157,1153,1153,1153,1153,1153,1149,1149,1145,1141,1138,1138,1134,1134,1130,1130,1130,1130,1130,1130,1130,1134,1138,1141,1145,1149,1149,1149,1153,1153,1149,1149,1149,1149,1149,1149,1149,1149,1149,1149,1149,1149,1149,1149,1149,1149,1149,1149,1149,1149,1149,1149,1149,1149,1149,1149,1149,1145,1145,1145,1145,1145,1149,1145,1145,1149,1149,1145,1145,1141,1141,1141,1141,1141,1145,1141,1141,1145,1145,1145,1145,1145,1145,1145,1145,1145,1145,1141,1141,1141,1141,1141,1141,1138,1138,1138,1138,1138,1141,1141,1141,1141,1141,1138,1138,1138,1138,1138,1138,1138,1138,1138,1138,1138,1138,1138,1138,1138,1138,1138,1138,1138,1138,1134,1134,1134,1134,1134,1134,1134,1134,1134,1134,1134,1134,1134,1134,1134,1134,1134,1134,1134,1134,1134,1130,1130,1130,1134,1134,1134,1130,1126,1126,1126,1126,1126,1130,1130,1130,1130,1126,1126,1126,1123,1123,1123,1123,1123,1123,1123,1126,1126,1126,1130,1130,1130,1130,1126,1126,1126,1126,1123,1123,1123,1123,1123,1123,1123,1123,1123,1123,1123,1016,1010,1007,1007,1004,1004,1004,1004,1115,1112,1108,1108,1105,1004,1001,1001,1004,1001,1001,1001,1001,0,0,935,935,935,935,935,935,935,935,935,935,935,935,935,935,935,935,935,935,938,938,938,940,940,943,946,946,946,946,948,951,959,967,973,973,973,970,970,970,970,967,967,967,964,964,962,962,0,0,0,0,0,0,0,0,0,0,0,0,0,0,0,0,0,0,0,0,0,0,0,0,0,0,0,0,0,0,0,0,0,0
0,0,0,0,0,0,0,0,1193,1193,1193,1193,1193,1197,1197,1197,1197,1197,1197,1197,1197,1197,1197,1197,1197,1193,1193,1197,1197,1197,1197,1197,1197,1202,1197,1197,1197,1197,1197,1197,1197,1193,1193,1197,1197,1197,1193,1193,1193,1193,1193,1193,1193,1193,1193,1193,1193,1193,1193,1193,1197,1197,1197,1197,1193,1193,1197,1197,1193,1193,1193,1193,1193,1193,1193,1193,1193,1193,1193,1193,1189,1189,1189,987,987,987,987,984,981,981,978,978,978,978,978,978,981,984,984,987,989,989,992,995,995,995,998,998,998,998,1001,1189,1189,1189,1189,1189,1189,1189,1189,1189,1185,1185,1185,1185,1185,1185,1185,1185,1185,1185,1185,1185,1189,1189,1189,1189,1189,1189,1189,1189,1185,1181,1181,1181,1181,1181,1181,1181,1181,1181,1181,1181,1181,1181,1181,1181,1181,1181,1181,1181,1181,1181,1181,1177,1177,1177,1177,1181,1181,1181,1181,1181,1185,1181,1181,1181,1177,1177,1173,1173,1173,1173,1177,1177,1177,1177,1177,1177,1181,1177,1177,1177,1177,1177,1173,1173,1173,1173,1169,1165,1165,1165,0,0,0,0,0,0,0,0,0,736,734,730,728,728,728,727,727,723,723,722,720,720,720,720,720,720,720,722,723,725,727,730,731,733,733,734,736,739,739,741,742,0,0,0,0,0,0,1177,1177,1177,1177,1173,1169,1169,1169,1165,1165,1165,1165,1165,1165,1165,1165,1165,1165,1165,1165,1165,1165,1165,1165,1165,1165,1165,1165,978,978,978,975,975,973,973,970,967,967,964,964,962,959,956,954,954,951,928,925,925,925,925,925,925,925,925,925,925,925,925,928,930,930,933,935,938,943,948,951,954,956,956,959,959,962,964,970,1153,1153,1153,1157,1157,1157,1157,1157,1157,1157,1157,1157,1157,1157,1157,1157,1157,1157,1157,1153,1153,1153,1153,1153,1153,1149,1149,1149,1145,1141,1141,1138,1134,1134,1134,1134,1134,1134,1134,1134,1134,1134,1138,1141,1145,1145,1149,1149,1149,1149,1149,1149,1145,1145,1145,1145,1145,1145,1145,1145,1145,1145,1145,1145,1145,1145,1145,1149,1149,1149,1149,1149,1149,1149,1145,1145,1141,1141,1141,1141,1141,1141,1141,1141,1141,1145,1145,1145,1141,1141,1141,1138,1138,1138,1141,1141,1141,1141,1141,1145,1145,1141,1141,1141,1141,1141,1141,1141,1138,1138,1138,1138,1138,1138,1138,1138,1138,1138,1138,1138,1138,1138,1138,1138,1138,1138,1138,1138,1138,1138,1138,1138,1138,1134,1134,1134,1134,1134,1134,1134,1134,1134,1134,1130,1130,1130,1130,1134,1134,1134,1134,1130,1130,1130,1130,1130,1130,1130,1130,1130,1130,1130,1130,1130,1130,1130,1130,1130,1126,1126,1126,1123,1123,1123,1123,1123,1123,1123,1126,1126,1126,1123,1123,1123,1123,1123,1123,1123,1123,1123,1123,1123,1126,1126,1126,1126,1126,1123,1123,1123,1123,1119,1119,1119,1119,1119,1119,1119,1119,1119,1119,1119,1013,1010,1007,1007,1007,1007,1007,1119,1108,1108,1108,1108,1105,1105,1105,1105,1001,1001,1001,1001,0,0,0,0,935,935,935,935,935,935,935,935,935,935,935,935,935,935,935,935,935,938,938,938,940,940,943,946,946,946,946,948,951,970,970,975,973,973,970,970,970,967,967,967,964,964,962,962,962,0,0,0,0,0,0,0,0,0,0,0,0,0,0,0,0,0,0,0,0,0,0,0,0,0,0,0,0,0,0,0,0,0,0
0,0,0,0,0,0,0,0,1193,1189,1189,1193,1193,1193,1193,1193,1193,1193,1193,1193,1193,1193,1193,1193,1193,1193,1193,1193,1193,1193,1197,1197,1197,1197,1197,1193,1193,1193,1193,1193,1193,1193,1193,1193,1193,1193,1185,1185,1185,1189,1189,1193,1193,1189,1189,1193,1193,1193,1193,1193,1193,1193,1193,1193,1193,1193,1193,1193,1193,1193,1193,1193,1193,1193,1189,1189,1189,1189,1189,1189,1185,1185,1185,989,989,989,987,987,984,981,981,978,978,978,978,978,981,984,984,987,989,989,992,995,995,998,998,998,998,998,1001,1177,1177,1177,1185,1185,1185,1185,1185,1185,1185,1181,1181,1181,1181,1181,1181,1181,1181,1181,1181,1181,1177,1177,1181,1185,1185,1189,1185,1185,1181,1181,1181,1177,1177,1177,1177,1177,1177,1181,1177,1177,1177,1177,1177,1177,1177,1177,1177,1177,1177,1177,1177,1177,1177,1177,1177,1177,1177,1177,1177,1181,1181,1177,1177,1177,1177,1173,1173,1169,1169,1169,1173,1173,1173,1173,1173,1177,1177,1177,1177,1173,1173,1173,1169,1169,1169,1165,1165,1165,1165,1165,0,0,0,0,0,0,0,0,0,0,736,730,730,728,728,728,727,725,723,722,722,722,720,720,720,720,722,722,723,725,728,730,731,733,734,736,738,739,741,741,742,0,0,0,0,0,0,0,1177,1177,1173,1169,1165,1161,1161,1161,1161,1161,1161,1161,1161,1165,1165,1165,1165,1165,1165,1165,1165,1165,1165,1165,1165,1165,1165,1161,1161,978,978,975,973,973,970,967,967,964,964,962,959,956,956,954,925,925,925,925,925,925,925,925,925,925,925,925,925,925,925,928,930,930,933,938,946,948,954,954,956,959,959,959,962,967,1153,1153,1153,1153,1157,1157,1153,1153,1157,1153,1153,1153,1153,1153,1153,1157,1153,1153,1153,1153,1153,1153,1153,1153,1153,1149,1149,1149,1149,1145,1141,1141,1138,1138,1138,1134,1134,1134,1134,1134,1134,1134,1134,1138,1141,1141,1145,1145,1145,1149,1145,1145,1145,1141,1141,1145,1145,1141,1141,1141,1141,1141,1141,1138,1138,1138,1141,1141,1141,1145,1145,1145,1145,1145,1145,1141,1141,1141,1138,1138,1138,1138,1138,1138,1138,1138,1141,1141,1141,1141,1138,1138,1138,1138,1138,1138,1138,1138,1138,1138,1138,1141,1138,1138,1138,1138,1138,1138,1138,1138,1138,1138,1138,1138,1134,1134,1134,1134,1134,1134,1134,1134,1134,1134,1134,1134,1134,1134,1134,1134,1134,1134,1134,1134,1130,1130,1130,1130,1130,1130,1130,1130,1130,1130,1126,1126,1130,1130,1130,1130,1130,1130,1130,1130,1126,1126,1126,1126,1126,1126,1123,1123,1126,1126,1126,1126,1126,1126,1126,1126,1123,1123,1123,1123,1123,1123,1123,1123,1123,1123,1123,1119,1119,1123,1119,1119,1119,1119,1123,1123,1123,1123,1123,1123,1123,1123,1123,1123,1119,1119,1119,1119,1119,1115,1115,1115,1115,1115,1115,1115,1115,1115,1115,1013,1010,1010,1010,1007,1007,1112,1112,1108,1108,1108,1108,1105,1105,1105,1105,1105,1105,0,0,0,0,0,935,935,935,935,935,935,935,935,935,935,935,935,935,935,935,935,935,935,935,938,938,938,940,943,946,946,946,946,948,951,973,973,975,973,973,970,970,967,967,967,964,964,964,962,959,959,0,0,0,0,0,0,0,0,0,0,0,0,0,0,0,0,0,0,0,0,0,0,0,0,0,0,0,0,0,0,0,0,0,0
0,0,0,0,0,0,0,1189,1189,1189,1189,1189,1189,1193,1193,1189,1189,1189,1193,1193,1193,1193,1189,1189,1189,1189,1189,1189,1189,1189,1193,1193,1193,1193,1193,1193,1193,1193,1193,1193,1193,1189,1189,1189,1189,1189,1185,1185,1185,1185,1189,1189,1189,1189,1189,1189,1189,1189,1189,1189,1189,1185,1185,1189,1189,1189,1189,1189,1193,1189,1189,1189,1189,1189,1185,1185,1185,1185,1185,1181,1181,1181,1181,989,989,989,987,987,984,981,981,981,981,981,981,981,981,984,987,987,989,992,992,995,995,998,998,998,998,1001,1001,1177,1177,1177,1177,1181,1181,1181,1181,1181,1181,1181,1181,1181,1181,1181,1181,1181,1181,1177,1177,1177,1177,1177,1177,1181,1181,1181,1185,1185,1181,1177,1177,1177,1177,1177,1177,1177,1177,1177,1177,1177,1177,1177,1177,1177,1177,1177,1173,1173,1173,1173,1173,1173,1173,1173,1173,1173,1173,1173,1173,1177,1177,1177,1173,1173,1173,1173,1169,1169,1169,1169,1169,1169,1169,1169,1173,1173,1173,1173,1173,1173,1169,1169,1165,1165,1165,1165,1165,1161,1161,1161,0,0,0,0,0,0,0,0,0,741,736,731,730,730,728,728,727,727,725,723,722,722,720,720,720,722,722,723,725,727,728,730,731,734,734,738,738,739,741,742,744,0,0,0,0,0,0,0,1177,1177,1173,1165,1161,1161,1157,1157,1157,1153,1153,1157,1157,1161,1161,1161,1161,1161,1161,1161,1161,1161,1161,1161,1161,1161,1161,1161,1157,978,978,975,975,973,970,967,967,964,964,962,959,956,956,956,923,923,923,923,923,923,923,923,923,923,923,925,925,925,925,928,930,930,933,938,946,951,954,956,959,959,959,959,1153,1153,1149,1149,1149,1149,1153,1153,1149,1149,1149,1153,1153,1149,1149,1149,1153,1153,1153,1153,1153,1153,1149,1149,1149,1149,1149,1149,1149,1145,1145,1145,1141,1141,1141,1138,1138,1138,1134,1134,1134,1134,1134,1134,1138,1138,1141,1141,1145,1145,1145,1145,1145,1141,1141,1141,1141,1141,1141,1138,1138,1138,1138,1138,1138,1138,1138,1138,1138,1138,1138,1141,1141,1141,1141,1141,1141,1141,1138,1138,1138,1138,1138,1138,1138,1138,1138,1138,1138,1138,1138,1138,1138,1138,1134,1134,1134,1134,1138,1138,1138,1138,1138,1138,1138,1138,1138,1134,1134,1138,1138,1134,1134,1134,1134,1134,1134,1134,1130,1130,1130,1134,1134,1134,1130,1130,1134,1130,1130,1130,1134,1134,1134,1130,1130,1130,1126,1126,1126,1126,1126,1126,1126,1126,1126,1126,1123,1123,1126,1126,1126,1126,1126,1126,1126,1126,1126,1126,1123,1123,1123,1123,1123,1123,1123,1123,1123,1123,1123,1123,1123,1123,1123,1123,1119,1119,1123,1123,1123,1123,1123,1119,1119,1119,1119,1119,1119,1119,1119,1119,1119,1119,1119,1119,1119,1119,1119,1119,1119,1119,1115,1115,1115,1115,1115,1115,1115,1112,1112,1112,1112,1108,1108,1108,1013,1010,1010,1010,1010,1010,1010,1112,1112,1108,1108,1108,1108,1105,1105,1105,1101,1101,1101,1101,0,0,1101,0,0,938,938,935,935,935,935,935,935,935,935,935,935,935,935,935,935,935,935,938,938,938,940,943,946,946,946,946,948,954,970,973,975,973,973,970,970,967,967,964,964,962,962,962,959,959,0,0,0,0,0,0,0,0,0,0,0,0,0,0,0,0,0,0,0,0,0,0,0,0,0,0,0,0,0,0,0,0,0,0
0,0,0,0,0,0,0,1189,1189,1189,1189,1189,1189,1193,1189,1189,1189,1189,1189,1189,1189,1189,1189,1189,1189,1189,1189,1189,1189,1189,1189,1193,1193,1189,1189,1189,1189,1189,1189,1189,1189,1189,1185,1185,1185,1185,1181,1181,1181,1185,1185,1189,1189,1185,1185,1189,1185,1185,1185,1185,1185,1185,1185,1185,1185,1185,1185,1185,1185,1185,1185,1185,1185,1185,1181,1181,1181,1181,1181,1181,1181,1181,1181,1181,992,992,989,987,987,984,984,981,981,981,981,981,981,984,987,987,989,992,992,995,995,998,998,998,998,1001,1001,1177,1177,1177,1177,1177,1177,1177,1177,1177,1181,1177,1177,1177,1177,1177,1177,1177,1177,1177,1177,1173,1173,1173,1173,1177,1177,1177,1177,1177,1177,1177,1177,1177,1177,1177,1177,1173,1173,1173,1173,1173,1173,1173,1173,1173,1173,1173,1169,1169,1169,1169,1169,1169,1169,1169,1169,1169,1169,1169,1173,1173,1173,1169,1169,1169,1169,1169,1165,1165,1165,1165,1165,1165,1165,1169,1169,1169,1169,1169,1165,1165,1165,1165,1165,1161,1161,1161,1161,1161,1161,1161,0,0,0,0,0,0,0,0,742,741,738,733,731,731,730,728,728,727,727,723,723,722,722,722,722,722,722,723,725,727,728,731,733,734,736,738,739,739,741,742,744,746,0,0,0,0,0,0,1177,1177,1169,1161,1157,1157,1153,1153,1153,1153,1153,1153,1153,1157,1157,1157,1157,1157,1157,1157,1157,1157,1157,1157,1161,1161,1157,1157,1153,1153,1149,975,975,973,970,967,967,964,964,962,959,956,956,918,918,920,920,920,920,920,920,920,920,920,923,923,923,925,925,928,928,930,933,938,946,951,956,956,959,959,959,959,1149,1149,1149,1149,1145,1145,1149,1149,1149,1149,1149,1149,1149,1145,1145,1145,1149,1149,1145,1145,1145,1149,1149,1149,1149,1149,1149,1149,1145,1145,1145,1145,1141,1141,1141,1138,1138,1138,1138,1134,1134,1138,1134,1134,1138,1138,1138,1141,1141,1141,1141,1141,1141,1141,1141,1141,1141,1138,1138,1138,1138,1138,1138,1138,1138,1134,1134,1134,1138,1134,1134,1138,1138,1138,1138,1141,1138,1138,1138,1138,1138,1134,1134,1138,1138,1138,1134,1134,1138,1138,1138,1138,1134,1134,1134,1134,1134,1134,1134,1134,1134,1134,1134,1134,1134,1134,1134,1134,1134,1134,1134,1134,1134,1130,1130,1130,1130,1130,1126,1126,1126,1130,1126,1126,1126,1126,1126,1126,1126,1126,1126,1126,1126,1126,1126,1126,1123,1123,1126,1123,1123,1123,1123,1123,1123,1123,1123,1123,1123,1123,1123,1123,1123,1123,1123,1123,1123,1123,1123,1123,1123,1123,1123,1123,1123,1123,1123,1123,1119,1119,1119,1119,1119,1119,1119,1119,1119,1119,1119,1119,1119,1119,1119,1119,1119,1119,1119,1115,1115,1115,1115,1115,1115,1115,1115,1115,1115,1115,1115,1115,1115,1115,1115,1115,1112,1112,1112,1108,1108,1108,1108,1105,1105,1010,1010,1010,1010,1010,1010,1013,1013,1112,1112,1108,1108,1108,1108,1105,1105,1105,1101,1101,1101,1101,1101,1101,1101,0,0,938,938,935,935,935,935,935,935,935,935,935,935,935,935,935,935,935,935,938,938,938,940,943,946,946,946,946,948,954,970,973,973,973,970,970,970,967,964,964,962,962,962,962,959,959,0,0,0,0,0,0,0,0,0,0,0,0,0,0,0,0,0,0,0,0,0,0,0,0,0,0,0,0,0,0,0,0,0,0
0,0,0,0,0,0,0,1189,1189,1185,1185,1185,1185,1189,1185,1185,1185,1185,1185,1185,1185,1185,1185,1185,1185,1185,1185,1185,1185,1189,1189,1189,1189,1189,1185,1185,1185,1185,1185,1185,1185,1185,1185,1185,1185,1181,1181,1181,1181,1181,1181,1181,1181,1185,1185,1185,1185,1185,1181,1181,1181,1181,1181,1181,1181,1181,1181,1181,1181,1181,1181,1181,1181,1181,1181,1181,1181,1181,1181,1177,1177,1177,1177,1177,995,995,989,989,987,987,984,984,984,984,981,981,984,987,987,989,989,995,995,995,998,998,1001,1001,1001,1001,1173,1173,1173,1173,1173,1177,1177,1177,1177,1177,1177,1177,1177,1177,1177,1177,1173,1173,1173,1173,1169,1169,1169,1169,1169,1173,1173,1173,1173,1173,1173,1173,1173,1169,1169,1169,1173,1173,1169,1169,1169,1169,1169,1169,1169,1169,1169,1169,1165,1165,1169,1169,1165,1165,1165,1165,1165,1165,1165,1165,1165,1165,1165,1165,1165,1165,1165,1165,1165,1165,1165,1165,1165,1165,1165,1165,1165,1165,1161,1161,1165,1165,1161,1161,1161,1161,1161,1157,1157,1157,1157,1157,0,0,0,0,0,0,0,746,742,742,739,736,734,733,731,731,730,728,727,725,723,723,722,722,722,722,722,723,725,727,728,731,733,734,736,738,739,741,742,744,744,746,746,0,0,0,0,0,0,1177,1157,1153,1153,1153,1153,1149,1149,1149,1149,1149,1149,1153,1153,1153,1153,1153,1153,1153,1153,1153,1153,1153,1153,1153,1153,1153,1153,1149,1149,1149,1149,1149,970,967,964,964,964,962,959,915,915,915,918,918,918,918,918,918,918,918,920,920,920,923,923,925,925,928,928,930,933,938,946,951,956,956,959,962,962,1145,1145,1145,1145,1145,1145,1145,1149,1149,1149,1145,1145,1145,1145,1141,1141,1141,1141,1145,1141,1141,1141,1145,1145,1145,1145,1145,1145,1145,1145,1141,1141,1141,1141,1138,1138,1138,1138,1138,1138,1134,1134,1134,1134,1134,1134,1138,1138,1138,1138,1138,1138,1138,1138,1138,1138,1138,1138,1138,1138,1138,1134,1134,1134,1134,1134,1134,1134,1134,1134,1134,1134,1134,1134,1134,1134,1134,1134,1134,1134,1134,1134,1134,1134,1134,1134,1134,1134,1134,1130,1130,1130,1134,1134,1134,1130,1130,1130,1130,1130,1130,1130,1130,1130,1130,1130,1130,1130,1130,1130,1130,1130,1130,1130,1130,1126,1126,1126,1126,1123,1123,1123,1123,1123,1123,1123,1123,1126,1123,1123,1123,1123,1123,1123,1123,1119,1119,1123,1123,1123,1123,1123,1123,1123,1123,1123,1123,1123,1123,1123,1123,1123,1123,1123,1119,1119,1119,1119,1119,1119,1119,1119,1119,1119,1119,1119,1119,1119,1119,1115,1115,1115,1115,1115,1115,1115,1115,1115,1119,1115,1115,1119,1115,1115,1115,1115,1115,1115,1115,1115,1115,1112,1112,1112,1112,1112,1112,1112,1112,1112,1112,1112,1112,1112,1112,1108,1108,1108,1108,1108,1108,1105,1105,1010,1010,1010,1010,1010,1010,1013,1013,1013,1108,1108,1105,1105,1105,1105,1105,1105,1105,1101,1101,1101,1101,1101,1101,0,1094,0,0,938,935,935,935,935,935,935,935,935,935,935,935,935,935,935,935,935,938,938,938,940,940,943,946,946,946,948,959,970,973,973,970,970,967,967,967,964,964,962,962,962,959,959,959,0,0,0,0,0,0,0,0,0,0,0,0,0,0,0,0,0,0,0,0,0,0,0,0,0,0,0,0,0,0,0,0,0,0
0,0,0,0,0,0,0,1189,1189,1185,1185,1185,1185,1189,1185,1185,1185,1185,1185,1185,1185,1185,1185,1185,1185,1181,1181,1185,1185,1185,1185,1185,1185,1185,1185,1181,1181,1181,1181,1181,1185,1185,1181,1181,1181,1181,1181,1177,1177,1177,1181,1181,1181,1181,1181,1181,1181,1181,1181,1181,1181,1181,1177,1177,1177,1177,1181,1181,1181,1181,1181,1181,1181,1177,1177,1177,1177,1177,1177,1173,1173,1173,1173,1173,995,995,992,989,989,987,987,987,984,984,984,984,984,987,987,989,989,995,998,998,998,998,1001,1001,1001,1001,1169,1169,1169,1169,1173,1173,1173,1173,1173,1173,1173,1173,1173,1173,1173,1173,1173,1173,1173,1169,1169,1165,1165,1165,1165,1169,1165,1165,1165,1165,1165,1165,1165,1165,1165,1165,1165,1165,1165,1169,1169,1169,1169,1165,1165,1165,1165,1165,1165,1165,1165,1165,1165,1165,1165,1165,1165,1165,1165,1161,1161,1161,1161,1165,1165,1165,1165,1165,1165,1165,1165,1165,1165,1161,1161,1161,1161,1161,1161,1161,1161,1161,1161,1161,1157,1157,1157,1157,1157,1157,1157,1157,0,0,0,0,0,0,0,746,744,742,741,739,738,734,733,731,730,728,728,727,725,723,723,723,723,723,723,723,725,728,730,731,734,736,738,739,739,741,742,744,746,746,746,0,0,0,0,0,0,0,1157,1153,1149,1149,1149,1149,1149,1149,1149,1149,1149,1149,1149,1149,1149,1149,1149,1149,1149,1149,1149,1149,1149,1149,1149,1149,1149,1145,1145,1149,1149,1145,1145,1145,964,964,964,913,913,913,915,915,915,915,915,915,915,915,915,915,918,918,920,923,923,925,925,928,930,933,935,938,946,951,954,956,962,1149,1149,1145,1141,1141,1145,1141,1141,1141,1145,1145,1145,1141,1141,1141,1141,1138,1138,1138,1138,1138,1138,1134,1134,1138,1141,1141,1141,1141,1141,1141,1141,1138,1138,1138,1138,1138,1138,1138,1138,1138,1134,1134,1134,1134,1134,1134,1134,1134,1134,1134,1134,1134,1134,1134,1138,1138,1138,1138,1138,1138,1134,1134,1134,1134,1134,1134,1134,1130,1130,1130,1130,1130,1130,1134,1134,1134,1134,1130,1130,1130,1130,1130,1130,1130,1130,1130,1130,1130,1130,1130,1126,1126,1126,1130,1130,1130,1126,1126,1126,1126,1126,1126,1126,1126,1126,1126,1126,1126,1126,1126,1126,1126,1126,1126,1126,1126,1123,1123,1123,1123,1123,1123,1123,1123,1123,1123,1119,1119,1123,1119,1119,1119,1119,1119,1119,1119,1119,1119,1119,1119,1119,1123,1123,1123,1123,1123,1123,1119,1119,1119,1119,1119,1123,1119,1119,1119,1119,1119,1115,1115,1115,1115,1115,1115,1115,1115,1115,1115,1115,1115,1115,1115,1115,1112,1112,1115,1115,1115,1115,1115,1115,1115,1115,1112,1112,1112,1108,1108,1112,1108,1108,1108,1108,1108,1105,1105,1105,1105,1108,1108,1108,1108,1108,1108,1108,1108,1108,1108,1105,1105,1105,1105,1105,1101,1010,1010,1010,1010,1013,1013,1013,1016,1108,1108,1105,1105,1101,1101,1101,1101,1101,1101,1097,1097,1097,1097,1097,1094,1094,1094,0,940,940,938,938,938,935,935,933,933,935,935,935,935,935,935,935,935,935,938,938,938,940,940,943,943,943,943,948,964,970,970,973,970,970,967,967,967,964,964,964,962,962,959,959,959,0,0,0,0,0,0,0,0,0,0,0,0,0,0,0,0,0,0,0,0,0,0,0,0,0,0,0,0,0,0,0,0,0,0
0,0,0,0,0,0,0,1181,1177,1177,1185,1181,1181,1181,1181,1181,1181,1181,1181,1181,1181,1181,1181,1181,1181,1181,1181,1181,1181,1181,1185,1181,1181,1181,1181,1181,1181,1181,1181,1181,1181,1181,1181,1181,1181,1181,1181,1177,1177,1177,1177,1177,1177,1177,1177,1177,1177,1177,1177,1177,1177,1177,1177,1177,1177,1177,1177,1177,1177,1177,1177,1177,1177,1177,1177,1173,1173,1173,1169,1169,1169,1169,1169,1173,998,998,992,992,989,989,989,987,987,987,984,984,984,987,987,987,989,992,995,998,998,998,1001,1001,1001,1001,1169,1169,1169,1169,1169,1173,1169,1169,1169,1169,1169,1169,1173,1173,1169,1169,1169,1169,1169,1165,1165,1161,1161,1161,1161,1161,1161,1157,1157,1157,1161,1161,1161,1161,1161,1165,1165,1161,1161,1161,1161,1161,1161,1165,1165,1165,1165,1165,1161,1161,1161,1161,1161,1161,1161,1161,1161,1161,1161,1161,1161,1161,1161,1161,1161,1161,1161,1161,1161,1161,1161,1161,1161,1161,1161,1161,1161,1161,1157,1157,1157,1157,1157,1153,1153,1157,1157,1153,1153,1153,1153,1157,1157,0,0,0,0,0,0,746,744,744,741,739,739,738,734,733,731,730,730,728,727,725,723,723,723,723,723,725,725,728,730,731,734,736,738,739,741,741,742,744,746,746,746,0,0,0,0,0,0,0,1157,1153,1149,1149,1149,1149,1149,1149,1145,1145,1145,1149,1145,1145,1145,1145,1145,1145,1145,1145,1145,1145,1145,1145,1145,1145,1145,1145,1141,1141,1141,1141,1141,1141,1145,1145,913,913,913,913,913,913,913,913,913,913,913,913,913,915,915,915,918,920,923,925,925,930,933,935,938,940,946,948,954,956,1145,1141,1141,1141,1141,1141,1141,1138,1138,1138,1138,1141,1138,1138,1138,1138,1138,1138,1134,1134,1134,1134,1134,1134,1134,1134,1134,1134,1138,1138,1138,1138,1138,1134,1134,1134,1134,1134,1138,1138,1134,1134,1134,1134,1134,1134,1134,1134,1134,1134,1134,1130,1130,1130,1130,1130,1134,1134,1134,1134,1134,1134,1134,1130,1130,1130,1130,1130,1130,1130,1126,1126,1126,1126,1126,1130,1130,1130,1130,1126,1126,1130,1126,1126,1126,1126,1126,1126,1126,1126,1126,1126,1123,1123,1123,1126,1126,1126,1126,1126,1126,1126,1123,1123,1123,1123,1123,1123,1123,1123,1123,1123,1123,1123,1123,1123,1123,1123,1123,1123,1123,1123,1119,1119,1123,1119,1119,1119,1119,1119,1119,1119,1119,1119,1119,1115,1115,1115,1115,1115,1115,1115,1115,1119,1119,1119,1119,1119,1119,1119,1119,1119,1119,1119,1119,1115,1115,1115,1115,1115,1115,1112,1112,1112,1112,1112,1112,1112,1112,1112,1112,1112,1112,1112,1112,1112,1112,1112,1112,1112,1112,1112,1112,1112,1108,1108,1108,1108,1108,1108,1108,1108,1108,1108,1105,1105,1101,1101,1101,1101,1101,1101,1101,1105,1105,1105,1105,1105,1105,1105,1105,1105,1101,1101,1101,1010,1010,1010,1010,1013,1013,1013,1013,1108,1108,1105,1105,1105,1101,1101,1101,1097,1097,1097,1094,1094,1094,1094,1094,1094,1090,1090,1090,1087,938,938,938,938,935,935,933,933,933,933,933,933,935,935,935,935,935,938,938,938,940,940,943,943,943,943,946,967,970,970,970,970,967,967,967,964,964,964,962,962,959,959,956,956,0,0,0,0,0,0,0,0,0,0,0,0,0,0,0,0,0,0,0,0,0,0,0,0,0,0,0,0,0,0,0,0,0,0
0,0,0,0,0,0,0,1177,1177,1177,1177,1173,1173,1177,1177,1177,1177,1177,1177,1177,1181,1181,1181,1181,1181,1177,1177,1177,1177,1177,1181,1177,1177,1173,1173,1177,1177,1177,1177,1177,1181,1181,1181,1181,1177,1177,1177,1177,1177,1177,1173,1169,1169,1173,1173,1173,1173,1173,1173,1177,1173,1173,1173,1173,1173,1173,1173,1173,1173,1173,1173,1173,1173,1173,1169,1169,1169,1169,1169,1165,1165,1165,1165,1165,1165,1001,998,995,992,989,989,989,987,987,984,984,984,987,987,987,989,992,995,998,998,998,1001,1001,1004,1004,1165,1165,1165,1165,1165,1165,1165,1165,1165,1165,1165,1165,1169,1169,1165,1165,1165,1165,1165,1161,1161,1161,1161,1161,1161,1157,1157,1157,1157,1157,1157,1161,1161,1161,1161,1161,1161,1161,1161,1161,1161,1157,1157,1157,1157,1157,1161,1161,1157,1157,1157,1157,1157,1157,1157,1157,1161,1161,1161,1157,1157,1157,1157,1157,1157,1157,1157,1157,1157,1157,1157,1157,1157,1157,1157,1157,1157,1157,1153,1153,1153,1153,1153,1153,1153,1153,1153,1153,1153,1153,1153,1157,1157,0,0,0,0,0,0,746,744,744,741,741,739,738,736,734,733,731,731,730,728,727,725,725,725,725,725,725,725,728,730,731,734,736,738,739,741,742,744,746,746,746,746,0,0,0,0,0,0,1153,1149,1149,1149,1145,1145,1145,1145,1145,1145,1145,1145,1145,1145,1145,1145,1141,1141,1141,1141,1141,1141,1141,1141,1141,1141,1141,1141,1141,1141,1138,1138,1141,1141,1141,1141,906,906,906,908,908,910,910,910,910,908,908,910,910,910,913,913,915,915,920,923,925,928,930,933,935,938,940,946,948,954,1138,1138,1138,1138,1138,1138,1138,1138,1138,1134,1134,1134,1134,1134,1134,1134,1134,1134,1134,1134,1130,1130,1130,1130,1130,1130,1134,1134,1134,1134,1134,1134,1134,1130,1130,1130,1126,1126,1130,1134,1134,1134,1134,1134,1134,1130,1130,1130,1130,1130,1130,1130,1130,1126,1126,1126,1126,1130,1130,1130,1130,1130,1130,1130,1126,1126,1126,1126,1126,1126,1126,1126,1126,1126,1126,1126,1126,1126,1126,1126,1126,1126,1126,1123,1123,1123,1123,1123,1123,1123,1119,1119,1123,1123,1123,1123,1123,1123,1123,1123,1123,1123,1123,1119,1119,1119,1119,1119,1119,1119,1119,1123,1123,1119,1119,1119,1119,1119,1119,1119,1119,1119,1119,1119,1119,1119,1119,1115,1115,1115,1115,1112,1112,1112,1112,1112,1112,1112,1112,1112,1112,1112,1112,1112,1115,1115,1115,1112,1112,1115,1115,1115,1115,1115,1115,1115,1115,1115,1112,1112,1112,1112,1108,1108,1108,1108,1108,1108,1108,1108,1112,1112,1112,1112,1108,1108,1108,1108,1112,1108,1108,1108,1108,1108,1108,1108,1105,1105,1105,1105,1105,1105,1105,1101,1101,1101,1101,1097,1097,1097,1097,1101,1101,1097,1097,1097,1097,1097,1101,1101,1101,1101,1101,1101,1097,1097,1010,1010,1010,1010,1010,1013,1013,1013,1105,1105,1105,1105,1101,1097,1097,1097,1097,1094,1094,1094,1094,1094,1094,1094,1094,1090,1087,1087,1087,940,940,938,938,935,935,933,933,933,933,933,933,933,935,935,935,935,938,938,938,940,940,943,943,943,943,946,967,970,970,970,970,967,967,967,964,964,962,962,962,959,959,956,956,0,0,0,0,0,0,0,0,0,0,0,0,0,0,0,0,0,0,0,0,0,0,0,0,0,0,0,0,0,0,0,0,0,0
0,0,0,0,0,0,0,1173,1173,1173,1173,1173,1173,1173,1173,1173,1169,1169,1177,1177,1177,1177,1177,1177,1177,1177,1177,1177,1173,1173,1177,1173,1173,1169,1169,1173,1173,1173,1173,1173,1177,1177,1177,1177,1177,1177,1177,1173,1173,1173,1169,1169,1169,1169,1169,1169,1169,1169,1173,1173,1169,1169,1169,1169,1169,1169,1169,1169,1169,1169,1169,1169,1169,1169,1165,1165,1165,1165,1165,1161,1161,1161,1161,1161,1161,1161,998,998,998,995,992,989,989,989,987,987,987,987,989,989,989,995,998,998,998,1001,1001,1004,1004,1007,1165,1165,1165,1165,1165,1165,1165,1165,1161,1161,1157,1157,1157,1161,1161,1161,1161,1161,1161,1161,1157,1157,1157,1157,1157,1157,1153,1153,1153,1153,1153,1153,1153,1157,1157,1161,1157,1157,1157,1157,1157,1157,1153,1153,1153,1153,1153,1153,1153,1149,1149,1157,1157,1153,1153,1153,1157,1157,1157,1157,1157,1157,1153,1153,1153,1153,1153,1153,1153,1157,1157,1157,1157,1157,1157,1153,1153,1153,1153,1153,1153,1153,1149,1149,1149,1149,1149,1149,1149,1149,1149,1149,1153,1153,0,0,0,0,0,746,746,744,742,741,739,738,736,734,733,733,731,730,728,728,727,725,725,725,725,725,727,728,730,733,734,736,738,739,741,742,744,746,747,746,746,747,0,0,0,0,0,1149,1145,1145,1145,1145,1145,1145,1145,1145,1145,1141,1141,1141,1141,1141,1141,1141,1141,1141,1138,1138,1138,1141,1141,1141,1141,1141,1141,1141,1141,1138,1138,1141,1141,906,906,906,906,906,906,906,906,908,908,908,908,908,908,908,910,910,913,913,915,918,923,928,928,933,935,938,938,940,946,946,1130,1134,1134,1134,1134,1134,1134,1134,1134,1134,1134,1130,1130,1130,1134,1134,1134,1130,1130,1130,1130,1130,1126,1126,1126,1130,1130,1130,1130,1130,1130,1130,1130,1126,1126,1126,1126,1126,1126,1126,1126,1130,1130,1130,1130,1130,1126,1126,1126,1126,1126,1126,1126,1126,1126,1126,1126,1126,1126,1126,1126,1126,1126,1126,1126,1123,1123,1123,1126,1126,1123,1123,1123,1123,1123,1123,1123,1123,1123,1123,1123,1123,1123,1123,1123,1123,1123,1119,1119,1119,1119,1119,1119,1119,1119,1119,1119,1123,1123,1123,1119,1119,1119,1119,1119,1119,1119,1119,1119,1119,1119,1119,1119,1119,1119,1115,1115,1115,1115,1115,1115,1119,1119,1119,1115,1115,1115,1115,1112,1112,1112,1112,1112,1112,1112,1112,1112,1112,1112,1112,1108,1108,1108,1108,1108,1108,1108,1108,1108,1108,1108,1112,1108,1108,1112,1112,1112,1112,1112,1108,1108,1108,1108,1105,1105,1105,1105,1108,1108,1108,1108,1108,1108,1108,1108,1108,1108,1108,1108,1108,1108,1105,1105,1105,1105,1105,1105,1101,1101,1101,1101,1101,1101,1097,1097,1097,1097,1097,1097,1097,1097,1097,1097,1094,1094,1094,1094,1094,1094,1094,1094,1094,1097,1097,1097,1097,1094,1010,1007,1007,1010,1010,1013,1013,1013,1016,1105,1105,1105,1094,1094,1094,1094,1094,1094,1094,1090,1090,1090,1090,1090,1090,1087,1087,1087,1087,1087,938,938,938,938,935,933,930,930,930,930,930,933,935,935,935,935,938,938,938,940,940,943,943,943,943,946,967,970,970,970,967,967,967,967,964,964,962,962,959,959,956,956,956,0,0,0,0,0,0,0,0,0,0,0,0,0,0,0,0,0,0,0,0,0,0,0,0,0,0,0,0,0,0,0,0,0,0
0,0,0,0,0,0,0,1169,1169,1169,1169,1169,1169,1169,1169,1165,1165,1165,1165,1169,1169,1169,1173,1173,1173,1173,1173,1173,1169,1169,1173,1169,1169,1165,1165,1169,1169,1165,1165,1169,1169,1169,1169,1169,1169,1169,1173,1173,1169,1169,1169,1169,1169,1169,1169,1169,1165,1165,1165,1165,1165,1165,1165,1165,1165,1165,1165,1165,1165,1165,1165,1165,1165,1165,1165,1165,1161,1161,1161,1161,1161,1157,1157,1157,1157,1157,1001,998,998,995,992,989,989,989,987,987,987,989,989,989,992,995,998,998,998,1001,1001,1004,1007,1007,1165,1165,1161,1161,1161,1161,1161,1161,1157,1157,1153,1153,1153,1157,1157,1157,1157,1157,1157,1153,1153,1153,1153,1153,1153,1149,1149,1149,1149,1149,1149,1149,1149,1149,1149,1153,1153,1153,1153,1157,1157,1153,1149,1149,1149,1153,1153,1149,1149,1149,1149,1149,1149,1149,1149,1149,1153,1153,1153,1153,1153,1153,1153,1153,1153,1153,1153,1153,1153,1153,1153,1153,1153,1149,1149,1149,1149,1149,1149,1149,1149,1149,1149,1149,1145,1145,1149,1145,1145,1145,1145,1145,1149,1153,0,0,0,0,0,0,746,746,744,742,741,739,738,736,734,733,733,731,730,728,727,727,727,727,727,727,727,728,730,733,734,736,738,739,741,742,746,747,747,747,747,747,0,0,0,0,0,1145,1145,1145,1145,1141,1141,1141,1141,1141,1141,1141,1141,1141,1141,1141,1138,1138,1138,1138,1138,1138,1138,1138,1138,1138,1138,1138,1138,1138,1138,1138,1138,1138,903,903,903,903,903,903,903,906,906,906,906,906,906,906,908,908,908,910,913,913,915,918,923,928,930,933,935,938,938,940,940,1130,1130,1130,1130,1130,1134,1134,1134,1134,1130,1130,1130,1130,1130,1130,1130,1130,1130,1126,1126,1126,1126,1126,1126,1126,1126,1126,1126,1126,1126,1126,1126,1126,1126,1123,1123,1123,1123,1123,1123,1123,1126,1126,1126,1123,1123,1123,1123,1123,1123,1123,1123,1126,1123,1123,1123,1123,1123,1123,1123,1123,1119,1119,1123,1123,1123,1119,1119,1119,1123,1123,1123,1123,1123,1123,1123,1123,1123,1123,1119,1119,1119,1119,1123,1119,1119,1119,1119,1119,1119,1115,1115,1115,1115,1115,1115,1119,1119,1119,1115,1115,1119,1119,1115,1115,1115,1115,1115,1115,1115,1115,1115,1115,1115,1115,1115,1115,1115,1115,1115,1112,1112,1115,1115,1115,1115,1115,1112,1112,1112,1112,1112,1112,1108,1108,1108,1108,1108,1108,1108,1108,1108,1108,1108,1108,1108,1108,1105,1105,1108,1108,1108,1108,1108,1108,1108,1108,1108,1108,1105,1105,1105,1105,1105,1105,1105,1105,1105,1105,1105,1105,1105,1105,1105,1105,1105,1105,1105,1105,1105,1105,1105,1105,1105,1101,1101,1101,1101,1097,1097,1097,1097,1097,1097,1094,1094,1094,1094,1094,1094,1094,1094,1094,1094,1094,1094,1094,1090,1090,1090,1090,1090,1094,1094,1090,1090,1094,1094,1010,1007,1007,1010,1010,1013,1013,1013,1016,1101,1097,1097,1094,1090,1090,1094,1094,1090,1090,1090,1090,1090,1090,1090,1090,1084,1084,1084,1084,1084,1080,938,938,938,935,933,930,930,930,930,930,930,933,935,935,935,938,938,938,940,940,943,943,943,943,948,967,970,970,970,967,967,964,964,964,962,962,959,959,959,956,954,954,0,0,0,0,0,0,0,0,0,0,0,0,0,0,0,0,0,0,0,0,0,0,0,0,0,0,0,0,0,0,0,0,0,0
0,0,0,0,0,0,0,1169,1169,1169,1169,1165,1165,1165,1165,1165,1161,1161,1165,1165,1165,1165,1165,1165,1165,1165,1169,1169,1169,1169,1169,1169,1165,1165,1165,1165,1165,1165,1165,1165,1165,1165,1165,1165,1165,1165,1165,1165,1165,1165,1165,1165,1165,1165,1165,1165,1161,1161,1165,1161,1161,1161,1161,1161,1161,1165,1165,1165,1165,1165,1165,1161,1161,1161,1161,1161,1157,1157,1157,1157,1157,1157,1153,1153,1153,1153,1149,1149,998,995,995,992,989,989,989,989,989,989,989,989,995,995,998,998,998,1001,1001,1004,1007,1007,1013,1013,1157,1157,1157,1153,1149,1149,1153,1153,1149,1149,1149,1153,1153,1153,1153,1153,1153,1153,1149,1149,1149,1149,1149,1149,1149,1149,1149,1149,1149,1149,1149,1149,1149,1153,1153,1149,1149,1153,1153,1149,1149,1149,1149,1149,1149,1145,1145,1145,1145,1145,1145,1145,1145,1145,1145,1149,1149,1149,1149,1149,1149,1149,1149,1149,1149,1149,1149,1149,1149,1149,1149,1149,1149,1149,1149,1149,1145,1145,1145,1145,1145,1145,1141,1141,1145,1145,1145,1141,1141,1141,1149,0,0,0,0,0,0,0,0,0,744,742,741,741,739,738,736,734,733,731,731,730,728,727,727,727,727,727,727,728,730,733,734,736,738,741,742,744,746,747,747,747,747,749,0,0,0,0,0,1141,1138,1138,1141,1138,1138,1138,1138,1138,1138,1138,1138,1138,1138,1138,1138,1134,1134,1138,1134,1134,1134,1134,1134,1134,1134,1134,1134,1134,1134,1138,1138,901,901,901,901,901,901,901,901,901,901,901,901,903,906,906,906,906,908,908,910,913,915,918,923,928,930,935,935,938,938,940,1123,1123,1126,1126,1126,1130,1130,1130,1130,1130,1126,1126,1130,1126,1126,1126,1126,1126,1123,1123,1126,1126,1123,1123,1123,1123,1123,1123,1123,1123,1123,1126,1126,1123,1123,1123,1123,1123,1123,1123,1123,1123,1123,1123,1119,1119,1123,1123,1123,1123,1123,1123,1123,1123,1123,1123,1123,1119,1119,1119,1119,1119,1119,1119,1119,1119,1119,1119,1115,1115,1119,1119,1119,1119,1119,1119,1119,1119,1119,1119,1119,1119,1115,1115,1119,1119,1119,1119,1115,1115,1115,1115,1115,1115,1112,1112,1115,1115,1115,1115,1112,1112,1112,1112,1112,1112,1112,1112,1112,1112,1112,1112,1112,1112,1112,1112,1112,1112,1112,1112,1112,1112,1112,1112,1112,1112,1112,1108,1108,1108,1108,1108,1108,1108,1108,1108,1108,1108,1108,1108,1108,1105,1105,1105,1105,1105,1105,1105,1105,1105,1105,1105,1105,1105,1105,1105,1101,1101,1101,1101,1101,1101,1101,1105,1105,1105,1105,1105,1105,1105,1105,1101,1101,1101,1101,1101,1101,1101,1101,1101,1101,1101,1101,1101,1101,1101,1097,1097,1097,1097,1097,1094,1094,1094,1094,1094,1094,1094,1094,1094,1090,1090,1090,1090,1090,1090,1090,1090,1090,1090,1090,1090,1090,1090,1090,1090,1090,1090,1087,1010,1007,1007,1010,1010,1013,1013,1013,1016,1097,1094,1094,1090,1090,1090,1090,1090,1090,1090,1087,1087,1087,1090,1090,1084,1084,1084,1084,1080,1080,1080,938,938,938,935,933,930,930,930,930,930,930,933,935,935,935,938,938,940,940,940,940,940,943,943,970,970,970,970,967,967,964,964,964,964,962,962,959,959,956,956,954,954,0,0,0,0,0,0,0,0,0,0,0,0,0,0,0,0,0,0,0,0,0,0,0,0,0,0,0,0,0,0,0,0,0,0
0,0,0,0,0,0,0,1165,1165,1165,1165,1165,1165,1165,1165,1161,1161,1161,1161,1161,1161,1161,1161,1161,1161,1161,1161,1165,1165,1165,1165,1165,1161,1161,1161,1161,1161,1161,1161,1161,1161,1161,1161,1161,1161,1161,1161,1161,1161,1161,1161,1161,1161,1165,1161,1161,1161,1161,1161,1161,1157,1157,1157,1157,1161,1161,1157,1157,1161,1161,1157,1157,1157,1157,1157,1157,1153,1153,1153,1153,1153,1153,1153,1153,1153,1149,1149,1149,998,998,995,992,989,989,989,989,989,989,989,992,995,998,998,998,1001,1001,1001,1004,1007,1010,1013,1013,1157,1157,1157,1153,1149,1149,1149,1149,1149,1149,1149,1149,1149,1149,1149,1149,1149,1149,1149,1149,1149,1149,1145,1145,1145,1145,1145,1145,1145,1145,1145,1145,1145,1145,1149,1149,1149,1149,1149,1149,1149,1145,1145,1145,1145,1145,1145,1145,1145,1145,1145,1145,1145,1145,1145,1145,1145,1145,1145,1145,1145,1145,1149,1149,1145,1145,1145,1145,1145,1145,1145,1145,1145,1145,1145,1145,1145,1145,1145,1145,1145,1141,1138,1138,1141,1141,1141,1141,1138,1138,1141,1145,0,0,0,0,0,0,0,0,746,744,742,741,739,739,738,738,734,734,733,730,728,727,727,727,727,727,728,728,730,733,734,736,739,742,744,746,747,747,749,749,749,750,0,0,0,0,0,1138,1138,1138,1138,1138,1134,1134,1134,1134,1134,1134,1134,1134,1134,1134,1134,1134,1134,1134,1134,1134,1134,1130,1130,1130,1130,1130,1130,1130,1130,1130,896,901,901,901,901,898,898,898,898,898,898,898,901,901,901,903,903,906,906,908,910,913,915,918,923,928,930,935,935,938,940,1123,1123,1123,1126,1126,1126,1126,1126,1126,1126,1126,1126,1126,1126,1123,1123,1123,1123,1123,1123,1123,1123,1123,1123,1123,1119,1119,1123,1123,1123,1123,1123,1123,1123,1119,1119,1119,1119,1119,1119,1119,1119,1119,1119,1119,1119,1119,1115,1115,1115,1119,1119,1119,1119,1119,1119,1119,1119,1119,1119,1119,1119,1115,1115,1115,1115,1115,1115,1115,1115,1115,1115,1115,1115,1115,1115,1119,1119,1115,1115,1115,1115,1115,1112,1112,1115,1115,1112,1112,1112,1112,1112,1112,1112,1112,1112,1112,1112,1112,1112,1112,1112,1112,1108,1108,1108,1108,1108,1108,1108,1108,1108,1108,1108,1108,1112,1112,1108,1108,1108,1108,1108,1108,1108,1108,1108,1108,1108,1108,1105,1105,1105,1105,1105,1105,1105,1105,1105,1105,1105,1105,1105,1105,1105,1105,1105,1105,1101,1101,1101,1101,1101,1101,1097,1097,1097,1097,1097,1097,1097,1097,1097,1097,1097,1097,1097,1097,1101,1105,1105,1101,1101,1101,1101,1097,1097,1097,1097,1097,1097,1097,1097,1097,1097,1097,1097,1097,1094,1094,1094,1094,1094,1094,1094,1094,1094,1094,1090,1090,1090,1090,1090,1090,1090,1090,1090,1090,1087,1087,1087,1087,1087,1087,1087,1087,1087,1084,1084,1087,1087,1010,1010,1010,1010,1010,1013,1013,1013,1016,1090,1090,1090,1090,1087,1087,1090,1090,1087,1087,1087,1087,1087,1090,1087,1080,1080,1080,1080,1080,1080,1080,940,940,938,935,933,930,930,930,930,930,930,933,935,935,935,938,938,940,940,940,940,940,940,943,970,970,970,970,967,967,964,964,964,964,962,959,956,956,956,954,951,951,0,0,0,0,0,0,0,0,0,0,0,0,0,0,0,0,0,0,0,0,0,0,0,0,0,0,0,0,0,0,0,0,0,0
0,0,0,0,0,0,0,1165,1165,1165,1165,1165,1161,1161,1161,1157,1157,1157,1157,1157,1157,1157,1161,1161,1161,1161,1161,1161,1161,1161,1161,1161,1157,1157,1157,1157,1157,1157,1157,1153,1153,1157,1157,1157,1157,1157,1157,1157,1157,1157,1157,1157,1157,1157,1157,1157,1157,1157,1157,1157,1153,1153,1153,1153,1157,1157,1153,1153,1153,1157,1157,1153,1153,1153,1153,1153,1153,1153,1153,1153,1153,1153,1153,1153,1149,1149,1149,1149,1001,998,998,995,995,992,992,992,989,989,989,992,995,998,998,1001,1001,1001,1004,1007,1010,1010,1013,1013,1013,1157,1153,1153,1149,1149,1149,1149,1145,1145,1145,1145,1149,1149,1145,1145,1145,1149,1145,1145,1145,1145,1145,1145,1145,1145,1145,1145,1145,1145,1145,1145,1141,1141,1145,1145,1145,1145,1145,1145,1145,1145,1145,1145,1141,1141,1141,1141,1141,1141,1141,1145,1145,1145,1145,1145,1141,1141,1141,1141,1141,1141,1141,1141,1145,1145,1145,1145,1141,1141,1141,1141,1141,1141,1141,1141,1141,1138,1138,1138,1138,1138,1134,1134,1138,1138,1138,1138,1138,1138,1138,1141,0,0,0,0,0,0,0,0,0,744,742,741,741,739,739,738,736,734,733,733,730,728,728,728,728,728,728,730,731,733,734,738,741,742,744,746,747,747,749,749,749,0,0,0,0,0,0,1134,1134,1134,1134,1134,1134,1134,1134,1134,1134,1134,1130,1130,1134,1130,1130,1130,1130,1130,1130,1130,1130,1130,1130,1130,1130,1130,1126,1126,1130,1130,896,896,896,896,898,896,896,896,896,896,896,896,898,898,901,901,903,906,906,908,910,913,915,920,923,925,928,933,935,938,1123,1123,1123,1123,1123,1123,1123,1123,1123,1123,1123,1123,1123,1123,1123,1123,1123,1123,1123,1123,1119,1119,1119,1119,1119,1119,1119,1119,1119,1119,1119,1119,1119,1119,1119,1115,1115,1119,1119,1115,1115,1115,1119,1119,1115,1115,1115,1115,1115,1112,1112,1115,1112,1112,1119,1119,1119,1115,1115,1115,1115,1115,1112,1112,1112,1112,1112,1112,1112,1112,1112,1112,1112,1112,1112,1112,1112,1115,1115,1112,1112,1112,1112,1112,1108,1108,1112,1112,1112,1112,1112,1108,1108,1108,1108,1108,1108,1108,1108,1108,1108,1108,1108,1105,1105,1105,1105,1105,1105,1105,1105,1105,1105,1105,1108,1108,1108,1108,1108,1108,1108,1105,1105,1105,1105,1105,1105,1105,1105,1105,1105,1105,1105,1105,1101,1101,1105,1105,1105,1105,1105,1105,1105,1101,1101,1101,1101,1101,1101,1101,1097,1097,1097,1097,1097,1097,1097,1097,1094,1094,1094,1094,1094,1094,1094,1094,1094,1094,1094,1094,1094,1097,1097,1094,1094,1094,1094,1094,1094,1094,1094,1094,1094,1094,1094,1094,1094,1094,1094,1094,1094,1094,1090,1090,1090,1090,1090,1094,1090,1090,1090,1087,1087,1087,1084,1084,1084,1084,1087,1084,1084,1084,1084,1084,1084,1084,1084,1080,1080,1080,1080,1087,1013,1010,1010,1010,1016,1013,1013,1087,1087,1090,1087,1087,1084,1084,1087,1087,1087,1087,1087,1087,1087,1090,1087,1080,1080,1080,1080,1080,1080,1080,943,943,938,938,935,935,933,930,930,930,930,933,933,935,935,935,938,938,938,940,940,940,940,973,973,973,973,970,970,967,967,964,964,964,962,959,956,956,954,954,951,951,0,0,0,0,0,0,0,0,0,0,0,0,0,0,0,0,0,0,0,0,0,0,0,0,0,0,0,0,0,0,0,0,0,0
0,0,0,0,0,0,0,1165,1165,1161,1161,1161,1161,1161,1157,1157,1157,1157,1153,1153,1157,1157,1157,1157,1157,1157,1161,1161,1161,1157,1157,1157,1157,1153,1153,1153,1153,1153,1153,1153,1153,1153,1153,1153,1153,1153,1153,1153,1153,1153,1153,1153,1153,1157,1157,1153,1153,1153,1153,1153,1153,1153,1153,1153,1153,1153,1153,1149,1149,1153,1153,1153,1153,1153,1153,1149,1149,1149,1149,1149,1149,1149,1149,1149,1149,1145,1145,1149,1149,1001,998,995,995,992,992,992,992,992,992,995,995,998,998,1001,1001,1001,1004,1007,1010,1010,1013,1013,1013,1157,1153,1153,1149,1149,1149,1149,1145,1145,1145,1145,1145,1145,1145,1145,1145,1145,1145,1145,1145,1145,1145,1141,1141,1141,1141,1138,1138,1141,1141,1138,1138,1138,1138,1141,1141,1141,1141,1145,1145,1141,1141,1141,1141,1138,1138,1138,1138,1138,1141,1141,1141,1141,1141,1141,1141,1141,1138,1138,1138,1138,1138,1138,1138,1138,1138,1141,1138,1138,1138,1138,1138,1138,1138,1134,1134,1134,1134,1134,1134,1134,1134,1134,1134,1134,1134,1134,1134,1134,1134,1138,1138,0,0,0,0,0,0,0,0,0,744,741,741,741,739,739,738,736,736,734,731,730,730,728,728,730,730,730,731,733,734,738,741,742,744,746,747,749,749,749,750,0,0,0,0,0,0,1134,1130,1130,1130,1130,1130,1130,1130,1130,1130,1130,1130,1130,1130,1130,1126,1126,1126,1126,1126,1126,1126,1126,1126,1126,1126,1126,1126,1126,894,894,894,894,896,896,896,894,894,894,894,894,894,896,896,896,898,901,903,906,906,908,910,913,915,920,923,925,928,933,933,1123,1123,1123,1123,1123,1123,1123,1119,1119,1119,1123,1123,1123,1123,1123,1123,1123,1119,1119,1119,1119,1115,1115,1115,1115,1119,1115,1115,1115,1115,1119,1119,1119,1119,1119,1115,1112,1112,1112,1112,1112,1112,1112,1115,1115,1112,1112,1112,1112,1112,1112,1108,1108,1112,1108,1108,1108,1108,1108,1112,1112,1112,1112,1112,1108,1108,1108,1108,1108,1108,1108,1108,1108,1108,1108,1108,1108,1108,1108,1108,1108,1108,1108,1108,1108,1108,1108,1108,1108,1108,1108,1108,1108,1108,1105,1105,1105,1105,1105,1105,1105,1105,1108,1105,1105,1105,1105,1105,1105,1105,1105,1105,1105,1105,1105,1105,1101,1101,1105,1105,1105,1105,1105,1105,1101,1101,1101,1101,1101,1101,1101,1101,1101,1101,1101,1101,1101,1101,1101,1101,1101,1101,1101,1101,1101,1097,1097,1101,1097,1097,1097,1097,1097,1097,1094,1094,1094,1094,1094,1094,1094,1094,1094,1094,1094,1094,1094,1094,1094,1094,1094,1094,1094,1090,1090,1094,1090,1090,1094,1094,1090,1090,1090,1090,1090,1090,1090,1090,1090,1090,1090,1090,1090,1090,1090,1090,1090,1090,1090,1090,1090,1087,1084,1084,1084,1084,1084,1084,1084,1084,1084,1080,1080,1080,1080,1084,1080,1080,1077,1077,1077,1077,1077,1013,1010,1010,1013,1016,1016,1016,1087,1087,1084,1080,1080,1080,1080,1080,1080,1084,1084,1084,1087,1087,1087,1087,1080,1080,1080,1080,1080,1080,1080,943,943,940,940,938,935,933,930,930,930,930,933,933,935,935,935,938,938,938,938,938,938,0,973,973,973,975,973,970,970,967,967,964,964,962,959,956,956,954,951,951,951,0,0,0,0,0,0,0,0,0,0,0,0,0,0,0,0,0,0,0,0,0,0,0,0,0,0,0,0,0,0,0,0,0,0
0,0,0,0,0,0,0,1161,1161,1161,1161,1157,1157,1157,1153,1153,1153,1149,1149,1149,1153,1153,1153,1157,1157,1157,1157,1157,1157,1157,1153,1153,1153,1153,1153,1153,1153,1153,1149,1149,1149,1149,1149,1149,1153,1149,1149,1153,1153,1153,1153,1153,1153,1153,1153,1153,1153,1153,1153,1153,1153,1149,1149,1149,1153,1149,1149,1149,1149,1149,1149,1149,1149,1149,1149,1149,1149,1149,1149,1149,1149,1149,1149,1149,1149,1145,1145,1145,1145,1004,1001,998,995,992,992,995,995,995,995,995,995,998,998,1001,1001,1004,1004,1007,1010,1010,1013,1013,1013,1157,1153,1149,1149,1145,1145,1145,1145,1141,1141,1141,1141,1141,1141,1141,1141,1145,1145,1141,1141,1141,1141,1138,1138,1138,1138,1138,1138,1138,1138,1138,1134,1134,1134,1138,1138,1138,1138,1138,1138,1138,1138,1138,1138,1138,1134,1134,1134,1134,1138,1138,1138,1138,1138,1138,1138,1138,1134,1134,1134,1134,1134,1134,1134,1134,1134,1134,1134,1134,1134,1134,1134,1134,1134,1134,1134,1134,1130,1130,1130,1130,1130,1130,1134,1134,1134,1134,1130,1130,1130,1130,1130,1130,0,0,0,0,0,0,754,752,746,742,742,741,741,741,739,738,738,736,733,731,731,730,730,731,731,731,733,734,738,738,741,744,746,747,747,749,750,750,752,0,0,0,0,0,0,1130,1130,1126,1126,1126,1126,1126,1126,1126,1126,1126,1126,1126,1126,1126,1123,1123,1123,1123,1123,1123,1123,1123,1123,1123,1123,1126,1126,1126,894,894,894,894,894,894,894,891,891,894,894,894,894,894,896,896,898,901,903,906,908,910,913,915,918,920,923,925,928,930,933,1115,1119,1119,1119,1119,1119,1119,1119,1119,1119,1119,1119,1119,1119,1119,1119,1119,1119,1119,1115,1115,1112,1112,1115,1115,1115,1115,1115,1115,1115,1115,1115,1115,1115,1115,1112,1112,1112,1112,1112,1112,1108,1108,1112,1112,1112,1112,1112,1108,1108,1108,1108,1108,1108,1108,1108,1108,1108,1108,1105,1105,1105,1108,1108,1108,1108,1108,1108,1108,1108,1108,1108,1108,1108,1108,1108,1108,1108,1108,1108,1105,1105,1105,1105,1105,1105,1105,1105,1108,1108,1108,1105,1105,1105,1105,1105,1105,1101,1101,1105,1105,1105,1105,1105,1105,1101,1101,1101,1101,1101,1101,1101,1101,1101,1101,1101,1097,1097,1097,1097,1097,1101,1101,1101,1097,1097,1097,1097,1097,1097,1097,1097,1097,1097,1097,1097,1097,1097,1097,1097,1097,1097,1097,1097,1097,1094,1094,1097,1094,1094,1094,1094,1094,1094,1094,1094,1094,1094,1090,1090,1090,1090,1090,1090,1090,1090,1090,1090,1094,1094,1090,1090,1090,1090,1090,1087,1087,1087,1090,1090,1090,1090,1087,1087,1087,1087,1087,1087,1087,1087,1087,1087,1087,1087,1087,1087,1087,1087,1087,1087,1084,1084,1080,1080,1080,1080,1080,1080,1080,1080,1080,1080,1080,1080,1080,1080,1077,1077,1077,1077,1073,1073,1073,1016,1013,1013,1016,1016,1016,1016,1087,1087,1080,1080,1080,1080,1080,1080,1080,1080,1080,1080,1080,1087,1084,1084,1080,1080,1080,1080,1080,948,948,948,946,943,940,938,938,933,933,930,930,930,933,933,933,935,935,938,938,938,938,938,0,0,0,0,987,987,975,970,970,970,967,967,964,962,959,956,956,954,951,951,0,0,0,0,0,0,0,0,0,0,0,0,0,0,0,0,0,0,0,0,0,0,0,0,0,0,0,0,0,0,0,0,0,0,0
0,0,0,0,0,0,0,1161,1157,1157,1157,1153,1153,1153,1149,1149,1149,1145,1145,1145,1149,1149,1149,1153,1153,1153,1153,1153,1149,1149,1149,1149,1149,1149,1149,1149,1149,1149,1149,1149,1149,1149,1149,1149,1149,1149,1149,1149,1149,1149,1149,1149,1149,1153,1149,1149,1149,1149,1149,1149,1149,1149,1149,1149,1149,1145,1145,1145,1149,1149,1149,1145,1145,1149,1149,1145,1145,1145,1145,1145,1145,1145,1145,1145,1145,1145,1141,1141,1141,1007,1001,1001,998,992,992,995,995,995,995,995,995,998,998,1001,1001,1004,1007,1010,1010,1010,1013,1013,1013,1013,1016,1149,1145,1145,1145,1145,1141,1141,1141,1141,1141,1138,1138,1138,1138,1141,1141,1141,1141,1141,1141,1138,1138,1138,1138,1134,1134,1134,1134,1134,1134,1134,1134,1134,1134,1134,1134,1134,1138,1138,1138,1138,1134,1134,1134,1134,1134,1134,1134,1134,1134,1134,1134,1134,1134,1134,1134,1130,1130,1130,1130,1130,1130,1130,1130,1130,1130,1130,1130,1130,1130,1130,1130,1130,1130,1130,1130,1130,1130,1130,1130,1130,1130,1130,1130,1130,1130,1126,1126,1126,1130,1130,0,0,0,0,0,0,752,752,747,746,742,742,742,741,739,739,738,738,734,733,733,731,731,733,733,733,734,736,738,741,742,744,746,747,747,750,750,752,752,0,0,0,0,0,0,1126,1126,1123,1123,1123,1123,1123,1123,1119,1119,1123,1123,1123,1123,1119,1119,1119,1119,1119,1119,1119,1119,1119,1119,1115,1115,1115,896,896,891,891,891,891,891,891,891,889,889,891,891,891,891,894,894,896,896,901,903,906,908,910,913,915,918,920,925,925,928,930,1105,1112,1112,1112,1112,1115,1119,1119,1115,1115,1112,1112,1112,1112,1115,1115,1115,1115,1115,1115,1115,1112,1112,1112,1112,1112,1112,1112,1112,1112,1112,1112,1112,1112,1112,1112,1108,1108,1108,1108,1108,1108,1108,1108,1108,1108,1108,1108,1108,1108,1108,1105,1105,1108,1108,1108,1108,1105,1105,1105,1105,1105,1105,1105,1105,1105,1105,1105,1105,1105,1105,1105,1105,1105,1105,1105,1105,1105,1105,1105,1105,1105,1101,1101,1101,1101,1101,1105,1105,1105,1105,1105,1105,1105,1101,1101,1101,1101,1101,1101,1101,1105,1105,1101,1101,1101,1101,1097,1097,1097,1097,1097,1097,1097,1097,1097,1097,1094,1094,1094,1094,1094,1094,1094,1094,1094,1094,1094,1094,1094,1094,1094,1094,1094,1094,1097,1094,1094,1094,1094,1097,1094,1094,1094,1094,1094,1094,1094,1094,1094,1094,1094,1094,1090,1090,1090,1090,1090,1090,1090,1090,1087,1087,1090,1087,1087,1087,1087,1090,1090,1087,1087,1087,1087,1087,1087,1084,1084,1087,1087,1084,1084,1087,1087,1087,1084,1084,1084,1084,1084,1084,1084,1084,1084,1084,1084,1084,1084,1084,1084,1084,1080,1080,1080,1080,1080,1080,1080,1080,1080,1080,1080,1080,1080,1080,1080,1080,1077,1077,1077,1073,1073,1070,1070,1013,1013,1013,1016,1016,1016,1019,1087,1087,1080,1077,1077,1077,1077,1077,1077,1077,1080,1080,1080,1084,1080,1080,1080,1080,1080,1080,948,948,948,948,948,946,943,943,940,938,938,933,933,933,933,933,933,935,938,938,0,0,0,0,0,0,0,0,987,987,984,981,981,970,967,967,967,962,959,956,956,954,951,951,0,0,0,0,0,0,0,0,0,0,0,0,0,0,0,0,0,0,0,0,0,0,0,0,0,0,0,0,0,0,0,0,0,0,0
0,0,0,0,0,0,0,1157,1157,1157,1153,1153,1149,1149,1145,1145,1145,1145,1145,1145,1145,1145,1149,1149,1149,1149,1149,1149,1145,1145,1145,1145,1149,1149,1149,1149,1149,1149,1145,1145,1145,1145,1145,1145,1145,1145,1145,1145,1145,1149,1149,1149,1149,1149,1149,1149,1149,1149,1149,1149,1145,1145,1145,1145,1145,1145,1145,1145,1145,1145,1145,1145,1145,1145,1145,1145,1145,1145,1145,1145,1145,1145,1145,1141,1141,1141,1138,1138,1138,1007,1004,1001,998,995,995,995,995,995,995,998,998,998,998,1001,1001,1004,1007,1010,1010,1013,1013,1013,1013,1013,1016,1149,1138,1138,1138,1138,1138,1138,1138,1138,1138,1138,1138,1134,1134,1138,1138,1138,1138,1138,1138,1134,1134,1134,1134,1134,1134,1134,1134,1134,1134,1130,1130,1130,1130,1130,1134,1134,1134,1134,1134,1134,1134,1134,1130,1130,1134,1134,1134,1134,1134,1134,1134,1134,1130,1130,1130,1130,1130,1130,1130,1130,1130,1130,1126,1126,1126,1126,1126,1126,1126,1130,1126,1126,1126,1126,1126,1126,1126,1126,1130,1130,1130,1130,1126,1126,1123,1123,1123,1123,1126,1126,0,0,0,0,0,752,752,752,749,747,744,742,742,741,741,739,739,738,734,734,733,733,733,733,733,734,734,738,739,741,742,742,746,747,749,750,752,752,754,0,0,0,0,0,0,1119,1119,1119,1119,1115,1115,1119,1119,1119,1119,1119,1119,1119,1119,1119,1119,1119,1119,1119,1119,1119,1119,1115,1115,1108,1108,894,894,894,891,889,889,889,887,887,889,887,887,889,889,891,891,891,894,894,896,898,903,906,908,910,913,915,915,918,925,925,1105,1105,1105,1108,1108,1108,1108,1112,1112,1112,1112,1112,1108,1108,1108,1108,1108,1108,1112,1112,1112,1112,1112,1108,1108,1108,1108,1108,1108,1108,1108,1108,1108,1108,1108,1108,1108,1108,1108,1108,1108,1105,1105,1105,1105,1105,1105,1108,1105,1105,1105,1105,1105,1105,1105,1105,1105,1105,1105,1105,1101,1101,1101,1101,1101,1101,1101,1101,1101,1097,1097,1101,1101,1101,1101,1101,1101,1105,1101,1101,1105,1105,1105,1101,1101,1101,1101,1101,1101,1101,1101,1101,1101,1101,1101,1101,1101,1101,1097,1097,1097,1097,1097,1101,1101,1101,1101,1097,1097,1094,1094,1094,1094,1094,1094,1094,1094,1094,1094,1094,1094,1094,1090,1090,1090,1090,1090,1090,1090,1090,1094,1094,1094,1094,1090,1090,1090,1094,1090,1090,1090,1090,1094,1094,1090,1090,1094,1094,1090,1090,1090,1090,1090,1090,1090,1090,1090,1090,1090,1090,1090,1090,1087,1087,1087,1087,1087,1087,1087,1087,1087,1087,1084,1084,1084,1084,1084,1084,1084,1084,1084,1084,1084,1084,1084,1084,1084,1084,1084,1080,1080,1080,1080,1080,1080,1080,1080,1080,1080,1080,1080,1080,1080,1080,1080,1077,1077,1077,1077,1077,1077,1077,1077,1077,1077,1077,1077,1077,1077,1077,1073,1073,1070,1070,1067,1067,1016,1016,1016,1016,1016,1016,1016,1016,1087,1077,1073,1073,1073,1073,1073,1073,1073,1077,1080,1080,1080,1077,1077,1077,1080,1080,946,946,946,946,948,948,946,946,946,943,943,940,935,935,935,935,935,935,0,0,0,0,0,0,0,0,0,0,0,989,989,989,987,984,981,978,978,970,967,962,959,959,956,951,951,0,0,0,0,0,0,0,0,0,0,0,0,0,0,0,0,0,0,0,0,0,0,0,0,0,0,0,0,0,0,0,0,0,0,0
