0,0,0,0,0,1130,1130,1130,1130,1130,1130,1126,1126,1123,1123,1123,1123,1123,1119,1119,1119,1119,1119,1119,1115,1115,1115,1112,1112,1112,0,943,943,940,940,935,933,933,933,930,930,930,930,933,933,935,935,935,938,940,943,946,946,946,946,948,948,951,951,1115,1115,1108,1108,1108,1112,1112,1112,1112,1115,1115,1112,1112,1112,1112,1112,1112,1112,1112,1112,1112,1112,1112,1112,1112,1112,1112,1112,1112,1112,1112,1112,1112,1112,1112,1112,1115,1115,1115,1115,1115,1115,1115,1115,1115,1115,1115,1115,1115,1115,1115,1115,1115,1115,1115,1115,1115,1115,1115,1115,1112,1112,1112,1112,1112,1112,1112,1112,1112,1112,1112,1115,1115,1115,1115,1115,1115,1115,1112,1112,1112,1112,1112,1112,1112,1115,1115,1115,1112,1112,0,0,0,0,0,0,0,0,696,696,697,697,696,694,694,693,691,690,688,686,686,684,683,683,683,682,682,683,683,684,686,687,690,691,693,693,694,696,697,698,701,703,704,704,704,707,0,0,0,0,0,1119,1115,1115,1115,1115,1115,1115,1115,1115,1115,1115,1115,1115,1115,1115,1119,1119,1119,1119,1119,1115,1115,1115,1115,1115,1115,1115,1112,951,951,948,948,946,946,943,943,943,940,938,935,933,933,933,933,930,928,925,923,923,923,923,918,915,915,913,913,910,910,908,908,906,906,906,906,906,906,906,906,906,908,908,908,908,910,910,913,915,918,920,925,928,933,933,935,938,940,943,946,1112,1112,1112,1112,1112,1115,1112,1112,1112,1112,1112,1112,1112,1112,1112,1115,1115,1115,1115,1115,1119,1119,1119,1119,1115,1115,1112,1112,1112,1108,1108,1105,1101,1101,1101,1097,1097,1097,1097,1097,1101,1101,1101,1105,1108,1112,1115,1119,1119,1119,1119,1123,1119,1119,1119,1119,1119,1119,1119,1119,1119,1119,1119,1119,1119,1119,1119,1119,1119,1119,1119,1119,1119,1115,1115,1119,1119,1119,1119,1119,1119,1119,1115,1115,1115,1115,1115,1115,1115,1115,1115,1115,1115,1115,1115,1115,1115,1115,1119,1119,1115,1115,1115,1119,1119,1115,1115,1115,1119,1119,1119,1119,1119,1119,1119,1119,1115,1115,1115,1119,1115,1115,1115,1115,1119,1119,1119,1115,1115,1119,1119,1119,1119,1119,1119,1115,1115,1115,1115,1115,1115,1115,1119,1119,1115,1115,1119,1112,1112,1112,1112,1112,1112,1112,1112,1112,1112,1115,1115,1115,1115,1112,1112,1112,1112,1108,1108,1115,1112,1112,1115,1112,1112,1112,1108,1108,1108,1108,1112,1112,1112,1112,1115,1115,1115,1115,1105,1105,1112,1108,1108,1108,1108,1108,1108,1112,1112,1112,1112,1108,1108,1108,1108,1108,1108,1108,1108,1108,1108,1112,1112,1112,1112,1112,1115,1115,1115,1115,1115,1115,1119,1119,981,981,981,981,978,978,975,975,973,973,973,973,975,975,925,923,923,923,923,923,923,923,923,923,923,923,923,923,920,920,923,925,925,925,928,928,928,930,933,935,935,938,938,938,946,948,948,948,951,951,948,948,948,948,948,948,948,948,948,946,946,943,943,943,943,940,940,940,940,938,938,938,935,935,933,933,933,930,930,930,930,928,925,925,918,918,915,913,908,908,906,906,903,903,0,0,0,0,0,0,0,0,0,0,0,0,0,0,0,0,0,0,0,0,0,0,0,0,0,0,0,0,0,0,0,0,0,0,0,0
0,0,0,0,0,1126,1126,1130,1130,1126,1126,1119,1119,1123,1119,1119,1119,1119,1119,1119,1119,1115,1115,1115,1112,1112,1112,1108,1108,1108,0,943,943,940,940,938,933,933,933,933,930,930,930,933,933,933,935,935,940,943,943,946,946,946,946,948,948,951,951,1108,1108,1105,1105,1108,1108,1108,1112,1112,1112,1112,1112,1112,1108,1108,1108,1108,1108,1108,1108,1112,1112,1108,1108,1108,1108,1108,1108,1108,1108,1108,1108,1112,1112,1112,1112,1112,1115,1115,1115,1115,1115,1112,1112,1112,1112,1112,1112,1112,1112,1112,1112,1112,1112,1112,1112,1112,1112,1112,1108,1108,1108,1108,1112,1112,1112,1112,1112,1108,1108,1108,1112,1112,1112,1112,1112,1112,1112,1108,1108,1108,1112,1112,1112,1112,1112,1115,1112,1112,1112,0,0,0,0,0,0,0,0,0,697,697,697,696,694,694,693,691,690,688,686,686,684,684,684,683,683,683,683,684,686,686,688,690,691,693,694,694,696,697,698,703,703,704,706,707,707,0,0,0,0,0,0,1112,1112,1112,1112,1112,1112,1108,1108,1108,1112,1112,1112,1112,1115,1115,1115,1115,1115,1115,1115,1115,1115,1112,1112,1112,1112,1112,1108,951,948,948,946,946,943,943,940,940,938,935,935,935,935,933,933,930,925,925,923,923,923,918,915,915,913,913,910,910,908,906,906,903,903,903,903,903,903,903,903,903,906,906,906,908,910,910,915,918,920,925,928,930,933,933,935,938,938,1112,1112,1112,1108,1108,1112,1112,1112,1112,1112,1112,1108,1108,1108,1108,1112,1112,1112,1112,1115,1115,1115,1115,1115,1115,1112,1112,1112,1112,1108,1108,1108,1105,1105,1105,1101,1101,1097,1097,1097,1097,1101,1101,1101,1105,1108,1108,1108,1112,1112,1119,1119,1119,1119,1115,1115,1115,1115,1115,1115,1115,1115,1119,1119,1119,1119,1119,1115,1115,1115,1115,1115,1115,1115,1112,1112,1115,1115,1115,1115,1115,1115,1115,1115,1115,1115,1115,1115,1115,1112,1112,1112,1112,1112,1115,1115,1115,1115,1115,1115,1115,1115,1115,1115,1115,1112,1112,1115,1115,1115,1115,1115,1115,1115,1115,1115,1115,1112,1112,1112,1115,1115,1115,1115,1115,1115,1115,1115,1112,1112,1115,1115,1115,1115,1115,1115,1112,1112,1112,1112,1112,1112,1112,1112,1112,1112,1112,1112,1112,1108,1108,1108,1108,1108,1108,1108,1108,1108,1108,1108,1112,1108,1108,1108,1108,1108,1105,1105,1108,1108,1108,1108,1108,1108,1108,1108,1108,1108,1108,1112,1112,1112,1112,1115,1115,1115,1112,1105,1105,1112,1108,1108,1108,1108,1108,1108,1112,1108,1108,1108,1108,1108,1108,1108,1108,1105,1105,1108,1108,1108,1108,1108,1108,1112,1112,1112,1112,1112,1112,1112,1115,1115,1119,981,981,981,981,981,981,978,975,973,973,973,973,975,925,925,923,923,923,923,923,923,923,923,923,923,923,920,920,920,920,923,925,925,925,925,928,928,930,930,933,935,935,938,940,948,948,948,951,951,951,948,948,948,948,948,948,948,948,948,946,946,946,946,946,943,940,940,940,940,938,938,938,935,935,933,930,930,930,928,928,925,925,925,923,918,915,915,913,908,908,906,903,901,901,0,0,0,0,0,0,0,0,0,0,0,0,0,0,0,0,0,0,0,0,0,0,0,0,0,0,0,0,0,0,0,0,0,0,0,0
0,0,0,0,0,1126,1126,1126,1123,1123,1119,1119,1115,1115,1115,1115,1115,1115,1115,1115,1115,1115,1115,1112,1112,1108,1108,1105,1105,1105,1101,943,943,943,943,938,935,933,933,933,933,933,933,933,933,933,935,935,940,943,943,946,946,948,948,948,951,951,951,1105,1105,1105,1105,1105,1105,1108,1108,1108,1108,1108,1108,1105,1105,1105,1105,1105,1105,1105,1105,1105,1108,1105,1105,1105,1105,1105,1105,1105,1105,1105,1105,1108,1108,1108,1112,1112,1112,1112,1112,1112,1112,1112,1112,1112,1112,1112,1108,1108,1108,1108,1108,1108,1108,1108,1108,1108,1108,1108,1108,1108,1108,1108,1108,1108,1108,1108,1108,1108,1108,1108,1108,1112,1112,1108,1108,1112,1112,1108,1105,1105,1105,1105,1105,1108,1108,1112,1112,1112,1112,0,0,0,0,0,0,0,0,0,698,697,697,696,696,694,694,693,690,688,687,686,684,684,684,684,683,683,684,684,686,687,688,690,691,693,694,696,697,698,700,703,704,704,706,707,708,0,0,0,0,0,0,1108,1108,1108,1108,1108,1108,1108,1108,1108,1108,1108,1108,1108,1108,1112,1115,1115,1115,1115,1115,1112,1112,1112,1112,1108,1108,1108,1105,1105,1105,948,946,946,943,943,940,940,938,935,935,935,935,933,933,930,925,925,925,923,923,920,918,915,913,910,908,906,906,903,903,901,901,901,901,901,901,901,901,903,903,903,906,908,910,910,915,918,923,925,928,930,933,933,935,938,1108,1108,1108,1108,1108,1108,1108,1108,1108,1108,1108,1108,1108,1105,1105,1105,1105,1108,1108,1108,1112,1112,1112,1115,1112,1112,1112,1112,1108,1108,1108,1108,1108,1105,1105,1105,1105,1101,1101,1101,1101,1101,1105,1105,1105,1105,1108,1108,1108,1112,1112,1112,1112,1112,1115,1115,1112,1112,1112,1115,1115,1115,1115,1115,1115,1115,1115,1115,1115,1115,1115,1112,1112,1112,1112,1112,1112,1115,1115,1112,1112,1112,1112,1112,1112,1112,1112,1112,1112,1112,1112,1112,1112,1112,1112,1112,1112,1108,1108,1112,1112,1112,1112,1108,1108,1112,1108,1108,1108,1108,1108,1108,1112,1112,1112,1112,1112,1112,1108,1108,1108,1112,1112,1112,1112,1112,1112,1112,1112,1112,1112,1112,1112,1112,1108,1108,1112,1108,1108,1108,1108,1108,1108,1108,1108,1108,1108,1108,1108,1108,1108,1108,1108,1108,1108,1108,1108,1108,1108,1105,1105,1105,1105,1108,1108,1105,1105,1105,1105,1105,1105,1105,1105,1108,1108,1108,1105,1105,1105,1108,1108,1108,1108,1108,1112,1105,1105,1105,1105,1105,1105,1105,1105,1105,1105,1105,1108,1108,1108,1108,1108,1108,1108,1105,1105,1105,1105,1105,1105,1105,1105,1105,1105,1108,1108,1108,1108,1108,1108,1108,1108,1112,1112,984,981,981,981,981,984,984,981,978,973,973,973,973,973,923,923,923,923,923,923,923,923,923,923,920,920,920,920,920,920,920,920,923,925,925,925,925,928,928,930,933,935,935,935,940,946,948,948,951,951,951,948,948,948,948,948,948,948,948,948,948,948,946,946,946,946,943,940,938,938,938,935,935,935,933,933,930,928,928,925,925,925,923,918,918,915,915,913,913,908,906,903,903,898,898,0,0,0,0,0,0,0,0,0,0,0,0,0,0,0,0,0,0,0,0,0,0,0,0,0,0,0,0,0,0,0,0,0,0,0,0
0,0,0,0,0,1123,1123,1119,1119,1119,1115,1115,1115,1115,1115,1112,1112,1112,1112,1112,1112,1112,1112,1112,1105,1105,1105,1105,1101,1101,1101,943,943,943,943,940,935,933,933,933,933,933,933,933,933,933,935,935,943,943,943,946,946,948,951,954,954,956,956,964,1105,1101,1101,1101,1101,1101,1101,1097,1097,1105,1105,1105,1101,1101,1105,1105,1105,1105,1105,1105,1105,1105,1105,1105,1105,1105,1105,1105,1105,1105,1105,1105,1105,1108,1108,1108,1112,1112,1108,1108,1108,1108,1108,1108,1108,1108,1108,1105,1105,1105,1105,1105,1105,1105,1105,1105,1105,1108,1105,1105,1105,1105,1108,1105,1105,1105,1105,1105,1105,1105,1108,1108,1108,1108,1108,1108,1108,1105,1105,1105,1105,1105,1105,1105,1105,1101,1101,1105,1105,0,0,0,0,0,0,0,0,0,0,697,697,696,696,696,694,693,691,688,687,686,686,684,684,684,684,684,684,686,686,687,690,691,693,694,696,697,697,698,700,703,704,706,707,707,708,0,0,0,0,0,0,1105,1105,1105,1105,1105,1105,1105,1105,1105,1108,1105,1105,1105,1105,1105,1108,1108,1108,1108,1112,1108,1108,1108,1108,1105,1105,1105,1105,1105,1105,1105,1105,1101,1101,1097,1097,940,938,935,935,935,935,933,933,930,928,925,925,923,923,920,918,915,913,908,903,903,903,901,901,898,898,898,898,898,898,898,898,901,901,903,903,906,908,910,915,920,923,928,930,933,933,935,938,1108,1108,1108,1108,1108,1105,1105,1105,1105,1105,1105,1105,1105,1105,1105,1105,1105,1105,1105,1105,1105,1105,1108,1108,1108,1108,1108,1108,1108,1108,1108,1108,1108,1108,1108,1105,1105,1105,1105,1101,1101,1101,1101,1105,1105,1105,1105,1108,1108,1108,1108,1108,1108,1108,1108,1108,1108,1108,1108,1112,1112,1112,1112,1112,1112,1115,1112,1112,1112,1112,1112,1112,1112,1112,1112,1108,1108,1112,1112,1112,1108,1108,1108,1108,1108,1108,1108,1108,1108,1108,1108,1108,1108,1108,1108,1108,1108,1108,1108,1108,1108,1108,1108,1108,1108,1108,1108,1108,1105,1105,1105,1105,1105,1108,1108,1108,1108,1108,1108,1108,1108,1108,1108,1108,1108,1108,1108,1108,1108,1108,1108,1108,1108,1108,1108,1108,1108,1108,1108,1108,1108,1108,1108,1108,1108,1105,1105,1105,1105,1105,1105,1105,1105,1105,1105,1105,1105,1105,1105,1105,1105,1105,1105,1105,1105,1105,1105,1105,1105,1105,1105,1105,1105,1105,1105,1105,1105,1105,1105,1105,1105,1105,1105,1105,1105,1105,1101,1101,1105,1101,1101,1105,1105,1105,1105,1105,1105,1108,1105,1105,1105,1105,1105,1105,1105,1105,1105,1105,1105,1105,1105,1105,1105,1105,1105,1105,1105,1105,1108,1108,1108,1108,1108,1112,984,984,984,984,984,984,987,984,978,978,981,981,987,0,918,923,923,923,923,923,923,923,923,923,920,920,920,920,920,920,920,920,920,923,923,925,925,928,928,930,930,933,935,935,940,943,948,948,948,951,951,948,948,948,948,948,948,948,948,948,948,948,946,946,946,946,943,940,938,938,935,935,933,933,930,930,928,928,928,925,925,923,918,918,915,913,910,910,910,906,903,901,901,898,898,0,0,0,0,0,0,0,0,0,0,0,0,0,0,0,0,0,0,0,0,0,0,0,0,0,0,0,0,0,0,0,0,0,0,0,0
0,0,0,0,0,1123,1119,1119,1119,1115,1115,1112,1112,1112,1112,1112,1112,1112,1108,1108,1112,1112,1112,1108,1105,1105,1105,1101,1101,1097,1097,943,943,943,943,940,935,933,933,933,933,933,933,933,933,933,935,940,943,943,943,946,948,948,951,954,956,959,959,964,1101,1101,1097,1097,1097,1097,1097,1097,1094,1094,1094,1094,1094,1097,1101,1101,1101,1101,1101,1101,1101,1101,1101,1101,1101,1101,1101,1101,1101,1101,1101,1101,1105,1105,1105,1105,1105,1108,1108,1105,1105,1105,1105,1105,1105,1105,1105,1101,1101,1101,1105,1105,1105,1101,1101,1101,1105,1105,1105,1105,1105,1105,1105,1105,1105,1105,1105,1105,1105,1105,1105,1108,1105,1105,1105,1105,1105,1105,1101,1101,1101,1101,1101,1101,1101,1097,1097,1094,1094,1094,0,0,0,0,0,0,0,0,0,697,697,697,696,696,694,693,691,688,687,686,686,686,686,686,686,686,686,686,687,688,690,691,693,694,696,697,698,698,700,703,704,706,707,707,708,0,0,0,0,0,0,1105,1105,1105,1105,1105,1105,1105,1105,1105,1105,1105,1105,1105,1105,1105,1101,1101,1101,1101,1105,1105,1105,1105,1105,1105,1105,1105,1105,1101,1101,1101,1101,1101,1097,1097,1097,1097,938,933,933,933,933,933,930,928,928,925,925,923,923,923,918,915,910,903,901,896,896,898,898,896,896,896,896,896,896,898,898,898,901,901,903,906,908,913,918,923,925,925,928,933,933,935,1105,1105,1105,1105,1105,1105,1105,1105,1105,1105,1105,1105,1105,1105,1105,1101,1101,1101,1101,1105,1105,1105,1105,1108,1108,1108,1108,1108,1108,1108,1108,1108,1108,1108,1108,1105,1105,1105,1105,1105,1101,1101,1101,1101,1105,1105,1105,1105,1105,1108,1108,1108,1108,1108,1108,1105,1105,1105,1105,1105,1105,1108,1108,1108,1108,1108,1108,1108,1108,1108,1108,1108,1108,1108,1108,1108,1108,1108,1108,1108,1108,1108,1108,1108,1108,1108,1108,1108,1108,1108,1105,1105,1105,1105,1105,1105,1105,1105,1105,1105,1105,1105,1105,1105,1105,1105,1105,1105,1105,1105,1105,1105,1105,1105,1105,1101,1101,1105,1105,1105,1105,1105,1105,1105,1108,1108,1108,1108,1108,1105,1105,1105,1105,1105,1105,1105,1105,1105,1105,1105,1105,1105,1105,1105,1105,1105,1105,1101,1101,1101,1101,1105,1105,1105,1105,1105,1105,1105,1105,1101,1101,1101,1101,1101,1101,1105,1105,1105,1101,1101,1105,1105,1105,1105,1105,1101,1101,1105,1101,1101,1105,1105,1105,1101,1101,1101,1101,1101,1097,1097,1097,1097,1097,1105,1105,1105,1101,1101,1105,1105,1105,1101,1101,1105,1105,1105,1101,1101,1101,1101,1101,1101,1101,1101,1101,1101,1101,1101,1101,1101,1101,1105,1108,1108,984,984,984,987,987,987,987,987,987,987,981,981,987,987,0,918,918,918,920,923,923,923,923,923,923,920,920,920,920,920,920,920,920,920,923,923,925,925,928,928,928,930,930,933,935,938,943,948,948,948,951,951,951,951,948,948,948,948,948,948,948,948,948,948,948,948,946,943,940,938,938,935,935,933,933,930,928,928,928,925,925,925,923,918,918,915,913,910,908,906,903,901,898,898,896,896,0,0,0,0,0,0,0,0,0,0,0,0,0,0,0,0,0,0,0,0,0,0,0,0,0,0,0,0,0,0,0,0,0,0,0,0
0,0,0,0,0,1119,1119,1115,1115,1115,1115,1112,1112,1112,1112,1112,1108,1108,1108,1108,1108,1108,1108,1105,1105,1105,1105,1101,1101,1097,1097,946,946,946,946,940,935,935,933,933,933,933,933,933,935,935,935,940,943,943,943,946,948,948,954,954,956,959,959,964,1097,1097,1094,1094,1094,1094,1094,1094,1090,1090,1090,1094,1094,1094,1094,1094,1094,1101,1101,1101,1101,1101,1101,1101,1101,1097,1097,1097,1101,1101,1101,1101,1101,1097,1097,1101,1101,1105,1105,1101,1101,1101,1101,1101,1101,1101,1101,1101,1101,1101,1101,1101,1101,1101,1101,1101,1101,1101,1101,1101,1101,1101,1101,1101,1101,1101,1101,1101,1101,1101,1101,1105,1105,1101,1101,1101,1101,1101,1101,1101,1101,1101,1101,1101,1097,1094,1094,1090,1090,1090,1090,0,0,0,0,0,0,0,0,0,0,697,697,696,696,693,691,688,688,687,686,686,686,686,686,686,686,687,687,688,690,691,693,694,696,697,698,700,701,703,704,706,707,707,708,0,0,0,0,0,0,1105,1105,1105,1101,1101,1101,1101,1101,1101,1101,1101,1101,1101,1101,1101,1101,1101,1097,1097,1101,1097,1097,1097,1101,1101,1101,1101,1101,1101,1101,1101,1101,1101,1097,1097,1097,1097,1097,933,933,933,933,933,930,928,925,925,925,925,923,923,923,915,889,889,891,891,891,894,894,894,894,894,896,896,896,896,896,896,898,898,898,906,908,920,920,923,925,925,928,933,933,1101,1101,1101,1101,1101,1105,1105,1101,1101,1101,1101,1101,1101,1101,1101,1101,1101,1101,1101,1101,1101,1101,1101,1101,1105,1105,1105,1108,1105,1105,1105,1105,1105,1105,1105,1105,1105,1105,1105,1101,1101,1101,1101,1101,1101,1101,1101,1101,1105,1105,1105,1105,1105,1105,1105,1105,1105,1105,1105,1105,1105,1105,1105,1105,1105,1105,1105,1105,1105,1105,1105,1105,1105,1105,1105,1105,1108,1105,1105,1105,1105,1105,1105,1105,1105,1105,1105,1105,1105,1105,1105,1105,1105,1105,1105,1105,1105,1105,1101,1101,1101,1101,1101,1101,1101,1101,1101,1101,1101,1101,1101,1101,1101,1101,1101,1101,1097,1097,1101,1101,1101,1105,1105,1105,1105,1105,1105,1105,1105,1105,1105,1105,1105,1105,1105,1105,1105,1105,1105,1105,1105,1105,1101,1101,1101,1101,1101,1101,1101,1101,1101,1101,1101,1101,1101,1101,1101,1101,1101,1101,1101,1101,1101,1101,1101,1101,1101,1101,1101,1101,1101,1101,1101,1101,1101,1101,1101,1101,1101,1101,1101,1097,1097,1101,1097,1097,1097,1097,1097,1097,1097,1097,1097,1097,1101,1101,1101,1097,1097,1101,1101,1101,1097,1097,1101,1101,1101,1101,1101,1101,1101,1101,1097,1097,1094,1094,1094,1094,1094,1094,1094,989,989,1101,1108,987,987,987,987,987,987,987,989,989,989,987,987,987,987,984,918,918,918,920,923,923,920,920,920,920,920,920,920,920,920,920,920,920,920,923,923,923,925,928,928,928,928,930,933,935,938,943,948,948,951,951,951,951,951,951,951,951,951,948,948,948,948,948,946,946,946,946,943,940,938,935,935,933,933,930,930,928,928,925,925,925,923,918,918,918,915,913,910,908,906,903,901,898,898,896,896,0,0,0,0,0,0,0,0,0,0,0,0,0,0,0,0,0,0,0,0,0,0,0,0,0,0,0,0,0,0,0,0,0,0,0,0
0,0,0,0,0,1115,1112,1112,1112,1112,1108,1108,1108,1108,1108,1108,1105,1105,1105,1105,1105,1105,1105,1105,1105,1105,1101,1101,1101,1097,1097,946,946,946,946,943,940,935,935,935,933,933,933,933,935,935,935,938,940,943,943,946,948,948,954,954,956,959,959,964,1094,1094,1090,1090,1090,1090,1090,1090,1090,1090,1090,1090,1090,1090,1090,1090,1090,1094,1097,1097,1097,1097,1097,1097,1097,1097,1094,1094,1097,1097,1097,1097,1097,1094,1094,1097,1097,1097,1101,1097,1097,1097,1097,1097,1097,1097,1097,1097,1097,1097,1097,1097,1097,1094,1094,1094,1097,1097,1101,1101,1101,1101,1101,1101,1101,1101,1101,1101,1101,1101,1101,1101,1101,1101,1097,1097,1097,1097,1097,1097,1097,1097,1097,1097,1094,1094,1090,1087,1087,1087,1090,0,0,0,0,0,0,0,0,0,0,698,697,696,696,694,691,690,688,688,687,686,686,686,686,686,686,687,687,688,691,691,694,696,697,698,698,700,701,703,706,707,708,708,708,0,0,0,0,0,0,1105,1105,1101,1101,1097,1097,1097,1097,1097,1097,1097,1097,1097,1097,1097,1097,1097,1097,1097,1094,1094,1094,1094,1094,1094,1094,1101,1101,1101,1101,1101,1101,1097,1097,1097,1097,1097,1097,1094,1094,938,935,933,930,928,925,925,925,925,923,887,887,887,887,887,887,887,889,891,891,891,891,894,894,894,894,896,896,896,896,896,898,906,913,920,923,923,925,925,928,933,933,1097,1097,1097,1097,1097,1097,1097,1097,1101,1101,1101,1101,1101,1101,1101,1101,1097,1097,1097,1097,1097,1097,1097,1097,1105,1105,1105,1105,1105,1105,1105,1101,1101,1101,1101,1101,1101,1101,1101,1101,1101,1101,1097,1097,1097,1101,1101,1101,1101,1105,1105,1105,1105,1105,1105,1105,1101,1101,1105,1101,1101,1101,1101,1105,1105,1101,1101,1105,1105,1105,1105,1105,1105,1105,1105,1105,1105,1105,1105,1105,1105,1105,1105,1105,1105,1101,1101,1105,1105,1105,1105,1105,1105,1105,1101,1101,1101,1101,1097,1097,1097,1097,1097,1097,1097,1097,1097,1097,1097,1097,1097,1097,1097,1097,1097,1097,1097,1097,1097,1097,1097,1097,1097,1101,1101,1105,1105,1105,1105,1105,1105,1105,1101,1101,1101,1101,1101,1101,1101,1101,1101,1101,1101,1101,1097,1097,1097,1097,1097,1097,1097,1097,1097,1097,1097,1097,1097,1097,1097,1097,1097,1097,1097,1097,1097,1097,1097,1097,1097,1097,1097,1097,1097,1097,1097,1097,1097,1097,1097,1097,1097,1097,1097,1097,1097,1097,1097,1094,1094,1094,1094,1097,1094,1094,1097,1101,1097,1097,1097,1097,1097,1097,1097,1097,1097,1097,1101,1097,1097,1094,1094,1090,1090,1090,1090,1090,1087,1087,1094,1094,989,989,989,989,1108,987,987,987,989,989,989,989,989,989,989,987,987,984,984,984,918,918,918,920,920,920,920,920,920,920,918,918,918,918,920,920,920,920,920,923,923,923,923,925,928,928,928,930,933,935,938,943,948,948,954,956,954,954,954,954,954,951,951,948,948,948,946,946,946,946,946,943,940,938,935,935,935,933,930,930,928,928,925,925,925,923,920,918,918,918,915,913,910,908,906,903,901,898,896,896,896,0,0,0,0,0,0,0,0,0,0,0,0,0,0,0,0,0,0,0,0,0,0,0,0,0,0,0,0,0,0,0,0,0,0,0,0
0,0,0,0,0,1115,1108,1108,1112,1108,1108,1105,1105,1105,1105,1105,1105,1105,1105,1105,1105,1101,1101,1101,1101,1101,1101,1101,1101,1097,1097,946,946,948,946,943,943,935,935,935,933,933,933,933,935,935,935,938,940,943,943,946,948,948,954,954,956,959,959,962,1087,1087,1087,1087,1087,1087,1090,1090,1090,1090,1090,1090,1090,1090,1090,1090,1090,1094,1094,1094,1094,1090,1090,1090,1094,1090,1090,1090,1090,1094,1094,1094,1090,1090,1094,1094,1094,1094,1097,1094,1094,1094,1094,1094,1094,1094,1094,1094,1094,1094,1094,1094,1094,1094,1094,1094,1094,1094,1097,1097,1097,1097,1097,1097,1097,1097,1097,1097,1097,1097,1097,1097,1097,1097,1094,1094,1094,1094,1094,1094,1097,1097,1094,1094,1094,1090,1090,1087,1087,1087,1087,0,0,0,0,0,0,0,0,0,0,0,698,698,697,696,693,691,690,688,687,687,687,687,687,687,687,687,687,690,691,693,694,696,697,698,700,701,701,703,706,707,708,708,708,710,0,0,0,0,0,1105,1101,1101,1097,1097,1094,1094,1094,1094,1094,1094,1094,1097,1097,1094,1094,1097,1094,1094,1090,1090,1090,1090,1090,1090,1090,1094,1094,1094,1097,1097,1097,1097,1097,1094,1094,1094,1094,1094,1090,1090,1090,933,930,925,925,923,923,923,889,887,887,887,887,887,887,887,887,887,889,889,891,891,894,894,894,894,896,896,896,896,898,898,898,920,923,925,925,925,928,1090,1090,1090,1094,1094,1097,1097,1097,1097,1097,1094,1094,1097,1097,1097,1097,1097,1097,1097,1097,1097,1097,1097,1097,1097,1097,1101,1101,1101,1101,1101,1101,1101,1097,1097,1097,1097,1097,1097,1097,1097,1097,1097,1097,1097,1097,1097,1097,1097,1097,1101,1101,1101,1101,1101,1101,1101,1101,1097,1097,1101,1097,1097,1097,1097,1097,1097,1097,1097,1097,1097,1097,1101,1101,1101,1101,1101,1101,1101,1101,1101,1101,1105,1105,1101,1101,1101,1101,1101,1101,1097,1097,1097,1097,1097,1097,1097,1097,1097,1097,1097,1097,1097,1094,1094,1094,1094,1097,1094,1094,1094,1094,1094,1097,1097,1097,1097,1097,1097,1097,1097,1094,1094,1094,1094,1094,1097,1097,1101,1101,1101,1101,1097,1097,1097,1097,1097,1101,1101,1097,1097,1097,1097,1097,1097,1097,1097,1097,1097,1097,1094,1094,1094,1094,1094,1094,1094,1094,1094,1094,1094,1094,1094,1094,1094,1097,1094,1094,1094,1094,1094,1094,1094,1094,1094,1094,1094,1094,1090,1090,1094,1094,1094,1094,1094,1094,1094,1094,1094,1094,1094,1094,1094,1094,1094,1094,1094,1094,1094,1094,1094,1094,1094,1094,1094,1094,1094,1094,1094,1094,1090,1090,1087,1087,1087,1087,1090,1090,1087,1087,1087,989,989,989,989,989,992,992,989,989,989,989,989,989,989,989,989,987,987,984,984,987,918,918,918,920,920,920,920,918,918,920,918,918,918,918,920,920,920,920,920,920,920,923,923,925,925,928,928,928,933,933,938,946,951,951,954,956,956,956,956,956,954,954,951,948,948,948,946,946,946,946,946,940,940,938,935,935,933,930,930,928,928,928,925,925,925,923,918,918,915,915,915,915,910,908,906,903,901,896,896,896,896,0,0,0,0,0,0,0,0,0,0,0,0,0,0,0,0,0,0,0,0,0,0,0,0,0,0,0,0,0,0,0,0,0,0,0,0
0,0,0,0,0,1108,1105,1105,1105,1105,1105,1105,1101,1101,1105,1105,1101,1101,1101,1101,1101,1101,1101,1101,1101,1101,1097,1097,1097,1097,954,951,948,948,946,943,943,938,935,935,935,933,933,933,935,935,938,940,940,943,943,946,948,951,954,954,956,959,959,959,962,1087,1087,1087,1087,1087,1087,1087,1090,1090,1090,1087,1087,1087,1087,1087,1087,1087,1090,1090,1090,1090,1090,1087,1087,1087,1084,1084,1087,1087,1087,1087,1087,1087,1090,1090,1090,1090,1090,1090,1090,1090,1090,1090,1094,1094,1094,1094,1090,1090,1090,1090,1090,1090,1090,1090,1090,1090,1094,1094,1094,1094,1090,1090,1090,1090,1094,1094,1094,1094,1094,1094,1094,1094,1090,1090,1090,1090,1090,1094,1094,1094,1094,1094,1094,1090,1087,1087,1087,1084,1084,0,0,0,0,0,0,0,0,0,0,703,701,698,697,696,694,693,691,690,688,687,687,687,687,687,687,687,688,690,691,693,694,697,698,700,701,701,703,704,706,707,708,708,708,710,0,0,0,0,0,1101,1101,1097,1097,1094,1090,1090,1090,1090,1090,1090,1094,1094,1094,1094,1094,1094,1090,1090,1090,1090,1090,1090,1090,1090,1090,1090,1090,1090,1090,1090,1090,1094,1094,1094,1094,1094,1094,1090,1090,1090,1090,1090,1090,925,925,923,889,887,887,887,887,887,887,887,885,885,887,887,887,887,889,891,891,894,894,894,896,896,896,896,898,898,898,920,923,925,925,925,1087,1087,1087,1087,1090,1090,1090,1094,1094,1094,1094,1090,1090,1094,1090,1090,1090,1094,1094,1094,1094,1094,1097,1094,1094,1094,1094,1097,1097,1097,1097,1097,1097,1097,1094,1094,1094,1094,1094,1094,1094,1094,1094,1094,1094,1094,1094,1094,1094,1094,1094,1097,1097,1097,1097,1097,1097,1094,1094,1094,1094,1097,1094,1094,1094,1094,1094,1094,1094,1094,1094,1094,1097,1097,1097,1097,1097,1097,1097,1101,1101,1101,1101,1101,1101,1101,1097,1097,1094,1094,1097,1094,1094,1094,1094,1094,1094,1094,1094,1094,1094,1094,1094,1094,1094,1094,1094,1094,1094,1094,1094,1094,1094,1094,1094,1094,1097,1097,1097,1097,1094,1094,1094,1094,1094,1090,1090,1094,1094,1094,1094,1094,1094,1094,1094,1094,1097,1097,1097,1097,1094,1094,1094,1090,1090,1090,1090,1090,1094,1094,1094,1094,1094,1094,1094,1094,1094,1094,1094,1094,1094,1094,1094,1094,1090,1090,1094,1090,1090,1090,1090,1090,1094,1094,1094,1094,1094,1094,1090,1090,1090,1090,1090,1090,1090,1090,1094,1094,1094,1094,1094,1094,1094,1094,1090,1090,1090,1090,1090,1090,1090,1090,1090,1090,1090,1090,1090,1090,1090,1090,1090,1087,1087,1087,1087,1087,1087,1087,1087,1084,1084,1084,981,981,989,989,989,989,989,989,989,989,989,989,989,989,989,989,987,987,987,987,987,918,918,918,920,920,918,918,918,918,918,918,918,918,918,920,920,920,920,920,920,920,923,923,925,925,928,928,928,933,933,938,946,954,954,954,959,956,956,956,956,956,954,951,948,948,948,946,946,943,943,943,940,938,935,933,933,933,930,928,928,928,928,925,923,923,923,918,918,915,915,915,913,910,908,906,903,901,896,896,894,894,0,0,0,0,0,0,0,0,0,0,0,0,0,0,0,0,0,0,0,0,0,0,0,0,0,0,0,0,0,0,0,0,0,0,0,0
0,0,0,0,1105,1105,1105,1105,1105,1101,1101,1101,1101,1101,1101,1101,1101,1101,1097,1097,1097,1097,1097,1097,1097,1097,1097,1094,1094,1094,954,954,951,948,946,943,943,938,935,935,935,935,935,935,935,935,940,940,940,943,943,946,948,951,954,954,956,956,959,959,959,1087,1084,1084,1084,1087,1087,1087,1087,1087,1087,1087,1087,1087,1084,1084,1084,1087,1087,1087,1087,1087,1087,1087,1087,1084,1084,1084,1084,1084,1087,1087,1087,1087,1087,1087,1090,1090,1090,1087,1087,1090,1087,1087,1090,1090,1090,1090,1090,1090,1090,1090,1090,1090,1090,1090,1090,1090,1090,1090,1090,1090,1090,1090,1090,1090,1090,1090,1090,1090,1090,1090,1090,1090,1087,1087,1090,1090,1090,1090,1090,1090,1090,1090,1090,1090,1087,1084,1084,1084,1080,1080,0,0,0,0,0,0,703,703,703,703,701,700,698,697,697,694,691,691,688,688,687,687,687,687,687,688,688,690,691,693,696,697,698,700,701,703,703,704,706,707,710,710,710,713,0,0,0,0,0,1101,1094,1094,1094,1090,1090,1090,1090,1090,1090,1090,1090,1090,1090,1090,1090,1090,1087,1087,1087,1087,1087,1087,1087,1087,1090,1087,1087,1087,1087,1087,1087,1087,1090,1090,1090,1090,1090,1090,1090,1090,1090,1090,1090,1090,1090,889,889,887,887,887,887,887,885,885,885,885,885,885,885,885,887,889,891,894,894,896,896,898,898,898,901,906,906,915,915,1084,1084,1087,1087,1084,1084,1087,1087,1087,1087,1090,1090,1090,1090,1090,1090,1090,1087,1087,1087,1087,1087,1087,1090,1094,1094,1090,1090,1090,1094,1094,1094,1094,1094,1094,1094,1094,1094,1094,1094,1090,1090,1094,1090,1090,1090,1090,1094,1094,1094,1090,1090,1094,1094,1094,1094,1094,1094,1094,1094,1094,1094,1094,1094,1094,1094,1094,1094,1094,1094,1094,1094,1094,1090,1090,1094,1094,1094,1094,1094,1094,1094,1094,1094,1094,1094,1094,1097,1094,1094,1094,1090,1090,1090,1090,1090,1090,1090,1094,1094,1094,1094,1094,1094,1094,1094,1094,1090,1090,1090,1090,1090,1094,1090,1090,1090,1090,1094,1094,1094,1094,1094,1094,1094,1094,1090,1090,1090,1090,1090,1090,1090,1090,1090,1090,1090,1094,1094,1094,1094,1094,1094,1094,1090,1090,1090,1087,1087,1087,1087,1090,1090,1090,1090,1090,1090,1090,1090,1090,1090,1090,1090,1090,1090,1090,1090,1090,1087,1087,1087,1087,1087,1087,1087,1087,1090,1084,1084,1090,1090,1090,1090,1090,1090,1087,1087,1087,1087,1087,1087,1090,1090,1090,1090,1090,1090,1090,1087,1080,1080,1084,1087,1087,1087,1087,1087,1090,1090,1090,1090,1087,1084,1084,1087,1084,1084,1080,1080,1080,1080,1084,1084,1084,1080,1080,981,981,989,989,989,989,989,1077,1077,989,989,989,989,989,989,989,989,987,987,987,989,918,918,918,918,918,918,918,918,918,918,918,918,918,918,920,920,918,918,920,920,920,920,923,925,925,928,928,930,930,933,938,946,948,956,956,959,956,956,956,956,956,954,951,948,948,948,946,946,943,943,943,938,938,935,933,933,930,930,928,928,928,925,925,923,923,923,918,918,915,913,913,910,908,906,906,903,898,896,891,891,894,0,0,0,0,0,0,0,0,0,0,0,0,0,0,0,0,0,0,0,0,0,0,0,0,0,0,0,0,0,0,0,0,0,0,0,0
0,0,0,0,1097,1097,1101,1101,1101,1101,1101,1101,1101,1097,1097,1097,1094,1094,1094,1094,1094,1094,1094,1097,1097,1097,1094,1094,1094,1094,1090,1090,1087,946,946,946,946,940,938,935,935,935,935,935,935,938,940,940,940,943,943,946,948,951,954,954,956,956,959,959,959,1087,1084,1084,1084,1084,1084,1084,1084,1084,1084,1084,1084,1084,1084,1080,1080,1084,1087,1087,1087,1087,1087,1084,1084,1084,1080,1080,1080,1080,1084,1084,1084,1084,1084,1087,1087,1087,1087,1087,1087,1087,1084,1084,1087,1087,1087,1090,1090,1090,1090,1090,1087,1087,1087,1087,1087,1087,1087,1087,1087,1087,1087,1087,1087,1087,1087,1090,1087,1087,1087,1087,1087,1087,1087,1087,1087,1087,1087,1090,1087,1087,1087,1087,1087,1087,1084,1084,1084,1080,1080,1080,0,0,0,0,0,0,703,703,703,703,701,700,698,697,697,694,693,691,690,688,688,688,688,688,688,688,690,691,691,693,696,697,700,701,703,703,703,704,706,708,710,711,711,713,0,0,0,0,0,0,1090,1090,1090,1087,1087,1087,1087,1087,1087,1087,1087,1087,1087,1087,1087,1084,1084,1084,1084,1087,1087,1087,1087,1087,1087,1084,1084,1087,1087,1087,1087,1087,1087,1087,1087,1087,1087,1090,1090,1090,1090,1090,1090,1090,1090,887,887,887,887,885,885,885,885,885,882,882,882,882,882,885,885,887,889,891,894,896,896,898,901,901,903,908,908,908,913,1084,1084,1084,1084,1084,1084,1084,1084,1084,1084,1084,1087,1087,1087,1084,1084,1087,1084,1084,1084,1084,1084,1087,1084,1084,1090,1090,1090,1090,1090,1094,1090,1090,1090,1090,1090,1090,1090,1090,1090,1090,1090,1090,1090,1090,1090,1090,1090,1090,1090,1090,1090,1090,1090,1090,1090,1090,1090,1090,1090,1090,1090,1090,1090,1090,1094,1090,1090,1090,1090,1090,1090,1090,1090,1090,1090,1094,1094,1090,1090,1090,1090,1090,1090,1090,1090,1090,1094,1094,1090,1090,1090,1090,1090,1090,1087,1087,1090,1090,1090,1090,1090,1090,1090,1090,1090,1090,1090,1090,1090,1090,1090,1090,1090,1090,1090,1090,1090,1090,1090,1090,1090,1090,1094,1090,1090,1090,1087,1087,1087,1087,1087,1087,1087,1090,1090,1087,1087,1090,1090,1090,1090,1090,1087,1087,1087,1087,1087,1087,1087,1087,1087,1087,1087,1087,1087,1087,1090,1090,1090,1090,1090,1090,1090,1087,1087,1087,1084,1084,1084,1080,1080,1080,1080,1080,1084,1080,1080,1080,1090,1087,1087,1087,1087,1087,1087,1084,1084,1084,1084,1084,1090,1090,1080,1080,1080,1080,1080,1080,1080,1080,1080,1080,1080,1080,1087,1087,1087,1087,1084,1084,1080,1080,1080,1080,1080,1080,1080,1080,1080,1084,1084,1084,987,987,987,987,989,992,989,989,992,1077,1077,1080,1080,1077,989,989,989,989,989,987,987,989,989,918,918,918,918,918,918,918,918,918,918,918,918,918,918,920,920,918,918,920,920,920,920,923,925,925,928,928,928,930,933,938,948,948,954,959,959,959,959,956,956,954,954,951,948,948,946,946,946,943,943,943,938,938,935,933,930,930,928,928,925,925,925,925,925,925,923,920,918,915,913,913,910,908,906,906,903,896,891,891,891,0,0,0,0,0,0,0,0,0,0,0,0,0,0,0,0,0,0,0,0,0,0,0,0,0,0,0,0,0,0,0,0,0,0,0,0,0
0,0,0,0,1094,1094,1097,1097,1101,1097,1097,1097,1094,1094,1094,1094,1090,1090,1090,1090,1090,1090,1090,1090,1094,1094,1094,1090,1090,1090,1090,1087,1087,946,946,946,946,943,940,938,935,935,935,935,935,938,938,940,940,943,943,946,948,951,954,954,956,956,956,959,1084,1084,1084,1080,1080,1080,1080,1080,1080,1080,1080,1080,1080,1080,1077,1077,1077,1080,1084,1084,1084,1084,1084,1080,1080,1080,1077,1077,1077,1077,1080,1080,1080,1080,1084,1084,1084,1080,1080,1084,1084,1084,1084,1084,1084,1084,1087,1087,1087,1087,1087,1087,1087,1087,1087,1087,1084,1084,1084,1084,1084,1084,1084,1084,1084,1084,1087,1087,1087,1084,1084,1084,1084,1084,1084,1084,1084,1087,1087,1087,1084,1084,1084,1084,1084,1084,1080,1080,1080,1080,1077,1077,0,0,0,0,0,0,0,704,703,703,701,700,698,697,697,696,693,691,690,690,688,688,688,688,688,688,690,690,691,693,696,697,700,701,703,703,703,704,706,708,711,713,713,713,0,0,0,0,0,0,1087,1087,1087,1084,1084,1087,1087,1087,1087,1084,1084,1084,1084,1080,1080,1080,1080,1080,1080,1084,1084,1084,1084,1084,1084,1080,1080,1080,1080,1084,1084,1084,1084,1084,1084,1084,1087,1087,1087,1087,1087,1087,1090,1087,1087,887,887,887,885,885,882,882,882,882,880,880,880,880,882,882,885,887,889,891,891,896,896,898,901,903,906,908,908,908,913,1077,1077,1080,1080,1080,1080,1080,1080,1080,1080,1080,1080,1080,1080,1080,1080,1080,1080,1080,1080,1080,1084,1084,1080,1080,1080,1084,1084,1087,1087,1090,1090,1090,1090,1087,1087,1090,1087,1087,1090,1090,1090,1090,1090,1090,1087,1087,1090,1087,1087,1087,1087,1087,1087,1087,1087,1087,1087,1087,1087,1087,1087,1090,1090,1090,1090,1090,1090,1090,1087,1087,1090,1087,1087,1087,1090,1090,1090,1087,1087,1087,1087,1084,1084,1084,1084,1084,1090,1090,1090,1087,1087,1087,1087,1087,1084,1084,1087,1090,1090,1090,1090,1090,1090,1090,1087,1087,1087,1087,1090,1090,1090,1090,1090,1090,1087,1087,1090,1090,1090,1090,1090,1090,1090,1090,1090,1087,1087,1084,1084,1084,1084,1084,1087,1084,1084,1084,1084,1084,1084,1084,1084,1087,1087,1087,1084,1084,1087,1087,1087,1087,1087,1087,1087,1084,1084,1084,1084,1084,1084,1087,1084,1084,1084,1084,1084,1084,1080,1080,1080,1080,1080,1080,1080,1080,1080,1080,1077,1077,1080,1080,1080,1080,1080,1084,1084,1080,1080,1080,1080,1077,1077,1077,1077,1080,1077,1077,1080,1077,1077,1080,1080,1080,1080,1080,1080,1080,1080,1080,1080,1080,1080,1080,1080,1080,1080,1077,1077,1077,1077,1077,1077,1080,987,984,984,984,989,989,989,989,992,1077,1077,1080,1080,1077,1077,989,989,989,989,987,987,989,989,918,918,918,918,918,918,918,918,918,918,918,918,918,918,920,920,920,920,920,920,920,920,923,923,925,925,928,928,930,933,940,954,954,954,959,959,959,956,956,954,951,951,948,948,948,946,946,946,943,943,940,938,935,935,930,930,928,928,928,925,925,925,925,925,925,923,920,918,915,913,913,910,908,906,903,901,891,891,889,889,0,0,0,0,0,0,0,0,0,0,0,0,0,0,0,0,0,0,0,0,0,0,0,0,0,0,0,0,0,0,0,0,0,0,0,0,0
0,0,0,0,1090,1090,1097,1097,1097,1097,1097,1097,1094,1090,1090,1090,1087,1087,1087,1087,1087,1087,1087,1087,1090,1090,1090,1090,1090,1087,1087,1084,1084,948,946,946,946,946,943,940,935,935,935,938,938,938,938,940,940,943,943,946,948,951,954,954,956,956,956,956,959,1084,1080,1080,1077,1077,1077,1077,1077,1077,1077,1077,1077,1077,1077,1077,1077,1077,1077,1080,1080,1080,1080,1080,1080,1077,1077,1077,1077,1077,1077,1077,1077,1077,1077,1080,1080,1080,1080,1077,1077,1077,1077,1080,1080,1080,1084,1084,1084,1084,1087,1087,1084,1084,1084,1084,1084,1080,1080,1080,1080,1080,1080,1080,1080,1080,1084,1084,1084,1080,1080,1080,1080,1080,1080,1084,1084,1084,1084,1084,1080,1080,1080,1080,1080,1080,1080,1077,1077,1077,1077,1077,0,0,0,0,0,0,0,704,703,703,701,700,700,698,698,697,694,693,691,690,690,688,688,688,688,688,690,690,691,694,696,697,700,701,703,704,704,704,706,710,713,713,713,714,0,0,0,0,0,0,1084,1080,1080,1080,1080,1084,1084,1084,1084,1080,1080,1080,1080,1080,1077,1077,1077,1077,1080,1080,1080,1080,1080,1080,1080,1080,1080,1080,1080,1080,1080,1080,1080,1084,1084,1084,1084,1084,1084,1084,1087,1087,1087,1087,1087,875,875,875,882,882,880,880,880,880,880,878,878,880,880,882,885,887,889,891,891,894,896,901,903,903,906,908,908,908,1077,1077,1077,1077,1077,1077,1077,1077,1077,1077,1077,1077,1077,1077,1077,1077,1077,1077,1077,1077,1077,1077,1080,1080,1077,1077,1077,1080,1080,1080,1080,1084,1087,1087,1087,1087,1087,1087,1087,1087,1087,1087,1087,1087,1087,1087,1087,1087,1087,1087,1087,1087,1087,1087,1084,1084,1084,1084,1084,1084,1084,1084,1087,1087,1087,1087,1090,1087,1087,1087,1087,1087,1087,1087,1087,1087,1087,1087,1087,1087,1087,1084,1084,1084,1080,1080,1080,1080,1080,1080,1080,1084,1084,1084,1084,1084,1084,1084,1084,1087,1087,1087,1087,1087,1087,1087,1087,1087,1087,1087,1087,1087,1087,1087,1087,1087,1084,1084,1087,1087,1087,1090,1090,1090,1090,1090,1087,1087,1084,1084,1084,1080,1080,1080,1084,1080,1080,1080,1080,1080,1080,1080,1077,1077,1077,1084,1084,1084,1084,1084,1084,1084,1084,1080,1080,1080,1080,1080,1080,1080,1080,1084,1080,1080,1080,1080,1080,1080,1077,1077,1077,1077,1077,1077,1077,1077,1077,1077,1077,1077,1080,1080,1080,1080,1080,1080,1080,1080,1080,1077,1077,1077,1077,1077,1077,1077,1077,1077,1077,1077,1077,1080,1080,1080,1080,1077,1077,1080,1077,1077,1077,1077,1077,1077,1077,1077,1077,1077,1077,1077,1077,1077,1077,987,987,984,984,984,989,989,992,992,992,1073,1073,1077,1077,1077,1077,1077,1077,989,989,989,989,987,987,918,918,918,918,918,918,918,915,915,918,918,918,918,918,920,920,920,920,920,920,920,920,923,923,925,925,925,928,930,933,940,956,956,959,959,959,959,956,956,954,951,948,948,946,946,946,946,943,943,940,938,935,933,930,928,928,925,925,925,925,925,925,925,923,923,918,918,915,913,913,908,908,906,903,901,898,891,891,889,889,0,0,0,0,0,0,0,0,0,0,0,0,0,0,0,0,0,0,0,0,0,0,0,0,0,0,0,0,0,0,0,0,0,0,0,0,0
0,0,0,0,1090,1090,1094,1094,1094,1094,1094,1094,1090,1090,1087,1087,1087,1084,1084,1084,1084,1084,1084,1084,1087,1087,1087,1087,1087,1084,1084,1080,1080,1080,951,951,946,946,943,940,940,940,940,938,938,938,940,940,943,943,946,948,951,951,954,956,956,956,956,956,959,1080,1080,1077,1077,1073,1073,1073,1073,1073,1077,1077,1077,1077,1073,1073,1073,1073,1077,1077,1077,1077,1077,1077,1077,1077,1077,1077,1073,1073,1077,1077,1077,1077,1077,1077,1077,1077,1077,1077,1077,1077,1073,1073,1073,1073,1073,1077,1080,1080,1084,1084,1084,1080,1080,1080,1080,1080,1080,1080,1077,1077,1080,1080,1077,1077,1080,1080,1080,1077,1077,1077,1077,1080,1080,1080,1080,1080,1080,1080,1077,1077,1077,1077,1077,1077,1077,1077,1077,1073,1073,1073,0,0,0,0,0,0,0,0,703,703,701,701,701,700,698,697,694,693,691,691,690,688,688,688,688,688,690,690,691,694,697,698,701,701,703,704,704,706,707,710,713,713,713,714,0,0,0,0,0,0,1080,1077,1077,1077,1080,1080,1080,1080,1080,1080,1077,1077,1077,1077,1077,1077,1077,1077,1077,1080,1080,1080,1080,1080,1077,1077,1077,1077,1077,1080,1080,1077,1077,1077,1080,1080,1080,1080,1080,1084,1087,1087,867,867,869,869,869,869,869,873,875,875,875,878,878,878,878,878,880,882,885,887,889,891,891,894,898,901,903,906,906,908,908,1073,1073,1073,1077,1077,1077,1077,1077,1077,1077,1077,1077,1077,1077,1077,1077,1073,1073,1073,1073,1073,1077,1077,1077,1077,1073,1073,1073,1077,1077,1077,1077,1080,1080,1080,1080,1084,1084,1084,1084,1087,1087,1087,1087,1087,1087,1087,1084,1084,1084,1084,1084,1084,1084,1084,1084,1084,1084,1084,1084,1080,1080,1084,1084,1084,1084,1084,1084,1087,1087,1087,1084,1084,1084,1084,1084,1084,1084,1084,1084,1084,1084,1080,1080,1080,1080,1080,1080,1080,1077,1077,1080,1080,1080,1080,1080,1080,1080,1080,1080,1084,1084,1084,1084,1084,1084,1084,1084,1084,1084,1084,1087,1087,1087,1087,1087,1087,1084,1080,1080,1080,1084,1084,1087,1087,1090,1087,1087,1084,1080,1080,1080,1080,1080,1080,1080,1080,1080,1080,1077,1077,1077,1077,1077,1077,1077,1077,1077,1080,1080,1080,1080,1080,1080,1080,1080,1080,1080,1077,1077,1080,1080,1080,1080,1080,1080,1080,1077,1077,1073,1073,1077,1077,1077,1077,1073,1073,1077,1077,1073,1073,1073,1073,1073,1077,1077,1077,1077,1077,1077,1073,1073,1073,1073,1073,1073,1073,1073,1073,1077,1080,1080,1080,1080,1080,1080,1077,1077,1077,1073,1073,1073,1073,1077,1077,1073,1073,1073,1073,1073,1073,1073,1070,1070,987,987,987,987,987,989,992,992,992,1060,1060,1063,1077,1073,1073,1073,1073,1077,1077,1073,1073,1073,987,987,1070,918,918,918,915,915,915,915,915,915,918,918,918,918,920,920,920,920,920,920,920,920,923,923,925,925,925,925,928,930,956,956,956,959,959,959,959,956,954,954,948,948,948,946,946,946,943,943,943,940,938,935,933,930,928,928,925,925,925,925,925,925,925,923,923,918,915,915,908,906,906,906,903,901,898,891,891,889,889,889,0,0,0,0,0,0,0,0,0,0,0,0,0,0,0,0,0,0,0,0,0,0,0,0,0,0,0,0,0,0,0,0,0,0,0,0,0
0,0,0,0,1087,1087,1090,1094,1094,1090,1090,1090,1090,1087,1084,1084,1084,1080,1080,1080,1080,1077,1077,1077,1080,1080,1087,1087,1084,1084,1080,1077,1077,1077,954,954,954,948,943,940,938,938,940,940,940,940,940,943,943,946,946,948,951,954,954,956,956,956,956,959,959,1077,1077,1077,1073,1073,1073,1073,1073,1073,1073,1073,1073,1073,1073,1073,1073,1073,1073,1077,1077,1077,1077,1077,1077,1073,1073,1073,1073,1073,1073,1073,1073,1073,1073,1073,1073,1073,1073,1073,1073,1073,1073,1073,1073,1073,1073,1073,1073,1077,1077,1080,1080,1080,1080,1077,1077,1077,1077,1077,1077,1077,1077,1077,1077,1077,1077,1077,1077,1077,1077,1077,1077,1077,1077,1077,1077,1077,1077,1077,1077,1077,1077,1077,1077,1077,1077,1077,1073,1073,1070,1070,0,0,0,0,0,0,0,0,704,703,703,703,703,701,700,698,694,693,691,691,691,690,688,688,688,690,690,690,693,696,697,698,701,701,703,704,706,706,707,711,713,714,714,714,0,0,0,0,0,0,1077,1077,1077,1077,1077,1077,1080,1077,1077,1077,1077,1077,1077,1077,1073,1073,1073,1073,1073,1077,1077,1077,1077,1077,1077,1077,1077,1077,1077,1077,1077,1077,1077,1077,1077,1077,1077,1077,1077,1084,1087,869,867,867,869,867,867,869,869,869,871,871,873,873,875,875,875,875,878,880,885,885,889,891,894,896,898,901,903,906,908,908,1073,1073,1073,1073,1073,1073,1073,1073,1073,1073,1073,1073,1073,1073,1073,1073,1073,1073,1073,1073,1070,1070,1073,1073,1073,1073,1073,1073,1073,1073,1073,1073,1073,1077,1077,1077,1077,1077,1077,1080,1080,1084,1084,1084,1084,1084,1084,1084,1084,1084,1080,1080,1080,1080,1080,1080,1080,1080,1080,1080,1080,1080,1080,1080,1080,1080,1080,1080,1080,1084,1084,1084,1080,1080,1080,1080,1080,1080,1080,1080,1080,1080,1080,1080,1080,1080,1077,1077,1077,1077,1077,1077,1077,1077,1077,1077,1077,1080,1080,1080,1080,1080,1080,1080,1080,1080,1080,1080,1080,1080,1080,1080,1080,1080,1084,1084,1084,1084,1080,1080,1080,1080,1080,1080,1080,1080,1084,1080,1080,1080,1080,1080,1077,1077,1077,1077,1080,1077,1077,1077,1077,1077,1077,1077,1073,1073,1073,1077,1077,1077,1077,1077,1080,1080,1077,1077,1077,1077,1077,1077,1077,1077,1077,1077,1077,1077,1077,1077,1077,1073,1073,1073,1073,1073,1073,1073,1073,1073,1073,1073,1073,1070,1070,1070,1070,1073,1073,1070,1070,1070,1070,1070,1070,1070,1070,1070,1070,1073,1073,1073,1073,1073,1073,1077,1077,1077,1077,1073,1073,1073,1070,1070,1073,1073,1073,1073,1070,1070,1070,1073,1073,1070,1070,1070,987,987,987,989,989,989,992,992,992,992,1057,1060,1063,1067,1070,1073,1073,1073,1073,1073,1073,1073,1073,1073,1070,1067,1067,918,918,915,915,915,915,915,915,915,915,918,918,918,920,920,920,920,920,920,920,923,923,925,925,925,925,928,930,956,956,956,959,959,959,959,956,954,951,948,948,946,946,946,946,943,943,940,938,935,933,930,930,928,928,925,925,925,925,925,923,923,920,918,915,915,913,906,903,903,903,901,898,896,891,889,887,887,887,0,0,0,0,0,0,0,0,0,0,0,0,0,0,0,0,0,0,0,0,0,0,0,0,0,0,0,0,0,0,0,0,0,0,0,0,0
0,0,0,0,1087,1087,1090,1090,1090,1090,1090,1090,1087,1084,1084,1080,1080,1080,1080,1077,1077,1077,1077,1077,1077,1077,1077,1077,1073,1073,1077,1073,1073,1073,1073,1077,1087,946,943,940,938,938,940,940,940,940,943,943,943,946,948,951,951,954,956,956,956,956,956,959,959,964,1073,1073,1070,1070,1070,1070,1070,1073,1073,1073,1073,1073,1073,1070,1070,1070,1070,1070,1073,1070,1070,1070,1070,1070,1070,1070,1070,1070,1073,1073,1073,1073,1073,1073,1073,1073,1073,1073,1073,1073,1073,1073,1073,1073,1073,1073,1073,1073,1073,1073,1073,1077,1077,1077,1077,1077,1077,1077,1077,1077,1077,1073,1073,1073,1073,1073,1073,1073,1073,1073,1073,1073,1073,1073,1073,1073,1073,1073,1073,1073,1073,1077,1077,1077,1073,1073,1073,1070,1070,1070,0,0,0,0,0,0,0,0,0,704,701,701,703,703,701,698,696,694,693,691,691,690,690,690,690,690,690,691,693,696,697,698,701,701,703,704,706,706,708,711,713,714,714,716,0,0,0,0,0,0,1077,1073,1073,1073,1077,1077,1077,1077,1077,1073,1073,1073,1073,1073,1073,1073,1070,1070,1070,1070,1070,1073,1073,1073,1073,1073,1077,1077,1077,1077,1077,1077,1077,1073,1073,1073,1073,1073,1077,867,867,867,867,867,867,867,867,867,867,869,869,869,871,871,873,873,875,875,878,880,885,885,889,891,894,896,898,903,906,906,910,910,1070,1070,1070,1073,1073,1073,1073,1073,1073,1073,1073,1073,1073,1073,1073,1073,1073,1070,1070,1070,1070,1070,1070,1070,1070,1070,1070,1070,1070,1070,1070,1070,1073,1077,1077,1077,1077,1077,1077,1077,1077,1077,1080,1080,1080,1080,1080,1080,1080,1080,1080,1080,1080,1077,1077,1077,1077,1080,1080,1080,1080,1080,1080,1080,1077,1077,1077,1080,1080,1080,1080,1080,1080,1080,1080,1080,1080,1077,1077,1080,1080,1077,1077,1077,1077,1077,1077,1077,1077,1077,1077,1077,1077,1077,1077,1077,1073,1073,1073,1073,1077,1077,1077,1080,1080,1080,1080,1080,1080,1080,1080,1080,1080,1080,1080,1080,1080,1080,1077,1077,1077,1077,1077,1077,1077,1077,1077,1077,1077,1077,1077,1077,1077,1077,1077,1077,1077,1073,1073,1073,1073,1073,1073,1073,1070,1070,1073,1073,1073,1073,1073,1077,1073,1073,1077,1077,1073,1073,1073,1073,1073,1077,1077,1073,1073,1073,1073,1073,1073,1073,1070,1070,1070,1070,1070,1070,1070,1070,1070,1070,1070,1067,1067,1067,1067,1070,1070,1070,1070,1070,1067,1067,1067,1067,1070,1067,1067,1070,1070,1070,1073,1073,1073,1073,1077,1077,1077,1073,1073,1073,1067,1067,1070,1070,1070,1070,1070,1070,1070,1070,1070,1067,1067,1067,987,987,987,989,989,989,992,992,995,1057,1057,1060,1063,1063,1067,1070,1070,1070,1073,1073,1073,1070,1070,1070,1070,1063,1063,918,915,915,915,915,915,915,915,915,915,915,918,918,920,920,920,920,920,920,920,923,923,925,925,925,925,928,930,956,956,956,959,956,956,956,954,951,951,948,946,946,946,943,943,943,943,940,935,935,933,930,930,928,928,925,925,925,925,923,923,923,918,918,915,913,913,906,903,901,901,898,896,894,891,889,887,887,887,0,0,0,0,0,0,0,0,0,0,0,0,0,0,0,0,0,0,0,0,0,0,0,0,0,0,0,0,0,0,0,0,0,0,0,0,0
0,0,0,0,1087,1087,1090,1090,1090,1087,1087,1087,1084,1084,1080,1077,1077,1077,1077,1077,1077,1073,1073,1073,1073,1073,1073,1070,1070,1070,1070,1070,1070,1070,1073,1077,948,946,946,946,943,943,943,943,943,943,943,943,943,946,948,951,951,954,954,956,956,956,962,962,964,964,964,1073,1070,1067,1067,1067,1067,1067,1070,1070,1070,1070,1070,1070,1070,1067,1067,1067,1067,1067,1067,1067,1067,1067,1067,1067,1070,1070,1070,1073,1070,1070,1070,1067,1067,1070,1070,1070,1070,1070,1070,1073,1070,1070,1070,1070,1070,1070,1070,1070,1070,1070,1070,1070,1070,1073,1073,1073,1073,1073,1073,1073,1073,1070,1070,1070,1070,1070,1070,1070,1070,1070,1070,1070,1070,1070,1070,1070,1073,1073,1073,1073,1073,1073,1073,1073,1070,1067,1067,1067,0,0,0,0,0,0,0,0,0,0,701,701,703,703,701,698,696,694,693,693,691,691,691,691,691,691,691,691,693,696,697,698,700,701,703,704,706,707,708,711,713,714,714,716,0,0,0,0,0,1077,1077,1073,1073,1073,1073,1073,1073,1070,1070,1070,1070,1070,1070,1070,1070,1070,1067,1067,1067,1067,1067,1067,1070,1070,1070,1070,1073,1073,1073,1073,1073,1073,1073,1073,1073,1070,1070,1070,867,867,864,864,867,867,867,867,867,867,867,867,867,869,869,869,871,873,875,875,878,880,885,885,889,891,894,896,898,901,903,906,910,1067,1067,1067,1070,1070,1070,1073,1073,1073,1073,1073,1073,1073,1073,1073,1070,1070,1070,1070,1070,1070,1070,1070,1070,1070,1070,1070,1070,1070,1070,1070,1067,1067,1070,1073,1073,1073,1073,1073,1073,1073,1073,1073,1073,1073,1073,1077,1077,1077,1077,1077,1077,1077,1077,1077,1073,1073,1077,1077,1077,1077,1077,1077,1077,1077,1077,1077,1077,1077,1077,1077,1077,1077,1077,1073,1073,1077,1077,1077,1077,1077,1077,1077,1077,1077,1077,1077,1077,1077,1077,1077,1077,1077,1077,1077,1077,1073,1073,1073,1070,1070,1070,1070,1073,1080,1077,1077,1077,1077,1077,1077,1077,1077,1077,1077,1077,1077,1077,1077,1077,1077,1077,1077,1077,1077,1073,1073,1073,1073,1070,1070,1070,1070,1073,1073,1073,1073,1073,1070,1070,1070,1070,1070,1070,1070,1067,1067,1070,1070,1070,1067,1067,1067,1070,1070,1070,1070,1070,1073,1073,1070,1070,1073,1073,1070,1070,1070,1070,1070,1070,1070,1067,1067,1067,1067,1067,1067,1067,1067,1067,1067,1067,1067,1067,1067,1067,1067,1067,1067,1067,1067,1067,1067,1067,1067,1067,1067,1067,1067,1067,1067,1067,1067,1067,1067,1067,1067,1067,1067,1067,1070,1067,1067,1067,1067,1067,1067,1067,1067,1067,1067,1067,1067,1067,1063,984,984,987,989,989,989,992,992,995,1057,1057,1060,1060,1063,1063,1067,1067,1067,1067,1067,1067,1067,1067,1067,1063,1063,1063,918,915,915,915,915,915,915,915,915,915,915,918,918,920,920,920,920,920,920,920,923,925,925,925,925,925,928,928,956,956,956,959,956,956,956,951,951,948,948,946,946,946,943,943,940,940,940,935,933,930,930,930,928,928,925,925,925,923,923,920,918,918,915,913,910,908,906,901,901,898,898,896,894,891,889,887,885,885,0,0,0,0,0,0,0,0,0,0,0,0,0,0,0,0,0,0,0,0,0,0,0,0,0,0,0,0,0,0,0,0,0,0,0,0,0
0,0,0,0,1084,1084,1087,1087,1087,1084,1084,1080,1080,1080,1077,1077,1077,1073,1073,1077,1073,1073,1073,1073,1073,1073,1070,1070,1067,1067,1067,1067,1067,1067,1063,954,948,948,948,948,946,946,943,943,943,943,943,943,943,946,948,948,951,954,954,956,956,959,962,964,964,964,964,1063,1063,1063,1063,1063,1063,1063,1067,1067,1067,1067,1067,1067,1067,1067,1067,1067,1067,1063,1063,1063,1063,1063,1063,1063,1067,1067,1070,1070,1070,1070,1067,1067,1067,1063,1063,1067,1067,1067,1067,1070,1067,1067,1067,1067,1067,1067,1067,1067,1067,1067,1067,1070,1070,1070,1070,1070,1070,1070,1073,1070,1070,1067,1067,1067,1070,1070,1070,1070,1070,1070,1067,1067,1067,1063,1063,1067,1070,1070,1070,1073,1073,1073,1070,1070,1067,1063,1063,1063,1063,1063,0,0,0,0,0,0,0,0,704,704,704,704,703,700,698,697,694,693,693,691,691,691,691,691,691,693,694,696,697,698,700,701,703,704,707,708,710,711,713,714,714,0,0,0,0,0,0,1073,1073,1070,1070,1070,1070,1070,1067,1067,1067,1067,1067,1067,1067,1067,1067,1067,1063,1063,1063,1063,1063,1063,1063,1063,1067,1067,1067,1067,1070,1070,1070,1070,1070,1073,1073,1070,1070,1070,864,864,862,862,864,864,864,864,864,864,864,864,867,867,869,869,871,873,873,875,878,880,885,887,889,891,891,894,896,898,903,906,1063,1067,1067,1067,1070,1070,1070,1070,1070,1070,1070,1070,1070,1070,1070,1070,1070,1070,1070,1070,1070,1067,1067,1067,1070,1067,1067,1067,1067,1067,1067,1067,1067,1067,1067,1070,1070,1070,1070,1070,1070,1070,1067,1067,1070,1070,1070,1067,1067,1067,1073,1073,1073,1073,1073,1073,1073,1073,1073,1073,1073,1073,1073,1073,1073,1073,1073,1073,1073,1073,1073,1073,1070,1070,1070,1070,1070,1070,1073,1073,1073,1073,1077,1077,1077,1077,1073,1073,1073,1073,1073,1073,1073,1073,1073,1073,1073,1070,1070,1070,1070,1067,1067,1070,1070,1070,1070,1077,1077,1077,1077,1077,1077,1077,1073,1073,1073,1073,1073,1073,1073,1073,1073,1073,1070,1070,1070,1070,1067,1067,1067,1067,1067,1067,1070,1070,1070,1070,1070,1067,1067,1067,1067,1067,1070,1067,1067,1067,1067,1067,1067,1067,1063,1063,1067,1067,1067,1067,1067,1067,1067,1070,1070,1070,1070,1070,1070,1070,1070,1070,1067,1067,1067,1067,1067,1067,1067,1067,1067,1067,1063,1063,1067,1063,1063,1063,1063,1063,1063,1063,1063,1063,1063,1063,1067,1067,1067,1067,1067,1067,1067,1063,1063,1063,1063,1063,1063,1063,1063,1063,1067,1067,1067,1067,1067,1067,1067,1067,1067,1067,1067,1063,1063,1063,1063,1063,984,984,984,987,989,989,989,989,995,1057,1057,1060,1060,1060,1063,1063,1063,1067,1067,1067,1067,1067,1067,1067,1063,1060,1057,1050,915,915,915,915,913,913,913,913,913,915,915,918,920,920,920,920,920,920,920,923,923,923,923,925,925,928,928,956,956,956,956,956,956,954,951,951,948,946,946,946,943,943,940,940,938,938,935,933,930,928,928,925,925,925,923,923,920,920,918,918,915,915,913,910,908,903,901,901,898,896,896,894,891,889,887,885,885,0,0,0,0,0,0,0,0,0,0,0,0,0,0,0,0,0,0,0,0,0,0,0,0,0,0,0,0,0,0,0,0,0,0,0,0,0
0,0,0,0,1084,1084,1084,1084,1084,1080,1080,1080,1077,1077,1077,1077,1077,1073,1073,1073,1073,1073,1070,1070,1073,1070,1070,1067,1067,1067,1067,1063,1063,1067,1063,954,948,948,948,948,946,943,943,943,943,943,943,943,943,946,948,948,951,954,954,956,956,959,964,964,964,964,964,1063,1063,1063,1060,1060,1060,1060,1063,1063,1063,1063,1063,1063,1063,1063,1063,1063,1063,1063,1063,1063,1063,1063,1063,1063,1063,1067,1067,1067,1067,1067,1067,1063,1063,1060,1060,1060,1060,1063,1063,1063,1067,1063,1063,1063,1063,1063,1063,1063,1063,1063,1063,1063,1063,1063,1063,1063,1063,1063,1067,1067,1067,1067,1067,1067,1067,1067,1067,1067,1067,1067,1063,1063,1063,1063,1063,1063,1067,1067,1067,1067,1067,1067,1067,1063,1063,1063,1063,1063,1063,1063,0,0,0,0,0,0,708,707,707,707,706,706,704,701,700,698,696,694,693,693,691,691,691,691,691,693,694,697,698,700,700,701,704,706,707,708,710,711,713,714,714,716,0,0,0,0,0,1073,1070,1067,1067,1070,1070,1067,1067,1063,1063,1067,1067,1067,1063,1063,1063,1063,1060,1060,1060,1060,1060,1063,1063,1063,1063,1063,1063,1067,1067,1067,1067,1070,1070,1067,1067,1073,1073,860,860,860,860,860,862,862,864,864,864,864,864,864,864,867,867,867,869,873,873,875,878,880,885,887,889,891,891,894,896,898,1063,1063,1063,1063,1063,1067,1067,1067,1067,1067,1067,1070,1067,1067,1067,1070,1070,1070,1063,1063,1067,1067,1067,1067,1067,1067,1067,1067,1067,1067,1063,1063,1067,1063,1063,1063,1063,1067,1067,1067,1067,1067,1067,1067,1067,1067,1067,1067,1067,1067,1067,1063,1063,1067,1067,1070,1070,1070,1070,1070,1073,1070,1070,1070,1070,1070,1070,1070,1070,1070,1070,1070,1070,1070,1067,1067,1067,1070,1070,1070,1070,1073,1073,1073,1073,1073,1073,1073,1070,1070,1070,1070,1070,1070,1070,1070,1073,1070,1070,1067,1067,1067,1067,1067,1067,1067,1067,1067,1067,1070,1073,1073,1073,1073,1073,1073,1070,1070,1070,1070,1070,1070,1070,1070,1070,1070,1067,1067,1067,1067,1067,1063,1063,1067,1067,1067,1067,1067,1067,1067,1067,1067,1067,1067,1067,1067,1067,1063,1063,1063,1063,1063,1063,1063,1063,1063,1063,1063,1063,1063,1067,1067,1067,1067,1067,1067,1067,1067,1067,1067,1067,1067,1067,1067,1063,1063,1063,1063,1063,1063,1063,1063,1060,1060,1063,1063,1063,1063,1063,1063,1063,1060,1060,1060,1060,1060,1060,1060,1063,1063,1063,1063,1063,1063,1060,1060,1063,1060,1060,1060,1060,1063,1063,1063,1063,1063,1067,1063,1063,1063,1063,1063,1063,1063,1063,1063,1063,1063,984,984,984,987,989,989,989,989,992,1057,1057,1060,1060,1060,1060,1060,1063,1063,1063,1063,1063,1063,1063,1063,1060,1057,1057,1050,1050,915,915,913,913,913,913,913,913,915,915,918,918,920,920,920,920,920,920,923,923,923,923,923,925,925,928,948,948,948,956,954,954,951,948,948,948,946,943,943,943,940,940,938,938,935,933,930,930,928,928,925,925,923,923,920,918,918,918,918,915,913,910,908,908,903,901,898,898,896,891,891,889,889,887,885,885,0,0,0,0,0,0,0,0,0,0,0,0,0,0,0,0,0,0,0,0,0,0,0,0,0,0,0,0,0,0,0,0,0,0,0,0,0
0,0,0,0,1080,1080,1080,1080,1080,1077,1077,1077,1077,1077,1073,1073,1073,1073,1073,1073,1070,1070,1070,1070,1070,1070,1067,1067,1063,1063,1067,1063,1063,1067,1063,954,951,948,948,951,946,943,943,943,943,943,943,946,946,946,948,951,951,954,954,956,956,962,964,964,964,964,964,1060,1060,1060,1060,1060,1060,1060,1060,1060,1060,1060,1060,1060,1063,1063,1063,1063,1063,1063,1060,1060,1060,1060,1060,1060,1063,1063,1063,1063,1063,1063,1063,1063,1063,1060,1060,1060,1060,1060,1060,1063,1063,1060,1060,1063,1063,1063,1063,1063,1063,1063,1063,1063,1063,1063,1063,1063,1063,1063,1063,1063,1063,1063,1063,1067,1067,1067,1063,1063,1063,1063,1063,1063,1060,1060,1060,1060,1063,1063,1063,1063,1063,1063,1063,1063,1063,1060,1060,1063,1063,1063,0,0,0,0,0,0,708,707,707,707,707,706,704,701,701,700,697,697,694,693,693,691,691,691,693,693,694,697,698,701,701,703,704,706,707,708,710,711,713,714,716,716,0,0,0,0,0,0,1063,1063,1063,1063,1063,1063,1063,1060,1060,1063,1063,1063,1063,1063,1063,1060,1060,1060,1060,1060,1060,1060,1060,1060,1060,1060,1060,1063,1063,1067,1067,1070,1067,1067,1067,1067,858,858,858,860,858,858,860,860,860,862,862,862,862,862,864,864,867,867,869,873,875,875,878,880,882,887,889,891,894,894,896,898,1060,1060,1063,1063,1063,1063,1063,1063,1063,1063,1063,1063,1067,1067,1067,1067,1067,1063,1063,1063,1063,1063,1063,1063,1063,1063,1063,1063,1063,1063,1063,1063,1063,1063,1060,1060,1060,1067,1063,1063,1063,1063,1067,1067,1063,1063,1063,1063,1063,1063,1063,1063,1063,1063,1063,1063,1063,1067,1067,1067,1067,1067,1067,1067,1067,1067,1067,1067,1067,1067,1067,1067,1067,1063,1063,1063,1063,1067,1067,1067,1067,1067,1067,1067,1070,1070,1070,1070,1067,1067,1067,1067,1067,1067,1067,1067,1067,1067,1067,1067,1067,1067,1067,1067,1067,1067,1067,1067,1067,1067,1070,1067,1067,1070,1070,1070,1067,1067,1067,1067,1067,1067,1067,1067,1067,1067,1067,1067,1067,1063,1063,1063,1063,1063,1063,1063,1063,1063,1063,1063,1063,1063,1063,1063,1063,1063,1063,1063,1060,1060,1060,1060,1060,1060,1060,1063,1063,1063,1063,1063,1063,1063,1067,1067,1067,1067,1063,1063,1063,1063,1063,1063,1063,1063,1063,1063,1060,1060,1060,1060,1060,1060,1060,1060,1060,1060,1060,1060,1060,1060,1060,1060,1057,1057,1057,1057,1057,1057,1057,1060,1060,1060,1057,1057,1057,1057,1057,1057,1057,1057,1060,1060,1060,1060,1063,1063,1063,1060,1060,1060,1060,1060,1060,1060,1060,1060,1060,1063,984,984,984,984,989,989,989,989,992,1060,1060,1060,1060,1060,1060,1060,1060,1060,1060,1057,1057,1057,1060,1060,1060,1057,1057,1054,1054,1060,913,913,913,913,913,913,913,915,915,918,918,920,920,920,920,920,920,920,923,923,923,923,923,925,928,948,948,948,956,954,951,948,948,948,946,946,943,943,940,940,938,938,938,935,933,930,930,928,928,925,925,923,920,918,918,918,915,915,915,913,908,906,906,903,901,898,896,896,891,891,889,889,887,887,887,0,0,0,0,0,0,0,0,0,0,0,0,0,0,0,0,0,0,0,0,0,0,0,0,0,0,0,0,0,0,0,0,0,0,0,0,0
0,0,0,0,1080,1080,1080,1077,1077,1073,1073,1073,1073,1073,1073,1073,1070,1070,1070,1070,1067,1067,1067,1067,1067,1067,1063,1063,1063,1063,1063,1063,1063,1063,959,956,956,956,956,951,948,943,943,943,943,943,943,946,946,946,948,951,954,954,954,956,956,962,964,964,964,964,964,1057,1057,1057,1057,1057,1057,1057,1057,1057,1057,1057,1057,1057,1057,1057,1060,1057,1057,1057,1060,1057,1057,1060,1060,1060,1060,1060,1060,1060,1063,1063,1060,1060,1060,1060,1060,1057,1057,1057,1057,1060,1060,1060,1060,1060,1060,1060,1060,1060,1060,1060,1060,1060,1060,1060,1060,1060,1060,1060,1060,1060,1060,1060,1060,1063,1063,1063,1063,1063,1060,1060,1060,1060,1060,1057,1057,1060,1060,1060,1060,1060,1060,1060,1060,1060,1060,1060,1060,1060,1060,1060,0,0,0,0,0,0,708,708,708,707,707,706,706,703,703,700,698,697,696,694,693,693,693,693,693,693,694,697,700,701,703,704,706,707,708,710,711,711,714,714,716,716,0,0,0,0,0,1060,1060,1060,1060,1060,1060,1063,1060,1060,1060,1060,1060,1060,1060,1060,1060,1060,1060,1060,1060,1060,1060,1060,1060,1060,1060,1060,1060,1060,1063,1063,1067,1067,851,851,849,849,851,854,856,858,856,856,858,858,858,860,860,860,862,862,864,864,867,867,869,871,875,875,878,880,882,887,889,891,894,894,896,1060,1060,1060,1060,1060,1060,1060,1060,1060,1060,1060,1060,1060,1060,1060,1063,1063,1060,1060,1060,1060,1060,1060,1060,1063,1063,1063,1063,1063,1063,1063,1060,1060,1060,1060,1060,1060,1060,1063,1063,1063,1063,1063,1063,1063,1063,1060,1060,1060,1060,1060,1060,1060,1060,1060,1063,1060,1060,1060,1060,1060,1063,1063,1063,1063,1063,1063,1063,1063,1063,1063,1063,1063,1063,1060,1060,1063,1063,1063,1063,1063,1063,1063,1063,1063,1063,1063,1063,1060,1060,1060,1060,1063,1063,1063,1063,1063,1063,1063,1063,1063,1063,1063,1063,1063,1063,1063,1063,1063,1063,1063,1063,1063,1067,1067,1067,1067,1067,1063,1063,1067,1063,1063,1067,1067,1067,1067,1063,1063,1063,1063,1063,1060,1060,1060,1060,1060,1060,1060,1060,1060,1060,1060,1060,1060,1060,1060,1063,1060,1057,1057,1057,1060,1060,1060,1060,1060,1060,1060,1060,1060,1060,1060,1060,1067,1063,1063,1063,1063,1063,1063,1063,1063,1060,1060,1060,1060,1060,1060,1060,1060,1060,1060,1057,1057,1057,1060,1060,1057,1057,1060,1057,1057,1057,1054,1054,1054,1054,1054,1054,1057,1057,1057,1054,1054,1057,1057,1057,1054,1054,1057,1057,1057,1057,1057,1057,1057,1057,1057,1057,1057,1057,1057,1057,1057,1057,1057,1057,1060,984,984,984,984,989,989,989,989,1063,1060,1060,1060,1060,1057,1057,1057,1057,1057,1057,1054,1054,1054,1054,1057,1057,1057,1057,1057,1057,1060,1060,913,913,913,913,913,913,913,915,918,918,918,918,918,920,920,920,920,923,923,923,923,923,925,925,948,948,956,956,954,951,948,946,946,946,943,940,940,940,938,938,935,935,933,930,930,928,928,928,925,925,923,920,918,918,915,915,915,910,910,908,906,903,903,901,898,896,894,891,889,887,887,885,885,885,0,0,0,0,0,0,0,0,0,0,0,0,0,0,0,0,0,0,0,0,0,0,0,0,0,0,0,0,0,0,0,0,0,0,0,0,0
0,0,0,0,1080,1080,1077,1077,1077,1073,1073,1073,1073,1070,1070,1070,1067,1067,1067,1067,1067,1067,1067,1067,1067,1063,1063,1063,1060,1060,1060,1060,1060,1060,959,956,956,956,959,959,954,946,946,946,943,943,946,946,946,946,948,951,954,954,954,956,959,964,964,964,964,964,964,1060,1057,1057,1057,1057,1054,1054,1054,1054,1057,1057,1054,1054,1057,1057,1057,1057,1054,1054,1057,1057,1057,1057,1057,1057,1057,1057,1057,1057,1057,1057,1057,1057,1057,1057,1057,1057,1054,1054,1057,1057,1057,1057,1057,1060,1060,1060,1060,1060,1060,1057,1057,1057,1057,1057,1057,1057,1057,1060,1060,1060,1060,1060,1060,1060,1060,1060,1060,1060,1060,1060,1060,1060,1057,1057,1057,1057,1057,1057,1057,1060,1060,1060,1060,1060,1060,1057,1057,1057,1060,1060,0,0,0,0,0,0,710,708,708,708,708,707,706,703,703,701,700,698,697,696,694,693,693,693,693,693,694,697,701,701,703,704,706,707,708,710,711,711,714,714,716,716,0,0,0,0,0,1060,1060,1057,1057,1057,1057,1060,1060,1060,1060,1060,1060,1060,1060,1057,1057,1060,1060,1060,1060,1057,1057,1060,1057,1057,1060,1057,1057,1060,1060,1063,1063,849,849,851,849,849,851,851,854,854,854,854,854,856,856,856,856,858,860,860,862,864,867,867,869,871,875,875,878,880,885,887,891,891,894,894,894,1060,1060,1060,1060,1060,1057,1057,1057,1057,1057,1057,1057,1057,1057,1057,1057,1057,1057,1057,1057,1057,1057,1057,1057,1060,1060,1060,1060,1060,1060,1057,1057,1057,1057,1057,1054,1054,1054,1057,1060,1060,1060,1060,1060,1060,1060,1057,1057,1057,1057,1060,1060,1057,1057,1060,1060,1057,1057,1057,1057,1057,1057,1057,1057,1063,1063,1063,1063,1060,1060,1060,1060,1060,1060,1057,1057,1060,1060,1060,1060,1060,1063,1063,1060,1060,1060,1057,1057,1057,1057,1057,1057,1060,1060,1060,1060,1060,1060,1060,1060,1060,1063,1063,1063,1063,1063,1060,1060,1060,1060,1060,1063,1063,1063,1063,1063,1063,1063,1063,1063,1063,1063,1063,1063,1063,1063,1063,1063,1063,1063,1060,1060,1057,1057,1057,1057,1057,1057,1057,1057,1057,1057,1060,1060,1060,1060,1060,1060,1057,1057,1054,1054,1057,1057,1057,1057,1057,1057,1060,1057,1057,1060,1060,1060,1063,1063,1063,1060,1057,1057,1054,1054,1054,1057,1057,1057,1057,1060,1060,1057,1057,1057,1057,1057,1054,1054,1057,1057,1057,1057,1057,1057,1057,1054,1054,1054,1054,1054,1054,1054,1054,1054,1054,1054,1054,1054,1054,1054,1054,1054,1054,1054,1054,1054,1054,1054,1054,1054,1054,1054,1054,1054,1054,1054,1054,1054,1054,1054,1057,1057,984,984,984,989,989,989,989,1060,1057,1057,1060,1057,1054,1054,1054,1054,1054,1054,1054,1054,1054,1054,1054,1054,1054,1054,1057,1054,1054,915,915,915,915,915,915,913,913,915,918,918,918,918,918,918,920,920,920,923,923,923,923,923,925,925,956,956,956,956,954,951,948,946,946,946,943,940,940,938,938,935,935,933,930,930,928,925,925,925,923,923,920,918,918,915,915,915,915,910,908,906,906,903,903,901,898,896,894,891,889,887,887,885,885,885,0,0,0,0,0,0,0,0,0,0,0,0,0,0,0,0,0,0,0,0,0,0,0,0,0,0,0,0,0,0,0,0,0,0,0,0,0
0,0,0,0,1077,1077,1077,1077,1073,1070,1070,1070,1070,1070,1067,1067,1063,1063,1063,1063,1063,1063,1063,1063,1063,1063,1063,1063,1060,1060,1060,1060,1060,1060,962,959,959,959,959,959,954,948,946,946,946,946,946,946,946,946,948,951,954,954,954,956,962,964,964,964,964,964,1060,1060,1057,1057,1054,1054,1050,1050,1050,1050,1054,1054,1054,1054,1054,1054,1057,1057,1054,1054,1054,1054,1057,1054,1050,1050,1054,1054,1050,1050,1054,1054,1054,1054,1057,1057,1054,1054,1054,1054,1054,1054,1054,1054,1057,1057,1057,1057,1057,1057,1057,1057,1057,1054,1054,1057,1057,1057,1057,1057,1057,1057,1054,1054,1057,1054,1054,1057,1057,1057,1057,1057,1057,1057,1057,1054,1054,1054,1054,1054,1054,1057,1057,1057,1057,1057,1057,1057,1054,1054,1057,1060,0,0,0,0,0,0,0,710,708,708,708,707,707,704,703,701,700,698,697,696,694,694,693,693,694,694,694,698,700,701,703,704,706,707,708,710,711,713,714,714,716,716,0,0,0,0,0,1060,1057,1054,1054,1054,1054,1057,1057,1057,1057,1057,1057,1057,1054,1054,1054,1057,1057,1057,1057,1057,1057,1057,1057,1057,1057,1057,1057,1057,1060,1060,1060,849,849,849,849,849,849,851,851,851,851,851,854,854,854,854,854,856,858,860,862,864,867,867,869,871,875,875,878,882,885,887,889,894,894,894,894,1057,1057,1057,1057,1057,1057,1057,1057,1057,1054,1054,1054,1054,1054,1054,1054,1054,1050,1050,1050,1054,1054,1054,1054,1057,1057,1057,1057,1057,1057,1054,1054,1054,1054,1054,1054,1054,1054,1057,1057,1057,1057,1057,1057,1057,1054,1054,1054,1054,1054,1054,1054,1054,1054,1057,1057,1054,1054,1054,1054,1054,1054,1054,1054,1057,1057,1057,1060,1057,1057,1057,1057,1057,1057,1057,1057,1057,1057,1057,1057,1060,1057,1057,1057,1057,1054,1054,1054,1054,1054,1057,1057,1057,1057,1057,1057,1057,1057,1057,1060,1060,1060,1060,1060,1060,1060,1060,1060,1060,1057,1057,1057,1060,1057,1057,1057,1057,1060,1060,1057,1057,1057,1057,1060,1060,1060,1060,1060,1057,1057,1057,1057,1057,1054,1054,1057,1057,1054,1054,1054,1057,1057,1057,1057,1057,1057,1057,1057,1057,1054,1054,1054,1054,1054,1054,1057,1057,1057,1057,1057,1057,1057,1057,1057,1060,1060,1057,1054,1054,1054,1054,1054,1054,1054,1054,1054,1057,1057,1057,1054,1054,1054,1054,1054,1054,1054,1054,1054,1054,1054,1054,1054,1054,1054,1050,1050,1050,1050,1050,1050,1050,1050,1050,1050,1050,1050,1050,1050,1050,1050,1050,1054,1054,1054,1054,1054,1054,1050,1050,1054,1054,1050,1050,1050,1050,1050,1054,1054,1054,1054,984,984,987,989,989,989,989,1057,1054,1054,1054,1054,1054,1054,1050,1050,1050,1054,1054,1054,928,925,925,1054,1054,1054,1054,1054,925,925,915,915,915,915,915,915,915,915,918,918,915,915,918,918,918,918,920,920,920,920,923,923,923,925,956,956,956,956,954,951,948,948,946,943,943,940,940,938,938,933,933,930,930,928,928,925,923,923,920,918,918,918,915,915,913,913,910,910,908,906,906,903,901,898,896,896,891,891,891,887,887,885,885,885,0,0,0,0,0,0,0,0,0,0,0,0,0,0,0,0,0,0,0,0,0,0,0,0,0,0,0,0,0,0,0,0,0,0,0,0,0
0,0,0,0,1077,1077,1077,1073,1073,1070,1070,1070,1070,1067,1063,1063,1063,1060,1060,1060,1060,1060,1060,1060,1060,1060,1060,1060,1060,1060,1057,1057,1057,1054,964,962,962,964,962,962,954,951,948,946,946,946,946,946,946,946,948,951,954,954,956,956,964,964,967,964,962,962,1060,1060,1057,1054,1054,1050,1050,1050,1050,1050,1050,1050,1050,1050,1050,1050,1054,1050,1050,1050,1050,1050,1050,1050,1050,1050,1050,1050,1047,1047,1050,1050,1050,1050,1050,1054,1054,1050,1050,1050,1050,1050,1050,1054,1054,1054,1057,1057,1054,1054,1054,1054,1054,1054,1054,1054,1054,1054,1054,1054,1054,1054,1054,1054,1054,1050,1050,1054,1050,1050,1054,1054,1054,1054,1054,1050,1050,1050,1050,1050,1054,1054,1054,1054,1057,1054,1054,1054,1050,1050,1057,1057,0,0,0,0,0,0,0,710,710,708,708,707,706,704,703,701,700,700,698,697,696,696,696,694,694,694,697,698,700,701,703,706,706,708,710,711,711,713,714,716,716,716,0,0,0,0,0,1054,1054,1050,1050,1050,1050,1054,1054,1054,1054,1054,1054,1054,1054,1054,1054,1054,1054,1054,1054,1054,1054,1057,1057,1057,1057,1057,1057,1057,1057,1060,851,849,849,849,847,847,849,851,851,851,851,851,851,851,851,851,851,854,856,858,860,864,867,869,869,871,875,875,878,882,885,885,887,894,896,896,1054,1054,1057,1057,1057,1057,1057,1054,1054,1054,1054,1054,1054,1054,1054,1054,1054,1054,1050,1050,1050,1050,1050,1054,1054,1054,1054,1054,1054,1050,1050,1050,1050,1050,1050,1054,1050,1050,1054,1054,1054,1054,1054,1054,1054,1054,1054,1054,1050,1050,1050,1050,1050,1050,1050,1054,1054,1054,1054,1054,1054,1054,1054,1054,1054,1054,1054,1054,1054,1054,1057,1057,1054,1054,1054,1054,1054,1054,1054,1054,1054,1057,1057,1054,1054,1054,1054,1054,1054,1054,1054,1054,1054,1054,1054,1054,1054,1054,1054,1054,1054,1057,1057,1057,1057,1057,1057,1057,1057,1054,1054,1054,1054,1054,1054,1054,1054,1054,1054,1054,1054,1054,1054,1054,1054,1054,1057,1057,1054,1054,1054,1054,1054,1054,1054,1054,1054,1054,1054,1054,1054,1054,1054,1057,1057,1057,1057,1057,1054,1054,1054,1050,1050,1054,1054,1054,1054,1054,1054,1054,1054,1054,1057,1054,1054,1054,1057,1054,1054,1054,1050,1050,1050,1050,1050,1050,1054,1054,1054,1054,1054,1054,1054,1054,1054,1050,1050,1050,1050,1050,1054,1054,1054,1050,1050,1050,1050,1047,1047,1050,1050,1050,1047,1047,1047,1047,1047,1047,1047,1050,1050,1050,1050,1050,1050,1050,1050,1050,1050,1050,1054,1050,1050,1050,1050,1050,1050,1050,1050,1050,989,984,984,987,989,989,989,989,992,1054,1054,1054,1054,1054,1050,1047,1047,1050,1050,1050,1050,925,925,925,925,1054,1050,1050,928,925,925,918,918,918,918,918,918,918,918,918,915,915,915,915,918,918,918,918,918,918,918,918,920,920,959,959,959,959,959,954,948,948,946,946,943,943,940,940,938,935,930,930,930,928,928,928,925,923,920,920,918,915,915,915,913,913,910,908,908,906,906,903,901,898,898,896,894,891,891,889,887,887,885,885,885,0,0,0,0,0,0,0,0,0,0,0,0,0,0,0,0,0,0,0,0,0,0,0,0,0,0,0,0,0,0,0,0,0,0,0,0,0
0,0,0,0,1073,1073,1073,1070,1070,1067,1067,1067,1067,1067,1063,1060,1060,1057,1057,1057,1057,1057,1057,1057,1057,1057,1060,1060,1057,1057,1057,1054,1054,1050,964,964,964,964,964,964,956,954,948,946,946,946,946,946,946,946,948,951,956,956,959,962,964,964,967,964,962,959,959,1057,1057,1054,1050,1050,1050,1050,1050,1050,1050,1047,1047,1047,1047,1047,1047,1047,1047,1047,1047,1050,1050,1047,1047,1047,1047,1047,1047,1047,1047,1047,1047,1050,1050,1050,1050,1050,1050,1050,1050,1050,1050,1050,1050,1050,1050,1050,1050,1050,1050,1050,1050,1050,1050,1054,1054,1054,1054,1054,1054,1050,1050,1050,1050,1047,1047,1047,1047,1047,1050,1050,1050,1050,1047,1047,1050,1047,1047,1047,1050,1050,1050,1054,1054,1050,1050,1050,1047,1047,1050,1050,1050,0,0,0,0,0,0,710,710,708,708,707,706,704,703,701,700,700,698,697,697,696,696,696,696,696,697,698,700,701,703,706,706,708,710,711,713,713,714,716,716,717,0,0,0,0,0,1054,1054,1050,1050,1050,1050,1050,1050,1050,1050,1050,1050,1050,1050,1050,1050,1050,1050,1054,1054,1050,1050,1054,1054,1054,1054,1054,1054,1054,1057,1060,849,845,845,845,845,845,847,849,849,849,849,849,849,849,851,851,851,854,856,858,860,864,867,869,871,873,875,875,878,880,882,882,887,1050,1050,1050,1050,1050,1054,1054,1054,1054,1054,1050,1050,1050,1050,1050,1050,1050,1050,1050,1050,1050,1050,1050,1050,1050,1050,1050,1050,1050,1050,1050,1050,1050,1050,1050,1050,1050,1050,1050,1050,1050,1054,1054,1054,1054,1054,1054,1050,1050,1050,1050,1050,1050,1050,1050,1050,1050,1050,1050,1050,1050,1050,1050,1050,1050,1050,1050,1050,1050,1050,1050,1050,1050,1054,1054,1054,1054,1054,1054,1054,1054,1054,1054,1054,1054,1054,1054,1054,1054,1050,1050,1050,1050,1050,1054,1054,1054,1054,1054,1054,1054,1054,1054,1054,1054,1054,1054,1054,1054,1054,1054,1054,1054,1054,1054,1054,1054,1054,1050,1050,1050,1050,1050,1050,1050,1050,1050,1050,1050,1050,1054,1054,1054,1054,1050,1050,1050,1050,1050,1054,1054,1054,1054,1054,1054,1054,1054,1054,1054,1054,1054,1050,1050,1050,1050,1050,1050,1050,1050,1050,1050,1050,1050,1054,1054,1054,1054,1054,1054,1054,1050,1050,1050,1050,1050,1050,1050,1050,1050,1050,1047,1047,1047,1050,1054,1050,1050,1050,1050,1050,1050,1050,1050,1050,1050,1050,1050,1050,1050,1047,1047,1047,1047,1047,1047,1044,1044,1044,1047,1047,1044,1044,1047,1047,1047,1047,1047,1047,1047,1050,1047,1047,1050,1050,1050,1050,1047,1047,1050,1050,1050,1050,1050,989,987,987,989,989,989,989,992,992,1054,1050,1050,1050,1047,1047,1047,1047,1050,1050,1050,925,925,925,925,925,925,1050,1050,928,925,925,918,918,918,918,920,918,918,918,918,915,915,915,915,915,915,918,918,918,918,918,918,918,918,918,0,962,962,959,956,948,948,946,946,943,943,940,940,938,935,930,930,928,928,925,925,923,923,920,918,918,915,915,915,913,910,908,908,908,906,903,901,898,898,896,896,894,891,889,889,887,887,885,885,885,0,0,0,0,0,0,0,0,0,0,0,0,0,0,0,0,0,0,0,0,0,0,0,0,0,0,0,0,0,0,0,0,0,0,0,0,0
0,0,0,0,1073,1070,1070,1067,1067,1063,1063,1063,1063,1060,1060,1060,1057,1057,1057,1057,1057,1057,1057,1054,1054,1047,1047,1054,1054,1050,1050,1050,1050,1047,1047,970,967,967,964,964,959,954,951,948,948,948,948,948,948,948,948,954,956,956,959,964,964,967,967,964,962,959,959,1054,1054,1050,1047,1047,1047,1047,1047,1047,1047,1044,1044,1044,1044,1044,1047,1044,1044,1047,1047,1047,1044,1044,1044,1044,1044,1047,1044,1044,1044,1044,1044,1047,1047,1047,1050,1050,1047,1047,1047,1047,1047,1047,1047,1047,1047,1047,1047,1047,1047,1047,1050,1047,1047,1050,1050,1050,1050,1050,1050,1050,1047,1047,1047,1047,1047,1047,1047,1047,1050,1050,1047,1047,1047,1047,1047,1047,1047,1047,1047,1050,1047,1047,1047,1047,1050,1047,1047,1047,1047,1047,1047,0,0,0,0,0,0,710,710,708,708,708,707,706,703,701,701,700,698,698,697,697,696,696,697,697,697,698,700,701,703,706,706,708,710,713,713,714,716,716,717,0,0,0,0,0,0,1054,1050,1050,1050,1050,1050,1050,1047,1047,1047,1047,1047,1047,1047,1047,1047,1047,1047,1050,1050,1050,1050,1050,1050,1050,1050,1050,1050,1054,1057,847,847,845,845,845,845,845,845,847,847,847,847,849,849,849,849,851,851,854,856,858,862,864,867,869,871,873,875,875,875,878,880,882,1047,1047,1047,1047,1047,1050,1050,1050,1050,1050,1050,1050,1050,1050,1047,1047,1050,1047,1047,1047,1047,1047,1047,1047,1047,1047,1047,1047,1047,1047,1047,1047,1047,1047,1047,1047,1047,1047,1050,1047,1047,1050,1050,1050,1050,1050,1050,1050,1050,1050,1050,1050,1050,1047,1047,1047,1047,1047,1047,1047,1047,1047,1047,1050,1050,1050,1050,1050,1050,1050,1050,1050,1050,1050,1050,1050,1047,1047,1047,1050,1050,1050,1050,1050,1050,1054,1050,1050,1050,1050,1050,1050,1050,1050,1050,1050,1050,1054,1054,1054,1054,1054,1054,1050,1050,1054,1054,1054,1054,1054,1054,1054,1054,1050,1050,1050,1050,1050,1050,1050,1050,1047,1047,1047,1047,1047,1047,1047,1050,1050,1050,1050,1050,1050,1050,1050,1050,1050,1050,1050,1050,1050,1050,1050,1050,1050,1050,1050,1050,1050,1050,1050,1050,1050,1050,1050,1050,1050,1047,1047,1047,1050,1050,1050,1050,1050,1050,1050,1050,1047,1047,1047,1047,1047,1050,1050,1047,1047,1047,1047,1044,1044,1044,1044,1047,1047,1047,1047,1047,1047,1047,1047,1047,1047,1047,1047,1047,1047,1047,1047,1047,1044,1044,1044,1044,1044,1044,1041,1041,1044,1044,1041,1041,1044,1044,1044,1044,1047,1047,1047,1047,1047,1047,1047,1044,1044,1044,1044,1044,1044,1044,1044,1047,992,989,989,989,989,992,992,992,989,989,989,1050,1050,1047,1047,1047,1044,1044,1047,1050,1050,925,925,925,925,925,925,928,925,925,925,925,918,918,920,920,920,920,918,918,918,918,915,915,915,913,913,913,913,915,918,915,915,913,913,0,0,0,970,962,956,954,948,946,946,943,943,940,940,938,935,930,930,928,928,925,925,923,923,920,918,918,915,915,915,910,910,908,908,908,906,903,901,898,898,896,896,894,891,889,889,887,885,885,885,885,0,0,0,0,0,0,0,0,0,0,0,0,0,0,0,0,0,0,0,0,0,0,0,0,0,0,0,0,0,0,0,0,0,0,0,0,0
0,0,0,0,1070,1063,1063,1063,1063,1060,1060,1060,1060,1060,1060,1060,1057,1057,1054,1054,1054,1054,1054,1050,1047,1047,1047,1050,1050,1047,1047,1047,1047,1047,1047,970,970,967,967,964,959,956,954,951,948,948,951,948,948,948,951,954,956,956,962,964,964,967,967,964,964,964,1054,1054,1054,1050,1044,1041,1041,1038,1038,1038,1044,1041,1041,1041,1041,1041,1044,1044,1044,1044,1044,1044,1044,1044,1041,1041,1041,1044,1044,1044,1044,1044,1044,1044,1044,1044,1047,1047,1047,1047,1047,1044,1044,1044,1041,1041,1044,1044,1044,1044,1044,1044,1047,1044,1044,1047,1047,1050,1050,1047,1047,1047,1047,1047,1047,1047,1047,1047,1044,1044,1047,1047,1047,1044,1044,1044,1044,1044,1044,1044,1044,1047,1047,1047,1044,1044,1044,1041,1041,1041,1041,1041,1038,1038,0,0,0,0,0,0,711,710,710,708,707,706,704,703,701,701,700,698,697,697,697,697,697,697,698,700,701,703,704,706,706,708,710,711,713,714,716,716,717,720,720,0,0,0,0,1054,1047,1044,1044,1047,1044,1044,1044,1044,1044,1044,1044,1044,1044,1044,1044,1044,1047,1047,1047,1047,1047,1050,1050,1050,1050,1050,1050,1054,845,845,845,843,843,843,843,843,843,845,845,845,845,847,847,847,849,849,851,854,856,860,862,864,869,869,871,871,875,875,875,875,878,1047,1047,1044,1044,1044,1044,1044,1044,1047,1047,1047,1047,1047,1047,1047,1047,1047,1047,1047,1047,1044,1044,1044,1044,1044,1044,1047,1047,1044,1044,1044,1047,1047,1044,1044,1044,1044,1047,1047,1047,1047,1047,1047,1050,1050,1050,1050,1050,1050,1047,1047,1047,1047,1047,1044,1044,1044,1044,1044,1044,1044,1044,1044,1044,1047,1047,1047,1047,1047,1047,1050,1047,1047,1047,1047,1047,1047,1044,1044,1044,1044,1044,1044,1047,1047,1047,1050,1050,1050,1050,1050,1050,1050,1050,1050,1050,1050,1050,1050,1050,1050,1050,1050,1050,1050,1050,1050,1050,1050,1050,1050,1050,1050,1047,1047,1050,1047,1047,1050,1047,1047,1047,1044,1044,1044,1044,1044,1044,1044,1047,1047,1047,1047,1047,1047,1047,1044,1044,1047,1047,1047,1047,1047,1047,1050,1050,1050,1047,1047,1047,1047,1047,1047,1047,1047,1047,1047,1047,1047,1047,1047,1047,1047,1047,1047,1047,1047,1047,1044,1044,1041,1041,1044,1044,1044,1047,1047,1047,1047,1047,1044,1044,1041,1041,1041,1041,1044,1041,1041,1044,1044,1044,1044,1044,1044,1044,1044,1044,1044,1044,1044,1044,1041,1041,1041,1041,1041,1041,1041,1041,1041,1041,1041,1041,1041,1041,1044,1044,1044,1044,1044,1044,1044,1041,1041,1041,1041,1041,1041,1041,1041,1044,1044,1044,992,992,989,989,989,992,992,992,989,989,989,1047,1047,1044,1044,1044,1044,1044,1047,1047,1050,925,925,925,925,925,925,928,925,925,925,925,923,923,920,920,920,920,918,918,920,918,915,915,913,913,913,913,913,915,915,913,913,913,913,0,0,0,0,962,959,954,948,948,946,946,946,946,940,938,935,930,930,928,928,925,925,923,923,920,918,918,915,915,913,910,910,908,908,908,906,903,901,898,898,896,896,894,891,889,889,887,885,885,882,882,0,0,0,0,0,0,0,0,0,0,0,0,0,0,0,0,0,0,0,0,0,0,0,0,0,0,0,0,0,0,0,0,0,0,0,0,0
0,0,0,0,1063,1060,1060,1060,1063,1060,1060,1060,1060,1060,1060,1057,1057,1054,1054,1054,1054,1054,1054,1050,1047,1047,1047,1047,1047,1044,1044,1044,1044,1044,1044,970,970,967,967,964,959,956,956,954,951,951,951,951,951,951,951,954,956,956,962,964,964,964,964,964,964,964,1054,1054,1054,1047,1041,1041,1038,1038,1038,1038,1038,1038,1038,1038,1038,1038,1038,1041,1041,1041,1041,1041,1041,1041,1041,1041,1041,1041,1041,1041,1041,1041,1041,1041,1041,1041,1041,1044,1044,1044,1044,1044,1041,1041,1041,1041,1041,1041,1041,1041,1041,1041,1044,1041,1041,1044,1044,1047,1044,1044,1044,1044,1044,1044,1041,1041,1044,1044,1044,1044,1044,1044,1044,1041,1041,1041,1041,1041,1041,1041,1041,1044,1041,1041,1041,1041,1041,1041,1038,1038,1038,1034,1028,1028,0,0,0,0,0,0,713,711,711,710,708,707,704,703,703,701,700,700,698,697,697,697,697,698,698,700,701,703,704,706,707,708,710,711,713,714,716,717,719,720,720,0,0,0,0,0,1041,1041,1041,1041,1041,1041,1041,1041,1038,1038,1041,1041,1041,1041,1041,1041,1044,1041,1041,1044,1044,1044,1041,1041,1047,1047,1050,843,843,843,843,843,843,843,843,843,843,843,843,843,845,845,845,845,847,849,849,851,856,860,862,864,869,871,871,871,875,875,875,875,878,1041,1041,1041,1041,1041,1041,1041,1041,1041,1041,1044,1044,1047,1047,1047,1047,1047,1044,1044,1044,1044,1041,1041,1041,1041,1041,1044,1044,1041,1041,1041,1044,1044,1044,1044,1041,1041,1047,1047,1047,1047,1047,1047,1050,1047,1047,1047,1047,1047,1047,1047,1047,1047,1044,1044,1044,1044,1041,1041,1041,1041,1041,1041,1044,1044,1044,1044,1044,1044,1044,1047,1047,1047,1047,1047,1044,1044,1041,1041,1041,1041,1041,1041,1041,1041,1047,1047,1050,1050,1050,1050,1050,1050,1050,1047,1047,1047,1050,1050,1050,1050,1050,1050,1050,1047,1047,1047,1047,1047,1047,1047,1047,1047,1047,1047,1047,1044,1044,1047,1044,1044,1044,1041,1041,1041,1041,1041,1041,1041,1044,1044,1044,1044,1044,1044,1044,1041,1041,1041,1041,1041,1044,1047,1047,1047,1047,1050,1044,1044,1044,1044,1044,1044,1044,1041,1041,1041,1044,1044,1044,1044,1044,1044,1044,1044,1044,1044,1041,1041,1041,1041,1041,1041,1041,1041,1044,1044,1044,1044,1044,1044,1041,1041,1041,1041,1041,1041,1038,1038,1041,1041,1041,1041,1041,1041,1041,1041,1041,1041,1041,1041,1041,1041,1041,1041,1041,1041,1038,1038,1038,1041,1041,1041,1041,1041,1041,1041,1041,1041,1041,1041,1041,1041,1041,1041,1041,1041,1041,1041,1041,1041,1041,1034,1034,992,992,989,989,989,992,992,992,989,989,989,1047,1044,1044,1044,1044,1044,1044,1044,1044,1047,928,928,928,928,928,928,928,928,928,925,925,923,923,923,923,923,923,923,920,920,918,915,910,910,908,908,908,913,913,913,913,913,913,0,0,0,0,0,0,970,967,948,948,946,946,946,948,943,940,938,930,930,928,928,925,925,925,923,920,918,918,915,915,913,910,910,908,908,908,906,903,901,898,896,896,896,894,891,889,889,887,885,882,882,882,0,0,0,0,0,0,0,0,0,0,0,0,0,0,0,0,0,0,0,0,0,0,0,0,0,0,0,0,0,0,0,0,0,0,0,0,0
0,0,0,1060,1060,1057,1057,1057,1060,1060,1057,1057,1054,1054,1057,1054,1054,1050,1050,1050,1050,1050,1047,1047,1047,1044,1044,1044,1044,1041,1041,1044,1044,1044,1041,970,970,967,967,967,964,956,956,954,954,951,951,951,951,951,954,954,956,956,962,964,964,964,964,970,970,970,970,1054,1054,1044,1038,1038,1038,1034,1034,1034,1034,1034,1034,1034,1031,1031,1034,1038,1038,1038,1038,1041,1041,1041,1041,1038,1038,1041,1038,1038,1038,1038,1038,1038,1038,1038,1038,1041,1041,1041,1041,1041,1038,1038,1038,1038,1038,1038,1038,1038,1038,1038,1038,1038,1038,1038,1041,1044,1041,1041,1041,1041,1041,1041,1038,1038,1041,1041,1041,1041,1041,1041,1041,1038,1038,1041,1041,1041,1038,1038,1038,1041,1038,1038,1038,1038,1038,1038,1038,1038,1034,1034,1028,1028,0,0,0,0,0,714,714,713,713,713,710,708,707,706,704,703,700,700,698,698,697,697,698,698,698,700,701,703,704,706,707,708,710,711,714,716,717,719,720,720,722,723,0,0,0,0,1041,1038,1038,1041,1038,1038,1038,1038,1038,1038,1038,1038,1038,1038,1038,1038,1038,1038,1038,1041,1041,1038,1038,1038,1038,1041,1041,841,841,841,841,841,841,841,841,841,841,841,841,843,843,843,845,845,847,849,849,851,856,858,862,867,869,871,871,873,875,875,875,878,1041,1038,1038,1038,1038,1038,1038,1038,1038,1038,1038,1038,1041,1041,1041,1041,1044,1041,1041,1041,1041,1041,1038,1038,1038,1038,1038,1038,1041,1041,1041,1041,1041,1041,1041,1041,1038,1038,1044,1044,1044,1044,1044,1044,1047,1047,1044,1044,1044,1044,1044,1044,1044,1044,1044,1041,1041,1041,1041,1041,1041,1041,1041,1041,1041,1041,1041,1041,1041,1041,1041,1044,1041,1041,1041,1044,1044,1041,1041,1041,1038,1038,1038,1038,1038,1041,1041,1041,1044,1044,1047,1047,1047,1047,1047,1047,1044,1044,1044,1047,1047,1044,1044,1047,1047,1044,1044,1044,1044,1044,1044,1044,1044,1044,1044,1044,1044,1044,1044,1044,1044,1041,1041,1041,1041,1041,1041,1041,1041,1041,1041,1041,1041,1041,1041,1041,1041,1041,1041,1041,1041,1041,1041,1041,1044,1044,1044,1044,1044,1044,1041,1041,1041,1041,1041,1038,1038,1041,1041,1041,1041,1041,1041,1041,1041,1041,1041,1038,1038,1038,1038,1038,1038,1041,1041,1041,1044,1044,1044,1044,1044,1044,1041,1041,1041,1038,1038,1038,1038,1038,1038,1038,1038,1038,1038,1038,1038,1038,1038,1038,1041,1041,1041,1041,1041,1038,1038,1038,1038,1038,1038,1038,1038,1038,1038,1041,1041,1041,1038,1038,1038,1041,1041,1041,1038,1038,1041,1038,1038,1038,1038,1038,1038,1031,1031,992,992,989,989,989,992,992,992,989,989,989,1044,1041,1041,1041,1041,1041,1044,1041,1041,1047,930,930,928,928,930,930,930,930,928,928,928,925,925,923,923,923,923,923,920,918,915,915,910,908,903,903,908,913,913,913,913,913,0,0,0,0,0,0,0,0,970,967,951,948,948,948,948,948,940,940,930,930,930,928,928,925,925,923,923,918,918,915,915,913,910,910,908,906,906,903,901,898,898,896,896,896,894,889,889,887,887,885,882,882,882,0,0,0,0,0,0,0,0,0,0,0,0,0,0,0,0,0,0,0,0,0,0,0,0,0,0,0,0,0,0,0,0,0,0,0,0,0
0,0,0,1060,1060,1057,1054,1054,1057,1057,1054,1054,1054,1054,1054,1054,1050,1047,1047,1047,1047,1047,1047,1044,1044,1041,1041,1041,1041,1038,1038,1041,1041,1041,1041,970,970,970,970,967,964,959,956,956,954,954,954,951,951,951,954,954,956,959,959,962,964,964,964,970,970,970,967,967,1044,1044,1038,1038,1034,1034,1034,1034,1034,1034,1031,1031,1031,1031,1031,1034,1034,1034,1034,1038,1038,1038,1038,1038,1038,1038,1038,1034,1034,1038,1034,1034,1038,1038,1038,1038,1038,1038,1038,1038,1038,1038,1038,1038,1038,1034,1034,1034,1034,1034,1034,1034,1034,1038,1038,1038,1038,1038,1038,1038,1038,1038,1038,1038,1038,1038,1038,1038,1038,1038,1038,1038,1038,1038,1038,1038,1034,1034,1034,1034,1034,1034,1034,1034,1038,1038,1034,1034,1034,1034,1028,1028,0,0,0,0,0,714,714,714,714,713,711,710,707,706,704,703,701,700,698,698,698,698,698,698,698,700,701,703,704,706,707,708,710,713,714,717,719,720,722,722,723,723,0,0,0,0,1038,1038,1038,1038,1038,1038,1038,1034,1034,1034,1034,1034,1034,1034,1034,1034,1034,1034,1034,1034,1038,1038,1038,1038,1038,1041,839,839,839,839,839,839,839,839,839,839,839,839,839,841,841,843,843,845,847,849,849,851,856,858,862,867,869,871,871,873,875,875,878,1038,1038,1038,1038,1038,1038,1038,1034,1034,1034,1034,1038,1038,1038,1038,1038,1038,1038,1038,1038,1038,1038,1038,1038,1038,1038,1038,1038,1038,1038,1038,1038,1038,1038,1041,1041,1041,1038,1038,1038,1038,1038,1038,1038,1038,1044,1041,1041,1041,1044,1044,1044,1044,1044,1044,1041,1041,1041,1041,1041,1041,1041,1041,1041,1041,1041,1041,1041,1038,1038,1041,1041,1041,1041,1041,1041,1041,1041,1041,1038,1038,1038,1038,1038,1034,1034,1038,1038,1038,1038,1038,1041,1041,1044,1044,1044,1044,1041,1041,1041,1041,1041,1041,1041,1041,1041,1041,1041,1041,1041,1041,1041,1041,1041,1041,1041,1041,1041,1041,1041,1041,1041,1041,1041,1038,1038,1041,1038,1038,1038,1038,1038,1038,1038,1038,1038,1041,1041,1041,1041,1041,1041,1041,1041,1041,1041,1038,1038,1041,1038,1038,1041,1038,1038,1038,1038,1038,1038,1041,1041,1041,1041,1038,1038,1038,1038,1038,1038,1038,1038,1038,1038,1034,1034,1038,1038,1041,1041,1041,1041,1041,1041,1041,1041,1038,1038,1038,1038,1034,1034,1034,1034,1034,1034,1034,1034,1034,1034,1034,1038,1038,1038,1038,1038,1038,1038,1038,1038,1034,1034,1034,1034,1038,1038,1038,1038,1041,1038,1038,1038,1038,1038,1038,1038,1038,1038,1038,1038,1038,1038,1038,1034,1034,1031,1028,1025,992,992,992,992,989,989,989,989,989,989,992,1038,1038,1038,1038,1038,1038,1041,1038,1038,1038,933,933,930,930,930,930,930,930,928,928,928,925,925,925,923,923,923,923,920,918,915,915,910,908,903,903,913,913,913,913,913,913,0,0,0,0,0,0,0,0,970,967,967,951,951,951,954,951,948,943,933,933,930,928,928,928,925,923,923,918,918,915,915,913,910,910,908,906,906,903,901,898,898,896,896,896,894,889,889,887,887,885,882,882,882,0,0,0,0,0,0,0,0,0,0,0,0,0,0,0,0,0,0,0,0,0,0,0,0,0,0,0,0,0,0,0,0,0,0,0,0,0
0,0,0,1057,1057,1054,1054,1054,1054,1057,1054,1050,1050,1050,1050,1050,1047,1047,1047,1044,1044,1044,1041,1041,1041,1038,1038,1038,1038,1038,1038,1038,1038,1038,1038,1038,973,970,970,967,964,959,956,956,954,954,954,954,954,954,954,954,956,959,959,962,964,964,967,970,970,970,967,967,967,1034,1034,1034,1034,1031,1031,1031,1031,1031,1031,1028,1028,1028,1031,1031,1031,1031,1031,1034,1034,1034,1034,1034,1034,1034,1034,1034,1034,1034,1034,1034,1034,1034,1034,1034,1034,1034,1034,1034,1034,1034,1034,1034,1034,1034,1034,1034,1034,1031,1031,1031,1031,1031,1031,1031,1031,1034,1034,1034,1034,1034,1034,1034,1034,1034,1034,1034,1038,1038,1038,1038,1038,1034,1034,1034,1034,1034,1031,1031,1031,1031,1031,1031,1034,1034,1034,1034,1034,1034,1031,1031,1038,1038,1050,0,0,714,714,714,714,713,711,710,708,706,706,704,701,701,700,698,698,698,698,698,700,700,701,703,706,706,707,708,710,714,716,719,720,722,722,722,723,0,0,0,0,0,1038,1038,1038,1038,1038,1034,1034,1034,1034,1034,1034,1034,1031,1031,1031,1031,1028,1028,1028,1028,1034,1034,1038,1038,835,835,835,835,835,837,837,837,839,837,837,839,837,837,839,839,839,841,843,845,847,849,851,854,856,860,862,867,869,871,873,873,875,1031,1031,1031,1034,1034,1034,1031,1031,1034,1034,1034,1034,1034,1034,1034,1034,1034,1034,1038,1034,1034,1034,1038,1038,1034,1034,1038,1038,1034,1034,1034,1038,1038,1038,1038,1038,1038,1038,1038,1038,1038,1038,1038,1038,1038,1038,1038,1041,1041,1041,1041,1041,1041,1041,1041,1041,1041,1041,1041,1041,1041,1041,1041,1041,1041,1041,1038,1038,1038,1038,1038,1038,1038,1038,1038,1038,1038,1041,1041,1041,1038,1038,1038,1038,1038,1034,1034,1034,1038,1038,1038,1034,1034,1038,1038,1038,1038,1041,1041,1038,1038,1038,1038,1038,1038,1038,1038,1038,1038,1038,1038,1041,1038,1038,1038,1038,1038,1038,1038,1038,1038,1038,1038,1038,1041,1041,1038,1038,1038,1038,1038,1038,1038,1038,1038,1038,1038,1038,1038,1038,1038,1038,1038,1038,1038,1038,1038,1034,1034,1034,1034,1034,1038,1038,1038,1038,1038,1038,1038,1038,1041,1041,1041,1038,1038,1038,1038,1038,1034,1034,1034,1034,1034,1034,1031,1031,1034,1034,1038,1038,1038,1038,1038,1041,1038,1038,1038,1038,1038,1034,1034,1034,1031,1031,1031,1031,1034,1034,1034,1034,1034,1034,1034,1034,1034,1034,1034,1034,1034,1034,1034,1034,1034,1034,1034,1038,1038,1038,1038,1038,1038,1038,1038,1034,1034,1034,1034,1034,1034,1034,1034,1031,1031,1031,1031,1028,1028,1025,1019,992,992,992,989,989,989,989,989,989,992,1028,1031,1031,1031,1038,1038,1038,1038,1038,1038,938,930,930,930,930,930,933,930,930,928,928,928,928,925,925,925,925,925,923,923,918,918,1025,1025,1025,1022,1022,1022,1022,1025,1025,0,0,0,0,0,0,0,0,978,973,970,970,954,954,962,956,956,954,954,948,935,935,933,928,928,925,925,925,920,918,918,915,913,913,913,908,906,906,903,901,898,898,896,896,896,894,891,889,887,887,887,885,882,882,0,0,0,0,0,0,0,0,0,0,0,0,0,0,0,0,0,0,0,0,0,0,0,0,0,0,0,0,0,0,0,0,0,0,0,0,0
0,0,0,1054,1054,1050,1050,1050,1050,1054,1050,1050,1047,1047,1050,1050,1047,1044,1044,1041,1041,1041,1038,1038,1038,1038,1038,1038,1038,1038,1038,1038,1034,1034,1038,1038,1038,1038,970,967,967,964,959,956,954,954,954,954,954,954,954,956,956,959,959,962,964,964,967,970,970,970,967,967,1034,1034,1031,1031,1031,1031,1031,1028,1028,1028,1028,1028,1028,1028,1028,1031,1031,1031,1031,1031,1031,1031,1031,1028,1028,1028,1031,1031,1031,1031,1031,1031,1031,1031,1031,1031,1031,1031,1031,1031,1031,1031,1034,1034,1034,1034,1034,1031,1028,1028,1028,1028,1028,1028,1028,1028,1028,1031,1028,1028,1028,1031,1031,1031,1031,1031,1034,1034,1034,1034,1034,1034,1034,1034,1034,1034,1031,1031,1028,1028,1028,1028,1031,1031,1031,1034,1031,1031,1031,1031,1031,1031,1038,1041,1050,0,0,716,714,714,714,714,713,710,708,708,707,704,703,701,700,698,698,698,698,698,700,701,703,704,706,706,707,708,710,714,717,719,722,722,722,723,723,0,0,0,0,1038,1038,1038,1034,1034,1034,1034,1034,1034,1034,1034,1034,1031,1031,1031,1031,1028,1028,1028,1028,1028,1034,1034,1038,833,833,833,833,833,833,833,835,835,837,835,835,835,835,835,837,837,839,839,843,845,847,851,851,856,856,860,862,867,869,871,873,873,1028,1028,1028,1031,1031,1031,1031,1031,1031,1031,1034,1031,1031,1031,1031,1034,1031,1031,1031,1031,1031,1031,1031,1031,1034,1031,1031,1034,1034,1034,1034,1034,1034,1034,1034,1034,1038,1038,1038,1031,1031,1031,1034,1031,1031,1034,1034,1034,1038,1038,1038,1038,1038,1038,1038,1038,1041,1041,1038,1038,1038,1038,1038,1038,1038,1038,1038,1038,1038,1038,1034,1034,1034,1034,1034,1034,1034,1034,1038,1038,1038,1038,1038,1038,1034,1034,1034,1034,1034,1034,1034,1034,1034,1034,1034,1034,1034,1034,1034,1034,1034,1034,1034,1034,1034,1038,1038,1038,1038,1038,1038,1038,1038,1038,1034,1034,1034,1034,1034,1034,1034,1034,1034,1034,1034,1034,1038,1038,1038,1038,1038,1038,1034,1034,1034,1034,1034,1034,1034,1034,1034,1034,1034,1034,1034,1034,1031,1031,1031,1031,1031,1031,1031,1031,1031,1031,1038,1038,1038,1038,1038,1038,1038,1038,1038,1038,1034,1034,1034,1034,1034,1034,1034,1034,1034,1031,1031,1031,1031,1031,1031,1034,1034,1038,1038,1038,1038,1038,1038,1034,1034,1031,1031,1031,1031,1031,1031,1031,1031,1031,1034,1034,1034,1031,1031,1031,1034,1034,1034,1034,1034,1031,1031,1031,1031,1031,1034,1034,1034,1038,1038,1038,1034,1034,1034,1031,1031,1028,1028,1034,1034,1034,1031,1031,1031,1028,1028,1028,1025,1019,992,992,992,992,992,989,989,989,989,992,1028,1028,1031,1031,1034,1034,1034,1034,1038,1038,938,938,933,933,933,933,933,933,930,930,930,928,928,928,925,925,925,925,923,923,920,920,1025,1025,1025,1022,1022,1025,1025,1025,1025,0,0,0,0,0,0,0,0,978,975,973,973,970,967,967,964,959,956,956,951,940,938,935,933,928,928,928,925,923,920,918,918,915,915,913,908,908,906,903,903,901,901,898,898,896,896,891,889,889,887,887,885,885,885,0,0,0,0,0,0,0,0,0,0,0,0,0,0,0,0,0,0,0,0,0,0,0,0,0,0,0,0,0,0,0,0,0,0,0,0,0
0,0,0,1050,1050,1050,1047,1047,1050,1050,1050,1050,1047,1047,1050,1047,1047,1044,1044,1041,1041,1041,1038,1038,1038,1038,1038,1034,1034,1034,1034,1034,1034,1034,1034,1034,1034,1034,970,967,967,964,959,956,956,954,954,954,954,954,956,956,959,959,962,962,964,964,967,970,970,973,970,970,975,1034,1028,1028,1028,1028,1028,1025,1025,1025,1025,1025,1025,1025,1028,1031,1031,1028,1028,1028,1028,1028,1028,1025,1025,1025,1025,1025,1025,1025,1028,1031,1031,1031,1031,1028,1028,1028,1028,1028,1028,1031,1031,1031,1031,1031,1031,1028,1025,1025,1028,1028,1028,1025,1025,1025,1028,1028,1028,1025,1025,1028,1028,1028,1028,1028,1028,1031,1031,1031,1031,1034,1034,1034,1031,1031,1031,1031,1028,1028,1028,1028,1028,1028,1031,1031,1031,1031,1031,1028,1028,1028,1028,1028,1050,0,0,716,716,714,714,714,713,711,708,708,707,706,704,703,701,700,700,698,698,700,700,701,703,704,706,707,707,710,711,714,717,719,722,722,722,723,725,0,0,0,0,1038,1034,1034,1034,1034,1034,1031,1031,1031,1031,1031,1031,1028,1028,1028,1028,1028,1025,1025,1025,1025,1025,827,829,829,829,831,831,831,831,831,833,833,833,833,833,835,835,835,835,837,837,839,843,845,849,854,856,858,858,860,862,864,867,871,873,1031,1028,1028,1028,1031,1031,1028,1028,1028,1028,1031,1031,1031,1031,1031,1031,1031,1028,1028,1028,1028,1028,1028,1028,1028,1031,1028,1028,1031,1034,1034,1031,1031,1034,1034,1031,1031,1034,1034,1034,1028,1028,1028,1028,1028,1028,1031,1031,1031,1034,1034,1034,1034,1034,1034,1034,1034,1038,1038,1038,1038,1038,1038,1038,1038,1034,1034,1034,1034,1034,1034,1034,1031,1031,1031,1031,1031,1031,1031,1034,1038,1034,1034,1034,1034,1031,1031,1031,1031,1031,1031,1031,1031,1031,1031,1031,1031,1031,1031,1031,1031,1034,1031,1031,1034,1034,1034,1034,1034,1038,1038,1034,1034,1038,1034,1034,1034,1031,1031,1031,1031,1031,1031,1031,1031,1031,1034,1034,1034,1034,1034,1034,1034,1031,1031,1031,1031,1031,1031,1031,1031,1031,1031,1031,1031,1031,1031,1031,1031,1028,1028,1028,1028,1028,1028,1028,1028,1028,1031,1031,1031,1038,1038,1038,1038,1038,1034,1031,1031,1031,1031,1031,1031,1031,1031,1031,1028,1028,1028,1028,1031,1031,1031,1031,1034,1038,1038,1038,1034,1034,1034,1031,1031,1031,1028,1028,1028,1028,1028,1031,1031,1031,1031,1031,1028,1028,1028,1028,1028,1031,1031,1031,1031,1031,1031,1031,1031,1031,1031,1034,1034,1034,1034,1031,1031,1031,1028,1028,1028,1028,1028,1031,1028,1028,1028,1028,1028,1028,1025,1025,1022,1022,992,992,992,992,992,992,989,989,989,992,1028,1028,1031,1031,1028,1028,1034,1038,1038,938,938,935,935,933,933,933,933,933,930,930,930,930,930,930,930,930,930,933,1025,1022,1022,1025,1025,1025,1025,1025,1025,1025,1025,1022,1022,0,0,0,0,0,0,0,978,975,973,973,970,970,970,967,962,959,956,954,943,938,938,935,933,933,928,928,925,923,920,918,915,915,915,910,908,908,906,906,903,903,901,898,898,898,896,891,889,889,889,887,885,885,0,0,0,0,0,0,0,0,0,0,0,0,0,0,0,0,0,0,0,0,0,0,0,0,0,0,0,0,0,0,0,0,0,0,0,0,0
