0,0,0,0,0,0,0,0,0,0,0,1477,1477,1483,1483,1483,1483,1483,1483,1483,1483,1483,1483,1483,1483,1483,1477,1470,1470,1470,1470,1470,1477,1477,1477,1477,1483,1483,1483,1483,1483,1483,1483,1483,1483,1483,1483,1483,1483,1483,1483,1483,1477,1470,1470,1470,1477,1477,1477,1477,1477,1483,1483,1483,1483,1483,1483,1477,1470,1470,1464,1464,1464,1464,0,0,0,0,0,0,938,935,935,935,933,933,930,928,925,925,925,925,925,928,930,930,930,933,935,935,938,938,940,943,943,943,943,0,0,0,0,0,1458,1458,1464,1464,1464,1458,1458,1458,1452,1452,1452,1452,1458,1458,1458,1458,1458,1458,1452,1452,1452,1452,1445,1445,1452,1452,1445,1445,1445,1445,1445,1445,1445,1445,1445,1445,1445,1445,1445,1445,1445,1445,1445,1439,1439,1439,1445,1445,1445,1439,1439,1439,1439,1439,1439,1439,1439,1439,1439,1439,1439,1439,1439,1439,1439,1439,1439,1439,1439,1439,1439,1439,1439,1433,1433,1433,1433,1433,1433,1433,1433,1439,1439,1439,1134,1134,1134,1130,1130,0,0,0,0,0,0,0,0,0,0,0,0,0,0,698,698,696,694,693,693,691,691,688,687,686,686,684,683,683,683,683,683,684,686,687,687,688,688,690,691,693,696,697,700,701,701,704,0,0,0,0,0,0,0,0,1264,1264,1264,1264,1264,1264,1268,1268,1268,1273,1273,1278,1283,1283,1283,1288,1410,1410,1410,1404,1404,1404,1398,1398,1398,1398,1398,1398,1398,1398,1398,1398,1398,1392,1392,1392,1392,1392,1392,1392,1392,1392,1392,1392,1392,1392,1392,1392,1392,1392,1392,1392,1387,1387,1387,1387,1387,1387,1387,1387,1392,1392,1387,1387,1381,1381,1381,1381,1381,1381,1381,1381,1381,1381,1376,1376,1376,1376,1376,1376,1376,1376,1376,1376,1376,1376,1376,1376,1370,1370,1370,1370,1370,1370,1365,1365,1365,1359,1359,1359,1359,1070,1063,1063,1063,1057,1057,1054,1054,1054,1050,1050,1050,1050,1050,1050,1050,1050,1050,1054,1057,1063,1063,1067,1067,1067,1354,1354,1354,1354,1354,1354,1354,1354,1354,1354,1354,1354,1354,1354,1354,1354,1349,1349,1349,1349,1349,1349,1349,1349,1349,1349,1343,1343,1343,1343,1343,1343,1343,1343,1343,1343,1343,1343,1343,1343,1343,1343,1343,1343,1349,1343,1343,1343,1343,1349,1343,1343,1338,1338,1338,1338,1338,1343,1338,1338,1338,1338,1338,1338,1333,1333,1333,1333,1333,1333,1333,1333,1333,1333,1333,1338,1333,1333,1333,1333,1333,1328,1328,1328,1328,1328,1328,1328,1322,1322,1322,1322,1322,1328,1328,1328,1328,1328,1328,1322,1322,1317,1317,1317,1317,1317,1317,1317,1317,1317,1317,1317,1322,1317,1317,1312,1312,1312,1312,1312,1312,1312,1312,1312,1312,1312,1312,1312,1307,1307,1307,1307,1307,1307,1307,1307,1302,1302,1302,1302,1302,1302,1302,1302,1302,1302,1302,1302,1297,1297,1297,1297,1297,1297,1292,1292,1297,1292,1292,1241,1241,1236,1232,1232,1227,1219,1219,1214,1210,1202,1202,1202,1202,0,1145,1145,1145,1141,1138,1138,1138,1138,1138,1138,1138,1138,1138,1138,1134,1134,1134,1119,1112,1108,1108,1105,1101,1097,1094,1087,1084,1080,1073,1073,1073,1067,1067,1063,1060,1057,1054,1054,1054,940,940,940,940,940,940,940,940,943,943,943,943,0,0,0,0,0,0,0,0,0,0,0,0,0,0,0,0,0,0,0,0,0,0,0,0,0,0,0,0,0,0,0,0,0
0,0,0,0,0,0,0,0,0,0,0,1477,1477,1483,1483,1477,1477,1477,1483,1477,1477,1477,1483,1483,1483,1477,1470,1470,1464,1464,1464,1470,1470,1477,1477,1477,1477,1483,1477,1477,1477,1477,1477,1483,1483,1483,1483,1483,1483,1477,1477,1477,1470,1470,1464,1464,1464,1470,1470,1470,1470,1477,1477,1477,1477,1477,1477,1470,1470,1470,1464,1464,1464,1464,0,0,0,0,0,0,0,940,935,935,933,933,933,930,928,928,928,925,925,928,930,930,933,933,935,935,938,938,940,943,943,943,946,0,0,0,0,0,1452,1452,1458,1458,1458,1452,1452,1452,1452,1445,1445,1452,1452,1452,1452,1452,1452,1452,1445,1445,1445,1445,1439,1439,1445,1445,1445,1439,1439,1439,1439,1439,1439,1439,1439,1439,1439,1439,1439,1439,1439,1439,1439,1439,1439,1439,1439,1439,1439,1439,1439,1439,1439,1433,1433,1433,1433,1433,1433,1433,1433,1433,1433,1433,1427,1427,1433,1433,1433,1433,1433,1433,1433,1433,1433,1433,1433,1433,1433,1433,1433,1433,1439,1134,1134,1134,1134,1130,1130,1130,0,0,0,0,0,0,0,0,0,0,0,0,0,700,698,696,696,694,693,693,691,690,688,687,687,686,684,684,684,684,684,686,686,686,687,688,688,690,693,694,697,698,700,701,703,704,0,0,0,0,0,0,0,0,1264,1264,1264,1264,1264,1268,1268,1268,1268,1273,1278,1278,1283,1283,1283,1288,1410,1404,1404,1398,1398,1398,1392,1392,1392,1392,1392,1392,1392,1392,1392,1392,1392,1392,1387,1387,1387,1387,1387,1387,1387,1387,1387,1387,1387,1387,1387,1387,1387,1387,1387,1387,1387,1387,1387,1381,1381,1381,1381,1381,1387,1381,1381,1381,1381,1376,1376,1376,1376,1376,1376,1376,1376,1376,1376,1376,1370,1370,1370,1376,1376,1370,1370,1370,1370,1370,1370,1370,1365,1365,1365,1365,1365,1365,1365,1359,1359,1359,1354,1354,1354,1070,1070,1063,1060,1057,1057,1054,1054,1054,1054,1054,1054,1050,1050,1050,1050,1050,1054,1057,1057,1063,1063,1067,1067,1070,1354,1354,1354,1354,1354,1354,1354,1354,1354,1349,1349,1349,1349,1349,1349,1349,1349,1349,1343,1343,1343,1343,1343,1343,1343,1343,1343,1343,1338,1338,1338,1338,1338,1338,1338,1338,1338,1338,1338,1338,1338,1333,1333,1333,1333,1333,1338,1338,1338,1338,1338,1338,1333,1333,1333,1333,1333,1333,1333,1333,1333,1333,1333,1333,1333,1333,1328,1328,1328,1328,1328,1328,1328,1328,1328,1328,1328,1328,1328,1328,1328,1328,1322,1322,1322,1322,1322,1317,1317,1317,1317,1317,1317,1322,1322,1322,1322,1322,1322,1317,1317,1317,1312,1312,1312,1312,1312,1312,1312,1312,1307,1307,1312,1312,1312,1312,1312,1307,1307,1307,1312,1312,1312,1312,1312,1312,1312,1307,1307,1307,1307,1302,1302,1302,1302,1302,1297,1297,1302,1302,1302,1302,1302,1297,1297,1297,1297,1297,1292,1292,1297,1297,1292,1292,1292,1292,1292,1288,1264,1241,1241,1236,1236,1236,1227,1223,1219,1214,1210,1202,1202,1202,1202,0,1145,1145,1145,1141,1141,1138,1138,1138,1138,1138,1138,1138,1138,1138,1134,1134,1130,1119,1112,1108,1105,1101,1101,1097,1094,1087,1084,1080,1073,1070,1070,1067,1063,1063,1060,1057,1054,1054,1054,940,940,940,940,940,940,940,940,943,943,943,943,0,0,0,0,0,0,0,0,0,0,0,0,0,0,0,0,0,0,0,0,0,0,0,0,0,0,0,0,0,0,0,0,0
0,0,0,0,0,0,0,0,0,0,0,1477,1477,1483,1483,1477,1477,1477,1477,1470,1470,1470,1477,1477,1477,1470,1470,1470,1464,1464,1464,1470,1470,1470,1470,1470,1477,1477,1470,1470,1470,1464,1464,1458,1458,1458,1477,1477,1477,1477,1470,1470,1470,1464,1464,1464,1464,1464,1464,1464,1470,1470,1470,1470,1470,1470,1470,1464,1464,1464,1464,1464,1458,1458,1458,0,0,0,0,0,0,943,935,935,935,933,933,930,930,928,928,925,925,928,930,930,933,933,935,935,938,940,940,943,943,943,946,0,0,0,0,0,1439,1439,1452,1452,1452,1445,1445,1445,1445,1445,1445,1445,1445,1445,1445,1445,1445,1445,1439,1439,1439,1439,1439,1439,1439,1439,1439,1439,1439,1439,1439,1439,1439,1439,1439,1439,1439,1439,1439,1433,1433,1439,1433,1433,1433,1433,1433,1433,1433,1433,1433,1433,1433,1433,1433,1433,1433,1433,1433,1433,1433,1433,1427,1427,1427,1427,1427,1427,1427,1427,1427,1427,1427,1427,1427,1427,1433,1433,1433,1433,1433,1433,1134,1134,1134,1134,1134,1134,1130,1130,1134,0,0,0,0,0,0,0,0,0,0,0,0,700,698,697,696,694,694,693,693,691,688,687,687,686,686,684,684,684,684,686,686,686,687,688,688,691,693,696,697,698,700,701,704,704,706,706,0,0,0,0,0,0,1268,1268,1268,1264,1264,1268,1268,1268,1273,1273,1278,1283,1283,1283,1288,1288,1292,1398,1398,1398,1392,1392,1392,1392,1387,1387,1387,1387,1392,1392,1387,1387,1387,1387,1387,1387,1387,1387,1387,1381,1381,1381,1381,1376,1376,1381,1381,1381,1381,1381,1381,1381,1381,1381,1381,1376,1376,1376,1376,1376,1381,1376,1376,1376,1376,1376,1376,1376,1376,1376,1376,1376,1370,1370,1370,1370,1365,1365,1365,1370,1370,1370,1370,1370,1370,1365,1365,1365,1365,1365,1365,1359,1359,1359,1359,1359,1354,1354,1354,1349,1349,1070,1070,1067,1060,1057,1057,1057,1054,1054,1054,1054,1054,1054,1054,1054,1054,1054,1054,1057,1057,1063,1063,1067,1067,1070,1349,1349,1349,1349,1349,1349,1349,1349,1349,1349,1349,1349,1343,1343,1343,1343,1343,1338,1338,1338,1338,1338,1338,1338,1338,1338,1338,1338,1338,1338,1338,1338,1338,1338,1333,1333,1333,1333,1333,1333,1333,1333,1333,1333,1333,1328,1328,1328,1328,1328,1333,1333,1333,1333,1333,1333,1333,1333,1328,1328,1328,1328,1328,1328,1328,1328,1328,1328,1322,1322,1322,1322,1317,1317,1322,1322,1322,1322,1322,1322,1322,1317,1317,1317,1322,1317,1317,1312,1312,1312,1312,1312,1312,1317,1317,1317,1317,1317,1312,1312,1312,1312,1312,1312,1312,1312,1312,1307,1307,1307,1307,1302,1302,1302,1302,1302,1307,1307,1307,1307,1307,1307,1307,1307,1307,1307,1307,1302,1302,1302,1302,1297,1297,1297,1297,1297,1297,1297,1297,1297,1297,1297,1292,1292,1292,1292,1292,1292,1292,1292,1292,1292,1292,1292,1292,1288,1288,1283,1259,1250,1241,1241,1241,1241,1232,1223,1219,1214,1210,1206,1206,1206,1206,0,1268,1145,1145,1134,1134,1130,1130,1138,1138,1138,1138,1138,1138,1134,1134,1130,1123,1115,1112,1108,1105,1097,1094,1094,1090,1084,1080,1080,1073,1070,1067,1063,1063,1060,1060,1057,1054,1054,943,940,940,940,940,940,940,940,940,943,943,943,943,0,0,0,0,0,0,0,0,0,0,0,0,0,0,0,0,0,0,0,0,0,0,0,0,0,0,0,0,0,0,0,0,0
0,0,0,0,0,0,0,0,0,0,0,1483,1483,1483,1477,1477,1477,1477,1477,1470,1470,1470,1470,1470,1470,1470,1470,1464,1464,1464,1464,1464,1464,1464,1464,1464,1464,1464,1464,1458,1458,1458,1458,1452,1452,1458,1458,1464,1464,1470,1464,1464,1464,1464,1458,1458,1458,1458,1464,1464,1464,1464,1464,1464,1464,1464,1464,1464,1464,1458,1458,1458,1458,1458,1458,0,0,0,0,0,0,940,935,935,935,935,933,933,930,928,928,928,928,928,930,930,933,935,935,938,940,940,943,946,946,946,946,951,0,0,0,0,1433,1433,1439,1445,1445,1439,1439,1439,1439,1439,1439,1439,1439,1439,1439,1439,1439,1439,1433,1433,1439,1439,1433,1433,1439,1439,1439,1433,1433,1433,1433,1433,1433,1433,1433,1433,1433,1433,1433,1433,1433,1433,1433,1433,1427,1427,1427,1427,1433,1427,1427,1427,1427,1427,1427,1427,1427,1427,1427,1427,1421,1421,1415,1415,1415,1421,1421,1421,1421,1421,1421,1421,1421,1427,1427,1427,1427,1427,1138,1134,1134,1134,1134,1130,1130,1130,1134,1134,1134,1134,1130,1130,0,0,0,0,0,0,0,0,0,0,0,700,698,698,697,697,696,694,693,691,690,688,687,687,686,686,686,686,686,686,686,686,687,688,690,691,694,696,698,698,700,703,704,704,706,706,0,0,0,0,0,0,0,0,1268,1268,1268,1268,1268,1273,1278,1278,1278,1283,1283,1288,1288,1288,1292,1392,1392,1392,1392,1387,1387,1387,1387,1387,1387,1387,1387,1387,1387,1387,1381,1381,1381,1381,1381,1381,1381,1376,1376,1376,1376,1376,1376,1376,1376,1376,1370,1370,1376,1376,1376,1376,1376,1376,1370,1370,1370,1370,1376,1376,1376,1376,1370,1370,1370,1370,1370,1370,1370,1370,1370,1365,1365,1365,1359,1359,1359,1359,1359,1365,1365,1365,1365,1359,1359,1359,1359,1359,1359,1359,1359,1354,1354,1354,1354,1354,1349,1349,1349,1070,1070,1067,1063,1060,1060,1057,1057,1054,1054,1054,1054,1054,1054,1054,1054,1054,1054,1057,1057,1063,1063,1063,1067,1343,1343,1343,1349,1343,1343,1343,1343,1343,1343,1343,1343,1343,1343,1343,1338,1338,1338,1338,1333,1333,1333,1333,1338,1333,1333,1333,1333,1333,1333,1333,1333,1333,1333,1333,1333,1333,1333,1333,1333,1333,1333,1328,1328,1328,1328,1328,1328,1328,1328,1328,1328,1328,1328,1328,1328,1328,1328,1328,1328,1328,1328,1328,1328,1328,1328,1322,1322,1322,1317,1317,1317,1317,1317,1317,1317,1317,1317,1317,1317,1317,1317,1312,1312,1317,1317,1312,1312,1312,1312,1312,1312,1312,1312,1312,1312,1312,1312,1312,1312,1312,1312,1307,1307,1307,1307,1307,1307,1307,1302,1302,1302,1297,1297,1297,1297,1297,1297,1297,1297,1297,1302,1307,1307,1302,1302,1302,1302,1302,1297,1297,1297,1297,1292,1292,1292,1292,1292,1292,1292,1292,1292,1292,1292,1292,1288,1288,1292,1292,1288,1288,1288,1288,1288,1288,1288,1288,1283,1273,1255,1250,1245,1245,1245,1245,1236,1232,1223,1219,1214,1206,1206,1206,1206,0,1268,1268,1145,1130,1126,1126,1126,1130,1138,1138,1138,1138,1138,1134,1134,1126,1119,1112,1108,1105,1101,1094,1094,1090,1090,1084,1080,1077,1073,1070,1067,1063,1063,1060,1057,1054,1054,1054,943,943,943,943,943,943,943,943,943,943,943,943,943,0,0,0,0,0,0,0,0,0,0,0,0,0,0,0,0,0,0,0,0,0,0,0,0,0,0,0,0,0,0,0,0,0
0,0,0,0,0,0,0,0,0,0,0,1477,1477,1477,1470,1470,1470,1470,1464,1464,1464,1464,1464,1464,1464,1464,1464,1464,1464,1464,1464,1464,1464,1464,1464,1464,1464,1464,1458,1458,1445,1445,1458,1452,1452,1458,1458,1458,1458,1458,1458,1458,1458,1458,1452,1452,1452,1458,1458,1458,1458,1464,1464,1464,1464,1458,1458,1458,1458,1458,1458,1458,1458,1452,1452,0,0,0,0,0,0,940,938,938,935,935,935,933,933,930,930,928,928,930,930,930,933,935,938,938,940,943,946,946,946,946,946,951,0,0,0,0,1433,1421,1421,1427,1433,1439,1439,1439,1439,1439,1439,1439,1439,1439,1439,1439,1433,1433,1433,1433,1433,1433,1433,1433,1433,1433,1433,1433,1433,1433,1433,1433,1433,1433,1433,1433,1433,1433,1433,1427,1427,1427,1427,1427,1427,1421,1421,1421,1427,1427,1427,1427,1427,1427,1427,1427,1427,1427,1421,1421,1421,1415,1415,1415,1415,1415,1415,1415,1415,1415,1415,1421,1421,1421,1421,1421,1134,1130,1126,1126,1126,1130,1130,1130,1130,1130,1130,1130,1130,1130,1130,1130,1130,0,0,0,0,0,0,0,0,0,0,703,698,698,697,697,697,696,693,693,691,688,688,687,686,686,686,686,686,686,687,687,688,690,690,691,694,697,698,700,703,704,704,706,706,707,0,0,0,0,0,0,0,0,1268,1268,1268,1268,1273,1278,1278,1278,1283,1283,1288,1288,1288,1288,1292,1297,1387,1387,1387,1387,1381,1381,1381,1381,1381,1381,1381,1381,1381,1381,1376,1376,1376,1376,1376,1376,1376,1376,1376,1376,1370,1370,1370,1370,1370,1370,1370,1370,1370,1370,1370,1370,1370,1370,1370,1370,1370,1370,1370,1370,1370,1370,1370,1370,1370,1370,1370,1370,1370,1365,1365,1359,1359,1359,1354,1354,1354,1354,1354,1354,1354,1354,1354,1354,1354,1354,1354,1354,1354,1354,1354,1354,1354,1354,1349,1349,1349,1349,1349,1070,1070,1070,1067,1063,1063,1060,1057,1057,1057,1057,1054,1054,1054,1054,1054,1054,1057,1057,1060,1063,1063,1063,1067,1067,1343,1343,1343,1343,1343,1338,1338,1338,1338,1333,1333,1338,1338,1338,1333,1333,1333,1333,1333,1333,1333,1333,1333,1333,1333,1333,1333,1333,1333,1333,1328,1328,1328,1333,1333,1333,1333,1333,1328,1328,1328,1328,1328,1328,1328,1328,1322,1322,1322,1322,1322,1322,1322,1322,1322,1322,1322,1328,1328,1328,1328,1328,1328,1322,1322,1322,1322,1317,1317,1317,1312,1312,1312,1312,1312,1312,1312,1312,1312,1312,1312,1312,1312,1312,1312,1312,1312,1307,1307,1307,1307,1307,1307,1307,1307,1307,1307,1307,1307,1307,1307,1307,1307,1307,1307,1307,1302,1302,1302,1302,1297,1297,1297,1292,1292,1292,1297,1292,1292,1292,1292,1297,1297,1297,1297,1297,1297,1297,1292,1292,1292,1292,1292,1292,1292,1292,1292,1288,1288,1288,1288,1288,1288,1288,1288,1288,1288,1288,1288,1288,1283,1283,1283,1288,1283,1278,1273,1268,1255,1250,1245,1245,1245,1241,1236,1232,1232,1227,1219,1219,1219,1219,1250,1273,1268,1268,1268,1130,1126,1126,1126,1130,1138,1138,1134,1134,1130,1130,1130,1123,1115,1112,1108,1105,1097,1094,1094,1090,1087,1084,1080,1073,1070,1067,1063,1060,1060,1057,1057,1054,1054,1054,943,943,943,943,943,943,943,943,943,943,943,943,943,0,0,0,0,0,0,0,0,0,0,0,0,0,0,0,0,0,0,0,0,0,0,0,0,0,0,0,0,0,0,0,0,0
0,0,0,0,0,0,0,0,0,0,0,1477,1477,1477,1470,1470,1464,1464,1464,1464,1464,1464,1464,1464,1464,1464,1464,1458,1458,1458,1458,1464,1464,1464,1464,1464,1464,1458,1458,1458,1445,1445,1458,1445,1445,1452,1452,1452,1452,1452,1452,1452,1452,1452,1445,1445,1445,1452,1458,1458,1458,1458,1458,1458,1458,1458,1458,1458,1458,1452,1452,1452,1452,1445,1445,0,0,0,0,0,0,0,940,940,935,935,935,933,933,933,933,930,930,933,933,933,933,935,938,938,940,943,946,948,948,948,951,951,0,0,0,0,0,1421,1421,1421,1427,1433,1433,1433,1433,1439,1439,1433,1433,1433,1433,1433,1427,1427,1421,1421,1427,1427,1427,1427,1427,1427,1433,1433,1433,1427,1427,1427,1427,1427,1427,1427,1421,1421,1427,1421,1421,1421,1421,1421,1415,1415,1415,1415,1415,1415,1415,1421,1421,1421,1421,1421,1421,1421,1421,1421,1415,1415,1415,1415,1415,1415,1415,1415,1415,1415,1415,1415,1415,1415,1421,1415,1126,1126,1123,1123,1123,1130,1130,1130,1130,1130,1130,1130,1130,1130,1130,1130,1130,1130,0,0,0,0,0,0,0,0,0,703,701,701,700,700,698,697,694,693,691,691,691,690,688,687,686,686,686,687,687,687,690,690,691,693,694,697,700,701,703,704,704,706,707,707,0,0,0,0,0,0,0,0,1273,1268,1268,1273,1273,1278,1283,1283,1283,1283,1288,1288,1288,1292,1297,1297,1381,1381,1381,1381,1381,1376,1376,1376,1376,1376,1376,1376,1376,1376,1370,1370,1376,1370,1370,1370,1370,1370,1370,1370,1370,1370,1370,1365,1365,1365,1365,1365,1365,1365,1365,1365,1365,1365,1365,1365,1365,1365,1365,1365,1365,1365,1365,1365,1365,1365,1365,1365,1365,1365,1365,1359,1354,1354,1354,1349,1349,1349,1349,1349,1354,1354,1354,1354,1354,1354,1354,1354,1354,1354,1354,1349,1349,1349,1349,1349,1343,1343,1349,1073,1073,1070,1070,1067,1063,1063,1060,1060,1057,1057,1057,1054,1054,1054,1054,1054,1057,1060,1060,1063,1067,1067,1067,1067,1338,1338,1338,1338,1338,1333,1333,1333,1333,1333,1333,1333,1333,1333,1328,1328,1328,1328,1328,1328,1328,1328,1328,1328,1328,1328,1328,1328,1328,1328,1328,1328,1328,1328,1328,1328,1328,1328,1328,1328,1328,1328,1328,1322,1322,1322,1317,1317,1317,1317,1317,1317,1317,1317,1317,1317,1317,1317,1317,1317,1317,1322,1322,1322,1322,1317,1317,1312,1312,1312,1312,1312,1312,1312,1312,1312,1312,1307,1307,1307,1307,1307,1307,1307,1307,1307,1307,1307,1307,1307,1307,1307,1302,1302,1307,1307,1307,1307,1307,1307,1307,1307,1302,1302,1302,1302,1297,1297,1297,1297,1297,1292,1292,1292,1292,1292,1292,1292,1292,1292,1292,1292,1292,1292,1292,1292,1292,1292,1292,1292,1292,1288,1288,1288,1288,1288,1288,1288,1283,1283,1283,1283,1283,1283,1283,1283,1283,1283,1283,1278,1278,1278,1278,1278,1273,1273,1268,1259,1255,1250,1245,1245,1245,1241,1236,1236,1236,1232,1227,1219,1219,1250,1250,1273,1273,1268,1268,1264,1264,1126,1126,1138,1134,1134,1134,1130,1126,1126,1123,1115,1112,1108,1105,1101,1094,1094,1090,1090,1087,1084,1080,1073,1070,1067,1063,1060,1057,1057,1057,1054,1054,1054,946,946,946,946,943,943,943,943,943,943,943,943,943,0,0,0,0,0,0,0,0,0,0,0,0,0,0,0,0,0,0,0,0,0,0,0,0,0,0,0,0,0,0,0,0,0
0,0,0,0,0,0,0,0,0,0,0,1464,1464,1470,1470,1464,1464,1464,1458,1458,1458,1458,1458,1464,1464,1464,1464,1458,1458,1458,1458,1464,1458,1458,1458,1458,1458,1458,1452,1452,1452,1445,1445,1445,1445,1445,1445,1452,1445,1445,1445,1445,1439,1439,1439,1439,1439,1439,1445,1445,1445,1445,1452,1452,1445,1445,1452,1452,1452,1452,1452,1452,1452,1439,1439,0,0,0,0,0,0,0,0,940,935,935,935,933,933,933,933,933,933,933,933,933,935,935,938,938,940,943,946,948,948,951,951,954,954,0,0,0,0,1421,1421,1421,1421,1427,1427,1415,1415,1427,1427,1427,1433,1427,1427,1427,1421,1421,1421,1421,1421,1421,1427,1427,1427,1427,1427,1427,1427,1427,1427,1427,1427,1421,1421,1421,1421,1421,1415,1415,1415,1415,1415,1415,1415,1410,1410,1410,1410,1410,1415,1415,1415,1415,1415,1415,1415,1415,1415,1415,1410,1410,1410,1410,1410,1410,1415,1415,1415,1415,1415,1415,1415,1415,1421,1415,1123,1123,1123,1123,1123,1126,1126,1126,1126,1130,1130,1130,1130,1130,1126,1126,1130,1130,0,0,0,0,0,0,0,0,0,704,703,703,701,701,700,698,697,694,693,691,691,691,690,690,688,688,688,688,688,688,690,691,693,694,696,698,700,701,703,704,706,707,707,708,0,0,0,0,0,0,0,0,0,1278,1278,1278,1278,1278,1283,1283,1283,1283,1288,1288,1288,1292,1297,1297,1376,1376,1376,1376,1376,1376,1376,1376,1376,1376,1370,1370,1370,1370,1370,1370,1370,1370,1370,1370,1365,1365,1365,1365,1365,1365,1365,1365,1365,1359,1359,1359,1359,1359,1359,1359,1359,1359,1359,1354,1354,1359,1359,1359,1359,1359,1359,1359,1359,1359,1359,1359,1359,1359,1354,1354,1354,1354,1349,1349,1349,1349,1349,1349,1349,1349,1349,1349,1349,1349,1349,1349,1349,1349,1349,1349,1343,1343,1343,1343,1338,1338,1338,1080,1077,1073,1070,1070,1067,1067,1063,1063,1060,1060,1060,1057,1057,1054,1054,1057,1057,1060,1063,1063,1067,1067,1070,1338,1338,1333,1333,1333,1333,1328,1328,1328,1328,1328,1328,1328,1328,1328,1328,1328,1328,1328,1328,1322,1322,1328,1328,1328,1328,1322,1322,1328,1322,1322,1322,1322,1322,1322,1322,1322,1322,1322,1322,1322,1322,1322,1322,1322,1317,1317,1317,1312,1312,1312,1312,1312,1312,1317,1317,1317,1312,1312,1317,1312,1312,1312,1312,1312,1312,1312,1312,1312,1312,1312,1307,1307,1312,1307,1307,1307,1307,1307,1307,1307,1307,1302,1302,1302,1302,1307,1302,1302,1302,1302,1302,1297,1297,1297,1297,1302,1302,1302,1302,1302,1302,1302,1302,1297,1297,1297,1297,1297,1292,1292,1292,1292,1292,1292,1292,1292,1292,1292,1292,1292,1292,1288,1288,1288,1288,1288,1283,1283,1283,1283,1283,1288,1288,1288,1288,1283,1283,1283,1278,1278,1283,1283,1283,1283,1278,1278,1283,1278,1278,1278,1273,1273,1273,1273,1273,1268,1268,1259,1255,1250,1245,1245,1245,1241,1241,1236,1236,1236,1236,1232,1232,1250,1250,1273,1268,1268,1264,1259,1259,1259,1259,1259,1134,1130,1126,1126,1123,1123,1119,1112,1105,1105,1097,1094,1094,1090,1090,1090,1087,1084,1073,1070,1067,1063,1060,1057,1054,1054,1054,1054,1054,1054,946,946,946,946,946,946,943,943,943,943,943,943,943,0,0,0,0,0,0,0,0,0,0,0,0,0,0,0,0,0,0,0,0,0,0,0,0,0,0,0,0,0,0,0,0,0
0,0,0,0,0,0,0,0,0,0,0,1464,1464,1464,1464,1464,1458,1458,1458,1458,1458,1458,1458,1458,1458,1458,1458,1458,1458,1458,1458,1458,1458,1458,1458,1452,1452,1452,1452,1452,1439,1439,1439,1439,1439,1445,1445,1445,1439,1439,1439,1439,1439,1439,1439,1439,1439,1439,1445,1445,1439,1439,1439,1439,1445,1445,1445,1445,1445,1445,1445,1445,1439,1427,1427,1427,1427,0,0,0,0,0,0,943,940,940,935,935,935,935,933,933,933,933,933,933,935,935,938,938,940,946,948,948,948,951,954,954,954,0,0,0,0,1415,1415,1421,1421,1421,1421,1415,1415,1421,1421,1421,1421,1421,1415,1415,1421,1421,1421,1421,1421,1421,1421,1421,1421,1421,1421,1421,1421,1421,1421,1421,1421,1415,1415,1415,1415,1415,1415,1415,1415,1415,1415,1415,1410,1410,1410,1410,1410,1410,1410,1410,1410,1410,1415,1410,1410,1410,1410,1410,1410,1410,1410,1410,1410,1410,1410,1410,1415,1415,1415,1115,1115,1115,1115,1115,1119,1119,1119,1119,1119,1119,1123,1123,1123,1126,1126,1126,1126,1126,1126,1126,1126,1126,0,0,0,0,0,0,0,0,0,706,704,704,703,703,701,698,698,696,694,693,693,691,691,690,688,688,688,688,688,690,691,693,693,694,696,698,700,701,703,704,706,707,708,708,0,0,0,0,0,0,0,0,1283,1283,1283,1283,1283,1283,1283,1283,1283,1288,1288,1288,1292,1292,1297,1297,1376,1370,1370,1370,1370,1370,1370,1370,1370,1370,1370,1370,1370,1370,1370,1370,1370,1370,1365,1365,1365,1365,1359,1359,1359,1359,1359,1359,1359,1354,1354,1359,1359,1359,1354,1354,1354,1354,1354,1354,1354,1354,1354,1354,1354,1354,1354,1354,1354,1354,1354,1354,1354,1354,1354,1354,1349,1349,1349,1349,1349,1343,1343,1343,1343,1349,1349,1349,1349,1349,1349,1349,1343,1343,1343,1343,1338,1338,1338,1338,1338,1333,1333,1080,1077,1073,1073,1070,1070,1067,1063,1063,1060,1060,1060,1057,1057,1057,1057,1057,1060,1060,1063,1067,1067,1070,1070,1333,1328,1328,1328,1328,1328,1328,1328,1328,1328,1322,1322,1322,1322,1322,1322,1322,1322,1322,1322,1322,1322,1322,1322,1322,1322,1322,1322,1322,1322,1317,1317,1317,1317,1317,1317,1317,1317,1322,1322,1322,1322,1322,1317,1317,1317,1317,1312,1312,1312,1312,1312,1312,1312,1312,1312,1312,1312,1312,1312,1307,1307,1307,1307,1307,1307,1302,1302,1302,1307,1307,1307,1307,1307,1307,1307,1307,1307,1307,1307,1302,1302,1297,1297,1297,1297,1302,1297,1297,1297,1297,1297,1297,1292,1292,1292,1297,1297,1297,1297,1297,1292,1292,1292,1292,1292,1292,1292,1292,1292,1292,1292,1288,1288,1288,1288,1288,1288,1288,1288,1288,1288,1288,1283,1283,1283,1283,1278,1278,1278,1278,1278,1278,1278,1278,1283,1278,1278,1278,1278,1278,1278,1278,1278,1278,1278,1278,1278,1273,1273,1273,1273,1273,1273,1273,1268,1268,1268,1259,1255,1250,1250,1245,1245,1241,1241,1236,1236,1236,1236,1236,1236,1250,1250,1264,1268,1264,1259,1259,1259,1255,1255,1250,1250,1130,1123,1123,1119,1119,1112,1108,1105,1101,1097,1094,1094,1090,1090,1087,1084,1080,1073,1067,1067,1060,1057,1057,1054,1054,1054,1054,1054,948,946,946,946,946,946,946,943,943,943,943,943,943,0,0,0,0,0,0,0,0,0,0,0,0,0,0,0,0,0,0,0,0,0,0,0,0,0,0,0,0,0,0,0,0,0,0
0,0,0,0,0,0,0,0,0,0,0,1464,1464,1464,1464,1458,1458,1458,1452,1452,1452,1452,1452,1452,1458,1458,1458,1452,1452,1452,1452,1458,1452,1452,1452,1452,1452,1439,1433,1433,1439,1439,1439,1439,1439,1439,1439,1439,1439,1439,1439,1439,1433,1433,1439,1439,1439,1439,1439,1439,1439,1439,1439,1439,1439,1439,1439,1439,1439,1439,1439,1439,1439,1427,1427,1427,1427,0,0,0,0,0,0,0,943,938,938,935,935,935,933,933,933,933,933,935,935,935,938,938,943,946,948,948,948,951,954,954,954,956,0,0,0,1415,1415,1415,1415,1415,1415,1415,1415,1415,1415,1421,1415,1415,1415,1415,1415,1415,1415,1415,1415,1415,1415,1415,1415,1415,1415,1415,1415,1415,1415,1415,1410,1410,1410,1410,1410,1410,1410,1410,1410,1410,1410,1410,1404,1404,1398,1398,1404,1404,1404,1404,1404,1410,1410,1410,1404,1404,1404,1404,1404,1404,1404,1404,1410,1410,1410,1410,1410,1415,1112,1112,1115,1115,1115,1115,1119,1119,1119,1119,1119,1119,1123,1123,1123,1123,1123,1123,1123,1123,1123,1123,1123,1123,0,0,0,0,0,0,0,0,0,0,704,704,704,703,703,700,698,697,694,694,693,693,691,691,690,690,690,690,690,691,693,693,696,697,698,700,700,701,703,704,706,707,708,0,0,0,0,0,0,0,0,0,1283,1283,1283,1283,1283,1283,1283,1283,1283,1288,1288,1292,1292,1292,1297,1297,1370,1370,1365,1365,1365,1365,1365,1365,1365,1365,1365,1365,1365,1365,1365,1365,1365,1365,1359,1359,1359,1359,1354,1354,1354,1354,1354,1354,1354,1349,1349,1354,1354,1354,1349,1349,1349,1349,1349,1349,1349,1349,1349,1349,1349,1349,1349,1349,1349,1349,1349,1354,1354,1354,1349,1349,1349,1349,1343,1343,1343,1343,1343,1343,1343,1343,1343,1343,1343,1343,1343,1343,1343,1338,1338,1338,1338,1333,1333,1333,1333,1333,1333,1080,1077,1077,1073,1070,1070,1067,1067,1063,1063,1063,1060,1060,1057,1057,1057,1060,1060,1063,1067,1067,1067,1070,1070,1333,1322,1322,1317,1317,1317,1317,1317,1322,1322,1317,1317,1317,1317,1317,1317,1317,1317,1317,1317,1317,1317,1317,1317,1317,1317,1317,1317,1317,1317,1317,1312,1312,1312,1312,1312,1312,1312,1312,1312,1312,1317,1312,1312,1312,1312,1312,1312,1307,1307,1312,1312,1312,1307,1307,1307,1307,1307,1307,1307,1302,1302,1302,1297,1297,1297,1297,1297,1297,1297,1302,1297,1297,1302,1307,1307,1307,1302,1302,1302,1302,1297,1297,1297,1297,1297,1297,1297,1292,1292,1292,1292,1292,1292,1292,1292,1292,1292,1292,1292,1292,1292,1292,1288,1288,1288,1288,1288,1288,1288,1288,1288,1288,1288,1288,1288,1283,1283,1283,1283,1283,1283,1283,1283,1283,1278,1278,1273,1273,1273,1273,1273,1273,1273,1273,1273,1273,1273,1273,1273,1273,1273,1273,1273,1273,1273,1273,1273,1273,1273,1268,1268,1268,1268,1268,1268,1268,1264,1264,1255,1250,1250,1245,1245,1241,1241,1241,1241,1236,1236,1236,1241,1250,1250,1264,1264,1264,1259,1259,1255,1255,1255,1250,1250,1119,1119,1119,1119,1115,1112,1108,1105,1101,1094,1094,1090,1090,1087,1084,1080,1070,1067,1067,1063,1060,1057,1057,1054,1054,1054,1054,1054,946,946,946,946,946,946,946,943,943,943,943,943,943,0,0,0,0,0,0,0,0,0,0,0,0,0,0,0,0,0,0,0,0,0,0,0,0,0,0,0,0,0,0,0,0,0,0
0,0,0,0,0,0,0,0,0,0,0,1458,1458,1458,1452,1452,1452,1452,1445,1445,1452,1452,1452,1452,1452,1458,1452,1452,1445,1445,1452,1452,1439,1439,1445,1445,1445,1439,1433,1433,1439,1439,1439,1439,1439,1439,1439,1439,1433,1433,1433,1433,1433,1433,1433,1433,1433,1433,1433,1433,1433,1433,1433,1433,1433,1433,1433,1433,1433,1433,1433,1433,1433,1427,1427,1427,1427,1433,0,0,0,0,0,0,0,938,938,938,938,935,935,935,935,935,935,935,935,935,938,940,943,946,946,948,948,954,954,956,956,956,0,0,0,0,1415,1415,1415,1415,1415,1410,1410,1410,1410,1415,1410,1410,1410,1410,1410,1410,1410,1410,1410,1415,1415,1415,1415,1410,1410,1410,1410,1410,1410,1410,1404,1404,1404,1404,1404,1404,1404,1404,1404,1404,1404,1404,1398,1398,1398,1398,1398,1398,1398,1398,1404,1404,1404,1404,1398,1398,1404,1404,1404,1404,1404,1404,1410,1410,1410,1108,1108,1108,1108,1112,1112,1115,1115,1115,1115,1119,1119,1119,1119,1119,1119,1119,1119,1123,1123,1119,1119,1119,1119,1119,1119,1119,1119,0,0,0,0,0,0,0,0,0,708,704,704,704,703,703,700,698,697,696,694,693,693,691,691,690,690,691,691,691,693,694,696,697,698,700,701,701,704,706,707,708,710,713,713,0,0,0,0,0,0,0,1288,1283,1283,1283,1283,1283,1283,1283,1288,1288,1288,1292,1292,1297,1297,1297,1370,1365,1365,1365,1365,1365,1365,1365,1365,1365,1365,1365,1365,1365,1365,1365,1359,1359,1359,1354,1354,1354,1354,1349,1349,1354,1354,1349,1349,1349,1349,1349,1349,1349,1349,1349,1349,1343,1343,1343,1343,1349,1349,1349,1349,1349,1349,1349,1349,1349,1349,1349,1343,1343,1349,1349,1343,1343,1343,1338,1338,1338,1338,1338,1338,1338,1338,1343,1343,1343,1343,1338,1338,1338,1338,1333,1333,1333,1333,1333,1333,1328,1328,1080,1077,1077,1073,1070,1067,1067,1067,1063,1063,1063,1060,1060,1060,1060,1060,1060,1063,1063,1067,1067,1070,1070,1070,1322,1322,1317,1317,1312,1312,1312,1312,1312,1312,1312,1312,1317,1317,1312,1312,1312,1312,1312,1312,1312,1312,1312,1312,1312,1312,1312,1312,1312,1312,1312,1312,1307,1307,1312,1312,1312,1312,1312,1312,1312,1312,1312,1312,1312,1312,1307,1307,1302,1302,1307,1307,1307,1302,1302,1302,1302,1302,1302,1297,1297,1297,1292,1292,1292,1292,1292,1292,1292,1292,1297,1292,1292,1297,1297,1297,1297,1302,1302,1302,1297,1292,1292,1292,1292,1292,1292,1292,1292,1292,1292,1288,1288,1288,1288,1288,1288,1288,1288,1288,1288,1288,1288,1288,1288,1288,1283,1283,1288,1283,1283,1283,1283,1283,1283,1283,1278,1278,1278,1283,1283,1283,1278,1278,1278,1278,1273,1273,1273,1273,1273,1273,1273,1273,1273,1268,1268,1268,1264,1264,1264,1264,1268,1268,1268,1268,1268,1268,1268,1268,1268,1268,1268,1268,1268,1264,1264,1264,1259,1255,1250,1250,1250,1245,1241,1241,1241,1241,1241,1241,1241,1241,1250,1255,1255,1259,1259,1259,1255,1255,1255,1250,1250,1250,1119,1119,1119,1115,1115,1108,1105,1101,1097,1094,1094,1090,1090,1087,1080,1077,1067,1063,1060,1057,1057,1057,1054,1054,1054,1054,1060,1063,946,946,946,943,943,943,943,943,943,943,943,943,943,0,0,0,0,0,0,0,0,0,0,0,0,0,0,0,0,0,0,0,0,0,0,0,0,0,0,0,0,0,0,0,0,0,0
0,0,0,0,0,0,0,0,0,0,0,1458,1452,1452,1445,1445,1445,1445,1439,1439,1445,1445,1445,1439,1439,1445,1439,1439,1439,1439,1439,1439,1439,1439,1439,1445,1445,1439,1439,1445,1445,1439,1433,1433,1433,1433,1433,1433,1433,1433,1427,1427,1433,1433,1433,1433,1433,1433,1433,1427,1421,1421,1421,1427,1427,1427,1427,1427,1427,1427,1421,1421,1415,1415,1415,1421,1421,1421,0,0,0,0,0,0,0,940,940,940,940,938,938,935,935,935,935,935,935,938,938,940,943,946,946,951,951,954,954,956,956,956,956,0,0,0,1415,1410,1410,1410,1410,1404,1404,1404,1404,1404,1404,1404,1404,1404,1404,1410,1410,1410,1410,1410,1410,1404,1404,1404,1404,1404,1404,1404,1404,1404,1398,1398,1398,1398,1398,1398,1398,1398,1398,1398,1398,1392,1392,1392,1392,1392,1392,1392,1392,1392,1392,1392,1398,1398,1398,1398,1398,1398,1398,1398,1404,1404,1105,1105,1105,1105,1105,1105,1108,1112,1112,1112,1115,1115,1115,1115,1115,1115,1115,1119,1119,1119,1119,1115,1115,1119,1119,1119,1115,1115,1115,1115,1115,1115,0,0,0,0,0,0,0,0,710,704,704,704,704,703,700,698,698,697,696,694,693,693,691,691,691,691,691,691,693,694,696,697,698,700,701,703,704,706,707,710,711,713,713,713,0,0,0,0,0,0,0,1288,1288,1283,1283,1283,1283,1283,1288,1288,1288,1292,1292,1297,1297,1297,1370,1359,1359,1359,1359,1359,1359,1359,1359,1359,1359,1359,1359,1359,1359,1359,1354,1354,1354,1349,1349,1349,1349,1349,1349,1349,1349,1349,1349,1343,1343,1343,1343,1343,1343,1343,1343,1343,1343,1343,1343,1349,1349,1349,1349,1349,1343,1343,1343,1343,1343,1343,1338,1338,1338,1338,1338,1338,1338,1338,1338,1338,1333,1333,1338,1338,1338,1338,1338,1338,1338,1333,1333,1333,1333,1333,1333,1333,1328,1328,1328,1328,1328,1080,1077,1073,1070,1067,1067,1067,1063,1063,1063,1063,1063,1060,1060,1060,1060,1060,1063,1063,1067,1070,1070,1073,1073,1080,1322,1312,1312,1312,1312,1312,1312,1312,1312,1312,1312,1312,1312,1312,1312,1312,1312,1312,1312,1312,1312,1312,1312,1312,1312,1312,1312,1312,1312,1307,1307,1307,1307,1307,1307,1307,1307,1307,1307,1312,1312,1307,1307,1307,1307,1307,1302,1297,1297,1302,1302,1302,1302,1302,1302,1302,1297,1297,1297,1297,1292,1292,1292,1292,1292,1292,1292,1292,1292,1292,1292,1292,1292,1292,1292,1292,1292,1292,1292,1292,1292,1292,1292,1292,1292,1292,1292,1288,1288,1288,1288,1288,1283,1283,1283,1283,1283,1283,1283,1288,1283,1283,1288,1288,1283,1283,1283,1283,1278,1278,1278,1278,1278,1278,1278,1273,1273,1273,1278,1278,1278,1278,1273,1273,1273,1273,1268,1268,1268,1268,1268,1268,1268,1268,1264,1264,1264,1264,1259,1259,1259,1259,1264,1259,1259,1264,1268,1264,1264,1264,1264,1264,1264,1264,1264,1264,1259,1255,1255,1250,1250,1245,1245,1241,1241,1241,1241,1241,1241,1241,1241,1250,1250,1255,1255,1255,1255,1255,1250,1250,1250,1245,1245,1245,1115,1115,1112,1112,1108,1105,1101,1097,1094,1090,1090,1087,1084,1080,1077,1063,1063,1060,1057,1054,1054,1054,1054,1054,1054,1063,946,946,946,946,943,943,943,943,943,943,943,943,943,943,0,0,0,0,0,0,0,0,0,0,0,0,0,0,0,0,0,0,0,0,0,0,0,0,0,0,0,0,0,0,0,0,0,0
0,0,0,0,0,0,0,0,0,0,0,1452,1445,1439,1439,1445,1439,1439,1439,1433,1433,1433,1433,1427,1427,1421,1421,1427,1433,1433,1433,1433,1427,1427,1433,1433,1439,1439,1439,1439,1439,1439,1433,1433,1433,1433,1433,1427,1427,1427,1427,1427,1427,1427,1427,1427,1427,1427,1427,1427,1421,1421,1421,1427,1427,1427,1427,1421,1421,1421,1421,1415,1415,1410,1410,1410,1410,1421,0,0,0,0,0,0,0,0,940,940,940,940,938,938,935,935,938,938,938,938,938,940,946,946,946,948,951,954,956,956,956,956,956,0,0,0,0,1410,1410,1404,1404,1404,1404,1404,1404,1398,1398,1398,1398,1398,1404,1404,1404,1404,1404,1404,1404,1398,1398,1398,1398,1398,1398,1398,1398,1392,1392,1392,1392,1392,1392,1392,1392,1392,1392,1392,1392,1392,1392,1392,1392,1392,1392,1392,1392,1392,1392,1392,1392,1392,1392,1392,1392,1392,1392,1392,1105,1105,1105,1105,1105,1105,1105,1105,1108,1108,1112,1112,1112,1112,1115,1115,1115,1115,1115,1115,1115,1119,1119,1115,1115,1112,1112,1112,1112,1112,1115,1115,1112,1112,0,0,0,0,0,0,0,0,710,708,706,706,704,704,703,700,698,697,697,696,694,693,693,691,691,691,691,693,693,694,697,697,698,700,701,703,704,706,708,711,713,713,713,713,0,0,0,0,0,0,0,0,1288,1288,1288,1288,1288,1288,1288,1288,1292,1292,1297,1302,1302,1302,1307,1354,1354,1354,1359,1354,1354,1354,1354,1354,1354,1354,1354,1354,1354,1354,1349,1349,1349,1349,1349,1343,1343,1343,1343,1343,1343,1343,1343,1343,1343,1338,1338,1338,1338,1338,1338,1338,1338,1343,1343,1349,1343,1343,1343,1343,1338,1338,1338,1338,1338,1338,1338,1333,1333,1333,1333,1333,1333,1333,1333,1333,1333,1333,1333,1333,1333,1333,1333,1333,1333,1333,1328,1328,1328,1328,1328,1328,1328,1328,1328,1328,1328,1073,1073,1070,1067,1063,1063,1063,1063,1063,1063,1063,1063,1063,1060,1060,1063,1063,1063,1067,1070,1070,1073,1073,1077,1080,1312,1312,1312,1312,1312,1312,1312,1307,1307,1307,1307,1307,1307,1307,1307,1307,1307,1307,1307,1307,1307,1307,1307,1307,1307,1307,1307,1307,1307,1307,1307,1302,1302,1302,1302,1302,1302,1302,1307,1307,1307,1307,1302,1302,1302,1302,1297,1292,1292,1292,1297,1297,1297,1297,1297,1297,1297,1297,1292,1292,1292,1292,1292,1292,1292,1292,1292,1288,1288,1288,1288,1288,1288,1288,1288,1288,1288,1288,1288,1288,1288,1288,1288,1288,1288,1288,1288,1288,1288,1288,1283,1283,1283,1278,1278,1278,1278,1278,1278,1278,1283,1278,1278,1283,1283,1278,1278,1278,1278,1278,1273,1273,1273,1273,1273,1273,1273,1273,1273,1273,1273,1273,1273,1273,1268,1268,1268,1268,1268,1268,1268,1264,1264,1264,1264,1264,1264,1259,1259,1255,1255,1259,1259,1259,1255,1255,1255,1255,1259,1259,1259,1259,1259,1259,1259,1259,1259,1255,1255,1250,1250,1245,1245,1241,1241,1241,1241,1241,1241,1241,1245,1250,1250,1250,1250,1250,1250,1250,1245,1245,1245,1245,1245,1112,1112,1115,1112,1108,1105,1101,1097,1094,1094,1090,1087,1087,1080,1077,1067,1063,1060,1057,1057,1054,1054,1054,1054,1054,1060,1063,946,946,946,946,943,943,943,943,943,943,943,946,946,946,0,0,0,0,0,0,0,0,0,0,0,0,0,0,0,0,0,0,0,0,0,0,0,0,0,0,0,0,0,0,0,0,0,0
0,0,0,0,0,0,0,0,0,0,0,1452,1445,1439,1433,1433,1433,1433,1433,1433,1427,1421,1421,1421,1421,1421,1421,1421,1427,1427,1433,1433,1427,1427,1433,1433,1433,1433,1433,1433,1433,1433,1433,1427,1427,1427,1427,1427,1427,1421,1421,1421,1421,1421,1421,1421,1421,1421,1421,1421,1415,1415,1415,1421,1421,1421,1421,1421,1421,1421,1415,1415,1410,1410,1410,1410,1410,0,0,0,0,0,0,0,0,0,0,943,943,943,940,940,938,938,938,938,938,938,940,943,946,946,948,948,954,956,956,956,956,956,956,956,0,0,0,1410,1404,1404,1404,1404,1398,1398,1398,1392,1392,1392,1392,1392,1392,1398,1398,1398,1398,1398,1398,1398,1392,1392,1392,1392,1392,1392,1392,1392,1392,1392,1392,1392,1392,1392,1392,1392,1387,1387,1392,1387,1387,1387,1387,1387,1387,1387,1387,1387,1387,1387,1387,1387,1387,1090,1090,1090,1094,1097,1101,1101,1101,1101,1105,1105,1105,1105,1105,1108,1108,1108,1112,1112,1112,1115,1115,1115,1115,1115,1115,1119,1115,1115,1115,1112,1112,1108,1108,1105,1105,1105,1105,1105,1108,0,0,0,0,0,0,0,710,708,707,706,706,704,703,701,700,698,697,696,696,694,693,693,693,693,693,693,694,696,697,698,698,700,701,703,704,707,708,711,713,713,714,714,0,0,0,0,0,0,0,0,1288,1288,1288,1288,1288,1288,1288,1292,1292,1297,1297,1302,1302,1302,1307,1338,1349,1349,1349,1349,1349,1349,1349,1349,1349,1349,1349,1349,1349,1349,1349,1349,1349,1343,1343,1343,1343,1343,1343,1343,1343,1343,1338,1338,1338,1338,1338,1333,1333,1338,1338,1338,1338,1338,1338,1343,1343,1338,1338,1338,1338,1333,1333,1333,1333,1333,1333,1333,1333,1333,1333,1328,1328,1328,1328,1328,1328,1328,1328,1328,1328,1328,1333,1328,1328,1328,1328,1328,1328,1328,1328,1328,1328,1328,1328,1328,1328,1073,1073,1063,1063,1063,1063,1063,1063,1060,1060,1060,1063,1063,1063,1063,1063,1063,1067,1067,1070,1070,1073,1077,1077,1080,1317,1312,1307,1307,1307,1307,1307,1307,1307,1307,1307,1307,1307,1307,1307,1307,1307,1307,1302,1302,1302,1302,1302,1302,1302,1302,1302,1302,1302,1302,1302,1302,1297,1297,1297,1302,1302,1302,1302,1302,1302,1302,1297,1297,1297,1292,1292,1292,1292,1292,1292,1292,1292,1292,1292,1292,1292,1292,1292,1292,1292,1292,1288,1288,1288,1288,1288,1288,1288,1288,1288,1283,1283,1283,1283,1278,1278,1278,1278,1278,1283,1283,1283,1283,1283,1283,1283,1283,1283,1283,1283,1283,1283,1278,1278,1278,1278,1278,1278,1278,1278,1278,1278,1278,1278,1273,1273,1273,1273,1273,1273,1273,1273,1273,1273,1273,1273,1273,1273,1273,1268,1268,1268,1268,1268,1268,1268,1268,1268,1268,1264,1264,1264,1264,1259,1259,1259,1255,1255,1255,1255,1255,1255,1255,1255,1255,1255,1255,1255,1255,1255,1255,1255,1255,1255,1255,1255,1255,1250,1250,1250,1245,1245,1241,1241,1241,1241,1241,1241,1241,1245,1245,1250,1250,1250,1250,1250,1245,1245,1245,1245,1241,1241,1112,1108,1108,1108,1108,1105,1101,1097,1094,1090,1087,1087,1084,1077,1073,1063,1060,1060,1057,1054,1054,1054,1054,1054,1054,940,940,940,943,943,943,943,943,943,943,943,943,943,946,946,946,0,0,0,0,0,0,0,0,0,0,0,0,0,0,0,0,0,0,0,0,0,0,0,0,0,0,0,0,0,0,0,0,0,0
0,0,0,0,0,0,0,0,0,0,0,1445,1439,1433,1433,1427,1427,1427,1427,1421,1421,1421,1421,1421,1421,1415,1415,1415,1421,1421,1427,1427,1421,1421,1427,1427,1427,1427,1415,1415,1427,1427,1421,1421,1415,1415,1421,1421,1421,1415,1415,1415,1421,1421,1415,1415,1415,1415,1415,1415,1415,1415,1415,1415,1415,1415,1415,1415,1415,1415,1410,1410,1410,1404,1404,1404,1404,1404,0,0,0,0,0,0,0,0,0,946,943,943,940,940,938,938,938,938,940,940,940,943,946,946,948,948,954,956,956,956,956,956,956,956,0,0,0,0,1404,1398,1398,1398,1398,1398,1392,1392,1392,1387,1387,1387,1387,1392,1392,1392,1392,1392,1392,1392,1392,1392,1392,1392,1392,1392,1392,1387,1387,1387,1387,1387,1387,1387,1392,1387,1387,1387,1387,1387,1387,1387,1387,1387,1387,1387,1381,1381,1387,1387,1387,1387,1387,1090,1090,1090,1090,1094,1094,1097,1097,1101,1101,1101,1101,1101,1101,1105,1105,1108,1108,1108,1112,1115,1115,1115,1115,1115,1115,1119,1115,1115,1112,1112,1108,1108,1105,1105,1105,1105,1105,1105,1101,1101,0,0,0,0,0,0,0,708,708,706,706,704,703,703,700,698,698,697,696,694,693,693,693,693,693,693,694,696,697,698,700,701,703,704,706,707,708,711,713,713,714,714,0,0,0,0,0,0,0,0,0,1288,1288,1288,1288,1288,1288,1292,1297,1297,1297,1302,1302,1307,1307,1322,1338,1338,1343,1349,1349,1349,1349,1349,1349,1349,1349,1349,1349,1343,1343,1343,1343,1343,1343,1343,1338,1338,1338,1338,1338,1338,1338,1333,1333,1333,1333,1328,1328,1333,1333,1333,1333,1333,1333,1338,1338,1333,1333,1333,1333,1333,1333,1333,1333,1333,1333,1333,1333,1328,1328,1328,1328,1328,1328,1328,1328,1322,1322,1322,1322,1317,1317,1317,1317,1317,1322,1322,1322,1322,1322,1328,1328,1328,1328,1328,1060,1060,1060,1057,1057,1060,1060,1060,1060,1060,1060,1060,1060,1060,1063,1063,1063,1063,1067,1067,1070,1073,1073,1077,1077,1312,1312,1307,1307,1307,1307,1307,1302,1302,1302,1302,1302,1302,1302,1297,1297,1302,1302,1302,1302,1302,1297,1297,1292,1292,1292,1297,1297,1297,1297,1297,1297,1297,1297,1297,1297,1297,1297,1297,1297,1297,1297,1292,1292,1292,1292,1292,1292,1288,1288,1288,1288,1292,1292,1292,1292,1292,1292,1292,1288,1288,1288,1288,1288,1288,1288,1288,1288,1288,1288,1283,1283,1283,1283,1283,1278,1278,1273,1273,1278,1278,1278,1278,1278,1278,1278,1278,1278,1278,1273,1273,1273,1278,1278,1273,1273,1273,1273,1273,1273,1273,1273,1273,1273,1273,1273,1273,1273,1268,1268,1268,1268,1268,1268,1268,1268,1268,1268,1268,1268,1268,1268,1268,1264,1264,1268,1264,1264,1264,1264,1264,1264,1259,1259,1259,1255,1255,1255,1255,1255,1250,1250,1250,1250,1255,1250,1250,1250,1250,1250,1255,1255,1255,1255,1255,1255,1255,1255,1250,1250,1250,1245,1245,1245,1241,1241,1241,1241,1241,1241,1241,1245,1245,1245,1245,1245,1245,1245,1245,1245,1241,1241,1236,1236,1245,1108,1108,1108,1105,1105,1101,1097,1094,1087,1084,1080,1080,1073,1070,1063,1060,1057,1057,1054,1054,1054,1054,1054,940,940,940,940,940,943,943,943,943,943,943,943,943,946,946,946,946,0,0,0,0,0,0,0,0,0,0,0,0,0,0,0,0,0,0,0,0,0,0,0,0,0,0,0,0,0,0,0,0,0,0
0,0,0,0,0,0,0,0,0,0,0,1427,1427,1427,1427,1421,1421,1421,1421,1421,1415,1415,1415,1415,1415,1415,1415,1415,1421,1421,1421,1421,1421,1421,1421,1421,1421,1421,1415,1415,1415,1415,1415,1415,1415,1415,1415,1415,1415,1415,1415,1415,1415,1415,1415,1415,1415,1415,1410,1410,1410,1410,1410,1410,1410,1410,1415,1415,1410,1410,1404,1404,1404,1404,1398,1398,1398,1398,1398,0,0,0,0,0,0,0,0,946,946,946,943,943,940,940,940,940,940,940,943,946,946,946,948,948,954,956,956,959,959,959,959,959,962,962,0,1404,1404,1392,1392,1392,1392,1392,1392,1387,1387,1387,1387,1387,1387,1387,1387,1387,1392,1392,1392,1392,1387,1387,1387,1387,1387,1387,1381,1381,1381,1381,1381,1381,1381,1381,1381,1381,1381,1381,1387,1387,1387,1387,1387,1387,1387,1387,1381,1381,1387,1387,1387,1387,1094,1090,1090,1090,1090,1094,1094,1094,1094,1097,1101,1101,1101,1101,1101,1105,1105,1105,1105,1108,1112,1112,1115,1115,1115,1115,1115,1115,1115,1115,1112,1112,1108,1108,1105,1105,1105,1105,1105,1101,1101,1101,0,0,0,0,0,0,0,710,708,707,707,706,704,703,701,700,698,697,697,696,694,694,693,693,694,694,696,697,698,698,700,701,703,704,706,707,710,711,713,713,714,714,0,0,0,0,0,0,0,0,0,1292,1292,1292,1288,1288,1292,1292,1297,1297,1302,1302,1307,1307,1312,1322,1333,1338,1338,1338,1338,1338,1343,1343,1343,1343,1343,1343,1343,1343,1338,1338,1338,1338,1338,1338,1333,1333,1333,1333,1333,1333,1333,1333,1328,1328,1328,1328,1328,1328,1328,1328,1328,1333,1333,1333,1333,1333,1333,1333,1328,1328,1328,1328,1328,1328,1328,1328,1328,1328,1322,1322,1322,1322,1322,1317,1317,1317,1317,1317,1317,1312,1312,1312,1312,1312,1312,1317,1317,1317,1317,1322,1322,1322,1322,1054,1054,1054,1054,1054,1054,1057,1057,1057,1057,1057,1057,1060,1060,1060,1063,1063,1063,1067,1067,1070,1073,1077,1077,1077,1077,1307,1307,1302,1302,1302,1302,1302,1297,1297,1297,1297,1297,1297,1297,1297,1297,1297,1297,1297,1297,1297,1292,1292,1292,1292,1292,1292,1288,1288,1292,1292,1297,1292,1292,1292,1292,1292,1292,1292,1292,1297,1297,1292,1292,1288,1288,1288,1288,1288,1288,1288,1288,1288,1288,1288,1288,1288,1288,1288,1288,1288,1288,1288,1288,1288,1283,1283,1283,1283,1283,1278,1278,1278,1278,1278,1278,1273,1273,1273,1273,1273,1273,1273,1273,1278,1278,1273,1273,1273,1273,1273,1273,1273,1268,1268,1268,1268,1268,1268,1268,1268,1268,1268,1268,1268,1273,1268,1268,1268,1268,1268,1268,1264,1264,1264,1264,1264,1264,1264,1264,1264,1264,1259,1259,1259,1259,1259,1259,1259,1259,1259,1255,1255,1255,1255,1255,1250,1250,1250,1250,1250,1250,1250,1250,1250,1250,1250,1250,1250,1250,1250,1250,1250,1255,1255,1250,1250,1250,1245,1245,1250,1245,1245,1245,1241,1241,1241,1241,1241,1241,1241,1241,1245,1245,1245,1241,1241,1241,1241,1241,1236,1236,1232,1232,1108,1108,1108,1108,1105,1105,1101,1097,1090,1084,1080,1080,1077,1070,1067,1063,1057,1057,1054,1054,1054,938,938,938,938,938,940,940,940,940,943,940,940,943,943,943,943,946,946,946,946,0,0,0,0,0,0,0,0,0,0,0,0,0,0,0,0,0,0,0,0,0,0,0,0,0,0,0,0,0,0,0,0,0,0
0,0,0,0,0,0,0,0,0,0,1415,1415,1415,1415,1415,1415,1415,1415,1415,1415,1415,1415,1415,1415,1415,1410,1410,1410,1410,1415,1415,1415,1415,1415,1415,1415,1415,1415,1415,1415,1415,1415,1415,1415,1410,1410,1415,1415,1410,1410,1410,1410,1410,1410,1410,1410,1410,1410,1410,1410,1410,1410,1410,1410,1404,1404,1410,1410,1410,1404,1398,1398,1398,1398,1398,1398,1392,1392,1398,1398,1398,0,0,0,0,0,0,948,946,946,946,946,943,943,943,940,940,943,943,946,946,946,948,948,954,956,956,959,959,959,959,959,959,0,0,0,0,1387,1387,1387,1387,1387,1387,1387,1381,1381,1381,1381,1387,1387,1387,1387,1387,1387,1387,1387,1387,1387,1387,1387,1387,1387,1381,1376,1376,1376,1376,1381,1376,1376,1376,1376,1381,1381,1376,1376,1381,1387,1381,1381,1381,1381,1381,1381,1381,1387,1090,1090,1090,1090,1090,1090,1090,1090,1090,1094,1094,1094,1097,1097,1097,1097,1097,1101,1101,1105,1105,1105,1108,1112,1112,1115,1115,1115,1115,1115,1115,1115,1112,1112,1108,1108,1105,1105,1105,1101,1101,1101,1101,1101,0,0,0,0,0,0,0,0,708,707,707,706,706,704,703,701,700,698,697,697,696,696,694,694,694,694,696,697,698,698,700,703,704,704,707,708,710,713,713,713,714,714,0,0,0,0,0,0,0,0,0,1292,1292,1292,1292,1292,1297,1297,1297,1297,1302,1307,1307,1312,1312,1322,1328,1333,1333,1338,1338,1338,1338,1338,1338,1338,1338,1338,1338,1338,1338,1333,1333,1333,1333,1333,1333,1333,1328,1328,1328,1328,1328,1328,1328,1328,1322,1322,1322,1328,1328,1328,1328,1328,1328,1328,1328,1328,1328,1328,1322,1322,1322,1322,1322,1322,1322,1322,1322,1322,1317,1317,1317,1317,1317,1317,1317,1312,1312,1312,1312,1312,1312,1312,1307,1307,1307,1307,1307,1302,1302,1312,1312,1322,1322,1054,1050,1050,1050,1054,1054,1054,1054,1054,1054,1054,1054,1057,1060,1060,1063,1063,1067,1067,1070,1070,1073,1077,1077,1077,1077,1307,1307,1297,1297,1297,1297,1292,1292,1297,1292,1292,1292,1292,1292,1292,1292,1292,1292,1292,1292,1292,1292,1292,1288,1288,1288,1288,1288,1288,1288,1288,1288,1288,1288,1292,1292,1292,1292,1292,1292,1292,1292,1292,1288,1288,1288,1288,1288,1288,1288,1288,1288,1288,1288,1288,1288,1288,1283,1283,1283,1283,1283,1283,1283,1283,1283,1278,1278,1278,1278,1273,1273,1273,1273,1273,1273,1273,1273,1273,1273,1273,1273,1273,1273,1273,1273,1273,1268,1268,1268,1268,1268,1268,1268,1268,1268,1268,1264,1264,1264,1264,1264,1264,1268,1268,1268,1268,1268,1268,1264,1264,1264,1264,1259,1259,1259,1259,1259,1259,1259,1259,1259,1259,1259,1259,1259,1255,1255,1255,1255,1255,1250,1250,1250,1250,1250,1250,1250,1250,1250,1245,1245,1250,1250,1250,1250,1250,1250,1250,1250,1250,1250,1250,1255,1255,1250,1250,1250,1245,1245,1245,1241,1241,1241,1241,1241,1241,1241,1241,1241,1241,1241,1241,1241,1241,1236,1236,1236,1236,1236,1232,1232,1227,1119,1112,1108,1108,1108,1105,1101,1101,1094,1087,1084,1080,1077,1073,1070,1063,1060,1057,1054,1054,1054,938,938,938,938,938,938,938,938,940,940,943,940,940,943,943,943,943,946,946,946,946,0,0,0,0,0,0,0,0,0,0,0,0,0,0,0,0,0,0,0,0,0,0,0,0,0,0,0,0,0,0,0,0,0,0
0,0,0,0,0,0,0,0,0,0,1415,1415,1415,1415,1415,1410,1410,1410,1410,1410,1410,1410,1410,1410,1410,1410,1410,1410,1410,1410,1410,1410,1410,1410,1415,1410,1410,1415,1415,1415,1410,1410,1410,1410,1410,1410,1410,1410,1410,1410,1404,1404,1410,1410,1404,1404,1404,1404,1404,1404,1404,1404,1404,1404,1404,1404,1404,1404,1404,1398,1398,1398,1398,1398,1392,1392,1392,1392,1392,1392,1392,1398,0,0,0,0,0,0,948,948,948,946,946,943,943,943,943,943,943,946,946,948,948,951,954,956,956,959,959,959,959,959,959,959,0,0,0,1387,1387,1381,1381,1381,1387,1381,1376,1376,1376,1376,1381,1381,1381,1381,1381,1381,1381,1381,1381,1381,1381,1381,1376,1376,1376,1370,1370,1370,1370,1376,1370,1370,1370,1370,1370,1370,1370,1370,1376,1381,1376,1376,1381,1381,1381,1381,1381,1090,1090,1090,1090,1090,1090,1090,1090,1090,1090,1090,1094,1094,1097,1097,1097,1097,1097,1101,1101,1105,1105,1105,1108,1112,1112,1115,1115,1115,1115,1115,1115,1115,1112,1112,1108,1108,1105,1105,1101,1101,1101,1101,1101,1101,0,0,0,0,0,0,0,0,710,708,708,708,707,706,704,703,700,698,698,697,697,696,696,696,696,696,696,697,698,698,701,703,704,706,707,708,711,713,713,714,714,716,0,0,0,0,0,0,0,0,0,1297,1297,1292,1292,1292,1297,1297,1297,1302,1302,1307,1307,1312,1317,1322,1328,1328,1328,1333,1333,1333,1333,1333,1333,1333,1333,1333,1328,1328,1328,1333,1333,1328,1328,1328,1328,1328,1328,1328,1328,1328,1322,1322,1322,1322,1322,1322,1322,1322,1322,1322,1322,1322,1322,1328,1328,1322,1322,1322,1322,1317,1317,1322,1322,1317,1317,1317,1317,1317,1317,1312,1312,1312,1312,1312,1312,1307,1307,1307,1307,1307,1307,1307,1307,1307,1307,1307,1307,1302,1297,1297,1312,1050,1050,1050,1050,1050,1050,1050,1050,1050,1050,1050,1054,1054,1054,1054,1057,1060,1060,1063,1067,1067,1070,1073,1073,1077,1077,1077,1080,1087,1288,1288,1288,1292,1292,1292,1292,1292,1292,1292,1288,1288,1288,1288,1288,1288,1288,1288,1292,1292,1288,1288,1288,1288,1288,1283,1283,1283,1283,1283,1283,1283,1283,1283,1283,1283,1283,1288,1288,1288,1288,1288,1288,1283,1283,1283,1288,1283,1283,1283,1283,1283,1283,1283,1283,1283,1278,1278,1278,1283,1283,1283,1283,1278,1278,1278,1273,1273,1273,1268,1268,1268,1268,1268,1268,1268,1268,1268,1268,1268,1268,1268,1268,1268,1268,1268,1268,1264,1264,1264,1264,1264,1259,1259,1264,1259,1259,1259,1259,1259,1259,1264,1259,1259,1264,1264,1264,1264,1259,1259,1259,1259,1259,1259,1259,1259,1259,1259,1259,1259,1259,1255,1255,1255,1255,1255,1250,1250,1250,1250,1250,1245,1245,1245,1245,1245,1245,1245,1245,1245,1245,1245,1245,1250,1245,1245,1245,1250,1250,1250,1255,1255,1255,1255,1255,1250,1250,1245,1245,1245,1236,1236,1232,1232,1232,1232,1236,1236,1236,1236,1236,1236,1236,1236,1236,1236,1232,1232,1232,1227,1227,1223,1119,1108,1108,1108,1105,1101,1101,1097,1090,1084,1080,1080,1077,1073,1070,1063,1057,1054,1054,1054,1054,938,938,938,938,938,938,938,938,940,940,943,943,943,943,943,943,943,943,946,946,946,0,0,0,0,0,0,0,0,0,0,0,0,0,0,0,0,0,0,0,0,0,0,0,0,0,0,0,0,0,0,0,0,0,0
0,0,0,0,0,0,0,0,0,0,1410,1410,1410,1410,1410,1404,1398,1398,1404,1404,1404,1404,1404,1410,1410,1410,1410,1404,1404,1404,1392,1392,1392,1392,1392,1410,1410,1410,1410,1410,1410,1410,1410,1410,1410,1410,1410,1404,1404,1404,1404,1404,1404,1404,1404,1404,1398,1398,1392,1392,1392,1398,1398,1398,1392,1392,1398,1398,1398,1392,1392,1392,1392,1392,1392,1392,1392,1392,1392,1392,1392,1398,0,0,0,0,0,0,951,948,948,948,946,946,946,946,946,946,946,946,946,948,948,951,954,956,956,959,962,962,962,962,962,962,0,0,0,1381,1381,1376,1376,1381,1381,1381,1376,1376,1376,1376,1376,1376,1376,1376,1376,1376,1381,1381,1381,1376,1376,1376,1376,1376,1370,1370,1370,1365,1365,1370,1370,1370,1370,1370,1370,1370,1370,1370,1376,1376,1370,1370,1376,1376,1376,1381,1084,1084,1087,1090,1090,1090,1087,1087,1090,1090,1090,1090,1090,1090,1094,1097,1097,1097,1097,1101,1105,1105,1105,1108,1108,1112,1112,1115,1115,1115,1115,1119,1115,1115,1112,1112,1108,1108,1105,1105,1101,1101,1101,1101,1101,1097,1097,0,0,0,0,0,0,0,0,710,710,708,708,707,707,703,701,700,698,698,697,697,696,696,696,696,697,697,698,700,701,703,704,706,707,708,711,713,714,714,714,716,0,0,0,0,0,0,0,0,0,1297,1297,1297,1297,1297,1297,1297,1302,1302,1302,1307,1307,1312,1317,1322,1328,1328,1328,1333,1328,1328,1328,1328,1328,1328,1328,1322,1322,1322,1322,1322,1322,1322,1328,1328,1328,1328,1328,1328,1328,1322,1322,1322,1317,1317,1317,1317,1312,1312,1317,1317,1317,1317,1317,1322,1322,1322,1317,1317,1317,1317,1317,1317,1317,1312,1312,1312,1312,1312,1312,1312,1312,1312,1312,1307,1307,1307,1307,1307,1307,1307,1307,1307,1307,1302,1302,1302,1302,1297,1297,1297,1044,1044,1044,1047,1047,1047,1047,1047,1047,1047,1050,1050,1050,1054,1054,1054,1057,1060,1060,1063,1067,1067,1070,1073,1077,1077,1080,1080,1080,1087,1283,1283,1283,1288,1288,1288,1288,1288,1292,1288,1288,1288,1288,1288,1283,1283,1283,1283,1288,1288,1283,1283,1283,1283,1283,1278,1278,1278,1278,1278,1278,1278,1278,1278,1278,1278,1278,1278,1278,1278,1278,1288,1283,1283,1283,1283,1283,1278,1278,1278,1278,1278,1278,1278,1278,1278,1273,1273,1273,1278,1278,1278,1273,1273,1273,1273,1273,1268,1268,1268,1268,1268,1268,1268,1268,1268,1268,1268,1268,1268,1268,1268,1264,1264,1264,1264,1264,1259,1255,1255,1259,1255,1255,1255,1255,1259,1255,1255,1255,1255,1255,1255,1255,1255,1255,1259,1259,1259,1259,1259,1255,1255,1255,1255,1255,1255,1255,1255,1255,1255,1255,1255,1255,1255,1250,1250,1250,1250,1250,1250,1245,1245,1245,1245,1245,1245,1245,1245,1245,1245,1241,1241,1245,1245,1245,1245,1245,1185,1181,1181,1181,1181,1181,1185,1185,1189,1189,1193,1197,1197,1197,1232,1227,1227,1227,1232,1227,1223,1223,1223,1232,1232,1232,1232,1232,1232,1227,1227,1223,1223,1223,1223,1223,1105,1105,1105,1101,1097,1097,1094,1087,1084,1080,1077,1077,1073,1067,1063,1057,1054,1054,1054,935,935,938,938,938,938,938,938,938,940,940,943,940,940,943,943,943,943,943,946,946,946,0,0,0,0,0,0,0,0,0,0,0,0,0,0,0,0,0,0,0,0,0,0,0,0,0,0,0,0,0,0,0,0,0,0
0,0,0,0,0,0,0,0,0,0,1410,1410,1404,1404,1404,1398,1398,1398,1398,1398,1398,1398,1398,1398,1404,1404,1404,1398,1398,1392,1392,1392,1392,1392,1392,1392,1392,1398,1398,1398,1404,1404,1410,1410,1404,1404,1404,1404,1398,1398,1398,1398,1398,1398,1398,1398,1398,1392,1387,1387,1387,1387,1392,1392,1392,1392,1392,1392,1392,1392,1392,1392,1387,1387,1387,1387,1387,1387,1387,1387,1387,1387,1387,0,0,0,0,0,954,954,954,951,948,948,946,946,946,946,946,946,948,948,948,954,954,956,956,959,962,962,964,964,964,964,964,0,1381,1381,1376,1376,1376,1376,1376,1376,1370,1370,1370,1370,1370,1370,1370,1370,1370,1376,1376,1376,1376,1376,1370,1370,1370,1370,1365,1365,1365,1365,1365,1365,1365,1365,1365,1365,1365,1365,1370,1370,1370,1370,1370,1370,1077,1077,1077,1077,1077,1077,1080,1087,1087,1087,1087,1087,1087,1087,1087,1090,1090,1090,1090,1094,1094,1097,1097,1101,1105,1105,1105,1108,1112,1112,1115,1115,1115,1115,1115,1119,1115,1115,1115,1112,1108,1108,1105,1105,1105,1101,1101,1101,1097,1094,1094,0,0,0,0,0,0,0,0,711,710,710,710,708,708,706,703,701,700,698,698,697,697,697,697,697,697,698,698,700,701,703,704,706,707,708,711,713,714,716,716,717,0,0,0,0,0,0,0,0,0,1302,1302,1302,1302,1302,1302,1302,1302,1302,1307,1307,1307,1312,1317,1322,1322,1328,1328,1328,1328,1328,1328,1322,1322,1322,1322,1322,1322,1317,1317,1317,1317,1317,1317,1317,1322,1322,1322,1322,1322,1322,1317,1317,1317,1312,1312,1312,1307,1307,1312,1312,1312,1312,1312,1317,1317,1317,1317,1312,1312,1312,1312,1312,1312,1312,1312,1307,1307,1307,1307,1307,1307,1307,1307,1307,1307,1302,1302,1302,1302,1302,1302,1302,1302,1297,1297,1297,1297,1297,1297,1038,1038,1041,1041,1041,1041,1041,1044,1044,1047,1047,1047,1050,1050,1050,1054,1054,1057,1060,1060,1063,1067,1070,1070,1073,1077,1080,1080,1080,1084,1090,1090,1283,1283,1288,1288,1283,1283,1288,1288,1288,1283,1283,1283,1283,1278,1278,1278,1278,1278,1283,1278,1278,1278,1278,1278,1278,1273,1273,1273,1273,1273,1273,1273,1273,1273,1273,1273,1273,1273,1273,1273,1273,1273,1273,1278,1278,1278,1278,1273,1273,1273,1273,1273,1273,1273,1273,1273,1273,1273,1273,1273,1273,1273,1273,1268,1268,1268,1268,1264,1264,1264,1264,1264,1264,1264,1264,1264,1264,1264,1264,1264,1264,1264,1264,1259,1259,1259,1255,1255,1255,1255,1250,1250,1255,1255,1255,1255,1255,1255,1255,1250,1250,1250,1250,1255,1250,1250,1250,1255,1255,1255,1255,1255,1255,1255,1255,1255,1255,1255,1250,1250,1250,1250,1250,1250,1250,1250,1250,1245,1245,1241,1236,1236,1236,1236,1236,1236,1236,1236,1236,1232,1232,1236,1202,1197,1193,1189,1185,1181,1181,1181,1181,1181,1185,1185,1189,1189,1193,1193,1193,1197,1202,1214,1223,1223,1227,1223,1223,1219,1219,1223,1223,1223,1227,1232,1232,1227,1227,1223,1223,1223,1223,1223,1101,1101,1101,1097,1094,1094,1090,1084,1080,1077,1077,1073,1070,1063,1060,1057,1054,1054,935,935,935,935,938,938,938,940,940,940,940,940,943,940,940,943,943,943,943,943,946,946,946,0,0,0,0,0,0,0,0,0,0,0,0,0,0,0,0,0,0,0,0,0,0,0,0,0,0,0,0,0,0,0,0,0,0
0,0,0,0,0,0,0,0,0,0,1410,1404,1404,1404,1404,1398,1392,1392,1392,1392,1392,1392,1392,1392,1398,1398,1398,1392,1392,1392,1392,1392,1392,1392,1392,1392,1392,1392,1392,1392,1392,1398,1404,1404,1404,1404,1398,1398,1398,1398,1398,1398,1398,1398,1392,1392,1392,1387,1387,1387,1387,1387,1387,1387,1387,1387,1392,1392,1387,1387,1387,1387,1387,1387,1387,1387,1387,1381,1381,1387,1387,1387,1387,0,0,0,0,0,0,954,954,954,954,948,948,946,946,946,946,946,948,948,948,954,954,956,959,962,962,964,964,964,964,964,964,0,1370,1370,1370,1370,1370,1370,1370,1370,1370,1370,1370,1370,1370,1370,1365,1365,1370,1370,1370,1370,1370,1370,1370,1370,1365,1365,1365,1365,1359,1359,1359,1359,1359,1359,1359,1359,1365,1365,1365,1365,1370,1370,1370,1077,1077,1077,1077,1077,1077,1077,1077,1080,1084,1084,1087,1087,1087,1087,1087,1087,1090,1090,1090,1094,1094,1097,1097,1101,1105,1105,1108,1108,1112,1115,1115,1115,1115,1115,1119,1119,1119,1115,1115,1115,1112,1112,1108,1105,1105,1101,1101,1101,1097,1094,1094,0,0,0,0,0,0,0,0,713,711,711,710,710,708,707,706,703,701,698,698,698,697,697,697,697,697,698,700,700,701,703,704,706,707,708,713,713,714,716,716,719,720,0,0,0,0,0,0,0,0,1307,1307,1302,1302,1302,1302,1302,1302,1302,1307,1307,1307,1312,1317,1322,1322,1322,1322,1322,1322,1322,1322,1322,1322,1322,1317,1317,1312,1312,1312,1312,1312,1312,1312,1312,1312,1317,1317,1312,1312,1312,1312,1312,1307,1307,1307,1307,1307,1307,1307,1307,1307,1307,1307,1312,1312,1312,1312,1312,1312,1312,1307,1307,1307,1307,1307,1302,1302,1302,1302,1307,1307,1302,1302,1302,1302,1302,1297,1297,1297,1297,1297,1302,1297,1292,1292,1292,1292,1292,1034,1034,1034,1034,1038,1038,1038,1038,1041,1041,1041,1041,1044,1047,1050,1050,1054,1054,1057,1060,1063,1067,1067,1070,1073,1077,1077,1080,1080,1084,1087,1090,1090,1273,1273,1273,1283,1283,1283,1283,1283,1283,1278,1278,1278,1278,1273,1273,1273,1273,1278,1278,1273,1273,1273,1273,1273,1273,1273,1273,1273,1273,1273,1273,1273,1273,1273,1273,1268,1268,1268,1268,1268,1268,1268,1268,1268,1268,1264,1264,1273,1268,1268,1268,1268,1268,1268,1268,1268,1268,1268,1268,1268,1268,1268,1268,1268,1268,1268,1264,1259,1259,1259,1259,1259,1259,1259,1259,1259,1259,1264,1264,1264,1259,1259,1259,1259,1255,1255,1255,1255,1255,1250,1250,1250,1250,1250,1250,1250,1250,1250,1250,1250,1250,1250,1250,1250,1250,1245,1245,1250,1250,1245,1245,1245,1250,1250,1250,1250,1250,1245,1245,1245,1241,1241,1245,1245,1245,1245,1241,1241,1236,1236,1232,1232,1232,1232,1232,1232,1232,1232,1232,1227,1227,1202,1202,1197,1193,1189,1185,1185,1185,1185,1185,1185,1185,1185,1189,1189,1193,1193,1193,1193,1197,1206,1214,1214,1223,1219,1219,1219,1219,1219,1223,1219,1219,1223,1223,1223,1223,1223,1223,1223,1223,1223,1101,1101,1097,1094,1094,1090,1087,1084,1080,1077,1073,1073,1070,1063,1060,1057,1054,1054,935,935,935,935,938,938,938,940,940,940,940,940,943,940,940,940,940,940,940,943,946,946,946,0,0,0,0,0,0,0,0,0,0,0,0,0,0,0,0,0,0,0,0,0,0,0,0,0,0,0,0,0,0,0,0,0,0
0,0,0,0,0,0,0,0,0,0,0,1398,1398,1398,1398,1398,1392,1392,1392,1392,1392,1392,1392,1392,1392,1392,1392,1392,1392,1392,1392,1392,1392,1392,1392,1392,1392,1392,1392,1392,1392,1392,1398,1398,1392,1392,1392,1392,1392,1392,1392,1392,1392,1392,1392,1387,1387,1387,1381,1381,1381,1381,1381,1381,1381,1387,1387,1387,1381,1381,1381,1381,1381,1381,1381,1381,1381,1376,1376,1381,1381,1381,1387,0,0,0,0,0,0,956,956,956,954,951,948,948,948,948,948,948,948,951,954,954,954,956,959,962,964,964,964,967,967,967,967,0,1365,1365,1365,1365,1370,1370,1370,1370,1365,1365,1365,1365,1365,1365,1365,1365,1365,1365,1365,1365,1365,1365,1365,1365,1365,1359,1359,1359,1359,1359,1359,1359,1359,1359,1359,1359,1359,1359,1365,1365,1370,1370,1073,1073,1073,1073,1073,1077,1077,1077,1077,1077,1080,1084,1084,1087,1087,1087,1087,1087,1090,1090,1090,1094,1094,1097,1097,1101,1105,1105,1108,1108,1112,1115,1115,1115,1115,1119,1119,1119,1119,1115,1115,1115,1112,1112,1108,1108,1105,1105,1105,1101,1097,1097,1097,0,0,0,0,0,0,0,0,714,713,713,711,710,710,708,707,703,701,700,700,698,698,697,697,698,698,698,700,701,703,704,704,706,707,710,713,714,716,716,717,720,720,0,0,0,0,0,0,0,0,1307,1307,1307,1307,1302,1302,1302,1302,1307,1307,1307,1312,1312,1317,1322,1322,1322,1322,1322,1317,1317,1317,1317,1317,1317,1312,1312,1307,1307,1307,1307,1307,1307,1307,1307,1307,1312,1312,1312,1307,1307,1307,1307,1307,1307,1302,1302,1302,1302,1302,1302,1302,1302,1302,1312,1312,1312,1307,1307,1307,1307,1307,1302,1302,1302,1302,1302,1302,1297,1297,1302,1302,1297,1297,1297,1297,1297,1297,1292,1292,1292,1292,1292,1292,1288,1288,1288,1292,1028,1028,1031,1031,1031,1034,1034,1038,1038,1038,1038,1038,1041,1041,1044,1047,1050,1054,1054,1057,1060,1063,1067,1067,1070,1073,1077,1080,1080,1084,1087,1090,1090,1094,1273,1273,1273,1278,1278,1278,1278,1278,1278,1278,1278,1278,1273,1273,1273,1273,1273,1273,1273,1273,1273,1273,1273,1268,1268,1268,1268,1268,1268,1268,1268,1268,1268,1268,1268,1268,1268,1268,1268,1268,1268,1264,1264,1264,1264,1259,1259,1259,1259,1259,1259,1264,1264,1264,1264,1268,1268,1264,1264,1264,1264,1264,1264,1264,1259,1259,1259,1259,1259,1255,1255,1255,1255,1255,1255,1259,1259,1259,1259,1259,1255,1255,1255,1255,1255,1255,1255,1250,1250,1250,1250,1250,1245,1245,1250,1250,1250,1250,1250,1250,1250,1250,1245,1245,1245,1241,1241,1245,1241,1241,1241,1241,1245,1241,1241,1245,1245,1245,1241,1241,1241,1241,1241,1241,1241,1241,1236,1236,1232,1232,1232,1227,1227,1227,1227,1202,1202,1202,1202,1202,1202,1202,1197,1197,1189,1189,1189,1189,1189,1185,1185,1185,1185,1189,1189,1189,1193,1193,1193,1193,1197,1206,1214,1214,1219,1219,1219,1219,1219,1219,1219,1219,1219,1219,1219,1219,1219,1219,1219,1223,1219,1219,1094,1094,1097,1094,1090,1087,1084,1080,1080,1077,1073,1070,1063,1063,1060,1057,1057,1054,938,938,938,938,938,938,940,940,940,940,940,943,940,940,940,940,940,940,940,943,946,946,946,0,0,0,0,0,0,0,0,0,0,0,0,0,0,0,0,0,0,0,0,0,0,0,0,0,0,0,0,0,0,0,0,0,0
0,0,0,0,0,0,0,0,0,0,0,1398,1392,1392,1392,1392,1392,1387,1387,1387,1387,1387,1387,1387,1387,1387,1392,1392,1392,1387,1387,1392,1387,1387,1387,1387,1387,1387,1387,1387,1387,1387,1387,1387,1387,1387,1387,1387,1387,1387,1387,1387,1387,1387,1387,1387,1387,1381,1381,1381,1381,1381,1381,1381,1381,1381,1381,1381,1381,1376,1376,1376,1376,1376,1376,1376,1376,1376,1376,1376,1376,1370,1370,0,0,0,0,0,967,962,959,959,956,954,951,951,951,948,948,948,951,951,954,954,956,956,959,962,964,964,967,967,967,967,967,0,1365,1365,1365,1365,1365,1365,1370,1370,1365,1359,1359,1359,1359,1359,1359,1359,1359,1359,1359,1359,1359,1359,1359,1359,1359,1354,1354,1354,1354,1354,1354,1354,1354,1354,1359,1359,1359,1359,1359,1073,1073,1073,1073,1073,1073,1073,1073,1073,1073,1077,1077,1077,1077,1080,1080,1087,1087,1087,1087,1087,1090,1090,1090,1094,1094,1097,1097,1105,1105,1105,1108,1112,1115,1115,1115,1115,1119,1119,1119,1119,1119,1115,1115,1115,1112,1112,1112,1108,1105,1105,1105,1101,1101,1101,1101,1108,0,0,0,0,0,0,0,714,714,713,711,711,710,710,707,704,703,701,701,700,698,698,698,698,698,700,701,701,703,704,706,706,708,710,713,714,716,716,719,720,720,0,0,0,0,0,0,0,0,1307,1307,1307,1307,1307,1302,1302,1302,1307,1307,1307,1312,1312,1312,1317,1312,1312,1312,1312,1312,1312,1312,1312,1312,1312,1312,1312,1307,1307,1307,1307,1307,1307,1307,1307,1307,1307,1307,1307,1307,1307,1302,1302,1302,1302,1297,1297,1297,1302,1302,1302,1302,1302,1302,1307,1307,1307,1307,1307,1307,1302,1302,1297,1297,1297,1302,1297,1297,1297,1297,1297,1297,1297,1297,1297,1297,1292,1292,1292,1292,1292,1292,1288,1288,1283,1283,1028,1028,1028,1028,1028,1028,1031,1031,1031,1034,1034,1034,1034,1038,1038,1041,1044,1047,1050,1054,1057,1060,1063,1063,1067,1070,1073,1077,1077,1080,1080,1084,1087,1090,1094,1094,1273,1273,1273,1273,1273,1273,1273,1273,1273,1273,1273,1273,1273,1268,1268,1268,1273,1273,1268,1268,1268,1268,1268,1268,1268,1268,1268,1268,1268,1268,1268,1268,1264,1264,1264,1264,1264,1264,1264,1264,1264,1264,1264,1264,1259,1259,1259,1259,1259,1259,1255,1255,1259,1259,1264,1264,1264,1259,1259,1259,1255,1255,1255,1259,1255,1255,1259,1255,1255,1255,1255,1255,1255,1250,1250,1255,1250,1250,1255,1255,1255,1250,1250,1250,1250,1250,1250,1250,1250,1250,1245,1245,1245,1245,1245,1245,1245,1245,1245,1245,1245,1245,1245,1245,1236,1236,1241,1241,1236,1236,1236,1232,1232,1236,1236,1232,1232,1232,1232,1236,1232,1232,1232,1232,1232,1223,1223,1227,1227,1227,1227,1210,1202,1202,1202,1202,1197,1197,1202,1197,1197,1197,1197,1193,1189,1189,1189,1189,1189,1185,1185,1189,1189,1189,1189,1189,1193,1193,1197,1197,1202,1206,1214,1214,1214,1214,1214,1214,1214,1214,1214,1214,1214,1214,1214,1214,1214,1214,1214,1219,1214,1214,1094,1094,1097,1094,1090,1087,1084,1080,1077,1073,1070,1070,1063,1063,1060,1057,1057,935,935,938,938,938,938,940,940,940,940,940,940,943,940,940,940,940,940,940,943,943,946,946,946,0,0,0,0,0,0,0,0,0,0,0,0,0,0,0,0,0,0,0,0,0,0,0,0,0,0,0,0,0,0,0,0,0,0
0,0,0,0,0,0,0,0,0,0,0,1398,1392,1392,1392,1392,1387,1387,1387,1387,1387,1387,1387,1381,1381,1387,1387,1387,1387,1387,1387,1387,1387,1387,1387,1387,1387,1387,1387,1387,1381,1381,1381,1381,1376,1376,1381,1381,1381,1381,1381,1381,1387,1387,1387,1387,1381,1381,1381,1381,1376,1376,1376,1376,1376,1376,1376,1376,1376,1376,1376,1376,1376,1370,1370,1376,1370,1370,1370,1370,1370,1370,1370,0,0,0,0,0,967,962,962,959,959,954,951,951,951,951,948,948,951,954,954,956,956,959,959,962,964,964,967,967,967,967,970,970,1359,1359,1359,1359,1365,1365,1365,1365,1354,1354,1354,1354,1354,1354,1354,1354,1354,1354,1354,1354,1354,1354,1354,1349,1349,1349,1349,1349,1349,1349,1349,1349,1349,1349,1354,1359,1359,1073,1073,1070,1070,1070,1070,1070,1070,1070,1073,1073,1073,1073,1073,1077,1077,1077,1080,1084,1084,1087,1087,1087,1090,1090,1094,1094,1097,1097,1101,1105,1105,1108,1108,1112,1115,1115,1115,1115,1119,1119,1119,1119,1119,1119,1115,1115,1112,1112,1112,1112,1108,1108,1108,1105,1105,1105,1108,1108,0,0,0,0,0,0,0,716,714,714,713,711,711,710,708,707,706,704,703,701,700,698,698,698,700,700,701,703,703,704,706,706,708,710,713,714,716,717,720,720,720,720,0,0,0,0,0,0,0,1307,1307,1307,1307,1307,1302,1302,1302,1307,1307,1307,1307,1307,1312,1312,1312,1312,1307,1307,1307,1307,1307,1307,1307,1307,1307,1307,1307,1302,1302,1302,1302,1302,1302,1302,1302,1302,1302,1302,1302,1302,1302,1302,1297,1297,1292,1292,1292,1292,1292,1292,1292,1297,1297,1302,1302,1302,1297,1297,1297,1297,1297,1297,1297,1297,1297,1297,1292,1292,1292,1292,1292,1292,1292,1292,1292,1292,1292,1288,1288,1288,1288,1283,1283,1283,1283,1028,1025,1025,1025,1028,1028,1028,1028,1028,1031,1031,1034,1034,1038,1038,1038,1041,1047,1050,1054,1057,1060,1063,1063,1067,1070,1073,1077,1080,1080,1084,1087,1090,1094,1094,1094,1094,1273,1273,1273,1273,1273,1273,1273,1273,1273,1273,1268,1268,1268,1268,1268,1268,1268,1264,1264,1268,1268,1268,1264,1264,1264,1264,1268,1264,1264,1264,1264,1259,1259,1259,1264,1264,1264,1259,1259,1259,1259,1259,1259,1255,1255,1255,1255,1255,1255,1255,1255,1255,1255,1255,1255,1255,1255,1255,1255,1255,1255,1255,1255,1255,1255,1255,1255,1255,1255,1250,1250,1250,1250,1250,1250,1250,1250,1250,1250,1250,1250,1250,1245,1245,1245,1245,1245,1245,1245,1245,1241,1241,1241,1241,1241,1241,1241,1241,1241,1241,1241,1241,1241,1236,1236,1236,1236,1236,1236,1232,1227,1227,1232,1232,1227,1227,1227,1227,1223,1223,1223,1223,1223,1219,1214,1214,1202,1202,1202,1202,1202,1202,1202,1202,1202,1197,1197,1197,1197,1197,1197,1193,1193,1189,1189,1189,1189,1189,1189,1189,1189,1189,1193,1193,1193,1193,1193,1197,1197,1202,1206,1214,1214,1214,1214,1214,1214,1210,1210,1214,1214,1214,1214,1214,1214,1214,1214,1214,1214,1214,1090,1090,1094,1094,1090,1087,1087,1084,1077,1077,1073,1070,1067,1063,1060,1057,1057,1057,935,935,938,938,938,938,940,943,940,940,940,940,943,940,940,940,940,940,943,943,943,946,946,946,948,0,0,0,0,0,0,0,0,0,0,0,0,0,0,0,0,0,0,0,0,0,0,0,0,0,0,0,0,0,0,0,0,0
0,0,0,0,0,0,0,0,0,0,0,0,1387,1387,1387,1387,1387,1387,1387,1387,1387,1387,1387,1376,1376,1381,1381,1381,1381,1376,1376,1381,1387,1381,1381,1381,1381,1381,1381,1381,1376,1376,1376,1376,1376,1376,1376,1376,1376,1376,1376,1376,1381,1381,1381,1376,1376,1376,1370,1370,1376,1376,1376,1376,1376,1376,1376,1376,1376,1376,1376,1370,1370,1370,1370,1370,1370,1370,1370,1370,1365,1365,1365,0,0,0,0,0,0,962,962,959,959,956,954,954,951,951,951,951,951,954,956,956,956,959,962,964,964,967,967,967,967,970,970,970,0,1359,1354,1354,1354,1354,1354,1354,1354,1349,1349,1349,1349,1349,1349,1349,1349,1349,1349,1349,1349,1349,1349,1343,1343,1343,1343,1343,1343,1343,1349,1349,1349,1349,1354,1067,1067,1067,1070,1067,1067,1070,1070,1070,1070,1070,1070,1073,1073,1073,1073,1077,1077,1077,1080,1084,1084,1087,1087,1090,1090,1090,1094,1097,1097,1097,1101,1101,1105,1105,1108,1112,1115,1115,1115,1115,1119,1119,1119,1119,1119,1119,1115,1115,1112,1112,1112,1112,1108,1108,1108,1105,1105,1108,1108,1112,0,0,0,0,0,0,0,716,716,716,714,714,711,711,708,708,707,706,704,704,703,701,700,700,700,701,701,703,703,704,706,707,708,713,713,714,717,717,720,720,720,720,0,0,0,0,0,0,0,0,1307,1307,1307,1307,1302,1302,1307,1307,1307,1307,1307,1307,1307,1307,1307,1307,1307,1307,1307,1307,1307,1307,1307,1302,1302,1302,1302,1302,1302,1302,1297,1297,1297,1297,1297,1302,1302,1302,1302,1302,1297,1297,1297,1292,1292,1292,1292,1292,1288,1288,1292,1292,1292,1292,1297,1297,1292,1292,1292,1292,1292,1292,1292,1292,1292,1292,1292,1292,1292,1292,1292,1288,1288,1288,1288,1288,1288,1288,1288,1288,1288,1283,1283,1028,1028,1025,1025,1025,1025,1025,1025,1025,1028,1028,1028,1031,1031,1031,1034,1038,1038,1041,1047,1050,1054,1057,1060,1063,1067,1067,1070,1073,1077,1080,1084,1087,1090,1090,1094,1094,1094,1094,1268,1268,1268,1268,1268,1268,1268,1268,1268,1268,1268,1268,1264,1264,1264,1264,1264,1259,1259,1264,1264,1264,1264,1264,1264,1264,1264,1264,1259,1259,1259,1259,1259,1259,1259,1259,1259,1259,1259,1259,1255,1255,1255,1255,1255,1255,1255,1255,1255,1255,1255,1255,1255,1255,1255,1255,1255,1250,1250,1250,1250,1255,1255,1250,1250,1255,1250,1250,1250,1250,1250,1250,1250,1250,1250,1250,1250,1245,1245,1250,1245,1245,1245,1245,1245,1245,1245,1241,1241,1241,1241,1241,1241,1241,1241,1241,1241,1241,1241,1241,1241,1241,1236,1232,1232,1232,1232,1232,1232,1232,1227,1227,1227,1227,1223,1223,1223,1223,1219,1219,1214,1214,1210,1210,1210,1206,1202,1202,1202,1202,1202,1202,1202,1197,1197,1197,1197,1197,1197,1197,1197,1193,1193,1193,1193,1193,1193,1193,1193,1193,1193,1197,1197,1197,1197,1197,1197,1202,1202,1202,1206,1210,1210,1210,1214,1210,1210,1210,1210,1210,1210,1210,1210,1210,1210,1210,1210,1210,1214,1214,1090,1090,1090,1090,1087,1087,1084,1080,1077,1073,1070,1067,1063,1063,1060,1057,1057,1057,938,938,940,938,938,940,943,943,943,943,943,943,943,940,940,940,940,940,943,943,943,946,946,948,948,0,0,0,0,0,0,0,0,0,0,0,0,0,0,0,0,0,0,0,0,0,0,0,0,0,0,0,0,0,0,0,0,0
0,0,0,0,0,0,0,0,0,0,0,1387,1387,1387,1387,1387,1387,1387,1381,1381,1381,1381,1376,1376,1376,1376,1376,1376,1376,1370,1370,1376,1376,1376,1376,1376,1376,1376,1376,1376,1376,1376,1376,1370,1370,1370,1370,1370,1370,1370,1376,1376,1376,1376,1376,1370,1370,1370,1370,1370,1370,1370,1370,1370,1370,1370,1370,1370,1370,1370,1370,1370,1365,1365,1365,1365,1365,1365,1365,1365,1365,1359,1359,0,0,0,0,0,0,0,962,962,959,956,954,954,954,954,954,954,954,956,956,956,959,962,962,964,964,967,967,967,970,970,970,970,0,1349,1349,1349,1349,1349,1349,1349,1343,1343,1343,1349,1349,1343,1343,1343,1349,1343,1343,1343,1343,1343,1343,1343,1343,1343,1343,1343,1343,1343,1349,1349,1349,1060,1060,1063,1063,1063,1063,1063,1063,1067,1067,1067,1067,1067,1070,1070,1070,1070,1073,1073,1077,1077,1077,1084,1084,1087,1090,1090,1090,1094,1094,1097,1097,1097,1101,1101,1105,1105,1108,1112,1115,1115,1115,1119,1119,1338,1338,1333,1333,1333,1328,1328,1328,1112,1112,1112,1112,1112,1108,1105,1105,1108,1112,0,0,0,0,0,0,0,0,716,716,716,716,714,714,714,711,710,708,707,706,704,703,703,703,703,703,703,703,703,704,706,707,707,710,713,713,714,717,719,720,720,722,722,0,0,0,0,0,0,0,0,1307,1307,1307,1307,1302,1302,1302,1302,1302,1302,1302,1302,1302,1302,1302,1302,1302,1302,1302,1302,1302,1302,1302,1302,1302,1302,1297,1297,1297,1297,1292,1292,1292,1292,1292,1292,1297,1297,1297,1297,1297,1292,1292,1292,1288,1288,1288,1288,1288,1288,1288,1288,1288,1292,1292,1288,1288,1288,1292,1292,1292,1292,1288,1288,1292,1292,1292,1288,1288,1288,1288,1288,1288,1288,1288,1288,1288,1288,1288,1283,1283,1283,1283,1025,1025,1025,1025,1025,1022,1022,1025,1025,1025,1025,1028,1028,1031,1031,1034,1038,1038,1041,1044,1050,1054,1054,1060,1063,1067,1070,1077,1084,1084,1084,1084,1087,1090,1094,1094,1094,1094,1094,1268,1268,1268,1268,1268,1268,1264,1264,1264,1264,1259,1259,1259,1259,1259,1259,1259,1259,1259,1259,1259,1259,1259,1259,1259,1259,1259,1259,1259,1255,1255,1255,1255,1255,1255,1255,1259,1255,1255,1255,1255,1255,1250,1250,1250,1250,1250,1250,1250,1250,1250,1250,1250,1250,1250,1250,1250,1250,1250,1245,1245,1245,1245,1245,1245,1250,1250,1250,1250,1250,1250,1245,1245,1245,1245,1245,1245,1245,1245,1245,1245,1241,1241,1241,1241,1241,1241,1241,1236,1236,1236,1236,1236,1236,1236,1236,1236,1236,1236,1236,1236,1236,1236,1232,1232,1232,1232,1227,1227,1223,1219,1219,1219,1219,1219,1219,1219,1214,1214,1214,1214,1210,1210,1210,1206,1206,1202,1202,1202,1202,1202,1202,1202,1197,1197,1197,1197,1197,1197,1197,1197,1193,1193,1193,1193,1193,1193,1197,1197,1197,1197,1202,1197,1197,1197,1197,1202,1202,1202,1202,1206,1206,1206,1206,1206,1210,1206,1206,1206,1206,1206,1206,1206,1206,1206,1206,1202,1202,1202,1202,1214,1090,1090,1090,1087,1084,1080,1077,1070,1070,1067,1063,1063,1060,1060,1057,1057,1057,940,940,940,938,938,940,940,940,940,940,940,943,943,940,940,940,940,940,943,943,943,946,946,948,948,0,0,0,0,0,0,0,0,0,0,0,0,0,0,0,0,0,0,0,0,0,0,0,0,0,0,0,0,0,0,0,0,0
0,0,0,0,0,0,0,0,0,0,0,1387,1387,1381,1381,1381,1381,1376,1376,1376,1370,1370,1370,1370,1370,1370,1370,1370,1370,1370,1370,1370,1376,1370,1370,1376,1376,1376,1376,1376,1370,1370,1370,1370,1365,1365,1365,1365,1365,1365,1370,1370,1370,1370,1370,1365,1365,1370,1370,1370,1370,1370,1370,1370,1370,1370,1370,1365,1365,1365,1365,1365,1365,1365,1365,1365,1365,1365,1365,1365,1359,1354,1354,0,0,0,0,0,0,0,962,962,959,956,956,954,954,954,954,954,954,956,959,959,959,962,962,964,964,967,967,967,970,970,973,973,975,1343,1343,1343,1343,1343,1343,1343,1343,1343,1343,1343,1343,1343,1343,1343,1343,1343,1343,1343,1338,1338,1338,1338,1338,1338,1338,1338,1343,1054,1054,1057,1057,1057,1057,1060,1060,1060,1063,1063,1063,1067,1067,1067,1067,1067,1070,1070,1070,1070,1073,1073,1077,1077,1077,1084,1087,1087,1090,1090,1090,1094,1094,1097,1101,1101,1101,1101,1105,1105,1108,1112,1115,1115,1115,1119,1322,1322,1328,1328,1328,1328,1328,1328,1328,1322,1115,1115,1112,1112,1112,1108,1108,1112,1112,0,0,0,0,0,0,0,0,0,717,716,716,714,714,714,713,711,710,708,707,706,704,704,704,704,704,704,704,704,706,707,708,708,710,713,714,716,717,720,720,722,722,722,0,0,0,0,0,0,0,0,1307,1307,1302,1302,1302,1302,1302,1302,1302,1302,1302,1302,1302,1297,1297,1297,1297,1297,1302,1302,1302,1302,1302,1297,1297,1297,1297,1292,1292,1292,1292,1288,1288,1288,1288,1292,1292,1292,1292,1292,1292,1292,1288,1288,1288,1288,1288,1288,1288,1288,1283,1283,1288,1288,1288,1288,1288,1288,1283,1283,1283,1283,1288,1288,1288,1288,1288,1288,1288,1288,1283,1283,1283,1283,1283,1283,1283,1283,1283,1283,1283,1283,1283,1022,1022,1022,1022,1022,1019,1019,1022,1022,1025,1025,1028,1028,1031,1031,1034,1038,1038,1041,1044,1047,1050,1054,1057,1063,1067,1077,1080,1087,1087,1087,1087,1090,1094,1094,1094,1094,1097,1264,1259,1259,1264,1264,1264,1264,1259,1259,1259,1259,1255,1255,1255,1255,1255,1255,1255,1255,1255,1255,1255,1255,1255,1255,1255,1255,1255,1255,1255,1255,1255,1255,1250,1250,1250,1250,1250,1255,1255,1255,1255,1250,1250,1250,1250,1250,1250,1250,1250,1245,1245,1250,1250,1245,1245,1245,1245,1245,1245,1241,1241,1241,1241,1241,1241,1241,1241,1245,1245,1245,1245,1245,1245,1245,1245,1245,1245,1241,1241,1241,1241,1241,1236,1236,1236,1236,1236,1236,1236,1236,1236,1232,1232,1232,1232,1232,1232,1232,1232,1232,1232,1232,1232,1227,1227,1227,1227,1223,1219,1219,1214,1214,1214,1219,1214,1214,1214,1214,1214,1210,1210,1210,1210,1210,1206,1206,1202,1202,1202,1202,1202,1202,1202,1202,1202,1197,1197,1197,1197,1197,1197,1197,1193,1193,1193,1193,1197,1197,1197,1197,1197,1202,1202,1202,1202,1202,1202,1202,1202,1202,1202,1206,1206,1206,1206,1206,1206,1202,1202,1202,1206,1206,1206,1206,1202,1202,1197,1197,1193,1193,1193,1090,1090,1090,1084,1084,1077,1073,1070,1067,1063,1063,1060,1060,1057,1057,1057,943,940,940,940,938,938,940,940,940,940,940,940,940,940,940,940,940,940,940,943,946,946,946,946,948,948,0,0,0,0,0,0,0,0,0,0,0,0,0,0,0,0,0,0,0,0,0,0,0,0,0,0,0,0,0,0,0,0,0
0,0,0,0,0,0,0,0,0,0,0,0,1381,1381,1381,1381,1376,1376,1376,1370,1370,1370,1370,1370,1370,1370,1370,1370,1365,1365,1365,1365,1365,1365,1370,1370,1370,1370,1370,1370,1370,1370,1370,1370,1365,1365,1365,1365,1365,1365,1365,1365,1365,1365,1365,1359,1359,1365,1365,1365,1365,1365,1365,1365,1365,1365,1359,1359,1359,1365,1365,1365,1365,1359,1359,1365,1365,1365,1359,1359,1354,1349,1349,1349,0,0,0,0,0,0,0,962,962,959,956,956,956,954,954,954,956,956,959,959,959,962,962,964,964,967,967,970,970,973,973,975,975,1343,1343,1338,1338,1338,1338,1338,1338,1338,1338,1338,1343,1343,1343,1343,1343,1343,1343,1338,1338,1338,1338,1333,1333,1338,1338,1338,1338,1054,1054,1057,1057,1057,1057,1060,1060,1060,1063,1063,1063,1063,1063,1063,1067,1067,1067,1067,1070,1070,1073,1073,1077,1077,1080,1084,1087,1087,1090,1090,1094,1097,1097,1097,1101,1101,1101,1101,1105,1105,1108,1317,1317,1115,1115,1317,1317,1317,1322,1322,1322,1322,1322,1328,1322,1322,1317,1317,1317,1317,1317,1302,0,0,0,0,0,0,0,0,0,0,0,0,719,717,717,716,716,714,714,713,710,710,708,706,704,704,704,704,704,704,704,704,706,707,710,711,713,714,716,716,717,720,720,722,723,723,0,0,0,0,0,0,0,0,1307,1307,1302,1302,1302,1302,1302,1297,1297,1297,1297,1297,1297,1297,1297,1297,1297,1297,1297,1297,1297,1297,1297,1292,1292,1292,1292,1292,1288,1288,1288,1288,1288,1288,1288,1288,1288,1288,1288,1288,1288,1288,1288,1288,1288,1288,1283,1283,1283,1283,1283,1283,1283,1283,1283,1283,1283,1283,1283,1283,1278,1278,1278,1278,1278,1278,1283,1283,1283,1283,1283,1278,1278,1278,1278,1278,1278,1278,1278,1273,1273,1283,1016,1016,1016,1019,1019,1019,1016,1016,1016,1019,1022,1022,1025,1028,1031,1031,1034,1038,1041,1041,1044,1047,1050,1050,1054,1063,1067,1087,1087,1087,1087,1087,1087,1090,1094,1094,1094,1094,1097,1259,1255,1255,1259,1259,1259,1255,1255,1255,1259,1255,1255,1255,1255,1250,1250,1250,1250,1250,1250,1250,1250,1250,1250,1255,1255,1255,1255,1255,1255,1250,1250,1250,1250,1250,1250,1250,1250,1250,1250,1250,1250,1250,1245,1245,1245,1245,1245,1245,1245,1245,1245,1245,1245,1245,1241,1241,1241,1241,1241,1236,1236,1236,1236,1236,1236,1236,1236,1236,1236,1236,1236,1241,1241,1241,1241,1241,1241,1241,1241,1241,1236,1236,1232,1232,1232,1232,1232,1232,1232,1232,1232,1227,1227,1227,1227,1227,1227,1227,1227,1227,1227,1227,1223,1223,1219,1219,1219,1219,1214,1214,1214,1214,1214,1214,1214,1214,1210,1210,1210,1210,1210,1210,1206,1206,1206,1206,1206,1202,1202,1202,1202,1197,1197,1197,1202,1197,1197,1197,1197,1197,1197,1197,1197,1197,1197,1197,1197,1197,1197,1197,1197,1202,1202,1202,1202,1202,1202,1202,1202,1202,1202,1202,1202,1202,1202,1202,1202,1202,1202,1202,1202,1202,1202,1202,1202,1202,1197,1197,1193,1193,1193,1193,1090,1090,1084,1080,1077,1070,1067,1063,1063,1060,1057,1057,1057,1057,1057,943,943,940,940,938,938,938,940,940,940,940,940,940,940,940,940,940,940,943,943,946,946,946,946,948,0,0,0,0,0,0,0,0,0,0,0,0,0,0,0,0,0,0,0,0,0,0,0,0,0,0,0,0,0,0,0,0,0,0
0,0,0,0,0,0,0,0,0,0,0,0,1376,1370,1370,1370,1370,1370,1370,1370,1370,1370,1370,1365,1365,1365,1365,1365,1365,1365,1359,1359,1359,1365,1365,1365,1365,1370,1370,1370,1370,1370,1370,1365,1365,1359,1359,1359,1359,1359,1359,1359,1359,1365,1359,1359,1349,1349,1359,1359,1359,1359,1359,1359,1359,1359,1359,1354,1354,1354,1354,1354,1354,1359,1359,1359,1359,1359,1354,1354,1349,1349,1343,1343,1343,1349,0,0,0,0,0,964,964,962,959,956,956,956,956,956,956,956,959,962,962,964,964,964,967,967,967,970,975,975,975,975,975,1328,1328,1328,1328,1328,1333,1333,1333,1333,1333,1333,1338,1338,1338,1338,1338,1338,1338,1333,1333,1333,1333,1333,1333,1333,1333,1054,1054,1054,1054,1057,1057,1057,1057,1057,1057,1060,1060,1060,1060,1063,1063,1063,1063,1063,1067,1067,1070,1070,1073,1073,1077,1077,1080,1084,1087,1087,1090,1094,1094,1097,1097,1097,1101,1101,1101,1101,1105,1312,1312,1317,1317,1317,1312,1312,1312,1312,1317,1317,1317,1322,1322,1322,1322,1317,1317,1312,1312,1312,1302,1302,0,0,0,0,0,0,0,0,0,0,0,0,719,719,717,716,716,714,714,714,711,710,708,707,706,704,704,704,704,704,704,706,707,708,710,713,714,714,716,717,719,720,722,723,723,725,728,0,0,0,0,0,0,1034,1034,1302,1297,1297,1297,1297,1297,1292,1292,1292,1292,1292,1292,1288,1288,1292,1292,1292,1292,1292,1292,1292,1292,1292,1288,1288,1288,1288,1288,1283,1283,1283,1283,1283,1283,1283,1288,1288,1288,1288,1283,1283,1283,1283,1283,1283,1283,1283,1283,1278,1278,1278,1278,1278,1283,1278,1278,1283,1278,1278,1278,1273,1273,1273,1273,1273,1273,1273,1273,1278,1278,1273,1273,1273,1273,1273,1273,1273,1273,1273,1273,1013,1013,1013,1016,1016,1016,1016,1016,1016,1016,1016,1019,1019,1022,1025,1031,1031,1034,1038,1041,1044,1044,1047,1050,1050,1050,1090,1090,1090,1090,1090,1090,1090,1090,1090,1094,1094,1094,1097,1101,1259,1255,1255,1255,1255,1255,1250,1250,1250,1250,1250,1250,1250,1250,1250,1250,1250,1250,1250,1250,1250,1250,1250,1250,1250,1250,1250,1250,1250,1250,1250,1245,1245,1245,1245,1245,1245,1245,1245,1245,1245,1245,1245,1241,1241,1241,1241,1241,1241,1241,1241,1241,1241,1241,1236,1236,1236,1236,1236,1236,1236,1232,1232,1232,1232,1232,1232,1232,1232,1232,1232,1232,1232,1232,1232,1232,1236,1236,1236,1236,1236,1232,1232,1232,1227,1227,1223,1223,1223,1219,1219,1219,1219,1219,1219,1223,1219,1219,1223,1219,1219,1219,1219,1219,1219,1214,1214,1210,1210,1210,1206,1206,1210,1210,1210,1210,1210,1210,1206,1206,1206,1206,1206,1206,1206,1206,1206,1206,1202,1202,1202,1202,1197,1197,1197,1197,1197,1202,1197,1197,1197,1197,1197,1197,1197,1197,1197,1197,1197,1197,1197,1197,1202,1202,1202,1202,1202,1202,1202,1202,1202,1202,1202,1202,1202,1202,1202,1202,1197,1197,1202,1202,1202,1202,1202,1197,1197,1197,1193,1193,1193,1193,1193,1080,1080,1080,1077,1073,1070,1063,1063,1060,1057,1057,1057,1057,1054,1054,940,940,940,938,938,938,938,940,940,938,938,940,940,940,940,943,943,943,943,943,946,946,946,948,948,0,0,0,0,0,0,0,0,0,0,0,0,0,0,0,0,0,0,0,0,0,0,0,0,0,0,0,0,0,0,0,0,0,0
0,0,0,0,0,0,0,0,0,0,0,0,1370,1370,1370,1370,1370,1370,1370,1365,1365,1365,1365,1365,1365,1365,1365,1359,1359,1359,1359,1359,1359,1359,1359,1359,1365,1365,1365,1365,1370,1370,1365,1365,1359,1359,1359,1359,1359,1359,1359,1359,1359,1359,1359,1359,1349,1349,1349,1349,1354,1354,1354,1354,1354,1354,1354,1349,1349,1349,1349,1349,1349,1349,1349,1349,1354,1354,1354,1349,1349,1343,1343,1343,1343,1343,1349,0,0,0,0,964,964,964,962,962,959,956,956,956,956,956,959,962,964,964,964,967,967,967,970,973,973,975,975,975,975,975,1328,1328,1328,1328,1328,1328,1328,1328,1328,1328,1328,1333,1333,1333,1338,1338,1338,1333,1333,1333,1328,1328,1328,1050,1050,1050,1050,1054,1054,1054,1054,1054,1057,1057,1057,1057,1060,1060,1060,1063,1063,1063,1063,1063,1067,1067,1070,1070,1073,1073,1077,1080,1080,1084,1087,1087,1090,1094,1094,1097,1097,1097,1101,1101,1101,1101,1312,1312,1312,1312,1312,1312,1312,1312,1312,1312,1312,1312,1312,1317,1317,1317,1317,1317,1312,1307,1307,1307,1302,1302,0,0,0,0,0,0,0,0,0,0,0,0,720,719,719,717,717,716,716,714,713,711,710,708,707,706,706,704,704,706,706,706,707,710,711,713,714,714,716,717,720,720,723,725,727,728,728,0,0,0,0,0,0,1031,1031,1031,1297,1297,1292,1292,1292,1288,1288,1292,1288,1288,1288,1288,1288,1288,1288,1288,1288,1288,1288,1288,1288,1288,1288,1288,1283,1283,1283,1283,1283,1278,1278,1283,1283,1283,1283,1283,1283,1283,1283,1283,1283,1278,1278,1278,1278,1278,1273,1273,1273,1273,1273,1273,1278,1278,1278,1278,1273,1273,1273,1273,1273,1273,1273,1273,1273,1273,1273,1273,1273,1273,1273,1273,1273,1273,1273,1273,1273,1273,1010,1010,1013,1013,1013,1013,1013,1013,1013,1013,1016,1016,1019,1019,1022,1025,1031,1031,1034,1038,1041,1044,1044,1047,1050,1050,1050,1097,1094,1094,1094,1090,1090,1090,1090,1094,1094,1094,1094,1097,1101,1259,1250,1245,1245,1245,1250,1250,1250,1250,1245,1245,1250,1245,1245,1245,1245,1245,1245,1245,1245,1245,1245,1245,1245,1250,1245,1245,1245,1245,1245,1241,1241,1245,1241,1241,1241,1241,1241,1241,1241,1241,1241,1241,1236,1236,1236,1236,1236,1236,1236,1236,1236,1236,1236,1236,1236,1236,1236,1236,1232,1232,1232,1232,1232,1232,1232,1227,1227,1227,1227,1227,1223,1223,1223,1223,1223,1223,1223,1227,1227,1232,1232,1227,1227,1223,1219,1219,1219,1214,1214,1210,1210,1210,1214,1214,1214,1214,1214,1214,1214,1214,1214,1219,1219,1214,1214,1214,1210,1206,1206,1206,1206,1206,1206,1206,1206,1206,1206,1206,1206,1206,1206,1206,1206,1206,1206,1206,1202,1202,1202,1202,1202,1202,1202,1202,1197,1197,1202,1197,1197,1197,1197,1197,1197,1197,1197,1197,1197,1197,1197,1202,1202,1202,1202,1202,1197,1197,1202,1197,1197,1197,1197,1197,1197,1197,1197,1197,1197,1197,1197,1197,1197,1197,1197,1197,1197,1197,1189,1189,1189,1189,1193,1193,0,1073,1073,1073,1070,1067,1063,1060,1060,1057,1054,1054,1054,1054,940,940,940,938,938,938,938,938,938,938,938,938,938,940,940,940,943,943,943,943,946,946,946,946,946,948,0,0,0,0,0,0,0,0,0,0,0,0,0,0,0,0,0,0,0,0,0,0,0,0,0,0,0,0,0,0,0,0,0,0
0,0,0,0,0,0,0,0,0,0,0,1365,1365,1365,1365,1365,1365,1365,1365,1365,1365,1365,1365,1365,1365,1359,1359,1359,1359,1359,1359,1354,1354,1354,1359,1359,1359,1359,1359,1365,1365,1365,1365,1359,1359,1359,1359,1354,1354,1359,1354,1354,1359,1359,1359,1354,1349,1349,1349,1349,1349,1349,1349,1349,1349,1349,1349,1349,1349,1343,1343,1343,1343,1343,1343,1343,1343,1343,1343,1343,1343,1343,1338,1338,1343,1343,1343,0,0,0,0,0,964,964,964,964,959,959,956,956,956,956,959,962,964,964,964,967,967,967,970,973,973,975,975,975,975,975,1328,1328,1322,1322,1328,1328,1328,1328,1328,1328,1328,1328,1328,1333,1338,1338,1333,1333,1333,1328,1041,1041,1044,1047,1047,1050,1050,1050,1050,1054,1054,1054,1054,1054,1054,1054,1057,1057,1060,1060,1063,1063,1063,1063,1067,1067,1070,1070,1073,1077,1080,1080,1080,1084,1087,1090,1094,1094,1094,1097,1097,1101,1101,1101,1307,1307,1307,1312,1312,1312,1312,1312,1312,1312,1307,1307,1307,1307,1307,1312,1312,1312,1312,1312,1307,1307,1302,1302,1297,1297,1297,0,0,0,0,0,0,0,0,0,0,0,0,720,719,719,717,716,716,716,714,713,711,710,708,707,707,706,706,706,706,707,708,710,711,714,714,716,717,717,720,720,723,725,727,728,728,0,0,0,0,0,0,1031,1028,1028,1025,1025,1292,1292,1288,1288,1288,1288,1288,1288,1288,1288,1288,1288,1288,1288,1288,1288,1288,1288,1288,1283,1283,1283,1283,1283,1278,1278,1278,1278,1278,1278,1278,1278,1278,1278,1278,1278,1278,1278,1278,1273,1273,1273,1273,1268,1268,1268,1268,1268,1273,1273,1273,1273,1273,1273,1273,1273,1273,1268,1268,1268,1268,1268,1268,1268,1268,1268,1268,1268,1268,1268,1273,1007,1004,1004,1004,1004,1007,1010,1010,1010,1013,1013,1013,1013,1013,1013,1013,1016,1016,1019,1022,1025,1031,1034,1038,1038,1041,1044,1044,1047,1050,1050,1101,1097,1094,1094,1094,1090,1090,1090,1090,1094,1094,1097,1097,1101,1101,1245,1245,1241,1241,1241,1245,1245,1245,1245,1245,1245,1245,1241,1241,1241,1241,1241,1241,1241,1241,1245,1245,1245,1245,1245,1245,1245,1245,1245,1245,1241,1241,1241,1236,1236,1236,1236,1236,1236,1236,1236,1236,1236,1236,1236,1236,1236,1232,1232,1236,1236,1232,1232,1236,1232,1232,1232,1232,1232,1232,1232,1227,1227,1227,1227,1227,1223,1223,1223,1223,1223,1223,1223,1219,1219,1219,1219,1219,1219,1219,1219,1219,1219,1219,1219,1219,1214,1214,1210,1210,1206,1206,1206,1206,1206,1210,1210,1214,1214,1214,1214,1214,1214,1214,1214,1210,1210,1206,1206,1206,1206,1206,1206,1206,1206,1206,1206,1206,1206,1206,1206,1206,1206,1206,1206,1202,1202,1202,1202,1202,1202,1202,1202,1202,1202,1202,1202,1197,1197,1197,1197,1197,1197,1197,1197,1197,1197,1197,1197,1197,1197,1197,1202,1197,1197,1197,1197,1197,1197,1197,1197,1197,1197,1197,1197,1193,1193,1193,1193,1193,1193,1193,1193,1193,1197,1193,1189,1189,1189,1185,1185,1185,1185,0,1073,1073,1070,1067,1063,1063,1060,1060,1054,1054,1054,1054,938,938,940,940,938,938,938,938,938,938,938,938,938,938,938,938,940,943,943,943,943,946,946,946,946,946,948,0,0,0,0,0,0,0,0,0,0,0,0,0,0,0,0,0,0,0,0,0,0,0,0,0,0,0,0,0,0,0,0,0,0
0,0,0,0,0,0,0,0,0,0,0,1365,1365,1365,1365,1359,1359,1359,1359,1359,1359,1359,1359,1359,1359,1359,1359,1359,1359,1359,1354,1354,1354,1354,1354,1354,1354,1354,1359,1359,1359,1359,1359,1359,1354,1354,1354,1354,1354,1354,1349,1349,1354,1354,1349,1349,1349,1349,1349,1349,1343,1343,1343,1343,1343,1343,1343,1343,1343,1343,1343,1343,1343,1338,1338,1343,1338,1338,1338,1338,1338,1333,1333,1333,1338,1338,1338,0,0,0,0,0,964,964,964,964,962,959,959,956,956,956,959,962,964,964,967,967,967,970,970,973,975,975,975,975,975,975,978,1322,1322,1322,1322,1328,1328,1328,1328,1328,1328,1328,1328,1333,1338,1338,1333,1333,1333,1041,1041,1041,1044,1047,1047,1047,1047,1047,1050,1050,1050,1050,1054,1054,1054,1054,1057,1057,1060,1060,1063,1063,1063,1063,1067,1070,1070,1073,1077,1077,1080,1080,1080,1087,1087,1090,1094,1097,1097,1101,1101,1101,1101,1307,1307,1307,1307,1307,1307,1307,1307,1307,1307,1307,1307,1307,1307,1307,1307,1307,1307,1307,1307,1307,1307,1302,1302,1302,1297,1297,1297,0,0,0,0,0,0,0,0,0,0,0,0,0,719,719,717,717,717,716,714,713,711,710,710,708,707,707,707,707,707,708,710,711,713,714,716,716,717,719,720,722,723,725,727,728,728,0,0,0,0,0,1028,1028,1028,1028,1025,1025,1025,1288,1288,1283,1283,1283,1283,1283,1288,1288,1288,1288,1288,1288,1283,1283,1283,1283,1283,1283,1278,1278,1278,1278,1273,1273,1273,1273,1273,1273,1273,1273,1273,1273,1273,1273,1273,1273,1273,1268,1268,1268,1268,1264,1264,1264,1264,1264,1268,1268,1268,1268,1268,1268,1273,1268,1268,1268,1268,1268,1268,1268,1268,1268,1268,1268,1268,1268,1268,1268,1004,1004,1004,1004,1004,1004,1007,1007,1007,1010,1013,1013,1013,1013,1013,1013,1013,1016,1016,1016,1019,1025,1031,1034,1038,1038,1041,1044,1044,1108,1105,1105,1101,1101,1097,1094,1094,1094,1094,1094,1094,1094,1097,1097,1097,1101,1105,1245,1245,1241,1241,1241,1241,1241,1241,1241,1241,1241,1241,1241,1241,1236,1236,1236,1236,1236,1236,1236,1236,1236,1241,1241,1241,1241,1241,1241,1241,1236,1236,1236,1236,1236,1232,1232,1232,1232,1232,1232,1232,1232,1232,1232,1232,1232,1232,1232,1232,1232,1232,1232,1232,1232,1232,1232,1232,1232,1227,1227,1223,1223,1223,1223,1223,1219,1219,1219,1219,1219,1219,1219,1219,1219,1219,1219,1219,1219,1219,1219,1219,1219,1214,1214,1214,1214,1210,1210,1206,1206,1206,1206,1206,1206,1206,1210,1210,1210,1210,1210,1210,1210,1210,1210,1210,1206,1202,1202,1202,1202,1202,1202,1202,1202,1202,1202,1202,1202,1206,1202,1202,1202,1202,1202,1202,1202,1202,1202,1202,1202,1202,1197,1197,1197,1197,1197,1197,1197,1197,1197,1197,1197,1197,1197,1197,1197,1197,1197,1197,1197,1197,1197,1197,1193,1193,1193,1193,1193,1193,1193,1193,1193,1193,1193,1189,1189,1189,1189,1189,1193,1193,1193,1193,1193,1189,1185,1185,1185,1185,1181,1181,1181,0,1070,1070,1070,1067,1063,1063,1060,1057,1054,1050,1050,1050,938,938,940,940,938,938,938,938,938,938,938,938,938,938,938,938,940,940,943,946,946,946,946,946,946,948,948,0,0,0,0,0,0,0,0,0,0,0,0,0,0,0,0,0,0,0,0,0,0,0,0,0,0,0,0,0,0,0,0,0,0
0,0,0,0,0,0,0,0,0,0,0,0,1359,1359,1359,1359,1354,1354,1354,1354,1349,1349,1354,1359,1359,1354,1354,1354,1354,1354,1354,1349,1349,1349,1349,1349,1349,1349,1354,1354,1354,1354,1354,1349,1349,1349,1349,1349,1349,1349,1349,1349,1349,1349,1343,1343,1343,1343,1343,1343,1343,1343,1343,1343,1343,1343,1343,1343,1338,1338,1338,1338,1338,1338,1338,1338,1333,1333,1333,1333,1333,1328,1328,1328,1328,1328,1328,1328,0,1322,0,0,967,967,964,964,964,962,959,959,959,959,959,962,964,967,967,967,970,970,970,973,975,975,978,975,975,978,978,1322,1322,1322,1322,1322,1322,1322,1322,1322,1322,1322,1328,1333,1333,1333,1333,1038,1038,1038,1038,1041,1041,1044,1044,1047,1047,1047,1047,1047,1050,1050,1050,1050,1050,1054,1054,1057,1060,1060,1063,1063,1063,1067,1070,1070,1070,1073,1077,1080,1084,1084,1087,1087,1087,1090,1094,1101,1101,1105,1105,1312,1307,1307,1307,1307,1307,1307,1307,1302,1302,1307,1307,1307,1307,1302,1302,1302,1302,1302,1302,1297,1297,1302,1302,1297,1297,1297,1292,1292,1292,0,0,0,0,0,0,0,0,0,0,0,0,0,719,719,719,717,717,717,716,714,713,711,710,710,708,708,708,708,708,708,710,711,713,714,716,717,719,720,720,722,723,725,727,728,728,0,0,0,0,1028,1028,1028,1028,1025,1025,1022,1022,1019,1019,1019,1019,1019,1283,1283,1288,1288,1288,1283,1283,1283,1283,1283,1283,1278,1278,1278,1278,1278,1273,1273,1273,1273,1268,1268,1268,1268,1268,1268,1268,1268,1268,1268,1268,1268,1268,1264,1264,1264,1264,1264,1264,1259,1259,1259,1264,1264,1264,1268,1264,1264,1268,1268,1268,1268,1268,1264,1264,1264,1264,1264,1264,1264,1264,1268,1268,1001,1001,1001,1001,1001,1004,1004,1004,1007,1007,1007,1010,1010,1010,1010,1010,1013,1013,1016,1016,1016,1019,1025,1031,1034,1038,1038,1041,1041,1044,1108,1105,1105,1105,1101,1097,1094,1094,1094,1094,1094,1094,1094,1097,1101,1101,1105,1105,1241,1241,1241,1236,1236,1236,1236,1236,1236,1236,1236,1236,1236,1236,1236,1236,1236,1236,1236,1236,1236,1236,1236,1232,1232,1232,1232,1236,1236,1236,1236,1236,1236,1236,1232,1232,1232,1232,1232,1232,1232,1232,1232,1232,1232,1232,1232,1232,1232,1227,1227,1227,1227,1227,1227,1227,1227,1227,1227,1223,1223,1223,1219,1219,1219,1219,1219,1219,1219,1219,1219,1219,1219,1219,1219,1214,1214,1214,1214,1214,1214,1219,1214,1214,1214,1214,1210,1210,1206,1206,1202,1202,1202,1202,1202,1206,1206,1206,1210,1210,1210,1210,1210,1206,1206,1202,1202,1202,1202,1202,1202,1202,1202,1202,1202,1202,1202,1202,1202,1202,1202,1202,1197,1197,1202,1202,1197,1197,1197,1202,1202,1202,1197,1197,1197,1197,1197,1197,1197,1197,1197,1197,1193,1193,1193,1193,1193,1193,1193,1193,1193,1193,1193,1193,1189,1189,1189,1189,1189,1189,1189,1189,1189,1193,1189,1189,1185,1185,1185,1185,1189,1189,1189,1189,1189,1189,1185,1185,1185,1185,1181,1181,0,0,0,1063,1063,1063,1063,1063,1060,1057,1054,978,978,978,938,938,940,940,938,938,938,938,938,938,938,938,938,938,938,938,940,940,943,946,946,946,946,946,946,948,948,0,0,0,0,0,0,0,0,0,0,0,0,0,0,0,0,0,0,0,0,0,0,0,0,0,0,0,0,0,0,0,0,0,0
