0,0,0,0,0,0,0,0,0,0,0,0,0,0,1696,1696,1696,1696,1688,1688,1688,1688,1688,1688,1688,1688,1688,1688,1688,1688,1688,1688,1688,1688,1688,1688,1688,1688,1688,1688,1688,1688,1696,1696,1696,1696,1696,1696,1696,1696,0,0,0,0,0,0,0,858,858,854,851,849,847,843,841,839,837,835,835,835,833,831,831,827,827,825,823,821,819,817,815,811,811,809,807,807,805,805,805,803,803,802,802,802,800,800,800,800,800,800,792,792,792,794,794,792,792,794,789,789,790,790,790,792,792,790,790,790,790,787,787,787,790,789,787,787,787,790,789,789,789,789,789,789,789,787,787,787,785,785,785,785,785,785,785,785,785,785,785,785,785,785,783,781,780,780,780,778,778,780,780,781,781,783,783,783,780,780,780,780,778,778,776,776,778,776,776,776,778,778,778,778,778,778,778,778,778,774,773,773,774,773,773,774,774,774,773,771,771,769,769,767,767,773,773,773,771,771,773,773,774,774,773,773,774,774,773,771,769,769,771,771,769,769,767,767,767,766,766,764,764,764,764,764,766,764,764,764,766,766,766,759,759,771,755,755,755,757,767,767,766,766,766,766,766,764,764,764,762,762,766,764,764,764,764,764,762,762,764,764,759,757,755,755,755,755,754,754,759,761,759,759,766,766,766,764,764,764,755,755,757,757,755,755,755,757,755,755,754,752,752,752,752,752,754,754,755,757,761,761,761,764,766,767,769,771,773,773,776,780,781,783,783,785,787,789,789,790,827,827,827,829,835,835,839,841,843,843,845,847,851,854,856,858,860,862,864,869,873,878,880,882,885,889,891,894,896,898,903,906,910,913,915,918,918,923,928,930,930,930,933,935,938,938,940,943,943,946,948,948,948,951,951,954,0,0,0,0,0,1529,1529,1529,1523,1523,1523,1523,1523,1523,1516,1516,1516,1516,1509,1503,1503,1503,1496,1496,1496,1489,1489,1489,1489,1489,1483,1483,1483,1477,1470,1470,1470,1470,1470,1470,1464,1464,1464,1464,1464,1458,1458,1452,1452,1452,1445,1445,1439,1439,1439,1439,1433,1433,1433,1433,1427,1427,1427,1421,1421,1421,1421,1415,1415,1415,1415,1410,1404,1404,1404,1404,1398,1398,1398,1398,1398,1392,1392,1392,1392,1387,1381,1381,1376,1376,1376,1376,1376,1370,1370,1370,1370,1370,1365,1365,1354,1354,1354,1354,1354,1354,1349,1349,1349,1349,1349,1343,1343,1343,1343,1338,1333,1333,1333,1328,1328,1328,1328,1322,1317,1317,1317,1317,1312,1312,1312,1312,1307,1307,1307,1307,1302,1297,1297,1292,1292,1292,1292,1292,1288,1288,1288,1288,1288,1283,1278,1273,1273,1273,1273,1273,1273,1268,1268,1268,1268,1264,1259,1255,1255,1255,1255,1250,1250,1250,1250,1250,1245,1245,1245,1245,1241,1241,1241,1236,1236,1236,1236,1236,1232,1232,1232,1232,1227,1227,1227,1223,1223,1219,1219,1219,1214,1214,1214,1214,1214,1210,1210,1206,1206,1206,1206,1206,1202,1202,1202,1202,1197,1197,1197,1193,1193,1193,1189,1189,1189,1189,1185,1185,1181,1181,1181,0,0,0,0,0,0,0,0,0,0,0,0,0,0,0,0,0,0,0,0,0,0,0,0,0,0,0,0,0
0,0,0,0,0,0,0,0,0,0,0,0,0,0,1696,1696,1696,1696,1696,1696,1688,1688,1688,1696,1688,1688,1688,1688,1688,1696,1688,1688,1688,1688,1688,1688,1688,1688,1688,1688,1688,1688,1696,1696,1696,1696,1696,1696,1696,1696,0,0,0,0,0,0,0,0,0,0,0,0,849,845,843,841,839,837,837,835,833,833,831,829,827,825,823,821,819,817,815,813,811,809,807,807,805,803,803,803,802,800,798,798,798,798,798,798,796,790,789,789,789,781,781,781,781,785,787,787,787,787,787,787,789,785,785,785,785,785,783,783,783,783,783,783,783,785,787,787,787,787,787,787,787,785,785,785,783,783,781,781,781,781,781,781,781,781,781,781,781,781,780,780,776,776,776,776,776,776,776,778,778,778,778,780,778,778,778,776,774,774,774,774,774,774,774,774,776,774,774,774,774,774,771,769,769,769,767,767,771,771,771,771,771,769,767,767,767,767,767,767,767,767,767,767,767,767,767,767,769,773,771,771,771,771,769,767,766,766,764,764,766,767,766,766,766,764,764,761,761,762,762,762,764,764,764,764,762,755,755,755,755,757,755,755,755,755,755,757,755,755,764,764,764,764,762,762,761,761,762,759,759,757,755,755,759,759,759,761,759,755,755,754,754,752,752,754,754,754,749,749,766,766,766,764,764,755,755,755,757,757,755,754,754,754,754,754,752,750,750,752,752,752,752,754,755,755,759,761,761,764,766,767,769,771,773,773,776,778,780,783,783,785,787,789,790,827,827,827,827,829,835,835,839,841,843,843,845,847,851,854,856,858,860,862,864,871,875,878,880,882,887,889,891,894,896,898,903,906,908,913,915,918,920,925,930,933,933,933,935,938,938,938,940,943,946,946,948,951,951,954,954,954,0,0,0,0,0,1536,1536,1529,1529,1529,1529,1523,1523,1523,1516,1516,1516,1516,1509,1509,1503,1503,1496,1496,1496,1496,1496,1496,1489,1489,1489,1483,1483,1483,1477,1477,1470,1470,1470,1470,1470,1464,1464,1464,1464,1464,1458,1458,1458,1452,1445,1445,1445,1439,1439,1439,1433,1433,1433,1433,1433,1427,1427,1427,1427,1421,1421,1415,1415,1415,1415,1410,1410,1410,1404,1404,1404,1398,1398,1398,1398,1392,1392,1392,1392,1387,1387,1381,1381,1376,1376,1376,1376,1370,1370,1370,1370,1370,1365,1365,1359,1354,1354,1354,1354,1354,1349,1349,1349,1349,1349,1349,1349,1343,1343,1338,1338,1333,1333,1333,1328,1328,1328,1322,1322,1317,1317,1317,1312,1312,1312,1312,1307,1307,1307,1307,1302,1297,1297,1292,1292,1292,1292,1292,1288,1288,1288,1288,1288,1283,1278,1278,1278,1273,1273,1273,1273,1273,1268,1268,1268,1268,1259,1259,1255,1255,1255,1250,1250,1250,1250,1250,1250,1245,1245,1245,1245,1241,1241,1236,1236,1236,1236,1236,1232,1232,1232,1232,1232,1227,1227,1223,1223,1223,1219,1219,1214,1214,1214,1214,1214,1210,1210,1210,1206,1206,1210,1206,1202,1202,1202,1202,1197,1197,1197,1193,1193,1193,1189,1189,1189,1189,1185,1185,1181,1181,1181,0,0,0,0,0,0,0,0,0,0,0,0,0,0,0,0,0,0,0,0,0,0,0,0,0,0,0,0,0
0,0,0,0,0,0,0,0,0,0,0,0,0,0,1705,1705,1705,1705,1696,1696,1696,1688,1688,1696,1688,1688,1688,1688,1688,1696,1688,1688,1688,1688,1688,1688,1688,1688,1688,1696,1696,1696,1696,1696,1696,1696,1688,1688,1705,1705,0,0,0,0,0,0,0,0,0,0,0,0,0,0,841,841,841,841,837,835,835,833,831,827,827,825,823,821,819,817,815,813,811,809,807,807,805,803,803,802,800,798,798,796,796,796,796,794,792,789,787,785,783,781,781,781,781,781,781,781,781,783,785,785,781,780,780,778,778,780,780,780,781,781,781,781,781,783,783,783,783,783,783,783,783,781,781,780,780,780,778,778,778,778,778,778,778,780,780,780,778,778,778,776,774,774,774,774,774,774,774,774,774,774,774,776,774,774,776,773,773,774,773,773,773,773,773,773,773,773,771,767,764,764,766,766,766,766,766,766,766,767,769,769,767,767,766,766,766,766,766,766,766,766,766,766,766,766,766,766,766,766,764,764,769,766,764,764,762,762,761,761,761,764,764,764,764,762,762,761,761,761,761,761,764,762,761,761,757,755,754,754,754,754,754,747,747,747,747,747,752,752,750,750,752,752,754,761,752,752,752,752,752,752,754,754,755,755,755,757,754,754,754,752,752,752,752,750,750,752,747,747,766,766,766,766,766,757,757,757,754,754,750,742,742,742,742,742,742,742,747,747,747,750,752,752,754,755,759,761,761,764,766,767,769,771,773,773,776,778,780,783,785,785,787,817,821,823,825,827,827,829,835,835,835,841,843,843,845,847,851,854,856,860,860,864,869,873,875,878,880,882,887,889,891,894,896,898,901,906,908,913,913,918,920,928,935,935,935,938,938,938,940,940,940,943,946,946,948,954,954,954,954,956,0,0,0,0,0,1543,1543,1536,1536,1529,1529,1523,1523,1523,1516,1516,1516,1516,1509,1509,1509,1503,1503,1496,1496,1496,1496,1496,1489,1489,1489,1483,1483,1483,1477,1477,1477,1470,1470,1470,1470,1464,1464,1464,1464,1464,1458,1458,1458,1452,1452,1445,1445,1439,1439,1439,1439,1433,1433,1433,1433,1427,1427,1427,1427,1421,1421,1421,1421,1415,1415,1415,1410,1410,1410,1410,1404,1404,1404,1404,1398,1398,1392,1392,1392,1392,1387,1381,1381,1376,1376,1376,1376,1370,1370,1370,1370,1370,1365,1365,1359,1359,1354,1354,1354,1354,1354,1349,1349,1349,1349,1349,1349,1343,1343,1338,1338,1333,1333,1333,1333,1328,1328,1328,1322,1322,1317,1317,1317,1312,1312,1312,1307,1307,1307,1307,1302,1297,1297,1292,1292,1292,1292,1292,1292,1288,1288,1288,1288,1288,1283,1278,1278,1278,1273,1273,1273,1273,1268,1268,1268,1264,1259,1259,1259,1255,1255,1255,1255,1250,1250,1250,1250,1250,1245,1245,1245,1241,1241,1236,1236,1236,1236,1236,1236,1232,1232,1232,1232,1227,1227,1227,1227,1223,1223,1219,1219,1214,1214,1214,1214,1214,1214,1210,1210,1210,1210,1206,1206,1206,1202,1202,1202,1197,1197,1197,1193,1193,1189,1189,1189,1189,1185,1185,1181,1181,1181,0,0,0,0,0,0,0,0,0,0,0,0,0,0,0,0,0,0,0,0,0,0,0,0,0,0,0,0,0
0,0,0,0,0,0,0,0,0,0,0,0,0,0,1705,1696,1696,1705,1705,1696,1696,1696,1696,1696,1696,1696,1696,1696,1696,1696,1696,1696,1696,1688,1688,1688,1688,1688,1696,1696,1696,1696,1696,1696,1696,1696,1688,1688,1688,1688,0,0,0,0,0,0,0,0,0,0,0,0,0,0,869,867,864,864,841,837,835,833,831,827,827,825,823,821,819,817,815,813,811,809,807,807,805,803,802,800,800,798,798,796,796,794,794,792,789,789,785,785,783,781,781,780,780,780,780,780,780,781,780,776,776,774,774,776,774,774,776,776,776,776,778,780,780,780,780,781,780,780,780,780,781,780,780,776,776,776,774,774,774,774,774,774,774,774,774,774,774,774,774,774,773,773,773,771,771,773,773,773,773,769,769,773,769,767,767,767,767,767,767,767,771,771,769,762,762,762,762,762,762,761,761,762,762,761,761,761,761,764,764,762,762,764,764,762,762,764,764,764,764,764,764,764,764,764,764,762,755,750,749,747,747,749,749,754,754,755,759,757,757,754,754,761,761,759,759,759,759,759,757,757,754,754,752,752,752,752,752,750,749,749,747,747,747,747,747,747,747,747,747,749,750,750,750,750,750,750,752,749,749,750,749,749,750,752,752,750,750,750,750,750,747,747,746,744,744,744,746,744,744,744,741,741,0,0,742,742,742,754,744,741,741,741,741,741,741,742,742,744,746,747,749,750,754,754,759,761,761,762,764,767,769,773,773,774,778,778,780,783,785,811,813,817,819,821,823,827,827,829,835,835,835,841,843,843,845,849,851,854,856,860,862,864,871,873,875,878,880,882,887,891,894,896,898,898,901,906,906,910,913,918,943,938,938,938,938,940,940,940,940,940,940,943,946,948,951,954,954,956,956,956,0,0,0,0,0,1543,1543,1536,1536,1536,1529,1523,1523,1523,1516,1516,1516,1516,1516,1509,1509,1509,1503,1503,1496,1496,1496,1496,1489,1489,1489,1489,1483,1483,1483,1483,1477,1477,1470,1470,1470,1464,1464,1464,1464,1464,1458,1458,1458,1452,1452,1445,1445,1439,1439,1439,1439,1439,1433,1433,1433,1427,1427,1427,1427,1421,1421,1421,1421,1415,1415,1415,1415,1415,1410,1410,1404,1404,1404,1404,1398,1398,1398,1392,1392,1392,1387,1387,1381,1381,1376,1376,1376,1376,1370,1370,1370,1370,1370,1365,1359,1359,1359,1354,1354,1354,1354,1354,1349,1349,1349,1349,1349,1343,1343,1343,1338,1333,1333,1333,1333,1328,1328,1328,1322,1322,1317,1317,1317,1317,1312,1312,1307,1307,1307,1307,1302,1302,1297,1297,1292,1292,1292,1292,1292,1288,1288,1288,1288,1288,1283,1283,1283,1278,1273,1273,1273,1273,1273,1268,1268,1264,1259,1259,1259,1255,1255,1255,1255,1250,1250,1250,1250,1250,1245,1245,1245,1245,1241,1241,1241,1236,1236,1236,1236,1232,1232,1232,1232,1227,1227,1227,1227,1223,1223,1219,1219,1214,1214,1214,1214,1214,1214,1214,1210,1210,1214,1210,1206,1206,1202,1202,1202,1202,1197,1197,1197,1197,1189,1189,1189,1189,1189,1185,1185,1185,1185,0,0,0,0,0,0,0,0,0,0,0,0,0,0,0,0,0,0,0,0,0,0,0,0,0,0,0,0,0
0,0,0,0,0,0,0,0,0,0,0,0,0,0,1705,1696,1696,1705,1705,1696,1696,1696,1696,1696,1696,1696,1696,1696,1696,1696,1696,1696,1696,1696,1696,1696,1696,1696,1696,1696,1696,1696,1696,1696,1696,1696,1688,1688,1688,1688,0,0,0,0,0,0,0,0,0,0,0,0,0,0,869,869,867,867,864,864,862,833,833,827,827,823,821,821,819,817,817,817,811,811,809,807,803,803,802,800,800,798,798,796,794,794,792,792,789,785,783,783,781,781,780,780,780,780,780,778,778,780,776,773,773,773,773,773,773,773,774,774,774,774,774,776,776,776,776,778,778,778,778,776,776,774,771,771,773,771,769,769,771,771,771,771,771,771,769,769,769,771,771,771,771,771,771,771,771,771,771,771,771,766,766,767,766,766,761,761,764,764,766,764,764,761,761,761,761,761,761,761,761,759,759,759,759,759,759,759,759,761,761,761,761,762,761,759,759,761,761,761,761,762,762,762,762,761,761,752,749,749,749,747,747,749,749,754,754,754,754,752,752,747,747,750,750,752,752,752,752,752,752,749,749,750,750,749,749,752,747,747,746,746,747,747,747,747,746,746,746,746,746,746,747,746,746,747,747,746,746,747,747,749,747,747,749,749,746,746,747,749,747,746,746,744,744,742,741,741,741,742,741,741,741,741,0,0,742,742,742,739,739,739,739,739,739,739,741,741,742,742,744,746,749,750,752,754,757,759,761,762,764,766,769,771,773,774,778,780,781,809,809,811,813,817,819,821,823,827,827,829,835,837,839,841,843,843,845,849,854,856,858,860,862,864,871,873,875,880,882,882,887,891,894,896,898,898,901,901,903,910,915,946,943,943,940,940,940,940,940,940,940,940,940,943,946,948,951,954,956,956,956,956,0,0,0,0,0,1543,1543,1543,1536,1536,1529,1523,1523,1523,1516,1516,1516,1516,1516,1509,1509,1509,1509,1503,1503,1496,1496,1496,1496,1489,1489,1489,1489,1489,1483,1483,1483,1477,1477,1470,1470,1470,1464,1464,1464,1464,1458,1458,1458,1452,1452,1445,1445,1445,1439,1439,1439,1439,1433,1433,1433,1427,1427,1427,1427,1421,1421,1421,1421,1415,1415,1415,1415,1415,1410,1410,1410,1410,1410,1404,1398,1398,1398,1392,1392,1392,1392,1387,1387,1381,1381,1376,1376,1376,1376,1376,1370,1370,1370,1370,1365,1359,1359,1354,1354,1354,1354,1354,1349,1349,1349,1349,1349,1349,1343,1343,1338,1333,1333,1333,1333,1328,1328,1328,1328,1328,1322,1322,1317,1317,1312,1312,1312,1307,1307,1307,1307,1302,1302,1297,1297,1292,1292,1292,1292,1288,1288,1288,1288,1288,1283,1283,1283,1278,1273,1273,1273,1273,1273,1268,1268,1268,1264,1264,1264,1255,1255,1255,1255,1255,1255,1250,1250,1250,1250,1250,1250,1245,1241,1241,1241,1241,1236,1236,1236,1236,1232,1232,1232,1227,1227,1227,1227,1223,1223,1219,1219,1214,1214,1219,1214,1214,1214,1214,1210,1210,1214,1210,1206,1206,1202,1202,1202,1202,1197,1197,1197,1197,1193,1193,1193,1193,1189,1185,1185,1185,1185,0,0,0,0,0,0,0,0,0,0,0,0,0,0,0,0,0,0,0,0,0,0,0,0,0,0,0,0,0
0,0,0,0,0,0,0,0,0,0,0,0,0,0,1705,1705,1705,1705,1705,1705,1696,1696,1696,1696,1696,1696,1696,1696,1696,1696,1696,1696,1696,1696,1696,1696,1696,1696,1696,1696,1696,1696,1696,1696,1696,1696,1696,1696,1688,1688,1696,0,0,0,0,0,0,0,0,0,0,0,0,0,869,869,867,867,864,864,862,860,860,858,856,823,821,821,819,817,817,817,813,811,809,807,803,803,802,800,800,798,798,796,794,794,792,790,789,785,783,781,781,780,780,780,780,778,776,776,776,773,771,769,769,767,767,771,771,771,773,771,769,769,769,769,771,771,771,767,767,767,767,767,761,761,764,761,761,762,762,766,769,767,767,767,767,767,767,767,767,767,767,769,769,769,767,766,764,761,755,755,761,759,759,762,764,762,759,759,761,761,761,761,761,759,759,757,757,759,759,759,759,755,755,755,755,755,755,755,755,759,759,759,754,754,759,754,752,750,750,752,752,759,759,759,759,754,749,749,749,749,749,747,747,749,749,749,749,749,747,746,744,744,742,741,741,744,750,750,749,747,747,746,746,741,741,742,741,741,742,746,746,746,746,746,746,746,746,746,746,744,744,744,744,744,744,744,744,744,744,744,744,742,742,742,742,746,744,744,744,746,746,744,744,742,741,741,739,739,738,738,738,741,741,741,733,733,733,733,733,733,734,736,738,738,738,738,739,739,741,742,744,746,747,749,752,754,757,759,761,762,764,766,769,771,773,774,778,805,805,809,809,811,813,817,819,821,821,827,829,833,837,837,839,841,843,843,845,849,854,856,858,862,862,867,871,875,878,880,882,885,889,891,894,896,898,898,898,898,903,954,951,946,946,946,943,943,943,943,940,940,940,940,943,943,946,948,951,954,956,956,959,959,0,0,0,0,0,1543,1543,1543,1536,1536,1529,1523,1523,1523,1523,1516,1516,1516,1516,1516,1516,1509,1509,1509,1503,1503,1496,1496,1496,1496,1496,1489,1489,1489,1489,1489,1483,1483,1477,1477,1470,1470,1464,1464,1464,1464,1458,1458,1458,1452,1452,1445,1445,1445,1445,1439,1439,1439,1439,1433,1433,1433,1427,1427,1427,1421,1421,1421,1421,1421,1415,1415,1415,1415,1410,1410,1410,1410,1410,1404,1404,1398,1398,1398,1392,1392,1392,1387,1387,1381,1381,1376,1376,1376,1376,1376,1370,1370,1370,1370,1365,1365,1359,1359,1354,1354,1354,1354,1354,1349,1349,1349,1349,1349,1343,1343,1338,1333,1333,1333,1333,1328,1328,1328,1328,1328,1328,1328,1322,1317,1317,1312,1312,1312,1307,1307,1307,1307,1302,1297,1297,1292,1292,1292,1292,1288,1288,1288,1288,1288,1283,1283,1283,1278,1273,1273,1273,1273,1273,1268,1268,1268,1264,1264,1264,1259,1259,1259,1259,1255,1255,1255,1250,1250,1250,1250,1250,1245,1245,1241,1241,1241,1236,1236,1236,1236,1232,1232,1232,1232,1227,1227,1227,1223,1223,1219,1219,1219,1219,1219,1214,1214,1214,1214,1214,1214,1214,1210,1210,1210,1206,1206,1202,1202,1197,1197,1197,1197,1193,1193,1193,1193,1193,1189,1185,1185,1185,0,0,0,0,0,0,0,0,0,0,0,0,0,0,0,0,0,0,0,0,0,0,0,0,0,0,0,0,0
0,0,0,0,0,0,0,0,0,0,0,0,0,0,1705,1705,1705,1705,1705,1705,1705,1696,1696,1696,1696,1696,1696,1696,1696,1696,1696,1696,1705,1696,1696,1696,1696,1696,1696,1705,1705,1705,1705,1705,1705,1705,1696,1696,1696,1696,1696,1696,0,0,0,0,0,0,0,0,0,0,0,0,871,869,867,867,867,864,864,862,860,858,858,858,858,821,819,817,817,817,815,811,811,809,803,803,802,800,800,798,798,796,794,794,792,790,789,785,783,781,781,780,780,780,780,778,776,774,773,769,769,767,767,767,767,767,764,764,766,764,761,761,762,762,766,762,762,766,762,761,761,761,761,761,761,759,759,759,759,759,759,759,766,766,766,766,764,764,764,766,766,766,766,766,766,755,754,754,752,752,752,754,755,755,757,757,759,759,757,755,754,754,754,754,755,754,754,754,754,754,755,752,752,752,752,752,754,750,750,754,752,750,750,750,750,750,750,749,749,749,747,747,747,747,747,747,746,746,747,747,746,746,747,747,747,747,746,746,744,742,742,741,741,741,741,744,741,741,746,746,744,742,741,739,739,741,741,741,741,744,744,744,744,744,744,744,744,742,742,742,742,742,742,741,741,734,734,733,733,733,739,741,741,741,738,738,734,734,734,746,746,744,744,739,739,738,738,734,734,736,734,734,734,731,733,733,733,733,733,733,733,734,736,736,736,738,738,739,741,741,744,746,747,749,752,754,757,757,761,762,764,764,766,767,773,800,802,803,805,807,809,813,815,817,819,821,821,827,833,835,837,837,841,841,843,845,847,849,854,858,860,862,864,869,873,875,878,880,882,885,889,891,894,896,896,898,898,898,954,951,951,948,948,946,946,943,943,943,943,943,940,940,943,943,946,951,954,956,956,959,959,959,0,0,0,0,0,1543,1543,1543,1536,1536,1529,1529,1523,1523,1523,1516,1516,1516,1516,1516,1516,1516,1516,1516,1503,1503,1496,1496,1496,1496,1496,1489,1489,1489,1489,1489,1483,1483,1483,1477,1470,1470,1464,1464,1464,1464,1464,1458,1458,1452,1452,1445,1445,1445,1445,1439,1439,1439,1439,1433,1433,1433,1427,1427,1427,1427,1421,1421,1421,1421,1415,1415,1415,1415,1410,1410,1410,1410,1410,1404,1404,1398,1398,1398,1392,1392,1392,1392,1387,1387,1381,1381,1381,1376,1376,1376,1376,1376,1370,1370,1365,1365,1365,1359,1359,1359,1354,1354,1354,1349,1349,1349,1349,1349,1343,1343,1338,1338,1338,1333,1333,1333,1328,1328,1328,1328,1328,1328,1322,1317,1317,1312,1312,1312,1307,1307,1307,1307,1307,1302,1302,1297,1292,1292,1292,1292,1288,1288,1288,1288,1283,1283,1283,1278,1278,1273,1273,1273,1273,1273,1268,1268,1268,1268,1264,1264,1264,1264,1259,1259,1255,1255,1255,1250,1250,1250,1250,1250,1245,1241,1241,1241,1236,1236,1236,1236,1236,1232,1232,1232,1232,1232,1227,1227,1223,1223,1219,1219,1219,1219,1219,1214,1214,1214,1214,1214,1214,1210,1210,1210,1206,1206,1206,1202,1202,1202,1197,1197,1193,1193,1193,1193,1193,1189,1185,1185,1185,0,0,0,0,0,0,0,0,0,0,0,0,0,0,0,0,0,0,0,0,0,0,0,0,0,0,0,0,0
0,0,0,0,0,0,0,0,0,0,0,0,0,1696,1696,1705,1705,1705,1705,1705,1705,1696,1696,1696,1696,1696,1696,1696,1696,1696,1696,1705,1705,1705,1705,1705,1705,1705,1705,1705,1705,1705,1705,1705,1705,1705,1696,1696,1696,1696,1696,1696,0,0,0,0,0,0,0,0,0,0,0,0,0,869,869,869,867,867,864,862,860,858,858,858,858,858,858,858,858,817,815,815,811,809,803,803,803,802,802,800,798,796,796,794,794,792,789,785,783,781,781,780,780,780,780,778,776,774,773,769,767,767,767,766,764,762,762,762,762,759,759,761,761,761,759,757,757,759,761,759,759,759,759,759,759,757,757,755,755,755,754,754,754,754,754,754,759,759,759,759,761,762,764,764,754,754,752,752,750,750,750,752,754,754,754,755,757,755,754,752,750,750,750,750,752,750,750,750,749,749,752,749,749,750,750,750,752,749,747,747,744,742,742,747,746,746,747,747,747,746,746,746,746,746,742,741,741,744,746,746,744,744,744,744,746,742,742,742,742,742,741,739,739,739,738,738,739,739,741,742,741,741,739,739,739,741,739,739,738,738,739,739,739,739,741,741,741,741,741,741,739,739,739,736,733,733,731,731,730,730,731,734,734,733,733,730,730,730,730,730,730,730,733,734,734,734,736,734,734,734,733,733,733,731,731,731,731,731,731,731,733,733,734,734,736,736,738,739,741,741,744,746,747,749,752,754,755,757,759,761,762,764,766,767,798,800,802,803,805,807,807,811,815,817,819,821,823,829,833,835,837,837,841,843,845,845,847,851,856,858,860,864,867,871,873,875,878,880,882,885,889,891,894,896,896,898,898,898,954,951,951,948,948,948,946,946,946,943,943,943,943,943,943,943,948,954,954,956,956,959,959,959,0,0,0,0,0,1543,1543,1543,1536,1536,1529,1529,1529,1523,1523,1523,1516,1516,1516,1516,1516,1516,1516,1509,1509,1503,1496,1496,1496,1496,1496,1489,1489,1489,1489,1489,1489,1483,1483,1477,1477,1470,1470,1470,1470,1464,1464,1464,1458,1458,1452,1445,1445,1445,1445,1439,1439,1439,1439,1439,1439,1433,1433,1427,1427,1427,1421,1421,1421,1421,1415,1415,1415,1415,1410,1410,1410,1410,1404,1404,1404,1398,1398,1398,1392,1392,1392,1392,1392,1387,1387,1381,1381,1381,1376,1376,1376,1376,1376,1370,1370,1365,1365,1359,1359,1359,1354,1354,1354,1354,1349,1349,1349,1349,1343,1343,1343,1343,1338,1333,1333,1333,1333,1328,1328,1328,1328,1328,1322,1322,1317,1312,1312,1312,1312,1307,1307,1307,1307,1307,1302,1302,1297,1297,1292,1292,1288,1288,1288,1288,1283,1283,1283,1278,1278,1273,1273,1273,1273,1273,1273,1268,1268,1268,1268,1264,1264,1264,1259,1259,1259,1255,1255,1255,1250,1250,1250,1250,1245,1245,1241,1241,1241,1236,1236,1236,1236,1236,1232,1232,1232,1232,1227,1227,1223,1223,1223,1223,1219,1219,1219,1219,1219,1214,1214,1214,1214,1210,1210,1210,1206,1206,1206,1202,1202,1202,1197,1197,1193,1193,1193,1193,1193,1189,1189,1185,1185,0,0,0,0,0,0,0,0,0,0,0,0,0,0,0,0,0,0,0,0,0,0,0,0,0,0,0,0,0
0,0,0,0,0,0,0,0,0,0,0,0,0,1696,1696,1705,1705,1705,1705,1705,1705,1705,1696,1696,1696,1696,1696,1696,1696,1696,1705,1705,1705,1705,1713,1713,1705,1705,1705,1705,1705,1705,1705,1705,1705,1705,1696,1696,1705,1696,1696,1705,0,0,0,0,0,0,0,0,0,0,0,0,0,871,869,869,869,867,864,862,860,860,860,860,860,858,858,858,858,856,854,851,849,849,803,803,803,802,802,800,800,798,796,796,794,792,790,787,787,781,781,780,780,780,778,778,774,773,773,769,767,767,766,764,762,762,762,761,761,757,757,759,759,759,757,754,754,757,759,759,757,755,755,757,755,754,754,754,754,754,750,750,752,752,752,750,750,749,749,752,746,746,746,746,746,750,749,749,749,749,749,750,750,750,750,752,752,754,750,747,747,747,747,747,747,747,747,747,747,747,749,747,747,744,741,741,749,747,739,739,739,738,738,744,742,742,742,744,746,744,741,741,742,742,741,739,739,739,741,739,739,739,739,741,741,741,739,739,739,739,739,736,736,736,736,734,734,734,734,739,739,739,739,739,739,739,738,736,736,736,736,734,734,733,733,733,733,739,739,739,739,738,734,731,730,730,728,728,728,728,728,730,730,728,728,728,728,728,727,727,728,728,727,727,723,723,734,734,734,731,728,728,728,727,727,728,728,728,730,730,731,733,733,734,736,736,738,739,741,741,744,746,747,749,752,754,755,757,759,761,762,790,792,796,798,800,802,803,805,805,807,811,817,819,821,823,823,829,833,835,839,839,841,843,845,847,851,851,856,858,862,867,869,873,875,878,878,880,882,885,887,889,894,896,896,898,898,956,954,954,951,951,948,948,946,946,946,943,943,943,943,943,943,946,948,954,956,956,959,959,962,962,0,0,0,0,0,1543,1543,1543,1543,1536,1536,1529,1529,1523,1523,1523,1516,1516,1516,1516,1516,1516,1516,1509,1509,1503,1503,1496,1496,1496,1496,1496,1489,1489,1489,1489,1489,1483,1483,1477,1477,1470,1470,1470,1470,1464,1464,1464,1464,1458,1458,1452,1445,1445,1445,1445,1439,1439,1439,1439,1439,1439,1433,1433,1427,1427,1427,1421,1421,1421,1415,1415,1415,1415,1410,1410,1410,1410,1404,1404,1404,1398,1398,1398,1392,1392,1392,1392,1392,1387,1387,1387,1381,1381,1381,1376,1376,1376,1376,1370,1370,1370,1365,1365,1359,1359,1354,1354,1354,1354,1349,1349,1349,1349,1343,1343,1343,1343,1338,1338,1333,1333,1333,1328,1328,1328,1328,1328,1322,1322,1317,1312,1312,1312,1312,1307,1307,1307,1307,1307,1307,1302,1302,1297,1292,1292,1292,1292,1288,1288,1288,1288,1283,1283,1278,1278,1273,1273,1273,1273,1273,1268,1268,1268,1268,1264,1264,1264,1259,1259,1259,1255,1255,1255,1250,1250,1250,1250,1250,1245,1245,1241,1241,1236,1236,1236,1236,1236,1232,1232,1232,1232,1227,1227,1227,1223,1223,1223,1219,1219,1219,1219,1219,1214,1214,1214,1214,1214,1210,1210,1206,1206,1206,1202,1202,1202,1197,1197,1197,1197,1193,1193,1193,1193,1189,1189,1189,0,0,0,0,0,0,0,0,0,0,0,0,0,0,0,0,0,0,0,0,0,0,0,0,0,0,0,0,0
0,0,0,0,0,0,0,0,0,0,0,0,0,1696,1696,1705,1705,1705,1705,1705,1705,1705,1705,1705,1705,1705,1705,1705,1705,1705,1705,1705,1713,1713,1713,1713,1713,1713,1713,1713,1713,1713,1705,1705,1705,1705,1696,1696,1705,1696,1696,1696,1705,0,0,0,0,0,0,0,0,0,0,0,0,871,871,871,869,867,867,864,860,860,860,860,860,860,858,858,858,856,854,851,849,849,843,803,802,802,802,802,800,798,796,794,794,792,790,789,787,783,781,780,780,780,778,774,773,773,771,767,767,766,766,764,762,762,761,761,759,757,757,757,757,757,754,752,752,752,752,752,754,754,754,754,752,752,752,752,752,750,749,749,750,750,750,747,747,747,747,746,741,741,742,742,742,742,746,746,747,747,747,747,750,742,742,742,752,749,746,742,742,744,744,746,744,744,746,746,741,741,739,739,744,742,739,739,742,744,739,739,736,736,736,738,736,736,741,741,742,741,739,739,741,741,739,739,738,738,738,738,734,734,734,734,739,738,738,738,738,738,738,734,734,734,734,733,733,731,731,733,736,736,738,738,739,739,734,734,734,733,733,734,733,733,733,720,720,719,719,738,738,728,728,728,728,728,727,727,727,727,727,725,725,725,725,727,727,725,725,725,727,727,725,723,722,722,722,722,722,722,725,725,723,723,723,727,728,728,728,728,728,728,733,734,734,736,739,739,741,741,744,746,747,749,750,754,755,757,757,789,789,790,792,796,798,800,802,803,805,805,809,811,815,819,821,823,825,831,835,837,839,839,841,843,845,847,851,851,858,862,864,867,869,873,875,875,880,880,882,885,887,889,894,894,896,896,956,956,956,956,954,951,951,948,948,946,946,946,946,946,946,946,946,946,948,954,956,959,959,962,962,962,0,0,0,0,0,1543,1543,1543,1543,1543,1536,1536,1536,1529,1523,1523,1523,1516,1516,1516,1516,1516,1516,1516,1509,1509,1503,1496,1496,1496,1496,1496,1496,1489,1489,1489,1483,1483,1483,1477,1477,1470,1470,1470,1470,1470,1464,1464,1464,1464,1458,1452,1452,1445,1445,1445,1445,1445,1439,1439,1439,1439,1433,1433,1433,1427,1427,1427,1421,1421,1415,1415,1415,1415,1410,1410,1410,1410,1404,1404,1404,1398,1398,1398,1398,1392,1392,1392,1392,1392,1387,1387,1387,1381,1381,1381,1376,1376,1376,1376,1370,1370,1370,1365,1365,1365,1359,1359,1359,1354,1354,1354,1349,1349,1349,1349,1343,1343,1343,1338,1333,1333,1333,1333,1333,1328,1328,1328,1322,1322,1317,1312,1312,1312,1312,1312,1312,1312,1307,1307,1307,1307,1302,1302,1297,1292,1292,1292,1288,1288,1288,1288,1283,1283,1278,1278,1278,1273,1273,1273,1273,1273,1268,1268,1268,1268,1264,1264,1259,1259,1259,1259,1255,1255,1255,1250,1250,1250,1250,1250,1250,1245,1245,1241,1241,1241,1236,1236,1236,1232,1232,1232,1232,1227,1227,1227,1223,1223,1223,1219,1219,1219,1219,1214,1214,1214,1214,1210,1210,1210,1210,1210,1206,1206,1202,1202,1202,1197,1197,1197,1197,1197,1197,1193,1193,1193,1193,0,0,0,0,0,0,0,0,0,0,0,0,0,0,0,0,0,0,0,0,0,0,0,0,0,0,0,0,0
0,0,0,0,0,0,0,0,0,0,0,0,0,1696,1696,1705,1705,1705,1705,1705,1705,1705,1705,1705,1705,1705,1705,1705,1705,1705,1705,1705,1713,1713,1713,1713,1713,1713,1713,1713,1722,1713,1713,1713,1705,1705,1705,1696,1696,1696,1696,1696,1705,0,0,0,0,0,0,0,0,0,0,0,0,0,871,871,871,869,867,864,860,860,860,860,860,860,860,860,858,856,854,854,851,849,843,841,802,802,802,802,800,796,794,792,792,792,789,787,787,787,783,781,781,780,780,774,773,773,771,767,767,766,766,764,762,761,761,759,757,755,755,755,755,754,750,749,749,747,747,747,747,749,750,752,750,747,747,747,747,747,747,747,747,747,747,746,746,744,744,742,741,741,739,739,739,739,742,742,744,744,742,742,742,741,739,739,739,742,739,739,739,741,741,742,741,739,739,739,738,738,738,738,734,734,734,733,730,730,730,734,734,734,734,736,736,736,738,739,739,739,739,734,734,739,738,738,734,734,736,734,733,733,733,730,730,728,728,730,734,733,733,733,733,733,733,730,730,730,730,733,733,733,738,738,738,728,728,728,730,730,730,731,730,730,728,720,720,719,719,719,720,722,722,722,720,720,725,723,723,723,723,723,723,723,723,725,725,723,722,722,723,723,720,720,720,720,720,720,719,719,720,719,719,722,722,723,727,727,727,728,728,728,730,733,734,736,739,739,741,741,744,746,747,747,749,754,755,757,757,789,790,792,794,796,798,800,802,803,805,807,809,811,815,819,821,825,827,831,833,835,837,839,841,843,845,847,851,854,860,862,864,869,869,873,873,875,878,880,882,885,887,887,894,894,896,896,956,956,956,956,954,954,951,951,948,946,946,946,946,946,946,946,946,948,951,954,956,959,959,962,962,962,0,0,0,0,0,1543,1543,1543,1543,1543,1536,1536,1536,1529,1529,1523,1523,1516,1516,1516,1516,1516,1516,1516,1509,1509,1503,1503,1496,1496,1496,1496,1496,1489,1489,1489,1483,1483,1483,1477,1477,1477,1470,1470,1470,1470,1464,1464,1464,1464,1464,1452,1452,1452,1445,1445,1445,1445,1439,1439,1439,1439,1439,1439,1433,1433,1433,1427,1427,1421,1421,1415,1415,1415,1415,1415,1415,1410,1410,1404,1404,1398,1398,1398,1398,1392,1392,1392,1392,1392,1392,1387,1387,1387,1381,1381,1381,1376,1376,1376,1370,1370,1370,1365,1365,1365,1359,1359,1359,1354,1354,1354,1349,1349,1349,1349,1349,1349,1343,1338,1338,1333,1333,1333,1333,1328,1328,1328,1322,1322,1317,1317,1312,1312,1312,1312,1312,1312,1312,1307,1307,1307,1302,1302,1297,1297,1292,1292,1292,1288,1288,1288,1288,1283,1283,1278,1278,1273,1273,1273,1273,1273,1268,1268,1268,1268,1268,1264,1264,1264,1259,1259,1255,1255,1255,1250,1250,1250,1250,1250,1250,1245,1245,1241,1241,1241,1236,1236,1236,1236,1232,1232,1232,1232,1227,1227,1227,1227,1223,1223,1219,1219,1219,1219,1214,1214,1214,1210,1210,1210,1210,1210,1210,1206,1206,1206,1202,1202,1197,1197,1197,1197,1197,1197,1193,1193,1193,0,0,0,0,0,0,0,0,0,0,0,0,0,0,0,0,0,0,0,0,0,0,0,0,0,0,0,0,0
0,0,0,0,0,0,0,0,0,0,0,0,0,1696,1696,1713,1705,1705,1705,1713,1713,1713,1705,1705,1705,1705,1705,1705,1705,1705,1705,1713,1713,1713,1713,1713,1713,1713,1713,1722,1722,1713,1713,1713,1713,1713,1705,1696,1696,1696,1696,1705,1705,1705,0,0,0,0,0,0,0,0,0,0,0,0,871,871,871,869,867,864,862,862,860,860,860,860,860,860,858,856,854,851,851,849,843,843,841,841,839,802,802,796,790,790,790,790,789,787,787,787,781,781,781,780,780,776,774,773,771,767,767,766,766,764,761,761,759,759,757,755,755,754,752,752,749,747,747,746,746,746,746,746,747,746,746,744,742,742,746,742,742,744,746,746,744,744,744,742,742,742,741,739,739,739,738,736,736,734,734,736,734,734,739,739,739,738,738,739,738,738,738,738,738,736,736,730,730,730,730,730,730,728,728,728,730,728,728,728,728,730,730,731,731,734,736,736,738,738,738,734,734,733,730,730,730,730,730,730,731,730,730,731,730,730,728,727,727,727,725,723,723,723,727,727,728,728,728,728,728,730,728,728,728,722,722,727,727,727,728,728,728,730,730,728,725,722,722,720,719,719,720,722,720,719,719,720,720,722,722,722,722,722,720,720,720,722,720,720,717,717,719,717,717,717,719,717,717,717,717,717,717,717,717,719,720,720,722,725,727,727,728,728,730,733,734,736,739,741,741,742,744,746,747,747,749,780,783,787,789,789,790,792,794,796,798,800,802,803,805,807,809,811,817,819,821,825,827,831,833,835,837,839,841,843,845,847,851,854,860,862,867,869,871,873,873,875,878,880,882,885,887,887,894,894,0,959,956,956,956,956,956,954,954,951,951,948,948,946,946,946,946,946,946,948,951,954,956,959,959,962,962,962,0,0,0,0,0,1550,1550,1550,1543,1543,1543,1543,1536,1536,1529,1529,1523,1523,1523,1516,1516,1516,1516,1516,1509,1509,1509,1503,1503,1496,1496,1496,1496,1489,1489,1489,1483,1483,1483,1483,1477,1477,1477,1470,1470,1470,1470,1470,1464,1464,1464,1464,1458,1452,1452,1445,1445,1445,1445,1445,1439,1439,1439,1439,1439,1433,1433,1427,1427,1421,1421,1421,1421,1415,1415,1415,1415,1410,1410,1404,1404,1404,1404,1398,1398,1398,1398,1392,1392,1392,1392,1392,1387,1387,1387,1387,1381,1376,1376,1376,1376,1370,1370,1370,1370,1365,1359,1359,1359,1354,1354,1354,1349,1349,1349,1349,1349,1349,1343,1343,1338,1338,1333,1333,1333,1333,1333,1328,1328,1322,1322,1317,1317,1312,1312,1312,1312,1312,1312,1312,1307,1307,1307,1302,1302,1297,1292,1292,1292,1292,1288,1288,1288,1283,1283,1283,1278,1273,1273,1273,1273,1273,1268,1268,1268,1268,1268,1264,1264,1264,1259,1255,1255,1255,1255,1255,1250,1250,1250,1250,1250,1250,1245,1245,1245,1241,1241,1236,1236,1236,1236,1232,1232,1232,1232,1227,1227,1227,1223,1223,1223,1219,1219,1219,1214,1214,1214,1214,1214,1214,1210,1210,1210,1206,1206,1202,1202,1202,1197,1197,1197,1197,1197,1197,1193,1193,1193,0,0,0,0,0,0,0,0,0,0,0,0,0,0,0,0,0,0,0,0,0,0,0,0,0,0,0,0,0
0,0,0,0,0,0,0,0,0,0,0,0,0,1696,1696,1713,1713,1705,1705,1713,1713,1713,1713,1705,1705,1705,1705,1705,1705,1705,1705,1713,1713,1713,1713,1722,1722,1722,1722,1722,1722,1713,1713,1713,1713,1713,1705,1705,1705,1696,1696,1705,1705,1705,1705,1705,0,0,0,0,0,0,0,0,0,0,873,871,871,871,869,867,867,864,862,862,862,860,860,860,858,856,854,851,851,849,843,843,841,841,839,839,839,835,790,790,790,790,789,787,783,783,781,781,781,780,780,780,774,773,771,769,767,766,766,764,761,761,759,759,757,755,755,754,752,750,749,747,746,746,746,746,744,744,741,741,742,742,741,741,741,736,734,734,744,744,739,736,736,739,741,741,738,738,738,738,736,734,734,733,733,733,730,730,734,734,734,734,731,731,733,734,734,734,736,733,733,730,730,728,728,728,727,727,728,728,728,728,728,727,727,727,728,728,728,728,731,731,731,725,722,722,723,727,725,723,723,727,727,727,727,727,728,730,730,728,728,727,727,725,723,722,722,722,722,720,720,725,723,723,723,725,722,722,722,722,722,722,723,723,723,725,725,727,723,720,720,720,720,720,720,720,720,720,719,717,717,720,720,720,719,719,720,720,717,717,717,719,717,717,717,717,717,716,711,711,714,714,714,714,714,714,716,716,716,717,719,719,720,722,723,727,728,728,730,733,734,736,739,741,741,744,744,746,747,747,749,780,783,787,789,789,790,792,794,796,798,802,803,803,805,807,809,811,817,821,821,825,827,831,833,835,837,841,843,845,845,849,851,854,860,860,867,869,869,871,873,875,878,880,882,0,0,0,0,0,0,0,956,956,956,956,956,954,954,951,951,948,948,948,946,946,948,948,948,951,951,956,956,959,959,962,962,964,0,0,0,0,0,1550,1550,1550,1543,1543,1543,1543,1536,1536,1536,1529,1523,1523,1523,1516,1516,1516,1516,1516,1516,1509,1509,1509,1503,1503,1496,1496,1496,1489,1489,1489,1489,1483,1483,1483,1483,1477,1477,1470,1470,1470,1470,1470,1470,1464,1464,1464,1464,1458,1452,1445,1445,1445,1445,1445,1439,1439,1439,1439,1439,1433,1433,1433,1427,1427,1421,1421,1421,1415,1415,1415,1415,1410,1410,1410,1404,1404,1404,1398,1398,1398,1398,1392,1392,1392,1392,1392,1392,1392,1387,1387,1381,1376,1376,1376,1376,1370,1370,1370,1370,1365,1365,1365,1365,1359,1354,1354,1354,1349,1349,1349,1349,1349,1349,1343,1343,1338,1333,1333,1333,1333,1333,1328,1328,1322,1322,1317,1317,1317,1317,1312,1312,1312,1312,1312,1307,1307,1307,1307,1302,1302,1302,1292,1292,1292,1292,1288,1288,1288,1283,1283,1283,1278,1273,1273,1273,1273,1268,1268,1268,1268,1268,1264,1264,1264,1259,1255,1255,1255,1255,1255,1250,1250,1250,1250,1250,1250,1250,1245,1245,1241,1241,1241,1236,1236,1236,1236,1232,1232,1232,1232,1232,1227,1223,1223,1223,1219,1219,1219,1214,1214,1214,1214,1214,1214,1210,1210,1210,1210,1206,1202,1202,1202,1197,1197,1197,1197,1197,1197,1193,1193,1193,0,0,0,0,0,0,0,0,0,0,0,0,0,0,0,0,0,0,0,0,0,0,0,0,0,0,0,0,0
0,0,0,0,0,0,0,0,0,0,0,0,0,1696,1696,1713,1713,1705,1705,1713,1713,1713,1713,1713,1713,1713,1713,1713,1713,1713,1713,1713,1713,1722,1722,1722,1722,1722,1722,1722,1722,1722,1713,1713,1713,1713,1713,1705,1705,1696,1696,1705,1705,1705,1705,1705,0,0,0,0,0,0,0,0,0,0,875,873,873,871,869,869,869,867,864,864,864,862,862,862,860,858,856,854,851,849,845,843,843,841,841,839,839,835,833,833,827,827,825,787,783,783,783,781,781,780,780,780,774,773,771,769,767,767,766,766,764,762,761,759,757,755,755,754,752,750,747,747,746,746,744,744,742,742,741,741,741,741,736,734,734,733,733,733,734,734,734,730,730,728,728,730,730,736,736,736,736,734,733,731,731,731,728,727,723,722,722,722,730,730,731,733,733,733,733,731,728,723,723,725,725,723,723,725,725,725,725,725,725,723,723,725,727,725,725,722,722,725,722,722,720,720,720,722,722,722,722,723,725,723,723,725,727,727,727,727,727,727,725,725,722,720,720,719,717,717,717,717,716,714,714,716,717,720,722,722,722,722,723,723,723,723,722,719,719,719,719,717,717,719,716,716,714,714,714,714,714,716,716,716,717,719,716,716,716,716,716,716,716,716,716,716,714,714,711,711,713,713,713,711,711,713,714,714,714,716,717,719,720,722,723,727,727,728,730,731,733,736,739,742,742,744,746,746,747,747,778,780,783,787,789,789,790,792,794,796,798,802,803,803,805,807,813,815,817,821,821,825,829,831,835,835,839,841,843,845,847,851,854,858,860,860,864,869,869,871,873,873,878,880,0,0,0,0,0,0,0,0,0,959,959,956,956,956,954,954,951,951,951,948,948,948,948,948,951,954,954,956,959,959,962,962,962,964,0,0,0,0,0,1550,1550,1550,1550,1543,1543,1543,1543,1536,1536,1529,1523,1523,1523,1523,1516,1516,1516,1516,1516,1509,1509,1509,1503,1503,1496,1496,1496,1489,1489,1489,1489,1489,1483,1483,1483,1483,1477,1477,1477,1470,1470,1470,1470,1470,1470,1464,1464,1464,1452,1452,1445,1445,1445,1445,1439,1439,1439,1439,1439,1439,1439,1433,1427,1427,1427,1421,1421,1421,1415,1415,1415,1415,1410,1410,1404,1404,1404,1404,1398,1398,1398,1398,1398,1392,1392,1392,1392,1392,1387,1387,1381,1376,1376,1376,1376,1370,1370,1370,1370,1370,1365,1365,1365,1359,1359,1354,1354,1354,1354,1349,1349,1349,1349,1343,1343,1338,1338,1333,1333,1333,1333,1328,1328,1322,1322,1317,1317,1317,1317,1312,1312,1312,1312,1312,1312,1307,1307,1307,1307,1302,1302,1297,1292,1292,1292,1288,1288,1288,1288,1288,1283,1283,1278,1278,1273,1273,1273,1268,1268,1268,1268,1268,1264,1264,1264,1259,1255,1255,1255,1255,1255,1250,1250,1250,1250,1250,1250,1250,1245,1245,1241,1241,1241,1241,1236,1236,1232,1232,1232,1232,1232,1232,1227,1227,1223,1223,1219,1219,1214,1214,1214,1214,1214,1214,1214,1210,1210,1210,1206,1206,1202,1202,1197,1197,1197,1197,1197,1197,1197,1197,1197,0,0,0,0,0,0,0,0,0,0,0,0,0,0,0,0,0,0,0,0,0,0,0,0,0,0,0,0,0
0,0,0,0,0,0,0,0,0,0,0,0,0,1696,1696,1713,1713,1713,1713,1713,1722,1722,1722,1722,1722,1722,1722,1722,1722,1713,1713,1713,1722,1722,1722,1722,1722,1722,1722,1722,1722,1722,1722,1722,1713,1713,1713,1713,1705,1705,1705,1705,1705,1705,1705,1705,1722,0,0,0,0,0,0,0,0,0,0,873,873,873,871,869,869,869,867,864,864,864,864,864,862,860,858,854,854,851,849,849,843,841,841,841,839,837,833,833,829,829,827,821,821,819,819,819,781,781,781,780,780,773,771,769,767,767,767,766,764,762,761,761,759,755,755,754,752,749,747,747,744,744,744,742,742,741,741,741,739,739,734,734,733,733,733,731,731,728,728,728,727,727,727,727,728,728,728,734,734,733,731,728,727,727,727,723,723,722,720,719,719,720,720,722,727,727,727,725,725,723,723,723,723,723,723,723,722,722,722,722,723,723,722,722,722,722,722,719,717,716,716,719,717,717,717,717,717,720,720,722,722,722,722,722,722,722,716,716,716,716,722,719,719,719,719,717,716,714,714,714,714,714,714,714,714,714,714,706,723,723,722,722,723,714,714,714,711,711,713,714,714,714,714,714,714,713,713,714,714,714,713,713,714,713,711,708,708,707,707,707,707,707,707,707,714,708,708,708,708,711,711,710,710,711,711,713,714,714,717,719,720,722,723,727,727,728,728,730,731,736,739,742,742,744,746,746,747,776,778,780,785,787,787,789,790,792,794,796,798,802,803,805,807,807,815,817,819,821,823,825,829,831,835,835,839,843,843,845,849,851,854,858,858,860,864,867,867,869,871,873,878,0,0,0,0,0,0,0,0,0,0,959,959,959,959,959,956,954,954,951,951,948,948,948,951,951,951,954,954,956,959,959,962,964,964,967,0,0,0,0,0,1557,1550,1550,1550,1543,1543,1543,1543,1536,1536,1536,1529,1523,1523,1523,1523,1516,1516,1516,1516,1509,1509,1509,1509,1503,1503,1496,1496,1496,1489,1489,1489,1489,1489,1483,1483,1483,1477,1477,1477,1470,1470,1470,1470,1470,1464,1464,1464,1464,1458,1452,1452,1445,1445,1445,1445,1445,1439,1439,1439,1439,1439,1433,1427,1427,1427,1421,1421,1421,1415,1415,1415,1415,1415,1415,1410,1410,1404,1404,1398,1398,1398,1398,1398,1392,1392,1392,1392,1392,1392,1387,1381,1381,1381,1376,1376,1370,1370,1370,1370,1370,1370,1365,1365,1365,1359,1354,1354,1354,1354,1349,1349,1349,1349,1349,1343,1343,1338,1338,1338,1333,1333,1333,1328,1322,1322,1322,1317,1317,1317,1312,1312,1312,1312,1312,1312,1307,1307,1307,1307,1307,1302,1297,1297,1292,1292,1292,1288,1288,1288,1288,1288,1283,1278,1278,1278,1278,1273,1268,1268,1268,1268,1268,1268,1264,1264,1259,1255,1255,1255,1255,1255,1255,1250,1250,1250,1250,1250,1250,1245,1245,1245,1241,1241,1241,1236,1236,1236,1232,1232,1232,1232,1232,1227,1227,1223,1223,1223,1219,1219,1219,1219,1214,1214,1214,1214,1214,1214,1210,1210,1206,1202,1202,1202,1202,1202,1197,1197,1197,1197,1197,1197,0,0,0,0,0,0,0,0,0,0,0,0,0,0,0,0,0,0,0,0,0,0,0,0,0,0,0,0,0
0,0,0,0,0,0,0,0,0,0,0,0,0,1696,1696,1705,1713,1713,1722,1722,1722,1722,1722,1722,1722,1722,1722,1722,1722,1722,1713,1713,1722,1722,1722,1722,1722,1722,1722,1722,1722,1722,1722,1722,1722,1713,1713,1713,1713,1713,1713,1713,1713,1713,1713,1713,1722,0,0,0,0,0,0,0,0,0,0,0,873,873,871,871,871,869,869,869,867,867,867,864,862,860,858,856,854,851,849,849,847,847,841,841,841,837,835,833,829,829,827,823,821,819,819,819,819,781,781,780,780,776,774,773,767,767,767,766,766,764,762,761,759,757,755,754,752,749,747,747,744,744,744,742,741,741,741,739,739,734,734,733,733,731,730,728,727,727,727,727,727,725,725,725,727,727,723,722,722,722,722,725,723,723,723,722,722,720,720,719,717,717,719,719,720,720,720,723,723,722,722,722,722,722,722,722,722,722,720,720,720,722,722,720,720,720,720,716,714,714,714,716,716,716,716,716,716,716,716,720,720,719,717,716,714,714,714,714,713,713,713,713,713,713,713,714,713,711,711,711,711,713,713,708,708,710,706,706,703,703,722,704,700,700,708,707,707,707,708,708,711,714,714,713,711,711,713,713,711,711,710,710,708,707,707,707,707,706,704,704,704,704,704,704,704,704,706,706,707,708,708,708,708,710,710,713,713,714,717,719,720,722,723,725,727,727,728,730,731,736,739,742,742,744,767,771,771,774,780,780,783,785,787,789,790,792,794,796,798,802,803,805,807,811,817,817,819,821,823,825,829,833,835,837,841,843,843,847,849,851,854,858,858,860,862,864,867,869,871,873,0,0,0,0,0,0,0,0,0,0,0,959,959,959,959,959,956,956,956,954,951,951,951,951,951,951,954,954,954,956,959,959,962,964,967,967,970,0,0,0,0,1557,1550,1550,1550,1543,1543,1543,1543,1536,1536,1536,1529,1529,1523,1523,1523,1516,1516,1516,1516,1509,1509,1509,1509,1509,1503,1496,1496,1496,1496,1489,1489,1489,1489,1489,1483,1483,1483,1477,1477,1470,1470,1470,1470,1464,1464,1464,1464,1464,1458,1458,1452,1452,1445,1445,1445,1445,1445,1439,1439,1439,1439,1439,1433,1433,1427,1427,1421,1421,1421,1415,1415,1415,1415,1415,1410,1410,1410,1404,1398,1398,1398,1398,1398,1392,1392,1392,1392,1392,1392,1392,1387,1381,1381,1376,1376,1376,1370,1370,1370,1370,1370,1365,1365,1365,1359,1354,1354,1354,1354,1349,1349,1349,1349,1349,1343,1343,1338,1338,1338,1333,1333,1333,1333,1328,1328,1328,1322,1317,1317,1317,1312,1312,1312,1312,1312,1312,1307,1307,1307,1307,1307,1302,1297,1297,1292,1292,1292,1288,1288,1288,1288,1288,1283,1283,1278,1278,1273,1273,1273,1268,1268,1268,1268,1268,1264,1259,1259,1259,1259,1255,1255,1255,1255,1255,1255,1250,1250,1250,1245,1245,1245,1245,1241,1241,1241,1236,1236,1236,1232,1232,1232,1232,1232,1227,1223,1223,1223,1219,1219,1219,1219,1214,1214,1214,1214,1214,1214,1210,1210,1206,1206,1202,1202,1202,1202,1197,1197,1197,1197,1197,1197,0,0,0,0,0,0,0,0,0,0,0,0,0,0,0,0,0,0,0,0,0,0,0,0,0,0,0,0,0
0,0,0,0,0,0,0,0,0,0,0,0,0,0,1705,1705,1713,1713,1722,1722,1722,1722,1722,1722,1722,1722,1722,1722,1722,1722,1713,1713,1722,1722,1722,1722,1722,1722,1722,1722,1722,1722,1722,1722,1722,1713,1713,1713,1713,1713,1713,1713,1713,1713,1713,1713,1722,0,0,0,0,0,0,0,0,0,0,0,873,873,873,871,871,871,869,869,869,867,867,867,864,862,860,858,856,854,851,851,849,847,841,841,841,839,837,835,833,829,827,825,823,819,819,819,819,819,819,817,781,776,774,773,767,767,767,766,766,766,762,761,759,759,757,754,752,750,747,747,746,744,744,742,741,741,741,739,734,734,733,733,731,731,730,728,727,727,727,725,725,723,723,723,723,720,719,717,717,717,719,719,720,720,720,720,719,719,717,717,716,716,716,717,716,716,716,719,719,719,719,720,720,720,719,719,720,719,719,720,720,720,720,719,719,719,717,714,713,713,713,713,713,714,714,714,714,714,714,714,716,714,713,713,710,710,710,710,708,708,707,707,710,708,708,710,710,707,707,708,708,710,710,706,706,706,706,706,703,703,703,701,700,700,701,703,703,703,704,704,704,704,704,706,704,704,703,703,706,700,700,700,700,700,701,703,703,704,703,703,703,703,703,701,701,701,701,704,704,706,708,708,708,708,710,711,713,714,717,719,720,722,723,725,727,727,730,730,761,759,759,761,764,766,767,771,771,774,776,780,783,785,787,789,790,794,796,798,800,802,805,807,809,811,817,817,819,821,823,825,829,833,835,837,841,843,845,847,849,854,854,858,860,860,862,864,867,869,871,0,0,0,0,0,0,0,0,0,0,0,0,959,959,959,959,959,959,956,956,956,954,954,954,954,954,954,954,956,956,959,959,962,964,967,967,970,970,0,0,0,0,0,1550,1550,1550,1543,1543,1543,1543,1536,1536,1536,1529,1529,1523,1523,1523,1516,1516,1516,1516,1516,1509,1509,1509,1509,1503,1496,1496,1496,1496,1489,1489,1489,1489,1489,1489,1489,1483,1477,1477,1470,1470,1470,1470,1464,1464,1464,1464,1464,1464,1458,1458,1452,1452,1445,1445,1445,1445,1445,1439,1439,1439,1439,1433,1433,1427,1427,1421,1421,1421,1421,1421,1415,1415,1415,1415,1415,1410,1410,1404,1404,1398,1398,1398,1398,1392,1392,1392,1392,1392,1392,1387,1381,1381,1376,1376,1376,1376,1370,1370,1370,1370,1370,1365,1365,1365,1359,1354,1354,1354,1349,1349,1349,1349,1349,1343,1343,1338,1338,1338,1338,1333,1333,1333,1333,1328,1328,1322,1322,1322,1317,1317,1317,1312,1312,1312,1312,1312,1307,1307,1307,1307,1302,1302,1297,1292,1292,1292,1292,1288,1288,1288,1288,1283,1283,1283,1278,1273,1273,1273,1273,1268,1268,1268,1268,1268,1264,1259,1259,1259,1259,1255,1255,1255,1255,1255,1250,1250,1250,1250,1245,1245,1245,1245,1241,1241,1236,1236,1236,1236,1232,1232,1232,1232,1232,1227,1223,1223,1223,1219,1219,1219,1219,1214,1214,1214,1214,1214,1214,1210,1210,1206,1206,1202,1202,1202,1202,1202,1197,1197,1197,1197,0,0,0,0,0,0,0,0,0,0,0,0,0,0,0,0,0,0,0,0,0,0,0,0,0,0,0,0,0
0,0,0,0,0,0,0,0,0,0,0,0,0,0,1713,1713,1722,1722,1722,1722,1722,1722,1722,1731,1722,1722,1731,1731,1722,1722,1722,1722,1722,1722,1722,1722,1722,1722,1722,1722,1722,1722,1722,1722,1722,1722,1713,1713,1713,1713,1713,1713,1713,1722,1722,1722,1722,0,0,0,0,0,0,0,0,0,0,0,875,875,873,873,873,873,871,869,869,867,867,867,867,864,860,860,858,856,851,851,849,847,845,845,843,839,837,835,835,833,829,827,825,823,821,819,819,819,817,817,811,809,807,807,807,807,767,766,766,766,764,761,761,759,757,755,752,750,749,747,746,746,744,744,741,741,741,739,734,734,733,731,731,730,728,727,725,725,725,725,723,722,722,722,719,717,717,716,714,714,716,716,716,719,719,719,717,717,716,714,714,714,714,714,713,711,711,710,710,708,708,708,708,710,714,714,716,716,717,717,717,719,719,716,714,714,713,711,710,710,710,710,711,713,713,711,711,710,706,706,704,704,706,704,704,706,706,706,706,706,704,704,704,704,704,704,704,704,704,704,704,704,706,704,704,706,706,706,701,701,701,701,700,700,700,701,701,701,703,703,703,703,704,703,703,703,701,701,701,698,697,697,696,696,696,700,701,701,701,701,701,701,701,700,700,700,700,703,703,704,706,707,707,708,710,711,714,714,719,720,720,722,723,725,725,727,730,761,761,761,761,764,764,766,767,771,771,774,776,780,783,785,787,789,794,796,796,798,800,803,805,807,811,811,817,819,821,823,823,829,829,833,835,839,841,843,845,847,849,854,854,858,860,860,862,864,864,0,0,0,0,0,0,0,0,0,0,0,0,0,0,0,964,962,962,962,959,959,959,956,956,956,956,956,956,956,956,956,959,959,959,962,964,967,967,967,970,0,0,0,0,0,1550,1550,1550,1543,1543,1543,1543,1536,1536,1536,1529,1529,1523,1523,1523,1523,1516,1516,1516,1516,1516,1516,1509,1509,1509,1503,1496,1496,1496,1496,1489,1489,1489,1489,1489,1489,1483,1483,1477,1477,1470,1470,1470,1470,1464,1464,1464,1464,1464,1458,1458,1452,1452,1452,1445,1445,1445,1445,1439,1439,1439,1439,1433,1433,1433,1427,1427,1421,1421,1421,1421,1415,1415,1415,1415,1415,1410,1410,1404,1404,1404,1398,1398,1398,1398,1392,1392,1392,1392,1392,1387,1381,1381,1376,1376,1376,1376,1370,1370,1370,1370,1370,1370,1365,1365,1365,1359,1354,1354,1354,1349,1349,1349,1349,1343,1343,1343,1338,1338,1338,1333,1333,1333,1333,1328,1328,1328,1322,1322,1322,1322,1317,1317,1312,1312,1312,1312,1307,1307,1307,1307,1302,1302,1297,1297,1292,1292,1292,1292,1288,1288,1288,1288,1283,1283,1283,1278,1273,1273,1273,1273,1273,1268,1268,1268,1264,1264,1259,1259,1259,1259,1259,1255,1255,1255,1255,1250,1250,1250,1245,1245,1245,1245,1241,1241,1236,1236,1236,1236,1232,1232,1232,1232,1232,1227,1227,1223,1223,1219,1219,1219,1219,1219,1219,1214,1214,1214,1214,1210,1210,1206,1206,1206,1202,1202,1202,1202,1197,1197,1197,1197,0,0,0,0,0,0,0,0,0,0,0,0,0,0,0,0,0,0,0,0,0,0,0,0,0,0,0,0,0
0,0,0,0,0,0,0,0,0,0,0,0,0,0,1713,1713,1722,1731,1731,1731,1731,1731,1731,1731,1731,1731,1731,1731,1722,1722,1722,1722,1722,1722,1722,1722,1722,1722,1722,1722,1722,1722,1722,1722,1722,1722,1713,1713,1713,1713,1713,1713,1722,1722,1722,1722,1722,0,0,0,0,0,0,0,0,0,0,0,0,875,875,873,873,873,871,869,869,869,867,867,867,864,864,860,858,856,851,851,849,847,845,845,843,841,841,837,835,833,831,829,827,825,823,821,819,819,817,817,811,809,807,807,807,807,807,767,767,766,764,761,761,759,757,754,754,752,750,749,749,746,746,744,742,741,741,739,738,734,731,731,730,728,728,727,725,725,723,723,722,722,720,719,717,716,716,714,713,713,713,713,713,713,713,716,716,716,714,714,713,713,713,711,710,708,708,707,706,706,706,706,706,707,707,707,707,710,706,706,714,713,713,713,708,707,707,708,708,708,708,708,708,708,708,708,708,706,706,704,703,703,703,703,704,704,704,704,704,704,703,703,703,703,704,703,703,703,703,703,703,701,701,701,701,701,703,704,701,701,700,700,698,698,698,698,698,698,698,697,697,703,703,701,701,700,698,697,697,696,694,694,694,694,696,697,697,697,698,698,700,700,700,698,698,700,700,701,701,703,704,707,707,708,710,713,714,716,719,720,720,722,722,722,723,725,761,761,761,761,761,764,764,766,767,771,773,774,780,780,783,785,789,790,794,796,796,798,800,803,805,809,811,813,817,819,821,823,825,829,829,835,837,839,843,845,847,849,851,854,854,856,860,860,862,864,864,0,0,0,0,0,0,0,0,0,0,0,0,0,0,0,964,964,964,962,962,959,959,956,956,956,956,956,956,956,956,959,959,962,962,964,967,970,967,967,970,0,0,0,0,0,1550,1550,1550,1543,1543,1543,1543,1536,1536,1536,1529,1529,1529,1523,1523,1523,1523,1523,1516,1516,1516,1516,1516,1509,1509,1503,1496,1496,1496,1496,1489,1489,1489,1489,1489,1489,1489,1483,1477,1477,1470,1470,1470,1470,1470,1464,1464,1464,1464,1458,1458,1458,1452,1452,1445,1445,1445,1445,1445,1439,1439,1439,1439,1439,1433,1427,1427,1421,1421,1421,1421,1421,1421,1415,1415,1415,1410,1410,1404,1404,1404,1398,1398,1398,1398,1392,1392,1392,1392,1392,1387,1381,1381,1376,1376,1376,1376,1376,1370,1370,1370,1370,1370,1365,1365,1365,1359,1354,1354,1354,1354,1349,1349,1349,1343,1343,1343,1343,1338,1338,1333,1333,1333,1333,1328,1328,1328,1328,1322,1322,1322,1322,1317,1312,1312,1312,1312,1312,1312,1307,1307,1302,1302,1302,1297,1292,1292,1292,1292,1292,1288,1288,1288,1288,1283,1283,1278,1278,1273,1273,1273,1273,1273,1268,1268,1268,1264,1264,1264,1264,1259,1259,1255,1255,1255,1255,1250,1250,1250,1245,1245,1245,1245,1245,1241,1241,1236,1236,1236,1236,1236,1236,1232,1232,1227,1227,1227,1223,1223,1219,1219,1219,1219,1219,1214,1214,1214,1214,1214,1210,1210,1210,1206,1206,1202,1202,1202,1202,1197,1197,1197,0,0,0,0,0,0,0,0,0,0,0,0,0,0,0,0,0,0,0,0,0,0,0,0,0,0,0,0,0
0,0,0,0,0,0,0,0,0,0,0,0,0,0,1722,1722,1722,1731,1731,1731,1731,1731,1731,1731,1731,1731,1731,1731,1731,1722,1722,1722,1722,1722,1722,1722,1722,1722,1722,1722,1722,1731,1722,1722,1722,1722,1713,1713,1713,1713,1722,1722,1722,1722,1713,1713,1722,0,0,0,0,0,0,0,0,0,0,0,0,878,878,875,873,873,871,869,869,869,869,867,867,864,864,860,858,858,856,851,851,849,847,845,845,843,841,839,837,835,833,831,829,827,823,821,819,819,819,817,813,811,811,809,809,809,807,805,805,802,800,796,761,759,757,754,752,752,752,750,750,749,747,746,744,741,739,739,739,734,731,731,730,728,728,727,725,725,723,722,722,722,720,717,716,716,714,713,711,711,711,711,710,710,710,711,713,713,713,713,711,711,711,706,704,704,704,706,706,704,704,704,704,706,704,704,704,704,701,700,700,700,700,700,700,706,706,708,707,707,707,707,707,706,704,704,704,703,703,701,701,701,700,700,700,700,703,703,703,703,703,703,701,701,700,700,701,701,700,700,700,700,700,698,698,698,698,698,698,698,698,698,697,697,697,697,696,696,696,696,693,693,693,691,691,697,696,694,694,694,694,694,694,693,693,693,693,694,696,697,697,697,698,698,698,698,698,700,701,703,704,706,707,708,710,713,714,716,719,720,720,720,722,722,723,725,757,759,761,761,762,764,764,766,767,771,773,774,780,781,783,787,789,792,794,796,796,798,802,803,809,811,813,813,817,821,821,823,825,829,829,835,837,841,843,845,849,851,851,854,854,856,860,860,862,864,0,0,0,0,0,0,0,0,0,0,0,0,0,0,0,967,967,964,964,964,962,962,959,959,956,956,956,956,956,956,956,959,959,962,964,964,967,970,970,973,973,0,0,0,0,0,1550,1550,1550,1543,1543,1543,1543,1543,1536,1536,1536,1536,1529,1529,1529,1523,1523,1523,1516,1516,1516,1516,1516,1509,1509,1503,1503,1496,1496,1496,1496,1496,1489,1489,1489,1489,1489,1483,1483,1477,1477,1470,1470,1470,1470,1470,1464,1464,1464,1464,1464,1458,1458,1452,1452,1445,1445,1445,1445,1445,1439,1439,1439,1439,1433,1433,1427,1427,1427,1421,1421,1421,1421,1421,1415,1415,1415,1415,1410,1410,1404,1404,1398,1398,1398,1392,1392,1392,1392,1392,1392,1381,1381,1381,1376,1376,1376,1376,1376,1370,1370,1370,1370,1370,1365,1365,1365,1359,1354,1354,1354,1349,1349,1349,1349,1343,1343,1343,1338,1338,1333,1333,1333,1333,1333,1333,1328,1328,1328,1328,1328,1322,1322,1317,1317,1317,1312,1312,1312,1307,1307,1307,1302,1302,1297,1292,1292,1292,1292,1292,1292,1292,1288,1288,1283,1283,1278,1278,1273,1273,1273,1273,1273,1268,1268,1268,1268,1268,1264,1264,1264,1259,1259,1255,1255,1255,1250,1250,1250,1250,1250,1250,1245,1245,1245,1241,1241,1236,1236,1236,1236,1236,1232,1232,1232,1227,1227,1223,1223,1219,1219,1219,1219,1219,1219,1214,1214,1214,1214,1214,1210,1210,1210,1206,1202,1202,1202,1202,1202,1197,1197,0,0,0,0,0,0,0,0,0,0,0,0,0,0,0,0,0,0,0,0,0,0,0,0,0,0,0,0,0
0,0,0,0,0,0,0,0,0,0,0,0,0,0,1731,1731,1731,1731,1731,1731,1731,1731,1731,1731,1731,1731,1731,1731,1731,1731,1722,1722,1722,1722,1722,1722,1722,1722,1722,1722,1722,1731,1722,1722,1722,1722,1722,1722,1722,1722,1722,1722,1722,1722,1713,1713,1722,0,0,0,0,0,0,0,0,0,0,0,0,0,878,875,875,875,873,869,869,869,869,869,867,867,867,864,860,858,856,851,851,849,849,847,845,845,843,841,839,835,835,833,831,829,825,821,819,819,819,817,815,811,811,811,809,809,807,805,803,802,800,796,796,794,794,754,752,752,752,752,750,749,747,746,744,741,739,739,739,734,733,733,731,728,728,727,725,725,723,722,722,722,720,717,716,714,714,713,711,711,711,710,710,708,708,708,710,710,710,710,708,708,703,701,701,703,703,704,704,704,704,703,703,703,701,701,701,701,700,700,698,698,698,698,698,703,706,706,706,706,707,706,704,704,701,701,701,701,700,700,698,698,698,697,697,696,696,697,697,697,697,698,700,700,697,697,697,697,697,697,697,697,697,694,694,694,696,694,694,696,697,697,697,694,693,693,691,691,693,693,691,691,690,688,688,688,690,691,691,693,693,693,691,691,690,690,691,691,691,693,696,696,697,697,697,698,698,700,701,703,703,706,707,708,711,713,714,714,716,719,719,720,722,722,754,755,757,759,759,761,761,764,764,766,767,771,773,778,780,781,785,787,789,792,794,796,798,800,803,803,809,811,813,815,817,819,823,825,827,829,829,835,837,841,845,847,849,849,849,854,854,856,860,860,860,0,1647,0,0,0,0,0,0,0,0,0,0,0,0,0,0,967,967,964,964,967,964,962,962,959,959,959,956,956,956,956,959,959,959,962,964,967,970,970,973,973,973,981,0,0,0,0,1550,1550,1550,1543,1543,1543,1543,1543,1543,1536,1536,1536,1529,1529,1529,1523,1523,1523,1523,1516,1516,1516,1516,1509,1509,1503,1503,1496,1496,1496,1496,1496,1489,1489,1489,1489,1489,1483,1483,1477,1477,1477,1470,1470,1470,1470,1464,1464,1464,1464,1464,1458,1458,1452,1452,1452,1445,1445,1445,1445,1439,1439,1439,1439,1433,1433,1433,1427,1427,1427,1421,1421,1421,1421,1415,1415,1415,1415,1415,1410,1410,1404,1404,1398,1398,1398,1398,1392,1392,1392,1392,1387,1381,1381,1381,1376,1376,1376,1376,1370,1370,1370,1370,1370,1365,1365,1365,1359,1359,1354,1354,1349,1349,1349,1349,1349,1343,1343,1343,1343,1338,1338,1338,1333,1333,1333,1328,1328,1328,1328,1328,1322,1322,1322,1317,1317,1312,1312,1312,1307,1307,1307,1302,1302,1297,1297,1292,1292,1292,1292,1292,1292,1288,1288,1288,1283,1283,1278,1278,1278,1273,1273,1273,1273,1268,1268,1268,1268,1268,1268,1264,1259,1259,1255,1255,1255,1250,1250,1250,1250,1250,1250,1245,1245,1245,1241,1241,1236,1236,1236,1236,1236,1232,1232,1232,1227,1227,1227,1223,1223,1223,1223,1219,1219,1219,1219,1214,1214,1214,1214,1210,1210,1210,1206,1206,1202,1202,1202,1202,1197,1197,0,0,0,0,0,0,0,0,0,0,0,0,0,0,0,0,0,0,0,0,0,0,0,0,0,0,0,0,0
0,0,0,0,0,0,0,0,0,0,0,0,0,0,1731,1731,1731,1731,1731,1731,1731,1731,1731,1731,1731,1731,1731,1731,1731,1731,1722,1722,1731,1731,1722,1722,1731,1731,1731,1731,1731,1731,1731,1731,1722,1722,1722,1722,1722,1722,1722,1722,1722,1722,1722,1722,1722,0,0,0,0,0,0,0,0,0,0,0,0,0,878,878,875,875,873,873,871,871,871,871,869,869,867,867,864,860,858,858,851,849,849,847,847,845,843,843,839,837,835,835,833,831,827,823,821,821,821,819,817,813,813,811,811,809,807,805,803,802,800,798,796,796,794,792,790,752,752,752,750,749,747,746,744,741,741,741,739,734,733,733,733,730,728,727,725,725,723,723,722,722,720,717,716,714,714,713,711,711,710,710,707,707,706,706,706,706,704,704,703,701,700,700,700,700,700,703,698,698,700,700,700,700,698,698,698,698,698,698,698,698,697,697,698,698,698,698,701,698,698,700,700,700,698,698,698,698,697,697,696,696,696,694,694,694,694,696,696,694,694,696,696,693,693,691,691,693,693,693,693,691,691,690,690,687,686,683,683,683,682,682,683,683,688,688,688,688,687,687,687,688,687,687,687,687,687,688,688,688,690,690,690,690,688,688,690,690,690,691,693,694,696,697,697,698,698,700,701,703,703,706,707,708,711,713,714,714,716,719,719,750,750,750,752,754,755,759,759,761,761,764,764,766,767,771,774,778,780,781,785,787,790,792,794,796,798,802,803,809,811,813,813,815,817,819,823,827,827,829,831,835,837,841,845,847,849,849,849,851,856,856,860,860,860,0,0,1647,1647,1647,0,0,0,0,0,0,0,0,0,0,0,970,970,967,967,967,964,964,962,962,959,959,959,959,959,959,959,959,959,962,964,967,970,973,975,975,978,981,0,0,0,0,1550,1543,1543,1543,1543,1543,1543,1543,1543,1543,1536,1536,1536,1536,1529,1523,1523,1523,1523,1516,1516,1516,1516,1516,1509,1509,1503,1503,1496,1496,1496,1496,1489,1489,1489,1489,1489,1483,1483,1483,1477,1477,1477,1470,1470,1470,1470,1464,1464,1464,1464,1458,1458,1452,1452,1452,1445,1445,1445,1445,1439,1439,1439,1439,1433,1433,1433,1433,1427,1427,1427,1421,1421,1421,1421,1415,1415,1415,1415,1410,1410,1404,1404,1398,1398,1398,1398,1392,1392,1392,1392,1392,1387,1381,1381,1376,1376,1376,1376,1376,1370,1370,1370,1370,1370,1365,1365,1365,1359,1354,1354,1349,1349,1349,1349,1349,1343,1343,1343,1343,1343,1338,1338,1333,1333,1333,1328,1328,1328,1328,1328,1322,1322,1322,1317,1317,1312,1312,1312,1307,1307,1307,1307,1302,1302,1297,1297,1297,1292,1292,1292,1292,1288,1288,1288,1283,1283,1278,1278,1278,1273,1273,1273,1273,1268,1268,1268,1268,1268,1268,1264,1259,1259,1255,1255,1255,1255,1250,1250,1250,1250,1250,1250,1250,1245,1245,1241,1241,1241,1236,1236,1236,1232,1232,1232,1232,1232,1227,1227,1223,1223,1223,1219,1219,1219,1219,1219,1214,1214,1214,1214,1210,1210,1206,1206,1202,1202,1202,1202,1202,1202,0,0,0,0,0,0,0,0,0,0,0,0,0,0,0,0,0,0,0,0,0,0,0,0,0,0,0,0,0
0,0,0,0,0,0,0,0,0,0,0,0,0,0,1739,1739,1739,1739,1731,1731,1731,1731,1731,1731,1731,1731,1731,1731,1731,1731,1731,1731,1731,1731,1731,1731,1731,1731,1731,1731,1731,1731,1731,1731,1722,1722,1731,1731,1722,1722,1722,1722,1731,1731,1722,1722,1722,0,0,0,0,0,0,0,0,0,0,0,0,0,878,878,878,878,875,873,871,871,871,871,869,869,869,869,869,862,860,858,854,851,851,849,847,847,843,843,839,837,835,835,835,833,829,825,823,823,823,819,817,815,815,813,811,809,809,805,803,802,800,798,796,796,794,792,790,789,789,752,752,750,747,746,742,741,739,738,738,736,734,733,733,731,728,728,727,725,723,723,722,722,720,717,717,716,714,713,711,710,710,708,706,706,706,706,704,704,703,703,701,700,700,698,698,697,697,697,696,696,696,696,697,696,696,694,694,696,697,697,696,696,696,696,696,696,696,696,696,696,696,696,698,698,697,697,697,694,693,691,691,693,693,693,693,693,693,694,694,693,693,693,693,688,687,687,687,687,687,687,687,687,687,687,687,686,683,682,682,682,682,682,682,682,682,683,686,684,683,682,682,684,680,680,683,683,686,686,684,684,682,682,682,683,683,684,687,688,688,690,691,693,694,696,696,698,698,700,701,703,704,706,707,710,711,713,716,716,717,719,746,746,749,749,752,754,755,759,759,761,762,764,766,766,769,771,774,778,780,781,785,789,790,792,794,796,802,803,805,809,811,813,815,815,819,821,825,827,829,829,829,835,837,837,845,849,849,849,849,851,0,851,0,0,0,1663,1655,1655,1647,1647,1647,0,0,0,0,0,0,0,0,0,0,970,970,967,967,970,967,964,964,962,962,959,959,959,959,959,959,959,962,964,967,970,973,975,975,978,978,981,0,0,0,0,1550,1543,1543,1543,1543,1543,1543,1543,1543,1543,1536,1536,1536,1536,1529,1523,1523,1523,1523,1523,1516,1516,1516,1516,1516,1509,1509,1503,1496,1496,1496,1496,1489,1489,1489,1489,1489,1483,1483,1483,1483,1483,1477,1470,1470,1470,1470,1464,1464,1464,1464,1464,1458,1458,1452,1452,1445,1445,1445,1445,1439,1439,1439,1439,1433,1433,1433,1433,1433,1427,1427,1421,1421,1421,1421,1415,1415,1415,1415,1415,1410,1410,1410,1404,1398,1398,1398,1398,1392,1392,1392,1392,1387,1381,1381,1381,1376,1376,1376,1376,1376,1370,1370,1370,1370,1370,1365,1365,1359,1359,1354,1354,1349,1349,1349,1349,1349,1343,1343,1343,1343,1343,1338,1333,1333,1333,1328,1328,1328,1328,1328,1328,1328,1322,1322,1317,1317,1312,1312,1312,1307,1307,1307,1307,1302,1302,1297,1297,1297,1292,1292,1292,1292,1288,1288,1288,1283,1278,1278,1278,1278,1278,1273,1273,1273,1273,1268,1268,1268,1268,1264,1259,1259,1255,1255,1255,1255,1250,1250,1250,1250,1250,1250,1250,1250,1250,1245,1241,1241,1241,1236,1236,1236,1232,1232,1232,1232,1227,1227,1223,1223,1223,1223,1219,1219,1219,1219,1214,1214,1214,1214,1210,1210,1206,1206,1202,1202,1202,1202,1202,1202,0,0,0,0,0,0,0,0,0,0,0,0,0,0,0,0,0,0,0,0,0,0,0,0,0,0,0,0,0
0,0,0,0,0,0,0,0,0,0,0,0,0,0,1739,1739,1739,1739,1731,1731,1731,1731,1731,1731,1731,1731,1731,1731,1731,1731,1731,1731,1731,1731,1731,1731,1731,1731,1731,1731,1731,1731,1731,1731,1722,1722,1731,1731,1722,1722,1731,1731,1731,1731,1731,1731,1731,1731,0,0,0,0,0,0,0,0,0,0,0,0,878,878,880,880,878,875,873,871,871,871,869,869,869,871,869,867,862,858,856,854,851,851,849,849,847,845,841,839,837,835,835,833,831,827,825,825,823,821,819,817,815,813,813,811,809,807,803,802,800,798,796,796,794,792,790,789,789,787,787,785,783,746,742,739,739,738,738,736,734,733,731,731,730,728,727,727,725,725,723,723,720,719,717,716,714,713,711,710,710,708,706,706,704,704,704,703,703,701,700,698,698,697,696,696,694,694,694,694,693,693,693,693,693,693,693,694,694,697,696,693,691,691,694,693,693,693,694,693,693,696,698,688,687,687,687,690,690,688,688,690,691,691,691,690,690,693,693,691,691,687,687,687,686,686,684,684,684,684,686,683,683,683,683,683,682,682,680,680,680,680,680,680,680,682,682,682,679,679,679,678,678,680,679,679,680,682,680,680,679,679,680,682,682,683,684,686,687,688,690,691,693,694,696,697,698,701,703,703,704,706,706,711,711,714,716,716,717,744,744,746,747,749,750,752,755,757,759,761,762,766,766,766,769,774,774,778,780,781,787,789,790,792,796,796,802,803,805,809,811,813,815,817,821,823,825,827,829,829,829,833,837,837,845,849,849,849,849,849,0,0,1671,1671,1671,1663,1663,1655,1647,1647,1647,1655,0,0,0,0,0,0,0,0,0,970,970,970,970,970,967,967,964,964,962,959,959,959,959,959,959,959,962,964,967,970,975,975,978,978,981,981,0,0,0,0,1550,1550,1550,1543,1543,1543,1543,1543,1543,1543,1543,1536,1536,1536,1529,1529,1523,1523,1523,1523,1516,1516,1516,1516,1516,1509,1509,1503,1503,1496,1496,1496,1489,1489,1489,1489,1489,1489,1483,1483,1483,1483,1477,1477,1470,1470,1470,1464,1464,1464,1464,1464,1458,1458,1458,1452,1452,1445,1445,1445,1445,1439,1439,1439,1439,1433,1433,1433,1433,1427,1427,1421,1421,1421,1421,1415,1415,1415,1415,1415,1410,1410,1410,1410,1404,1404,1398,1398,1398,1392,1392,1392,1387,1381,1381,1381,1376,1376,1376,1376,1376,1370,1370,1370,1370,1370,1365,1365,1365,1359,1354,1354,1354,1349,1349,1349,1349,1349,1349,1349,1343,1343,1333,1333,1333,1333,1333,1333,1328,1328,1328,1328,1328,1322,1322,1317,1317,1312,1312,1312,1307,1307,1307,1307,1302,1302,1297,1297,1297,1292,1292,1292,1292,1288,1288,1288,1283,1283,1283,1283,1278,1278,1273,1273,1273,1273,1273,1268,1268,1268,1264,1264,1259,1255,1255,1255,1255,1250,1250,1250,1250,1250,1250,1250,1250,1250,1250,1245,1245,1241,1241,1236,1236,1232,1232,1232,1232,1232,1227,1227,1227,1227,1223,1223,1219,1219,1219,1219,1214,1214,1214,1214,1210,1210,1206,1202,1202,1202,1202,1202,1202,0,0,0,0,0,0,0,0,0,0,0,0,0,0,0,0,0,0,0,0,0,0,0,0,0,0,0,0,0
0,0,0,0,0,0,0,0,0,0,0,0,0,1739,1739,1739,1739,1739,1739,1739,1731,1731,1731,1731,1739,1731,1731,1731,1731,1731,1731,1731,1731,1731,1731,1731,1731,1722,1722,1731,1731,1731,1731,1731,1731,1731,1731,1731,1731,1731,1731,1731,1731,1731,1731,1731,1731,1731,0,0,0,0,0,0,0,0,0,0,0,0,878,878,882,880,878,878,878,875,875,875,871,871,871,871,871,871,869,860,860,860,854,851,851,851,851,849,845,841,837,835,835,833,831,829,827,825,825,821,821,817,817,815,815,811,811,809,807,805,800,798,798,796,794,794,790,789,789,787,787,785,783,780,778,739,739,738,738,738,734,733,731,731,730,728,728,727,725,725,723,723,722,719,717,716,714,714,713,710,710,708,706,706,704,704,704,703,701,701,700,698,697,697,694,694,693,693,693,693,691,690,690,690,690,690,690,687,687,687,687,687,687,687,687,687,687,686,686,686,686,686,686,686,684,684,686,686,686,686,686,687,687,687,688,686,683,683,684,684,684,683,683,686,684,684,684,684,684,684,684,682,680,680,680,680,680,680,680,680,680,680,680,680,680,679,679,679,679,679,678,676,676,678,676,676,676,676,676,676,676,678,679,680,680,682,683,684,687,688,688,691,693,694,696,697,698,701,703,703,704,706,706,710,711,714,739,739,742,744,744,746,747,749,750,752,755,757,759,761,762,766,766,767,773,774,774,778,780,781,787,789,790,794,798,798,802,805,805,809,811,813,815,819,821,823,825,827,829,829,829,833,835,839,0,0,0,0,0,0,0,0,1671,1671,1671,1663,1663,1655,1655,1655,1655,1655,1655,0,0,0,0,0,0,0,0,0,970,970,970,970,967,967,967,967,964,962,959,959,959,959,959,962,964,967,970,973,975,978,978,978,981,984,0,0,0,0,1550,1550,1550,1550,1550,1543,1543,1543,1543,1543,1543,1536,1536,1536,1536,1529,1523,1523,1523,1523,1516,1516,1516,1516,1516,1509,1509,1503,1503,1503,1496,1496,1489,1489,1489,1489,1489,1489,1483,1483,1483,1483,1477,1477,1477,1470,1470,1470,1470,1464,1464,1464,1458,1458,1458,1452,1452,1445,1445,1445,1445,1439,1439,1439,1439,1433,1433,1433,1433,1433,1427,1427,1427,1421,1421,1421,1421,1415,1415,1415,1415,1415,1410,1410,1404,1404,1398,1398,1398,1398,1398,1392,1392,1387,1381,1381,1376,1376,1376,1376,1376,1370,1370,1370,1370,1370,1365,1365,1365,1359,1354,1354,1354,1349,1349,1349,1349,1349,1349,1349,1349,1343,1333,1333,1333,1333,1333,1333,1328,1328,1328,1328,1328,1322,1322,1317,1317,1312,1312,1312,1312,1307,1307,1307,1307,1307,1302,1302,1297,1297,1297,1292,1292,1288,1288,1288,1288,1283,1283,1283,1283,1278,1273,1273,1273,1273,1273,1268,1268,1268,1268,1264,1259,1259,1259,1255,1255,1255,1255,1250,1250,1250,1250,1250,1250,1250,1245,1245,1245,1241,1241,1236,1236,1236,1232,1232,1232,1232,1232,1227,1227,1227,1223,1223,1219,1219,1219,1219,1214,1214,1214,1214,1210,1210,1206,1206,1202,1202,1202,1202,1202,0,0,0,0,0,0,0,0,0,0,0,0,0,0,0,0,0,0,0,0,0,0,0,0,0,0,0,0,0
0,0,0,0,0,0,0,0,0,0,0,0,0,1739,1739,1739,1739,1739,1739,1739,1739,1731,1731,1731,1739,1731,1731,1731,1739,1739,1739,1731,1731,1731,1731,1731,1731,1722,1722,1731,1731,1731,1731,1731,1731,1731,1731,1731,1731,1731,1731,1731,1731,1731,1731,1731,1731,1731,0,0,0,0,0,0,0,0,0,0,0,0,0,882,882,880,880,878,878,878,875,875,875,873,873,873,873,871,869,862,860,860,858,851,851,851,851,851,847,847,841,839,837,835,833,829,829,827,825,823,823,819,819,817,817,813,811,811,809,805,802,800,800,798,796,794,792,790,789,787,785,785,781,780,778,776,739,738,738,738,736,734,731,731,730,728,728,727,723,722,722,722,722,719,717,716,716,714,713,711,710,708,706,706,704,704,703,703,701,700,698,697,697,694,694,693,693,691,691,691,690,688,687,687,687,686,683,683,682,682,683,683,684,684,684,684,684,684,682,678,676,676,684,684,683,683,683,683,683,683,682,682,682,686,684,683,682,682,682,682,682,682,682,682,682,682,683,682,682,682,682,682,680,680,680,679,679,679,679,679,678,678,679,679,679,679,678,678,678,678,678,676,676,676,675,675,675,676,675,675,676,678,679,680,680,682,683,684,687,688,688,691,693,694,697,698,700,701,703,703,704,706,707,710,711,738,739,739,741,742,742,746,747,750,752,754,755,757,759,762,764,766,766,767,773,776,778,780,780,783,787,789,790,792,798,800,803,805,805,809,809,811,815,819,821,823,825,827,827,827,829,829,835,0,0,0,0,0,0,0,0,1671,1671,1671,1671,1671,1671,1663,1663,1663,1655,1655,1655,0,0,0,0,0,0,0,0,0,970,970,970,970,970,967,967,967,967,962,962,962,962,962,962,962,964,967,970,973,978,978,978,981,981,984,0,0,0,0,1550,1550,1550,1550,1550,1550,1543,1543,1543,1543,1543,1543,1536,1536,1536,1529,1523,1523,1523,1523,1523,1516,1516,1516,1516,1509,1509,1503,1503,1503,1496,1496,1489,1489,1489,1489,1489,1489,1483,1483,1483,1483,1477,1477,1470,1470,1470,1470,1464,1464,1464,1464,1458,1458,1458,1452,1452,1445,1445,1445,1445,1439,1439,1439,1439,1439,1439,1439,1433,1433,1427,1427,1427,1421,1421,1421,1421,1415,1415,1415,1415,1415,1410,1410,1410,1404,1404,1398,1398,1398,1398,1392,1392,1392,1387,1381,1381,1376,1376,1376,1376,1376,1370,1370,1370,1370,1370,1365,1365,1365,1359,1354,1354,1354,1354,1349,1349,1349,1349,1349,1349,1349,1338,1333,1333,1333,1333,1333,1333,1333,1328,1328,1328,1328,1322,1317,1317,1312,1312,1312,1312,1312,1312,1307,1307,1307,1307,1302,1302,1297,1297,1292,1292,1292,1288,1288,1288,1288,1283,1283,1283,1278,1278,1273,1273,1273,1273,1273,1268,1268,1268,1264,1264,1259,1259,1255,1255,1255,1255,1250,1250,1250,1250,1250,1250,1250,1245,1245,1245,1241,1241,1236,1236,1236,1236,1232,1232,1232,1232,1232,1232,1227,1227,1223,1223,1223,1219,1219,1214,1214,1214,1214,1210,1210,1210,1206,1202,1202,1202,1202,1202,0,0,0,0,0,0,0,0,0,0,0,0,0,0,0,0,0,0,0,0,0,0,0,0,0,0,0,0,0
0,0,0,0,0,0,0,0,0,0,0,0,0,1739,1739,1739,1739,1739,1739,1739,1731,1731,1731,1731,1739,1731,1731,1739,1739,1739,1739,1739,1731,1731,1731,1731,1731,1731,1731,1739,1731,1731,1731,1739,1731,1731,1731,1731,1731,1731,1731,1731,1731,1739,1739,1731,1731,1731,1739,0,0,0,0,0,0,0,0,0,0,0,0,878,878,880,880,880,878,878,878,875,875,875,875,873,873,873,871,869,864,862,860,858,858,856,851,851,849,849,845,841,839,837,835,831,829,827,825,825,823,821,819,819,817,815,813,811,809,805,802,802,800,798,796,796,794,792,789,787,785,785,781,780,778,776,776,778,778,776,736,734,733,731,730,728,728,727,723,722,722,722,722,719,719,717,716,716,714,713,711,708,706,706,704,704,703,703,701,700,698,697,696,694,694,693,691,691,690,690,688,688,687,686,686,684,683,683,680,680,680,680,682,682,680,680,682,680,678,676,676,676,676,682,682,680,679,679,679,679,679,680,680,682,682,682,680,680,680,680,680,680,680,680,682,682,682,682,682,682,680,679,679,679,679,676,676,676,676,678,676,676,676,676,678,676,676,676,676,676,676,675,675,675,674,674,674,675,675,675,676,676,679,679,679,680,683,684,687,688,690,691,693,694,697,700,700,701,703,703,704,706,707,710,734,734,739,739,741,741,742,744,747,750,752,754,755,759,761,762,764,766,766,767,773,776,778,780,781,785,787,789,790,792,800,802,805,805,805,809,809,811,815,819,821,823,825,827,827,827,829,829,0,0,0,0,0,0,0,0,0,1671,1671,1671,1671,1671,1671,1663,1663,1663,1663,1663,1663,1663,0,0,0,0,0,0,0,0,973,970,970,970,970,967,967,967,967,967,964,964,964,964,964,964,967,970,973,975,978,978,981,981,981,981,0,0,0,0,1550,1550,1550,1550,1550,1550,1543,1543,1543,1543,1543,1543,1536,1536,1536,1529,1523,1523,1523,1523,1523,1516,1516,1516,1516,1516,1516,1509,1503,1503,1496,1496,1496,1489,1489,1489,1489,1489,1489,1489,1489,1483,1483,1477,1470,1470,1470,1470,1464,1464,1464,1464,1458,1458,1458,1452,1452,1452,1445,1445,1445,1445,1439,1439,1439,1439,1439,1439,1433,1433,1427,1427,1427,1427,1421,1421,1421,1415,1415,1415,1415,1415,1410,1410,1410,1404,1404,1398,1398,1398,1398,1398,1392,1392,1392,1387,1387,1381,1381,1376,1376,1376,1376,1370,1370,1370,1370,1370,1365,1365,1359,1359,1354,1354,1354,1354,1349,1349,1349,1349,1349,1343,1338,1338,1333,1333,1333,1333,1333,1333,1333,1328,1328,1328,1322,1322,1322,1317,1312,1312,1312,1312,1312,1312,1312,1307,1307,1307,1302,1302,1297,1297,1292,1292,1292,1288,1288,1288,1288,1288,1283,1283,1278,1278,1273,1273,1273,1273,1268,1268,1268,1268,1264,1259,1259,1259,1255,1255,1255,1255,1250,1250,1255,1250,1250,1250,1245,1245,1245,1245,1241,1241,1236,1236,1236,1236,1236,1232,1232,1232,1232,1227,1227,1223,1223,1223,1219,1219,1219,1214,1214,1214,1214,1210,1210,1206,1206,1206,1202,1202,1202,0,0,0,0,0,0,0,0,0,0,0,0,0,0,0,0,0,0,0,0,0,0,0,0,0,0,0,0,0
0,0,0,0,0,0,0,0,0,0,0,0,0,1739,1739,1739,1739,1739,1739,1739,1731,1731,1731,1731,1739,1739,1739,1739,1739,1739,1739,1731,1731,1731,1739,1739,1731,1731,1731,1739,1731,1731,1739,1739,1739,1739,1731,1731,1731,1731,1731,1731,1731,1739,1739,1739,1739,1739,1739,0,0,0,0,0,0,0,0,0,0,0,0,878,878,880,880,880,880,880,878,875,875,875,875,875,875,873,871,869,867,864,862,860,858,858,851,851,849,849,847,845,841,839,837,833,831,827,825,825,823,821,819,819,817,815,813,811,809,805,803,803,802,802,798,796,794,792,790,789,787,785,783,781,780,776,776,778,776,774,773,773,769,767,767,767,767,767,764,762,722,722,722,720,719,716,716,716,714,713,713,710,706,706,704,704,704,703,703,701,698,697,696,694,693,693,691,691,690,688,687,687,686,684,683,683,682,680,680,680,679,679,679,679,678,678,679,679,676,675,675,675,676,676,676,676,676,676,676,676,676,676,675,675,680,679,668,668,667,667,679,679,679,680,680,680,682,682,682,680,679,679,679,676,676,676,675,674,674,672,672,672,672,672,676,674,674,675,675,674,672,671,671,671,672,672,672,674,675,675,675,676,676,679,679,680,683,684,687,688,690,691,693,694,697,700,701,703,703,704,704,706,706,733,733,734,738,739,739,741,742,744,749,750,752,754,755,759,761,762,764,766,767,767,773,776,778,780,781,785,787,789,790,794,800,803,805,805,807,811,811,813,815,819,821,823,823,825,827,829,0,0,0,0,0,0,0,0,0,0,1680,1671,1671,1671,1671,1671,1671,1671,1663,1663,1663,1663,1663,1663,1671,0,0,0,0,0,0,0,973,973,973,973,973,970,970,970,967,967,967,967,967,967,967,967,970,970,975,975,978,978,981,981,981,981,0,0,0,0,1550,1550,1550,1550,1550,1550,1543,1543,1543,1543,1543,1543,1543,1536,1536,1536,1529,1523,1523,1523,1523,1523,1516,1516,1516,1516,1516,1509,1509,1509,1503,1496,1496,1489,1489,1489,1489,1489,1489,1489,1489,1483,1483,1477,1470,1470,1470,1470,1464,1464,1464,1464,1464,1458,1458,1458,1452,1452,1445,1445,1445,1445,1445,1445,1439,1439,1439,1439,1433,1433,1427,1427,1427,1421,1421,1421,1421,1415,1415,1415,1415,1415,1410,1410,1410,1404,1404,1404,1398,1398,1398,1398,1392,1392,1392,1392,1387,1381,1381,1381,1381,1376,1376,1376,1370,1370,1370,1370,1365,1365,1359,1359,1359,1354,1354,1354,1354,1349,1349,1349,1349,1343,1338,1338,1333,1333,1333,1333,1333,1333,1333,1328,1328,1328,1322,1322,1322,1317,1312,1312,1312,1312,1312,1312,1312,1307,1307,1307,1302,1302,1302,1297,1292,1292,1292,1292,1288,1288,1288,1288,1288,1283,1278,1278,1273,1273,1273,1273,1268,1268,1268,1268,1264,1264,1259,1259,1255,1255,1255,1255,1255,1255,1255,1250,1250,1250,1245,1245,1245,1245,1241,1241,1241,1241,1236,1236,1236,1232,1232,1232,1232,1227,1227,1227,1223,1223,1219,1219,1219,1214,1214,1214,1214,1214,1210,1210,1206,1206,1206,1202,1202,0,0,0,0,0,0,0,0,0,0,0,0,0,0,0,0,0,0,0,0,0,0,0,0,0,0,0,0,0
0,0,0,0,0,0,0,0,0,0,0,0,0,1739,1739,1739,1739,1739,1748,1739,1739,1739,1739,1739,1739,1739,1739,1739,1739,1739,1739,1731,1731,1731,1739,1739,1739,1731,1731,1748,1748,1739,1739,1748,1748,1748,1739,1739,1739,1739,1731,1731,1739,1739,1739,1739,1739,1731,1731,0,0,0,0,0,0,0,0,0,0,0,0,878,878,882,882,885,880,880,878,875,875,875,875,875,875,873,871,869,867,864,862,860,860,858,854,851,851,849,849,847,843,841,837,835,831,829,827,825,823,821,821,819,819,817,815,813,811,807,805,803,803,802,800,798,796,794,792,790,789,789,785,781,780,776,776,778,776,774,773,771,769,767,767,767,766,766,764,761,761,761,759,759,719,716,716,714,714,713,713,710,707,707,706,704,704,703,703,701,700,698,697,694,693,693,691,691,690,688,687,687,684,684,683,682,682,680,679,679,678,678,678,676,676,676,675,675,676,672,672,672,674,675,675,675,675,675,675,675,675,670,668,666,666,666,666,664,664,664,664,667,666,666,680,680,682,682,680,678,675,675,675,675,675,672,671,670,667,667,668,670,667,667,676,672,672,672,672,674,671,670,668,668,668,670,671,672,674,674,675,676,676,679,679,682,683,684,687,688,690,691,693,694,697,700,701,727,727,727,727,706,706,731,733,734,738,739,739,741,742,746,750,750,752,754,755,757,761,762,764,766,767,771,773,776,778,780,781,785,787,789,790,794,802,803,805,807,807,811,811,813,815,819,821,823,823,825,827,827,0,0,0,0,0,0,0,0,0,0,1680,1680,1671,1671,1671,1671,1671,1671,1671,1671,1663,1663,1663,1671,1671,0,0,0,0,0,0,0,0,973,973,973,973,970,970,970,970,967,967,967,967,967,967,967,970,970,975,975,978,978,981,981,981,981,0,0,0,0,1550,1550,1550,1550,1550,1550,1550,1550,1550,1543,1543,1543,1543,1543,1536,1536,1529,1529,1523,1523,1523,1523,1516,1516,1516,1516,1516,1509,1509,1509,1503,1503,1496,1496,1496,1496,1489,1489,1489,1489,1489,1483,1483,1477,1477,1477,1470,1470,1464,1464,1464,1464,1464,1464,1458,1458,1452,1452,1452,1445,1445,1445,1445,1445,1439,1439,1439,1439,1439,1433,1433,1427,1427,1421,1421,1421,1421,1415,1415,1415,1415,1415,1415,1410,1410,1404,1404,1404,1398,1398,1398,1398,1398,1392,1392,1392,1392,1387,1387,1381,1381,1381,1376,1376,1376,1370,1370,1370,1370,1365,1365,1359,1359,1354,1354,1354,1354,1354,1354,1349,1349,1343,1338,1338,1338,1333,1333,1333,1333,1333,1333,1328,1328,1328,1328,1322,1322,1317,1317,1312,1312,1312,1312,1312,1312,1312,1307,1307,1307,1307,1302,1297,1292,1292,1292,1292,1288,1288,1288,1288,1288,1283,1278,1278,1278,1273,1273,1273,1273,1268,1268,1268,1264,1264,1264,1259,1259,1259,1255,1255,1255,1255,1255,1250,1250,1250,1245,1245,1245,1245,1241,1241,1241,1241,1236,1236,1236,1232,1232,1232,1232,1232,1232,1227,1227,1223,1223,1219,1219,1219,1214,1214,1214,1214,1214,1210,1210,1210,1206,1206,1206,0,0,0,0,0,0,0,0,0,0,0,0,0,0,0,0,0,0,0,0,0,0,0,0,0,0,0,0,0
0,0,0,0,0,0,0,0,0,0,0,0,0,1739,1739,1739,1739,1739,1748,1739,1739,1739,1739,1739,1748,1739,1739,1739,1739,1739,1739,1739,1739,1739,1739,1739,1739,1739,1739,1748,1748,1748,1748,1748,1748,1748,1739,1739,1739,1739,1731,1731,1739,1739,1739,1739,1731,1731,1731,1731,0,0,0,0,0,0,0,0,0,0,0,0,885,885,885,885,882,880,878,875,875,875,875,875,875,873,873,871,869,869,862,860,858,858,856,854,851,851,849,847,845,843,839,837,833,831,829,827,825,823,821,821,819,817,815,815,813,811,805,803,803,802,802,800,798,796,794,794,790,789,785,783,781,780,780,778,778,774,773,771,769,769,767,767,766,766,764,761,761,761,759,755,754,716,716,714,714,713,710,710,708,707,706,706,704,704,703,703,701,700,697,694,694,693,691,691,690,688,687,686,684,683,682,682,680,680,679,679,678,676,676,676,675,674,674,672,672,671,671,670,670,670,672,674,674,675,674,671,670,668,667,666,664,664,666,664,664,664,664,664,664,664,664,664,664,666,667,667,671,671,671,671,671,671,670,662,662,663,666,664,664,663,663,671,671,670,670,667,667,667,667,667,667,668,670,672,674,674,675,676,676,679,679,680,682,684,687,688,690,691,693,694,698,722,722,725,725,727,727,728,730,731,733,734,738,739,739,741,742,746,749,750,752,754,755,757,761,762,764,766,767,773,774,776,780,781,783,787,789,790,790,796,802,803,807,807,809,811,811,813,817,821,823,823,823,823,823,823,0,0,0,0,0,0,0,0,1688,1688,1688,1680,1671,1671,1671,1671,1671,1671,1671,1671,1663,1663,1671,1671,1671,0,0,0,0,0,0,0,0,975,975,975,975,973,973,970,970,967,967,967,967,967,967,967,970,970,973,975,978,978,981,981,981,981,0,0,0,0,1557,1550,1550,1550,1550,1550,1550,1550,1550,1550,1543,1543,1543,1543,1543,1536,1529,1529,1529,1523,1523,1523,1516,1516,1516,1516,1516,1509,1509,1509,1503,1503,1496,1496,1496,1496,1489,1489,1489,1489,1489,1483,1483,1477,1477,1477,1470,1470,1470,1464,1464,1464,1464,1464,1464,1458,1458,1452,1452,1452,1445,1445,1445,1445,1445,1439,1439,1439,1439,1433,1433,1433,1427,1427,1421,1421,1421,1421,1415,1415,1415,1415,1415,1415,1410,1410,1404,1404,1404,1398,1398,1398,1398,1398,1392,1392,1392,1392,1387,1387,1381,1381,1376,1376,1376,1370,1370,1370,1370,1370,1370,1365,1359,1359,1354,1354,1354,1354,1354,1349,1349,1343,1338,1338,1338,1338,1333,1333,1333,1333,1333,1333,1328,1328,1328,1328,1322,1317,1317,1312,1312,1312,1312,1312,1312,1312,1307,1307,1307,1307,1302,1302,1297,1292,1292,1292,1292,1288,1288,1288,1288,1283,1283,1278,1278,1278,1273,1273,1273,1273,1268,1268,1268,1268,1264,1264,1259,1259,1255,1255,1255,1255,1255,1255,1250,1250,1250,1245,1245,1245,1241,1241,1241,1241,1241,1236,1236,1232,1232,1232,1232,1232,1232,1227,1227,1227,1223,1219,1219,1219,1214,1214,1214,1214,1214,1210,1210,1210,1206,1206,1206,0,0,0,0,0,0,0,0,0,0,0,0,0,0,0,0,0,0,0,0,0,0,0,0,0,0,0,0,0
0,0,0,0,0,0,0,0,0,0,0,0,0,1739,1739,1739,1739,1739,1748,1739,1739,1739,1739,1739,1748,1739,1739,1739,1739,1748,1739,1739,1739,1739,1739,1739,1739,1739,1739,1748,1748,1748,1748,1748,1748,1748,1748,1748,1739,1739,1739,1739,1739,1739,1739,1739,1731,1731,1731,1731,0,0,0,0,0,0,0,0,0,0,0,0,887,887,885,885,885,882,880,878,878,875,875,875,875,875,873,871,871,869,862,860,858,858,851,851,851,851,849,849,847,845,841,839,835,833,831,829,827,825,823,821,819,819,817,815,813,811,807,805,803,803,802,800,798,796,794,794,794,789,787,785,783,781,781,780,778,776,774,773,771,769,767,767,766,766,764,761,761,761,759,755,754,754,754,714,711,711,708,708,707,707,704,704,704,704,704,703,701,701,698,694,694,693,693,691,691,688,687,686,684,683,682,682,680,680,679,678,676,676,676,675,674,672,671,671,671,668,667,667,667,667,667,667,667,668,668,667,667,667,666,664,664,664,664,664,664,664,664,664,663,663,663,663,663,663,664,663,663,667,667,668,664,662,662,662,662,662,662,662,663,662,661,661,671,664,663,663,664,664,666,666,667,667,670,671,672,674,675,676,678,679,679,680,682,684,687,690,690,691,693,693,722,722,722,723,725,727,727,728,730,733,733,738,739,739,741,741,744,747,749,750,752,754,755,759,761,762,766,767,771,773,774,776,780,785,785,787,789,790,792,798,802,803,805,807,809,811,811,813,817,821,823,823,823,823,823,823,0,0,0,0,0,0,0,1696,1688,1688,1688,1680,1680,1680,1680,1671,1671,1671,1671,1671,1663,1663,1671,1671,1671,1671,0,0,0,0,0,0,0,978,978,975,975,975,973,973,970,970,970,967,967,967,967,970,970,970,973,975,978,981,981,981,981,981,0,0,0,0,1557,1557,1557,1557,1550,1550,1550,1550,1550,1550,1550,1543,1543,1543,1543,1543,1536,1529,1529,1523,1523,1523,1516,1516,1516,1516,1516,1516,1509,1509,1509,1503,1496,1496,1496,1496,1489,1489,1489,1489,1489,1489,1489,1483,1477,1477,1470,1470,1470,1470,1464,1464,1464,1464,1464,1458,1458,1452,1452,1452,1445,1445,1445,1445,1445,1439,1439,1439,1439,1439,1439,1433,1433,1427,1427,1421,1421,1421,1421,1415,1415,1415,1415,1415,1410,1410,1404,1404,1404,1398,1398,1398,1398,1398,1392,1392,1392,1392,1392,1387,1387,1381,1381,1376,1376,1376,1370,1370,1370,1370,1370,1365,1365,1365,1359,1359,1354,1354,1354,1354,1349,1343,1343,1343,1338,1338,1338,1333,1333,1333,1333,1333,1333,1328,1328,1328,1322,1317,1317,1312,1312,1312,1312,1312,1312,1312,1307,1307,1307,1307,1302,1302,1297,1292,1292,1292,1292,1292,1288,1288,1288,1288,1283,1283,1278,1278,1273,1273,1273,1273,1268,1268,1268,1268,1264,1264,1264,1259,1259,1259,1255,1255,1255,1255,1250,1250,1250,1245,1245,1245,1241,1241,1241,1241,1241,1236,1236,1236,1236,1232,1232,1232,1232,1232,1227,1227,1223,1223,1219,1219,1219,1219,1214,1214,1214,1210,1210,1210,1210,1206,1206,0,0,0,0,0,0,0,0,0,0,0,0,0,0,0,0,0,0,0,0,0,0,0,0,0,0,0,0,0
0,0,0,0,0,0,0,0,0,0,0,0,0,1748,1748,1739,1739,1739,1748,1748,1739,1739,1739,1739,1739,1739,1739,1739,1739,1748,1748,1748,1739,1739,1739,1739,1739,1739,1739,1748,1748,1748,1748,1748,1748,1748,1748,1748,1739,1739,1748,1739,1739,1731,1731,1739,1731,1731,1731,1731,1731,0,0,0,0,0,0,0,0,0,0,0,887,887,885,885,885,885,882,878,878,875,875,875,875,875,875,875,875,873,864,860,860,858,849,849,851,851,849,847,847,845,843,841,839,835,833,831,827,825,825,825,821,819,817,815,815,811,807,805,803,803,802,802,798,798,796,794,794,790,789,787,785,783,781,781,780,774,774,773,771,769,767,767,766,766,764,762,761,761,757,754,754,754,752,752,711,711,708,708,707,707,704,704,704,704,703,703,701,701,698,696,696,694,693,693,691,690,688,686,684,683,682,682,680,680,679,678,676,676,676,675,672,672,671,671,670,668,667,667,666,666,666,666,666,666,664,663,662,662,664,663,663,663,663,663,663,663,663,663,661,661,662,662,662,662,663,662,662,659,655,655,661,661,661,662,662,662,662,662,662,661,659,658,658,659,661,662,662,663,664,664,666,666,668,671,672,674,675,676,678,679,679,680,682,683,687,690,691,693,717,717,717,717,720,722,725,725,727,727,730,733,733,738,739,741,741,742,744,747,750,752,752,754,755,761,761,764,767,771,773,773,774,778,781,785,787,787,790,792,794,796,802,803,805,807,809,811,811,813,819,821,823,823,825,825,827,0,0,0,0,0,1696,1696,1696,1696,1696,1688,1688,1688,1680,1680,1680,1680,1671,1671,1671,1671,1663,1663,1671,1663,1663,1663,0,0,0,0,0,0,0,978,978,978,978,975,975,973,973,970,970,970,970,967,967,970,970,970,973,975,978,978,981,981,981,981,0,0,0,0,1564,1557,1557,1557,1550,1550,1550,1550,1550,1550,1550,1550,1550,1543,1543,1543,1536,1536,1529,1529,1523,1523,1523,1516,1516,1516,1516,1516,1516,1509,1509,1503,1503,1496,1496,1496,1496,1489,1489,1489,1489,1489,1489,1483,1483,1483,1477,1470,1470,1470,1470,1464,1464,1464,1464,1458,1458,1452,1452,1452,1445,1445,1445,1445,1445,1445,1439,1439,1439,1439,1439,1439,1433,1433,1427,1421,1421,1421,1421,1415,1415,1415,1415,1415,1410,1410,1404,1404,1404,1398,1398,1398,1398,1398,1392,1392,1392,1392,1392,1392,1387,1381,1381,1376,1376,1376,1370,1370,1370,1370,1370,1370,1370,1365,1365,1365,1359,1359,1354,1349,1349,1349,1343,1343,1343,1338,1338,1338,1333,1333,1333,1333,1333,1333,1328,1328,1322,1322,1317,1317,1312,1312,1312,1312,1312,1312,1312,1307,1307,1307,1307,1302,1302,1297,1292,1292,1292,1292,1288,1288,1288,1288,1283,1283,1278,1278,1278,1278,1273,1273,1273,1268,1268,1268,1264,1264,1264,1264,1259,1259,1259,1255,1255,1255,1255,1250,1250,1250,1250,1245,1241,1241,1241,1241,1241,1236,1236,1236,1236,1232,1232,1232,1232,1232,1227,1227,1223,1223,1219,1219,1219,1219,1214,1214,1214,1214,1210,1210,1210,1206,1206,0,0,0,0,0,0,0,0,0,0,0,0,0,0,0,0,0,0,0,0,0,0,0,0,0,0,0,0,0
0,0,0,0,0,0,0,0,0,0,0,0,0,1748,1748,1748,1739,1739,1748,1748,1739,1739,1739,1739,1739,1739,1739,1739,1739,1748,1748,1748,1748,1739,1739,1739,1739,1739,1748,1748,1748,1757,1748,1748,1748,1748,1748,1748,1739,1739,1748,1739,1739,1731,1731,1739,1731,1731,1731,1731,1731,1731,0,0,0,0,0,0,0,0,0,0,889,887,887,887,887,885,885,880,878,878,878,878,878,878,878,878,878,878,869,869,894,858,849,849,851,849,849,847,847,845,843,843,841,839,837,831,829,827,825,825,823,821,819,819,815,815,811,807,805,803,803,802,800,798,798,796,796,792,790,787,785,783,783,783,780,774,774,773,773,771,769,767,767,766,764,762,761,761,757,754,754,754,752,750,750,749,749,746,746,742,741,741,741,741,703,703,703,701,698,698,696,694,694,693,691,691,690,688,686,684,682,682,680,680,679,678,678,676,676,674,671,670,670,670,668,667,667,666,666,664,664,663,661,661,662,662,662,662,662,662,662,662,662,662,661,661,661,659,659,661,659,659,662,662,662,661,659,650,650,654,654,655,655,658,661,661,661,661,661,661,658,657,657,658,661,661,662,662,663,664,666,666,668,670,671,674,675,676,678,679,679,680,682,683,688,691,693,714,714,716,717,717,720,722,725,725,727,727,730,731,733,738,739,741,742,744,746,749,750,752,752,754,757,759,761,764,767,771,773,774,776,780,781,785,787,789,790,792,794,796,802,803,805,807,807,811,811,813,819,821,823,823,823,0,0,0,0,0,1696,1696,1696,1696,1696,1696,1696,1688,1688,1688,1680,1680,1680,1680,1680,1671,1671,1671,1663,1663,1671,1663,1663,1663,0,0,0,0,0,0,0,978,978,978,978,978,978,975,973,973,970,970,970,970,970,970,970,970,973,975,978,978,981,981,981,0,0,0,0,0,1564,1557,1557,1557,1550,1550,1550,1550,1550,1550,1550,1550,1550,1550,1543,1543,1536,1536,1529,1529,1529,1523,1523,1523,1523,1516,1516,1516,1516,1509,1509,1509,1503,1496,1496,1496,1496,1496,1489,1489,1489,1489,1489,1489,1483,1483,1477,1470,1470,1470,1470,1464,1464,1464,1464,1464,1464,1458,1458,1452,1452,1445,1445,1445,1445,1445,1439,1439,1439,1439,1439,1439,1433,1433,1427,1421,1421,1421,1421,1421,1421,1415,1415,1415,1415,1410,1410,1404,1404,1398,1398,1398,1398,1398,1392,1392,1392,1392,1392,1392,1387,1381,1381,1376,1376,1376,1370,1370,1370,1370,1370,1370,1370,1370,1365,1365,1359,1359,1354,1349,1349,1349,1343,1343,1343,1343,1338,1338,1338,1333,1333,1333,1333,1333,1328,1328,1328,1328,1322,1322,1317,1312,1312,1312,1312,1312,1307,1307,1307,1307,1307,1307,1302,1302,1297,1292,1292,1292,1292,1288,1288,1288,1288,1283,1283,1278,1278,1278,1273,1273,1273,1273,1268,1268,1268,1268,1268,1264,1264,1259,1259,1255,1255,1255,1255,1255,1250,1250,1250,1245,1245,1245,1245,1241,1241,1241,1236,1236,1236,1236,1236,1232,1232,1232,1232,1232,1227,1223,1219,1219,1219,1219,1214,1214,1214,1214,1214,1210,1210,1210,1210,0,0,0,0,0,0,0,0,0,0,0,0,0,0,0,0,0,0,0,0,0,0,0,0,0,0,0,0,0
0,0,0,0,0,0,0,0,0,0,0,0,0,0,1748,1748,1739,1739,1748,1748,1739,1739,1739,1739,1739,1739,1739,1739,1748,1748,1748,1748,1748,1739,1739,1739,1739,1739,1748,1748,1748,1757,1748,1748,1748,1748,1748,1748,1739,1739,1748,1739,1739,1739,1739,1739,1739,1739,1731,1731,1731,1731,0,0,0,0,0,0,0,0,0,0,0,887,887,887,887,887,885,882,880,878,878,878,878,878,878,878,878,880,882,882,894,894,896,896,901,849,847,847,847,847,843,843,841,841,839,837,837,835,825,825,823,823,819,819,817,815,813,811,809,805,805,803,802,800,798,796,794,792,790,787,787,787,785,785,781,780,776,774,773,773,771,769,767,767,766,764,762,761,757,755,754,754,752,750,749,749,749,746,744,742,741,741,741,739,739,738,703,701,698,697,696,694,694,693,693,691,690,688,686,684,683,682,682,680,679,679,678,676,676,674,671,670,670,670,668,667,666,666,666,664,663,662,661,661,661,661,661,661,661,661,659,659,657,657,657,657,657,655,655,655,657,657,659,650,650,652,650,650,650,650,650,652,652,653,653,654,653,653,659,658,657,657,657,657,659,661,661,662,663,664,664,666,668,670,671,674,675,676,678,678,679,680,682,683,688,693,693,714,714,716,717,720,720,722,723,727,727,728,730,731,733,738,739,741,741,746,747,749,750,752,754,754,757,759,764,766,769,773,774,774,776,780,781,785,787,789,790,794,796,796,802,802,803,805,807,811,813,819,819,819,819,1696,1696,0,0,0,0,1696,1696,1696,1696,1696,1696,1696,1696,1696,1696,1688,1688,1688,1688,1680,1680,1680,1671,1671,1663,1663,1671,1663,1663,1663,0,0,0,0,0,0,0,981,981,981,981,981,978,978,975,973,973,970,970,970,970,970,970,970,973,975,981,981,981,981,981,984,0,0,0,0,1564,1557,1557,1557,1550,1550,1550,1550,1550,1550,1550,1550,1550,1550,1543,1543,1543,1536,1536,1529,1529,1523,1523,1523,1523,1516,1516,1516,1516,1516,1509,1509,1503,1503,1496,1496,1496,1496,1489,1489,1489,1489,1489,1489,1483,1483,1483,1477,1470,1470,1470,1470,1470,1464,1464,1464,1464,1458,1458,1452,1452,1445,1445,1445,1445,1445,1445,1439,1439,1439,1439,1439,1439,1433,1433,1421,1421,1421,1421,1421,1421,1415,1415,1415,1415,1410,1410,1410,1404,1398,1398,1398,1398,1398,1392,1392,1392,1392,1392,1392,1387,1381,1381,1376,1376,1376,1376,1370,1370,1370,1370,1370,1370,1370,1370,1365,1359,1359,1354,1354,1354,1349,1349,1349,1349,1349,1349,1338,1338,1333,1333,1333,1333,1333,1328,1328,1328,1328,1322,1322,1317,1317,1312,1312,1312,1312,1307,1307,1307,1307,1307,1307,1307,1302,1297,1292,1292,1292,1292,1288,1288,1288,1288,1288,1283,1278,1278,1278,1278,1273,1273,1273,1268,1268,1268,1268,1268,1264,1264,1264,1264,1259,1259,1255,1255,1255,1255,1250,1250,1245,1245,1245,1245,1241,1241,1241,1236,1236,1236,1236,1236,1232,1232,1232,1232,1232,1227,1223,1223,1219,1219,1219,1219,1214,1214,1214,1214,1214,1210,1210,1210,0,0,0,0,0,0,0,0,0,0,0,0,0,0,0,0,0,0,0,0,0,0,0,0,0,0,0,0,0
