0,0,0,0,0,0,0,0,1250,1250,1250,1250,1250,1250,1250,1250,1250,1250,1255,1255,1250,1250,1250,1255,1255,1250,1250,1250,1250,1255,1250,1250,1250,1250,1250,1250,1250,1250,1255,1255,1259,1259,1259,1259,1255,1255,1255,1255,1255,1250,1250,1250,1250,1250,1250,1250,1250,1250,1250,1250,1250,1250,951,951,954,954,954,951,948,946,946,946,946,946,946,948,948,951,951,951,954,954,954,956,956,959,959,959,962,964,964,0,0,998,998,998,998,998,998,998,1001,1001,1001,1001,1001,1001,1004,1004,1007,1007,1010,1010,1010,1013,1013,1013,1016,1016,1019,1019,1022,1025,1025,1028,1028,1031,1031,1034,1038,1038,1041,1041,1044,1047,1047,1047,1047,1047,1050,1054,1054,1057,1250,1250,1250,1250,1250,1250,1250,1250,1250,1250,1250,1250,1250,1250,1250,1250,1250,1250,1250,1250,1250,1250,1250,1255,1255,1255,1255,1255,1255,1255,1255,1255,1255,1255,1255,1255,1255,1255,1255,1250,1250,0,0,0,0,0,0,0,0,0,0,0,706,706,704,704,703,701,700,700,698,697,697,694,693,690,690,688,688,688,688,690,693,696,697,698,700,703,704,704,704,706,708,710,710,711,711,711,0,0,0,0,0,1013,1013,1013,1013,1013,1268,1268,1268,1268,1268,1268,1264,1264,1264,1264,1264,1259,1259,1259,1259,1259,1259,1259,1259,1259,1259,1259,1259,1255,1255,1255,1255,1255,1255,1255,1255,1255,1255,1255,1255,1250,1250,1255,1250,1250,1250,1250,1255,1255,1250,1250,1250,1250,1250,1255,1255,1255,1255,1255,1255,1259,1259,1259,1259,1259,1255,1255,1255,1255,1255,1255,1255,1255,1255,1255,1255,1255,1255,1259,1259,1259,1259,1264,1264,1264,1268,1010,1010,1013,1010,1010,1013,1013,1013,1013,1013,1013,1013,1016,1019,1019,1022,1025,1028,1028,1034,1038,1041,1044,1044,1050,1054,1057,1063,1067,1070,1070,1073,1077,1077,1080,1084,1087,1090,1094,1094,1255,1255,1255,1255,1255,1255,1255,1255,1255,1255,1255,1255,1255,1255,1255,1255,1255,1255,1255,1255,1255,1255,1255,1255,1255,1255,1255,1255,1255,1255,1255,1255,1255,1255,1255,1255,1255,1255,1255,1255,1255,1255,1250,1250,1250,1250,1250,1250,1250,1255,1255,1255,1255,1255,1255,1255,1255,1255,1255,1255,1255,1255,1255,1255,1255,1255,1255,1255,1250,1250,1250,1250,1250,1250,1250,1250,1250,1250,1250,1250,1250,1250,1250,1245,1245,1245,1245,1245,1245,1245,1245,1245,1245,1245,1250,1250,1250,1250,1250,1250,1250,1250,1250,1250,1250,1250,1250,1250,1250,1250,1250,1250,1250,1250,1250,1250,1250,1250,1250,1250,1250,1250,1250,1250,1250,1250,1250,1250,1250,1250,1250,1250,1250,1250,1250,1250,1250,1250,1250,1245,1245,1250,1250,1250,1250,1250,1250,1255,1255,1255,1255,1255,1255,1255,1250,1250,1245,1245,1245,1245,1245,1245,1232,1232,1236,1236,1236,1241,1236,1236,1241,1241,1241,1241,1241,1241,1241,1241,1236,1236,1236,1123,1123,1119,1112,1108,1105,1101,1094,1094,1090,1087,1084,1080,1077,1073,1070,1067,1063,1063,1063,1057,1054,1050,1050,1050,946,946,946,946,946,943,943,943,943,943,943,946,946,948,948,948,948,948,948,948,951,951,951,954,954,954,956,956,954,954,981,978,978,975,973,973,970,967,967,0,0,0,0,0,0,0,0,0,0,0,0,0,0,0,0,0,0,0,0,0,0,0,0,0,0,0,0,0,0,0,0,0,0
0,0,0,0,0,0,0,0,1245,1245,1245,1245,1245,1245,1245,1245,1245,1245,1250,1250,1250,1250,1250,1250,1250,1250,1250,1250,1250,1250,1250,1245,1245,1245,1245,1245,1245,1245,1250,1250,1255,1255,1255,1255,1255,1250,1250,1250,1250,1250,1250,1245,1245,1245,1245,1245,1245,1245,1245,1245,1245,1245,954,954,954,954,954,951,951,948,948,946,946,946,948,948,951,951,951,954,954,954,956,956,956,956,959,959,962,962,987,987,989,998,998,998,998,998,998,998,1001,1001,1001,1001,1001,1001,1001,1004,1004,1007,1010,1010,1010,1013,1013,1013,1016,1016,1019,1019,1022,1025,1025,1028,1028,1031,1031,1034,1038,1041,1041,1044,1044,1044,1044,1044,1047,1050,1245,1245,1245,1250,1250,1250,1250,1250,1250,1250,1250,1250,1245,1245,1245,1245,1245,1245,1245,1245,1245,1245,1245,1245,1250,1250,1250,1250,1255,1255,1250,1250,1250,1250,1250,1250,1250,1250,1255,1255,1255,1250,1250,1250,1250,0,0,0,0,0,0,0,0,0,0,0,0,706,706,704,703,701,700,700,698,697,697,696,693,691,691,691,690,690,690,691,696,696,697,698,700,703,704,704,706,707,710,710,710,711,711,0,0,0,0,0,0,1013,1013,1013,1010,1010,1007,1007,1004,1004,1001,1001,1264,1264,1259,1259,1259,1255,1255,1255,1255,1255,1255,1255,1255,1255,1255,1259,1255,1255,1255,1255,1250,1250,1250,1250,1250,1255,1250,1250,1250,1250,1250,1250,1250,1250,1250,1250,1250,1250,1250,1250,1250,1250,1250,1250,1250,1250,1250,1250,1250,1255,1255,1255,1250,1250,1250,1250,1250,1250,1250,1250,1250,1250,1250,1250,1250,1250,1250,1255,1255,1255,1255,1259,1259,1264,1007,1007,1010,1010,1010,1010,1010,1010,1013,1010,1010,1010,1013,1016,1019,1019,1022,1025,1028,1031,1034,1038,1041,1044,1044,1050,1054,1057,1067,1070,1070,1073,1077,1077,1080,1080,1084,1087,1090,1094,1094,1255,1255,1255,1255,1250,1250,1250,1250,1250,1250,1250,1250,1250,1250,1250,1255,1255,1255,1250,1250,1255,1255,1255,1255,1250,1250,1250,1250,1250,1250,1250,1250,1250,1250,1250,1255,1250,1250,1250,1250,1250,1250,1250,1250,1250,1250,1250,1250,1250,1250,1250,1250,1250,1250,1250,1250,1250,1250,1250,1250,1250,1250,1250,1250,1250,1250,1250,1250,1250,1245,1245,1245,1245,1245,1245,1245,1245,1245,1245,1245,1245,1245,1245,1245,1245,1241,1241,1241,1241,1241,1241,1241,1245,1245,1245,1245,1245,1245,1245,1241,1241,1245,1245,1245,1245,1245,1245,1245,1245,1245,1245,1250,1250,1250,1250,1245,1245,1245,1245,1245,1245,1245,1245,1245,1245,1245,1245,1245,1245,1245,1250,1250,1250,1250,1250,1250,1245,1245,1245,1245,1245,1250,1250,1250,1250,1185,1185,1185,1185,1185,1185,1185,1255,1250,1250,1245,1245,1245,1245,1202,1202,1232,1232,1232,1232,1236,1236,1236,1236,1236,1236,1236,1236,1236,1236,1236,1236,1236,1236,1236,1236,1123,1119,1115,1112,1108,1105,1101,1094,1090,1087,1084,1080,1077,1073,1070,1067,1063,1060,1060,1060,1054,1054,1050,1050,1050,946,946,946,946,946,943,943,943,943,943,943,946,946,946,948,948,948,948,948,948,951,951,951,954,954,954,956,956,954,954,984,981,978,978,975,970,967,964,964,0,0,0,0,0,0,0,0,0,0,0,0,0,0,0,0,0,0,0,0,0,0,0,0,0,0,0,0,0,0,0,0,0,0
0,0,0,0,0,0,0,0,1245,1241,1241,1241,1241,1241,1241,1241,1241,1241,1245,1241,1241,1241,1241,1245,1245,1245,1245,1245,1245,1245,1245,1245,1245,1245,1245,1245,1245,1245,1245,1245,1250,1250,1250,1250,1250,1250,1250,1250,1250,1250,1250,1245,1245,1245,1245,1245,1245,1245,1245,1241,1236,1232,1232,954,954,954,954,954,951,951,948,948,948,948,948,948,951,951,954,954,954,954,956,956,956,956,959,959,962,964,987,987,989,992,998,998,998,998,998,1001,1001,1001,1001,1001,1001,1001,1001,1004,1004,1007,1010,1010,1010,1013,1013,1013,1016,1019,1019,1022,1025,1025,1028,1028,1028,1031,1031,1034,1038,1041,1044,1044,1044,1044,1044,1044,1047,1245,1245,1245,1245,1250,1250,1250,1250,1250,1245,1245,1250,1245,1245,1245,1245,1245,1245,1245,1241,1241,1241,1245,1245,1245,1245,1245,1245,1245,1250,1250,1250,1250,1250,1250,1250,1250,1250,1250,1250,1250,1250,1250,1245,1245,1245,0,0,0,0,0,0,0,0,0,0,0,0,707,706,704,704,701,701,700,698,698,697,696,693,693,691,691,691,691,691,691,696,696,697,698,700,703,704,704,706,708,710,711,711,711,713,0,0,0,0,0,0,1013,1013,1010,1010,1007,1007,1004,1004,1001,1001,1001,998,998,998,1259,1259,1255,1255,1255,1255,1255,1255,1255,1255,1255,1255,1255,1255,1250,1250,1250,1250,1250,1250,1250,1250,1250,1250,1250,1250,1250,1250,1250,1250,1250,1250,1250,1250,1250,1250,1245,1245,1245,1245,1245,1245,1245,1245,1245,1250,1250,1250,1250,1250,1250,1250,1250,1250,1250,1245,1245,1245,1245,1245,1245,1245,1245,1250,1250,1255,1255,1255,1259,1001,1001,1004,1004,1007,1010,1007,1007,1007,1010,1010,1010,1010,1010,1013,1016,1016,1019,1022,1025,1028,1031,1034,1038,1041,1041,1044,1050,1063,1073,1073,1073,1073,1077,1077,1077,1080,1084,1087,1090,1094,1094,1094,1250,1250,1250,1250,1250,1250,1245,1245,1245,1245,1245,1245,1245,1245,1245,1250,1250,1250,1250,1250,1250,1250,1250,1250,1250,1250,1250,1250,1250,1250,1245,1245,1245,1245,1245,1250,1250,1250,1250,1250,1250,1245,1245,1245,1245,1245,1245,1245,1245,1245,1245,1245,1245,1245,1241,1241,1245,1245,1245,1245,1245,1245,1245,1250,1250,1250,1245,1245,1245,1241,1241,1241,1241,1241,1245,1245,1245,1245,1245,1245,1245,1241,1241,1245,1241,1241,1241,1241,1241,1241,1241,1241,1241,1241,1241,1241,1241,1241,1241,1236,1236,1241,1241,1241,1241,1241,1241,1241,1241,1241,1241,1241,1241,1241,1245,1241,1241,1241,1241,1241,1241,1241,1241,1241,1241,1241,1241,1241,1241,1245,1245,1245,1245,1250,1250,1250,1245,1245,1245,1245,1236,1236,1250,1250,1189,1185,1185,1185,1185,1185,1185,1185,1185,1185,1245,1245,1245,1245,1202,1202,1202,1202,1227,1227,1227,1232,1232,1236,1232,1232,1232,1236,1232,1232,1232,1232,1232,1236,1236,1236,1236,1115,1115,1112,1108,1108,1101,1097,1094,1090,1087,1080,1077,1073,1073,1067,1067,1063,1057,1057,1057,1054,1054,1050,1050,1050,946,946,946,943,943,943,943,943,946,946,946,946,946,946,948,948,948,951,951,951,951,951,954,954,954,956,956,956,956,981,984,981,981,978,975,970,964,962,962,0,0,0,0,0,0,0,0,0,0,0,0,0,0,0,0,0,0,0,0,0,0,0,0,0,0,0,0,0,0,0,0,0,0
0,0,0,0,0,0,0,0,1241,1241,1241,1236,1236,1236,1236,1236,1236,1232,1232,1232,1236,1236,1236,1236,1236,1236,1241,1241,1241,1241,1241,1241,1236,1236,1241,1241,1241,1241,1245,1245,1245,1245,1245,1245,1245,1245,1245,1245,1245,1245,1245,1245,1245,1245,1241,1241,1241,1241,1241,1236,1236,1232,1232,956,956,956,956,954,954,951,951,948,946,946,948,948,948,951,954,954,954,954,956,956,959,959,962,964,964,964,967,987,989,992,992,992,992,998,998,998,998,1001,1001,1001,1001,1001,1001,1004,1004,1007,1010,1010,1010,1013,1013,1013,1016,1019,1019,1022,1025,1025,1028,1028,1028,1031,1031,1034,1038,1041,1044,1044,1044,1044,1044,1044,1241,1241,1241,1245,1245,1245,1245,1245,1245,1245,1245,1245,1245,1245,1241,1241,1241,1241,1241,1241,1236,1236,1241,1241,1241,1245,1245,1245,1245,1245,1241,1241,1245,1245,1245,1245,1245,1245,1245,1245,1245,1245,1245,1245,1245,1245,1245,0,0,0,0,0,0,0,0,0,0,0,0,708,707,706,704,703,703,701,698,698,697,696,693,693,693,691,691,691,691,693,694,696,697,698,703,703,704,706,707,708,710,711,711,713,713,0,0,0,0,1010,1010,1010,1010,1010,1007,1007,1004,1004,1001,1001,1001,1001,998,998,998,995,995,1255,1255,1250,1250,1250,1250,1250,1250,1250,1250,1255,1250,1245,1245,1245,1245,1245,1245,1245,1245,1250,1245,1245,1245,1245,1245,1245,1245,1245,1245,1245,1245,1245,1245,1245,1245,1245,1245,1245,1245,1245,1245,1245,1245,1245,1245,1245,1245,1245,1245,1245,1245,1245,1245,1245,1241,1241,1236,1236,1241,1241,1245,1250,1250,1250,1250,998,998,998,998,1001,1004,1004,1007,1007,1007,1007,1007,1010,1010,1010,1010,1013,1016,1019,1022,1025,1028,1031,1034,1038,1038,1041,1044,1050,1080,1080,1077,1077,1077,1080,1080,1080,1080,1084,1087,1090,1094,1094,1094,1250,1250,1250,1245,1245,1245,1241,1241,1241,1241,1241,1241,1241,1241,1245,1245,1245,1245,1245,1245,1245,1245,1245,1245,1245,1241,1241,1245,1241,1241,1241,1241,1241,1241,1245,1245,1245,1245,1245,1245,1245,1241,1241,1241,1241,1241,1241,1241,1241,1241,1241,1241,1241,1241,1236,1236,1236,1236,1236,1236,1241,1241,1241,1245,1245,1245,1241,1241,1241,1241,1241,1241,1241,1241,1241,1241,1241,1241,1241,1241,1241,1241,1241,1241,1241,1241,1236,1236,1236,1236,1236,1236,1236,1236,1236,1236,1236,1236,1236,1236,1236,1236,1236,1236,1236,1236,1236,1236,1236,1236,1236,1236,1236,1236,1236,1236,1236,1236,1241,1236,1236,1236,1236,1236,1236,1236,1236,1236,1236,1236,1241,1241,1245,1245,1250,1250,1245,1245,1245,1245,1236,1189,1189,1189,1189,1185,1185,1185,1185,1185,1185,1185,1185,1185,1189,1193,1202,1206,1206,1202,1202,1206,1210,1219,1219,1223,1227,1232,1232,1232,1232,1232,1232,1232,1232,1232,1232,1232,1232,1232,1232,1112,1112,1108,1108,1108,1101,1094,1090,1087,1084,1080,1077,1073,1070,1067,1063,1060,1057,1054,1054,1054,1054,1050,1050,1050,946,946,946,943,943,943,943,943,946,946,946,946,946,946,948,948,951,951,951,951,951,954,954,954,956,956,959,959,959,981,984,981,981,978,975,967,962,962,962,0,0,0,0,0,0,0,0,0,0,0,0,0,0,0,0,0,0,0,0,0,0,0,0,0,0,0,0,0,0,0,0,0,0
0,0,0,0,0,0,0,0,1236,1236,1236,1236,1236,1232,1232,1232,1232,1227,1227,1227,1232,1232,1232,1232,1232,1232,1236,1236,1232,1232,1236,1236,1232,1232,1232,1236,1236,1236,1236,1236,1241,1241,1241,1241,1241,1241,1241,1241,1241,1241,1241,1241,1241,1241,1241,1236,1236,1236,1236,1232,1232,1227,1227,956,956,956,956,956,954,954,951,948,946,946,948,948,948,951,954,954,954,956,956,956,959,959,962,964,964,967,967,984,989,989,992,992,989,989,992,995,995,998,998,1001,1001,1001,1001,1004,1004,1010,1010,1010,1013,1013,1013,1016,1016,1019,1022,1022,1025,1028,1028,1031,1031,1031,1031,1038,1038,1041,1044,1044,1044,1044,1047,1236,1236,1236,1236,1236,1241,1236,1236,1236,1241,1241,1241,1241,1241,1245,1241,1241,1241,1236,1236,1236,1236,1236,1236,1236,1236,1241,1241,1241,1241,1241,1236,1236,1241,1241,1241,1241,1241,1245,1245,1245,1245,1241,1241,1241,1241,1241,1245,0,0,0,0,0,0,0,0,0,0,0,0,708,707,706,704,703,703,701,700,698,697,696,694,693,693,693,693,693,693,693,694,696,697,700,703,704,704,707,707,710,710,711,711,713,714,0,0,0,0,1010,1010,1007,1007,1007,1004,1004,1001,1001,1001,1001,1001,1001,998,998,995,995,995,1255,1255,1250,1250,1250,1250,1250,1250,1250,1250,1250,1250,1245,1241,1241,1241,1241,1241,1241,1241,1245,1245,1245,1245,1245,1245,1245,1245,1241,1241,1245,1241,1241,1241,1241,1241,1241,1241,1241,1241,1241,1241,1241,1241,1241,1241,1241,1241,1241,1241,1236,1236,1241,1241,1241,1236,1236,1236,1236,1236,1241,1241,1250,1250,1250,1250,998,998,998,998,1001,1001,1001,1004,1004,1004,1004,1007,1007,1010,1010,1010,1013,1016,1019,1022,1025,1028,1031,1034,1034,1038,1041,1044,1090,1087,1084,1080,1080,1080,1080,1084,1084,1084,1087,1090,1090,1094,1094,1094,1245,1241,1241,1241,1241,1241,1241,1236,1236,1236,1236,1236,1236,1236,1241,1241,1241,1241,1241,1241,1241,1241,1241,1241,1241,1236,1236,1236,1236,1236,1236,1236,1236,1236,1236,1241,1241,1241,1241,1241,1241,1241,1241,1236,1236,1241,1236,1236,1236,1236,1236,1236,1236,1236,1236,1236,1236,1236,1236,1236,1236,1236,1236,1236,1241,1241,1236,1236,1236,1236,1236,1236,1236,1236,1236,1236,1236,1236,1236,1236,1236,1236,1236,1236,1236,1236,1236,1236,1236,1236,1236,1236,1236,1236,1236,1236,1236,1236,1236,1236,1236,1236,1232,1232,1232,1232,1232,1232,1232,1232,1232,1232,1232,1232,1232,1232,1232,1232,1236,1232,1232,1236,1232,1232,1232,1232,1232,1227,1227,1232,1236,1236,1241,1245,1250,1250,1245,1245,1197,1197,1193,1189,1189,1189,1189,1185,1185,1185,1185,1185,1185,1185,1185,1185,1189,1193,1202,1206,1206,1202,1202,1206,1206,1210,1214,1219,1219,1227,1227,1227,1227,1232,1232,1232,1227,1227,1227,1232,1232,1232,1232,1108,1108,1108,1105,1105,1097,1094,1087,1084,1080,1077,1073,1070,1067,1063,1063,1060,1057,1054,1054,1050,1050,1050,1050,940,940,943,946,943,943,943,943,943,946,946,946,946,946,946,948,948,951,951,954,954,954,954,954,956,956,956,959,959,978,981,981,981,978,978,973,964,962,959,959,0,0,0,0,0,0,0,0,0,0,0,0,0,0,0,0,0,0,0,0,0,0,0,0,0,0,0,0,0,0,0,0,0,0
0,0,0,0,0,0,0,1236,1236,1236,1236,1232,1232,1232,1227,1227,1227,1227,1227,1227,1227,1227,1232,1232,1232,1232,1232,1232,1232,1232,1232,1227,1227,1227,1227,1232,1232,1232,1232,1232,1232,1236,1236,1236,1236,1236,1236,1236,1236,1236,1232,1232,1236,1236,1236,1232,1232,1236,1236,1232,1227,1227,1227,956,956,956,956,956,956,954,954,951,951,948,948,951,951,951,954,954,954,956,956,959,959,962,964,964,964,967,975,981,987,989,989,989,989,989,992,995,995,998,998,998,1001,1001,1001,1004,1007,1010,1010,1010,1013,1013,1013,1016,1016,1019,1022,1025,1025,1028,1028,1031,1031,1031,1034,1038,1038,1044,1044,1047,1047,1047,1232,1232,1232,1232,1232,1232,1232,1232,1232,1232,1232,1236,1236,1236,1236,1241,1236,1236,1236,1232,1232,1232,1232,1232,1232,1232,1236,1236,1236,1236,1236,1236,1232,1232,1232,1232,1232,1236,1236,1236,1236,1236,1236,1236,1236,1236,1236,1236,1236,0,0,0,0,0,0,0,0,0,0,0,0,710,708,707,706,706,704,701,700,698,698,697,696,694,693,693,693,693,693,694,696,696,698,700,703,704,704,707,708,710,713,713,713,714,714,0,0,0,0,0,1007,1004,1004,1001,1001,1001,1001,1001,998,998,998,998,998,998,995,995,992,992,1250,1250,1250,1245,1245,1245,1250,1250,1250,1250,1245,1241,1241,1236,1236,1236,1236,1236,1236,1241,1241,1241,1241,1241,1241,1241,1241,1236,1236,1236,1236,1236,1236,1236,1236,1236,1236,1236,1236,1236,1236,1236,1236,1236,1236,1232,1232,1232,1236,1232,1232,1232,1232,1232,1236,1232,1232,1232,1236,1236,1241,1245,1245,1250,1250,998,998,998,998,998,998,1001,1001,1001,1001,1001,1004,1007,1010,1010,1010,1013,1016,1019,1022,1025,1028,1031,1034,1034,1038,1041,1094,1090,1090,1087,1084,1084,1084,1084,1084,1084,1087,1087,1090,1094,1094,1094,1094,1241,1236,1236,1236,1232,1232,1232,1236,1236,1236,1236,1236,1236,1236,1236,1236,1236,1236,1236,1236,1236,1236,1236,1236,1236,1236,1232,1232,1232,1232,1232,1232,1232,1236,1236,1236,1236,1236,1236,1236,1236,1236,1236,1236,1236,1236,1236,1236,1236,1236,1236,1236,1232,1232,1232,1232,1232,1232,1232,1232,1232,1232,1232,1232,1232,1232,1236,1236,1236,1236,1232,1232,1232,1232,1232,1232,1232,1232,1232,1232,1232,1232,1232,1232,1232,1232,1232,1232,1232,1232,1236,1236,1236,1232,1232,1236,1236,1236,1236,1232,1232,1232,1232,1232,1227,1227,1227,1223,1223,1227,1227,1227,1227,1227,1227,1227,1227,1227,1227,1227,1223,1223,1223,1223,1223,1223,1219,1214,1202,1202,1202,1202,1202,1202,1250,1250,1250,1189,1189,1193,1193,1189,1189,1189,1189,1185,1185,1185,1185,1185,1185,1185,1185,1185,1193,1197,1202,1202,1202,1202,1202,1206,1206,1210,1210,1214,1219,1223,1223,1223,1223,1227,1227,1227,1219,1219,1219,1219,1214,1214,1232,1108,1108,1108,1105,1101,1094,1090,1084,1080,1077,1077,1073,1070,1067,1063,1060,1057,1057,1054,1050,1050,1050,1050,940,940,940,943,946,943,943,943,943,943,946,946,946,946,946,946,948,948,951,951,954,954,954,954,956,956,956,959,962,973,978,981,981,981,978,975,970,962,959,959,959,0,0,0,0,0,0,0,0,0,0,0,0,0,0,0,0,0,0,0,0,0,0,0,0,0,0,0,0,0,0,0,0,0,0
0,0,0,0,0,0,0,1232,1232,1232,1232,1232,1232,1227,1227,1227,1227,1227,1227,1227,1227,1227,1227,1227,1227,1227,1232,1227,1227,1227,1232,1227,1227,1227,1227,1227,1227,1227,1227,1227,1232,1232,1232,1232,1232,1232,1232,1232,1232,1232,1232,1232,1232,1232,1232,1232,1232,1232,1232,1227,1223,1223,1223,956,956,956,956,956,956,956,954,954,954,951,951,951,951,954,954,954,956,956,956,959,959,962,964,967,967,970,975,978,981,987,987,989,989,989,992,995,995,998,998,998,1001,1001,1001,1004,1007,1010,1010,1010,1013,1013,1013,1016,1016,1019,1022,1025,1025,1028,1028,1031,1031,1031,1034,1038,1038,1044,1232,1232,1232,1232,1227,1227,1232,1232,1227,1227,1232,1227,1227,1227,1227,1232,1232,1232,1232,1232,1232,1232,1232,1232,1232,1232,1232,1232,1232,1232,1232,1232,1232,1232,1232,1232,1232,1232,1232,1232,1232,1232,1232,1232,1232,1232,1232,1232,1232,1232,1232,1232,1232,0,0,0,0,0,0,0,0,0,0,0,0,710,710,708,708,706,704,703,701,700,698,697,696,694,694,693,693,693,693,694,696,696,698,703,704,704,706,708,710,711,713,713,714,714,714,0,0,0,0,0,1004,1004,1001,1001,1001,1001,998,998,998,998,998,998,995,995,995,995,992,992,989,989,989,989,987,984,984,1250,1250,1250,1245,1241,1236,1236,1232,1232,1232,1232,1236,1236,1236,1236,1236,1241,1236,1236,1236,1232,1232,1232,1232,1232,1232,1232,1232,1232,1232,1232,1236,1232,1232,1236,1236,1232,1232,1232,1232,1232,1232,1232,1232,1232,1232,1232,1232,1232,1232,1232,1232,1232,1236,1241,1245,992,992,995,995,995,998,998,998,998,1001,1001,1001,1001,1004,1007,1010,1010,1010,1013,1016,1019,1022,1025,1028,1031,1031,1031,1038,1041,1094,1090,1090,1087,1087,1087,1084,1084,1084,1087,1087,1090,1094,1094,1097,1097,1101,1241,1232,1232,1232,1232,1232,1232,1232,1232,1232,1232,1232,1232,1232,1232,1232,1232,1232,1232,1232,1232,1232,1232,1232,1232,1232,1232,1232,1232,1232,1232,1232,1232,1232,1232,1232,1232,1232,1236,1236,1236,1232,1232,1232,1232,1232,1232,1232,1232,1232,1232,1232,1232,1232,1232,1232,1232,1232,1232,1232,1232,1232,1227,1227,1227,1227,1227,1227,1227,1232,1232,1232,1227,1227,1227,1227,1227,1227,1227,1227,1227,1227,1227,1227,1227,1232,1232,1232,1232,1232,1232,1232,1232,1227,1227,1232,1232,1232,1232,1232,1232,1232,1232,1227,1227,1223,1223,1219,1219,1223,1223,1223,1223,1223,1227,1227,1227,1227,1219,1219,1214,1214,1210,1210,1210,1214,1219,1206,1202,1202,1202,1202,1202,1197,1197,1197,1197,1189,1189,1193,1193,1193,1189,1189,1189,1189,1189,1185,1185,1185,1185,1185,1185,1189,1193,1197,1202,1202,1202,1202,1202,1206,1206,1206,1210,1214,1214,1219,1219,1219,1219,1219,1219,1219,1214,1214,1214,1214,1214,1214,1108,1108,1108,1105,1105,1094,1090,1087,1084,1080,1077,1073,1070,1067,1063,1060,1057,1057,1054,1054,1050,1050,1050,1050,940,940,940,943,946,943,943,946,943,943,946,946,946,946,946,946,948,948,948,951,954,954,954,954,956,956,956,959,962,970,978,978,981,978,975,973,970,962,956,956,959,0,0,0,0,0,0,0,0,0,0,0,0,0,0,0,0,0,0,0,0,0,0,0,0,0,0,0,0,0,0,0,0,0,0
0,0,0,0,0,0,0,1227,1227,1232,1227,1227,1227,1223,1219,1219,1219,1219,1219,1219,1223,1223,1227,1227,1227,1227,1227,1227,1227,1227,1227,1227,1223,1223,1227,1227,1227,1227,1227,1227,1227,1227,1227,1232,1227,1227,1232,1232,1232,1232,1232,1232,1232,1232,1232,1232,1232,1232,1232,1227,1223,1223,1223,1223,959,959,959,956,956,956,956,954,954,951,951,951,951,954,954,954,956,956,956,959,959,962,964,967,967,973,973,975,981,984,987,987,989,989,992,992,995,995,998,998,1001,1001,1004,1004,1007,1010,1010,1010,1013,1013,1016,1016,1019,1022,1022,1025,1028,1031,1031,1034,1034,1034,1034,1038,1038,1227,1232,1232,1232,1232,1227,1227,1227,1227,1227,1227,1227,1227,1227,1227,1227,1227,1227,1227,1227,1227,1227,1227,1227,1227,1227,1227,1227,1227,1227,1227,1227,1227,1227,1227,1227,1227,1227,1227,1227,1223,1223,1223,1223,1223,1223,1227,1227,1227,1227,1227,1227,1227,1223,1223,0,0,0,0,0,0,0,0,0,0,0,0,710,710,708,707,706,703,701,700,700,698,697,696,694,694,694,694,694,694,696,696,698,703,704,704,707,708,711,713,713,714,714,716,716,717,0,0,0,0,1004,1004,1001,1001,1001,1001,998,998,998,995,992,992,992,992,992,992,992,989,989,989,987,987,987,984,984,984,984,984,1245,1236,1232,1232,1232,1232,1232,1232,1232,1232,1232,1232,1236,1236,1232,1232,1232,1232,1232,1227,1227,1227,1227,1227,1227,1227,1232,1232,1232,1232,1232,1232,1232,1232,1232,1232,1227,1227,1232,1227,1227,1227,1227,1227,1227,1227,1227,1227,1232,1232,1232,1241,992,992,992,992,992,995,995,995,995,995,995,998,998,1001,1004,1007,1010,1010,1013,1013,1016,1019,1022,1025,1028,1031,1031,1031,1034,1094,1094,1090,1090,1090,1087,1087,1087,1087,1087,1087,1087,1090,1094,1097,1097,1101,1101,1232,1232,1232,1232,1227,1227,1227,1227,1227,1227,1227,1227,1227,1232,1232,1232,1232,1232,1232,1232,1227,1227,1227,1227,1227,1227,1227,1227,1227,1227,1227,1227,1227,1227,1232,1232,1232,1232,1232,1232,1232,1232,1227,1227,1227,1227,1227,1227,1227,1227,1227,1227,1227,1227,1227,1227,1227,1227,1227,1227,1227,1227,1223,1223,1223,1223,1223,1223,1223,1223,1219,1219,1223,1223,1223,1223,1223,1223,1227,1227,1227,1227,1227,1223,1223,1227,1227,1227,1227,1227,1227,1227,1227,1223,1223,1227,1227,1227,1227,1227,1227,1227,1223,1223,1223,1219,1219,1219,1219,1219,1219,1219,1214,1214,1214,1214,1219,1214,1210,1210,1210,1210,1206,1206,1206,1206,1206,1202,1202,1202,1202,1202,1202,1197,1197,1197,1197,1193,1193,1193,1193,1193,1189,1189,1189,1189,1189,1189,1189,1189,1189,1189,1189,1193,1197,1197,1202,1202,1202,1202,1202,1206,1206,1206,1210,1210,1210,1214,1214,1214,1214,1214,1214,1214,1214,1214,1214,1210,1210,1105,1105,1105,1105,1105,1101,1090,1087,1084,1080,1080,1073,1070,1067,1067,1060,1057,1054,1054,1054,1050,1050,948,948,1050,940,940,940,943,943,943,943,943,943,943,946,946,946,946,946,946,948,948,948,951,954,954,954,956,956,956,959,962,962,970,978,978,978,978,975,970,970,959,956,956,0,0,0,0,0,0,0,0,0,0,0,0,0,0,0,0,0,0,0,0,0,0,0,0,0,0,0,0,0,0,0,0,0,0,0
0,0,0,0,0,0,0,1223,1223,1227,1223,1223,1223,1219,1219,1214,1214,1214,1214,1214,1219,1219,1219,1223,1223,1223,1223,1223,1223,1223,1223,1223,1223,1223,1223,1223,1223,1223,1223,1223,1223,1223,1223,1223,1223,1223,1223,1227,1227,1232,1232,1232,1232,1232,1227,1227,1227,1227,1227,1223,1219,1219,1223,1223,962,962,959,956,956,956,956,954,954,951,951,951,951,954,954,954,956,956,959,959,962,964,967,967,967,973,973,975,978,981,987,987,989,989,992,992,995,995,998,998,1001,1001,1004,1007,1010,1010,1010,1013,1013,1013,1016,1016,1019,1022,1022,1028,1028,1031,1031,1034,1034,1034,1038,1223,1223,1227,1227,1227,1227,1227,1227,1227,1227,1227,1227,1223,1223,1223,1223,1223,1223,1223,1223,1223,1223,1223,1227,1227,1227,1227,1227,1227,1227,1227,1227,1227,1227,1227,1227,1227,1227,1227,1223,1223,1223,1223,1223,1223,1223,1223,1223,1223,1223,1223,1223,1223,1223,1219,1214,1214,0,0,0,0,0,0,0,0,0,0,0,0,711,710,708,708,707,706,703,701,700,698,697,696,696,694,694,694,694,694,696,697,698,703,704,704,707,710,711,713,713,714,716,716,716,716,0,0,0,0,0,1004,1001,1001,1001,1001,998,998,998,992,992,989,989,989,989,989,989,989,987,987,987,987,987,987,987,984,981,981,1236,1236,1232,1232,1232,1232,1232,1232,1232,1232,1232,1232,1232,1232,1227,1227,1227,1227,1227,1223,1223,1227,1227,1227,1227,1227,1227,1227,1227,1227,1227,1227,1227,1227,1227,1227,1227,1227,1227,1227,1227,1227,1227,1227,1227,1227,1227,1227,1227,1232,981,981,989,989,989,989,992,992,992,992,989,989,992,992,995,998,1001,1007,1010,1010,1013,1013,1016,1019,1022,1025,1028,1028,1028,1028,1034,1097,1094,1094,1090,1090,1087,1087,1087,1087,1087,1087,1090,1094,1094,1097,1101,1101,1101,1227,1227,1227,1227,1227,1223,1223,1227,1223,1223,1223,1223,1227,1223,1223,1223,1223,1227,1227,1227,1223,1223,1227,1223,1223,1223,1223,1223,1223,1223,1223,1223,1223,1227,1227,1227,1227,1227,1227,1227,1227,1227,1227,1223,1223,1227,1227,1227,1227,1227,1227,1227,1227,1223,1223,1223,1223,1223,1223,1223,1223,1223,1223,1219,1219,1219,1219,1219,1219,1219,1219,1219,1219,1219,1219,1219,1219,1219,1219,1219,1219,1219,1219,1219,1219,1223,1223,1223,1223,1223,1223,1223,1223,1219,1219,1223,1223,1223,1223,1227,1227,1223,1219,1219,1219,1219,1214,1214,1214,1214,1214,1214,1210,1210,1210,1210,1214,1206,1206,1206,1206,1206,1202,1202,1202,1202,1202,1202,1197,1197,1197,1197,1197,1197,1197,1197,1197,1193,1193,1193,1193,1193,1193,1193,1193,1193,1193,1189,1189,1193,1193,1193,1193,1197,1197,1202,1202,1202,1202,1206,1206,1206,1206,1210,1210,1210,1210,1210,1214,1214,1214,1214,1214,1214,1214,1210,1210,1105,1105,1105,1105,1101,1101,1101,1087,1084,1084,1084,1080,1077,1073,1067,1067,1063,1060,1057,1054,1054,1054,1050,967,948,948,940,940,940,940,943,943,943,943,943,943,943,946,946,946,946,946,946,948,948,948,951,951,954,954,956,956,956,959,964,967,973,978,978,975,973,970,967,962,959,956,956,0,0,0,0,0,0,0,0,0,0,0,0,0,0,0,0,0,0,0,0,0,0,0,0,0,0,0,0,0,0,0,0,0,0,0
0,0,0,0,0,0,0,1219,1219,1223,1219,1219,1219,1214,1214,1214,1214,1214,1214,1214,1214,1219,1219,1219,1219,1223,1223,1219,1219,1223,1223,1223,1219,1219,1219,1219,1219,1219,1219,1219,1219,1219,1219,1219,1219,1219,1219,1219,1223,1227,1227,1227,1227,1227,1227,1227,1223,1223,1223,1223,1219,1219,1214,1214,962,962,962,959,959,956,956,954,954,951,951,954,954,954,954,956,956,959,959,959,962,964,967,967,970,973,973,975,978,981,984,987,989,989,992,992,995,995,998,998,1001,1001,1004,1007,1010,1010,1010,1013,1013,1013,1016,1019,1019,1022,1025,1028,1028,1031,1034,1034,1034,1034,1219,1219,1219,1223,1223,1227,1227,1227,1227,1227,1227,1227,1223,1223,1223,1223,1223,1219,1219,1219,1219,1219,1219,1219,1219,1223,1223,1223,1223,1223,1223,1223,1223,1227,1223,1223,1223,1223,1223,1223,1219,1219,1219,1223,1219,1219,1219,1219,1219,1219,1219,1219,1219,1219,1219,1214,1214,1214,0,0,0,0,0,0,0,0,0,0,0,0,713,711,710,708,708,707,703,701,701,700,698,697,696,696,696,696,696,696,696,697,700,703,704,704,707,710,711,713,713,714,716,716,716,716,0,0,0,0,0,1001,1001,1001,1001,998,998,998,995,992,992,989,989,989,989,989,987,987,984,984,984,987,987,987,987,984,981,978,975,975,1232,1232,1227,1227,1227,1232,1232,1232,1232,1232,1227,1227,1227,1223,1223,1223,1223,1223,1223,1223,1223,1223,1223,1223,1223,1223,1223,1223,1223,1219,1219,1223,1223,1223,1223,1223,1223,1223,1223,1223,1223,1223,1223,1223,1223,1227,978,978,978,981,981,984,984,987,989,989,989,989,989,989,989,989,992,995,998,1004,1010,1013,1013,1013,1016,1019,1022,1025,1028,1028,1028,1028,1101,1097,1094,1094,1090,1090,1090,1090,1090,1090,1090,1090,1090,1094,1097,1097,1101,1105,1105,1108,1223,1223,1223,1223,1219,1219,1219,1219,1219,1219,1219,1223,1219,1219,1219,1219,1219,1219,1219,1223,1223,1223,1223,1223,1223,1223,1223,1223,1223,1223,1223,1223,1223,1223,1223,1227,1227,1223,1223,1223,1223,1223,1219,1219,1223,1223,1223,1223,1223,1223,1223,1223,1219,1219,1219,1219,1219,1223,1219,1219,1219,1219,1219,1219,1214,1214,1214,1214,1214,1214,1214,1214,1214,1214,1214,1210,1206,1206,1210,1210,1214,1214,1214,1219,1219,1219,1219,1219,1219,1219,1219,1219,1214,1214,1214,1214,1214,1214,1214,1214,1214,1219,1214,1214,1214,1214,1214,1210,1210,1210,1210,1210,1206,1206,1206,1206,1202,1202,1202,1202,1202,1202,1202,1202,1202,1202,1197,1197,1197,1197,1197,1197,1197,1197,1197,1197,1193,1193,1193,1193,1193,1193,1193,1197,1197,1193,1193,1193,1197,1197,1197,1197,1197,1202,1202,1202,1202,1206,1206,1206,1206,1206,1206,1206,1206,1206,1206,1210,1210,1210,1210,1210,1210,1210,1206,1206,1105,1105,1105,1105,1101,1101,1101,1084,1080,1080,1080,1077,1073,1070,1067,1063,1060,1057,1057,1054,1054,1050,959,959,948,946,940,940,940,940,943,943,943,943,943,943,943,946,946,946,946,946,946,948,948,948,951,951,954,954,956,956,959,962,970,973,973,978,975,973,970,964,964,962,959,956,956,0,0,0,0,0,0,0,0,0,0,0,0,0,0,0,0,0,0,0,0,0,0,0,0,0,0,0,0,0,0,0,0,0,0,0
0,0,0,0,0,0,0,1214,1214,1223,1219,1214,1214,1210,1210,1214,1210,1210,1210,1214,1214,1219,1219,1219,1219,1219,1219,1214,1214,1214,1214,1219,1214,1214,1214,1214,1214,1214,1214,1214,1214,1214,1214,1214,1214,1219,1219,1219,1219,1223,1223,1223,1223,1223,1223,1223,1219,1219,1219,1219,1214,1214,1214,1214,1219,964,962,962,959,959,959,956,954,954,954,954,954,954,954,956,956,959,962,962,964,964,967,967,970,973,975,975,978,981,984,987,989,989,992,992,995,995,998,998,1001,1001,1004,1007,1010,1010,1010,1013,1013,1016,1016,1019,1019,1022,1025,1028,1031,1031,1034,1038,1038,1214,1214,1214,1214,1219,1219,1219,1223,1223,1223,1223,1223,1223,1219,1219,1219,1219,1219,1219,1219,1219,1219,1219,1214,1214,1214,1219,1219,1219,1219,1219,1219,1219,1219,1223,1223,1223,1223,1223,1223,1219,1219,1214,1214,1214,1214,1214,1214,1214,1214,1214,1214,1214,1214,1214,1214,1210,1210,1210,0,0,0,0,0,0,0,0,0,0,0,714,713,711,710,710,710,707,704,703,701,700,698,698,697,697,697,697,697,697,697,698,703,703,704,704,707,710,711,713,714,714,716,716,717,717,0,0,0,0,0,1001,1001,1001,1001,998,998,998,995,992,992,989,989,989,989,987,987,984,984,981,981,984,984,984,984,984,981,978,975,975,975,975,975,1227,1227,1232,1232,1232,1232,1232,1227,1223,1223,1219,1219,1219,1219,1219,1219,1219,1219,1219,1219,1219,1219,1219,1219,1214,1214,1214,1214,1219,1219,1219,1219,1219,1219,1219,1219,1219,1219,1219,1219,1219,1223,978,978,978,978,981,981,981,984,984,984,984,984,987,987,989,989,989,992,995,998,1004,1010,1013,1013,1013,1016,1019,1022,1025,1028,1028,1028,1028,1101,1097,1097,1094,1094,1090,1090,1090,1090,1090,1090,1090,1090,1094,1097,1101,1101,1105,1108,1108,1219,1219,1219,1219,1219,1219,1219,1219,1219,1219,1219,1219,1219,1214,1214,1219,1219,1219,1219,1214,1214,1219,1219,1219,1219,1219,1219,1219,1219,1219,1219,1219,1219,1219,1219,1219,1219,1219,1219,1219,1219,1214,1214,1214,1214,1219,1219,1219,1219,1219,1214,1214,1214,1214,1214,1214,1214,1214,1214,1214,1214,1214,1214,1214,1214,1214,1214,1214,1214,1214,1210,1210,1210,1210,1210,1206,1202,1202,1202,1202,1210,1210,1214,1214,1214,1214,1214,1214,1214,1219,1214,1214,1214,1210,1210,1206,1206,1206,1206,1206,1206,1206,1210,1210,1210,1210,1206,1206,1206,1206,1202,1202,1202,1202,1202,1202,1202,1202,1202,1202,1202,1202,1197,1197,1202,1197,1197,1197,1197,1197,1197,1197,1197,1197,1197,1197,1197,1197,1197,1197,1197,1197,1197,1197,1197,1197,1197,1197,1197,1197,1197,1197,1202,1202,1202,1202,1202,1202,1206,1206,1206,1206,1206,1206,1202,1202,1202,1206,1206,1206,1206,1206,1206,1206,1206,1202,1202,1108,1108,1105,1001,998,998,1084,1080,1080,1080,1077,1070,1067,1063,1063,1060,1057,1054,1054,1050,1050,959,959,948,946,940,940,940,943,943,943,946,943,943,943,943,946,946,946,946,946,946,948,948,948,948,951,954,954,954,956,959,970,973,975,975,978,975,973,967,964,962,962,956,956,956,0,0,0,0,0,0,0,0,0,0,0,0,0,0,0,0,0,0,0,0,0,0,0,0,0,0,0,0,0,0,0,0,0,0,0
0,0,0,0,0,0,0,1210,1210,1223,1214,1214,1214,1210,1210,1210,1210,1210,1210,1210,1210,1214,1214,1214,1219,1219,1214,1214,1214,1214,1214,1214,1214,1214,1214,1214,1214,1214,1214,1214,1214,1214,1214,1214,1214,1214,1214,1214,1214,1219,1219,1219,1219,1219,1219,1214,1214,1210,1210,1214,1210,1210,1210,1210,1210,964,964,962,962,959,959,956,954,954,954,954,954,954,954,956,956,959,962,962,964,967,967,970,973,975,975,975,978,981,987,987,989,989,992,995,995,998,998,1001,1001,1004,1007,1007,1010,1010,1010,1010,1013,1013,1016,1019,1022,1210,1210,1210,1210,1210,1214,1214,1214,1214,1214,1214,1214,1214,1214,1219,1219,1219,1219,1219,1219,1214,1214,1214,1214,1214,1214,1214,1214,1214,1214,1214,1214,1214,1214,1214,1214,1214,1214,1214,1219,1219,1219,1219,1219,1219,1219,1219,1214,1214,1214,1214,1214,1214,1214,1214,1214,1214,1214,1214,1214,1214,1214,1210,1210,1210,1206,1202,1202,1193,1193,1193,0,0,0,0,0,0,0,714,713,711,711,710,710,707,704,703,703,701,700,698,698,697,697,697,697,697,698,698,703,703,704,704,707,710,713,713,713,716,716,716,717,717,0,0,0,0,0,1001,1001,1001,1001,998,998,998,998,992,989,989,989,989,987,987,987,984,981,981,981,981,981,981,981,981,981,978,978,975,975,975,975,978,978,978,978,1232,1232,1227,1223,1223,1219,1219,1219,1219,1214,1214,1219,1219,1214,1214,1214,1214,1214,1214,1214,1210,1210,1214,1214,1214,1214,1214,1214,1219,1219,1219,1219,1219,1219,1219,1219,1219,975,975,975,975,978,978,978,981,981,981,981,981,981,981,984,984,987,989,992,995,998,1004,1010,1013,1013,1016,1016,1022,1022,1025,1028,1028,1108,1105,1101,1101,1097,1094,1094,1094,1090,1090,1090,1090,1090,1090,1090,1094,1097,1101,1105,1105,1108,1108,1214,1214,1214,1214,1214,1214,1214,1214,1214,1214,1214,1214,1214,1214,1214,1214,1214,1214,1214,1214,1214,1214,1214,1214,1214,1214,1214,1219,1219,1219,1214,1214,1214,1214,1214,1214,1214,1214,1214,1214,1214,1214,1214,1214,1214,1214,1214,1214,1214,1214,1214,1214,1210,1210,1210,1210,1210,1210,1214,1214,1214,1214,1214,1214,1214,1210,1210,1210,1210,1210,1210,1210,1210,1206,1206,1206,1202,1202,1202,1202,1202,1202,1206,1210,1210,1210,1210,1210,1210,1210,1210,1210,1210,1206,1202,1202,1202,1202,1202,1202,1202,1202,1206,1206,1202,1202,1202,1202,1202,1202,1202,1197,1197,1197,1197,1202,1202,1202,1202,1202,1202,1202,1197,1197,1202,1197,1197,1197,1197,1197,1197,1197,1197,1197,1197,1197,1197,1197,1197,1197,1197,1197,1197,1197,1197,1197,1197,1197,1197,1202,1202,1202,1202,1202,1202,1202,1202,1202,1202,1202,1202,1202,1202,1202,1202,1202,1202,1202,1202,1202,1202,1202,1202,1206,1202,1202,1202,1108,1108,1197,998,998,998,1084,1080,1080,1080,1073,1067,1067,1060,1057,1057,1057,1054,943,943,959,959,948,948,946,943,943,943,943,943,943,943,943,943,943,943,946,946,946,946,946,946,946,948,948,948,951,951,951,954,956,959,973,973,973,975,975,973,970,964,962,962,959,956,956,956,0,0,0,0,0,0,0,0,0,0,0,0,0,0,0,0,0,0,0,0,0,0,0,0,0,0,0,0,0,0,0,0,0,0,0
0,0,0,0,0,0,0,1202,1202,1206,1210,1210,1210,1206,1206,1210,1210,1210,1210,1206,1206,1210,1210,1210,1214,1214,1214,1210,1210,1210,1210,1210,1210,1210,1210,1210,1210,1210,1210,1210,1210,1210,1210,1210,1210,1210,1210,1210,1210,1214,1214,1214,1214,1214,1210,1210,1210,1206,1206,1206,1202,1202,1206,1206,1206,967,964,964,964,962,959,959,956,954,954,954,954,956,956,959,959,962,962,964,967,967,970,970,973,975,975,975,978,981,987,989,989,989,992,995,995,998,998,1001,1001,1001,1004,1007,1007,1010,1010,1010,1010,1013,1016,1206,1206,1210,1210,1210,1210,1210,1210,1214,1214,1214,1214,1214,1214,1214,1214,1214,1214,1214,1214,1214,1214,1214,1214,1214,1214,1214,1214,1214,1214,1214,1214,1210,1210,1210,1210,1210,1210,1210,1210,1214,1214,1214,1214,1214,1214,1214,1214,1214,1214,1214,1214,1214,1214,1210,1210,1210,1210,1210,1210,1210,1210,1210,1210,1206,1206,1206,1202,1197,1197,1189,1189,1193,0,0,0,0,0,0,0,714,714,713,711,710,710,708,706,704,704,703,703,700,698,698,698,698,698,698,698,698,703,704,704,706,708,710,713,713,713,716,716,717,717,717,0,0,0,1001,1001,1001,1001,1001,1001,1001,998,998,998,992,989,989,989,987,987,987,987,984,981,981,981,981,978,978,978,978,978,978,975,975,975,975,975,975,975,975,975,975,1223,1223,1219,1214,1214,1214,1214,1214,1214,1214,1214,1214,1214,1214,1214,1214,1210,1210,1210,1210,1210,1210,1210,1210,1210,1210,1210,1214,1214,1214,1214,1214,1214,1219,1214,1214,975,975,975,975,975,978,978,978,978,978,978,981,981,981,981,984,984,987,992,995,998,1004,1007,1013,1013,1013,1016,1019,1022,1025,1202,1112,1108,1105,1105,1101,1097,1097,1094,1094,1090,1090,1090,1090,1090,1090,1090,1094,1097,1101,1105,1105,1108,1108,1214,1214,1214,1214,1214,1214,1210,1210,1210,1210,1210,1210,1210,1210,1210,1210,1210,1210,1214,1210,1210,1214,1210,1210,1210,1210,1210,1210,1214,1214,1214,1214,1210,1210,1210,1210,1206,1206,1206,1206,1210,1206,1206,1206,1210,1210,1210,1210,1210,1210,1210,1210,1206,1206,1206,1206,1206,1206,1210,1210,1210,1210,1210,1210,1210,1210,1210,1210,1210,1206,1206,1206,1206,1206,1206,1202,1202,1202,1202,1202,1202,1202,1202,1202,1202,1202,1202,1206,1202,1202,1202,1202,1202,1202,1202,1202,1202,1197,1197,1197,1197,1202,1202,1202,1197,1197,1202,1197,1197,1197,1197,1197,1197,1197,1197,1197,1197,1197,1197,1197,1197,1197,1197,1197,1197,1197,1197,1197,1197,1197,1197,1197,1197,1197,1197,1197,1197,1197,1197,1197,1197,1197,1197,1197,1197,1197,1197,1197,1202,1202,1202,1202,1202,1202,1202,1202,1202,1202,1202,1202,1202,1202,1202,1202,1202,1202,1202,1202,1202,1202,1197,1197,1202,1202,1202,1202,1197,1197,1197,1197,992,992,1084,1084,1080,1080,1077,1067,1063,1063,1060,1057,1054,1054,1054,943,943,951,948,948,946,946,946,943,943,943,943,943,943,943,943,943,943,946,946,946,946,946,946,946,948,948,948,951,951,951,954,956,962,973,973,973,975,973,970,970,964,962,962,959,956,956,956,0,0,0,0,0,0,0,0,0,0,0,0,0,0,0,0,0,0,0,0,0,0,0,0,0,0,0,0,0,0,0,0,0,0,0
0,0,0,0,0,0,0,1197,1197,1197,1202,1202,1206,1206,1206,1206,1206,1206,1206,1206,1206,1206,1206,1206,1206,1206,1206,1210,1210,1206,1206,1210,1206,1206,1210,1210,1210,1210,1206,1206,1206,1206,1206,1206,1206,1206,1210,1210,1210,1210,1210,1210,1210,1210,1210,1206,1206,1206,1206,1202,1202,1202,1197,1197,1197,967,967,964,964,964,962,959,956,956,956,954,954,956,956,959,959,962,964,964,967,967,970,970,970,975,975,975,978,981,987,989,989,989,992,995,995,998,998,998,1001,1001,1004,1004,1004,1007,1007,1010,1010,1202,1202,1206,1206,1206,1210,1210,1210,1210,1210,1210,1210,1210,1210,1210,1210,1210,1210,1210,1210,1210,1210,1210,1206,1206,1210,1210,1210,1210,1210,1210,1210,1210,1210,1210,1210,1210,1210,1210,1210,1210,1210,1210,1210,1210,1210,1210,1210,1210,1214,1214,1214,1210,1210,1210,1210,1210,1206,1206,1210,1206,1206,1206,1206,1206,1210,1202,1202,1202,1202,1197,1193,1189,1185,1185,0,0,0,0,0,0,714,714,714,714,713,711,710,708,707,706,704,703,703,701,700,698,698,698,698,698,700,700,703,704,704,706,710,710,713,713,714,717,717,717,719,0,0,0,0,0,1001,1001,1001,1001,1001,1001,998,998,998,992,989,989,989,987,987,987,987,984,981,981,981,978,978,978,978,978,975,975,975,975,975,975,975,973,973,975,975,975,975,1223,1219,1214,1214,1214,1214,1214,1210,1210,1214,1214,1210,1210,1210,1210,1210,1206,1206,1206,1206,1206,1206,1206,1206,1206,1206,1210,1210,1210,1214,1214,1214,1219,1214,967,967,973,973,975,975,975,975,975,978,978,978,978,978,978,981,981,984,987,992,998,998,1004,1007,1010,1013,1013,1016,1019,1202,1202,1202,1112,1108,1105,1105,1101,1101,1097,1094,1094,1094,1090,1090,1090,1090,1090,1094,1094,1101,1101,1105,1105,1108,1108,1210,1210,1210,1210,1206,1206,1206,1206,1206,1206,1206,1206,1206,1206,1206,1206,1210,1210,1210,1210,1206,1206,1206,1206,1206,1206,1206,1206,1206,1206,1206,1206,1206,1206,1206,1206,1206,1206,1206,1206,1206,1206,1206,1206,1206,1206,1206,1206,1206,1206,1206,1206,1206,1206,1202,1202,1202,1202,1206,1206,1206,1206,1206,1206,1206,1206,1206,1206,1206,1206,1202,1202,1202,1202,1202,1202,1202,1197,1197,1197,1197,1197,1202,1202,1197,1197,1197,1193,1193,1193,1193,1197,1197,1197,1197,1197,1197,1197,1197,1197,1197,1197,1197,1197,1197,1197,1197,1197,1197,1197,1197,1193,1193,1193,1193,1193,1197,1197,1197,1197,1197,1197,1197,1197,1197,1197,1193,1193,1193,1193,1197,1197,1197,1197,1197,1197,1197,1197,1197,1197,1197,1197,1197,1197,1197,1197,1197,1197,1202,1202,1202,1202,1202,1202,1202,1197,1197,1197,1197,1197,1197,1197,1197,1197,1197,1197,1197,1197,1197,1197,1197,1197,1197,1197,1197,1197,1193,1193,1193,995,992,992,1080,1080,1080,1077,1070,1063,1063,1060,1057,1054,1054,1050,956,948,948,946,946,948,946,946,943,943,943,943,943,943,943,943,943,943,943,946,946,946,946,946,946,946,948,948,948,951,951,951,956,959,967,973,973,973,973,973,970,967,964,962,959,956,956,956,956,0,0,0,0,0,0,0,0,0,0,0,0,0,0,0,0,0,0,0,0,0,0,0,0,0,0,0,0,0,0,0,0,0,0,0
0,0,0,0,0,0,0,1197,1197,1197,1197,1197,1202,1202,1202,1202,1206,1206,1206,1202,1202,1202,1202,1202,1202,1197,1197,1202,1202,1202,1202,1202,1202,1202,1206,1206,1206,1206,1206,1202,1202,1202,1202,1202,1202,1202,1206,1206,1206,1206,1206,1206,1202,1202,1202,1202,1202,1202,1202,1202,1202,1202,1197,1197,1197,967,967,967,967,964,964,964,959,956,956,956,956,956,956,959,959,962,964,964,967,967,970,970,970,975,975,975,978,984,987,989,989,992,992,995,995,998,998,998,1001,1001,1001,1001,1001,1007,1007,1202,1202,1202,1202,1202,1202,1206,1206,1206,1210,1210,1210,1210,1210,1210,1210,1210,1210,1210,1210,1210,1210,1206,1206,1206,1206,1206,1206,1206,1206,1206,1210,1210,1210,1210,1210,1210,1206,1206,1210,1210,1206,1206,1206,1206,1202,1202,1202,1202,1202,1202,1206,1206,1210,1210,1210,1210,1210,1206,1206,1206,1206,1202,1202,1202,1202,1202,1202,1197,1197,1197,1197,1193,1189,1185,1185,1185,0,0,0,0,0,0,714,714,714,714,713,711,710,708,707,706,704,703,703,703,701,700,700,698,698,698,700,701,704,704,704,707,710,710,713,713,716,717,717,717,719,719,0,0,0,0,1004,1004,1001,1001,1001,1001,1001,998,998,995,992,989,989,987,987,987,984,984,981,981,978,978,978,978,975,975,975,975,973,973,973,973,973,970,970,970,970,970,973,973,1214,1214,1214,1210,1210,1210,1210,1210,1210,1210,1210,1206,1206,1206,1206,1202,1202,1202,1202,1202,1202,1202,1202,1202,1202,1206,1206,1210,1210,1210,1214,1219,962,962,964,970,970,970,973,973,973,973,975,975,975,978,978,978,981,981,984,987,992,998,998,1001,1004,1010,1010,1013,1016,1197,1197,1202,1202,1108,1108,1105,1105,1105,1101,1101,1097,1094,1094,1094,1090,1090,1090,1094,1094,1094,1101,1101,1105,1108,1108,1108,1210,1206,1206,1206,1202,1202,1202,1202,1202,1202,1202,1202,1202,1206,1202,1202,1202,1202,1206,1202,1202,1202,1202,1202,1202,1202,1206,1206,1206,1206,1202,1202,1202,1202,1202,1202,1202,1202,1202,1202,1202,1202,1202,1202,1202,1202,1202,1202,1202,1202,1202,1202,1202,1202,1202,1202,1202,1202,1202,1202,1202,1202,1206,1206,1202,1202,1202,1202,1202,1202,1202,1202,1202,1202,1202,1197,1197,1197,1197,1197,1197,1197,1197,1197,1197,1193,1193,1193,1189,1189,1189,1193,1193,1197,1197,1197,1197,1193,1193,1193,1193,1197,1197,1197,1197,1197,1197,1197,1197,1197,1197,1193,1193,1193,1193,1193,1193,1193,1193,1197,1197,1197,1193,1193,1193,1193,1193,1193,1193,1193,1193,1197,1193,1193,1197,1197,1197,1197,1197,1197,1197,1197,1197,1193,1193,1193,1193,1193,1193,1197,1197,1197,1197,1197,1197,1197,1193,1193,1197,1193,1193,1193,1193,1197,1197,1193,1193,1193,1193,1193,1193,1193,1193,1193,1193,1189,1189,1185,1185,995,992,992,1077,1077,1077,1073,1063,1063,1060,1057,1054,1054,1050,1050,956,948,948,946,946,946,946,943,943,943,943,943,943,943,943,943,943,943,943,946,946,946,946,946,946,946,948,948,948,951,951,951,956,964,970,973,973,975,973,970,967,964,962,959,959,956,956,954,954,0,0,0,0,0,0,0,0,0,0,0,0,0,0,0,0,0,0,0,0,0,0,0,0,0,0,0,0,0,0,0,0,0,0,0
0,0,0,0,0,0,0,1193,1193,1193,1197,1197,1197,1197,1197,1202,1202,1202,1202,1197,1197,1197,1197,1197,1197,1197,1197,1197,1197,1197,1197,1197,1197,1197,1202,1202,1202,1202,1202,1202,1202,1202,1197,1197,1197,1202,1202,1202,1202,1202,1202,1202,1202,1202,1202,1197,1197,1197,1197,1202,1197,1197,1197,1197,1197,970,967,967,967,967,967,967,962,959,956,956,956,956,956,959,959,962,964,964,967,967,970,970,973,975,975,978,981,987,987,989,989,989,992,995,995,998,998,1001,1001,998,995,995,1001,1197,1197,1197,1197,1197,1197,1202,1202,1202,1206,1206,1206,1206,1206,1206,1206,1206,1206,1206,1206,1206,1206,1206,1206,1206,1206,1206,1202,1202,1206,1206,1202,1202,1202,1202,1202,1202,1206,1206,1206,1206,1206,1202,1202,1206,1202,1202,1202,1202,1197,1197,1197,1197,1202,1202,1206,1202,1202,1206,1202,1202,1197,1197,1202,1197,1197,1197,1197,1197,1202,1197,1197,1197,1193,1193,1189,1185,1185,0,0,0,0,0,0,717,716,716,716,714,714,713,710,710,708,707,706,704,703,703,701,701,700,700,700,700,700,701,704,704,706,707,710,711,713,713,716,717,717,719,719,719,0,0,0,0,0,1004,1001,1001,1001,1001,1001,1001,998,998,995,992,989,987,987,987,984,984,981,981,978,978,978,975,975,975,975,973,973,973,970,970,970,967,967,967,967,967,967,967,967,1214,1214,1210,1210,1210,1210,1210,1210,1210,1206,1202,1202,1202,1202,1202,1202,1202,1202,1202,1202,1202,1202,1202,1202,1202,1202,1206,1206,956,956,956,956,959,962,967,967,967,970,970,970,970,973,973,975,975,978,978,981,984,984,989,992,998,998,1001,1004,1007,1010,1013,1197,1197,1197,1197,1193,1108,1108,1105,1105,1105,1105,1101,1097,1097,1094,1094,1094,1094,1094,1094,1094,1097,1101,1105,1105,1108,1108,1108,1206,1206,1202,1202,1202,1202,1202,1197,1197,1197,1197,1197,1197,1202,1202,1202,1202,1202,1202,1202,1197,1197,1202,1202,1202,1202,1202,1202,1202,1202,1202,1202,1202,1197,1197,1197,1197,1197,1197,1202,1202,1202,1202,1202,1202,1202,1202,1202,1202,1202,1202,1202,1202,1202,1202,1202,1197,1197,1202,1202,1202,1202,1202,1202,1202,1202,1197,1197,1202,1202,1197,1197,1197,1197,1202,1197,1197,1197,1193,1193,1193,1193,1193,1193,1193,1193,1193,1189,1189,1189,1189,1189,1189,1189,1189,1193,1193,1189,1189,1189,1189,1193,1193,1193,1193,1193,1193,1193,1193,1193,1193,1193,1189,1189,1189,1189,1189,1189,1193,1193,1193,1193,1193,1193,1193,1189,1189,1189,1189,1189,1189,1193,1193,1193,1193,1193,1193,1193,1197,1197,1193,1193,1193,1193,1193,1189,1189,1189,1189,1189,1189,1189,1197,1197,1193,1189,1189,1189,1189,1189,1189,1189,1189,1193,1193,1193,1193,1189,1189,1193,1189,1189,1189,1189,1193,1185,1185,1185,1185,992,989,989,1077,1077,1073,1070,1063,1060,1060,1057,1054,1050,1050,1047,1044,951,948,946,946,946,943,940,940,943,940,940,940,940,940,940,940,940,943,943,946,946,946,946,946,948,948,948,948,951,954,954,956,964,970,973,973,973,970,970,967,964,962,959,959,956,956,954,954,0,0,0,0,0,0,0,0,0,0,0,0,0,0,0,0,0,0,0,0,0,0,0,0,0,0,0,0,0,0,0,0,0,0,0
0,0,0,0,0,0,0,1193,1193,1193,1197,1197,1197,1197,1197,1197,1197,1197,1197,1197,1197,1197,1193,1193,1193,1193,1193,1193,1193,1193,1193,1193,1193,1193,1197,1197,1197,1197,1197,1197,1197,1197,1197,1197,1197,1202,1202,1202,1202,1202,1202,1197,1197,1197,1197,1197,1197,1197,1197,1197,1197,1197,1193,1193,1189,1189,970,970,970,967,967,967,967,962,959,959,956,956,956,959,962,962,962,964,967,967,970,970,973,975,975,978,981,987,989,989,989,989,992,992,998,998,998,998,998,998,995,995,1197,1197,1197,1197,1197,1197,1197,1197,1197,1197,1202,1202,1202,1202,1202,1202,1202,1202,1202,1202,1202,1202,1202,1202,1202,1202,1202,1202,1202,1202,1202,1202,1197,1197,1197,1197,1197,1197,1197,1197,1197,1197,1197,1197,1197,1202,1202,1197,1197,1197,1197,1197,1197,1197,1197,1197,1202,1202,1202,1202,1197,1197,1197,1197,1197,1197,1197,1197,1197,1197,1197,1193,1193,1193,1189,1189,1189,1185,1185,0,0,0,0,0,0,717,717,716,716,717,716,714,711,710,708,708,707,706,704,703,701,701,701,700,700,700,700,703,704,704,706,708,710,711,713,713,716,717,717,719,719,720,722,722,0,0,0,1004,1001,1001,1001,1001,1001,998,998,998,998,992,989,989,987,987,987,984,984,978,978,978,978,975,975,975,973,973,970,970,970,970,967,967,967,967,967,967,964,964,964,964,964,964,964,1210,1210,1210,1210,1210,1206,1202,1202,1202,1202,1197,1197,1197,1197,1197,1197,1197,1202,1202,1202,1202,1202,954,954,956,956,956,956,956,959,964,964,964,967,967,967,967,970,970,973,975,975,978,981,984,984,989,992,998,998,1001,1001,1004,1193,1193,1193,1193,1193,1193,1193,1193,1108,1108,1105,1105,1105,1101,1101,1097,1097,1094,1094,1094,1094,1094,1094,1097,1101,1105,1105,1108,1108,1108,1202,1202,1202,1202,1197,1197,1197,1197,1197,1197,1197,1197,1197,1197,1197,1197,1197,1197,1197,1197,1197,1197,1197,1197,1197,1197,1197,1197,1197,1197,1197,1197,1197,1197,1197,1197,1197,1197,1197,1197,1197,1197,1197,1197,1197,1197,1197,1197,1197,1197,1197,1197,1197,1197,1197,1197,1197,1197,1197,1197,1197,1193,1193,1197,1197,1197,1197,1193,1193,1193,1193,1193,1193,1197,1197,1197,1193,1193,1193,1193,1193,1193,1193,1193,1193,1189,1189,1189,1189,1189,1189,1189,1189,1189,1189,1189,1189,1189,1189,1189,1189,1189,1189,1189,1189,1189,1193,1189,1189,1189,1189,1189,1189,1189,1189,1189,1189,1189,1189,1189,1189,1189,1189,1189,1189,1189,1189,1189,1189,1189,1189,1189,1189,1189,1189,1193,1189,1189,1193,1193,1193,1193,1189,1185,1185,1185,1185,1185,1185,1185,1185,1185,1185,1185,1189,1185,1185,1185,1185,1185,1185,1185,1185,1185,1189,1189,1189,1189,1189,1189,1189,1185,1185,1185,1189,1185,1185,1181,1181,992,989,989,1077,1077,1073,1070,1063,1060,1057,1054,1054,1050,1050,1047,962,951,948,946,946,943,943,940,940,940,940,940,940,940,940,940,940,940,943,943,946,946,946,946,946,948,948,948,948,951,954,956,962,970,970,973,973,973,970,967,964,962,959,959,956,956,956,954,954,0,0,0,0,0,0,0,0,0,0,0,0,0,0,0,0,0,0,0,0,0,0,0,0,0,0,0,0,0,0,0,0,0,0,0
0,0,0,0,0,0,0,1193,1193,1193,1193,1193,1193,1193,1197,1197,1197,1197,1193,1193,1193,1193,1193,1193,1193,1193,1189,1189,1189,1193,1189,1189,1189,1193,1193,1193,1193,1193,1193,1197,1197,1197,1197,1197,1197,1197,1197,1197,1197,1197,1197,1193,1193,1193,1193,1193,1193,1193,1193,1197,1193,1193,1193,1189,1189,1185,1185,973,973,970,970,970,967,964,959,959,956,956,956,959,962,962,962,964,967,967,970,970,973,975,975,978,981,987,989,989,989,989,992,992,998,998,998,998,998,998,998,1193,1193,1193,1193,1193,1193,1197,1197,1193,1193,1193,1197,1197,1197,1197,1197,1197,1197,1197,1197,1197,1197,1197,1197,1197,1197,1197,1197,1197,1197,1197,1197,1197,1197,1197,1197,1197,1197,1197,1193,1193,1193,1193,1193,1193,1193,1197,1197,1197,1193,1193,1193,1193,1193,1193,1193,1193,1197,1197,1197,1197,1193,1193,1193,1193,1193,1193,1193,1193,1193,1193,1193,1193,1193,1193,1189,1189,1189,1185,1185,0,0,0,0,0,0,0,717,717,717,717,716,714,711,710,710,708,707,707,706,704,703,703,703,701,701,701,701,703,706,706,707,710,710,711,713,713,716,717,719,720,720,722,722,722,0,0,0,0,0,1001,1001,1001,1001,998,998,998,995,995,992,989,989,987,987,984,984,978,978,978,975,975,975,973,973,970,970,970,967,967,967,967,967,967,964,964,964,964,964,964,962,962,962,959,959,1210,1210,1206,1206,1202,1202,1197,1197,1197,1197,1197,1197,1193,1193,1197,1197,1197,1197,1197,1197,954,954,956,956,956,956,956,956,962,962,962,964,964,967,967,967,970,970,973,975,978,981,984,987,992,995,998,998,1001,1001,1004,1189,1189,1193,1193,1193,1193,1193,1193,1112,1108,1108,1105,1105,1105,1101,1101,1097,1097,1094,1094,1094,1094,1097,1101,1105,1105,1105,1108,1108,1108,1202,1197,1197,1197,1197,1193,1193,1193,1193,1193,1193,1193,1193,1197,1197,1197,1197,1193,1193,1193,1193,1193,1193,1193,1193,1193,1193,1197,1193,1193,1193,1193,1193,1193,1193,1193,1193,1193,1189,1189,1189,1189,1189,1189,1197,1197,1197,1197,1197,1197,1197,1197,1197,1197,1197,1193,1193,1193,1193,1193,1193,1189,1189,1193,1189,1189,1193,1189,1189,1189,1189,1189,1193,1193,1193,1189,1189,1189,1189,1189,1189,1189,1189,1189,1189,1189,1189,1189,1185,1185,1185,1185,1185,1185,1185,1185,1185,1185,1185,1185,1185,1185,1185,1189,1189,1189,1185,1185,1185,1185,1189,1189,1185,1185,1185,1185,1185,1185,1185,1185,1185,1189,1185,1185,1185,1185,1185,1185,1185,1185,1189,1185,1185,1185,1185,1185,1185,1185,1185,1185,1185,1185,1185,1185,1185,1185,1185,1185,1185,1185,1185,1185,1185,1185,1185,1181,1181,1185,1185,1185,1185,1185,1185,1185,1185,1185,1185,1185,1185,1185,1185,1185,1185,1185,1185,1181,1181,1181,1181,989,989,989,1073,1073,1070,1063,1060,1057,1057,1054,1050,1050,967,964,959,948,948,943,943,943,940,940,940,940,938,938,938,938,938,940,940,940,940,943,946,946,946,946,948,948,948,948,948,951,954,956,962,973,973,973,973,970,970,967,964,962,959,956,956,954,954,951,951,0,0,0,0,0,0,0,0,0,0,0,0,0,0,0,0,0,0,0,0,0,0,0,0,0,0,0,0,0,0,0,0,0,0,0
0,0,0,0,0,0,0,1193,1193,1193,1193,1193,1193,1193,1193,1193,1193,1193,1193,1193,1193,1193,1189,1189,1189,1189,1185,1185,1189,1189,1189,1189,1189,1189,1193,1189,1189,1193,1193,1193,1193,1193,1193,1193,1193,1193,1189,1189,1189,1189,1189,1189,1189,1189,1193,1193,1193,1193,1193,1193,1193,1193,1189,1185,1185,1185,1185,973,973,973,970,970,970,967,962,962,959,959,959,962,962,962,964,964,967,967,970,970,973,975,975,978,984,987,987,989,989,989,992,995,998,998,998,998,998,998,1189,1193,1193,1193,1193,1193,1193,1193,1193,1193,1193,1193,1193,1193,1189,1189,1189,1193,1193,1193,1193,1193,1193,1193,1193,1193,1193,1193,1193,1193,1193,1193,1193,1193,1193,1193,1193,1193,1189,1189,1189,1189,1189,1189,1189,1189,1189,1189,1193,1193,1193,1193,1193,1193,1193,1193,1193,1193,1193,1193,1193,1193,1193,1193,1193,1193,1193,1193,1193,1193,1193,1193,1193,1193,1189,1189,1189,1189,1189,1185,1185,0,0,0,0,0,0,0,717,717,717,717,717,716,714,710,710,710,708,708,707,707,704,703,703,701,701,701,703,703,704,706,707,710,711,713,713,716,717,719,719,720,722,723,725,725,727,0,0,0,0,1001,1001,1001,998,998,998,995,995,992,992,989,989,987,987,987,984,981,978,978,975,975,975,973,970,970,967,967,967,967,964,964,964,964,962,962,962,962,962,962,959,959,959,956,956,956,954,954,1202,1202,1197,1193,1193,1193,1193,1193,1193,1193,1193,1193,1197,1197,1197,1197,1197,954,954,954,956,956,956,956,956,959,959,959,962,964,964,964,967,970,970,973,975,978,981,984,989,992,995,998,998,1001,1001,1185,1185,1185,1189,1189,1189,1189,1189,1189,1189,1112,1108,1108,1105,1105,1105,1101,1097,1097,1097,1097,1094,1094,1097,1101,1105,1105,1105,1105,1108,1202,1197,1197,1193,1193,1189,1189,1189,1189,1189,1189,1189,1189,1189,1193,1193,1193,1193,1189,1189,1189,1189,1189,1189,1189,1189,1189,1189,1193,1193,1189,1189,1189,1189,1189,1189,1189,1189,1189,1189,1189,1185,1185,1189,1189,1189,1189,1189,1189,1193,1193,1193,1193,1193,1193,1193,1189,1189,1189,1189,1189,1189,1185,1185,1189,1189,1189,1189,1189,1189,1185,1185,1189,1189,1189,1189,1185,1185,1189,1185,1185,1185,1185,1185,1185,1185,1185,1185,1185,1185,1185,1185,1185,1185,1185,1185,1185,1185,1185,1185,1185,1185,1185,1185,1181,1181,1185,1185,1185,1185,1185,1185,1185,1185,1185,1185,1185,1185,1185,1185,1185,1185,1185,1185,1185,1185,1185,1181,1181,1185,1185,1185,1185,1181,1181,1181,1181,1181,1181,1181,1181,1185,1185,1185,1185,1185,1181,1181,1181,1181,1181,1181,1181,1181,1181,1181,1181,1181,1181,1181,1181,1181,1181,1181,1181,1185,1185,1181,1181,1181,1181,1181,1181,1181,1181,1185,1181,1181,1181,1181,989,987,987,1073,1073,1067,1063,1060,1057,1054,1054,1050,967,967,964,959,948,940,940,940,940,938,938,938,938,938,938,938,938,938,938,940,940,940,943,943,946,946,946,948,948,948,948,948,951,956,959,973,973,973,970,970,970,967,967,964,959,956,954,954,951,951,948,948,0,0,0,0,0,0,0,0,0,0,0,0,0,0,0,0,0,0,0,0,0,0,0,0,0,0,0,0,0,0,0,0,0,0,0
0,0,0,0,0,0,0,1193,1193,1189,1185,1185,1181,1181,1185,1185,1185,1185,1189,1189,1189,1189,1189,1189,1185,1185,1181,1181,1181,1185,1185,1185,1185,1189,1189,1185,1185,1189,1189,1189,1189,1189,1189,1189,1189,1189,1185,1185,1185,1185,1185,1185,1185,1185,1189,1189,1189,1189,1189,1189,1185,1185,1185,1181,1181,1181,1181,1181,973,973,973,970,970,967,964,964,962,962,962,962,962,962,964,964,967,967,970,970,973,975,978,978,981,987,987,989,989,989,992,995,998,998,1001,1185,1185,1185,1185,1185,1185,1185,1185,1189,1189,1189,1189,1189,1185,1185,1189,1189,1185,1185,1185,1189,1189,1189,1189,1189,1189,1189,1189,1189,1189,1189,1189,1189,1189,1189,1189,1189,1189,1189,1189,1189,1185,1185,1185,1185,1185,1185,1185,1185,1189,1189,1189,1189,1185,1185,1185,1185,1185,1189,1189,1189,1189,1193,1193,1189,1189,1189,1189,1189,1189,1189,1189,1189,1189,1189,1189,1189,1189,1185,1185,1185,1185,1181,1181,0,0,0,0,0,0,0,717,717,717,717,717,716,716,711,710,710,708,708,707,707,706,704,704,703,703,703,703,704,704,706,707,710,713,713,714,716,717,719,720,720,722,723,725,727,727,0,0,0,0,0,1189,1189,998,998,998,995,995,992,992,989,989,987,987,987,984,981,978,978,975,975,975,973,970,970,967,967,967,967,964,964,964,962,962,962,959,959,959,959,959,959,956,956,956,954,954,954,954,1202,1197,1193,1193,1193,1193,1193,1193,1193,1193,1193,1193,1197,1197,1193,948,948,954,954,954,954,954,954,954,959,959,959,959,962,962,964,967,970,970,973,975,978,984,987,989,992,995,1001,1001,1185,1185,1185,1185,1185,1185,1185,1185,1185,1185,1185,1185,1112,1112,1108,1108,1105,1105,1105,1101,1101,1097,1097,1097,1097,1101,1101,1105,1108,1105,1105,1108,1193,1193,1189,1189,1189,1189,1189,1185,1185,1189,1185,1185,1185,1185,1189,1189,1189,1189,1189,1189,1185,1185,1185,1185,1185,1185,1185,1185,1189,1189,1185,1185,1185,1185,1185,1185,1185,1185,1185,1185,1185,1185,1185,1185,1185,1185,1185,1185,1185,1185,1185,1185,1189,1189,1189,1189,1185,1185,1185,1185,1185,1185,1185,1185,1185,1185,1185,1185,1185,1185,1185,1185,1185,1185,1185,1185,1185,1185,1185,1185,1185,1185,1185,1185,1185,1185,1185,1185,1185,1185,1185,1185,1185,1181,1181,1181,1181,1181,1181,1181,1185,1185,1181,1181,1181,1181,1181,1181,1181,1181,1181,1181,1181,1181,1181,1181,1181,1181,1181,1181,1181,1181,1181,1181,1181,1181,1181,1177,1177,1181,1181,1181,1181,1177,1177,1181,1181,1177,1177,1177,1177,1181,1177,1177,1181,1181,1181,1181,1181,1181,1177,1177,1181,1181,1177,1177,1177,1177,1177,1177,1177,1177,1177,1177,1177,1181,1181,1177,1177,1177,1181,1181,1181,1181,1181,1181,1177,1177,1173,1173,989,987,987,1070,1070,1063,1063,1060,1057,1054,1054,967,967,967,967,967,967,940,938,938,938,938,938,938,938,938,938,938,938,938,938,938,940,940,940,943,943,946,946,948,948,948,948,951,954,959,975,975,975,973,970,970,970,967,967,962,959,954,951,951,948,948,948,948,0,0,0,0,0,0,0,0,0,0,0,0,0,0,0,0,0,0,0,0,0,0,0,0,0,0,0,0,0,0,0,0,0,0,0
0,0,0,0,0,0,0,1189,1189,1185,1185,1181,1181,1177,1177,1181,1181,1181,1185,1185,1185,1185,1185,1185,1185,1181,1181,1181,1181,1181,1181,1181,1181,1185,1185,1185,1185,1185,1185,1185,1185,1185,1185,1185,1181,1181,1181,1181,1181,1181,1181,1181,1181,1181,1181,1185,1185,1185,1185,1185,1181,1181,1181,1181,1181,1177,1177,1177,973,973,973,973,970,967,967,964,962,962,962,962,962,964,964,964,967,967,970,970,975,975,978,978,981,987,987,989,989,989,992,995,998,1181,1181,1181,1181,1185,1185,1181,1181,1181,1181,1181,1181,1185,1185,1185,1181,1181,1185,1185,1181,1181,1181,1185,1185,1185,1185,1185,1185,1185,1185,1185,1185,1185,1185,1185,1185,1181,1181,1185,1185,1185,1185,1181,1181,1181,1181,1181,1181,1181,1181,1185,1185,1185,1185,1185,1181,1181,1181,1181,1181,1181,1181,1181,1185,1189,1189,1189,1185,1185,1185,1185,1185,1185,1185,1185,1185,1185,1185,1185,1185,1185,1181,1181,1181,1181,1181,0,0,0,0,0,0,0,0,719,719,719,717,716,716,714,711,710,710,708,708,708,707,706,704,704,704,704,704,704,704,706,710,711,713,713,714,717,719,720,720,720,723,725,727,727,0,0,0,0,0,0,0,1189,1189,1185,998,998,995,992,992,989,989,987,987,987,987,984,978,978,978,975,975,973,970,970,967,967,967,964,964,964,962,962,959,959,959,956,956,956,956,956,956,956,954,954,954,954,954,954,948,948,946,943,943,1193,1189,1189,1189,1193,1193,1197,946,946,946,948,951,954,954,954,954,954,954,956,956,959,959,959,962,964,967,970,973,975,975,978,981,987,989,992,995,1181,1181,1181,1185,1185,1185,1185,1185,1185,1185,1185,1181,1181,1181,1115,1112,1112,1108,1108,1108,1105,1105,1101,1101,1101,1097,1097,1101,1105,1108,1108,1108,1108,1108,1108,1189,1189,1185,1185,1185,1185,1185,1185,1185,1185,1185,1185,1185,1185,1185,1185,1185,1185,1185,1185,1185,1185,1185,1185,1185,1185,1185,1185,1185,1185,1185,1185,1185,1185,1185,1181,1181,1181,1181,1181,1181,1181,1181,1181,1181,1181,1181,1181,1181,1181,1181,1181,1181,1185,1185,1185,1185,1185,1185,1181,1181,1181,1181,1185,1185,1185,1185,1181,1181,1181,1181,1181,1185,1181,1181,1181,1181,1181,1181,1181,1181,1181,1181,1181,1181,1181,1181,1181,1181,1181,1181,1181,1181,1181,1181,1181,1181,1181,1181,1181,1181,1181,1177,1177,1177,1177,1177,1177,1177,1177,1181,1181,1181,1181,1181,1181,1181,1181,1181,1177,1177,1177,1177,1177,1177,1177,1173,1173,1177,1177,1177,1177,1173,1173,1173,1173,1173,1173,1173,1173,1173,1173,1173,1173,1181,1181,1181,1177,1177,1177,1177,1177,1177,1177,1177,1177,1173,1173,1177,1177,1173,1173,1173,1173,1177,1177,1173,1173,1177,1173,1173,1173,1173,1173,1173,1173,1173,1173,992,989,987,987,1070,1063,1063,1060,1060,1057,1054,967,967,967,967,970,967,967,940,938,938,938,938,938,938,938,938,938,938,938,938,938,938,940,940,940,943,943,946,946,948,948,951,951,951,956,959,973,973,973,973,970,970,970,967,964,959,956,954,948,948,948,948,948,948,0,0,0,0,0,0,0,0,0,0,0,0,0,0,0,0,0,0,0,0,0,0,0,0,0,0,0,0,0,0,0,0,0,0,0
0,0,0,0,0,0,0,1185,1185,1181,1181,1177,1177,1177,1177,1177,1181,1181,1177,1177,1177,1177,1181,1181,1181,1181,1181,1181,1181,1181,1181,1181,1181,1185,1185,1185,1185,1181,1181,1181,1181,1181,1181,1181,1177,1177,1181,1181,1177,1177,1177,1177,1177,1181,1181,1181,1185,1185,1185,1181,1181,1181,1177,1177,1177,1177,1177,978,975,975,973,973,970,967,967,967,964,964,964,964,964,964,964,964,967,967,970,973,975,978,978,978,981,984,987,987,989,989,1181,1181,1181,1181,1181,1181,1181,1181,1181,1181,1181,1181,1181,1181,1181,1181,1181,1181,1181,1181,1181,1181,1181,1181,1181,1181,1181,1181,1181,1181,1181,1181,1181,1181,1181,1181,1181,1181,1181,1181,1181,1181,1181,1181,1181,1181,1177,1177,1177,1177,1177,1177,1177,1181,1181,1181,1181,1181,1181,1177,1177,1177,1177,1177,1177,1177,1181,1181,1181,1181,1181,1181,1181,1181,1181,1181,1181,1181,1185,1185,1185,1185,1181,1181,1181,1181,1181,1177,1177,0,0,0,0,0,0,0,0,720,720,720,719,717,717,716,714,711,710,710,710,708,707,706,706,704,704,704,704,704,706,707,710,711,713,713,714,717,719,720,720,723,725,727,728,728,0,0,0,0,0,0,1185,1185,1185,1181,1181,992,992,992,992,989,989,989,987,987,987,984,978,978,978,975,975,973,970,970,967,967,967,964,964,964,962,962,959,959,956,956,956,954,954,954,954,954,954,954,954,954,951,951,948,946,946,943,943,943,943,943,943,943,1193,943,943,943,943,946,948,948,948,951,951,951,954,956,956,956,956,959,959,962,967,970,973,975,975,978,981,987,989,1181,1181,1181,1181,1181,1181,1181,1181,1181,1181,1181,1181,1181,1181,1177,1177,1115,1112,1112,1108,1108,1108,1108,1105,1105,1105,1105,1101,1101,1105,1105,1108,1108,1108,1108,1108,1108,1185,1185,1185,1181,1181,1181,1181,1181,1181,1181,1181,1181,1181,1185,1185,1181,1181,1185,1185,1181,1181,1181,1181,1181,1181,1181,1181,1181,1181,1181,1181,1181,1181,1181,1181,1181,1181,1177,1177,1177,1177,1177,1177,1177,1181,1181,1181,1181,1177,1177,1177,1177,1177,1177,1177,1177,1177,1181,1181,1181,1181,1181,1181,1181,1181,1181,1181,1181,1181,1181,1181,1181,1181,1181,1181,1181,1181,1181,1181,1181,1181,1181,1181,1181,1181,1181,1181,1181,1181,1181,1181,1181,1177,1177,1177,1177,1181,1181,1177,1177,1181,1177,1177,1173,1173,1173,1173,1173,1173,1173,1173,1173,1173,1177,1177,1177,1177,1177,1177,1177,1173,1173,1177,1177,1177,1173,1173,1173,1173,1173,1173,1173,1173,1173,1173,1169,1169,1169,1169,1169,1169,1169,1169,1169,1169,1169,1169,1169,1173,1173,1173,1173,1173,1173,1173,1169,1169,1169,1177,1173,1169,1169,1169,1169,1173,1169,1169,1169,1173,1173,1169,1169,1169,1169,1169,1169,1173,1169,992,989,989,1177,1067,1063,1063,1060,1060,1057,970,967,967,970,970,970,970,973,940,938,938,938,938,938,938,938,938,938,938,938,938,938,938,940,940,943,943,943,946,946,948,948,951,951,951,956,959,970,973,973,970,970,967,967,967,964,959,954,951,948,948,948,948,946,946,0,0,0,0,0,0,0,0,0,0,0,0,0,0,0,0,0,0,0,0,0,0,0,0,0,0,0,0,0,0,0,0,0,0,0
0,0,0,0,0,0,0,1185,1181,1181,1177,1177,1177,1177,1177,1177,1177,1177,1177,1177,1177,1177,1177,1173,1173,1173,1173,1177,1177,1181,1181,1181,1181,1181,1181,1181,1181,1181,1177,1177,1177,1177,1177,1177,1173,1173,1177,1177,1177,1177,1177,1177,1177,1177,1177,1181,1181,1181,1181,1181,1177,1177,1177,1177,1177,1177,1177,978,978,975,975,975,973,970,967,967,964,964,964,964,964,964,964,964,967,970,970,973,975,978,978,978,981,984,984,984,987,989,1177,1177,1177,1177,1181,1181,1181,1181,1181,1177,1177,1177,1177,1177,1177,1177,1177,1181,1181,1181,1181,1181,1177,1177,1177,1181,1181,1181,1177,1177,1181,1177,1177,1177,1177,1177,1177,1177,1177,1177,1177,1177,1177,1177,1177,1177,1177,1177,1177,1177,1177,1177,1177,1177,1177,1177,1177,1177,1177,1177,1177,1177,1177,1173,1173,1177,1177,1177,1177,1177,1177,1177,1177,1177,1181,1181,1181,1181,1181,1181,1181,1181,1181,1181,1177,1177,1177,1173,1173,0,0,0,0,0,0,0,0,0,720,720,719,717,717,716,714,713,711,710,710,708,708,707,706,706,704,704,704,704,706,707,710,711,713,713,716,717,719,720,720,725,727,727,728,728,0,0,0,987,987,1181,1181,1181,1181,1181,1181,992,992,992,992,989,989,989,987,987,987,984,978,978,978,975,975,973,973,970,967,967,967,964,964,964,962,962,959,956,956,956,956,954,954,954,954,954,954,951,951,951,951,948,948,946,946,946,943,943,943,943,943,940,940,940,940,943,943,943,946,946,946,948,948,951,951,954,956,956,956,959,959,962,967,970,973,975,978,981,981,1181,1181,1181,1181,1181,1181,1181,1181,1181,1181,1181,1181,1181,1177,1177,1177,1177,1177,1119,1115,1115,1112,1112,1108,1108,1105,1105,1105,1105,1105,1105,1108,1108,1108,1108,1108,1108,1108,1108,1181,1181,1181,1177,1177,1177,1177,1181,1181,1181,1181,1181,1181,1181,1181,1181,1181,1181,1181,1181,1181,1181,1181,1181,1177,1177,1177,1177,1177,1177,1177,1181,1181,1181,1177,1177,1177,1177,1177,1173,1173,1177,1177,1177,1177,1177,1177,1177,1177,1177,1173,1173,1177,1177,1173,1173,1173,1173,1173,1173,1177,1177,1177,1177,1177,1177,1177,1177,1177,1177,1177,1177,1181,1181,1181,1177,1177,1177,1177,1181,1177,1177,1181,1181,1177,1177,1177,1177,1177,1177,1177,1177,1173,1173,1173,1173,1177,1177,1173,1173,1173,1173,1169,1169,1169,1169,1173,1169,1169,1169,1169,1169,1169,1169,1169,1169,1173,1173,1173,1173,1173,1173,1173,1173,1173,1169,1169,1169,1169,1169,1169,1173,1173,1173,1169,1169,1169,1169,1169,1169,1169,1169,1169,1169,1169,1169,1169,1169,1169,1169,1169,1169,1169,1169,1169,1165,1165,1165,1169,1165,1165,1169,1165,1165,1169,1169,1169,1165,1165,1165,1165,1169,1169,1165,1165,1169,1169,1001,992,992,992,1067,1067,1063,1063,1060,1060,1057,970,970,970,970,970,970,970,938,938,938,938,938,938,938,938,938,938,938,938,938,938,938,938,940,940,943,943,943,946,946,948,948,951,951,954,956,962,970,973,973,970,970,967,967,967,964,956,954,951,948,948,948,946,946,946,0,0,0,0,0,0,0,0,0,0,0,0,0,0,0,0,0,0,0,0,0,0,0,0,0,0,0,0,0,0,0,0,0,0,0
0,0,0,0,0,0,0,1181,1177,1177,1177,1177,1173,1173,1173,1177,1173,1173,1173,1173,1173,1173,1173,1173,1173,1173,1173,1173,1173,1173,1173,1177,1177,1177,1177,1177,1177,1177,1177,1177,1177,1177,1173,1173,1169,1169,1173,1173,1173,1173,1173,1173,1177,1177,1177,1177,1177,1177,1177,1177,1177,1177,1173,1173,1173,1173,1173,978,978,975,975,975,973,970,970,967,967,964,964,964,964,964,964,964,967,970,973,975,975,978,978,981,981,984,984,984,987,1173,1173,1173,1173,1173,1173,1173,1173,1173,1177,1177,1177,1177,1177,1177,1177,1177,1177,1177,1177,1177,1177,1177,1177,1177,1177,1177,1177,1177,1177,1177,1177,1177,1177,1173,1173,1173,1173,1173,1173,1173,1173,1173,1173,1173,1173,1173,1173,1173,1173,1173,1173,1173,1173,1173,1173,1173,1177,1177,1173,1173,1173,1173,1173,1173,1173,1173,1173,1173,1173,1173,1173,1173,1173,1173,1177,1177,1177,1177,1177,1181,1181,1177,1177,1177,1177,1177,1173,1169,1165,1165,0,0,0,0,0,0,0,0,720,720,719,719,717,716,714,714,713,711,711,710,708,707,707,706,706,706,706,706,706,710,711,713,713,714,716,717,719,720,725,725,727,728,728,0,0,0,0,987,987,1173,1173,1177,1177,1177,1177,1177,992,992,992,989,989,989,989,987,987,984,984,978,978,975,975,975,973,970,967,967,967,964,964,964,962,962,959,956,956,956,954,954,954,954,951,951,951,951,951,951,951,948,946,946,946,943,943,943,943,943,943,940,940,940,940,940,940,940,943,946,946,946,946,948,948,954,954,956,956,959,959,964,967,970,973,975,978,981,981,1177,1177,1177,1177,1177,1177,1177,1177,1177,1177,1177,1177,1173,1173,1173,1173,1169,1169,1119,1119,1119,1115,1112,1112,1108,1108,1105,1105,1105,1105,1105,1108,1108,1108,1112,1112,1112,1108,1108,1177,1177,1177,1173,1173,1177,1177,1177,1177,1177,1177,1177,1177,1177,1177,1177,1177,1177,1177,1177,1177,1177,1177,1177,1173,1173,1173,1173,1173,1173,1173,1177,1177,1177,1177,1173,1173,1173,1173,1173,1173,1173,1173,1173,1173,1173,1177,1177,1177,1173,1173,1173,1173,1173,1169,1169,1169,1169,1169,1169,1173,1173,1173,1177,1177,1177,1177,1173,1173,1173,1177,1177,1177,1177,1177,1177,1177,1173,1173,1177,1177,1177,1177,1177,1177,1177,1173,1173,1173,1173,1173,1173,1169,1169,1169,1169,1169,1173,1169,1169,1169,1169,1169,1169,1169,1169,1169,1169,1169,1165,1165,1165,1165,1165,1165,1165,1169,1169,1169,1173,1169,1169,1169,1169,1169,1169,1169,1169,1169,1169,1169,1169,1169,1169,1169,1169,1165,1165,1165,1165,1165,1165,1165,1165,1165,1165,1165,1165,1165,1165,1165,1165,1165,1161,1161,1161,1165,1165,1165,1161,1161,1165,1165,1165,1165,1165,1165,1165,1161,1161,1165,1165,1161,1161,1165,1165,1165,1001,992,992,992,1067,1063,1063,1060,1060,1057,1057,970,970,970,970,970,970,938,938,938,938,938,938,938,938,938,938,935,935,938,938,938,938,938,938,940,940,940,943,946,946,948,948,951,951,954,956,964,970,973,970,970,970,970,967,967,964,956,951,948,948,946,946,946,946,946,0,0,0,0,0,0,0,0,0,0,0,0,0,0,0,0,0,0,0,0,0,0,0,0,0,0,0,0,0,0,0,0,0,0,0
0,0,0,0,0,0,0,1177,1177,1177,1173,1173,1173,1169,1169,1173,1169,1169,1169,1169,1169,1169,1173,1169,1169,1169,1169,1169,1169,1169,1169,1169,1169,1169,1173,1173,1173,1173,1173,1173,1173,1173,1169,1169,1169,1169,1169,1173,1169,1169,1173,1173,1173,1173,1173,1173,1173,1173,1173,1173,1173,1173,1173,1173,1169,1169,984,981,978,975,975,975,973,970,970,967,967,967,964,964,964,964,964,967,967,970,973,975,978,978,981,981,984,984,984,984,987,1173,1173,1173,1169,1169,1169,1169,1169,1173,1173,1173,1173,1177,1177,1177,1177,1177,1177,1177,1177,1177,1177,1177,1177,1177,1177,1177,1177,1173,1173,1173,1173,1173,1173,1169,1169,1169,1169,1169,1169,1169,1169,1169,1169,1169,1169,1169,1173,1173,1169,1169,1169,1173,1169,1169,1169,1169,1169,1169,1173,1169,1169,1173,1169,1169,1169,1169,1169,1169,1169,1169,1169,1169,1173,1173,1173,1173,1169,1169,1173,1173,1173,1173,1177,1177,1177,1173,1169,1165,1161,1161,0,0,0,0,0,0,0,0,722,720,720,719,719,717,716,714,713,711,711,710,708,708,707,707,706,706,706,706,706,710,711,713,713,714,717,719,720,720,725,727,728,728,0,0,0,0,0,0,0,1173,1173,1173,1173,1173,1173,1173,1169,1169,1169,1169,1165,989,989,989,987,987,984,978,978,978,975,975,973,970,970,967,967,967,964,964,964,962,959,956,956,956,954,954,954,954,951,951,951,948,948,948,948,946,946,943,943,943,943,940,940,940,938,935,935,938,938,938,938,938,940,940,940,943,946,946,948,951,951,954,954,956,959,964,970,973,973,975,978,981,981,1177,1177,1173,1173,1173,1173,1173,1173,1173,1173,1173,1173,1173,1173,1169,1169,1169,1169,1119,1119,1119,1115,1115,1112,1112,1108,1108,1105,1105,1108,1108,1108,1108,1112,1112,1115,1115,1115,1173,1173,1173,1173,1169,1169,1169,1169,1169,1173,1173,1173,1173,1173,1173,1173,1173,1173,1173,1173,1173,1173,1173,1173,1173,1169,1169,1169,1169,1169,1169,1173,1173,1173,1173,1173,1169,1169,1169,1169,1169,1169,1169,1169,1169,1173,1173,1173,1169,1169,1169,1169,1169,1169,1169,1169,1169,1169,1169,1169,1169,1169,1169,1169,1169,1169,1173,1169,1169,1169,1173,1173,1173,1173,1173,1173,1173,1169,1169,1169,1173,1173,1173,1173,1173,1169,1169,1169,1169,1169,1169,1169,1169,1165,1165,1165,1165,1165,1165,1165,1165,1165,1165,1165,1165,1165,1165,1165,1165,1165,1161,1161,1161,1161,1165,1165,1165,1165,1165,1165,1165,1165,1165,1165,1165,1165,1165,1165,1165,1165,1165,1169,1169,1169,1169,1165,1165,1165,1165,1165,1161,1161,1161,1161,1161,1161,1161,1161,1161,1161,1161,1161,1161,1161,1161,1161,1161,1157,1157,1157,1157,1157,1157,1161,1157,1157,1161,1153,1153,1153,1153,1153,1157,1157,1157,1157,1161,1161,1165,992,992,1063,1063,1063,1060,1060,1060,1057,1057,970,970,970,970,970,970,935,935,935,935,935,935,935,935,938,935,935,935,938,938,938,938,938,938,940,940,940,943,946,946,948,948,951,954,954,959,967,970,970,970,970,970,967,967,964,964,956,951,948,948,946,946,946,946,946,0,0,0,0,0,0,0,0,0,0,0,0,0,0,0,0,0,0,0,0,0,0,0,0,0,0,0,0,0,0,0,0,0,0,0
0,0,0,0,0,0,0,1173,1173,1173,1173,1169,1169,1169,1169,1169,1165,1165,1165,1165,1165,1165,1169,1165,1165,1165,1169,1169,1169,1169,1169,1169,1169,1169,1169,1169,1165,1165,1165,1165,1169,1169,1165,1165,1165,1165,1169,1169,1169,1169,1169,1169,1169,1169,1169,1169,1169,1169,1173,1173,1173,1173,1169,1169,1169,1169,984,984,978,978,978,975,973,970,970,970,967,967,964,964,964,964,964,967,967,970,973,975,978,978,981,981,984,984,984,984,987,1173,1173,1173,1169,1169,1169,1169,1169,1169,1169,1173,1173,1173,1173,1173,1173,1173,1173,1173,1173,1173,1173,1173,1173,1173,1173,1173,1173,1173,1173,1173,1169,1169,1169,1169,1169,1169,1169,1165,1165,1165,1165,1165,1165,1165,1165,1169,1169,1169,1169,1169,1169,1169,1169,1169,1169,1169,1169,1169,1165,1165,1169,1169,1169,1169,1169,1169,1169,1169,1169,1165,1165,1165,1169,1169,1169,1169,1165,1165,1169,1169,1169,1169,1169,1165,1165,1169,1165,1161,1157,1157,1145,1145,0,0,0,0,0,0,723,722,720,720,720,720,716,716,714,713,713,711,710,708,708,707,707,707,706,706,707,710,711,713,714,716,717,719,720,722,727,727,728,728,0,0,0,0,0,0,0,1169,1169,1169,1169,1169,1169,1169,1165,1165,1165,1165,1165,1165,989,989,989,987,987,981,978,978,975,975,973,970,970,967,967,967,967,964,964,962,959,959,956,956,954,954,954,951,951,948,948,948,948,946,946,946,943,943,943,943,940,940,938,938,935,935,935,935,935,938,938,938,938,938,938,940,940,943,943,948,948,951,954,956,959,964,970,973,975,975,978,981,981,1169,1169,1169,1169,1169,1169,1169,1169,1169,1169,1169,1169,1169,1169,1169,1165,1165,1157,1119,1119,1119,1119,1115,1115,1112,1112,1108,1108,1108,1108,1108,1108,1108,1112,1112,1115,1115,1115,1126,1165,1169,1169,1169,1169,1169,1169,1169,1169,1169,1169,1169,1169,1169,1169,1169,1169,1169,1169,1173,1169,1169,1169,1169,1169,1169,1169,1169,1169,1169,1169,1169,1169,1169,1169,1169,1169,1165,1165,1169,1165,1165,1169,1169,1169,1169,1169,1169,1169,1169,1169,1165,1165,1165,1165,1165,1165,1165,1165,1165,1165,1165,1165,1165,1165,1165,1161,1161,1165,1165,1165,1165,1165,1165,1165,1169,1169,1169,1169,1169,1169,1169,1169,1169,1169,1169,1165,1165,1165,1165,1165,1161,1161,1161,1157,1157,1157,1157,1161,1161,1165,1165,1165,1165,1161,1161,1161,1161,1157,1157,1157,1157,1157,1161,1161,1161,1161,1161,1161,1161,1161,1161,1161,1161,1165,1165,1165,1165,1165,1165,1165,1165,1165,1165,1165,1161,1161,1161,1161,1161,1161,1157,1157,1157,1157,1157,1157,1157,1157,1157,1161,1161,1157,1157,1157,1157,1157,1157,1153,1153,1153,1153,1157,1153,1153,1153,1153,1153,1149,1149,1153,1153,1153,1153,1153,1153,1153,1153,1153,1157,1063,1063,1063,1060,1060,1060,1060,1057,973,973,973,973,973,935,935,935,935,935,935,935,935,935,935,935,935,935,938,938,938,938,938,940,940,943,943,943,946,948,948,948,954,956,959,962,967,967,967,967,967,967,967,967,964,962,956,951,948,946,946,946,946,946,946,0,0,0,0,0,0,0,0,0,0,0,0,0,0,0,0,0,0,0,0,0,0,0,0,0,0,0,0,0,0,0,0,0,0,0
0,0,0,0,0,0,1169,1169,1169,1169,1169,1169,1169,1165,1165,1165,1165,1165,1165,1165,1165,1165,1165,1165,1165,1165,1165,1165,1165,1165,1165,1165,1165,1165,1165,1165,1165,1165,1165,1161,1161,1161,1161,1165,1165,1165,1165,1165,1165,1165,1165,1165,1165,1165,1165,1165,1165,1165,1165,1165,1169,1165,1165,1165,1165,1165,1165,984,984,981,978,975,973,973,973,970,967,967,967,964,964,964,967,967,970,973,975,975,978,978,981,981,984,984,984,987,987,1169,1169,1169,1165,1165,1165,1165,1165,1165,1165,1169,1169,1169,1173,1169,1169,1169,1165,1165,1169,1169,1169,1169,1169,1169,1169,1169,1169,1169,1169,1169,1169,1165,1165,1165,1165,1165,1165,1165,1165,1165,1165,1165,1165,1165,1165,1165,1165,1165,1165,1165,1165,1165,1165,1165,1165,1165,1165,1165,1165,1165,1165,1165,1165,1165,1165,1165,1165,1165,1165,1165,1161,1161,1161,1161,1165,1165,1165,1165,1165,1165,1165,1165,1165,1161,1161,1161,1161,1157,1157,1153,1145,1145,0,0,0,0,0,0,723,722,722,720,720,720,717,716,714,714,713,711,710,710,708,707,707,707,707,707,708,710,711,714,714,717,719,720,720,722,727,727,728,728,0,0,0,0,0,0,0,1169,1169,1169,1165,1165,1165,1165,1165,1165,1165,1161,1161,1165,1161,1161,1161,1165,987,984,978,978,975,975,973,973,970,970,967,967,967,967,964,962,959,959,956,956,954,954,954,951,951,948,946,946,946,946,943,943,943,943,943,940,940,938,935,935,933,933,933,933,935,935,935,935,935,935,938,938,940,940,943,946,948,948,951,956,962,967,970,973,973,975,978,978,1165,1165,1165,1165,1165,1165,1169,1169,1169,1169,1169,1169,1165,1165,1165,1165,1161,1161,1153,1123,1123,1123,1119,1119,1115,1115,1112,1108,1108,1108,1108,1108,1108,1108,1112,1112,1115,1119,1123,1126,1149,1161,1165,1165,1165,1165,1165,1165,1165,1165,1165,1165,1165,1165,1165,1169,1169,1169,1169,1169,1169,1169,1165,1165,1165,1165,1165,1165,1165,1165,1165,1165,1165,1165,1165,1165,1165,1165,1165,1165,1165,1165,1165,1165,1165,1161,1161,1161,1165,1165,1165,1165,1161,1161,1161,1161,1161,1161,1161,1161,1161,1161,1161,1161,1161,1161,1161,1157,1157,1157,1157,1157,1161,1161,1161,1165,1165,1165,1165,1165,1165,1165,1165,1165,1165,1165,1165,1165,1165,1165,1161,1157,1157,1157,1157,1157,1153,1153,1157,1157,1157,1161,1161,1161,1157,1157,1157,1153,1153,1153,1153,1153,1153,1157,1157,1157,1157,1157,1157,1157,1157,1153,1153,1153,1157,1157,1157,1165,1165,1165,1165,1165,1165,1165,1161,1157,1157,1161,1161,1157,1157,1157,1157,1153,1153,1153,1153,1153,1153,1157,1157,1157,1157,1153,1153,1157,1153,1153,1153,1153,1153,1153,1153,1149,1149,1149,1149,1149,1149,1149,1149,1153,1153,1153,1153,1153,1153,1149,1149,1153,1063,1063,1063,981,981,1060,1060,978,978,0,0,935,0,935,935,935,935,935,935,935,935,935,935,935,935,935,938,938,938,938,938,940,940,940,943,943,946,948,948,951,954,956,959,962,967,967,967,967,967,967,967,964,962,959,956,951,948,946,946,946,946,946,946,0,0,0,0,0,0,0,0,0,0,0,0,0,0,0,0,0,0,0,0,0,0,0,0,0,0,0,0,0,0,0,0,0,0,0
0,0,0,0,0,0,1165,1165,1165,1165,1165,1165,1165,1165,1165,1165,1161,1161,1161,1161,1161,1161,1161,1161,1161,1161,1161,1161,1161,1161,1161,1161,1161,1165,1165,1165,1165,1161,1161,1161,1157,1157,1157,1157,1157,1161,1161,1161,1161,1161,1161,1161,1161,1161,1161,1161,1161,1161,1161,1161,1165,1165,1165,1161,1161,1165,1165,987,984,984,978,978,975,975,973,970,967,967,967,967,967,967,967,967,973,973,975,978,978,978,981,984,984,984,984,987,987,1169,1169,1165,1165,1165,1161,1161,1161,1161,1161,1161,1161,1161,1161,1161,1161,1165,1165,1165,1165,1161,1161,1161,1161,1165,1165,1165,1165,1165,1165,1165,1165,1165,1165,1161,1161,1161,1161,1161,1161,1161,1161,1161,1161,1161,1161,1161,1161,1161,1161,1161,1161,1165,1165,1161,1161,1161,1161,1161,1161,1161,1161,1161,1161,1161,1165,1165,1165,1165,1161,1161,1161,1161,1161,1161,1161,1161,1161,1161,1161,1161,1161,1161,1161,1161,1161,1161,1157,1153,1149,1149,1145,1145,1145,1145,0,0,0,0,723,723,722,722,722,720,719,717,716,714,714,713,711,710,708,708,707,707,707,707,708,710,711,713,714,717,719,720,722,725,727,728,728,730,0,0,0,0,0,0,1165,1165,1165,1165,1165,1165,1165,1165,1161,1161,1161,1161,1161,1161,1161,1161,1161,1161,1161,1161,978,978,975,975,975,973,973,970,970,967,967,967,964,964,962,959,956,956,954,954,954,951,951,948,946,946,946,943,943,943,940,940,940,938,938,935,935,933,933,930,930,930,933,933,933,933,935,935,935,938,938,940,943,946,948,948,951,954,962,964,964,970,973,973,978,978,1161,1161,1161,1165,1165,1165,1165,1165,1165,1165,1165,1165,1165,1165,1165,1161,1161,1157,1153,1123,1123,1123,1119,1119,1119,1115,1115,1112,1112,1108,1108,1108,1108,1108,1112,1115,1119,1123,1126,1141,1149,1161,1161,1161,1161,1165,1161,1161,1161,1161,1161,1161,1161,1161,1161,1161,1161,1165,1165,1165,1165,1165,1165,1165,1161,1161,1161,1161,1161,1161,1161,1161,1161,1161,1161,1161,1161,1161,1165,1165,1161,1161,1161,1161,1157,1157,1157,1157,1157,1157,1157,1157,1157,1157,1157,1157,1157,1157,1157,1157,1161,1161,1161,1161,1161,1161,1157,1157,1157,1157,1157,1153,1153,1153,1153,1157,1157,1157,1157,1157,1157,1161,1165,1165,1165,1161,1161,1161,1161,1161,1157,1157,1157,1157,1153,1153,1153,1153,1153,1153,1157,1157,1157,1157,1153,1153,1153,1153,1153,1153,1153,1153,1153,1153,1153,1153,1153,1153,1153,1153,1149,1149,1149,1149,1149,1149,1153,1153,1153,1153,1161,1161,1161,1161,1157,1157,1157,1157,1157,1157,1153,1153,1153,1153,1149,1149,1153,1149,1149,1153,1153,1153,1153,1153,1153,1153,1153,1153,1153,1153,1153,1153,1153,1149,1145,1145,1149,1149,1149,1149,1149,1149,1153,1149,1149,1149,1153,1149,1149,1153,987,987,984,981,981,981,978,978,978,978,0,0,935,935,935,935,935,935,935,935,935,935,935,935,935,935,938,938,938,938,938,938,940,940,943,943,946,948,948,951,954,956,962,964,967,967,967,967,967,964,962,959,956,956,954,948,948,948,946,946,946,943,943,0,0,0,0,0,0,0,0,0,0,0,0,0,0,0,0,0,0,0,0,0,0,0,0,0,0,0,0,0,0,0,0,0,0,0
0,0,0,0,0,0,1161,1161,1165,1161,1161,1161,1161,1161,1161,1161,1161,1161,1161,1161,1161,1157,1157,1157,1157,1161,1161,1161,1161,1161,1161,1161,1161,1161,1161,1161,1161,1161,1161,1161,1157,1157,1157,1157,1157,1153,1153,1157,1157,1157,1161,1161,1161,1161,1161,1161,1161,1161,1161,1157,1157,1161,1161,1161,1161,1161,1161,987,984,984,981,978,975,975,973,970,967,967,967,967,967,967,967,970,973,975,975,978,978,978,981,984,987,987,987,987,987,987,1165,1165,1161,1161,1161,1161,1161,1157,1157,1157,1157,1157,1153,1153,1157,1161,1161,1161,1161,1161,1161,1161,1161,1161,1161,1161,1161,1161,1161,1165,1161,1161,1161,1161,1161,1161,1161,1161,1161,1161,1161,1161,1157,1157,1157,1157,1161,1161,1161,1161,1161,1161,1161,1161,1161,1161,1161,1161,1161,1161,1161,1161,1161,1161,1161,1161,1161,1161,1161,1161,1157,1157,1157,1157,1157,1157,1157,1157,1157,1157,1157,1161,1157,1157,1157,1157,1157,1153,1149,1149,1145,1141,1141,1145,0,0,0,0,723,723,723,722,722,722,719,717,716,716,714,713,711,710,710,708,708,708,708,708,710,710,713,713,714,717,720,720,722,725,727,728,728,730,0,0,0,0,0,0,1165,1165,1165,1165,1161,1161,1161,1161,1161,1161,1161,1161,1161,1161,1161,1161,1161,1161,1161,1157,1157,978,978,975,975,973,973,970,970,967,967,967,964,964,962,959,956,956,954,954,954,951,948,948,946,946,943,943,943,940,938,938,938,935,935,933,933,930,930,928,928,928,928,928,930,933,933,933,935,935,938,940,943,946,948,951,954,954,959,964,964,967,967,970,1157,1157,1157,1157,1161,1161,1161,1161,1165,1165,1165,1165,1165,1165,1161,1161,1161,1157,1157,1153,1149,1141,1123,1123,1123,1119,1119,1119,1119,1115,1112,1112,1112,1112,1112,1112,1112,1115,1119,1126,1138,1145,1149,1153,1157,1157,1157,1157,1157,1157,1157,1157,1157,1157,1157,1157,1157,1157,1157,1157,1157,1161,1161,1161,1165,1161,1161,1161,1161,1161,1161,1157,1157,1157,1157,1157,1157,1157,1157,1157,1157,1161,1157,1157,1157,1157,1153,1153,1153,1153,1153,1153,1153,1153,1157,1157,1157,1157,1157,1157,1157,1157,1157,1157,1153,1153,1157,1157,1153,1153,1153,1153,1153,1153,1153,1153,1153,1153,1153,1153,1157,1157,1157,1157,1161,1161,1161,1157,1157,1157,1157,1157,1153,1153,1153,1153,1153,1153,1153,1153,1153,1153,1153,1157,1153,1153,1153,1153,1153,1149,1149,1149,1149,1149,1149,1149,1149,1149,1149,1149,1149,1149,1149,1149,1145,1145,1149,1149,1149,1149,1149,1149,1145,1145,1149,1153,1153,1153,1153,1153,1153,1153,1153,1153,1149,1149,1149,1149,1149,1149,1149,1149,1149,1149,1149,1149,1149,1149,1149,1149,1153,1153,1149,1149,1149,1149,1145,1145,1149,1149,1149,1145,1145,1149,1149,1145,1145,1145,1145,1149,989,987,984,984,984,981,981,981,978,978,978,978,0,933,935,935,935,935,935,935,935,935,935,935,935,935,935,935,935,938,938,938,938,938,938,940,943,943,946,946,948,951,956,962,964,964,967,967,967,964,964,962,959,959,956,954,954,948,948,946,946,946,946,943,943,0,0,0,0,0,0,0,0,0,0,0,0,0,0,0,0,0,0,0,0,0,0,0,0,0,0,0,0,0,0,0,0,0,0,0
0,0,0,0,0,0,1157,1157,1157,1157,1157,1157,1157,1161,1161,1161,1157,1157,1157,1157,1153,1153,1153,1153,1153,1157,1157,1157,1157,1157,1157,1157,1157,1157,1157,1157,1161,1157,1157,1157,1157,1153,1153,1153,1153,1149,1149,1149,1149,1153,1153,1153,1153,1153,1157,1157,1157,1157,1157,1153,1153,1157,1157,1157,1157,1157,1157,1157,984,984,981,978,978,975,975,973,970,970,970,970,970,970,970,973,975,975,975,978,978,978,981,984,987,987,987,987,987,987,1165,1165,1161,1161,1157,1157,1157,1153,1153,1153,1149,1149,1149,1149,1153,1157,1157,1157,1157,1157,1157,1157,1157,1157,1157,1157,1157,1157,1157,1157,1161,1157,1157,1157,1157,1157,1157,1157,1157,1157,1157,1157,1157,1153,1153,1153,1157,1157,1157,1157,1157,1157,1157,1157,1157,1157,1157,1157,1157,1157,1157,1157,1157,1157,1157,1157,1161,1157,1157,1157,1153,1153,1153,1153,1149,1149,1153,1153,1153,1153,1157,1157,1157,1153,1153,1153,1153,1149,1145,1145,1145,1141,1141,1145,0,0,0,0,723,723,723,722,722,722,719,719,717,716,714,713,711,711,710,710,708,708,708,708,710,710,713,713,717,719,720,720,723,727,727,728,728,728,0,0,0,0,0,0,0,1165,1161,1161,1161,1161,1161,1161,1157,1157,1157,1157,1161,1161,1157,1157,1157,1157,1157,1157,1153,1153,1153,1153,975,973,973,973,970,967,967,967,964,964,962,962,959,956,956,954,954,951,948,948,946,946,943,943,940,940,938,935,935,933,933,930,928,928,928,925,925,925,925,925,928,930,930,933,933,935,938,940,943,948,948,951,956,956,959,964,964,967,967,970,1153,1153,1153,1153,1153,1153,1157,1157,1157,1157,1161,1161,1161,1161,1161,1157,1157,1157,1153,1153,1149,1145,1123,1123,1123,1119,1119,1119,1119,1115,1115,1112,1112,1112,1112,1115,1115,1119,1123,1134,1138,1145,1149,1153,1153,1157,1157,1157,1157,1157,1157,1157,1157,1157,1153,1153,1153,1153,1153,1153,1153,1157,1157,1157,1157,1157,1157,1157,1157,1157,1157,1157,1157,1157,1157,1157,1157,1153,1153,1153,1153,1153,1153,1153,1153,1153,1153,1153,1153,1153,1153,1153,1153,1153,1153,1153,1153,1153,1153,1153,1153,1153,1153,1153,1153,1153,1153,1153,1153,1153,1153,1153,1153,1153,1153,1149,1149,1153,1153,1153,1153,1153,1153,1153,1153,1153,1157,1153,1153,1153,1153,1153,1153,1149,1149,1149,1149,1149,1149,1149,1153,1153,1153,1153,1153,1153,1149,1149,1149,1149,1149,1149,1149,1149,1149,1149,1149,1149,1149,1149,1149,1145,1145,1145,1141,1141,1145,1145,1145,1141,1141,1141,1141,1141,1141,1141,1141,1145,1149,1149,1149,1149,1149,1149,1149,1149,1145,1145,1145,1145,1145,1149,1149,1149,1149,1149,1149,1149,1149,1149,1149,1149,1149,1149,1149,1149,1141,1141,1145,1145,1145,1145,1145,1145,1145,1141,1141,1145,1145,1149,987,987,984,984,984,981,981,981,978,978,978,0,0,933,933,933,935,935,935,935,935,933,933,933,933,935,935,935,935,938,938,938,938,938,938,940,943,943,943,946,948,951,956,962,964,964,967,964,964,964,962,959,959,956,956,954,954,948,948,946,946,946,946,943,943,0,0,0,0,0,0,0,0,0,0,0,0,0,0,0,0,0,0,0,0,0,0,0,0,0,0,0,0,0,0,0,0,0,0,0
0,0,0,0,0,0,1157,1157,1153,1153,1153,1153,1153,1157,1157,1157,1153,1153,1153,1149,1149,1149,1149,1149,1149,1149,1149,1149,1149,1149,1149,1149,1149,1153,1149,1149,1153,1153,1153,1153,1153,1153,1153,1153,1149,1149,1149,1149,1149,1149,1149,1149,1149,1153,1157,1157,1157,1153,1153,1153,1153,1153,1149,1149,1149,1149,1153,1149,1149,987,984,984,978,978,975,975,973,973,970,970,970,970,970,973,975,975,975,978,978,981,981,984,987,987,987,987,987,987,1165,1165,1161,1157,1153,1153,1153,1149,1149,1149,1149,1149,1149,1149,1149,1149,1153,1153,1153,1153,1153,1153,1153,1153,1153,1153,1153,1153,1153,1153,1149,1149,1149,1149,1153,1153,1153,1153,1153,1153,1153,1153,1153,1153,1149,1149,1153,1153,1153,1149,1149,1153,1153,1153,1153,1149,1149,1153,1153,1153,1153,1153,1153,1153,1153,1153,1157,1153,1153,1153,1153,1149,1149,1149,1149,1149,1149,1149,1149,1153,1153,1153,1153,1153,1153,1149,1149,1149,1145,1145,1145,1141,1141,0,0,0,0,0,723,723,725,723,723,722,722,720,717,717,716,714,713,711,710,710,708,708,708,708,710,711,713,714,719,720,720,720,723,727,727,728,728,728,731,0,0,0,0,0,0,1165,1157,1153,1153,1157,1157,1153,1153,1153,1153,1157,1157,1157,1157,1157,1157,1157,1153,1153,1153,1153,1153,1149,1149,975,973,973,973,970,967,967,964,964,962,962,959,956,956,956,954,954,951,951,946,946,946,943,940,940,938,935,930,930,928,928,925,925,925,925,925,925,925,925,925,928,930,930,933,935,938,940,943,948,948,951,956,956,956,959,1149,1149,1149,1149,1149,1149,1149,1153,1153,1153,1153,1153,1153,1153,1153,1153,1157,1157,1157,1157,1157,1153,1153,1153,1149,1145,1130,1123,1123,1119,1119,1119,1119,1119,1115,1115,1115,1115,1115,1115,1119,1119,1123,1134,1138,1141,1145,1149,1149,1153,1153,1153,1153,1153,1153,1153,1153,1153,1153,1153,1153,1153,1153,1153,1153,1153,1153,1153,1153,1153,1153,1153,1153,1153,1153,1153,1153,1153,1153,1153,1153,1153,1153,1149,1149,1149,1149,1149,1149,1149,1153,1153,1153,1149,1149,1149,1149,1149,1149,1149,1149,1149,1149,1149,1149,1149,1149,1149,1149,1149,1149,1149,1149,1149,1149,1149,1149,1149,1149,1149,1149,1149,1149,1149,1149,1149,1149,1149,1149,1153,1153,1149,1149,1149,1149,1149,1149,1149,1149,1149,1149,1149,1149,1149,1149,1149,1149,1149,1149,1149,1149,1149,1145,1145,1145,1145,1145,1145,1145,1145,1145,1145,1145,1145,1145,1145,1141,1141,1141,1141,1141,1141,1141,1138,1138,1138,1138,1138,1138,1141,1141,1141,1145,1145,1149,1145,1145,1145,1145,1145,1141,1141,1141,1141,1141,1149,1149,1149,1149,1149,1145,1145,1145,1145,1145,1149,1145,1145,1145,1141,1141,1141,1141,1141,1141,1141,1141,1141,1145,1141,1141,1145,992,989,987,987,984,984,984,981,981,981,978,978,978,0,0,933,933,933,935,935,935,935,935,933,933,933,933,933,935,935,935,935,938,938,938,938,938,940,943,943,943,946,951,951,959,964,964,964,964,964,962,962,959,959,956,956,956,954,951,948,948,948,946,946,946,943,943,0,0,0,0,0,0,0,0,0,0,0,0,0,0,0,0,0,0,0,0,0,0,0,0,0,0,0,0,0,0,0,0,0,0,0
0,0,0,0,0,0,1153,1153,1149,1149,1149,1149,1149,1149,1153,1153,1149,1149,1149,1149,1149,1149,1145,1145,1145,1145,1145,1145,1145,1145,1145,1141,1141,1145,1145,1145,1149,1149,1149,1153,1149,1149,1149,1149,1149,1149,1145,1145,1145,1145,1145,1145,1149,1149,1153,1153,1153,1149,1149,1149,1149,1149,1149,1149,1149,1149,1149,1145,1145,1145,1145,981,981,978,978,975,975,973,970,970,970,970,970,973,975,975,978,978,978,981,981,984,987,987,987,989,989,989,1161,1161,1153,1153,1149,1149,1149,1149,1145,1145,1145,1145,1145,1145,1145,1145,1149,1149,1149,1149,1149,1153,1153,1149,1149,1149,1149,1149,1149,1149,1149,1149,1149,1149,1149,1149,1149,1149,1149,1153,1153,1149,1149,1149,1149,1149,1149,1149,1149,1149,1149,1149,1149,1149,1145,1145,1149,1149,1153,1153,1149,1149,1149,1149,1149,1149,1149,1149,1149,1149,1149,1149,1149,1149,1149,1149,1149,1149,1149,1149,1149,1149,1149,1149,1149,1149,1149,1145,1145,1145,1145,1141,1141,0,0,0,0,0,728,727,725,725,725,723,722,722,719,717,716,714,713,711,711,710,710,710,710,710,710,713,713,714,719,720,720,720,723,727,728,728,730,730,731,0,0,0,0,0,0,0,1149,1149,1149,1149,1149,1149,1149,1149,1153,1149,1149,1153,1153,1153,1153,1149,1149,1149,1149,1149,1149,1145,1145,1145,1145,1145,973,970,970,967,964,964,964,962,959,959,956,956,954,954,951,951,946,946,946,943,940,938,935,933,928,925,925,925,925,925,925,925,923,923,925,925,925,925,928,930,933,935,938,940,943,948,951,954,956,956,956,959,1141,1141,1145,1149,1149,1149,1149,1149,1153,1153,1153,1153,1153,1153,1149,1149,1149,1153,1153,1153,1153,1153,1153,1149,1149,1145,1134,1126,1123,1123,1119,1119,1119,1119,1119,1115,1115,1115,1119,1119,1119,1123,1123,1134,1138,1141,1145,1149,1149,1149,1149,1149,1153,1153,1149,1149,1149,1149,1149,1149,1149,1149,1149,1149,1149,1149,1149,1149,1149,1149,1149,1149,1149,1149,1149,1153,1153,1153,1153,1153,1153,1153,1149,1149,1149,1149,1149,1149,1149,1149,1149,1149,1149,1149,1149,1149,1149,1149,1145,1145,1145,1145,1149,1149,1149,1149,1149,1149,1145,1145,1145,1145,1149,1149,1149,1149,1149,1149,1149,1149,1149,1149,1149,1149,1149,1149,1149,1149,1149,1149,1145,1145,1149,1149,1145,1145,1145,1145,1145,1145,1145,1145,1145,1145,1145,1145,1145,1145,1145,1145,1145,1145,1145,1145,1145,1145,1145,1141,1141,1141,1141,1141,1141,1141,1141,1141,1138,1138,1138,1138,1138,1138,1138,1138,1138,1138,1138,1138,1138,1138,1138,1138,1141,1141,1138,1138,1138,1141,1141,1141,1141,1141,1141,1138,1138,1141,1141,1138,1138,1141,1138,1138,1141,1141,1141,1141,1141,1141,1138,1138,1138,1138,1138,1138,1138,1138,1138,1141,1145,1141,1141,1145,992,989,989,987,987,984,984,984,981,981,981,981,981,981,933,933,933,933,935,935,935,935,933,933,933,933,933,933,933,935,935,935,938,938,938,938,938,940,943,943,946,948,951,954,962,964,964,964,964,964,962,962,959,959,956,956,956,954,951,948,948,948,948,946,946,946,946,0,0,0,0,0,0,0,0,0,0,0,0,0,0,0,0,0,0,0,0,0,0,0,0,0,0,0,0,0,0,0,0,0,0,0
0,0,0,0,0,0,1149,1149,1145,1145,1145,1145,1145,1145,1145,1145,1149,1145,1145,1145,1145,1145,1145,1145,1145,1145,1145,1141,1141,1141,1141,1138,1138,1141,1141,1141,1145,1149,1149,1149,1149,1149,1149,1149,1149,1145,1145,1145,1145,1145,1145,1145,1145,1149,1149,1149,1149,1149,1145,1145,1145,1145,1145,1145,1145,1145,1145,1145,1145,1145,1145,1138,981,981,978,978,975,975,973,973,973,973,973,975,975,975,978,978,978,981,981,987,987,987,987,989,989,989,1153,1153,1153,1149,1149,1149,1145,1145,1145,1145,1145,1145,1145,1145,1145,1145,1145,1145,1149,1149,1149,1149,1149,1149,1149,1149,1149,1149,1145,1145,1145,1145,1145,1145,1145,1145,1145,1145,1149,1149,1145,1145,1149,1149,1149,1149,1149,1149,1149,1149,1145,1145,1145,1145,1141,1141,1145,1149,1149,1149,1149,1149,1149,1149,1149,1149,1149,1149,1149,1149,1149,1145,1145,1145,1145,1145,1145,1145,1145,1145,1149,1149,1149,1149,1149,1145,1145,1145,1145,1141,1141,1141,1141,0,0,0,0,0,728,728,727,727,725,723,723,722,720,719,717,716,714,713,711,711,710,710,710,710,711,713,713,717,719,720,720,722,725,727,728,730,730,730,733,0,0,0,0,0,0,0,1145,1145,1145,1145,1145,1149,1149,1149,1149,1145,1145,1145,1149,1149,1149,1149,1145,1145,1145,1145,1145,1145,1145,1145,1141,1141,1141,973,970,967,967,964,964,962,959,956,956,956,954,954,954,951,946,946,946,943,940,938,933,930,923,923,923,923,923,923,923,923,923,923,923,923,925,925,925,928,933,938,938,943,946,948,951,954,956,956,956,1141,1141,1141,1145,1145,1149,1149,1149,1149,1149,1149,1149,1149,1149,1149,1149,1149,1149,1149,1149,1149,1153,1153,1153,1149,1149,1141,1138,1130,1123,1123,1123,1123,1119,1119,1119,1119,1119,1119,1119,1119,1123,1123,1126,1134,1138,1138,1141,1145,1149,1149,1149,1149,1149,1149,1149,1149,1149,1149,1149,1145,1145,1145,1145,1145,1145,1145,1145,1149,1145,1145,1145,1145,1145,1145,1145,1145,1149,1149,1149,1149,1149,1149,1149,1145,1145,1145,1145,1145,1145,1145,1149,1149,1149,1149,1145,1145,1145,1145,1145,1141,1141,1145,1145,1145,1145,1145,1145,1145,1141,1141,1141,1141,1145,1145,1145,1145,1145,1145,1145,1145,1145,1145,1145,1145,1145,1145,1145,1145,1145,1145,1145,1141,1141,1141,1141,1141,1141,1141,1141,1141,1141,1141,1141,1145,1141,1141,1141,1141,1141,1141,1141,1141,1141,1141,1141,1141,1141,1138,1138,1138,1138,1138,1138,1138,1138,1138,1138,1138,1134,1134,1134,1134,1134,1134,1134,1134,1138,1138,1138,1138,1138,1138,1138,1138,1138,1138,1138,1138,1138,1138,1138,1138,1138,1138,1138,1138,1138,1138,1138,1138,1138,1138,1138,1138,1138,1138,1138,1138,1138,1138,1134,1134,1134,1138,1134,1134,1138,1138,1138,1138,1138,989,989,989,989,987,987,987,984,984,981,981,981,981,981,933,933,930,930,933,935,935,935,933,933,933,933,933,933,933,933,933,933,935,935,935,938,938,938,940,943,943,946,946,948,951,959,964,964,964,964,962,962,959,959,956,956,956,956,954,951,951,948,948,948,948,948,946,946,0,0,0,0,0,0,0,0,0,0,0,0,0,0,0,0,0,0,0,0,0,0,0,0,0,0,0,0,0,0,0,0,0,0,0
