0,0,0,0,0,1119,1119,1119,1119,1119,1119,1119,1119,1119,1119,1119,1119,1119,1119,1119,1115,1115,1115,1115,1115,1112,1112,1115,1115,1115,1115,1115,1115,1115,1115,1115,1115,1115,1115,1112,1112,1115,1115,1112,1112,1112,1112,1112,1112,1112,1112,1112,1112,1115,1115,1115,1115,1115,1115,1115,1115,1115,1115,1119,1119,1119,1119,1119,1119,1115,1115,1115,1115,1115,1115,1119,1119,1119,1119,1119,1119,1119,1119,1119,1119,1119,1115,1115,1115,1115,1119,1119,1119,1115,1115,1115,1115,1119,1119,1119,1119,1119,1119,1119,1115,1115,1115,1115,1115,998,998,998,998,998,995,995,995,998,998,998,998,998,1001,1001,1004,1007,1007,1010,1010,1010,1007,1007,1007,1010,1130,1126,1126,1126,1126,1126,1126,1126,1126,1126,1126,1123,1123,1126,1123,1123,1126,1126,1126,1126,1126,1126,1126,1126,1126,1126,1126,1130,1126,1126,1126,1126,1126,1126,1123,1123,1126,1126,1126,1126,1126,1126,1126,1126,1130,1130,1130,1126,1126,1130,1130,1130,1130,1130,1130,1130,1130,1130,1130,1130,1130,1126,1126,1126,1126,1126,1126,1130,1130,1130,1130,1130,1130,1130,1130,1130,1130,1130,1130,1130,1130,1130,1134,1134,1130,1130,1130,1134,1134,1130,1130,0,0,0,0,0,0,0,738,734,728,728,728,727,725,723,722,720,719,717,716,716,716,716,716,716,716,716,717,719,720,722,723,725,728,728,730,731,731,733,0,0,0,0,0,1145,1141,1138,1134,1134,1134,1134,1134,1134,1134,1134,1134,1134,1134,1134,1134,1134,1134,1134,1134,1134,1134,1134,1134,1134,1134,1134,1134,1134,1134,959,956,954,954,954,954,948,948,946,946,946,943,943,940,938,938,935,933,928,923,920,920,918,918,918,918,918,918,918,918,918,918,920,920,923,925,928,930,933,935,938,938,940,946,948,948,951,954,956,959,964,967,967,1141,1141,1145,1145,1141,1141,1141,1141,1145,1145,1141,1141,1145,1145,1145,1145,1145,1145,1141,1130,1112,1108,1108,1105,1105,1105,1105,1101,1094,1094,1090,1090,1090,1094,1094,1097,1097,1101,1101,1101,1145,1149,1149,1149,1149,1149,1145,1145,1149,1149,1149,1149,1149,1149,1149,1149,1149,1149,1149,1149,1149,1149,1149,1149,1149,1149,1149,1149,1149,1149,1149,1149,1149,1149,1149,1149,1149,1145,1145,1145,1145,1145,1145,1145,1145,1145,1145,1145,1145,1145,1149,1149,1149,1149,1149,1149,1149,1149,1149,1149,1149,1149,1145,1145,1149,1149,1145,1145,1149,1149,1153,1153,1149,1149,1149,1149,1145,1145,1145,1145,1145,1145,1145,1145,1149,1149,1145,1145,1149,1149,1145,1145,1149,1149,1149,1149,1149,1149,1153,1153,1149,1149,1149,1149,1149,1149,1149,1149,1149,1149,1149,1149,1149,1149,1149,1149,1145,1145,1145,1149,1149,1149,1149,1149,1149,1149,1149,1149,1149,1149,1149,1149,1145,1145,1145,1149,1145,1145,1149,1149,1149,1149,1149,1149,1149,1149,1149,1145,1145,1149,1149,1149,1149,1149,1149,1149,1149,1149,1153,1153,1153,1153,1153,1153,1153,1153,1153,1153,1153,1157,1153,1153,1157,1157,1157,1153,1153,1157,1157,1157,1157,1157,1157,1157,1157,1153,1153,1161,0,0,1050,1050,1050,1047,1041,1038,1038,1034,1028,1025,1025,1022,1022,1019,1016,1016,1013,1013,1010,1010,1010,1010,1004,1004,0,0,0,0,0,0,0,0,0,0,0,0,0,0,0,0,0,0,0,0,0,0,0,0,0,0,0,0,0,0,0,0,0,0
0,0,0,0,0,1115,1115,1115,1115,1115,1119,1119,1115,1115,1115,1115,1119,1115,1115,1115,1115,1115,1112,1112,1112,1108,1108,1112,1112,1112,1112,1112,1112,1112,1112,1112,1112,1112,1112,1108,1108,1108,1112,1112,1112,1112,1108,1108,1108,1108,1108,1108,1108,1108,1108,1108,1112,1112,1112,1112,1115,1112,1112,1112,1115,1115,1115,1115,1115,1115,1112,1112,1112,1112,1112,1112,1112,1115,1115,1115,1115,1115,1115,1115,1115,1115,1115,1112,1112,1112,1115,1115,1115,1115,1115,1115,1115,1115,1115,1115,1115,1115,1115,1115,1115,1115,1115,1115,1112,1004,1001,1001,1001,998,998,998,998,998,998,998,998,1001,1001,1004,1004,1007,1007,1010,1010,1010,1010,1010,1010,1010,1123,1123,1123,1126,1126,1126,1126,1123,1123,1123,1123,1123,1123,1123,1123,1123,1123,1123,1123,1123,1123,1123,1123,1123,1123,1123,1123,1123,1123,1123,1123,1123,1123,1123,1123,1123,1123,1123,1123,1123,1126,1126,1126,1126,1126,1126,1126,1126,1126,1126,1126,1126,1126,1126,1126,1126,1126,1126,1126,1126,1126,1126,1123,1123,1123,1123,1123,1126,1126,1126,1126,1126,1126,1126,1126,1126,1126,1126,1126,1126,1126,1126,1130,1130,1126,1126,1126,1130,1130,1130,1130,0,0,0,0,0,0,0,738,736,730,728,728,727,727,725,723,722,719,717,716,716,716,716,716,716,716,716,717,720,720,722,723,725,728,728,730,731,733,733,0,0,0,0,0,0,1138,1138,1134,1134,1134,1130,1130,1134,1134,1134,1134,1134,1134,1130,1130,1130,1130,1130,1130,1134,1134,1134,1134,1134,1134,1134,1134,1134,1134,1130,956,954,954,954,951,948,948,946,946,946,946,943,940,938,938,935,920,920,920,918,915,915,915,915,915,915,915,915,915,918,918,920,920,920,925,928,930,933,935,938,938,940,946,946,948,951,954,956,959,1145,1145,1145,1141,1141,1141,1141,1141,1141,1141,1141,1141,1141,1138,1138,1141,1141,1141,1141,1141,1141,1138,1130,1112,1112,1108,1108,1108,1105,1105,1101,1097,1094,1094,1094,1094,1094,1097,1097,1101,1105,1105,1105,1145,1145,1145,1145,1145,1145,1145,1145,1145,1145,1145,1145,1145,1145,1145,1145,1145,1145,1145,1145,1145,1145,1145,1145,1145,1145,1145,1145,1145,1149,1145,1145,1145,1149,1149,1145,1145,1145,1145,1145,1145,1141,1141,1141,1141,1141,1145,1145,1145,1145,1145,1145,1145,1145,1145,1149,1149,1149,1149,1149,1149,1145,1145,1145,1145,1141,1141,1141,1141,1145,1145,1145,1145,1145,1145,1145,1141,1141,1145,1145,1145,1145,1145,1145,1145,1149,1145,1145,1145,1141,1141,1141,1141,1149,1149,1145,1145,1149,1153,1149,1149,1145,1145,1145,1145,1145,1145,1145,1145,1149,1149,1145,1145,1145,1145,1145,1145,1145,1145,1145,1145,1145,1145,1149,1145,1145,1145,1145,1145,1145,1145,1145,1141,1141,1141,1141,1141,1141,1145,1145,1145,1145,1145,1149,1149,1145,1145,1145,1145,1145,1145,1145,1141,1141,1145,1145,1145,1149,1149,1149,1149,1149,1149,1149,1149,1149,1149,1149,1149,1153,1153,1153,1157,1153,1153,1149,1149,1153,1153,1153,1149,1149,1149,1149,1149,1149,1149,1149,1149,0,0,1044,0,1044,1038,1034,1034,1028,1025,1025,1022,1022,1019,1016,1016,1013,1013,1013,1010,1010,903,903,1007,1007,0,0,0,0,0,0,0,0,0,0,0,0,0,0,0,0,0,0,0,0,0,0,0,0,0,0,0,0,0,0,0,0,0,0
0,0,0,0,0,1115,1115,1115,1115,1115,1115,1115,1115,1115,1115,1115,1115,1112,1112,1112,1112,1112,1108,1108,1108,1108,1108,1108,1108,1105,1105,1108,1108,1105,1105,1105,1105,1105,1105,1105,1105,1105,1105,1108,1108,1108,1108,1108,1105,1105,1105,1105,1105,1105,1105,1105,1105,1105,1105,1108,1112,1108,1108,1108,1112,1112,1112,1112,1112,1112,1108,1108,1108,1108,1108,1108,1108,1112,1112,1112,1112,1112,1112,1112,1112,1112,1112,1112,1112,1112,1115,1115,1115,1112,1112,1112,1112,1112,1112,1112,1112,1112,1112,1112,1112,1108,1108,1112,1007,1007,1004,1004,1001,1001,998,998,998,998,998,1001,1001,1001,1001,1004,1007,1010,1010,1010,1010,1013,1010,1010,1010,1010,1119,1119,1119,1123,1123,1123,1123,1123,1123,1123,1119,1119,1119,1119,1119,1119,1119,1119,1119,1119,1119,1119,1119,1119,1119,1119,1119,1119,1119,1119,1119,1119,1123,1119,1119,1119,1119,1123,1123,1123,1123,1123,1126,1123,1123,1123,1126,1123,1123,1123,1123,1123,1123,1123,1123,1123,1123,1123,1123,1123,1123,1123,1123,1123,1119,1119,1119,1123,1123,1123,1123,1123,1123,1123,1123,1123,1123,1123,1123,1123,1123,1123,1123,1123,1126,1126,1126,1126,1126,1126,1126,0,0,0,0,0,0,0,738,734,731,730,728,727,727,725,723,722,719,717,716,716,716,716,716,716,716,716,717,720,720,722,723,725,728,730,731,731,733,733,0,0,0,0,0,0,1134,1130,1130,1130,1130,1126,1126,1126,1130,1130,1130,1130,1130,1130,1130,1130,1126,1126,1126,1130,1130,1130,1130,1130,1134,1134,1134,1134,1130,1130,1130,954,954,954,951,948,948,946,946,946,946,943,943,940,938,933,915,915,915,915,913,913,913,913,913,915,915,915,915,915,918,918,920,920,923,925,928,933,935,938,938,940,943,946,948,951,954,956,956,1141,1141,1141,1138,1138,1141,1138,1138,1138,1138,1138,1138,1138,1138,1138,1138,1138,1138,1141,1138,1138,1138,1130,1123,1115,1108,1108,1108,1105,1105,1101,1097,1097,1094,1094,1094,1097,1097,1101,1101,1105,1105,1108,1130,1138,1138,1141,1141,1141,1141,1141,1141,1141,1141,1141,1141,1145,1145,1141,1141,1141,1141,1141,1141,1141,1141,1141,1141,1141,1141,1141,1145,1145,1145,1145,1145,1145,1145,1141,1141,1141,1141,1141,1141,1141,1141,1141,1141,1141,1141,1141,1141,1141,1141,1141,1141,1138,1138,1141,1145,1145,1145,1145,1145,1145,1145,1145,1141,1141,1138,1138,1138,1141,1141,1141,1141,1141,1141,1141,1141,1141,1141,1145,1145,1145,1145,1145,1145,1145,1141,1141,1141,1141,1141,1138,1138,1138,1141,1145,1145,1149,1149,1145,1145,1145,1141,1141,1138,1138,1138,1138,1138,1145,1145,1145,1141,1141,1141,1141,1141,1141,1141,1141,1141,1141,1145,1145,1141,1141,1138,1138,1141,1138,1138,1141,1138,1138,1138,1141,1138,1138,1141,1141,1141,1141,1145,1145,1145,1145,1145,1141,1141,1141,1141,1141,1141,1138,1138,1138,1138,1138,1141,1145,1145,1145,1145,1145,1145,1145,1145,1145,1149,1149,1153,1153,1157,1153,1153,1149,1149,1149,1149,1149,1145,1145,1145,1145,1145,1149,1149,1149,0,0,0,1028,0,1028,1028,1028,1028,1028,1025,1025,1022,1019,1016,1016,1016,1013,1013,1013,906,903,903,903,0,0,0,0,0,0,0,0,0,0,0,0,0,0,0,0,0,0,0,0,0,0,0,0,0,0,0,0,0,0,0,0,0,0,0,0
0,0,0,0,0,1112,1112,1112,1112,1115,1115,1115,1115,1112,1112,1112,1112,1108,1108,1108,1108,1108,1105,1105,1108,1105,1105,1105,1105,1105,1105,1105,1105,1105,1101,1101,1101,1101,1101,1101,1101,1101,1101,1105,1105,1105,1105,1105,1105,1105,1105,1101,1101,1101,1101,1101,1101,1105,1105,1105,1105,1105,1105,1105,1108,1108,1108,1108,1108,1108,1105,1105,1105,1105,1105,1105,1105,1108,1108,1108,1108,1108,1108,1108,1108,1108,1108,1108,1108,1108,1112,1112,1112,1112,1112,1108,1108,1108,1108,1108,1108,1108,1108,1108,1108,1108,1108,1108,1007,1007,1007,1004,1001,1001,998,998,998,998,998,1001,1001,1001,1004,1004,1007,1010,1010,1010,1013,1013,1013,1013,1013,1119,1119,1115,1115,1115,1115,1115,1119,1119,1119,1119,1119,1119,1119,1119,1119,1119,1119,1115,1115,1115,1115,1115,1119,1119,1119,1119,1119,1119,1119,1119,1119,1119,1119,1119,1119,1119,1119,1119,1119,1119,1119,1119,1123,1119,1119,1119,1123,1123,1123,1119,1119,1119,1119,1119,1119,1119,1119,1123,1119,1119,1119,1119,1119,1119,1119,1119,1119,1119,1119,1119,1119,1119,1119,1119,1119,1119,1119,1123,1123,1123,1119,1119,1119,1119,1123,1123,1123,1123,1126,1126,1126,0,0,0,0,0,0,0,739,734,731,730,728,728,727,725,723,722,719,717,716,716,716,716,716,716,716,717,720,722,722,722,723,725,728,730,731,733,734,734,0,0,0,0,0,0,1130,1126,1123,1123,1123,1123,1123,1126,1126,1126,1130,1126,1126,1126,1126,1126,1123,1123,1123,1126,1126,1130,1130,1130,1130,1130,1130,1130,1130,1130,1126,1126,1123,954,951,948,948,946,946,946,946,943,943,940,940,910,910,910,910,910,910,910,910,910,913,913,913,913,915,915,915,918,918,920,923,925,928,933,935,938,940,940,943,946,948,951,951,956,1138,1138,1138,1138,1134,1134,1138,1138,1138,1138,1134,1134,1138,1134,1134,1134,1134,1138,1138,1138,1138,1138,1134,1130,1126,1119,1112,1108,1108,1108,1105,1101,1101,1097,1097,1097,1097,1097,1101,1105,1105,1105,1108,1108,1126,1134,1134,1138,1138,1138,1138,1138,1138,1138,1138,1138,1141,1141,1141,1141,1141,1141,1141,1138,1138,1138,1138,1138,1138,1138,1138,1141,1141,1141,1141,1141,1141,1141,1141,1141,1141,1141,1141,1141,1141,1141,1141,1141,1141,1141,1138,1138,1138,1138,1138,1138,1138,1138,1138,1138,1138,1141,1141,1145,1141,1141,1141,1141,1141,1138,1138,1138,1138,1138,1138,1138,1138,1138,1138,1138,1138,1138,1138,1141,1141,1141,1141,1141,1141,1141,1138,1138,1138,1138,1138,1138,1138,1138,1138,1138,1138,1141,1141,1138,1138,1138,1138,1138,1134,1134,1134,1134,1134,1134,1134,1138,1138,1138,1138,1138,1141,1138,1138,1138,1138,1138,1138,1138,1138,1138,1138,1138,1138,1138,1138,1138,1138,1138,1138,1138,1138,1138,1138,1138,1138,1138,1138,1141,1141,1141,1138,1138,1138,1138,1138,1138,1138,1134,1134,1138,1138,1138,1138,1138,1138,1141,1141,1141,1141,1141,1145,1145,1149,1149,1149,1149,1149,1153,1153,1149,1149,1149,1149,1149,1145,1145,1141,1141,1138,1138,1138,1153,0,0,0,1028,1028,1028,1028,1028,1028,1025,1025,1022,1019,1019,1016,1016,1013,1013,1013,903,903,903,903,903,0,0,0,0,0,0,0,0,0,0,0,0,0,0,0,0,0,0,0,0,0,0,0,0,0,0,0,0,0,0,0,0,0,0,0,0
0,0,0,0,0,1112,1112,1112,1112,1115,1115,1115,1115,1112,1108,1108,1108,1105,1105,1105,1105,1105,1105,1105,1105,1105,1105,1105,1101,1101,1101,1101,1101,1101,1101,1101,1101,1101,1101,1101,1101,1101,1101,1101,1101,1101,1105,1105,1105,1105,1101,1101,1101,1101,1101,1101,1101,1101,1101,1105,1105,1101,1101,1101,1101,1101,1105,1105,1105,1105,1105,1101,1101,1101,1101,1101,1105,1105,1105,1105,1105,1105,1105,1105,1105,1105,1105,1105,1105,1108,1108,1108,1108,1108,1108,1105,1105,1105,1105,1105,1108,1108,1108,1108,1108,1105,1105,1105,1007,1007,1007,1007,1001,1001,1001,1001,1001,998,998,1001,1001,1004,1004,1004,1010,1010,1010,1013,1013,1013,1013,1013,1119,1115,1115,1115,1112,1112,1112,1112,1112,1115,1112,1112,1115,1119,1119,1119,1115,1115,1115,1115,1115,1115,1115,1115,1115,1115,1115,1115,1115,1115,1115,1115,1115,1115,1115,1115,1115,1115,1115,1115,1115,1115,1115,1115,1119,1119,1115,1115,1119,1119,1119,1115,1115,1115,1115,1115,1115,1115,1115,1119,1119,1119,1119,1119,1119,1119,1115,1115,1119,1119,1119,1119,1119,1119,1119,1115,1115,1115,1115,1115,1115,1115,1115,1119,1119,1119,1119,1119,1119,1119,1119,1123,1126,0,0,0,0,0,0,0,739,736,733,733,730,728,727,727,725,722,722,719,716,716,716,716,716,716,717,717,720,722,722,723,725,727,731,731,733,733,734,734,0,0,0,0,0,0,1126,1123,1123,1123,1123,1119,1119,1123,1123,1126,1126,1126,1126,1123,1123,1123,1119,1119,1119,1119,1123,1123,1126,1126,1130,1130,1130,1130,1126,1126,1123,1123,1119,1119,948,948,948,946,946,946,946,946,940,940,943,910,910,908,908,908,910,910,910,910,910,910,913,913,915,915,915,918,918,920,925,925,930,933,935,938,940,943,946,946,948,951,951,1134,1134,1134,1134,1134,1134,1134,1134,1134,1134,1134,1134,1134,1134,1134,1134,1134,1134,1134,1134,1134,1134,1134,1134,1130,1126,1119,1115,1112,1108,1108,1105,1101,1101,1097,1097,1097,1097,1101,1101,1105,1108,1108,1112,1115,1126,1130,1134,1134,1134,1134,1134,1134,1138,1138,1138,1138,1138,1138,1138,1138,1138,1138,1138,1138,1138,1138,1138,1138,1138,1138,1138,1138,1138,1138,1138,1138,1138,1138,1138,1138,1138,1138,1138,1138,1138,1138,1138,1138,1138,1138,1138,1138,1134,1134,1134,1134,1134,1134,1134,1134,1138,1138,1138,1138,1141,1138,1138,1138,1138,1138,1138,1138,1138,1138,1134,1134,1134,1134,1134,1134,1134,1138,1138,1138,1138,1138,1138,1138,1138,1138,1138,1138,1138,1134,1134,1134,1134,1134,1138,1138,1138,1138,1138,1134,1134,1138,1134,1134,1134,1134,1134,1134,1134,1130,1130,1134,1134,1134,1134,1138,1138,1138,1138,1138,1134,1134,1138,1134,1134,1138,1138,1138,1138,1138,1138,1138,1138,1138,1138,1138,1138,1138,1138,1138,1138,1138,1138,1138,1138,1138,1138,1134,1134,1134,1134,1134,1134,1134,1134,1138,1134,1134,1134,1134,1134,1134,1138,1138,1138,1138,1141,1141,1141,1141,1141,1138,1138,1141,1141,1141,1138,1138,1141,1141,1141,1141,1141,1138,1138,1134,1134,0,0,0,0,0,1028,1025,1025,1028,1025,1025,1022,1022,1019,1016,1013,1013,1013,1013,1013,903,903,903,903,906,0,0,0,0,0,0,0,0,0,0,0,0,0,0,0,0,0,0,0,0,0,0,0,0,0,0,0,0,0,0,0,0,0,0,0,0
0,0,0,0,0,1112,1112,1112,1112,1112,1112,1112,1112,1105,1105,1108,1105,1105,1105,1105,1105,1105,1101,1101,1101,1101,1101,1101,1101,1101,1101,1101,1101,1101,1101,1101,1101,1101,1097,1097,1097,1097,1097,1097,1097,1097,1101,1101,1101,1101,1101,1101,1101,1101,1101,1101,1101,1101,1101,1101,1101,1101,1101,1101,1101,1101,1101,1101,1101,1101,1101,1101,1101,1101,1101,1101,1101,1101,1101,1101,1105,1105,1101,1101,1101,1101,1101,1105,1105,1105,1105,1105,1105,1105,1105,1105,1101,1101,1105,1105,1105,1105,1105,1105,1105,1105,1105,1004,1004,1007,1007,1007,1004,1001,1001,1001,1001,998,998,1001,1001,1004,1004,1007,1010,1010,1010,1013,1013,1016,1016,1016,1019,1112,1112,1108,1108,1108,1108,1108,1108,1108,1108,1108,1112,1112,1112,1112,1112,1112,1112,1112,1112,1112,1112,1112,1112,1112,1112,1112,1112,1112,1112,1112,1112,1112,1112,1112,1112,1112,1112,1112,1112,1112,1112,1112,1112,1112,1115,1115,1112,1112,1115,1112,1112,1112,1115,1115,1115,1115,1115,1115,1115,1115,1115,1115,1115,1115,1115,1115,1115,1115,1115,1115,1115,1115,1115,1115,1112,1112,1112,1112,1112,1112,1112,1112,1115,1115,1115,1115,1115,1115,1108,1108,0,0,0,0,0,0,0,0,739,736,734,733,731,730,728,727,725,723,722,719,717,716,716,716,716,716,717,717,720,722,722,723,727,728,731,731,733,733,734,734,0,0,0,0,0,0,1126,1119,1119,1119,1119,1119,1119,1119,1119,1119,1119,1119,1123,1119,1119,1119,1119,1115,1115,1119,1119,1119,1123,1123,1126,1126,1126,1123,1123,1123,1123,1119,1119,1119,948,948,948,946,946,946,946,896,896,896,898,901,903,903,903,906,908,908,908,908,908,908,910,910,913,915,915,918,920,923,925,928,930,933,938,938,940,943,946,946,948,951,1130,1130,1130,1126,1126,1126,1130,1130,1134,1130,1130,1130,1130,1130,1134,1130,1130,1130,1130,1130,1130,1130,1130,1130,1130,1126,1123,1123,1119,1112,1112,1108,1108,1105,1101,1101,1101,1097,1097,1101,1101,1105,1108,1108,1112,1119,1123,1126,1130,1130,1130,1130,1130,1130,1130,1134,1134,1134,1134,1134,1134,1134,1134,1134,1134,1134,1134,1134,1134,1134,1134,1134,1134,1134,1134,1134,1134,1134,1134,1134,1134,1134,1134,1134,1134,1134,1134,1138,1134,1134,1134,1134,1134,1134,1134,1130,1130,1130,1130,1130,1130,1130,1130,1134,1134,1134,1134,1134,1134,1134,1134,1134,1134,1134,1134,1134,1134,1134,1134,1134,1134,1134,1134,1134,1134,1134,1134,1138,1138,1138,1138,1138,1138,1134,1134,1134,1134,1130,1130,1130,1126,1126,1126,1134,1134,1134,1134,1134,1134,1134,1130,1130,1130,1130,1130,1130,1130,1130,1134,1134,1134,1134,1134,1134,1134,1134,1134,1134,1130,1130,1130,1134,1134,1138,1138,1138,1134,1134,1134,1134,1134,1134,1134,1134,1134,1134,1134,1138,1134,1134,1134,1134,1134,1134,1134,1130,1130,1134,1134,1134,1134,1134,1134,1134,1134,1134,1134,1134,1134,1134,1138,1138,1138,1138,1138,1138,1138,1138,1138,1138,1138,1138,1138,1138,1138,1138,1138,1138,1138,1138,1138,1134,1134,0,1134,0,0,0,1025,1025,1025,1025,1025,1022,1022,1019,1016,1016,1013,1013,1013,1010,903,901,901,901,903,906,0,0,0,0,0,0,0,0,0,0,0,0,0,0,0,0,0,0,0,0,0,0,0,0,0,0,0,0,0,0,0,0,0,0,0,0
0,0,0,0,0,1108,1108,1108,1108,1108,1105,1105,1105,1105,1105,1105,1105,1101,1101,1101,1101,1101,1101,1101,1101,1097,1097,1101,1097,1097,1097,1097,1097,1097,1097,1097,1097,1097,1097,1097,1094,1094,1090,1090,1090,1094,1094,1097,1097,1101,1101,1097,1097,1097,1097,1097,1097,1097,1097,1097,1097,1097,1097,1097,1097,1097,1101,1097,1097,1097,1097,1097,1097,1094,1094,1097,1101,1101,1101,1101,1101,1101,1101,1101,1101,1101,1101,1101,1101,1101,1101,1101,1101,1101,1101,1101,1101,1101,1101,1101,1105,1105,1105,1105,1105,1105,1101,1001,1001,1001,1007,1007,1004,1004,1001,1001,1001,1001,1001,1001,1001,1004,1004,1007,1010,1010,1013,1013,1013,1016,1016,1019,1019,1112,1108,1108,1105,1105,1105,1105,1105,1105,1105,1105,1105,1108,1108,1108,1108,1108,1105,1105,1108,1108,1108,1108,1108,1108,1108,1108,1108,1108,1108,1108,1108,1108,1108,1112,1108,1108,1108,1108,1108,1108,1108,1108,1108,1108,1112,1108,1108,1108,1112,1112,1112,1112,1112,1112,1112,1112,1112,1115,1115,1115,1115,1115,1115,1112,1112,1112,1112,1112,1112,1112,1112,1112,1112,1112,1112,1112,1108,1108,1108,1108,1108,1108,1108,1108,1108,1108,1108,1108,1105,1105,0,0,0,0,0,0,0,0,738,736,734,734,731,731,728,727,727,723,722,719,717,716,716,716,716,717,717,717,720,722,722,723,727,730,733,733,733,734,736,736,739,0,0,0,0,0,0,1115,1115,1115,1115,1115,1115,1115,1115,1115,1115,1115,1115,1115,1115,1115,1115,1115,1115,1115,1115,1115,1119,1119,1119,1123,1119,1119,1119,1119,1119,1115,1115,1115,1115,1115,948,948,946,896,896,896,896,896,898,898,901,901,901,901,903,906,906,906,906,906,910,910,913,913,915,918,920,925,928,930,933,935,938,938,940,943,946,948,951,1126,1126,1126,1123,1123,1126,1126,1126,1126,1130,1130,1130,1130,1130,1130,1130,1130,1126,1126,1126,1126,1126,1126,1130,1130,1126,1126,1123,1123,1119,1115,1112,1108,1105,1105,1101,1101,1101,1101,1101,1101,1105,1105,1108,1112,1115,1119,1123,1126,1126,1126,1126,1126,1126,1126,1126,1126,1126,1126,1130,1130,1130,1130,1130,1130,1130,1130,1130,1130,1130,1130,1130,1130,1130,1130,1130,1130,1130,1130,1130,1130,1130,1130,1134,1134,1134,1134,1134,1134,1134,1134,1130,1130,1130,1130,1130,1126,1126,1126,1126,1126,1126,1126,1130,1130,1126,1126,1130,1130,1130,1130,1130,1130,1130,1130,1134,1130,1130,1130,1134,1134,1130,1130,1130,1130,1130,1130,1134,1134,1134,1134,1130,1130,1134,1134,1130,1130,1130,1130,1130,1130,1123,1123,1123,1123,1123,1126,1126,1126,1130,1130,1126,1126,1126,1126,1126,1126,1126,1126,1130,1126,1126,1126,1126,1134,1130,1130,1130,1130,1126,1126,1126,1134,1134,1134,1134,1134,1134,1134,1130,1130,1130,1130,1134,1134,1134,1134,1134,1134,1130,1130,1130,1130,1130,1130,1130,1130,1130,1130,1130,1130,1134,1134,1134,1130,1130,1130,1130,1134,1134,1134,1134,1134,1134,1134,1138,1138,1138,1134,1134,1134,1134,1138,1138,1138,1138,1138,1138,1138,1138,1134,1134,1134,1134,1134,1134,0,1025,1025,1025,1025,1025,1025,1025,1022,1019,1019,1016,1016,1013,1013,1013,1010,901,901,901,901,901,901,0,0,0,0,0,0,0,0,0,0,0,0,0,0,0,0,0,0,0,0,0,0,0,0,0,0,0,0,0,0,0,0,0,0,0,0
0,0,0,0,0,1105,1105,1105,1105,1105,1101,1101,1101,1101,1101,1101,1101,1101,1101,1097,1094,1094,1094,1094,1094,1094,1094,1094,1094,1094,1094,1094,1094,1094,1094,1094,1097,1097,1094,1094,1090,1090,1090,1090,1090,1090,1090,1090,1094,1097,1097,1097,1094,1094,1094,1094,1094,1090,1090,1090,1090,1094,1094,1094,1094,1094,1097,1094,1094,1094,1094,1094,1094,1094,1094,1094,1094,1094,1097,1097,1101,1101,1101,1101,1097,1097,1097,1101,1097,1097,1097,1101,1101,1101,1101,1097,1097,1097,1101,1101,1101,1101,1101,1101,1101,1101,1001,1001,1001,1001,1007,1007,1004,1004,1001,1001,1001,1001,1001,1001,1001,1004,1004,1007,1010,1010,1013,1013,1016,1016,1019,1019,1019,1108,1105,1105,1105,1105,1105,1105,1105,1105,1105,1105,1105,1105,1105,1105,1105,1105,1105,1105,1105,1101,1101,1101,1105,1105,1105,1105,1105,1105,1105,1105,1105,1108,1108,1108,1108,1108,1108,1108,1108,1105,1105,1105,1105,1105,1108,1108,1105,1105,1108,1108,1108,1108,1108,1108,1108,1108,1108,1112,1112,1112,1112,1112,1112,1112,1108,1108,1108,1108,1108,1108,1108,1108,1108,1108,1108,1108,1108,1105,1105,1105,1105,1105,1105,1105,1105,1105,1105,1105,1101,1101,1101,0,0,0,0,0,0,0,738,736,734,734,733,731,730,728,728,727,723,722,719,717,717,717,717,717,719,719,720,722,723,725,727,730,733,733,734,736,738,738,739,0,0,0,0,0,0,1112,1112,1112,1112,1112,1112,1112,1112,1112,1112,1112,1112,1112,1112,1112,1112,1108,1108,1115,1115,1115,1115,1115,1119,1119,1119,1115,1115,1115,1115,1115,1115,1115,1115,1115,1115,1119,896,896,896,896,896,896,898,898,898,898,898,898,901,903,903,906,906,906,908,910,913,913,915,918,920,925,928,933,935,935,938,940,940,943,946,948,1119,1119,1119,1119,1123,1123,1123,1123,1123,1123,1126,1126,1126,1126,1126,1126,1126,1126,1123,1123,1123,1123,1126,1126,1126,1126,1126,1123,1123,1123,1119,1115,1112,1112,1105,1105,1105,1105,1101,1101,1101,1105,1105,1108,1108,1112,1119,1123,1123,1123,1126,1126,1123,1123,1126,1123,1123,1123,1126,1126,1126,1126,1126,1126,1126,1126,1126,1126,1126,1126,1126,1126,1126,1126,1130,1130,1130,1130,1130,1130,1130,1130,1126,1126,1130,1130,1130,1130,1130,1130,1130,1130,1126,1126,1123,1123,1123,1123,1123,1126,1126,1126,1126,1126,1126,1126,1126,1123,1123,1126,1126,1123,1123,1126,1123,1123,1130,1126,1126,1126,1130,1130,1130,1130,1130,1130,1130,1130,1130,1130,1130,1130,1126,1126,1126,1130,1130,1126,1123,1123,1123,1123,1123,1123,1123,1123,1123,1123,1123,1123,1123,1126,1123,1123,1123,1123,1126,1123,1123,1126,1126,1126,1123,1123,1123,1123,1123,1123,1123,1126,1123,1123,1126,1126,1134,1134,1134,1134,1134,1130,1130,1130,1130,1130,1130,1130,1130,1130,1126,1126,1123,1123,1123,1123,1123,1126,1126,1126,1126,1126,1126,1130,1130,1130,1130,1130,1130,1130,1130,1134,1134,1134,1134,1134,1134,1130,1130,1130,1134,1130,1130,1134,1134,1134,1134,1134,1134,1134,1134,1134,1134,1134,1134,1134,1134,1134,1134,1134,1025,1025,1025,1025,1025,1025,1022,1019,1016,1016,1013,1013,1013,1013,1013,1010,901,898,898,901,901,901,0,0,0,0,0,0,0,0,0,0,0,0,0,0,0,0,0,0,0,0,0,0,0,0,0,0,0,0,0,0,0,0,0,0,0,0
0,0,0,0,0,1105,1101,1101,1097,1097,1094,1094,1094,1097,1097,1097,1097,1097,1097,1094,1090,1090,1090,1090,1090,1090,1090,1094,1094,1094,1090,1090,1094,1094,1094,1094,1094,1094,1094,1090,1090,1090,1090,1090,1087,1087,1087,1087,1090,1090,1090,1090,1090,1090,1090,1090,1090,1090,1090,1090,1090,1087,1087,1090,1090,1090,1090,1090,1090,1090,1090,1090,1094,1090,1090,1094,1094,1094,1090,1090,1090,1090,1094,1094,1097,1094,1094,1097,1094,1094,1094,1097,1097,1097,1094,1094,1094,1094,1097,1097,1097,1097,1097,1097,1097,1097,1001,1001,998,998,1007,1007,1007,1007,1004,1004,1001,1001,1001,1001,1001,1004,1007,1007,1010,1010,1013,1016,1016,1019,1019,1013,1013,1105,1105,1105,1105,1105,1105,1101,1101,1101,1101,1101,1101,1101,1101,1101,1101,1101,1101,1101,1101,1101,1101,1101,1101,1101,1101,1101,1101,1105,1105,1105,1105,1105,1105,1105,1105,1105,1105,1105,1105,1105,1105,1105,1105,1105,1105,1105,1105,1105,1105,1105,1105,1105,1105,1105,1105,1105,1105,1108,1108,1108,1108,1108,1108,1108,1105,1105,1105,1105,1105,1105,1105,1105,1108,1105,1105,1105,1105,1105,1105,1105,1105,1105,1105,1105,1105,1105,1105,1101,1101,1097,1097,0,0,0,0,0,0,0,0,736,734,734,733,731,731,730,728,727,725,723,720,719,719,717,717,719,719,719,722,723,723,725,727,730,733,733,734,738,739,739,741,0,0,0,0,0,0,1108,1108,1108,1108,1108,1108,1108,1108,1108,1108,1108,1108,1108,1108,1108,1108,1108,1108,1108,1108,1108,1112,1112,1112,1115,1115,1115,1112,1112,1112,1115,1115,1115,1112,1112,1115,891,891,894,894,896,894,894,896,896,896,896,896,896,898,898,901,901,903,906,908,913,913,915,915,918,920,923,928,930,935,935,938,938,943,946,1115,1115,1115,1115,1115,1115,1119,1119,1119,1119,1123,1123,1123,1123,1123,1123,1123,1123,1123,1123,1123,1123,1123,1123,1123,1123,1123,1123,1123,1123,1123,1119,1119,1115,1115,1112,1108,1108,1105,1105,1105,1105,1105,1105,1105,1108,1108,1115,1119,1119,1123,1123,1123,1123,1123,1123,1123,1123,1123,1123,1123,1123,1123,1123,1123,1123,1123,1123,1123,1123,1123,1123,1123,1123,1123,1126,1126,1126,1126,1126,1126,1126,1123,1123,1123,1123,1123,1123,1123,1123,1123,1123,1123,1123,1123,1123,1123,1123,1123,1123,1123,1123,1123,1123,1123,1123,1123,1123,1123,1123,1123,1123,1123,1123,1123,1123,1123,1123,1119,1119,1123,1126,1126,1126,1126,1126,1126,1126,1126,1126,1123,1123,1123,1126,1123,1123,1123,1123,1123,1123,1119,1119,1123,1123,1119,1119,1119,1119,1119,1119,1119,1119,1123,1123,1123,1123,1123,1123,1123,1123,1123,1123,1123,1123,1123,1123,1123,1123,1123,1123,1123,1123,1123,1123,1123,1123,1123,1130,1126,1126,1126,1126,1123,1123,1126,1126,1123,1123,1123,1123,1123,1123,1123,1123,1123,1123,1123,1126,1126,1126,1123,1123,1126,1123,1123,1123,1126,1126,1126,1130,1130,1130,1130,1130,1134,1130,1130,1126,1126,1126,1130,1130,1130,1130,1130,1130,1134,1134,1134,1134,1134,1134,1134,1130,1130,1134,1134,1134,1134,1134,1025,1025,1025,1025,1025,1022,1022,1019,1016,1016,1013,1013,1013,1013,1013,1010,901,898,898,901,901,901,0,0,0,0,0,0,0,0,0,0,0,0,0,0,0,0,0,0,0,0,0,0,0,0,0,0,0,0,0,0,0,0,0,0,0,0
0,0,0,0,0,1101,1097,1097,1094,1094,1090,1090,1090,1094,1094,1094,1094,1094,1094,1090,1090,1087,1087,1090,1090,1090,1090,1090,1090,1090,1090,1090,1090,1090,1090,1090,1094,1090,1090,1090,1087,1087,1087,1087,1087,1087,1087,1087,1087,1087,1087,1090,1090,1090,1090,1090,1087,1087,1087,1087,1087,1084,1084,1087,1087,1087,1087,1090,1090,1090,1090,1090,1090,1090,1090,1090,1090,1090,1090,1087,1087,1087,1090,1090,1090,1090,1090,1090,1090,1090,1090,1094,1094,1094,1094,1094,1090,1090,1094,1094,1094,1094,1094,1094,1097,1094,1001,1001,998,998,1004,1007,1007,1007,1007,1004,1001,1001,1001,1001,1001,1004,1007,1010,1010,1013,1013,1016,1016,1019,1019,1013,1013,1105,1105,1101,1101,1101,1101,1101,1101,1101,1101,1101,1101,1101,1101,1097,1097,1101,1101,1101,1101,1101,1101,1101,1101,1101,1101,1101,1101,1097,1097,1101,1101,1101,1101,1101,1101,1101,1101,1101,1101,1101,1101,1101,1101,1101,1101,1101,1101,1101,1105,1105,1105,1105,1105,1105,1105,1105,1105,1105,1105,1105,1105,1105,1105,1105,1105,1105,1105,1105,1105,1105,1105,1105,1105,1105,1105,1105,1105,1105,1105,1101,1101,1105,1101,1101,1101,1101,1101,1101,1097,1094,1090,1090,0,0,0,0,0,0,0,736,734,734,733,731,731,731,730,728,727,723,722,720,720,719,719,719,720,720,722,723,725,727,728,731,733,733,734,738,739,739,741,0,0,0,0,0,0,1108,1108,1108,1105,1105,1105,1105,1105,1105,1105,1105,1105,1105,1105,1105,1105,1105,1105,1108,1108,1108,1105,1105,1108,1112,1112,1112,1108,1108,1112,1112,1112,1115,1112,1112,889,889,889,894,894,894,894,894,894,894,894,894,894,894,896,896,898,901,901,906,906,910,913,915,915,918,920,923,925,930,933,933,935,938,943,1112,1112,1112,1112,1112,1115,1115,1119,1119,1119,1119,1119,1119,1119,1123,1123,1123,1123,1123,1123,1119,1119,1119,1119,1119,1119,1119,1119,1119,1119,1119,1119,1119,1119,1115,1112,1112,1108,1108,1105,1105,1105,1105,1105,1105,1105,1108,1108,1115,1119,1119,1119,1119,1119,1119,1119,1119,1119,1119,1119,1119,1119,1123,1123,1123,1123,1123,1119,1119,1119,1123,1123,1123,1123,1123,1123,1123,1123,1123,1123,1123,1123,1123,1123,1123,1123,1123,1119,1119,1119,1119,1115,1115,1119,1119,1119,1119,1119,1119,1119,1119,1119,1119,1123,1119,1119,1119,1119,1119,1119,1119,1119,1119,1119,1119,1119,1119,1119,1119,1115,1115,1115,1119,1119,1123,1123,1123,1123,1123,1123,1123,1119,1119,1119,1119,1119,1119,1119,1119,1119,1119,1119,1119,1119,1119,1119,1119,1119,1115,1115,1119,1119,1119,1119,1119,1119,1119,1119,1119,1123,1119,1119,1119,1119,1119,1119,1119,1119,1119,1119,1119,1119,1119,1119,1119,1119,1123,1123,1123,1123,1123,1123,1123,1123,1123,1123,1123,1123,1119,1119,1119,1123,1123,1119,1119,1119,1119,1119,1123,1123,1123,1123,1123,1123,1119,1119,1119,1123,1123,1123,1126,1126,1126,1130,1130,1130,1130,1126,1126,1126,1126,1126,1126,1126,1126,1126,1126,1130,1130,1126,1126,1130,1130,1130,1130,1130,1134,1134,1134,1134,1025,1025,1025,1025,1025,1025,1022,1022,1019,1016,1016,1013,1013,1013,943,943,901,901,901,901,901,901,901,0,0,0,0,0,0,0,0,0,0,0,0,0,0,0,0,0,0,0,0,0,0,0,0,0,0,0,0,0,0,0,0,0,0,0,0
0,0,0,0,0,1094,1094,1094,1094,1090,1087,1087,1090,1090,1090,1087,1087,1087,1087,1087,1087,1084,1084,1087,1087,1087,1087,1087,1087,1087,1087,1087,1090,1090,1090,1090,1090,1090,1090,1090,1087,1087,1087,1087,1087,1087,1087,1087,1087,1087,1087,1087,1087,1087,1087,1087,1087,1087,1087,1084,1084,1080,1080,1084,1084,1084,1087,1087,1087,1087,1087,1087,1087,1087,1087,1087,1087,1087,1087,1084,1084,1087,1087,1087,1087,1087,1087,1087,1087,1087,1090,1090,1090,1090,1090,1090,1090,1090,1090,1090,1090,1090,1090,1090,1094,1090,1090,1001,998,998,998,1007,1007,1007,1007,1004,1004,1001,1001,1001,1001,1004,1007,1010,1010,1013,1013,1019,1019,1022,1022,1022,1022,1105,1101,1101,1101,1101,1101,1097,1097,1097,1097,1097,1097,1097,1097,1094,1094,1097,1097,1097,1097,1097,1097,1101,1097,1097,1097,1097,1097,1097,1097,1097,1097,1097,1097,1097,1097,1097,1101,1101,1101,1101,1101,1101,1101,1101,1101,1101,1101,1101,1101,1101,1101,1101,1101,1101,1101,1101,1101,1101,1101,1105,1105,1105,1105,1101,1101,1101,1101,1101,1101,1101,1101,1101,1105,1101,1101,1101,1101,1101,1101,1101,1101,1101,1101,1101,1101,1101,1101,1097,1097,1094,1090,1090,0,0,0,0,0,0,0,736,734,734,733,733,733,731,730,728,727,725,722,720,720,720,720,720,720,720,722,723,727,727,728,731,733,734,734,738,739,739,741,0,0,0,0,0,1105,1105,1105,1105,1105,1101,1101,1101,1101,1101,1101,1101,1105,1105,1105,1105,1105,1105,1105,1105,1105,1105,1105,1105,1105,1105,1105,1105,1105,1105,1108,1108,1108,1112,1112,887,887,887,887,891,891,891,891,891,891,891,891,891,891,894,894,894,898,901,901,906,906,910,913,915,918,918,920,925,925,930,933,933,935,1108,1108,1108,1112,1112,1112,1112,1112,1112,1115,1115,1115,1115,1115,1115,1119,1115,1115,1115,1119,1119,1119,1115,1115,1115,1115,1115,1115,1115,1119,1119,1119,1119,1119,1119,1115,1115,1112,1112,1108,1108,1108,1108,1105,1105,1105,1108,1108,1108,1108,1112,1115,1119,1119,1119,1119,1119,1119,1115,1115,1119,1115,1115,1119,1119,1119,1119,1119,1119,1119,1119,1119,1119,1119,1119,1119,1119,1119,1119,1119,1119,1119,1119,1119,1119,1119,1119,1119,1119,1119,1115,1115,1115,1112,1112,1112,1112,1112,1112,1115,1115,1115,1119,1119,1119,1119,1119,1119,1115,1115,1119,1119,1115,1115,1115,1119,1119,1115,1115,1115,1115,1115,1115,1115,1115,1115,1115,1115,1119,1119,1119,1119,1119,1119,1119,1119,1119,1115,1115,1115,1115,1115,1115,1115,1115,1119,1119,1119,1115,1115,1115,1115,1115,1115,1115,1115,1115,1119,1119,1119,1119,1119,1119,1119,1119,1119,1119,1119,1115,1115,1115,1115,1115,1119,1119,1119,1119,1119,1119,1119,1119,1119,1119,1119,1119,1119,1119,1119,1119,1119,1119,1119,1119,1119,1119,1119,1119,1119,1119,1119,1123,1123,1123,1119,1119,1119,1119,1119,1119,1119,1119,1123,1123,1123,1123,1126,1126,1123,1123,1123,1123,1123,1123,1123,1126,1126,1126,1123,1123,1126,1126,1126,1126,1126,1126,1126,1126,1126,1130,1130,1134,1134,1025,1025,1025,1025,1025,1025,1022,1022,1019,1016,1016,1016,938,938,943,943,901,901,901,901,901,901,901,0,0,0,0,0,0,0,0,0,0,0,0,0,0,0,0,0,0,0,0,0,0,0,0,0,0,0,0,0,0,0,0,0,0,0,0
0,0,0,0,0,1090,1090,1094,1090,1090,1087,1087,1087,1087,1087,1087,1084,1084,1087,1087,1087,1084,1084,1087,1087,1084,1084,1087,1087,1087,1084,1084,1087,1087,1087,1087,1087,1087,1087,1087,1084,1084,1084,1084,1084,1084,1084,1084,1084,1084,1084,1084,1084,1084,1084,1084,1084,1084,1084,1080,1080,1077,1077,1077,1077,1077,1080,1084,1084,1084,1087,1087,1084,1084,1084,1084,1084,1084,1084,1084,1084,1084,1080,1080,1084,1087,1087,1087,1087,1087,1087,1087,1087,1087,1087,1090,1087,1087,1087,1087,1087,1087,1087,1087,1090,1090,1087,1001,998,998,998,1004,1007,1010,1010,1004,1004,1004,1001,1001,1004,1004,1007,1010,1013,1013,1019,1019,1022,1022,1022,1022,1022,1101,1101,1097,1097,1097,1097,1097,1094,1094,1094,1094,1094,1094,1090,1090,1094,1094,1094,1094,1094,1094,1094,1097,1097,1097,1097,1094,1094,1094,1094,1094,1094,1094,1094,1090,1090,1094,1097,1097,1097,1097,1101,1101,1101,1101,1097,1097,1097,1097,1097,1097,1097,1101,1101,1101,1101,1101,1101,1101,1101,1101,1101,1101,1101,1101,1097,1097,1101,1097,1097,1097,1097,1097,1101,1101,1101,1101,1101,1101,1101,1101,1101,1101,1097,1097,1097,1097,1097,1097,1097,1094,1094,0,0,0,0,0,0,0,0,736,734,734,733,733,733,731,731,730,728,727,722,722,720,720,720,720,720,720,722,725,727,728,730,733,733,734,736,738,739,739,741,0,0,0,0,0,1101,1101,1101,1101,1101,1101,1097,1097,1101,1101,1101,1101,1101,1101,1101,1101,1101,1101,1101,1101,1101,1101,1101,1101,1101,1101,1101,1105,1105,1105,1105,1108,1108,882,882,885,885,885,887,889,889,889,889,889,889,889,889,891,891,891,891,894,898,901,903,906,908,910,913,915,918,920,920,925,925,930,933,935,1108,1108,1108,1108,1108,1108,1112,1112,1112,1112,1115,1115,1115,1115,1115,1115,1115,1115,1115,1112,1112,1112,1112,1112,1112,1112,1112,1112,1112,1115,1115,1115,1115,1115,1115,1115,1112,1112,1112,1112,1108,1108,1108,1108,1105,1105,1105,1108,1108,1108,1108,1112,1115,1115,1115,1115,1115,1115,1115,1112,1112,1115,1112,1112,1115,1115,1115,1115,1115,1119,1119,1119,1119,1119,1119,1119,1115,1115,1115,1119,1115,1115,1115,1115,1119,1119,1119,1115,1115,1115,1115,1115,1112,1112,1112,1112,1112,1112,1112,1112,1112,1112,1112,1115,1115,1115,1115,1115,1115,1112,1112,1115,1115,1115,1112,1112,1112,1115,1115,1115,1115,1112,1112,1112,1108,1108,1112,1112,1112,1112,1112,1112,1115,1115,1115,1115,1115,1115,1112,1112,1112,1112,1115,1115,1115,1115,1115,1115,1115,1115,1112,1112,1112,1112,1112,1112,1112,1112,1112,1115,1115,1115,1119,1119,1119,1119,1119,1115,1115,1115,1115,1115,1115,1115,1115,1115,1115,1115,1115,1115,1119,1115,1115,1115,1119,1115,1115,1115,1115,1115,1115,1115,1115,1115,1115,1115,1119,1119,1119,1119,1119,1119,1119,1119,1119,1119,1119,1119,1119,1119,1115,1115,1119,1119,1119,1119,1119,1119,1123,1123,1123,1119,1119,1123,1123,1123,1123,1123,1119,1119,1119,1119,1123,1123,1123,1123,1123,1123,1123,1123,1123,1126,1126,1025,1025,1025,1025,1025,1022,1022,1019,1019,948,946,946,938,938,943,943,898,898,898,898,898,901,901,0,0,0,0,0,0,0,0,0,0,0,0,0,0,0,0,0,0,0,0,0,0,0,0,0,0,0,0,0,0,0,0,0,0,0,0
0,0,0,0,0,1090,1090,1090,1090,1087,1084,1084,1084,1084,1084,1077,1077,1080,1084,1084,1084,1084,1084,1080,1080,1080,1080,1080,1080,1080,1080,1080,1080,1084,1084,1084,1084,1084,1084,1084,1084,1084,1084,1084,1084,1080,1080,1080,1084,1084,1084,1084,1084,1084,1084,1080,1080,1080,1080,1077,1077,1077,1077,1077,1077,1077,1080,1080,1080,1080,1084,1084,1084,1084,1084,1084,1084,1080,1080,1080,1080,1080,1080,1080,1080,1080,1080,1080,1084,1084,1084,1084,1084,1087,1087,1084,1084,1084,1084,1087,1087,1087,1087,1087,1087,1087,1087,1001,1001,1001,1001,1004,1007,1010,1010,1007,1007,1004,1004,1004,1004,1007,1010,1010,1013,1013,1019,1019,1022,1022,1022,1022,1022,1101,1097,1094,1094,1094,1094,1094,1090,1090,1090,1090,1090,1090,1090,1090,1090,1090,1090,1090,1090,1090,1094,1094,1094,1094,1094,1094,1094,1090,1090,1090,1090,1090,1090,1090,1090,1090,1090,1090,1090,1097,1097,1097,1097,1097,1094,1094,1094,1090,1090,1090,1090,1094,1094,1094,1097,1097,1097,1097,1094,1094,1097,1097,1097,1097,1097,1097,1097,1094,1094,1094,1094,1094,1097,1097,1097,1097,1097,1097,1097,1097,1097,1097,1097,1094,1094,1094,1094,1090,1090,1090,1090,1090,0,0,0,0,0,0,0,0,734,734,733,733,733,731,730,730,728,727,723,722,722,720,720,720,722,722,723,725,727,728,730,733,734,734,736,739,739,739,739,0,0,0,0,0,1101,1101,1101,1101,1097,1097,1097,1097,1097,1097,1097,1097,1101,1101,1101,1101,1101,1101,1101,1101,1101,1101,1101,1101,1101,1101,1101,1101,1101,1101,1101,1105,880,880,880,882,882,885,885,887,887,887,889,889,889,889,889,889,889,891,891,894,898,901,903,906,908,910,913,915,918,920,920,925,925,930,935,1105,1105,1105,1105,1105,1108,1108,1108,1108,1108,1108,1108,1108,1108,1108,1108,1112,1112,1112,1112,1112,1112,1108,1108,1108,1108,1108,1108,1108,1108,1108,1112,1112,1112,1115,1115,1115,1112,1112,1108,1108,1108,1108,1108,1108,1108,1105,1105,1108,1108,1108,1108,1108,1112,1112,1112,1112,1112,1112,1112,1108,1108,1108,1108,1108,1112,1112,1112,1115,1115,1115,1115,1115,1115,1115,1115,1115,1112,1112,1112,1112,1112,1112,1112,1112,1112,1112,1112,1115,1112,1112,1112,1112,1108,1108,1108,1108,1108,1112,1112,1112,1112,1112,1112,1112,1112,1112,1112,1115,1112,1112,1112,1112,1112,1112,1112,1112,1112,1112,1112,1112,1112,1112,1108,1108,1108,1108,1108,1108,1108,1108,1108,1108,1108,1108,1108,1115,1115,1115,1112,1112,1112,1112,1112,1112,1112,1112,1115,1115,1112,1112,1112,1108,1108,1108,1108,1108,1108,1112,1112,1112,1115,1115,1115,1115,1119,1115,1115,1115,1115,1115,1112,1112,1112,1112,1115,1115,1112,1112,1112,1112,1115,1115,1115,1115,1115,1115,1112,1112,1112,1112,1112,1112,1112,1112,1115,1115,1115,1115,1115,1115,1119,1119,1119,1115,1115,1115,1115,1115,1115,1115,1115,1115,1115,1119,1115,1115,1115,1115,1115,1115,1119,1115,1115,1115,1115,1115,1123,1123,1115,1115,1119,1119,1119,1119,1123,1123,1123,1123,1123,1123,1123,1126,1123,1025,1025,1022,1022,1022,1022,1019,1019,1019,946,946,946,946,946,946,946,898,898,898,898,898,898,901,0,0,0,0,0,0,0,0,0,0,0,0,0,0,0,0,0,0,0,0,0,0,0,0,0,0,0,0,0,0,0,0,0,0,0,0
0,0,0,0,0,1087,1087,1087,1087,1084,1080,1077,1077,1080,1080,1077,1077,1077,1077,1077,1077,1077,1077,1077,1077,1077,1077,1077,1077,1077,1077,1073,1073,1077,1077,1077,1077,1080,1080,1084,1080,1080,1080,1080,1080,1080,1080,1080,1080,1080,1080,1080,1080,1080,1080,1080,1080,1077,1077,1077,1077,1077,1073,1073,1073,1077,1077,1077,1077,1077,1080,1080,1080,1077,1077,1080,1080,1077,1077,1077,1077,1077,1077,1077,1077,1077,1077,1077,1077,1080,1080,1080,1080,1080,1084,1080,1080,1084,1084,1084,1080,1080,1084,1087,1087,1087,1084,1084,998,998,1001,1007,1007,1010,1010,1007,1007,1007,1004,1004,1004,1007,1010,1010,1013,1013,1019,1019,1022,1022,1022,1022,1022,1097,1094,1090,1090,1090,1090,1090,1090,1090,1090,1087,1087,1087,1087,1087,1087,1087,1087,1090,1090,1090,1090,1090,1090,1090,1090,1090,1090,1090,1087,1087,1087,1087,1087,1087,1087,1087,1087,1087,1087,1087,1087,1090,1090,1094,1094,1090,1090,1090,1090,1090,1090,1090,1090,1090,1094,1094,1094,1094,1090,1090,1090,1094,1094,1090,1090,1094,1094,1090,1090,1090,1090,1094,1094,1094,1094,1094,1094,1094,1094,1094,1094,1094,1094,1094,1094,1094,1090,1090,1090,1090,1087,1087,0,0,0,0,0,0,0,0,734,734,733,733,733,731,730,730,728,727,723,722,722,722,722,722,722,723,725,727,728,728,730,733,734,736,738,739,739,739,739,0,0,0,0,0,1097,1097,1097,1097,1094,1094,1094,1094,1094,1094,1094,1094,1097,1097,1097,1097,1097,1097,1097,1097,1097,1097,1097,1101,1097,1097,1097,1101,1101,1101,878,878,878,878,880,882,882,882,885,885,887,887,887,887,887,887,887,889,889,891,891,894,898,901,903,906,908,910,913,915,918,920,920,925,925,930,1101,1101,1101,1105,1105,1105,1105,1105,1105,1105,1105,1105,1105,1105,1105,1105,1108,1108,1108,1108,1108,1108,1108,1105,1105,1105,1105,1105,1105,1105,1105,1108,1108,1108,1108,1112,1112,1112,1108,1108,1108,1108,1105,1105,1105,1105,1108,1105,1105,1108,1108,1108,1108,1108,1112,1112,1108,1108,1108,1108,1108,1108,1105,1105,1105,1105,1105,1108,1108,1108,1108,1112,1112,1112,1112,1112,1112,1112,1108,1108,1108,1108,1108,1108,1108,1108,1112,1112,1112,1112,1112,1108,1108,1108,1108,1108,1108,1108,1108,1108,1108,1108,1108,1108,1108,1108,1108,1108,1112,1112,1112,1108,1108,1108,1108,1108,1108,1108,1108,1108,1108,1108,1108,1108,1108,1108,1108,1108,1108,1108,1108,1108,1108,1108,1108,1108,1108,1108,1108,1108,1108,1108,1108,1108,1112,1108,1108,1108,1112,1112,1108,1108,1108,1105,1105,1105,1105,1105,1108,1108,1108,1108,1112,1112,1112,1112,1115,1115,1112,1112,1112,1115,1108,1108,1108,1108,1108,1108,1108,1108,1108,1112,1108,1108,1108,1108,1108,1108,1108,1108,1112,1112,1112,1112,1112,1112,1112,1112,1112,1112,1112,1112,1115,1115,1115,1112,1112,1112,1112,1112,1112,1112,1112,1112,1112,1112,1112,1112,1112,1112,1112,1112,1112,1112,1112,1112,1112,1112,1112,1112,1112,1112,1119,1119,1112,1112,1115,1115,1115,1119,1119,1119,1123,1123,1123,1025,1025,1022,1022,1022,1022,1019,1019,946,946,946,946,946,946,946,898,898,898,898,898,898,898,898,0,0,0,0,0,0,0,0,0,0,0,0,0,0,0,0,0,0,0,0,0,0,0,0,0,0,0,0,0,0,0,0,0,0,0,0
0,0,0,0,1084,1084,1084,1084,1084,1080,1077,1077,1077,1080,1077,1077,1073,1073,1073,1073,1077,1073,1073,1073,1077,1077,1077,1077,1077,1077,1077,1073,1073,1077,1077,1077,1077,1077,1077,1077,1077,1077,1077,1077,1077,1077,1077,1077,1077,1077,1077,1077,1077,1077,1077,1077,1077,1077,1077,1073,1073,1073,1073,1073,1073,1073,1073,1073,1077,1077,1077,1077,1077,1077,1077,1077,1077,1077,1077,1077,1077,1077,1077,1077,1077,1077,1077,1077,1077,1077,1073,1073,1077,1077,1080,1077,1077,1077,1077,1080,1080,1077,1077,1080,1080,1080,1084,1080,998,998,1007,1007,1007,1010,1010,1007,1007,1007,1007,1007,1007,1007,1010,1013,1013,1016,1019,1019,1022,1022,1022,1022,1022,1022,1090,1087,1087,1087,1087,1087,1087,1087,1087,1087,1087,1087,1087,1087,1087,1087,1087,1087,1087,1087,1087,1087,1087,1087,1087,1087,1087,1087,1087,1087,1087,1087,1087,1087,1087,1087,1087,1087,1084,1084,1087,1087,1087,1087,1087,1087,1087,1087,1087,1087,1087,1087,1087,1090,1090,1090,1090,1090,1090,1090,1090,1090,1087,1087,1087,1087,1087,1087,1087,1087,1087,1087,1090,1090,1090,1090,1090,1090,1090,1090,1090,1090,1090,1090,1090,1090,1090,1090,1090,1090,1087,1087,0,0,0,0,0,0,0,0,736,734,734,733,733,731,730,730,728,725,723,722,722,722,722,722,722,723,725,727,728,728,730,733,734,738,738,739,739,739,739,0,0,0,0,0,1094,1094,1094,1094,1094,1090,1090,1090,1090,1090,1090,1090,1094,1094,1094,1094,1094,1094,1094,1094,1094,1094,1094,1097,1097,1097,1097,1097,1097,875,875,878,878,878,878,878,880,882,882,882,885,885,885,885,885,885,887,887,889,891,891,894,898,901,903,906,908,910,913,918,920,920,923,925,925,1097,1097,1097,1097,1101,1101,1101,1105,1105,1105,1105,1105,1105,1105,1105,1105,1105,1105,1105,1105,1105,1105,1105,1105,1105,1105,1105,1105,1105,1105,1101,1101,1105,1105,1105,1108,1108,1108,1108,1105,1105,1105,1105,1105,1105,1105,1105,1108,1105,1105,1108,1105,1105,1105,1105,1108,1108,1108,1108,1108,1105,1105,1105,1105,1101,1101,1101,1101,1105,1105,1105,1105,1108,1108,1108,1108,1108,1108,1108,1108,1108,1108,1105,1105,1105,1105,1105,1105,1105,1108,1108,1108,1108,1108,1108,1105,1105,1105,1105,1105,1108,1108,1108,1108,1108,1108,1108,1108,1108,1108,1108,1108,1108,1108,1108,1105,1105,1105,1105,1105,1105,1105,1105,1105,1105,1108,1105,1105,1105,1105,1105,1105,1105,1105,1108,1108,1108,1108,1105,1105,1105,1105,1108,1108,1108,1108,1108,1108,1108,1108,1108,1108,1105,1105,1105,1105,1105,1105,1105,1105,1105,1105,1108,1108,1108,1108,1108,1108,1108,1108,1108,1108,1108,1108,1105,1105,1108,1108,1108,1108,1108,1108,1108,1105,1105,1108,1108,1108,1105,1105,1108,1108,1108,1112,1108,1108,1108,1108,1108,1108,1108,1108,1112,1112,1112,1112,1112,1112,1108,1108,1108,1108,1108,1108,1108,1108,1108,1108,1108,1108,1108,1108,1108,1108,1108,1108,1108,1108,1108,1108,1108,1108,1108,1108,1108,1108,1108,1112,1112,1112,1112,1112,1115,1119,1123,1123,1025,1025,1022,1022,1022,1022,943,943,943,943,946,943,943,946,896,896,898,898,898,898,898,898,898,0,0,0,0,0,0,0,0,0,0,0,0,0,0,0,0,0,0,0,0,0,0,0,0,0,0,0,0,0,0,0,0,0,0,0,0
0,0,0,0,1080,1080,1080,1080,1080,1080,1077,1077,1077,1077,1077,1073,1073,1073,1073,1073,1073,1073,1073,1073,1073,1073,1073,1073,1073,1073,1073,1073,1073,1073,1073,1073,1073,1073,1073,1077,1077,1077,1077,1077,1077,1077,1073,1073,1073,1073,1073,1073,1073,1073,1073,1073,1073,1073,1073,1073,1073,1073,1070,1070,1070,1070,1070,1070,1073,1073,1073,1073,1073,1073,1073,1073,1073,1073,1073,1073,1073,1073,1077,1077,1077,1077,1073,1073,1073,1073,1073,1073,1073,1073,1073,1073,1073,1073,1073,1077,1077,1077,1077,1080,1080,1077,1077,1077,1077,1077,1077,1010,1010,1013,1013,1010,1010,1007,1007,1007,1007,1010,1010,1013,1013,1016,1019,1022,1022,1022,1022,1022,1022,1022,1087,1087,1087,1084,1084,1084,1084,1084,1084,1084,1084,1084,1084,1084,1084,1084,1084,1084,1084,1084,1084,1084,1084,1084,1084,1084,1084,1084,1084,1084,1084,1084,1084,1084,1084,1084,1084,1084,1084,1084,1084,1084,1084,1084,1084,1084,1084,1084,1084,1087,1087,1084,1084,1087,1090,1090,1087,1087,1087,1087,1087,1087,1084,1084,1084,1084,1084,1084,1084,1084,1084,1084,1087,1087,1087,1087,1087,1087,1087,1087,1087,1087,1087,1087,1087,1087,1087,1087,1087,1087,1087,1087,0,0,0,0,0,0,0,0,738,736,734,734,733,733,731,730,728,725,723,722,722,722,722,722,723,723,725,727,728,730,731,734,736,738,739,739,739,739,739,739,0,0,0,0,1094,1094,1094,1094,1090,1090,1090,1090,1090,1090,1090,1090,1090,1090,1090,1094,1094,1094,1094,1090,1090,1094,1094,1094,1094,1094,1094,1097,875,875,875,878,878,878,878,878,878,880,880,880,882,882,882,882,882,885,887,887,889,891,891,894,898,901,903,906,908,910,915,918,920,920,923,925,925,1097,1097,1097,1097,1097,1097,1101,1101,1101,1101,1101,1101,1101,1101,1097,1097,1097,1101,1101,1101,1101,1105,1105,1105,1105,1105,1101,1101,1101,1101,1101,1101,1101,1101,1101,1101,1101,1105,1105,1105,1105,1105,1105,1105,1105,1105,1105,1105,1105,1105,1105,1105,1105,1105,1105,1105,1108,1105,1105,1105,1105,1105,1101,1101,1097,1097,1101,1101,1101,1105,1101,1101,1105,1105,1105,1105,1105,1105,1105,1105,1105,1105,1105,1105,1105,1105,1105,1105,1105,1101,1101,1101,1105,1105,1105,1105,1105,1105,1105,1105,1105,1105,1105,1105,1105,1105,1105,1105,1105,1105,1105,1105,1105,1105,1105,1105,1105,1101,1101,1105,1101,1101,1101,1101,1101,1105,1101,1101,1101,1105,1105,1105,1105,1105,1105,1105,1105,1105,1105,1105,1105,1105,1105,1105,1105,1105,1108,1105,1105,1105,1105,1105,1105,1105,1105,1101,1101,1101,1101,1101,1101,1101,1105,1105,1105,1105,1105,1101,1101,1105,1105,1105,1105,1105,1101,1101,1108,1108,1105,1105,1105,1105,1105,1105,1105,1105,1105,1105,1105,1105,1108,1108,1108,1108,1108,1108,1108,1108,1108,1108,1108,1108,1108,1108,1108,1108,1108,1108,1108,1108,1108,1108,1108,1105,1105,1105,1105,1108,1108,1108,1108,1108,1108,1108,1108,1105,1105,1105,1105,1108,1105,1105,1108,1108,1108,1108,1108,1108,1108,1108,1108,1108,1108,1108,1115,1115,1025,1025,1022,1022,1022,946,943,943,943,943,943,943,943,946,896,896,898,898,898,898,898,898,898,0,0,0,0,0,0,0,0,0,0,0,0,0,0,0,0,0,0,0,0,0,0,0,0,0,0,0,0,0,0,0,0,0,0,0,0
0,0,0,0,1077,1077,1077,1077,1080,1077,1077,1073,1073,1077,1073,1073,1070,1070,1070,1073,1073,1070,1070,1073,1073,1073,1073,1073,1073,1073,1073,1063,1063,1070,1073,1070,1070,1073,1073,1073,1073,1073,1073,1073,1073,1073,1073,1070,1067,1067,1067,1070,1070,1070,1070,1070,1070,1073,1070,1070,1070,1067,1067,1063,1063,1067,1067,1067,1070,1070,1070,1070,1070,1070,1070,1070,1070,1070,1070,1070,1070,1070,1073,1070,1070,1073,1073,1070,1070,1070,1070,1070,1070,1070,1070,1070,1070,1070,1070,1073,1073,1073,1073,1077,1077,1077,1073,1073,1073,1073,1070,1070,1019,1016,1013,1010,1010,1010,1007,1007,1007,1010,1010,1013,1013,1016,1019,1022,1022,1022,1022,1025,1025,1025,1087,1087,1087,1084,1084,1084,1080,1080,1080,1077,1077,1080,1080,1080,1080,1080,1080,1080,1080,1080,1080,1080,1080,1080,1080,1080,1080,1080,1080,1080,1080,1080,1084,1084,1084,1084,1080,1080,1080,1080,1080,1080,1080,1080,1080,1080,1080,1080,1080,1080,1080,1080,1080,1084,1087,1087,1087,1087,1087,1087,1084,1084,1084,1080,1080,1080,1080,1080,1084,1084,1080,1080,1084,1084,1084,1087,1087,1087,1087,1087,1084,1084,1084,1084,1087,1087,1084,1084,1084,1087,1084,1084,0,0,0,0,0,0,0,0,739,738,738,736,736,734,731,730,728,727,725,723,722,722,722,722,723,723,725,728,730,731,734,736,736,738,739,739,741,739,739,739,0,0,0,0,1090,1090,1090,1090,1090,1090,1090,1090,1090,1090,1090,1090,1090,1090,1090,1090,1090,1090,1090,1090,1090,1090,1090,1090,1094,1094,1094,1097,873,873,873,875,878,875,875,875,878,878,878,880,880,880,880,882,882,882,887,887,887,889,891,894,898,901,903,906,908,913,915,918,920,920,923,925,1097,1097,1097,1094,1094,1094,1097,1097,1097,1097,1097,1097,1097,1097,1097,1097,1097,1097,1097,1097,1097,1101,1101,1101,1101,1101,1101,1101,1097,1097,1097,1097,1097,1097,1094,1094,1094,1094,1094,1097,1097,1101,1101,1101,1101,1101,1101,1105,1105,1105,1105,1101,1101,1101,1097,1097,1097,1101,1101,1101,1101,1101,1101,1101,1097,1097,1097,1097,1097,1101,1101,1097,1097,1101,1101,1101,1101,1101,1101,1101,1101,1101,1101,1101,1101,1101,1101,1101,1101,1101,1097,1097,1097,1097,1097,1097,1105,1101,1101,1105,1105,1105,1105,1105,1105,1105,1105,1101,1101,1105,1105,1101,1101,1101,1101,1101,1101,1101,1101,1101,1101,1101,1101,1101,1101,1101,1101,1101,1101,1101,1101,1101,1101,1101,1101,1101,1101,1105,1101,1101,1101,1101,1101,1097,1097,1097,1097,1097,1101,1105,1105,1105,1105,1105,1105,1101,1101,1097,1097,1101,1101,1101,1101,1101,1101,1105,1101,1101,1097,1097,1097,1097,1097,1097,1105,1101,1101,1105,1105,1105,1105,1105,1105,1105,1101,1101,1105,1101,1101,1101,1101,1105,1105,1105,1105,1105,1105,1105,1105,1105,1105,1105,1105,1105,1105,1105,1105,1105,1105,1105,1105,1108,1105,1105,1105,1105,1101,1101,1105,1105,1105,1105,1108,1108,1108,1108,1105,1101,1101,1105,1105,1105,1105,1105,1105,1105,1105,1105,1105,1105,1108,1108,1108,1108,1108,1108,1108,1112,1025,951,951,948,946,946,943,943,943,943,943,943,946,896,896,898,898,896,896,896,898,898,0,0,0,0,0,0,0,0,0,0,0,0,0,0,0,0,0,0,0,0,0,0,0,0,0,0,0,0,0,0,0,0,0,0,0,0
0,0,0,0,1077,1077,1077,1077,1077,1077,1073,1073,1073,1073,1073,1070,1067,1067,1070,1070,1070,1067,1067,1070,1070,1070,1070,1073,1073,1070,1063,1063,1063,1063,1063,1063,1063,1067,1067,1070,1070,1073,1073,1073,1073,1070,1067,1067,1063,1063,1063,1067,1067,1067,1067,1067,1067,1070,1067,1067,1067,1063,1063,1060,1060,1063,1063,1067,1067,1067,1067,1067,1067,1067,1067,1067,1067,1067,1067,1067,1067,1067,1067,1067,1067,1067,1070,1067,1067,1067,1067,1067,1067,1067,1067,1067,1067,1067,1067,1067,1070,1073,1073,1073,1073,1073,1070,1070,1070,1070,1070,1070,1022,1019,1016,1013,1010,1010,1010,1007,1007,1010,1010,1010,1013,1013,1016,1019,1022,1022,1025,1025,1025,1025,1087,1087,1084,1080,1080,1080,1080,1080,1077,1077,1077,1077,1077,1077,1077,1077,1077,1077,1077,1077,1077,1077,1077,1077,1077,1077,1077,1077,1077,1077,1077,1080,1080,1080,1080,1080,1080,1080,1077,1077,1077,1077,1077,1077,1077,1077,1077,1077,1080,1080,1080,1080,1080,1080,1080,1084,1084,1087,1084,1084,1084,1080,1080,1080,1080,1077,1077,1080,1080,1080,1080,1080,1080,1080,1084,1084,1084,1084,1084,1084,1084,1084,1080,1080,1084,1084,1080,1080,1080,1084,1084,1084,0,0,0,0,0,0,0,0,739,738,738,738,736,734,733,731,728,727,725,723,723,723,723,723,723,725,727,728,731,731,734,736,736,739,739,739,741,741,741,741,0,0,0,0,1090,1090,1087,1087,1087,1087,1087,1087,1087,1087,1087,1087,1087,1087,1087,1087,1087,1087,1087,1090,1090,1090,1090,1090,1094,1094,1094,869,869,869,869,871,873,873,871,871,873,873,875,878,878,878,880,880,880,882,885,887,887,889,891,894,898,903,903,906,908,913,913,918,920,923,923,1094,1094,1094,1094,1094,1094,1094,1094,1094,1094,1094,1094,1094,1094,1094,1094,1094,1094,1094,1094,1094,1094,1094,1097,1097,1097,1097,1097,1097,1094,1094,1094,1094,1094,1094,1090,1090,1090,1090,1094,1094,1094,1094,1094,1094,1097,1097,1097,1101,1101,1097,1097,1097,1094,1094,1094,1094,1094,1094,1097,1097,1097,1097,1097,1097,1097,1094,1094,1094,1094,1097,1097,1097,1097,1097,1097,1097,1101,1101,1101,1101,1101,1101,1101,1097,1097,1097,1097,1097,1097,1097,1097,1097,1094,1094,1094,1094,1094,1097,1101,1105,1101,1101,1101,1101,1101,1101,1101,1097,1097,1097,1097,1097,1097,1097,1097,1097,1097,1097,1094,1094,1094,1094,1094,1094,1094,1094,1097,1097,1097,1097,1101,1101,1101,1101,1101,1101,1101,1101,1101,1097,1097,1097,1094,1094,1097,1097,1097,1097,1097,1097,1097,1101,1101,1101,1101,1101,1097,1097,1097,1097,1097,1097,1097,1097,1101,1101,1097,1097,1097,1097,1097,1097,1094,1094,1094,1094,1097,1101,1097,1097,1097,1097,1097,1097,1097,1097,1101,1101,1101,1101,1101,1105,1105,1105,1105,1105,1105,1101,1101,1101,1101,1101,1101,1101,1101,1105,1101,1101,1101,1105,1105,1105,1105,1105,1105,1101,1101,1101,1101,1101,1105,1105,1105,1105,1105,1105,1105,1097,1097,1105,1105,1101,1101,1105,1105,1105,1105,1105,1101,1101,1105,1105,1105,1105,1105,1108,1108,1108,1108,951,951,948,946,946,946,946,943,943,943,943,946,896,896,898,898,896,896,896,898,898,0,0,0,0,0,0,0,0,0,0,0,0,0,0,0,0,0,0,0,0,0,0,0,0,0,0,0,0,0,0,0,0,0,0,0,0
0,0,0,0,1073,1073,1073,1073,1073,1077,1073,1073,1073,1070,1070,1070,1067,1067,1067,1067,1063,1063,1063,1063,1067,1067,1067,1067,1070,1063,1063,1063,1060,1060,1063,1063,1063,1063,1060,1060,1063,1067,1067,1067,1067,1067,1067,1063,1060,1060,1063,1063,1063,1063,1063,1067,1067,1063,1063,1063,1063,1063,1060,1060,1060,1063,1063,1063,1063,1063,1063,1063,1063,1063,1063,1063,1063,1063,1063,1063,1063,1063,1063,1063,1063,1063,1067,1067,1067,1067,1063,1063,1063,1063,1063,1063,1063,1063,1063,1067,1067,1067,1067,1067,1067,1070,1067,1067,1067,1067,1067,1025,1022,1019,1019,1013,1010,1010,1010,1010,1010,1010,1010,1010,1013,1013,1016,1019,1022,1022,1025,1025,1025,1025,1087,1084,1080,1077,1077,1080,1077,1077,1077,1073,1073,1077,1077,1073,1073,1073,1073,1073,1077,1073,1073,1073,1073,1073,1073,1073,1073,1073,1073,1073,1077,1077,1077,1077,1077,1077,1077,1077,1077,1077,1077,1077,1077,1077,1077,1077,1077,1077,1077,1077,1077,1077,1077,1077,1077,1080,1077,1077,1080,1080,1080,1080,1077,1077,1077,1077,1077,1077,1080,1080,1080,1080,1080,1080,1080,1080,1080,1080,1084,1080,1080,1080,1080,1080,1080,1080,1077,1077,1077,1080,1080,1080,0,0,0,0,0,0,0,0,739,739,739,739,738,734,733,731,728,727,725,725,723,723,723,723,723,725,727,728,731,733,734,736,738,739,741,741,741,741,741,741,0,0,0,0,0,1090,1087,1087,1087,1087,1087,1087,1087,1087,1087,1087,1087,1087,1087,1087,1087,1087,1087,1087,1090,1090,1090,1090,867,867,867,867,867,867,867,867,869,869,869,869,869,871,873,875,878,878,878,878,880,880,885,887,887,889,891,896,901,903,906,908,908,913,913,918,920,920,1094,1094,1094,1094,1094,1094,1094,1094,1094,1094,1094,1094,1094,1094,1090,1090,1090,1090,1090,1090,1090,1090,1090,1094,1094,1094,1094,1094,1094,1094,1094,1094,1090,1090,1090,1090,1090,1090,1090,1090,1090,1090,1090,1090,1090,1090,1090,1094,1094,1094,1094,1094,1094,1094,1090,1090,1090,1090,1090,1090,1094,1094,1094,1094,1097,1094,1094,1094,1094,1094,1094,1094,1094,1094,1094,1094,1094,1094,1094,1097,1097,1097,1097,1097,1097,1094,1094,1094,1094,1094,1094,1094,1094,1094,1094,1094,1094,1094,1094,1094,1094,1094,1094,1097,1097,1097,1097,1097,1094,1094,1094,1094,1094,1094,1094,1094,1094,1094,1094,1094,1094,1094,1094,1094,1094,1094,1094,1094,1094,1094,1094,1094,1097,1097,1097,1097,1097,1097,1097,1097,1097,1097,1094,1094,1094,1094,1094,1094,1094,1094,1094,1094,1094,1094,1094,1094,1094,1097,1094,1094,1094,1094,1094,1094,1097,1097,1097,1097,1097,1094,1094,1094,1094,1094,1094,1094,1094,1094,1094,1094,1094,1094,1094,1094,1094,1094,1094,1094,1094,1094,1097,1097,1097,1101,1101,1101,1101,1101,1097,1094,1094,1097,1097,1097,1097,1097,1097,1101,1101,1101,1101,1105,1105,1105,1101,1101,1101,1101,1101,1101,1101,1101,1101,1101,1101,1105,1105,1101,1097,1097,1097,1101,1101,1101,1101,1101,1101,1101,1101,1101,1101,1101,1101,1101,1101,1101,1101,1105,1105,951,951,951,951,948,948,946,946,946,946,946,943,943,896,896,896,898,898,896,896,896,896,896,0,0,0,0,0,0,0,0,0,0,0,0,0,0,0,0,0,0,0,0,0,0,0,0,0,0,0,0,0,0,0,0,0,0,0,0
0,0,0,0,1073,1073,1073,1070,1070,1073,1073,1073,1070,1070,1067,1067,1067,1067,1067,1063,1063,1063,1060,1060,1063,1063,1063,1067,1067,1063,1063,1063,1060,1060,1060,1060,1060,1060,1060,1060,1060,1060,1060,1060,1060,1063,1063,1063,1060,1060,1060,1063,1063,1063,1063,1063,1063,1063,1063,1063,1063,1060,1060,1060,1060,1060,1063,1063,1063,1063,1063,1063,1063,1063,1063,1063,1063,1063,1063,1063,1063,1063,1063,1063,1063,1063,1063,1063,1063,1063,1063,1063,1063,1063,1060,1060,1063,1063,1063,1063,1063,1067,1067,1067,1067,1067,1067,1067,1067,1063,1063,1025,1025,1022,1019,1019,1013,1010,1010,1010,1010,1010,1010,1010,1013,1013,1016,1019,1022,1022,1025,1025,1025,1025,1087,1084,1077,1073,1073,1073,1077,1073,1073,1070,1070,1073,1073,1073,1073,1073,1073,1073,1073,1073,1070,1070,1070,1070,1070,1073,1073,1073,1073,1073,1073,1073,1073,1077,1077,1077,1077,1077,1077,1073,1073,1073,1073,1073,1073,1073,1073,1073,1073,1073,1077,1073,1073,1073,1073,1077,1077,1077,1077,1077,1077,1077,1077,1077,1077,1077,1077,1077,1077,1077,1077,1077,1077,1077,1077,1077,1077,1077,1080,1080,1080,1080,1077,1077,1077,1077,1077,1077,1077,1077,1077,1077,0,0,0,0,0,0,0,741,741,741,741,739,739,736,734,731,728,728,727,725,725,725,725,723,723,725,727,728,731,733,734,736,738,739,741,741,742,742,742,742,0,0,0,0,1090,1090,1087,1087,1087,1084,1084,1084,1084,1084,1084,1084,1084,1084,1084,1084,1084,1084,1087,1087,1090,1090,1090,1090,864,862,862,862,862,864,864,864,864,864,864,867,867,867,869,871,875,878,878,878,880,880,885,887,887,889,891,896,903,903,906,908,908,910,913,915,920,1087,1087,1087,1090,1090,1090,1094,1094,1094,1094,1094,1094,1094,1090,1090,1090,1090,1090,1090,1090,1090,1090,1090,1090,1090,1090,1087,1087,1087,1090,1090,1090,1090,1090,1090,1090,1087,1087,1087,1087,1087,1087,1087,1087,1087,1087,1090,1087,1087,1084,1084,1090,1090,1090,1090,1090,1090,1090,1090,1090,1090,1090,1094,1094,1094,1094,1094,1094,1090,1090,1094,1094,1090,1090,1090,1090,1090,1090,1090,1090,1094,1094,1094,1097,1097,1094,1094,1094,1094,1094,1090,1090,1090,1090,1090,1090,1090,1090,1090,1090,1094,1094,1094,1094,1094,1094,1094,1094,1094,1094,1094,1094,1094,1094,1094,1094,1094,1094,1094,1090,1090,1090,1090,1090,1090,1090,1090,1090,1090,1090,1090,1090,1090,1090,1094,1094,1094,1094,1097,1097,1097,1094,1094,1094,1094,1094,1094,1094,1094,1094,1094,1094,1090,1090,1090,1090,1090,1090,1090,1090,1090,1090,1090,1094,1094,1094,1094,1094,1094,1094,1094,1094,1094,1094,1090,1090,1090,1090,1090,1090,1090,1090,1094,1094,1090,1090,1094,1094,1094,1094,1094,1094,1094,1094,1094,1094,1094,1094,1097,1094,1094,1094,1094,1094,1094,1094,1094,1094,1094,1097,1097,1094,1094,1094,1097,1101,1101,1097,1097,1097,1097,1097,1097,1101,1101,1101,1101,1101,1097,1094,1094,1097,1097,1097,1097,1097,1097,1097,1101,1101,1101,1101,1101,1101,1101,1101,1101,1101,1105,959,951,951,951,951,948,948,946,946,946,946,946,943,943,896,896,896,898,898,896,896,896,896,896,0,0,0,0,0,0,0,0,0,0,0,0,0,0,0,0,0,0,0,0,0,0,0,0,0,0,0,0,0,0,0,0,0,0,0,0
0,0,0,0,1070,1070,1070,1070,1070,1070,1070,1070,1067,1063,1063,1063,1063,1063,1063,1063,1060,1060,1060,1060,1060,1060,1060,1063,1067,1063,1063,1063,1063,1060,1057,1057,1057,1057,1057,1057,1057,1054,1050,1050,1057,1060,1060,1057,1057,1060,1060,1060,1060,1060,1060,1060,1063,1060,1060,1060,1060,1060,1057,1057,1060,1060,1060,1060,1060,1060,1063,1060,1060,1060,1060,1060,1060,1060,1060,1060,1060,1060,1060,1060,1060,1060,1063,1063,1063,1063,1063,1060,1060,1060,1060,1060,1060,1060,1060,1063,1063,1063,1063,1063,1063,1063,1063,1063,1063,1063,1060,1025,1025,1022,1019,1019,1016,1013,1010,1010,1010,1010,1013,1013,1013,1016,1019,1022,1022,1025,1025,1025,1025,1025,1063,1063,1067,1067,1067,1067,1073,1070,1070,1067,1067,1070,1070,1070,1070,1070,1070,1070,1070,1070,1070,1067,1067,1067,1070,1070,1070,1070,1070,1070,1070,1070,1070,1070,1070,1070,1073,1073,1073,1073,1073,1073,1073,1073,1073,1073,1073,1073,1073,1073,1073,1070,1070,1067,1067,1070,1073,1073,1073,1077,1073,1073,1073,1073,1073,1073,1073,1073,1073,1073,1073,1077,1077,1073,1073,1073,1073,1073,1073,1077,1077,1077,1077,1077,1077,1077,1073,1073,1073,1073,1073,1070,1070,0,0,0,0,0,0,741,741,741,741,741,739,738,736,733,728,728,727,727,725,725,725,725,725,725,727,730,733,733,736,738,738,739,741,742,742,742,744,746,0,0,0,0,1090,1087,1084,1084,1084,1080,1080,1080,1077,1077,1080,1080,1080,1080,1080,1080,1084,1084,1087,1087,1090,1090,1090,862,862,862,862,862,862,862,862,862,862,862,862,862,862,864,869,869,873,875,878,878,880,880,885,887,887,891,894,898,901,903,906,908,908,910,913,915,1080,1080,1080,1084,1084,1087,1087,1090,1090,1090,1090,1090,1090,1090,1090,1087,1087,1087,1087,1087,1087,1087,1087,1087,1084,1084,1084,1084,1084,1084,1087,1087,1087,1087,1087,1087,1087,1087,1084,1084,1084,1084,1084,1084,1084,1084,1084,1084,1084,1084,1084,1084,1084,1084,1084,1087,1087,1087,1087,1087,1087,1087,1087,1087,1087,1090,1090,1090,1090,1090,1090,1090,1090,1090,1090,1090,1090,1090,1090,1090,1090,1090,1090,1090,1090,1090,1090,1090,1090,1090,1090,1090,1090,1090,1090,1090,1090,1090,1090,1090,1090,1090,1090,1090,1090,1090,1090,1090,1090,1090,1090,1090,1090,1090,1090,1090,1090,1090,1090,1090,1087,1087,1087,1087,1090,1090,1087,1087,1087,1087,1087,1087,1087,1087,1087,1087,1087,1090,1090,1094,1094,1094,1094,1094,1094,1094,1090,1090,1090,1090,1090,1090,1090,1090,1090,1090,1090,1087,1087,1087,1087,1087,1090,1090,1090,1090,1087,1087,1090,1090,1090,1090,1090,1090,1090,1090,1090,1090,1090,1090,1090,1090,1090,1090,1090,1090,1090,1090,1090,1090,1094,1094,1090,1090,1094,1090,1090,1090,1090,1090,1090,1090,1090,1094,1094,1094,1094,1090,1090,1090,1090,1094,1094,1094,1094,1094,1094,1094,1094,1094,1094,1094,1094,1094,1097,1097,1097,1097,1097,1097,1094,1094,1094,1094,1094,1094,1094,1094,1094,1094,1097,1097,1097,1097,1101,1101,1105,1101,1101,1105,959,956,956,954,954,951,948,946,946,946,946,946,946,898,898,898,898,898,898,896,896,896,896,896,0,0,0,0,0,0,0,0,0,0,0,0,0,0,0,0,0,0,0,0,0,0,0,0,0,0,0,0,0,0,0,0,0,0,0,0
0,0,0,0,1067,1067,1067,1067,1067,1063,1063,1063,1063,1063,1060,1060,1063,1063,1063,1060,1060,1057,1057,1057,1057,1057,1057,1060,1060,1060,1060,1060,1057,1057,1057,1054,1054,1050,1050,1050,1050,1054,1050,1050,1050,1054,1057,1057,1057,1057,1057,1057,1057,1060,1060,1060,1060,1060,1060,1060,1060,1060,1057,1057,1057,1057,1060,1060,1060,1060,1060,1060,1060,1060,1057,1057,1060,1057,1057,1057,1060,1060,1057,1057,1057,1057,1060,1060,1060,1060,1060,1060,1060,1060,1060,1060,1060,1060,1060,1060,1060,1063,1063,1063,1063,1063,1063,1063,1060,1060,1057,1025,1025,1022,1022,1019,1016,1013,1013,1013,1013,1013,1013,1013,1016,1016,1019,1022,1025,1025,1028,1028,1028,1028,1063,1063,1063,1063,1063,1063,1067,1067,1067,1063,1063,1067,1067,1067,1067,1067,1067,1067,1067,1067,1067,1067,1067,1067,1067,1067,1067,1067,1067,1067,1067,1067,1067,1067,1067,1067,1067,1067,1067,1067,1067,1070,1070,1070,1070,1070,1070,1070,1070,1070,1070,1070,1070,1067,1067,1067,1067,1070,1070,1070,1073,1073,1070,1070,1070,1070,1070,1070,1070,1073,1073,1073,1073,1073,1073,1070,1070,1070,1070,1070,1073,1073,1073,1073,1073,1073,1073,1073,1073,1073,1070,1067,1067,0,0,0,0,0,0,742,741,741,741,741,739,738,736,733,731,728,727,727,727,727,727,727,727,727,727,730,734,736,738,738,739,741,742,742,744,744,744,746,0,0,0,0,0,1087,1080,1077,1077,1077,1077,1077,1073,1073,1073,1077,1077,1077,1077,1077,1080,1080,1080,1087,1090,1090,860,860,862,860,860,860,860,860,860,860,860,860,862,862,862,862,867,869,871,873,878,878,880,882,885,887,889,891,894,898,901,901,906,908,908,1077,1077,1077,1077,1077,1077,1080,1080,1084,1087,1087,1087,1087,1087,1087,1087,1087,1084,1084,1084,1084,1084,1084,1087,1084,1084,1084,1080,1080,1080,1080,1080,1080,1080,1084,1084,1084,1084,1084,1084,1084,1084,1080,1080,1080,1080,1080,1080,1080,1080,1080,1080,1080,1080,1080,1080,1080,1080,1080,1080,1084,1084,1084,1084,1084,1084,1084,1084,1087,1087,1090,1090,1087,1087,1087,1090,1087,1087,1087,1087,1087,1087,1084,1084,1087,1087,1087,1087,1087,1087,1090,1090,1090,1090,1090,1090,1090,1090,1090,1090,1090,1090,1090,1090,1087,1084,1084,1084,1084,1084,1084,1084,1084,1084,1087,1090,1090,1090,1090,1090,1087,1087,1087,1087,1087,1087,1087,1087,1087,1087,1087,1087,1087,1084,1084,1084,1084,1084,1084,1084,1084,1087,1090,1090,1090,1090,1090,1090,1090,1090,1084,1084,1090,1087,1087,1087,1084,1084,1087,1087,1084,1084,1084,1084,1084,1084,1087,1087,1087,1084,1084,1087,1087,1087,1087,1090,1090,1090,1090,1090,1090,1087,1087,1087,1087,1087,1087,1090,1090,1090,1090,1090,1090,1090,1090,1090,1090,1090,1090,1090,1090,1090,1087,1087,1090,1090,1090,1090,1090,1090,1090,1090,1090,1090,1090,1090,1090,1090,1090,1094,1094,1094,1094,1094,1094,1090,1090,1094,1094,1094,1094,1094,1094,1094,1094,1094,1090,1090,1094,1094,1090,1090,1094,1094,1094,1094,1094,1101,1101,1105,1101,1101,959,959,956,956,954,954,954,951,948,948,948,946,946,946,898,898,898,898,898,898,896,896,896,896,896,0,0,0,0,0,0,0,0,0,0,0,0,0,0,0,0,0,0,0,0,0,0,0,0,0,0,0,0,0,0,0,0,0,0,0,0
0,0,0,0,1063,1063,1067,1063,1063,1063,1063,1063,1063,1060,1060,1060,1060,1060,1060,1060,1060,1057,1057,1057,1057,1057,1057,1057,1057,1057,1057,1054,1054,1057,1054,1054,1054,1050,1050,1050,1050,1050,1050,1050,1050,1054,1054,1054,1054,1054,1054,1054,1054,1054,1054,1054,1057,1057,1057,1057,1057,1057,1054,1054,1054,1057,1057,1057,1057,1057,1057,1057,1057,1057,1057,1057,1057,1054,1054,1057,1057,1057,1057,1057,1057,1057,1057,1057,1057,1057,1057,1057,1057,1057,1057,1060,1060,1060,1060,1060,1060,1060,1060,1060,1060,1060,1060,1060,1060,1057,1054,1025,1025,1022,1022,1019,1016,1013,1013,1013,1013,1013,1013,1013,1016,1019,1022,1025,1025,1025,1028,1028,1028,1028,1038,1050,1060,1060,1060,1060,1063,1063,1063,1063,1063,1063,1067,1063,1063,1063,1063,1063,1063,1063,1063,1063,1063,1063,1063,1063,1063,1063,1063,1063,1063,1063,1063,1063,1063,1063,1063,1063,1067,1063,1063,1063,1063,1063,1067,1067,1067,1067,1067,1067,1067,1067,1063,1063,1063,1063,1067,1067,1067,1067,1070,1070,1067,1067,1067,1067,1067,1067,1067,1067,1067,1070,1070,1070,1067,1067,1067,1067,1067,1067,1067,1070,1073,1073,1073,1073,1073,1070,1070,1070,1063,1063,1063,0,0,0,0,0,0,746,742,742,741,741,739,739,738,734,733,728,728,727,727,727,727,727,727,727,728,730,734,736,738,739,739,741,742,744,744,744,746,746,0,0,0,0,0,0,1073,1070,1070,1073,1070,1070,1070,1070,1070,1073,1073,1077,1077,1077,1077,1077,858,858,858,858,858,860,860,860,860,860,860,860,860,860,860,860,860,860,860,862,864,869,871,873,878,880,882,882,887,887,889,891,894,898,901,901,906,908,1077,1077,1077,1077,1077,1077,1077,1077,1077,1080,1080,1080,1084,1084,1080,1080,1080,1080,1080,1080,1080,1080,1080,1080,1080,1080,1080,1080,1080,1080,1080,1080,1080,1080,1080,1080,1080,1080,1080,1080,1080,1080,1080,1080,1080,1080,1080,1080,1077,1077,1077,1077,1080,1080,1080,1080,1080,1080,1080,1080,1080,1080,1080,1080,1084,1084,1084,1084,1084,1084,1084,1087,1087,1087,1087,1087,1087,1084,1084,1084,1084,1084,1084,1080,1080,1084,1084,1084,1084,1084,1084,1087,1087,1087,1087,1087,1087,1087,1087,1087,1087,1087,1087,1084,1084,1084,1084,1084,1080,1080,1080,1080,1080,1084,1084,1084,1084,1084,1084,1087,1087,1087,1087,1084,1084,1080,1080,1080,1080,1084,1084,1084,1084,1084,1084,1084,1080,1080,1080,1080,1080,1080,1080,1080,1090,1090,1090,1087,1080,1080,1080,1080,1080,1084,1084,1080,1080,1084,1084,1084,1084,1084,1084,1084,1084,1084,1080,1080,1080,1080,1084,1084,1087,1087,1087,1087,1087,1087,1087,1087,1087,1087,1087,1084,1084,1084,1087,1087,1087,1087,1087,1087,1087,1087,1087,1087,1087,1087,1087,1087,1087,1087,1087,1087,1087,1087,1087,1087,1087,1087,1087,1087,1087,1087,1087,1087,1087,1087,1087,1087,1090,1090,1090,1090,1090,1090,1090,1090,1090,1090,1090,1090,1090,1090,1087,1087,1090,1087,1087,1090,1090,1090,1090,1090,1090,1094,1094,1094,1097,1101,1105,1105,1105,959,959,959,956,956,954,954,951,948,948,948,946,946,898,898,898,898,898,898,896,896,896,896,896,896,0,0,0,0,0,0,0,0,0,0,0,0,0,0,0,0,0,0,0,0,0,0,0,0,0,0,0,0,0,0,0,0,0,0,0,0
0,0,0,0,1063,1063,1063,1063,1063,1060,1060,1060,1060,1060,1057,1057,1057,1057,1057,1057,1057,1054,1054,1054,1050,1050,1050,1050,1050,1050,1050,1050,1050,1050,1050,1050,1050,1050,1050,1050,1050,1050,1047,1047,1050,1050,1050,1050,1050,1050,1050,1050,1050,1050,1050,1054,1054,1054,1054,1054,1057,1057,1054,1054,1054,1054,1054,1054,1054,1054,1054,1057,1054,1054,1054,1054,1054,1054,1054,1054,1054,1054,1054,1054,1054,1054,1054,1054,1054,1054,1054,1054,1054,1057,1057,1057,1057,1060,1060,1060,1060,1060,1060,1060,1060,1060,1057,1057,1057,1054,1047,1028,1025,1022,1022,1019,1016,1013,1013,1013,1013,1013,1013,1016,1019,1022,1022,1025,1025,1028,1031,1031,1031,1034,1038,1047,1057,1060,1057,1057,1060,1060,1060,1060,1060,1063,1063,1063,1063,1063,1063,1063,1063,1063,1063,1063,1063,1063,1063,1063,1063,1063,1060,1060,1060,1060,1063,1063,1063,1063,1063,1063,1063,1063,1060,1060,1060,1060,1060,1063,1063,1063,1063,1063,1063,1063,1063,1063,1060,1060,1063,1063,1063,1063,1067,1067,1063,1063,1063,1063,1063,1063,1063,1063,1063,1063,1063,1063,1063,1063,1063,1063,1063,1063,1063,1067,1070,1070,1073,1070,1070,1067,1067,1063,1060,1060,1060,0,0,0,0,0,746,746,744,742,742,741,741,739,738,736,734,731,728,727,727,727,727,727,728,728,728,731,734,736,738,739,739,741,744,746,746,746,747,747,752,0,0,0,0,1073,1067,1067,1067,1067,1070,1070,1070,1070,1070,1073,1073,1073,1073,1073,1077,851,851,851,851,854,856,858,858,858,858,858,858,858,858,858,858,858,860,860,860,862,864,867,869,873,878,880,882,885,887,889,889,891,894,896,898,901,901,1073,1073,1073,1077,1077,1077,1077,1077,1077,1073,1073,1080,1080,1080,1080,1080,1080,1080,1080,1080,1080,1080,1080,1080,1080,1080,1080,1080,1080,1080,1077,1077,1077,1077,1077,1077,1077,1077,1080,1080,1080,1080,1080,1080,1077,1077,1077,1077,1077,1077,1077,1077,1077,1077,1077,1077,1077,1077,1077,1077,1077,1077,1080,1080,1080,1077,1077,1077,1080,1080,1080,1080,1080,1080,1084,1084,1080,1080,1080,1080,1080,1080,1080,1080,1080,1080,1080,1080,1080,1080,1080,1080,1080,1084,1084,1084,1084,1084,1084,1080,1080,1080,1080,1084,1084,1080,1080,1080,1080,1080,1080,1080,1080,1080,1084,1084,1080,1080,1084,1080,1080,1080,1084,1080,1080,1080,1080,1080,1080,1080,1080,1080,1080,1080,1080,1080,1080,1080,1077,1077,1077,1080,1080,1080,1080,1087,1087,1080,1080,1080,1080,1080,1080,1080,1080,1080,1080,1080,1080,1080,1084,1084,1084,1084,1080,1080,1080,1080,1080,1080,1080,1080,1080,1080,1080,1084,1084,1084,1084,1084,1084,1084,1084,1084,1084,1084,1084,1084,1084,1087,1087,1084,1084,1087,1087,1087,1087,1084,1084,1084,1084,1084,1084,1084,1084,1084,1084,1084,1084,1084,1084,1084,1080,1080,1084,1084,1084,1084,1084,1084,1084,1087,1087,1090,1087,1087,1090,1087,1087,1087,1087,1087,1090,1087,1087,1087,1087,1087,1084,1084,1087,1087,1087,1090,1090,1090,1090,1094,1094,1094,1097,1105,1105,962,959,959,959,956,956,956,956,954,951,948,948,948,896,898,898,898,898,898,898,896,896,896,896,894,894,0,0,0,0,0,0,0,0,0,0,0,0,0,0,0,0,0,0,0,0,0,0,0,0,0,0,0,0,0,0,0,0,0,0,0,0
0,0,0,0,1060,1060,1060,1057,1057,1054,1054,1057,1054,1054,1054,1050,1050,1054,1054,1054,1054,1054,1050,1050,1050,1050,1050,1050,1050,1050,1047,1047,1050,1050,1050,1047,1047,1047,1047,1047,1047,1047,1047,1047,1047,1047,1047,1047,1047,1047,1047,1047,1050,1050,1050,1050,1050,1050,1050,1050,1050,1050,1050,1050,1050,1050,1050,1054,1054,1054,1054,1054,1054,1050,1050,1050,1050,1050,1050,1050,1050,1050,1050,1050,1050,1050,1050,1050,1050,1050,1050,1050,1050,1054,1054,1057,1057,1057,1057,1057,1057,1057,1057,1057,1057,1057,1057,1054,1054,1054,1047,1044,1025,1022,1022,1019,1016,1013,1013,1013,1013,1013,1013,1016,1019,1022,1022,1025,1025,1028,1031,1031,1031,1038,1041,1047,1050,1057,1054,1054,1054,1054,1054,1060,1060,1060,1063,1063,1063,1063,1063,1063,1063,1060,1060,1063,1060,1060,1060,1060,1060,1060,1060,1060,1060,1060,1060,1060,1060,1063,1063,1060,1060,1060,1060,1060,1060,1060,1060,1060,1063,1063,1063,1063,1063,1063,1060,1060,1060,1060,1063,1063,1063,1063,1063,1063,1063,1060,1060,1060,1060,1060,1060,1060,1060,1063,1063,1063,1063,1060,1060,1063,1063,1063,1063,1063,1063,1067,1070,1067,1063,1063,1063,1060,1057,1057,1057,0,0,0,0,0,746,746,744,744,742,742,741,739,739,738,736,734,728,728,727,727,727,728,728,728,730,731,734,736,739,739,739,742,744,746,746,746,747,749,752,0,0,0,0,1067,1067,1063,1063,1063,1063,1063,1067,1067,1067,1070,1073,1073,1073,1073,851,851,851,851,851,854,854,856,856,856,856,856,856,854,854,856,856,856,858,858,860,860,864,867,869,873,878,880,882,885,887,889,889,891,894,896,896,896,896,1073,1073,1073,1073,1073,1073,1073,1073,1073,1070,1070,1070,1073,1073,1077,1077,1077,1077,1077,1077,1077,1077,1077,1077,1077,1077,1080,1077,1077,1077,1077,1077,1077,1077,1077,1077,1077,1077,1077,1077,1077,1077,1077,1077,1077,1077,1077,1077,1077,1077,1077,1077,1077,1077,1077,1077,1077,1077,1077,1077,1073,1073,1077,1077,1077,1073,1073,1073,1073,1073,1077,1077,1077,1077,1077,1077,1077,1077,1077,1077,1077,1077,1077,1080,1080,1077,1077,1077,1080,1080,1077,1077,1077,1077,1080,1080,1080,1080,1080,1080,1080,1080,1080,1080,1080,1080,1080,1080,1077,1077,1077,1077,1077,1077,1080,1080,1080,1080,1080,1080,1080,1080,1077,1077,1080,1080,1077,1077,1077,1077,1077,1077,1077,1077,1077,1077,1077,1077,1077,1077,1077,1077,1077,1077,1077,1080,1077,1077,1077,1077,1077,1077,1080,1080,1080,1080,1080,1080,1080,1080,1080,1080,1080,1080,1080,1080,1077,1077,1077,1077,1077,1077,1077,1077,1077,1080,1080,1080,1080,1080,1080,1080,1080,1080,1080,1080,1084,1084,1084,1084,1084,1084,1084,1084,1084,1084,1084,1084,1084,1084,1080,1080,1080,1080,1080,1080,1080,1080,1080,1080,1080,1080,1077,1077,1077,1080,1080,1080,1080,1080,1080,1080,1080,1080,1080,1084,1084,1084,1080,1080,1084,1084,1080,1080,1080,1084,1084,1084,1080,1080,1084,1084,1084,1087,1087,1087,1087,1090,1090,1094,967,967,967,962,959,959,959,959,956,956,956,954,954,954,954,896,896,896,896,896,896,896,896,896,896,896,894,894,894,0,0,0,0,0,0,0,0,0,0,0,0,0,0,0,0,0,0,0,0,0,0,0,0,0,0,0,0,0,0,0,0,0,0,0,0
0,0,0,0,1060,1060,1057,1057,1054,1054,1054,1054,1054,1054,1050,1050,1050,1050,1050,1050,1050,1050,1050,1050,1050,1050,1047,1047,1047,1047,1047,1044,1044,1047,1047,1047,1047,1047,1047,1047,1047,1047,1047,1047,1044,1044,1044,1047,1047,1047,1047,1047,1047,1047,1047,1047,1047,1047,1047,1047,1047,1047,1047,1047,1044,1044,1044,1044,1044,1047,1050,1050,1050,1050,1050,1050,1050,1050,1050,1050,1050,1050,1047,1047,1050,1047,1047,1047,1047,1050,1050,1050,1050,1050,1054,1054,1054,1054,1057,1057,1054,1054,1054,1054,1054,1054,1054,1050,1050,1047,1047,1044,1031,1025,1022,1019,1016,1016,1013,1013,1013,1013,1016,1019,1019,1022,1022,1025,1025,1028,1028,1028,1031,1034,1041,1047,1050,1054,1054,1050,1050,1050,1050,1050,1050,1050,1054,1060,1060,1060,1060,1060,1060,1060,1060,1060,1060,1060,1060,1060,1060,1060,1060,1060,1060,1060,1060,1060,1060,1060,1060,1057,1057,1057,1057,1057,1057,1057,1057,1057,1060,1060,1060,1060,1060,1060,1060,1060,1060,1060,1060,1060,1060,1060,1060,1060,1060,1060,1060,1057,1057,1057,1057,1057,1057,1060,1060,1060,1060,1060,1060,1060,1060,1060,1060,1060,1060,1063,1063,1063,1063,1060,1060,1057,1054,1054,1054,0,0,0,0,0,746,746,744,744,742,742,741,739,739,738,736,734,731,728,728,728,728,728,728,728,730,731,734,738,739,739,741,742,744,747,747,747,747,749,0,0,0,0,1063,1063,1063,1063,1063,1063,1063,1063,1063,1063,1067,1070,1070,1073,1073,849,849,849,851,851,851,851,854,854,854,854,854,854,854,854,854,854,854,854,858,858,858,860,864,867,869,873,878,880,882,885,887,889,889,891,894,894,896,896,1070,1070,1070,1070,1073,1073,1073,1070,1070,1070,1070,1070,1070,1070,1070,1070,1070,1073,1073,1073,1073,1077,1077,1077,1077,1077,1077,1077,1077,1077,1077,1077,1077,1077,1077,1077,1077,1077,1077,1077,1073,1073,1073,1073,1073,1073,1073,1073,1073,1073,1073,1073,1073,1073,1073,1073,1073,1073,1073,1073,1073,1070,1070,1070,1073,1070,1070,1070,1070,1070,1070,1070,1070,1070,1070,1073,1073,1073,1073,1073,1073,1073,1073,1073,1077,1077,1077,1077,1077,1077,1077,1073,1073,1073,1073,1077,1077,1077,1077,1077,1077,1077,1077,1077,1077,1077,1077,1077,1077,1077,1077,1077,1077,1077,1077,1077,1077,1077,1077,1077,1077,1077,1077,1073,1073,1077,1077,1077,1077,1077,1077,1077,1077,1077,1077,1077,1077,1077,1077,1077,1077,1073,1073,1077,1077,1077,1073,1073,1077,1073,1073,1077,1077,1077,1077,1077,1077,1077,1077,1077,1077,1077,1077,1077,1080,1077,1077,1077,1077,1077,1077,1077,1077,1077,1077,1077,1077,1077,1077,1077,1080,1080,1080,1080,1080,1080,1080,1080,1080,1080,1080,1080,1080,1080,1080,1080,1080,1080,1080,1080,1080,1080,1080,1080,1080,1080,1077,1077,1080,1077,1077,1077,1077,1077,1077,1077,1077,1077,1077,1077,1080,1080,1080,1080,1080,1077,1077,1077,1080,1080,1080,1080,1080,1080,1080,1080,1080,1084,1080,1080,1080,1080,1080,1084,1084,1084,1087,1087,1090,970,970,967,967,964,964,962,959,959,959,956,956,956,956,956,956,0,0,896,896,896,896,896,896,896,896,894,894,891,891,894,0,0,0,0,0,0,0,0,0,0,0,0,0,0,0,0,0,0,0,0,0,0,0,0,0,0,0,0,0,0,0,0,0,0,0,0
0,0,0,0,1057,1057,1057,1054,1054,1054,1054,1054,1050,1050,1050,1050,1050,1047,1047,1047,1047,1047,1047,1047,1047,1047,1047,1047,1047,1047,1044,1044,1044,1044,1044,1044,1044,1044,1044,1044,1044,1044,1038,1038,1038,1041,1041,1041,1041,1044,1044,1044,1047,1047,1047,1044,1044,1044,1044,1044,1044,1044,1044,1044,1041,1041,1041,1041,1041,1038,1038,1041,1047,1047,1047,1047,1047,1047,1047,1047,1047,1047,1047,1047,1047,1047,1044,1044,1044,1047,1047,1047,1047,1050,1050,1050,1050,1050,1050,1050,1050,1050,1050,1050,1050,1050,1050,1050,1047,1047,1044,1044,1041,1028,1022,1019,1016,1016,1013,1013,1013,1013,1013,1019,1019,1022,1022,1025,1025,1028,1028,1028,1031,1034,1041,1044,1047,1050,1050,1050,1050,1050,1050,1050,1050,1050,1050,1050,1050,1050,1057,1054,1054,1057,1057,1057,1057,1057,1057,1057,1057,1057,1057,1057,1057,1057,1057,1057,1057,1057,1057,1054,1054,1054,1054,1054,1054,1054,1054,1054,1057,1057,1057,1057,1057,1057,1057,1057,1057,1057,1057,1057,1057,1057,1057,1057,1057,1057,1057,1054,1054,1054,1054,1054,1054,1057,1057,1057,1057,1057,1057,1057,1057,1057,1057,1057,1057,1057,1057,1057,1060,1057,1057,1057,1054,1050,1050,0,0,0,0,0,0,747,746,746,744,742,742,741,739,738,736,734,733,728,728,728,728,728,728,730,730,733,736,738,739,741,741,744,746,747,747,747,747,0,0,0,0,0,1060,1060,1060,1060,1060,1060,1060,1063,1063,1063,1063,1067,1067,1073,1073,849,849,849,849,849,849,851,851,851,851,851,851,851,851,851,851,851,854,854,858,858,858,860,864,867,871,875,878,880,882,885,887,889,889,891,894,894,896,1063,1063,1063,1067,1067,1067,1070,1070,1067,1067,1070,1067,1067,1067,1067,1067,1067,1070,1067,1067,1070,1070,1070,1073,1070,1070,1073,1070,1070,1070,1070,1073,1073,1073,1073,1073,1073,1073,1073,1073,1073,1070,1070,1070,1070,1070,1070,1070,1070,1070,1070,1070,1070,1070,1070,1070,1070,1070,1070,1070,1070,1070,1070,1070,1070,1070,1070,1070,1070,1070,1070,1070,1070,1070,1070,1070,1070,1070,1070,1070,1073,1073,1073,1073,1073,1077,1077,1077,1073,1073,1073,1073,1070,1070,1070,1073,1073,1073,1073,1073,1073,1073,1073,1077,1077,1073,1073,1073,1073,1073,1070,1070,1073,1073,1073,1073,1077,1077,1077,1077,1077,1073,1073,1073,1070,1070,1073,1073,1077,1077,1077,1077,1080,1077,1077,1077,1077,1073,1073,1077,1073,1073,1073,1073,1077,1077,1073,1073,1073,1073,1073,1073,1073,1073,1073,1073,1073,1077,1073,1073,1077,1077,1077,1077,1077,1077,1077,1077,1077,1077,1077,1077,1077,1077,1077,1073,1073,1077,1073,1070,1070,1070,1070,1077,1077,1077,1077,1077,1077,1080,1080,1077,1077,1080,1077,1077,1077,1077,1077,1077,1077,1077,1077,1077,1077,1077,1077,1077,1077,1077,1077,1077,1073,1073,1073,1073,1073,1073,1073,1077,1077,1077,1077,1077,1077,1077,1073,1073,1073,1073,1073,1077,1077,1080,1080,1080,1080,1080,1080,1080,1080,1080,1080,1080,1080,1084,1084,1087,970,970,970,970,967,967,964,964,964,962,962,959,956,956,956,956,956,956,0,0,896,896,896,896,894,894,894,894,894,891,891,891,0,0,0,0,0,0,0,0,0,0,0,0,0,0,0,0,0,0,0,0,0,0,0,0,0,0,0,0,0,0,0,0,0,0,0,0,0
0,0,0,0,1057,1057,1054,1054,1050,1050,1050,1050,1050,1050,1050,1050,1047,1047,1047,1047,1047,1047,1044,1044,1044,1044,1044,1044,1044,1044,1041,1041,1041,1041,1041,1041,1041,1041,1041,1038,1038,1038,1034,1034,1034,1038,1038,1038,1038,1041,1041,1041,1044,1044,1044,1041,1041,1041,1041,1041,1041,1038,1038,1038,1038,1038,1038,1038,1038,1038,1038,1038,1041,1041,1041,1041,1044,1044,1047,1044,1044,1044,1044,1044,1044,1044,1041,1041,1041,1044,1044,1044,1044,1047,1047,1047,1047,1047,1050,1050,1047,1047,1050,1050,1047,1047,1047,1047,1047,1044,1041,1041,1038,1031,1025,1019,1016,1016,1013,1013,1013,1013,1013,1019,1019,1022,1022,1025,1025,1028,1028,1031,1031,1034,1041,1041,1047,1047,1050,1047,1047,1047,1047,1047,1047,1047,1047,1047,1047,1047,1047,1047,1047,1050,1054,1054,1054,1054,1054,1057,1057,1057,1057,1057,1057,1054,1054,1054,1054,1054,1054,1054,1054,1054,1054,1054,1054,1054,1054,1054,1054,1054,1054,1054,1054,1054,1054,1054,1054,1054,1054,1054,1054,1054,1054,1054,1054,1054,1054,1054,1054,1054,1054,1054,1054,1054,1054,1054,1054,1057,1054,1054,1057,1054,1054,1054,1054,1054,1054,1054,1054,1050,1050,1054,1050,1050,1050,0,0,0,0,0,0,0,746,746,744,742,742,741,739,739,738,736,731,730,728,728,728,728,730,730,731,734,736,739,741,741,742,744,746,747,747,747,749,0,0,0,0,0,1057,1057,1060,1060,1060,1060,1060,1060,1063,1063,1063,1067,1067,1067,847,847,847,847,847,847,849,849,849,849,849,849,849,849,849,849,851,851,851,854,856,858,858,860,864,867,871,875,880,882,885,885,887,889,889,891,894,1060,1060,1060,1060,1060,1063,1063,1063,1063,1067,1067,1067,1067,1067,1067,1067,1067,1067,1067,1067,1067,1067,1067,1067,1067,1067,1067,1070,1070,1067,1067,1067,1067,1067,1067,1067,1070,1070,1070,1070,1070,1070,1070,1067,1067,1067,1067,1067,1067,1067,1070,1067,1067,1070,1070,1070,1070,1070,1067,1067,1067,1067,1067,1067,1067,1067,1067,1067,1067,1067,1067,1067,1067,1067,1067,1067,1067,1067,1067,1067,1067,1067,1067,1070,1070,1070,1073,1073,1073,1073,1073,1073,1070,1070,1070,1070,1070,1070,1067,1067,1067,1067,1067,1070,1070,1070,1073,1070,1070,1070,1070,1070,1067,1067,1070,1070,1070,1070,1070,1070,1070,1070,1070,1070,1070,1070,1070,1070,1070,1070,1070,1070,1070,1070,1077,1077,1073,1073,1073,1073,1073,1073,1073,1073,1073,1073,1073,1073,1070,1070,1070,1070,1070,1073,1073,1073,1073,1073,1073,1077,1070,1070,1073,1073,1073,1073,1073,1077,1077,1073,1073,1073,1073,1073,1073,1073,1073,1070,1070,1067,1067,1067,1067,1067,1067,1070,1073,1073,1073,1073,1077,1077,1073,1073,1073,1073,1073,1073,1073,1073,1073,1073,1073,1073,1073,1077,1077,1073,1073,1073,1073,1073,1073,1073,1073,1070,1070,1070,1070,1070,1070,1073,1073,1073,1073,1073,1073,1073,1070,1070,1073,1073,1073,1073,1073,1077,1077,1077,1073,1073,1077,1077,1077,1077,1080,1080,1080,1084,1084,973,970,970,970,970,967,967,964,964,967,962,962,959,959,959,956,956,956,956,0,0,896,896,894,894,894,894,894,894,891,891,889,889,0,0,0,0,0,0,0,0,0,0,0,0,0,0,0,0,0,0,0,0,0,0,0,0,0,0,0,0,0,0,0,0,0,0,0,0,0
0,0,0,0,1057,1054,1054,1050,1050,1050,1047,1047,1047,1047,1047,1047,1047,1047,1044,1044,1044,1044,1044,1044,1044,1044,1044,1044,1044,1041,1041,1041,1041,1038,1038,1038,1038,1038,1038,1034,1034,1034,1034,1034,1034,1034,1034,1038,1038,1038,1038,1038,1038,1041,1041,1038,1038,1038,1038,1038,1038,1034,1034,1034,1031,1031,1034,1034,1034,1038,1038,1038,1038,1038,1038,1038,1038,1038,1041,1041,1044,1044,1041,1041,1041,1041,1038,1038,1038,1038,1041,1041,1041,1041,1041,1041,1044,1044,1044,1047,1044,1044,1044,1044,1044,1044,1044,1044,1044,1041,1041,1038,1038,1031,1028,1022,1019,1016,1013,1013,1013,1013,1013,1019,1019,1022,1022,1022,1025,1028,1028,1031,1031,1034,1038,1041,1044,1047,1047,1047,1047,1047,1047,1047,1047,1047,1044,1044,1041,1041,1041,1044,1044,1044,1047,1047,1047,1050,1050,1054,1054,1050,1050,1054,1054,1054,1054,1054,1054,1054,1054,1054,1054,1054,1054,1050,1050,1050,1050,1050,1050,1050,1050,1050,1050,1050,1050,1050,1050,1050,1050,1050,1050,1050,1050,1054,1050,1050,1050,1050,1050,1050,1050,1050,1050,1054,1054,1054,1054,1054,1050,1050,1050,1050,1050,1050,1050,1050,1050,1050,1050,1050,1047,1047,1047,1047,0,0,0,0,0,0,0,0,747,747,746,744,742,741,739,739,738,736,731,730,728,728,728,730,730,731,731,734,736,739,741,742,744,746,747,747,747,749,749,750,0,0,0,0,1057,1057,1060,1060,1060,1060,1060,1060,1060,1060,1060,1060,841,843,843,843,845,845,845,847,847,847,847,847,847,847,847,847,847,849,849,849,851,851,856,858,858,860,864,869,871,875,880,882,885,887,887,889,889,891,891,1060,1060,1060,1060,1060,1060,1060,1060,1060,1063,1063,1063,1063,1063,1063,1067,1067,1063,1063,1063,1063,1063,1067,1063,1063,1063,1063,1067,1067,1063,1063,1067,1067,1067,1067,1067,1067,1067,1067,1067,1067,1067,1067,1067,1067,1067,1067,1067,1067,1067,1067,1067,1067,1067,1067,1067,1067,1067,1067,1067,1067,1067,1063,1063,1063,1063,1063,1063,1063,1063,1063,1063,1063,1063,1063,1063,1067,1067,1067,1063,1063,1063,1067,1067,1067,1067,1070,1070,1070,1070,1070,1070,1070,1070,1067,1067,1067,1067,1067,1067,1067,1067,1067,1067,1067,1067,1067,1067,1067,1067,1067,1067,1067,1067,1067,1067,1067,1067,1067,1067,1067,1067,1067,1067,1067,1067,1067,1067,1067,1067,1070,1070,1067,1067,1067,1067,1067,1070,1070,1070,1070,1070,1070,1070,1067,1067,1067,1067,1067,1067,1067,1067,1070,1070,1070,1067,1067,1067,1067,1067,1067,1067,1067,1070,1070,1070,1070,1070,1073,1073,1073,1070,1070,1070,1070,1070,1067,1067,1067,1067,1063,1063,1063,1063,1067,1067,1067,1067,1070,1070,1073,1073,1070,1067,1067,1067,1070,1070,1070,1070,1070,1070,1070,1073,1073,1073,1070,1070,1070,1070,1070,1070,1073,1073,1073,1070,1070,1070,1070,1070,1070,1070,1070,1070,1073,1073,1073,1070,1070,1070,1070,1070,1070,1070,1070,1070,1070,1073,1070,1070,1073,1073,1073,1073,1077,1080,1080,1084,1084,973,973,970,970,970,970,967,964,964,967,962,962,959,959,956,956,956,0,948,948,948,894,894,894,894,894,894,894,891,891,889,889,889,0,0,0,0,0,0,0,0,0,0,0,0,0,0,0,0,0,0,0,0,0,0,0,0,0,0,0,0,0,0,0,0,0,0,0,0,0
0,0,0,0,1054,1050,1050,1047,1047,1047,1047,1047,1044,1044,1044,1044,1044,1044,1044,1044,1044,1044,1041,1041,1041,1041,1041,1041,1041,1041,1038,1038,1038,1034,1034,1034,1034,1034,1034,1034,1034,1034,1034,1034,1034,1034,1034,1034,1034,1034,1034,1034,1034,1034,1034,1034,1034,1034,1034,1034,1034,1034,1031,1028,1028,1028,1031,1031,1031,1034,1034,1038,1038,1038,1038,1038,1038,1038,1041,1041,1041,1041,1038,1038,1038,1038,1038,1034,1034,1034,1038,1038,1038,1038,1038,1038,1041,1041,1041,1044,1041,1041,1041,1044,1041,1041,1041,1041,1041,1041,1038,1038,1034,1031,1028,1025,1022,1019,1013,1013,1013,1013,1013,1019,1019,1022,1022,1022,1025,1028,1031,1031,1034,1034,1038,1038,1041,1044,1044,1044,1044,1044,1047,1044,1044,1044,1044,1041,1041,1041,1041,1041,1044,1044,1044,1044,1047,1047,1047,1047,1047,1050,1050,1050,1050,1050,1050,1050,1054,1050,1050,1050,1050,1050,1050,1050,1050,1050,1050,1047,1047,1047,1047,1050,1047,1047,1047,1050,1050,1050,1050,1050,1050,1050,1050,1050,1050,1047,1047,1047,1047,1050,1050,1050,1050,1050,1050,1050,1050,1050,1050,1050,1050,1050,1050,1050,1047,1047,1050,1047,1047,1047,1047,1047,1047,1047,0,0,0,0,0,0,0,0,749,747,747,746,744,741,739,739,738,736,731,731,730,728,728,730,730,731,733,734,736,739,741,744,746,746,747,747,747,749,749,750,0,0,0,0,0,1057,1057,1057,1057,1057,1057,1060,1057,1057,1060,1060,841,841,841,841,841,841,841,843,845,845,845,845,845,847,847,847,847,847,849,849,851,851,854,858,858,860,864,869,873,875,880,882,885,887,887,889,889,891,1057,1057,1057,1057,1057,1057,1057,1057,1057,1060,1060,1060,1060,1060,1063,1063,1063,1063,1060,1060,1063,1063,1063,1063,1063,1063,1063,1063,1063,1060,1060,1060,1063,1063,1063,1063,1063,1063,1067,1067,1067,1067,1067,1063,1063,1063,1063,1063,1063,1063,1063,1063,1063,1063,1063,1063,1063,1063,1063,1060,1060,1063,1063,1063,1063,1063,1063,1063,1063,1063,1063,1063,1063,1063,1063,1063,1063,1063,1063,1063,1063,1063,1063,1063,1063,1063,1063,1063,1067,1067,1067,1067,1067,1067,1067,1063,1063,1063,1067,1063,1063,1063,1063,1063,1063,1063,1063,1063,1067,1067,1067,1067,1067,1063,1063,1067,1063,1063,1063,1063,1063,1063,1063,1063,1063,1063,1063,1063,1063,1063,1063,1063,1063,1063,1063,1063,1067,1067,1067,1063,1063,1067,1067,1067,1067,1067,1067,1067,1067,1067,1067,1067,1067,1067,1067,1067,1063,1063,1067,1067,1067,1067,1067,1067,1067,1067,1067,1067,1067,1070,1070,1067,1067,1067,1067,1067,1067,1067,1063,1063,1063,1063,1063,1063,1063,1063,1063,1063,1063,1063,1063,1063,1067,1067,1063,1063,1063,1063,1067,1067,1067,1067,1067,1067,1070,1070,1067,1067,1067,1067,1067,1070,1070,1070,1070,1070,1067,1067,1067,1067,1067,1067,1070,1070,1070,1070,1070,1070,1070,1067,1067,1067,1067,1067,1067,1067,1067,1067,1067,1070,1070,1070,1070,1070,1073,1077,1077,1077,1084,975,973,973,973,973,970,970,967,967,967,967,964,962,959,959,956,956,956,956,948,948,948,894,894,891,891,891,891,891,889,889,889,889,889,0,0,0,0,0,0,0,0,0,0,0,0,0,0,0,0,0,0,0,0,0,0,0,0,0,0,0,0,0,0,0,0,0,0,0,0,0
0,0,0,0,1050,1050,1047,1047,1047,1047,1044,1044,1044,1041,1041,1041,1041,1038,1038,1041,1041,1041,1041,1041,1041,1041,1041,1041,1038,1038,1038,1034,1034,1031,1031,1031,1031,1031,1031,1028,1028,1028,1031,1031,1031,1031,1031,1034,1034,1034,1031,1031,1031,1031,1031,1031,1031,1031,1031,1031,1028,1028,1028,1028,1028,1028,1028,1028,1031,1034,1034,1034,1034,1034,1034,1034,1034,1034,1038,1038,1038,1038,1034,1034,1034,1034,1034,1034,1031,1031,1034,1034,1034,1034,1034,1034,1038,1038,1038,1038,1038,1038,1038,1041,1041,1041,1041,1041,1041,1038,1038,1038,1034,1031,1031,1025,1022,1022,1016,1016,1016,1016,1016,1019,1022,1022,1022,1025,1025,1028,1031,1031,1034,1034,1038,1038,1038,1041,1044,1044,1044,1044,1044,1044,1044,1044,1041,1041,1041,1041,1041,1041,1041,1041,1041,1044,1044,1044,1044,1044,1044,1044,1044,1047,1047,1047,1047,1047,1050,1050,1050,1050,1050,1047,1047,1047,1047,1047,1047,1047,1047,1047,1047,1047,1047,1047,1047,1047,1047,1047,1047,1047,1047,1047,1047,1047,1047,1047,1047,1047,1047,1047,1047,1047,1047,1047,1047,1047,1047,1047,1047,1047,1047,1047,1047,1047,1047,1047,1047,1047,1047,1044,1044,1044,1047,1047,0,0,0,0,0,0,0,0,0,747,747,746,744,742,741,739,738,734,733,731,730,730,730,730,731,733,733,734,736,739,741,744,746,746,747,747,749,749,750,752,754,0,0,0,0,1057,1054,1054,1054,1057,1057,1057,1057,1057,1057,837,837,837,837,837,837,837,839,839,841,841,841,843,843,845,845,845,847,847,849,849,851,851,854,858,858,860,867,871,873,875,880,882,885,887,887,889,889,1054,1054,1054,1054,1054,1054,1054,1057,1054,1054,1054,1057,1057,1057,1057,1057,1057,1057,1060,1057,1057,1060,1060,1060,1060,1060,1060,1060,1060,1060,1057,1057,1057,1060,1060,1060,1063,1063,1063,1063,1063,1063,1063,1063,1063,1063,1063,1063,1060,1060,1060,1060,1060,1060,1057,1057,1060,1060,1060,1060,1057,1057,1060,1060,1060,1060,1060,1060,1060,1060,1060,1060,1060,1060,1060,1060,1060,1060,1063,1063,1063,1063,1063,1063,1063,1063,1063,1063,1063,1063,1063,1063,1063,1063,1063,1063,1063,1063,1063,1063,1063,1063,1060,1060,1060,1060,1060,1060,1060,1063,1063,1063,1063,1063,1063,1063,1063,1063,1063,1063,1060,1060,1060,1060,1060,1060,1060,1060,1060,1060,1057,1057,1060,1060,1063,1060,1060,1063,1063,1063,1063,1063,1060,1060,1063,1063,1063,1063,1063,1063,1063,1063,1067,1067,1067,1067,1063,1063,1063,1063,1063,1063,1063,1063,1063,1063,1063,1063,1063,1063,1063,1063,1063,1063,1063,1063,1063,1063,1063,1063,1063,1060,1060,1060,1060,1060,1060,1060,1060,1060,1060,1057,1057,1063,1063,1063,1063,1063,1063,1063,1063,1063,1063,1063,1063,1067,1067,1067,1067,1067,1067,1067,1067,1067,1067,1067,1067,1067,1067,1067,1067,1067,1067,1070,1070,1070,1070,1070,1070,1067,1067,1067,1067,1067,1067,1067,1067,1067,1067,1067,1067,1067,1067,1067,1070,1070,1073,1077,1077,973,973,973,973,973,973,970,970,970,967,967,967,967,967,964,962,959,956,956,956,948,948,948,894,894,891,891,891,891,889,889,889,889,889,889,0,0,0,0,0,0,0,0,0,0,0,0,0,0,0,0,0,0,0,0,0,0,0,0,0,0,0,0,0,0,0,0,0,0,0,0,0
0,0,0,0,1047,1047,1047,1047,1047,1044,1044,1041,1041,1041,1038,1038,1038,1038,1038,1038,1038,1038,1038,1038,1038,1038,1038,1038,1038,1038,1031,1031,1031,1028,1028,1028,1028,1028,1025,1025,1025,1025,1028,1028,1028,1028,1031,1031,1031,1031,1031,1031,1028,1028,1028,1028,1028,1028,1028,1028,1028,1025,1025,1025,1025,1025,1028,1028,1028,1031,1031,1031,1031,1031,1031,1031,1031,1031,1031,1031,1034,1034,1034,1034,1034,1034,1031,1031,1031,1031,1031,1034,1034,1034,1034,1034,1034,1034,1034,1034,1034,1034,1038,1038,1038,1038,1038,1038,1038,1038,1038,1038,1034,1034,1031,1028,1025,1025,1022,1019,1019,1019,1019,1022,1022,1022,1022,1025,1025,1028,1031,1031,1034,1034,1038,1038,1038,1041,1041,1041,1041,1041,1041,1041,1041,1041,1041,1041,1038,1038,1038,1041,1041,1041,1041,1041,1041,1041,1041,1041,1041,1041,1041,1041,1041,1041,1041,1044,1047,1047,1047,1047,1047,1047,1047,1044,1041,1041,1044,1044,1044,1041,1041,1044,1044,1041,1041,1041,1044,1044,1047,1047,1047,1047,1047,1044,1044,1044,1044,1044,1044,1044,1044,1044,1044,1044,1044,1047,1047,1047,1044,1044,1044,1047,1044,1044,1044,1044,1044,1044,1044,1044,1041,1041,1044,1047,0,0,0,0,0,0,0,0,0,749,747,746,744,742,741,739,739,734,733,731,730,730,730,730,731,733,733,734,738,739,741,744,746,747,747,749,749,750,750,752,754,0,0,0,0,0,1050,1050,1050,1054,1054,1054,1054,835,835,835,835,835,835,835,837,837,837,837,837,839,839,839,841,843,843,845,845,845,847,849,851,851,854,858,860,860,869,871,873,878,880,882,885,887,887,1047,1047,1050,1050,1054,1054,1054,1054,1054,1054,1054,1054,1054,1054,1054,1054,1054,1054,1054,1054,1057,1057,1057,1057,1057,1057,1060,1057,1057,1057,1057,1057,1054,1054,1054,1057,1057,1057,1060,1057,1057,1060,1060,1060,1057,1057,1057,1057,1060,1057,1057,1057,1054,1054,1057,1054,1054,1054,1054,1057,1057,1057,1054,1054,1057,1057,1057,1060,1060,1057,1057,1057,1060,1060,1060,1060,1060,1060,1060,1060,1060,1060,1063,1060,1060,1060,1060,1060,1060,1057,1057,1060,1060,1057,1057,1057,1060,1060,1060,1060,1060,1060,1060,1060,1057,1057,1057,1057,1057,1057,1057,1057,1057,1063,1063,1063,1063,1063,1063,1063,1063,1060,1060,1060,1060,1057,1057,1057,1057,1057,1057,1057,1054,1054,1057,1057,1057,1057,1057,1057,1060,1063,1063,1057,1057,1057,1057,1057,1057,1060,1060,1060,1063,1063,1063,1063,1063,1063,1057,1057,1057,1057,1057,1057,1057,1060,1063,1063,1063,1063,1063,1063,1060,1060,1060,1057,1057,1057,1060,1060,1060,1060,1060,1060,1060,1060,1060,1060,1057,1057,1057,1057,1057,1057,1057,1057,1057,1060,1060,1060,1060,1060,1060,1060,1063,1063,1063,1063,1063,1063,1067,1063,1063,1067,1067,1067,1067,1067,1063,1063,1063,1063,1063,1063,1063,1063,1067,1067,1067,1067,1067,1067,1063,1063,1063,1063,1063,1063,1067,1067,1067,1067,1067,1067,1067,1067,1067,1067,1073,1077,973,973,973,973,973,973,973,973,970,970,967,967,970,970,967,967,964,964,964,959,959,956,954,951,951,894,891,891,894,894,889,889,889,889,887,887,0,0,0,0,0,0,0,0,0,0,0,0,0,0,0,0,0,0,0,0,0,0,0,0,0,0,0,0,0,0,0,0,0,0,0,0,0
