0,0,0,0,0,0,0,0,0,0,0,0,0,0,1639,1639,1639,1639,1639,1639,1639,1632,1632,1632,1632,1632,1632,1624,1624,1624,1624,1624,1624,1624,1632,1632,1632,1632,1632,1624,1616,1616,1616,1616,1616,1616,1616,1616,1616,1616,1616,1616,1616,1616,1616,1616,1609,1609,1609,1609,1609,1609,1609,1601,1601,1609,1609,1609,1601,1601,1601,1601,1601,1601,1601,1601,1601,1601,1601,1601,1609,1609,1616,1624,1624,1624,1624,1624,1624,1624,1624,2317,2317,2317,2301,2301,2286,2286,2286,2286,2271,2271,2256,2256,2256,1609,1601,1601,1609,1609,1609,1601,1601,1609,1609,1609,1616,1616,1616,1624,1624,1624,1624,1624,1624,1632,1632,1632,1632,1632,1639,1639,1639,1639,1647,1647,1655,1655,1655,1655,1663,1663,1671,1671,1680,1680,1671,1671,1680,1680,1688,1688,1688,1688,1688,1696,1696,1696,1696,1705,1705,1705,1713,1722,1722,1722,1722,1731,1731,1731,1739,1739,1748,1748,1748,1748,1739,1739,1739,1087,1087,1087,1090,1087,1087,1084,1080,1077,1077,1073,1073,1073,1073,1073,1073,1077,1077,1080,1080,1084,1084,1087,1087,1087,1087,1087,1090,0,0,0,1804,1804,1804,1804,1794,1794,1794,1785,1776,1776,1766,1766,1766,1757,1757,1757,1757,1748,1748,1739,1739,1739,1731,1731,1731,1731,1722,1722,1713,1713,1705,1705,1696,1696,1688,1688,1680,1680,1680,1671,1671,1663,1663,1663,1663,1655,1655,1647,1647,1639,1639,1632,1632,1632,1632,1624,1624,1624,1624,1616,1616,1609,1609,1601,1601,1594,1594,1594,1594,0,0,0,0,0,0,0,0,0,885,885,882,882,880,878,875,875,875,873,873,871,869,869,869,869,869,871,871,873,878,880,882,885,885,885,887,887,0,0,0,0,0,0,1470,1470,1470,1477,1470,1464,1464,1458,1458,1458,1452,1445,1445,1445,1445,1439,1439,1433,1433,1427,1427,1427,1421,1421,1421,1421,1415,1415,1415,1410,1404,1404,1398,1398,1398,1398,1392,1392,1392,1387,1387,1381,1381,1376,1376,1370,1370,1370,1365,1359,1359,1354,1354,1354,1354,1349,1349,1349,1349,1349,1343,1343,1338,1333,1333,1333,1328,1328,1328,1328,1322,1322,1317,1317,1312,1312,1312,1312,1307,1307,1307,1302,1297,1292,1292,1292,1288,1288,1288,1288,1288,1288,1283,1283,1278,1278,1273,1268,1264,1264,1264,1259,1259,1259,1255,1255,1255,1255,1250,1250,1250,1245,1241,1241,1236,1236,1236,1236,1232,1232,1232,1227,1227,1223,1219,1219,1219,1219,1214,1214,1210,1210,1206,1206,1206,1202,1202,1202,1202,1197,1197,1193,1189,1185,1185,1181,1181,1181,1181,1181,1177,1177,1177,1173,1169,1169,1169,1169,1165,1165,1165,1161,1161,1157,1157,1153,1153,1153,1149,1145,1145,1141,1141,1138,1138,1138,1134,1134,1134,1134,1134,1134,1130,1126,1123,1123,1123,1123,1119,1119,1119,1115,1112,1112,1108,1108,1108,1105,1105,1101,1097,1097,1097,1094,1094,1094,1094,1090,1090,1090,1087,1087,1084,1084,1080,1080,1077,1077,1077,1073,1073,1070,1070,1067,1067,1067,1067,1063,1063,1060,1060,1057,1057,1057,1054,1054,1054,1050,1050,1050,1047,1047,1047,1047,1044,1044,1044,1041,1038,1038,1038,1034,1034,1031,1031,1031,1028,1028,1028,1028,1025,1025,1025,1022,1022,1019,1019,1016,1016,1016,1016,1013,1013,1013,1013,1010,1010,1007,1004,1004,1001,1001,1001,998,998,998,998,0,0,0,0,0,0,0,0,0,0,0,0,0,0,0,0,0,0,0,0,0,0,0,0,0,0,0,0,0,0,0
0,0,0,0,0,0,0,0,0,0,0,0,0,0,1639,1639,1639,1639,1639,1639,1639,1632,1632,1632,1632,1632,1632,1624,1624,1632,1632,1632,1624,1624,1632,1632,1632,1632,1632,1624,1624,1616,1616,1616,1616,1616,1616,1616,1616,1616,1616,1616,1616,1616,1616,1616,1616,1609,1609,1609,1609,1609,1609,1601,1601,1609,1601,1601,1601,1601,1601,1601,1601,1601,1601,1601,1601,1601,1601,1601,1609,1616,1616,1624,1624,1624,1624,1624,1624,1624,1624,2317,2317,2317,2317,2301,2286,2286,2286,2286,2271,2271,2271,2271,2256,2256,1609,1609,1609,1609,1609,1609,1609,1609,1609,1609,1609,1616,1616,1624,1624,1624,1624,1624,1624,1632,1632,1632,1632,1632,1639,1639,1639,1647,1647,1647,1655,1655,1655,1655,1663,1663,1671,1671,1680,1680,1680,1680,1680,1680,1688,1688,1688,1688,1696,1696,1696,1696,1705,1705,1705,1713,1713,1722,1722,1722,1722,1731,1731,1731,1739,1739,1748,1748,1748,1748,1748,1748,1748,1090,1090,1090,1087,1087,1087,1087,1080,1077,1077,1073,1073,1073,1073,1073,1077,1077,1080,1080,1084,1084,1087,1087,1087,1087,1087,1090,1090,0,0,0,0,1804,1804,1804,1804,1794,1794,1785,1776,1776,1766,1766,1766,1757,1757,1757,1757,1748,1748,1748,1739,1739,1739,1731,1731,1731,1722,1722,1713,1713,1705,1705,1696,1696,1688,1688,1688,1680,1680,1671,1671,1663,1663,1663,1663,1655,1655,1655,1647,1647,1639,1639,1632,1632,1632,1632,1632,1624,1624,1616,1616,1616,1609,1609,1601,1601,1601,1609,1609,0,0,0,0,0,0,0,0,0,885,885,882,882,880,878,875,875,875,873,873,869,869,869,869,869,869,871,873,875,878,880,882,885,887,887,887,887,889,0,0,0,0,0,1470,1470,1477,1477,1470,1470,1464,1464,1458,1458,1452,1452,1452,1445,1445,1439,1439,1439,1433,1433,1427,1427,1427,1421,1421,1421,1415,1415,1415,1410,1404,1404,1398,1398,1398,1398,1392,1392,1392,1387,1387,1381,1381,1376,1376,1376,1370,1370,1365,1359,1359,1354,1354,1354,1354,1349,1349,1349,1349,1349,1343,1343,1338,1333,1333,1333,1333,1333,1328,1328,1322,1322,1317,1317,1312,1312,1312,1312,1312,1307,1307,1302,1297,1292,1292,1292,1292,1288,1288,1288,1288,1288,1288,1283,1283,1278,1273,1268,1268,1264,1264,1264,1259,1259,1259,1255,1255,1255,1250,1250,1250,1245,1241,1241,1236,1236,1236,1236,1236,1232,1232,1232,1227,1223,1223,1219,1219,1219,1214,1214,1214,1210,1210,1206,1206,1206,1202,1202,1202,1197,1197,1193,1189,1185,1185,1185,1181,1181,1181,1181,1181,1181,1177,1177,1169,1169,1169,1169,1165,1165,1165,1161,1161,1157,1157,1153,1153,1153,1149,1149,1145,1141,1141,1141,1138,1138,1138,1138,1134,1134,1134,1134,1130,1126,1123,1123,1123,1123,1119,1119,1119,1115,1112,1112,1112,1108,1108,1105,1105,1101,1101,1097,1097,1094,1094,1094,1094,1094,1090,1090,1090,1087,1087,1084,1080,1080,1077,1077,1077,1077,1073,1073,1070,1067,1067,1067,1067,1063,1063,1060,1060,1057,1057,1057,1054,1054,1054,1050,1050,1050,1050,1050,1047,1047,1044,1044,1041,1041,1038,1038,1038,1038,1038,1034,1034,1031,1028,1028,1028,1028,1025,1025,1025,1022,1022,1022,1019,1016,1016,1016,1016,1016,1013,1013,1013,1013,1010,1010,1007,1004,1004,1001,1001,1001,998,998,998,0,0,0,0,0,0,0,0,0,0,0,0,0,0,0,0,0,0,0,0,0,0,0,0,0,0,0,0,0,0,0
0,0,0,0,0,0,0,0,0,0,0,0,0,0,1647,1647,1647,1639,1639,1639,1639,1639,1639,1632,1632,1632,1632,1632,1632,1632,1632,1632,1632,1632,1632,1632,1632,1632,1632,1632,1624,1624,1616,1616,1616,1616,1616,1616,1616,1616,1616,1624,1624,1616,1616,1616,1624,1616,1616,1609,1609,1609,1609,1601,1601,1609,1601,1601,1601,1601,1601,1601,1601,1601,1601,1601,1601,1601,1601,1601,1609,1616,1616,1624,1624,1624,1624,1624,1624,1624,1624,2317,2317,2317,2317,2317,2301,2286,2286,2286,2286,2271,2271,2271,2256,2256,1609,1609,1609,1609,1609,1609,1609,1609,1609,1609,1609,1616,1616,1624,1624,1624,1624,1624,1624,1632,1632,1632,1632,1632,1639,1639,1639,1647,1647,1655,1655,1655,1655,1655,1663,1663,1663,1671,1680,1680,1680,1680,1680,1680,1688,1688,1688,1688,1696,1696,1696,1696,1705,1705,1713,1713,1713,1722,1722,1722,1722,1731,1731,1731,1739,1739,1748,1748,1748,1748,1748,1748,1748,1087,1087,1087,1087,1087,1087,1087,1080,1077,1077,1077,1077,1073,1073,1073,1077,1077,1080,1080,1084,1084,1087,1087,1087,1087,1087,1090,1090,0,0,0,0,1794,1794,1794,1804,1794,1794,1785,1776,1776,1766,1766,1766,1766,1766,1757,1757,1757,1748,1748,1748,1748,1739,1739,1731,1731,1731,1722,1722,1713,1705,1705,1705,1696,1688,1688,1688,1688,1680,1680,1671,1663,1663,1663,1663,1655,1655,1655,1655,1647,1647,1639,1639,1632,1632,1632,1632,1632,1624,1624,1624,1616,1609,1609,1601,1601,1601,1609,1609,0,0,0,0,0,0,0,0,0,885,885,882,882,880,878,878,878,875,873,873,869,869,869,869,869,869,871,873,875,878,880,882,885,887,887,887,887,889,0,0,0,0,0,0,1483,1477,1477,1470,1470,1464,1464,1464,1458,1458,1452,1452,1445,1445,1445,1439,1439,1439,1433,1433,1427,1427,1427,1421,1421,1415,1415,1415,1410,1410,1404,1404,1404,1398,1398,1398,1392,1392,1392,1387,1387,1381,1376,1376,1376,1370,1370,1365,1365,1359,1359,1354,1354,1354,1354,1354,1349,1349,1349,1343,1343,1338,1333,1333,1333,1333,1333,1328,1328,1322,1322,1322,1317,1317,1317,1312,1312,1312,1307,1307,1302,1302,1292,1292,1292,1292,1288,1288,1288,1288,1288,1288,1283,1283,1278,1273,1268,1264,1264,1264,1264,1259,1259,1259,1255,1255,1255,1250,1250,1250,1250,1245,1241,1241,1236,1236,1236,1236,1232,1232,1232,1227,1223,1223,1219,1219,1219,1214,1214,1214,1214,1210,1210,1206,1206,1206,1202,1202,1202,1197,1197,1193,1189,1185,1185,1185,1185,1181,1181,1181,1181,1181,1177,1173,1169,1169,1169,1165,1165,1165,1161,1161,1157,1157,1153,1153,1153,1149,1149,1149,1145,1145,1141,1141,1138,1138,1138,1134,1134,1134,1134,1130,1126,1123,1123,1123,1123,1119,1119,1119,1115,1112,1112,1112,1108,1108,1105,1105,1105,1101,1101,1097,1097,1097,1094,1094,1094,1090,1090,1090,1087,1087,1084,1080,1080,1077,1077,1077,1077,1073,1073,1070,1067,1067,1067,1067,1063,1063,1060,1060,1057,1057,1057,1057,1054,1054,1050,1050,1050,1050,1050,1047,1047,1044,1044,1041,1041,1041,1038,1038,1038,1038,1034,1034,1034,1031,1028,1028,1028,1028,1025,1025,1025,1022,1022,1019,1016,1016,1016,1016,1016,1013,1013,1013,1013,1010,1010,1007,1007,1004,1001,1001,1001,998,998,998,0,0,0,0,0,0,0,0,0,0,0,0,0,0,0,0,0,0,0,0,0,0,0,0,0,0,0,0,0,0,0
0,0,0,0,0,0,0,0,0,0,0,0,0,0,1647,1647,1647,1639,1639,1639,1639,1639,1639,1639,1639,1632,1632,1632,1632,1632,1632,1632,1632,1632,1632,1632,1632,1632,1624,1624,1624,1624,1616,1616,1624,1624,1624,1624,1624,1624,1624,1624,1624,1624,1624,1624,1624,1616,1616,1609,1609,1609,1609,1609,1609,1609,1609,1609,1609,1601,1601,1601,1601,1601,1609,1609,1601,1601,1601,1601,1616,1616,1616,1624,1624,1632,1632,1624,1624,1632,1632,2317,2317,2317,2317,2317,2301,2286,2286,2286,2286,2271,2256,2256,2271,2271,1616,1616,1616,1616,1609,1609,1609,1609,1609,1609,1609,1616,1616,1624,1624,1624,1624,1624,1624,1632,1632,1632,1632,1632,1639,1639,1639,1647,1647,1655,1655,1655,1655,1655,1663,1663,1663,1671,1671,1680,1680,1680,1680,1680,1688,1688,1688,1688,1696,1696,1696,1696,1705,1705,1713,1713,1713,1722,1722,1722,1731,1731,1731,1731,1739,1739,1748,1748,1748,1748,1748,1748,1748,1087,1087,1087,1087,1087,1087,1087,1084,1080,1077,1077,1077,1077,1077,1077,1077,1077,1080,1080,1084,1084,1087,1087,1087,1090,1090,1090,1090,0,0,0,0,1794,1794,1794,1794,1794,1794,1794,1785,1776,1776,1766,1766,1766,1766,1757,1757,1757,1757,1757,1748,1748,1739,1739,1731,1731,1731,1722,1722,1722,1713,1713,1705,1696,1696,1688,1688,1688,1680,1680,1671,1671,1663,1663,1663,1663,1655,1655,1655,1655,1647,1647,1639,1639,1632,1632,1632,1632,1624,1624,1624,1624,1616,1609,1601,1601,1594,1594,1609,0,0,0,0,0,0,0,0,887,885,885,882,882,880,878,878,878,875,873,873,871,869,869,869,869,871,871,873,875,880,882,885,887,887,887,887,887,889,0,0,0,0,0,1489,1483,1477,1477,1470,1470,1470,1464,1464,1464,1458,1458,1452,1452,1445,1445,1439,1439,1439,1433,1433,1433,1433,1427,1427,1421,1415,1415,1415,1410,1410,1404,1404,1404,1398,1398,1398,1398,1392,1392,1392,1387,1381,1381,1376,1376,1370,1370,1365,1365,1359,1359,1354,1354,1354,1354,1354,1349,1349,1349,1343,1343,1338,1338,1333,1333,1333,1333,1328,1328,1328,1322,1317,1317,1317,1317,1312,1312,1312,1307,1307,1302,1302,1297,1292,1292,1292,1288,1288,1288,1288,1288,1288,1283,1283,1278,1278,1268,1264,1264,1264,1264,1264,1264,1259,1259,1259,1255,1255,1250,1250,1250,1250,1241,1241,1236,1236,1236,1236,1232,1232,1232,1227,1223,1223,1219,1219,1219,1214,1214,1214,1214,1210,1210,1206,1206,1206,1202,1202,1202,1202,1197,1193,1189,1189,1185,1185,1185,1181,1181,1181,1181,1181,1177,1173,1169,1169,1169,1169,1165,1165,1165,1161,1157,1157,1153,1153,1153,1149,1149,1149,1145,1145,1141,1141,1138,1138,1138,1134,1134,1134,1134,1130,1126,1123,1123,1123,1123,1119,1119,1119,1115,1115,1112,1112,1108,1108,1105,1105,1105,1105,1101,1101,1097,1097,1097,1094,1094,1090,1090,1090,1090,1087,1084,1080,1080,1080,1080,1077,1077,1077,1073,1073,1067,1067,1067,1067,1067,1063,1063,1060,1060,1060,1060,1057,1057,1054,1054,1050,1050,1050,1050,1047,1047,1044,1041,1041,1041,1041,1041,1038,1038,1038,1034,1034,1034,1031,1031,1028,1028,1028,1025,1025,1025,1022,1022,1019,1019,1016,1016,1016,1016,1016,1013,1013,1013,1013,1013,1010,1007,1004,1001,1001,1001,1001,998,998,0,0,0,0,0,0,0,0,0,0,0,0,0,0,0,0,0,0,0,0,0,0,0,0,0,0,0,0,0,0,0
0,0,0,0,0,0,0,0,0,0,0,0,0,0,1647,1647,1647,1639,1639,1639,1639,1639,1639,1639,1639,1632,1632,1632,1632,1632,1632,1632,1632,1632,1632,1632,1632,1632,1624,1624,1624,1624,1616,1616,1624,1624,1624,1624,1624,1624,1624,1624,1624,1624,1624,1624,1624,1624,1616,1616,1616,1616,1609,1609,1609,1609,1609,1609,1609,1609,1609,1609,1601,1601,1609,1609,1601,1601,1601,1601,1616,1616,1624,1624,1624,1632,1632,1624,1624,1632,1632,2317,2317,2317,2317,2301,2286,2286,2286,2286,2286,2271,2256,2256,2271,2271,1616,1616,1616,1616,1616,1616,1609,1609,1609,1609,1616,1616,1624,1624,1624,1624,1624,1624,1632,1632,1632,1632,1632,1632,1639,1639,1639,1647,1647,1655,1655,1655,1655,1663,1663,1663,1671,1671,1671,1680,1680,1680,1680,1680,1688,1688,1688,1688,1696,1696,1696,1696,1705,1705,1713,1722,1722,1722,1722,1731,1731,1731,1731,1739,1748,1748,1748,1748,1748,1748,1748,1748,1748,1090,1090,1090,1087,1087,1087,1087,1084,1080,1077,1077,1077,1077,1077,1077,1077,1080,1080,1084,1084,1084,1087,1087,1087,1090,1090,1090,1090,0,0,0,1804,1804,1794,1794,1794,1794,1794,1785,1785,1776,1776,1766,1766,1766,1766,1757,1757,1757,1757,1757,1757,1748,1748,1739,1739,1731,1731,1722,1722,1722,1713,1713,1705,1696,1696,1696,1688,1688,1680,1680,1680,1671,1671,1663,1663,1663,1663,1663,1655,1655,1655,1647,1647,1647,1632,1632,1632,1632,1632,1624,1624,1624,1616,1609,1601,1601,1594,1594,0,0,0,0,0,0,0,0,0,887,887,885,885,882,880,880,878,878,875,873,873,871,871,871,871,871,871,873,875,878,880,882,885,887,887,887,887,887,0,0,0,0,0,0,1489,1489,1477,1477,1470,1470,1470,1470,1464,1464,1464,1458,1458,1452,1445,1445,1439,1439,1439,1439,1433,1433,1433,1427,1427,1421,1421,1415,1415,1410,1410,1404,1404,1404,1404,1398,1398,1398,1398,1392,1392,1387,1387,1381,1376,1376,1376,1376,1370,1365,1365,1359,1354,1354,1354,1354,1354,1354,1349,1349,1349,1343,1343,1338,1333,1333,1333,1333,1328,1328,1328,1322,1317,1317,1317,1317,1312,1312,1312,1307,1307,1307,1302,1297,1297,1292,1292,1292,1288,1288,1288,1288,1288,1283,1283,1278,1273,1268,1268,1268,1264,1264,1264,1264,1259,1259,1259,1255,1255,1255,1250,1250,1250,1250,1241,1236,1236,1236,1236,1232,1232,1232,1232,1227,1223,1223,1219,1219,1219,1214,1214,1214,1214,1210,1210,1206,1206,1202,1202,1202,1202,1197,1197,1193,1193,1189,1185,1185,1185,1181,1181,1181,1181,1177,1177,1173,1169,1169,1169,1169,1165,1165,1161,1161,1157,1153,1153,1153,1153,1149,1149,1149,1145,1141,1141,1138,1138,1138,1134,1134,1134,1134,1130,1130,1126,1123,1123,1123,1119,1119,1119,1115,1115,1112,1112,1108,1108,1105,1105,1105,1105,1105,1101,1101,1101,1097,1094,1094,1094,1090,1090,1090,1090,1087,1084,1084,1080,1080,1080,1077,1077,1077,1073,1070,1070,1067,1067,1067,1063,1063,1063,1063,1063,1060,1057,1057,1057,1054,1054,1050,1050,1050,1047,1047,1047,1041,1041,1041,1041,1041,1041,1038,1038,1038,1038,1038,1031,1031,1028,1028,1028,1025,1025,1025,1022,1022,1019,1019,1016,1016,1016,1016,1016,1013,1013,1013,1013,1013,1010,1007,1004,1001,1001,1001,1001,1001,1001,0,0,0,0,0,0,0,0,0,0,0,0,0,0,0,0,0,0,0,0,0,0,0,0,0,0,0,0,0,0,0
0,0,0,0,0,0,0,0,0,0,0,0,0,0,1647,1647,1647,1639,1639,1639,1639,1639,1639,1639,1639,1632,1632,1632,1632,1632,1632,1632,1632,1632,1632,1632,1632,1632,1624,1624,1624,1624,1624,1624,1624,1624,1624,1624,1624,1624,1624,1624,1624,1624,1624,1624,1624,1624,1616,1616,1616,1616,1616,1609,1609,1609,1609,1609,1609,1609,1609,1609,1609,1609,1609,1609,1609,1609,1609,1609,1616,1616,1624,1624,1632,1632,1632,1624,1624,1632,1632,1632,2333,2333,2317,2301,2286,2286,2286,2286,2286,2271,2256,2256,2271,2271,1616,1616,1616,1616,1616,1616,1616,1616,1609,1609,1616,1616,1624,1624,1624,1624,1624,1624,1632,1632,1632,1632,1632,1639,1639,1639,1639,1647,1655,1655,1655,1655,1655,1663,1663,1663,1671,1671,1680,1680,1680,1680,1680,1680,1688,1688,1688,1688,1696,1696,1696,1705,1705,1705,1713,1722,1722,1722,1731,1731,1731,1731,1739,1739,1748,1748,1748,1748,1748,1748,1748,0,0,0,1090,1090,1087,1087,1087,1087,1084,1080,1080,1077,1077,1077,1077,1077,1080,1080,1080,1084,1084,1087,1087,1087,1090,1090,1090,1090,1090,0,0,0,0,1804,1804,1804,1804,1794,1794,1785,1785,1776,1776,1766,1766,1766,1766,1766,1757,1757,1757,1757,1757,1748,1748,1739,1739,1731,1731,1722,1722,1722,1713,1713,1713,1705,1696,1696,1688,1688,1688,1680,1680,1671,1671,1663,1663,1663,1663,1663,1655,1655,1655,1655,1647,1647,1639,1632,1632,1632,1632,1624,1624,1624,1624,1616,1609,1601,1601,1601,0,0,0,0,0,0,0,894,894,887,887,885,885,882,882,880,878,878,875,875,873,871,871,871,871,871,873,875,875,878,880,882,885,887,887,887,889,889,0,0,0,0,0,0,1496,1489,1477,1477,1477,1470,1470,1470,1464,1464,1464,1464,1458,1452,1452,1445,1439,1439,1439,1439,1433,1433,1433,1433,1427,1421,1421,1421,1415,1415,1410,1410,1410,1410,1404,1404,1398,1398,1398,1392,1392,1387,1387,1381,1376,1376,1376,1376,1370,1365,1365,1359,1359,1354,1354,1354,1354,1354,1349,1349,1349,1349,1343,1338,1338,1333,1333,1333,1333,1328,1328,1322,1317,1317,1317,1317,1312,1312,1312,1307,1307,1307,1307,1302,1302,1297,1292,1292,1292,1288,1288,1288,1288,1283,1283,1278,1273,1268,1268,1268,1268,1268,1268,1264,1264,1259,1259,1255,1255,1255,1250,1250,1250,1250,1245,1241,1236,1236,1236,1236,1232,1232,1232,1232,1227,1223,1219,1219,1219,1219,1214,1214,1214,1210,1210,1210,1206,1202,1202,1202,1202,1197,1197,1193,1193,1193,1189,1185,1185,1185,1185,1181,1181,1177,1177,1173,1169,1169,1169,1169,1165,1165,1161,1161,1157,1153,1153,1153,1153,1153,1149,1149,1149,1145,1141,1138,1138,1138,1134,1134,1134,1134,1130,1130,1126,1123,1123,1123,1119,1119,1119,1115,1115,1112,1112,1108,1108,1105,1105,1105,1105,1105,1105,1101,1101,1097,1097,1094,1094,1094,1090,1090,1090,1090,1084,1084,1080,1080,1080,1077,1077,1077,1077,1073,1070,1067,1067,1067,1063,1063,1063,1063,1063,1063,1060,1057,1057,1054,1054,1050,1050,1050,1050,1047,1047,1044,1041,1041,1041,1041,1041,1038,1038,1038,1038,1038,1034,1034,1031,1028,1028,1025,1025,1025,1022,1022,1019,1019,1016,1016,1016,1016,1016,1016,1013,1013,1013,1013,1010,1010,1004,1001,1001,1001,1001,1001,1001,0,0,0,0,0,0,0,0,0,0,0,0,0,0,0,0,0,0,0,0,0,0,0,0,0,0,0,0,0,0,0
0,0,0,0,0,0,0,0,0,0,0,0,0,0,1647,1647,1647,1647,1639,1639,1639,1639,1639,1639,1639,1632,1632,1632,1632,1632,1632,1632,1632,1632,1632,1632,1632,1632,1632,1632,1624,1624,1624,1624,1624,1624,1624,1624,1624,1624,1624,1624,1624,1624,1624,1624,1624,1624,1624,1616,1616,1616,1616,1609,1609,1609,1609,1609,1609,1609,1609,1601,1601,1609,1609,1609,1609,1609,1616,1616,1616,1616,1624,1624,1632,1632,1632,1632,1632,1632,1632,1632,2349,2349,2333,2317,2317,2317,2301,2286,2286,2286,2271,2271,2286,2286,1616,1616,1624,1624,1624,1616,1616,1616,1609,1609,1616,1616,1624,1624,1624,1624,1624,1632,1632,1632,1632,1632,1632,1639,1639,1639,1639,1647,1655,1655,1655,1655,1655,1663,1663,1663,1663,1680,1680,1680,1680,1688,1688,1688,1688,1688,1688,1696,1696,1696,1696,1705,1705,1713,1713,1722,1722,1722,1731,1731,1731,1731,1739,1739,1739,1748,1748,1748,1748,1748,1748,0,0,0,1090,1090,1090,1090,1090,1087,1084,1084,1080,1077,1077,1077,1077,1077,1080,1080,1080,1084,1084,1087,1087,1087,1090,1090,1090,1090,1090,1090,0,0,1804,1804,1804,1804,1804,1794,1794,1785,1785,1785,1776,1776,1766,1766,1766,1766,1766,1757,1757,1757,1757,1757,1748,1748,1739,1739,1731,1722,1722,1722,1722,1713,1713,1705,1705,1696,1696,1688,1688,1688,1680,1680,1671,1671,1663,1663,1663,1663,1663,1655,1655,1655,1647,1647,1639,1639,1632,1632,1632,1624,1624,1624,1624,1616,1609,1609,1609,1609,0,0,0,0,0,0,894,894,891,889,887,887,885,882,882,880,878,878,875,875,873,871,871,871,873,873,873,875,878,878,882,885,885,887,887,887,889,889,0,0,0,0,0,0,1496,1489,1477,1477,1477,1470,1470,1470,1464,1464,1464,1464,1464,1458,1452,1445,1445,1439,1439,1439,1439,1439,1439,1433,1427,1427,1421,1421,1415,1415,1415,1410,1410,1410,1404,1404,1404,1398,1398,1392,1392,1392,1392,1381,1381,1376,1376,1376,1370,1370,1365,1365,1359,1359,1354,1354,1354,1354,1349,1349,1349,1349,1343,1338,1338,1333,1333,1333,1333,1333,1328,1322,1317,1317,1317,1317,1312,1312,1312,1312,1307,1307,1307,1302,1302,1302,1297,1292,1292,1288,1288,1288,1288,1283,1283,1278,1273,1268,1268,1268,1268,1268,1268,1268,1264,1259,1259,1255,1255,1255,1250,1250,1250,1250,1245,1241,1241,1236,1236,1236,1236,1232,1232,1232,1227,1227,1223,1219,1219,1219,1214,1214,1214,1210,1210,1210,1206,1206,1202,1202,1202,1202,1197,1193,1193,1193,1189,1189,1185,1185,1185,1181,1181,1181,1177,1173,1173,1169,1169,1169,1165,1165,1165,1161,1161,1157,1157,1153,1153,1153,1149,1149,1149,1145,1141,1141,1138,1138,1138,1134,1134,1134,1130,1130,1126,1123,1123,1123,1119,1119,1119,1119,1115,1112,1112,1112,1108,1108,1108,1105,1105,1105,1105,1101,1101,1097,1097,1094,1094,1094,1094,1090,1090,1090,1090,1084,1080,1080,1080,1080,1077,1077,1077,1073,1070,1070,1067,1067,1067,1063,1063,1063,1063,1063,1060,1060,1057,1054,1054,1054,1050,1050,1050,1047,1047,1044,1044,1041,1041,1041,1041,1041,1041,1038,1038,1038,1034,1034,1031,1031,1028,1028,1025,1025,1022,1022,1019,1019,1019,1016,1016,1016,1016,1016,1013,1013,1013,1013,1010,1007,1004,1001,1001,1001,1001,1001,1001,0,0,0,0,0,0,0,0,0,0,0,0,0,0,0,0,0,0,0,0,0,0,0,0,0,0,0,0,0,0,0
0,0,0,0,0,0,0,0,0,0,0,0,0,0,1647,1647,1647,1647,1647,1639,1639,1639,1639,1639,1639,1639,1632,1632,1632,1632,1632,1639,1632,1632,1632,1632,1632,1632,1624,1624,1624,1624,1624,1624,1624,1624,1624,1624,1624,1624,1624,1624,1624,1624,1624,1624,1624,1624,1624,1624,1616,1616,1616,1616,1616,1609,1609,1609,1609,1609,1609,1601,1601,1609,1609,1609,1609,1609,1616,1616,1616,1616,1624,1624,1632,1632,1632,1632,1632,1632,1632,1632,1632,1632,2053,2053,0,2301,2301,2286,2286,2286,0,2286,1624,1624,1624,1624,1624,1624,1624,1616,1616,1616,1616,1616,1616,1616,1624,1624,1624,1624,1624,1632,1632,1632,1632,1632,1639,1639,1639,1639,1647,1647,1655,1655,1655,1655,1663,1663,1663,1663,1663,1680,1680,1680,1680,1688,1688,1688,1688,1688,1696,1696,1696,1696,1696,1705,1705,1713,1713,1722,1722,1722,1731,1731,1731,1731,1739,1739,1739,1748,1748,1748,1748,1748,1748,0,0,0,1090,1090,1090,1090,1090,1087,1087,1084,1080,1077,1077,1077,1077,1077,1080,1080,1080,1084,1084,1087,1087,1090,1090,1090,1090,1090,1090,1090,0,0,1813,1813,1813,1804,1804,1804,1794,1794,1785,1785,1785,1776,1776,1766,1766,1766,1766,1757,1757,1757,1757,1748,1748,1748,1739,1739,1731,1731,1722,1722,1722,1713,1713,1705,1705,1696,1696,1696,1688,1688,1688,1680,1680,1671,1671,1671,1663,1663,1663,1655,1655,1655,1647,1647,1639,1639,1632,1632,1632,1632,1624,1624,1624,1616,1616,1609,1609,1609,0,0,0,0,0,0,894,894,891,889,887,887,885,882,882,880,878,878,875,875,873,873,873,873,873,873,873,875,878,878,882,885,887,887,889,889,889,889,0,0,0,0,0,0,1489,1489,1477,1477,1477,1477,1470,1470,1470,1464,1464,1464,1464,1458,1452,1445,1445,1439,1439,1439,1439,1439,1439,1433,1427,1427,1421,1421,1415,1415,1415,1415,1415,1410,1410,1404,1404,1398,1398,1392,1392,1392,1392,1381,1381,1376,1376,1376,1376,1370,1370,1365,1365,1359,1359,1354,1354,1354,1354,1349,1349,1349,1343,1343,1338,1338,1338,1333,1333,1333,1333,1322,1317,1317,1317,1317,1312,1312,1312,1312,1307,1307,1307,1307,1302,1297,1297,1292,1292,1292,1292,1288,1288,1288,1283,1278,1278,1273,1268,1268,1268,1268,1268,1268,1268,1264,1259,1259,1255,1255,1250,1250,1250,1250,1245,1245,1241,1236,1236,1236,1236,1236,1232,1232,1232,1227,1223,1219,1219,1219,1214,1214,1214,1214,1210,1210,1206,1206,1202,1202,1202,1202,1197,1197,1193,1193,1193,1189,1185,1185,1185,1181,1181,1181,1177,1177,1173,1169,1169,1169,1169,1165,1165,1161,1161,1157,1157,1157,1153,1153,1149,1149,1149,1145,1145,1141,1141,1138,1138,1134,1134,1134,1130,1130,1126,1123,1123,1123,1119,1119,1119,1119,1119,1115,1115,1112,1108,1108,1105,1105,1105,1105,1105,1101,1101,1101,1097,1097,1094,1094,1094,1094,1090,1090,1090,1084,1084,1080,1080,1080,1077,1077,1077,1073,1073,1070,1070,1067,1067,1063,1063,1063,1063,1063,1063,1060,1060,1057,1054,1054,1050,1050,1050,1047,1047,1044,1044,1041,1041,1041,1041,1041,1041,1038,1038,1038,1034,1034,1031,1031,1028,1028,1025,1025,1025,1022,1022,1019,1019,1016,1016,1016,1016,1016,1013,1013,1013,1013,1010,1007,1004,1004,1004,1001,1001,1001,1001,0,0,0,0,0,0,0,0,0,0,0,0,0,0,0,0,0,0,0,0,0,0,0,0,0,0,0,0,0,0,0
0,0,0,0,0,0,0,0,0,0,0,0,0,0,1655,1655,1655,1647,1647,1639,1639,1639,1639,1639,1639,1639,1632,1632,1632,1639,1639,1632,1632,1632,1632,1632,1632,1632,1624,1624,1624,1624,1624,1624,1624,1624,1624,1624,1624,1624,1624,1624,1624,1624,1624,1624,1624,1624,1624,1624,1616,1616,1616,1616,1616,1609,1609,1609,1609,1609,1609,1601,1601,1616,1609,1609,1609,1609,1616,1616,1616,1624,1624,1624,1632,1632,1632,1632,1632,1632,1624,1624,1624,2053,2053,2053,0,2005,1970,1970,0,0,0,0,0,0,1624,1624,1624,1624,1624,1624,1624,1616,1616,1616,1616,1624,1624,1624,1624,1624,1624,1632,1632,1632,1632,1632,1632,1639,1639,1639,1647,1647,1655,1655,1655,1655,1663,1663,1663,1663,1671,1680,1680,1680,1688,1688,1688,1688,1688,1696,1696,1696,1696,1696,1705,1705,1713,1713,1713,1722,1722,1722,1731,1731,1731,1731,1739,1739,1739,1748,1748,1748,1748,1748,1748,0,0,0,1090,1090,1090,1090,1090,1087,1087,1084,1080,1080,1077,1077,1077,1077,1080,1080,1080,1084,1084,1087,1087,1090,1090,1090,1090,1087,1087,1087,0,0,1804,1804,1804,1804,1804,1804,1794,1794,1794,1785,1785,1776,1776,1766,1766,1766,1766,1757,1757,1757,1757,1748,1748,1739,1739,1739,1731,1731,1722,1722,1722,1722,1713,1713,1713,1696,1696,1696,1688,1688,1688,1680,1680,1680,1671,1671,1663,1663,1663,1655,1655,1655,1647,1647,1639,1639,1632,1632,1632,1632,1624,1624,1624,1616,1616,1609,1609,1609,1609,0,0,0,0,0,894,894,891,889,887,887,885,882,882,880,878,878,875,875,873,873,873,873,873,873,875,875,878,880,882,885,887,887,889,889,889,891,0,0,0,0,0,0,1489,1489,1483,1477,1477,1477,1470,1470,1470,1464,1464,1464,1464,1458,1452,1452,1445,1439,1439,1439,1439,1439,1439,1433,1433,1427,1421,1421,1415,1415,1415,1415,1415,1415,1410,1410,1404,1398,1398,1398,1392,1392,1392,1381,1381,1376,1376,1376,1376,1370,1370,1370,1365,1365,1365,1359,1359,1354,1354,1349,1349,1349,1349,1343,1343,1338,1338,1338,1338,1333,1333,1322,1317,1317,1317,1317,1317,1312,1312,1312,1312,1307,1307,1307,1302,1297,1297,1297,1292,1292,1292,1288,1288,1288,1283,1283,1283,1278,1273,1273,1268,1268,1268,1268,1268,1264,1264,1259,1255,1255,1255,1255,1250,1250,1250,1245,1241,1236,1236,1236,1236,1232,1232,1232,1232,1227,1223,1219,1219,1219,1219,1214,1214,1214,1210,1210,1206,1206,1202,1202,1202,1202,1197,1197,1197,1197,1193,1189,1189,1185,1185,1185,1181,1181,1181,1177,1173,1173,1169,1169,1169,1165,1165,1165,1161,1161,1157,1157,1153,1153,1149,1149,1149,1149,1145,1145,1141,1138,1138,1134,1134,1134,1130,1130,1126,1123,1123,1123,1123,1119,1119,1119,1119,1115,1115,1112,1112,1108,1105,1105,1105,1105,1105,1101,1101,1101,1097,1097,1094,1094,1094,1094,1090,1090,1090,1084,1084,1080,1080,1080,1080,1077,1077,1077,1073,1073,1070,1067,1067,1067,1067,1063,1063,1063,1063,1060,1060,1057,1054,1054,1050,1050,1050,1047,1047,1047,1044,1044,1041,1041,1041,1041,1041,1038,1038,1038,1038,1034,1031,1031,1028,1028,1025,1025,1025,1022,1022,1022,1019,1019,1016,1016,1016,1016,1013,1013,1013,1013,1010,1007,1004,1004,1004,1001,1001,1001,1001,0,0,0,0,0,0,0,0,0,0,0,0,0,0,0,0,0,0,0,0,0,0,0,0,0,0,0,0,0,0,0
0,0,0,0,0,0,0,0,0,0,0,0,0,0,1655,1655,1655,1655,1655,1655,1647,1639,1639,1639,1639,1639,1632,1632,1632,1639,1639,1632,1632,1632,1632,1632,1632,1632,1624,1624,1632,1624,1624,1624,1624,1624,1632,1624,1624,1624,1624,1624,1624,1624,1624,1624,1624,1624,1624,1624,1616,1616,1616,1616,1616,1616,1609,1609,1609,1609,1609,1601,1601,1616,1609,1609,1609,1609,1609,1609,1616,1616,1616,1624,1624,1624,1624,1632,1632,1632,1624,1624,2053,2053,2053,2053,2005,0,0,0,0,0,0,0,0,0,1632,1632,1624,1624,1624,1624,1624,1616,1616,1616,1616,1624,1624,1624,1624,1624,1624,1632,1632,1632,1632,1632,1632,1639,1639,1639,1647,1655,1655,1655,1655,1655,1663,1663,1663,1671,1671,1680,1680,1680,1688,1688,1688,1688,1696,1696,1696,1696,1696,1696,1705,1705,1713,1713,1713,1722,1722,1722,1731,1731,1731,1731,1739,1739,1748,1748,1748,1757,1757,1757,1757,0,0,0,1090,0,1090,1090,1090,1090,1087,1084,1080,1077,1077,1077,1077,1077,1080,1080,1080,1084,1087,1087,1087,1090,1090,1090,1090,1087,1087,1087,1757,1757,1804,1804,1804,1804,1804,1804,1794,1794,1794,1794,1785,1785,1776,1776,1766,1766,1766,1757,1757,1757,1757,1748,1748,1739,1739,1731,1731,1731,1731,1722,1722,1722,1713,1713,1705,1696,1696,1696,1688,1688,1688,1688,1688,1680,1680,1680,1671,1663,1663,1655,1647,1647,1647,1647,1647,1639,1632,1632,1632,1632,1632,1624,1624,1624,1616,1616,1609,1609,1609,0,0,0,0,0,896,894,891,891,889,887,885,885,882,880,878,878,875,875,873,873,873,873,873,875,875,878,878,880,882,887,887,889,891,891,891,894,0,0,0,0,0,0,1489,1489,1483,1477,1477,1477,1470,1470,1470,1464,1464,1464,1464,1458,1452,1452,1445,1445,1439,1439,1439,1439,1439,1433,1433,1427,1427,1421,1421,1415,1415,1415,1415,1415,1410,1410,1404,1398,1398,1398,1392,1392,1392,1387,1381,1381,1376,1376,1376,1370,1370,1370,1370,1365,1365,1359,1359,1354,1354,1354,1349,1349,1349,1349,1343,1343,1343,1338,1338,1333,1333,1322,1322,1322,1322,1317,1317,1317,1312,1312,1312,1307,1307,1307,1302,1302,1297,1297,1297,1292,1292,1292,1288,1288,1288,1283,1283,1278,1273,1273,1273,1268,1268,1268,1268,1264,1264,1259,1255,1255,1255,1255,1250,1250,1250,1245,1241,1236,1236,1236,1236,1232,1232,1232,1232,1227,1223,1219,1219,1219,1219,1214,1214,1214,1214,1210,1206,1206,1202,1202,1202,1202,1197,1197,1197,1197,1193,1193,1189,1185,1185,1185,1185,1181,1181,1177,1173,1173,1169,1169,1169,1169,1165,1165,1165,1161,1157,1157,1153,1153,1149,1149,1149,1149,1145,1145,1145,1141,1138,1138,1134,1134,1134,1130,1130,1126,1123,1123,1123,1123,1123,1119,1119,1115,1115,1115,1112,1108,1105,1105,1105,1105,1105,1105,1101,1101,1097,1097,1097,1094,1094,1094,1090,1090,1090,1084,1084,1080,1080,1080,1080,1077,1077,1077,1073,1073,1070,1070,1067,1067,1067,1067,1063,1063,1063,1060,1060,1057,1054,1054,1054,1050,1050,1050,1047,1047,1047,1044,1041,1041,1041,1041,1038,1038,1038,1038,1038,1034,1034,1031,1028,1028,1025,1025,1025,1022,1022,1022,1019,1019,1016,1016,1016,1016,1013,1013,1013,1013,1007,1007,1004,1004,1004,1001,1001,1001,1001,0,0,0,0,0,0,0,0,0,0,0,0,0,0,0,0,0,0,0,0,0,0,0,0,0,0,0,0,0,0,0
0,0,0,0,0,0,0,0,0,0,0,0,0,0,1663,1655,1655,1655,1655,1655,1647,1647,1647,1647,1639,1639,1632,1632,1632,1647,1639,1639,1639,1639,1639,1639,1632,1632,1624,1624,1632,1624,1624,1624,1624,1624,1632,1624,1624,1624,1624,1624,1624,1624,1624,1624,1624,1624,1624,1624,1616,1616,1616,1616,1616,1616,1616,1616,1616,1616,1609,1601,1601,1609,1609,1609,1609,1609,1609,1609,1609,1616,1616,1624,1624,1624,1624,1632,1632,1632,1632,1632,2028,2016,2005,2005,2005,1970,1970,1970,0,0,0,1936,1936,1936,1632,1632,1632,1624,1624,1624,1624,1624,1616,1616,1624,1624,1624,1624,1624,1624,1624,1632,1632,1632,1632,1632,1632,1639,1639,1647,1647,1655,1655,1655,1655,1663,1663,1663,1663,1671,1671,1680,1680,1680,1688,1688,1688,1688,1696,1696,1696,1696,1696,1705,1705,1705,1713,1713,1713,1722,1722,1722,1731,1731,1731,1731,1739,1739,1748,1748,1748,1757,1757,1757,1757,1757,0,0,0,0,1090,1090,1090,1090,1087,1084,1080,1077,1077,1077,1077,1080,1080,1080,1084,1084,1087,1087,1087,1090,1090,1090,1090,1087,1087,0,1757,1757,1757,1757,1804,1804,1804,1804,1804,1794,1794,1794,1785,1785,1776,1776,1766,1766,1766,1757,1757,1757,1757,1748,1748,1739,1739,1731,1731,1731,1731,1722,1722,1722,1722,1713,1705,1696,1696,1696,1688,1688,1688,1688,1688,1688,1688,1680,1680,1671,1663,1655,1647,1647,1647,1647,1647,1639,1632,1632,1632,1632,1632,1624,1624,1624,1616,1616,1609,1609,1609,0,0,0,0,0,896,894,891,891,889,887,887,885,882,880,878,878,875,875,873,873,873,873,873,875,875,878,878,880,882,885,887,889,891,891,894,896,0,0,0,0,0,0,1489,1489,1483,1483,1483,1477,1470,1470,1470,1470,1470,1464,1464,1464,1464,1458,1452,1445,1445,1439,1439,1439,1439,1433,1433,1427,1421,1421,1421,1415,1415,1415,1415,1415,1410,1410,1404,1398,1398,1398,1392,1392,1392,1387,1381,1381,1376,1376,1376,1376,1370,1370,1370,1370,1365,1365,1359,1354,1354,1354,1354,1349,1349,1349,1349,1343,1343,1343,1338,1338,1333,1328,1322,1322,1322,1317,1317,1317,1317,1312,1312,1307,1307,1307,1302,1302,1302,1297,1297,1292,1292,1292,1288,1288,1288,1283,1283,1283,1273,1273,1273,1273,1268,1268,1268,1264,1264,1259,1255,1255,1255,1255,1250,1250,1250,1245,1245,1236,1236,1236,1236,1232,1232,1232,1232,1232,1223,1223,1219,1219,1219,1219,1214,1214,1214,1214,1210,1206,1206,1206,1202,1202,1202,1197,1197,1197,1193,1193,1189,1189,1185,1185,1185,1181,1181,1181,1177,1173,1169,1169,1169,1169,1165,1165,1165,1161,1161,1157,1157,1153,1153,1149,1149,1149,1149,1149,1145,1141,1141,1138,1138,1138,1134,1134,1130,1126,1126,1123,1123,1123,1123,1119,1119,1119,1115,1115,1112,1108,1108,1105,1105,1105,1105,1105,1101,1101,1101,1097,1097,1094,1094,1094,1090,1090,1090,1087,1084,1080,1080,1080,1080,1080,1080,1077,1077,1073,1070,1070,1067,1067,1067,1067,1067,1063,1063,1063,1060,1057,1057,1054,1054,1054,1050,1050,1050,1047,1047,1044,1044,1041,1041,1041,1038,1038,1038,1038,1038,1034,1034,1031,1028,1028,1028,1025,1025,1025,1022,1022,1022,1019,1016,1016,1016,1016,1013,1013,1013,1013,1007,1007,1004,1004,1004,1001,1001,1001,1001,0,0,0,0,0,0,0,0,0,0,0,0,0,0,0,0,0,0,0,0,0,0,0,0,0,0,0,0,0,0,0
0,0,0,0,0,0,0,0,0,0,0,0,0,0,1655,1655,1655,1655,1655,1655,1647,1647,1647,1647,1639,1639,1639,1632,1632,1647,1639,1639,1639,1639,1639,1632,1632,1632,1632,1632,1632,1632,1632,1632,1632,1632,1632,1632,1632,1624,1624,1624,1624,1624,1624,1624,1624,1624,1624,1624,1624,1624,1616,1616,1616,1616,1616,1616,1616,1616,1609,1609,1609,1609,1609,1609,1609,1609,1609,1609,1609,1616,1616,1624,1624,1624,1624,1632,1632,1632,1632,1632,2016,2005,2005,2005,2005,1970,1970,0,0,0,0,1936,1936,1936,1936,1632,1632,1632,1624,1624,1624,1624,1624,1624,1624,1624,1624,1624,1624,1624,1624,1632,1632,1632,1632,1632,1632,1639,1647,1647,1647,1655,1655,1655,1655,1663,1663,1663,1663,1671,1680,1680,1680,1680,1688,1688,1688,1688,1696,1696,1696,1705,1705,1705,1705,1705,1713,1713,1722,1722,1722,1722,1731,1731,1731,1731,1731,1739,1739,1748,1748,1748,1757,1757,1757,0,1757,1101,1101,0,1090,1090,1090,1090,1087,1084,1080,1077,1077,1077,1077,1080,1080,1084,1084,1087,1087,1087,1090,1090,1090,1090,1090,1090,1090,0,1757,1757,1748,1748,1757,1804,1804,1813,1804,1794,1794,1794,1785,1785,1785,1776,1766,1766,1766,1766,1757,1757,1757,1748,1748,1739,1739,1731,1731,1731,1731,1722,1722,1722,1722,1713,1705,1696,1696,1696,1696,1696,1688,1688,1688,1688,1688,1688,1680,1671,1663,1655,1655,1655,1647,1647,1655,1639,1632,1632,1632,1632,1632,1624,1624,1624,1616,1616,1609,1609,1601,1601,0,0,0,0,896,894,891,891,889,887,887,885,882,880,880,878,875,875,873,873,875,875,875,875,878,878,878,880,882,885,887,889,891,894,894,896,0,0,0,0,0,0,1489,1489,1483,1483,1483,1477,1477,1470,1470,1470,1470,1464,1464,1464,1464,1458,1452,1452,1445,1439,1439,1439,1439,1433,1433,1427,1421,1421,1421,1421,1415,1415,1415,1415,1410,1410,1404,1404,1398,1398,1392,1392,1392,1387,1381,1381,1376,1376,1376,1376,1376,1370,1370,1370,1370,1365,1365,1359,1354,1354,1354,1349,1349,1349,1349,1343,1343,1343,1343,1338,1338,1328,1328,1328,1322,1322,1322,1317,1317,1317,1312,1312,1307,1307,1302,1302,1302,1297,1297,1292,1292,1292,1288,1288,1288,1288,1283,1283,1273,1273,1273,1273,1268,1268,1268,1264,1264,1259,1259,1255,1255,1255,1250,1250,1250,1250,1245,1241,1236,1236,1236,1236,1232,1232,1232,1232,1227,1223,1219,1219,1219,1219,1214,1214,1214,1214,1210,1206,1206,1206,1202,1202,1202,1197,1197,1197,1193,1193,1189,1189,1185,1185,1185,1185,1181,1181,1177,1173,1169,1169,1169,1169,1169,1165,1165,1165,1161,1157,1157,1153,1153,1153,1153,1149,1149,1149,1149,1145,1141,1141,1138,1138,1138,1134,1134,1130,1126,1126,1123,1123,1123,1123,1119,1119,1119,1115,1115,1112,1108,1105,1105,1105,1105,1105,1105,1101,1101,1101,1097,1097,1094,1094,1094,1090,1090,1087,1084,1084,1080,1080,1080,1080,1080,1077,1077,1073,1070,1070,1067,1067,1067,1067,1067,1063,1063,1063,1060,1057,1057,1054,1054,1054,1050,1050,1050,1047,1047,1044,1044,1041,1041,1041,1038,1038,1038,1038,1038,1034,1034,1031,1028,1028,1028,1025,1025,1025,1025,1025,1022,1019,1019,1016,1016,1016,1013,1013,1013,1010,1010,1007,1004,1004,1004,1001,1001,1001,1001,0,0,0,0,0,0,0,0,0,0,0,0,0,0,0,0,0,0,0,0,0,0,0,0,0,0,0,0,0,0,0
0,0,0,0,0,0,0,0,0,0,0,0,0,0,1655,1655,1655,1655,1655,1647,1647,1647,1647,1647,1639,1639,1639,1639,1639,1647,1647,1639,1639,1639,1639,1632,1632,1632,1632,1632,1632,1632,1632,1632,1632,1632,1632,1632,1632,1632,1624,1624,1624,1624,1624,1624,1624,1624,1624,1624,1624,1624,1624,1624,1616,1616,1616,1616,1624,1616,1616,1609,1609,1609,1609,1609,1609,1609,1609,1609,1616,1616,1624,1624,1624,1632,1632,1632,1632,1639,1639,1639,1981,1981,1981,1981,1970,1959,1959,1959,1959,1936,1936,1936,1936,1936,1926,1926,1639,1639,1632,1624,1624,1624,1624,1624,1624,1624,1624,1624,1624,1632,1632,1632,1632,1632,1632,1632,1639,1639,1647,1647,1647,1655,1655,1655,1655,1663,1663,1663,1671,1671,1680,1680,1688,1688,1688,1688,1688,1688,1696,1696,1696,1705,1705,1705,1713,1713,1713,1722,1722,1722,1722,1722,1731,1731,1731,1731,1731,1739,1739,1748,1748,1748,1748,1757,1757,1757,1757,1101,1101,1094,1090,1090,1090,1090,1087,1084,1080,1077,1077,1077,1077,1080,1080,1084,1084,1087,1087,1087,1090,1090,1090,1094,1094,1094,1090,0,1757,1757,1748,1748,1757,1813,1813,1813,1804,1794,1794,1794,1794,1785,1785,1776,1776,1766,1766,1766,1766,1757,1757,1748,1748,1748,1739,1731,1731,1731,1731,1722,1722,1722,1722,1713,1713,1696,1696,1696,1696,1696,1688,1688,1688,1688,1688,1688,1680,1680,1663,1655,1655,1655,1655,1655,1655,1639,1639,1639,1632,1632,1632,1624,1624,1624,1616,1616,1609,1609,1601,1601,0,0,0,0,0,894,891,891,889,889,887,885,882,880,880,878,875,875,875,875,875,875,875,875,878,878,880,880,885,887,889,889,891,894,894,896,0,0,0,0,0,0,1489,1489,1489,1483,1483,1483,1477,1477,1470,1470,1470,1464,1464,1464,1464,1458,1452,1452,1445,1445,1439,1439,1439,1433,1433,1427,1427,1421,1421,1421,1415,1415,1415,1415,1410,1410,1410,1404,1398,1398,1398,1392,1392,1392,1387,1381,1381,1376,1376,1376,1376,1376,1370,1370,1370,1370,1365,1359,1354,1354,1354,1349,1349,1349,1349,1343,1343,1343,1343,1338,1333,1333,1328,1328,1328,1322,1322,1317,1317,1317,1312,1312,1307,1307,1302,1302,1302,1297,1297,1292,1292,1292,1292,1288,1288,1288,1288,1283,1278,1273,1273,1273,1268,1268,1268,1268,1264,1259,1259,1255,1255,1255,1250,1250,1250,1250,1245,1241,1241,1236,1236,1236,1232,1232,1232,1227,1227,1223,1223,1219,1219,1219,1219,1219,1214,1214,1210,1210,1206,1202,1202,1202,1202,1197,1197,1197,1193,1193,1193,1189,1189,1185,1185,1185,1181,1181,1177,1173,1173,1169,1169,1169,1169,1165,1165,1165,1161,1157,1153,1153,1153,1153,1153,1149,1149,1149,1149,1145,1141,1141,1138,1138,1138,1134,1134,1130,1130,1126,1123,1123,1123,1123,1119,1119,1119,1115,1115,1112,1108,1108,1108,1108,1108,1105,1105,1105,1101,1101,1097,1097,1094,1094,1094,1090,1090,1087,1084,1084,1080,1080,1080,1080,1080,1077,1077,1073,1073,1070,1067,1067,1067,1067,1067,1063,1063,1063,1063,1060,1057,1057,1054,1054,1054,1050,1050,1047,1047,1044,1044,1041,1041,1041,1041,1038,1038,1038,1038,1034,1034,1034,1028,1028,1028,1025,1025,1025,1025,1025,1022,1022,1019,1019,1016,1016,1016,1013,1013,1010,1010,1007,1004,1004,1004,1001,1001,1001,1001,0,0,0,0,0,0,0,0,0,0,0,0,0,0,0,0,0,0,0,0,0,0,0,0,0,0,0,0,0,0,0
0,0,0,0,0,0,0,0,0,0,0,0,0,0,1655,1655,1655,1655,1655,1647,1647,1647,1647,1647,1639,1639,1647,1647,1647,1655,1647,1647,1647,1639,1639,1632,1632,1632,1632,1632,1632,1632,1632,1632,1632,1632,1632,1632,1632,1632,1624,1624,1632,1632,1624,1624,1624,1624,1624,1624,1624,1624,1624,1624,1616,1616,1616,1616,1624,1624,1616,1616,1616,1616,1616,1609,1609,1609,1609,1609,1616,1616,1624,1624,1624,1624,1632,1632,1639,1639,1647,1647,1647,1981,1970,1970,1970,1959,1947,1947,1947,1936,1936,1926,1926,1926,1926,1915,1655,1639,1632,1632,1624,1624,1624,1624,1624,1624,1624,1624,1624,1632,1632,1632,1632,1632,1632,1639,1639,1639,1647,1647,1655,1655,1655,1655,1663,1663,1663,1671,1671,1671,1680,1688,1688,1688,1688,1688,1688,1696,1696,1696,1696,1705,1705,1705,1713,1713,1713,1722,1722,1722,1722,1722,1731,1731,1731,1731,1731,1739,1739,1748,1748,1748,1748,1757,1757,1757,1757,1105,1101,1094,1090,1090,1090,1090,1087,1084,1080,1077,1077,1077,1077,1080,1080,1084,1084,1087,1087,1090,1090,1090,1090,1094,1094,1090,1090,0,1757,1757,1757,1757,1794,1823,1813,1813,1804,1794,1794,1794,1794,1785,1785,1776,1776,1766,1766,1766,1766,1757,1757,1748,1748,1748,1739,1739,1731,1731,1731,1722,1722,1722,1722,1713,1713,1696,1696,1696,1696,1696,1696,1688,1688,1688,1688,1688,1680,1680,1663,1663,1663,1663,1655,1655,1655,1647,1639,1639,1632,1632,1632,1632,1624,1624,1624,1616,1609,1609,1601,1601,0,0,0,0,0,0,891,891,889,889,887,885,882,880,880,878,878,875,875,875,875,875,875,875,878,878,880,880,885,887,889,891,894,894,896,896,0,0,0,0,0,0,1489,1489,1489,1489,1483,1483,1477,1477,1470,1470,1470,1464,1464,1464,1464,1452,1452,1445,1445,1445,1439,1439,1439,1433,1433,1427,1427,1421,1421,1421,1415,1415,1415,1415,1410,1410,1410,1404,1404,1398,1398,1392,1392,1387,1387,1381,1381,1381,1376,1376,1376,1376,1370,1370,1370,1370,1365,1359,1354,1354,1354,1349,1349,1349,1349,1349,1349,1343,1343,1343,1333,1333,1328,1328,1328,1328,1322,1322,1317,1317,1312,1312,1312,1307,1307,1302,1302,1297,1297,1297,1292,1292,1292,1288,1288,1288,1288,1283,1278,1273,1273,1273,1268,1268,1268,1268,1264,1264,1259,1259,1255,1255,1250,1250,1250,1250,1245,1241,1241,1236,1236,1236,1236,1232,1232,1227,1227,1223,1223,1223,1219,1219,1219,1219,1214,1214,1210,1210,1206,1202,1202,1202,1202,1202,1197,1197,1193,1193,1193,1189,1189,1185,1185,1185,1181,1181,1177,1173,1173,1169,1169,1169,1169,1165,1165,1165,1161,1157,1153,1153,1153,1153,1153,1149,1149,1149,1149,1145,1145,1141,1138,1138,1138,1134,1134,1134,1130,1130,1126,1123,1123,1123,1123,1119,1119,1119,1115,1112,1112,1108,1108,1108,1108,1105,1105,1105,1105,1101,1097,1097,1094,1094,1094,1090,1087,1087,1084,1084,1084,1080,1080,1080,1080,1077,1077,1073,1073,1070,1067,1067,1067,1067,1067,1063,1063,1063,1063,1060,1057,1057,1054,1054,1054,1050,1050,1050,1047,1047,1047,1044,1041,1041,1041,1038,1038,1038,1038,1038,1034,1034,1028,1028,1028,1025,1025,1025,1025,1025,1022,1022,1019,1019,1016,1016,1016,1016,1013,1010,1010,1007,1007,1004,1004,1004,1001,1001,1001,0,0,0,0,0,0,0,0,0,0,0,0,0,0,0,0,0,0,0,0,0,0,0,0,0,0,0,0,0,0,0
0,0,0,0,0,0,0,0,0,0,0,0,0,0,1655,1655,1655,1655,1655,1647,1647,1647,1647,1647,1647,1647,1647,1647,1647,1655,1647,1647,1647,1639,1639,1632,1632,1632,1632,1632,1632,1632,1632,1632,1632,1632,1632,1632,1632,1632,1632,1632,1632,1632,1624,1624,1624,1624,1624,1624,1624,1624,1624,1624,1624,1616,1616,1616,1624,1624,1624,1624,1616,1616,1616,1616,1616,1609,1609,1609,1616,1616,1624,1624,1624,1624,1632,1632,1639,1639,1647,1647,1647,1970,1970,1959,1959,1959,1947,1947,1947,1936,1936,1926,1926,1926,1926,1915,1915,1647,1639,1639,1632,1632,1632,1624,1624,1624,1624,1624,1624,1632,1632,1632,1632,1632,1632,1639,1639,1639,1639,1647,1647,1655,1655,1655,1655,1663,1663,1671,1671,1680,1680,1688,1688,1688,1688,1688,1688,1696,1696,1696,1696,1705,1705,1705,1713,1713,1722,1722,1722,1722,1731,1731,1731,1731,1731,1731,1731,1739,1739,1748,1748,1748,1757,1757,1757,1757,1757,1105,1101,1097,1090,1090,1090,1090,1090,1084,1084,1077,1077,1077,1080,1080,1084,1084,1087,1087,1090,1090,1090,1090,1090,1094,1094,1090,1090,1090,1090,1794,1794,1794,1794,1794,1823,1813,1813,1804,1794,1794,1794,1794,1785,1785,1776,1766,1766,1766,1766,1757,1757,1748,1748,1748,1739,1739,1739,1731,1731,1731,1722,1722,1722,1713,1713,1705,1696,1696,1696,1696,1696,1688,1688,1688,1688,1688,1680,1680,1663,1663,1663,1663,1655,1655,1655,1647,1639,1639,1639,1632,1632,1632,1624,1624,1616,1616,1609,1601,1594,1594,0,0,0,0,0,0,891,891,889,887,887,885,882,882,880,880,878,875,875,875,875,875,875,878,878,878,880,880,885,887,889,891,891,894,896,896,0,0,0,0,0,0,1489,1489,1489,1489,1489,1483,1477,1477,1470,1470,1470,1464,1464,1464,1464,1452,1452,1445,1445,1445,1445,1439,1439,1439,1433,1433,1427,1421,1421,1421,1421,1415,1415,1415,1410,1410,1410,1404,1404,1398,1398,1392,1392,1387,1387,1381,1381,1376,1376,1376,1376,1376,1376,1370,1370,1370,1365,1359,1354,1354,1354,1354,1349,1349,1349,1349,1349,1349,1343,1343,1333,1333,1333,1328,1328,1328,1328,1322,1322,1317,1312,1312,1312,1307,1307,1302,1302,1302,1297,1297,1292,1292,1292,1288,1288,1288,1288,1283,1278,1273,1273,1273,1273,1268,1268,1268,1264,1264,1259,1259,1255,1255,1255,1255,1250,1250,1245,1245,1241,1236,1236,1236,1236,1232,1232,1232,1227,1227,1223,1223,1223,1219,1219,1219,1219,1214,1214,1210,1206,1202,1202,1202,1202,1197,1197,1197,1197,1193,1193,1189,1189,1185,1185,1185,1181,1181,1177,1173,1173,1169,1169,1169,1169,1165,1165,1165,1161,1161,1153,1153,1153,1153,1153,1149,1149,1149,1149,1145,1145,1141,1141,1138,1138,1138,1134,1134,1130,1130,1126,1126,1123,1123,1123,1119,1119,1119,1115,1115,1112,1112,1108,1108,1108,1108,1108,1105,1105,1101,1097,1097,1097,1094,1094,1090,1087,1087,1087,1084,1084,1080,1080,1080,1080,1077,1077,1073,1073,1070,1070,1067,1067,1067,1067,1063,1063,1063,1063,1060,1060,1057,1057,1057,1054,1054,1050,1050,1050,1047,1047,1044,1044,1041,1041,1038,1038,1038,1038,1038,1034,1034,1028,1028,1028,1028,1028,1025,1025,1025,1022,1022,1019,1019,1016,1016,1016,1016,1013,1013,1010,1010,1007,1007,1004,1004,1004,1001,1001,0,0,0,0,0,0,0,0,0,0,0,0,0,0,0,0,0,0,0,0,0,0,0,0,0,0,0,0,0,0,0
0,0,0,0,0,0,0,0,0,0,0,0,0,0,1655,1655,1655,1655,1655,1647,1647,1647,1647,1647,1647,1647,1647,1647,1655,1655,1655,1647,1647,1647,1639,1632,1632,1632,1632,1632,1632,1632,1632,1632,1632,1632,1632,1632,1632,1632,1632,1632,1632,1632,1632,1624,1624,1624,1624,1624,1624,1624,1624,1624,1624,1624,1624,1624,1624,1624,1624,1624,1616,1616,1616,1616,1616,1616,1616,1616,1616,1616,1624,1624,1632,1632,1632,1632,1639,1647,1647,1647,1647,1970,1970,1959,1959,1959,1947,1947,1947,1936,1936,1926,1926,1926,1926,1926,1915,1647,1639,1639,1632,1632,1632,1624,1624,1624,1624,1624,1624,1632,1632,1632,1632,1632,1632,1639,1639,1639,1639,1647,1647,1655,1655,1655,1655,1663,1663,1671,1671,1680,1680,1688,1688,1688,1688,1688,1688,1696,1696,1696,1705,1705,1705,1705,1713,1713,1722,1722,1722,1722,1731,1731,1731,1731,1731,1731,1731,1739,1739,1748,1748,1748,1757,1757,1757,1757,1105,1101,1101,1097,1094,1090,1090,1090,1090,1084,1084,1080,1080,1080,1080,1084,1084,1087,1087,1087,1090,1090,1090,1090,1094,1094,1094,1090,1090,1090,0,0,1794,1794,1794,1794,1813,1813,1813,1804,1804,1794,1794,1794,1785,1785,1776,1766,1766,1766,1766,1766,1757,1757,1757,1757,1748,1748,1739,1739,1731,1731,1722,1722,1722,1713,1713,1705,1705,1696,1696,1696,1696,1688,1688,1688,1688,1688,1680,1680,1671,1663,1663,1663,1655,1655,1655,1655,1639,1639,1639,1639,1632,1632,1624,1624,1616,1616,1609,1601,1594,1594,0,0,0,0,0,0,891,889,889,887,887,885,885,882,880,880,878,878,875,875,875,875,878,878,878,878,880,882,885,887,889,889,891,891,896,896,0,0,0,0,0,1489,1489,1489,1489,1489,1489,1483,1477,1477,1470,1470,1470,1464,1464,1464,1464,1458,1452,1452,1452,1445,1445,1439,1439,1439,1433,1433,1427,1427,1421,1421,1421,1415,1415,1415,1410,1410,1410,1404,1404,1398,1398,1398,1392,1387,1387,1381,1381,1376,1376,1376,1376,1376,1376,1370,1370,1370,1365,1359,1359,1354,1354,1354,1354,1349,1349,1349,1349,1349,1343,1343,1338,1333,1333,1333,1328,1328,1328,1322,1322,1317,1312,1312,1312,1307,1307,1302,1302,1302,1302,1297,1292,1292,1292,1292,1288,1288,1283,1283,1278,1273,1273,1273,1273,1268,1268,1268,1268,1264,1264,1259,1255,1255,1255,1255,1250,1250,1245,1245,1241,1241,1236,1236,1236,1232,1232,1232,1227,1227,1223,1223,1223,1219,1219,1219,1219,1214,1214,1210,1206,1202,1202,1202,1202,1197,1197,1197,1197,1197,1193,1193,1189,1189,1185,1185,1181,1181,1177,1173,1173,1169,1169,1169,1169,1165,1165,1165,1165,1157,1157,1153,1153,1153,1153,1153,1149,1149,1149,1145,1145,1145,1141,1141,1138,1138,1134,1134,1130,1130,1130,1126,1123,1123,1123,1123,1119,1119,1115,1115,1112,1112,1108,1108,1108,1108,1108,1105,1105,1101,1097,1097,1097,1097,1094,1094,1090,1087,1087,1084,1084,1084,1080,1080,1080,1077,1077,1077,1073,1070,1070,1067,1067,1067,1067,1067,1063,1063,1063,1063,1060,1060,1057,1057,1054,1054,1050,1050,1050,1047,1047,1047,1044,1041,1041,1041,1038,1038,1038,1038,1034,1034,1031,1028,1028,1028,1028,1025,1025,1025,1022,1022,1022,1019,1016,1016,1016,1016,1013,1013,1013,1010,1010,1007,1004,1004,1004,1004,1004,0,0,0,0,0,0,0,0,0,0,0,0,0,0,0,0,0,0,0,0,0,0,0,0,0,0,0,0,0,0,0
0,0,0,0,0,0,0,0,0,0,0,0,0,0,1655,1655,1655,1655,1655,1663,1655,1655,1647,1647,1647,1647,1647,1647,1655,1655,1655,1647,1647,1647,1639,1632,1632,1632,1632,1632,1632,1632,1632,1632,1632,1632,1632,1632,1632,1632,1632,1632,1632,1632,1632,1632,1632,1632,1624,1624,1624,1624,1624,1624,1624,1624,1624,1624,1624,1616,1616,1616,1616,1616,1616,1616,1616,1616,1616,1616,1616,1624,1624,1624,1632,1632,1632,1632,1639,1647,1647,1647,1647,1970,1970,1959,1959,1959,1947,1947,1959,1947,1936,1926,1926,1926,1926,1915,1915,1639,1639,1632,1632,1632,1632,1624,1624,1624,1624,1624,1624,1632,1632,1632,1632,1632,1632,1639,1639,1639,1647,1647,1647,1655,1655,1655,1655,1663,1663,1663,1671,1680,1680,1688,1688,1688,1688,1688,1688,1696,1696,1696,1705,1705,1705,1705,1713,1713,1722,1722,1722,1722,1731,1731,1731,1731,1731,1731,1731,1739,1739,1748,1748,1748,1757,1757,1757,1757,1105,1101,1101,1097,1094,1094,1090,1090,1090,1087,1084,1080,1080,1084,1084,1084,1084,1087,1087,1087,1090,1090,1090,1094,1094,1094,1094,1090,1090,1090,0,0,1785,1785,1785,1785,1813,1813,1804,1804,1804,1794,1794,1794,1785,1785,1776,1776,1766,1766,1766,1766,1757,1757,1757,1757,1757,1748,1748,1748,1739,1731,1731,1722,1722,1722,1713,1705,1705,1696,1696,1696,1696,1688,1688,1688,1688,1688,1688,1680,1671,1663,1663,1663,1663,1663,1655,1647,1639,1639,1639,1639,1632,1632,1624,1624,1624,1616,1609,1609,1609,0,0,0,0,0,0,896,891,889,889,887,887,885,885,882,882,880,880,878,875,875,875,878,878,878,878,878,880,882,885,887,889,889,891,891,896,0,0,0,0,0,0,1489,1489,1489,1489,1489,1489,1483,1477,1477,1470,1470,1470,1464,1464,1464,1464,1464,1458,1452,1452,1445,1445,1445,1439,1439,1433,1433,1427,1427,1421,1421,1421,1421,1415,1415,1415,1410,1410,1404,1404,1404,1398,1398,1398,1392,1387,1387,1381,1381,1376,1376,1376,1376,1376,1370,1370,1370,1365,1365,1359,1354,1354,1354,1354,1354,1349,1349,1349,1349,1343,1338,1338,1333,1333,1333,1328,1328,1328,1322,1322,1317,1317,1312,1312,1307,1307,1307,1307,1302,1302,1297,1292,1292,1292,1292,1288,1288,1283,1283,1278,1278,1273,1273,1273,1273,1268,1268,1268,1268,1264,1264,1259,1259,1255,1255,1255,1250,1250,1245,1241,1241,1236,1236,1236,1232,1232,1232,1227,1227,1223,1223,1223,1219,1219,1219,1219,1214,1214,1210,1206,1206,1202,1202,1202,1202,1202,1197,1197,1197,1197,1193,1189,1189,1185,1185,1181,1181,1177,1177,1173,1169,1169,1169,1169,1165,1165,1165,1165,1157,1157,1153,1153,1153,1153,1153,1149,1149,1149,1145,1145,1145,1141,1141,1138,1138,1134,1134,1130,1130,1130,1126,1123,1123,1123,1123,1119,1119,1115,1115,1112,1112,1112,1108,1108,1108,1108,1105,1105,1101,1101,1097,1097,1097,1094,1094,1090,1090,1087,1087,1084,1084,1080,1080,1080,1077,1077,1077,1073,1070,1070,1067,1067,1067,1067,1067,1067,1063,1063,1063,1060,1060,1057,1057,1054,1054,1050,1050,1050,1047,1047,1047,1044,1041,1041,1041,1038,1038,1038,1038,1038,1034,1034,1028,1028,1028,1028,1025,1025,1025,1025,1025,1022,1022,1019,1016,1016,1016,1016,1013,1013,1013,1010,1007,1004,1004,1004,1004,1004,0,0,0,0,0,0,0,0,0,0,0,0,0,0,0,0,0,0,0,0,0,0,0,0,0,0,0,0,0,0,0
0,0,0,0,0,0,0,0,0,0,0,0,0,0,1655,1655,1655,1655,1655,1655,1655,1655,1647,1647,1655,1655,1655,1655,1655,1647,1647,1647,1647,1647,1647,1639,1639,1639,1639,1639,1639,1639,1639,1639,1639,1639,1632,1632,1632,1632,1632,1632,1632,1632,1632,1632,1632,1632,1624,1624,1624,1624,1624,1624,1624,1624,1624,1624,1624,1616,1616,1616,1616,1616,1616,1616,1616,1616,1616,1624,1624,1624,1624,1624,1632,1632,1632,1632,1647,1647,1655,1655,1655,1970,1959,1959,1959,1959,1959,1959,1959,1947,1936,1926,1926,1926,1926,1915,1915,1632,1632,1632,1632,1632,1632,1624,1624,1624,1624,1624,1624,1632,1632,1632,1639,1639,1639,1639,1639,1639,1647,1647,1647,1655,1655,1655,1655,1663,1663,1663,1671,1680,1680,1688,1688,1688,1688,1688,1688,1696,1696,1696,1696,1705,1713,1713,1713,1713,1722,1722,1722,1722,1731,1731,1731,1731,1731,1739,1739,1739,1739,1748,1748,1748,1757,1757,1757,1757,1101,1101,1101,1097,1094,1094,1090,1090,1090,1087,1087,1084,1084,1084,1084,1087,1087,1087,1087,1087,1090,1090,1090,1094,1094,1094,1094,1090,1090,1090,1067,1067,1067,1785,1785,1785,1813,1813,1804,1794,1794,1034,1034,1034,1785,1785,1776,1776,1776,1776,1766,1766,1757,1757,1757,1757,1757,1748,1748,1748,1739,1731,1731,1722,1722,1722,1713,1713,1705,1696,1696,1696,1696,1688,1688,1688,1688,1688,1688,1680,1680,1671,1663,1663,1663,1663,1655,1647,1639,1639,1639,1639,1632,1632,1624,1624,1624,1624,1616,1616,1616,0,0,0,0,0,0,894,891,889,889,887,887,887,885,882,882,880,878,878,875,875,875,875,875,878,878,878,882,885,887,887,889,889,891,891,896,0,0,0,0,0,1489,1489,1489,1489,1489,1489,1489,1483,1483,1477,1477,1470,1470,1470,1470,1464,1464,1464,1458,1452,1452,1445,1445,1445,1439,1439,1433,1433,1427,1427,1427,1427,1421,1421,1421,1415,1415,1415,1410,1410,1410,1404,1404,1398,1398,1392,1387,1387,1387,1381,1381,1376,1376,1376,1376,1370,1370,1370,1365,1365,1359,1359,1354,1354,1354,1354,1349,1349,1349,1349,1343,1338,1338,1333,1333,1333,1328,1328,1328,1322,1322,1322,1317,1312,1312,1307,1307,1307,1307,1302,1302,1297,1292,1292,1292,1292,1292,1288,1288,1283,1283,1278,1273,1273,1273,1273,1268,1268,1268,1268,1268,1264,1259,1259,1255,1255,1255,1250,1250,1245,1241,1241,1241,1236,1236,1236,1232,1232,1227,1227,1223,1223,1223,1219,1219,1219,1219,1214,1214,1210,1206,1206,1202,1202,1202,1202,1202,1202,1197,1197,1197,1193,1193,1193,1185,1185,1181,1181,1177,1177,1173,1173,1169,1169,1169,1165,1165,1165,1165,1157,1157,1153,1153,1153,1153,1153,1153,1149,1149,1149,1145,1145,1141,1141,1138,1138,1138,1134,1134,1134,1130,1130,1126,1123,1123,1123,1119,1119,1119,1115,1115,1112,1112,1108,1108,1108,1108,1105,1105,1105,1101,1101,1097,1097,1097,1094,1090,1090,1090,1087,1084,1084,1080,1080,1080,1077,1077,1077,1073,1070,1070,1067,1067,1067,1067,1067,1067,1063,1063,1063,1063,1060,1060,1057,1057,1054,1054,1054,1050,1050,1047,1047,1044,1044,1041,1041,1041,1038,1038,1038,1038,1034,1034,1028,1028,1028,1028,1028,1025,1025,1025,1025,1022,1022,1019,1019,1016,1016,1016,1016,1013,1013,1013,1010,1007,1007,1004,1004,1004,0,0,0,0,0,0,0,0,0,0,0,0,0,0,0,0,0,0,0,0,0,0,0,0,0,0,0,0,0,0,0
0,0,0,0,0,0,0,0,0,0,0,0,0,0,1655,1655,1655,1655,1655,1655,1655,1655,1655,1655,1655,1655,1655,1655,1655,1647,1647,1639,1639,1639,1639,1647,1647,1647,1647,1639,1639,1639,1639,1639,1639,1639,1639,1639,1639,1632,1632,1632,1632,1632,1632,1632,1632,1632,1624,1624,1624,1624,1624,1624,1624,1624,1624,1624,1624,1624,1624,1624,1624,1616,1616,1616,1624,1616,1616,1624,1624,1624,1624,1624,1632,1632,1632,1639,1639,1647,1655,1655,1655,1970,1959,1959,1959,1959,1959,1959,1959,1947,1936,1926,1926,1926,1926,1915,1915,1632,1632,1632,1632,1632,1624,1624,1624,1624,1624,1624,1624,1632,1632,1632,1639,1639,1639,1647,1647,1647,1647,1647,1647,1655,1655,1655,1655,1663,1663,1671,1671,1680,1680,1688,1688,1688,1688,1688,1688,1696,1696,1696,1696,1705,1713,1713,1713,1713,1722,1722,1722,1722,1731,1731,1731,1731,1731,1739,1739,1739,1748,1748,1748,1748,1748,1748,1757,1757,1105,1105,1101,1101,1097,1097,1094,1090,1090,1087,1087,1084,1084,1084,1084,1087,1087,1087,1087,1087,1090,1090,1090,1094,1094,1097,1094,1090,1084,1073,1067,1067,1067,1804,1804,1804,1813,1813,1804,1794,1034,1034,1034,1034,1034,1031,1031,1025,1025,1785,1766,1766,1766,1757,1757,1757,1748,1748,1748,1748,1731,1731,1722,1722,1722,1722,1713,1713,1705,1696,1696,1696,1696,1696,1688,1688,1688,1688,1688,1680,1680,1671,1663,1663,1663,1663,1655,1655,1647,1647,1647,1639,1632,1632,1632,1624,1624,1624,1616,1616,1616,0,0,0,0,0,0,894,891,889,889,887,887,887,885,882,882,880,878,878,875,875,875,875,875,878,878,878,882,885,887,889,891,891,891,891,0,0,0,0,0,0,1489,1489,1496,1496,1489,1489,1489,1489,1483,1477,1477,1470,1470,1470,1470,1464,1464,1464,1458,1452,1452,1445,1445,1445,1439,1439,1439,1433,1433,1427,1427,1427,1421,1421,1421,1421,1415,1415,1410,1410,1410,1410,1404,1404,1398,1392,1392,1387,1387,1387,1381,1381,1376,1376,1376,1376,1370,1370,1365,1365,1365,1359,1359,1354,1354,1354,1354,1349,1349,1349,1343,1343,1338,1333,1333,1333,1328,1328,1328,1322,1322,1322,1317,1312,1312,1312,1307,1307,1307,1307,1302,1297,1297,1292,1292,1292,1292,1288,1288,1283,1283,1278,1278,1273,1273,1273,1268,1268,1268,1268,1268,1268,1264,1264,1259,1255,1255,1250,1250,1245,1241,1241,1241,1236,1236,1236,1232,1232,1227,1227,1223,1223,1223,1219,1219,1219,1219,1214,1214,1210,1210,1206,1206,1202,1202,1202,1202,1202,1197,1197,1197,1197,1193,1193,1189,1185,1185,1181,1177,1177,1173,1173,1169,1169,1169,1165,1165,1165,1161,1157,1157,1157,1153,1153,1153,1153,1153,1149,1149,1149,1145,1145,1141,1138,1138,1138,1138,1134,1134,1134,1130,1130,1126,1126,1123,1123,1123,1119,1119,1115,1115,1112,1112,1108,1108,1108,1108,1105,1105,1105,1101,1101,1097,1097,1094,1094,1094,1090,1090,1087,1087,1084,1080,1080,1080,1077,1077,1077,1073,1073,1070,1070,1067,1067,1067,1067,1067,1067,1063,1063,1063,1060,1060,1057,1057,1054,1054,1054,1050,1050,1047,1047,1047,1044,1041,1041,1041,1038,1038,1038,1038,1034,1034,1034,1031,1028,1028,1028,1028,1025,1025,1025,1025,1022,1022,1019,1016,1016,1016,1016,1013,1013,1013,1010,1010,1007,1007,1004,1004,0,0,0,0,0,0,0,0,0,0,0,0,0,0,0,0,0,0,0,0,0,0,0,0,0,0,0,0,0,0,0
0,0,0,0,0,0,0,0,0,0,0,0,0,0,1655,1655,1655,1655,1655,1655,1655,1655,1655,1655,1655,1655,1655,1655,1655,1647,1647,1639,1639,1639,1639,1647,1647,1647,1647,1647,1639,1639,1639,1632,1632,1639,1639,1639,1639,1632,1632,1632,1632,1632,1632,1632,1632,1632,1624,1624,1624,1624,1624,1624,1624,1624,1624,1624,1624,1624,1624,1624,1624,1624,1624,1624,1624,1624,1624,1624,1624,1624,1624,1624,1632,1632,1632,1632,1639,1647,1655,1655,1655,1970,1970,1970,1959,1959,1959,1959,1959,1947,1947,1936,1926,1926,1926,1915,1915,1632,1624,1624,1632,1632,1624,1624,1624,1624,1624,1624,1624,1632,1632,1632,1632,1639,1639,1647,1647,1647,1647,1647,1647,1655,1655,1655,1655,1663,1663,1671,1680,1680,1680,1688,1688,1688,1688,1688,1688,1696,1696,1696,1696,1705,1713,1713,1713,1713,1722,1722,1722,1722,1731,1731,1731,1731,1731,1739,1739,1739,1748,1748,1757,1757,1748,1748,1757,1757,1105,1105,1105,1101,1101,1097,1094,1090,1087,1087,1087,1084,1084,1084,1084,1084,1084,1087,1087,1087,1090,1090,1090,1094,1094,1097,1097,1090,1084,1070,1063,1063,1060,1057,1054,1050,1050,1813,1804,1794,1034,1034,1034,1034,1034,1031,1028,1025,1022,1022,1022,1022,1019,1016,1016,1016,1016,1010,1010,1010,1731,1731,1722,1722,1722,1722,1713,1713,1713,1705,1696,1696,978,978,1696,1696,1688,1688,1688,1680,1680,1671,1671,1663,1663,1663,1655,1655,1647,1647,1639,1639,1632,1632,1632,1624,1624,1624,1624,1616,1616,0,0,0,0,0,0,894,891,889,889,887,887,887,885,882,882,880,878,878,875,875,875,875,878,878,878,880,882,885,887,889,889,891,891,891,896,0,0,0,0,0,1489,1489,1496,1496,1496,1489,1489,1489,1483,1483,1477,1470,1470,1470,1470,1470,1464,1464,1458,1452,1452,1445,1445,1445,1445,1439,1439,1439,1433,1433,1433,1427,1427,1421,1421,1421,1415,1415,1415,1415,1410,1410,1410,1404,1398,1398,1392,1392,1392,1387,1387,1381,1381,1376,1376,1376,1376,1370,1365,1365,1365,1359,1359,1359,1359,1354,1354,1349,1349,1349,1343,1343,1338,1333,1333,1333,1328,1328,1328,1322,1322,1322,1322,1317,1312,1312,1307,1307,1307,1307,1302,1302,1297,1292,1292,1292,1292,1288,1288,1283,1283,1278,1278,1273,1273,1273,1268,1268,1268,1268,1268,1268,1264,1264,1259,1255,1255,1255,1250,1245,1245,1241,1241,1241,1241,1236,1232,1232,1232,1227,1227,1223,1223,1219,1219,1219,1219,1219,1214,1214,1210,1206,1206,1202,1202,1202,1202,1202,1197,1197,1197,1197,1193,1193,1189,1185,1185,1181,1177,1177,1173,1173,1169,1169,1169,1165,1165,1165,1161,1161,1157,1157,1153,1153,1153,1153,1153,1149,1149,1149,1145,1145,1141,1138,1138,1138,1138,1134,1134,1134,1134,1130,1130,1126,1126,1126,1123,1123,1119,1115,1115,1115,1112,1108,1108,1108,1108,1105,1105,1105,1101,1101,1097,1097,1094,1094,1094,1094,1090,1090,1087,1084,1084,1080,1080,1077,1077,1077,1073,1073,1070,1070,1067,1067,1067,1067,1067,1067,1067,1063,1063,1063,1060,1057,1057,1054,1054,1054,1050,1050,1050,1047,1047,1044,1044,1041,1041,1041,1038,1038,1038,1038,1034,1034,1031,1028,1028,1028,1028,1025,1025,1025,1025,1022,1022,1019,1016,1016,1016,1016,1013,1013,1013,1013,1010,1010,1007,1007,1007,0,0,0,0,0,0,0,0,0,0,0,0,0,0,0,0,0,0,0,0,0,0,0,0,0,0,0,0,0,0,0
0,0,0,0,0,0,0,0,0,0,0,0,0,0,1663,1663,1663,1655,1655,1655,1655,1655,1655,1655,1655,1655,1655,1655,1655,1647,1647,1639,1639,1639,1639,1647,1647,1647,1647,1639,1639,1632,1632,1632,1632,1639,1639,1639,1639,1632,1632,1632,1632,1632,1632,1632,1632,1632,1632,1632,1624,1624,1624,1624,1624,1624,1624,1624,1624,1624,1624,1624,1624,1624,1624,1624,1624,1624,1624,1624,1624,1624,1624,1624,1632,1632,1632,1632,1639,1647,1655,1655,1970,1970,1970,1970,1959,1959,1959,1959,1959,1959,1947,1936,1926,1926,1926,1926,1915,1915,1624,1624,1624,1632,1624,1624,1624,1624,1624,1624,1624,1632,1632,1632,1632,1639,1639,1647,1647,1647,1647,1647,1647,1655,1655,1655,1655,1663,1663,1671,1671,1680,1680,1688,1688,1688,1688,1688,1696,1696,1696,1696,1705,1705,1713,1713,1713,1713,1722,1722,1722,1731,1731,1731,1731,1739,1739,1739,1748,1748,1748,1757,1757,1757,1748,1748,1757,1757,1108,1108,1105,1101,1101,1097,1094,1090,1087,1087,1087,1084,1084,1084,1084,1084,1084,1084,1087,1087,1087,1087,1090,1094,1094,1094,1094,1087,1087,1063,1063,1057,1057,1054,1050,1050,1044,1041,1041,1038,1034,1034,1034,1034,1034,1031,1028,1025,1022,1022,1022,1019,1019,1016,1013,1013,1013,1010,1007,1007,1004,1001,998,998,998,1713,1713,1713,1713,1705,981,975,975,975,975,975,975,970,964,964,1688,1680,1671,1663,1663,1663,1655,1655,1647,1647,1639,1639,1632,1632,1624,1624,1624,1624,1624,1616,1616,0,0,0,0,0,894,894,891,891,889,887,887,887,885,885,882,880,878,878,878,875,875,875,878,878,880,880,882,885,889,889,889,891,891,891,896,0,0,0,0,0,1489,1489,1496,1496,1496,1489,1489,1489,1489,1483,1477,1470,1470,1470,1470,1470,1464,1464,1458,1452,1452,1445,1445,1445,1445,1445,1439,1439,1439,1433,1433,1427,1427,1427,1421,1421,1421,1415,1415,1415,1415,1410,1410,1404,1398,1398,1392,1392,1392,1387,1387,1387,1381,1381,1376,1376,1376,1370,1370,1370,1365,1365,1359,1359,1354,1354,1354,1349,1349,1349,1343,1343,1338,1333,1333,1328,1328,1328,1328,1322,1322,1322,1322,1317,1312,1312,1307,1307,1307,1307,1302,1302,1297,1292,1292,1292,1292,1288,1288,1288,1283,1283,1278,1273,1273,1273,1273,1268,1268,1268,1268,1268,1264,1264,1259,1259,1255,1255,1250,1250,1245,1241,1241,1241,1241,1236,1232,1232,1232,1227,1227,1223,1223,1219,1219,1219,1219,1219,1214,1214,1214,1210,1206,1206,1206,1202,1202,1202,1202,1197,1197,1197,1193,1193,1189,1189,1185,1181,1181,1177,1177,1173,1169,1169,1169,1169,1165,1165,1165,1161,1161,1157,1157,1153,1153,1153,1153,1149,1149,1149,1149,1149,1145,1141,1141,1138,1138,1134,1134,1134,1134,1134,1130,1130,1126,1126,1123,1123,1119,1119,1115,1115,1112,1112,1108,1108,1108,1108,1105,1105,1105,1101,1101,1097,1094,1094,1094,1094,1090,1090,1087,1084,1084,1080,1080,1077,1077,1077,1073,1073,1070,1070,1070,1070,1067,1067,1067,1067,1067,1063,1063,1063,1060,1060,1057,1054,1054,1054,1050,1050,1050,1047,1047,1044,1044,1041,1041,1041,1038,1038,1038,1038,1038,1034,1031,1031,1028,1028,1028,1025,1025,1025,1025,1022,1022,1019,1016,1016,1016,1016,1016,1013,1013,1013,1013,1010,1010,1007,1007,0,0,0,0,0,0,0,0,0,0,0,0,0,0,0,0,0,0,0,0,0,0,0,0,0,0,0,0,0,0,0
0,0,0,0,0,0,0,0,0,0,0,0,0,0,1663,1663,1663,1663,1655,1655,1655,1655,1655,1655,1655,1655,1655,1655,1655,1647,1647,1639,1639,1639,1639,1647,1647,1647,1647,1639,1639,1632,1632,1632,1632,1639,1639,1639,1639,1639,1632,1632,1639,1632,1632,1632,1632,1632,1632,1632,1632,1632,1632,1632,1632,1624,1624,1624,1624,1624,1624,1624,1624,1624,1624,1624,1624,1624,1624,1624,1624,1632,1624,1624,1632,1632,1632,1632,1639,1647,1655,1663,1663,1970,1970,1970,1959,1959,1959,1959,1959,1959,1947,1936,1936,1926,1926,1926,1915,1624,1624,1624,1624,1624,1624,1624,1624,1624,1624,1624,1632,1632,1632,1632,1632,1639,1647,1647,1647,1647,1655,1655,1655,1655,1655,1663,1663,1671,1671,1671,1671,1680,1680,1688,1688,1688,1688,1688,1696,1696,1696,1696,1696,1705,1713,1713,1713,1713,1722,1722,1722,1731,1731,1731,1731,1731,1739,1739,1748,1748,1748,1757,1757,1748,1748,1748,1748,1748,1105,1105,1105,1101,1097,1097,1094,1094,1087,1087,1087,1084,1084,1084,1084,1084,1084,1084,1084,1084,1084,1087,1087,1087,1087,1087,1090,1073,1063,1063,1060,1057,1057,1054,1050,1047,1044,1041,1041,1038,1038,1038,1034,1034,1034,1031,1028,1025,1022,1022,1022,1019,1019,1016,1013,1013,1013,1010,1007,1004,1004,1001,998,998,995,992,989,987,987,987,981,975,975,975,975,975,975,967,964,964,962,962,959,959,959,1663,1655,1655,1647,1647,1632,1632,1632,1632,1624,1624,1624,1624,1624,1624,0,0,0,0,0,0,894,894,894,891,889,887,887,887,885,885,882,880,878,878,878,875,875,878,878,878,880,880,882,885,889,889,891,894,894,894,896,0,0,0,0,0,0,1496,1496,1496,1496,1489,1489,1489,1489,1483,1483,1477,1477,1470,1470,1470,1464,1464,1458,1458,1452,1452,1445,1445,1445,1445,1439,1439,1439,1439,1433,1427,1427,1427,1421,1421,1421,1415,1415,1415,1415,1410,1410,1404,1398,1398,1392,1392,1392,1392,1387,1387,1387,1381,1376,1376,1376,1370,1370,1370,1370,1365,1359,1359,1354,1354,1354,1349,1349,1349,1343,1343,1338,1333,1333,1328,1328,1328,1328,1328,1322,1322,1322,1317,1312,1312,1312,1307,1307,1307,1302,1302,1297,1292,1292,1292,1292,1288,1288,1288,1283,1283,1283,1278,1273,1273,1273,1273,1268,1268,1268,1268,1268,1264,1259,1259,1255,1255,1250,1250,1245,1245,1245,1241,1236,1236,1236,1232,1232,1232,1227,1223,1223,1223,1219,1219,1219,1219,1214,1214,1214,1210,1210,1206,1206,1202,1202,1202,1202,1202,1197,1197,1197,1193,1189,1189,1185,1185,1181,1181,1177,1177,1173,1169,1169,1169,1165,1165,1165,1165,1161,1161,1157,1157,1153,1153,1153,1149,1149,1149,1149,1149,1145,1141,1141,1138,1138,1134,1134,1134,1134,1134,1130,1130,1126,1126,1123,1123,1119,1119,1115,1115,1112,1112,1108,1108,1108,1108,1105,1105,1105,1101,1101,1097,1097,1094,1094,1094,1090,1090,1087,1084,1084,1080,1080,1077,1077,1077,1077,1077,1073,1070,1070,1070,1070,1067,1067,1067,1067,1063,1063,1063,1060,1060,1057,1054,1054,1054,1050,1050,1050,1047,1047,1044,1044,1041,1041,1041,1041,1038,1038,1038,1038,1034,1034,1031,1031,1028,1028,1028,1025,1025,1025,1025,1022,1019,1016,1016,1016,1016,1016,1013,1013,1013,1013,1013,1010,1007,1007,0,0,0,0,0,0,0,0,0,0,0,0,0,0,0,0,0,0,0,0,0,0,0,0,0,0,0,0,0,0,0
0,0,0,0,0,0,0,0,0,0,0,0,0,0,1663,1663,1663,1663,1663,1663,1663,1663,1655,1655,1655,1655,1655,1655,1655,1647,1647,1647,1639,1639,1647,1647,1647,1647,1647,1647,1647,1639,1639,1632,1632,1647,1639,1639,1639,1639,1639,1639,1639,1639,1639,1632,1632,1632,1632,1632,1632,1632,1632,1632,1632,1624,1624,1624,1624,1624,1624,1624,1624,1624,1624,1624,1624,1624,1624,1624,1624,1632,1632,1632,1632,1632,1639,1639,1647,1647,1655,1663,1663,1970,1970,1970,1959,1959,1959,1959,1959,1959,1947,1936,1936,1936,1926,1926,1915,1624,1624,1624,1624,1624,1624,1624,1624,1624,1624,1624,1632,1632,1632,1632,1632,1639,1647,1647,1647,1655,1655,1655,1655,1655,1655,1663,1663,1671,1680,1680,1680,1680,1680,1688,1688,1688,1688,1688,1696,1696,1696,1696,1696,1705,1713,1713,1713,1713,1722,1722,1722,1731,1731,1731,1731,1731,1739,1739,1748,1748,1748,1757,1757,1748,1748,1748,0,0,0,1101,1101,1101,1097,1094,1094,1090,1087,1087,1087,1084,1084,1084,1080,1080,1080,1080,1084,1080,1080,1080,1080,1077,1073,1067,1063,1063,1063,1060,1060,1057,1057,1054,1050,1047,1044,1044,1044,1038,1038,1038,1034,1034,1034,1031,1028,1025,1025,1022,1022,1022,1019,1016,1016,1013,1013,1010,1007,1004,1001,1001,998,998,995,992,989,987,987,987,981,978,978,978,978,975,973,967,967,964,962,962,959,959,956,956,956,956,1647,1647,946,946,948,948,948,1624,1624,1632,1632,1632,0,0,0,0,0,0,894,894,894,894,891,887,887,887,887,885,885,882,878,878,878,878,878,878,878,880,880,880,885,885,889,891,894,894,894,894,896,0,0,0,0,0,0,1496,1496,1496,1496,1489,1489,1489,1489,1489,1489,1483,1477,1477,1470,1470,1464,1464,1464,1458,1452,1452,1452,1445,1445,1445,1445,1439,1439,1439,1433,1427,1427,1427,1421,1421,1421,1415,1415,1415,1415,1410,1410,1404,1398,1398,1398,1392,1392,1392,1392,1392,1387,1387,1381,1376,1376,1370,1370,1370,1370,1365,1359,1359,1354,1354,1354,1354,1349,1349,1343,1343,1338,1333,1333,1333,1328,1328,1328,1328,1328,1328,1328,1317,1317,1312,1312,1307,1307,1307,1302,1302,1297,1297,1292,1292,1292,1292,1288,1288,1288,1283,1283,1278,1273,1273,1273,1273,1273,1268,1268,1268,1268,1264,1259,1259,1255,1255,1250,1250,1250,1245,1245,1241,1236,1236,1236,1232,1232,1232,1232,1227,1223,1223,1219,1219,1219,1219,1214,1214,1214,1214,1210,1210,1206,1206,1206,1202,1202,1202,1197,1197,1197,1193,1189,1189,1185,1185,1185,1181,1181,1177,1173,1169,1169,1169,1165,1165,1165,1165,1161,1161,1161,1157,1153,1153,1153,1149,1149,1149,1149,1149,1145,1141,1141,1138,1138,1134,1134,1134,1134,1134,1130,1130,1130,1126,1126,1123,1119,1119,1115,1115,1112,1112,1112,1108,1108,1108,1108,1105,1105,1101,1101,1101,1097,1094,1094,1094,1090,1090,1087,1087,1084,1080,1080,1077,1077,1077,1077,1073,1073,1073,1073,1070,1070,1067,1067,1067,1067,1063,1063,1063,1063,1060,1057,1057,1054,1054,1050,1050,1050,1047,1047,1047,1044,1044,1041,1041,1041,1041,1038,1038,1038,1034,1034,1031,1031,1031,1028,1028,1028,1025,1025,1025,1022,1019,1016,1016,1016,1016,1016,1013,1013,1013,1013,1013,1010,1010,1010,0,0,0,0,0,0,0,0,0,0,0,0,0,0,0,0,0,0,0,0,0,0,0,0,0,0,0,0,0,0,0
0,0,0,0,0,0,0,0,0,0,0,0,0,0,1663,1663,1663,1663,1663,1663,1663,1663,1663,1663,1663,1663,1663,1655,1655,1655,1647,1647,1647,1647,1647,1647,1647,1647,1647,1647,1647,1647,1639,1639,1639,1639,1639,1639,1639,1639,1639,1639,1639,1639,1639,1632,1632,1632,1632,1632,1632,1632,1632,1632,1632,1632,1632,1632,1632,1624,1624,1624,1624,1624,1624,1624,1624,1624,1624,1624,1624,1624,1624,1624,1632,1632,1639,1639,1639,1639,1647,1655,1655,1970,1970,1970,1959,1959,1959,1959,1959,1959,1947,1936,1936,1936,1926,1926,1915,1915,1624,1624,1624,1624,1624,1624,1624,1624,1624,1624,1632,1632,1632,1632,1639,1639,1647,1647,1647,1655,1655,1655,1655,1655,1663,1663,1671,1680,1680,1680,1680,1680,1688,1688,1688,1688,1688,1696,1696,1696,1696,1696,1705,1705,1713,1713,1713,1722,1722,1731,1731,1731,1731,1731,1731,1739,1739,1748,1748,1748,1748,1757,1757,1748,1748,1748,0,1748,0,0,0,1097,1097,1094,1094,1090,1087,1087,1087,1084,1084,1080,1080,1080,1080,1080,1080,1080,1077,1077,1077,1073,1070,1067,1063,1063,1063,1060,1060,1057,1057,1054,1050,1050,1047,1047,1047,1041,1038,1038,1034,1034,1034,1034,1028,1028,1025,1022,1022,1022,1019,1016,1016,1013,1010,1007,1007,1004,1001,1001,998,998,995,992,989,989,987,987,984,981,981,981,978,975,973,970,967,964,962,962,959,959,956,956,956,951,948,946,946,946,946,946,948,951,1632,1632,1632,0,0,0,0,0,0,0,894,894,894,894,891,887,887,887,887,885,885,882,878,878,878,878,878,878,878,880,882,882,885,887,889,891,894,896,896,896,896,0,0,0,0,0,0,1503,1503,1496,1496,1496,1496,1489,1489,1489,1489,1483,1483,1477,1477,1470,1470,1464,1464,1458,1452,1452,1452,1445,1445,1445,1445,1439,1439,1439,1433,1433,1427,1427,1421,1421,1421,1421,1415,1415,1415,1410,1410,1404,1398,1398,1398,1398,1392,1392,1392,1392,1392,1387,1381,1381,1376,1370,1370,1370,1370,1365,1359,1359,1359,1354,1354,1354,1349,1349,1349,1343,1343,1338,1333,1333,1333,1328,1328,1328,1328,1328,1322,1317,1317,1312,1312,1312,1307,1307,1302,1302,1297,1297,1297,1292,1292,1292,1288,1288,1288,1288,1283,1278,1278,1273,1273,1273,1268,1268,1268,1268,1268,1264,1259,1259,1255,1255,1255,1250,1250,1250,1245,1245,1236,1236,1236,1236,1232,1232,1232,1227,1227,1223,1223,1223,1219,1219,1219,1219,1214,1214,1214,1210,1210,1206,1206,1202,1202,1202,1197,1197,1197,1193,1189,1189,1185,1185,1185,1181,1181,1181,1177,1173,1169,1169,1169,1165,1165,1165,1165,1165,1161,1161,1157,1153,1153,1149,1149,1149,1149,1149,1145,1141,1141,1138,1138,1138,1134,1134,1134,1134,1134,1130,1130,1126,1126,1123,1119,1119,1119,1119,1115,1115,1112,1112,1108,1108,1108,1105,1105,1105,1101,1101,1097,1094,1094,1094,1090,1090,1090,1087,1087,1084,1080,1080,1077,1077,1077,1073,1073,1073,1073,1070,1070,1070,1067,1067,1067,1063,1063,1063,1063,1060,1057,1054,1054,1054,1054,1050,1050,1050,1047,1047,1047,1044,1041,1041,1041,1041,1041,1038,1038,1034,1034,1031,1031,1031,1028,1028,1028,1025,1025,1025,1022,1019,1019,1016,1016,1016,1016,1013,1013,1013,1013,1013,1010,1010,1010,0,0,0,0,0,0,0,0,0,0,0,0,0,0,0,0,0,0,0,0,0,0,0,0,0,0,0,0,0,0,0
0,0,0,0,0,0,0,0,0,0,0,0,0,0,1663,1663,1663,1663,1663,1663,1663,1663,1663,1663,1663,1663,1663,1663,1663,1655,1655,1655,1655,1647,1647,1647,1655,1655,1647,1647,1647,1647,1647,1647,1647,1639,1639,1647,1647,1639,1639,1639,1639,1639,1639,1632,1632,1632,1632,1632,1632,1632,1632,1632,1632,1632,1632,1632,1632,1632,1632,1632,1624,1624,1624,1624,1624,1624,1624,1624,1624,1624,1624,1624,1632,1632,1632,1639,1639,1639,1647,1647,1655,1663,1970,1970,1970,1970,1959,1959,1959,1947,1947,1936,1936,1936,1926,1926,1915,1915,1624,1624,1624,1632,1632,1632,1624,1624,1632,1632,1632,1632,1632,1632,1639,1647,1647,1647,1655,1655,1655,1655,1655,1655,1663,1671,1680,1680,1680,1680,1680,1688,1688,1688,1688,1688,1688,1696,1696,1696,1696,1696,1705,1705,1713,1713,1713,1722,1722,1731,1731,1731,1731,1731,1731,1739,1748,1748,1748,1748,1757,1757,1757,1757,1748,1748,1748,1748,0,0,0,1097,1094,1094,1090,1090,1087,1087,1087,1084,1084,1080,1080,1080,1080,1080,1080,1077,1077,1073,1073,1070,1070,1067,1063,1063,1063,1060,1060,1057,1057,1050,1050,1050,1047,1047,1047,1041,1041,1038,1038,1034,1034,1034,1028,1028,1025,1022,1022,1022,1019,1016,1016,1013,1010,1007,1007,1004,1001,1001,998,998,998,995,989,989,987,987,984,981,981,981,978,975,973,970,967,964,964,962,959,959,956,956,956,951,948,946,946,946,946,946,946,946,946,948,0,0,0,0,0,0,0,0,894,894,894,894,891,889,887,887,887,885,885,882,878,878,878,878,878,878,878,880,882,882,885,887,889,891,894,896,896,896,896,0,0,0,0,0,0,1509,1509,1503,1496,1496,1496,1489,1489,1489,1489,1483,1483,1477,1477,1470,1470,1464,1464,1458,1458,1452,1452,1452,1445,1445,1445,1445,1439,1439,1433,1433,1427,1421,1421,1421,1421,1421,1415,1415,1415,1415,1404,1404,1398,1398,1398,1398,1392,1392,1392,1392,1392,1387,1387,1381,1376,1376,1370,1370,1370,1365,1359,1359,1359,1354,1354,1354,1349,1349,1349,1343,1343,1338,1333,1333,1333,1328,1328,1328,1328,1328,1322,1322,1317,1317,1312,1312,1307,1307,1307,1302,1302,1297,1297,1292,1292,1292,1292,1288,1288,1288,1283,1283,1278,1273,1273,1273,1268,1268,1268,1268,1268,1264,1259,1259,1255,1255,1255,1255,1250,1250,1250,1245,1241,1236,1236,1236,1232,1232,1232,1232,1227,1227,1227,1223,1223,1219,1219,1219,1219,1214,1214,1214,1210,1210,1206,1202,1202,1202,1202,1197,1197,1197,1193,1189,1189,1185,1185,1185,1181,1181,1177,1177,1173,1169,1169,1169,1169,1165,1165,1165,1165,1161,1161,1157,1153,1153,1153,1149,1149,1149,1145,1141,1141,1138,1138,1138,1134,1134,1134,1134,1134,1130,1130,1126,1126,1123,1123,1119,1119,1119,1115,1115,1115,1112,1112,1108,1108,1108,1105,1105,1101,1101,1097,1094,1094,1094,1094,1090,1090,1090,1087,1084,1084,1080,1077,1077,1077,1077,1077,1073,1073,1073,1070,1070,1067,1067,1067,1063,1063,1063,1063,1063,1060,1054,1054,1054,1054,1050,1050,1050,1050,1050,1047,1044,1044,1041,1041,1041,1041,1038,1038,1034,1034,1031,1031,1031,1031,1028,1028,1025,1025,1025,1022,1022,1019,1019,1016,1016,1016,1016,1013,1013,1013,1013,1010,1010,1010,0,0,0,0,0,0,0,0,0,0,0,0,0,0,0,0,0,0,0,0,0,0,0,0,0,0,0,0,0,0,0
0,0,0,0,0,0,0,0,0,0,0,0,0,0,1663,1663,1663,1663,1671,1663,1663,1663,1663,1663,1663,1663,1663,1663,1663,1655,1655,1655,1655,1655,1655,1655,1655,1655,1647,1647,1647,1647,1647,1647,1647,1647,1647,1647,1647,1647,1639,1639,1639,1639,1639,1639,1639,1639,1632,1632,1632,1632,1632,1632,1632,1632,1632,1632,1632,1632,1632,1632,1624,1624,1624,1624,1624,1624,1624,1632,1624,1624,1624,1624,1632,1632,1632,1639,1639,1639,1647,1647,1655,1663,1970,1970,1970,1970,1959,1959,1959,1947,1947,1936,1936,1936,1926,1926,1926,1915,1915,1632,1632,1632,1632,1632,1632,1632,1632,1632,1632,1632,1632,1632,1639,1647,1647,1647,1655,1655,1655,1655,1655,1663,1663,1671,1671,1680,1680,1680,1680,1688,1688,1688,1688,1688,1696,1696,1696,1696,1696,1705,1705,1713,1713,1713,1713,1722,1722,1731,1731,1731,1731,1731,1739,1739,1748,1748,1757,1757,1757,1757,1757,1757,1748,1748,1748,1748,0,0,0,1094,1094,1094,1090,1090,1090,1087,1087,1084,1084,1084,1080,1080,1080,1080,1077,1077,1073,1073,1070,1070,1067,1067,1063,1063,1063,1060,1060,1060,1057,1050,1050,1050,1047,1047,1047,1044,1041,1038,1038,1034,1034,1031,1031,1028,1025,1025,1022,1022,1019,1016,1016,1013,1010,1007,1004,1004,1001,1001,998,998,998,995,989,989,987,987,984,981,978,975,975,975,975,970,967,964,964,962,962,959,956,956,954,954,951,946,946,946,946,946,943,943,946,943,940,940,0,0,0,0,0,0,896,896,894,894,891,891,887,887,887,885,885,882,878,878,878,878,878,878,878,880,882,882,885,887,889,891,894,896,896,896,896,0,0,0,0,0,0,1509,1509,1503,1496,1496,1496,1496,1496,1489,1489,1489,1483,1483,1477,1470,1470,1464,1464,1458,1458,1458,1452,1452,1452,1445,1445,1445,1445,1439,1433,1433,1427,1421,1421,1421,1421,1421,1415,1415,1415,1415,1404,1404,1398,1398,1398,1398,1392,1392,1392,1392,1387,1387,1387,1376,1376,1376,1370,1370,1370,1370,1365,1359,1359,1354,1354,1354,1349,1349,1349,1343,1343,1338,1333,1333,1333,1328,1328,1328,1328,1328,1322,1322,1322,1317,1312,1312,1312,1307,1307,1307,1302,1302,1302,1297,1292,1292,1292,1288,1288,1288,1288,1283,1278,1278,1273,1273,1273,1268,1268,1268,1268,1264,1259,1259,1259,1255,1255,1255,1250,1250,1250,1250,1241,1236,1236,1236,1236,1232,1232,1232,1227,1227,1227,1223,1223,1223,1223,1219,1219,1214,1214,1214,1214,1210,1210,1206,1202,1202,1202,1197,1197,1197,1193,1189,1189,1185,1185,1185,1185,1181,1181,1177,1177,1173,1169,1169,1169,1165,1165,1165,1165,1165,1161,1157,1153,1153,1153,1153,1149,1149,1145,1141,1141,1138,1138,1138,1138,1134,1134,1134,1134,1130,1130,1130,1123,1123,1123,1119,1119,1119,1119,1115,1115,1112,1112,1108,1108,1108,1105,1105,1101,1101,1097,1094,1094,1094,1094,1090,1090,1090,1087,1087,1084,1080,1080,1077,1077,1077,1077,1073,1073,1073,1070,1070,1067,1067,1067,1063,1063,1063,1063,1063,1060,1057,1057,1054,1054,1054,1050,1050,1050,1050,1047,1044,1044,1041,1041,1041,1041,1038,1038,1034,1034,1034,1031,1031,1031,1028,1028,1025,1025,1025,1022,1022,1019,1019,1016,1016,1016,1016,1013,1013,1013,1013,1010,1010,1010,0,0,0,0,0,0,0,0,0,0,0,0,0,0,0,0,0,0,0,0,0,0,0,0,0,0,0,0,0,0,0
0,0,0,0,0,0,0,0,0,0,0,0,0,0,1671,1671,1663,1663,1671,1663,1663,1663,1663,1663,1663,1663,1663,1663,1663,1663,1663,1663,1655,1655,1655,1655,1655,1655,1655,1647,1647,1647,1647,1647,1647,1647,1647,1647,1647,1647,1639,1639,1639,1639,1639,1639,1639,1639,1639,1639,1639,1632,1632,1632,1632,1632,1632,1632,1632,1632,1632,1632,1624,1624,1624,1624,1624,1624,1624,1632,1632,1632,1632,1632,1632,1632,1632,1639,1639,1647,1647,1655,1655,1655,1981,1970,1970,1970,1970,1959,1959,1959,1947,1947,1936,1936,1926,1926,1926,1915,1915,1632,1632,1632,1632,1632,1632,1632,1632,1632,1632,1632,1632,1639,1639,1647,1647,1655,1655,1655,1655,1655,1655,1663,1663,1671,1671,1671,1671,1680,1680,1688,1688,1688,1688,1688,1696,1696,1696,1696,1696,1705,1705,1713,1713,1713,1722,1722,1722,1731,1731,1731,1731,1731,1739,1739,1748,1748,1757,1757,1757,1757,1757,1757,1748,1748,1748,1757,0,0,0,1094,1094,1094,1094,1090,1090,1087,1087,1087,1084,1084,1084,1080,1080,1080,1077,1077,1073,1073,1070,1070,1067,1067,1063,1063,1063,1063,1060,1060,1057,1054,1050,1050,1047,1047,1044,1044,1041,1038,1038,1034,1034,1031,1031,1028,1025,1025,1025,1022,1019,1019,1016,1013,1010,1007,1004,1004,1001,1001,998,998,998,995,989,989,989,987,984,981,978,975,975,975,975,970,967,964,964,962,962,959,956,956,954,954,951,946,946,946,943,943,943,943,943,940,935,935,0,0,0,0,0,0,896,896,894,894,894,891,889,889,887,885,885,882,880,878,878,878,878,878,880,882,882,882,885,887,889,891,894,894,896,896,896,0,0,0,0,0,0,1516,1509,1503,1503,1496,1496,1496,1496,1489,1489,1489,1489,1483,1477,1477,1470,1470,1464,1464,1464,1458,1458,1452,1452,1445,1445,1445,1445,1439,1439,1433,1427,1427,1421,1421,1421,1421,1421,1415,1415,1415,1410,1404,1398,1398,1398,1398,1392,1392,1392,1392,1387,1387,1387,1376,1376,1376,1370,1370,1370,1370,1365,1365,1359,1359,1354,1354,1349,1349,1349,1343,1343,1338,1338,1333,1333,1333,1328,1328,1328,1328,1322,1322,1322,1317,1312,1312,1312,1307,1307,1307,1307,1302,1302,1302,1292,1292,1292,1288,1288,1288,1288,1283,1278,1278,1273,1273,1273,1268,1268,1268,1268,1264,1264,1259,1259,1259,1255,1255,1255,1255,1250,1250,1241,1241,1236,1236,1236,1232,1232,1232,1232,1227,1227,1227,1223,1223,1223,1219,1219,1214,1214,1214,1214,1210,1210,1206,1206,1202,1202,1197,1197,1197,1193,1189,1189,1189,1185,1185,1185,1181,1181,1181,1177,1177,1169,1169,1169,1165,1165,1165,1165,1165,1165,1161,1157,1153,1153,1153,1149,1149,1145,1145,1141,1138,1138,1138,1138,1138,1134,1134,1134,1134,1130,1130,1123,1123,1123,1123,1119,1119,1119,1115,1115,1112,1112,1108,1108,1108,1105,1105,1101,1101,1097,1097,1094,1094,1094,1090,1090,1090,1090,1087,1087,1084,1080,1080,1077,1077,1077,1077,1077,1073,1070,1070,1067,1067,1067,1063,1063,1063,1063,1063,1060,1057,1057,1057,1054,1054,1054,1050,1050,1050,1047,1044,1044,1044,1041,1041,1041,1038,1038,1038,1038,1034,1031,1031,1031,1028,1028,1028,1025,1025,1022,1022,1019,1019,1016,1016,1016,1016,1013,1013,1013,1013,1013,1010,1010,0,0,0,0,0,0,0,0,0,0,0,0,0,0,0,0,0,0,0,0,0,0,0,0,0,0,0,0,0,0,0
0,0,0,0,0,0,0,0,0,0,0,0,0,0,1663,1663,1663,1671,1671,1671,1663,1663,1663,1663,1663,1663,1663,1663,1663,1663,1663,1663,1655,1655,1655,1655,1655,1655,1655,1655,1647,1647,1647,1647,1647,1647,1647,1647,1647,1647,1639,1639,1639,1639,1639,1639,1639,1639,1639,1639,1639,1639,1632,1632,1632,1632,1632,1632,1632,1632,1632,1632,1632,1632,1632,1624,1624,1632,1632,1632,1632,1632,1632,1632,1632,1632,1639,1639,1639,1647,1647,1655,1655,1655,1655,1981,1970,1970,1970,1970,1959,1959,1947,1947,1936,1936,1926,1926,1926,1926,1915,1639,1632,1632,1632,1632,1632,1632,1632,1632,1632,1639,1639,1639,1647,1647,1647,1655,1655,1655,1655,1663,1663,1663,1663,1671,1671,1671,1671,1680,1680,1688,1688,1688,1688,1688,1696,1696,1696,1696,1696,1705,1705,1713,1713,1713,1722,1722,1731,1731,1731,1731,1731,1731,1739,1739,1748,1748,1748,1748,1757,1757,1757,1757,1757,1757,1757,1757,0,0,0,1094,1094,1094,1094,1090,1090,1087,1087,1087,1084,1084,1084,1084,1080,1080,1080,1077,1073,1073,1070,1070,1070,1067,1063,1063,1063,1063,1060,1060,1057,1054,1050,1050,1047,1047,1044,1044,1041,1038,1038,1038,1034,1031,1031,1031,1028,1025,1025,1022,1022,1019,1019,1016,1010,1007,1004,1004,1001,1001,1001,998,998,995,989,989,989,987,984,981,978,978,975,975,973,970,967,967,964,964,962,959,956,956,954,954,951,946,946,943,943,943,940,940,940,940,933,930,930,923,923,923,923,0,896,896,894,894,894,891,889,889,887,887,885,885,880,880,878,878,878,880,880,882,882,885,885,887,889,891,894,894,896,896,898,0,0,0,0,0,0,1516,1516,1503,1503,1496,1496,1496,1496,1489,1489,1489,1489,1483,1477,1477,1470,1470,1464,1464,1464,1458,1458,1452,1452,1445,1445,1445,1445,1439,1439,1439,1427,1427,1421,1421,1421,1421,1421,1415,1415,1415,1410,1404,1398,1398,1398,1398,1392,1392,1392,1392,1387,1387,1387,1376,1376,1376,1376,1376,1370,1370,1365,1365,1359,1359,1354,1354,1349,1349,1349,1343,1343,1338,1338,1333,1333,1333,1333,1333,1328,1328,1328,1322,1322,1317,1317,1312,1312,1312,1307,1307,1307,1307,1302,1302,1297,1292,1292,1292,1288,1288,1288,1283,1278,1278,1273,1273,1273,1268,1268,1268,1268,1264,1264,1264,1259,1259,1255,1255,1255,1255,1250,1250,1245,1241,1241,1236,1236,1236,1232,1232,1232,1227,1227,1227,1223,1223,1223,1219,1219,1214,1214,1214,1214,1214,1210,1206,1206,1202,1202,1202,1197,1197,1193,1193,1189,1189,1185,1185,1185,1185,1181,1181,1177,1177,1169,1169,1169,1165,1165,1165,1165,1165,1165,1161,1161,1157,1153,1153,1149,1149,1145,1145,1141,1138,1138,1138,1138,1138,1138,1134,1134,1134,1130,1130,1123,1123,1123,1123,1123,1119,1119,1119,1115,1112,1112,1108,1108,1108,1105,1105,1101,1101,1097,1097,1094,1094,1094,1090,1090,1090,1090,1090,1087,1084,1084,1080,1080,1077,1077,1077,1077,1073,1070,1070,1067,1067,1067,1067,1063,1063,1063,1060,1060,1057,1057,1057,1054,1054,1054,1054,1050,1050,1050,1047,1047,1044,1041,1041,1041,1038,1038,1038,1038,1034,1034,1031,1031,1028,1028,1028,1025,1025,1022,1022,1019,1019,1019,1016,1016,1016,1016,1016,1013,1013,1013,1013,1013,0,0,0,0,0,0,0,0,0,0,0,0,0,0,0,0,0,0,0,0,0,0,0,0,0,0,0,0,0,0,0
0,0,0,0,0,0,0,0,0,0,0,0,0,0,1663,1663,1663,1671,1671,1671,1663,1663,1663,1663,1663,1663,1663,1663,1663,1663,1663,1663,1663,1663,1655,1655,1663,1655,1655,1655,1655,1655,1655,1655,1655,1647,1647,1647,1647,1647,1647,1647,1639,1639,1639,1639,1639,1639,1647,1647,1647,1639,1639,1639,1632,1632,1632,1632,1632,1632,1632,1632,1632,1632,1632,1624,1624,1632,1632,1632,1632,1632,1632,1632,1632,1632,1639,1639,1639,1647,1647,1655,1655,1655,1655,1981,1981,1981,1970,1970,1970,1959,1959,1947,1936,1936,1936,1936,1926,1926,1915,1639,1632,1632,1632,1632,1632,1632,1632,1632,1632,1639,1639,1639,1647,1647,1655,1655,1655,1655,1655,1663,1663,1663,1663,1671,1671,1671,1671,1680,1688,1688,1688,1688,1688,1688,1696,1696,1696,1696,1696,1705,1705,1713,1713,1722,1722,1722,1731,1731,1731,1731,1731,1739,1739,1739,1748,1748,1748,1748,1757,1757,1757,1757,1757,1757,1757,1757,0,0,0,1097,1097,1094,1094,1090,1090,1087,1087,1087,1084,1084,1084,1084,1080,1080,1077,1077,1073,1073,1070,1070,1070,1067,1063,1063,1063,1063,1060,1060,1057,1054,1050,1050,1050,1047,1047,1044,1041,1041,1038,1038,1034,1034,1031,1031,1028,1025,1025,1022,1022,1019,1019,1016,1010,1007,1004,1004,1004,1001,1001,998,998,992,989,989,989,987,987,984,981,978,975,975,973,970,967,967,964,964,962,959,956,956,954,954,951,946,946,943,943,940,938,938,938,933,930,928,925,923,923,920,920,920,896,896,894,894,891,891,889,889,887,887,885,885,882,880,878,878,880,880,880,882,882,885,885,887,889,891,894,896,896,896,898,0,0,0,0,0,0,1516,1516,1509,1503,1503,1496,1496,1496,1489,1489,1489,1489,1483,1483,1477,1470,1470,1464,1464,1464,1458,1458,1458,1452,1445,1445,1445,1445,1445,1439,1439,1433,1433,1427,1427,1421,1421,1421,1421,1415,1415,1410,1404,1404,1398,1398,1398,1392,1392,1392,1392,1387,1387,1381,1381,1376,1376,1376,1376,1370,1370,1365,1365,1359,1359,1354,1354,1354,1349,1349,1343,1343,1343,1338,1338,1333,1333,1333,1333,1328,1328,1328,1328,1322,1322,1317,1317,1312,1312,1312,1307,1307,1307,1302,1302,1297,1292,1292,1292,1288,1288,1288,1283,1283,1278,1273,1273,1273,1273,1268,1268,1268,1268,1264,1264,1259,1259,1255,1255,1255,1255,1250,1250,1250,1241,1241,1236,1236,1236,1232,1232,1232,1232,1227,1227,1223,1223,1223,1219,1219,1214,1214,1214,1214,1214,1210,1210,1206,1202,1202,1202,1197,1197,1197,1193,1189,1189,1189,1185,1185,1185,1181,1181,1181,1177,1169,1169,1169,1169,1169,1169,1165,1165,1165,1161,1161,1157,1153,1153,1153,1149,1145,1145,1141,1141,1138,1138,1138,1138,1138,1134,1134,1134,1130,1130,1126,1123,1123,1123,1123,1123,1119,1119,1115,1112,1112,1108,1108,1108,1105,1105,1105,1101,1101,1097,1097,1094,1094,1090,1090,1090,1090,1090,1090,1087,1084,1080,1080,1077,1077,1077,1077,1073,1070,1070,1070,1067,1067,1067,1063,1063,1063,1060,1060,1057,1057,1057,1054,1054,1054,1054,1050,1050,1050,1047,1047,1044,1044,1041,1041,1041,1038,1038,1038,1034,1034,1034,1031,1031,1028,1028,1028,1025,1025,1025,1022,1022,1019,1019,1019,1016,1016,1016,1016,1016,1013,1013,1013,0,0,0,0,0,0,0,0,0,0,0,0,0,0,0,0,0,0,0,0,0,0,0,0,0,0,0,0,0,0,0
0,0,0,0,0,0,0,0,0,0,0,0,0,0,1671,1671,1671,1671,1671,1671,1671,1663,1663,1663,1663,1663,1663,1663,1663,1663,1663,1663,1663,1663,1663,1663,1663,1655,1655,1655,1655,1655,1655,1655,1655,1655,1655,1655,1655,1647,1647,1639,1639,1639,1639,1647,1647,1647,1647,1647,1647,1639,1639,1639,1632,1632,1632,1632,1632,1632,1632,1632,1632,1632,1632,1632,1632,1632,1632,1632,1632,1632,1632,1632,1632,1632,1639,1639,1639,1647,1647,1655,1655,1655,1655,1993,1981,1981,1981,1970,1970,1959,1959,1947,1936,1936,1936,1936,1926,1926,1926,1639,1632,1632,1632,1632,1632,1632,1632,1632,1639,1639,1639,1639,1647,1647,1647,1655,1655,1655,1655,1663,1663,1663,1663,1671,1671,1671,1671,1680,1688,1688,1688,1688,1688,1688,1696,1696,1696,1696,1705,1705,1705,1713,1713,1722,1722,1731,1731,1731,1731,1731,1739,1739,1748,1748,1748,1748,1748,1748,1757,1757,1757,1757,1757,1757,1757,1757,0,0,0,1097,1097,1094,1094,1090,1090,1087,1087,1087,1084,1084,1084,1084,1084,1080,1077,1077,1073,1073,1073,1070,1070,1067,1067,1063,1063,1063,1060,1057,1057,1054,1054,1050,1050,1047,1047,1044,1041,1041,1038,1038,1034,1034,1031,1031,1028,1028,1025,1022,1022,1019,1019,1016,1013,1010,1007,1004,1004,1001,1001,998,998,992,989,989,989,987,987,984,981,978,975,975,973,973,967,967,964,964,962,959,956,956,954,954,951,946,946,943,940,938,938,935,935,933,930,928,925,923,923,920,920,920,896,896,894,894,891,891,889,889,887,887,885,885,885,880,880,878,878,878,880,882,882,885,885,887,891,894,896,896,896,896,898,0,0,0,0,0,0,1516,1516,1509,1503,1503,1496,1496,1496,1489,1489,1489,1489,1483,1483,1477,1470,1470,1464,1464,1464,1464,1458,1458,1452,1452,1452,1445,1445,1445,1439,1439,1439,1433,1433,1433,1427,1427,1421,1421,1415,1415,1415,1410,1404,1404,1398,1398,1398,1392,1392,1392,1392,1387,1381,1381,1376,1376,1376,1376,1370,1370,1365,1365,1365,1359,1359,1354,1354,1349,1349,1343,1343,1343,1338,1338,1333,1333,1333,1333,1333,1328,1328,1328,1322,1322,1317,1317,1312,1312,1312,1307,1307,1307,1307,1302,1302,1292,1292,1292,1292,1288,1288,1283,1283,1278,1278,1273,1273,1273,1268,1268,1268,1268,1264,1264,1259,1259,1255,1255,1255,1255,1250,1250,1250,1245,1241,1241,1236,1236,1236,1232,1232,1232,1232,1227,1223,1223,1223,1219,1219,1219,1214,1214,1214,1214,1210,1210,1206,1202,1202,1202,1197,1197,1197,1193,1189,1189,1189,1185,1185,1185,1181,1181,1181,1177,1173,1169,1169,1169,1169,1169,1165,1165,1165,1165,1161,1161,1157,1153,1153,1149,1145,1145,1141,1141,1138,1138,1138,1138,1138,1134,1134,1134,1130,1130,1130,1126,1123,1123,1123,1123,1119,1119,1115,1112,1112,1112,1108,1108,1105,1105,1105,1101,1101,1097,1094,1094,1094,1090,1090,1090,1090,1090,1090,1087,1084,1080,1080,1080,1080,1077,1077,1077,1073,1073,1070,1070,1067,1067,1067,1063,1063,1060,1060,1057,1057,1054,1054,1054,1054,1054,1050,1050,1050,1050,1047,1044,1044,1041,1041,1041,1038,1038,1038,1038,1034,1034,1031,1031,1028,1028,1028,1025,1025,1025,1025,1022,1022,1019,1019,1019,1016,1016,1016,1016,1013,1013,1013,0,0,0,0,0,0,0,0,0,0,0,0,0,0,0,0,0,0,0,0,0,0,0,0,0,0,0,0,0,0,0
0,0,0,0,0,0,0,0,0,0,0,0,0,0,1671,1671,1671,1671,1671,1671,1663,1663,1663,1663,1663,1663,1663,1663,1663,1663,1663,1663,1663,1663,1663,1663,1663,1663,1663,1655,1655,1655,1655,1655,1655,1655,1655,1655,1655,1655,1655,1639,1639,1639,1647,1647,1647,1647,1647,1655,1647,1639,1639,1639,1632,1632,1632,1632,1632,1632,1632,1632,1632,1632,1632,1632,1632,1632,1632,1632,1632,1632,1632,1632,1632,1632,1639,1639,1639,1647,1647,1655,1663,1663,1663,1993,1981,1981,1981,1970,1970,1970,1959,1947,1947,1936,1936,1936,1926,1926,1926,1639,1632,1632,1632,1632,1632,1639,1632,1632,1639,1639,1639,1639,1647,1647,1647,1655,1655,1655,1663,1663,1663,1663,1663,1663,1663,1671,1671,1680,1688,1688,1688,1688,1688,1696,1696,1696,1696,1696,1705,1705,1705,1713,1713,1722,1722,1722,1731,1731,1731,1731,1739,1739,1739,1748,1748,1748,1748,1748,1757,1757,1757,1757,1757,1757,1757,1757,1757,0,0,1097,1097,1097,1094,1090,1090,1087,1087,1087,1084,1084,1087,1084,1084,1080,1077,1077,1073,1073,1073,1070,1070,1070,1067,1063,1063,1063,1060,1057,1057,1054,1050,1050,1050,1047,1047,1044,1044,1041,1041,1038,1034,1034,1031,1031,1028,1028,1025,1022,1022,1019,1016,1016,1013,1010,1007,1004,1004,1001,1001,998,998,992,989,989,989,987,987,984,981,978,978,975,973,973,967,967,967,964,962,962,959,956,954,954,951,946,946,943,940,938,935,935,935,933,928,925,925,923,923,920,920,918,913,896,896,894,894,891,889,889,887,887,885,885,885,882,880,878,878,878,880,882,882,885,885,887,891,894,896,896,896,896,896,0,0,0,0,0,0,1516,1516,1516,1509,1503,1496,1496,1496,1496,1489,1489,1489,1483,1483,1483,1477,1470,1470,1470,1464,1464,1464,1458,1458,1452,1452,1445,1445,1445,1439,1439,1439,1433,1433,1433,1427,1427,1421,1421,1415,1415,1415,1410,1404,1404,1398,1398,1398,1392,1392,1392,1392,1387,1381,1381,1381,1376,1376,1376,1376,1370,1370,1365,1365,1365,1359,1354,1354,1349,1349,1343,1343,1343,1343,1338,1338,1338,1333,1333,1333,1328,1328,1328,1322,1322,1317,1317,1312,1312,1312,1307,1307,1307,1307,1302,1302,1292,1292,1292,1292,1288,1288,1283,1283,1278,1278,1278,1273,1273,1273,1268,1268,1268,1268,1264,1264,1259,1259,1255,1255,1255,1250,1250,1250,1250,1241,1241,1236,1236,1236,1232,1232,1232,1232,1227,1223,1223,1219,1219,1219,1219,1214,1214,1214,1214,1210,1210,1206,1206,1202,1202,1202,1197,1197,1193,1193,1189,1189,1185,1185,1185,1181,1181,1181,1177,1173,1169,1169,1169,1169,1169,1165,1165,1165,1165,1161,1161,1157,1153,1153,1149,1149,1145,1145,1141,1141,1138,1138,1138,1138,1134,1134,1134,1134,1130,1130,1126,1123,1123,1123,1123,1119,1119,1115,1112,1112,1112,1108,1108,1105,1105,1105,1101,1101,1097,1094,1094,1094,1090,1090,1090,1090,1090,1090,1087,1084,1080,1080,1080,1080,1077,1077,1077,1073,1073,1073,1070,1067,1067,1067,1063,1063,1060,1060,1057,1057,1054,1054,1054,1054,1054,1050,1050,1050,1050,1047,1044,1044,1041,1041,1041,1041,1038,1038,1038,1034,1034,1031,1031,1028,1028,1028,1025,1025,1025,1025,1022,1022,1019,1019,1019,1016,1016,1016,1016,1013,1013,1013,0,0,0,0,0,0,0,0,0,0,0,0,0,0,0,0,0,0,0,0,0,0,0,0,0,0,0,0,0,0,0
0,0,0,0,0,0,0,0,0,0,0,0,0,0,1671,1671,1671,1671,1671,1671,1663,1663,1663,1663,1663,1663,1663,1663,1663,1663,1663,1663,1663,1663,1663,1663,1663,1663,1663,1655,1655,1655,1655,1655,1655,1655,1655,1655,1655,1655,1655,1647,1647,1647,1655,1655,1655,1655,1655,1655,1647,1639,1639,1639,1632,1632,1632,1632,1632,1632,1632,1632,1639,1639,1632,1632,1632,1632,1632,1632,1632,1632,1632,1632,1632,1632,1639,1639,1639,1647,1647,1655,1663,1655,1655,1993,1981,1981,1981,1970,1970,1970,1959,1959,1947,1947,1936,1936,1926,1926,1926,1647,1639,1639,1639,1639,1639,1639,1639,1639,1639,1639,1639,1647,1647,1647,1647,1647,1655,1655,1663,1663,1663,1663,1663,1663,1663,1663,1671,1680,1688,1688,1688,1688,1688,1696,1696,1696,1696,1705,1705,1705,1705,1713,1713,1722,1722,1722,1731,1731,1731,1731,1739,1739,1739,1739,1748,1748,1748,1748,1757,1757,1757,1757,1757,1757,1757,1757,1757,0,0,1097,1097,1094,1094,1090,1090,1090,1087,1087,1087,1087,1087,1084,1084,1080,1077,1077,1077,1073,1073,1073,1070,1070,1067,1063,1063,1063,1060,1057,1057,1054,1050,1050,1050,1047,1047,1047,1044,1041,1041,1038,1034,1034,1031,1031,1028,1025,1025,1022,1022,1019,1016,1016,1013,1010,1007,1004,1004,1001,1001,998,998,992,989,989,989,987,987,984,984,978,978,975,975,973,970,967,967,964,962,962,959,956,954,954,951,948,946,943,940,938,935,935,933,930,928,925,925,923,923,920,920,915,913,898,896,896,894,894,891,889,889,887,885,885,885,882,880,880,880,880,880,882,882,885,885,887,894,896,896,896,896,896,896,0,0,0,0,0,0,1516,1516,1516,1509,1503,1503,1496,1496,1496,1489,1489,1489,1489,1483,1483,1483,1470,1470,1470,1470,1464,1464,1464,1458,1452,1452,1445,1445,1445,1439,1439,1439,1439,1433,1433,1433,1427,1421,1421,1415,1415,1415,1410,1410,1410,1404,1398,1398,1392,1392,1392,1392,1387,1387,1381,1381,1381,1376,1376,1376,1370,1370,1370,1365,1365,1359,1354,1354,1349,1349,1349,1343,1343,1343,1343,1338,1338,1338,1333,1333,1333,1328,1328,1328,1322,1317,1317,1312,1312,1312,1307,1307,1307,1307,1307,1302,1297,1297,1292,1292,1292,1288,1288,1283,1283,1278,1278,1278,1273,1273,1268,1268,1268,1268,1268,1264,1264,1259,1255,1255,1255,1250,1250,1250,1250,1245,1241,1236,1236,1236,1236,1232,1232,1232,1227,1223,1223,1219,1219,1219,1219,1214,1214,1214,1214,1210,1210,1206,1206,1202,1202,1202,1197,1197,1197,1193,1193,1189,1189,1185,1185,1185,1181,1181,1177,1173,1169,1169,1169,1169,1169,1165,1165,1165,1165,1161,1161,1157,1157,1153,1153,1149,1149,1145,1145,1141,1141,1138,1138,1138,1134,1134,1134,1134,1130,1130,1126,1123,1123,1123,1123,1119,1119,1115,1112,1112,1108,1108,1108,1105,1105,1105,1101,1101,1101,1097,1094,1094,1090,1090,1090,1090,1090,1090,1090,1084,1084,1080,1080,1080,1077,1077,1077,1077,1073,1073,1070,1070,1067,1067,1063,1063,1063,1060,1060,1057,1057,1057,1054,1054,1054,1054,1054,1050,1050,1050,1047,1044,1041,1041,1041,1041,1038,1038,1038,1038,1034,1031,1031,1028,1028,1028,1028,1028,1025,1025,1022,1022,1019,1019,1019,1016,1016,1016,1016,1013,1013,1013,0,0,0,0,0,0,0,0,0,0,0,0,0,0,0,0,0,0,0,0,0,0,0,0,0,0,0,0,0,0,0
