0,0,0,0,0,0,0,0,0,0,0,0,0,0,0,0,0,0,0,0,0,833,831,831,829,827,827,825,825,825,825,825,825,825,827,829,829,829,829,827,827,827,827,827,827,827,827,827,827,827,825,825,827,829,825,825,825,825,827,827,827,827,829,829,829,829,829,829,827,827,827,831,831,831,831,831,831,831,829,827,827,825,825,823,823,823,823,825,823,823,823,823,823,823,821,821,821,821,821,821,819,819,819,819,817,817,817,817,817,817,819,819,819,819,819,819,819,817,817,817,817,817,817,819,819,819,821,825,825,825,825,825,821,819,817,817,817,817,817,817,823,823,823,817,817,819,817,817,817,817,817,817,817,817,817,817,817,819,819,819,819,819,819,819,817,817,817,817,815,815,815,815,813,813,813,813,811,811,811,811,811,811,809,809,809,809,809,809,811,813,813,815,817,817,815,815,815,813,813,813,813,809,809,811,811,811,811,811,813,811,811,811,811,813,813,811,811,811,811,811,811,811,811,811,811,811,811,811,811,813,809,809,811,809,805,805,805,803,803,805,807,807,809,809,809,811,811,811,811,813,813,813,815,817,819,821,823,825,827,829,831,835,837,841,843,843,845,867,873,875,878,878,880,885,887,887,889,894,894,896,898,901,903,906,910,915,915,918,918,920,920,920,923,923,925,928,928,935,935,938,940,943,943,943,0,0,0,0,0,1601,1594,1594,1594,1594,1601,1601,1594,1594,1586,1579,1579,1579,1572,1572,1572,1572,1564,1557,1557,1550,1550,1550,1550,1543,1543,1543,1543,1543,1543,1536,1536,1536,1529,1523,1523,1523,1523,1523,1516,1516,1516,1516,1509,1509,1503,1503,1503,1496,1489,1489,1489,1489,1489,1483,1483,1483,1477,1477,1470,1470,1470,1470,1470,1470,1464,1464,1464,1464,1458,1458,1452,1452,1445,1445,1445,1445,1445,1439,1439,1439,1433,1427,1427,1421,1421,1421,1421,1421,1415,1415,1415,1415,1410,1410,1410,1404,1404,1404,1404,1398,1398,1398,1398,1398,1392,1392,1387,1387,1387,1387,1381,1381,1376,1376,1376,1376,1370,1370,1370,1370,1365,1365,1365,1359,1359,1359,1354,1354,1354,1354,1354,1354,1349,1349,1343,1338,1338,1333,1333,1333,1333,1333,1328,1328,1328,1328,1322,1322,1317,1317,1312,1312,1312,1307,1307,1307,1307,1302,1302,1302,1302,1302,1297,1297,1297,1292,1292,1292,1288,1288,1288,1283,1283,1278,1278,1273,1273,1273,1273,1273,1268,1268,1268,1268,1264,1264,1259,1259,1255,1255,1255,1250,1250,1250,1250,1245,1245,1241,1241,1236,1236,1236,1236,1236,1232,1232,1232,1232,1227,1223,1223,1223,1219,1219,1219,1214,1214,1214,1214,1214,1210,1210,1210,1206,1206,1202,1202,1202,1202,1197,1197,1197,1197,1197,1193,1193,1193,1193,1193,1189,1185,1185,1181,1181,1177,1177,1173,1173,1169,1169,1169,1169,1169,1169,1169,1165,1165,1165,1165,1165,1161,1157,1157,1157,1157,1153,1153,1050,1050,1050,1050,1050,1047,1047,1047,1044,1044,1041,1041,1038,1038,1034,1034,1031,1028,1028,1025,1022,1022,1016,1016,1016,1013,1013,1010,1007,1007,0,0,0,0,0,0,0,0,0,0,0,0,0,0,0,0,0,0,0,0,0,0,0,0,0,0,0,0,0,0,0,0,0
0,0,0,0,0,0,0,0,0,0,0,0,0,0,0,0,0,0,0,0,0,833,827,827,827,825,825,825,823,823,825,825,823,823,825,825,827,825,825,825,825,825,825,825,825,825,825,825,825,825,821,821,819,819,821,821,821,821,823,823,821,821,821,821,827,827,827,827,825,825,825,827,827,829,829,829,827,827,825,823,823,821,821,821,821,821,821,821,821,821,821,819,819,819,819,819,819,819,819,817,817,819,817,817,817,815,815,815,815,815,815,815,815,815,815,815,815,815,813,813,813,815,815,815,815,815,817,817,815,815,819,819,817,817,815,815,815,815,813,813,815,823,821,813,811,811,811,811,811,811,811,813,813,813,815,815,815,815,815,817,817,817,817,815,815,815,815,813,813,811,811,813,811,811,811,811,811,811,809,809,809,807,807,807,807,807,805,805,807,809,811,809,809,809,809,809,811,807,807,809,805,803,803,805,807,809,807,807,809,807,807,805,805,805,805,805,807,807,807,807,809,809,809,809,809,807,807,805,805,805,807,805,805,805,803,803,802,802,802,803,803,803,805,805,805,807,809,809,811,811,813,813,815,817,819,821,823,825,827,827,831,833,837,841,843,860,864,869,873,875,878,880,880,885,887,887,889,894,894,896,898,901,903,906,910,915,915,918,918,920,920,920,923,923,925,928,933,935,935,938,940,943,943,943,0,0,0,0,0,0,1594,1594,1594,1594,1601,1601,1594,1594,1586,1579,1579,1579,1579,1572,1572,1572,1564,1557,1557,1550,1550,1550,1550,1543,1543,1543,1543,1543,1543,1536,1536,1536,1529,1523,1523,1523,1523,1523,1523,1516,1516,1516,1516,1509,1509,1503,1503,1496,1496,1489,1489,1489,1489,1489,1489,1483,1483,1477,1477,1470,1470,1470,1470,1470,1470,1464,1464,1464,1458,1458,1452,1452,1445,1445,1445,1445,1445,1445,1439,1439,1433,1427,1427,1421,1421,1421,1421,1421,1421,1415,1415,1415,1415,1415,1410,1410,1404,1404,1404,1404,1398,1398,1398,1398,1392,1392,1392,1392,1392,1387,1387,1381,1381,1376,1376,1376,1376,1370,1370,1370,1365,1365,1365,1359,1359,1359,1359,1354,1354,1354,1354,1354,1349,1349,1343,1343,1338,1333,1333,1333,1333,1333,1328,1328,1328,1328,1328,1322,1317,1317,1312,1312,1312,1312,1312,1307,1307,1307,1307,1302,1302,1302,1297,1297,1297,1292,1292,1292,1288,1288,1288,1283,1283,1278,1278,1273,1273,1273,1273,1273,1268,1268,1268,1268,1268,1268,1264,1264,1259,1255,1255,1255,1250,1250,1250,1250,1250,1245,1241,1241,1236,1236,1236,1236,1232,1232,1232,1232,1227,1227,1223,1223,1219,1219,1219,1219,1214,1214,1214,1214,1214,1210,1210,1210,1206,1206,1202,1202,1202,1197,1197,1197,1197,1197,1193,1193,1193,1193,1193,1189,1185,1185,1185,1181,1181,1177,1177,1173,1169,1169,1169,1169,1169,1169,1169,1169,1169,1165,1165,1165,1161,1157,1157,1157,1054,1050,1050,1050,1050,1050,1050,1047,1047,1047,1044,1041,1041,1038,1038,1038,1038,1034,1034,1031,1028,1025,1022,1019,1019,1016,1016,1013,1013,1013,1007,1007,1007,0,0,0,0,0,0,0,0,0,0,0,0,0,0,0,0,0,0,0,0,0,0,0,0,0,0,0,0,0,0,0,0,0
0,0,0,0,0,0,0,0,0,0,0,0,0,0,0,0,0,0,0,0,0,0,821,821,823,825,825,823,823,823,823,823,821,821,821,821,821,823,823,825,825,823,823,823,823,823,823,821,821,821,819,819,819,819,819,819,819,819,819,819,819,817,817,815,815,815,815,817,823,823,823,823,825,825,825,823,823,821,821,821,819,817,817,817,819,819,819,819,819,819,819,819,817,815,815,815,815,815,817,815,815,815,815,815,815,813,813,813,813,813,813,813,813,813,813,813,813,813,811,811,811,811,811,813,813,811,811,811,811,811,809,809,809,809,811,811,811,811,811,811,811,811,811,811,811,811,811,809,809,809,809,809,809,809,809,809,811,811,811,811,811,811,813,811,809,809,811,811,809,809,809,809,809,809,809,809,809,809,809,807,807,805,805,805,805,805,803,803,805,807,805,805,807,807,807,807,803,803,803,803,803,803,803,803,803,805,805,805,805,805,805,805,805,805,803,803,803,803,803,802,802,803,803,803,803,800,800,802,802,802,803,802,802,800,800,800,798,798,798,800,802,802,802,803,803,805,807,809,809,811,813,813,817,817,819,821,823,825,827,827,833,833,858,860,860,864,867,869,873,875,878,880,882,885,887,889,891,894,896,898,901,903,906,908,913,915,915,918,918,920,920,923,923,923,925,928,933,935,935,938,943,943,946,946,0,0,0,0,0,0,1594,1594,1594,1594,1601,1601,1594,1594,1586,1579,1579,1579,1579,1572,1572,1572,1564,1557,1557,1557,1550,1550,1550,1550,1543,1543,1543,1543,1543,1536,1536,1536,1529,1523,1523,1523,1523,1523,1523,1516,1516,1516,1516,1509,1509,1503,1503,1496,1496,1496,1489,1489,1489,1489,1489,1489,1483,1477,1477,1477,1470,1470,1470,1470,1470,1464,1464,1464,1464,1458,1452,1452,1452,1445,1445,1445,1445,1445,1445,1439,1439,1427,1427,1427,1421,1421,1421,1421,1421,1421,1415,1415,1415,1415,1415,1410,1410,1410,1404,1404,1404,1398,1398,1398,1392,1392,1392,1392,1392,1392,1387,1387,1381,1376,1376,1376,1376,1376,1370,1370,1370,1365,1365,1365,1359,1359,1359,1354,1354,1354,1354,1354,1349,1349,1343,1343,1338,1333,1333,1333,1333,1333,1333,1333,1328,1328,1328,1322,1317,1317,1312,1312,1312,1312,1312,1307,1307,1307,1307,1302,1302,1302,1297,1297,1297,1292,1292,1292,1288,1288,1288,1288,1283,1283,1278,1278,1273,1273,1273,1273,1268,1268,1268,1268,1268,1268,1264,1264,1259,1255,1255,1255,1250,1250,1250,1250,1250,1245,1245,1241,1236,1236,1236,1236,1232,1232,1232,1232,1227,1227,1223,1223,1219,1219,1219,1219,1214,1214,1214,1214,1214,1210,1210,1210,1206,1206,1202,1202,1202,1202,1197,1197,1197,1197,1197,1197,1193,1193,1193,1189,1185,1185,1185,1181,1181,1177,1177,1173,1173,1173,1173,1169,1169,1169,1169,1169,1169,1165,1161,1161,1161,1157,1050,1050,1054,1050,1050,1050,1050,1047,1047,1047,1044,1044,1044,1041,1041,1038,1038,1038,1034,1031,1031,1028,1028,1025,1019,1019,1016,1016,1013,1013,1013,1010,1007,1004,1004,0,0,0,0,0,0,0,0,0,0,0,0,0,0,0,0,0,0,0,0,0,0,0,0,0,0,0,0,0,0,0,0,0
0,0,0,0,0,0,0,0,0,0,0,0,0,0,0,0,0,0,0,0,0,0,821,821,821,823,823,821,821,821,821,821,819,819,819,819,819,821,823,823,823,821,821,821,821,821,821,819,819,819,817,817,815,811,811,815,815,817,817,817,815,813,811,811,811,811,811,811,811,813,815,815,821,821,821,821,819,817,815,815,813,813,813,813,813,813,815,817,817,817,817,817,817,815,815,815,813,813,815,813,813,813,813,811,811,811,811,811,811,811,811,811,811,811,811,811,811,809,809,809,809,807,807,805,805,805,803,803,805,805,807,807,805,805,805,805,805,805,807,807,807,807,809,809,809,807,807,807,807,807,807,807,807,805,805,805,807,807,807,805,803,803,805,805,805,807,809,807,807,807,807,807,807,807,807,807,807,807,807,805,805,805,803,803,803,803,802,802,803,803,802,800,800,803,803,803,803,802,802,800,800,798,798,802,802,803,803,803,803,803,803,802,802,802,802,802,802,802,800,798,798,800,796,796,798,796,796,798,798,798,798,796,796,796,796,796,796,796,796,798,798,800,802,802,803,803,805,807,809,811,813,815,817,817,819,821,823,825,827,856,858,858,860,860,862,864,869,871,873,875,878,880,882,885,889,889,891,894,896,898,901,903,908,910,915,915,918,918,920,920,920,923,923,925,925,930,933,935,935,938,943,946,946,946,0,0,0,0,0,0,1594,1594,1594,1594,1601,1601,1594,1594,1586,1579,1579,1579,1579,1572,1572,1572,1564,1557,1557,1557,1550,1550,1550,1550,1550,1550,1543,1543,1543,1536,1529,1529,1529,1523,1523,1523,1523,1523,1523,1516,1516,1516,1516,1509,1509,1509,1503,1496,1496,1496,1496,1489,1489,1489,1489,1489,1483,1483,1483,1477,1470,1470,1470,1470,1470,1464,1464,1464,1464,1464,1458,1452,1452,1445,1445,1445,1445,1445,1445,1439,1439,1439,1433,1433,1427,1421,1421,1421,1421,1421,1421,1415,1415,1415,1415,1415,1410,1410,1404,1404,1404,1398,1398,1398,1398,1392,1392,1392,1392,1392,1392,1387,1381,1381,1376,1376,1376,1376,1376,1370,1370,1370,1365,1365,1359,1359,1359,1359,1354,1354,1354,1354,1349,1349,1349,1343,1343,1338,1338,1333,1333,1333,1333,1333,1328,1328,1328,1322,1317,1317,1312,1312,1312,1312,1312,1307,1307,1307,1307,1302,1302,1302,1302,1302,1297,1297,1292,1292,1292,1288,1288,1288,1283,1283,1278,1278,1278,1273,1273,1273,1273,1273,1268,1268,1268,1268,1264,1264,1259,1259,1255,1255,1255,1250,1250,1250,1250,1250,1245,1245,1241,1236,1236,1236,1236,1232,1232,1232,1232,1227,1227,1227,1223,1219,1219,1219,1219,1214,1214,1214,1214,1214,1214,1210,1206,1206,1202,1202,1202,1202,1197,1197,1197,1197,1197,1197,1193,1193,1193,1189,1185,1185,1185,1181,1181,1181,1177,1177,1173,1173,1173,1169,1169,1169,1169,1169,1169,1165,1161,1161,1161,1161,1050,1050,1050,1050,1050,1047,1047,1047,1044,1044,1041,1041,1041,1038,1038,1038,1038,1034,1034,1031,1028,1028,1025,1022,1019,1016,1016,1013,1013,1013,1013,1010,1007,1004,1004,0,0,0,0,0,0,0,0,0,0,0,0,0,0,0,0,0,0,0,0,0,0,0,0,0,0,0,0,0,0,0,0,0
0,0,0,0,0,0,0,0,0,0,0,0,0,0,0,0,0,0,0,0,0,0,821,819,819,823,821,821,821,821,819,819,819,819,817,817,817,817,817,817,815,815,815,817,817,819,817,817,817,817,815,813,811,809,809,811,811,813,813,813,811,811,809,809,809,809,809,809,809,809,811,809,809,809,809,809,811,813,811,811,809,809,809,809,809,809,809,811,811,813,813,811,811,811,811,811,809,809,809,811,809,809,809,809,809,809,809,809,809,809,809,809,807,807,807,807,807,805,805,807,805,803,803,802,802,802,802,802,803,803,805,803,803,803,803,803,803,802,802,802,802,802,805,803,803,807,802,802,805,803,803,802,802,803,803,803,803,803,803,802,802,802,802,802,802,803,803,803,803,803,805,805,805,805,805,805,805,805,805,803,803,802,802,802,802,802,800,798,798,798,798,798,798,800,802,800,800,800,800,798,798,796,796,796,798,800,800,802,802,802,800,800,800,798,798,798,798,798,798,796,796,796,794,794,794,794,794,794,794,794,794,794,794,794,794,794,794,794,794,796,798,798,800,800,802,803,803,805,807,809,811,813,815,817,819,821,823,827,827,856,858,858,860,860,862,864,867,869,873,875,878,880,882,885,889,889,891,894,896,901,903,906,908,910,915,915,918,918,920,923,923,923,923,925,928,930,933,935,935,938,946,946,946,943,943,0,0,0,0,0,1594,1594,1594,1594,1601,1601,1594,1594,1586,1579,1579,1579,1579,1572,1572,1572,1564,1557,1557,1557,1557,1550,1550,1550,1550,1550,1543,1543,1543,1536,1529,1529,1529,1523,1523,1523,1523,1523,1523,1523,1516,1516,1516,1516,1509,1509,1503,1496,1496,1496,1496,1489,1489,1489,1489,1489,1489,1483,1483,1483,1477,1477,1470,1470,1470,1464,1464,1464,1464,1464,1458,1458,1452,1452,1445,1445,1445,1445,1445,1439,1439,1439,1439,1433,1433,1427,1421,1421,1421,1421,1421,1415,1415,1415,1415,1415,1410,1410,1404,1404,1404,1404,1398,1398,1398,1398,1392,1392,1392,1392,1392,1387,1387,1381,1381,1376,1376,1376,1376,1370,1370,1370,1370,1365,1359,1359,1359,1359,1354,1354,1354,1354,1349,1349,1349,1343,1343,1338,1338,1338,1333,1333,1333,1333,1333,1333,1328,1322,1322,1317,1312,1312,1312,1312,1312,1312,1312,1307,1307,1307,1307,1307,1302,1302,1297,1297,1292,1292,1292,1288,1288,1288,1288,1283,1283,1278,1278,1278,1273,1273,1273,1273,1273,1268,1268,1268,1264,1264,1259,1259,1255,1255,1255,1255,1250,1250,1250,1250,1245,1245,1241,1236,1236,1236,1236,1232,1232,1232,1232,1232,1232,1227,1223,1223,1219,1219,1219,1219,1214,1214,1214,1214,1214,1210,1210,1206,1202,1202,1202,1202,1197,1197,1197,1197,1197,1197,1193,1193,1193,1189,1185,1185,1185,1181,1181,1181,1181,1177,1177,1177,1177,1173,1173,1169,1169,1169,1165,1165,1161,1161,1165,1050,1050,1050,1050,1050,1050,1047,1047,1047,1044,1041,1038,1038,1038,1034,1034,1034,1034,1034,1031,1028,1028,1025,1022,1019,1019,1016,1016,1013,1013,1013,1010,1007,1004,1004,1004,0,0,0,0,0,0,0,0,0,0,0,0,0,0,0,0,0,0,0,0,0,0,0,0,0,0,0,0,0,0,0,0,0
0,0,0,0,0,0,0,0,0,0,0,0,0,0,0,0,0,0,0,0,0,0,0,815,815,817,817,817,817,817,817,817,817,815,815,813,813,813,813,813,811,811,811,813,813,813,813,813,813,811,809,807,807,807,807,805,805,803,803,805,807,807,807,807,807,807,807,807,805,805,805,805,805,805,805,805,803,803,803,805,805,805,805,805,805,805,805,807,807,807,807,805,805,807,807,807,807,807,805,805,807,807,807,807,807,807,807,807,805,805,805,805,803,803,803,803,803,803,803,803,803,802,802,800,800,798,798,798,800,800,802,802,802,800,800,800,800,800,796,796,792,792,794,794,794,800,796,796,796,796,796,798,798,800,800,800,802,802,800,800,798,798,798,798,798,800,800,800,798,798,798,798,796,796,798,798,798,798,798,800,800,798,796,796,796,794,794,792,792,794,794,794,794,796,796,796,796,796,796,796,796,794,794,794,794,794,794,794,796,796,800,796,796,796,796,796,794,794,794,794,794,794,792,792,792,792,792,794,794,794,792,792,792,790,790,792,794,794,794,796,796,798,798,800,802,802,803,805,807,809,811,811,813,813,823,823,827,847,849,854,856,858,860,860,862,864,867,869,871,875,878,880,882,887,889,889,891,894,896,901,903,908,910,913,915,915,918,918,920,923,923,923,925,925,928,930,933,935,935,940,946,946,946,943,943,0,0,0,0,0,0,1594,1594,1594,1601,1601,1594,1594,1586,1579,1579,1579,1579,1572,1572,1572,1572,1564,1564,1564,1557,1557,1557,1550,1550,1550,1550,1543,1543,1536,1529,1529,1529,1523,1523,1523,1523,1523,1523,1523,1516,1516,1516,1516,1509,1509,1503,1503,1496,1496,1496,1496,1489,1489,1489,1489,1489,1483,1483,1483,1477,1477,1470,1470,1470,1470,1464,1464,1464,1464,1458,1458,1452,1452,1445,1445,1445,1445,1445,1439,1439,1439,1439,1433,1433,1427,1421,1421,1421,1421,1421,1421,1415,1415,1415,1415,1415,1410,1410,1410,1404,1404,1398,1398,1398,1398,1392,1392,1392,1392,1392,1392,1387,1387,1381,1381,1376,1376,1376,1370,1370,1370,1370,1365,1365,1359,1359,1359,1359,1354,1354,1354,1349,1349,1349,1349,1343,1338,1338,1338,1338,1333,1333,1333,1333,1333,1328,1322,1322,1317,1317,1312,1312,1312,1312,1312,1312,1307,1307,1307,1307,1307,1302,1302,1297,1297,1297,1292,1292,1292,1288,1288,1288,1283,1283,1283,1278,1278,1273,1273,1273,1273,1273,1268,1268,1268,1268,1264,1264,1259,1259,1255,1255,1255,1255,1250,1250,1250,1245,1245,1241,1236,1236,1236,1236,1232,1232,1232,1232,1232,1232,1227,1227,1223,1219,1219,1219,1219,1214,1214,1214,1214,1214,1210,1206,1206,1202,1202,1202,1202,1202,1202,1197,1197,1197,1197,1193,1193,1193,1189,1185,1185,1185,1185,1181,1181,1181,1181,1177,1177,1177,1173,1173,1173,1169,1169,1165,1165,1165,1057,1057,1054,1054,1054,1050,1050,1050,1047,1047,1044,1041,1041,1038,1038,1034,1034,1034,1031,1031,1028,1028,1025,1025,1022,1019,1019,1016,1016,1016,1013,1013,1010,1010,1007,1004,1001,1001,0,0,0,0,0,0,0,0,0,0,0,0,0,0,0,0,0,0,0,0,0,0,0,0,0,0,0,0,0,0,0,0,0
0,0,0,0,0,0,0,0,0,0,0,0,0,0,0,0,0,0,0,0,0,0,809,807,807,807,807,811,811,813,815,813,813,811,811,809,809,807,807,809,807,807,807,807,807,807,809,807,807,807,807,805,805,803,803,803,803,802,802,802,802,805,805,805,805,805,805,805,803,803,803,803,802,802,802,802,800,800,800,800,800,800,800,802,802,802,800,800,798,798,802,802,802,803,803,803,803,803,803,803,803,803,803,796,796,807,805,802,798,798,800,800,800,800,802,802,802,802,802,803,802,800,800,798,798,798,798,798,798,798,798,800,798,798,798,796,796,796,794,792,790,790,792,792,792,792,792,792,792,794,794,794,794,796,796,796,796,796,796,796,794,794,794,794,794,794,794,794,794,794,792,792,792,792,792,790,790,789,789,790,789,789,790,789,789,790,790,789,789,790,790,792,792,792,794,792,792,792,792,792,792,790,790,790,790,790,790,790,790,790,790,789,789,789,790,792,792,792,790,790,790,790,790,790,790,790,790,792,790,790,790,790,790,790,790,790,792,792,792,794,796,796,798,800,802,802,803,805,807,809,811,811,813,813,841,841,843,847,849,851,856,858,860,862,864,867,869,869,871,875,878,882,885,887,889,889,891,894,896,901,906,910,913,913,915,915,918,918,920,923,923,923,925,925,928,933,935,935,938,940,946,946,946,943,943,0,0,0,0,0,1594,1594,1594,1594,1601,1601,1594,1594,1586,1579,1579,1579,1579,1579,1572,1572,1572,1564,1564,1564,1564,1564,1557,1557,1550,1550,1550,1543,1543,1536,1536,1536,1536,1529,1523,1523,1523,1523,1523,1523,1523,1516,1516,1516,1509,1509,1503,1503,1496,1496,1496,1496,1496,1489,1489,1489,1489,1483,1483,1483,1483,1477,1477,1470,1470,1470,1464,1464,1464,1464,1458,1458,1452,1452,1445,1445,1445,1445,1445,1445,1439,1439,1439,1439,1433,1427,1427,1427,1421,1421,1421,1421,1421,1421,1415,1415,1415,1415,1410,1410,1404,1404,1404,1398,1398,1398,1392,1392,1392,1392,1392,1392,1387,1387,1387,1381,1381,1376,1376,1376,1370,1370,1370,1370,1365,1365,1359,1359,1359,1359,1354,1354,1349,1349,1349,1349,1343,1343,1338,1338,1338,1338,1333,1333,1333,1333,1328,1328,1322,1322,1317,1317,1312,1312,1312,1312,1312,1312,1307,1307,1307,1307,1307,1302,1302,1297,1297,1292,1292,1292,1288,1288,1288,1283,1283,1283,1278,1278,1278,1273,1273,1273,1273,1268,1268,1268,1268,1268,1264,1259,1259,1255,1255,1255,1255,1250,1250,1250,1250,1245,1241,1236,1236,1236,1236,1232,1232,1232,1232,1232,1232,1227,1227,1223,1223,1223,1219,1219,1219,1214,1214,1214,1214,1210,1206,1206,1202,1202,1202,1202,1202,1202,1197,1197,1197,1197,1193,1193,1193,1189,1189,1185,1185,1185,1185,1181,1181,1181,1181,1181,1181,1177,1177,1173,1173,1169,1169,1169,1063,1057,1057,1054,1054,1054,1050,1050,1047,1047,1047,1041,1041,1038,1034,1034,1031,1031,1031,1031,1031,1028,1025,1022,1022,1019,1019,1016,1016,1013,1013,1013,1010,1010,1007,1004,1004,1001,1001,0,0,0,0,0,0,0,0,0,0,0,0,0,0,0,0,0,0,0,0,0,0,0,0,0,0,0,0,0,0,0,0,0
0,0,0,0,0,0,0,0,0,0,0,0,0,0,0,0,0,0,0,0,0,0,805,803,802,802,798,798,798,809,809,809,809,809,807,807,807,803,803,803,803,803,803,802,802,802,803,803,803,803,803,803,802,802,802,800,800,800,800,800,800,802,803,803,803,803,803,803,803,802,802,802,800,800,800,800,798,798,798,800,800,798,798,798,798,798,798,796,796,794,794,796,798,798,800,800,800,798,798,796,794,794,794,794,794,794,794,794,794,794,796,796,796,796,798,798,798,800,800,800,800,798,796,796,794,794,796,796,796,796,794,794,796,794,792,792,792,790,790,790,789,789,790,790,790,790,790,790,790,790,790,790,790,790,792,792,792,790,790,794,792,792,792,790,790,790,790,789,789,789,789,789,789,790,790,789,789,789,789,789,789,789,789,789,789,787,787,787,787,787,787,787,789,789,790,790,790,789,789,789,789,789,789,789,787,785,785,787,787,787,787,787,787,787,787,787,787,787,789,789,789,789,789,789,789,789,789,790,790,789,789,789,789,789,789,789,790,790,792,794,794,796,798,800,802,802,803,803,805,809,811,813,815,815,843,843,845,847,849,851,854,858,860,862,864,867,869,871,873,875,880,882,885,887,891,891,894,896,896,901,906,910,913,913,915,918,918,920,923,923,923,923,925,925,928,933,935,935,938,940,946,946,946,946,954,0,0,0,0,0,1594,1594,1594,1594,1601,1601,1594,1594,1586,1586,1579,1579,1579,1579,1572,1572,1572,1572,1572,1564,1564,1564,1564,1557,1557,1550,1550,1550,1543,1536,1536,1536,1536,1529,1529,1529,1523,1523,1523,1523,1523,1516,1516,1516,1516,1509,1509,1503,1503,1496,1496,1496,1496,1489,1489,1489,1489,1489,1483,1483,1483,1477,1477,1470,1470,1470,1464,1464,1464,1464,1458,1458,1452,1452,1452,1445,1445,1445,1445,1445,1439,1439,1439,1439,1433,1433,1427,1427,1421,1421,1421,1421,1421,1421,1415,1415,1415,1415,1410,1410,1404,1404,1404,1398,1398,1398,1398,1392,1392,1392,1392,1392,1392,1387,1387,1381,1381,1376,1376,1376,1370,1370,1370,1370,1365,1365,1359,1359,1359,1359,1354,1354,1354,1349,1349,1349,1349,1343,1343,1338,1338,1338,1333,1333,1333,1333,1328,1328,1322,1322,1317,1317,1312,1312,1312,1312,1312,1312,1312,1307,1307,1307,1307,1302,1302,1297,1297,1292,1292,1292,1292,1288,1288,1288,1283,1283,1283,1278,1278,1273,1273,1273,1273,1273,1268,1268,1268,1268,1264,1264,1259,1259,1255,1255,1255,1250,1250,1250,1250,1245,1241,1241,1236,1236,1236,1236,1236,1232,1232,1232,1232,1227,1227,1223,1223,1223,1219,1219,1219,1219,1214,1214,1214,1210,1210,1206,1202,1202,1202,1202,1202,1202,1197,1197,1197,1197,1193,1193,1193,1189,1189,1185,1185,1185,1185,1185,1181,1181,1181,1181,1181,1177,1177,1173,1173,1173,1173,1063,1063,1060,1057,1057,1054,1054,1050,1050,1047,1044,1044,1041,1038,1038,1034,1031,1031,1031,1031,1028,1028,1025,1025,1019,1019,1016,1016,1016,1016,1013,1013,1013,1010,1007,1007,1004,1004,1001,1001,0,0,0,0,0,0,0,0,0,0,0,0,0,0,0,0,0,0,0,0,0,0,0,0,0,0,0,0,0,0,0,0,0
0,0,0,0,0,0,0,0,0,0,0,0,0,0,0,0,0,0,0,0,0,0,803,803,802,802,798,798,798,800,800,800,802,802,802,802,802,802,800,800,800,800,800,798,798,798,800,800,802,802,802,802,800,800,800,798,798,798,798,798,798,798,800,802,802,802,802,802,802,800,800,798,796,796,796,796,796,796,796,798,798,796,796,796,794,794,794,794,792,792,794,794,798,798,798,798,796,794,794,794,790,790,790,790,790,790,792,792,792,792,792,794,794,794,794,794,794,796,794,794,794,792,792,792,790,790,792,792,790,790,790,790,790,790,790,789,789,789,789,787,787,787,789,789,789,789,789,789,789,789,789,787,787,783,783,787,787,789,789,790,790,790,789,789,789,787,787,783,783,783,787,787,787,789,789,789,789,789,787,787,787,787,787,787,785,785,785,783,783,783,783,783,783,781,781,781,783,783,783,783,783,785,785,783,781,781,781,783,783,783,783,783,783,783,783,783,783,783,783,783,783,785,787,787,787,787,787,789,789,787,785,785,785,787,787,787,789,789,790,792,794,796,798,800,802,802,802,803,803,809,811,815,815,843,843,845,847,847,849,851,854,858,860,862,864,867,869,871,873,875,880,885,887,889,891,891,894,896,901,906,908,910,913,913,915,918,918,920,923,923,923,925,925,925,928,933,935,935,938,946,948,948,948,951,954,0,0,0,0,0,0,1594,1594,1601,1601,1601,1594,1594,1586,1586,1579,1579,1579,1579,1572,1572,1572,1572,1572,1572,1564,1564,1564,1557,1557,1550,1550,1550,1543,1543,1543,1543,1536,1529,1529,1529,1523,1523,1523,1523,1523,1516,1516,1516,1516,1509,1509,1503,1503,1496,1496,1496,1496,1489,1489,1489,1489,1489,1489,1483,1483,1477,1477,1470,1470,1470,1470,1464,1464,1464,1458,1458,1458,1452,1452,1445,1445,1445,1445,1445,1439,1439,1439,1439,1439,1433,1433,1427,1427,1421,1421,1421,1421,1421,1415,1415,1415,1415,1410,1410,1410,1404,1404,1398,1398,1398,1398,1392,1392,1392,1392,1392,1392,1387,1387,1381,1381,1376,1376,1376,1370,1370,1370,1370,1365,1365,1365,1359,1359,1359,1354,1354,1354,1349,1349,1349,1349,1343,1343,1338,1338,1338,1333,1333,1333,1333,1333,1328,1328,1322,1317,1317,1317,1317,1312,1312,1312,1312,1312,1312,1307,1307,1307,1302,1302,1297,1297,1292,1292,1292,1292,1292,1288,1288,1283,1283,1283,1283,1278,1273,1273,1273,1273,1273,1268,1268,1268,1268,1264,1264,1264,1259,1259,1259,1255,1255,1250,1250,1250,1245,1245,1241,1241,1236,1236,1236,1236,1232,1232,1232,1232,1227,1227,1227,1227,1223,1223,1219,1219,1219,1214,1214,1214,1214,1210,1210,1206,1206,1202,1202,1202,1202,1197,1197,1197,1197,1193,1193,1193,1189,1189,1185,1185,1185,1185,1185,1181,1181,1181,1181,1181,1181,1177,1173,1173,1173,1063,1063,1063,1060,1057,1057,1054,1054,1050,1047,1047,1044,1041,1038,1038,1034,1031,1031,1028,1028,1028,1028,1025,1025,1022,1019,1019,1016,1016,1016,1013,1013,1013,1010,1010,1007,1004,1004,1001,1001,1001,0,0,0,0,0,0,0,0,0,0,0,0,0,0,0,0,0,0,0,0,0,0,0,0,0,0,0,0,0,0,0,0,0
0,0,0,0,0,0,0,0,0,0,0,0,0,0,0,0,0,0,0,0,0,0,803,800,800,798,798,798,796,794,794,794,796,796,796,796,796,796,796,796,796,798,798,798,796,796,798,798,800,800,800,800,800,800,798,798,798,798,796,796,796,798,798,800,800,800,800,800,800,798,796,794,794,794,794,794,794,794,794,794,794,794,794,792,790,790,792,792,790,790,790,790,792,792,794,794,794,792,792,792,789,789,787,787,789,789,789,789,790,790,790,790,790,792,792,790,790,790,790,789,789,787,785,783,781,781,781,785,785,787,789,787,787,787,787,787,787,785,785,785,785,785,785,785,785,785,785,787,787,787,785,785,783,781,781,781,781,781,781,781,789,789,787,787,787,785,785,783,783,783,785,785,787,787,787,787,787,787,785,785,783,783,785,785,783,783,781,781,781,780,780,781,780,780,780,778,778,780,780,780,780,780,780,778,778,778,780,780,780,780,781,781,781,781,781,780,780,780,780,778,778,778,780,780,780,785,785,785,785,783,783,783,783,783,785,787,787,789,790,792,794,794,798,800,802,802,802,803,803,837,837,839,841,843,845,845,847,849,849,851,854,858,860,862,867,867,869,871,873,875,880,885,887,889,891,891,894,898,901,906,908,910,913,915,918,920,920,923,923,923,923,925,925,925,930,933,935,935,938,948,948,948,948,951,954,0,0,0,0,0,0,1601,1601,1601,1601,1601,1601,1594,1586,1586,1586,1579,1579,1579,1579,1572,1572,1572,1572,1572,1564,1564,1564,1557,1557,1550,1550,1550,1543,1543,1543,1543,1536,1536,1529,1529,1529,1523,1523,1523,1523,1516,1516,1516,1516,1509,1509,1503,1503,1496,1496,1496,1496,1489,1489,1489,1489,1489,1489,1489,1483,1483,1477,1477,1470,1470,1470,1464,1464,1464,1464,1458,1458,1458,1452,1452,1445,1445,1445,1445,1445,1439,1439,1439,1439,1439,1433,1433,1427,1427,1421,1421,1421,1421,1415,1415,1415,1415,1410,1410,1410,1410,1404,1404,1398,1398,1398,1398,1392,1392,1392,1392,1392,1387,1387,1387,1381,1376,1376,1376,1376,1370,1370,1370,1365,1365,1365,1359,1359,1359,1354,1354,1354,1354,1349,1349,1349,1349,1343,1343,1338,1338,1333,1333,1333,1333,1333,1333,1328,1322,1322,1317,1317,1317,1317,1312,1312,1312,1312,1312,1307,1307,1307,1307,1302,1302,1297,1297,1292,1292,1292,1292,1288,1288,1283,1283,1283,1283,1278,1273,1273,1273,1273,1273,1268,1268,1268,1268,1268,1264,1264,1259,1259,1259,1255,1255,1255,1255,1250,1250,1245,1245,1241,1241,1241,1236,1236,1236,1236,1232,1232,1232,1232,1227,1227,1227,1223,1219,1219,1219,1219,1219,1214,1214,1210,1210,1210,1206,1206,1202,1202,1202,1197,1197,1197,1197,1197,1193,1193,1193,1189,1189,1185,1185,1185,1185,1181,1181,1181,1181,1181,1181,1181,1181,1181,1181,0,1067,1067,1063,1060,1057,1054,1054,1050,1047,1044,1041,1038,1038,1034,1034,1031,1028,1028,1028,1028,1025,1025,1022,1022,1019,1016,1016,1016,1016,1013,1013,1013,1010,1007,1004,1004,1004,1001,1001,1001,0,0,0,0,0,0,0,0,0,0,0,0,0,0,0,0,0,0,0,0,0,0,0,0,0,0,0,0,0,0,0,0,0
0,0,0,0,0,0,0,0,0,0,0,0,0,0,0,0,0,0,0,0,0,0,0,798,798,796,794,790,789,789,790,790,790,792,792,792,792,794,794,794,794,794,794,794,794,794,796,796,798,794,794,800,796,796,796,796,796,796,796,796,796,794,794,796,796,798,798,800,796,794,794,792,792,792,790,790,792,792,792,792,792,792,792,790,787,787,787,787,789,789,789,789,789,789,789,789,789,789,790,789,787,787,787,787,787,787,785,785,787,787,787,785,785,781,781,783,785,785,781,781,781,781,781,781,780,780,780,781,781,781,785,781,781,781,783,783,785,783,781,781,783,783,783,781,781,781,781,783,785,785,783,783,780,780,780,780,780,780,780,781,781,781,781,781,783,783,781,780,780,781,781,783,785,787,787,787,785,785,785,785,781,781,783,781,781,781,781,781,780,780,780,780,780,776,776,776,776,776,776,776,776,776,776,774,774,776,778,778,778,778,778,780,780,778,778,774,774,774,774,774,774,774,776,776,774,774,774,774,776,778,781,781,781,783,783,785,787,789,789,792,794,794,798,800,802,802,803,803,833,833,837,839,841,843,843,845,847,849,849,851,854,858,860,862,867,869,869,871,873,875,880,885,887,889,891,891,896,898,901,903,906,910,913,915,918,920,923,925,925,925,925,925,925,928,930,933,935,935,940,948,948,948,948,951,954,0,0,0,0,0,0,1601,1601,1601,1601,1601,1601,1594,1594,1586,1586,1586,1579,1579,1579,1579,1579,1579,1572,1572,1572,1572,1564,1564,1557,1550,1550,1550,1543,1543,1543,1543,1536,1536,1529,1529,1529,1523,1523,1523,1523,1523,1516,1516,1516,1509,1509,1503,1503,1496,1496,1496,1496,1496,1489,1489,1489,1489,1489,1489,1483,1483,1477,1477,1470,1470,1470,1470,1464,1464,1464,1464,1458,1458,1458,1452,1452,1445,1445,1445,1445,1445,1439,1439,1439,1439,1433,1433,1433,1427,1421,1421,1421,1421,1415,1415,1415,1415,1415,1410,1410,1410,1410,1404,1398,1398,1398,1398,1392,1392,1392,1392,1392,1387,1387,1387,1381,1376,1376,1376,1376,1370,1370,1370,1370,1365,1365,1365,1359,1359,1354,1354,1354,1354,1354,1349,1349,1349,1349,1343,1343,1338,1338,1333,1333,1333,1333,1333,1328,1328,1322,1322,1317,1317,1317,1312,1312,1312,1312,1312,1312,1307,1307,1307,1302,1302,1302,1297,1297,1292,1292,1292,1292,1288,1288,1283,1283,1283,1283,1273,1273,1273,1273,1273,1268,1268,1268,1268,1268,1268,1264,1264,1259,1259,1255,1255,1255,1255,1250,1250,1245,1245,1245,1245,1241,1236,1236,1236,1236,1232,1232,1232,1232,1227,1227,1227,1223,1223,1219,1219,1219,1219,1219,1214,1214,1214,1210,1210,1206,1202,1202,1202,1197,1197,1197,1197,1197,1197,1193,1193,1193,1189,1185,1185,1185,1185,1181,1181,1181,1181,1181,1181,1181,1181,1181,0,0,1063,1063,1063,1063,1054,1054,1054,1050,1044,1041,1038,1034,1034,1031,1031,1031,1028,1028,1025,1025,1022,1022,1022,1019,1016,1016,1016,1016,1016,1013,1013,1010,1010,1007,1004,1004,1004,1001,1001,1001,0,0,0,0,0,0,0,0,0,0,0,0,0,0,0,0,0,0,0,0,0,0,0,0,0,0,0,0,0,0,0,0,0
0,0,0,0,0,0,0,0,0,0,0,0,0,0,0,0,0,0,0,0,0,0,0,796,794,790,789,789,787,787,789,789,789,789,790,790,790,792,792,792,792,792,792,792,790,790,790,789,789,789,789,789,790,792,792,792,792,792,794,792,792,790,790,792,792,790,790,792,792,790,790,790,790,789,789,789,789,789,790,790,789,789,789,789,785,783,783,783,783,785,785,785,785,785,787,781,781,785,787,785,785,787,785,785,785,785,783,783,783,785,783,783,783,781,781,781,781,781,781,780,780,780,780,780,780,780,780,780,780,778,778,778,778,778,780,780,780,780,778,778,780,780,780,780,780,780,780,780,780,780,778,778,778,778,778,776,776,778,778,778,778,778,776,776,776,776,776,776,780,780,778,774,774,785,785,785,783,781,781,781,780,780,780,780,778,778,778,778,778,778,776,776,776,774,774,774,774,774,774,774,774,773,773,773,773,773,773,773,773,773,773,773,774,774,774,773,773,774,773,773,773,773,773,773,773,773,773,773,773,776,778,780,780,781,783,785,787,789,789,790,792,794,798,800,802,803,803,803,833,833,837,839,841,843,843,845,847,849,849,851,854,858,860,864,867,869,869,871,875,878,880,885,887,887,891,891,896,898,901,903,906,908,913,915,923,925,925,925,925,928,928,928,928,928,930,935,935,938,943,948,948,948,951,954,954,0,0,0,0,0,0,1601,1601,1601,1601,1601,1601,1594,1594,1586,1586,1586,1579,1579,1579,1579,1579,1579,1572,1572,1572,1572,1564,1564,1557,1550,1550,1550,1550,1543,1543,1543,1543,1536,1536,1529,1529,1529,1523,1523,1523,1523,1516,1516,1516,1509,1509,1509,1503,1503,1503,1496,1496,1496,1489,1489,1489,1489,1489,1483,1483,1483,1477,1477,1470,1470,1470,1470,1464,1464,1464,1464,1464,1464,1464,1458,1452,1452,1452,1445,1445,1445,1445,1439,1439,1439,1439,1433,1433,1427,1427,1421,1421,1421,1415,1415,1415,1415,1415,1410,1410,1410,1410,1404,1398,1398,1398,1398,1398,1392,1392,1392,1392,1392,1387,1387,1381,1376,1376,1376,1376,1376,1370,1370,1370,1370,1370,1365,1365,1365,1359,1359,1354,1354,1354,1354,1349,1349,1349,1349,1343,1343,1338,1338,1333,1333,1333,1333,1333,1328,1322,1322,1322,1317,1317,1317,1317,1312,1312,1312,1312,1312,1307,1307,1302,1302,1302,1302,1297,1297,1297,1292,1292,1288,1288,1283,1283,1283,1278,1278,1273,1273,1273,1273,1273,1268,1268,1268,1268,1268,1264,1264,1259,1259,1255,1255,1255,1255,1250,1250,1250,1245,1245,1245,1241,1236,1236,1236,1236,1232,1232,1232,1232,1227,1227,1227,1223,1223,1223,1219,1219,1219,1219,1214,1214,1214,1214,1210,1210,1206,1202,1202,1197,1197,1197,1197,1197,1197,1193,1193,1193,1189,1189,1185,1185,1185,1185,1181,1181,1181,1181,1181,1181,1181,1181,1057,1057,1057,1057,1057,1054,1054,1054,1050,1044,1044,1038,1038,1034,1034,1031,1031,1028,1028,1025,1025,1022,1022,1019,1019,1016,1016,1016,1016,1016,1013,1013,1010,1010,1010,1004,1004,1004,1004,1001,1001,1001,0,0,0,0,0,0,0,0,0,0,0,0,0,0,0,0,0,0,0,0,0,0,0,0,0,0,0,0,0,0,0,0,0
0,0,0,0,0,0,0,0,0,0,0,0,0,0,0,0,0,0,0,0,0,0,0,796,789,789,785,785,785,785,787,787,787,787,787,789,789,789,790,790,790,790,790,790,789,789,789,787,787,787,787,787,787,787,787,790,789,789,792,790,789,789,783,783,785,785,783,783,787,787,787,787,787,787,787,785,785,785,785,783,781,781,780,780,783,781,780,780,780,781,781,781,781,781,780,780,781,781,783,783,781,781,780,780,780,783,783,783,783,783,781,781,780,780,780,780,778,778,778,778,778,778,778,776,776,776,776,776,776,776,776,776,776,776,776,776,776,776,776,776,776,774,774,778,776,776,776,774,774,773,773,773,773,773,771,771,773,773,773,773,773,773,773,773,774,774,774,774,774,773,773,773,774,774,776,778,778,778,778,778,774,774,774,774,774,774,774,774,776,774,773,773,773,773,773,773,771,771,771,771,773,771,771,771,771,767,767,767,767,767,767,767,767,771,771,769,769,769,769,771,771,769,769,771,771,771,771,773,773,774,776,778,780,781,781,783,787,787,789,790,790,794,798,800,803,803,805,833,833,833,835,839,841,843,843,845,847,849,849,851,854,858,862,864,869,869,869,871,875,878,880,885,885,887,889,891,896,901,901,903,906,908,915,928,930,928,928,928,928,928,928,928,928,933,933,935,938,938,946,946,948,948,951,951,954,0,0,0,0,0,0,1601,1601,1601,1601,1601,1601,1594,1594,1594,1586,1586,1586,1579,1579,1579,1579,1579,1572,1572,1572,1572,1572,1564,1557,1557,1550,1550,1550,1550,1543,1543,1536,1536,1529,1529,1529,1529,1523,1523,1523,1523,1523,1516,1516,1516,1516,1509,1509,1509,1503,1496,1496,1496,1496,1489,1489,1489,1489,1483,1483,1483,1477,1477,1470,1470,1470,1470,1470,1464,1464,1464,1464,1464,1464,1458,1458,1452,1452,1445,1445,1445,1445,1439,1439,1439,1439,1439,1433,1427,1427,1421,1421,1421,1421,1415,1415,1415,1415,1415,1415,1410,1410,1404,1404,1398,1398,1398,1398,1392,1392,1392,1392,1392,1387,1387,1387,1381,1376,1376,1376,1376,1370,1370,1370,1370,1370,1365,1365,1365,1365,1365,1359,1354,1354,1354,1354,1349,1349,1349,1343,1343,1338,1338,1333,1333,1333,1333,1333,1328,1328,1322,1322,1322,1317,1317,1317,1317,1312,1312,1312,1312,1307,1307,1307,1307,1302,1302,1297,1297,1297,1297,1292,1288,1288,1288,1288,1288,1278,1278,1273,1273,1273,1273,1273,1273,1268,1268,1268,1268,1268,1264,1264,1259,1255,1255,1255,1255,1255,1250,1250,1250,1250,1245,1245,1241,1241,1236,1236,1232,1232,1232,1232,1227,1227,1227,1223,1223,1223,1219,1219,1219,1219,1219,1214,1214,1214,1214,1210,1206,1206,1202,1197,1197,1197,1197,1197,1197,1197,1197,1193,1189,1189,1189,1189,1185,1185,1181,1181,1181,1181,1181,1181,1054,1054,1057,1057,1057,1054,1054,1054,1054,1050,1050,1038,1038,1034,1031,1031,1031,1031,1028,1028,1028,1025,1022,1019,1019,1019,1016,1016,1016,1013,1013,1013,1013,1010,1010,1010,1007,1004,1004,1001,1001,1001,1001,1001,0,0,0,0,0,0,0,0,0,0,0,0,0,0,0,0,0,0,0,0,0,0,0,0,0,0,0,0,0,0,0,0,0
0,0,0,0,0,0,0,0,0,0,0,0,0,0,0,0,0,0,0,0,0,0,0,0,785,785,783,783,783,783,785,785,785,785,785,785,785,785,785,785,785,789,787,787,785,783,783,780,780,781,781,781,781,781,781,783,785,785,785,785,780,780,780,780,781,780,780,780,780,781,781,780,780,780,781,781,776,774,774,778,778,776,776,776,778,778,778,774,774,774,774,774,774,780,778,778,778,778,780,780,778,776,776,774,774,774,774,774,774,778,780,780,778,778,776,776,776,776,776,776,774,774,774,774,774,774,773,773,773,773,773,773,773,773,774,773,773,773,773,773,773,774,774,774,774,774,774,773,771,771,771,771,769,769,769,769,767,767,769,769,767,767,769,769,769,769,769,771,769,769,769,769,767,767,767,767,773,773,773,773,771,771,771,771,771,771,769,769,769,769,769,769,769,769,769,771,771,771,769,769,771,769,769,769,766,762,762,762,764,764,762,762,766,769,767,767,767,767,767,767,767,767,767,767,769,769,769,771,771,774,776,778,780,781,781,783,785,787,789,790,790,794,798,800,803,827,831,833,833,833,835,837,841,843,843,845,847,849,849,851,854,858,862,867,869,869,871,873,875,878,880,882,885,887,889,891,894,901,901,903,903,930,930,933,933,930,930,930,930,930,930,930,930,933,935,935,938,938,946,946,948,948,951,951,954,0,0,0,0,0,0,1601,1601,1609,1601,1601,1601,1594,1594,1594,1594,1586,1586,1586,1579,1579,1579,1579,1572,1572,1572,1572,1572,1564,1557,1557,1550,1550,1550,1550,1543,1543,1536,1536,1529,1529,1529,1529,1523,1523,1523,1523,1523,1523,1516,1516,1516,1509,1503,1503,1503,1496,1496,1496,1496,1496,1489,1489,1489,1489,1483,1483,1477,1477,1470,1470,1470,1470,1470,1464,1464,1464,1464,1464,1464,1458,1458,1452,1452,1445,1445,1445,1445,1439,1439,1439,1439,1439,1439,1433,1427,1427,1421,1421,1421,1421,1415,1415,1415,1415,1415,1410,1410,1404,1404,1398,1398,1398,1398,1398,1392,1392,1392,1392,1392,1387,1387,1387,1387,1381,1376,1376,1376,1370,1370,1370,1370,1370,1365,1365,1365,1365,1359,1354,1354,1354,1354,1349,1349,1349,1343,1343,1343,1338,1338,1338,1333,1333,1333,1328,1328,1328,1322,1322,1322,1317,1317,1317,1317,1312,1312,1312,1307,1307,1307,1307,1302,1302,1302,1297,1297,1297,1292,1292,1288,1288,1288,1288,1283,1278,1278,1273,1273,1273,1273,1273,1273,1273,1268,1268,1268,1264,1264,1259,1255,1255,1255,1255,1255,1250,1250,1250,1250,1250,1245,1241,1241,1236,1236,1232,1232,1232,1232,1232,1227,1227,1223,1223,1223,1219,1219,1219,1219,1219,1214,1214,1214,1214,1210,1210,1206,1202,1202,1197,1197,1197,1197,1197,1197,1197,1197,1193,1189,1185,1185,1185,1181,1181,1181,1181,1181,1181,1054,1054,1054,1054,1054,1054,1054,1054,1050,1050,1050,1050,1038,1038,1034,1031,1031,1031,1028,1028,1028,1025,1025,1022,1019,1016,1016,1016,1016,1016,1013,1013,1013,1013,1010,1010,1010,1007,1004,1004,1001,1001,1001,1001,1004,0,0,0,0,0,0,0,0,0,0,0,0,0,0,0,0,0,0,0,0,0,0,0,0,0,0,0,0,0,0,0,0,0
0,0,0,0,0,0,0,0,0,0,0,0,0,0,0,0,0,0,0,0,0,0,0,0,783,783,781,781,781,781,780,778,776,774,774,781,780,780,780,780,781,778,776,776,776,776,776,776,776,776,776,776,776,776,780,780,781,781,781,780,776,774,774,776,776,778,778,778,778,778,780,776,776,774,774,774,774,774,774,776,776,776,774,774,776,776,776,774,773,773,773,773,773,774,774,776,776,776,778,776,774,774,774,773,773,774,773,773,773,774,774,774,774,774,774,774,774,774,773,773,773,773,773,771,771,771,769,769,773,771,771,771,771,771,773,771,769,769,771,771,771,773,773,771,771,771,771,769,769,769,767,767,767,767,767,767,766,766,766,766,764,764,764,766,766,766,766,767,767,767,766,766,766,766,766,762,762,762,762,766,766,769,769,769,767,767,767,767,766,764,764,764,764,764,764,766,766,767,766,766,767,767,767,766,762,761,761,761,761,761,761,761,762,762,764,764,764,764,764,764,764,766,766,767,767,767,769,769,771,774,776,778,780,781,781,783,785,787,789,790,790,800,800,802,825,825,831,833,833,833,835,837,841,843,843,845,849,849,851,854,856,860,862,867,869,871,873,875,878,880,880,882,885,887,889,891,894,901,901,901,903,935,935,935,933,933,933,933,933,933,930,930,930,933,935,935,938,940,946,946,948,948,951,951,954,0,0,0,0,0,1609,1601,1601,1609,1601,1601,1601,1601,1601,1594,1594,1594,1586,1586,1579,1579,1579,1579,1572,1572,1572,1572,1572,1564,1564,1557,1557,1550,1550,1550,1543,1543,1543,1536,1529,1529,1529,1529,1529,1529,1523,1523,1523,1523,1516,1516,1516,1509,1503,1503,1503,1496,1496,1496,1496,1496,1489,1489,1489,1489,1489,1483,1477,1477,1477,1477,1470,1470,1470,1470,1470,1464,1464,1464,1464,1458,1458,1452,1452,1452,1445,1445,1445,1445,1439,1439,1439,1439,1433,1433,1427,1427,1421,1421,1421,1421,1421,1415,1415,1415,1415,1415,1410,1410,1404,1404,1398,1398,1398,1398,1398,1392,1392,1392,1392,1387,1387,1387,1387,1381,1381,1376,1376,1370,1370,1370,1370,1370,1370,1365,1365,1365,1359,1359,1354,1354,1354,1349,1349,1349,1343,1343,1343,1338,1338,1338,1333,1333,1333,1328,1328,1328,1328,1322,1322,1322,1317,1317,1317,1317,1312,1312,1307,1307,1307,1307,1302,1302,1302,1297,1297,1297,1292,1292,1288,1288,1288,1288,1283,1278,1278,1273,1273,1273,1273,1273,1273,1273,1273,1268,1268,1264,1264,1259,1255,1255,1255,1255,1255,1255,1250,1250,1250,1250,1245,1241,1241,1241,1236,1236,1232,1232,1232,1232,1232,1227,1227,1223,1223,1223,1219,1219,1219,1219,1219,1214,1214,1214,1214,1210,1206,1206,1202,1197,1197,1197,1197,1197,1197,1197,1197,1193,1189,1185,1185,1185,1181,1181,1181,1181,1054,1054,1054,1054,1054,1054,1054,1054,1050,1050,1050,1047,1047,1047,1038,1038,1034,1028,1028,1028,1028,1028,1025,1025,1025,1022,1019,1016,1016,1016,1016,1013,1013,1013,1013,1013,1010,1010,1007,1007,1004,1001,998,998,1001,1041,1041,0,0,0,0,0,0,0,0,0,0,0,0,0,0,0,0,0,0,0,0,0,0,0,0,0,0,0,0,0,0,0,0,0
0,0,0,0,0,0,0,0,0,0,0,0,0,0,0,0,0,0,0,0,0,0,0,0,780,780,778,778,778,778,774,774,774,774,774,773,773,774,776,776,776,774,774,774,774,773,773,773,773,774,774,776,774,774,776,776,776,776,778,778,774,774,774,776,776,774,774,776,774,774,778,774,773,773,773,774,773,773,773,774,774,774,774,774,774,774,774,773,773,773,773,773,771,771,773,774,773,771,771,769,769,773,771,769,769,769,771,769,769,769,769,769,769,769,767,767,767,771,771,771,769,769,769,769,769,769,767,767,767,769,769,769,767,767,767,767,766,766,766,766,766,766,767,767,767,767,769,767,767,766,766,766,767,766,766,766,764,764,762,762,762,762,762,762,762,762,762,762,764,764,764,762,762,762,762,761,761,761,761,766,766,766,766,767,767,766,766,764,764,762,762,762,761,761,761,761,761,764,764,762,762,766,766,764,762,761,759,759,761,759,759,759,759,761,762,762,761,761,762,762,762,764,764,766,766,767,769,769,771,773,774,776,780,781,783,783,785,787,789,817,817,817,819,821,825,825,829,833,833,833,835,839,841,841,843,845,849,849,851,856,856,860,862,867,871,871,873,875,878,880,880,882,885,887,889,891,894,898,898,901,940,938,938,935,935,933,933,933,933,933,933,933,933,935,935,935,940,943,946,948,948,948,951,951,954,0,0,0,0,0,1609,1601,1601,1609,1609,1601,1601,1601,1601,1594,1594,1594,1586,1586,1586,1579,1579,1579,1572,1572,1572,1572,1572,1564,1564,1557,1557,1550,1550,1550,1550,1543,1543,1536,1536,1529,1529,1529,1529,1529,1523,1523,1523,1523,1516,1516,1516,1509,1503,1503,1503,1496,1496,1496,1496,1496,1496,1489,1489,1489,1489,1489,1483,1483,1477,1477,1470,1470,1470,1470,1470,1470,1470,1464,1464,1464,1458,1458,1452,1452,1452,1445,1445,1445,1445,1445,1439,1439,1433,1433,1427,1427,1421,1421,1421,1421,1421,1415,1415,1415,1415,1415,1410,1410,1404,1404,1398,1398,1398,1398,1398,1392,1392,1392,1392,1392,1392,1392,1392,1387,1381,1376,1376,1376,1370,1370,1370,1370,1370,1370,1370,1365,1365,1359,1354,1354,1354,1354,1349,1349,1349,1343,1343,1343,1338,1338,1338,1338,1333,1333,1328,1328,1328,1322,1322,1322,1322,1317,1317,1317,1312,1312,1312,1307,1307,1307,1302,1302,1302,1297,1297,1297,1292,1292,1292,1292,1288,1288,1283,1278,1278,1278,1273,1273,1273,1273,1273,1273,1273,1268,1268,1268,1259,1259,1255,1255,1255,1255,1255,1255,1255,1250,1250,1250,1245,1245,1241,1241,1236,1236,1236,1232,1232,1232,1232,1232,1227,1227,1227,1223,1219,1219,1219,1219,1219,1214,1214,1214,1214,1210,1206,1206,1202,1197,1197,1197,1197,1197,1197,1197,1197,1197,1193,1189,1189,1185,1185,1057,1057,1054,1054,1054,1054,1054,1054,1050,1050,1050,1050,1050,1047,1047,1044,1041,1038,1038,1031,1028,1028,1028,1028,1028,1025,1025,1025,1019,1019,1016,1016,1016,1013,1013,1013,1013,1013,1010,1007,1007,1007,1007,1004,1001,998,998,1041,1041,1041,0,0,0,0,0,0,0,0,0,0,0,0,0,0,0,0,0,0,0,0,0,0,0,0,0,0,0,0,0,0,0,0,0
0,0,0,0,0,0,0,0,0,0,0,0,0,0,0,0,0,0,0,0,0,0,0,0,780,774,773,773,773,773,773,773,773,773,773,771,771,773,773,773,773,773,773,773,773,771,771,771,771,773,773,773,773,774,774,774,773,769,769,776,773,773,773,774,774,774,774,773,773,773,771,771,771,769,769,771,771,771,771,771,773,773,771,771,771,773,773,771,771,767,767,771,767,767,766,766,771,767,767,764,764,764,766,761,761,769,767,767,766,766,766,767,766,766,764,764,764,764,764,764,764,767,767,767,767,766,766,766,766,766,767,767,766,766,766,766,764,762,762,762,761,761,761,762,762,764,766,766,766,764,764,764,764,764,762,762,762,761,761,761,761,759,759,759,761,761,759,759,761,762,762,761,761,761,761,761,761,759,759,759,761,759,759,759,759,759,759,762,762,761,761,761,759,759,759,757,757,761,761,761,761,761,762,761,759,759,757,757,757,757,757,757,757,757,757,759,759,759,761,761,761,761,762,764,766,767,767,769,771,773,773,774,776,781,783,783,785,787,813,815,817,817,819,821,825,825,829,833,833,835,835,839,841,841,843,845,849,851,854,856,858,860,862,867,871,871,873,875,878,880,880,882,885,887,887,889,896,898,898,940,940,940,940,938,935,935,935,935,933,933,933,933,933,935,935,935,940,943,946,948,948,948,951,951,954,0,0,0,0,0,1609,1609,1609,1609,1609,1601,1601,1601,1601,1594,1594,1594,1586,1586,1586,1586,1579,1579,1579,1579,1572,1572,1572,1572,1564,1557,1557,1550,1550,1550,1550,1543,1543,1536,1536,1536,1536,1536,1529,1529,1523,1523,1523,1523,1516,1516,1516,1509,1509,1509,1503,1496,1496,1496,1496,1496,1496,1489,1489,1489,1489,1489,1483,1483,1477,1477,1470,1470,1470,1470,1470,1464,1464,1464,1464,1464,1458,1458,1452,1452,1452,1445,1445,1445,1445,1445,1439,1439,1439,1433,1427,1427,1421,1421,1421,1421,1421,1421,1421,1415,1415,1415,1410,1410,1404,1404,1398,1398,1398,1398,1398,1392,1392,1392,1392,1392,1392,1392,1392,1387,1387,1381,1376,1376,1376,1370,1370,1370,1370,1370,1370,1370,1365,1359,1359,1354,1354,1354,1349,1349,1349,1349,1343,1343,1343,1343,1338,1338,1333,1333,1328,1328,1328,1328,1322,1322,1322,1322,1317,1317,1312,1312,1312,1307,1307,1307,1307,1302,1302,1302,1297,1297,1292,1292,1292,1292,1292,1288,1283,1283,1278,1278,1273,1273,1273,1273,1273,1273,1273,1268,1268,1268,1259,1259,1255,1255,1255,1255,1255,1255,1255,1255,1250,1250,1245,1245,1245,1241,1236,1236,1236,1236,1232,1232,1232,1232,1227,1227,1227,1223,1219,1219,1219,1219,1219,1214,1214,1214,1214,1210,1206,1206,1202,1202,1202,1202,1197,1197,1197,1197,1197,1189,1181,1181,1193,1057,1057,1057,1057,1054,1054,1050,1050,1050,1050,1050,1050,1050,1050,1047,1047,1047,1044,1041,1038,1034,1028,1028,1028,1028,1025,1025,1025,1025,1025,1019,1019,1016,1016,1016,1013,1013,1013,1013,1013,1010,1004,1004,1004,1010,1047,1047,1047,1041,1041,1041,1041,0,0,0,0,0,0,0,0,0,0,0,0,0,0,0,0,0,0,0,0,0,0,0,0,0,0,0,0,0,0,0,0,0
0,0,0,0,0,0,0,0,0,0,0,0,0,0,0,0,0,0,0,0,0,0,0,0,773,771,769,769,769,769,771,769,769,769,769,767,767,767,769,773,771,771,771,771,769,769,769,769,769,769,769,771,771,766,766,766,767,766,766,766,767,769,773,773,773,773,773,771,771,771,767,767,766,766,766,766,766,766,767,769,767,767,769,766,761,761,771,766,762,762,764,764,764,762,759,759,762,762,761,761,759,759,759,759,759,761,761,764,762,762,762,762,762,762,761,761,761,761,761,757,757,757,762,762,766,766,764,762,762,762,762,762,761,761,762,762,762,761,759,759,757,757,757,757,759,759,761,762,764,761,761,761,761,759,759,759,759,759,759,759,759,759,757,757,757,757,757,755,755,755,755,755,755,757,757,757,757,755,755,755,757,757,757,757,757,755,755,754,754,754,755,755,755,755,755,755,755,755,757,757,759,759,761,759,755,755,755,755,755,754,754,754,754,754,754,757,757,757,759,759,761,761,762,764,766,766,767,767,769,771,773,774,776,781,783,809,809,811,811,815,817,817,819,821,825,827,829,831,833,835,837,839,841,843,843,845,847,851,854,856,858,860,864,869,871,873,875,878,878,880,880,882,885,887,887,887,898,901,946,946,943,943,940,938,938,935,935,935,935,933,933,933,933,935,935,935,940,943,946,948,948,951,951,951,954,0,0,0,0,0,1609,1609,1609,1609,1609,1609,1601,1601,1601,1601,1601,1594,1594,1586,1586,1586,1579,1579,1579,1579,1572,1572,1572,1572,1564,1564,1557,1557,1550,1550,1550,1543,1543,1543,1543,1536,1536,1536,1529,1529,1529,1529,1523,1523,1523,1516,1516,1516,1509,1509,1503,1503,1496,1496,1496,1496,1496,1489,1489,1489,1489,1489,1483,1483,1477,1477,1470,1470,1470,1470,1470,1464,1464,1464,1464,1464,1458,1458,1452,1452,1452,1445,1445,1445,1445,1445,1445,1439,1439,1433,1433,1427,1427,1421,1421,1421,1421,1421,1421,1415,1415,1415,1410,1410,1404,1404,1398,1398,1398,1398,1398,1398,1392,1392,1392,1392,1392,1392,1392,1392,1387,1381,1376,1376,1376,1370,1370,1370,1370,1370,1370,1370,1365,1365,1359,1354,1354,1354,1349,1349,1349,1349,1349,1349,1343,1343,1343,1338,1333,1333,1333,1328,1328,1328,1328,1328,1328,1322,1322,1317,1317,1312,1312,1307,1307,1307,1307,1307,1302,1302,1302,1302,1297,1292,1292,1292,1292,1288,1288,1283,1278,1278,1273,1273,1273,1273,1273,1273,1273,1273,1268,1268,1264,1259,1255,1255,1255,1255,1255,1255,1255,1255,1250,1250,1245,1245,1245,1241,1236,1236,1236,1236,1232,1232,1232,1232,1227,1227,1227,1223,1219,1219,1219,1219,1219,1219,1214,1214,1214,1210,1206,1206,1202,1202,1202,1202,1202,1202,1202,1197,1197,1177,1161,1161,1161,1054,1054,1054,1054,1054,1054,1050,1050,1050,1050,1047,1047,1047,1047,1047,1047,1044,1044,1041,1038,1034,1028,1028,1028,1025,1025,1025,1022,1022,1022,1019,1019,1016,1016,1016,1013,1013,1013,1010,1010,1007,1001,1001,1004,1054,1047,1047,1047,1044,1044,1044,1044,0,0,0,0,0,0,0,0,0,0,0,0,0,0,0,0,0,0,0,0,0,0,0,0,0,0,0,0,0,0,0,0,0
0,0,0,0,0,0,0,0,0,0,0,0,0,0,0,0,0,0,0,0,0,0,0,0,769,769,769,769,769,769,769,767,767,767,766,766,764,764,766,767,767,766,766,767,769,767,767,767,767,767,767,766,766,764,762,761,761,761,761,761,766,766,767,771,769,764,764,764,762,762,762,762,766,766,766,764,764,766,766,762,762,761,761,762,761,761,766,762,762,762,761,761,762,761,759,759,759,759,759,757,755,755,759,757,757,757,757,761,761,759,759,759,759,759,757,755,755,757,754,754,754,755,755,757,754,754,755,757,759,759,759,759,759,759,759,759,759,759,754,754,754,754,754,754,755,755,757,759,759,759,757,755,754,754,754,754,754,754,755,757,757,755,755,755,755,755,755,754,754,754,754,754,754,754,754,754,754,754,752,752,754,754,754,754,752,752,750,750,750,750,752,752,752,752,754,754,754,754,755,755,755,755,757,757,754,754,754,752,752,752,752,752,752,752,752,754,755,755,757,759,759,761,762,764,766,766,767,767,769,769,771,773,805,805,805,807,807,809,811,813,815,817,819,821,825,827,829,831,833,835,837,839,841,843,843,845,847,851,854,856,860,864,867,869,871,873,875,878,878,880,880,882,885,887,887,887,887,951,946,946,946,943,943,940,940,938,935,935,935,935,935,935,935,935,935,938,940,943,946,948,948,951,951,954,956,0,0,0,0,0,1609,1609,1609,1609,1609,1609,1609,1601,1601,1601,1601,1594,1594,1594,1594,1586,1586,1579,1579,1579,1572,1572,1572,1572,1564,1564,1557,1557,1557,1550,1550,1543,1543,1543,1543,1536,1536,1536,1529,1529,1529,1529,1523,1523,1523,1523,1516,1516,1516,1516,1509,1503,1503,1496,1496,1496,1496,1496,1496,1489,1489,1489,1489,1483,1483,1477,1470,1470,1470,1470,1470,1464,1464,1464,1464,1464,1458,1458,1452,1452,1452,1452,1445,1445,1445,1445,1445,1439,1439,1439,1433,1433,1427,1427,1421,1421,1421,1421,1421,1421,1415,1415,1415,1410,1410,1404,1398,1398,1398,1398,1398,1398,1398,1392,1392,1392,1392,1392,1392,1387,1387,1381,1376,1376,1376,1370,1370,1370,1370,1370,1370,1370,1365,1359,1359,1354,1354,1354,1349,1349,1349,1349,1349,1349,1349,1343,1343,1343,1338,1333,1333,1328,1328,1328,1328,1328,1328,1328,1322,1322,1317,1312,1312,1307,1307,1307,1307,1307,1302,1302,1302,1302,1297,1292,1292,1292,1292,1288,1288,1283,1283,1278,1273,1273,1273,1273,1273,1273,1273,1273,1268,1264,1264,1264,1259,1259,1259,1259,1255,1255,1255,1255,1250,1250,1250,1245,1245,1241,1236,1236,1236,1236,1232,1232,1232,1232,1232,1227,1227,1223,1223,1219,1219,1219,1219,1219,1214,1214,1214,1210,1210,1206,1202,1202,1202,1202,1202,1202,1202,1197,1197,1169,1157,1153,1057,1054,1054,1054,1050,1050,1050,1050,1050,1050,1047,1047,1047,1047,1044,1044,1041,1041,1044,1041,1038,1038,1031,1028,1028,1025,1025,1025,1022,1022,1022,1019,1019,1016,1016,1016,1013,1013,1013,1010,1007,1007,1001,1001,1054,1054,1047,1047,1044,1044,1044,1044,1044,0,0,0,0,0,0,0,0,0,0,0,0,0,0,0,0,0,0,0,0,0,0,0,0,0,0,0,0,0,0,0,0,0
0,0,0,0,0,0,0,0,0,0,0,0,0,0,0,0,0,0,0,0,0,0,0,0,761,761,766,766,766,766,766,766,764,764,762,762,761,761,762,762,762,762,762,764,764,766,766,766,764,764,764,762,762,761,759,757,757,757,757,759,759,761,762,761,761,761,761,761,761,761,761,761,761,761,762,761,761,761,761,759,759,759,759,759,759,761,762,761,759,759,757,757,757,757,757,755,755,757,757,755,754,754,757,755,755,757,757,759,757,757,757,757,759,757,755,754,754,754,754,752,752,752,752,752,752,752,752,754,754,752,752,752,755,755,754,754,755,754,752,752,754,752,752,752,752,752,754,754,752,752,754,752,750,749,749,749,749,749,754,755,755,755,754,754,754,754,754,752,750,750,754,752,752,754,754,752,752,750,749,749,747,747,747,747,747,747,747,747,747,747,749,749,750,750,750,750,750,750,752,750,750,752,754,754,752,752,752,750,750,749,749,750,750,750,752,752,754,754,757,759,759,761,762,764,766,766,767,767,769,769,771,773,802,802,803,807,807,809,811,813,815,817,819,821,825,827,829,831,833,835,837,839,841,843,845,847,849,851,856,858,862,864,867,869,871,873,875,878,878,880,880,882,885,887,887,887,951,951,951,946,946,946,943,943,940,940,938,938,935,935,935,935,935,935,935,938,943,943,946,948,948,951,954,954,956,959,0,0,0,0,0,1609,1609,1609,1609,1609,1609,1601,1601,1601,1601,1601,1594,1594,1594,1586,1586,1579,1579,1579,1572,1572,1572,1572,1572,1564,1564,1557,1557,1550,1550,1543,1543,1543,1543,1543,1536,1536,1536,1529,1529,1529,1523,1523,1523,1523,1516,1516,1516,1516,1509,1509,1503,1503,1496,1496,1496,1496,1496,1496,1489,1489,1489,1483,1483,1477,1470,1470,1470,1470,1470,1464,1464,1464,1464,1464,1464,1458,1458,1452,1452,1452,1445,1445,1445,1445,1445,1439,1439,1439,1439,1433,1433,1427,1427,1421,1421,1421,1421,1421,1415,1415,1415,1410,1410,1404,1404,1398,1398,1398,1398,1398,1398,1392,1392,1392,1392,1392,1392,1387,1387,1381,1376,1376,1376,1370,1370,1370,1370,1370,1370,1370,1365,1359,1359,1354,1354,1354,1354,1349,1349,1349,1349,1349,1349,1343,1343,1343,1338,1333,1333,1333,1328,1328,1328,1328,1328,1328,1322,1322,1317,1312,1312,1307,1307,1307,1307,1307,1302,1302,1302,1302,1297,1297,1292,1292,1292,1292,1288,1288,1283,1278,1278,1278,1273,1273,1273,1273,1273,1273,1268,1264,1264,1264,1259,1259,1259,1259,1255,1255,1255,1255,1250,1250,1250,1245,1245,1241,1236,1236,1236,1236,1236,1236,1232,1232,1232,1227,1227,1223,1223,1219,1219,1219,1219,1219,1214,1214,1214,1214,1210,1210,1206,1202,1202,1202,1202,1202,1202,1202,1197,1169,1157,1153,1057,1054,1054,1050,1050,1050,1050,1050,1047,1047,1047,1047,1044,1044,1041,1041,1041,1038,1038,1038,1038,1034,1031,1028,1025,1025,1025,1025,1022,1022,1019,1019,1019,1016,1016,1016,1013,1013,1013,1010,1007,1007,1054,1054,1054,1050,1047,1047,1044,1044,1044,1044,1044,0,0,0,0,0,0,0,0,0,0,0,0,0,0,0,0,0,0,0,0,0,0,0,0,0,0,0,0,0,0,0,0,0
0,0,0,0,0,0,0,0,0,0,0,0,0,0,0,0,0,0,0,0,0,0,0,0,759,759,761,762,764,764,764,762,761,761,761,761,761,761,761,761,761,761,761,761,761,761,761,761,761,759,757,757,759,759,755,755,755,755,755,754,754,757,757,757,757,757,757,757,759,759,757,757,757,757,757,757,755,755,755,755,755,755,755,757,757,761,761,759,757,755,754,754,755,755,755,754,754,754,754,754,754,754,754,754,754,754,754,752,752,754,754,752,752,754,752,752,752,752,752,750,749,749,750,750,750,750,750,750,750,750,749,749,749,747,747,750,750,752,752,752,752,752,752,750,750,750,749,749,749,749,747,747,747,747,747,747,747,747,750,752,752,754,754,754,754,754,752,750,749,749,750,752,752,750,750,750,749,747,746,746,746,746,746,746,746,746,746,746,746,746,746,746,746,747,747,747,747,746,746,744,744,747,750,749,749,750,750,749,747,747,747,747,749,749,750,752,754,754,757,759,759,761,762,764,766,766,767,767,769,769,802,802,800,800,803,805,807,809,811,813,815,817,819,821,825,827,829,831,833,835,837,839,841,843,845,847,851,854,858,860,862,864,867,869,871,871,873,875,878,880,880,882,885,887,887,887,954,951,951,948,946,946,946,943,943,940,940,938,938,935,935,935,935,935,935,938,943,946,946,948,951,954,954,956,959,959,962,0,0,0,0,1609,1609,1609,1609,1609,1609,1609,1601,1601,1601,1601,1594,1594,1594,1594,1586,1579,1579,1579,1579,1572,1572,1572,1572,1564,1564,1557,1557,1550,1550,1550,1543,1543,1543,1543,1543,1536,1536,1536,1529,1529,1523,1523,1523,1523,1523,1516,1516,1516,1516,1509,1509,1503,1496,1496,1496,1496,1496,1496,1489,1489,1489,1483,1483,1477,1477,1470,1470,1470,1470,1464,1464,1464,1464,1464,1464,1458,1458,1452,1452,1452,1452,1445,1445,1445,1445,1439,1439,1439,1439,1433,1433,1433,1427,1427,1421,1421,1421,1421,1415,1415,1415,1410,1410,1404,1404,1398,1398,1398,1398,1398,1398,1392,1392,1392,1392,1392,1392,1387,1387,1381,1381,1376,1376,1376,1376,1370,1370,1370,1370,1370,1365,1365,1359,1359,1354,1354,1354,1354,1349,1349,1349,1349,1349,1349,1349,1343,1338,1333,1333,1333,1328,1328,1328,1328,1328,1328,1322,1322,1317,1312,1312,1312,1307,1307,1307,1307,1307,1307,1302,1302,1297,1297,1292,1292,1292,1292,1288,1288,1283,1283,1278,1278,1273,1273,1273,1273,1273,1273,1268,1264,1264,1264,1259,1259,1259,1259,1255,1255,1255,1255,1255,1250,1250,1245,1245,1241,1236,1236,1236,1236,1236,1236,1232,1232,1232,1227,1227,1227,1223,1219,1219,1219,1219,1219,1214,1214,1214,1214,1210,1210,1206,1202,1202,1202,1202,1202,1202,1202,1197,1169,1060,1057,1054,1054,1054,1050,1050,1050,1047,1047,1047,1047,1044,1044,1044,1041,1041,1041,1041,1038,1038,1034,1034,1031,1028,1028,1025,1025,1025,1022,1022,1019,1019,1019,1019,1016,1016,1016,1016,1013,1013,1010,1007,1007,1054,1054,1050,1050,1047,1047,1044,1044,1044,1044,1054,0,0,0,0,0,0,0,0,0,0,0,0,0,0,0,0,0,0,0,0,0,0,0,0,0,0,0,0,0,0,0,0,0
0,0,0,0,0,0,0,0,0,0,0,0,0,0,0,0,0,0,0,0,0,0,0,754,754,755,757,759,759,759,759,759,757,757,757,757,759,759,759,757,757,759,759,759,759,757,757,757,755,755,755,755,757,755,755,754,754,754,754,752,752,754,754,755,755,755,755,755,754,754,754,754,755,755,755,755,754,754,752,752,752,752,752,754,754,755,755,755,755,754,754,754,754,754,754,754,754,752,752,752,750,750,752,752,752,752,750,749,749,747,747,747,747,747,749,749,750,749,749,749,747,747,747,747,747,747,747,747,747,747,746,746,746,746,746,744,744,746,747,750,752,750,750,749,749,747,747,746,746,746,746,747,746,746,746,746,746,746,747,747,747,750,750,750,750,752,750,749,747,747,749,750,750,749,749,747,746,746,744,742,742,742,742,744,742,742,742,742,742,742,742,742,742,744,744,744,742,741,741,741,741,739,739,741,744,747,747,747,747,747,747,747,747,749,749,750,752,754,757,759,759,761,762,764,766,766,767,767,769,769,794,800,800,800,802,803,805,807,811,813,817,817,821,823,825,827,829,829,833,835,839,841,843,845,847,849,851,856,858,860,862,864,867,869,869,871,871,875,878,878,880,882,887,889,889,0,0,954,954,951,951,946,946,943,943,943,940,940,938,938,935,935,935,935,935,938,943,946,948,948,954,954,956,959,962,962,962,0,0,0,0,0,1609,1609,1609,1609,1609,1609,1601,1601,1601,1601,1601,1594,1594,1594,1586,1586,1579,1579,1579,1579,1572,1572,1572,1572,1564,1564,1557,1550,1550,1550,1543,1543,1543,1543,1543,1543,1536,1536,1529,1529,1523,1523,1523,1523,1523,1516,1516,1516,1516,1509,1509,1503,1503,1496,1496,1496,1496,1496,1489,1489,1489,1483,1483,1477,1477,1470,1470,1470,1470,1464,1464,1464,1464,1464,1464,1464,1458,1458,1452,1452,1452,1445,1445,1445,1445,1439,1439,1439,1439,1433,1433,1433,1427,1427,1421,1421,1421,1421,1415,1415,1415,1410,1410,1404,1404,1404,1398,1398,1398,1398,1398,1398,1398,1392,1392,1392,1392,1392,1387,1387,1381,1376,1376,1376,1376,1370,1370,1370,1370,1370,1365,1365,1359,1359,1354,1354,1354,1354,1354,1349,1349,1349,1349,1349,1349,1343,1338,1333,1333,1333,1328,1328,1328,1328,1328,1328,1328,1322,1317,1312,1312,1312,1312,1307,1307,1307,1307,1307,1302,1302,1302,1297,1297,1292,1292,1292,1288,1288,1288,1283,1278,1278,1278,1273,1273,1273,1273,1273,1273,1268,1268,1264,1259,1259,1259,1259,1255,1255,1255,1255,1255,1250,1250,1245,1245,1241,1236,1236,1236,1236,1236,1236,1232,1232,1232,1232,1227,1227,1223,1223,1219,1219,1219,1219,1214,1214,1214,1214,1210,1210,1206,1206,1206,1206,1202,1202,1202,1202,1063,1060,1060,1057,1054,1054,1054,1050,1050,1047,1047,1047,1047,1047,1044,1044,1044,1041,1041,1041,1038,1038,1038,1034,1034,1031,1028,1025,1025,1025,1022,1022,1022,1019,1019,1019,1019,1016,1016,1016,1016,1016,1016,1010,1010,1054,1054,1054,1050,1050,1047,1047,1044,1044,981,981,1054,0,0,0,0,0,0,0,0,0,0,0,0,0,0,0,0,0,0,0,0,0,0,0,0,0,0,0,0,0,0,0,0,0
0,0,0,0,0,0,0,0,0,0,0,0,0,0,0,0,0,0,0,0,0,0,754,754,752,752,754,754,754,754,754,754,754,755,755,755,757,757,755,754,754,757,755,755,755,755,755,755,754,754,754,754,754,754,754,752,752,752,750,750,749,749,750,752,752,754,754,754,754,752,752,752,752,752,750,750,752,752,752,750,750,750,750,750,750,750,752,752,752,752,752,752,752,750,750,750,750,749,749,749,749,749,749,749,749,749,747,747,747,746,746,746,746,747,747,747,747,749,747,747,747,747,746,746,746,746,746,746,746,744,744,742,742,742,742,742,742,742,742,744,744,744,744,747,746,744,742,742,742,744,744,746,746,746,746,746,746,746,746,744,744,744,744,741,741,741,741,744,744,746,746,747,747,747,744,744,744,744,742,742,742,742,742,742,741,739,739,741,741,741,739,739,739,742,742,741,739,739,739,738,738,738,736,734,734,736,739,741,742,746,746,746,746,747,749,749,750,754,757,759,759,761,762,764,764,766,767,767,769,794,794,798,800,800,802,803,805,807,811,813,817,819,821,823,825,827,827,829,833,837,839,841,843,845,847,849,851,854,858,860,862,864,867,867,869,869,871,873,875,878,880,882,887,0,0,0,0,954,951,951,951,946,946,946,943,943,943,940,938,938,938,938,935,935,938,943,946,946,948,948,954,954,956,959,962,962,964,0,0,0,0,0,1609,1609,1609,1609,1609,1609,1609,1601,1601,1601,1601,1601,1601,1594,1586,1586,1586,1579,1579,1579,1579,1572,1572,1572,1572,1564,1564,1550,1550,1550,1543,1543,1543,1543,1543,1543,1536,1536,1536,1536,1523,1523,1523,1523,1523,1523,1516,1516,1516,1516,1509,1503,1503,1503,1496,1496,1496,1496,1496,1489,1489,1489,1483,1483,1477,1470,1470,1470,1470,1464,1464,1464,1464,1464,1464,1464,1458,1458,1452,1452,1452,1445,1445,1445,1445,1445,1439,1439,1439,1439,1433,1433,1427,1427,1421,1421,1421,1421,1415,1415,1415,1410,1410,1404,1404,1404,1398,1398,1398,1398,1398,1398,1398,1398,1398,1392,1392,1392,1392,1387,1381,1381,1381,1376,1376,1376,1376,1370,1370,1370,1365,1365,1359,1359,1354,1354,1354,1354,1354,1349,1349,1349,1349,1349,1349,1343,1343,1338,1338,1333,1333,1328,1328,1328,1328,1328,1328,1322,1322,1312,1312,1312,1312,1307,1307,1307,1307,1307,1302,1302,1302,1297,1297,1297,1292,1292,1292,1288,1288,1283,1283,1283,1278,1278,1278,1278,1273,1273,1268,1268,1268,1264,1264,1264,1259,1259,1255,1255,1255,1255,1255,1250,1250,1250,1245,1245,1241,1236,1236,1236,1236,1236,1232,1232,1232,1232,1227,1227,1223,1223,1219,1219,1219,1219,1219,1214,1214,1214,1214,1210,1210,1206,1206,1206,1202,1202,1070,1067,1063,1060,1060,1057,1054,1054,1054,1050,1050,1047,1047,1047,1047,1047,1044,1044,1044,1041,1041,1041,1038,1038,1038,1034,1034,1031,1028,1025,1025,1025,1022,1022,1019,1016,1016,1016,1016,1016,1016,1016,1016,1016,1016,1016,1054,1054,1054,1054,1050,1050,1050,1047,978,978,981,981,1054,0,0,0,0,0,0,0,0,0,0,0,0,0,0,0,0,0,0,0,0,0,0,0,0,0,0,0,0,0,0,0,0,0
0,0,0,0,0,0,0,0,0,0,0,0,0,0,0,0,0,0,0,0,0,754,752,752,752,752,752,752,752,752,752,752,752,752,752,752,754,754,752,752,752,754,754,752,752,752,754,754,752,752,752,752,754,752,752,752,752,750,749,749,747,747,749,749,750,752,752,752,750,750,750,750,749,747,747,747,747,747,747,749,749,749,749,749,747,747,747,747,747,747,747,749,749,747,747,747,747,746,746,747,747,747,747,747,746,746,746,744,744,744,742,742,742,744,744,746,746,746,742,742,746,744,744,742,742,742,742,742,742,742,741,741,741,741,741,741,739,739,739,739,738,738,738,738,738,738,739,739,739,739,739,741,742,744,744,746,744,744,744,742,741,741,739,738,738,736,736,739,739,734,734,734,744,744,741,741,741,741,741,741,739,739,739,739,739,738,738,736,736,739,739,736,736,738,738,736,736,736,736,734,734,734,734,734,734,736,738,739,741,741,742,744,746,747,749,749,750,754,757,759,759,761,762,764,764,766,767,767,792,794,794,798,800,800,802,803,807,809,811,813,817,819,821,823,825,827,827,829,833,837,839,841,843,847,847,849,851,854,858,860,862,864,867,867,867,869,871,873,875,0,0,0,0,0,0,0,0,954,951,951,948,948,946,946,946,943,943,940,940,940,938,938,938,938,938,943,946,946,948,948,954,954,956,959,962,962,964,0,0,0,0,0,1609,1609,1609,1609,1609,1609,1609,1601,1601,1601,1601,1601,1601,1594,1594,1586,1586,1579,1579,1579,1579,1579,1572,1572,1572,1572,1557,1557,1550,1550,1543,1543,1543,1543,1543,1543,1536,1536,1536,1536,1529,1523,1523,1523,1523,1523,1523,1523,1516,1516,1516,1509,1503,1503,1496,1496,1496,1496,1496,1489,1489,1489,1483,1483,1477,1477,1470,1470,1470,1470,1470,1464,1464,1464,1464,1464,1458,1458,1458,1452,1452,1452,1445,1445,1445,1445,1439,1439,1439,1439,1433,1433,1433,1427,1427,1421,1421,1415,1415,1415,1415,1410,1410,1404,1404,1404,1404,1398,1398,1398,1398,1398,1398,1398,1398,1392,1392,1392,1392,1387,1387,1381,1381,1376,1376,1376,1376,1370,1370,1370,1365,1365,1365,1359,1359,1354,1354,1354,1354,1354,1349,1349,1349,1349,1349,1349,1343,1338,1338,1333,1333,1333,1328,1328,1328,1328,1328,1322,1322,1317,1312,1312,1312,1312,1307,1307,1307,1307,1307,1307,1302,1302,1297,1297,1292,1292,1292,1288,1288,1283,1283,1283,1278,1278,1278,1278,1273,1273,1268,1268,1268,1268,1264,1264,1259,1259,1255,1255,1255,1255,1250,1250,1250,1250,1245,1245,1241,1241,1241,1236,1236,1236,1232,1232,1232,1232,1227,1227,1223,1223,1219,1219,1219,1219,1219,1219,1214,1214,1214,1214,1210,1210,1206,1206,1206,1070,1067,1063,1063,1060,1060,1057,1054,1054,1050,1050,1050,1050,1047,1047,1047,1047,1044,1044,1044,1041,1041,1041,1041,1038,1038,1034,1034,1031,1028,1028,1025,1025,1022,1019,1016,1016,1016,1016,1016,1016,1016,1016,1016,1016,1016,1054,1054,1054,1054,1054,1050,1050,1050,978,978,978,981,981,0,0,0,0,0,0,0,0,0,0,0,0,0,0,0,0,0,0,0,0,0,0,0,0,0,0,0,0,0,0,0,0,0,0
0,0,0,0,0,0,0,0,0,0,0,0,0,0,0,0,0,0,0,0,0,754,750,749,749,749,749,749,750,750,750,749,749,750,750,749,749,749,750,749,749,749,752,750,750,750,752,754,752,752,752,752,752,752,750,750,750,749,747,747,746,746,747,747,747,747,750,750,747,747,747,741,741,742,742,744,744,746,746,744,744,744,744,747,742,742,744,746,746,744,744,742,742,742,742,742,742,742,742,744,746,746,746,746,746,746,744,742,742,742,741,741,741,741,738,738,738,736,736,736,739,742,741,741,741,741,741,741,741,741,741,739,739,739,739,738,738,734,734,734,733,733,734,734,734,734,734,734,734,734,736,738,738,738,739,741,741,736,734,734,734,736,734,734,734,736,736,736,736,734,734,734,736,741,739,739,739,739,739,738,736,734,734,734,734,734,734,734,734,734,734,733,731,731,731,733,734,734,734,734,733,733,734,734,734,734,736,738,739,741,742,744,746,746,747,749,749,754,757,759,759,761,762,764,766,766,767,794,794,794,796,798,800,800,803,805,807,809,811,813,817,819,821,823,825,827,829,829,833,837,839,843,845,847,849,851,851,856,858,860,860,862,864,864,867,867,871,0,0,0,0,0,0,0,0,0,0,0,954,951,948,948,948,946,946,946,943,943,940,940,938,938,938,938,938,943,946,946,951,951,954,956,959,962,962,964,964,0,0,0,0,0,1609,1609,1609,1609,1609,1609,1609,1609,1609,1601,1601,1601,1601,1594,1594,1586,1586,1586,1579,1579,1579,1579,1572,1572,1572,1572,1557,1557,1550,1550,1550,1550,1543,1543,1543,1543,1543,1536,1536,1536,1529,1529,1523,1523,1523,1523,1523,1523,1516,1516,1516,1509,1509,1503,1503,1496,1496,1496,1496,1496,1489,1489,1483,1483,1483,1477,1477,1477,1470,1470,1470,1464,1464,1464,1464,1464,1464,1464,1458,1458,1452,1452,1445,1445,1445,1445,1439,1439,1439,1439,1439,1433,1433,1433,1427,1427,1421,1415,1415,1415,1410,1410,1410,1410,1404,1404,1404,1404,1404,1398,1398,1398,1398,1398,1398,1398,1392,1392,1392,1387,1387,1381,1381,1381,1376,1376,1376,1376,1370,1370,1370,1365,1365,1359,1359,1354,1354,1354,1354,1354,1354,1354,1349,1349,1349,1349,1343,1343,1338,1338,1333,1333,1333,1333,1328,1328,1328,1328,1322,1317,1317,1312,1312,1312,1307,1307,1307,1307,1307,1307,1302,1302,1302,1302,1297,1297,1292,1292,1288,1288,1283,1283,1283,1278,1278,1278,1273,1273,1268,1268,1268,1268,1264,1264,1259,1259,1255,1255,1255,1255,1250,1250,1250,1250,1245,1245,1241,1241,1241,1236,1236,1236,1236,1232,1232,1232,1227,1227,1227,1223,1219,1219,1219,1219,1219,1219,1214,1214,1214,1214,1210,1210,1206,1206,1206,1070,1067,1063,1063,1060,1060,1057,1054,1054,1050,1047,1047,1050,1047,1047,1047,1047,1047,1047,1044,1044,1041,1041,1041,1038,1038,1034,1034,1031,1028,1025,1025,1025,1022,1019,1016,1016,1016,1016,1016,1016,1016,1016,1016,1054,1054,1054,1054,1054,1050,1050,1050,1050,1050,978,978,978,981,981,0,0,0,0,0,0,0,0,0,0,0,0,0,0,0,0,0,0,0,0,0,0,0,0,0,0,0,0,0,0,0,0,0,0
0,0,0,0,0,0,0,0,0,0,0,0,0,0,0,0,0,0,0,0,0,0,750,749,749,747,747,747,747,747,746,746,746,746,746,746,746,746,746,746,744,744,746,747,747,747,749,752,750,750,750,750,750,750,746,746,746,746,746,746,744,744,746,746,746,744,742,742,742,746,741,741,741,741,741,741,741,742,744,742,742,742,742,741,741,739,739,742,742,741,741,741,741,741,741,741,741,741,741,741,741,741,742,742,744,742,741,741,741,741,739,739,739,738,736,736,736,734,734,730,730,734,736,738,738,738,739,739,739,739,738,738,738,738,736,734,734,733,733,731,731,731,733,734,734,734,733,733,733,733,731,731,733,731,731,734,730,730,730,728,728,733,733,733,733,734,734,734,733,733,733,733,731,731,734,734,734,734,734,734,733,733,733,733,733,733,733,731,730,730,731,728,727,727,727,727,733,733,733,731,731,731,733,733,733,734,734,738,739,739,741,744,744,746,747,747,749,750,755,759,761,761,764,766,766,767,767,794,796,796,796,798,798,800,803,805,807,811,811,813,817,819,821,823,825,827,829,831,837,839,841,843,845,847,849,851,854,856,858,858,860,860,862,864,864,867,0,0,0,0,0,0,0,0,0,0,0,0,956,954,948,948,948,946,946,946,946,943,943,943,940,940,940,940,940,943,946,946,948,951,954,956,959,962,962,964,964,967,0,0,0,0,1609,1609,1609,1609,1609,1609,1609,1609,1609,1609,1601,1601,1601,1594,1594,1594,1586,1586,1586,1579,1579,1579,1572,1572,1572,1572,1564,1557,1557,1550,1550,1550,1550,1550,1550,1543,1543,1543,1543,1536,1536,1529,1523,1523,1523,1523,1523,1523,1523,1516,1516,1516,1509,1503,1503,1496,1496,1496,1496,1496,1489,1489,1489,1483,1483,1483,1477,1477,1477,1470,1470,1470,1470,1464,1464,1464,1464,1464,1458,1458,1452,1452,1445,1445,1445,1445,1439,1439,1439,1439,1439,1433,1433,1433,1427,1427,1421,1421,1415,1415,1410,1410,1410,1410,1404,1404,1404,1404,1404,1404,1398,1398,1398,1398,1398,1398,1392,1392,1392,1392,1387,1387,1387,1381,1381,1376,1376,1376,1370,1370,1370,1365,1365,1359,1359,1359,1354,1354,1354,1354,1354,1354,1349,1349,1349,1349,1349,1343,1343,1338,1338,1333,1333,1333,1328,1328,1328,1328,1322,1317,1317,1312,1312,1312,1312,1307,1307,1307,1307,1307,1302,1302,1302,1302,1297,1297,1292,1292,1288,1288,1288,1283,1283,1283,1283,1278,1278,1278,1273,1268,1268,1268,1264,1264,1259,1259,1255,1255,1255,1255,1250,1250,1250,1250,1250,1245,1245,1241,1241,1241,1236,1236,1236,1232,1232,1232,1232,1227,1227,1227,1223,1223,1219,1219,1219,1219,1214,1214,1214,1214,1214,1210,1210,1206,1070,1067,1063,1063,1063,1063,1060,1057,1054,1054,1050,1047,1047,1050,1050,1047,1047,1047,1047,1047,1044,1044,1041,1041,1041,1038,1038,1034,1034,1031,1028,1025,1025,1025,1025,1019,1016,1013,1013,1016,1016,1016,1016,1016,1054,1054,1054,1054,1054,1054,1050,1050,1050,1050,1050,984,981,981,981,981,0,0,0,0,0,0,0,0,0,0,0,0,0,0,0,0,0,0,0,0,0,0,0,0,0,0,0,0,0,0,0,0,0,0
0,0,0,0,0,0,0,0,0,0,0,0,0,0,0,0,0,0,0,0,0,0,749,747,747,746,746,744,744,744,742,742,742,742,744,742,742,742,742,742,742,741,738,738,741,741,744,750,747,747,744,744,744,744,741,741,741,741,744,744,742,742,741,741,742,741,739,739,739,741,741,739,739,739,739,739,738,738,738,738,738,738,738,738,738,736,736,738,738,738,739,739,741,739,739,739,739,739,739,738,736,736,738,738,738,738,738,739,738,738,738,738,738,736,734,733,733,733,728,728,728,728,731,733,733,733,736,736,736,736,736,734,734,734,733,731,731,731,731,730,730,730,731,731,731,731,731,731,730,730,730,728,727,727,727,727,727,728,728,728,728,730,733,731,731,733,733,733,731,731,728,728,728,728,734,728,728,730,731,731,731,730,730,730,730,730,730,728,727,727,728,727,725,723,723,725,727,727,727,730,730,730,730,731,733,733,734,736,739,739,741,742,744,746,746,747,749,750,755,759,761,762,767,767,781,787,792,794,794,796,796,798,798,800,803,805,807,811,811,813,817,819,821,821,825,827,827,829,837,839,841,843,845,847,849,851,854,856,858,858,858,860,862,864,864,0,0,0,0,0,0,0,0,0,0,0,0,0,959,956,954,954,951,951,948,946,946,943,943,943,940,940,940,940,943,946,946,948,948,951,954,956,959,962,962,964,964,967,0,0,0,0,0,1609,1609,1609,1609,1609,1609,1609,1609,1609,1609,1601,1601,1601,1594,1594,1594,1586,1586,1579,1579,1579,1579,1572,1572,1572,1564,1564,1564,1557,1550,1550,1550,1550,1550,1543,1543,1543,1543,1543,1543,1536,1529,1523,1523,1523,1523,1523,1523,1516,1516,1516,1509,1503,1503,1503,1496,1496,1496,1496,1489,1489,1489,1489,1483,1483,1483,1477,1477,1477,1470,1470,1470,1464,1464,1464,1464,1464,1458,1458,1452,1452,1452,1445,1445,1445,1439,1439,1439,1439,1439,1439,1433,1433,1427,1427,1421,1421,1421,1415,1415,1415,1410,1410,1410,1410,1410,1404,1404,1404,1398,1398,1398,1398,1398,1392,1392,1392,1392,1392,1387,1387,1387,1381,1381,1376,1376,1376,1370,1370,1370,1365,1365,1365,1359,1359,1354,1354,1354,1354,1354,1354,1354,1349,1349,1349,1349,1343,1343,1338,1338,1333,1333,1333,1328,1328,1328,1328,1322,1322,1322,1317,1312,1312,1312,1307,1307,1307,1307,1307,1307,1302,1302,1302,1297,1297,1292,1292,1288,1288,1288,1283,1283,1283,1283,1283,1278,1278,1273,1268,1268,1268,1268,1264,1264,1259,1255,1255,1255,1255,1250,1250,1250,1250,1250,1250,1250,1245,1245,1241,1241,1236,1236,1236,1232,1232,1232,1232,1227,1227,1227,1223,1219,1219,1219,1219,1214,1214,1214,1214,1214,1214,1210,1202,1070,1067,1063,1063,1063,1063,1060,1057,1054,1054,1050,1050,1050,1050,1050,1050,1047,1047,1047,1047,1044,1044,1041,1041,1041,1038,1038,1034,1034,1031,1028,1025,1025,1025,1025,1019,1016,1013,1013,1013,1057,1057,1057,1057,1054,1054,1054,1054,1054,1054,1054,1054,1050,1050,1050,984,981,981,978,978,0,0,0,0,0,0,0,0,0,0,0,0,0,0,0,0,0,0,0,0,0,0,0,0,0,0,0,0,0,0,0,0,0,0
0,0,0,0,0,0,0,0,0,0,0,0,0,0,0,0,0,0,0,0,0,0,749,741,741,744,744,742,742,742,741,739,739,739,739,739,739,741,741,739,738,736,736,736,736,734,734,734,744,742,738,738,738,739,736,736,736,734,734,739,738,736,736,736,736,736,736,736,738,738,738,736,736,736,736,736,736,736,734,734,734,734,734,734,733,733,734,734,734,733,733,733,733,734,738,738,738,738,736,734,734,734,734,733,733,734,736,736,736,736,736,736,736,734,733,731,730,728,727,727,727,727,728,730,728,728,731,733,733,731,731,731,731,731,730,730,730,730,728,728,728,728,730,730,730,730,730,730,728,728,728,727,723,722,722,720,720,725,725,725,725,728,730,730,730,731,731,730,728,728,725,723,723,723,723,725,725,727,727,728,728,728,727,727,727,727,727,725,725,725,725,725,725,723,723,723,723,725,727,728,728,728,730,731,731,731,734,736,739,739,741,742,744,744,746,747,749,752,759,762,773,773,774,778,781,787,789,792,794,796,796,798,800,802,803,807,807,811,811,813,815,819,821,821,825,827,827,829,839,841,841,843,845,847,849,851,851,856,856,858,858,858,862,0,0,0,0,0,0,0,0,0,0,0,0,0,0,0,962,956,954,954,954,951,951,948,948,946,943,943,943,943,940,940,943,946,948,948,948,951,954,956,959,962,962,964,964,967,0,0,0,0,0,1609,1609,1609,1609,1609,1609,1609,1609,1609,1609,1609,1601,1601,1601,1594,1594,1586,1586,1586,1579,1579,1579,1572,1572,1572,1564,1564,1564,1557,1550,1550,1550,1550,1550,1550,1550,1543,1543,1543,1543,1536,1536,1529,1523,1523,1523,1523,1516,1516,1516,1509,1509,1503,1503,1503,1496,1496,1496,1496,1489,1489,1489,1489,1489,1483,1483,1483,1477,1477,1470,1470,1470,1464,1464,1464,1464,1464,1458,1458,1458,1458,1452,1445,1445,1445,1445,1439,1439,1439,1439,1439,1433,1433,1427,1427,1427,1421,1421,1421,1415,1415,1415,1415,1415,1415,1410,1404,1404,1404,1398,1398,1398,1398,1398,1392,1392,1392,1392,1392,1392,1387,1387,1381,1381,1376,1376,1376,1376,1370,1370,1370,1365,1365,1365,1359,1359,1359,1354,1354,1354,1354,1354,1349,1349,1349,1349,1349,1343,1338,1338,1333,1333,1333,1328,1328,1328,1328,1328,1322,1322,1317,1317,1312,1312,1312,1312,1312,1307,1307,1307,1302,1302,1302,1297,1297,1292,1292,1292,1288,1288,1288,1288,1283,1283,1278,1278,1278,1273,1273,1273,1268,1268,1264,1264,1259,1259,1259,1255,1255,1250,1250,1250,1250,1250,1250,1250,1250,1245,1241,1241,1236,1236,1236,1232,1232,1232,1232,1227,1227,1227,1223,1223,1219,1219,1219,1219,1219,1214,1214,1214,1214,1210,1202,1070,1067,1063,1063,1063,1063,1060,1057,1054,1054,1050,1050,1050,1054,1050,1050,1050,1050,1047,1047,1044,1044,1044,1041,1041,1038,1038,1034,1034,1031,1028,1028,1028,1028,1028,1028,1054,1057,1057,1057,1057,1057,1057,1057,1054,1054,1054,1054,1054,984,984,989,989,989,987,984,978,978,975,975,0,0,0,0,0,0,0,0,0,0,0,0,0,0,0,0,0,0,0,0,0,0,0,0,0,0,0,0,0,0,0,0,0,0
0,0,0,0,0,0,0,0,0,0,0,0,0,0,0,0,0,0,0,0,0,0,0,741,738,738,738,736,736,734,734,734,736,736,736,738,738,739,738,738,736,736,734,734,734,734,733,733,734,736,736,734,734,736,734,734,733,733,733,734,734,734,734,734,734,734,734,734,734,736,736,734,734,734,734,734,734,734,734,734,733,733,733,731,731,731,733,733,731,731,730,730,730,730,730,730,731,733,733,733,731,730,728,728,730,730,733,734,734,734,734,734,734,733,731,730,728,727,725,725,725,725,725,727,723,723,727,727,727,727,727,728,728,728,728,728,728,728,727,727,727,727,727,727,727,728,728,728,728,727,727,725,722,720,720,720,720,723,723,723,723,725,725,725,725,725,728,727,725,725,722,722,722,722,722,722,722,723,725,727,727,727,727,725,723,723,723,723,723,723,723,723,722,722,722,722,722,723,723,727,728,728,730,730,731,731,734,738,739,739,741,742,742,744,746,747,749,774,773,773,776,780,781,783,785,787,789,792,794,796,796,798,800,802,805,807,807,811,811,813,815,819,821,821,825,827,829,833,839,841,841,843,845,847,847,849,851,854,854,858,858,858,0,0,0,0,0,0,0,0,0,0,0,0,0,0,0,0,0,956,956,954,954,954,951,951,948,946,946,946,943,943,943,943,943,946,948,948,948,951,954,956,959,962,962,964,964,970,0,0,0,0,1616,1609,1609,1609,1609,1609,1609,1609,1609,1609,1609,1609,1601,1601,1601,1594,1594,1586,1586,1586,1579,1579,1579,1572,1572,1572,1564,1564,1564,1557,1557,1557,1550,1550,1550,1550,1550,1543,1543,1543,1543,1536,1536,1529,1523,1523,1523,1523,1516,1516,1516,1509,1509,1503,1503,1503,1496,1496,1496,1496,1496,1489,1489,1489,1489,1483,1483,1483,1477,1470,1470,1470,1470,1464,1464,1464,1464,1464,1458,1458,1458,1458,1452,1445,1445,1445,1445,1439,1439,1439,1439,1439,1439,1433,1433,1427,1427,1427,1421,1421,1415,1415,1415,1415,1415,1415,1415,1410,1410,1404,1404,1398,1398,1398,1398,1392,1392,1392,1392,1392,1392,1387,1387,1381,1381,1376,1376,1376,1376,1370,1370,1370,1365,1365,1365,1365,1359,1359,1354,1354,1354,1354,1354,1349,1349,1349,1349,1349,1343,1338,1338,1333,1333,1333,1333,1328,1328,1328,1328,1322,1322,1322,1317,1317,1312,1312,1312,1312,1312,1307,1307,1307,1302,1302,1302,1297,1292,1292,1292,1288,1288,1288,1288,1283,1283,1278,1278,1278,1273,1273,1273,1268,1268,1268,1264,1264,1259,1259,1255,1255,1250,1250,1250,1250,1250,1250,1250,1250,1245,1245,1241,1241,1236,1236,1232,1232,1232,1232,1227,1227,1227,1227,1223,1223,1219,1219,1219,1219,1219,1219,1219,1219,1214,1206,1206,1067,1063,1063,1063,1063,1060,1060,1057,1057,1054,1054,1054,1054,1050,1050,1050,1050,1047,1047,1044,1044,1044,1041,1041,1038,1038,1034,1034,1034,1034,1031,1031,1031,1054,1054,1054,1057,1057,1057,1057,1057,1057,1057,1057,1054,1054,1054,989,984,984,989,989,987,984,981,978,975,975,975,0,0,0,0,0,0,0,0,0,0,0,0,0,0,0,0,0,0,0,0,0,0,0,0,0,0,0,0,0,0,0,0,0,0
0,0,0,0,0,0,0,0,0,0,0,0,0,0,0,0,0,0,0,0,0,0,0,0,733,733,733,733,733,733,733,733,733,734,734,734,734,736,736,734,734,733,733,733,733,731,730,730,733,734,733,733,734,734,733,733,731,731,730,730,730,730,731,731,731,731,731,731,733,734,734,734,734,734,734,734,733,733,733,733,733,731,731,730,728,728,731,730,728,728,727,727,727,727,725,725,722,722,725,725,725,727,727,727,725,725,727,730,728,728,728,730,728,728,730,728,725,725,723,723,723,723,723,723,722,722,723,723,723,725,723,723,723,722,722,723,725,725,725,725,725,725,723,720,720,725,725,725,725,722,722,722,720,719,719,719,720,722,722,720,720,720,722,720,717,717,717,717,717,720,720,720,720,720,720,720,720,720,722,722,725,725,723,722,720,720,720,720,720,719,719,720,720,720,720,720,720,722,722,727,727,727,728,730,730,731,734,738,738,739,741,742,742,744,746,747,773,774,774,776,778,780,781,783,785,787,789,792,794,796,796,798,800,802,805,807,809,811,813,813,815,819,821,823,825,829,831,833,839,841,841,843,845,847,847,849,851,854,854,858,858,0,0,0,0,0,0,1632,1632,1632,1632,1632,1632,0,0,0,0,0,0,962,959,956,954,954,954,951,951,948,946,946,946,946,943,943,946,946,948,948,951,951,954,956,962,962,964,964,964,0,0,0,0,0,1616,1616,1609,1609,1609,1609,1609,1609,1609,1609,1609,1609,1601,1601,1601,1594,1594,1586,1586,1586,1579,1579,1579,1572,1572,1572,1564,1564,1564,1557,1557,1557,1550,1550,1550,1550,1550,1543,1543,1543,1543,1536,1536,1529,1523,1523,1523,1523,1516,1516,1516,1516,1509,1509,1503,1503,1503,1503,1496,1496,1496,1489,1489,1489,1489,1489,1489,1483,1483,1470,1470,1470,1470,1464,1464,1464,1464,1464,1458,1458,1458,1458,1452,1445,1445,1445,1445,1445,1439,1439,1439,1439,1439,1433,1433,1433,1427,1427,1421,1421,1421,1421,1415,1415,1415,1415,1415,1410,1410,1404,1404,1404,1398,1398,1398,1392,1392,1392,1392,1392,1392,1387,1381,1381,1376,1376,1376,1376,1376,1376,1370,1370,1370,1370,1370,1365,1359,1359,1354,1354,1354,1354,1354,1349,1349,1349,1349,1349,1343,1338,1338,1333,1333,1333,1333,1333,1328,1328,1328,1322,1322,1322,1317,1317,1312,1312,1312,1312,1307,1307,1307,1307,1302,1302,1302,1297,1292,1292,1292,1292,1288,1288,1288,1283,1283,1283,1278,1278,1273,1273,1273,1268,1268,1268,1268,1264,1259,1259,1255,1255,1255,1255,1250,1250,1250,1250,1250,1250,1250,1245,1245,1241,1236,1236,1236,1232,1232,1232,1227,1227,1227,1227,1227,1223,1219,1219,1219,1219,1219,1219,1219,1219,1214,1206,1206,1067,1063,1063,1063,1063,1063,1060,1060,1057,1057,1057,1057,1054,1054,1050,1050,1050,1047,1047,1044,1044,1044,1041,1041,1038,1038,1034,1034,1034,1034,1034,1060,1057,1057,1054,1054,1057,1057,1057,1057,1057,1057,1057,1057,1057,1057,989,989,989,989,989,989,987,984,978,975,973,973,973,0,0,0,0,0,0,0,0,0,0,0,0,0,0,0,0,0,0,0,0,0,0,0,0,0,0,0,0,0,0,0,0,0,0
0,0,0,0,0,0,0,0,0,0,0,0,0,0,0,0,0,0,0,0,0,0,723,723,728,731,730,730,730,731,731,731,731,731,730,730,730,733,733,731,730,730,730,730,730,728,727,727,728,730,730,733,731,731,731,731,730,730,728,728,728,730,730,730,730,730,730,730,731,731,733,733,733,733,733,733,731,731,731,730,728,728,727,725,725,722,722,723,723,725,723,723,723,723,722,722,722,720,720,720,723,723,723,723,722,722,725,725,725,725,725,727,727,727,727,725,723,723,723,723,722,722,722,722,722,722,722,722,722,723,722,722,722,720,720,720,722,722,722,722,720,720,719,717,716,716,719,720,717,717,719,720,719,719,717,717,717,719,716,716,716,716,717,717,716,716,716,716,716,716,716,716,716,717,717,717,719,719,717,717,717,719,717,717,717,719,719,719,719,717,717,717,717,717,717,717,720,722,722,727,727,727,728,730,730,731,734,738,738,739,741,742,742,746,747,771,773,774,774,776,778,780,781,783,785,787,789,792,794,796,798,800,802,803,805,807,809,811,813,813,815,819,821,823,827,831,833,835,839,841,841,843,843,845,847,849,851,854,856,858,0,0,0,0,0,1632,1632,1632,1632,1632,1632,1632,1632,1632,0,0,0,0,0,964,962,959,956,954,954,954,951,951,948,946,946,946,946,946,946,946,948,948,954,954,956,959,962,964,964,964,967,970,0,0,0,0,1616,1616,1616,1609,1609,1609,1609,1609,1609,1609,1609,1609,1601,1601,1601,1601,1594,1586,1586,1586,1579,1579,1579,1572,1572,1572,1564,1564,1564,1557,1557,1557,1550,1550,1550,1550,1550,1543,1543,1543,1543,1536,1536,1529,1523,1523,1523,1523,1516,1516,1516,1516,1516,1509,1509,1509,1503,1503,1496,1496,1496,1496,1489,1489,1489,1489,1489,1483,1483,1477,1470,1470,1470,1464,1464,1464,1464,1464,1464,1464,1458,1458,1452,1445,1445,1445,1445,1445,1445,1439,1439,1439,1439,1439,1433,1433,1427,1427,1421,1421,1421,1421,1415,1415,1415,1415,1415,1410,1410,1404,1404,1404,1398,1398,1398,1392,1392,1392,1392,1392,1392,1387,1381,1381,1376,1376,1376,1376,1376,1376,1370,1370,1370,1370,1370,1365,1359,1359,1354,1354,1354,1354,1354,1354,1349,1349,1349,1349,1343,1338,1338,1333,1333,1333,1333,1333,1328,1328,1328,1322,1322,1322,1317,1317,1312,1312,1312,1312,1307,1307,1307,1307,1302,1302,1302,1302,1292,1292,1292,1292,1288,1288,1288,1288,1283,1283,1278,1278,1273,1273,1273,1273,1268,1268,1268,1264,1264,1259,1255,1255,1255,1255,1250,1250,1250,1250,1250,1250,1250,1245,1245,1241,1241,1236,1236,1232,1232,1232,1232,1232,1227,1227,1227,1223,1223,1223,1219,1219,1219,1219,1219,1219,1214,1214,1067,1067,1063,1063,1063,1063,1063,1060,1060,1057,1057,1057,1057,1054,1054,1050,1050,1050,1047,1047,1044,1044,1041,1041,1041,1038,1034,1034,1031,1031,1031,1057,1060,1060,1057,1057,1057,1057,1057,1057,1057,1057,1057,1057,1057,1057,989,989,989,989,989,989,987,984,978,975,973,970,970,970,0,0,0,0,0,0,0,0,0,0,0,0,0,0,0,0,0,0,0,0,0,0,0,0,0,0,0,0,0,0,0,0,0,0
0,0,0,0,0,0,0,0,0,0,0,0,0,0,734,734,736,0,0,0,727,723,723,723,723,723,727,727,727,728,730,730,728,728,728,728,727,727,727,727,727,728,728,728,728,728,725,725,727,728,728,730,728,728,730,730,728,728,727,727,727,728,728,728,727,727,727,725,725,725,727,727,728,728,730,730,728,727,727,727,725,723,723,723,722,720,720,720,720,720,722,722,720,720,719,719,717,716,716,716,719,719,722,722,722,722,722,722,722,722,722,722,722,722,722,722,722,722,722,722,722,720,720,720,720,719,719,719,720,722,719,719,719,719,717,717,717,717,717,717,716,716,717,717,716,716,716,716,716,716,717,717,719,717,717,717,717,717,716,716,714,714,714,716,714,714,714,714,714,714,714,714,714,714,714,714,716,716,716,714,714,714,714,714,714,716,717,717,717,717,717,717,717,717,717,717,720,720,723,725,727,727,728,730,730,731,734,736,738,739,741,742,742,764,771,771,773,774,774,776,778,780,781,783,785,787,789,792,794,796,798,800,802,803,805,807,809,811,813,813,815,819,821,823,831,833,835,837,839,841,841,843,843,845,845,849,851,854,854,0,1624,0,0,0,1632,1632,1632,1632,1632,1632,1632,1632,1624,1624,1624,0,0,0,0,0,962,959,956,956,954,954,951,951,948,948,946,946,946,946,946,948,948,951,954,956,956,962,964,964,964,967,967,970,0,0,0,0,1616,1616,1616,1609,1609,1609,1609,1609,1609,1609,1609,1609,1601,1601,1601,1601,1594,1594,1586,1586,1586,1579,1579,1579,1572,1572,1572,1564,1564,1564,1557,1557,1550,1550,1550,1550,1550,1550,1543,1543,1543,1536,1536,1529,1529,1523,1523,1523,1516,1516,1516,1516,1516,1516,1509,1509,1509,1503,1503,1496,1496,1496,1496,1489,1489,1489,1489,1483,1483,1477,1470,1470,1470,1470,1470,1464,1464,1464,1464,1464,1458,1458,1452,1445,1445,1445,1445,1445,1445,1445,1439,1439,1439,1439,1433,1433,1427,1427,1427,1421,1421,1421,1421,1415,1415,1415,1415,1410,1410,1404,1404,1404,1404,1398,1398,1392,1392,1392,1392,1392,1392,1387,1381,1381,1376,1376,1376,1376,1376,1376,1370,1370,1370,1370,1370,1370,1365,1365,1359,1359,1359,1354,1354,1354,1349,1349,1349,1343,1343,1343,1338,1333,1333,1333,1333,1333,1333,1328,1328,1328,1322,1322,1322,1317,1317,1317,1312,1312,1312,1307,1307,1307,1302,1302,1302,1302,1297,1292,1292,1292,1292,1288,1288,1288,1288,1283,1278,1278,1273,1273,1273,1273,1273,1268,1268,1268,1268,1264,1259,1255,1255,1255,1255,1255,1255,1255,1250,1250,1250,1245,1245,1241,1241,1241,1236,1236,1232,1232,1232,1232,1232,1227,1227,1227,1227,1227,1223,1223,1223,1223,1223,1223,1223,1223,1063,1063,0,1063,1063,1063,1060,1060,1060,1060,1060,1060,1057,1054,1054,1050,1050,1050,1047,1044,1044,1044,1041,1038,1038,1038,1034,1034,1031,1031,1031,1057,1057,1057,1057,1057,1057,1057,1057,1057,1057,1057,1057,1057,1060,1060,989,989,989,989,989,987,984,978,973,973,970,970,967,967,0,0,0,0,0,0,0,0,0,0,0,0,0,0,0,0,0,0,0,0,0,0,0,0,0,0,0,0,0,0,0,0,0,0
0,0,0,0,0,0,0,0,0,0,0,0,739,733,733,734,734,730,728,727,725,723,723,722,722,722,725,725,725,727,727,727,727,727,727,725,723,723,723,725,723,722,722,723,727,725,723,723,723,723,725,725,727,727,727,728,728,727,727,725,725,727,725,725,725,725,723,722,722,720,720,720,720,722,722,723,722,717,717,719,720,720,720,719,719,719,719,717,717,719,720,720,719,719,717,717,716,714,714,714,716,716,719,719,719,720,720,720,720,719,716,716,716,719,719,719,719,719,720,720,720,719,719,717,717,717,717,717,717,717,716,714,714,714,714,714,714,714,714,714,714,714,716,716,714,714,714,714,716,716,716,716,716,716,716,716,716,716,714,713,711,711,713,713,711,711,713,714,714,713,713,713,713,713,711,711,713,711,710,710,713,713,711,711,713,713,713,714,714,714,714,716,716,716,717,717,719,720,722,725,727,727,728,730,730,731,734,736,738,739,739,741,742,764,767,771,773,774,774,776,780,781,783,785,787,789,790,792,794,796,798,800,802,803,805,807,809,813,815,815,817,819,821,825,831,833,833,835,837,839,841,843,843,845,845,849,851,851,0,0,0,0,0,1632,1632,1632,1624,1624,1624,1624,1624,1624,1624,1624,1624,0,0,0,0,0,0,959,959,956,956,954,954,954,951,951,948,946,946,946,948,948,948,954,956,956,959,964,964,967,967,970,970,975,0,0,0,0,1616,1609,1609,1609,1609,1609,1609,1609,1609,1609,1609,1601,1601,1601,1601,1601,1594,1594,1586,1586,1586,1579,1579,1579,1572,1572,1572,1572,1572,1564,1564,1557,1557,1557,1550,1550,1550,1550,1543,1543,1543,1543,1536,1529,1529,1523,1523,1523,1516,1516,1516,1516,1516,1516,1509,1509,1509,1509,1503,1503,1496,1496,1496,1496,1489,1489,1489,1489,1483,1477,1477,1470,1470,1470,1470,1470,1464,1464,1464,1464,1458,1458,1452,1452,1445,1445,1445,1445,1445,1445,1445,1439,1439,1439,1433,1433,1427,1427,1427,1421,1421,1421,1421,1415,1415,1415,1415,1410,1410,1410,1410,1404,1404,1398,1398,1398,1392,1392,1392,1392,1392,1387,1381,1381,1376,1376,1376,1376,1376,1376,1376,1370,1370,1370,1370,1370,1365,1365,1359,1354,1354,1354,1349,1349,1349,1349,1349,1343,1343,1343,1338,1333,1333,1333,1333,1333,1333,1328,1328,1328,1328,1322,1322,1317,1317,1317,1312,1312,1312,1307,1307,1307,1302,1302,1302,1302,1297,1292,1292,1292,1292,1292,1288,1288,1288,1283,1283,1278,1278,1273,1273,1273,1273,1268,1268,1268,1268,1264,1259,1259,1255,1255,1255,1255,1255,1255,1250,1250,1250,1250,1245,1245,1245,1241,1236,1236,1236,1232,1232,1232,1232,1227,1227,1227,1227,1227,1223,1223,1223,1227,1223,1223,1223,0,0,1063,1063,1063,1063,1060,1060,1060,1060,1060,1060,1060,1060,1057,1054,1050,1050,1050,1047,1044,1044,1044,1041,1038,1038,1038,1034,1034,1031,1031,1031,1057,1057,1057,1060,1057,1057,1057,1057,1057,1057,1057,1057,1057,989,989,989,989,989,989,987,987,978,975,973,970,970,967,967,967,0,0,0,0,0,0,0,0,0,0,0,0,0,0,0,0,0,0,0,0,0,0,0,0,0,0,0,0,0,0,0,0,0,0
0,0,0,0,0,0,0,0,0,0,0,0,739,733,733,733,730,730,728,727,725,723,722,722,720,720,723,722,722,723,725,723,723,725,725,722,720,720,720,722,722,720,720,722,722,720,719,719,720,720,720,720,722,722,723,727,727,725,725,722,722,723,722,722,722,722,720,719,717,717,717,717,717,716,716,717,717,716,716,717,717,717,717,716,716,716,716,716,716,716,717,717,717,716,716,716,714,713,713,713,714,714,714,716,716,719,719,719,719,717,714,713,713,714,714,714,714,716,716,716,716,716,716,716,716,714,714,714,711,710,710,713,713,713,713,711,711,713,711,711,711,711,711,713,711,711,711,711,713,713,713,711,711,711,713,713,713,714,713,708,708,711,711,711,710,710,710,711,711,711,710,710,711,710,710,710,710,708,708,708,707,706,706,706,708,710,710,711,711,711,713,714,714,714,716,717,719,720,722,725,727,727,728,730,731,733,734,736,738,739,739,741,762,762,766,769,771,773,774,776,780,781,783,785,787,789,790,792,794,796,798,800,802,803,807,809,811,813,815,817,817,821,825,829,831,833,833,835,837,837,839,841,843,845,845,849,851,0,1609,0,1609,0,1624,1624,1624,1624,1624,1624,1624,1616,1616,1616,1609,1609,0,0,0,0,0,0,0,962,959,959,956,956,954,954,954,951,948,948,948,948,948,948,948,954,956,959,962,964,967,967,970,970,973,975,0,0,0,0,0,1609,1601,1601,1601,1601,1601,1601,1601,1601,1601,1601,1601,1594,1594,1594,1594,1586,1586,1586,1586,1586,1586,1579,1579,1579,1572,1572,1572,1572,1564,1564,1557,1557,1557,1550,1550,1550,1550,1543,1543,1536,1536,1529,1529,1529,1523,1523,1523,1523,1516,1516,1516,1516,1509,1509,1509,1509,1503,1503,1503,1496,1496,1496,1496,1489,1489,1489,1483,1477,1477,1470,1470,1470,1470,1470,1470,1464,1464,1464,1464,1458,1458,1452,1452,1452,1445,1445,1445,1445,1445,1445,1439,1439,1433,1433,1433,1433,1427,1427,1421,1421,1421,1415,1415,1415,1415,1415,1410,1410,1404,1404,1404,1398,1398,1398,1398,1398,1392,1392,1392,1387,1387,1381,1381,1376,1376,1376,1376,1376,1376,1370,1370,1370,1370,1365,1365,1365,1359,1354,1354,1354,1349,1349,1349,1349,1349,1349,1343,1343,1338,1338,1333,1333,1333,1333,1333,1328,1328,1328,1328,1322,1322,1322,1317,1317,1312,1312,1312,1312,1307,1307,1307,1307,1302,1302,1297,1292,1292,1292,1292,1292,1292,1288,1288,1283,1283,1278,1278,1278,1273,1273,1273,1273,1268,1268,1268,1268,1264,1259,1259,1255,1255,1255,1255,1255,1250,1250,1250,1250,1250,1245,1245,1241,1236,1236,1236,1236,1232,1232,1232,1232,1227,1227,1227,1227,1223,1223,1223,1223,1219,1219,0,0,0,1063,1063,1063,1063,1060,1060,1060,1060,1060,1060,1060,1057,1054,1054,1050,1050,1050,1047,1047,1044,1044,1041,1038,1038,1038,1034,1034,1034,1038,1060,1060,1060,1060,1060,1057,1057,1057,1057,1057,1057,1057,1057,992,989,989,989,989,987,987,984,984,978,975,973,970,970,967,964,964,0,0,0,0,0,0,0,0,0,0,0,0,0,0,0,0,0,0,0,0,0,0,0,0,0,0,0,0,0,0,0,0,0,0
