0,0,0,0,0,0,0,0,0,0,0,0,0,0,0,0,1915,1915,1915,1915,1915,1904,1894,1894,1894,1883,1883,1873,1873,1863,1863,1853,1853,1853,1853,1853,1843,1843,1843,1833,1833,1833,1823,1823,1804,1804,1804,1794,1794,1794,1794,1794,1794,1794,1794,1785,1785,1785,1785,1785,1785,1776,1776,1766,1766,1757,1757,1757,1757,1757,1757,1757,1757,1748,1748,1748,1739,1739,1739,1739,1739,1731,1731,1731,1731,1739,1731,1731,1731,1731,1722,1722,1713,1713,1705,1705,1705,1705,1705,1696,1696,1696,1696,1696,1696,1696,1696,1696,1696,1688,1688,1688,1688,1688,1680,1680,1680,1680,1671,1671,1671,1671,1671,1671,1663,1663,1663,1663,1663,1655,1655,1655,1655,1655,1655,1655,1655,1655,1655,1647,1647,1647,1647,1639,1639,1632,1632,1632,1624,1624,1624,1624,1624,1624,1624,1624,1624,1624,1624,1624,1624,1624,1624,1624,1624,1624,1632,1624,1624,1624,1624,2028,2028,2016,2016,2005,2005,1993,1981,1981,1970,1970,1959,1959,1947,1936,1926,1915,1609,1601,1601,1601,1601,1601,1594,1594,1594,1594,1601,1601,1601,1601,1609,1609,1609,1609,1609,1616,1616,1616,1616,1624,1624,1624,1624,1624,1632,1632,1632,1632,1632,1632,1632,1624,1624,0,1624,0,0,0,1031,1031,1025,1025,1022,1022,1022,1019,1016,1016,1016,1013,1013,1010,1007,1004,1001,998,995,992,989,989,987,987,984,984,978,978,975,973,970,967,964,964,962,959,956,951,948,946,946,943,943,940,935,930,930,928,925,920,918,915,913,910,910,908,903,901,896,896,894,891,891,887,885,885,878,875,875,871,869,864,860,860,858,854,849,849,845,843,839,837,837,833,827,823,821,821,819,817,817,802,800,798,796,794,792,790,789,787,783,783,783,781,781,781,781,785,787,789,789,790,790,790,790,792,792,794,794,794,796,798,798,798,0,0,0,0,0,0,0,1470,1470,1470,1464,1458,1452,1452,1445,1445,1439,1439,1433,1433,1427,1421,1421,1421,1421,1415,1410,1404,1404,1398,1398,1398,1392,1392,1387,1381,1376,1376,1376,1370,1365,1365,1359,1354,1354,1354,1354,1349,1349,1349,1349,1343,1338,1333,1328,1328,1322,1317,1317,1312,1312,1307,1307,1302,1297,1292,1292,1292,1288,1288,1288,1283,1278,1273,1268,1268,1264,1264,1259,1259,1255,1255,1250,1250,1250,1245,1245,1241,1236,1236,1236,1232,1232,1227,1227,1223,1223,1219,1219,1214,1214,1206,1206,1202,1202,1197,1197,1197,1193,1193,1189,1189,1185,1185,1181,1177,1177,1177,1169,1169,1165,1165,1161,1161,1153,1153,1153,1149,1149,1145,1145,1141,1138,1138,1138,1134,1134,1134,1130,1130,1123,1123,1123,1123,1119,1112,1112,1108,1108,1108,1105,1105,1101,1101,1097,1097,1094,1094,1094,1094,1090,1087,1087,1084,1080,1080,1077,1073,1070,1070,1067,1063,1063,1063,1060,1060,1057,1057,1057,1054,1054,1050,1050,1047,1047,1047,1041,1038,1038,1038,1038,1034,1031,1028,1028,1028,1028,1025,1025,1022,1022,1019,1016,1016,1013,1010,1010,1007,1007,1004,1004,1001,1001,998,998,995,995,992,989,989,987,987,984,984,984,981,981,978,978,975,975,975,970,967,967,964,962,959,959,956,956,954,954,951,946,946,943,940,938,938,935,935,935,933,930,930,0,0,0,0,0,0,0,0,0,0,0,0,0,0,0,0,0,0,0,0,0,0,0,0,0,0,0,0,0,0
0,0,0,0,0,0,0,0,0,0,0,0,0,0,0,0,1915,1915,1915,1915,1915,1904,1894,1894,1894,1883,1883,1873,1873,1863,1863,1853,1853,1853,1853,1853,1843,1843,1843,1833,1833,1833,1823,1823,1804,1804,1804,1794,1794,1794,1794,1785,1785,1794,1794,1794,1794,1785,1785,1794,1785,1785,1776,1766,1766,1757,1757,1757,1757,1766,1757,1757,1757,1757,1757,1748,1739,1739,1739,1739,1739,1739,1739,1731,1731,1739,1731,1731,1731,1731,1722,1722,1722,1722,1713,1713,1722,1722,1705,1705,1696,1696,1696,1696,1696,1696,1696,1696,1696,1696,1688,1688,1688,1688,1688,1680,1680,1680,1671,1671,1671,1671,1671,1671,1663,1663,1663,1663,1663,1663,1655,1655,1655,1655,1655,1655,1655,1655,1655,1647,1647,1647,1647,1639,1639,1639,1632,1632,1632,1632,1624,1624,1624,1624,1624,1624,1624,1624,1624,1624,1624,1624,1624,1624,1624,1624,1632,1624,1624,1624,1624,2028,2028,2016,2016,2005,2005,1993,1981,1981,1970,1970,1959,1959,1947,1936,1926,1926,1915,1609,1609,1601,1601,1601,1601,1601,1601,1601,1601,1601,1601,1609,1609,1609,1609,1609,1616,1616,1616,1616,1616,1624,1624,1624,1624,1632,1632,1632,1632,1632,1632,1632,1632,1624,1624,0,0,0,1034,0,1031,1031,1028,1025,1022,1022,1022,1019,1019,1019,1019,1019,1016,1013,1010,1004,998,995,995,992,989,989,987,987,987,984,984,978,975,973,970,967,967,964,962,959,956,954,951,948,946,943,943,940,935,933,930,928,925,920,918,915,913,910,910,908,903,901,898,896,894,894,889,887,887,885,880,878,875,871,869,864,860,860,858,854,849,849,847,843,839,839,839,833,827,823,823,821,819,819,817,802,800,798,796,794,792,790,789,789,785,783,783,783,783,783,783,787,789,789,789,790,790,790,792,792,794,794,796,796,796,798,798,798,0,0,0,0,0,0,0,1477,1470,1470,1464,1464,1452,1452,1445,1445,1439,1439,1433,1433,1427,1421,1421,1421,1421,1415,1410,1404,1404,1404,1398,1398,1398,1392,1387,1381,1376,1376,1376,1370,1365,1365,1359,1359,1354,1354,1354,1354,1349,1349,1349,1343,1333,1333,1328,1322,1322,1317,1317,1312,1312,1307,1307,1307,1302,1297,1292,1292,1292,1288,1288,1283,1283,1273,1273,1268,1264,1264,1264,1259,1255,1255,1255,1250,1250,1245,1245,1241,1241,1236,1236,1232,1232,1232,1227,1223,1223,1219,1219,1214,1214,1214,1206,1202,1202,1197,1197,1197,1197,1193,1189,1189,1185,1185,1181,1177,1177,1173,1169,1169,1165,1165,1161,1161,1153,1153,1153,1149,1149,1145,1145,1141,1141,1138,1138,1138,1134,1134,1130,1126,1123,1123,1123,1123,1119,1115,1112,1112,1108,1108,1108,1105,1105,1101,1101,1097,1094,1094,1094,1090,1090,1087,1087,1084,1080,1080,1077,1073,1073,1070,1067,1067,1063,1063,1060,1060,1060,1057,1057,1054,1054,1050,1050,1047,1047,1047,1041,1038,1038,1038,1038,1034,1031,1028,1028,1028,1028,1025,1025,1025,1022,1022,1019,1016,1013,1013,1010,1010,1010,1004,1004,1001,1001,1001,998,998,995,992,992,989,987,987,984,984,984,981,981,978,978,975,975,975,970,967,967,964,962,962,959,959,956,954,954,951,951,948,946,943,940,938,938,935,935,933,933,935,0,0,0,0,0,0,0,0,0,0,0,0,0,0,0,0,0,0,0,0,0,0,0,0,0,0,0,0,0,0
0,0,0,0,0,0,0,0,0,0,0,0,0,0,0,0,1926,1926,1926,1915,1915,1904,1894,1894,1894,1883,1883,1873,1873,1863,1863,1853,1853,1853,1853,1853,1843,1843,1843,1833,1833,1833,1823,1823,1813,1804,1804,1804,1794,1794,1794,1785,1785,1794,1794,1794,1794,1785,1785,1794,1794,1785,1776,1766,1766,1766,1766,1766,1766,1766,1766,1757,1757,1757,1748,1748,1748,1748,1748,1748,1739,1739,1739,1731,1731,1739,1731,1731,1731,1731,1722,1722,1722,1722,1713,1713,1713,1713,1722,1705,1705,1705,1705,1696,1696,1696,1696,1696,1696,1696,1688,1688,1688,1688,1688,1680,1680,1680,1680,1671,1671,1671,1671,1671,1663,1663,1671,1663,1663,1663,1663,1663,1663,1655,1655,1655,1655,1655,1655,1647,1647,1647,1647,1639,1639,1639,1632,1632,1632,1632,1624,1624,1624,1624,1624,1624,1624,1624,1624,1624,1624,1624,1624,1624,1624,1624,1624,1624,1632,1624,1624,2028,2028,2016,2016,2005,2005,1993,1981,1981,1970,1970,1959,1959,1947,1947,1926,1926,1609,1609,1609,1601,1601,1601,1601,1601,1601,1601,1601,1601,1601,1609,1616,1616,1616,1616,1616,1624,1624,1616,1616,1624,1624,1624,1624,1632,1632,1632,1632,1632,1632,1632,1632,1624,1624,0,0,0,0,1034,1031,1031,1028,1028,1022,1022,1022,1019,1019,1019,1019,1019,1019,1019,1016,1004,998,992,992,992,989,989,987,987,987,987,984,978,975,973,970,967,967,964,964,962,956,954,951,948,946,943,943,940,935,933,933,930,925,920,918,915,913,910,910,908,903,901,901,898,896,894,889,887,887,885,882,878,875,871,869,864,860,860,854,854,849,849,847,843,841,841,841,831,827,823,823,821,819,819,817,803,800,798,796,796,792,790,790,789,787,785,785,783,783,783,785,787,789,789,790,790,790,790,792,792,794,796,796,796,798,798,798,798,0,0,0,0,0,0,1483,1477,1470,1470,1464,1464,1452,1452,1445,1445,1439,1439,1439,1433,1427,1427,1421,1421,1421,1415,1415,1410,1404,1404,1398,1398,1398,1392,1392,1387,1381,1381,1376,1370,1370,1365,1365,1359,1359,1354,1354,1354,1349,1349,1349,1349,1333,1333,1328,1322,1322,1317,1317,1312,1312,1312,1307,1307,1307,1302,1297,1292,1292,1292,1288,1288,1283,1278,1273,1268,1264,1264,1264,1259,1259,1255,1255,1250,1250,1250,1250,1241,1241,1236,1236,1236,1232,1232,1227,1223,1223,1219,1219,1219,1214,1214,1206,1206,1202,1197,1197,1197,1197,1193,1189,1189,1185,1185,1181,1177,1177,1173,1169,1169,1165,1165,1161,1161,1157,1157,1153,1153,1149,1145,1145,1141,1141,1138,1138,1138,1134,1134,1134,1126,1123,1123,1123,1123,1119,1115,1115,1112,1108,1108,1108,1105,1105,1101,1101,1097,1094,1094,1094,1090,1090,1090,1087,1084,1080,1080,1077,1077,1073,1073,1070,1067,1063,1063,1063,1060,1060,1060,1057,1054,1054,1050,1050,1050,1047,1047,1044,1041,1038,1038,1038,1034,1031,1028,1028,1028,1028,1025,1025,1025,1022,1022,1016,1016,1013,1013,1010,1010,1010,1007,1004,1004,1004,1001,1001,998,998,992,992,989,987,987,987,984,984,981,981,981,978,978,975,973,970,970,967,967,964,962,959,959,959,956,956,954,951,948,948,946,943,940,938,938,935,933,933,935,0,0,0,0,0,0,0,0,0,0,0,0,0,0,0,0,0,0,0,0,0,0,0,0,0,0,0,0,0,0
0,0,0,0,0,0,0,0,0,0,0,0,0,0,0,0,1926,1926,1926,1915,1915,1915,1904,1894,1894,1883,1883,1873,1873,1863,1863,1863,1853,1853,1853,1853,1843,1843,1843,1833,1833,1833,1823,1823,1813,1804,1804,1804,1804,1804,1804,1794,1794,1794,1794,1794,1794,1794,1794,1794,1785,1785,1776,1766,1766,1766,1766,1766,1766,1766,1766,1757,1757,1757,1748,1748,1748,1748,1748,1748,1739,1739,1739,1731,1731,1731,1731,1731,1731,1731,1731,1722,1722,1722,1722,1722,1713,1713,1713,1705,1705,1705,1705,1696,1696,1696,1696,1696,1696,1696,1696,1688,1688,1688,1688,1688,1688,1680,1680,1680,1680,1680,1671,1671,1671,1671,1671,1663,1663,1663,1663,1663,1663,1655,1655,1655,1655,1655,1655,1647,1647,1647,1647,1639,1639,1639,1632,1632,1632,1632,1632,1632,1624,1624,1624,1632,1624,1624,1624,1624,1624,1624,1624,1624,1624,1624,1624,1624,1624,1624,1624,2040,2040,2028,2016,2016,2005,2005,1993,1981,1970,1970,1970,1959,1959,1947,1936,1926,1601,1601,1609,1609,1601,1601,1601,1601,1601,1601,1601,1601,1609,1609,1616,1616,1616,1616,1624,1624,1624,1624,1624,1624,1624,1624,1632,1632,1632,1632,1632,1632,1632,1632,1632,1624,1624,0,0,0,0,1034,1034,1031,1028,1028,1025,1025,1022,1022,1022,1019,1019,1019,1019,1019,1019,1010,998,992,992,992,989,989,987,987,987,987,984,978,975,973,970,970,967,964,964,962,956,954,951,948,946,943,943,940,938,935,933,930,925,923,918,915,913,913,910,908,903,901,901,898,896,894,889,889,887,885,880,878,875,871,869,864,862,860,854,854,849,849,847,843,841,839,835,831,827,823,823,821,819,819,817,803,800,798,796,796,794,792,790,789,787,787,785,785,785,787,789,789,789,790,790,790,792,792,792,794,796,796,796,796,798,798,798,0,0,0,0,0,0,0,1477,1470,1470,1470,1464,1464,1452,1452,1445,1445,1445,1439,1439,1433,1427,1427,1421,1421,1421,1415,1415,1410,1404,1404,1398,1398,1398,1392,1392,1387,1381,1381,1376,1370,1370,1365,1365,1359,1359,1354,1354,1354,1349,1349,1349,1349,1338,1333,1333,1328,1322,1322,1317,1312,1312,1312,1307,1307,1307,1302,1297,1292,1292,1292,1288,1288,1283,1278,1273,1268,1268,1264,1264,1264,1259,1255,1255,1250,1250,1250,1250,1250,1245,1236,1236,1236,1232,1232,1227,1223,1223,1223,1219,1214,1214,1214,1206,1206,1202,1202,1197,1197,1197,1193,1193,1189,1185,1185,1181,1177,1177,1177,1169,1169,1169,1165,1161,1161,1157,1157,1157,1153,1153,1149,1145,1145,1141,1138,1138,1138,1134,1134,1134,1126,1123,1123,1123,1123,1123,1119,1119,1115,1112,1108,1108,1108,1105,1101,1101,1097,1097,1094,1094,1090,1090,1090,1087,1084,1084,1080,1080,1077,1073,1073,1070,1070,1067,1063,1063,1063,1060,1060,1057,1054,1054,1054,1050,1050,1050,1047,1044,1041,1041,1038,1038,1034,1031,1028,1028,1028,1028,1025,1025,1025,1022,1022,1016,1016,1013,1013,1013,1010,1010,1007,1004,1004,1004,1001,1001,998,998,992,992,989,989,987,987,984,984,981,981,981,978,978,975,973,973,970,970,967,964,962,959,959,959,956,956,954,954,948,948,946,946,943,940,938,935,933,933,935,0,0,0,0,0,0,0,0,0,0,0,0,0,0,0,0,0,0,0,0,0,0,0,0,0,0,0,0,0,0
0,0,0,0,0,0,0,0,0,0,0,0,0,0,0,0,1926,1926,1926,1915,1915,1915,1904,1894,1894,1883,1883,1883,1873,1873,1863,1863,1853,1853,1853,1853,1843,1843,1843,1833,1833,1833,1823,1823,1813,1813,1813,1804,1804,1804,1804,1804,1804,1794,1794,1794,1794,1794,1794,1794,1785,1776,1776,1766,1766,1766,1766,1766,1766,1766,1766,1757,1757,1757,1757,1748,1748,1748,1748,1748,1739,1739,1739,1731,1731,1731,1731,1731,1731,1731,1731,1731,1722,1722,1722,1722,1722,1722,1713,1713,1705,1705,1705,1705,1696,1696,1696,1696,1696,1696,1696,1688,1688,1688,1688,1688,1688,1688,1680,1680,1680,1680,1680,1671,1671,1671,1671,1671,1663,1663,1663,1663,1663,1663,1655,1655,1655,1655,1655,1647,1647,1647,1647,1647,1647,1639,1632,1632,1632,1632,1632,1632,1632,1632,1632,1632,1624,1624,1624,1624,1624,1624,1624,1624,1624,1624,1632,1624,1624,1624,1624,2040,2040,2040,2016,2016,2005,2005,1993,1981,1970,1970,1970,1959,1947,1947,1936,1936,1601,1601,1609,1609,1601,1601,1601,1601,1601,1601,1601,1601,1609,1609,1616,1616,1616,1616,1624,1624,1624,1624,1624,1624,1624,1624,1632,1632,1632,1639,1639,1639,1632,1632,1632,1624,1624,0,0,0,0,1034,1034,1031,1028,1028,1025,1025,1022,1022,1022,1019,1019,1022,1022,1022,1022,1019,1019,992,992,992,989,987,987,987,987,987,984,981,978,975,970,970,967,967,964,962,959,956,954,948,946,946,943,940,938,933,933,928,925,923,920,918,915,913,913,908,908,903,901,898,896,894,891,889,887,882,880,878,875,871,869,864,862,860,856,854,851,849,845,843,841,839,835,833,827,825,823,821,819,819,815,803,802,800,798,796,794,792,790,789,787,787,785,785,787,787,789,789,789,790,790,790,792,792,794,794,796,798,798,798,800,800,802,0,0,0,0,0,0,0,1470,1470,1470,1470,1464,1464,1458,1452,1452,1445,1445,1445,1439,1433,1433,1427,1421,1421,1415,1415,1415,1410,1404,1404,1398,1398,1398,1398,1392,1392,1387,1381,1376,1370,1370,1370,1365,1359,1359,1359,1354,1354,1354,1349,1349,1349,1338,1333,1333,1328,1322,1322,1317,1317,1312,1312,1307,1307,1307,1302,1297,1297,1292,1292,1292,1288,1288,1283,1278,1268,1268,1264,1264,1264,1259,1259,1259,1255,1255,1255,1250,1250,1250,1236,1236,1236,1232,1232,1227,1223,1223,1223,1219,1214,1214,1214,1206,1202,1202,1202,1197,1197,1197,1197,1193,1189,1185,1181,1181,1177,1177,1177,1169,1169,1169,1165,1165,1161,1161,1157,1157,1153,1153,1149,1145,1145,1141,1138,1138,1138,1134,1134,1134,1130,1123,1123,1123,1123,1123,1119,1119,1115,1115,1112,1112,1108,1108,1105,1101,1101,1097,1094,1094,1090,1090,1090,1087,1084,1084,1080,1080,1077,1077,1073,1073,1070,1067,1067,1063,1063,1060,1060,1057,1054,1054,1054,1050,1050,1050,1047,1044,1041,1041,1038,1038,1034,1034,1031,1028,1028,1028,1028,1025,1025,1025,1022,1019,1016,1016,1013,1013,1013,1013,1010,1007,1004,1004,1001,1001,998,998,995,992,989,989,989,987,987,984,981,981,981,978,978,975,973,970,970,970,967,964,962,962,959,959,956,956,954,954,948,948,946,946,943,940,938,938,935,935,935,0,0,0,0,0,0,0,0,0,0,0,0,0,0,0,0,0,0,0,0,0,0,0,0,0,0,0,0,0,0
0,0,0,0,0,0,0,0,0,0,0,0,0,0,0,0,1926,1926,1915,1915,1915,1915,1904,1894,1894,1883,1883,1883,1873,1873,1863,1863,1853,1853,1853,1853,1853,1843,1843,1843,1833,1833,1823,1823,1823,1813,1813,1804,1804,1804,1804,1804,1804,1804,1794,1794,1794,1794,1794,1794,1794,1776,1776,1766,1766,1766,1766,1766,1766,1766,1766,1757,1757,1757,1757,1757,1748,1748,1748,1748,1748,1748,1739,1731,1731,1731,1731,1731,1731,1731,1731,1731,1731,1722,1722,1722,1722,1722,1722,1713,1713,1713,1713,1705,1705,1705,1696,1696,1696,1696,1696,1696,1696,1696,1688,1688,1688,1688,1688,1688,1688,1680,1680,1671,1671,1671,1680,1671,1671,1671,1663,1663,1663,1663,1655,1655,1655,1655,1655,1655,1655,1655,1655,1655,1647,1639,1639,1639,1632,1632,1632,1632,1632,1632,1632,1632,1632,1624,1624,1624,1624,1624,1624,1624,1624,1624,1632,1632,1632,1624,1624,1632,2040,2040,2028,2016,2016,2005,1993,1981,1970,1970,1970,1959,1947,1947,1936,1936,1632,1609,1609,1609,1601,1601,1601,1601,1601,1601,1601,1601,1609,1609,1616,1616,1624,1624,1624,1624,1624,1624,1624,1624,1632,1632,1632,1632,1632,1639,1639,1639,1639,1632,1632,1624,1624,0,0,0,0,1038,1034,1031,1028,1028,1025,1025,1022,1022,1022,1022,1022,1022,1022,1022,1022,1025,1025,1025,1025,992,989,987,987,987,987,987,984,981,978,975,970,970,967,964,964,959,959,956,954,951,948,946,943,940,940,933,930,928,925,923,920,918,915,913,913,910,908,903,901,898,896,896,891,889,887,880,880,878,875,871,869,867,862,860,858,856,851,849,845,843,841,839,835,833,829,825,823,821,821,819,809,803,802,800,798,796,794,792,790,789,789,787,787,787,787,787,789,789,790,790,790,790,792,792,794,796,798,798,798,800,802,802,802,0,0,0,0,0,0,1470,1470,1470,1470,1464,1464,1464,1458,1452,1452,1445,1445,1445,1439,1433,1433,1427,1421,1421,1415,1415,1415,1410,1404,1404,1398,1398,1398,1398,1392,1392,1387,1381,1376,1370,1370,1370,1365,1359,1359,1359,1354,1354,1354,1349,1349,1343,1338,1333,1333,1328,1328,1322,1317,1317,1312,1312,1307,1307,1307,1302,1297,1297,1292,1292,1292,1292,1288,1283,1278,1273,1268,1268,1268,1264,1259,1259,1259,1255,1255,1255,1250,1250,1250,1241,1236,1236,1232,1232,1227,1223,1223,1223,1219,1219,1214,1214,1214,1202,1202,1202,1202,1197,1197,1197,1193,1189,1189,1181,1181,1181,1177,1177,1173,1169,1169,1165,1165,1165,1161,1161,1157,1157,1153,1149,1149,1145,1145,1141,1141,1138,1138,1134,1134,1134,1126,1126,1123,1123,1123,1119,1119,1115,1115,1112,1112,1108,1108,1105,1105,1101,1097,1094,1094,1090,1090,1090,1087,1084,1084,1084,1080,1080,1077,1073,1073,1070,1070,1067,1067,1063,1063,1060,1057,1054,1054,1054,1054,1050,1050,1047,1044,1041,1041,1041,1038,1038,1034,1031,1028,1028,1028,1028,1025,1025,1025,1022,1019,1016,1016,1016,1013,1013,1013,1010,1007,1004,1004,1004,1001,1001,998,998,992,992,989,989,987,987,984,981,981,981,981,978,975,973,970,970,970,967,967,964,962,959,959,956,956,954,954,951,948,946,946,946,943,940,938,938,935,935,0,0,0,0,0,0,0,0,0,0,0,0,0,0,0,0,0,0,0,0,0,0,0,0,0,0,0,0,0,0
0,0,0,0,0,0,0,0,0,0,0,0,0,0,0,0,1926,1926,1915,1915,1915,1915,1904,1904,1894,1894,1883,1883,1883,1873,1863,1863,1863,1863,1853,1853,1853,1853,1843,1843,1843,1833,1823,1823,1823,1813,1813,1804,1804,1813,1813,1804,1804,1804,1804,1804,1794,1794,1794,1794,1794,1776,1776,1766,1766,1766,1766,1766,1766,1766,1766,1757,1757,1757,1757,1757,1757,1757,1757,1757,1748,1748,1739,1731,1731,1731,1731,1731,1731,1731,1731,1731,1731,1731,1722,1722,1722,1722,1722,1713,1713,1713,1713,1713,1713,1705,1705,1696,1696,1696,1696,1696,1696,1696,1688,1688,1688,1688,1688,1688,1688,1680,1680,1680,1680,1680,1680,1671,1671,1671,1663,1663,1663,1663,1663,1663,1655,1655,1655,1655,1655,1655,1655,1655,1647,1647,1647,1639,1639,1639,1632,1632,1632,1632,1632,1632,1632,1632,1632,1632,1632,1632,1632,1632,1632,1632,1632,1632,1632,1632,1632,1632,2040,2040,2040,2040,2016,2016,2005,1981,1970,1970,1970,1970,1959,1959,1947,1947,1639,1609,1609,1609,1601,1601,1601,1601,1601,1601,1609,1609,1609,1616,1616,1616,1624,1624,1624,1624,1624,1624,1624,1632,1632,1632,1632,1632,1632,1639,1639,1639,1639,1632,1632,1632,0,0,0,0,0,1038,1034,1034,1028,1028,1025,1025,1025,1022,1022,1022,1022,1022,1022,1022,1022,1025,1028,1028,1028,1028,989,987,987,987,987,987,984,981,978,975,970,970,967,964,964,959,959,956,954,951,948,946,943,940,938,933,930,928,925,923,920,918,915,915,913,910,906,903,901,898,896,894,891,889,887,880,880,878,875,871,869,867,862,858,858,856,854,849,847,843,841,839,835,833,829,827,825,823,821,819,809,805,802,800,798,798,794,792,790,789,789,789,787,787,787,789,789,789,790,790,790,790,792,794,796,798,798,800,800,800,802,802,803,0,0,0,0,0,0,1470,1470,1470,1470,1464,1464,1464,1464,1452,1452,1445,1445,1445,1439,1433,1433,1433,1427,1421,1415,1415,1415,1410,1404,1404,1398,1398,1398,1398,1392,1392,1387,1381,1376,1376,1370,1370,1370,1365,1365,1359,1359,1354,1354,1349,1349,1343,1338,1333,1333,1328,1328,1328,1317,1317,1312,1312,1312,1307,1307,1302,1297,1297,1292,1292,1292,1292,1288,1288,1283,1278,1273,1268,1268,1268,1264,1264,1259,1255,1255,1255,1250,1250,1250,1241,1236,1236,1236,1232,1227,1223,1223,1223,1219,1219,1214,1214,1214,1206,1202,1202,1202,1202,1197,1197,1193,1189,1189,1185,1181,1181,1177,1177,1173,1173,1169,1169,1165,1165,1165,1161,1157,1157,1153,1149,1149,1145,1145,1141,1141,1138,1138,1134,1134,1134,1130,1126,1123,1123,1123,1119,1119,1115,1115,1112,1112,1108,1108,1105,1105,1101,1101,1094,1094,1090,1090,1090,1087,1084,1084,1084,1080,1080,1077,1077,1077,1073,1070,1067,1067,1063,1063,1060,1057,1057,1057,1054,1054,1050,1050,1047,1044,1044,1041,1041,1038,1038,1034,1031,1028,1028,1028,1028,1028,1025,1025,1022,1019,1019,1016,1016,1013,1013,1013,1010,1007,1004,1004,1004,1001,1001,998,998,992,992,989,989,989,987,987,984,981,981,981,978,975,973,973,970,970,967,967,964,962,959,959,956,956,954,954,951,951,948,946,946,943,940,940,938,935,935,0,0,0,0,0,0,0,0,0,0,0,0,0,0,0,0,0,0,0,0,0,0,0,0,0,0,0,0,0,0
0,0,0,0,0,0,0,0,0,0,0,0,0,0,0,0,1926,1926,1915,1915,1915,1915,1904,1904,1894,1894,1883,1883,1873,1873,1873,1863,1863,1863,1853,1853,1853,1853,1843,1843,1843,1843,1833,1833,1833,1823,1823,1813,1813,1813,1813,1813,1813,1804,1804,1804,1804,1794,1794,1794,1785,1776,1776,1766,1766,1766,1766,1766,1766,1766,1766,1766,1757,1757,1757,1757,1757,1757,1757,1748,1748,1748,1739,1731,1731,1739,1739,1731,1731,1731,1731,1731,1731,1731,1722,1722,1722,1722,1722,1722,1713,1713,1713,1713,1713,1713,1705,1696,1696,1696,1696,1696,1696,1696,1696,1696,1696,1688,1688,1688,1688,1688,1688,1688,1688,1688,1680,1680,1680,1671,1671,1663,1663,1663,1663,1663,1655,1655,1655,1655,1655,1655,1655,1655,1655,1647,1647,1647,1647,1639,1639,1639,1632,1632,1632,1632,1632,1632,1632,1632,1632,1632,1632,1632,1632,1632,1632,1632,1632,1632,1632,1639,1639,2053,2040,2040,2016,2016,2005,1993,1981,1970,1970,1970,1959,1959,1947,1947,1639,1624,1616,1616,1609,1609,1609,1601,1601,1609,1609,1609,1609,1616,1616,1616,1624,1624,1624,1624,1624,1624,1624,1632,1632,1632,1632,1632,1639,1639,1639,1639,1639,1639,1632,1632,0,0,0,0,0,1041,1038,1034,1034,1028,1028,1025,1025,1022,1022,1025,1022,1022,1025,1025,1025,1025,1031,1031,1031,1031,1031,1034,1034,987,987,987,984,981,978,975,973,970,967,967,964,959,959,956,954,951,948,946,943,940,938,933,933,928,925,925,923,920,918,915,915,913,906,903,901,898,896,894,891,889,887,882,880,878,875,871,869,867,862,858,856,856,851,849,847,845,843,839,835,833,829,829,825,823,821,819,809,805,803,800,798,798,794,792,790,789,789,789,789,789,789,789,789,789,790,790,790,792,792,794,796,798,800,802,802,802,803,803,805,0,0,0,0,0,0,0,1470,1470,1470,1464,1464,1464,1464,1452,1452,1445,1445,1445,1439,1439,1433,1433,1427,1421,1421,1415,1415,1410,1410,1410,1404,1404,1398,1398,1392,1392,1387,1381,1376,1376,1370,1370,1370,1365,1365,1365,1359,1354,1354,1349,1349,1343,1338,1333,1333,1333,1328,1328,1317,1317,1312,1312,1312,1307,1307,1302,1302,1297,1297,1292,1292,1292,1288,1288,1283,1278,1278,1273,1268,1268,1268,1264,1264,1259,1259,1255,1255,1255,1250,1250,1241,1236,1236,1232,1232,1227,1223,1223,1219,1219,1214,1214,1214,1206,1206,1202,1202,1202,1197,1197,1193,1189,1189,1185,1181,1181,1181,1177,1173,1173,1169,1169,1165,1165,1165,1161,1161,1157,1153,1153,1149,1145,1145,1145,1145,1141,1138,1138,1134,1134,1130,1126,1123,1123,1123,1119,1119,1119,1115,1112,1112,1108,1108,1108,1105,1101,1101,1094,1094,1094,1090,1090,1087,1084,1084,1084,1080,1080,1077,1077,1077,1073,1070,1070,1067,1067,1063,1063,1060,1057,1057,1057,1057,1054,1054,1047,1047,1044,1044,1041,1038,1038,1034,1031,1031,1031,1031,1028,1028,1025,1025,1022,1019,1019,1016,1016,1016,1013,1013,1010,1007,1004,1004,1004,1001,1001,998,995,992,992,989,989,989,989,987,984,981,981,981,978,975,973,973,970,970,967,967,964,962,959,959,956,956,956,954,954,951,948,946,946,943,940,940,938,938,938,0,0,0,0,0,0,0,0,0,0,0,0,0,0,0,0,0,0,0,0,0,0,0,0,0,0,0,0,0,0
0,0,0,0,0,0,0,0,0,0,0,0,0,0,0,0,1926,1926,1926,1926,1915,1915,1904,1904,1894,1894,1883,1883,1873,1873,1873,1863,1863,1863,1853,1853,1853,1853,1843,1843,1843,1843,1833,1833,1833,1833,1833,1823,1813,1813,1813,1823,1813,1804,1804,1804,1804,1804,1794,1794,1785,1776,1776,1776,1766,1766,1766,1766,1766,1766,1766,1766,1766,1757,1757,1757,1757,1757,1757,1748,1748,1748,1739,1739,1739,1739,1739,1739,1731,1731,1731,1731,1731,1722,1722,1722,1722,1722,1722,1722,1722,1722,1722,1722,1713,1713,1713,1705,1705,1696,1696,1696,1696,1696,1696,1696,1688,1688,1688,1688,1688,1688,1688,1688,1688,1688,1688,1680,1680,1671,1671,1663,1663,1663,1663,1663,1663,1663,1655,1655,1655,1655,1655,1655,1655,1647,1647,1647,1647,1639,1639,1639,1639,1639,1639,1632,1632,1632,1632,1632,1632,1632,1632,1632,1632,1632,1632,1632,1639,1639,1639,1639,1639,2040,2040,2040,2028,2016,2016,1993,1981,1981,1981,1970,1959,1959,1959,1959,1639,1624,1616,1616,1609,1609,1609,1601,1601,1609,1609,1609,1609,1609,1616,1616,1624,1624,1624,1624,1632,1624,1624,1632,1632,1632,1632,1632,1639,1639,1639,1639,1639,1647,1639,1639,0,0,0,0,0,1044,1041,1038,1034,1034,1028,1028,1025,1025,1025,1025,1025,1025,1025,1025,1028,1028,1031,1031,1031,1031,1034,1034,1034,987,987,987,984,981,978,975,973,970,967,967,964,959,956,954,954,951,948,946,943,940,940,938,933,930,928,925,923,920,920,915,915,913,908,903,901,898,896,894,891,889,885,882,880,878,875,873,871,867,862,858,856,856,851,849,847,845,843,839,837,833,831,829,827,823,821,815,811,807,805,802,800,798,794,792,790,790,789,789,789,789,789,789,789,790,790,790,790,792,794,794,798,800,802,802,802,802,803,803,805,0,0,0,0,0,0,0,1470,1470,1470,1470,1470,1464,1464,1452,1452,1445,1445,1445,1439,1439,1433,1433,1427,1427,1421,1421,1415,1415,1410,1410,1398,1398,1392,1392,1392,1392,1392,1381,1381,1376,1376,1370,1370,1365,1365,1365,1359,1354,1354,1349,1349,1343,1338,1333,1333,1333,1328,1328,1322,1317,1312,1312,1312,1312,1307,1307,1302,1302,1297,1297,1292,1292,1292,1288,1283,1278,1278,1273,1268,1268,1268,1264,1264,1259,1259,1255,1255,1255,1250,1250,1241,1236,1236,1232,1232,1227,1227,1223,1223,1219,1214,1214,1214,1210,1206,1206,1202,1202,1202,1197,1197,1193,1189,1185,1181,1181,1181,1177,1177,1173,1173,1169,1169,1165,1165,1165,1161,1157,1153,1153,1149,1149,1149,1145,1145,1141,1141,1138,1138,1134,1130,1130,1123,1123,1123,1119,1119,1119,1115,1115,1112,1108,1108,1108,1105,1105,1101,1097,1094,1094,1094,1090,1087,1084,1084,1084,1080,1080,1077,1077,1077,1073,1070,1070,1067,1067,1067,1063,1063,1060,1060,1057,1057,1054,1054,1050,1047,1047,1044,1044,1041,1038,1038,1034,1031,1031,1031,1028,1028,1028,1025,1022,1019,1019,1016,1016,1016,1013,1013,1010,1010,1007,1004,1004,1001,1001,1001,995,995,992,992,992,989,989,989,987,984,984,984,978,975,973,973,970,970,970,967,964,962,962,962,959,956,956,954,954,951,948,946,946,943,940,940,938,938,938,0,0,0,0,0,0,0,0,0,0,0,0,0,0,0,0,0,0,0,0,0,0,0,0,0,0,0,0,0,0
0,0,0,0,0,0,0,0,0,0,0,0,0,0,0,0,1926,1926,1926,1926,1926,1915,1915,1915,1904,1894,1883,1883,1873,1873,1873,1873,1863,1863,1853,1853,1853,1853,1843,1843,1843,1843,1833,1833,1833,1833,1833,1823,1823,1823,1823,1823,1813,1813,1813,1804,1804,1804,1804,1804,1785,1776,1776,1776,1766,1766,1766,1766,1766,1766,1766,1766,1766,1766,1766,1757,1757,1757,1757,1757,1757,1748,1739,1739,1739,1739,1739,1739,1731,1731,1731,1731,1731,1722,1722,1722,1722,1722,1722,1722,1722,1722,1722,1722,1713,1713,1713,1705,1705,1705,1705,1705,1705,1696,1696,1696,1688,1688,1688,1688,1688,1688,1688,1688,1688,1688,1688,1680,1680,1671,1671,1671,1663,1663,1663,1663,1663,1655,1655,1655,1655,1655,1655,1655,1655,1647,1647,1647,1647,1647,1647,1639,1639,1647,1639,1639,1632,1632,1632,1632,1632,1632,1632,1632,1632,1632,1639,1639,1647,1639,1639,1639,1639,2040,2040,2040,2028,2016,2016,2005,1993,1981,1981,1970,1970,1959,1959,1959,1647,1632,1624,1616,1616,1609,1609,1609,1609,1609,1609,1609,1609,1609,1616,1616,1624,1624,1624,1624,1632,1632,1632,1639,1639,1639,1639,1639,1639,1647,1647,1647,1647,1647,1639,1639,0,0,0,0,0,1044,1041,1038,1038,1034,1028,1028,1025,1025,1025,1025,1025,1025,1025,1025,1028,1028,1031,1031,1031,1031,1034,1034,1034,1034,987,987,984,984,984,1731,1722,1722,967,967,1722,1722,956,954,954,951,946,943,940,940,935,933,930,928,928,925,925,920,920,915,915,910,908,903,901,898,896,894,891,889,885,882,878,878,875,873,871,867,860,860,858,856,854,851,847,845,843,839,837,835,831,829,827,823,821,815,813,809,805,803,800,798,796,794,790,790,789,789,789,789,789,789,790,790,790,790,790,792,794,796,800,802,802,803,803,803,803,805,805,0,0,0,0,0,0,0,1477,1470,1470,1470,1470,1464,1464,1458,1452,1452,1445,1445,1439,1439,1439,1433,1427,1427,1421,1421,1415,1415,1410,1410,1398,1398,1392,1392,1392,1392,1392,1381,1381,1376,1376,1370,1370,1365,1365,1365,1359,1359,1354,1354,1349,1343,1338,1338,1333,1333,1333,1328,1322,1317,1312,1312,1312,1312,1307,1307,1302,1302,1297,1297,1292,1292,1292,1288,1288,1283,1278,1273,1273,1268,1268,1264,1264,1255,1255,1255,1255,1255,1250,1250,1241,1236,1236,1236,1232,1232,1227,1227,1223,1219,1219,1214,1214,1210,1206,1206,1202,1202,1202,1197,1197,1193,1193,1185,1181,1181,1181,1177,1177,1173,1173,1169,1169,1169,1165,1165,1161,1157,1153,1153,1153,1149,1149,1149,1145,1141,1141,1138,1138,1134,1130,1130,1123,1123,1123,1119,1119,1119,1115,1115,1115,1112,1112,1108,1108,1105,1101,1097,1097,1094,1094,1090,1087,1087,1084,1084,1080,1080,1077,1077,1077,1073,1070,1070,1067,1067,1067,1063,1063,1060,1060,1060,1057,1057,1054,1054,1050,1047,1044,1044,1041,1041,1041,1038,1038,1034,1031,1031,1028,1028,1025,1022,1022,1019,1016,1016,1016,1016,1013,1010,1010,1007,1004,1004,1001,1001,998,995,995,992,992,992,989,989,989,987,987,987,984,978,978,975,973,973,970,970,967,964,964,962,962,959,959,956,956,954,951,948,946,946,943,940,940,938,938,938,0,0,0,0,0,0,0,0,0,0,0,0,0,0,0,0,0,0,0,0,0,0,0,0,0,0,0,0,0,0
0,0,0,0,0,0,0,0,0,0,0,0,0,0,0,0,1926,1926,1926,1926,1926,1915,1915,1915,1904,1894,1883,1883,1873,1873,1873,1873,1863,1863,1853,1853,1863,1853,1853,1853,1843,1843,1843,1843,1833,1833,1833,1833,1823,1823,1823,1813,1813,1813,1813,1813,1804,1804,1804,1804,1785,1785,1785,1776,1766,1766,1776,1776,1776,1766,1766,1766,1766,1766,1766,1757,1757,1757,1757,1757,1757,1748,1748,1739,1739,1739,1748,1739,1739,1731,1731,1731,1731,1731,1731,1731,1731,1731,1722,1722,1722,1722,1722,1722,1722,1713,1713,1713,1705,1705,1705,1705,1705,1696,1696,1696,1688,1688,1688,1688,1688,1688,1688,1688,1688,1688,1688,1688,1680,1671,1671,1671,1663,1663,1663,1663,1663,1655,1655,1663,1655,1655,1663,1663,1655,1647,1647,1647,1647,1647,1647,1639,1639,1647,1639,1639,1632,1632,1632,1632,1632,1632,1632,1632,1632,1639,1639,1639,1647,1647,1647,1647,1647,1647,2040,2040,2028,2016,2016,2005,1993,1993,1981,1970,1970,1959,1959,1688,1663,1647,1632,1624,1616,1609,1609,1609,1609,1609,1609,1609,1616,1616,1616,1624,1624,1624,1624,1632,1632,1632,1639,1639,1639,1639,1639,1639,1639,1647,1639,1639,1639,1639,1639,1639,0,0,0,0,0,1044,1041,1038,1038,1034,1028,1028,1028,1025,1025,1025,1025,1025,1025,1028,1028,1028,1031,1031,1031,1031,1034,1034,1034,1034,1038,1038,1038,1038,1731,1731,1731,1722,1722,1722,1731,1731,1731,1731,1731,1731,946,943,940,933,930,930,928,928,925,925,923,920,918,915,913,910,908,906,903,901,898,894,891,887,885,880,878,878,875,873,871,869,860,860,858,856,854,851,849,845,841,839,837,835,833,829,827,823,821,815,813,809,805,803,802,798,796,792,792,790,790,790,789,789,790,790,790,790,792,792,792,794,796,798,800,802,803,803,803,803,803,805,0,0,0,0,0,0,0,0,1477,1470,1470,1470,1470,1470,1464,1464,1458,1458,1445,1445,1439,1439,1439,1433,1433,1427,1421,1421,1415,1415,1410,1410,1410,1398,1398,1392,1392,1392,1392,1381,1381,1376,1376,1376,1370,1370,1370,1365,1365,1359,1359,1354,1349,1343,1343,1338,1333,1333,1333,1328,1322,1322,1317,1312,1312,1312,1307,1307,1302,1302,1297,1297,1292,1292,1292,1288,1288,1283,1283,1278,1273,1268,1268,1264,1264,1255,1255,1255,1255,1255,1250,1250,1250,1236,1236,1236,1232,1232,1232,1227,1223,1223,1219,1214,1214,1210,1206,1206,1202,1202,1202,1197,1197,1197,1193,1185,1185,1185,1181,1177,1177,1177,1173,1169,1169,1169,1165,1165,1165,1161,1157,1153,1153,1149,1149,1149,1145,1145,1141,1138,1138,1138,1134,1130,1123,1123,1123,1119,1119,1119,1115,1115,1115,1112,1112,1108,1108,1105,1101,1101,1097,1094,1094,1090,1087,1087,1087,1084,1080,1080,1080,1077,1077,1073,1070,1070,1067,1067,1067,1063,1063,1060,1060,1060,1060,1057,1054,1054,1050,1050,1047,1044,1041,1041,1041,1038,1038,1038,1034,1034,1031,1028,1025,1025,1022,1019,1016,1016,1016,1016,1013,1010,1010,1004,1004,1004,1001,1001,998,998,995,992,992,992,989,989,989,989,987,987,984,981,978,975,973,973,970,970,967,964,964,962,962,959,959,956,956,954,951,948,946,946,943,940,940,938,938,938,0,0,0,0,0,0,0,0,0,0,0,0,0,0,0,0,0,0,0,0,0,0,0,0,0,0,0,0,0,0
0,0,0,0,0,0,0,0,0,0,0,0,0,0,0,0,1926,1926,1915,1915,1926,1915,1915,1915,1904,1894,1883,1883,1883,1873,1873,1873,1863,1863,1853,1853,1863,1853,1853,1853,1843,1843,1843,1843,1843,1833,1833,1833,1823,1823,1823,1813,1813,1813,1813,1804,1804,1804,1804,1794,1794,1794,1794,1785,1785,1776,1776,1776,1776,1776,1766,1766,1766,1766,1766,1766,1757,1757,1757,1757,1757,1757,1748,1748,1739,1739,1748,1739,1739,1731,1731,1731,1731,1731,1731,1731,1731,1731,1731,1722,1722,1722,1722,1722,1722,1722,1722,1722,1713,1713,1713,1705,1705,1696,1696,1696,1696,1688,1688,1688,1688,1688,1688,1688,1688,1688,1688,1688,1688,1680,1680,1680,1671,1663,1663,1663,1663,1663,1663,1663,1663,1663,1663,1663,1655,1655,1655,1647,1647,1647,1647,1639,1639,1647,1639,1639,1639,1639,1632,1632,1632,1632,1632,1632,1632,1639,1639,1647,1647,1655,1647,1647,1647,1647,2040,2040,2028,2016,2016,2005,2005,2005,1993,1970,1970,1959,1959,1688,1671,1655,1632,1624,1616,1616,1609,1609,1609,1609,1609,1609,1616,1616,1616,1624,1624,1624,1632,1632,1639,1639,1639,1639,1639,1639,1639,1639,1639,1639,1639,1639,1639,1639,1639,1639,1639,0,0,0,0,1044,1041,1038,1038,1034,1028,1028,1028,1025,1025,1025,1025,1025,1025,1028,1028,1028,1031,1031,1034,1034,1034,1034,1034,1034,1038,0,1038,0,1713,1722,1722,1722,1722,1722,1722,1722,1722,1722,1731,1731,1731,1731,1731,933,930,930,928,928,925,925,923,920,918,915,913,908,908,906,903,901,898,896,894,887,885,880,878,878,875,873,871,869,862,860,858,858,854,851,849,845,841,839,837,835,833,831,829,825,823,815,813,809,807,803,802,798,796,792,792,790,790,790,790,790,790,790,790,790,792,792,794,796,798,798,802,802,803,803,803,803,803,805,0,0,0,0,0,0,0,0,1477,1477,1477,1477,1470,1470,1464,1464,1458,1458,1452,1452,1445,1445,1439,1433,1433,1427,1427,1421,1415,1415,1415,1410,1410,1398,1398,1398,1392,1392,1392,1381,1381,1381,1376,1376,1370,1370,1370,1370,1365,1359,1354,1349,1349,1349,1343,1338,1333,1333,1333,1328,1322,1322,1317,1317,1312,1312,1307,1307,1307,1302,1302,1297,1292,1292,1292,1288,1288,1283,1283,1278,1273,1268,1268,1264,1264,1259,1255,1255,1255,1255,1250,1250,1241,1241,1236,1236,1232,1232,1232,1232,1223,1223,1219,1219,1214,1210,1210,1206,1206,1202,1202,1197,1197,1197,1193,1193,1189,1185,1181,1181,1177,1177,1173,1169,1169,1169,1165,1165,1165,1161,1157,1153,1153,1149,1149,1149,1149,1145,1141,1141,1138,1138,1134,1130,1123,1123,1123,1119,1119,1119,1119,1115,1115,1112,1112,1112,1108,1105,1105,1101,1097,1094,1094,1090,1090,1087,1087,1084,1084,1080,1080,1080,1077,1073,1073,1070,1067,1067,1067,1063,1063,1063,1063,1060,1060,1057,1054,1054,1054,1050,1047,1044,1041,1041,1041,1041,1038,1038,1038,1034,1031,1028,1025,1025,1022,1019,1019,1019,1016,1016,1013,1010,1010,1004,1004,1004,1001,1001,998,998,995,995,992,992,992,992,989,989,987,987,984,981,978,975,973,973,970,970,967,967,964,962,962,959,959,956,956,951,951,948,948,946,946,943,940,938,938,938,0,0,0,0,0,0,0,0,0,0,0,0,0,0,0,0,0,0,0,0,0,0,0,0,0,0,0,0,0,0
0,0,0,0,0,0,0,0,0,0,0,0,0,0,0,0,1926,1926,1915,1915,1926,1915,1915,1915,1904,1894,1883,1883,1883,1873,1873,1873,1873,1863,1863,1863,1863,1863,1853,1853,1853,1843,1843,1843,1843,1833,1833,1833,1833,1823,1823,1823,1813,1813,1813,1804,1804,1804,1804,1794,1794,1794,1794,1794,1794,1785,1785,1785,1785,1776,1776,1766,1766,1766,1766,1766,1766,1757,1757,1757,1757,1757,1757,1757,1748,1748,1757,1748,1739,1739,1739,1739,1731,1731,1731,1731,1731,1731,1731,1731,1731,1731,1722,1722,1722,1722,1722,1722,1713,1713,1713,1713,1705,1705,1705,1696,1696,1696,1696,1696,1696,1696,1696,1696,1696,1696,1688,1688,1688,1688,1688,1688,1680,1671,1671,1671,1671,1671,1671,1663,1663,1663,1663,1663,1655,1655,1655,1647,1647,1647,1647,1647,1647,1647,1647,1639,1639,1639,1639,1632,1632,1632,1632,1632,1632,1639,1639,1647,1647,1655,1655,1655,1655,1655,2040,2028,2028,2016,2016,2005,2005,2005,1993,1970,1970,1959,1959,1688,1671,1655,1624,1624,1624,1616,1616,1616,1609,1609,1609,1616,1624,1616,1616,1624,1624,1632,1632,1632,1639,1632,1632,1632,1632,1639,1639,1639,1639,1639,1639,1639,1639,1639,1639,1639,1639,1639,0,0,0,1041,1041,1038,1038,1034,1028,1028,1028,1025,1025,1025,1025,1025,1028,1028,1028,1031,1034,1034,1034,1034,1034,1034,1034,1034,1041,1041,0,0,1713,1713,1713,1722,1722,1722,1722,1722,1722,1722,1731,1731,1731,1731,1731,1739,1739,1739,928,928,1757,1757,923,923,918,915,913,908,908,906,903,903,901,898,894,887,887,882,880,878,875,873,873,869,862,860,858,858,854,851,849,845,841,841,837,835,833,831,829,825,823,817,813,809,807,803,802,798,796,792,792,790,790,790,790,790,790,790,790,792,792,792,794,796,798,800,802,802,803,803,803,803,805,805,0,0,0,0,0,0,0,0,1477,1477,1477,1477,1470,1470,1464,1464,1464,1458,1458,1452,1445,1445,1445,1439,1433,1433,1427,1421,1415,1415,1415,1415,1410,1404,1398,1398,1392,1392,1392,1381,1381,1381,1376,1376,1376,1370,1370,1370,1365,1359,1354,1349,1349,1349,1343,1338,1338,1333,1333,1328,1328,1322,1322,1317,1317,1312,1312,1312,1307,1307,1302,1297,1292,1292,1292,1292,1288,1288,1283,1278,1273,1273,1268,1268,1264,1259,1255,1255,1255,1255,1250,1250,1241,1241,1236,1236,1236,1232,1232,1232,1223,1223,1219,1219,1214,1214,1210,1210,1206,1202,1202,1202,1197,1197,1197,1193,1189,1185,1185,1181,1181,1177,1177,1169,1169,1169,1165,1165,1165,1161,1157,1153,1153,1149,1149,1149,1145,1145,1141,1141,1138,1138,1134,1130,1126,1123,1123,1119,1119,1119,1119,1115,1115,1112,1112,1112,1108,1105,1105,1101,1097,1097,1094,1090,1090,1090,1090,1087,1084,1080,1080,1080,1077,1073,1073,1070,1070,1067,1067,1067,1067,1063,1063,1060,1060,1060,1057,1054,1054,1050,1047,1044,1044,1041,1041,1041,1038,1038,1038,1034,1031,1028,1025,1025,1022,1019,1019,1019,1016,1016,1013,1013,1010,1004,1004,1004,1001,1001,1001,998,995,995,992,992,992,992,989,989,987,987,984,981,978,975,973,973,970,970,967,967,964,962,962,959,959,956,956,951,951,948,948,946,946,943,940,940,938,938,0,0,0,0,0,0,0,0,0,0,0,0,0,0,0,0,0,0,0,0,0,0,0,0,0,0,0,0,0,0
0,0,0,0,0,0,0,0,0,0,0,0,0,0,0,0,1926,1926,1926,1926,1926,1915,1915,1915,1915,1894,1883,1883,1883,1873,1873,1873,1873,1873,1863,1863,1863,1863,1863,1863,1853,1843,1843,1843,1843,1833,1833,1833,1833,1833,1823,1823,1813,1813,1813,1813,1804,1804,1804,1804,1794,1794,1794,1794,1794,1785,1785,1785,1785,1785,1776,1766,1766,1766,1766,1766,1766,1757,1757,1757,1757,1766,1757,1757,1748,1748,1757,1748,1748,1739,1739,1739,1739,1739,1739,1731,1731,1731,1731,1731,1731,1722,1722,1722,1722,1722,1722,1722,1713,1713,1713,1713,1713,1705,1705,1705,1705,1696,1696,1696,1696,1696,1696,1696,1696,1696,1688,1688,1688,1688,1688,1688,1680,1671,1671,1671,1671,1671,1671,1663,1663,1663,1663,1663,1655,1655,1655,1655,1655,1647,1647,1647,1647,1647,1647,1639,1639,1639,1632,1632,1632,1632,1632,1632,1632,1639,1639,1647,1647,1655,1655,1655,1655,1655,2016,2016,2016,2016,2016,2016,2005,2005,1993,1981,1970,1970,1959,1947,1947,1947,1624,1624,1624,1616,1616,1616,1616,1616,1616,1616,1624,1624,1624,1624,1624,1632,1632,1632,1639,1632,1632,1632,1632,1639,1639,1639,1639,1639,1639,1639,1639,1639,1639,1639,1639,1639,0,1044,1041,1041,1041,1038,1038,1034,1031,1028,1028,1025,1025,1025,1025,1025,1028,1028,1028,1031,1034,1034,1034,1034,1038,1038,1038,1038,0,0,0,0,0,1713,1713,1722,1722,1722,1722,1722,1722,1722,1731,1731,1731,1731,1739,1739,1748,1748,1748,1757,1757,1757,1757,1757,1757,1757,913,910,910,908,906,903,903,1766,1766,889,887,887,885,878,878,875,873,869,862,860,860,858,854,851,849,847,841,841,839,835,833,831,829,825,823,815,813,811,807,805,802,798,794,792,792,790,790,790,790,790,790,790,792,792,794,794,796,796,798,800,802,802,803,803,803,803,805,805,0,0,0,0,0,0,0,1489,1483,1483,1483,1483,1477,1470,1470,1464,1464,1464,1458,1452,1452,1445,1445,1439,1439,1433,1433,1427,1421,1415,1415,1415,1415,1404,1398,1398,1398,1392,1392,1392,1392,1381,1381,1376,1376,1376,1370,1370,1365,1365,1354,1354,1349,1349,1343,1338,1338,1333,1333,1328,1328,1322,1322,1317,1317,1312,1312,1312,1307,1307,1302,1297,1297,1292,1292,1292,1288,1288,1283,1283,1273,1273,1273,1268,1264,1259,1259,1255,1255,1255,1250,1250,1250,1241,1236,1236,1236,1236,1232,1232,1227,1223,1219,1219,1214,1214,1210,1210,1206,1202,1202,1202,1202,1202,1197,1193,1189,1185,1185,1181,1181,1177,1177,1169,1169,1169,1169,1165,1165,1161,1157,1157,1153,1149,1149,1149,1145,1145,1141,1141,1138,1138,1134,1134,1126,1123,1123,1119,1119,1119,1119,1115,1115,1112,1112,1112,1108,1108,1105,1101,1097,1097,1094,1094,1090,1090,1090,1087,1084,1080,1080,1080,1077,1077,1073,1073,1070,1070,1067,1067,1067,1063,1063,1060,1060,1060,1057,1054,1050,1050,1047,1047,1044,1044,1041,1041,1038,1038,1038,1034,1031,1028,1028,1025,1022,1022,1019,1019,1016,1016,1016,1013,1010,1007,1007,1004,1001,1001,1001,998,995,995,995,992,992,992,989,989,987,987,984,981,978,978,973,973,970,970,967,967,964,964,962,959,959,956,956,954,951,948,948,946,946,943,943,940,938,938,0,0,0,0,0,0,0,0,0,0,0,0,0,0,0,0,0,0,0,0,0,0,0,0,0,0,0,0,0,0
0,0,0,0,0,0,0,0,0,0,0,0,0,0,0,0,1936,1936,1926,1926,1926,1926,1915,1915,1915,1894,1883,1883,1883,1883,1873,1873,1873,1873,1873,1873,1873,1863,1863,1853,1843,1843,1833,1833,1843,1843,1833,1833,1833,1823,1823,1823,1813,1813,1813,1813,1804,1804,1804,1804,1794,1794,1794,1794,1794,1794,1785,1785,1785,1785,1785,1776,1776,1766,1766,1766,1766,1757,1757,1766,1766,1766,1766,1757,1757,1757,1757,1748,1748,1748,1739,1739,1739,1739,1739,1739,1731,1731,1731,1731,1731,1722,1722,1722,1722,1722,1722,1722,1722,1722,1722,1713,1713,1713,1705,1705,1705,1696,1696,1696,1696,1696,1696,1696,1696,1696,1688,1688,1688,1688,1688,1688,1680,1671,1671,1671,1671,1671,1671,1663,1663,1663,1663,1663,1655,1655,1655,1655,1655,1647,1647,1647,1647,1647,1647,1647,1639,1639,1632,1632,1632,1632,1632,1632,1632,1639,1639,1647,1655,1655,1655,1655,1655,1655,1655,2016,2016,2016,2016,2016,2005,2005,2005,1981,1970,1970,1959,1947,1947,1632,1632,1624,1624,1624,1624,1616,1616,1616,1616,1616,1624,1624,1624,1624,1624,1632,1632,1632,1632,1632,1632,1632,1639,1639,1639,1639,1639,1639,1639,1639,1647,1647,1639,1639,1639,1639,0,1044,1044,1044,1041,1038,1038,1034,1031,1028,1028,1028,1028,1028,1028,1028,1028,1031,1031,1034,1034,1034,1034,1038,1038,1038,1038,1041,0,0,0,0,0,1713,1713,1722,1731,1731,1731,1731,1731,1731,1731,1731,1731,1739,1748,1748,1748,1748,1748,1757,1757,1757,1757,1757,1757,1766,1766,1766,1766,1766,910,910,1766,1766,1757,1757,1748,887,887,880,878,875,871,869,867,862,860,858,854,851,849,847,845,841,839,837,833,831,829,827,817,815,813,811,809,805,802,800,794,794,792,792,790,790,790,790,790,792,792,794,794,796,796,798,800,802,802,802,803,803,803,805,805,0,0,0,0,0,0,0,0,1489,1483,1483,1483,1483,1477,1470,1470,1470,1464,1464,1458,1458,1452,1452,1445,1439,1439,1439,1433,1433,1421,1421,1421,1415,1415,1410,1410,1398,1398,1392,1392,1392,1387,1381,1381,1376,1376,1376,1370,1370,1365,1365,1354,1354,1349,1349,1349,1343,1343,1338,1338,1333,1333,1328,1322,1322,1317,1312,1312,1312,1307,1307,1302,1297,1297,1292,1292,1292,1288,1288,1283,1283,1273,1273,1273,1268,1268,1264,1259,1255,1255,1255,1250,1250,1245,1241,1241,1236,1236,1236,1232,1232,1227,1223,1219,1219,1214,1214,1214,1210,1206,1206,1202,1202,1202,1202,1197,1197,1189,1189,1185,1181,1181,1177,1177,1173,1169,1169,1169,1165,1165,1165,1161,1157,1153,1153,1149,1149,1149,1145,1141,1141,1138,1138,1134,1134,1134,1123,1123,1123,1119,1119,1119,1115,1115,1112,1112,1112,1108,1108,1105,1101,1101,1097,1097,1094,1094,1090,1090,1087,1084,1080,1080,1080,1077,1077,1077,1073,1070,1070,1067,1067,1067,1063,1063,1060,1060,1060,1057,1054,1050,1050,1050,1047,1047,1044,1041,1041,1038,1038,1038,1034,1031,1028,1028,1025,1025,1022,1019,1019,1019,1016,1016,1013,1010,1007,1007,1004,1001,1001,1001,1001,998,998,995,992,992,992,989,989,987,987,984,981,978,978,973,973,970,970,967,967,967,964,962,959,959,959,956,954,954,948,948,948,946,946,943,943,938,938,0,0,0,0,0,0,0,0,0,0,0,0,0,0,0,0,0,0,0,0,0,0,0,0,0,0,0,0,0,0
0,0,0,0,0,0,0,0,0,0,0,0,0,0,0,0,1936,1936,1926,1926,1926,1926,1915,1904,1904,1894,1894,1894,1883,1883,1883,1883,1873,1873,1873,1873,1873,1873,1863,1853,1843,1843,1833,1833,1843,1833,1833,1833,1833,1823,1823,1823,1823,1823,1813,1813,1813,1804,1804,1804,1804,1804,1804,1804,1804,1794,1794,1785,1785,1785,1785,1785,1785,1785,1766,1766,1766,1766,1766,1766,1766,1766,1766,1766,1757,1757,1757,1757,1748,1748,1748,1748,1739,1739,1739,1739,1739,1739,1731,1731,1731,1731,1731,1731,1722,1722,1722,1722,1722,1722,1722,1713,1713,1713,1713,1705,1705,1705,1705,1705,1696,1696,1696,1696,1696,1696,1688,1688,1688,1688,1688,1688,1680,1680,1680,1680,1680,1680,1680,1671,1663,1663,1663,1663,1663,1655,1655,1655,1655,1655,1655,1655,1655,1647,1647,1647,1639,1639,1639,1632,1632,1632,1632,1632,1632,1639,1647,1647,1655,1655,1655,1655,1655,1655,1655,2028,2016,2016,2016,2016,2005,2005,2005,1993,1981,1970,1959,1947,1947,1632,1624,1624,1624,1624,1624,1616,1616,1616,1616,1616,1624,1624,1624,1624,1624,1632,1632,1632,1632,1632,1632,1632,1639,1639,1639,1639,1639,1639,1639,1639,1647,1647,1647,1639,1639,1639,0,1044,1044,1044,1041,1038,1038,1034,1031,1028,1028,1028,1028,1028,1028,1031,1031,1031,1031,1034,1034,1034,1038,1038,1038,1038,1038,1044,1044,0,0,0,0,1722,1722,1731,1731,1731,1731,1731,1731,1731,1731,1739,1739,1739,1748,1748,1748,1748,1757,1757,1757,1757,1757,1766,1766,1766,1766,1766,1776,1776,1776,1776,1776,1776,1757,1757,1748,1748,887,880,878,875,871,867,867,864,862,860,856,854,849,849,845,843,837,837,835,831,829,827,815,815,813,811,809,805,803,800,796,794,794,792,792,790,790,790,790,792,792,794,796,796,798,798,802,802,802,803,803,803,805,805,805,0,0,0,0,0,0,0,1489,1489,1489,1489,1489,1489,1483,1470,1470,1470,1470,1464,1464,1458,1458,1458,1452,1445,1439,1439,1433,1433,1421,1421,1421,1421,1415,1415,1415,1410,1398,1392,1392,1392,1387,1387,1381,1376,1376,1376,1370,1370,1370,1365,1354,1354,1349,1349,1349,1343,1343,1338,1338,1333,1333,1333,1328,1328,1317,1312,1312,1312,1307,1307,1302,1302,1297,1297,1292,1292,1288,1288,1288,1283,1283,1278,1273,1273,1268,1264,1259,1259,1255,1255,1250,1250,1241,1241,1241,1236,1236,1236,1232,1232,1227,1227,1223,1219,1219,1214,1214,1214,1210,1206,1206,1202,1202,1202,1197,1197,1189,1185,1185,1185,1181,1181,1177,1173,1169,1169,1169,1165,1165,1165,1161,1157,1153,1153,1149,1149,1149,1145,1141,1141,1138,1138,1134,1134,1134,1126,1123,1123,1123,1119,1119,1115,1115,1115,1112,1112,1108,1108,1105,1105,1101,1097,1097,1094,1094,1094,1090,1090,1087,1084,1080,1080,1077,1077,1077,1073,1073,1070,1067,1067,1067,1063,1063,1060,1060,1060,1057,1054,1054,1050,1050,1047,1047,1044,1041,1041,1038,1038,1038,1034,1034,1028,1028,1025,1025,1022,1022,1019,1019,1016,1016,1013,1013,1010,1007,1004,1001,1001,1001,1001,998,998,995,995,995,992,989,989,987,987,984,981,978,978,975,973,970,970,967,967,967,964,962,962,959,959,956,956,954,951,948,948,946,946,943,943,940,940,0,0,0,0,0,0,0,0,0,0,0,0,0,0,0,0,0,0,0,0,0,0,0,0,0,0,0,0,0,0
0,0,0,0,0,0,0,0,0,0,0,0,0,0,0,0,1936,1936,1926,1926,1926,1926,1915,1904,1904,1894,1894,1894,1883,1883,1883,1883,1883,1883,1883,1883,1873,1873,1863,1853,1853,1853,1833,1833,1843,1833,1833,1833,1833,1823,1823,1813,1813,1813,1813,1813,1813,1813,1813,1813,1804,1804,1804,1804,1804,1794,1794,1794,1794,1785,1785,1785,1785,1785,1785,1766,1766,1766,1766,1766,1766,1766,1766,1766,1757,1757,1757,1757,1748,1748,1748,1748,1748,1748,1739,1739,1739,1739,1739,1731,1731,1731,1731,1722,1722,1722,1722,1722,1722,1722,1722,1713,1713,1713,1713,1713,1713,1705,1705,1705,1705,1696,1696,1696,1696,1696,1688,1688,1688,1688,1688,1688,1688,1680,1680,1680,1680,1680,1680,1671,1663,1663,1663,1663,1663,1655,1655,1655,1655,1655,1655,1655,1655,1655,1655,1647,1647,1639,1639,1632,1632,1632,1632,1639,1639,1639,1647,1647,1655,1655,1655,1655,1655,1655,1655,2028,2028,2028,2028,2016,2016,2016,2005,2005,1981,1970,1959,1959,1947,1632,1624,1624,1624,1624,1624,1624,1624,1616,1616,1624,1624,1624,1624,1632,1632,1632,1632,1632,1632,1632,1632,1632,1639,1639,1639,1639,1639,1639,1647,1647,1647,1647,1647,1647,1647,1647,0,1047,1047,1044,1041,1041,1034,1034,1031,1031,1031,1031,1028,1028,1031,1031,1031,1034,1034,1034,1034,1038,1038,1038,1038,1038,1038,1044,1044,0,0,0,0,1731,1731,1731,1731,1731,1731,1731,1731,1731,1731,1739,1739,1739,1748,1748,1757,1757,1757,1757,1757,1757,1757,1766,1766,1766,1766,1766,1776,1776,1776,1776,1776,1766,1757,1757,1748,1748,1748,1739,1731,1722,1722,867,867,864,862,860,854,854,849,849,845,843,837,835,833,829,827,827,815,813,811,811,809,805,803,800,796,796,794,792,792,790,790,790,792,792,794,796,798,798,798,800,802,803,803,803,803,803,805,805,805,0,0,0,0,0,0,0,1489,1489,1489,1489,1489,1489,1483,1477,1470,1470,1470,1464,1464,1464,1464,1458,1452,1445,1439,1439,1433,1427,1427,1421,1421,1421,1421,1415,1415,1415,1410,1398,1398,1392,1392,1387,1381,1381,1376,1376,1370,1370,1370,1365,1354,1354,1354,1349,1349,1343,1343,1343,1338,1338,1338,1333,1333,1328,1322,1317,1312,1312,1312,1307,1302,1302,1297,1297,1292,1292,1292,1288,1288,1283,1283,1278,1273,1273,1268,1268,1264,1259,1255,1255,1250,1250,1241,1241,1241,1236,1236,1236,1236,1232,1232,1227,1223,1223,1219,1214,1214,1214,1210,1206,1206,1202,1202,1202,1197,1197,1189,1185,1185,1185,1181,1181,1181,1177,1173,1173,1169,1169,1165,1165,1161,1161,1157,1153,1153,1149,1145,1145,1141,1141,1138,1138,1134,1134,1134,1126,1123,1123,1123,1119,1119,1115,1115,1115,1115,1112,1112,1108,1108,1105,1101,1097,1097,1094,1094,1094,1090,1090,1087,1087,1084,1080,1077,1077,1077,1073,1073,1070,1067,1067,1067,1063,1063,1060,1060,1060,1057,1054,1050,1050,1050,1047,1047,1044,1041,1041,1038,1038,1038,1034,1034,1028,1028,1025,1025,1022,1022,1019,1019,1016,1016,1013,1013,1010,1010,1004,1004,1001,1001,1001,1001,998,995,995,995,992,992,989,989,987,987,984,978,978,975,975,973,970,970,967,967,964,959,959,959,959,956,956,956,951,951,948,948,946,946,943,940,940,0,0,0,0,0,0,0,0,0,0,0,0,0,0,0,0,0,0,0,0,0,0,0,0,0,0,0,0,0,0
0,0,0,0,0,0,0,0,0,0,0,0,0,0,0,0,1936,1936,1926,1926,1926,1926,1915,1904,1904,1904,1894,1894,1883,1883,1883,1883,1883,1873,1873,1873,1873,1873,1873,1863,1853,1853,1833,1833,1843,1833,1833,1833,1833,1823,1823,1813,1813,1813,1813,1813,1813,1813,1813,1813,1804,1804,1804,1804,1804,1794,1794,1794,1794,1794,1794,1794,1785,1785,1794,1785,1776,1776,1776,1776,1776,1776,1766,1766,1757,1757,1757,1757,1757,1757,1757,1757,1757,1748,1748,1748,1739,1739,1739,1731,1731,1731,1731,1722,1722,1722,1722,1722,1722,1722,1722,1722,1722,1722,1713,1713,1713,1705,1705,1705,1705,1696,1696,1696,1696,1696,1688,1688,1688,1688,1688,1688,1688,1688,1680,1680,1680,1680,1680,1671,1671,1663,1663,1663,1663,1663,1663,1655,1655,1655,1655,1655,1655,1655,1655,1655,1647,1647,1639,1632,1632,1632,1632,1639,1639,1639,1647,1647,1655,1655,1655,1655,1655,1655,1655,2040,2028,2028,2028,2016,2016,2016,2005,2005,1981,1970,1970,1959,1959,1959,1624,1624,1624,1624,1624,1624,1624,1624,1624,1624,1624,1632,1632,1632,1632,1632,1632,1639,1639,1639,1639,1639,1639,1639,1639,1647,1647,1647,1647,1647,1647,1647,1647,1647,1655,1655,0,1047,1047,1044,1041,1041,1034,1034,1031,1031,1031,1031,1031,1031,1031,1034,1034,1034,1034,1034,1038,1038,1038,1038,1038,1038,1044,1044,1044,0,0,0,0,1731,1731,1731,1731,1731,1731,1731,1731,1739,1739,1739,1748,1748,1748,1757,1757,1757,1757,1757,1766,1766,1766,1766,1766,1766,1766,1766,1776,1776,1776,1776,1776,1766,1757,1757,1748,1748,1748,1739,1731,1722,1722,869,864,864,862,858,854,851,849,849,849,0,837,833,831,829,825,815,813,813,811,811,809,805,803,800,796,796,794,792,792,792,792,792,792,794,796,796,798,798,800,800,802,803,803,803,803,803,805,805,0,0,0,0,0,0,0,1489,1489,1489,1489,1489,1489,1489,1483,1483,1470,1470,1470,1464,1464,1464,1464,1458,1458,1445,1439,1439,1433,1427,1427,1421,1421,1421,1421,1421,1415,1415,1410,1404,1398,1392,1392,1392,1387,1381,1376,1376,1370,1370,1370,1365,1354,1354,1354,1349,1349,1349,1349,1343,1343,1338,1338,1333,1333,1333,1322,1322,1312,1312,1312,1307,1307,1302,1302,1297,1292,1292,1292,1288,1288,1283,1283,1278,1273,1273,1268,1268,1264,1259,1259,1255,1250,1250,1245,1241,1241,1236,1236,1236,1236,1232,1232,1227,1227,1219,1219,1219,1214,1214,1210,1206,1206,1202,1202,1202,1197,1197,1189,1185,1185,1185,1181,1181,1181,1177,1177,1173,1169,1169,1169,1165,1165,1161,1157,1157,1153,1149,1145,1145,1141,1141,1138,1138,1134,1134,1134,1130,1123,1123,1123,1119,1119,1115,1115,1115,1115,1112,1112,1108,1108,1105,1101,1097,1097,1094,1094,1094,1090,1090,1087,1087,1084,1080,1080,1077,1077,1073,1073,1070,1070,1067,1067,1067,1063,1063,1060,1060,1057,1054,1050,1050,1050,1050,1047,1044,1041,1041,1038,1038,1038,1034,1034,1028,1028,1028,1025,1025,1022,1019,1019,1019,1016,1016,1013,1013,1010,1004,1004,1004,1004,1001,1001,1001,998,998,995,995,992,992,989,987,987,984,978,978,975,975,973,970,970,967,967,964,959,959,959,959,956,956,956,951,951,948,948,948,946,946,943,943,0,0,0,0,0,0,0,0,0,0,0,0,0,0,0,0,0,0,0,0,0,0,0,0,0,0,0,0,0,0
0,0,0,0,0,0,0,0,0,0,0,0,0,0,0,0,1947,1936,1936,1936,1926,1926,1915,1915,1904,1904,1894,1894,1883,1883,1883,1883,1883,1873,1873,1873,1873,1863,1863,1863,1853,1853,1833,1833,1843,1833,1833,1833,1833,1833,1833,1833,1833,1833,1813,1813,1813,1813,1813,1813,1804,1804,1804,1804,1794,1794,1794,1794,1794,1794,1794,1794,1794,1794,1794,1785,1776,1776,1776,1776,1776,1766,1766,1766,1757,1757,1757,1757,1757,1757,1757,1757,1757,1748,1748,1748,1748,1739,1739,1731,1731,1731,1731,1731,1731,1722,1722,1722,1722,1722,1722,1722,1722,1722,1713,1713,1713,1713,1713,1713,1705,1696,1696,1696,1696,1696,1688,1688,1688,1688,1688,1688,1688,1688,1688,1688,1688,1680,1680,1671,1671,1671,1671,1663,1663,1663,1663,1663,1663,1655,1655,1655,1655,1655,1655,1647,1647,1639,1639,1639,1639,1632,1632,1639,1639,1639,1647,1655,1655,1655,1655,1655,1655,1655,1655,2040,2040,2040,2028,2016,2016,2016,2005,2005,1981,1981,1970,1959,1959,1959,1632,1632,1624,1624,1624,1624,1624,1624,1624,1624,1624,1632,1632,1632,1632,1632,1632,1632,1632,1639,1639,1647,1647,1647,1647,1647,1647,1647,1647,1647,1647,1647,1647,1647,1647,1047,1047,1047,1047,1044,1041,1041,1038,1034,1034,1031,1031,1031,1031,1031,1034,1034,1034,1034,1034,1038,1038,1038,1038,1041,1041,1041,1044,1044,1044,0,0,0,0,0,1722,1722,1731,1731,1731,1731,1731,1739,1739,1748,1748,1757,1757,1757,1757,1757,1757,1757,1766,1766,1766,1766,1766,1766,1766,1776,1776,1776,1776,1776,1776,1766,1757,1757,1748,1748,1748,1739,1731,1731,1722,1713,864,864,862,858,858,851,851,0,0,0,0,833,831,827,817,815,813,813,811,809,807,805,803,802,796,796,794,794,794,792,792,792,794,794,796,798,798,798,800,802,803,803,803,805,805,805,805,805,0,0,0,0,0,0,0,1489,1489,1489,1489,1489,1489,1489,1489,1483,1470,1470,1470,1464,1464,1464,1464,1458,1458,1445,1445,1439,1433,1433,1433,1427,1427,1421,1421,1421,1415,1415,1410,1404,1398,1398,1392,1392,1392,1387,1381,1376,1370,1370,1370,1365,1365,1354,1354,1354,1354,1349,1349,1349,1343,1338,1338,1333,1333,1333,1322,1322,1317,1312,1312,1312,1307,1307,1302,1302,1297,1292,1292,1288,1288,1283,1283,1278,1273,1273,1268,1268,1264,1264,1259,1255,1255,1250,1245,1245,1241,1241,1236,1236,1236,1236,1232,1232,1227,1219,1219,1219,1214,1214,1210,1206,1206,1202,1202,1202,1202,1197,1189,1189,1185,1185,1181,1181,1181,1177,1177,1177,1173,1169,1169,1165,1165,1161,1161,1157,1153,1153,1149,1145,1141,1141,1138,1138,1138,1134,1134,1130,1126,1123,1123,1119,1119,1119,1115,1115,1115,1112,1112,1108,1108,1105,1101,1101,1097,1094,1094,1094,1090,1090,1090,1087,1084,1080,1080,1077,1077,1077,1073,1073,1070,1070,1067,1067,1063,1063,1063,1060,1057,1054,1050,1050,1050,1050,1047,1044,1044,1041,1038,1038,1038,1034,1034,1031,1028,1028,1025,1025,1022,1019,1019,1019,1016,1016,1013,1013,1010,1007,1004,1004,1004,1004,1001,1001,998,998,995,995,992,992,989,989,987,984,981,978,978,975,973,973,970,970,967,967,964,962,959,959,959,956,956,954,951,951,948,948,946,946,943,943,0,0,0,0,0,0,0,0,0,0,0,0,0,0,0,0,0,0,0,0,0,0,0,0,0,0,0,0,0,0
0,0,0,0,0,0,0,0,0,0,0,0,0,0,0,0,1947,1936,1936,1936,1926,1926,1926,1915,1904,1904,1894,1894,1894,1883,1883,1883,1883,1883,1873,1873,1873,1863,1863,1863,1853,1853,1843,1843,1843,1833,1833,1833,1833,1833,1833,1833,1833,1833,1833,1833,1813,1813,1813,1813,1813,1813,1804,1804,1794,1794,1804,1794,1794,1794,1794,1794,1794,1794,1794,1785,1785,1776,1776,1776,1776,1766,1766,1766,1757,1757,1757,1757,1757,1757,1757,1757,1757,1748,1748,1739,1739,1739,1739,1731,1731,1731,1731,1731,1731,1722,1722,1722,1722,1722,1722,1722,1722,1722,1722,1713,1713,1713,1713,1713,1705,1705,1696,1696,1696,1696,1696,1696,1696,1696,1688,1688,1688,1688,1688,1688,1688,1680,1680,1671,1671,1671,1671,1663,1663,1663,1663,1663,1663,1663,1655,1655,1655,1655,1655,1647,1647,1639,1639,1639,1639,1632,1632,1632,1639,1639,1647,1655,1655,1655,1655,1655,1655,1663,1663,2053,2040,2040,2040,2028,2028,2016,2016,2005,2005,1981,1970,1970,1959,1959,1632,1632,1624,1624,1624,1624,1624,1624,1624,1624,1624,1632,1632,1632,1632,1632,1639,1632,1632,1639,1639,1647,1647,1647,1647,1647,1647,1655,1655,1655,1655,1655,1655,1655,1655,0,1047,1047,1047,1044,1041,1041,1038,1034,1034,1031,1031,1031,1034,1034,1034,1034,1034,1034,1038,1038,1038,1038,1038,1041,1041,1041,1044,1041,1041,0,0,0,0,0,1722,1722,1731,1731,1731,1731,1731,1739,1739,1748,1748,1757,1757,1757,1757,1757,1757,1757,1766,1766,1766,1766,1766,1766,1766,1776,1776,1776,1776,1785,1776,1766,1757,1757,1757,1757,1748,1739,1731,1731,1722,1713,1713,1705,1705,1705,0,0,0,0,0,0,0,0,829,827,815,813,811,811,809,809,807,805,803,802,800,796,796,794,794,794,794,794,794,794,796,798,800,800,802,802,803,803,805,805,805,805,807,807,0,0,0,0,0,0,0,1489,1489,1489,1489,1489,1489,1489,1489,1483,1477,1470,1470,1470,1464,1464,1464,1464,1458,1445,1445,1445,1439,1439,1433,1427,1427,1427,1421,1421,1415,1415,1410,1404,1398,1398,1392,1392,1392,1387,1381,1376,1370,1370,1370,1370,1365,1359,1354,1354,1354,1349,1349,1349,1349,1343,1338,1333,1333,1333,1322,1322,1317,1312,1312,1312,1307,1307,1302,1302,1292,1292,1292,1288,1288,1283,1283,1278,1273,1273,1268,1268,1264,1264,1259,1259,1255,1250,1245,1245,1245,1241,1241,1236,1236,1236,1232,1232,1227,1219,1219,1219,1214,1214,1210,1210,1206,1202,1202,1202,1202,1197,1197,1189,1189,1185,1185,1181,1181,1177,1177,1177,1173,1169,1169,1165,1165,1161,1161,1157,1153,1153,1149,1145,1141,1141,1138,1138,1138,1134,1134,1130,1126,1123,1123,1123,1119,1119,1115,1115,1108,1108,1112,1112,1108,1105,1105,1101,1097,1097,1094,1094,1090,1090,1090,1087,1084,1080,1080,1077,1077,1077,1077,1073,1073,1070,1070,1067,1063,1063,1063,1060,1057,1054,1054,1050,1050,1050,1047,1047,1044,1041,1041,1038,1038,1034,1034,1031,1031,1028,1028,1025,1025,1022,1019,1019,1016,1016,1013,1010,1010,1007,1007,1004,1004,1004,1001,1001,1001,998,998,995,992,992,989,989,987,984,981,981,978,978,975,973,973,970,970,967,964,964,962,962,959,959,956,956,951,951,948,948,948,946,943,943,0,0,0,0,0,0,0,0,0,0,0,0,0,0,0,0,0,0,0,0,0,0,0,0,0,0,0,0,0,0
0,0,0,0,0,0,0,0,0,0,0,0,0,0,0,0,1947,1936,1936,1936,1936,1926,1926,1915,1904,1904,1904,1894,1894,1894,1894,1894,1883,1883,1873,1873,1873,1863,1863,1873,1863,1853,1843,1843,1843,1843,1843,1833,1833,1833,1833,1833,1833,1833,1833,1833,1833,1833,1823,1823,1813,1813,1804,1804,1804,1804,1804,1794,1794,1794,1794,1794,1794,1794,1785,1785,1785,1785,1785,1776,1776,1776,1776,1766,1766,1766,1766,1766,1757,1757,1757,1757,1757,1748,1748,1739,1739,1739,1739,1731,1731,1731,1731,1731,1731,1722,1722,1722,1722,1722,1722,1722,1722,1722,1722,1722,1722,1722,1722,1722,1713,1705,1705,1705,1696,1696,1696,1696,1688,1688,1688,1688,1688,1688,1688,1688,1688,1688,1680,1680,1680,1671,1671,1671,1663,1663,1663,1663,1663,1663,1655,1655,1655,1655,1655,1655,1647,1647,1639,1639,1639,1639,1632,1632,1639,1639,1647,1655,1655,1655,1655,1663,1663,1663,1663,1663,2053,2053,2040,2028,2028,2028,2016,2005,2005,1981,1981,1970,1970,1970,1632,1632,1624,1624,1624,1624,1624,1624,1624,1624,1624,1632,1632,1632,1632,1632,1639,1639,1639,1639,1639,1647,1647,1647,1647,1647,1655,1655,1655,1655,1655,1655,1655,1655,1655,0,1047,1047,1047,1044,1041,1041,1038,1034,1034,1034,1031,1031,1034,1034,1034,1034,1034,1038,1038,1038,1038,1038,1041,1041,1044,1044,1044,1041,1041,0,0,0,0,0,1731,1731,1731,1731,1731,1731,1731,1739,1739,1748,1757,1757,1757,1757,1757,1766,1766,1766,1766,1766,1766,1766,1766,1766,1776,1776,1776,1776,1776,1785,1776,1766,1766,1757,1757,1757,1748,1739,1731,1731,1722,1713,1713,1705,1705,1705,0,0,0,0,0,0,0,0,829,827,813,813,811,811,809,809,807,805,803,802,800,796,796,794,794,794,794,794,796,796,798,798,800,800,802,803,805,805,805,805,805,807,807,809,0,0,0,0,0,0,0,1489,1489,1489,1489,1489,1489,1489,1489,1483,1477,1477,1470,1470,1464,1464,1464,1464,1458,1445,1445,1445,1445,1439,1433,1433,1427,1427,1421,1421,1415,1415,1410,1404,1404,1398,1392,1392,1392,1387,1381,1376,1376,1376,1370,1370,1365,1365,1359,1354,1354,1354,1349,1349,1349,1343,1338,1338,1338,1333,1333,1322,1317,1312,1312,1312,1307,1307,1302,1302,1292,1292,1292,1288,1288,1283,1283,1278,1278,1273,1273,1268,1268,1264,1259,1259,1255,1250,1250,1250,1245,1241,1241,1236,1236,1236,1232,1232,1227,1227,1219,1219,1214,1214,1210,1210,1210,1206,1202,1202,1202,1197,1197,1193,1189,1185,1185,1181,1181,1181,1177,1177,1173,1169,1169,1165,1165,1161,1161,1157,1153,1153,1153,1149,1145,1141,1141,1138,1138,1138,1134,1130,1126,1126,1123,1123,1119,1119,1115,1115,1108,1108,1112,1112,1108,1105,1105,1101,1101,1097,1097,1094,1094,1090,1090,1090,1084,1084,1080,1080,1080,1077,1077,1073,1073,1070,1070,1067,1063,1063,1063,1060,1057,1054,1054,1050,1050,1050,1047,1047,1044,1041,1041,1041,1038,1038,1034,1034,1031,1028,1028,1025,1025,1025,1022,1022,1016,1016,1013,1010,1010,1007,1007,1007,1004,1004,1001,1001,1001,998,998,995,992,992,989,989,987,984,984,981,978,978,975,975,973,970,970,967,967,967,967,964,962,959,959,959,956,954,951,951,948,946,946,946,0,0,0,0,0,0,0,0,0,0,0,0,0,0,0,0,0,0,0,0,0,0,0,0,0,0,0,0,0,0
0,0,0,0,0,0,0,0,0,0,0,0,0,0,0,0,1936,1936,1936,1926,1926,1926,1926,1915,1915,1915,1904,1904,1894,1894,1894,1894,1883,1883,1873,1873,1873,1873,1873,1873,1863,1863,1843,1843,1843,1843,1843,1833,1833,1833,1833,1833,1833,1833,1833,1833,1823,1823,1823,1823,1813,1813,1813,1804,1804,1804,1804,1794,1794,1794,1794,1794,1794,1794,1785,1785,1785,1785,1776,1776,1776,1766,1766,1766,1766,1766,1766,1766,1766,1757,1757,1766,1757,1757,1757,1757,1757,1739,1739,1739,1731,1731,1731,1731,1731,1731,1722,1722,1722,1722,1722,1722,1722,1722,1722,1722,1722,1722,1722,1713,1713,1713,1705,1705,1705,1696,1696,1696,1688,1688,1688,1688,1688,1688,1688,1688,1688,1688,1680,1680,1680,1680,1680,1680,1663,1663,1663,1663,1663,1663,1655,1655,1655,1655,1655,1655,1647,1647,1639,1639,1639,1639,1639,1639,1639,1639,1647,1655,1655,1655,1663,1663,1663,1663,1663,1663,2053,2053,2053,2040,2040,2028,2016,2016,2005,1993,1981,1970,1970,1970,1970,1632,1632,1632,1632,1632,1624,1624,1624,1624,1624,1632,1632,1632,1632,1632,1639,1639,1639,1639,1639,1647,1647,1647,1647,1647,1655,1655,1655,1655,1655,1647,1647,1655,1655,0,1047,1047,1047,1047,1044,1041,1038,1034,1034,1034,1031,1031,1034,1034,1034,1034,1034,1038,1038,1038,1038,1041,1041,1044,1044,1044,1044,1041,1041,0,0,0,0,1731,1731,1731,1731,1731,1739,1739,1739,1739,1748,1748,1757,1757,1757,1757,1757,1766,1766,1766,1766,1766,1766,1766,1766,1766,1766,1776,1776,1776,1776,1785,1776,1766,1766,1757,1757,1757,1748,1739,1731,1731,1722,1722,1713,1705,1705,1705,0,0,0,0,0,0,0,0,0,0,813,813,811,811,809,809,807,805,803,802,800,796,796,796,794,794,794,796,796,796,798,800,802,802,803,803,805,805,805,807,807,807,807,809,0,0,0,0,0,0,0,1489,1489,1489,1489,1489,1489,1489,1489,1483,1483,1477,1470,1470,1464,1464,1464,1464,1464,1458,1452,1445,1439,1439,1433,1433,1427,1427,1421,1421,1415,1415,1410,1404,1404,1398,1392,1392,1392,1387,1381,1376,1376,1376,1376,1370,1370,1365,1365,1359,1354,1354,1349,1349,1349,1349,1343,1338,1333,1333,1333,1322,1317,1312,1312,1312,1307,1307,1307,1302,1297,1292,1292,1288,1288,1283,1283,1278,1278,1273,1273,1268,1268,1268,1264,1259,1255,1250,1250,1250,1245,1241,1241,1236,1236,1236,1232,1232,1227,1227,1219,1219,1219,1214,1210,1210,1210,1206,1202,1202,1202,1197,1197,1193,1189,1189,1185,1185,1185,1181,1181,1177,1177,1173,1169,1165,1165,1165,1161,1157,1153,1153,1153,1149,1145,1145,1141,1138,1138,1134,1134,1130,1130,1130,1126,1123,1123,1123,1119,1115,1115,1115,1112,1112,1108,1105,1105,1101,1097,1097,1097,1094,1094,1090,1090,1090,1087,1084,1080,1080,1080,1077,1077,1073,1073,1070,1070,1067,1067,1063,1063,1060,1060,1057,1054,1054,1054,1050,1047,1047,1044,1041,1041,1041,1038,1038,1038,1034,1031,1028,1028,1028,1025,1025,1022,1022,1016,1016,1016,1013,1013,1010,1007,1007,1004,1004,1001,1001,1001,998,998,995,992,992,989,989,987,987,984,981,981,978,978,975,973,973,970,970,967,967,967,967,962,959,959,959,956,954,954,951,951,948,946,946,0,0,0,0,0,0,0,0,0,0,0,0,0,0,0,0,0,0,0,0,0,0,0,0,0,0,0,0,0,0
0,0,0,0,0,0,0,0,0,0,0,0,0,0,0,0,1936,1936,1936,1926,1926,1926,1915,1915,1915,1915,1904,1904,1894,1894,1894,1894,1883,1883,1873,1873,1873,1873,1873,1873,1873,1863,1843,1843,1843,1843,1843,1833,1833,1833,1833,1833,1833,1833,1833,1833,1823,1823,1823,1823,1813,1813,1813,1813,1804,1804,1804,1804,1794,1794,1794,1794,1794,1794,1785,1785,1785,1785,1776,1776,1776,1766,1766,1766,1766,1766,1766,1766,1766,1766,1766,1766,1757,1757,1757,1757,1757,1739,1739,1739,1739,1731,1731,1731,1731,1731,1722,1722,1722,1722,1722,1722,1722,1722,1722,1722,1722,1722,1722,1713,1713,1713,1705,1705,1705,1705,1696,1696,1696,1696,1696,1696,1696,1688,1688,1688,1688,1688,1688,1688,1680,1680,1680,1680,1671,1663,1663,1663,1663,1663,1663,1663,1663,1663,1663,1655,1647,1647,1647,1647,1639,1639,1639,1639,1647,1647,1655,1655,1655,1655,1663,1663,1663,1663,1663,1663,2053,2053,2053,2040,2040,2040,2028,2016,2005,1993,1993,1981,1981,1981,1981,1639,1632,1632,1632,1632,1632,1624,1624,1632,1632,1632,1632,1632,1639,1639,1639,1639,1639,1639,1639,1647,1647,1647,1655,1655,1655,1655,1655,1655,1655,1647,1647,1655,0,0,0,1047,1047,1047,1044,1041,1038,1038,1034,1034,1034,1034,1034,1034,1034,1034,1038,1038,1038,1038,1038,1041,1044,1044,1044,1044,1044,1047,0,0,0,0,0,1731,1731,1731,1731,1731,1739,1739,1739,1748,1748,1748,1757,1757,1757,1757,1757,1766,1766,1766,1766,1766,1766,1766,1766,1766,1766,1766,1776,1776,1776,1785,1766,1766,1766,1757,1757,1757,1748,1739,1731,1731,1722,1722,1713,1705,1705,1705,0,0,0,0,0,0,0,0,0,815,813,813,811,811,809,809,807,805,803,802,800,798,796,796,796,796,796,796,796,796,798,800,802,802,803,803,805,805,805,807,807,807,807,809,0,0,0,0,0,0,0,1496,1489,1489,1496,1496,1496,1489,1489,1483,1483,1477,1477,1470,1470,1464,1464,1464,1458,1458,1452,1445,1439,1439,1433,1433,1433,1427,1421,1421,1415,1415,1410,1404,1404,1398,1398,1392,1392,1387,1387,1376,1376,1376,1376,1370,1370,1370,1365,1359,1354,1354,1349,1349,1349,1349,1343,1338,1333,1333,1333,1322,1322,1317,1312,1312,1312,1307,1307,1302,1297,1297,1292,1288,1288,1288,1283,1278,1278,1273,1273,1273,1268,1268,1264,1259,1255,1255,1250,1250,1245,1241,1241,1236,1236,1236,1236,1232,1232,1227,1219,1219,1219,1214,1210,1210,1210,1206,1202,1202,1202,1202,1197,1193,1189,1189,1185,1185,1185,1181,1181,1181,1177,1173,1169,1165,1165,1165,1161,1161,1153,1153,1149,1149,1149,1145,1141,1138,1138,1134,1134,1134,1130,1130,1126,1123,1123,1123,1119,1119,1115,1115,1112,1112,1108,1105,1105,1101,1097,1097,1097,1094,1094,1090,1090,1090,1090,1084,1080,1080,1080,1077,1077,1073,1073,1070,1070,1067,1067,1067,1063,1060,1060,1057,1054,1054,1054,1050,1050,1047,1044,1044,1041,1041,1041,1038,1038,1034,1031,1028,1028,1028,1025,1025,1022,1022,1016,1016,1016,1013,1013,1010,1007,1007,1004,1004,1001,1001,1001,998,998,995,995,992,992,989,989,987,984,984,981,981,978,978,975,975,973,970,970,967,967,967,962,959,959,959,956,954,954,954,951,948,946,946,0,0,0,0,0,0,0,0,0,0,0,0,0,0,0,0,0,0,0,0,0,0,0,0,0,0,0,0,0,0
0,0,0,0,0,0,0,0,0,0,0,0,0,0,0,0,1936,1936,1936,1926,1926,1926,1915,1915,1915,1915,1915,1904,1904,1894,1894,1894,1883,1883,1883,1873,1873,1873,1873,1873,1873,1873,1873,1853,1843,1843,1843,1843,1843,1843,1843,1833,1833,1833,1833,1833,1823,1823,1823,1823,1823,1813,1813,1813,1813,1804,1804,1804,1804,1794,1794,1794,1794,1794,1785,1785,1785,1785,1785,1794,1776,1776,1794,1776,1776,1766,1766,1766,1766,1766,1766,1766,1766,1757,1757,1757,1757,1748,1748,1739,1739,1739,1739,1731,1731,1731,1731,1731,1731,1731,1731,1731,1722,1722,1722,1722,1722,1722,1722,1713,1713,1713,1705,1705,1705,1705,1696,1696,1696,1696,1696,1696,1696,1696,1696,1696,1696,1688,1688,1688,1688,1688,1680,1680,1671,1671,1671,1663,1663,1663,1663,1663,1663,1663,1663,1655,1655,1647,1647,1647,1647,1647,1647,1647,1647,1647,1655,1655,1655,1655,1655,1655,1655,1655,1655,1663,2053,2053,2053,2053,2053,2040,2028,2028,2005,1993,1993,1981,1981,1981,1981,1639,1639,1632,1632,1632,1632,1632,1632,1632,1632,1632,1632,1632,1639,1639,1639,1639,1647,1639,1639,1647,1647,1647,1655,1655,1655,1655,1655,1655,1655,1647,1647,1647,0,0,0,1047,1047,1047,1044,1041,1038,1038,1034,1034,1034,1034,1034,1034,1034,1034,1038,1038,1038,1038,1038,1041,1044,1044,1047,1047,1047,1047,0,0,0,0,0,1731,1731,1731,1731,1731,1739,1748,1748,1748,1748,1757,1757,1757,1757,1757,1757,1766,1766,1766,1766,1766,1766,1766,1766,1766,1766,1766,1776,1776,1776,1776,1766,1766,1766,1766,1757,1757,1748,1739,1731,1731,1722,1722,1722,1713,1713,1713,0,0,0,0,0,0,0,0,0,815,813,813,811,811,809,809,807,805,803,802,800,798,796,796,796,796,796,796,796,798,798,800,802,802,803,803,805,805,807,807,809,809,807,807,0,0,0,0,0,0,0,1496,1489,1489,1496,1496,1496,1489,1489,1483,1483,1477,1477,1470,1470,1464,1464,1464,1458,1458,1452,1445,1445,1439,1439,1433,1433,1427,1427,1421,1415,1415,1410,1410,1404,1398,1398,1398,1392,1392,1387,1387,1381,1381,1376,1370,1370,1370,1359,1354,1354,1354,1354,1349,1349,1349,1343,1338,1333,1333,1333,1328,1322,1317,1317,1312,1312,1307,1307,1307,1302,1302,1292,1292,1292,1288,1283,1283,1278,1278,1273,1273,1268,1268,1264,1264,1259,1255,1255,1250,1250,1245,1241,1241,1236,1236,1236,1232,1232,1232,1223,1223,1219,1214,1214,1210,1210,1206,1206,1206,1202,1202,1202,1197,1189,1189,1185,1185,1185,1181,1181,1181,1177,1173,1169,1165,1165,1165,1165,1161,1153,1149,1149,1149,1149,1149,1145,1141,1138,1138,1134,1134,1134,1130,1130,1126,1123,1123,1123,1119,1119,1115,1115,1112,1108,1105,1105,1105,1101,1097,1097,1097,1094,1094,1094,1090,1090,1084,1084,1080,1080,1077,1077,1073,1073,1070,1070,1067,1067,1067,1063,1060,1060,1057,1054,1054,1054,1050,1050,1047,1047,1044,1041,1041,1041,1041,1038,1034,1031,1028,1028,1028,1028,1025,1025,1022,1019,1016,1016,1016,1013,1010,1010,1007,1007,1004,1004,1004,1001,1001,998,995,995,992,992,989,989,987,987,984,981,981,978,978,975,975,973,973,970,970,967,967,962,962,959,959,956,956,954,954,954,948,948,948,0,0,0,0,0,0,0,0,0,0,0,0,0,0,0,0,0,0,0,0,0,0,0,0,0,0,0,0,0,0
0,0,0,0,0,0,0,0,0,0,0,0,0,0,0,0,1936,1936,1936,1926,1926,1926,1926,1926,1926,1915,1915,1915,1904,1894,1894,1894,1883,1883,1883,1873,1873,1873,1873,1873,1873,1873,1873,1873,1853,1843,1843,1843,1843,1843,1843,1843,1833,1833,1833,1833,1823,1823,1823,1823,1823,1823,1823,1813,1813,1804,1804,1804,1804,1794,1794,1804,1804,1794,1794,1794,1794,1794,1794,1794,1794,1794,1785,1785,1785,1776,1766,1766,1766,1766,1766,1766,1766,1757,1757,1757,1757,1748,1748,1748,1739,1739,1739,1731,1731,1731,1731,1731,1731,1731,1731,1731,1731,1731,1731,1722,1722,1722,1722,1713,1713,1713,1713,1713,1713,1705,1705,1696,1696,1696,1696,1696,1696,1696,1696,1696,1696,1688,1688,1688,1688,1688,1688,1680,1680,1671,1671,1671,1663,1663,1663,1663,1663,1663,1663,1655,1655,1655,1647,1647,1647,1647,1647,1655,1655,1655,1655,1655,1655,1655,1655,1655,1655,1655,1655,1663,2053,2040,2040,2053,2053,2040,2040,2028,2005,2005,1993,1981,1981,1993,1981,1981,1639,1639,1639,1632,1632,1632,1632,1632,1632,1632,1632,1632,1639,1647,1647,1647,1647,1647,1647,1647,1647,1655,1655,1655,1655,1655,1655,1655,1655,1647,1647,1647,0,0,0,1047,1047,1047,1047,1041,1038,1038,1034,1034,1034,1034,1034,1034,1034,1038,1038,1041,1041,1041,1041,1044,1044,1044,1047,1047,1047,1047,0,0,0,0,0,1731,1731,1731,1731,1731,1739,1748,1748,1748,1748,1757,1757,1757,1757,1757,1757,1766,1766,1766,1766,1766,1766,1766,1766,1766,1766,1776,1776,1776,1776,1776,1766,1766,1766,1766,1757,1757,1748,1748,1731,1731,1722,1722,1713,1713,1713,1713,0,0,0,0,0,0,0,0,0,0,813,811,811,811,809,809,807,805,803,802,800,800,798,796,796,796,796,796,798,798,798,802,802,802,803,803,805,805,807,807,809,809,807,807,809,0,0,0,0,0,0,0,1489,1489,1489,1496,1496,1496,1489,1489,1489,1483,1477,1470,1470,1464,1464,1464,1458,1458,1452,1445,1445,1439,1439,1433,1433,1427,1427,1421,1421,1415,1410,1410,1404,1398,1398,1398,1392,1392,1387,1387,1381,1381,1376,1370,1370,1370,1359,1354,1354,1354,1354,1354,1349,1349,1343,1338,1333,1333,1333,1328,1322,1322,1317,1317,1312,1312,1307,1307,1302,1302,1297,1292,1292,1288,1288,1283,1278,1278,1273,1273,1268,1268,1268,1264,1259,1259,1255,1255,1250,1245,1245,1241,1236,1236,1236,1232,1232,1227,1227,1223,1219,1214,1214,1214,1210,1206,1206,1206,1202,1202,1202,1197,1193,1189,1189,1185,1185,1185,1181,1181,1177,1173,1169,1165,1165,1165,1165,1161,1153,1149,1149,1149,1149,1149,1145,1141,1138,1138,1138,1134,1134,1134,1130,1126,1126,1123,1123,1119,1119,1119,1115,1108,1108,1108,1105,1105,1101,1101,1097,1097,1094,1094,1094,1090,1090,1087,1084,1080,1080,1080,1077,1077,1073,1073,1070,1067,1067,1067,1063,1060,1060,1057,1054,1054,1054,1050,1050,1050,1047,1044,1044,1044,1041,1041,1038,1034,1031,1028,1028,1028,1028,1028,1025,1022,1019,1016,1016,1016,1013,1010,1010,1007,1007,1004,1004,1004,1001,1001,998,995,995,992,992,989,989,989,987,987,981,981,981,978,978,975,973,973,970,970,970,967,962,962,959,959,959,956,956,954,954,951,948,948,0,0,0,0,0,0,0,0,0,0,0,0,0,0,0,0,0,0,0,0,0,0,0,0,0,0,0,0,0,0
0,0,0,0,0,0,0,0,0,0,0,0,0,0,0,0,1936,1936,1936,1926,1926,1926,1926,1926,1926,1915,1915,1915,1904,1904,1904,1894,1883,1883,1883,1883,1873,1873,1873,1873,1873,1873,1873,1873,1863,1863,1853,1853,1843,1843,1843,1843,1833,1833,1833,1833,1823,1823,1823,1823,1823,1823,1823,1823,1813,1813,1804,1804,1804,1804,1804,1804,1804,1804,1794,1794,1794,1794,1794,1794,1794,1794,1785,1785,1785,1785,1766,1766,1766,1766,1766,1766,1766,1766,1766,1757,1757,1757,1757,1757,1748,1748,1748,1739,1731,1731,1731,1731,1731,1731,1731,1731,1731,1731,1731,1731,1731,1722,1722,1722,1722,1713,1713,1713,1713,1713,1705,1705,1696,1696,1696,1696,1696,1696,1696,1696,1696,1688,1688,1688,1688,1688,1688,1680,1680,1671,1671,1671,1671,1663,1663,1663,1663,1663,1663,1655,1655,1655,1647,1647,1647,1647,1647,1655,1655,1655,1655,1647,1647,1655,1655,1655,1663,1663,1663,1663,2040,2040,2040,2040,2040,2040,2040,2028,2005,1993,1993,1981,1981,1981,1981,1981,1647,1639,1639,1639,1632,1632,1632,1632,1632,1632,1632,1639,1639,1647,1647,1647,1647,1647,1647,1647,1647,1655,1655,1655,1655,1655,1655,1655,1655,1655,1655,1655,0,0,0,1047,1047,1047,1047,1041,1038,1038,1034,1034,1034,1034,1034,1034,1034,1038,1038,1041,1041,1041,1041,1044,1044,1047,1047,1047,1047,1047,0,0,0,0,0,1731,1731,1731,1731,1731,1739,1748,1748,1748,1748,1757,1757,1757,1757,1757,1757,1766,1766,1766,1766,1766,1766,1766,1776,1766,1766,1776,1776,1776,1776,1776,1776,1766,1766,1766,1766,1757,1757,1748,1739,1731,1722,1722,1713,1713,1713,1713,0,0,0,0,0,0,0,0,0,0,813,811,811,811,809,809,807,805,803,802,800,798,798,796,796,796,796,798,798,798,800,802,803,803,803,805,805,807,807,809,809,811,811,809,809,0,0,0,0,0,0,0,1489,1489,1489,1496,1496,1496,1489,1489,1489,1483,1483,1477,1470,1464,1464,1464,1458,1458,1452,1445,1445,1439,1439,1433,1433,1427,1427,1421,1421,1415,1415,1410,1404,1398,1398,1398,1392,1392,1387,1387,1381,1381,1376,1376,1370,1370,1365,1359,1354,1354,1354,1354,1354,1349,1349,1338,1338,1338,1333,1328,1328,1322,1317,1317,1312,1312,1307,1307,1307,1302,1297,1292,1292,1288,1288,1288,1283,1278,1273,1273,1268,1268,1268,1268,1259,1259,1255,1255,1250,1250,1245,1241,1236,1236,1236,1232,1232,1227,1227,1223,1219,1219,1214,1214,1214,1210,1206,1206,1202,1202,1202,1197,1193,1193,1189,1189,1185,1185,1181,1181,1177,1173,1169,1169,1165,1165,1165,1161,1153,1153,1149,1149,1149,1149,1145,1141,1138,1138,1138,1134,1134,1134,1130,1126,1126,1123,1123,1123,1123,1119,1115,1108,1108,1108,1108,1105,1105,1101,1101,1097,1097,1094,1094,1090,1090,1090,1084,1080,1080,1080,1077,1077,1077,1073,1070,1070,1067,1067,1063,1060,1060,1060,1057,1054,1054,1050,1050,1050,1047,1047,1044,1044,1041,1041,1038,1038,1034,1031,1028,1028,1028,1028,1025,1025,1022,1019,1016,1016,1013,1010,1010,1007,1007,1004,1004,1004,1001,1001,998,995,995,992,992,989,989,989,987,987,984,981,981,978,978,975,973,973,970,970,970,967,962,962,959,959,959,956,956,956,954,951,948,948,0,0,0,0,0,0,0,0,0,0,0,0,0,0,0,0,0,0,0,0,0,0,0,0,0,0,0,0,0,0
0,0,0,0,0,0,0,0,0,0,0,0,0,0,0,0,1947,1947,1936,1936,1926,1926,1926,1926,1926,1926,1915,1915,1915,1904,1904,1894,1894,1883,1883,1883,1883,1883,1883,1883,1883,1873,1873,1873,1873,1863,1863,1863,1853,1853,1853,1843,1843,1833,1833,1833,1823,1823,1823,1823,1823,1823,1823,1823,1823,1813,1804,1804,1804,1804,1804,1804,1804,1804,1794,1794,1794,1794,1794,1794,1794,1794,1794,1785,1785,1785,1776,1776,1766,1766,1766,1766,1766,1766,1766,1757,1757,1757,1757,1757,1757,1757,1757,1739,1739,1739,1739,1731,1731,1731,1731,1731,1731,1731,1731,1731,1731,1722,1722,1722,1722,1722,1713,1713,1722,1713,1713,1705,1696,1696,1696,1696,1696,1696,1696,1696,1696,1688,1688,1688,1688,1688,1688,1688,1680,1680,1671,1671,1671,1671,1663,1663,1671,1663,1663,1663,1655,1655,1655,1655,1655,1655,1655,1647,1647,1655,1655,1647,1647,1655,1655,1655,1663,1663,1663,1680,2040,2040,2040,2040,2040,2040,2028,2016,1993,1981,1981,1981,1981,1981,1981,1981,1970,1647,1639,1639,1632,1632,1632,1632,1632,1632,1632,1639,1647,1647,1647,1647,1647,1647,1647,1647,1647,1655,1655,1655,1655,1655,1655,1655,1655,1655,1655,1655,1655,0,1047,1047,1047,1047,1047,1041,1038,1038,1034,1034,1034,1034,1034,1034,1034,1038,1038,1041,1041,1041,1044,1044,1047,1047,1047,1047,1047,1047,0,0,0,0,0,1739,1731,1731,1731,1731,1739,1739,1748,1748,1748,1757,1757,1757,1757,1757,1757,1766,1766,1766,1766,1766,1776,1776,1776,1776,1776,1776,1776,1776,1785,1766,1766,1766,1766,1766,1766,1757,1757,1757,1748,1731,1731,1722,1713,1713,1713,1722,0,0,0,0,0,0,0,0,0,0,813,813,811,811,811,809,807,805,803,802,800,798,798,796,796,796,798,798,798,800,800,802,803,803,803,805,807,809,809,811,811,811,811,811,811,0,0,0,0,0,0,0,1496,1496,1496,1496,1496,1496,1496,1489,1489,1483,1483,1477,1470,1464,1464,1464,1458,1458,1452,1445,1445,1439,1439,1433,1433,1427,1427,1421,1421,1415,1415,1410,1404,1398,1398,1398,1392,1392,1387,1387,1381,1381,1376,1376,1370,1365,1365,1359,1354,1354,1354,1354,1354,1349,1349,1338,1338,1338,1333,1328,1328,1322,1322,1317,1312,1312,1312,1307,1307,1302,1302,1292,1292,1288,1288,1288,1283,1283,1278,1273,1273,1273,1268,1268,1259,1259,1255,1255,1250,1250,1245,1245,1241,1236,1236,1232,1232,1227,1227,1223,1219,1219,1214,1214,1214,1210,1210,1206,1206,1202,1202,1197,1197,1193,1189,1189,1185,1185,1181,1181,1177,1177,1169,1169,1165,1165,1165,1161,1161,1161,1153,1153,1149,1149,1149,1141,1138,1138,1138,1138,1134,1134,1134,1130,1126,1126,1123,1123,1123,1119,1115,1112,1108,1108,1108,1105,1105,1105,1101,1101,1097,1094,1094,1094,1090,1090,1084,1084,1084,1080,1077,1077,1077,1073,1073,1070,1067,1067,1063,1060,1060,1060,1057,1054,1054,1050,1050,1050,1050,1047,1044,1044,1041,1041,1041,1038,1034,1031,1028,1028,1028,1028,1025,1025,1022,1022,1019,1016,1016,1010,1010,1007,1007,1004,1004,1004,1001,1001,998,995,995,992,992,989,989,989,989,987,984,984,981,981,978,975,975,973,973,970,970,967,962,962,959,959,959,956,956,956,954,954,951,951,0,0,0,0,0,0,0,0,0,0,0,0,0,0,0,0,0,0,0,0,0,0,0,0,0,0,0,0,0,0
0,0,0,0,0,0,0,0,0,0,0,0,0,0,0,0,1947,1947,1947,1936,1926,1926,1926,1926,1926,1926,1915,1915,1915,1904,1904,1894,1883,1883,1883,1883,1883,1883,1883,1883,1883,1873,1873,1873,1873,1863,1863,1863,1863,1853,1853,1853,1843,1833,1833,1833,1823,1823,1823,1833,1823,1823,1823,1823,1823,1813,1804,1804,1804,1804,1804,1804,1804,1804,1794,1794,1794,1794,1794,1794,1794,1794,1794,1794,1785,1785,1785,1785,1776,1776,1766,1766,1766,1766,1766,1766,1766,1766,1757,1757,1757,1757,1757,1748,1739,1739,1739,1731,1731,1739,1739,1739,1731,1731,1731,1731,1731,1731,1731,1722,1722,1722,1722,1722,1722,1713,1713,1705,1705,1705,1705,1696,1696,1696,1696,1696,1696,1688,1688,1688,1688,1688,1688,1688,1680,1680,1680,1680,1671,1671,1671,1671,1671,1663,1663,1663,1655,1655,1655,1655,1655,1655,1655,1647,1647,1655,1655,1655,1655,1655,1655,1655,1663,1663,1663,1671,2040,2040,2028,2028,2040,2040,1981,1981,1981,1981,1981,1981,1981,1981,1981,1981,1970,1647,1647,1639,1639,1632,1632,1632,1632,1632,1639,1639,1647,1647,1647,1647,1647,1647,1647,1647,1655,1655,1655,1655,1655,1655,1655,1655,1663,1655,1655,1655,1655,0,1050,1050,1050,1047,1047,1044,1041,1038,1038,1038,1034,1034,1038,1038,1038,1038,1038,1041,1044,1044,1044,1047,1047,1047,1050,1047,1047,1047,0,0,0,0,0,1739,1739,1731,1731,1739,1739,1739,1748,1748,1757,1757,1757,1757,1757,1757,1757,1766,1766,1766,1766,1776,1776,1776,1776,1776,1776,1776,1776,1785,1776,1766,1766,1766,1766,1766,1766,1757,1757,1757,1748,1739,1731,1731,1722,1722,1722,1722,0,0,0,0,0,0,0,0,0,0,0,813,811,811,811,809,807,805,803,802,800,798,798,798,798,798,798,798,800,800,802,802,803,803,805,805,807,809,811,811,813,813,813,813,813,0,0,0,0,0,0,0,1496,1496,1496,1496,1496,1496,1496,1489,1489,1483,1483,1477,1470,1470,1464,1464,1458,1458,1452,1445,1445,1439,1439,1433,1433,1433,1427,1421,1421,1421,1415,1415,1410,1404,1398,1398,1392,1392,1392,1387,1387,1381,1381,1376,1370,1365,1365,1359,1359,1354,1354,1354,1354,1349,1349,1338,1338,1338,1333,1328,1328,1322,1322,1317,1312,1312,1312,1307,1307,1302,1302,1292,1292,1292,1288,1288,1283,1283,1278,1273,1273,1273,1268,1268,1259,1259,1255,1255,1250,1250,1245,1245,1241,1236,1236,1232,1232,1232,1227,1227,1223,1219,1219,1214,1214,1210,1210,1206,1206,1202,1202,1197,1197,1193,1189,1189,1189,1185,1185,1181,1177,1177,1177,1169,1169,1165,1165,1165,1161,1161,1157,1153,1153,1149,1149,1141,1141,1138,1138,1138,1134,1134,1134,1130,1126,1126,1123,1123,1123,1119,1115,1112,1112,1108,1108,1105,1105,1105,1101,1101,1097,1094,1094,1094,1090,1090,1084,1084,1084,1080,1080,1077,1077,1077,1073,1070,1070,1067,1063,1060,1060,1060,1057,1054,1054,1050,1050,1050,1050,1047,1047,1044,1041,1041,1041,1038,1034,1031,1028,1028,1028,1028,1025,1025,1025,1022,1019,1019,1016,1013,1010,1007,1007,1004,1004,1004,1001,1001,998,995,995,992,992,992,989,989,989,989,987,984,981,981,978,975,975,973,973,970,970,967,964,962,959,959,959,956,956,956,954,954,951,951,0,0,0,0,0,0,0,0,0,0,0,0,0,0,0,0,0,0,0,0,0,0,0,0,0,0,0,0,0,0
0,0,0,0,0,0,0,0,0,0,0,0,0,0,0,0,1947,1947,1947,1936,1936,1926,1926,1926,1926,1926,1915,1915,1915,1904,1904,1894,1883,1883,1883,1883,1883,1883,1883,1883,1883,1873,1873,1873,1873,1873,1863,1863,1863,1853,1853,1853,1843,1833,1833,1833,1823,1823,1823,1833,1823,1823,1833,1833,1823,1823,1804,1804,1804,1804,1804,1804,1804,1804,1804,1804,1804,1804,1794,1794,1794,1794,1794,1794,1794,1794,1785,1785,1785,1785,1766,1766,1766,1766,1766,1766,1766,1766,1766,1766,1757,1757,1757,1748,1748,1748,1739,1739,1739,1739,1739,1739,1731,1731,1731,1731,1731,1731,1731,1722,1722,1722,1722,1722,1722,1713,1713,1713,1705,1705,1705,1696,1696,1696,1696,1696,1696,1696,1696,1688,1688,1688,1680,1680,1680,1680,1680,1680,1680,1671,1671,1671,1671,1671,1671,1663,1663,1663,1655,1655,1655,1655,1655,1647,1647,1655,1655,1655,1655,1655,1655,1655,1663,1663,1663,1663,1671,2040,2016,2016,2005,1981,1959,1959,1970,1970,1970,1970,1970,1981,1981,1981,1981,1639,1639,1639,1639,1632,1632,1639,1639,1639,1639,1639,1647,1647,1647,1647,1647,1647,1655,1655,1655,1655,1655,1663,1655,1655,1655,1655,1663,1663,1663,1663,1663,0,1050,1050,1050,1047,1047,1044,1041,1038,1038,1038,1038,1038,1038,1038,1038,1038,1041,1041,1044,1044,1044,1047,1047,1050,1050,1050,1047,1047,0,0,0,0,0,1739,1739,1731,1731,1739,1739,1748,1748,1748,1757,1757,1757,1757,1757,1757,1766,1766,1766,1766,1776,1776,1776,1776,1785,1785,1785,1776,1776,1776,1757,1757,1757,1766,1766,1766,1766,1766,1757,1757,1748,1739,1731,1722,1722,1722,1722,1722,0,0,0,0,0,0,0,0,0,0,0,813,813,811,811,809,807,807,805,803,802,798,798,798,798,798,798,798,800,800,802,803,803,803,805,805,809,811,811,811,813,813,813,813,815,0,0,0,0,0,0,0,1496,1496,1503,1503,1503,1503,1496,1489,1489,1483,1483,1477,1470,1470,1464,1464,1464,1458,1452,1445,1445,1445,1439,1433,1433,1433,1427,1427,1421,1421,1415,1415,1410,1404,1404,1398,1398,1392,1392,1387,1387,1381,1381,1376,1376,1370,1365,1359,1359,1354,1354,1354,1354,1349,1349,1343,1338,1338,1333,1328,1328,1328,1322,1317,1317,1312,1312,1307,1307,1302,1302,1292,1292,1292,1288,1288,1283,1283,1278,1278,1273,1273,1268,1268,1264,1259,1255,1255,1250,1250,1250,1250,1241,1241,1241,1236,1232,1232,1232,1227,1223,1219,1219,1214,1214,1210,1210,1206,1206,1202,1202,1197,1197,1193,1193,1189,1189,1185,1185,1181,1181,1181,1177,1169,1169,1165,1165,1165,1161,1161,1157,1153,1153,1149,1149,1145,1141,1141,1138,1138,1134,1134,1134,1130,1130,1126,1123,1123,1123,1119,1115,1115,1112,1112,1108,1108,1105,1105,1105,1101,1097,1094,1094,1094,1090,1090,1087,1084,1084,1080,1080,1080,1077,1077,1077,1073,1070,1067,1063,1060,1060,1060,1057,1054,1054,1054,1050,1050,1050,1047,1047,1044,1044,1041,1041,1038,1038,1031,1028,1028,1028,1028,1025,1025,1025,1022,1022,1019,1016,1016,1013,1010,1010,1007,1007,1004,1004,1001,1001,998,995,992,992,992,989,989,989,989,987,987,984,981,981,978,975,975,973,970,970,967,964,962,962,959,959,956,956,956,956,954,951,951,0,0,0,0,0,0,0,0,0,0,0,0,0,0,0,0,0,0,0,0,0,0,0,0,0,0,0,0,0,0
0,0,0,0,0,0,0,0,0,0,0,0,0,0,0,0,1959,1959,1947,1936,1936,1926,1926,1926,1926,1926,1915,1915,1915,1894,1894,1904,1883,1883,1883,1883,1883,1883,1883,1873,1873,1873,1873,1873,1873,1873,1873,1873,1863,1863,1863,1863,1843,1843,1843,1833,1833,1823,1823,1833,1823,1823,1833,1833,1833,1823,1813,1804,1804,1813,1804,1804,1804,1794,1794,1794,1794,1794,1794,1794,1794,1794,1794,1794,1794,1794,1785,1785,1785,1785,1776,1766,1766,1766,1766,1766,1766,1766,1766,1766,1766,1757,1757,1757,1748,1748,1739,1739,1739,1739,1739,1739,1731,1731,1731,1731,1731,1731,1731,1731,1722,1722,1722,1722,1722,1722,1713,1713,1705,1705,1705,1705,1705,1696,1696,1696,1696,1696,1696,1688,1688,1688,1680,1680,1680,1680,1680,1680,1680,1680,1671,1671,1671,1671,1671,1663,1663,1663,1655,1655,1655,1655,1655,1655,1655,1655,1655,1655,1655,1655,1655,1655,1663,1663,1663,1663,1663,1843,1843,1981,1970,1959,1959,1959,1947,1947,1959,1959,1959,1959,1959,1981,1632,1632,1632,1632,1632,1632,1632,1632,1639,1639,1639,1639,1647,1647,1647,1647,1647,1655,1655,1655,1655,1655,1655,1655,1655,1655,1655,1655,1663,1663,1663,1663,0,1054,1050,1050,1047,1047,1047,1044,1041,1041,1038,1038,1038,1038,1038,1038,1038,1038,1041,1044,1044,1044,1044,1047,1047,1050,1050,1050,1050,1050,0,0,0,0,0,1739,1739,1731,1731,1739,1739,1748,1748,1748,1757,1757,1757,1757,1757,1757,1766,1766,1766,1766,1776,1776,1785,1785,1785,1785,1785,1776,1776,1776,1757,1757,1757,1766,1766,1766,1766,1766,1757,1757,1748,1739,1731,1722,1722,1722,1722,1722,0,0,0,0,0,0,0,0,0,0,0,811,811,811,811,809,807,805,805,803,800,798,798,798,798,798,798,800,800,802,802,803,803,805,805,807,809,811,811,813,813,813,813,813,815,0,0,0,0,0,0,0,1503,1503,1503,1509,1503,1503,1496,1489,1489,1483,1483,1477,1470,1470,1464,1464,1464,1458,1452,1445,1445,1445,1439,1439,1439,1433,1433,1427,1421,1421,1421,1415,1415,1410,1404,1404,1398,1398,1392,1392,1387,1381,1381,1381,1376,1370,1365,1359,1359,1359,1354,1354,1354,1354,1349,1343,1338,1338,1333,1333,1328,1328,1322,1317,1317,1312,1312,1312,1307,1307,1302,1297,1292,1292,1288,1288,1288,1283,1278,1278,1273,1273,1268,1268,1264,1264,1259,1255,1255,1255,1250,1250,1245,1241,1241,1236,1236,1232,1232,1223,1223,1219,1219,1219,1214,1210,1210,1210,1206,1202,1202,1197,1197,1197,1193,1189,1189,1185,1185,1181,1181,1181,1177,1173,1169,1169,1165,1165,1161,1161,1157,1153,1153,1153,1149,1145,1141,1141,1141,1138,1134,1134,1134,1130,1130,1126,1126,1123,1123,1119,1119,1115,1115,1112,1108,1108,1108,1105,1105,1105,1101,1097,1094,1094,1090,1087,1087,1084,1084,1080,1080,1080,1077,1077,1077,1073,1073,1070,1063,1060,1060,1060,1057,1054,1054,1054,1050,1050,1050,1050,1047,1044,1041,1041,1041,1038,1038,1034,1031,1028,1028,1028,1025,1025,1025,1022,1022,1019,1016,1013,1013,1010,1010,1007,1007,1004,1004,1004,1001,1001,998,998,995,992,992,992,989,989,987,987,984,984,981,978,975,975,973,970,967,967,964,964,962,959,959,959,959,956,956,954,951,951,0,0,0,0,0,0,0,0,0,0,0,0,0,0,0,0,0,0,0,0,0,0,0,0,0,0,0,0,0,0
0,0,0,0,0,0,0,0,0,0,0,0,0,0,0,0,1959,1959,1947,1936,1936,1926,1926,1926,1926,1926,1915,1915,1915,1894,1894,1904,1883,1883,1883,1883,1883,1883,1883,1873,1873,1873,1873,1873,1873,1873,1873,1873,1863,1863,1863,1863,1853,1843,1843,1833,1833,1833,1833,1833,1823,1823,1833,1833,1823,1823,1813,1804,1804,1813,1804,1804,1804,1794,1794,1794,1794,1794,1794,1794,1794,1794,1794,1794,1794,1794,1785,1785,1785,1785,1776,1766,1766,1766,1766,1766,1766,1766,1766,1766,1766,1757,1757,1757,1748,1748,1748,1739,1739,1748,1748,1739,1739,1739,1731,1731,1731,1731,1731,1731,1722,1722,1722,1722,1722,1722,1722,1713,1713,1713,1713,1705,1705,1705,1705,1705,1705,1696,1696,1696,1688,1688,1688,1688,1688,1680,1680,1680,1680,1680,1680,1680,1680,1680,1671,1671,1663,1663,1663,1663,1655,1655,1655,1655,1655,1655,1655,1655,1655,1655,1655,1655,1663,1663,1663,1655,1655,1843,1833,1833,1959,1947,1947,1947,1936,1936,1947,1947,1947,1947,1947,1947,1632,1632,1632,1632,1632,1632,1632,1632,1639,1639,1639,1639,1647,1647,1647,1655,1655,1655,1655,1655,1655,1655,1663,1655,1655,1655,1655,1663,1663,1663,1663,0,0,1054,1054,1050,1047,1047,1047,1044,1041,1041,1038,1038,1038,1038,1038,1038,1038,1041,1041,1044,1044,1044,1047,1047,1047,1050,1050,1050,1047,1047,0,0,0,0,0,1739,1739,1731,1731,1739,1739,1748,1748,1748,1757,1757,1757,1757,1757,1757,1766,1766,1776,1776,1776,1785,1785,1785,1785,1785,1785,1776,1776,1776,1757,1757,1757,1766,1766,1766,1766,1766,1766,1757,1757,1739,1731,1722,1722,1722,1722,1722,0,0,0,0,0,0,0,0,0,0,0,811,811,811,811,809,807,805,805,803,800,800,798,798,798,798,800,800,802,802,803,803,805,805,807,809,809,811,811,813,813,813,813,813,815,0,0,0,0,0,0,0,1503,1503,1509,1509,1509,1503,1503,1496,1489,1489,1483,1477,1477,1470,1470,1464,1464,1464,1452,1452,1445,1445,1439,1439,1439,1433,1433,1427,1421,1421,1421,1415,1415,1410,1404,1404,1398,1398,1398,1392,1392,1387,1387,1381,1376,1376,1370,1365,1365,1359,1359,1359,1354,1354,1349,1343,1343,1338,1333,1333,1328,1328,1322,1317,1317,1312,1312,1312,1307,1307,1302,1297,1292,1292,1288,1288,1288,1283,1278,1278,1273,1273,1268,1268,1264,1259,1259,1255,1255,1255,1250,1250,1245,1241,1241,1236,1236,1232,1232,1223,1223,1219,1219,1219,1214,1214,1214,1210,1206,1202,1202,1202,1197,1197,1193,1193,1189,1185,1185,1185,1181,1181,1177,1173,1169,1169,1165,1165,1165,1161,1157,1157,1153,1153,1149,1145,1145,1141,1141,1138,1138,1134,1134,1130,1130,1130,1126,1123,1123,1123,1119,1115,1115,1112,1108,1108,1108,1105,1105,1105,1101,1097,1094,1094,1090,1087,1087,1084,1084,1080,1080,1080,1080,1080,1077,1077,1073,1073,1070,1063,1060,1060,1057,1057,1054,1054,1054,1050,1050,1050,1047,1044,1041,1041,1041,1038,1038,1038,1031,1028,1028,1028,1025,1025,1025,1022,1022,1019,1016,1013,1013,1010,1010,1007,1007,1004,1004,1004,1001,1001,1001,998,998,992,992,992,989,989,987,987,984,984,981,978,978,975,973,970,967,967,964,964,962,962,959,959,959,956,956,954,951,951,0,0,0,0,0,0,0,0,0,0,0,0,0,0,0,0,0,0,0,0,0,0,0,0,0,0,0,0,0,0
0,0,0,0,0,0,0,0,0,0,0,0,0,0,0,0,1970,1959,1959,1947,1936,1936,1926,1926,1926,1926,1915,1915,1915,1904,1904,1904,1894,1883,1883,1894,1883,1883,1883,1883,1883,1883,1883,1873,1873,1873,1873,1873,1873,1863,1863,1863,1853,1843,1843,1843,1833,1833,1833,1833,1833,1833,1833,1833,1823,1823,1813,1813,1813,1804,1804,1804,1804,1804,1804,1804,1804,1794,1794,1794,1794,1794,1794,1794,1794,1794,1785,1785,1794,1776,1776,1776,1776,1776,1776,1776,1766,1766,1766,1766,1766,1766,1757,1757,1748,1748,1748,1739,1739,1748,1748,1748,1739,1739,1739,1739,1739,1731,1731,1731,1731,1722,1722,1722,1722,1722,1722,1713,1713,1713,1713,1705,1705,1705,1705,1705,1705,1696,1696,1696,1688,1688,1688,1688,1688,1680,1680,1680,1680,1680,1680,1680,1680,1680,1680,1671,1663,1663,1663,1663,1655,1655,1655,1655,1655,1655,1655,1655,1655,1663,1663,1663,1663,1663,1663,1655,1655,1843,1833,1833,1915,1926,1926,1926,1926,1926,1926,1936,1936,1926,1926,1926,1632,1632,1632,1632,1632,1632,1632,1632,1639,1639,1639,1639,1647,1647,1655,1655,1655,1655,1655,1655,1655,1655,1663,1663,1663,1663,1663,1663,1663,1663,1671,1671,0,1054,1054,1050,1050,1047,1047,1044,1041,1041,1041,1038,1038,1038,1038,1041,1041,1041,1041,1044,1044,1044,1047,1047,1047,1050,1050,1050,1047,1047,0,0,0,0,0,1739,1739,1739,1739,1739,1748,1748,1748,1757,1757,1757,1757,1757,1766,1766,1766,1776,1776,1776,1785,1785,1785,1785,1785,1785,1785,1785,1785,1785,1757,1757,1766,1766,1766,1766,1766,1766,1766,1757,1757,1748,1739,1722,1722,1722,1722,0,0,0,0,0,0,0,0,0,0,0,815,811,811,811,811,809,809,807,805,803,800,800,800,800,800,800,800,800,802,803,803,803,805,807,809,809,811,811,813,813,813,813,813,815,815,0,0,0,0,0,0,0,1516,1509,1509,1509,1509,1503,1496,1496,1489,1489,1483,1483,1477,1477,1470,1470,1464,1464,1464,1452,1452,1445,1445,1439,1439,1439,1433,1427,1427,1421,1421,1415,1415,1410,1410,1404,1404,1398,1398,1392,1392,1387,1387,1387,1381,1376,1370,1370,1365,1365,1359,1359,1354,1354,1349,1343,1343,1333,1333,1333,1333,1328,1322,1322,1317,1317,1312,1312,1312,1307,1307,1302,1292,1292,1288,1288,1288,1283,1283,1278,1278,1273,1273,1268,1264,1259,1259,1255,1255,1250,1250,1250,1245,1245,1241,1236,1236,1232,1232,1223,1223,1219,1219,1219,1214,1214,1214,1210,1210,1202,1202,1202,1202,1197,1197,1193,1189,1189,1185,1185,1181,1181,1177,1173,1169,1169,1165,1165,1165,1161,1161,1157,1153,1153,1149,1145,1145,1141,1141,1141,1138,1134,1134,1130,1130,1130,1126,1123,1123,1123,1119,1119,1115,1115,1112,1108,1108,1105,1105,1105,1101,1097,1097,1094,1090,1087,1087,1084,1084,1080,1080,1080,1080,1080,1077,1077,1073,1073,1063,1063,1060,1060,1057,1057,1054,1054,1054,1054,1054,1050,1047,1044,1041,1041,1041,1038,1038,1038,1031,1028,1028,1028,1025,1025,1025,1022,1022,1019,1016,1013,1013,1010,1010,1007,1007,1007,1004,1004,1004,1001,1001,998,998,992,992,992,989,989,987,987,984,984,981,978,978,975,973,970,967,967,967,964,964,962,959,959,959,956,956,956,954,954,0,0,0,0,0,0,0,0,0,0,0,0,0,0,0,0,0,0,0,0,0,0,0,0,0,0,0,0,0,0
