0,0,0,0,0,0,0,0,0,0,0,0,0,0,0,2103,2103,2103,2103,0,0,0,0,0,0,0,0,0,0,0,0,0,0,0,0,0,0,0,829,827,825,823,823,819,817,817,817,817,817,817,817,819,827,825,823,821,821,823,819,819,819,817,817,817,815,815,825,813,811,811,817,817,815,815,813,813,811,809,809,809,811,811,811,811,811,815,811,809,807,807,807,807,803,803,803,805,805,807,807,807,807,807,805,805,803,803,803,802,802,803,803,805,809,809,805,805,803,803,807,807,809,807,807,807,807,807,802,802,802,802,802,802,802,802,802,803,802,800,796,790,790,796,800,800,800,800,800,800,800,800,800,803,803,803,803,802,802,802,800,800,800,800,796,796,796,796,796,796,794,794,796,794,794,792,792,790,790,789,789,790,790,789,789,789,789,789,789,789,789,789,789,790,789,789,789,789,790,789,789,787,787,787,789,789,789,789,789,789,787,787,789,789,787,787,787,787,787,783,783,785,789,787,787,787,789,787,787,787,789,789,790,780,776,776,776,778,778,778,778,778,778,780,781,781,783,783,785,785,785,787,789,789,790,790,792,792,794,796,796,798,798,800,802,802,803,805,807,807,809,809,811,811,811,819,819,819,819,819,821,823,825,827,827,829,831,835,837,841,841,843,847,847,847,849,849,851,854,858,860,860,862,864,864,867,867,867,867,867,869,869,869,869,871,871,873,875,878,878,880,880,880,882,885,885,885,887,889,889,887,887,0,0,0,0,0,0,0,1705,1696,1696,1696,1688,1688,1688,1680,1680,1671,1671,1663,1663,1655,1655,1647,1647,1639,1632,1632,1624,1616,1616,1609,1609,1601,1601,1601,1594,1594,1579,1579,1579,1572,1572,1572,1564,1557,1557,1550,1550,1550,1543,1543,1536,1529,1523,1523,1516,1516,1516,1509,1509,1503,1496,1489,1489,1489,1483,1483,1483,1477,1477,1470,1470,1464,1464,1464,1452,1452,1445,1445,1439,1439,1439,1439,1433,1427,1427,1421,1415,1415,1415,1410,1410,1404,1398,1392,1392,1387,1387,1387,1381,1376,1376,1370,1370,1370,1365,1365,1359,1359,1354,1354,1349,1349,1343,1338,1338,1333,1333,1333,1328,1328,1322,1322,1317,1312,1312,1312,1307,1307,1307,1302,1297,1297,1292,1292,1288,1288,1288,1283,1283,1278,1273,1268,1268,1264,1264,1259,1259,1255,1255,1255,1250,1250,1241,1236,1236,1232,1232,1232,1232,1232,1232,1227,1227,1223,1219,1214,1210,1206,1202,1202,1197,1197,1197,1197,1193,1189,1189,1185,1185,1185,1181,1181,1177,1177,1169,1169,1165,1165,1165,1165,1161,1157,1157,1153,1153,1149,1149,1145,1141,1141,1138,1138,1134,1134,1134,1130,1123,1123,1123,1119,1119,1119,1119,1112,1112,1108,1108,1105,1105,1101,1097,1097,1094,1094,1090,1090,1090,1087,1087,1084,1084,1080,1080,1077,1077,1077,1073,1070,1070,1067,1067,1063,1063,1060,1060,1060,1057,1054,1054,1050,1047,1047,1044,1044,1041,1041,1038,1038,1034,1034,1031,1031,1028,1025,1025,1025,1022,1022,1019,1019,1016,1016,1013,1013,1013,1010,1010,1010,0,0,0,0,0,0,0,0,0,0,0,0,0,0,0,0,0,0,0,0,0,0,0,0,0,0,0,0,0,0,0
0,0,0,0,0,0,0,0,0,0,0,0,0,0,0,2103,2103,2103,2103,0,0,0,0,0,0,0,0,0,0,0,0,0,0,0,0,0,0,0,829,825,819,819,819,817,817,815,815,813,813,811,809,805,803,803,805,803,802,800,800,815,815,811,809,809,809,807,805,805,803,803,803,811,811,811,811,811,809,807,807,807,807,807,807,807,803,803,809,803,803,805,803,802,802,802,802,802,802,802,802,802,803,803,803,802,800,800,798,796,796,800,800,802,805,805,805,803,802,802,803,803,803,803,803,803,803,803,800,798,798,796,796,794,794,796,794,794,796,792,790,789,789,790,794,794,794,794,794,796,794,794,794,790,790,802,802,800,800,794,794,794,796,796,794,794,792,792,792,792,790,790,792,790,790,789,789,787,787,785,785,785,783,783,781,781,783,783,783,783,783,785,785,785,785,785,785,785,787,783,783,785,785,785,787,787,787,787,787,785,785,785,785,783,781,781,781,781,781,780,780,780,780,781,781,785,783,781,781,781,781,776,776,776,774,774,776,776,776,778,778,778,778,780,781,781,781,783,783,785,785,787,789,790,790,792,792,792,794,796,796,798,800,802,802,803,803,805,807,809,809,809,811,813,815,819,819,819,821,823,827,827,829,829,831,833,833,837,841,841,841,847,849,849,851,851,851,856,856,858,860,862,862,864,864,867,867,867,867,869,869,869,869,869,871,873,875,875,878,878,880,880,880,882,885,885,887,887,889,889,889,889,889,0,0,0,0,0,0,1705,1696,1696,1696,1688,1688,1688,1680,1680,1671,1671,1663,1663,1663,1655,1655,1655,1639,1639,1632,1624,1624,1616,1616,1609,1609,1609,1601,1594,1594,1579,1579,1579,1572,1572,1572,1564,1564,1557,1557,1550,1550,1543,1543,1536,1536,1529,1523,1523,1523,1516,1516,1509,1503,1503,1496,1489,1489,1489,1483,1483,1477,1477,1470,1470,1470,1464,1464,1452,1452,1445,1445,1439,1439,1439,1439,1433,1427,1427,1421,1421,1415,1415,1410,1410,1404,1398,1398,1392,1392,1392,1387,1381,1376,1376,1376,1370,1370,1370,1365,1365,1359,1354,1354,1349,1349,1343,1338,1338,1333,1333,1333,1328,1328,1328,1322,1317,1312,1312,1312,1307,1307,1307,1302,1297,1297,1292,1292,1288,1288,1288,1283,1283,1278,1273,1268,1268,1268,1264,1259,1259,1259,1255,1255,1250,1250,1245,1236,1236,1232,1232,1232,1232,1232,1232,1227,1227,1223,1219,1214,1210,1206,1202,1202,1197,1197,1197,1197,1193,1189,1189,1189,1185,1185,1181,1181,1177,1177,1173,1169,1169,1165,1165,1165,1161,1161,1157,1153,1153,1149,1149,1145,1145,1141,1138,1138,1134,1134,1134,1130,1130,1123,1123,1119,1119,1119,1119,1115,1112,1108,1108,1108,1105,1105,1101,1097,1094,1094,1094,1094,1090,1090,1087,1084,1084,1084,1080,1080,1077,1077,1073,1070,1070,1067,1067,1067,1063,1063,1060,1060,1057,1054,1054,1054,1050,1047,1044,1044,1041,1041,1041,1038,1038,1034,1034,1031,1031,1028,1028,1025,1025,1025,1022,1019,1019,1016,1016,1013,1013,1013,1010,1010,0,0,0,0,0,0,0,0,0,0,0,0,0,0,0,0,0,0,0,0,0,0,0,0,0,0,0,0,0,0,0
0,0,0,0,0,0,0,0,0,0,0,0,0,0,0,2103,2103,2103,2103,2103,0,0,0,0,0,0,0,0,0,0,0,0,0,0,0,0,0,0,0,825,817,817,815,813,809,809,805,805,805,805,805,803,802,802,802,802,800,800,800,802,803,803,802,798,798,802,802,802,802,800,800,802,805,807,807,807,805,805,803,803,802,802,802,803,802,802,803,802,802,802,802,800,800,798,798,798,798,798,798,800,800,798,796,796,796,796,794,792,792,794,796,796,796,798,802,802,800,798,798,798,802,800,800,798,798,798,796,794,790,790,790,789,789,789,789,789,789,789,789,789,789,789,789,789,790,789,789,789,789,787,783,781,780,780,802,798,792,792,792,790,790,790,789,789,790,790,789,789,789,785,785,785,785,785,787,783,783,783,783,783,783,781,781,781,781,781,781,781,781,783,783,783,783,783,780,780,780,778,778,778,780,781,781,783,781,781,781,780,780,780,781,780,780,780,780,780,780,780,778,778,773,769,769,769,769,769,769,769,771,773,773,774,774,774,774,776,776,778,778,778,778,780,781,781,781,783,783,785,785,787,789,790,790,792,794,794,794,796,796,798,800,802,802,803,805,807,809,811,811,811,813,813,815,819,819,821,823,829,831,831,831,835,837,839,839,839,843,845,847,847,849,851,851,854,856,856,858,860,860,862,864,864,864,867,867,867,869,869,869,871,871,871,873,875,878,878,878,880,880,882,882,882,885,885,887,889,889,889,889,889,889,0,0,0,0,0,0,0,1696,1696,1696,1696,1688,1688,1680,1680,1671,1671,1663,1663,1663,1655,1655,1647,1647,1639,1632,1624,1624,1624,1624,1609,1609,1609,1601,1601,1586,1586,1579,1579,1579,1572,1572,1572,1564,1564,1557,1557,1550,1550,1543,1543,1536,1529,1529,1523,1523,1516,1516,1509,1503,1503,1496,1489,1489,1489,1489,1483,1483,1477,1477,1470,1470,1464,1464,1452,1452,1445,1445,1445,1439,1439,1439,1433,1433,1427,1421,1421,1415,1415,1410,1410,1404,1398,1398,1398,1392,1392,1392,1381,1381,1376,1376,1370,1370,1370,1365,1365,1359,1354,1354,1354,1349,1343,1343,1338,1338,1333,1333,1333,1328,1328,1322,1317,1312,1312,1312,1312,1307,1307,1307,1302,1297,1297,1292,1292,1288,1288,1283,1283,1278,1273,1273,1268,1268,1264,1264,1259,1259,1255,1255,1255,1250,1250,1236,1236,1232,1232,1232,1232,1232,1232,1227,1227,1223,1219,1214,1214,1210,1206,1202,1202,1197,1197,1197,1197,1193,1193,1189,1185,1181,1181,1181,1177,1177,1173,1169,1169,1169,1165,1165,1165,1161,1157,1157,1153,1149,1149,1145,1145,1141,1138,1138,1138,1134,1134,1130,1130,1123,1123,1123,1119,1119,1119,1115,1112,1108,1108,1108,1105,1105,1101,1097,1094,1094,1094,1094,1090,1090,1090,1087,1084,1084,1080,1080,1077,1077,1073,1070,1070,1067,1067,1067,1063,1063,1060,1060,1057,1054,1054,1050,1050,1050,1047,1047,1044,1041,1041,1038,1038,1038,1034,1031,1031,1028,1028,1025,1025,1025,1022,1022,1019,1019,1016,1016,1013,1013,1010,1010,0,0,0,0,0,0,0,0,0,0,0,0,0,0,0,0,0,0,0,0,0,0,0,0,0,0,0,0,0,0,0
0,0,0,0,0,0,0,0,0,0,0,0,0,0,0,2103,2103,2103,2103,2103,2103,0,0,0,0,0,0,0,0,0,0,0,0,0,0,0,0,0,0,0,817,817,815,811,809,803,802,802,802,803,803,802,800,800,800,802,800,798,798,800,800,800,800,798,798,800,798,798,798,796,796,802,802,802,802,800,800,802,800,798,796,794,794,787,787,802,803,802,802,800,800,798,798,794,794,794,794,796,796,796,790,790,790,790,789,789,789,789,789,789,790,790,790,789,789,798,794,794,783,783,783,783,783,787,787,787,792,789,787,787,789,785,785,783,783,783,785,785,785,787,787,787,787,787,787,787,787,785,785,783,780,780,776,776,778,781,785,789,789,783,781,781,785,780,776,776,778,778,785,781,781,781,781,781,781,781,781,781,780,780,781,780,780,780,780,780,780,780,780,780,781,781,781,780,776,776,776,776,776,776,776,778,778,780,778,776,776,776,776,776,774,774,776,778,766,766,778,769,767,767,767,766,766,767,767,767,767,767,767,769,773,773,774,774,774,776,776,778,778,778,778,780,781,781,783,785,785,787,787,787,789,790,792,794,794,794,796,796,798,800,802,803,803,805,807,809,811,813,813,815,819,819,823,825,827,829,829,831,833,833,833,837,839,841,843,843,847,849,849,849,849,851,854,856,856,858,860,860,860,862,864,864,864,867,867,867,869,869,871,871,871,871,875,878,878,878,880,880,880,882,882,882,885,885,887,889,889,889,889,889,889,0,0,0,0,0,0,1705,1696,1696,1696,1696,1688,1688,1680,1680,1680,1671,1671,1663,1663,1655,1655,1647,1647,1639,1632,1624,1624,1624,1624,1616,1609,1609,1609,1601,1586,1586,1579,1579,1579,1572,1572,1572,1572,1564,1564,1557,1557,1550,1543,1543,1543,1536,1529,1523,1523,1516,1516,1509,1503,1503,1496,1489,1489,1489,1489,1483,1483,1483,1477,1470,1470,1464,1464,1458,1452,1445,1445,1445,1439,1439,1439,1439,1433,1427,1427,1421,1415,1415,1410,1410,1404,1398,1398,1398,1392,1392,1392,1392,1381,1381,1376,1376,1370,1370,1370,1365,1359,1354,1354,1354,1349,1349,1343,1338,1338,1333,1333,1333,1328,1328,1322,1317,1312,1312,1312,1312,1307,1307,1307,1302,1297,1297,1292,1292,1288,1288,1288,1283,1283,1273,1273,1268,1268,1268,1264,1264,1259,1259,1255,1255,1250,1250,1236,1236,1236,1232,1232,1232,1232,1232,1232,1227,1223,1219,1214,1214,1214,1210,1206,1202,1202,1197,1197,1197,1193,1193,1189,1189,1181,1181,1181,1181,1177,1173,1169,1169,1169,1165,1165,1165,1161,1157,1157,1153,1149,1149,1149,1145,1141,1138,1138,1138,1134,1134,1130,1130,1123,1123,1123,1119,1119,1119,1115,1112,1108,1108,1108,1105,1105,1101,1097,1097,1094,1094,1094,1090,1090,1090,1087,1084,1084,1080,1080,1077,1077,1073,1070,1070,1067,1067,1067,1063,1063,1060,1060,1057,1054,1054,1050,1050,1050,1047,1047,1044,1044,1041,1038,1038,1038,1034,1031,1031,1028,1028,1028,1025,1025,1022,1022,1019,1019,1016,1016,1013,1013,1010,1010,0,0,0,0,0,0,0,0,0,0,0,0,0,0,0,0,0,0,0,0,0,0,0,0,0,0,0,0,0,0,0
0,0,0,0,0,0,0,0,0,0,0,0,0,0,0,2103,2103,2103,2103,2103,2103,2103,0,0,0,0,0,0,0,0,0,0,0,0,0,0,0,0,0,0,817,815,813,811,803,802,802,802,802,800,800,800,798,796,796,798,796,794,794,794,794,794,794,794,794,796,796,796,794,792,792,792,794,790,790,792,794,796,794,792,790,789,789,785,781,781,803,802,802,798,798,794,790,787,785,783,781,781,781,781,783,783,787,787,787,787,787,783,781,781,781,781,783,781,781,781,781,783,781,781,783,783,783,785,783,783,783,783,783,783,785,783,781,781,781,781,780,780,780,783,783,783,783,783,785,785,783,781,781,780,780,776,771,771,771,776,776,783,783,781,778,774,774,774,774,774,774,774,778,778,778,780,780,780,780,778,778,776,774,774,776,776,776,776,778,778,778,778,778,778,778,776,776,774,774,773,773,773,771,771,774,776,778,776,774,774,774,774,773,773,773,773,761,761,761,761,761,761,761,764,766,764,764,766,766,767,767,767,767,769,769,771,773,773,774,774,776,778,778,778,778,780,781,781,783,785,785,787,787,787,789,790,792,794,794,796,796,798,798,802,803,805,805,807,809,811,813,813,815,819,821,823,825,827,829,831,833,833,835,835,837,841,843,843,843,845,847,849,849,851,851,854,856,858,858,860,860,860,862,864,867,867,867,867,867,867,869,869,871,873,873,873,878,878,878,878,880,880,880,882,882,885,887,887,889,889,889,889,891,891,0,0,0,0,0,0,0,1705,1696,1696,1696,1696,1688,1688,1680,1680,1680,1671,1671,1663,1663,1663,1655,1655,1647,1639,1632,1632,1624,1624,1624,1616,1616,1609,1609,1601,1594,1586,1586,1579,1579,1579,1572,1572,1572,1564,1564,1557,1557,1550,1543,1543,1543,1536,1529,1523,1523,1516,1516,1509,1509,1503,1503,1496,1496,1489,1489,1489,1483,1483,1477,1470,1470,1464,1464,1458,1452,1445,1445,1445,1439,1439,1439,1439,1433,1427,1427,1421,1415,1415,1415,1410,1404,1404,1398,1398,1398,1392,1392,1392,1387,1381,1381,1376,1376,1370,1370,1365,1359,1354,1354,1354,1349,1349,1343,1343,1338,1333,1333,1333,1328,1328,1322,1322,1317,1312,1312,1312,1307,1307,1307,1302,1302,1297,1292,1292,1288,1288,1288,1283,1278,1278,1273,1273,1268,1268,1264,1264,1259,1259,1255,1255,1250,1250,1241,1236,1236,1232,1232,1232,1232,1232,1232,1223,1219,1219,1214,1214,1214,1210,1210,1206,1202,1202,1202,1197,1197,1193,1189,1185,1185,1181,1181,1181,1177,1173,1169,1169,1169,1169,1165,1165,1161,1157,1157,1153,1149,1149,1149,1145,1141,1141,1138,1138,1134,1134,1134,1130,1123,1123,1123,1123,1119,1119,1119,1115,1112,1108,1108,1105,1105,1101,1101,1097,1097,1094,1094,1090,1090,1090,1087,1087,1084,1084,1080,1080,1077,1077,1073,1070,1070,1067,1067,1067,1063,1063,1060,1057,1057,1054,1054,1050,1050,1050,1047,1047,1044,1041,1038,1038,1038,1034,1034,1031,1031,1028,1028,1025,1025,1025,1022,1022,1019,1016,1016,1013,1013,1013,1013,0,0,0,0,0,0,0,0,0,0,0,0,0,0,0,0,0,0,0,0,0,0,0,0,0,0,0,0,0,0,0
0,0,0,0,0,0,0,0,0,0,0,0,0,0,0,2116,2103,2103,2103,2103,2103,2103,2103,0,0,0,0,0,0,0,0,0,0,0,0,0,0,0,0,0,0,815,813,813,802,802,800,800,800,798,796,794,792,792,794,794,794,792,792,792,792,792,790,790,794,792,792,792,790,789,787,785,785,789,789,789,790,792,792,790,789,785,783,783,781,781,780,780,803,794,789,785,785,785,783,783,781,781,781,781,783,783,783,783,783,783,785,781,781,780,780,780,780,780,780,780,781,781,781,781,781,781,781,778,778,781,781,781,781,781,783,783,781,778,778,778,776,776,776,780,780,776,776,778,778,780,774,767,767,767,767,769,767,767,767,767,767,773,773,774,774,773,773,773,774,773,773,773,774,774,774,776,776,776,778,778,778,776,773,771,771,769,769,771,773,773,774,774,776,776,774,773,773,773,773,773,773,771,769,769,769,771,780,773,773,771,771,773,773,771,771,762,759,759,761,759,759,759,761,762,764,764,764,766,766,766,767,767,767,769,769,771,773,773,774,774,776,776,778,778,778,781,781,781,783,785,785,787,787,789,789,790,792,794,796,796,798,798,800,802,803,807,807,811,811,813,815,817,819,823,825,825,827,829,831,833,833,835,835,837,839,841,843,843,845,847,847,849,849,851,854,854,856,858,860,860,860,862,862,864,867,867,867,869,869,869,869,871,871,873,873,873,878,878,878,878,880,880,882,882,885,885,887,889,891,891,891,891,891,891,894,0,0,0,0,0,0,1705,1696,1696,1696,1696,1688,1688,1688,1680,1680,1671,1671,1663,1663,1663,1655,1655,1647,1639,1639,1632,1632,1624,1624,1616,1616,1609,1609,1601,1594,1594,1586,1586,1579,1579,1579,1572,1572,1564,1564,1557,1557,1550,1550,1543,1543,1536,1529,1529,1523,1523,1516,1516,1509,1509,1503,1496,1496,1496,1489,1489,1489,1483,1477,1477,1470,1464,1464,1458,1452,1452,1445,1445,1445,1445,1439,1439,1433,1433,1427,1427,1421,1415,1415,1410,1410,1404,1404,1398,1398,1398,1392,1392,1387,1381,1381,1376,1376,1376,1370,1365,1359,1354,1354,1354,1349,1349,1349,1343,1343,1338,1338,1333,1333,1328,1328,1322,1317,1312,1312,1312,1307,1307,1307,1302,1302,1297,1292,1292,1288,1288,1288,1283,1278,1278,1273,1273,1273,1268,1268,1264,1264,1259,1255,1255,1250,1250,1241,1241,1236,1236,1232,1232,1232,1232,1227,1223,1219,1219,1214,1214,1214,1214,1210,1210,1202,1202,1202,1197,1197,1197,1193,1185,1185,1181,1181,1181,1181,1177,1173,1173,1169,1169,1165,1165,1161,1157,1153,1153,1149,1149,1149,1145,1145,1141,1138,1138,1134,1134,1134,1130,1130,1123,1123,1123,1123,1119,1119,1115,1112,1108,1108,1108,1105,1101,1101,1097,1097,1094,1094,1094,1090,1090,1090,1087,1084,1084,1080,1080,1077,1077,1073,1073,1070,1070,1067,1067,1063,1063,1060,1057,1057,1054,1054,1050,1050,1050,1047,1044,1044,1041,1041,1038,1038,1038,1034,1034,1031,1031,1028,1028,1025,1025,1022,1022,1019,1016,1016,1016,1013,1013,1013,0,0,0,0,0,0,0,0,0,0,0,0,0,0,0,0,0,0,0,0,0,0,0,0,0,0,0,0,0,0,0
0,0,0,0,0,0,0,0,0,0,0,0,0,0,0,2116,2116,2116,2116,2103,2103,2103,2103,0,0,0,0,0,0,0,0,0,0,0,0,0,0,0,0,0,0,0,0,0,798,798,798,796,794,792,790,789,789,789,789,789,789,789,789,790,789,789,790,790,792,792,790,790,789,787,785,785,785,785,783,783,785,785,789,789,781,781,780,780,778,776,776,776,776,778,781,783,783,783,783,781,781,780,780,780,780,780,780,781,781,781,781,780,780,778,778,778,776,776,776,776,778,780,780,780,780,780,776,776,776,776,778,778,774,774,774,776,773,773,774,773,773,773,774,774,774,774,774,773,773,771,769,767,767,767,767,767,767,766,766,766,764,764,766,766,771,767,767,771,771,771,769,769,771,771,773,774,773,773,771,767,767,773,769,766,766,767,767,769,769,769,771,771,769,769,769,769,769,769,769,771,771,771,767,767,767,771,773,773,773,771,771,773,771,766,766,759,759,759,759,759,759,759,759,759,761,762,762,766,766,766,767,767,767,769,769,771,773,773,774,774,776,776,778,778,780,781,781,783,783,785,785,787,787,789,789,792,794,796,796,796,800,802,802,803,809,809,811,815,815,817,817,819,823,825,827,827,829,831,833,833,835,837,837,839,841,843,843,843,845,847,849,849,851,851,854,854,856,858,860,860,862,862,864,867,867,867,867,869,869,869,871,871,873,875,875,875,878,878,880,880,880,882,882,885,885,887,889,891,891,894,894,894,894,894,894,0,0,0,0,0,0,0,1696,1696,1696,1696,1688,1688,1688,1680,1680,1671,1671,1671,1663,1663,1663,1663,1647,1639,1639,1632,1632,1624,1624,1616,1616,1609,1609,1601,1594,1594,1594,1586,1579,1579,1579,1572,1572,1572,1564,1564,1557,1550,1550,1543,1543,1536,1536,1529,1523,1523,1516,1516,1516,1509,1503,1496,1496,1496,1496,1489,1489,1489,1483,1477,1470,1470,1464,1464,1458,1452,1445,1445,1445,1445,1445,1439,1439,1433,1433,1427,1421,1415,1415,1415,1410,1410,1404,1404,1398,1398,1392,1392,1387,1381,1381,1381,1376,1376,1370,1365,1359,1354,1354,1349,1349,1349,1349,1349,1343,1343,1338,1338,1333,1328,1328,1322,1317,1317,1312,1312,1312,1307,1307,1307,1302,1297,1292,1292,1288,1288,1288,1283,1283,1278,1273,1273,1273,1268,1268,1268,1264,1259,1255,1255,1255,1250,1245,1241,1236,1236,1232,1232,1232,1232,1227,1223,1219,1219,1214,1214,1214,1214,1210,1210,1202,1202,1202,1197,1197,1197,1193,1185,1185,1181,1181,1181,1181,1177,1173,1173,1169,1169,1165,1165,1161,1157,1153,1153,1149,1149,1149,1149,1145,1141,1138,1138,1138,1134,1134,1134,1130,1123,1123,1123,1123,1123,1119,1115,1115,1112,1108,1108,1105,1101,1101,1097,1097,1094,1094,1094,1090,1090,1090,1087,1087,1084,1080,1080,1077,1077,1073,1073,1070,1070,1067,1067,1063,1063,1060,1057,1057,1054,1054,1050,1050,1050,1047,1044,1044,1041,1041,1038,1038,1038,1034,1034,1034,1031,1028,1028,1028,1025,1025,1022,1019,1016,1016,1016,1013,1013,1013,0,0,0,0,0,0,0,0,0,0,0,0,0,0,0,0,0,0,0,0,0,0,0,0,0,0,0,0,0,0,0
0,0,0,0,0,0,0,0,0,0,0,0,0,0,0,2116,2116,2116,2116,2103,2103,2103,2103,2103,0,0,0,0,0,0,0,0,0,0,0,0,0,0,0,0,0,0,0,0,796,796,796,794,792,789,787,785,785,785,785,785,785,785,787,789,789,789,789,789,789,789,787,787,785,785,783,781,781,781,781,781,780,780,780,781,778,776,776,776,776,774,774,774,774,776,776,776,776,776,781,780,780,780,778,778,778,778,778,778,776,776,776,776,774,774,774,773,773,773,774,773,771,771,773,773,774,774,774,774,774,774,773,773,773,773,773,773,773,771,771,769,769,769,773,771,771,771,769,769,769,767,767,767,767,766,766,766,766,764,764,762,762,762,762,755,755,762,762,764,764,769,766,766,764,764,764,767,762,761,761,761,759,759,762,761,761,762,762,762,762,761,761,764,761,761,762,761,761,761,769,769,771,769,767,767,747,747,749,749,749,749,749,750,750,759,755,755,755,757,759,759,759,759,759,759,761,762,762,764,766,766,767,767,767,769,771,771,773,774,774,776,778,778,778,778,780,781,783,783,783,785,787,787,787,789,789,794,794,796,796,798,802,802,803,807,811,811,813,817,819,819,821,823,825,827,827,829,831,831,833,833,835,837,837,839,843,843,843,845,847,847,849,849,851,851,854,856,858,860,860,862,862,864,864,867,867,869,869,871,871,873,873,873,875,875,875,878,878,880,880,880,880,882,885,887,887,887,889,891,894,894,894,894,896,896,896,0,0,0,0,0,0,0,1696,1696,1696,1696,1696,1688,1688,1680,1680,1680,1671,1671,1663,1663,1663,1663,1647,1647,1639,1632,1632,1624,1624,1624,1616,1609,1609,1601,1601,1594,1594,1586,1579,1579,1579,1572,1572,1572,1572,1564,1550,1550,1550,1543,1543,1536,1536,1529,1529,1523,1516,1516,1516,1509,1503,1496,1496,1496,1496,1489,1489,1489,1483,1477,1470,1470,1464,1464,1458,1458,1452,1445,1445,1445,1445,1439,1439,1433,1433,1427,1421,1421,1415,1415,1410,1410,1410,1404,1404,1398,1398,1392,1387,1381,1381,1381,1376,1376,1370,1370,1365,1354,1354,1349,1349,1349,1349,1349,1343,1343,1343,1338,1333,1333,1328,1328,1322,1317,1312,1312,1312,1307,1307,1307,1302,1297,1292,1292,1292,1288,1288,1288,1283,1278,1273,1273,1273,1273,1268,1268,1264,1259,1255,1255,1255,1250,1245,1241,1236,1236,1236,1236,1232,1232,1227,1223,1219,1219,1219,1214,1214,1214,1214,1210,1206,1202,1202,1197,1197,1197,1189,1185,1185,1185,1181,1181,1181,1177,1177,1173,1173,1169,1169,1165,1165,1161,1153,1153,1153,1149,1149,1149,1145,1141,1138,1138,1138,1138,1134,1134,1130,1123,1123,1123,1123,1123,1119,1115,1115,1112,1108,1108,1105,1101,1101,1097,1097,1094,1094,1094,1090,1090,1090,1087,1087,1084,1080,1080,1077,1077,1073,1073,1073,1070,1067,1067,1063,1063,1060,1057,1057,1054,1054,1050,1050,1050,1047,1047,1044,1041,1041,1038,1038,1038,1034,1034,1034,1031,1028,1028,1028,1025,1025,1022,1019,1019,1016,1016,1016,1016,1016,0,0,0,0,0,0,0,0,0,0,0,0,0,0,0,0,0,0,0,0,0,0,0,0,0,0,0,0,0,0,0
0,0,0,0,0,0,0,0,0,0,0,0,0,0,0,2116,2116,2116,2116,2116,2116,2103,2103,2103,2103,0,0,0,0,0,0,0,0,0,0,0,0,0,0,0,0,0,0,0,796,794,794,792,790,787,785,783,781,781,781,774,774,785,785,785,785,785,783,783,789,785,785,783,783,781,781,780,780,780,780,778,776,776,776,776,773,773,773,773,773,773,773,773,773,774,774,774,774,774,774,778,778,778,776,776,776,774,774,774,774,773,769,769,771,771,771,769,769,771,771,771,767,767,771,771,771,771,771,771,773,771,771,769,769,769,769,771,771,769,769,769,767,767,769,767,767,766,766,766,766,766,766,766,766,766,764,764,764,762,762,761,761,759,755,755,755,755,757,757,759,764,762,761,761,761,759,757,757,757,757,755,755,757,761,759,759,759,757,757,757,757,757,757,757,755,755,755,755,755,755,757,771,769,746,746,746,746,746,746,747,749,749,750,750,754,754,754,754,755,757,759,759,759,759,759,761,762,762,762,766,766,767,767,767,769,771,771,773,774,774,776,778,778,778,780,781,781,783,783,785,787,787,787,789,789,790,794,796,798,798,802,803,803,807,811,815,815,817,819,821,821,823,825,825,827,829,831,833,833,833,833,835,837,837,841,843,843,843,845,847,849,849,851,851,851,856,856,858,860,860,862,862,864,864,867,867,869,869,871,871,873,875,875,878,878,878,880,880,880,880,880,882,885,885,887,887,889,889,891,894,894,894,894,896,896,896,0,0,0,0,0,0,0,1696,1696,1705,1705,1696,1688,1688,1680,1680,1680,1671,1671,1663,1663,1663,1663,1647,1647,1639,1639,1632,1624,1624,1624,1616,1609,1609,1609,1601,1594,1594,1586,1586,1579,1579,1579,1572,1572,1572,1564,1550,1550,1550,1543,1543,1543,1536,1529,1529,1523,1523,1516,1516,1516,1509,1503,1503,1496,1496,1496,1489,1489,1483,1477,1477,1470,1470,1464,1464,1458,1452,1445,1445,1445,1445,1445,1439,1439,1433,1427,1421,1421,1415,1415,1410,1410,1410,1404,1404,1398,1398,1392,1387,1381,1381,1381,1376,1376,1370,1370,1365,1359,1354,1354,1349,1349,1349,1349,1343,1343,1343,1338,1333,1333,1333,1328,1328,1317,1312,1312,1312,1307,1307,1307,1302,1302,1297,1292,1292,1292,1288,1288,1283,1278,1273,1273,1273,1273,1268,1268,1264,1264,1259,1255,1255,1250,1250,1245,1241,1236,1236,1236,1232,1232,1232,1227,1223,1219,1219,1214,1214,1214,1214,1210,1210,1202,1202,1202,1197,1197,1189,1185,1185,1185,1185,1181,1181,1177,1177,1173,1173,1169,1169,1165,1165,1157,1153,1153,1153,1149,1149,1149,1145,1141,1141,1138,1138,1138,1134,1134,1130,1126,1123,1123,1123,1123,1119,1119,1115,1112,1108,1108,1105,1101,1101,1097,1097,1094,1094,1094,1090,1090,1090,1087,1087,1084,1080,1080,1077,1077,1077,1073,1073,1073,1070,1067,1067,1063,1063,1060,1057,1057,1054,1054,1054,1050,1047,1047,1044,1044,1041,1041,1038,1038,1038,1038,1034,1034,1031,1028,1028,1025,1025,1022,1019,1016,1016,1016,1016,1013,1013,0,0,0,0,0,0,0,0,0,0,0,0,0,0,0,0,0,0,0,0,0,0,0,0,0,0,0,0,0,0,0
0,0,0,0,0,0,0,0,0,0,0,0,0,0,0,2116,2116,2116,2116,2116,2116,2116,2103,2103,2103,2116,0,0,0,0,0,0,0,0,0,0,0,0,0,0,0,0,0,0,0,792,792,792,789,787,785,781,781,774,774,773,773,771,771,774,774,778,778,778,780,780,778,778,780,780,780,778,776,773,771,771,769,769,769,767,767,769,769,771,771,771,771,773,773,773,771,771,771,771,771,771,774,774,774,773,773,771,771,771,771,766,766,766,766,766,766,767,766,766,771,769,766,766,764,764,762,761,761,761,761,761,761,762,762,762,762,762,767,766,766,766,766,766,766,764,764,764,762,762,762,762,764,764,764,762,762,762,762,761,761,759,759,755,754,754,754,754,754,755,754,754,755,757,757,757,755,754,754,755,755,754,754,754,759,757,755,755,754,754,754,754,754,754,755,755,755,755,754,754,752,749,747,746,744,744,744,744,744,746,747,749,749,749,750,752,754,754,754,754,755,757,759,759,759,759,761,762,762,762,766,766,767,767,769,771,771,773,774,774,774,776,778,778,778,780,781,781,787,787,787,787,787,789,789,790,796,798,798,802,802,809,809,811,813,817,817,819,821,823,823,823,825,825,827,829,831,833,833,833,833,833,835,837,839,841,843,843,845,847,849,849,851,851,854,854,856,858,858,860,860,862,862,864,867,867,869,869,871,873,873,875,875,878,878,878,878,880,880,880,880,880,882,885,887,887,889,889,889,891,894,894,894,896,896,896,898,0,0,0,0,0,0,0,1696,1696,1705,1705,1696,1696,1688,1688,1680,1680,1671,1671,1671,1663,1663,1663,1655,1647,1647,1639,1632,1632,1624,1624,1616,1616,1609,1609,1601,1594,1594,1586,1586,1586,1579,1579,1579,1572,1572,1564,1557,1550,1550,1550,1543,1543,1536,1529,1529,1523,1523,1516,1516,1516,1509,1503,1503,1496,1496,1496,1489,1489,1483,1483,1477,1470,1470,1464,1464,1464,1458,1452,1445,1445,1445,1445,1439,1439,1433,1427,1421,1421,1415,1415,1415,1410,1410,1410,1404,1398,1398,1392,1392,1387,1381,1381,1381,1376,1376,1370,1370,1359,1354,1354,1349,1349,1349,1349,1343,1343,1338,1338,1333,1333,1333,1328,1328,1322,1317,1312,1312,1307,1307,1307,1302,1302,1302,1297,1292,1292,1288,1288,1283,1278,1278,1273,1273,1273,1268,1268,1268,1264,1259,1255,1255,1250,1250,1245,1241,1236,1236,1236,1232,1232,1232,1227,1223,1219,1219,1219,1214,1214,1214,1214,1210,1206,1202,1202,1197,1197,1193,1189,1185,1185,1185,1185,1181,1181,1177,1177,1173,1169,1169,1169,1165,1157,1153,1153,1153,1153,1149,1149,1145,1141,1141,1138,1138,1138,1134,1134,1130,1126,1126,1123,1123,1123,1119,1119,1115,1112,1112,1108,1105,1105,1101,1097,1097,1094,1094,1094,1090,1090,1090,1087,1087,1084,1084,1080,1077,1077,1077,1077,1073,1073,1070,1067,1067,1063,1063,1060,1060,1057,1054,1054,1054,1050,1047,1047,1044,1044,1041,1041,1041,1038,1038,1038,1038,1034,1031,1028,1028,1025,1025,1022,1019,1016,1016,1016,1016,1013,1013,0,0,0,0,0,0,0,0,0,0,0,0,0,0,0,0,0,0,0,0,0,0,0,0,0,0,0,0,0,0,0
0,0,0,0,0,0,0,0,0,0,0,0,0,0,0,2116,2116,2116,2116,2116,2116,2116,2116,2116,2116,2116,0,0,0,0,0,0,0,0,0,0,0,0,0,0,0,0,0,0,790,790,790,790,789,785,783,781,776,774,773,771,767,766,762,762,764,769,762,762,762,762,767,769,769,769,769,774,773,769,769,769,769,767,767,767,767,767,767,767,767,767,767,771,771,771,771,771,769,767,767,767,769,773,773,773,773,767,767,767,764,762,759,759,759,759,759,759,759,759,771,769,757,755,754,754,761,757,757,757,759,759,759,759,759,761,761,761,762,762,762,762,762,762,762,761,759,759,757,757,757,759,761,761,761,761,761,761,761,759,757,757,755,754,752,752,752,752,752,752,752,752,754,755,755,755,754,752,752,754,754,752,750,750,759,752,752,750,749,749,749,754,754,754,754,755,755,754,752,752,750,749,746,746,744,744,744,744,744,746,747,747,747,749,749,752,752,752,754,754,755,757,759,759,759,759,761,762,762,764,766,766,767,767,769,771,771,773,774,774,776,778,778,780,780,781,781,783,787,787,789,790,800,800,798,798,800,802,803,805,809,811,811,811,817,819,819,819,821,823,825,825,825,827,827,829,833,833,833,833,835,835,835,839,841,843,843,845,845,847,849,849,851,854,854,856,858,858,858,860,860,862,864,864,867,867,869,869,871,873,875,875,878,878,878,878,878,880,880,880,882,882,885,887,887,889,889,889,889,891,894,894,896,896,898,898,898,901,0,0,0,0,0,0,1705,1705,1705,1705,1705,1696,1688,1688,1680,1680,1680,1671,1671,1663,1663,1663,1663,1655,1647,1647,1639,1632,1624,1624,1616,1616,1609,1609,1601,1601,1594,1594,1586,1586,1579,1579,1579,1572,1572,1564,1557,1550,1550,1550,1543,1543,1536,1536,1529,1523,1523,1523,1516,1516,1509,1503,1503,1496,1496,1496,1489,1489,1483,1483,1477,1470,1470,1470,1464,1464,1458,1452,1445,1445,1445,1445,1439,1439,1433,1427,1421,1421,1415,1415,1415,1410,1410,1410,1404,1398,1398,1392,1392,1387,1381,1381,1381,1376,1376,1370,1370,1365,1354,1354,1354,1349,1349,1349,1343,1343,1338,1338,1333,1333,1333,1333,1328,1328,1317,1317,1312,1307,1307,1307,1307,1307,1302,1297,1292,1292,1288,1288,1283,1283,1278,1273,1273,1273,1273,1268,1268,1264,1259,1259,1255,1250,1250,1245,1241,1241,1236,1236,1232,1232,1232,1227,1223,1223,1219,1219,1214,1214,1214,1214,1210,1206,1202,1202,1197,1197,1197,1189,1185,1185,1185,1185,1181,1181,1177,1177,1173,1169,1169,1169,1165,1157,1157,1153,1153,1153,1149,1149,1145,1145,1141,1138,1138,1138,1138,1138,1134,1126,1126,1123,1123,1123,1119,1119,1115,1115,1112,1108,1105,1105,1105,1101,1101,1097,1094,1094,1090,1090,1090,1090,1087,1087,1084,1080,1077,1077,1077,1077,1077,1073,1070,1067,1067,1063,1063,1060,1060,1060,1057,1054,1054,1050,1047,1047,1047,1044,1044,1041,1041,1041,1038,1038,1038,1034,1034,1031,1028,1028,1025,1025,1022,1019,1019,1016,1016,1016,1016,0,0,0,0,0,0,0,0,0,0,0,0,0,0,0,0,0,0,0,0,0,0,0,0,0,0,0,0,0,0,0
0,0,0,0,0,0,0,0,0,0,0,0,0,0,0,2116,2116,2116,2116,2116,2116,2116,2103,2103,2103,2090,2090,0,0,0,0,0,0,0,0,0,0,0,0,0,0,0,0,0,790,790,790,790,787,783,781,778,776,773,771,769,764,762,761,759,759,761,761,759,759,761,761,762,762,762,769,769,766,766,767,767,767,766,766,766,766,766,764,764,764,766,766,769,767,767,767,767,767,761,759,757,757,767,767,767,767,762,761,761,757,755,755,757,757,759,757,757,754,749,749,750,752,752,752,752,752,752,752,754,755,755,755,757,757,759,755,755,755,757,761,761,761,761,759,755,755,755,755,755,755,755,755,755,755,755,757,759,757,755,755,755,754,752,752,752,752,752,752,752,750,750,750,752,752,752,750,750,750,752,752,750,749,747,747,752,749,747,746,744,744,752,736,736,736,734,734,734,741,742,742,746,744,744,742,742,744,744,744,746,747,747,747,749,749,750,752,752,754,754,755,757,759,759,761,761,762,762,764,764,766,767,767,769,769,771,773,773,774,774,778,778,780,780,781,781,783,787,787,789,800,800,802,803,803,803,805,809,809,809,811,811,813,813,819,819,819,821,823,823,825,825,825,827,829,831,833,833,833,833,835,835,835,839,841,843,843,845,845,847,849,849,851,854,856,856,858,858,860,860,860,862,864,867,867,869,869,871,873,875,875,878,878,878,878,878,880,880,882,882,882,885,887,887,889,889,889,891,891,894,894,896,896,896,898,898,898,901,906,0,0,0,0,0,0,1705,1705,1705,1705,1696,1696,1688,1688,1680,1680,1671,1671,1663,1663,1663,1663,1655,1647,1647,1639,1632,1632,1624,1624,1616,1609,1609,1601,1601,1601,1594,1586,1586,1579,1579,1579,1572,1572,1564,1557,1550,1550,1550,1543,1543,1543,1536,1529,1523,1523,1523,1523,1516,1516,1509,1509,1503,1496,1496,1496,1489,1483,1483,1477,1470,1470,1470,1470,1464,1464,1452,1452,1452,1445,1445,1439,1439,1439,1427,1421,1421,1421,1415,1415,1415,1410,1410,1404,1398,1398,1392,1392,1387,1381,1381,1376,1376,1376,1376,1370,1365,1365,1354,1354,1354,1349,1349,1343,1343,1338,1338,1333,1333,1333,1333,1333,1328,1322,1317,1312,1312,1312,1307,1307,1307,1302,1302,1297,1292,1288,1288,1288,1283,1278,1278,1273,1273,1273,1268,1268,1264,1264,1259,1255,1250,1250,1250,1245,1241,1236,1236,1236,1232,1232,1227,1223,1223,1219,1219,1214,1214,1214,1214,1210,1206,1202,1202,1197,1197,1197,1189,1189,1185,1185,1185,1185,1181,1177,1177,1173,1169,1169,1169,1165,1161,1157,1153,1153,1153,1149,1149,1149,1145,1141,1141,1141,1138,1138,1138,1134,1130,1126,1123,1123,1123,1119,1119,1119,1115,1115,1108,1105,1105,1105,1101,1101,1097,1097,1094,1094,1090,1090,1090,1087,1087,1084,1080,1080,1077,1077,1077,1077,1073,1073,1070,1067,1063,1063,1063,1060,1060,1057,1054,1054,1050,1050,1047,1047,1047,1044,1041,1041,1041,1038,1038,1038,1034,1034,1031,1028,1028,1025,1025,1025,1019,1019,1016,1016,1016,1016,0,0,0,0,0,0,0,0,0,0,0,0,0,0,0,0,0,0,0,0,0,0,0,0,0,0,0,0,0,0,0
0,0,0,0,0,0,0,0,0,0,0,0,0,0,0,2116,2103,2103,2103,2103,2103,2103,2103,2103,2090,2090,2090,0,0,0,0,0,0,0,0,0,0,0,0,0,0,0,0,0,0,790,790,789,785,783,780,776,774,767,767,762,761,761,759,759,759,759,759,759,759,759,761,761,761,761,762,764,764,762,762,764,764,766,764,764,764,762,762,761,755,755,754,754,766,754,754,755,759,759,757,754,754,755,759,759,759,759,757,754,754,754,754,755,755,755,754,754,752,749,749,749,749,749,749,749,749,750,750,750,752,754,754,754,752,752,752,749,749,750,754,750,750,752,754,754,752,752,752,752,754,754,754,754,754,754,754,755,755,754,754,752,752,750,750,750,750,750,749,749,747,747,747,747,747,747,749,749,749,750,750,749,747,747,747,747,747,744,744,736,734,734,734,734,734,734,734,734,738,739,741,741,742,742,742,742,744,744,746,746,747,747,747,749,749,750,752,752,754,754,755,757,759,759,761,761,762,762,764,764,766,767,767,769,771,773,773,774,776,776,778,780,780,781,781,781,783,789,789,798,802,803,803,803,807,809,809,809,809,811,815,817,817,817,819,819,819,821,823,825,825,825,827,829,831,833,833,833,833,833,835,835,837,839,841,843,845,845,845,847,849,849,851,854,856,856,858,860,860,860,862,862,864,867,867,869,869,871,873,875,875,878,878,878,880,880,880,880,882,882,885,887,887,889,889,889,891,891,894,894,896,896,896,898,898,898,901,903,906,0,0,0,0,0,0,0,1705,1705,1705,1696,1696,1688,1688,1688,1680,1671,1671,1671,1663,1663,1663,1655,1647,1647,1639,1639,1632,1624,1624,1616,1609,1609,1609,1601,1601,1594,1594,1586,1586,1579,1579,1579,1572,1564,1557,1557,1550,1550,1543,1543,1543,1536,1536,1529,1523,1523,1523,1516,1516,1509,1509,1503,1503,1496,1496,1489,1489,1483,1477,1477,1470,1470,1470,1464,1464,1458,1452,1452,1445,1445,1439,1439,1439,1427,1421,1421,1421,1421,1415,1415,1415,1410,1404,1398,1398,1392,1392,1387,1387,1381,1376,1376,1376,1376,1370,1370,1365,1354,1354,1354,1349,1349,1343,1343,1338,1338,1333,1333,1333,1333,1333,1328,1322,1317,1317,1312,1312,1312,1307,1307,1307,1302,1297,1292,1288,1288,1288,1283,1283,1278,1273,1273,1273,1268,1268,1268,1264,1259,1255,1250,1250,1250,1245,1241,1241,1236,1236,1236,1232,1227,1227,1223,1223,1219,1219,1214,1214,1214,1210,1206,1206,1202,1197,1197,1197,1193,1189,1189,1185,1185,1185,1181,1177,1177,1173,1169,1169,1169,1165,1161,1161,1157,1153,1153,1149,1149,1149,1145,1145,1141,1141,1138,1138,1138,1134,1130,1126,1123,1123,1123,1119,1119,1119,1119,1115,1112,1108,1105,1105,1105,1101,1101,1097,1094,1094,1090,1090,1090,1090,1087,1084,1080,1080,1080,1077,1077,1077,1073,1073,1070,1067,1063,1063,1063,1060,1060,1057,1054,1054,1050,1050,1050,1047,1047,1044,1041,1041,1041,1038,1038,1038,1034,1034,1031,1028,1028,1025,1025,1025,1019,1019,1019,1016,1016,1016,0,0,0,0,0,0,0,0,0,0,0,0,0,0,0,0,0,0,0,0,0,0,0,0,0,0,0,0,0,0,0
0,0,0,0,0,0,0,0,0,0,0,0,0,0,0,2103,2103,2103,2103,2103,2103,2103,2103,2103,2090,2090,2078,2078,0,0,0,0,0,0,0,0,0,0,0,0,0,0,0,0,0,789,789,787,783,781,780,776,767,761,761,759,757,757,757,755,755,755,757,757,757,752,752,754,754,755,755,755,757,757,757,759,762,761,761,761,762,761,759,757,755,754,752,752,752,750,750,750,752,754,755,752,752,752,752,752,752,750,750,747,747,747,750,752,752,749,747,747,746,746,746,746,747,747,747,747,747,749,747,747,747,747,747,747,747,747,747,747,747,747,746,742,742,742,742,742,749,747,747,750,750,752,750,750,752,752,752,752,749,749,749,750,749,747,747,747,747,747,744,744,744,744,744,746,746,746,747,747,747,749,749,749,746,744,744,734,734,734,734,734,734,734,734,734,734,734,734,734,736,739,739,741,741,741,741,742,742,744,744,746,747,747,747,749,749,750,752,752,754,754,755,759,759,761,761,761,762,762,764,766,766,767,769,771,773,773,774,774,778,780,781,781,783,781,781,794,792,792,796,798,802,803,803,803,809,809,809,809,811,813,817,817,817,819,819,821,821,821,823,825,825,827,827,829,831,833,833,835,835,835,835,835,837,839,841,845,845,845,847,847,849,849,851,854,856,858,858,860,860,860,862,864,864,867,869,869,869,873,873,875,875,878,878,880,880,880,882,882,885,885,887,887,889,889,891,891,891,894,894,896,896,896,898,898,901,901,903,903,906,0,0,0,0,0,0,1696,1696,1705,1705,1696,1696,1688,1688,1688,1680,1680,1671,1671,1663,1663,1663,1655,1655,1647,1639,1639,1632,1632,1624,1624,1609,1609,1609,1601,1601,1594,1594,1586,1586,1579,1579,1579,1572,1564,1557,1557,1557,1550,1543,1543,1543,1536,1536,1529,1523,1523,1523,1516,1516,1516,1509,1503,1503,1496,1496,1489,1489,1483,1477,1477,1470,1470,1470,1470,1464,1458,1452,1452,1445,1445,1445,1439,1439,1427,1427,1427,1421,1421,1415,1415,1415,1410,1410,1398,1398,1398,1392,1387,1387,1381,1376,1376,1376,1376,1370,1370,1365,1365,1354,1354,1349,1349,1343,1343,1338,1338,1333,1333,1333,1333,1333,1328,1322,1322,1317,1312,1312,1312,1307,1307,1307,1302,1297,1292,1288,1288,1288,1288,1283,1278,1278,1273,1273,1268,1268,1268,1264,1259,1255,1255,1250,1250,1245,1245,1241,1236,1236,1236,1232,1227,1227,1223,1223,1219,1219,1219,1214,1214,1210,1206,1206,1202,1197,1197,1197,1193,1193,1189,1189,1185,1185,1181,1181,1181,1173,1173,1169,1169,1165,1165,1161,1157,1153,1153,1149,1149,1149,1145,1145,1141,1141,1138,1138,1138,1134,1134,1130,1126,1123,1123,1119,1119,1119,1119,1119,1115,1112,1108,1105,1105,1105,1101,1101,1097,1094,1094,1090,1090,1090,1087,1087,1080,1080,1080,1077,1077,1077,1073,1073,1070,1067,1067,1063,1063,1063,1060,1057,1057,1054,1050,1050,1050,1050,1047,1044,1044,1041,1041,1038,1038,1038,1038,1034,1034,1031,1028,1028,1025,1025,1022,1019,1019,1016,1016,1016,0,0,0,0,0,0,0,0,0,0,0,0,0,0,0,0,0,0,0,0,0,0,0,0,0,0,0,0,0,0,0
0,0,0,0,0,0,0,0,0,0,0,0,0,0,0,2065,2065,2103,2090,2090,2090,2090,2090,2090,2078,2065,2065,2065,0,0,0,0,0,0,0,0,0,0,0,0,0,0,0,0,0,789,789,783,781,780,778,773,766,759,759,757,757,757,757,755,755,755,755,755,754,752,752,752,754,754,754,754,752,752,750,749,749,747,747,747,747,747,754,755,754,752,749,749,749,747,747,747,747,749,752,750,749,749,749,749,747,747,747,747,747,747,750,749,749,747,747,747,744,744,742,742,742,742,744,744,744,744,744,744,746,744,744,742,742,742,742,744,744,744,744,741,741,739,738,738,739,736,736,738,747,749,747,747,749,734,734,734,734,744,746,746,746,744,744,744,744,744,741,741,739,739,741,742,742,742,746,746,746,747,747,747,746,744,730,730,733,733,733,733,733,733,733,734,734,734,734,734,736,738,739,739,741,741,741,742,742,744,744,746,747,747,747,749,750,752,752,754,754,754,757,759,761,761,762,762,762,766,766,766,767,767,769,771,774,774,776,776,781,783,785,787,789,790,792,796,796,796,798,802,802,803,803,807,809,809,809,809,811,815,817,817,819,819,821,821,821,823,823,825,827,827,827,831,831,833,833,835,835,835,835,837,839,841,843,845,845,845,847,849,849,851,854,854,856,858,858,860,860,860,862,864,867,867,869,869,871,873,873,875,875,878,880,880,882,882,882,885,887,887,887,887,889,889,891,891,894,894,896,896,896,898,898,898,901,901,903,903,906,0,0,0,0,0,0,1696,1696,1705,1705,1696,1696,1696,1688,1688,1680,1680,1671,1671,1663,1663,1663,1655,1655,1639,1639,1639,1639,1632,1632,1624,1624,1609,1609,1601,1601,1601,1594,1586,1586,1586,1579,1579,1579,1564,1564,1557,1550,1550,1543,1543,1543,1543,1536,1529,1523,1523,1523,1516,1516,1516,1509,1503,1503,1496,1496,1489,1489,1483,1483,1477,1477,1470,1470,1470,1464,1458,1452,1452,1445,1445,1445,1439,1439,1433,1427,1427,1421,1421,1421,1415,1415,1410,1410,1404,1398,1398,1392,1392,1387,1381,1381,1376,1376,1376,1370,1370,1365,1365,1359,1354,1354,1349,1343,1343,1338,1338,1333,1333,1333,1333,1333,1328,1328,1322,1317,1312,1312,1312,1307,1307,1307,1302,1297,1292,1288,1288,1288,1288,1283,1283,1278,1273,1273,1273,1268,1268,1268,1264,1255,1255,1255,1250,1250,1245,1241,1241,1236,1236,1232,1232,1227,1227,1223,1219,1219,1219,1214,1214,1214,1210,1206,1202,1202,1197,1197,1197,1193,1189,1189,1189,1185,1185,1181,1181,1177,1173,1169,1169,1165,1165,1165,1161,1157,1153,1153,1149,1149,1145,1145,1145,1141,1138,1138,1138,1134,1134,1130,1126,1123,1123,1123,1119,1119,1119,1119,1115,1112,1112,1108,1108,1105,1105,1101,1097,1097,1094,1094,1090,1090,1087,1084,1084,1080,1080,1077,1077,1077,1073,1073,1070,1067,1067,1067,1063,1063,1063,1060,1057,1054,1054,1050,1050,1050,1047,1047,1044,1041,1041,1041,1041,1038,1038,1038,1034,1034,1028,1028,1025,1025,1022,1019,1019,1016,1016,1016,0,0,0,0,0,0,0,0,0,0,0,0,0,0,0,0,0,0,0,0,0,0,0,0,0,0,0,0,0,0,0
0,0,0,0,0,0,0,0,0,0,0,0,0,0,0,2053,2053,2065,2065,2065,2065,2065,2078,2078,2065,2065,2065,2065,2078,0,0,0,0,0,0,0,0,0,0,0,0,0,0,0,0,0,774,774,774,774,774,773,766,759,757,755,755,755,755,755,754,754,754,754,750,749,749,747,746,746,750,744,744,749,749,746,746,744,744,744,742,742,742,742,746,746,746,747,747,746,746,746,746,747,749,746,746,746,746,747,746,744,744,746,746,746,744,744,749,747,746,744,741,741,741,741,741,741,741,741,741,739,739,739,739,739,739,739,738,738,741,741,739,739,741,739,739,736,734,734,736,734,734,733,733,733,733,734,730,730,731,731,733,738,738,738,744,741,741,739,736,734,734,738,738,739,739,741,741,742,744,744,746,722,722,725,727,728,728,730,730,731,731,733,733,733,733,733,734,734,734,734,736,738,738,739,739,741,741,742,742,744,746,746,747,747,747,749,750,752,752,754,754,755,759,759,761,761,762,762,764,766,766,766,767,769,769,773,776,776,778,785,785,787,787,790,792,792,794,796,798,798,800,802,803,803,805,807,809,809,809,809,813,815,817,817,819,819,821,821,821,823,825,825,827,827,829,831,833,833,835,835,835,835,837,839,839,841,843,845,845,845,847,849,849,851,854,856,858,858,858,860,860,860,862,867,867,869,869,869,871,873,875,875,875,878,880,882,882,882,885,885,887,887,887,887,889,889,891,891,894,894,896,896,898,898,898,898,901,903,906,906,906,0,0,0,0,0,0,1696,1696,1705,1705,1696,1696,1696,1688,1688,1680,1680,1671,1671,1663,1663,1663,1655,1655,1639,1639,1639,1632,1632,1632,1632,1624,1616,1609,1609,1601,1601,1601,1594,1586,1586,1579,1579,1579,1572,1564,1557,1550,1550,1550,1550,1543,1543,1536,1529,1529,1523,1523,1516,1516,1516,1509,1509,1503,1503,1496,1496,1489,1489,1483,1477,1477,1470,1470,1470,1464,1464,1458,1452,1445,1445,1445,1445,1439,1433,1427,1427,1421,1421,1421,1421,1415,1415,1410,1404,1404,1398,1392,1392,1387,1387,1381,1376,1376,1376,1370,1370,1365,1365,1359,1354,1354,1349,1349,1343,1343,1338,1338,1333,1333,1333,1333,1328,1328,1322,1322,1317,1312,1312,1307,1307,1307,1302,1302,1292,1292,1288,1288,1288,1288,1283,1278,1273,1273,1273,1268,1268,1268,1264,1259,1255,1255,1250,1250,1245,1245,1241,1236,1236,1236,1232,1232,1227,1223,1219,1219,1219,1214,1214,1214,1210,1210,1206,1202,1202,1197,1197,1197,1193,1189,1189,1185,1185,1181,1181,1177,1173,1173,1169,1169,1165,1165,1161,1161,1157,1153,1153,1153,1149,1149,1145,1141,1138,1138,1138,1134,1134,1130,1126,1123,1123,1123,1119,1119,1119,1119,1119,1115,1112,1108,1108,1105,1105,1101,1101,1097,1094,1094,1090,1090,1087,1084,1084,1080,1080,1080,1077,1077,1077,1073,1073,1067,1067,1067,1063,1063,1063,1060,1057,1054,1054,1054,1050,1050,1047,1047,1044,1044,1041,1041,1041,1038,1038,1038,1034,1034,1028,1028,1025,1025,1022,1022,1019,1016,1016,1016,0,0,0,0,0,0,0,0,0,0,0,0,0,0,0,0,0,0,0,0,0,0,0,0,0,0,0,0,0,0,0
0,0,0,0,0,0,0,0,0,0,0,0,0,0,0,2040,2040,2053,2053,2053,2053,2053,2065,2065,2065,2065,2065,2065,2065,0,0,0,0,0,0,0,0,0,0,0,0,0,0,0,0,774,774,774,774,773,771,771,755,755,757,755,754,754,754,754,752,752,749,749,749,747,747,747,746,746,742,741,741,741,742,742,742,741,741,741,741,739,739,739,742,742,741,739,739,741,741,744,744,744,744,742,742,742,744,744,744,742,742,744,744,741,739,736,736,744,744,741,739,739,739,739,739,739,739,739,739,738,738,738,738,736,736,734,734,734,738,738,738,738,738,738,738,734,734,733,733,734,733,731,731,731,731,731,728,728,728,728,728,728,728,720,720,720,728,728,730,730,730,730,738,739,739,739,741,742,744,720,720,722,722,725,727,727,727,728,728,728,728,728,731,733,733,733,733,734,734,734,736,738,738,739,739,741,741,742,742,744,746,747,747,747,749,750,752,752,754,754,754,757,759,761,761,762,762,764,764,766,767,767,769,769,771,774,778,781,783,787,789,789,790,792,792,794,794,796,798,798,800,802,803,803,805,807,809,809,809,811,813,815,817,817,819,819,821,821,823,823,825,827,827,829,829,833,833,833,835,835,837,837,839,841,841,843,843,845,845,845,849,849,851,854,854,858,858,858,860,860,862,862,864,867,869,869,869,869,873,875,875,878,878,880,880,882,885,885,885,885,887,887,887,887,889,889,891,891,894,896,896,896,898,898,898,901,901,903,906,906,908,0,0,0,0,0,0,0,1705,1705,1705,1705,1696,1696,1696,1696,1680,1680,1671,1671,1663,1663,1663,1655,1655,1639,1639,1639,1632,1632,1632,1632,1624,1616,1609,1609,1601,1601,1601,1594,1586,1586,1586,1579,1579,1579,1572,1564,1564,1557,1550,1550,1543,1543,1536,1529,1529,1523,1523,1516,1516,1516,1516,1509,1509,1503,1496,1496,1489,1489,1483,1477,1477,1470,1470,1470,1464,1464,1458,1452,1452,1445,1445,1445,1439,1433,1433,1427,1427,1421,1421,1421,1415,1415,1410,1404,1404,1398,1398,1392,1392,1387,1381,1381,1376,1376,1370,1370,1365,1365,1359,1359,1354,1354,1349,1349,1349,1343,1338,1338,1333,1333,1333,1328,1328,1322,1322,1317,1312,1312,1312,1307,1307,1302,1302,1292,1292,1292,1288,1288,1288,1283,1278,1278,1273,1273,1268,1268,1268,1264,1259,1255,1255,1250,1250,1245,1245,1241,1241,1236,1236,1232,1232,1232,1223,1219,1219,1219,1219,1214,1214,1210,1210,1206,1202,1202,1197,1197,1197,1193,1189,1189,1185,1185,1181,1181,1177,1173,1173,1169,1169,1165,1165,1165,1161,1157,1157,1153,1153,1149,1149,1145,1145,1141,1138,1138,1134,1134,1130,1126,1126,1123,1123,1123,1119,1119,1119,1119,1115,1112,1112,1108,1108,1105,1105,1101,1097,1094,1094,1090,1090,1090,1090,1084,1084,1080,1080,1077,1077,1077,1073,1073,1070,1067,1067,1063,1063,1063,1060,1057,1057,1054,1054,1050,1050,1050,1047,1044,1044,1041,1041,1041,1038,1038,1038,1034,1034,1031,1028,1028,1025,1025,1022,1019,1016,1016,1016,0,0,0,0,0,0,0,0,0,0,0,0,0,0,0,0,0,0,0,0,0,0,0,0,0,0,0,0,0,0,0
0,0,0,0,0,0,0,0,0,0,0,0,0,0,0,2028,2028,2040,2040,2053,2053,2053,2053,2065,2053,2053,2065,2065,2065,2065,0,0,0,0,0,0,0,0,0,0,0,0,973,970,970,774,774,774,774,771,766,766,755,755,755,755,754,752,752,752,749,747,746,746,746,746,747,742,741,741,741,741,741,741,741,739,739,739,739,739,738,738,736,736,736,738,736,736,736,738,739,739,739,739,741,741,739,739,741,742,742,739,738,738,736,736,734,733,731,731,734,734,734,734,734,734,734,734,734,736,736,736,736,736,734,734,734,733,733,733,734,736,736,736,734,734,734,733,731,730,730,731,730,728,728,730,730,728,723,723,725,725,722,722,725,720,720,720,720,723,727,728,728,716,716,739,716,716,714,714,716,716,720,720,722,723,725,725,727,727,728,728,728,728,730,731,733,733,733,734,734,734,736,738,738,739,739,741,741,742,742,744,747,747,747,747,750,752,752,752,754,754,755,757,761,761,762,762,764,766,766,766,769,769,771,773,774,776,781,785,785,789,789,790,792,792,794,794,796,798,800,800,802,802,803,805,805,809,809,809,811,813,815,817,817,817,819,819,821,821,823,825,827,827,827,829,831,833,833,833,835,837,837,841,841,843,843,843,843,845,847,847,849,849,851,854,854,858,858,858,860,860,862,862,864,867,867,869,869,869,873,875,875,878,878,880,882,885,885,885,885,885,887,887,887,887,889,889,891,891,894,896,896,896,898,898,901,901,903,903,906,906,908,0,0,0,0,0,0,0,1705,1705,1705,1705,1696,1696,1696,1696,1688,1680,1680,1671,1671,1663,1663,1655,1655,1639,1639,1639,1632,1632,1632,1632,1624,1609,1609,1609,1601,1601,1601,1601,1594,1586,1586,1579,1579,1579,1572,1564,1564,1557,1550,1550,1550,1543,1543,1529,1529,1523,1523,1523,1516,1516,1516,1509,1509,1503,1496,1496,1489,1489,1483,1477,1477,1477,1470,1470,1464,1464,1458,1458,1452,1452,1445,1445,1439,1439,1439,1433,1427,1421,1421,1421,1415,1415,1410,1410,1404,1398,1398,1392,1392,1387,1387,1381,1376,1376,1376,1370,1370,1365,1365,1359,1354,1354,1349,1349,1349,1343,1343,1338,1338,1333,1333,1333,1328,1322,1322,1317,1312,1312,1312,1307,1307,1307,1302,1292,1292,1292,1292,1288,1288,1283,1283,1278,1273,1273,1268,1268,1268,1264,1259,1255,1255,1250,1250,1245,1245,1241,1241,1241,1236,1232,1232,1232,1223,1223,1219,1219,1219,1214,1214,1214,1210,1210,1202,1202,1202,1197,1197,1193,1193,1189,1185,1185,1181,1181,1177,1177,1173,1169,1169,1169,1165,1165,1161,1161,1157,1153,1153,1153,1149,1145,1145,1141,1138,1138,1134,1134,1130,1130,1126,1123,1123,1123,1123,1119,1119,1119,1115,1115,1112,1108,1108,1105,1105,1101,1097,1094,1094,1094,1090,1090,1090,1090,1087,1084,1080,1080,1077,1077,1073,1073,1070,1067,1067,1067,1063,1063,1060,1057,1057,1054,1054,1054,1050,1050,1050,1047,1044,1041,1041,1041,1038,1038,1038,1034,1031,1028,1028,1028,1028,1025,1022,1022,1019,1016,1016,0,0,0,0,0,0,0,0,0,0,0,0,0,0,0,0,0,0,0,0,0,0,0,0,0,0,0,0,0,0,0
0,0,0,0,0,0,0,0,0,0,0,0,0,0,0,2028,2028,2040,2040,2040,2040,2040,2040,2053,2053,2053,2053,2053,2065,2065,0,0,0,0,0,0,0,0,0,0,0,967,967,967,967,970,970,771,771,769,766,766,755,755,755,754,752,752,752,752,744,741,741,742,744,742,742,741,741,741,741,739,738,738,738,736,736,738,738,738,738,738,736,734,734,734,733,733,733,731,731,736,734,733,733,733,733,736,736,739,736,734,734,734,733,733,733,731,728,728,733,733,733,733,733,731,731,731,731,733,733,733,733,733,731,731,733,731,730,730,733,733,734,734,731,731,733,730,728,728,728,727,727,723,723,728,728,727,723,722,722,722,720,720,719,717,717,719,719,717,717,717,717,716,716,716,716,716,714,714,716,716,719,720,720,723,725,725,725,727,727,728,728,728,728,730,733,733,733,734,734,734,736,736,738,739,739,741,741,744,744,746,747,747,747,749,752,752,754,754,755,757,761,761,762,762,764,764,766,766,767,767,771,771,774,776,780,781,785,787,787,790,790,792,794,794,794,796,796,800,800,802,802,803,803,805,807,809,809,811,811,813,815,817,817,817,819,819,821,821,823,825,827,827,829,831,831,833,833,835,835,837,839,841,843,843,843,845,845,847,847,847,849,851,854,854,856,858,858,860,860,860,862,864,867,867,867,869,869,869,873,875,875,878,878,880,882,885,885,885,885,885,887,887,887,889,889,889,891,891,896,896,896,898,898,898,901,903,906,906,906,908,908,0,0,0,0,0,0,0,1705,1705,1705,1705,1705,1705,1696,1696,1696,1688,1671,1671,1671,1663,1663,1655,1655,1639,1639,1639,1632,1632,1632,1632,1624,1609,1609,1609,1601,1601,1601,1601,1594,1594,1586,1579,1579,1579,1572,1572,1564,1564,1557,1550,1550,1543,1543,1536,1536,1523,1523,1523,1516,1516,1516,1516,1509,1503,1503,1496,1496,1489,1483,1477,1477,1477,1470,1470,1470,1464,1458,1458,1452,1452,1445,1445,1439,1439,1439,1433,1427,1421,1421,1421,1415,1415,1415,1410,1404,1398,1398,1392,1392,1392,1387,1381,1376,1376,1376,1370,1370,1365,1365,1359,1359,1354,1354,1349,1349,1349,1343,1343,1338,1333,1333,1333,1328,1328,1322,1317,1312,1312,1312,1307,1307,1307,1302,1297,1292,1292,1292,1288,1288,1288,1283,1278,1273,1273,1273,1268,1268,1264,1264,1259,1259,1255,1250,1245,1245,1245,1241,1241,1236,1236,1236,1232,1227,1223,1223,1219,1219,1219,1214,1214,1210,1210,1206,1202,1202,1197,1197,1197,1193,1189,1189,1185,1185,1181,1181,1177,1173,1169,1169,1169,1169,1165,1165,1161,1157,1157,1153,1153,1149,1149,1145,1141,1138,1138,1138,1134,1134,1130,1126,1126,1123,1123,1123,1119,1119,1119,1115,1115,1108,1108,1105,1105,1105,1101,1097,1094,1094,1094,1090,1090,1090,1090,1087,1084,1084,1080,1080,1077,1077,1073,1070,1070,1067,1067,1067,1063,1060,1060,1057,1057,1054,1054,1050,1050,1050,1047,1047,1044,1041,1041,1038,1038,1038,1034,1031,1028,1028,1028,1028,1025,1022,1022,1019,1016,1016,0,0,0,0,0,0,0,0,0,0,0,0,0,0,0,0,0,0,0,0,0,0,0,0,0,0,0,0,0,0,0
0,0,0,0,0,0,0,0,0,0,0,0,0,0,0,2028,2028,2028,2028,2040,2028,2028,2040,2040,2053,2053,2053,2053,2053,2065,0,0,0,0,0,0,0,0,0,0,0,967,967,967,967,967,967,771,771,769,767,766,766,761,759,754,752,752,752,744,741,738,734,734,736,739,739,739,739,739,739,738,738,734,734,733,733,734,736,736,734,734,734,734,733,733,730,730,728,728,728,730,730,728,728,730,730,728,728,728,733,731,731,730,730,730,730,727,723,723,725,725,730,730,730,730,730,728,728,728,730,728,728,727,727,730,730,725,725,725,725,727,728,730,728,728,728,727,725,723,723,722,722,722,722,723,728,725,720,719,717,717,716,716,717,716,716,716,714,714,714,716,716,714,714,716,716,716,716,716,716,717,719,720,720,723,723,725,725,727,727,728,728,728,728,730,733,733,734,734,734,734,736,736,738,739,739,741,741,744,744,747,747,747,747,749,752,754,754,755,757,759,762,762,764,766,766,766,767,771,773,773,773,774,778,780,781,785,787,787,789,790,792,792,794,796,796,796,796,800,800,802,802,803,805,805,807,809,809,811,811,815,817,817,817,819,819,819,821,823,825,827,827,829,829,831,833,835,835,835,837,841,841,843,843,843,845,845,845,847,849,849,851,851,854,854,858,858,858,860,860,862,864,864,867,867,869,869,869,871,873,875,878,878,878,882,885,885,887,887,887,887,889,889,889,889,889,889,891,896,896,896,896,898,898,901,903,903,906,906,906,908,908,0,0,0,0,0,0,0,1713,1705,1705,1705,1705,1705,1696,1696,1696,1688,1671,1671,1671,1663,1663,1655,1655,1647,1639,1639,1632,1632,1632,1632,1624,1624,1609,1609,1609,1601,1601,1601,1594,1594,1586,1586,1579,1579,1572,1572,1564,1564,1557,1557,1550,1550,1543,1543,1536,1529,1523,1523,1516,1516,1516,1516,1516,1509,1503,1496,1496,1489,1489,1483,1483,1477,1470,1470,1470,1464,1464,1464,1458,1452,1452,1445,1439,1439,1433,1427,1421,1421,1421,1421,1415,1415,1415,1410,1404,1398,1398,1392,1392,1392,1392,1387,1381,1381,1376,1376,1370,1370,1365,1359,1359,1354,1354,1349,1349,1349,1343,1343,1338,1333,1333,1333,1328,1328,1322,1317,1317,1312,1312,1307,1307,1307,1302,1302,1297,1292,1292,1292,1288,1288,1283,1278,1278,1273,1273,1268,1268,1268,1264,1259,1259,1255,1255,1250,1245,1245,1241,1241,1236,1236,1236,1232,1227,1223,1223,1219,1219,1219,1214,1214,1214,1210,1206,1202,1202,1202,1197,1197,1193,1189,1189,1185,1185,1185,1181,1181,1177,1173,1169,1169,1169,1165,1165,1161,1161,1157,1157,1153,1153,1149,1149,1141,1138,1138,1138,1134,1134,1130,1126,1126,1123,1123,1123,1123,1119,1119,1115,1112,1108,1108,1105,1105,1105,1101,1097,1094,1094,1094,1094,1090,1090,1090,1087,1084,1084,1080,1080,1077,1077,1073,1073,1070,1070,1067,1067,1063,1060,1060,1057,1057,1054,1054,1050,1050,1050,1047,1047,1044,1041,1041,1041,1038,1038,1038,1031,1031,1028,1028,1028,1025,1025,1022,1019,1016,1016,0,0,0,0,0,0,0,0,0,0,0,0,0,0,0,0,0,0,0,0,0,0,0,0,0,0,0,0,0,0,0
0,0,0,0,0,0,0,0,0,0,0,0,0,0,0,2016,2016,2016,2028,2028,2028,2028,2028,2040,2040,2053,2053,2053,2053,2065,0,0,0,0,0,0,0,0,0,0,0,967,967,967,967,967,964,964,769,769,767,767,0,0,0,754,752,752,744,744,739,734,728,725,725,739,739,738,738,738,738,738,734,733,730,730,730,730,734,734,733,733,733,731,731,728,727,727,727,728,728,728,728,727,727,727,727,727,727,725,725,727,727,727,725,725,727,723,722,722,722,723,727,728,728,728,728,727,727,727,728,725,723,723,722,720,720,722,722,720,720,719,719,723,725,725,725,725,723,720,720,719,717,717,717,717,728,725,716,711,711,714,714,714,716,714,714,714,714,713,713,713,714,714,714,716,716,716,716,716,717,719,719,720,722,723,723,725,725,727,727,728,728,728,730,731,733,733,734,734,736,736,736,739,739,739,741,741,742,744,746,747,747,747,749,750,754,755,755,757,761,761,764,766,767,769,769,773,774,774,776,776,776,778,780,781,783,785,787,789,790,792,794,794,796,796,796,796,798,800,802,802,803,803,805,805,809,809,809,811,813,815,817,817,819,819,821,821,823,825,825,827,829,829,831,833,833,835,835,835,839,841,841,843,843,843,845,845,847,847,849,849,851,854,856,856,858,860,860,860,862,862,864,867,867,867,869,869,871,873,875,875,878,878,878,882,885,887,887,887,887,887,889,889,889,889,889,889,891,896,896,896,896,898,898,903,906,906,906,906,906,908,908,0,0,0,0,0,0,0,1713,1713,1713,1705,1705,1705,1696,1696,1696,1688,1680,1671,1671,1663,1663,1663,1655,1647,1639,1639,1632,1632,1632,1632,1624,1624,1616,1609,1609,1609,1601,1601,1594,1594,1586,1586,1579,1579,1579,1572,1572,1564,1557,1557,1550,1550,1543,1543,1543,1536,1529,1523,1523,1516,1516,1516,1516,1509,1503,1503,1496,1489,1489,1483,1483,1483,1477,1470,1470,1470,1464,1464,1458,1458,1452,1445,1439,1439,1433,1427,1421,1421,1421,1421,1415,1415,1415,1410,1404,1398,1398,1398,1392,1392,1392,1387,1387,1381,1376,1376,1370,1370,1365,1365,1359,1354,1354,1354,1354,1349,1349,1343,1338,1338,1333,1333,1328,1328,1322,1322,1317,1312,1312,1312,1307,1307,1302,1302,1297,1292,1292,1292,1292,1288,1283,1278,1278,1273,1273,1273,1268,1268,1264,1259,1259,1255,1255,1250,1250,1245,1245,1241,1241,1236,1236,1232,1232,1227,1223,1223,1219,1219,1214,1214,1214,1210,1206,1206,1202,1202,1197,1197,1197,1193,1189,1185,1185,1185,1181,1181,1177,1177,1169,1169,1169,1165,1165,1165,1161,1161,1157,1153,1153,1153,1149,1141,1141,1138,1138,1134,1134,1134,1130,1126,1126,1123,1123,1123,1119,1119,1115,1112,1108,1108,1105,1105,1105,1101,1097,1094,1094,1094,1094,1090,1090,1090,1087,1084,1084,1084,1080,1080,1077,1077,1073,1070,1070,1067,1067,1063,1060,1060,1060,1057,1057,1054,1054,1054,1050,1047,1047,1047,1044,1041,1041,1038,1038,1038,1034,1034,1031,1028,1028,1025,1025,1022,1019,1019,1019,0,0,0,0,0,0,0,0,0,0,0,0,0,0,0,0,0,0,0,0,0,0,0,0,0,0,0,0,0,0,0
0,0,0,0,0,0,0,0,0,0,0,0,0,0,0,2016,2016,2016,2016,2016,2016,2016,2028,2028,2028,2040,2040,2040,2053,0,0,0,0,0,0,0,0,0,0,0,0,967,967,967,967,967,964,964,964,0,0,0,0,0,0,0,0,0,0,739,739,734,723,723,722,722,723,731,731,733,734,734,733,728,728,727,727,728,733,733,731,731,733,728,727,725,723,723,727,727,727,727,727,725,723,723,723,722,722,722,723,725,725,723,722,722,722,722,720,720,720,720,720,720,720,727,727,727,727,727,727,723,722,722,720,720,717,717,720,719,717,717,716,716,723,722,722,722,722,719,719,717,716,714,713,710,707,707,707,707,706,706,713,711,711,711,711,713,713,713,713,713,714,714,714,714,714,716,716,716,717,719,719,720,722,723,725,725,725,727,728,728,728,728,730,731,733,733,734,736,736,736,738,739,739,741,741,741,744,746,747,747,749,749,749,755,757,757,757,759,764,764,766,767,769,769,773,774,774,776,778,778,778,780,781,781,785,787,787,789,790,792,794,794,796,796,796,796,798,802,802,802,803,805,805,807,809,809,811,811,813,815,817,817,819,819,821,821,823,825,827,827,829,829,831,833,833,835,835,837,839,841,843,843,843,845,845,847,847,847,849,851,854,854,856,858,860,860,862,862,864,867,867,867,867,869,871,871,873,875,875,875,878,880,880,885,887,887,887,889,887,887,889,889,889,889,889,891,894,896,896,898,898,901,901,903,906,906,906,906,906,908,908,0,0,0,0,0,0,0,1722,1713,1713,1705,1705,1705,1705,1696,1696,1688,1680,1680,1671,1663,1663,1663,1655,1647,1639,1639,1639,1632,1632,1632,1624,1624,1616,1609,1609,1609,1601,1601,1601,1594,1586,1586,1579,1579,1579,1572,1572,1564,1557,1557,1550,1550,1543,1543,1543,1536,1529,1523,1523,1523,1516,1516,1516,1509,1503,1503,1496,1489,1489,1483,1483,1483,1477,1470,1470,1470,1464,1464,1464,1458,1452,1445,1439,1439,1433,1433,1427,1421,1421,1421,1421,1415,1415,1415,1404,1398,1398,1398,1398,1392,1392,1392,1387,1381,1381,1376,1370,1370,1365,1365,1365,1354,1354,1354,1354,1349,1349,1343,1343,1338,1333,1333,1328,1328,1322,1322,1317,1312,1312,1312,1312,1307,1307,1302,1302,1292,1292,1292,1292,1288,1288,1283,1278,1278,1273,1273,1268,1268,1264,1259,1259,1255,1255,1250,1250,1245,1245,1241,1241,1236,1236,1232,1232,1227,1227,1223,1219,1219,1219,1214,1214,1214,1210,1206,1206,1202,1202,1197,1197,1193,1193,1189,1185,1185,1181,1181,1177,1177,1169,1169,1169,1165,1165,1165,1161,1161,1157,1157,1153,1153,1149,1145,1141,1138,1138,1138,1134,1134,1130,1130,1126,1123,1123,1123,1119,1119,1115,1112,1112,1108,1108,1105,1105,1101,1097,1097,1097,1094,1094,1090,1090,1090,1090,1087,1084,1084,1080,1080,1077,1077,1077,1073,1073,1070,1067,1063,1063,1060,1060,1060,1057,1054,1054,1054,1050,1050,1047,1047,1044,1041,1041,1038,1038,1038,1034,1034,1031,1028,1028,1025,1025,1022,1022,1019,1019,0,0,0,0,0,0,0,0,0,0,0,0,0,0,0,0,0,0,0,0,0,0,0,0,0,0,0,0,0,0,0
0,0,0,0,0,0,0,0,0,0,0,0,0,0,0,2005,2005,2005,2016,2016,2016,2016,2016,2016,2016,2028,2028,2028,2028,0,0,0,0,0,0,0,0,0,0,0,0,0,970,967,967,964,964,964,964,0,0,0,0,0,0,0,0,0,0,733,733,725,723,722,722,722,722,722,723,725,725,725,725,727,727,725,725,723,723,723,722,722,722,722,722,722,722,722,720,720,720,720,725,719,717,717,719,719,720,720,720,722,723,723,722,722,719,719,716,716,717,717,717,717,717,727,727,711,711,711,711,720,719,719,719,717,716,716,716,717,716,708,708,716,723,722,722,720,719,716,716,714,714,713,710,706,706,706,706,706,706,704,704,710,710,710,710,711,711,711,711,713,713,714,714,714,714,716,716,717,719,719,720,720,722,723,725,725,725,727,728,728,730,730,731,731,733,733,734,736,736,738,738,739,741,741,744,746,746,747,749,749,750,750,757,757,759,761,761,762,766,767,767,767,771,771,774,776,776,778,778,780,780,781,781,785,787,789,789,790,790,792,794,794,796,796,796,798,800,802,802,803,805,805,807,809,809,809,811,811,813,817,817,817,819,821,821,823,825,825,827,829,829,831,833,833,833,835,835,837,841,841,843,843,843,845,845,847,847,847,849,851,856,856,858,860,860,860,862,862,864,867,869,869,869,869,871,871,873,875,875,878,878,880,880,885,887,889,889,889,889,889,889,889,889,889,891,891,894,896,896,898,901,901,903,906,906,906,906,906,908,908,908,0,0,0,0,0,0,0,1731,1722,1722,1713,1713,1705,1705,1696,1696,1688,1680,1680,1671,1671,1663,1663,1663,1655,1639,1639,1639,1632,1632,1632,1624,1624,1616,1609,1609,1609,1601,1601,1601,1594,1594,1586,1579,1579,1579,1572,1572,1564,1557,1557,1550,1550,1543,1543,1543,1543,1536,1529,1523,1523,1516,1516,1516,1509,1509,1503,1503,1489,1489,1483,1483,1483,1477,1470,1470,1470,1464,1464,1464,1458,1452,1445,1445,1439,1433,1433,1427,1427,1421,1421,1421,1415,1415,1415,1404,1404,1398,1398,1398,1392,1392,1392,1387,1387,1381,1376,1376,1370,1370,1365,1365,1359,1354,1354,1354,1349,1349,1343,1343,1338,1338,1333,1328,1328,1328,1322,1322,1317,1312,1312,1312,1307,1307,1302,1302,1292,1292,1292,1292,1288,1288,1283,1283,1278,1273,1273,1268,1268,1264,1259,1259,1255,1255,1250,1250,1245,1245,1245,1241,1236,1236,1232,1232,1227,1227,1223,1223,1219,1219,1214,1214,1214,1210,1206,1206,1202,1202,1197,1197,1193,1193,1189,1185,1185,1181,1181,1177,1177,1169,1169,1169,1165,1165,1165,1161,1161,1161,1157,1153,1153,1153,1145,1141,1141,1138,1138,1134,1134,1134,1130,1126,1123,1123,1123,1123,1119,1115,1112,1112,1108,1108,1105,1105,1101,1101,1097,1097,1094,1094,1094,1090,1090,1090,1087,1087,1084,1084,1080,1077,1077,1077,1073,1073,1070,1067,1063,1063,1063,1060,1060,1060,1057,1054,1054,1050,1050,1047,1047,1044,1044,1041,1038,1038,1038,1034,1034,1031,1028,1028,1025,1025,1025,1022,1019,1019,0,0,0,0,0,0,0,0,0,0,0,0,0,0,0,0,0,0,0,0,0,0,0,0,0,0,0,0,0,0,0
0,0,0,0,0,0,0,0,0,0,0,0,0,0,0,2005,2005,2005,2005,2005,2005,2005,2005,2005,2016,2016,2016,2016,2016,0,0,0,0,0,0,0,0,0,0,0,0,0,967,964,964,964,964,964,964,0,0,0,0,0,0,0,0,0,728,728,728,723,722,722,720,719,719,719,719,720,717,716,716,723,723,720,716,716,716,716,716,716,716,716,717,717,719,717,717,717,716,716,719,716,716,716,716,716,716,717,720,720,722,722,720,720,717,716,711,711,711,711,713,713,716,713,713,711,711,711,710,710,716,716,714,714,714,713,713,710,708,708,708,708,708,722,722,720,710,710,713,711,708,708,706,704,704,704,704,704,704,704,704,708,708,710,710,710,711,711,711,711,713,714,714,714,716,716,716,717,719,719,720,720,722,723,725,725,727,727,728,728,730,730,731,731,733,734,734,736,736,738,739,741,742,744,747,747,749,749,750,754,754,754,759,759,761,762,762,767,767,767,769,771,773,773,774,776,778,778,778,780,780,781,783,787,787,789,790,790,792,794,794,796,796,796,796,798,800,803,803,803,805,805,807,809,809,809,811,811,815,817,817,817,819,821,821,823,825,827,827,829,829,831,833,833,833,837,837,841,841,843,843,843,843,845,845,847,847,849,851,851,856,856,858,860,860,860,862,864,864,867,867,869,869,869,871,873,875,875,875,875,878,880,882,887,891,891,891,891,889,889,891,891,891,891,894,894,896,898,898,898,901,903,903,906,906,908,908,908,908,908,908,910,0,0,0,0,0,0,1731,1722,1722,1722,1713,1713,1705,1696,1696,1688,1680,1680,1671,1671,1663,1663,1663,1655,1639,1639,1639,1639,1639,1632,1624,1616,1616,1609,1609,1609,1601,1601,1601,1594,1586,1586,1579,1579,1572,1572,1564,1557,1557,1557,1550,1550,1550,1543,1543,1543,1536,1536,1523,1523,1516,1516,1516,1509,1509,1503,1503,1496,1489,1489,1483,1483,1477,1470,1470,1470,1464,1464,1464,1458,1452,1445,1445,1439,1433,1433,1427,1427,1427,1421,1421,1421,1421,1415,1410,1404,1398,1398,1398,1392,1392,1392,1387,1387,1381,1376,1376,1370,1370,1370,1365,1359,1354,1354,1349,1349,1349,1343,1343,1338,1338,1333,1333,1328,1328,1322,1322,1317,1317,1312,1312,1312,1307,1302,1302,1292,1292,1292,1292,1288,1288,1283,1283,1278,1273,1273,1273,1268,1268,1264,1264,1259,1255,1250,1250,1250,1245,1245,1241,1236,1236,1236,1232,1232,1227,1223,1223,1219,1219,1214,1214,1214,1210,1206,1202,1202,1202,1197,1197,1197,1193,1193,1189,1185,1185,1181,1177,1177,1173,1169,1169,1169,1165,1165,1165,1161,1161,1157,1157,1157,1153,1153,1145,1141,1138,1138,1138,1134,1134,1134,1130,1126,1126,1123,1123,1119,1115,1115,1112,1108,1108,1108,1105,1105,1101,1097,1097,1097,1094,1094,1090,1090,1090,1087,1087,1087,1084,1080,1080,1077,1077,1077,1073,1073,1070,1063,1063,1063,1063,1060,1060,1057,1054,1054,1050,1050,1047,1047,1044,1044,1041,1041,1038,1038,1034,1034,1031,1031,1028,1028,1025,1025,1022,1022,1022,0,0,0,0,0,0,0,0,0,0,0,0,0,0,0,0,0,0,0,0,0,0,0,0,0,0,0,0,0,0,0
0,0,0,0,0,0,0,0,0,0,0,0,0,0,0,1993,1993,2005,2005,2005,2005,2005,1993,1993,1993,1993,1993,1993,1970,1970,0,0,0,0,0,0,0,0,0,0,0,0,967,964,964,964,964,964,962,962,0,0,0,0,0,0,0,0,727,727,725,723,722,720,719,719,719,719,719,719,716,716,714,714,716,716,714,714,714,714,714,713,713,713,714,716,714,714,714,714,714,713,713,713,713,713,711,711,710,710,710,708,708,710,708,708,714,714,710,710,708,708,710,708,708,708,708,710,710,710,710,710,711,710,710,710,708,708,710,708,707,707,707,707,707,707,708,708,708,708,704,704,708,706,704,704,704,704,704,704,704,704,704,706,707,708,708,708,710,710,711,711,713,714,714,714,716,716,716,719,719,719,720,722,722,723,725,727,727,727,728,728,730,730,731,731,733,734,736,738,738,739,739,742,746,750,750,750,752,752,754,755,757,757,761,761,761,764,766,767,769,771,771,773,773,773,776,778,778,780,780,781,781,783,785,787,789,789,790,792,792,794,794,796,796,798,798,798,800,803,803,803,805,807,807,809,809,809,811,813,815,817,817,819,821,823,823,825,827,827,827,829,831,833,833,835,835,837,837,841,843,843,843,843,843,845,845,847,849,849,851,851,854,856,858,860,860,862,862,864,864,867,867,869,869,869,871,873,875,875,875,875,878,891,891,891,894,894,894,891,891,894,894,894,894,894,894,896,896,898,898,901,903,903,906,906,906,908,908,908,908,908,908,910,0,0,0,0,0,0,1731,1731,1731,1722,1713,1713,1705,1696,1696,1688,1680,1680,1671,1671,1671,1663,1663,1663,1655,1655,1639,1639,1639,1632,1632,1616,1616,1609,1609,1609,1601,1601,1601,1594,1586,1586,1579,1579,1572,1572,1564,1557,1557,1550,1550,1550,1550,1550,1543,1543,1536,1536,1523,1523,1523,1516,1516,1509,1509,1503,1503,1496,1489,1489,1483,1483,1477,1470,1470,1470,1464,1464,1464,1464,1452,1445,1445,1439,1439,1433,1433,1427,1427,1427,1421,1421,1421,1415,1410,1404,1398,1398,1398,1392,1392,1392,1387,1387,1381,1381,1376,1376,1370,1370,1365,1365,1359,1354,1349,1349,1349,1343,1343,1338,1338,1333,1333,1328,1328,1322,1322,1317,1317,1312,1312,1312,1307,1307,1302,1297,1297,1292,1292,1288,1288,1288,1283,1278,1273,1273,1273,1268,1268,1264,1264,1259,1255,1255,1250,1250,1250,1245,1245,1236,1236,1236,1232,1232,1227,1227,1223,1219,1219,1219,1214,1214,1210,1210,1202,1202,1202,1202,1197,1197,1193,1193,1189,1185,1185,1181,1181,1177,1173,1169,1169,1169,1165,1165,1165,1161,1161,1157,1157,1157,1153,1153,1145,1141,1138,1138,1138,1134,1134,1134,1130,1126,1126,1123,1123,1119,1119,1115,1115,1112,1108,1108,1105,1105,1101,1101,1097,1097,1094,1094,1094,1090,1090,1090,1090,1087,1084,1080,1080,1077,1077,1077,1077,1073,1070,1067,1063,1063,1063,1060,1060,1057,1054,1054,1050,1050,1050,1047,1047,1044,1041,1041,1038,1038,1034,1034,1034,1031,1031,1028,1025,1025,1025,1022,1022,0,0,0,0,0,0,0,0,0,0,0,0,0,0,0,0,0,0,0,0,0,0,0,0,0,0,0,0,0,0,0
0,0,0,0,0,0,0,0,0,0,0,0,0,0,0,1993,1993,1993,1993,1981,1981,1981,1981,1981,1970,1970,1981,1970,1970,1959,1959,0,0,0,0,0,0,0,0,0,0,0,0,964,964,964,964,964,962,962,964,0,0,0,0,0,0,0,725,725,725,722,720,720,719,719,717,717,719,717,714,714,714,714,714,714,710,710,710,710,711,711,711,711,711,711,711,707,706,706,706,706,706,711,711,710,708,708,706,704,704,706,706,707,706,704,704,708,708,707,706,706,708,704,704,707,708,708,708,708,707,707,708,708,708,708,707,707,708,708,707,706,706,707,707,694,694,698,698,698,698,701,701,701,703,703,703,703,704,704,704,704,704,706,707,708,708,708,710,710,710,711,713,714,714,716,716,716,717,719,720,720,720,722,723,725,727,727,727,728,728,730,731,731,731,733,733,734,736,739,739,741,742,747,749,750,752,752,754,754,755,757,759,761,761,761,761,766,767,769,771,771,773,773,774,774,778,778,780,780,781,781,783,785,787,787,789,789,790,792,792,794,794,796,796,798,798,800,802,803,803,805,805,807,807,809,809,811,811,815,817,817,819,819,823,823,825,825,827,827,829,831,831,833,833,835,835,839,839,841,843,843,845,845,845,847,849,849,849,849,851,854,854,858,858,860,860,862,862,864,864,867,867,869,869,869,873,873,875,875,878,878,906,906,903,903,903,898,896,894,894,894,894,894,894,894,896,896,896,898,898,901,903,903,906,906,908,908,908,908,910,910,910,913,0,0,0,0,0,1739,1731,1731,1731,1722,1722,1713,1705,1705,1696,1688,1680,1680,1671,1671,1671,1671,1663,1663,1655,1655,1655,1647,1639,1639,1632,1624,1616,1616,1609,1609,1601,1601,1601,1594,1594,1586,1586,1579,1572,1572,1564,1557,1557,1550,1550,1550,1550,1543,1543,1543,1536,1529,1523,1523,1523,1516,1516,1516,1509,1503,1503,1496,1496,1489,1489,1483,1483,1477,1470,1470,1470,1464,1464,1464,1458,1445,1445,1439,1439,1433,1433,1433,1427,1427,1427,1421,1421,1415,1410,1410,1398,1398,1398,1392,1392,1392,1387,1387,1387,1381,1376,1376,1370,1370,1365,1365,1359,1354,1354,1349,1349,1349,1343,1338,1338,1333,1333,1333,1328,1328,1322,1322,1317,1317,1312,1312,1307,1307,1307,1297,1297,1292,1292,1292,1288,1288,1283,1283,1278,1273,1273,1268,1268,1264,1264,1259,1255,1255,1250,1250,1250,1250,1245,1241,1236,1236,1232,1232,1232,1227,1223,1223,1219,1219,1214,1214,1214,1210,1202,1202,1202,1202,1197,1197,1197,1193,1189,1185,1185,1181,1181,1177,1177,1173,1169,1169,1165,1165,1165,1161,1161,1157,1157,1157,1153,1153,1145,1141,1141,1138,1138,1138,1134,1134,1130,1130,1126,1126,1123,1119,1119,1119,1119,1112,1112,1108,1108,1105,1101,1101,1101,1097,1097,1094,1094,1094,1090,1090,1090,1087,1084,1080,1080,1077,1077,1077,1077,1073,1073,1067,1063,1063,1063,1060,1060,1060,1054,1054,1050,1050,1050,1047,1047,1044,1041,1041,1041,1038,1038,1038,1034,1031,1031,1028,1028,1025,1025,1022,1022,0,0,0,0,0,0,0,0,0,0,0,0,0,0,0,0,0,0,0,0,0,0,0,0,0,0,0,0,0,0,0
0,0,0,0,0,0,0,0,0,0,0,0,0,0,0,1981,1981,1981,1981,1970,1970,1970,1970,1970,1970,1970,1970,1970,1970,1959,1959,1970,0,0,0,0,0,0,0,0,0,0,0,0,970,967,967,967,967,964,962,962,0,0,0,0,0,0,725,725,722,722,720,719,717,717,716,713,710,710,713,711,711,713,713,710,708,708,708,710,710,710,710,710,710,707,707,706,706,706,706,704,704,706,707,707,706,706,703,701,701,703,701,701,701,703,704,706,706,704,703,703,700,700,698,698,698,698,698,698,700,698,698,698,698,703,701,698,698,707,706,704,704,694,694,694,694,694,696,696,696,697,698,698,700,701,703,703,703,703,703,703,703,704,706,707,707,708,710,710,710,711,713,714,714,716,716,716,717,719,720,720,720,722,727,727,727,727,728,728,730,731,731,733,733,733,734,734,738,741,742,742,749,750,752,754,754,754,755,755,757,759,761,761,762,762,764,766,769,771,771,773,773,774,774,776,778,778,780,781,781,781,783,787,787,789,789,789,790,792,792,794,794,796,796,798,800,802,802,803,803,805,805,807,809,809,811,811,813,817,817,819,819,821,823,825,825,825,827,829,829,831,833,833,835,835,835,839,839,841,843,843,845,845,845,847,849,849,849,851,851,854,854,856,858,860,862,862,864,864,867,867,869,869,869,871,871,873,875,875,878,878,0,906,906,903,903,903,901,901,896,896,896,896,896,896,896,896,898,898,898,903,903,906,906,906,908,908,908,910,910,910,910,0,0,0,0,0,0,1739,1731,1731,1731,1722,1722,1713,1705,1705,1696,1688,1680,1680,1671,1671,1671,1671,1671,1663,1663,1663,1655,1647,1639,1639,1632,1624,1616,1616,1609,1609,1601,1601,1601,1594,1594,1586,1586,1579,1579,1572,1564,1557,1557,1550,1550,1550,1550,1543,1543,1543,1536,1529,1529,1523,1523,1516,1516,1516,1509,1509,1503,1503,1496,1489,1489,1489,1483,1477,1477,1470,1470,1464,1464,1464,1464,1452,1445,1445,1439,1439,1433,1433,1433,1427,1427,1421,1421,1415,1415,1410,1404,1398,1398,1392,1392,1392,1387,1387,1387,1381,1376,1376,1376,1370,1370,1365,1365,1359,1354,1354,1349,1349,1349,1343,1338,1338,1333,1333,1328,1328,1328,1322,1317,1317,1317,1312,1307,1307,1307,1297,1297,1292,1292,1292,1288,1288,1283,1283,1278,1273,1273,1268,1268,1264,1264,1259,1255,1255,1255,1250,1250,1250,1245,1241,1236,1236,1236,1232,1232,1227,1227,1223,1219,1219,1214,1214,1214,1206,1206,1202,1202,1202,1197,1197,1193,1193,1189,1189,1185,1185,1181,1181,1177,1173,1169,1169,1169,1169,1165,1161,1161,1157,1157,1157,1153,1153,1145,1141,1141,1141,1138,1138,1134,1134,1134,1130,1126,1126,1123,1119,1119,1119,1119,1115,1112,1108,1108,1105,1105,1101,1101,1101,1097,1094,1094,1094,1090,1090,1090,1087,1087,1080,1080,1080,1080,1077,1077,1077,1073,1070,1067,1063,1063,1063,1063,1060,1057,1054,1054,1050,1050,1047,1047,1044,1041,1041,1041,1038,1038,1038,1034,1034,1031,1028,1028,1028,1025,1025,1025,0,0,0,0,0,0,0,0,0,0,0,0,0,0,0,0,0,0,0,0,0,0,0,0,0,0,0,0,0,0,0
0,0,0,0,0,0,0,0,0,0,0,0,0,0,0,1970,1970,1970,1959,1959,1959,1970,1959,1959,1959,1959,1959,1959,1970,1959,1959,1959,0,0,0,0,0,0,0,0,0,0,0,0,970,967,967,967,964,962,962,962,962,0,0,0,0,0,0,0,722,720,719,719,716,716,716,713,710,710,711,711,711,710,710,710,707,707,707,710,708,708,708,710,708,706,704,703,703,703,703,703,701,701,703,703,701,701,700,698,698,700,700,698,698,698,700,700,700,700,700,700,698,698,698,697,697,697,697,697,697,697,696,696,696,696,696,696,696,707,693,693,693,693,693,693,694,694,694,696,696,697,698,698,698,700,701,703,703,703,703,703,703,704,706,707,707,708,710,710,710,711,713,713,714,716,716,716,719,719,720,720,722,722,727,727,728,728,728,730,731,733,733,733,733,734,734,736,741,742,747,749,752,752,752,754,754,755,755,757,757,761,761,762,762,762,766,767,769,771,773,773,773,774,776,776,778,780,780,781,781,783,785,787,789,789,789,790,792,792,794,794,794,796,796,798,800,802,802,803,803,805,805,807,809,809,811,811,815,817,817,819,819,821,823,825,825,827,829,829,831,833,833,835,835,835,837,839,839,841,843,843,845,845,847,847,849,849,851,851,854,854,854,856,858,860,862,862,864,867,867,867,869,869,869,869,869,873,0,0,0,0,0,906,906,906,906,903,903,901,898,898,898,896,896,896,896,896,898,898,901,903,903,906,906,906,908,908,910,910,910,913,913,0,0,0,0,0,0,1739,1731,1731,1731,1722,1722,1713,1705,1705,1696,1696,1688,1680,1671,1671,1671,1671,1671,1671,1663,1663,1655,1647,1647,1639,1632,1624,1624,1616,1609,1609,1601,1601,1601,1601,1594,1594,1586,1579,1579,1572,1564,1564,1557,1550,1550,1550,1550,1550,1550,1543,1536,1529,1523,1523,1523,1516,1516,1516,1509,1509,1503,1503,1496,1489,1489,1489,1483,1477,1477,1470,1470,1464,1464,1464,1464,1452,1445,1445,1439,1439,1433,1433,1433,1433,1427,1421,1421,1415,1415,1410,1404,1404,1398,1398,1392,1392,1392,1387,1387,1387,1376,1376,1376,1370,1370,1370,1365,1359,1354,1354,1349,1349,1349,1343,1338,1338,1333,1333,1333,1328,1328,1322,1322,1317,1317,1312,1312,1307,1307,1302,1297,1297,1292,1292,1292,1288,1288,1283,1278,1278,1273,1273,1268,1268,1264,1259,1259,1255,1255,1255,1250,1250,1245,1241,1236,1236,1236,1232,1232,1232,1227,1223,1219,1219,1214,1214,1214,1206,1206,1202,1202,1202,1197,1197,1193,1193,1189,1189,1185,1185,1185,1181,1181,1177,1173,1169,1169,1169,1165,1165,1165,1161,1157,1157,1153,1153,1145,1141,1141,1141,1138,1138,1138,1134,1134,1130,1126,1126,1123,1123,1119,1119,1119,1115,1115,1108,1108,1108,1105,1105,1101,1101,1101,1097,1094,1094,1090,1090,1090,1087,1087,1080,1080,1080,1080,1077,1077,1077,1077,1070,1067,1067,1067,1063,1063,1060,1057,1054,1054,1054,1050,1050,1047,1047,1044,1041,1041,1038,1038,1038,1038,1034,1034,1031,1028,1028,1028,1025,1025,0,0,0,0,0,0,0,0,0,0,0,0,0,0,0,0,0,0,0,0,0,0,0,0,0,0,0,0,0,0,0
0,0,0,0,0,0,0,0,0,0,0,0,0,0,0,1959,1959,1959,1959,1959,1959,1959,1947,1947,1947,1947,1947,1947,1959,1959,1959,1947,1947,0,0,0,0,0,0,0,0,0,0,0,0,967,964,964,964,962,962,962,962,964,0,0,0,0,0,0,722,720,719,716,714,714,713,710,707,704,704,710,710,708,706,704,704,704,703,703,701,701,698,698,700,700,700,700,701,700,700,700,698,698,698,698,697,697,698,698,698,698,697,697,696,696,698,698,698,698,698,698,698,698,697,697,696,696,696,696,686,686,691,690,687,687,688,688,688,688,690,691,691,691,691,693,693,693,694,694,696,696,697,697,698,698,701,703,703,703,703,704,704,706,707,708,708,710,710,710,710,711,713,713,714,716,716,717,719,720,720,720,722,723,727,728,728,728,730,730,733,734,734,736,738,736,736,742,747,749,750,752,754,754,754,755,755,755,757,759,759,761,762,762,764,764,766,769,771,773,773,773,774,776,776,778,778,780,781,781,783,785,785,787,789,789,789,790,792,794,794,794,796,796,798,798,800,802,802,803,803,805,805,809,809,811,811,813,817,817,819,819,819,821,825,825,827,827,829,831,831,833,835,835,835,837,837,839,839,841,841,843,845,847,847,849,849,851,851,854,854,854,854,858,858,860,860,862,864,864,867,867,869,869,869,869,869,0,0,0,0,0,0,906,906,906,906,903,903,901,898,898,898,898,896,896,898,898,898,901,901,903,903,906,906,908,908,910,910,910,910,913,913,0,0,0,0,0,0,1739,1731,1731,1731,1731,1722,1713,1705,1705,1696,1696,1688,1680,1680,1671,1671,1671,1671,1671,1663,1663,1663,1647,1647,1639,1632,1624,1624,1624,1616,1609,1609,1609,1601,1601,1594,1594,1594,1579,1579,1572,1572,1564,1557,1550,1550,1550,1550,1550,1550,1543,1536,1529,1523,1523,1516,1516,1516,1516,1516,1509,1509,1503,1503,1496,1489,1489,1483,1483,1477,1477,1470,1470,1464,1464,1464,1452,1445,1445,1445,1439,1439,1439,1433,1433,1427,1427,1421,1415,1415,1410,1410,1404,1398,1398,1398,1392,1392,1392,1387,1387,1381,1376,1376,1370,1370,1370,1365,1359,1354,1354,1354,1349,1349,1343,1338,1338,1333,1333,1333,1333,1328,1328,1322,1322,1317,1312,1312,1312,1307,1302,1302,1297,1297,1292,1292,1288,1288,1283,1278,1278,1273,1273,1268,1268,1264,1264,1259,1255,1255,1255,1250,1250,1245,1241,1236,1236,1236,1232,1232,1232,1227,1223,1223,1219,1219,1214,1214,1210,1206,1206,1202,1202,1197,1197,1197,1193,1193,1189,1185,1185,1185,1181,1181,1177,1173,1169,1169,1169,1165,1165,1165,1161,1157,1157,1153,1153,1149,1145,1141,1141,1141,1138,1138,1134,1134,1134,1130,1126,1123,1123,1123,1119,1119,1119,1115,1112,1108,1108,1105,1105,1105,1101,1101,1097,1094,1094,1090,1090,1090,1090,1087,1084,1080,1080,1080,1080,1080,1080,1077,1073,1070,1067,1067,1063,1063,1060,1057,1057,1054,1054,1054,1050,1050,1047,1044,1044,1041,1038,1038,1038,1038,1034,1034,1031,1031,1028,1028,1025,1025,0,0,0,0,0,0,0,0,0,0,0,0,0,0,0,0,0,0,0,0,0,0,0,0,0,0,0,0,0,0,0
0,0,0,0,0,0,0,0,0,0,0,0,0,0,0,1959,1959,1959,1947,1947,1947,1947,1947,1947,1936,1936,1936,1936,1947,1947,1947,1936,1936,1947,0,0,0,0,0,0,0,0,0,0,0,0,964,964,964,964,964,964,964,964,0,0,0,0,0,0,722,719,719,716,714,713,711,710,703,701,700,700,703,708,703,701,701,703,700,700,698,697,697,698,697,697,697,697,698,698,698,698,697,697,697,697,697,697,697,697,697,697,696,696,696,696,697,697,698,698,698,698,698,697,697,694,690,687,687,687,686,686,687,687,687,687,687,687,687,687,687,688,690,690,691,693,693,693,694,694,696,696,697,697,698,698,700,701,703,703,703,704,704,706,707,708,708,708,710,710,710,711,713,713,714,716,716,719,720,720,720,722,723,727,728,730,731,731,731,733,734,736,738,741,742,746,747,749,750,750,752,752,754,754,755,755,757,757,759,759,761,762,762,764,764,766,767,769,771,773,773,773,774,776,776,778,778,781,781,781,783,785,787,787,789,789,790,790,792,794,794,794,796,796,798,800,802,803,803,803,805,805,805,809,809,811,811,815,817,817,819,819,823,823,825,825,827,827,829,831,831,833,835,835,835,837,839,841,841,841,841,843,845,845,847,849,851,851,851,854,854,854,854,856,856,858,860,862,864,864,867,867,869,869,871,0,0,0,0,0,0,0,0,915,913,910,908,908,906,903,901,901,898,898,898,898,898,898,898,901,901,903,903,906,908,908,908,910,910,913,913,913,915,0,0,0,0,0,0,1739,1731,1731,1731,1722,1722,1713,1705,1705,1696,1696,1688,1688,1680,1680,1671,1671,1671,1671,1671,1663,1663,1655,1647,1639,1632,1624,1624,1624,1616,1616,1609,1609,1609,1601,1601,1594,1594,1586,1579,1572,1572,1564,1564,1557,1550,1550,1550,1550,1550,1550,1536,1529,1523,1523,1516,1516,1516,1516,1516,1509,1509,1503,1503,1496,1489,1489,1489,1483,1483,1477,1477,1470,1470,1464,1464,1458,1452,1445,1445,1439,1439,1439,1433,1433,1427,1427,1421,1421,1415,1415,1410,1410,1404,1398,1398,1398,1392,1392,1392,1387,1381,1381,1376,1370,1370,1370,1365,1359,1354,1354,1354,1349,1349,1343,1338,1333,1333,1333,1333,1333,1328,1328,1328,1322,1322,1317,1312,1312,1307,1302,1302,1297,1297,1292,1292,1288,1288,1283,1278,1278,1273,1273,1268,1268,1268,1264,1259,1259,1255,1255,1255,1250,1250,1241,1236,1236,1236,1236,1232,1232,1232,1227,1223,1219,1219,1214,1214,1210,1206,1206,1206,1202,1202,1197,1197,1197,1193,1189,1185,1185,1185,1181,1181,1177,1173,1169,1169,1169,1169,1165,1165,1161,1161,1161,1153,1153,1149,1145,1141,1141,1141,1138,1138,1134,1134,1134,1130,1130,1123,1123,1123,1119,1119,1119,1115,1112,1108,1108,1105,1105,1105,1101,1101,1097,1097,1094,1090,1090,1090,1090,1087,1084,1080,1080,1080,1080,1080,1080,1077,1073,1070,1067,1067,1063,1063,1060,1060,1057,1054,1054,1054,1050,1050,1047,1047,1044,1041,1041,1041,1038,1038,1038,1034,1034,1031,1028,1028,1025,1025,0,0,0,0,0,0,0,0,0,0,0,0,0,0,0,0,0,0,0,0,0,0,0,0,0,0,0,0,0,0,0
0,0,0,0,0,0,0,0,0,0,0,0,0,0,0,1936,1936,1947,1947,1936,1936,1936,1936,1936,1926,1926,1926,1936,1936,1936,1936,1926,1926,1926,1936,0,0,0,0,0,0,0,0,0,0,0,0,967,967,967,964,964,964,964,0,0,0,0,0,0,0,717,717,714,713,710,710,703,700,698,697,697,696,696,694,691,691,697,696,696,694,694,697,696,696,696,696,696,696,697,696,696,696,694,694,696,696,696,696,696,696,696,696,696,696,696,697,697,698,698,698,698,697,697,697,694,684,683,682,682,683,683,687,687,686,686,686,686,687,687,687,687,688,690,691,691,693,693,694,694,696,696,697,697,698,698,700,701,703,703,704,704,706,707,708,708,708,708,710,711,711,713,713,714,716,716,717,720,720,722,722,723,727,728,730,730,733,733,734,734,739,741,741,746,746,747,749,749,750,752,752,754,755,755,755,757,757,759,759,759,761,762,764,764,766,766,767,769,771,773,773,773,774,776,778,778,780,781,781,783,785,787,787,787,789,790,790,792,792,794,794,796,796,798,798,800,802,803,803,805,805,807,807,809,811,815,815,815,817,819,819,819,823,825,825,827,827,829,829,831,833,833,835,837,837,837,839,841,841,841,843,843,843,845,847,849,851,851,851,854,854,854,854,856,856,858,858,858,1804,1804,1804,0,0,0,0,0,0,0,0,0,0,0,0,915,913,913,910,910,906,906,903,903,901,898,898,898,898,898,901,901,903,903,906,906,908,908,908,913,913,913,913,915,915,915,0,0,0,0,0,1739,1731,1731,1731,1722,1722,1713,1705,1705,1705,1696,1696,1688,1680,1680,1671,1671,1671,1671,1671,1663,1663,1655,1647,1639,1632,1632,1632,1624,1616,1616,1609,1609,1609,1601,1601,1601,1594,1586,1579,1579,1572,1572,1564,1557,1557,1550,1550,1550,1550,1550,1536,1529,1523,1523,1516,1516,1516,1516,1516,1516,1509,1509,1503,1496,1496,1489,1489,1489,1483,1483,1477,1470,1470,1464,1464,1464,1452,1452,1445,1445,1439,1439,1433,1433,1427,1427,1421,1421,1415,1415,1415,1410,1404,1404,1398,1398,1392,1392,1392,1392,1381,1381,1381,1376,1370,1370,1365,1359,1359,1354,1354,1354,1349,1343,1338,1333,1333,1333,1333,1333,1328,1328,1328,1322,1322,1317,1312,1312,1307,1307,1302,1302,1297,1292,1292,1288,1288,1283,1283,1278,1278,1273,1273,1268,1268,1264,1259,1259,1255,1255,1255,1250,1250,1245,1241,1236,1236,1236,1232,1232,1232,1227,1227,1223,1219,1214,1214,1210,1210,1206,1206,1202,1202,1197,1197,1197,1193,1189,1185,1185,1185,1181,1181,1177,1177,1173,1169,1169,1169,1165,1165,1165,1161,1161,1153,1153,1153,1149,1145,1145,1141,1141,1138,1138,1134,1134,1130,1130,1123,1123,1123,1123,1123,1119,1119,1115,1112,1108,1108,1105,1105,1105,1101,1101,1094,1094,1090,1090,1090,1090,1087,1084,1080,1080,1080,1080,1080,1080,1080,1077,1073,1070,1067,1067,1063,1060,1060,1057,1057,1054,1054,1054,1050,1050,1047,1044,1044,1041,1041,1041,1038,1038,1034,1034,1031,1028,1028,1028,1028,0,0,0,0,0,0,0,0,0,0,0,0,0,0,0,0,0,0,0,0,0,0,0,0,0,0,0,0,0,0,0
0,0,0,0,0,0,0,0,0,0,0,0,0,0,0,1926,1926,1936,1936,1936,1936,1936,1936,1936,1926,1926,1926,1926,1926,1926,1915,1915,1915,1915,1926,0,0,0,0,0,0,0,0,0,0,0,0,967,967,967,967,967,967,967,970,0,0,0,0,0,0,717,717,714,713,710,708,698,698,696,694,694,690,690,691,690,690,690,690,690,691,691,693,693,693,693,693,693,694,694,694,694,694,693,693,694,694,694,696,696,696,696,696,696,696,696,697,698,698,697,678,678,697,697,683,683,683,683,682,682,683,683,686,686,686,686,686,686,686,687,687,687,688,690,691,691,693,693,694,694,696,696,697,697,698,698,698,701,703,703,704,704,706,707,708,708,708,710,710,711,711,713,714,714,716,717,719,720,722,722,723,728,730,730,731,731,734,734,736,738,741,741,744,746,746,747,749,749,750,752,752,754,755,755,755,757,759,759,759,761,762,764,764,766,766,767,767,771,771,773,773,773,776,776,778,778,781,781,781,785,785,787,787,789,789,790,790,792,794,794,794,796,796,798,798,802,803,805,805,805,807,809,809,809,811,815,815,817,819,819,819,819,823,825,825,827,827,829,831,831,833,833,835,835,835,837,839,841,841,841,843,843,843,847,849,851,851,851,854,854,854,854,851,851,851,858,858,1804,1804,1804,1804,1785,0,0,0,0,0,0,0,0,0,0,0,915,913,913,913,910,908,906,903,903,901,901,898,898,898,898,901,903,903,906,906,906,908,908,910,913,913,913,915,915,915,915,0,0,0,0,0,0,1731,1731,1731,1722,1722,1722,1713,1705,1705,1705,1696,1688,1680,1680,1680,1671,1671,1671,1671,1663,1663,1655,1647,1639,1639,1632,1632,1632,1624,1616,1609,1609,1609,1601,1601,1601,1594,1586,1579,1579,1579,1572,1572,1564,1557,1557,1550,1550,1550,1543,1536,1529,1523,1523,1516,1516,1516,1516,1516,1516,1509,1509,1503,1496,1496,1489,1489,1489,1483,1483,1477,1470,1470,1464,1464,1464,1458,1452,1452,1445,1445,1439,1439,1433,1427,1427,1421,1421,1415,1415,1415,1410,1404,1404,1398,1398,1398,1392,1392,1392,1381,1381,1381,1376,1370,1370,1365,1359,1359,1354,1354,1354,1354,1343,1343,1338,1333,1333,1333,1333,1333,1328,1328,1322,1322,1317,1312,1312,1307,1307,1302,1302,1297,1297,1292,1292,1288,1288,1283,1283,1278,1273,1273,1268,1268,1264,1264,1259,1255,1255,1255,1250,1250,1250,1241,1241,1236,1236,1236,1232,1232,1232,1227,1223,1219,1219,1214,1214,1210,1210,1206,1206,1202,1202,1197,1197,1193,1189,1189,1185,1185,1181,1181,1181,1177,1173,1173,1169,1169,1169,1165,1165,1161,1161,1157,1153,1153,1149,1145,1145,1141,1141,1138,1138,1138,1134,1134,1134,1130,1123,1123,1123,1123,1119,1119,1115,1112,1108,1108,1108,1105,1105,1105,1101,1094,1094,1090,1090,1090,1090,1087,1084,1084,1084,1080,1080,1080,1080,1080,1077,1077,1070,1070,1067,1063,1063,1060,1060,1057,1057,1054,1054,1054,1050,1050,1047,1044,1044,1044,1041,1038,1038,1034,1034,1031,1028,1028,1028,1028,0,0,0,0,0,0,0,0,0,0,0,0,0,0,0,0,0,0,0,0,0,0,0,0,0,0,0,0,0,0,0
0,0,0,0,0,0,0,0,0,0,0,0,0,0,1926,1926,1926,1926,1926,1926,1926,1936,1936,1936,1926,1926,1926,1926,1915,1915,1915,1915,1915,1904,1904,0,0,0,0,0,0,0,0,0,0,0,0,0,970,970,967,967,970,970,970,0,0,0,0,0,0,0,717,714,714,708,708,696,696,694,693,691,690,690,690,688,688,690,687,686,684,684,690,691,690,690,691,691,691,693,691,691,693,691,691,691,691,691,693,693,693,691,691,696,696,696,697,676,676,676,676,678,679,679,680,680,680,680,682,682,682,682,682,683,684,684,686,686,686,687,687,687,688,690,691,693,693,693,694,694,696,696,696,697,698,698,698,703,703,704,704,706,707,708,708,708,708,710,710,711,713,714,716,716,717,720,720,722,723,725,725,730,730,731,733,733,736,736,739,739,744,746,746,747,747,747,749,750,752,752,752,754,755,755,757,757,759,759,761,761,762,764,764,766,766,767,769,771,773,773,773,773,776,776,778,778,781,783,783,785,785,787,787,789,789,790,792,792,794,794,794,796,798,800,800,802,803,805,807,807,807,809,809,811,811,815,815,817,819,819,819,821,823,825,825,827,829,831,831,833,833,835,835,835,835,837,841,841,841,841,843,843,843,847,849,851,854,856,856,854,854,854,851,851,851,1794,1794,1794,1804,1794,1794,1785,1785,0,0,0,0,0,0,0,0,0,0,0,915,915,913,910,910,906,903,903,903,901,898,898,901,901,903,903,903,906,906,908,908,908,913,913,915,915,915,918,918,918,0,0,0,0,0,0,1731,1731,1731,1731,1722,1722,1713,1713,1705,1705,1696,1696,1688,1680,1680,1671,1671,1671,1671,1663,1663,1655,1647,1639,1639,1632,1632,1632,1624,1624,1616,1609,1609,1601,1601,1601,1594,1586,1579,1579,1579,1572,1572,1564,1557,1557,1550,1550,1550,1543,1536,1529,1523,1523,1523,1516,1516,1516,1516,1516,1509,1509,1503,1496,1496,1489,1489,1489,1483,1483,1477,1470,1470,1464,1464,1464,1458,1452,1452,1445,1445,1439,1439,1433,1433,1427,1421,1421,1415,1415,1415,1410,1404,1404,1398,1398,1398,1392,1392,1392,1387,1381,1381,1376,1370,1370,1365,1359,1359,1354,1354,1354,1349,1343,1343,1338,1333,1333,1333,1333,1333,1328,1328,1322,1322,1317,1312,1312,1307,1307,1307,1302,1297,1297,1292,1292,1288,1288,1288,1283,1278,1273,1273,1273,1268,1268,1264,1259,1255,1255,1255,1255,1250,1250,1245,1241,1236,1236,1236,1232,1232,1232,1227,1223,1219,1219,1214,1214,1214,1210,1210,1206,1202,1202,1197,1197,1193,1193,1189,1185,1185,1185,1181,1181,1177,1173,1173,1169,1169,1169,1165,1165,1165,1161,1157,1157,1153,1149,1149,1149,1145,1141,1141,1138,1138,1134,1134,1134,1130,1123,1123,1123,1123,1119,1119,1115,1112,1108,1108,1108,1105,1105,1105,1101,1097,1094,1094,1090,1090,1090,1087,1087,1084,1084,1080,1080,1080,1080,1080,1077,1073,1070,1070,1067,1067,1063,1063,1060,1057,1057,1057,1054,1054,1050,1050,1047,1047,1044,1044,1041,1038,1038,1034,1034,1031,1028,1028,1028,1028,0,0,0,0,0,0,0,0,0,0,0,0,0,0,0,0,0,0,0,0,0,0,0,0,0,0,0,0,0,0,0
0,0,0,0,0,0,0,0,0,0,0,0,0,0,1926,1915,1915,1926,1926,1926,1926,1926,1926,1926,1915,1904,1904,1915,1915,1904,1904,1904,1904,1904,1904,1904,0,0,0,0,0,0,0,0,0,0,0,0,970,970,973,970,970,973,973,975,0,0,0,0,0,0,0,0,0,0,713,696,696,694,693,690,688,687,687,687,686,686,684,683,680,680,678,678,682,679,679,688,688,686,686,684,684,687,687,687,688,688,691,691,691,691,691,691,676,676,676,676,676,676,676,676,678,678,679,679,680,680,680,680,682,682,682,683,684,684,686,686,686,687,687,687,687,690,691,693,693,694,694,696,696,696,696,697,698,698,700,703,703,704,704,706,707,708,708,710,710,711,711,713,714,716,717,720,720,722,722,723,725,727,727,731,731,733,733,734,739,739,741,742,744,746,746,747,747,749,749,750,752,752,754,754,755,757,757,757,759,759,761,762,764,766,766,766,767,769,769,771,773,773,774,774,776,778,778,780,781,783,783,785,787,787,787,790,790,792,792,794,794,796,796,796,798,800,802,803,803,807,807,807,809,809,809,811,811,815,815,817,819,819,819,821,823,825,825,827,829,829,831,833,833,833,835,835,837,839,841,841,843,843,843,845,845,847,849,851,851,1776,1776,1776,1776,1776,1776,851,851,1794,1794,1794,1794,1794,1794,1785,1785,0,0,0,0,0,0,0,0,0,0,0,915,915,913,913,910,910,906,906,903,901,901,901,901,901,903,903,903,906,906,908,908,908,913,913,915,915,918,918,918,918,0,0,0,0,0,0,1731,1731,1731,1731,1731,1722,1713,1713,1705,1705,1696,1696,1688,1680,1680,1671,1671,1671,1671,1663,1663,1655,1655,1639,1639,1632,1632,1632,1624,1624,1616,1609,1609,1601,1601,1601,1594,1586,1579,1579,1579,1579,1572,1572,1564,1557,1550,1550,1550,1543,1543,1529,1529,1523,1523,1516,1516,1516,1516,1516,1509,1509,1503,1496,1496,1489,1489,1489,1483,1483,1477,1470,1470,1464,1464,1464,1458,1452,1452,1445,1445,1439,1439,1433,1433,1427,1427,1421,1415,1415,1415,1410,1404,1404,1404,1398,1398,1392,1392,1392,1387,1381,1381,1376,1370,1370,1365,1359,1359,1359,1354,1354,1349,1343,1343,1338,1338,1333,1333,1333,1333,1328,1328,1322,1322,1317,1312,1307,1307,1307,1307,1302,1302,1297,1297,1292,1292,1288,1288,1288,1283,1273,1273,1273,1268,1268,1268,1264,1259,1255,1255,1255,1250,1250,1245,1241,1236,1236,1236,1236,1232,1232,1227,1223,1219,1219,1214,1214,1214,1210,1210,1206,1206,1202,1202,1197,1197,1193,1189,1189,1185,1185,1181,1181,1181,1177,1173,1169,1169,1169,1165,1165,1165,1161,1161,1157,1153,1153,1149,1149,1145,1141,1141,1138,1138,1138,1134,1134,1134,1130,1126,1123,1123,1123,1119,1115,1115,1108,1108,1108,1105,1105,1105,1101,1097,1094,1094,1090,1090,1090,1090,1087,1084,1084,1084,1084,1080,1080,1077,1077,1073,1070,1070,1067,1067,1063,1063,1063,1060,1060,1057,1057,1054,1054,1050,1047,1047,1044,1044,1041,1038,1038,1034,1034,1031,1028,1028,1028,1028,0,0,0,0,0,0,0,0,0,0,0,0,0,0,0,0,0,0,0,0,0,0,0,0,0,0,0,0,0,0,0
0,0,0,0,0,0,0,0,0,0,0,0,0,0,1915,1915,1915,1915,1915,1915,1915,1904,1904,1915,1894,1894,1894,1894,1894,1894,1894,1894,1894,1894,1894,1904,0,0,0,0,0,0,0,0,0,0,0,975,973,973,973,973,973,973,975,975,978,0,0,0,0,0,0,0,0,0,703,697,697,696,693,688,686,686,686,683,683,676,676,676,678,676,676,676,679,678,676,676,686,686,686,683,683,684,684,686,683,683,691,691,691,670,670,671,672,672,675,675,675,675,676,676,678,678,678,678,680,680,680,680,682,682,683,683,684,684,686,686,686,687,687,687,687,690,691,693,693,694,696,696,696,696,697,697,698,698,701,703,703,704,704,706,707,708,710,711,713,713,714,714,716,717,719,722,722,723,723,725,728,728,728,731,733,734,734,739,739,741,741,742,746,746,746,747,747,749,749,750,752,752,754,754,755,757,757,757,759,761,762,764,764,766,766,767,767,769,771,773,773,774,774,776,778,778,778,780,783,783,783,785,787,787,789,792,792,792,794,794,796,796,796,798,798,800,802,803,803,807,807,809,809,809,811,813,813,815,817,817,819,819,821,823,823,825,827,827,827,829,831,831,833,833,835,835,837,839,841,843,843,843,845,845,845,845,1776,1776,1776,1776,1776,1776,1776,1776,1785,851,851,1785,1785,1794,1794,1776,1776,1776,1766,1757,1757,0,0,0,0,0,0,0,0,0,0,915,913,913,913,910,906,906,903,903,903,901,901,901,903,906,906,906,906,908,908,910,913,913,915,918,918,918,920,920,0,0,0,0,0,0,1739,1731,1731,1731,1731,1722,1722,1713,1713,1705,1696,1696,1688,1680,1680,1671,1671,1671,1671,1663,1663,1663,1663,1647,1639,1639,1632,1632,1624,1624,1616,1609,1609,1609,1601,1601,1594,1586,1586,1579,1579,1579,1572,1572,1564,1557,1557,1550,1550,1543,1543,1536,1529,1523,1523,1523,1516,1516,1516,1516,1509,1509,1503,1496,1496,1489,1489,1489,1483,1483,1477,1470,1470,1470,1470,1464,1464,1458,1458,1452,1445,1439,1439,1439,1433,1427,1427,1421,1421,1415,1415,1415,1410,1404,1404,1398,1398,1392,1392,1392,1387,1381,1381,1376,1370,1370,1365,1365,1359,1359,1359,1354,1349,1343,1343,1338,1338,1333,1333,1333,1333,1328,1328,1322,1322,1317,1312,1307,1307,1307,1307,1302,1302,1297,1297,1292,1292,1288,1288,1288,1283,1278,1273,1273,1268,1268,1268,1264,1259,1259,1255,1255,1255,1250,1250,1241,1241,1236,1236,1236,1232,1232,1227,1227,1223,1219,1219,1214,1214,1214,1210,1210,1206,1202,1202,1197,1197,1193,1193,1189,1185,1185,1185,1181,1181,1177,1173,1169,1169,1169,1169,1165,1165,1165,1161,1161,1157,1153,1153,1149,1149,1145,1141,1138,1138,1138,1138,1134,1134,1134,1130,1123,1123,1123,1119,1119,1115,1112,1112,1108,1108,1105,1105,1101,1097,1094,1094,1090,1090,1090,1090,1087,1087,1084,1084,1084,1080,1080,1077,1077,1073,1070,1070,1067,1067,1063,1063,1063,1060,1060,1060,1057,1054,1054,1050,1050,1047,1047,1044,1041,1041,1038,1038,1034,1031,1028,1028,1028,1028,0,0,0,0,0,0,0,0,0,0,0,0,0,0,0,0,0,0,0,0,0,0,0,0,0,0,0,0,0,0,0
