0,0,0,0,1038,1038,1038,1038,1038,1038,1038,1034,1034,1034,1034,1038,1038,1034,1034,1034,1031,1031,1031,1031,1031,1031,1031,1031,1031,1028,1028,1025,1025,1025,1028,1025,1025,1025,1025,1025,1025,1022,1022,1022,1019,1019,1022,1022,1022,1022,1022,1025,1025,1025,1022,1022,1022,1022,1022,1019,1019,1019,1019,1022,1022,1022,1022,1022,1022,1022,1022,1022,1019,1019,1019,1019,1019,1019,1019,1022,1022,1022,1022,1022,1022,1022,1022,1022,1022,1022,1022,1022,1022,1022,1022,1022,1022,1022,1022,1022,1022,1022,1022,1022,1022,1022,1019,1019,1019,1019,1019,1019,1019,1019,1019,1019,1019,1019,1019,1019,1019,1019,1016,1016,1019,1016,1016,1016,1016,1016,1016,1016,1016,1016,1016,0,0,0,0,0,781,780,780,780,780,780,780,781,781,781,781,785,785,787,787,787,789,789,789,792,792,794,794,796,796,798,803,805,807,807,809,811,811,813,813,815,815,817,817,817,817,819,819,819,819,823,825,825,829,831,831,831,833,833,833,833,835,835,837,839,841,841,843,843,845,1001,1001,1001,1001,1001,1001,1001,1001,1001,1001,1001,1001,1001,1001,1001,1001,1001,1001,1004,1004,1004,1004,1004,1004,1001,1001,1001,1001,1001,1001,1001,1001,1001,1001,998,998,998,998,1001,1001,1001,1001,1001,1001,1001,1001,1001,1001,1001,1001,1001,1001,1001,998,998,1001,998,998,998,995,995,995,995,995,995,995,995,995,995,998,995,995,995,995,995,995,995,995,992,992,995,995,995,995,992,992,992,992,992,995,995,995,998,998,995,992,992,992,992,992,992,992,992,992,992,995,992,992,992,992,992,992,995,995,995,998,995,995,995,995,995,992,992,992,992,992,992,992,992,992,992,992,992,992,992,992,992,989,989,989,989,989,989,992,989,989,992,989,989,989,989,989,992,992,992,992,992,992,992,992,989,989,989,989,989,989,989,989,989,989,989,989,989,989,989,989,989,987,987,987,987,987,987,987,987,987,987,987,987,987,987,987,984,984,984,984,984,984,984,984,984,984,984,984,984,984,984,984,984,984,984,984,981,981,981,981,981,981,981,981,981,981,981,981,981,981,981,981,981,984,984,981,981,981,978,978,975,975,978,978,978,978,978,978,978,978,978,978,978,978,978,978,978,978,978,978,978,978,975,975,975,975,975,975,975,975,975,975,975,975,975,975,975,975,975,975,975,975,975,975,975,973,973,973,970,970,967,967,967,967,967,967,967,967,970,970,970,970,970,970,970,970,967,967,967,970,970,970,970,967,967,967,967,967,967,967,967,967,970,970,970,970,970,970,967,967,967,967,967,964,964,967,967,962,962,962,962,964,964,962,962,964,964,967,967,967,967,970,970,970,970,970,970,967,761,761,761,761,759,759,759,759,759,759,759,757,757,755,755,755,755,755,754,754,754,754,754,754,754,754,754,754,754,754,754,754,754,752,752,752,752,752,752,752,752,752,0,0,0,0,0,0,0,0,0,0,0,0,0,0,0,0,0,0,0,0,0,0,0,0,0,0,0,0,0,0,0,0,0,0,0,0,0,0,0
0,0,0,0,1038,1038,1038,1034,1034,1034,1034,1034,1034,1034,1034,1034,1034,1031,1031,1031,1028,1028,1025,1025,1028,1028,1028,1025,1025,1025,1025,1025,1025,1025,1025,1025,1025,1025,1025,1022,1022,1022,1019,1019,1019,1019,1019,1019,1019,1019,1022,1022,1022,1022,1019,1019,1022,1019,1019,1019,1019,1016,1016,1016,1016,1016,1019,1019,1019,1019,1019,1019,1019,1019,1016,1016,1016,1016,1016,1016,1016,1013,1013,1022,1022,1019,1019,1019,1019,1019,1019,1019,1019,1019,1019,1019,1019,1019,1019,1019,1019,1019,1019,1019,1019,1019,1016,1016,1016,1016,1016,1016,1016,1016,1016,1016,1016,1016,1016,1016,1016,1016,1016,1016,1016,1016,1016,1013,1013,1013,1013,1013,1013,1013,1010,1010,0,0,0,0,781,781,781,781,781,781,781,781,781,781,783,785,785,787,787,789,789,789,790,792,792,794,794,796,798,798,803,805,807,807,809,811,811,813,813,815,817,817,817,817,819,819,821,821,821,823,825,827,829,831,831,831,831,833,833,833,835,835,837,839,841,841,843,1001,1001,998,998,1001,1001,1001,1001,1001,1001,1001,1001,1001,1001,1001,1001,998,998,998,998,998,998,1001,1001,1001,1001,1001,1001,1001,1001,1001,998,998,998,998,998,998,998,998,998,998,998,998,998,998,998,998,998,998,998,998,998,998,998,998,998,998,998,998,998,998,995,992,992,992,992,992,992,992,992,995,995,992,992,992,992,992,992,992,992,989,989,992,989,989,989,989,989,989,989,989,992,992,992,992,992,992,989,989,989,989,989,989,989,989,989,989,992,992,992,992,992,992,992,992,992,992,992,992,992,992,992,992,992,992,992,992,992,992,992,992,992,989,989,989,989,989,989,989,989,989,989,989,989,987,987,987,987,989,989,989,989,989,989,989,989,989,989,989,989,989,989,989,989,989,989,989,989,989,989,989,989,987,987,987,987,987,987,987,987,987,987,987,987,987,987,987,987,987,987,987,984,984,984,984,984,981,981,981,981,981,981,981,981,981,981,981,981,981,981,981,981,981,981,981,981,981,981,981,981,978,978,978,978,978,978,978,978,978,978,978,978,978,978,978,978,975,975,973,973,975,975,975,975,975,975,975,975,975,973,973,975,975,973,973,973,973,975,975,975,975,973,973,973,975,975,975,975,973,973,973,973,973,970,970,973,973,970,970,970,970,970,970,970,970,970,970,970,967,967,967,967,967,967,967,967,967,970,967,967,967,967,967,967,967,964,964,967,967,967,967,967,967,967,967,967,967,967,967,967,967,967,967,967,967,964,964,964,964,967,964,962,962,964,962,962,959,959,962,962,962,962,962,962,962,964,964,964,967,967,967,967,970,967,967,761,761,761,761,761,761,759,759,759,759,759,759,757,755,755,755,755,755,754,754,754,754,754,754,754,754,754,754,754,754,754,754,754,754,752,752,752,752,752,752,752,752,752,0,0,0,0,0,0,0,0,0,0,0,0,0,0,0,0,0,0,0,0,0,0,0,0,0,0,0,0,0,0,0,0,0,0,0,0,0,0,0
0,0,0,0,1034,1034,1034,1034,1034,1034,1031,1028,1025,1025,1031,1022,1022,1028,1028,1028,1028,1025,1025,1025,1025,1025,1025,1022,1022,1022,1022,1022,1022,1025,1025,1022,1022,1022,1022,1022,1019,1019,1019,1019,1016,1016,1016,1016,1019,1019,1019,1019,1019,1019,1019,1019,1019,1016,1016,1016,1016,1013,1013,1013,1013,1013,1013,1013,1013,1013,1016,1016,1016,1016,1016,1013,1013,1013,1013,1013,1013,1013,1013,1013,1013,1013,1013,1013,1013,1016,1016,1016,1016,1016,1016,1016,1016,1016,1016,1016,1016,1016,1016,1013,1013,1013,1013,1013,1013,1013,1013,1013,1013,1013,1013,1013,1013,1010,1010,1013,1013,1013,1013,1013,1013,1013,1013,1013,1013,1010,1010,1010,1010,1010,1007,1007,0,1004,0,0,0,781,781,781,781,781,781,781,781,783,785,785,787,787,787,789,789,790,790,792,792,794,796,796,798,800,803,805,807,809,809,811,811,813,813,815,817,817,817,819,819,821,821,823,823,825,825,827,829,829,831,831,831,833,833,833,835,998,998,841,841,998,998,1001,1001,998,998,998,998,1001,1001,1001,1001,1001,1001,998,998,998,998,998,998,998,998,995,995,998,998,998,998,998,998,1001,998,998,998,998,998,998,998,998,998,995,995,995,995,995,995,995,995,995,995,998,998,998,998,998,998,998,998,998,998,998,995,995,992,992,992,992,992,992,989,989,992,992,992,992,992,989,989,989,989,989,989,989,989,989,989,989,989,989,987,987,989,989,989,989,989,989,989,989,989,987,987,987,989,989,989,989,989,989,989,989,989,989,989,989,989,989,989,989,989,989,989,989,989,989,989,989,989,989,989,989,989,989,989,989,987,987,987,989,989,989,987,987,987,987,987,987,987,984,984,987,987,987,987,987,987,989,989,987,987,987,987,987,987,984,984,987,987,987,987,987,987,987,984,984,984,981,981,981,981,981,981,981,984,984,984,984,981,981,981,981,981,981,981,981,981,981,981,981,978,978,978,978,978,978,981,981,981,981,981,981,981,981,981,981,981,978,978,978,978,978,978,978,978,978,978,978,978,975,975,975,975,975,975,975,975,975,973,973,973,970,970,973,973,973,973,973,973,973,973,973,970,970,973,973,970,970,970,970,970,970,970,973,973,973,973,973,973,970,970,970,970,970,970,970,970,970,970,967,967,967,967,967,967,967,967,967,967,967,967,967,967,967,967,967,967,967,967,967,967,967,967,967,967,967,964,964,962,962,962,962,962,962,964,967,964,964,964,964,962,962,962,962,962,962,962,964,962,962,962,962,962,962,959,959,962,962,959,959,959,959,959,959,959,959,959,959,962,962,964,964,964,967,967,967,761,761,761,759,759,761,761,761,759,759,759,759,757,757,757,755,755,755,755,754,754,754,754,754,754,754,754,754,754,754,754,754,754,754,754,754,752,752,752,752,752,752,754,754,754,0,0,0,0,0,0,0,0,0,0,0,0,0,0,0,0,0,0,0,0,0,0,0,0,0,0,0,0,0,0,0,0,0,0,0,0,0,0,0
0,0,0,0,1031,1031,1031,1031,1031,1028,1028,1028,1025,1025,1022,1022,1022,1022,1022,1022,1022,1022,1022,1022,1022,1022,1022,1019,1019,1019,1022,1019,1019,1019,1019,1019,1019,1013,1013,1019,1016,1016,1016,1016,1016,1016,1016,1016,1016,1016,1016,1016,1016,1016,1016,1016,1016,1013,1013,1013,1013,1013,1010,1010,1010,1007,1007,1010,1010,1013,1013,1013,1013,1013,1013,1013,1013,1013,1013,1013,1010,1010,1010,1010,1010,1010,1010,1013,1013,1013,1013,1013,1013,1013,1013,1013,1013,1013,1013,1013,1013,1013,1013,1013,1013,1013,1013,1010,1010,1010,1010,1010,1010,1010,1010,1010,1010,1010,1010,1010,1010,1010,1013,1013,1013,1010,1010,1010,1010,1010,1007,1007,1007,1007,1004,1004,1004,0,1004,0,0,781,781,781,781,781,781,781,781,783,785,787,787,787,787,789,790,790,790,792,792,794,796,798,800,800,803,807,807,809,809,811,811,813,813,815,817,817,817,819,819,821,823,823,825,825,827,827,829,829,831,831,831,833,833,995,995,998,995,995,998,998,998,998,998,998,998,998,998,998,998,998,998,998,998,998,998,998,998,995,995,995,995,992,992,995,995,995,995,995,995,998,998,998,995,995,998,998,998,995,995,995,995,995,995,992,992,995,995,995,995,995,995,995,995,995,995,995,995,995,995,995,992,992,989,989,989,989,989,989,989,989,989,989,989,989,989,989,989,987,987,987,987,987,987,987,987,987,987,987,987,987,987,987,987,987,989,989,989,987,987,987,987,987,987,987,987,987,987,987,989,989,987,987,987,987,989,987,987,989,989,989,989,989,989,989,989,989,989,987,987,987,987,987,987,984,984,984,984,987,987,984,984,984,984,984,984,984,984,984,984,984,984,981,981,984,984,987,987,984,984,984,984,984,984,984,984,984,984,984,984,984,984,981,981,981,981,981,981,981,981,981,981,981,981,981,978,978,978,978,978,978,978,978,978,978,978,978,978,978,978,978,978,978,978,978,978,978,978,978,978,978,981,978,978,978,978,978,978,978,978,978,978,975,975,975,975,975,975,973,973,973,973,973,973,973,970,970,970,970,970,970,970,970,970,970,970,970,970,970,970,970,970,970,970,970,970,970,970,970,970,967,967,967,967,967,967,970,970,970,970,970,970,970,967,967,967,967,967,964,964,964,964,967,967,967,967,967,967,967,967,964,964,964,964,964,964,964,964,964,964,964,964,964,964,964,964,962,962,962,962,962,962,962,962,962,962,964,962,962,962,962,959,959,959,959,959,962,962,959,959,959,959,959,959,959,959,959,959,959,959,959,959,959,959,959,959,959,959,962,962,962,962,964,964,761,761,761,761,759,759,759,761,761,759,759,759,757,757,757,755,755,755,755,754,754,754,754,754,754,754,754,754,754,754,754,754,754,754,754,754,754,754,754,752,752,752,754,754,754,754,0,0,0,0,0,0,0,0,0,0,0,0,0,0,0,0,0,0,0,0,0,0,0,0,0,0,0,0,0,0,0,0,0,0,0,0,0,0,0
0,0,0,0,1028,1028,1028,1028,1028,1028,1025,1025,1025,1025,1019,1019,1022,1019,1019,1019,1019,1019,1022,1019,1019,1019,1019,1016,1016,1016,1019,1016,1016,1016,1016,1016,1016,1013,1013,1013,1013,1013,1013,1013,1013,1013,1013,1013,1016,1016,1016,1016,1016,1016,1013,1013,1013,1013,1013,1013,1013,1010,1007,1007,1007,1004,1004,1007,1007,1010,1010,1013,1013,1010,1010,1010,1010,1010,1010,1010,1010,1010,1010,1010,1007,1007,1010,1010,1010,1010,1010,1010,1010,1010,1010,1010,1010,1010,1010,1010,1010,1010,1010,1007,1007,1010,1010,1010,1007,1007,1007,1007,1007,1007,1007,1007,1007,1007,1007,1007,1007,1010,1010,1010,1010,1010,1010,1007,1007,1007,1007,1007,1004,1004,1004,1004,1004,1004,1004,0,0,781,781,781,781,781,781,781,783,785,787,787,787,787,789,789,790,790,792,792,794,794,796,798,800,802,805,807,809,809,809,811,813,813,813,815,817,817,817,819,819,821,823,823,825,827,827,827,829,829,829,831,995,995,995,995,995,995,995,995,998,998,998,998,998,995,995,995,995,998,998,998,998,998,998,998,995,995,995,995,995,992,992,989,989,995,995,995,995,995,995,995,995,992,992,992,995,995,995,992,992,992,992,992,992,992,992,992,992,992,992,992,992,992,992,992,992,992,989,989,992,992,989,989,989,989,989,989,989,989,987,987,989,987,987,987,987,987,987,987,987,984,984,987,987,984,984,987,987,987,987,987,987,987,984,984,984,984,984,987,984,984,984,984,984,984,984,984,984,984,987,987,984,984,984,987,987,984,984,984,987,987,987,987,987,987,987,987,987,987,984,984,981,981,981,981,981,981,981,984,984,984,984,984,984,984,984,984,981,981,981,984,984,981,981,981,981,981,981,981,981,981,981,981,981,981,981,981,981,981,981,981,981,981,981,981,981,978,978,978,978,978,978,978,978,978,978,978,978,978,978,975,975,978,978,978,978,978,975,975,975,975,975,975,975,975,975,975,975,975,975,975,975,975,975,978,978,978,975,975,975,975,975,973,973,975,973,973,973,973,973,973,973,970,970,970,970,970,970,970,970,970,970,970,970,970,970,970,970,970,967,967,967,967,967,967,967,967,967,967,967,967,964,964,964,964,962,962,967,967,967,967,967,967,967,964,964,964,964,964,962,962,964,964,964,967,964,964,967,967,964,964,962,962,962,962,962,962,962,962,964,962,962,962,962,962,962,959,959,959,959,959,959,959,959,959,959,959,959,959,959,959,959,959,959,959,959,959,959,959,959,956,956,956,956,956,956,959,959,959,959,959,956,956,956,956,956,956,959,959,959,962,962,962,759,759,761,761,759,759,759,759,759,759,759,759,759,757,757,757,755,755,755,755,754,754,754,754,754,754,754,754,754,754,754,754,754,754,754,754,754,754,754,754,752,752,754,754,754,754,754,0,0,0,0,0,0,0,0,0,0,0,0,0,0,0,0,0,0,0,0,0,0,0,0,0,0,0,0,0,0,0,0,0,0,0,0,0,0,0
0,0,0,0,1028,1028,1025,1025,1025,1025,1025,1022,1022,1022,1019,1019,1019,1016,1016,1016,1016,1016,1016,1016,1016,1013,1013,1010,1010,1010,1013,1013,1013,1013,1013,1013,1013,1013,1013,1013,1013,1013,1013,1010,1010,1013,1013,1013,1013,1016,1016,1016,1013,1013,1013,1013,1010,1010,1010,1010,1010,1010,1007,1004,1004,1004,1004,1004,1004,1007,1007,1010,1010,1010,1010,1010,1010,1010,1010,1010,1010,1007,1007,1007,1004,1004,1007,1007,1007,1007,1007,1007,1010,1007,1007,1007,1007,1007,1007,1007,1007,1007,1007,1007,1007,1007,1007,1007,1007,1007,1007,1007,1007,1007,1007,1004,1004,1007,1004,1004,1004,1007,1007,1007,1007,1007,1007,1004,1004,1004,1004,1004,1004,1001,1001,1001,1001,1001,1001,1001,787,781,781,781,781,781,781,781,783,785,787,787,787,787,789,790,790,792,792,794,794,796,796,798,802,803,805,807,809,809,811,811,813,813,815,817,817,819,819,819,821,821,823,825,825,827,827,827,827,827,829,998,998,995,992,992,992,992,995,995,995,995,995,995,995,992,992,995,995,995,995,995,995,995,995,995,995,992,992,992,992,989,989,989,989,989,989,992,992,992,992,992,992,992,989,989,989,989,989,989,989,989,989,989,989,989,989,989,989,989,989,989,989,989,989,989,989,989,987,987,987,987,987,987,987,987,987,987,987,987,987,987,987,987,987,987,987,987,984,984,984,981,981,984,984,981,981,984,984,984,984,984,984,984,981,981,981,981,981,981,981,981,984,984,981,981,981,981,981,981,984,984,984,984,984,984,984,984,984,984,984,984,984,984,984,984,987,984,984,984,984,981,978,978,978,978,978,978,978,981,981,981,981,981,981,981,981,981,981,978,978,981,981,978,978,978,978,978,978,978,978,978,978,978,978,978,978,978,978,978,978,978,978,978,978,978,978,978,978,978,975,975,975,975,975,975,973,973,975,975,975,975,975,975,975,975,975,973,973,973,973,973,973,973,973,973,973,973,973,973,973,973,973,973,973,973,973,975,975,975,973,973,973,973,973,973,970,970,970,970,970,970,970,967,967,967,967,967,967,970,970,970,970,970,967,967,967,967,967,967,967,967,967,967,967,967,967,967,967,964,964,964,964,964,964,962,962,962,962,962,962,964,964,964,962,962,962,962,962,962,962,962,962,964,964,964,964,964,964,964,964,962,959,959,959,959,959,959,959,959,962,959,959,959,959,959,959,959,959,959,959,959,959,959,956,956,956,956,956,956,956,956,959,959,959,959,959,956,956,956,956,956,956,954,954,954,956,956,956,956,956,956,956,956,956,956,956,956,956,956,956,959,959,761,759,759,759,759,759,759,759,759,759,759,759,759,757,757,757,755,755,755,754,754,754,754,754,754,754,754,754,754,754,754,754,754,754,754,754,754,754,754,754,754,752,752,752,754,754,754,754,0,0,0,0,0,0,0,0,0,0,0,0,0,0,0,0,0,0,0,0,0,0,0,0,0,0,0,0,0,0,0,0,0,0,0,0,0,0,0
0,0,0,0,1028,1025,1025,1025,1025,1025,1022,1019,1013,1013,1013,1013,1013,1013,1013,1013,1013,1013,1013,1013,1013,1013,1013,1010,1010,1010,1010,1013,1013,1010,1010,1013,1013,1010,1010,1010,1010,1013,1010,1010,1010,1010,1010,1010,1010,1013,1013,1013,1013,1010,1010,1010,1010,1010,1010,1007,1007,1007,1004,1001,1001,1001,1001,1004,1004,1007,1007,1007,1007,1007,1007,1007,1007,1007,1007,1007,1007,1004,1004,1004,1004,1004,1004,1004,1004,1004,1004,1004,1004,1004,1004,1004,1004,1001,1001,1001,1001,1004,1004,1004,1004,1007,1004,1004,1004,1004,1007,1004,1004,1004,1004,1004,1004,1004,1001,1001,1004,1004,1004,1004,1004,1004,1004,1004,1001,1001,1001,1001,1001,1001,1001,1001,1001,998,998,998,0,787,783,783,783,783,783,783,785,787,787,787,789,789,789,790,792,794,794,794,796,796,798,802,803,803,805,807,809,809,811,811,813,813,815,817,819,819,819,819,821,821,823,825,825,827,827,827,827,827,992,992,992,992,992,992,992,992,992,992,992,992,995,995,992,992,992,992,992,989,989,992,992,992,992,992,992,992,992,989,989,989,987,987,989,989,989,989,989,989,989,989,989,989,989,989,989,987,987,987,987,987,987,987,987,987,987,987,987,987,987,987,987,987,987,987,987,987,987,987,987,987,987,984,984,987,987,987,987,987,987,987,987,987,987,984,984,984,984,981,981,981,981,981,981,981,981,981,981,981,981,981,981,981,981,981,981,978,978,978,978,978,978,978,978,978,981,978,978,981,981,981,981,981,981,981,981,981,981,981,981,984,984,981,981,984,984,984,981,981,981,978,978,975,975,978,978,978,978,978,978,978,978,978,978,978,978,978,978,978,978,978,978,978,978,978,975,975,975,975,975,975,973,973,978,978,975,975,975,975,975,975,975,975,975,978,975,975,975,975,975,973,973,973,975,973,973,973,973,973,973,973,973,973,973,973,973,973,970,970,970,970,970,970,970,970,970,970,970,970,970,970,970,970,970,970,970,970,970,973,973,970,970,970,970,970,970,970,970,967,967,967,967,967,964,964,964,967,967,967,967,967,967,967,967,967,967,967,967,967,964,964,964,964,964,964,962,962,964,962,962,962,962,962,962,962,959,959,959,959,959,959,959,962,959,959,959,959,959,959,959,959,959,962,962,962,962,962,962,962,959,959,959,956,956,956,956,956,956,956,959,959,959,959,956,956,959,956,956,956,956,956,956,956,956,956,956,956,956,956,954,954,954,954,956,956,956,956,956,954,954,956,954,954,954,954,954,954,956,956,956,956,956,956,956,954,954,956,956,956,956,959,761,761,759,759,759,759,759,759,759,759,759,759,757,757,755,755,755,755,755,755,754,754,754,754,754,754,754,754,754,754,754,754,754,754,754,754,754,754,754,754,754,754,752,752,752,754,754,754,754,0,0,0,0,0,0,0,0,0,0,0,0,0,0,0,0,0,0,0,0,0,0,0,0,0,0,0,0,0,0,0,0,0,0,0,0,0,0,0
0,0,0,0,1025,1025,1022,1022,1022,1022,1022,1019,1010,1010,1013,1013,1013,1013,1013,1013,1013,1010,1010,1010,1013,1013,1010,1010,1010,1010,1010,1010,1010,1010,1010,1010,1010,1010,1010,1007,1007,1010,1010,1010,1010,1007,1007,1010,1010,1010,1007,1007,1007,1007,1004,1004,1007,1007,1007,1004,1004,1004,1001,1001,1001,1001,1001,1004,1004,1004,1004,1004,1004,1007,1004,1004,1004,1004,1004,1007,1004,1004,1004,1001,1001,1001,1001,1001,1001,1001,1001,1001,1001,1001,1001,1001,1001,1001,1001,1001,1001,1001,1001,1001,1001,1004,1001,1001,1001,1001,1001,1001,1001,1001,1001,1001,1001,1001,1001,1001,1001,1001,1001,1001,1001,1001,1001,1001,1001,1001,1001,1001,1001,998,998,1001,1001,998,998,998,0,787,787,785,785,785,785,785,787,787,787,787,789,789,790,792,792,794,794,794,796,796,798,802,803,803,807,807,809,809,811,811,813,815,817,817,819,819,819,819,821,821,823,825,825,827,827,827,987,989,989,989,989,989,989,989,989,989,989,989,989,989,989,989,987,987,987,987,987,987,987,987,989,989,989,989,989,989,989,989,987,987,987,987,987,987,987,987,987,987,987,987,987,987,987,987,987,984,984,984,987,984,984,984,984,984,987,984,984,984,984,984,984,984,984,984,984,984,984,981,981,981,981,981,981,984,984,984,984,984,984,984,984,984,981,981,981,981,981,978,978,978,978,978,978,978,978,978,978,978,981,978,978,978,978,978,978,978,978,978,978,978,978,978,978,978,975,975,978,981,981,981,978,978,981,981,981,981,981,981,981,981,981,981,981,981,981,981,981,978,978,975,975,975,975,975,975,975,975,975,975,975,975,975,975,975,975,975,975,975,975,975,975,975,975,975,973,973,973,973,973,973,973,973,973,973,973,973,973,973,973,973,973,973,973,975,975,973,973,973,973,970,970,970,973,970,970,970,973,970,970,970,970,973,973,973,970,970,970,970,970,967,967,967,967,967,967,967,967,967,967,967,967,967,967,967,967,967,967,967,967,967,970,970,967,967,967,967,967,967,967,967,967,964,964,964,964,964,964,964,964,967,964,964,964,964,964,964,964,964,962,962,962,962,962,962,959,959,962,959,959,959,959,959,959,959,959,959,959,959,959,959,959,959,959,959,959,959,959,959,959,959,959,959,959,959,959,959,959,959,959,956,956,956,954,954,954,954,954,954,954,956,956,956,954,954,954,954,954,954,954,954,954,954,954,954,954,951,951,951,951,951,951,954,951,951,954,954,954,954,954,951,951,951,951,951,954,954,954,954,954,954,954,954,954,954,954,954,954,956,956,956,761,761,761,761,761,761,759,759,759,757,757,757,757,755,755,755,755,755,755,755,754,754,754,754,754,754,754,754,754,754,754,754,754,754,754,754,754,754,754,754,754,754,752,752,752,754,754,754,754,0,0,0,0,0,0,0,0,0,0,0,0,0,0,0,0,0,0,0,0,0,0,0,0,0,0,0,0,0,0,0,0,0,0,0,0,0,0,0
0,0,0,0,1025,1022,1019,1019,1019,1019,1019,1016,1010,1010,1010,1010,1013,1013,1010,1010,1010,1010,1007,1007,1007,1007,1010,1010,1010,1010,1010,1010,1010,1007,1007,1007,1007,1007,1007,1007,1007,1007,1007,1007,1007,1004,1004,1004,1004,1004,1001,1001,1001,1004,1001,1001,1004,1004,1004,1004,1001,1001,1001,1001,1001,1001,1001,1001,1001,1001,1001,1004,1001,1001,1001,1001,1001,1001,1001,1001,1001,1001,1001,1001,1001,1001,1001,1001,1001,1001,998,998,1001,998,998,998,1001,998,998,998,998,998,998,998,998,998,998,998,998,998,998,998,998,995,995,998,998,998,998,998,998,998,998,998,998,998,998,998,998,998,998,998,998,998,998,998,998,995,992,992,992,789,789,787,787,787,787,787,787,787,787,787,789,790,790,792,792,794,794,796,796,798,800,802,802,803,805,809,809,811,811,813,813,815,817,819,819,819,821,821,823,823,823,825,827,987,987,987,987,989,989,989,989,989,989,989,987,987,987,987,987,984,984,984,987,984,984,984,987,987,987,987,987,987,987,987,987,987,987,984,984,987,984,984,984,984,984,984,981,981,981,981,981,981,981,984,981,981,981,981,981,981,981,981,981,981,981,981,981,981,981,981,981,981,981,981,981,981,981,981,978,978,978,978,978,978,978,981,981,981,978,978,981,978,978,978,978,978,978,978,978,978,978,978,978,978,978,978,978,978,978,978,975,975,975,975,975,975,975,975,978,978,978,975,975,975,975,975,975,978,978,978,978,978,978,978,978,978,978,978,978,978,978,978,978,978,978,978,975,975,975,973,973,973,973,973,973,973,973,973,975,975,973,973,975,975,973,973,975,973,973,973,973,973,973,973,970,970,970,970,973,970,970,970,970,970,970,970,970,970,973,970,970,970,970,973,973,970,970,970,970,970,970,970,970,970,970,970,970,970,970,970,970,970,970,970,970,970,967,967,967,967,964,964,964,964,964,964,964,964,964,964,964,964,964,964,964,967,967,967,967,964,964,964,964,964,964,964,964,964,964,964,964,962,962,962,962,962,962,962,964,964,964,964,962,962,962,962,962,962,962,959,959,959,959,959,956,956,956,956,956,956,956,956,956,956,956,956,956,956,959,959,959,959,959,959,959,959,956,956,956,956,956,956,956,956,956,956,956,956,956,954,954,951,951,951,951,951,951,951,951,951,954,954,951,951,951,951,951,951,951,951,951,951,951,951,951,951,948,948,948,948,951,951,948,948,951,951,951,951,951,951,951,951,951,951,951,951,954,951,951,951,951,954,951,951,951,951,954,956,956,956,761,761,761,761,761,761,759,759,759,757,757,757,757,755,755,755,755,755,755,754,754,754,754,754,754,754,754,754,754,754,752,752,754,754,754,754,754,754,754,754,754,754,754,754,754,754,754,754,754,0,0,0,0,0,0,0,0,0,0,0,0,0,0,0,0,0,0,0,0,0,0,0,0,0,0,0,0,0,0,0,0,0,0,0,0,0,0,0
0,0,0,0,1022,1022,1019,1016,1016,1016,1016,1013,1010,1010,1010,1010,1013,1010,1010,1010,1007,1007,1004,1004,1007,1007,1007,1007,1007,1007,1007,1010,1010,1007,1007,1007,1004,1004,1004,1004,1004,1004,1007,1007,1004,1004,1004,1004,1004,1001,998,998,998,1001,1001,1001,1001,1001,1001,1001,1001,1001,1001,998,998,1001,1001,1001,1001,1001,1001,1001,998,998,1001,1001,1001,1001,1001,998,998,998,998,998,998,998,998,998,998,998,998,998,998,995,995,995,995,995,992,992,995,995,995,995,995,998,998,998,995,995,995,992,992,992,992,995,995,995,995,995,998,998,995,995,995,995,995,995,995,995,995,995,995,992,992,992,995,992,992,992,992,0,789,789,787,787,787,787,787,787,787,787,789,790,792,792,794,794,796,798,798,798,800,802,802,803,805,809,809,811,811,813,815,817,817,819,819,821,821,821,821,821,823,981,981,981,987,987,987,989,989,989,989,989,987,987,987,987,987,987,984,984,981,981,984,984,984,984,984,984,984,984,984,984,984,984,984,984,984,981,981,984,981,981,981,981,981,981,978,978,978,978,978,978,978,981,978,978,978,978,978,978,978,978,978,981,981,978,978,978,978,978,978,978,978,978,978,978,978,978,978,978,978,975,975,975,975,975,975,975,975,975,978,978,978,978,978,978,978,978,978,978,978,978,975,975,978,975,975,975,975,975,975,975,973,973,973,975,975,975,975,975,975,975,975,975,973,973,973,975,975,975,973,973,975,975,975,975,975,975,975,978,978,975,975,975,975,975,973,973,973,970,970,970,970,970,970,973,973,973,973,973,973,973,970,970,970,970,970,973,973,970,970,970,970,970,970,970,970,970,970,970,970,970,970,970,967,967,967,967,967,967,967,967,967,970,970,970,970,970,970,967,967,967,967,967,967,967,967,967,967,967,967,967,967,967,967,967,967,967,964,964,964,964,962,962,964,964,964,962,962,962,962,962,962,962,964,964,964,964,964,962,962,962,962,959,959,959,962,962,959,959,962,959,959,959,962,962,962,962,962,962,962,962,962,962,962,959,959,959,959,959,959,959,956,956,956,956,956,954,954,954,956,956,956,956,956,956,956,956,956,956,956,956,956,956,956,954,954,954,956,956,956,956,954,954,954,954,954,954,954,954,951,951,948,948,948,951,951,948,948,951,951,951,948,948,948,948,948,948,948,948,948,948,948,948,948,948,948,948,946,946,948,948,948,948,948,948,948,948,948,948,948,948,948,948,948,951,951,951,951,951,951,951,948,948,948,948,954,956,956,761,761,761,761,761,761,761,759,759,759,757,755,755,755,755,755,755,755,755,755,754,754,754,754,754,754,754,754,754,752,752,752,752,752,754,754,754,754,754,754,754,754,754,754,754,754,754,754,754,754,0,0,0,0,0,0,0,0,0,0,0,0,0,0,0,0,0,0,0,0,0,0,0,0,0,0,0,0,0,0,0,0,0,0,0,0,0,0,0
0,0,0,0,1019,1019,1016,1016,1013,1013,1016,1013,1010,1010,1010,1010,1010,1010,1007,1007,1004,1004,1001,1001,1004,1001,1001,1001,1001,1004,1007,1007,1007,1001,1001,1004,1004,1001,1001,1001,998,998,1001,1001,1001,1001,1001,998,998,995,995,995,995,998,998,998,998,998,998,998,998,998,998,998,998,998,998,998,998,998,998,998,998,998,998,998,998,998,998,995,995,995,995,995,995,995,995,998,998,995,995,995,995,992,992,992,992,989,989,989,992,992,992,992,992,992,995,992,992,989,989,989,989,989,989,989,992,992,992,992,995,995,992,992,992,992,992,995,995,992,992,995,992,989,989,989,992,992,989,989,989,789,789,789,787,787,787,787,787,787,787,789,790,792,794,794,794,796,796,798,800,800,800,802,802,803,805,807,809,811,811,813,815,817,817,819,819,821,821,821,821,821,978,978,981,981,984,987,987,987,987,987,987,987,987,987,984,984,984,984,981,981,981,981,981,981,981,981,981,981,981,981,981,981,981,984,981,981,978,978,978,981,978,978,978,978,978,978,978,978,978,978,978,978,978,978,978,978,978,978,978,978,978,978,978,978,978,978,978,978,975,975,975,975,975,975,978,978,978,978,975,975,975,975,975,975,975,975,973,973,973,973,975,975,975,975,975,975,975,975,975,975,975,975,975,975,975,975,975,973,973,973,973,973,970,970,973,973,973,973,973,973,973,973,973,973,970,970,970,973,973,970,970,970,970,970,970,973,973,973,973,975,975,975,973,973,973,973,973,970,970,970,970,970,970,970,970,970,970,970,973,970,970,970,970,970,970,970,970,970,967,967,967,967,967,967,967,967,967,967,967,967,967,967,967,967,967,964,964,964,962,962,962,962,962,962,967,967,964,964,964,964,964,964,964,964,964,964,964,964,964,962,962,962,964,964,964,964,964,964,964,964,962,962,962,962,962,962,962,962,962,959,959,962,962,962,962,964,964,964,962,962,962,962,959,959,956,956,956,956,956,956,959,959,959,959,959,959,959,959,959,959,959,959,959,959,959,959,959,959,956,956,956,956,954,954,951,951,951,951,954,954,954,954,954,954,954,954,956,956,956,956,956,956,954,954,954,951,951,951,948,948,951,951,948,948,951,948,948,951,951,951,951,948,948,948,948,948,948,948,948,948,948,948,948,948,948,948,948,948,948,948,948,948,946,946,948,948,946,946,946,946,946,946,946,946,946,946,946,946,946,946,948,948,948,948,948,948,948,951,948,948,948,948,948,948,948,948,954,956,761,761,761,761,761,761,761,759,759,757,757,755,755,755,755,755,755,755,755,754,754,754,754,754,754,754,754,754,754,754,752,752,752,752,752,754,754,754,754,754,754,754,754,754,754,754,754,754,754,754,0,0,0,0,0,0,0,0,0,0,0,0,0,0,0,0,0,0,0,0,0,0,0,0,0,0,0,0,0,0,0,0,0,0,0,0,0,0,0,0
0,0,0,0,1016,1016,1013,1013,1013,1013,1013,1013,1010,1010,1010,1010,1007,1007,1004,1004,1004,1001,1001,1001,1001,1001,1001,1001,1001,1001,1004,1001,1001,1001,1001,1001,998,998,998,995,995,995,998,995,995,995,995,998,998,995,995,995,995,995,995,995,998,998,998,998,998,998,998,995,995,995,995,995,995,995,995,995,995,995,995,995,992,992,992,992,992,992,992,992,992,992,992,992,995,995,995,992,992,989,989,989,989,989,989,989,989,989,989,989,989,989,989,989,989,987,987,989,987,987,987,987,989,989,989,989,992,992,989,989,989,989,989,992,992,989,989,992,989,989,989,989,989,989,989,989,989,0,789,789,787,787,787,787,787,787,789,789,792,792,794,794,794,796,796,798,800,800,802,802,803,803,805,807,809,811,811,813,815,817,817,819,819,821,975,975,975,975,978,978,978,981,981,981,981,984,984,984,984,984,984,984,981,981,981,981,978,978,978,981,981,981,981,981,981,978,978,981,981,981,981,981,981,978,978,978,978,978,978,978,975,975,975,975,975,975,975,975,975,975,975,978,975,975,975,975,975,975,975,975,975,975,975,975,975,975,975,975,973,973,973,973,973,973,975,975,975,973,973,973,973,973,970,970,970,970,970,970,973,973,973,973,975,975,975,975,975,975,975,975,973,973,973,973,973,970,970,970,970,970,970,970,970,970,970,970,970,967,967,970,970,967,967,967,967,970,970,967,967,967,967,967,967,967,967,970,970,973,973,973,970,970,970,970,970,970,970,967,967,970,970,970,970,970,970,970,970,970,970,970,970,970,970,967,967,967,967,967,967,964,964,964,964,964,964,967,964,964,967,967,964,964,964,962,962,962,962,962,959,959,959,962,962,962,962,962,962,962,962,962,962,962,962,962,962,959,959,959,959,959,962,962,964,964,964,964,962,962,962,959,959,959,959,959,959,959,959,959,959,959,959,959,959,962,962,962,959,959,959,959,956,956,954,954,954,954,954,954,954,956,956,956,956,956,956,956,956,956,956,954,954,954,956,956,956,956,956,954,954,954,954,951,951,951,951,951,951,951,951,951,951,951,951,951,954,954,954,954,954,954,951,951,951,948,948,948,948,946,946,946,946,948,946,946,948,948,948,948,948,948,948,948,948,948,948,948,948,948,948,948,946,946,946,946,946,946,946,946,946,946,946,946,946,946,946,943,943,943,943,943,943,943,943,943,946,946,946,943,943,943,946,946,946,948,948,948,948,948,948,948,948,948,948,948,951,759,759,761,761,761,761,761,761,759,759,757,757,755,755,755,755,755,755,755,754,754,754,754,754,754,754,754,754,752,752,752,752,752,752,752,752,754,754,754,754,754,754,754,754,754,754,754,754,754,754,754,0,0,0,0,0,0,0,0,0,0,0,0,0,0,0,0,0,0,0,0,0,0,0,0,0,0,0,0,0,0,0,0,0,0,0,0,0,0,0,0
0,0,0,1016,1013,1013,1013,1010,1010,1010,1010,1010,1010,1010,1007,1007,1004,1004,1004,1004,1001,1001,1001,1001,1001,1001,1001,998,998,1001,1004,1001,1001,1001,1001,998,998,995,995,995,992,992,992,992,992,989,989,998,995,992,992,992,995,995,995,995,995,998,998,998,995,995,995,995,995,992,992,995,995,995,995,995,995,992,992,992,992,992,989,989,989,989,989,989,989,989,989,989,995,992,992,992,992,989,987,987,987,987,987,987,987,989,989,989,989,989,989,989,987,987,987,987,987,987,987,987,987,987,987,987,987,987,987,987,989,989,989,989,989,987,987,989,987,987,987,987,987,987,987,989,0,0,0,789,789,789,787,787,787,787,789,789,792,792,794,794,794,796,798,800,800,800,802,802,803,803,805,807,809,811,811,815,815,817,819,819,821,975,975,975,975,975,975,978,978,978,978,978,978,978,978,978,978,978,978,978,981,981,978,978,978,978,978,978,978,978,978,978,978,978,978,978,978,978,978,978,978,978,978,978,978,978,975,975,975,975,975,975,975,975,975,975,975,975,975,975,975,975,975,975,975,975,975,975,975,975,975,975,973,973,973,970,970,973,970,970,970,970,970,970,970,970,973,970,970,970,970,970,967,967,967,967,970,970,970,970,973,975,973,973,973,973,973,973,970,970,970,970,970,967,967,967,967,967,967,967,967,967,964,964,964,964,964,964,964,964,964,964,964,967,967,967,967,967,967,967,967,967,967,967,964,964,964,967,967,967,967,967,967,967,967,967,967,967,967,967,967,967,967,967,967,967,967,967,967,967,967,967,967,967,964,964,964,964,964,964,964,964,964,962,962,962,962,964,964,964,962,962,959,959,959,959,959,959,959,959,959,959,959,959,962,959,959,959,959,959,959,959,959,959,959,959,959,959,959,959,959,962,962,962,962,962,959,959,959,959,959,959,956,956,956,956,956,956,956,956,956,959,959,959,956,956,956,956,954,954,951,951,954,954,951,951,954,954,954,956,956,956,954,954,954,954,954,951,951,951,951,954,954,954,954,951,951,951,951,948,948,948,948,948,948,948,948,948,948,948,948,948,948,951,948,948,951,951,948,948,948,948,948,946,946,946,946,946,946,943,943,946,946,946,946,946,946,946,946,946,946,946,946,948,948,948,946,946,946,946,943,943,943,943,943,943,943,943,943,943,943,943,943,940,940,940,940,940,940,940,943,943,943,943,940,940,940,940,940,940,940,946,946,946,946,946,946,946,946,946,946,946,759,759,759,761,761,761,761,761,761,759,759,757,757,755,755,755,755,755,755,755,754,754,754,754,754,754,754,754,754,752,752,752,752,752,752,752,752,752,754,754,754,754,754,754,754,754,754,754,754,755,755,755,0,0,0,0,0,0,0,0,0,0,0,0,0,0,0,0,0,0,0,0,0,0,0,0,0,0,0,0,0,0,0,0,0,0,0,0,0,0,0,0
0,0,0,1013,1013,1013,1010,1010,1010,1007,1007,1010,1007,1007,1004,1004,1001,1001,1001,1001,1001,1001,998,998,998,995,995,998,998,1001,1001,1001,1001,998,998,998,995,992,992,992,989,989,989,989,989,989,989,989,995,992,992,992,992,992,992,992,995,995,995,995,995,995,995,992,992,989,989,992,992,992,992,992,992,989,989,989,989,989,989,989,989,989,989,989,987,987,989,989,989,989,989,989,987,987,987,987,987,987,987,987,987,987,987,987,987,987,987,987,987,987,987,987,987,984,984,987,987,987,984,984,984,984,984,984,984,984,984,984,987,984,984,987,987,984,984,981,981,981,981,0,981,0,789,789,789,789,789,787,787,787,789,790,792,794,794,794,796,796,798,800,800,802,802,803,803,803,807,807,809,811,811,815,815,817,975,975,973,973,973,975,975,975,975,975,975,975,975,975,975,975,975,975,975,978,978,978,978,978,978,975,975,975,975,978,978,978,978,978,978,975,975,975,975,975,975,975,975,975,975,975,975,975,975,975,973,973,973,973,973,973,973,973,973,973,973,973,973,973,973,975,975,975,975,975,973,973,973,973,973,973,973,970,970,970,970,970,967,967,967,967,967,967,967,967,967,967,967,967,967,967,967,967,967,967,967,967,970,970,970,970,970,967,967,970,967,967,967,967,967,967,967,967,967,964,964,964,964,964,962,962,962,962,962,962,962,962,962,962,962,964,964,964,964,964,964,964,964,964,962,962,962,962,962,962,962,962,967,967,967,967,964,964,964,964,964,964,964,964,967,967,967,967,967,967,967,967,967,967,964,964,964,964,962,962,962,962,962,959,959,959,959,959,959,959,959,959,959,959,959,959,959,956,956,956,956,956,956,956,956,959,959,956,956,959,959,959,956,956,956,956,956,956,956,956,956,956,956,959,959,959,959,959,956,956,956,956,956,956,956,956,956,956,956,956,956,954,954,956,956,956,954,954,954,954,951,951,951,951,951,951,951,951,951,951,951,951,951,954,951,948,948,951,951,948,948,951,951,951,951,951,951,948,948,948,948,948,948,948,948,948,948,948,948,948,948,946,946,946,946,946,946,946,946,946,948,946,946,946,946,946,946,943,943,943,943,940,940,940,943,946,946,946,946,946,946,946,946,946,946,946,946,946,946,946,943,943,943,943,943,943,940,940,943,940,940,940,940,940,940,938,938,938,938,938,940,940,940,940,940,940,940,938,938,938,938,938,938,940,940,946,946,946,946,946,946,946,943,943,759,759,761,761,761,761,761,761,761,759,759,757,757,757,755,755,755,755,754,754,754,754,754,754,754,754,752,752,752,752,752,752,752,752,752,752,752,752,752,754,754,754,754,754,754,754,755,754,754,755,755,755,0,0,0,0,0,0,0,0,0,0,0,0,0,0,0,0,0,0,0,0,0,0,0,0,0,0,0,0,0,0,0,0,0,0,0,0,0,0,0,0
0,0,0,1010,1010,1010,1010,1010,1007,998,998,1001,998,998,998,1001,1001,998,998,1001,998,998,998,995,995,992,992,995,995,998,995,995,995,995,995,992,992,989,989,989,989,989,989,989,989,989,987,987,989,989,989,989,992,992,992,992,992,992,995,992,992,992,992,989,989,989,989,989,989,989,989,989,989,987,987,987,987,987,987,987,987,987,987,987,987,987,987,987,987,987,987,987,984,984,987,984,984,984,984,984,984,984,984,984,984,981,981,984,984,984,984,984,984,984,984,984,984,984,981,981,981,981,984,981,981,981,981,981,978,978,978,984,984,981,981,978,978,978,978,0,0,0,0,0,790,790,789,789,789,789,789,790,792,794,794,796,796,796,798,800,800,802,802,803,803,805,807,809,809,811,811,815,815,973,973,973,973,973,973,973,973,975,975,975,975,975,975,975,975,973,973,973,973,975,975,975,975,975,973,973,973,973,975,975,975,975,975,975,975,975,975,975,973,973,973,973,973,975,975,975,975,973,973,973,973,970,970,970,970,970,970,970,970,970,970,973,973,973,973,973,973,973,973,973,973,970,970,970,970,970,970,967,967,967,967,967,967,964,964,964,964,967,967,967,967,967,964,964,967,964,964,964,964,964,967,967,967,967,967,967,967,964,964,967,964,964,964,964,964,964,964,964,964,964,962,962,962,962,962,959,959,959,959,959,959,959,959,962,962,962,964,962,962,962,962,962,962,962,959,959,959,959,959,959,959,959,962,962,962,964,964,964,962,962,962,962,962,962,962,964,964,964,964,964,964,964,962,962,962,959,959,962,962,959,959,959,959,959,959,959,959,956,956,956,956,956,956,956,956,956,956,956,956,956,956,956,956,956,956,956,956,956,954,954,954,954,956,956,956,956,956,956,956,954,954,954,954,956,956,956,956,956,956,956,956,956,956,956,956,956,956,954,954,951,951,951,951,951,951,951,951,951,951,951,951,951,948,948,951,951,951,951,951,951,951,948,948,948,948,948,948,948,948,948,948,948,948,948,951,951,948,948,948,946,946,946,946,946,946,946,946,946,946,946,946,943,943,940,940,943,943,943,940,940,943,943,943,943,943,943,943,940,940,940,940,940,940,940,940,940,940,943,943,943,943,943,943,943,943,943,943,943,943,943,943,943,943,943,943,940,940,940,940,938,938,938,938,938,938,938,938,938,938,938,938,938,938,938,938,938,938,938,938,938,938,938,938,938,940,940,943,943,943,762,759,759,940,759,759,759,759,761,761,761,761,761,761,759,759,759,757,757,755,755,755,755,754,754,754,754,754,754,752,752,752,752,752,752,752,752,752,752,752,752,752,752,752,754,754,754,754,754,755,755,755,755,755,755,755,755,757,0,0,0,0,0,0,0,0,0,0,0,0,0,0,0,0,0,0,0,0,0,0,0,0,0,0,0,0,0,0,0,0,0,0,0,0,0,0,0
0,0,0,1007,1007,1007,1007,1007,1007,998,998,998,998,998,998,998,998,998,998,998,998,998,995,995,995,992,992,995,995,995,992,992,992,992,992,989,989,989,989,989,989,989,987,987,987,987,987,987,987,987,987,987,987,987,989,989,989,992,992,989,989,989,989,989,987,987,987,987,987,987,987,987,987,987,987,987,984,984,984,984,984,984,984,984,984,984,984,981,981,984,984,984,981,981,984,984,984,984,984,984,981,981,981,981,981,981,981,981,981,981,981,981,981,981,981,981,981,981,981,981,978,978,981,978,978,978,978,978,978,978,978,978,978,978,978,978,978,978,978,978,0,0,0,0,790,790,789,789,789,789,789,790,792,794,796,796,796,798,798,800,800,802,802,803,805,805,807,809,809,811,811,815,970,970,970,970,973,973,973,973,973,973,973,973,973,973,973,973,973,970,970,970,970,973,970,970,970,973,970,970,970,970,970,970,970,970,973,975,975,973,973,970,970,970,970,970,970,973,973,973,973,973,973,970,970,967,967,967,967,967,967,967,967,967,967,970,970,970,970,970,970,967,967,967,967,967,967,967,967,967,967,967,967,964,964,964,964,964,964,964,964,964,964,964,964,964,964,964,964,964,964,964,964,964,964,964,964,964,964,964,964,962,962,964,964,964,964,964,964,964,962,962,962,959,959,959,959,959,959,956,956,956,956,956,956,959,959,959,959,962,962,962,962,962,959,959,959,959,959,959,956,956,959,959,959,959,959,959,959,959,959,959,962,962,959,959,959,959,959,959,959,959,959,959,959,959,959,959,959,959,959,959,959,959,959,959,959,956,956,956,956,956,956,956,954,954,954,956,956,956,954,954,954,954,954,954,954,954,954,954,951,951,954,954,954,954,954,954,954,956,956,954,954,954,951,951,951,954,954,954,954,954,954,954,954,954,954,954,954,954,951,951,948,948,948,948,948,948,948,948,948,948,948,948,948,948,948,948,948,948,948,948,948,948,948,948,946,946,946,946,946,946,946,946,946,946,948,948,948,948,948,946,946,946,946,943,943,943,943,943,943,943,943,943,943,940,940,940,940,940,940,940,940,940,943,943,940,940,940,940,940,940,940,940,940,938,938,938,938,938,938,940,940,940,940,943,940,940,940,940,938,938,940,940,940,940,940,940,940,940,938,938,938,938,938,938,938,938,938,938,938,938,938,938,938,938,938,938,935,935,938,935,935,935,938,938,938,938,938,940,940,943,943,762,759,759,759,759,759,759,759,761,761,761,761,761,761,759,759,757,757,755,755,755,755,755,754,754,754,754,754,754,752,752,752,752,752,752,752,752,752,752,752,752,752,752,754,754,754,754,754,754,755,755,755,755,755,755,755,757,757,0,0,0,0,0,0,0,0,0,0,0,0,0,0,0,0,0,0,0,0,0,0,0,0,0,0,0,0,0,0,0,0,0,0,0,0,0,0,0
0,0,0,1004,1004,1001,1001,1004,1001,998,998,995,995,998,998,998,998,995,995,995,995,995,995,992,992,989,989,989,989,989,989,989,987,987,989,989,989,987,987,987,987,987,987,987,987,984,984,984,984,984,984,987,987,987,987,984,984,981,981,987,987,987,987,987,984,984,984,987,984,984,987,984,984,984,984,984,984,984,984,984,984,984,984,981,981,981,981,981,981,981,981,981,981,981,984,984,984,984,984,981,981,981,981,981,978,978,978,978,978,978,978,978,978,978,978,978,978,978,978,978,975,975,978,975,975,975,975,975,975,975,975,975,975,975,975,975,975,975,975,975,0,973,0,792,0,792,790,789,789,789,790,792,794,794,796,796,796,798,798,800,800,802,802,803,805,807,809,809,809,811,813,967,967,967,970,970,970,970,970,970,970,970,973,973,973,973,973,973,973,970,970,970,970,970,970,970,970,970,970,967,967,967,967,967,967,967,967,967,967,970,970,967,967,967,967,967,967,970,970,970,970,970,970,967,967,967,967,967,967,967,967,967,964,964,964,967,967,964,964,964,967,964,964,964,964,964,964,964,964,964,964,964,964,964,964,964,964,964,962,962,962,964,964,964,964,962,962,962,964,964,964,962,962,962,964,962,962,962,962,962,962,959,959,962,962,962,962,962,962,959,959,959,959,956,956,956,956,956,956,956,956,956,956,956,956,956,956,956,956,959,959,959,959,959,959,959,959,956,956,956,956,956,956,956,956,956,956,956,956,959,959,959,959,959,959,959,959,956,956,959,959,959,959,959,959,959,956,956,956,956,956,956,956,956,956,956,956,956,956,956,956,954,954,954,954,951,951,954,954,954,954,954,954,954,954,951,951,954,951,951,951,951,951,951,951,951,951,951,951,951,951,951,951,951,951,951,951,951,951,951,951,951,951,951,951,951,951,951,951,951,948,948,948,948,948,948,948,946,946,946,946,946,946,946,946,946,946,946,946,946,946,946,946,946,946,946,946,946,946,946,946,946,946,946,946,946,946,946,946,946,946,946,943,940,940,940,943,940,940,940,940,940,940,940,940,938,938,938,938,938,938,938,938,938,940,940,938,938,938,938,938,938,938,938,938,938,938,938,938,938,938,938,938,938,938,938,938,938,938,938,938,938,938,938,938,938,938,938,938,938,938,938,938,938,935,935,935,935,935,935,935,935,935,935,938,935,935,935,935,935,935,935,935,935,935,935,938,938,938,938,940,827,825,821,819,759,759,759,761,759,759,761,761,761,761,761,759,759,759,757,757,755,755,755,755,754,754,754,754,754,752,752,752,752,752,752,752,752,752,752,752,752,752,752,752,752,754,754,754,754,754,755,755,755,755,755,755,755,757,757,757,0,0,0,0,0,0,0,0,0,0,0,0,0,0,0,0,0,0,0,0,0,0,0,0,0,0,0,0,0,0,0,0,0,0,0,0,0,0,0
0,0,0,1001,1001,1001,1001,998,998,995,995,995,995,998,995,995,989,989,992,992,992,992,992,992,989,989,989,989,989,987,987,987,987,987,987,987,987,987,987,987,987,987,987,984,984,984,981,981,981,981,981,984,984,984,984,981,981,978,978,978,978,978,978,981,981,981,984,984,984,984,984,981,981,981,981,981,981,981,981,981,981,981,981,981,978,978,978,978,978,978,978,978,978,978,978,981,981,981,981,981,978,978,978,978,978,978,978,978,978,978,978,978,978,975,975,975,975,975,975,975,975,975,975,975,975,975,975,975,975,975,975,973,973,975,975,975,973,973,973,973,973,0,0,0,792,792,790,790,790,790,792,792,794,796,796,796,796,798,800,800,800,802,803,803,805,807,809,809,809,811,811,967,967,967,967,970,970,970,970,970,970,970,970,970,970,970,970,970,970,967,967,967,967,967,967,967,967,967,967,967,964,964,964,964,964,964,964,964,967,967,967,964,964,967,967,964,964,967,967,967,967,967,967,967,967,967,964,964,964,964,964,964,964,962,962,962,962,962,962,962,962,962,962,962,962,962,962,962,962,962,962,964,964,962,962,962,962,962,962,962,962,962,962,962,959,959,959,959,962,962,962,962,959,959,959,956,956,959,959,959,959,959,959,959,959,959,959,959,959,956,956,956,956,956,956,956,956,954,954,954,954,954,954,954,954,954,954,954,954,956,956,956,956,956,956,956,956,956,956,956,956,956,956,956,956,954,954,954,956,956,956,956,956,956,956,954,954,954,954,956,956,956,956,956,956,956,956,956,956,956,956,956,956,956,956,956,956,956,954,954,954,954,954,951,951,951,951,951,951,951,951,951,951,951,951,948,948,951,951,951,951,951,948,948,948,948,948,948,948,948,948,948,948,948,948,948,948,948,948,948,948,948,948,948,948,948,948,948,946,946,948,948,948,946,946,946,946,946,946,943,943,943,943,946,943,943,943,943,943,943,943,943,943,943,943,943,943,943,943,943,940,940,943,943,943,943,943,946,943,943,943,943,943,940,940,940,940,938,938,938,938,938,938,938,938,938,938,938,938,938,935,935,935,935,938,938,938,938,938,938,938,938,938,938,938,935,935,935,935,935,935,938,938,935,935,935,935,935,935,935,935,935,935,935,935,935,935,935,938,938,935,935,935,935,935,935,935,935,935,935,935,935,935,935,935,933,933,933,933,933,933,933,933,935,935,935,935,935,935,938,827,827,825,821,819,755,755,759,761,761,761,761,761,761,761,759,759,759,757,757,755,755,755,755,754,754,754,754,754,754,752,752,752,752,752,752,752,752,752,752,752,752,752,752,752,752,754,754,754,754,754,754,755,755,755,755,755,757,757,757,759,0,0,0,0,0,0,0,0,0,0,0,0,0,0,0,0,0,0,0,0,0,0,0,0,0,0,0,0,0,0,0,0,0,0,0,0,0,0,0
0,0,0,1001,998,998,998,995,992,992,992,989,989,992,992,992,989,989,989,989,989,989,989,989,989,989,989,987,987,987,987,984,984,984,984,984,984,984,984,984,984,984,984,981,981,981,978,978,981,981,981,981,981,981,981,981,978,978,978,978,978,978,978,978,978,978,978,978,978,978,978,978,978,978,978,978,978,978,978,978,978,978,978,978,978,978,978,978,975,975,978,975,975,975,978,978,978,978,978,978,978,978,975,975,978,978,975,975,975,975,975,975,975,975,975,975,975,975,975,975,975,975,975,975,975,975,973,973,973,973,973,973,973,973,973,973,973,973,973,970,970,0,967,967,794,794,792,792,790,790,792,794,794,796,796,796,796,798,800,800,800,802,803,805,807,807,809,809,811,811,811,964,964,964,967,967,967,967,967,967,967,967,967,967,967,967,967,967,967,967,967,967,967,967,964,964,964,964,964,964,964,962,962,964,962,962,962,962,964,964,964,964,964,964,964,964,964,964,964,964,964,964,964,964,964,964,964,962,962,962,962,962,962,959,959,962,962,959,959,959,959,959,959,959,959,959,959,962,959,959,959,962,962,962,959,959,959,959,959,959,959,959,959,956,956,956,956,956,956,959,959,956,956,956,956,954,954,954,954,954,956,956,959,959,959,956,956,956,956,956,956,956,956,956,954,954,954,954,954,954,954,951,951,951,954,954,954,954,954,956,956,956,956,956,956,956,954,954,954,956,954,954,954,956,954,954,954,954,954,954,954,954,954,954,954,951,951,951,951,951,954,951,951,954,954,954,954,954,954,954,954,954,954,954,954,954,954,954,951,951,951,951,951,951,951,948,948,948,948,948,948,948,948,948,948,948,948,948,948,948,948,948,948,948,948,948,946,946,946,946,946,946,946,943,943,946,946,946,946,946,946,946,946,946,946,946,946,946,943,943,946,946,946,946,946,943,943,943,943,940,940,940,940,943,940,940,940,943,943,940,940,940,940,940,940,940,940,940,940,940,940,940,940,940,940,940,940,938,938,938,940,940,940,938,938,938,938,938,938,938,938,938,938,938,938,935,935,935,935,935,935,935,935,935,935,935,935,935,935,935,935,935,935,935,935,935,935,935,935,935,935,935,935,935,935,935,935,935,935,933,933,935,935,935,935,935,935,935,935,935,935,935,935,935,935,933,933,933,933,933,933,933,933,933,933,933,933,933,930,930,933,933,933,933,935,935,935,935,933,933,827,827,825,757,755,755,755,757,761,761,761,761,761,761,759,759,759,759,757,755,755,755,755,754,754,754,754,754,754,754,752,752,752,752,752,752,752,752,752,752,752,752,752,752,752,752,754,754,754,754,754,754,755,755,755,755,755,757,757,759,759,0,0,0,0,0,0,0,0,0,0,0,0,0,0,0,0,0,0,0,0,0,0,0,0,0,0,0,0,0,0,0,0,0,0,0,0,0,0,0
0,0,0,1001,998,998,995,995,992,992,992,989,989,992,992,989,989,989,989,987,987,987,987,987,987,987,987,987,987,987,984,981,981,981,981,981,981,981,981,981,981,981,981,978,978,978,978,978,978,978,978,978,978,978,978,978,978,975,975,975,975,975,975,975,975,975,975,975,973,973,975,975,975,975,975,975,978,975,975,978,978,975,975,975,975,975,975,975,975,975,975,975,975,975,975,975,975,975,975,975,975,975,975,975,975,975,975,975,975,975,973,973,973,973,973,973,973,973,973,973,973,973,973,973,973,973,973,973,973,973,970,970,970,970,970,970,970,970,970,967,967,967,967,967,956,792,792,792,792,794,794,794,796,796,796,798,798,800,802,802,802,803,803,805,807,809,809,811,811,811,813,964,964,964,967,967,967,964,964,964,964,964,967,967,967,964,964,967,967,964,964,964,964,962,962,962,962,964,964,964,962,962,962,962,962,962,962,962,962,962,962,962,962,962,962,962,962,962,962,962,962,962,959,959,962,962,962,962,959,959,959,959,959,956,956,956,956,956,956,956,956,956,959,956,956,956,956,956,956,956,956,959,959,956,956,954,954,956,956,956,956,956,956,956,956,954,954,954,954,954,954,954,954,954,954,954,954,954,954,954,954,954,956,956,956,956,956,956,954,954,954,954,954,954,954,954,954,951,951,951,948,948,948,951,951,951,951,951,951,954,954,954,954,954,954,954,954,954,954,954,954,954,954,954,954,951,951,951,951,951,951,951,951,951,951,951,951,948,948,948,951,948,948,951,951,951,951,951,951,951,951,951,951,951,951,948,948,948,948,948,948,948,948,948,948,948,948,948,946,946,946,946,946,946,946,946,946,946,946,946,946,946,946,946,946,946,946,943,943,943,943,943,943,943,943,943,943,943,943,943,943,943,946,943,943,943,943,943,943,943,943,943,943,943,943,943,940,940,940,938,938,938,938,938,938,938,938,938,938,938,938,938,938,938,938,938,938,935,935,935,935,935,935,938,938,938,938,938,938,938,938,938,938,938,938,938,938,938,938,938,938,938,935,935,935,935,935,935,933,933,933,933,933,933,933,933,933,933,933,933,933,935,935,933,933,933,933,933,933,933,933,935,935,935,933,933,933,933,933,930,930,930,930,933,933,930,930,933,933,933,933,933,930,930,933,930,930,930,930,930,930,933,933,930,930,930,930,930,930,930,930,930,930,930,933,933,933,933,933,827,827,827,825,757,755,755,755,757,761,761,761,761,761,761,759,759,759,757,757,755,755,755,755,754,754,754,754,754,752,752,752,752,750,750,750,750,752,752,752,752,754,752,752,752,752,754,754,754,754,754,754,754,755,755,755,755,755,757,759,759,759,0,0,0,0,0,0,0,0,0,0,0,0,0,0,0,0,0,0,0,0,0,0,0,0,0,0,0,0,0,0,0,0,0,0,0,0,0,0,0
0,0,0,998,998,998,995,992,992,992,989,989,989,992,992,989,989,989,987,987,987,987,987,987,987,987,987,987,984,984,984,981,981,981,981,981,981,978,978,978,978,978,978,975,975,975,975,975,975,975,975,975,975,975,975,975,975,975,975,975,975,975,975,973,973,973,973,973,970,970,970,970,970,970,973,975,975,975,975,975,975,975,975,975,973,973,975,973,973,973,973,973,973,973,973,973,973,973,973,973,973,973,973,973,973,973,973,973,973,973,973,973,973,973,970,970,970,970,970,970,970,973,973,973,970,970,970,970,970,970,970,967,967,967,967,967,967,967,967,967,967,964,956,956,956,796,792,792,792,794,794,794,796,796,798,798,798,800,802,802,802,803,805,807,809,809,811,811,811,811,813,813,964,964,964,964,964,964,964,964,964,964,964,964,964,964,964,964,964,964,962,962,962,962,962,962,962,962,962,962,959,959,959,959,959,959,959,959,959,959,959,959,959,959,959,959,959,959,956,956,956,959,956,956,959,959,959,959,959,959,959,959,956,956,956,956,956,956,956,956,956,956,956,956,956,956,956,956,956,954,954,954,954,954,954,951,951,954,954,954,956,956,954,954,954,954,954,951,951,951,951,951,951,951,951,951,951,954,951,951,954,954,954,951,951,951,954,954,954,954,951,951,951,951,951,951,951,951,948,948,948,948,948,948,948,948,948,951,951,954,951,951,951,951,954,951,951,951,954,954,951,951,951,951,948,948,948,948,948,948,948,948,948,948,948,948,948,948,948,948,948,948,948,948,948,948,948,948,948,948,948,948,948,946,946,948,948,948,948,948,948,948,948,948,946,946,946,946,946,946,946,946,946,946,946,946,946,946,946,946,946,946,946,946,943,943,943,940,940,940,940,940,940,940,940,940,940,940,940,940,940,940,943,940,940,940,940,940,940,940,940,940,943,940,940,940,940,940,938,938,938,938,938,938,935,935,935,935,935,935,935,935,935,935,935,935,935,933,933,933,933,933,933,933,935,935,935,935,935,935,935,935,935,935,935,938,935,935,935,935,935,935,935,933,933,933,933,933,933,933,933,933,933,930,930,930,930,933,933,933,933,933,933,933,930,930,930,930,930,930,930,933,933,933,930,930,930,930,930,928,928,928,928,925,925,928,928,928,928,930,930,930,928,928,930,928,928,928,928,928,928,928,928,928,928,928,928,928,928,928,930,930,930,930,930,930,930,829,829,827,827,827,827,759,757,755,755,759,761,759,759,761,759,759,759,757,757,757,755,755,755,754,754,754,752,752,752,752,752,752,752,752,750,750,750,750,752,752,752,752,754,752,752,752,752,754,754,754,754,754,754,754,755,755,755,755,755,757,759,759,761,0,0,0,0,0,0,0,0,0,0,0,0,0,0,0,0,0,0,0,0,0,0,0,0,0,0,0,0,0,0,0,0,0,0,0,0,0,0,0
0,0,0,998,998,995,995,992,989,989,989,989,989,989,984,984,987,987,987,987,987,984,984,987,984,984,984,984,984,981,981,978,978,978,978,978,978,975,975,975,975,975,973,970,970,970,970,973,973,973,973,970,970,970,970,970,973,973,973,973,973,973,973,970,970,970,970,970,967,967,970,967,967,970,970,970,970,970,970,973,973,973,973,973,973,973,973,973,970,970,970,970,970,967,967,967,967,967,970,970,970,970,970,970,970,970,970,970,970,970,970,970,970,967,967,967,967,967,967,967,967,970,970,970,970,970,967,967,967,967,967,967,967,967,967,967,967,967,967,967,967,964,956,954,954,796,796,794,794,796,796,796,796,798,798,800,800,800,802,803,803,805,807,809,809,811,811,811,811,811,813,815,964,964,964,964,964,964,964,964,962,962,962,962,962,959,959,962,962,962,959,959,959,959,959,959,959,959,959,959,956,956,956,956,959,956,956,956,956,956,956,956,956,956,956,956,956,956,956,956,956,956,954,954,954,956,956,956,956,956,956,956,956,956,956,956,956,954,954,954,954,954,954,954,954,954,954,954,954,951,951,948,948,948,951,948,948,948,951,951,954,954,954,951,951,951,951,951,948,948,948,948,948,948,948,948,951,951,951,951,951,948,948,946,946,948,948,948,948,951,951,951,951,948,948,948,948,946,946,946,946,946,946,946,946,946,946,946,946,948,948,948,948,948,951,951,948,948,948,951,948,948,948,948,948,948,946,946,946,946,946,946,946,946,946,946,946,946,946,948,948,946,946,946,946,946,946,946,948,948,948,948,946,946,946,946,946,946,946,946,946,946,946,946,943,943,946,943,943,943,943,943,943,943,943,943,943,943,943,943,943,943,943,943,943,940,940,938,938,938,938,938,938,938,938,938,938,938,938,938,938,938,938,938,938,938,938,938,940,940,940,940,940,940,940,940,938,938,938,938,938,935,935,935,935,935,935,933,933,933,933,933,933,933,933,933,933,930,930,930,930,930,930,930,933,933,933,933,933,933,935,935,935,935,933,933,935,935,935,935,935,933,933,933,933,930,930,930,930,930,930,930,930,930,930,930,930,930,930,930,930,930,930,930,928,928,928,930,930,930,930,930,930,930,930,928,928,928,928,925,925,925,925,925,925,923,923,925,928,928,928,928,928,928,928,928,928,925,925,925,925,925,923,923,925,925,925,928,928,928,928,928,928,928,928,928,831,829,829,829,827,827,827,827,759,759,759,759,761,759,759,759,759,759,757,757,757,755,755,754,754,754,754,752,752,752,752,752,752,752,752,752,750,750,750,750,752,752,752,752,754,752,752,752,754,754,754,754,754,754,754,754,755,755,755,755,757,757,759,761,761,0,0,0,0,0,0,0,0,0,0,0,0,0,0,0,0,0,0,0,0,0,0,0,0,0,0,0,0,0,0,0,0,0,0,0,0,0,0,0
0,0,0,998,995,995,992,989,989,987,987,987,987,987,984,981,981,987,981,981,987,984,984,987,984,984,984,981,981,981,978,978,978,978,978,975,975,975,975,973,973,973,973,970,970,970,970,970,970,970,970,970,967,967,967,967,970,970,970,973,973,973,970,967,967,967,967,967,967,967,967,967,967,967,967,967,967,967,967,967,970,970,970,970,970,970,970,970,967,964,964,967,967,964,964,964,964,964,967,967,967,967,967,967,967,967,967,967,967,967,967,967,967,967,964,964,964,964,964,964,964,967,967,967,967,967,967,967,967,967,967,964,964,964,964,964,964,964,964,964,964,964,962,954,954,796,796,794,794,796,796,796,798,800,800,802,802,802,802,803,805,807,807,809,809,811,811,811,811,811,813,815,817,962,962,962,962,962,962,962,959,959,959,959,959,956,956,959,959,959,959,959,959,956,956,956,956,956,956,956,956,956,956,956,956,956,956,956,956,956,956,954,954,954,954,954,954,954,954,954,954,954,954,954,951,951,951,951,954,956,956,956,956,954,954,954,954,954,954,954,954,954,954,954,951,951,951,951,951,951,948,948,946,946,948,946,946,946,948,948,951,951,951,951,951,951,948,948,948,946,946,946,946,946,946,946,948,948,948,948,946,946,946,946,946,946,946,946,946,946,946,946,948,946,946,946,946,946,946,946,946,946,946,946,946,946,946,946,946,948,948,946,946,948,948,948,948,948,948,948,948,946,946,946,946,946,946,946,943,943,943,943,943,943,943,943,946,946,946,946,946,943,943,943,943,943,946,943,943,946,946,946,943,943,943,943,943,943,943,943,943,943,943,943,943,943,943,943,943,943,943,943,940,940,940,938,938,938,938,938,938,940,940,940,940,938,938,938,938,938,935,935,935,935,935,935,935,935,935,938,938,938,938,935,935,935,938,938,938,938,938,938,938,938,938,938,935,935,935,935,935,935,935,935,933,933,930,930,930,930,930,930,930,930,933,930,930,928,928,928,928,928,930,930,930,930,930,930,930,930,933,933,933,933,933,933,933,930,930,933,933,933,930,930,930,930,930,928,928,928,928,928,928,928,928,928,928,928,928,928,925,925,928,928,925,925,925,925,928,928,928,928,928,928,928,928,925,925,923,923,923,923,923,920,920,920,920,920,920,920,925,925,925,925,925,925,925,923,923,923,920,920,920,920,920,923,923,925,925,925,925,928,928,928,835,833,831,829,829,831,829,829,829,759,759,759,759,759,759,759,757,757,757,757,757,755,755,755,755,754,754,754,754,752,752,752,752,752,752,752,752,752,750,750,750,750,752,752,752,754,754,754,754,754,754,754,754,754,754,754,755,755,755,755,755,755,757,759,761,761,761,0,0,0,0,0,0,0,0,0,0,0,0,0,0,0,0,0,0,0,0,0,0,0,0,0,0,0,0,0,0,0,0,0,0,0,0,0,0,0
0,0,0,995,992,992,989,989,989,987,987,987,984,984,978,975,975,978,978,978,978,978,978,978,981,981,981,981,978,978,978,978,975,975,975,975,975,973,973,973,967,967,967,967,967,967,967,970,967,967,967,967,967,967,967,967,967,967,967,970,970,970,970,967,967,964,964,964,964,964,964,967,967,967,967,967,967,964,964,964,967,967,967,967,967,967,967,967,964,962,962,959,959,959,962,959,959,962,964,964,964,964,964,964,964,964,964,967,967,967,967,967,967,964,964,964,964,962,962,962,962,962,964,964,964,964,964,964,964,964,964,964,962,962,962,962,962,962,962,962,964,964,962,951,951,796,796,796,796,798,798,798,798,800,800,802,802,802,803,805,807,807,809,809,811,811,813,813,813,813,815,815,815,959,959,959,959,956,956,959,956,956,956,956,956,956,956,956,956,956,956,956,956,956,956,956,956,956,956,954,954,954,954,954,954,954,954,954,954,954,954,954,951,951,951,951,954,954,951,951,951,951,951,951,951,948,948,948,948,951,951,954,954,954,954,954,954,954,951,951,951,951,951,951,948,948,948,948,948,948,948,946,946,946,946,946,946,946,946,948,948,948,948,948,948,948,948,946,946,946,946,946,946,946,946,946,946,946,946,946,943,943,943,943,943,940,940,943,943,943,943,943,943,943,943,946,946,946,943,943,943,943,943,943,943,943,946,943,943,946,946,946,946,946,946,946,946,946,946,946,946,943,943,943,943,943,943,943,940,940,940,940,940,940,940,940,940,940,940,943,943,940,940,943,943,943,943,940,940,940,940,940,940,940,940,940,940,943,943,940,940,940,940,940,940,940,940,940,940,940,940,940,938,938,938,935,935,935,935,935,935,935,935,935,938,938,938,935,935,935,935,935,935,935,935,935,935,935,935,935,935,935,935,935,935,935,935,933,933,935,935,935,935,935,935,935,935,933,933,933,933,933,933,933,933,930,930,928,928,928,928,928,928,930,930,930,930,928,928,928,928,928,928,928,928,928,928,928,928,928,930,930,930,928,928,928,930,928,928,928,928,928,928,928,928,928,928,928,925,925,925,928,928,928,925,925,925,928,925,923,923,923,923,925,925,923,923,925,925,925,925,925,925,925,925,925,923,923,923,920,920,920,920,920,920,920,920,920,918,918,918,918,923,923,923,923,923,923,920,920,920,920,918,918,920,920,920,920,923,923,923,923,923,835,833,833,833,831,831,833,831,831,833,759,759,759,759,759,759,759,757,757,757,757,755,755,755,755,755,754,754,754,754,752,752,752,752,752,752,752,752,750,750,750,750,750,752,752,754,754,754,754,754,754,754,754,754,754,754,754,755,755,755,755,755,755,757,759,761,761,762,0,0,0,0,0,0,0,0,0,0,0,0,0,0,0,0,0,0,0,0,0,0,0,0,0,0,0,0,0,0,0,0,0,0,0,0,0,0,0
0,0,0,992,989,989,989,987,987,987,984,984,981,981,975,973,973,975,975,975,975,975,975,975,981,981,978,978,978,978,975,975,975,975,973,973,973,970,970,967,967,967,967,967,967,967,967,967,967,967,967,964,964,964,964,964,964,964,964,967,967,967,967,964,964,964,964,964,964,964,964,964,964,964,964,964,964,964,962,962,964,964,964,964,964,964,962,962,962,962,962,959,959,959,959,959,959,959,962,964,964,964,964,964,964,964,964,964,964,964,967,964,964,964,964,962,959,959,959,959,959,959,962,962,962,962,962,962,962,962,962,959,959,959,959,962,962,962,962,962,962,962,962,951,951,796,796,796,798,798,798,798,800,800,802,802,803,803,803,805,807,809,809,811,811,811,813,813,813,813,813,815,815,956,956,956,956,956,956,956,954,954,954,954,954,951,951,951,951,951,951,951,954,954,954,954,954,954,954,954,951,951,951,951,951,951,951,951,951,951,951,948,948,948,948,951,951,951,948,948,948,948,948,948,948,948,948,948,948,948,946,946,946,946,948,951,948,948,951,951,951,951,948,948,948,948,946,946,948,946,946,946,946,946,946,946,946,943,943,946,946,946,946,946,946,946,946,946,946,946,943,943,943,943,943,943,943,943,943,943,943,940,940,940,940,938,938,940,940,940,940,940,940,940,940,940,940,943,943,943,943,943,943,943,943,943,943,940,940,943,943,943,940,940,943,943,943,943,943,943,943,943,943,940,940,940,940,940,940,940,938,938,940,940,938,938,938,938,938,940,940,940,940,940,940,940,940,940,940,938,938,938,938,938,938,938,940,940,940,940,940,940,938,938,938,938,938,938,938,938,938,938,935,935,935,935,935,933,933,933,935,935,935,935,935,935,935,935,935,933,933,933,933,933,933,933,933,933,933,933,933,935,935,935,933,933,933,933,930,930,930,933,933,933,930,930,933,930,930,930,930,930,930,930,928,928,928,925,925,925,925,925,928,928,928,928,930,928,928,928,928,928,928,928,928,928,928,928,925,925,925,925,925,925,925,925,925,925,925,925,925,925,925,925,925,925,925,925,925,925,923,923,925,925,923,923,923,920,920,920,920,920,920,920,923,923,923,923,925,925,925,925,923,923,923,923,920,920,918,918,918,918,918,918,918,918,918,918,918,918,918,918,918,918,920,920,920,920,918,918,918,918,918,918,918,918,918,920,920,920,923,920,837,835,833,833,831,831,831,831,833,833,833,759,759,759,759,757,757,757,757,757,755,755,755,755,755,754,754,754,754,752,752,752,752,752,752,752,752,752,752,750,750,750,750,750,752,752,754,754,754,752,752,754,754,754,754,754,754,754,755,755,755,755,755,755,757,759,761,761,762,0,0,0,0,0,0,0,0,0,0,0,0,0,0,0,0,0,0,0,0,0,0,0,0,0,0,0,0,0,0,0,0,0,0,0,0,0,0,0
0,0,0,984,984,984,984,984,984,984,984,981,978,978,973,973,973,973,975,975,975,975,975,975,978,978,978,978,978,975,975,975,973,973,970,970,970,970,967,967,967,964,964,964,964,964,964,964,964,964,964,964,964,964,964,964,964,964,964,964,964,967,967,964,964,964,964,962,962,962,962,962,962,962,962,962,962,962,959,959,962,964,964,964,964,964,962,962,959,959,959,956,956,956,959,959,959,959,959,962,959,959,959,959,959,962,962,962,962,964,964,964,964,964,962,962,959,959,956,956,956,956,956,959,959,959,959,959,959,959,959,956,956,956,956,956,959,959,959,959,962,962,962,954,954,796,796,796,798,798,800,800,800,802,802,802,803,803,803,805,807,809,809,811,811,811,813,813,813,813,813,813,956,956,956,956,954,954,954,954,954,954,951,951,951,948,948,948,948,948,948,948,951,954,954,954,954,954,951,951,951,948,948,948,948,948,948,948,948,948,948,948,948,948,948,948,948,948,946,946,946,946,946,946,946,946,946,946,946,946,943,943,943,943,943,943,943,943,948,948,948,948,948,946,946,946,946,946,946,946,946,946,946,946,946,943,943,943,943,943,943,943,943,946,946,946,946,946,943,943,943,943,943,943,940,940,940,940,940,940,940,938,938,938,938,938,938,938,938,938,938,938,938,938,938,938,938,938,938,938,940,940,940,940,940,938,938,938,938,940,940,940,938,938,938,940,940,940,940,940,940,940,940,940,938,938,938,938,938,938,938,938,938,938,938,938,938,938,938,938,938,938,938,938,938,938,938,938,938,935,935,938,935,935,935,935,935,938,938,938,938,938,938,935,935,935,935,935,935,935,935,935,935,935,935,933,933,930,930,933,933,933,933,933,935,935,933,933,933,933,933,933,933,933,933,933,933,933,930,930,930,933,933,933,930,930,930,928,928,928,928,928,928,928,928,928,930,930,928,928,928,928,928,928,925,925,925,925,925,925,925,925,925,925,925,925,928,925,925,925,925,925,925,925,925,925,925,925,923,923,923,923,920,920,920,920,920,923,920,920,923,923,923,920,920,923,923,923,923,923,920,920,920,920,920,918,918,918,918,918,918,918,918,918,920,920,920,920,920,923,920,920,920,918,918,918,918,918,918,915,915,915,915,915,915,915,915,918,915,915,915,915,915,915,915,915,918,918,918,918,918,918,918,918,918,918,918,918,920,920,837,837,835,835,833,833,831,831,831,831,833,833,833,759,759,759,759,757,757,757,757,757,755,755,755,755,754,754,754,754,754,752,752,752,752,752,752,752,752,752,752,752,750,750,750,752,752,752,754,754,754,752,752,754,754,754,754,754,754,755,755,755,755,755,755,755,759,761,762,762,762,0,0,0,0,0,0,0,0,0,0,0,0,0,0,0,0,0,0,0,0,0,0,0,0,0,0,0,0,0,0,0,0,0,0,0,0,0,0,0
0,0,0,984,984,984,981,981,978,978,978,978,975,975,973,973,973,973,975,975,975,973,973,973,973,975,978,978,975,975,973,973,970,970,967,967,967,967,964,964,967,962,962,962,962,962,962,962,962,964,964,964,964,964,962,962,962,962,962,962,964,964,964,964,964,962,962,959,959,959,959,959,959,959,959,959,959,959,956,956,956,959,959,959,959,959,959,959,956,956,956,956,956,956,956,956,956,956,959,959,956,956,956,956,956,956,956,959,959,962,962,962,962,962,962,959,956,956,956,956,956,956,956,956,956,956,956,956,956,956,956,956,954,954,954,956,956,956,956,956,959,959,959,962,962,796,796,798,798,800,800,802,802,802,802,803,803,803,803,805,807,809,809,811,811,813,813,815,813,813,813,813,956,954,954,954,954,954,951,951,951,951,951,948,948,948,948,948,946,946,948,948,951,951,951,951,951,951,948,948,948,946,946,946,946,946,946,946,946,946,946,946,946,946,946,946,946,946,943,943,943,943,943,946,946,946,946,946,946,943,943,940,940,940,940,940,943,943,943,943,946,946,946,943,943,943,943,943,943,943,943,943,943,943,943,943,940,940,940,940,940,940,940,943,943,943,943,943,943,943,943,943,940,940,940,938,938,938,938,938,938,935,935,935,935,935,935,935,935,935,935,935,935,935,935,935,935,935,935,935,935,935,935,938,935,935,935,935,935,938,938,938,938,938,938,938,938,938,938,938,940,938,938,938,938,938,938,938,938,935,935,935,935,935,935,935,935,935,935,935,935,935,935,935,935,935,935,935,935,935,935,935,935,935,935,935,935,935,933,933,933,933,933,933,933,933,933,933,933,933,933,933,933,933,933,930,930,928,928,930,930,930,930,930,933,933,930,930,930,930,930,930,933,933,933,933,930,930,928,928,930,930,930,930,930,930,928,928,928,925,925,925,925,925,925,925,925,928,928,928,925,925,925,925,925,925,923,923,925,925,925,925,925,925,925,925,925,923,923,923,923,923,923,923,923,925,923,920,920,918,918,918,918,918,920,920,920,918,918,918,920,918,918,918,918,920,920,918,918,920,918,918,918,918,918,918,915,915,918,918,918,918,918,918,918,918,918,918,918,918,918,918,918,918,915,915,915,915,915,913,913,913,913,913,913,913,913,915,915,915,915,915,913,913,913,913,915,915,918,918,918,918,915,915,915,915,915,918,845,837,837,837,835,835,835,833,833,833,833,833,833,833,833,759,759,759,759,757,757,757,757,757,755,755,755,755,754,754,754,754,752,752,752,752,752,752,752,752,752,752,752,752,750,750,750,752,752,754,754,754,754,754,754,754,754,754,754,754,754,755,755,755,755,755,755,757,759,761,762,762,762,0,0,0,0,0,0,0,0,0,0,0,0,0,0,0,0,0,0,0,0,0,0,0,0,0,0,0,0,0,0,0,0,0,0,0,0,0,0,0
0,0,0,981,981,981,978,978,978,978,975,975,975,975,975,975,975,973,973,973,973,970,970,967,967,970,970,975,975,973,970,967,967,967,967,967,967,967,964,964,964,962,962,962,962,959,959,959,962,962,962,962,962,962,962,959,959,959,959,959,962,962,962,962,962,959,959,959,956,956,956,956,956,956,956,956,956,956,956,956,956,956,959,959,959,959,956,956,956,956,956,954,954,954,954,954,954,954,954,956,956,956,956,956,956,956,956,956,956,959,959,959,959,959,959,956,956,956,956,954,954,954,954,954,954,954,954,954,954,954,954,954,954,954,954,954,954,954,954,954,954,954,954,954,794,794,796,796,798,798,800,802,802,803,803,803,803,803,805,805,807,809,809,811,811,813,815,815,815,815,815,815,956,954,954,954,951,951,948,948,948,948,948,948,946,946,946,946,946,946,946,946,946,948,948,948,948,948,948,946,946,946,946,943,943,943,943,943,943,943,943,943,943,943,943,943,943,943,943,943,943,943,943,943,943,943,943,943,943,943,940,940,940,940,940,940,940,940,940,940,940,940,940,943,940,940,940,940,940,940,940,940,943,943,943,940,938,938,938,938,938,938,938,940,940,940,940,940,940,940,938,938,938,935,935,935,935,935,935,935,935,935,935,935,935,933,933,933,933,933,933,933,933,933,933,933,933,933,933,933,933,933,933,933,933,933,935,935,935,935,935,935,935,935,935,935,938,938,938,938,938,938,938,938,938,938,938,938,935,935,935,935,935,935,933,933,933,933,933,933,933,933,935,933,933,935,935,935,933,933,933,933,933,933,933,933,933,933,930,930,930,928,928,928,930,930,928,928,930,930,930,930,930,930,930,930,928,928,928,928,928,928,928,928,930,930,928,928,928,930,930,930,930,930,930,930,928,928,928,928,928,928,928,928,928,928,928,925,925,925,925,925,923,923,925,925,925,925,925,925,925,925,923,923,923,923,923,923,923,923,923,923,923,923,923,923,920,920,920,920,920,920,923,920,920,923,920,920,920,918,918,918,918,918,918,918,918,918,915,915,915,915,918,918,918,918,918,918,918,918,918,918,915,915,915,915,915,915,915,915,915,918,918,918,918,918,918,918,918,918,918,915,915,915,915,913,913,913,913,910,910,910,910,910,910,910,910,913,913,913,913,913,910,910,910,910,913,913,913,913,915,915,915,915,913,913,915,847,845,837,837,837,835,835,835,835,835,833,833,833,835,835,835,759,759,759,757,757,757,755,755,755,755,755,755,754,754,754,754,754,752,752,752,752,752,752,752,752,752,752,752,752,750,750,750,752,752,752,752,752,752,752,754,754,754,754,754,755,755,755,755,755,755,755,757,757,761,761,762,762,762,0,0,0,0,0,0,0,0,0,0,0,0,0,0,0,0,0,0,0,0,0,0,0,0,0,0,0,0,0,0,0,0,0,0,0,0,0,0,0
0,0,978,978,978,978,975,975,975,975,975,975,973,973,973,975,973,973,973,970,970,967,967,967,967,959,959,967,967,967,967,964,964,964,964,964,964,962,962,962,959,959,959,959,959,956,956,959,959,962,959,959,959,959,959,959,959,959,959,956,956,959,959,959,956,956,956,956,954,954,954,954,954,954,954,954,954,954,954,954,954,954,956,956,956,956,956,956,956,954,954,954,954,954,954,954,954,954,954,954,954,954,954,954,954,956,956,954,954,956,956,956,956,956,956,956,956,954,954,954,954,954,954,954,954,954,954,954,951,951,951,951,951,951,951,951,954,954,951,951,948,948,948,948,794,794,796,796,798,798,800,802,803,803,803,803,805,805,805,807,807,809,811,811,811,813,815,817,817,815,815,815,951,951,951,948,948,948,948,948,948,946,946,946,946,946,946,946,946,946,946,946,946,946,946,946,946,946,946,946,946,946,943,943,943,943,940,940,943,940,940,940,940,940,940,940,940,940,940,940,940,940,940,943,943,943,943,940,940,940,940,938,938,938,938,940,940,938,938,938,938,938,938,935,935,935,935,938,938,938,938,938,940,940,940,938,935,935,935,935,935,935,935,935,938,938,938,938,938,938,935,935,935,935,935,935,935,935,935,935,935,935,933,933,933,933,933,933,933,933,933,930,930,930,930,930,930,930,930,930,930,930,930,930,930,928,928,930,935,933,933,935,935,935,935,935,935,935,935,935,935,935,935,935,935,935,935,935,935,933,933,933,933,933,933,933,933,933,933,933,930,930,933,930,930,930,933,933,933,930,930,933,933,930,930,930,930,930,930,928,928,928,928,928,928,928,928,928,928,928,928,928,928,928,928,928,928,928,928,928,928,928,928,928,928,928,928,928,928,928,928,928,928,928,928,928,928,925,925,928,928,928,925,925,928,928,925,925,925,923,923,923,923,923,923,923,923,923,923,920,920,920,920,920,920,920,920,920,920,920,920,920,920,920,918,918,918,918,918,918,918,920,920,920,920,920,918,918,918,918,918,918,918,918,915,915,915,915,915,915,915,915,915,915,915,918,918,915,915,915,915,915,915,915,915,915,915,915,915,915,915,915,915,915,915,915,915,915,913,913,915,915,915,915,913,910,910,910,910,910,910,908,908,908,908,908,908,910,910,910,910,908,908,908,908,908,908,910,910,913,913,913,913,913,913,913,913,845,839,837,837,837,835,835,835,835,835,835,835,835,835,835,837,759,759,759,757,757,757,755,755,755,755,755,754,754,754,754,752,752,752,752,752,752,752,752,752,752,752,752,752,752,750,750,750,752,752,752,752,752,752,752,752,754,754,754,754,755,755,755,755,755,755,755,757,761,761,761,762,762,762,0,0,0,0,0,0,0,0,0,0,0,0,0,0,0,0,0,0,0,0,0,0,0,0,0,0,0,0,0,0,0,0,0,0,0,0,0,0,0
0,0,975,975,975,975,973,973,973,973,973,973,967,967,967,973,973,970,970,967,967,964,962,962,962,956,956,964,964,964,964,964,964,964,962,962,964,959,959,959,956,956,956,956,956,956,956,956,956,956,956,956,956,956,956,956,956,956,956,954,954,956,956,956,954,954,956,954,954,954,954,954,954,954,954,951,951,954,954,951,951,951,954,954,954,954,954,954,954,954,954,951,951,951,951,951,951,951,951,951,954,954,954,954,954,954,954,951,951,951,951,954,954,954,956,954,954,954,954,954,954,954,954,954,954,954,954,951,951,951,948,948,948,948,948,951,951,951,948,948,948,946,946,946,794,794,794,796,800,800,800,802,803,803,805,805,805,805,807,807,807,809,811,811,811,813,817,817,817,817,817,817,948,948,948,948,946,946,943,943,946,943,943,946,946,946,946,946,946,946,943,943,943,943,943,943,943,946,946,946,943,943,943,940,940,940,938,938,940,938,938,938,940,940,940,940,938,938,938,938,938,938,938,940,940,940,940,940,938,938,938,938,938,938,938,938,938,935,935,935,935,935,935,935,935,935,933,933,933,933,935,935,935,935,938,935,933,933,933,933,933,933,933,933,935,935,935,935,935,935,935,933,933,933,935,935,933,933,935,935,933,933,933,933,933,933,930,930,930,930,930,928,928,928,928,928,928,928,928,928,928,928,928,928,928,928,928,928,930,930,930,933,933,933,933,933,933,933,933,933,933,933,933,933,935,933,933,933,933,930,930,930,930,930,930,930,930,930,930,930,930,930,930,930,928,928,930,930,930,930,930,930,930,930,930,930,928,928,928,928,928,925,925,925,925,925,925,925,925,928,928,928,928,928,928,928,925,925,925,925,925,925,925,925,925,925,925,925,925,925,925,925,925,925,925,925,925,923,923,925,925,925,923,923,925,925,923,923,923,920,920,920,920,920,920,920,920,920,920,920,920,920,918,918,918,918,918,918,920,920,920,918,918,918,918,918,915,915,915,918,918,918,918,918,918,918,918,918,918,915,915,915,915,915,915,913,913,915,913,910,910,910,910,913,913,915,915,915,915,915,913,910,910,910,910,913,913,913,913,915,915,915,915,913,913,913,913,913,910,910,913,913,913,913,910,910,910,910,910,908,908,908,908,908,908,908,908,908,908,908,908,908,908,908,908,908,908,908,908,908,910,910,910,913,910,910,845,845,839,837,837,837,837,835,835,837,835,835,837,837,837,837,837,837,757,757,757,757,755,755,755,755,755,755,754,754,754,752,752,752,752,750,750,752,750,750,752,752,752,752,752,752,752,750,750,752,752,752,752,752,752,752,752,754,754,754,754,755,755,755,755,755,757,757,759,761,761,762,762,761,761,0,0,0,0,0,0,0,0,0,0,0,0,0,0,0,0,0,0,0,0,0,0,0,0,0,0,0,0,0,0,0,0,0,0,0,0,0,0,0
0,0,973,973,975,975,970,970,970,970,970,970,964,964,967,970,967,967,962,962,962,962,962,959,959,954,951,951,959,959,959,959,959,962,959,959,959,956,956,959,956,956,956,956,954,954,954,954,956,956,956,956,956,956,956,956,954,954,954,954,954,954,954,954,954,954,954,954,951,951,951,951,954,954,954,951,951,951,951,951,948,948,951,951,951,951,951,951,951,951,951,948,948,948,948,948,948,948,948,948,951,951,951,951,954,954,951,951,951,948,948,948,951,951,954,951,951,951,951,951,951,951,951,951,951,951,951,948,948,946,946,946,946,946,946,946,948,948,946,946,946,946,946,946,946,794,794,796,798,798,802,803,803,805,805,805,805,807,807,807,807,809,811,811,813,815,817,817,817,817,817,819,819,948,946,946,943,943,940,940,940,943,943,943,943,943,943,943,943,943,943,943,943,943,943,943,943,943,943,943,943,943,940,938,938,938,938,938,938,938,935,935,938,938,938,938,935,935,938,935,935,935,935,935,935,935,938,938,935,935,935,935,935,935,935,935,935,935,935,935,935,935,935,933,933,933,933,933,933,933,933,933,933,933,933,933,933,933,930,930,933,933,933,933,933,933,933,933,933,933,933,933,933,933,933,933,933,933,933,933,933,930,930,930,930,930,930,930,930,930,930,928,928,928,925,925,925,925,925,925,928,928,928,928,925,925,925,925,928,928,928,928,928,928,930,930,930,930,930,930,930,930,933,933,933,933,933,930,930,928,928,928,928,928,928,928,928,930,930,928,928,928,928,928,928,928,928,928,928,928,928,928,928,928,928,928,925,925,925,925,925,925,925,925,925,925,925,925,925,925,925,925,925,925,925,925,923,923,923,923,925,925,925,925,925,925,923,923,923,923,923,920,920,923,923,923,923,920,920,920,920,920,920,920,920,920,920,920,920,920,920,918,918,918,918,918,918,918,918,918,918,918,918,915,915,915,918,918,918,918,918,918,918,918,915,915,915,915,915,915,915,915,915,915,915,915,915,915,915,915,913,913,913,913,910,910,913,913,910,910,910,910,910,910,910,913,913,913,913,913,913,910,908,908,908,908,908,910,913,913,913,913,913,913,910,910,910,910,910,910,910,910,910,913,910,910,910,908,908,908,908,906,906,906,906,906,908,908,908,908,908,906,906,906,906,906,906,908,908,908,908,908,910,910,908,908,843,839,837,837,837,837,837,837,837,837,837,837,837,837,837,837,837,0,0,755,755,755,755,755,755,755,755,755,754,754,754,752,752,752,750,750,750,750,750,750,752,750,750,750,750,750,750,750,750,750,752,752,752,752,752,752,752,754,754,754,754,755,755,755,755,757,759,759,759,761,762,762,762,761,761,0,0,0,0,0,0,0,0,0,0,0,0,0,0,0,0,0,0,0,0,0,0,0,0,0,0,0,0,0,0,0,0,0,0,0,0,0,0,0
0,0,973,973,973,973,970,970,967,967,967,970,964,964,967,967,967,967,962,962,959,959,959,956,956,954,951,951,954,954,956,956,956,956,956,956,956,956,956,956,956,956,954,954,954,951,951,954,954,954,954,954,954,954,954,954,951,951,951,951,951,951,951,951,951,951,951,951,948,948,948,948,951,951,951,948,948,948,948,948,946,946,948,948,948,948,948,948,948,948,946,946,948,948,946,946,948,946,946,948,948,948,951,951,951,951,951,948,948,946,946,946,946,946,946,948,948,948,948,948,948,948,948,948,948,948,948,948,946,946,946,946,946,946,943,943,946,946,943,943,943,943,943,943,943,796,796,798,798,798,803,803,805,805,805,805,807,807,807,807,809,809,811,813,813,815,817,817,819,819,819,819,819,943,943,940,940,938,938,938,938,938,938,940,940,940,940,940,940,940,940,940,940,938,938,940,940,940,940,943,940,940,940,938,938,935,935,935,935,935,935,935,935,935,935,935,935,935,935,935,935,933,933,933,933,933,933,933,933,933,933,933,935,935,935,935,935,935,933,933,933,933,933,933,933,933,933,933,930,930,930,930,930,930,930,930,930,930,930,930,930,930,930,930,930,930,930,930,930,930,930,930,930,930,930,930,930,930,930,930,930,930,928,928,930,930,928,928,928,928,928,925,925,925,925,925,925,925,925,925,925,925,925,925,925,925,925,925,928,928,928,925,925,925,925,928,928,928,928,928,928,928,930,930,928,928,928,928,928,928,925,925,925,928,928,928,928,928,928,928,925,925,925,928,928,925,925,925,925,925,925,925,925,925,925,925,925,925,925,925,923,923,923,925,925,923,923,925,925,925,925,923,923,923,923,923,923,920,920,923,923,923,923,923,923,923,923,920,920,920,920,918,918,918,918,920,918,918,920,920,920,920,918,918,918,918,918,918,918,918,918,915,915,915,915,915,915,915,915,915,918,915,915,915,913,913,910,910,910,913,915,915,915,915,915,915,915,915,915,915,913,913,913,913,913,913,913,913,913,910,910,910,910,910,908,908,908,910,908,908,908,908,908,908,908,910,910,910,910,910,910,908,908,908,908,908,908,908,908,908,910,913,910,908,908,908,908,908,908,908,908,908,908,908,908,908,908,908,908,906,906,906,906,906,906,906,906,906,906,906,906,906,906,906,903,903,903,906,906,906,908,908,908,908,908,841,839,839,837,837,837,837,837,837,837,837,837,837,837,837,0,837,755,0,0,755,755,755,755,755,755,755,755,755,754,754,754,752,752,752,750,750,750,750,750,750,750,750,750,750,750,750,750,750,750,750,750,752,752,752,752,752,752,754,754,754,755,755,755,755,757,757,759,759,761,762,762,762,762,761,761,0,0,0,0,0,0,0,0,0,0,0,0,0,0,0,0,0,0,0,0,0,0,0,0,0,0,0,0,0,0,0,0,0,0,0,0,0,0,0
0,0,970,970,970,970,967,967,967,964,964,964,964,964,964,964,964,956,956,956,959,959,956,956,956,954,954,954,954,954,954,951,951,954,951,951,954,954,956,956,954,954,954,954,951,951,948,948,951,946,946,946,951,948,948,948,948,948,948,948,948,948,948,946,946,946,946,946,946,946,946,946,946,948,946,946,946,946,948,946,946,946,946,946,946,946,946,946,946,946,946,946,946,946,946,946,946,946,946,946,946,946,946,948,948,948,948,946,946,946,943,943,943,943,943,943,943,943,946,946,946,946,946,946,946,946,946,946,946,943,943,943,943,943,943,943,943,943,943,943,940,940,940,940,940,940,940,798,798,798,803,805,805,805,807,807,807,809,809,809,809,811,813,815,815,817,819,819,819,819,819,819,819,940,940,938,938,938,935,935,935,935,935,938,938,938,938,938,938,935,935,935,938,935,935,938,938,938,938,938,938,938,935,935,935,935,935,935,935,933,933,933,933,933,933,933,933,933,933,933,933,933,930,930,930,930,930,930,930,930,930,933,933,933,933,933,933,933,933,930,930,933,930,930,930,930,930,930,930,928,928,928,928,928,928,928,928,928,928,928,930,930,928,928,928,928,928,928,925,925,925,928,928,928,928,928,928,928,928,928,928,928,925,925,925,925,925,925,925,925,925,925,925,925,925,923,923,925,925,925,925,925,925,925,925,925,923,923,925,925,925,925,925,923,923,925,925,925,925,925,928,928,928,928,925,925,928,925,925,925,925,925,925,925,925,925,925,925,925,925,925,925,925,925,925,925,923,923,923,923,923,920,920,920,923,923,923,923,923,923,923,920,920,923,923,920,920,923,923,923,923,920,920,918,918,918,920,920,920,920,920,920,920,920,920,920,920,918,918,918,918,915,915,918,918,918,918,918,918,918,918,918,918,915,915,915,915,915,915,915,915,915,913,913,913,913,913,913,913,915,915,915,913,913,913,910,908,908,908,908,908,913,913,915,915,915,915,915,915,913,913,913,913,913,910,910,910,910,910,908,908,908,908,908,908,908,908,908,908,906,906,906,906,906,906,908,908,908,908,908,908,908,906,906,906,906,906,906,906,906,906,906,906,906,906,906,906,906,906,906,906,908,908,908,908,906,906,906,906,906,906,906,906,906,906,906,906,906,906,906,903,903,903,903,901,901,901,903,903,903,906,906,906,906,841,839,837,837,837,837,837,837,837,837,837,837,837,839,841,0,0,0,0,0,0,755,755,755,755,755,755,755,755,754,754,754,754,752,752,752,750,750,750,750,750,750,750,750,749,749,749,749,749,749,750,750,750,750,750,750,752,752,752,752,754,754,754,754,754,755,757,757,761,761,762,762,762,762,762,761,761,0,0,0,0,0,0,0,0,0,0,0,0,0,0,0,0,0,0,0,0,0,0,0,0,0,0,0,0,0,0,0,0,0,0,0,0,0,0,0
0,0,970,967,967,967,964,964,964,964,962,962,962,962,962,956,956,956,956,956,956,956,956,956,954,954,954,954,954,954,954,951,951,951,951,951,951,951,951,951,951,951,951,948,948,948,946,946,948,946,946,946,946,946,946,946,946,946,946,946,946,946,946,946,946,946,946,946,946,946,946,943,943,943,943,943,943,946,946,946,946,946,946,946,946,943,943,943,943,943,943,943,943,943,943,943,946,946,943,943,943,943,943,940,940,940,943,943,943,943,943,943,943,943,943,943,943,943,943,943,940,940,940,943,946,946,943,943,943,943,943,943,943,943,943,943,940,940,940,938,938,938,938,938,938,940,940,802,802,802,805,807,807,807,807,807,809,809,809,811,811,811,815,817,817,819,819,819,821,821,821,821,821,821,940,935,935,935,935,933,933,933,935,935,935,935,935,935,933,933,933,933,933,933,933,933,935,935,935,935,935,935,935,933,933,935,933,933,933,933,933,933,933,930,930,933,933,933,933,930,930,928,925,925,925,925,928,928,925,925,928,928,928,930,930,930,930,930,930,928,928,928,928,928,928,928,928,928,928,928,928,925,925,925,925,925,925,925,925,925,925,925,928,928,928,925,925,925,925,925,925,925,925,925,925,925,925,925,925,925,925,925,925,925,925,925,925,925,925,923,923,923,923,923,923,923,923,923,923,923,923,923,923,923,923,923,923,923,925,923,923,923,923,920,920,920,923,923,923,923,923,923,923,925,923,923,923,923,923,923,923,923,923,923,923,923,923,923,923,925,925,923,923,923,923,923,920,920,920,920,920,920,920,920,920,920,920,920,920,920,918,918,918,920,920,918,918,920,920,920,920,918,918,918,918,915,915,915,915,918,918,918,918,918,918,918,918,918,915,915,915,915,915,915,915,918,918,918,918,918,915,915,915,915,915,915,913,913,913,913,913,910,910,910,910,910,910,910,910,913,913,913,910,910,908,908,908,906,906,906,908,908,908,913,913,913,913,913,913,910,910,910,910,910,910,910,910,910,908,908,906,906,906,906,906,906,906,906,906,906,906,906,906,906,906,906,906,906,906,906,906,906,906,906,906,906,903,903,903,903,903,901,901,901,903,906,906,906,906,906,906,906,903,903,903,903,903,903,903,903,903,903,903,903,906,906,906,906,906,903,903,903,901,901,898,898,898,901,903,903,903,903,903,903,841,839,837,837,837,835,835,837,837,837,837,837,837,839,839,839,0,0,0,0,0,755,755,755,755,755,755,755,754,754,754,754,754,752,752,752,750,750,750,750,750,750,750,749,749,749,749,749,749,749,749,750,750,750,750,750,750,752,752,752,752,752,752,754,754,755,755,759,762,762,764,764,764,764,762,761,761,0,0,0,0,0,0,0,0,0,0,0,0,0,0,0,0,0,0,0,0,0,0,0,0,0,0,0,0,0,0,0,0,0,0,0,0,0,0,0
