0,0,0,0,1022,1022,1019,1019,1016,1016,1016,1016,1016,1016,1016,1016,1016,1016,1016,1013,1013,1013,1013,1013,1013,1013,1013,1013,1013,1010,1010,1013,1013,1013,1013,1010,1010,1010,1010,1010,1010,1010,1010,1010,1010,1010,1010,1010,1007,1007,1004,1004,1007,1007,1007,1010,1010,1010,1010,1007,1007,1007,1007,1007,1007,1004,1004,1004,1004,1004,1004,1004,1004,1004,1004,1001,1001,1001,1001,1001,1001,1001,1001,1001,1001,1004,1007,1007,1004,1004,1007,1004,1004,1004,1004,1004,1004,1004,1004,1004,1004,1004,1004,1004,1004,1004,1004,1004,1004,1004,1001,1001,1001,1001,1001,1001,1001,1001,1001,1001,1001,1004,1004,1004,1004,1001,1001,1001,1001,1001,998,998,998,998,998,998,1001,1001,1001,1001,1001,998,998,998,998,998,998,998,998,998,998,998,998,998,998,998,995,995,995,995,995,998,998,995,995,998,998,995,995,995,995,995,995,995,995,995,992,992,995,995,995,995,995,995,995,995,995,992,992,992,992,992,992,992,992,992,992,992,992,992,992,989,989,989,989,989,989,987,987,987,987,987,987,989,989,987,987,989,987,987,989,989,989,989,794,794,794,796,794,794,792,792,790,787,785,783,781,781,780,780,780,780,780,780,781,785,787,787,790,792,794,796,798,798,803,807,809,809,809,981,981,981,981,981,981,981,981,981,981,981,981,981,981,978,978,981,981,978,978,978,978,978,978,978,978,978,978,978,978,978,978,978,981,981,981,981,981,978,978,978,978,978,975,975,975,975,975,975,975,978,978,978,978,981,981,978,978,978,978,978,978,978,978,978,978,978,978,978,975,975,978,975,975,975,975,975,975,973,973,973,970,970,970,970,970,970,973,973,973,973,973,973,975,975,978,978,975,975,975,975,973,973,973,973,973,973,970,970,970,970,970,970,970,970,970,973,973,970,970,970,967,967,970,970,970,970,970,970,970,970,970,970,967,967,967,967,967,967,967,964,964,967,967,967,967,967,967,964,964,964,964,967,967,967,967,967,967,967,967,967,967,967,967,967,964,964,962,962,962,962,962,962,962,962,962,962,962,962,962,962,959,959,959,959,959,959,959,959,959,959,959,959,959,959,959,959,959,956,956,956,956,956,956,956,959,959,959,959,959,959,959,959,959,959,959,956,956,956,956,956,956,956,956,956,956,956,956,956,956,956,956,954,954,954,954,954,954,951,951,951,951,951,951,951,951,951,954,951,951,951,948,948,948,948,948,951,951,951,951,951,951,951,951,951,951,951,948,948,948,948,946,946,948,948,948,948,948,948,946,946,946,948,946,946,946,946,946,946,946,946,946,946,946,946,948,946,946,946,946,943,943,946,946,943,943,946,946,946,946,948,948,948,948,948,946,946,946,946,946,946,946,946,946,943,943,943,943,943,943,943,946,943,943,943,943,943,943,940,940,943,943,943,943,940,940,0,0,0,0,0,0,0,0,0,0,0,0,0,0,0,0,0,0,0,0,0,0,0,0,0,0,0,0,0,0,0,0,0,0,0
0,0,0,0,1019,1019,1019,1016,1016,1016,1016,1016,1013,1013,1013,1013,1013,1013,1013,1013,1013,1013,1013,1013,1013,1010,1010,1010,1010,1007,1007,1010,1010,1010,1010,1007,1007,1007,1007,1007,1007,1007,1007,1007,1007,1007,1007,1007,1007,1007,1004,1004,1007,1007,1007,1007,1007,1007,1007,1004,1004,1004,1004,1004,1004,1004,1004,1004,1004,1004,1004,1001,1001,1001,1001,1001,1001,998,998,998,1001,1001,1001,1001,1001,1001,1001,1001,1001,1001,1001,1004,1001,1001,1004,1004,1004,1001,1001,1001,1001,1001,1001,1001,1001,1001,1001,1001,1001,1001,1001,1001,1001,1001,998,998,1001,1001,1001,1001,1001,1001,1001,1001,1001,1001,1001,1001,1001,998,998,998,998,998,998,998,998,998,998,998,998,998,998,998,998,998,998,998,998,998,995,995,995,995,995,995,992,992,992,992,992,992,992,995,995,995,995,995,992,992,992,992,992,992,992,992,992,992,992,992,992,992,992,992,992,992,989,989,989,989,989,989,989,989,989,989,989,989,989,989,989,989,987,987,987,987,987,987,987,987,987,987,987,987,987,987,987,987,987,987,987,987,987,987,987,796,796,796,796,794,792,792,790,789,787,785,783,781,781,781,780,780,781,781,781,785,787,787,790,794,794,796,798,798,803,807,809,809,987,984,981,981,981,981,981,978,978,978,978,978,978,978,978,978,978,978,978,978,978,975,975,975,975,975,975,975,975,975,978,978,978,975,975,975,975,978,978,975,975,975,975,975,975,975,975,973,973,975,975,978,975,975,978,978,978,978,978,975,975,975,975,973,973,973,975,975,975,975,975,975,975,975,973,973,973,973,973,970,970,970,970,970,970,970,970,970,970,970,970,970,970,970,970,973,973,975,975,975,975,973,973,970,970,970,970,970,970,970,970,970,970,970,970,970,970,970,970,970,967,967,967,967,967,967,967,967,967,967,967,967,967,967,967,964,962,962,964,964,964,964,964,964,967,967,964,964,964,964,962,962,962,962,964,964,964,964,964,964,964,964,964,964,964,964,962,962,959,959,959,959,959,959,959,959,959,959,959,959,959,959,959,959,959,956,956,956,956,956,956,959,959,959,956,956,956,956,956,956,954,954,954,954,954,954,954,954,956,956,956,956,956,956,956,956,956,956,956,956,954,954,954,954,954,954,954,954,954,954,954,954,954,954,951,951,951,951,951,948,948,948,948,948,948,951,948,948,951,948,948,948,948,948,948,948,948,948,946,946,946,948,948,951,948,948,948,948,948,946,946,948,946,946,946,946,946,946,946,946,946,946,946,946,946,946,946,946,943,943,946,946,946,943,943,946,946,946,946,946,943,943,943,943,943,943,943,943,943,943,943,943,946,946,946,946,946,946,946,946,946,946,946,943,943,940,940,943,943,943,943,943,943,943,940,940,940,940,940,940,940,938,938,938,938,938,938,0,0,0,0,0,0,0,0,0,0,0,0,0,0,0,0,0,0,0,0,0,0,0,0,0,0,0,0,0,0,0,0,0,0,0
0,0,0,0,1019,1019,1016,1013,1013,1013,1013,1010,1010,1010,1013,1013,1010,1010,1010,1010,1013,1013,1010,1010,1010,1010,1007,1007,1007,1004,1004,1004,1007,1007,1007,1007,1007,1007,1004,1004,1004,1007,1007,1007,1007,1007,1007,1007,1004,1004,1004,1004,1004,1004,1004,1007,1007,1007,1004,1004,1004,1004,1001,1001,1001,1001,1001,1001,1001,1001,1001,1001,1001,1001,1001,998,998,998,998,998,998,998,1001,1001,1001,1001,998,998,998,998,998,998,998,998,1001,1001,1001,1001,1001,1001,1001,1001,1001,1001,1001,1001,998,998,1001,998,998,998,998,998,998,998,998,998,998,998,998,998,998,998,998,998,998,998,998,998,998,998,995,995,995,995,995,995,995,992,992,992,995,992,992,992,995,995,995,995,995,995,995,992,992,992,992,989,989,989,989,989,989,989,989,989,989,989,989,989,989,989,989,989,989,989,989,989,989,989,989,989,989,989,989,989,989,989,987,987,989,989,989,987,987,989,989,989,987,987,987,987,987,987,987,984,984,984,984,984,984,984,984,984,984,984,984,984,984,984,984,981,981,981,981,796,796,796,796,794,792,792,790,789,789,787,785,783,781,781,781,781,781,781,783,787,787,789,790,794,796,796,798,798,803,803,803,987,987,984,981,981,978,978,978,978,978,978,978,978,978,978,978,978,978,978,978,975,975,975,975,975,975,975,975,975,975,975,975,975,975,975,975,975,973,973,973,973,975,973,973,973,973,973,973,973,973,973,973,975,973,973,975,975,975,973,973,973,973,970,970,970,970,970,970,970,970,970,970,973,973,973,973,973,973,973,970,970,970,970,970,967,967,967,967,967,967,970,970,970,970,970,970,970,970,970,970,970,973,970,970,970,970,970,970,967,967,967,967,967,967,967,967,967,967,967,967,967,967,967,964,964,964,967,967,967,967,967,967,964,964,964,964,962,962,962,962,962,962,962,962,964,964,962,962,962,962,962,959,959,959,959,959,959,959,962,962,962,962,962,962,962,962,962,959,959,959,959,959,956,956,956,956,956,959,956,956,959,956,956,956,956,956,956,956,956,956,956,956,956,956,956,956,956,956,956,956,954,951,951,951,951,951,951,951,951,951,954,954,956,956,956,956,956,954,954,954,951,951,951,951,951,951,951,951,951,951,954,951,951,951,951,951,951,951,948,948,948,948,948,948,948,948,948,948,948,948,948,946,946,946,946,946,946,946,946,946,946,946,946,946,948,946,946,948,948,946,946,946,946,943,943,940,940,943,946,946,946,946,943,943,943,943,943,943,943,940,940,940,940,940,940,940,943,943,943,943,943,940,940,940,940,940,940,940,940,940,940,940,940,940,940,943,943,943,943,943,943,943,943,943,940,938,938,938,938,938,940,940,940,940,940,938,938,938,938,938,938,938,935,935,935,935,935,935,0,0,0,0,0,0,0,0,0,0,0,0,0,0,0,0,0,0,0,0,0,0,0,0,0,0,0,0,0,0,0,0,0,0,0
0,0,0,0,1016,1013,1013,1010,1010,1010,1010,1010,1010,1010,1010,1010,1010,1010,1010,1010,1010,1010,1010,1010,1010,1007,1007,1004,1004,1001,1001,1001,1001,1001,1001,1004,1004,1004,1004,1004,1004,1007,1004,1004,1004,1004,1007,1004,1004,1001,1001,1004,1001,1001,1001,1004,1004,1001,1001,1001,1001,1001,1001,1001,1001,1001,1001,1001,1001,1001,1001,1001,1001,998,998,998,998,998,998,998,998,998,998,998,998,998,998,995,995,995,995,995,995,995,995,998,998,998,998,998,998,998,998,998,998,998,998,998,998,998,998,998,998,998,995,995,995,998,998,995,995,995,995,995,995,995,995,992,992,995,995,995,992,992,992,992,992,992,992,992,989,989,989,989,989,989,992,992,992,992,992,992,992,989,989,989,989,989,989,989,989,989,987,987,987,987,987,987,987,987,987,989,989,989,989,989,987,987,987,987,987,987,987,987,987,987,987,987,987,987,987,987,987,987,987,987,987,987,987,987,987,987,987,984,984,984,984,984,981,981,981,981,981,981,981,981,981,981,981,978,978,978,978,975,975,802,802,798,796,794,794,792,792,790,789,787,785,783,783,781,781,781,781,781,785,787,787,789,789,794,794,796,798,800,803,803,803,987,987,984,981,978,978,978,978,978,978,978,978,978,978,975,975,975,975,975,975,973,973,973,973,975,973,973,975,975,975,975,973,973,975,973,973,973,973,970,970,967,967,967,967,970,970,973,970,970,970,970,970,973,970,970,973,973,973,970,970,970,970,970,970,967,967,967,967,967,967,970,970,970,970,970,970,970,970,970,970,970,967,967,967,967,967,967,967,967,967,967,967,967,967,967,967,967,967,967,967,967,967,967,967,967,967,967,967,967,967,967,967,967,967,967,967,967,967,967,964,964,964,964,962,962,962,964,964,964,964,964,964,962,962,962,962,959,959,959,959,959,959,959,959,962,962,962,962,962,962,959,959,956,956,959,959,959,956,956,956,959,959,959,959,959,959,959,956,956,956,956,956,956,956,956,956,956,956,956,956,956,956,956,956,954,954,956,956,956,956,956,956,956,956,956,956,956,956,956,954,954,951,951,948,948,948,948,948,948,948,951,951,951,951,951,954,954,951,951,951,951,951,951,951,948,948,948,948,948,948,948,948,948,948,948,948,948,948,948,946,946,946,946,946,946,946,946,943,943,946,946,946,946,943,943,946,943,943,943,943,943,943,943,943,943,946,946,946,946,946,943,943,943,940,940,940,940,940,940,940,940,940,940,940,940,940,940,940,940,938,938,938,938,938,938,938,940,940,943,940,940,938,938,938,938,938,938,938,940,938,938,938,938,938,938,938,938,938,943,940,940,940,938,938,938,935,935,935,938,938,938,938,938,940,938,938,938,935,935,935,933,933,933,935,935,935,935,935,0,0,0,0,0,0,0,0,0,0,0,0,0,0,0,0,0,0,0,0,0,0,0,0,0,0,0,0,0,0,0,0,0,0,0
0,0,0,0,1013,1013,1010,1010,1010,1010,1010,1010,1010,1010,1007,1007,1007,1007,1007,1007,1007,1007,1007,1007,1007,1004,1004,1004,1001,1001,1001,1001,1001,1001,1001,1001,1001,1001,1001,1001,1001,1004,1004,1004,1004,1004,1004,1001,1001,1001,1001,1001,1001,998,998,998,998,998,998,998,998,998,1001,1001,1001,1001,1001,998,998,998,998,998,998,998,995,995,995,995,998,998,998,998,998,995,995,992,992,992,992,992,992,992,992,992,995,995,995,995,995,995,995,995,998,998,998,998,995,995,995,995,995,995,995,995,992,992,995,995,995,995,992,992,992,992,992,992,992,989,989,992,992,992,989,989,989,989,989,989,989,989,989,989,989,989,989,989,989,989,989,989,989,989,989,989,989,989,987,987,987,987,987,987,987,987,987,987,984,984,984,984,984,984,984,984,984,987,987,987,984,984,984,984,984,984,984,984,987,984,984,984,984,984,984,984,984,984,984,984,984,984,984,984,984,981,981,981,981,981,981,981,981,981,981,981,981,978,978,978,978,978,975,975,975,973,973,802,802,802,802,800,796,794,794,792,790,789,787,787,783,783,783,783,783,783,787,787,787,789,789,794,794,796,798,803,803,803,803,811,984,984,981,978,978,975,975,975,975,975,975,975,975,975,975,975,973,973,973,970,970,970,970,973,970,970,973,973,973,973,970,970,973,973,973,970,970,970,967,967,967,967,964,964,964,967,967,967,967,967,967,970,970,970,970,970,970,970,970,970,970,967,967,967,967,967,967,967,967,967,967,967,967,967,967,967,967,967,967,967,967,967,967,967,967,967,967,964,964,964,964,964,964,964,964,964,964,964,964,964,964,964,964,964,964,964,967,967,964,964,964,964,964,964,964,964,964,964,962,962,962,962,959,959,959,959,959,959,959,959,959,959,959,959,959,959,959,959,959,956,956,956,956,959,959,959,959,959,959,959,956,956,956,956,956,956,956,956,956,956,956,956,956,956,956,956,954,954,954,954,954,954,954,954,954,954,954,954,954,954,954,954,954,954,954,954,954,954,954,954,954,954,954,954,954,954,954,954,951,951,948,948,948,948,948,948,948,948,948,948,948,948,948,948,948,948,948,951,951,948,948,948,948,948,948,948,948,946,946,946,946,946,946,946,946,946,946,946,946,946,946,946,943,943,943,943,940,940,940,943,943,943,943,943,943,940,940,940,940,940,940,940,940,940,940,940,943,943,940,940,940,940,940,940,940,940,940,940,940,940,940,940,940,940,938,938,938,938,938,938,938,938,938,938,938,938,938,940,938,938,938,935,935,935,935,938,938,938,938,938,938,938,938,938,935,935,938,938,938,938,938,935,935,933,933,933,933,935,935,938,935,935,938,938,935,935,935,935,933,930,930,928,928,928,928,928,935,0,0,0,0,0,0,0,0,0,0,0,0,0,0,0,0,0,0,0,0,0,0,0,0,0,0,0,0,0,0,0,0,0,0,0
0,0,0,0,1013,1013,1010,1010,1010,1010,1010,1007,1007,1007,1004,1004,1004,1004,1004,1004,1004,1004,1004,1004,1001,1001,1001,1001,1001,1001,998,998,998,998,998,998,998,998,998,998,998,1001,1001,1001,1001,1001,1001,1001,1001,998,998,998,998,995,995,995,995,995,995,995,995,995,998,998,998,998,998,998,995,995,995,995,995,995,995,995,995,995,995,995,995,995,995,992,992,992,992,992,992,992,992,992,992,992,992,992,992,992,992,992,995,992,992,992,992,992,992,992,992,992,992,992,992,992,992,992,992,992,992,992,989,989,989,989,989,989,989,989,989,989,989,989,989,987,987,987,987,987,987,987,987,987,987,987,987,987,987,987,989,989,989,989,987,987,987,987,987,987,987,984,984,987,984,984,984,984,984,984,984,981,981,981,981,981,981,981,981,981,984,984,984,984,984,981,981,981,981,981,981,981,981,981,981,981,981,981,981,981,981,981,981,981,981,981,981,978,978,978,978,978,978,978,978,978,978,978,978,978,975,975,975,975,973,973,973,802,802,802,802,800,800,796,796,794,792,790,789,789,785,785,783,783,783,783,787,787,787,789,792,794,796,798,798,805,805,805,809,811,987,987,978,978,975,975,975,975,975,973,973,975,975,975,973,973,970,970,970,967,967,967,967,970,970,970,970,970,970,970,967,967,967,970,970,967,967,967,967,967,964,964,964,964,964,964,964,964,964,964,967,970,970,970,970,970,970,967,967,967,967,967,967,964,964,962,962,964,964,964,964,964,964,967,967,964,964,964,967,967,967,967,967,964,964,964,964,962,962,962,962,962,962,962,962,962,962,962,959,959,962,962,962,962,962,962,962,962,962,962,964,964,962,962,962,962,962,962,962,959,959,959,959,959,959,959,959,959,959,956,956,956,956,956,956,956,956,956,956,956,956,956,956,956,956,956,956,954,954,954,954,954,954,954,956,956,954,954,954,954,954,951,951,951,951,951,951,951,951,951,951,951,951,951,951,951,951,951,951,951,951,951,951,951,951,951,951,954,951,951,951,951,951,951,951,951,951,951,951,948,948,948,948,948,946,946,948,948,948,948,948,946,946,946,946,946,946,946,946,948,948,948,948,948,946,946,946,946,946,946,943,943,946,946,946,946,946,946,943,943,943,943,943,940,940,940,940,938,938,938,938,940,940,940,940,940,940,940,940,938,938,938,938,940,940,940,940,938,938,938,938,938,938,938,938,938,938,938,938,938,938,938,938,938,938,938,938,938,935,935,935,935,935,935,935,935,935,938,938,935,935,935,935,935,935,935,935,938,938,935,935,935,935,935,935,933,933,935,933,933,935,935,933,933,933,933,933,935,935,935,933,933,935,935,933,933,933,933,933,930,930,928,928,928,928,928,0,0,0,0,0,0,0,0,0,0,0,0,0,0,0,0,0,0,0,0,0,0,0,0,0,0,0,0,0,0,0,0,0,0,0,0
0,0,0,0,1010,1010,1007,1007,1007,1007,1007,1004,1004,1004,1001,1001,1001,1001,1001,1001,1001,1001,1001,1001,1001,1001,998,998,998,998,998,998,995,995,995,995,995,995,995,995,995,995,998,998,998,998,998,998,995,995,995,995,995,992,992,992,992,992,992,992,992,992,995,995,995,998,998,995,995,992,992,992,992,992,992,992,992,992,992,989,989,989,989,989,989,989,989,989,989,989,989,989,989,989,989,989,989,989,989,989,992,989,989,989,989,989,987,987,987,987,989,989,989,989,989,989,989,989,989,989,987,987,989,987,987,987,987,987,987,987,987,987,987,984,984,984,984,987,987,987,987,987,984,984,987,987,987,987,987,987,987,987,987,984,984,984,984,984,984,984,984,984,984,981,981,981,981,981,981,981,981,981,978,978,978,978,978,978,978,978,978,981,981,981,981,981,981,981,981,981,981,981,981,978,978,978,978,978,978,978,978,978,978,978,978,978,978,978,978,978,978,978,978,978,978,975,975,975,975,975,973,973,970,970,970,802,802,803,803,802,802,800,796,796,794,792,792,790,789,787,785,785,785,785,787,787,789,789,794,796,796,798,800,805,805,807,809,811,811,978,978,975,975,973,973,973,973,973,973,973,973,973,973,970,967,967,967,967,967,967,967,967,967,967,967,967,964,964,964,964,964,964,967,964,964,964,964,964,962,962,962,962,962,962,962,962,962,964,964,967,967,967,967,967,967,967,967,967,967,964,964,962,962,962,962,962,962,962,962,964,964,964,962,962,962,962,964,964,964,964,964,964,964,962,962,962,962,962,962,962,962,962,959,959,959,959,959,959,962,959,959,959,959,959,959,956,956,956,959,962,959,959,959,959,959,959,959,959,959,959,959,959,959,959,956,956,956,956,954,954,956,956,956,956,956,956,954,954,956,954,954,954,954,951,951,951,951,951,951,951,951,951,954,954,954,951,951,951,951,951,948,948,948,948,948,948,948,948,948,948,948,948,948,948,948,948,948,951,951,951,951,951,951,951,951,951,951,948,948,948,948,948,948,948,948,948,948,948,946,946,946,946,946,946,946,946,946,948,946,946,946,943,943,943,943,943,943,943,943,946,946,946,946,943,943,943,943,943,940,940,943,943,943,943,943,943,943,943,940,940,940,940,938,938,938,938,938,938,938,938,938,938,938,938,938,938,938,938,938,938,938,938,938,938,938,938,935,935,935,935,935,935,938,938,938,938,938,938,938,938,938,938,935,935,935,935,935,935,935,935,935,935,935,935,935,935,935,935,935,935,935,935,935,935,935,935,935,935,935,935,933,933,933,933,933,930,930,930,930,930,930,930,930,930,930,930,928,928,928,928,930,930,930,930,933,930,930,928,928,925,925,925,925,925,0,0,0,0,0,0,0,0,0,0,0,0,0,0,0,0,0,0,0,0,0,0,0,0,0,0,0,0,0,0,0,0,0,0,0,0
0,0,0,0,1007,1007,1007,1004,1004,1004,1004,1001,1001,1001,998,998,998,998,998,998,998,998,1001,1001,1001,1001,998,998,998,998,995,995,995,992,992,995,995,995,995,992,992,995,995,995,992,992,992,995,992,992,992,992,992,992,992,989,989,989,989,989,989,992,992,995,995,995,992,992,992,989,989,989,989,989,989,989,989,989,989,989,989,989,989,989,987,987,987,987,987,987,987,987,987,987,989,987,987,987,987,989,989,987,987,987,987,987,987,987,987,987,987,987,987,987,987,987,987,987,987,987,987,987,987,987,987,984,984,984,984,984,984,984,984,984,984,981,981,984,984,984,984,984,984,984,984,984,984,984,984,981,981,981,981,981,981,981,981,981,981,981,981,981,981,981,981,981,978,978,978,978,978,978,978,978,975,975,975,975,975,975,975,978,978,975,975,978,978,978,978,978,978,978,978,978,978,978,978,978,978,978,975,975,975,975,975,975,975,975,975,975,975,975,975,975,975,975,975,975,975,973,973,973,967,967,967,967,967,803,803,802,802,800,800,796,794,794,792,792,790,789,787,785,785,787,787,789,789,790,794,796,798,798,802,807,807,809,809,811,813,978,978,970,970,970,967,967,967,967,967,967,967,967,967,967,967,967,967,967,967,964,964,967,964,964,962,962,962,962,962,962,962,964,964,964,964,964,964,962,962,959,959,959,959,959,959,959,962,962,964,964,962,962,962,964,964,964,964,964,964,964,964,962,962,962,962,962,962,959,959,959,962,959,959,959,959,959,962,962,962,962,962,962,962,959,959,959,959,959,959,959,959,959,959,959,959,959,959,959,959,959,959,956,956,956,956,954,954,954,956,956,954,954,954,956,959,956,956,956,956,956,956,956,956,956,956,956,954,954,954,954,954,954,954,954,954,954,954,954,954,954,954,951,951,951,948,948,948,948,948,948,948,948,951,951,951,948,948,948,951,948,948,948,948,948,948,946,946,946,948,948,948,948,948,948,946,946,948,948,948,948,948,948,948,946,946,946,946,946,946,946,946,946,946,946,946,946,946,946,946,946,946,946,946,946,946,946,946,946,946,946,943,940,940,940,940,940,940,940,940,940,940,940,940,940,940,940,940,940,940,940,940,940,940,940,940,940,940,940,938,938,938,938,938,938,938,935,935,935,935,935,935,938,935,935,935,935,935,935,935,935,935,935,935,935,935,935,935,935,933,933,935,935,935,935,935,935,935,935,935,935,935,935,935,933,933,935,935,933,933,933,933,933,933,933,933,933,933,933,933,933,933,933,935,933,933,933,933,933,933,930,930,930,930,930,930,930,930,930,930,930,930,928,928,928,928,928,928,928,928,928,928,928,928,928,928,928,928,925,925,925,923,923,923,923,0,0,0,0,0,0,0,0,0,0,0,0,0,0,0,0,0,0,0,0,0,0,0,0,0,0,0,0,0,0,0,0,0,0,0,0
0,0,0,0,1001,1001,1004,1004,1001,1001,1004,1001,1001,998,998,998,998,998,998,998,998,998,998,998,998,998,995,995,995,995,992,992,992,989,989,992,992,992,992,992,992,992,992,992,989,989,989,989,989,989,989,989,989,992,989,989,989,989,989,989,989,989,989,992,992,992,992,989,989,989,989,989,989,989,989,989,989,989,989,987,987,987,987,987,987,984,984,987,987,987,987,987,987,987,987,987,987,987,987,987,987,984,984,984,987,984,984,984,984,987,987,987,987,987,984,984,984,984,984,984,984,984,984,984,984,984,984,984,981,981,981,981,981,981,981,981,981,981,981,981,981,981,981,981,981,981,981,981,981,981,981,978,978,978,981,981,981,981,978,978,981,978,978,978,978,978,978,978,978,978,978,978,975,975,975,975,975,975,975,975,975,975,975,975,975,975,975,975,975,975,975,978,978,978,978,975,975,975,975,975,975,975,975,975,975,975,975,975,975,973,973,973,973,973,973,973,973,973,973,973,970,970,967,967,967,964,807,805,803,803,802,802,800,798,796,796,794,792,792,789,789,789,789,789,789,789,790,790,796,798,798,800,805,807,807,809,809,813,813,813,964,964,964,967,964,964,964,964,964,964,964,964,964,964,964,964,964,964,964,964,964,964,962,959,959,959,959,959,959,959,959,959,962,962,962,962,962,962,959,959,959,959,956,956,959,959,959,959,962,962,959,959,959,959,959,959,959,962,962,962,962,962,959,959,959,959,959,959,959,959,959,959,959,959,959,959,959,959,959,959,959,959,959,959,959,959,959,959,959,956,956,959,959,956,956,956,956,956,959,956,956,956,956,956,954,954,954,954,954,954,951,951,951,951,951,954,954,954,954,954,956,954,954,954,954,954,954,951,951,951,951,951,951,951,951,951,951,951,951,951,951,951,948,948,948,948,948,948,948,948,948,948,948,948,946,946,948,948,948,948,948,948,948,946,946,946,946,946,946,946,946,946,946,946,946,946,946,946,946,946,946,946,946,946,943,943,943,943,943,943,940,940,943,943,943,943,943,943,943,943,943,943,943,943,943,943,943,943,943,943,940,940,938,938,938,938,938,938,938,938,938,938,938,938,938,940,938,938,938,938,940,940,938,938,938,938,938,938,938,938,935,935,935,935,935,935,933,933,935,935,935,935,935,935,935,935,935,935,935,935,935,935,935,935,935,935,933,930,930,930,933,933,933,933,933,933,935,933,933,933,933,933,930,930,930,930,930,933,933,933,933,930,930,930,930,930,930,930,930,930,930,930,930,930,930,930,930,930,930,928,928,928,928,930,930,928,928,928,928,928,928,928,928,925,925,928,928,925,925,928,928,928,928,928,928,928,925,925,925,925,920,920,920,920,0,0,0,0,0,0,0,0,0,0,0,0,0,0,0,0,0,0,0,0,0,0,0,0,0,0,0,0,0,0,0,0,0,0,0,0
0,0,0,0,1001,1001,1001,998,998,998,1001,1001,1001,998,998,998,998,995,995,995,995,995,995,995,995,989,989,989,989,989,989,989,989,989,989,992,992,992,992,992,989,989,992,989,989,989,989,989,989,989,989,989,989,989,989,989,989,989,989,989,989,987,987,989,989,989,989,989,989,989,989,987,987,987,987,987,987,987,987,987,987,987,987,987,984,984,984,984,987,987,984,984,984,987,987,984,984,984,984,984,984,981,981,981,984,984,981,981,981,981,984,984,984,984,984,981,981,981,981,981,981,984,984,984,981,981,981,981,978,978,978,978,978,978,978,978,978,978,978,981,978,978,978,978,978,978,978,978,978,978,978,978,978,978,978,978,978,978,978,978,978,978,978,978,978,978,978,978,978,975,975,975,975,975,975,975,975,975,973,973,973,973,973,973,973,973,973,973,973,973,973,973,975,975,975,975,975,973,973,973,973,973,973,973,973,973,973,973,973,970,970,970,970,970,970,970,970,973,970,970,970,970,967,967,964,964,807,805,803,803,802,802,800,798,798,796,794,794,792,790,789,789,789,789,790,792,792,796,796,798,798,800,805,807,809,809,809,813,813,813,964,964,964,964,964,962,962,962,962,962,962,962,962,962,962,964,964,962,962,962,962,959,959,959,959,959,956,956,956,956,956,956,959,959,959,959,959,959,956,956,956,956,956,956,956,956,956,956,959,959,959,959,959,959,959,959,959,959,959,959,959,959,959,959,956,956,959,956,956,956,956,956,956,956,956,956,956,956,956,956,959,956,956,956,956,956,956,956,956,956,956,956,956,956,956,956,956,956,956,956,954,954,954,954,951,951,951,951,951,951,951,951,948,948,951,951,951,951,951,951,954,954,954,954,954,954,951,951,951,951,951,951,948,948,948,948,948,948,948,948,948,948,948,948,948,946,946,946,946,948,946,946,946,946,946,946,946,946,946,946,946,946,946,946,946,946,943,943,946,943,943,943,943,943,943,940,940,943,943,943,943,943,943,943,940,940,940,940,940,940,940,940,940,940,940,940,940,940,938,938,940,940,940,940,940,940,943,943,940,940,940,938,938,938,935,935,935,935,935,935,935,935,935,935,935,935,938,938,938,938,938,938,938,938,938,938,938,938,935,935,935,935,935,935,935,935,933,933,933,933,935,935,933,933,933,933,933,933,933,933,933,933,933,935,935,933,930,928,928,930,930,930,930,928,928,930,928,928,930,930,930,930,928,928,928,928,928,930,930,930,930,928,928,928,928,928,930,928,928,928,928,928,928,928,928,928,928,928,928,928,928,928,928,928,928,928,928,925,925,925,925,925,925,925,925,925,925,925,925,925,925,925,925,925,925,925,923,923,923,923,918,918,918,918,0,0,0,0,0,0,0,0,0,0,0,0,0,0,0,0,0,0,0,0,0,0,0,0,0,0,0,0,0,0,0,0,0,0,0,0
0,0,0,0,998,998,992,992,992,995,995,998,998,995,995,995,995,995,995,995,995,995,992,992,989,989,987,987,987,989,989,989,989,989,989,989,989,989,989,989,989,987,987,987,987,987,987,987,987,987,987,987,987,989,987,987,987,987,987,987,987,987,987,987,987,987,987,987,987,987,987,987,987,987,987,987,987,987,984,984,984,984,984,984,984,981,981,981,984,984,981,981,981,984,984,981,981,981,981,981,981,978,978,978,981,981,978,978,978,978,981,978,978,978,978,978,978,978,981,978,978,978,978,978,981,978,978,978,978,978,978,978,978,978,978,978,978,978,978,978,978,978,978,978,978,978,978,978,978,975,975,975,975,975,975,975,975,975,975,975,975,975,975,975,975,975,975,975,975,975,975,973,973,973,973,973,973,970,970,970,970,970,970,970,970,970,970,970,970,970,970,970,970,970,970,973,973,970,970,970,970,970,970,970,970,970,970,970,970,967,967,967,967,967,967,967,967,970,967,967,967,967,964,964,964,964,964,805,805,803,803,802,800,798,798,796,796,794,792,790,790,790,790,790,790,792,794,796,798,798,800,803,807,807,809,809,811,813,815,815,964,964,964,962,962,962,959,959,959,959,959,959,959,962,962,962,962,962,959,959,959,959,956,956,956,956,956,956,956,956,956,956,956,956,956,956,956,956,956,956,954,954,954,954,956,954,954,954,956,956,956,956,956,956,956,956,956,956,956,956,956,956,956,956,956,956,956,956,954,954,956,956,956,956,956,956,956,956,956,956,956,956,956,956,954,954,954,954,954,951,951,951,954,954,954,954,954,954,954,954,951,951,951,948,948,948,948,948,948,948,948,948,948,948,948,948,948,948,948,948,951,954,951,951,951,951,951,948,948,948,948,948,946,946,946,948,948,946,946,948,948,946,946,946,946,946,946,946,946,946,946,943,943,943,943,943,943,943,946,946,946,946,946,943,943,943,943,943,943,943,940,940,940,940,938,938,940,940,940,940,940,940,940,940,940,938,938,938,938,938,938,938,940,938,938,938,938,938,938,938,938,938,938,938,938,938,938,940,940,938,938,938,938,935,935,935,935,935,935,935,933,933,935,935,935,933,933,933,935,935,938,938,935,935,935,935,935,935,933,933,933,933,933,933,933,933,933,933,930,930,930,930,930,930,930,930,930,930,930,930,930,933,928,928,928,928,928,928,928,928,928,928,928,925,925,928,928,928,928,928,928,928,928,928,928,928,928,925,925,928,928,928,928,928,928,928,928,928,928,925,925,925,925,925,925,925,925,925,925,925,925,925,925,925,925,925,928,925,925,925,925,925,925,923,923,925,925,925,925,925,925,923,923,923,923,923,920,920,920,920,918,918,918,918,0,0,0,0,0,0,0,0,0,0,0,0,0,0,0,0,0,0,0,0,0,0,0,0,0,0,0,0,0,0,0,0,0,0,0,0
0,0,0,992,992,992,989,989,989,992,989,989,989,989,989,989,992,992,992,992,992,992,992,989,989,987,987,987,987,987,987,987,987,987,987,989,987,987,987,987,987,987,984,984,984,984,984,984,984,984,984,987,987,987,987,987,987,987,987,987,987,984,984,984,981,981,984,984,984,984,984,984,984,984,984,984,984,984,984,984,984,981,981,981,981,981,981,981,978,978,978,978,978,978,978,978,978,978,978,978,978,978,975,975,978,978,978,978,978,978,978,975,975,975,975,975,978,978,978,978,978,978,978,975,975,975,975,975,978,978,978,978,978,978,978,978,978,975,975,978,978,978,978,975,975,975,975,975,975,975,975,975,975,975,975,975,973,973,973,973,973,973,973,973,973,975,973,973,973,973,973,970,970,970,970,970,970,970,970,970,967,967,970,970,970,967,967,970,967,967,967,967,967,967,967,967,967,967,967,967,967,967,967,967,967,967,967,967,967,967,967,967,967,967,967,967,967,967,967,967,967,964,962,962,962,962,962,807,807,805,803,803,802,800,798,798,796,796,794,792,792,790,790,790,792,794,794,798,798,798,802,803,805,807,809,811,811,813,815,815,956,956,956,956,959,959,959,959,956,956,956,956,956,959,959,959,959,959,956,956,956,956,956,956,956,956,956,956,956,954,954,954,954,954,954,954,954,954,954,954,954,954,954,954,954,954,954,954,956,956,956,956,956,956,954,954,954,954,954,954,954,954,954,951,951,954,954,954,954,954,954,954,954,954,954,954,954,954,954,954,954,954,954,954,951,951,951,951,951,948,948,948,951,951,951,951,951,951,951,951,948,948,948,948,948,948,946,946,946,946,946,946,946,946,946,946,946,946,946,946,948,948,948,948,951,951,948,948,948,948,946,946,946,946,946,946,946,946,946,946,946,943,943,943,943,943,943,943,943,943,943,940,940,940,940,940,940,940,943,943,943,943,943,943,943,943,940,940,940,940,940,938,938,938,938,938,938,938,938,938,938,938,938,938,938,938,938,938,938,938,938,938,938,938,938,938,938,938,935,935,935,935,935,935,935,935,935,935,935,935,935,935,935,935,933,933,933,933,933,933,933,933,933,933,933,930,930,933,933,933,933,935,935,935,935,935,935,933,930,930,930,930,930,930,930,930,930,930,928,928,928,928,928,928,928,928,928,928,928,928,928,930,925,925,925,925,925,925,925,925,925,925,925,925,925,925,925,925,925,925,925,925,925,925,925,925,925,925,925,925,925,925,925,925,925,925,925,925,925,925,925,925,925,925,923,923,923,923,923,923,923,925,925,925,925,925,925,923,923,923,923,923,923,923,923,923,923,923,923,920,920,920,923,920,920,918,918,918,918,918,915,915,915,915,0,0,0,0,0,0,0,0,0,0,0,0,0,0,0,0,0,0,0,0,0,0,0,0,0,0,0,0,0,0,0,0,0,0,0,0
0,0,0,992,989,989,989,989,989,989,989,989,989,989,989,989,989,989,989,989,989,989,987,987,987,984,984,987,984,984,987,987,984,984,984,984,984,984,984,984,984,978,978,981,981,981,981,981,981,981,981,981,981,981,981,984,984,984,984,984,984,981,981,981,981,981,981,981,981,981,981,981,981,978,978,978,978,978,978,978,978,981,981,981,978,978,978,978,975,975,975,975,975,978,978,978,978,975,975,975,975,975,975,975,975,975,975,975,975,975,975,975,975,975,975,975,978,978,978,975,975,975,975,973,973,973,973,970,970,973,973,973,975,975,975,975,975,975,975,975,975,975,975,975,975,975,975,975,975,973,973,973,973,973,973,973,973,973,970,970,970,970,970,970,970,970,970,970,970,970,970,967,967,967,967,967,967,967,967,967,967,967,967,970,967,967,967,967,967,967,964,964,964,967,964,964,964,964,964,964,964,964,964,964,964,967,967,967,967,964,964,964,964,964,964,964,964,964,964,964,962,962,959,959,959,959,959,809,809,807,807,803,802,802,800,800,798,796,794,794,792,792,792,792,792,794,796,798,798,798,802,803,805,807,811,811,813,813,815,815,956,956,956,956,956,954,954,954,956,956,956,956,956,956,956,956,956,956,956,954,954,954,954,954,954,954,954,954,954,954,954,954,954,954,954,954,954,954,954,954,954,954,954,954,954,951,951,951,954,954,954,954,954,954,954,954,954,954,951,951,951,951,951,951,951,951,951,951,951,951,951,951,951,951,951,951,948,948,951,951,951,948,948,948,948,948,948,948,948,948,948,948,948,948,948,948,948,948,948,948,948,946,946,946,946,946,946,946,943,943,946,946,946,943,943,946,946,946,946,946,946,946,946,946,946,946,946,946,946,946,946,946,943,943,943,943,946,946,943,943,943,943,943,940,940,940,940,943,943,943,940,940,940,940,938,938,938,938,940,940,940,940,940,940,940,940,938,938,938,938,938,938,938,935,935,935,935,935,935,935,935,935,938,938,938,938,938,938,938,935,935,935,935,935,935,938,935,935,935,935,935,935,933,930,930,930,930,930,930,933,933,933,933,933,930,930,933,933,933,933,930,930,933,933,930,930,930,930,930,930,930,933,933,933,935,935,933,933,930,930,928,928,928,928,928,928,928,928,928,928,928,928,928,928,928,928,928,928,928,928,928,928,925,923,923,923,925,923,923,923,923,923,923,923,923,925,923,923,925,925,925,925,925,923,923,923,925,923,923,923,923,923,923,920,920,923,923,923,923,923,920,920,920,920,920,923,923,923,923,923,923,923,923,923,923,923,923,920,920,920,920,923,923,920,920,920,920,920,920,918,915,915,918,918,918,918,918,918,918,915,915,915,915,915,0,0,0,0,0,0,0,0,0,0,0,0,0,0,0,0,0,0,0,0,0,0,0,0,0,0,0,0,0,0,0,0,0,0,0,0
0,0,0,992,989,989,989,989,989,989,989,989,989,989,989,989,989,989,989,989,987,987,987,987,984,984,984,984,984,984,984,984,981,981,984,984,978,978,978,978,978,978,978,978,978,978,978,978,978,978,978,978,978,978,978,978,978,978,981,981,978,978,978,978,978,978,978,978,978,978,978,978,978,975,975,975,975,975,975,975,975,978,978,978,978,978,975,975,975,975,975,975,975,975,975,975,975,975,975,975,975,975,973,973,975,975,975,975,973,973,973,973,973,973,973,975,975,975,975,975,973,973,970,970,970,970,970,970,970,970,973,973,973,973,973,975,975,975,975,973,973,975,975,973,973,973,973,975,973,973,973,970,970,970,970,970,970,970,967,967,967,967,967,967,967,967,967,967,967,967,967,967,967,967,967,967,967,967,967,967,967,967,967,967,967,967,967,964,964,964,964,964,964,964,964,964,964,964,964,962,962,962,962,962,964,964,964,964,964,964,964,964,964,964,964,964,962,962,959,959,959,959,959,959,956,805,805,811,809,809,807,805,803,802,802,800,798,798,796,794,794,792,792,792,792,794,796,798,798,800,802,803,805,807,809,811,813,813,815,954,954,954,954,954,954,954,954,954,954,954,954,956,956,956,956,954,954,954,954,954,951,951,954,954,954,954,954,954,954,954,951,951,951,951,951,951,951,951,954,954,951,951,951,951,951,948,948,951,951,951,951,951,951,951,951,951,951,951,948,948,948,948,948,948,948,948,948,948,948,948,948,948,948,948,948,948,948,948,948,948,948,948,946,946,946,946,948,948,948,948,946,946,946,946,946,946,946,946,946,946,946,946,946,943,943,946,943,943,940,940,943,943,943,943,943,943,943,943,943,943,943,943,943,943,943,943,943,940,940,940,943,943,943,943,943,943,943,943,940,940,940,938,938,938,938,940,940,940,940,940,940,938,938,938,938,938,938,938,938,938,938,938,938,938,938,938,938,938,938,938,938,938,935,935,935,935,935,935,935,935,935,935,935,935,935,935,935,935,935,933,933,933,933,935,935,935,935,935,935,935,933,933,930,930,928,928,930,928,928,930,930,930,930,930,930,930,930,933,933,933,930,930,930,930,928,928,928,928,928,928,928,928,928,928,930,930,930,930,928,928,928,928,928,928,928,928,928,928,925,925,925,925,925,925,925,925,925,925,925,923,923,923,923,923,923,923,923,923,923,920,920,923,920,920,920,920,920,920,923,923,923,923,923,923,923,920,920,920,920,920,920,920,920,920,920,920,920,920,920,920,920,920,920,920,920,920,920,920,920,920,923,923,920,920,920,920,920,918,918,918,918,920,918,918,918,918,918,918,915,915,913,913,915,915,915,915,918,915,915,915,913,913,913,913,0,0,0,0,0,0,0,0,0,0,0,0,0,0,0,0,0,0,0,0,0,0,0,0,0,0,0,0,0,0,0,0,0,0,0,0
0,0,0,989,989,989,989,989,989,989,989,987,987,987,989,989,989,989,989,989,987,987,984,984,984,981,981,981,981,984,981,978,978,981,981,978,978,978,978,975,975,975,975,975,978,978,978,978,978,978,975,975,975,975,975,975,975,975,975,975,975,975,978,975,975,975,975,975,975,975,975,975,975,975,973,973,973,973,973,973,973,973,975,975,975,975,975,973,973,973,973,973,973,973,973,975,973,973,973,973,973,973,973,973,973,973,973,973,970,970,970,970,970,970,973,973,973,973,973,970,970,967,967,967,967,967,967,967,967,967,970,970,970,970,970,970,967,967,967,970,970,970,970,970,970,973,973,973,973,970,970,967,967,967,967,967,967,964,964,967,967,967,967,967,964,964,964,964,964,967,967,967,967,967,964,964,964,964,964,964,964,964,964,964,964,964,964,964,964,964,962,962,962,962,962,962,962,962,962,962,959,959,959,959,962,962,962,962,962,964,964,962,962,962,962,962,959,959,959,959,956,956,956,956,954,805,805,811,811,809,809,807,803,803,802,802,800,800,796,796,794,792,792,792,792,794,796,798,798,802,803,803,805,809,809,813,815,815,815,954,954,954,951,951,951,951,951,951,954,951,951,954,954,954,954,954,954,954,954,951,951,951,951,951,951,951,951,951,951,951,948,948,948,948,948,948,948,948,948,951,948,948,948,948,948,946,946,948,948,948,948,948,948,948,948,948,948,948,948,948,948,948,948,948,948,948,948,948,948,948,948,946,946,946,946,946,946,946,946,946,946,946,946,946,946,946,946,946,946,946,946,946,946,946,946,946,940,940,943,943,943,943,943,943,943,943,943,940,940,940,940,940,940,940,940,940,943,940,940,940,940,938,938,938,938,938,940,938,938,938,938,938,938,940,940,940,940,940,938,938,938,938,938,938,938,938,938,938,938,938,938,938,938,938,938,938,938,938,938,935,935,935,935,935,935,935,935,935,935,935,935,935,935,935,935,935,935,935,935,933,933,935,935,935,933,933,935,933,933,933,933,933,933,933,933,933,933,933,933,933,933,933,930,928,928,928,928,928,928,928,928,928,928,928,928,928,930,930,930,930,928,928,928,928,928,925,925,925,925,925,925,925,925,925,928,925,925,925,925,925,925,925,925,925,925,925,925,925,925,925,925,925,925,925,925,923,923,923,923,920,920,923,923,923,920,920,920,920,920,918,918,920,920,918,918,918,918,918,920,920,920,920,923,920,918,918,915,915,918,918,918,918,918,918,918,918,918,918,918,918,918,918,918,918,918,918,918,918,918,918,920,918,918,918,918,918,918,918,918,918,918,918,918,915,915,915,915,915,913,913,910,910,910,913,913,913,915,915,915,913,913,910,910,913,0,0,0,0,0,0,0,0,0,0,0,0,0,0,0,0,0,0,0,0,0,0,0,0,0,0,0,0,0,0,0,0,0,0,0,0
0,0,0,989,987,987,987,987,987,987,987,987,987,987,989,989,989,989,989,987,984,984,981,981,981,978,978,981,981,981,981,978,978,978,978,978,975,975,975,975,975,975,975,975,975,975,975,975,975,975,975,975,975,975,975,975,975,975,975,975,975,975,975,975,975,975,975,975,975,975,975,975,975,973,970,970,970,970,970,970,970,970,973,973,973,973,973,973,970,970,973,970,970,970,970,973,973,973,973,970,970,973,970,970,970,973,973,970,970,970,967,967,970,970,970,970,970,970,970,967,967,967,967,967,967,967,967,967,967,967,967,967,967,967,967,967,967,964,964,964,964,964,964,967,967,970,970,970,970,967,967,967,967,964,964,964,964,964,964,964,964,964,964,964,964,964,964,964,964,964,964,964,964,962,962,962,962,962,962,962,962,962,964,962,962,962,962,962,962,962,962,962,962,962,962,962,959,959,959,959,959,956,956,956,959,962,962,962,962,962,959,959,959,959,959,959,956,956,956,956,954,954,954,954,951,805,805,811,811,811,811,809,807,805,803,802,802,800,798,796,794,794,792,792,794,794,796,798,798,802,803,805,805,809,809,813,815,815,815,954,954,951,951,948,948,948,948,948,951,948,948,951,951,951,951,948,948,951,948,948,948,948,948,948,948,951,951,948,948,948,946,943,943,946,946,946,946,946,948,948,946,946,946,946,946,946,946,946,948,948,948,948,946,946,946,948,946,946,946,946,946,946,946,946,948,948,948,948,946,946,946,946,946,946,943,943,943,943,943,943,943,943,943,943,943,943,946,946,946,946,943,943,946,943,943,943,940,940,943,943,943,940,940,940,940,940,940,940,938,938,938,938,940,940,938,938,940,940,938,938,938,938,938,938,938,938,938,935,935,938,938,938,938,938,938,938,938,938,938,935,935,935,935,935,935,935,935,938,938,938,938,935,935,935,935,935,935,935,935,933,933,933,933,933,933,933,933,935,935,935,933,933,935,933,933,933,933,933,933,933,933,933,933,933,930,930,930,928,928,930,930,930,930,930,930,933,933,933,930,930,930,928,928,928,928,928,925,925,925,925,928,925,925,928,928,928,928,928,928,928,928,928,928,928,925,925,925,925,925,923,923,923,923,923,925,925,923,923,923,925,923,923,923,923,925,923,923,925,923,923,923,923,923,923,923,920,920,920,920,918,918,920,920,920,920,920,920,918,918,918,918,918,918,918,918,918,918,918,918,918,918,918,920,915,915,915,915,915,915,915,915,915,918,918,918,918,918,918,918,918,918,918,918,918,918,918,918,918,915,915,918,918,915,915,915,915,915,915,915,915,915,915,915,915,915,913,913,913,910,910,910,910,910,910,910,910,910,910,910,910,910,908,908,910,0,0,0,0,0,0,0,0,0,0,0,0,0,0,0,0,0,0,0,0,0,0,0,0,0,0,0,0,0,0,0,0,0,0,0,0
0,0,0,987,987,987,987,987,987,987,987,987,987,987,987,987,987,987,987,984,981,981,978,978,978,978,978,978,978,978,978,975,975,975,975,975,975,975,975,975,975,975,975,975,973,973,973,973,973,973,973,973,973,973,973,973,973,975,975,973,973,973,973,973,973,973,973,973,973,973,973,975,973,973,970,970,967,967,970,970,970,970,970,973,973,970,970,970,970,970,970,967,967,967,967,970,970,970,970,967,967,970,970,970,970,970,970,970,967,967,967,967,967,967,967,967,970,967,967,967,967,967,967,964,964,964,967,967,967,967,967,967,967,964,964,964,964,962,962,962,962,962,962,962,964,964,964,967,967,964,964,964,964,964,962,962,962,962,962,962,962,962,962,962,962,962,962,962,962,962,962,962,962,959,959,959,959,959,959,959,959,962,962,959,959,959,959,959,959,959,959,959,959,959,959,959,959,956,956,956,956,956,956,956,956,956,959,956,956,959,956,956,954,954,954,954,954,954,954,954,954,954,951,951,951,805,805,811,813,811,811,811,809,807,805,803,802,800,798,796,796,794,794,794,794,796,798,798,800,802,803,805,809,809,811,815,815,817,819,954,954,948,948,948,946,946,946,948,946,946,946,948,948,948,946,946,946,946,946,946,946,946,946,946,948,948,948,946,946,946,943,943,943,943,943,943,946,946,946,946,946,943,943,943,943,943,943,943,946,946,946,943,943,943,943,946,943,943,943,946,946,946,946,946,946,946,946,943,943,943,943,943,943,943,943,940,940,940,940,940,940,940,943,940,940,943,943,943,943,943,940,940,943,940,940,940,938,938,940,940,940,938,938,938,938,938,938,938,938,938,938,938,938,938,938,938,938,938,938,938,935,935,935,935,935,935,935,935,935,935,935,935,935,935,935,935,933,933,935,935,935,935,935,935,933,933,935,935,935,935,935,935,933,933,933,933,933,933,930,930,930,930,930,930,930,930,930,930,930,930,930,930,933,930,930,930,930,930,930,930,930,930,930,930,928,928,928,928,928,925,925,925,928,928,928,930,930,930,930,930,928,928,925,925,925,925,925,925,925,925,925,925,925,925,925,925,925,925,925,925,925,925,925,925,923,923,923,923,923,920,920,920,920,920,920,920,920,920,920,920,923,920,920,920,920,923,923,923,923,923,920,920,920,920,920,918,918,918,918,918,918,918,918,918,918,918,918,918,918,915,915,915,915,915,915,915,915,915,915,915,915,915,915,915,913,913,913,913,913,913,913,913,915,915,915,915,915,915,915,915,915,915,915,915,915,915,915,915,913,913,915,915,915,915,915,913,913,915,915,913,913,913,913,913,913,913,910,910,908,908,908,908,908,910,910,910,908,908,908,906,906,906,906,908,0,0,0,0,0,0,0,0,0,0,0,0,0,0,0,0,0,0,0,0,0,0,0,0,0,0,0,0,0,0,0,0,0,0,0,0
0,0,0,984,984,984,987,987,987,987,987,984,984,987,987,987,987,987,987,978,978,978,978,978,978,978,978,978,978,978,978,975,973,973,973,973,973,973,973,973,973,973,973,973,970,970,970,970,967,967,967,967,970,973,973,973,973,973,973,973,973,970,970,973,973,970,970,970,970,970,967,967,967,967,967,967,967,967,967,967,967,967,967,970,970,970,967,967,967,967,967,967,967,967,967,967,967,967,967,967,967,967,967,967,967,967,967,967,967,967,964,964,964,964,964,964,964,964,964,964,964,964,964,964,964,964,964,964,964,964,964,964,964,964,962,962,962,959,959,959,959,959,959,959,959,962,959,959,959,959,964,962,962,962,959,959,959,959,959,959,959,959,959,959,959,959,959,959,959,959,959,959,959,959,959,959,959,959,959,956,956,956,956,956,956,956,956,956,956,956,956,956,956,956,956,956,956,956,956,956,954,954,954,954,954,954,954,954,954,956,954,954,951,951,951,948,948,948,948,954,951,951,951,951,948,805,805,815,813,813,813,813,811,811,807,805,803,802,800,798,796,794,794,794,794,796,798,798,800,802,803,805,809,809,817,817,817,817,819,819,946,946,946,946,946,943,943,943,943,943,943,943,943,943,943,943,943,943,943,943,943,943,943,946,946,946,946,943,943,943,940,938,938,940,940,940,940,943,943,943,943,940,940,940,940,940,938,938,940,940,940,940,940,940,940,940,940,940,940,943,943,943,943,943,943,943,943,943,940,940,940,940,940,940,940,940,938,938,938,938,938,938,938,940,940,940,940,940,940,940,938,938,940,938,938,938,938,938,938,938,938,938,938,938,938,938,938,938,935,935,935,935,935,935,935,935,935,935,935,935,935,935,935,933,933,933,933,933,933,933,933,933,933,933,933,933,933,930,930,930,930,933,933,933,930,930,930,930,933,933,933,933,933,930,930,930,930,930,930,928,928,928,928,928,928,928,928,928,928,928,928,928,930,928,928,928,928,928,930,928,928,928,928,928,925,925,925,925,925,925,925,923,923,925,925,928,925,925,925,925,925,923,923,923,923,923,923,923,923,923,923,923,923,923,923,923,923,923,923,925,925,923,923,923,923,920,920,920,920,920,920,918,918,918,918,918,918,918,918,918,918,918,918,918,918,918,920,920,920,920,920,920,920,918,918,918,918,915,915,915,915,915,918,918,918,918,918,918,918,915,915,915,915,915,915,915,913,913,913,913,910,910,910,910,910,910,910,910,910,913,913,913,913,913,913,913,915,915,915,915,915,915,915,915,915,915,913,913,910,910,910,910,913,913,913,910,910,910,910,910,910,910,910,913,910,910,908,908,908,908,908,908,908,908,908,908,908,908,906,906,906,903,903,906,0,0,0,0,0,0,0,0,0,0,0,0,0,0,0,0,0,0,0,0,0,0,0,0,0,0,0,0,0,0,0,0,0,0,0,0
0,0,0,984,984,984,984,984,984,984,984,984,984,984,984,984,984,984,984,978,978,978,975,975,973,973,973,973,975,975,975,970,970,970,970,970,970,970,973,973,973,970,970,970,967,967,967,967,967,967,967,967,967,970,970,970,970,970,970,967,967,967,967,967,967,967,967,967,967,967,967,967,967,964,964,964,964,964,967,967,967,967,967,967,967,967,967,967,967,967,967,967,964,964,964,964,967,967,967,967,967,967,967,967,967,964,964,964,964,964,964,964,964,962,962,962,962,964,964,964,964,964,964,964,964,964,964,964,964,964,964,964,964,962,962,959,959,959,959,959,959,959,959,959,959,959,956,956,956,959,959,956,956,956,956,956,956,956,956,956,956,956,956,956,956,959,959,956,956,956,959,956,956,956,956,956,956,956,956,954,954,954,954,954,954,956,956,954,954,954,954,954,954,954,954,954,954,954,954,954,954,951,951,951,951,951,951,951,951,951,951,951,948,948,948,948,948,946,946,948,948,948,948,948,946,825,817,817,815,815,815,813,811,811,807,807,807,803,802,802,798,796,796,796,796,798,798,800,800,803,805,805,809,809,817,817,819,819,821,943,943,943,943,943,943,943,940,940,940,940,940,940,940,940,940,940,940,940,938,938,940,940,940,940,940,940,943,943,940,938,938,938,938,938,938,938,938,940,940,940,940,938,935,935,938,938,938,938,940,940,940,940,938,938,938,938,938,938,938,940,940,940,940,940,943,943,940,938,938,938,938,938,938,938,938,938,938,938,935,935,935,935,935,935,935,935,935,938,938,938,938,938,938,938,935,935,935,935,935,935,935,935,935,935,935,935,935,935,935,935,935,935,935,935,935,935,935,935,935,935,933,933,933,933,933,930,930,930,930,933,930,930,930,930,930,930,930,930,930,930,930,930,930,930,930,930,928,928,930,930,928,928,930,928,928,928,928,928,928,928,928,928,928,928,928,928,928,928,928,928,925,925,928,928,925,925,925,925,928,925,925,925,925,923,923,923,923,923,923,923,923,923,923,923,923,920,920,923,923,923,920,920,920,920,920,923,920,920,923,923,920,920,920,920,920,920,920,920,918,918,920,920,920,920,920,918,918,918,918,918,918,918,915,915,915,915,915,915,915,915,915,915,915,915,915,915,915,915,915,918,915,915,915,915,915,915,915,915,915,915,915,915,915,915,915,915,915,915,915,915,915,913,913,915,915,913,913,913,910,910,910,908,908,908,910,910,908,908,910,910,910,910,910,913,913,913,913,913,915,915,915,915,915,915,915,913,910,910,908,908,908,908,910,910,910,910,910,910,910,908,908,908,908,908,908,908,908,908,906,906,906,906,906,908,906,906,906,906,903,903,903,903,903,903,0,0,0,0,0,0,0,0,0,0,0,0,0,0,0,0,0,0,0,0,0,0,0,0,0,0,0,0,0,0,0,0,0,0,0,0
0,0,0,981,981,981,981,981,984,984,981,978,978,981,981,981,978,978,978,975,975,973,973,973,973,973,973,973,973,973,973,970,970,970,970,970,970,970,970,970,970,970,970,967,967,967,967,964,964,964,964,964,964,964,967,967,967,967,967,967,964,964,964,964,964,964,964,964,964,964,964,964,964,962,962,962,962,962,964,964,964,964,964,964,967,967,964,964,964,964,964,964,964,964,964,964,964,964,964,964,964,964,964,964,964,964,964,962,962,962,962,962,959,959,959,959,959,962,962,962,962,962,962,962,962,962,962,962,962,962,962,962,962,959,956,956,956,956,956,956,956,959,956,956,956,956,956,956,956,956,956,956,956,956,956,956,956,956,956,956,956,956,956,956,956,956,956,956,956,956,956,956,956,956,954,954,954,954,954,954,954,951,951,951,951,951,954,951,951,954,954,954,951,951,951,951,951,951,951,951,951,951,948,948,948,948,948,948,948,948,948,948,946,946,946,946,946,946,946,946,946,946,946,946,943,943,943,817,817,815,815,815,813,811,809,809,809,807,803,803,802,800,798,798,798,798,798,800,802,803,805,807,809,809,817,817,819,819,825,943,943,943,943,943,943,940,940,938,938,938,938,938,938,938,938,938,938,938,938,938,938,938,938,938,938,938,938,935,935,935,935,935,935,935,935,935,935,938,938,938,938,938,935,935,935,935,935,935,938,938,938,938,938,938,938,938,938,938,938,938,938,938,938,938,938,938,938,935,935,935,935,935,935,935,935,935,935,935,935,935,935,935,935,935,935,935,935,935,935,935,935,935,935,935,935,935,933,933,935,935,935,935,935,935,935,933,933,933,933,933,933,933,933,933,933,933,933,930,930,930,930,930,930,930,930,930,930,928,928,930,928,928,928,928,928,928,928,928,928,928,928,928,928,928,928,928,928,928,928,928,928,928,928,928,928,928,928,925,925,925,925,925,925,925,925,925,925,925,925,925,923,923,923,923,923,923,923,923,923,925,923,923,923,920,920,920,920,920,923,923,923,920,920,920,920,920,918,918,918,920,918,918,918,920,920,920,920,920,920,920,920,920,920,918,918,918,918,918,918,918,918,918,918,918,918,918,918,915,915,915,915,915,915,915,915,915,915,915,915,915,915,915,915,915,915,915,915,915,913,913,913,915,915,913,913,913,913,913,913,913,913,913,913,913,913,910,910,910,910,910,910,910,910,910,913,910,908,908,910,910,908,908,908,908,908,908,908,908,908,908,908,908,910,910,910,910,913,913,913,913,913,915,915,913,913,910,908,908,908,908,908,908,908,908,908,908,908,908,908,908,906,906,906,906,906,906,906,906,906,906,906,906,906,906,906,906,903,903,903,901,901,901,901,901,0,0,0,0,0,0,0,0,0,0,0,0,0,0,0,0,0,0,0,0,0,0,0,0,0,0,0,0,0,0,0,0,0,0,0,0
0,0,0,978,978,978,978,978,978,978,978,975,975,967,967,973,975,975,975,973,973,973,973,970,970,970,970,970,970,970,970,967,967,967,967,967,967,967,967,967,970,967,967,967,967,964,964,964,964,962,962,964,964,964,964,964,964,964,964,964,962,962,962,962,962,962,962,962,962,962,962,962,962,962,962,962,962,962,962,962,959,959,959,959,959,959,962,962,962,962,962,962,962,962,962,962,962,962,962,959,959,962,962,962,962,962,962,959,959,959,959,959,956,956,956,956,956,959,959,959,959,959,959,962,959,959,959,959,959,959,959,959,959,956,956,956,956,956,956,956,956,956,956,956,956,956,956,954,954,954,954,954,954,954,954,954,954,954,954,954,954,954,954,954,954,954,954,954,954,954,954,954,954,954,954,954,954,954,951,951,951,948,948,948,948,948,951,951,948,948,951,951,951,948,948,948,951,951,951,948,948,948,948,946,946,948,946,946,948,948,948,946,946,946,946,946,946,946,946,946,946,946,943,943,943,943,940,819,817,817,817,815,813,811,809,809,809,807,805,803,803,802,802,800,800,800,800,802,802,805,807,809,809,811,817,817,819,819,825,825,943,943,943,943,940,940,938,938,938,938,938,938,935,935,938,938,935,935,935,935,935,935,935,935,935,935,935,935,935,933,933,933,933,935,935,935,935,935,935,935,935,935,935,935,935,935,935,935,938,938,938,938,938,935,935,935,935,935,935,935,935,935,935,935,935,935,935,935,935,935,935,933,933,933,933,935,935,933,933,933,933,933,933,933,933,930,930,933,933,933,933,933,935,933,933,933,933,933,933,933,933,933,933,933,933,930,930,930,930,930,930,930,930,930,930,930,930,928,928,928,928,928,928,928,928,928,928,928,928,928,925,925,928,928,928,928,928,928,928,925,925,925,925,925,925,925,925,925,928,928,928,928,928,925,925,925,925,925,925,925,925,925,925,925,925,923,923,923,923,923,923,920,920,920,920,920,920,920,920,920,918,918,918,918,918,918,918,918,920,920,920,918,918,918,918,918,918,918,918,918,915,915,918,918,918,918,918,918,918,918,918,918,918,918,915,915,915,915,915,915,915,915,915,915,915,915,915,915,915,915,915,915,913,913,913,913,915,915,913,913,913,913,913,913,913,913,913,913,913,910,910,910,910,913,913,913,913,913,913,913,910,910,910,910,910,908,908,908,908,908,908,908,908,908,910,908,908,908,908,908,908,908,908,908,908,908,908,908,906,906,908,908,908,908,908,908,910,910,910,910,910,910,910,910,910,908,908,908,908,908,906,906,906,906,906,906,906,906,906,906,906,906,906,906,906,906,906,906,906,906,903,903,903,903,903,903,901,901,901,901,901,901,901,901,0,0,0,0,0,0,0,0,0,0,0,0,0,0,0,0,0,0,0,0,0,0,0,0,0,0,0,0,0,0,0,0,0,0,0,0
0,0,0,978,978,978,978,978,978,978,978,975,973,967,967,970,970,970,970,967,967,970,970,970,967,967,967,967,967,967,967,967,967,967,967,967,967,967,967,967,967,967,967,964,964,964,964,964,964,962,962,962,962,962,962,962,962,962,962,962,962,962,962,959,959,959,959,959,959,959,959,959,959,959,959,959,959,959,959,959,956,956,956,956,956,956,956,956,959,959,962,962,962,959,959,959,962,962,959,959,959,959,959,959,959,959,959,959,956,956,956,956,956,956,956,956,956,956,956,956,956,959,959,959,959,959,959,959,956,956,956,956,956,956,954,954,954,954,954,954,954,954,954,954,954,954,954,954,954,954,951,951,951,951,951,954,954,954,954,954,954,951,951,951,951,951,951,951,951,951,951,951,951,951,951,951,954,951,951,951,948,948,946,946,946,948,948,948,948,948,948,948,946,946,948,948,948,948,948,948,946,946,946,946,946,946,946,946,946,946,946,946,943,943,943,943,943,943,943,943,943,943,943,943,943,940,940,935,819,819,817,817,815,813,811,811,811,809,807,805,803,803,802,802,802,802,802,802,802,805,807,809,809,815,817,817,819,819,825,827,943,943,940,940,940,938,935,935,935,935,935,935,935,935,935,935,935,933,933,935,935,935,933,933,933,933,933,933,933,933,933,933,933,933,933,935,935,935,935,935,935,933,933,933,933,933,933,933,935,935,935,935,935,935,933,933,935,935,935,933,933,933,933,933,933,933,933,933,933,933,933,930,930,930,930,933,933,930,930,930,930,930,930,930,930,930,930,930,930,933,930,930,933,930,930,930,930,930,930,930,930,930,930,930,928,928,928,928,928,928,928,928,928,928,928,928,928,928,925,925,925,925,925,925,925,925,925,925,925,925,925,925,925,925,925,925,925,925,925,925,925,925,923,923,923,923,923,923,923,923,923,925,925,925,925,925,925,923,923,923,923,923,923,923,923,923,923,920,920,920,920,920,918,918,918,918,918,915,915,915,915,915,915,915,915,918,918,918,918,918,918,918,918,918,918,918,915,915,915,915,915,915,915,915,915,915,915,915,915,915,915,915,915,915,915,915,915,913,913,915,915,913,913,913,913,913,913,913,913,913,913,913,913,910,910,910,910,910,910,910,910,913,910,910,910,910,910,910,910,910,908,908,908,908,908,908,910,910,910,910,910,908,908,908,908,908,908,908,908,908,908,906,906,908,908,906,906,906,908,908,908,908,908,908,906,906,906,906,906,906,906,906,906,906,906,906,906,908,908,908,908,908,906,906,906,906,906,906,906,906,906,906,906,906,906,906,906,906,906,903,903,903,901,901,903,903,903,901,901,901,901,901,901,901,901,901,901,898,898,898,898,898,898,898,0,0,0,0,0,0,0,0,0,0,0,0,0,0,0,0,0,0,0,0,0,0,0,0,0,0,0,0,0,0,0,0,0,0,0,0
0,0,0,975,975,975,975,975,975,975,975,973,970,967,967,967,967,967,967,964,964,967,967,967,967,967,967,967,967,967,967,967,964,964,962,962,962,964,964,964,964,964,964,964,964,962,962,962,962,959,959,959,959,962,962,959,959,959,959,959,959,959,956,956,956,956,956,956,956,956,956,956,956,956,956,956,956,956,956,956,956,956,956,956,956,954,954,956,956,956,956,956,956,959,956,956,956,959,956,956,956,956,956,956,956,956,956,956,956,954,954,954,954,954,954,954,954,956,956,956,956,956,956,956,956,956,956,956,956,954,954,954,954,954,954,954,954,954,954,951,951,951,951,951,951,951,951,951,951,951,948,948,948,948,948,951,951,951,951,951,951,948,948,948,948,948,948,948,948,948,948,948,948,948,948,948,951,951,948,948,948,946,946,946,946,946,946,946,946,946,946,946,946,946,946,946,946,946,946,946,946,946,946,943,943,943,943,943,943,943,943,943,943,943,943,943,943,943,943,943,943,943,940,940,940,938,935,935,933,933,817,817,815,813,813,811,811,811,809,807,805,803,803,802,802,802,802,802,803,805,807,809,809,815,817,817,819,819,825,827,829,938,938,938,938,935,935,935,935,935,935,935,933,933,933,933,933,933,933,933,933,933,930,930,930,930,930,930,930,930,930,930,930,930,933,933,933,933,933,933,933,933,930,930,930,930,930,933,933,933,933,933,933,933,933,933,933,933,933,930,930,930,930,933,933,930,930,933,930,930,930,930,928,928,928,928,928,928,928,928,928,928,928,928,928,928,928,928,930,930,928,928,930,928,928,928,928,928,928,928,928,928,928,928,928,928,928,928,925,925,925,925,928,925,925,925,925,925,925,925,925,925,925,925,925,925,925,923,923,923,923,923,923,923,923,923,923,923,923,923,923,923,920,920,920,920,920,920,920,920,920,920,920,923,923,923,923,923,923,923,923,923,920,920,920,920,920,920,918,918,918,918,918,918,915,915,915,915,915,915,915,915,915,915,915,915,915,915,915,915,915,915,915,915,915,915,915,915,915,915,913,913,913,913,910,910,910,913,913,913,913,913,913,913,913,913,913,913,913,913,913,913,910,910,913,913,913,913,913,913,913,910,910,908,908,908,908,908,908,908,908,908,908,908,908,908,908,908,908,908,908,908,908,908,908,908,908,908,908,908,908,908,908,908,908,908,908,908,908,906,906,906,906,906,906,903,903,903,906,906,906,906,906,906,906,906,906,906,903,903,906,906,906,906,906,906,906,906,906,906,906,906,903,903,903,903,903,903,906,906,903,903,903,903,903,903,903,903,903,903,901,901,901,901,901,901,901,898,898,898,898,901,898,898,898,898,898,898,898,898,898,898,898,898,0,0,0,0,0,0,0,0,0,0,0,0,0,0,0,0,0,0,0,0,0,0,0,0,0,0,0,0,0,0,0,0,0,0,0,0
0,0,0,973,973,973,973,973,973,973,975,973,970,967,967,967,967,967,964,964,964,967,964,964,964,964,964,964,962,962,964,964,962,959,956,956,959,962,962,962,962,962,964,962,962,962,959,959,959,959,959,959,959,959,959,959,956,956,956,956,956,956,956,956,956,954,954,954,954,954,954,956,956,956,956,954,954,956,956,956,954,954,954,954,954,954,954,954,954,954,954,954,956,956,954,954,954,956,954,954,954,954,954,954,954,954,954,954,954,954,954,954,954,954,954,954,954,954,954,954,954,956,956,956,954,954,954,954,954,954,954,954,954,954,954,954,954,951,951,948,948,948,948,948,948,948,948,948,948,946,946,946,946,946,946,948,948,948,948,948,948,946,946,946,946,946,946,946,946,946,946,946,946,946,946,946,946,946,946,946,946,946,943,943,943,943,943,943,943,943,943,943,943,943,943,943,943,943,943,943,943,943,943,943,943,943,940,940,940,940,940,940,940,940,940,940,940,940,940,940,940,938,938,938,938,935,935,933,933,930,817,817,817,813,813,813,811,811,809,809,807,805,803,803,803,803,803,803,803,807,809,809,811,817,819,819,819,825,825,827,829,938,938,938,935,935,935,935,935,935,935,933,933,933,933,933,933,933,930,930,930,930,930,928,928,930,930,928,928,928,928,930,930,930,930,930,930,928,928,928,928,930,930,930,930,930,930,930,933,933,933,933,933,933,930,930,930,933,930,930,930,930,930,930,930,930,930,930,930,928,928,928,928,928,925,925,928,928,925,925,928,928,928,928,928,925,925,928,928,928,925,925,925,925,925,925,925,925,925,925,925,928,925,925,925,925,925,925,923,923,923,923,925,923,923,925,925,925,923,923,923,923,923,923,923,923,923,920,920,920,920,920,920,920,920,920,920,920,920,920,920,918,918,918,918,918,918,918,918,920,918,918,920,918,918,920,920,920,920,920,920,920,920,918,918,918,918,918,918,918,918,915,915,915,915,913,913,913,913,913,913,913,913,913,913,913,913,913,913,913,913,913,913,913,913,913,913,913,913,913,913,913,913,910,910,910,910,908,908,908,910,910,910,910,910,910,910,910,910,910,913,910,910,910,910,910,910,910,910,910,910,908,908,908,906,906,906,906,906,906,906,906,908,908,908,908,908,908,908,908,906,906,906,906,906,906,906,906,906,906,906,908,908,908,906,906,906,906,906,906,906,906,906,903,903,903,903,903,906,906,906,906,906,906,903,903,903,903,903,903,903,903,903,903,903,903,903,906,903,901,901,901,901,901,901,901,901,901,901,903,903,901,901,901,901,901,901,901,901,901,901,901,898,898,898,898,898,898,896,896,898,898,898,896,896,896,896,896,896,896,896,896,896,896,0,0,0,0,0,0,0,0,0,0,0,0,0,0,0,0,0,0,0,0,0,0,0,0,0,0,0,0,0,0,0,0,0,0,0,0
0,0,0,973,973,973,973,973,973,973,973,970,967,967,967,967,964,962,962,964,964,964,964,964,962,962,962,962,962,962,962,959,959,956,956,956,956,959,959,959,959,959,962,959,959,959,956,956,956,956,956,956,956,956,959,956,956,956,956,956,956,956,954,954,954,954,954,954,954,954,954,954,954,954,954,954,954,954,954,954,954,954,954,954,954,954,951,951,951,951,954,954,954,954,954,954,954,954,951,951,951,954,954,954,954,954,954,954,954,954,954,954,954,954,954,954,954,954,954,951,951,954,954,954,954,951,951,951,951,951,951,951,951,951,951,951,951,951,946,946,946,946,948,948,948,946,946,946,946,946,946,946,946,946,946,946,946,946,946,946,946,943,943,946,943,943,943,943,943,943,943,943,943,943,943,943,943,943,943,943,943,943,943,943,940,940,940,940,940,940,940,940,943,943,943,943,940,940,940,943,940,940,940,940,940,940,938,938,938,938,938,938,938,938,940,938,938,938,938,938,938,938,935,935,935,933,933,933,930,930,928,819,817,815,815,815,813,811,811,809,807,805,803,803,803,803,803,803,805,807,809,809,813,817,819,819,821,825,827,827,829,935,935,935,933,933,933,933,933,933,933,933,933,933,933,930,930,930,930,930,928,928,928,928,928,928,928,925,925,928,928,928,928,928,928,928,928,928,928,925,925,925,925,925,925,928,928,928,930,930,930,930,930,930,928,928,928,930,928,928,928,928,928,928,928,928,928,928,928,928,928,928,925,925,925,925,925,925,925,925,925,925,925,925,925,925,925,925,925,925,925,923,923,925,923,923,923,923,923,925,923,923,923,923,923,923,923,923,923,923,920,920,923,920,920,923,923,923,923,923,920,920,920,920,920,920,920,920,918,918,920,918,918,918,918,920,920,918,918,918,918,918,918,915,915,915,915,915,915,915,915,915,915,915,915,918,918,918,918,918,920,918,918,918,918,918,915,915,915,915,915,915,913,913,913,910,910,910,910,910,910,910,910,910,910,910,910,910,910,910,910,910,913,913,913,913,913,913,913,910,910,910,910,910,908,908,908,908,908,908,908,908,908,908,908,908,908,908,908,908,908,908,908,908,908,908,908,908,908,908,908,906,906,906,903,903,903,903,903,906,906,906,906,906,906,906,906,906,906,906,906,906,906,906,903,903,903,903,903,903,903,906,906,906,906,906,906,906,906,903,903,903,903,903,903,901,901,901,903,903,903,903,903,903,903,903,901,901,901,901,901,901,901,901,901,901,901,901,901,898,898,898,898,898,898,898,898,898,898,898,898,898,898,901,901,901,901,898,898,898,898,898,898,896,896,898,898,896,896,894,894,896,896,894,894,894,894,894,894,894,891,891,891,894,0,0,0,0,0,0,0,0,0,0,0,0,0,0,0,0,0,0,0,0,0,0,0,0,0,0,0,0,0,0,0,0,0,0,0,0
0,0,0,970,970,970,973,973,970,970,970,970,964,964,964,964,964,962,962,962,962,962,962,962,962,962,962,959,959,959,959,959,959,956,956,956,956,956,956,956,956,956,956,956,956,956,956,956,956,956,956,954,954,956,956,956,954,954,954,954,954,954,954,954,954,951,948,948,951,951,951,954,954,954,954,954,954,951,951,951,951,951,951,951,951,951,951,951,951,951,951,951,951,951,951,951,951,951,948,948,948,948,948,948,948,951,951,951,951,951,951,951,951,951,951,951,951,948,948,951,951,951,951,951,951,948,948,948,948,948,948,948,948,948,948,948,948,946,946,946,946,946,946,946,946,946,946,943,943,946,946,943,943,943,943,943,943,943,943,943,943,943,943,943,943,943,943,943,943,943,943,943,940,940,940,940,940,940,940,940,940,940,940,940,938,938,938,938,938,938,938,940,940,940,938,938,940,938,938,938,938,938,938,938,938,938,935,935,935,935,935,935,935,935,935,935,935,935,935,935,935,935,935,935,933,933,933,930,930,928,928,819,819,817,817,815,813,811,811,809,807,805,803,803,803,803,803,803,807,809,809,811,813,817,819,819,821,825,827,827,829,930,930,930,930,930,930,933,933,933,933,930,930,930,928,928,928,928,928,928,928,925,925,925,925,925,925,925,925,925,925,925,925,925,925,925,925,925,925,925,925,925,925,925,925,925,925,925,928,928,928,928,928,928,928,928,928,928,925,925,928,928,928,925,925,925,925,928,925,925,925,925,925,923,923,923,923,923,923,923,923,923,923,923,923,923,923,923,923,923,923,920,920,923,923,923,923,920,920,923,920,920,920,920,920,920,920,920,920,920,920,920,920,920,920,920,920,920,920,920,920,918,918,918,918,918,918,918,918,918,918,918,918,918,918,918,918,918,918,915,915,915,915,915,913,913,913,913,913,913,913,913,913,915,915,915,915,915,913,913,913,918,915,915,915,915,915,915,913,913,913,913,910,910,910,910,908,908,910,910,910,910,910,908,908,908,908,908,908,908,908,908,910,910,910,910,910,910,908,908,908,908,908,908,908,908,908,906,906,908,908,908,906,906,906,908,908,908,908,908,908,908,908,908,908,908,908,906,906,906,906,903,903,903,901,901,901,901,901,903,903,903,903,906,906,903,903,903,903,906,903,903,906,903,901,901,901,901,901,901,901,903,903,903,903,903,903,903,903,903,903,903,903,903,901,901,901,901,903,903,901,901,901,903,901,901,898,898,898,898,898,898,898,898,898,898,898,898,898,898,898,898,896,896,896,896,896,896,898,898,896,896,896,896,898,898,896,896,896,896,896,896,896,896,896,896,896,894,894,894,894,891,891,891,891,891,891,891,891,891,889,889,889,889,0,0,0,0,0,0,0,0,0,0,0,0,0,0,0,0,0,0,0,0,0,0,0,0,0,0,0,0,0,0,0,0,0,0,0,0
0,0,0,967,967,967,970,970,967,967,967,967,964,962,962,964,962,962,959,959,959,959,959,956,956,956,956,959,956,956,956,956,956,956,956,954,954,956,956,956,956,956,956,956,956,956,954,954,954,954,951,951,951,951,951,954,951,951,954,954,954,951,951,951,951,948,946,946,948,948,948,948,948,951,951,951,951,951,948,948,948,948,948,948,948,948,948,948,948,948,948,948,948,948,948,948,948,948,946,946,946,948,946,946,948,948,948,948,948,948,948,948,948,946,946,948,946,946,946,946,948,948,948,948,946,946,946,946,946,946,946,946,946,946,946,946,946,946,943,943,943,943,943,943,943,943,943,943,943,943,943,940,940,940,940,940,938,938,938,940,940,940,940,940,940,940,940,940,940,940,940,940,940,938,938,938,938,938,938,935,935,938,938,938,935,935,935,938,938,935,935,938,938,938,938,938,938,935,935,935,935,935,935,935,935,935,935,933,933,933,933,933,933,935,935,935,935,933,933,933,933,933,933,933,933,933,930,930,928,928,925,821,821,821,819,817,815,815,811,809,809,807,805,803,803,803,803,805,807,809,809,811,815,819,819,819,823,825,827,827,829,925,925,925,928,928,928,928,928,928,928,928,928,928,928,928,928,928,928,928,925,925,925,925,925,925,925,925,925,925,925,925,925,925,925,925,925,925,925,925,925,925,925,925,925,925,923,923,925,928,928,928,925,925,925,925,925,925,925,925,925,925,925,925,925,925,925,925,923,923,923,923,923,920,920,920,920,920,920,920,920,923,920,920,920,920,920,920,920,920,920,920,920,918,918,920,920,918,918,920,918,918,918,918,918,918,918,918,918,918,918,918,918,918,918,918,918,918,918,918,918,918,918,918,918,918,918,918,915,915,918,915,915,915,915,915,918,915,915,915,915,915,913,913,910,910,913,913,913,913,913,913,913,913,913,913,913,913,913,910,910,913,913,913,913,913,913,913,913,910,910,910,908,908,908,908,908,908,908,908,908,908,908,908,908,908,908,908,908,908,908,908,908,908,908,908,908,908,906,906,906,906,906,906,906,906,906,906,906,906,906,906,906,906,906,906,906,906,906,906,906,906,906,906,906,906,906,906,906,906,903,903,901,901,901,901,898,898,901,901,901,901,901,903,903,901,901,901,901,901,901,898,898,898,898,898,898,898,898,898,901,901,901,901,901,901,901,901,901,901,901,901,901,901,901,901,901,901,901,901,901,901,901,901,898,898,898,898,896,896,896,896,896,896,896,896,896,896,896,896,896,896,896,896,894,894,894,894,896,896,894,894,894,896,894,894,894,894,894,894,894,894,894,894,894,894,894,894,891,889,889,889,889,889,889,889,889,891,891,889,889,889,889,889,0,0,0,0,0,0,0,0,0,0,0,0,0,0,0,0,0,0,0,0,0,0,0,0,0,0,0,0,0,0,0,0,0,0,0,0
0,0,0,964,964,964,967,967,964,964,964,964,964,956,956,956,956,956,956,956,956,956,956,956,956,956,956,956,954,954,956,956,956,956,954,954,954,954,954,954,954,956,956,956,956,954,951,951,951,948,946,946,946,946,948,948,948,948,951,951,951,948,948,948,946,946,946,946,946,946,946,948,948,948,948,948,948,948,948,948,948,946,946,946,946,946,946,946,946,946,946,946,946,946,946,946,946,946,946,946,946,946,946,946,946,946,946,946,946,946,946,946,946,946,946,946,946,946,946,946,946,946,946,946,943,943,943,943,946,946,943,943,946,946,943,943,943,943,943,943,943,943,943,943,943,943,943,940,940,940,940,940,938,938,938,938,935,935,935,938,938,938,938,935,935,938,938,938,938,938,938,938,938,938,938,935,935,935,935,935,935,935,935,935,935,935,935,935,935,935,935,935,938,935,935,935,935,935,935,935,935,935,933,933,933,933,933,933,933,933,933,933,933,933,933,933,933,933,933,933,930,930,933,933,933,930,930,928,928,925,925,823,823,821,821,819,817,815,815,811,811,809,805,805,805,805,805,805,807,809,809,813,817,819,819,821,823,825,827,827,829,925,925,925,925,925,925,925,925,925,925,925,925,925,925,925,925,925,925,925,925,925,925,925,923,923,925,923,923,925,923,923,923,923,923,923,923,923,923,923,923,923,923,923,923,923,923,923,925,925,925,925,925,925,925,923,923,923,923,923,923,923,923,923,923,923,923,923,920,920,920,920,920,918,918,920,918,918,918,920,920,920,918,918,918,918,920,918,918,918,918,918,918,918,918,918,918,918,918,918,918,918,918,918,918,915,915,915,915,915,915,915,915,915,915,915,915,915,915,915,915,915,915,915,915,915,915,915,915,915,915,915,915,913,913,913,915,913,913,913,913,913,910,910,910,910,910,910,910,910,910,910,910,910,910,910,910,910,910,910,910,910,908,908,908,910,910,910,908,908,908,908,908,908,908,908,908,908,908,908,908,908,908,908,908,906,906,906,906,906,906,906,906,906,906,906,906,906,903,903,903,903,903,903,903,903,903,903,903,903,906,903,903,903,903,906,903,901,901,906,906,906,903,903,903,903,901,901,903,903,901,901,901,901,898,898,898,898,898,898,898,898,898,901,901,898,898,898,898,898,898,898,898,898,898,898,898,898,898,898,898,898,898,896,896,896,896,896,898,898,898,901,901,901,898,898,898,898,898,898,898,898,898,898,898,898,896,896,896,896,896,896,896,896,896,896,896,896,896,896,896,896,896,894,894,894,891,891,894,894,894,891,891,894,891,891,889,889,891,891,891,891,894,894,891,891,894,891,889,889,889,889,889,889,889,889,889,889,889,889,887,887,887,889,0,0,0,0,0,0,0,0,0,0,0,0,0,0,0,0,0,0,0,0,0,0,0,0,0,0,0,0,0,0,0,0,0,0,0,0
0,0,0,964,964,964,964,964,962,962,962,962,962,956,956,956,954,954,956,956,956,956,954,954,954,954,954,954,954,954,954,954,954,954,954,954,954,951,951,951,954,954,951,951,954,954,948,948,948,946,946,943,943,943,946,946,946,946,948,948,946,946,946,946,946,943,943,943,943,946,946,946,946,946,946,946,946,946,946,946,946,946,943,943,943,943,943,943,943,946,943,943,943,943,943,943,943,943,943,943,943,943,943,943,943,943,946,946,943,943,943,943,943,943,943,943,943,943,943,943,943,943,943,943,940,940,940,943,943,943,943,943,943,943,943,938,938,940,940,940,940,940,940,943,940,940,940,938,938,940,938,938,938,935,935,935,935,935,935,935,935,935,935,935,935,935,935,935,935,935,938,938,935,935,935,935,935,935,933,933,933,933,933,933,933,933,935,935,935,935,935,935,935,935,935,935,935,933,933,933,933,933,933,933,933,933,933,930,930,930,930,930,930,930,930,930,933,930,930,930,928,928,930,930,928,928,928,925,925,925,923,825,825,823,823,821,817,817,815,813,811,809,809,807,807,805,805,805,809,809,811,815,817,819,819,821,825,825,827,827,829,923,923,923,925,923,923,923,923,923,923,923,923,923,923,923,923,923,923,925,923,923,923,923,923,923,923,923,923,923,923,923,923,923,923,920,920,923,923,923,923,920,920,920,920,920,920,920,923,923,923,920,920,918,918,918,920,920,920,920,920,920,920,920,920,920,920,920,918,918,918,918,918,918,918,918,918,918,918,918,918,918,918,918,918,918,918,918,918,915,915,915,915,915,915,915,915,915,915,915,915,915,915,915,915,915,915,913,913,910,910,910,910,910,910,913,913,913,913,913,913,913,913,913,913,913,913,913,913,913,910,910,910,910,910,910,910,910,910,910,910,910,910,910,908,908,908,908,908,908,908,908,908,908,908,908,908,908,908,908,908,908,908,908,908,908,908,906,906,908,906,906,906,906,906,906,906,906,906,906,906,906,906,906,906,906,903,903,906,906,906,906,903,903,906,903,903,903,901,901,901,901,901,901,901,901,901,901,901,903,903,903,903,903,903,903,901,901,898,898,898,901,898,898,898,901,898,898,898,898,898,898,898,898,898,898,898,898,898,898,898,898,898,898,898,898,898,896,896,896,896,896,896,896,896,896,896,896,896,896,898,896,896,896,896,896,896,896,896,896,896,898,898,898,898,896,896,896,898,898,898,898,896,896,898,896,896,894,894,896,896,896,894,894,894,894,894,894,894,894,894,894,894,894,891,891,891,891,891,891,891,891,891,891,889,889,889,889,887,887,889,889,891,891,889,889,891,889,889,887,887,887,887,887,887,887,887,887,887,887,885,885,885,0,0,0,0,0,0,0,0,0,0,0,0,0,0,0,0,0,0,0,0,0,0,0,0,0,0,0,0,0,0,0,0,0,0,0,0,0
0,0,0,962,962,962,962,962,959,959,959,956,956,956,956,956,954,954,954,954,954,954,954,951,948,948,951,951,951,951,954,954,954,951,951,948,948,946,946,946,948,948,948,948,948,948,946,946,946,946,943,943,943,943,946,946,946,946,946,948,946,946,946,946,943,943,940,940,943,943,943,943,943,943,943,943,943,943,943,943,943,943,943,943,940,940,940,940,940,943,943,943,943,943,943,943,940,940,940,940,940,940,940,943,940,940,943,943,943,940,940,940,940,940,940,940,938,938,940,940,940,940,940,940,940,940,940,940,940,943,940,940,940,943,938,938,938,938,940,938,938,938,938,940,940,938,938,938,938,938,938,935,935,935,935,935,935,933,933,933,933,933,933,933,933,933,933,933,935,935,935,935,935,935,935,933,933,933,933,933,933,933,933,933,933,933,933,933,933,933,933,935,933,933,933,933,933,933,930,930,930,930,928,928,930,930,930,930,930,930,928,928,928,928,928,930,930,930,930,930,928,928,928,928,925,925,925,925,923,923,923,827,825,825,825,823,819,817,815,813,811,811,809,809,809,807,807,807,809,809,811,817,819,819,821,823,825,827,829,831,831,923,923,923,923,923,923,923,920,920,920,920,920,920,920,920,923,923,923,923,923,923,923,923,923,923,920,920,920,920,920,920,920,920,920,920,920,920,920,918,918,918,918,918,918,918,918,920,918,918,920,918,918,915,915,915,915,915,915,918,918,918,920,920,918,918,918,918,918,918,918,915,915,915,915,915,915,915,918,918,918,918,918,918,918,918,918,918,915,915,915,915,915,913,913,913,913,913,913,913,913,913,913,915,913,913,913,913,910,910,910,910,910,908,908,908,908,910,910,910,910,910,910,910,910,910,910,910,910,910,908,908,908,908,908,908,908,908,910,908,908,910,908,908,908,908,908,908,908,908,908,908,908,908,908,908,908,908,908,908,908,906,906,906,906,906,906,903,903,903,903,903,903,903,903,906,906,906,906,906,903,903,903,903,903,903,901,901,903,903,903,903,903,903,903,903,901,901,898,898,898,898,898,898,898,901,901,898,898,901,901,901,901,901,901,901,898,898,898,898,896,896,896,896,896,898,896,896,896,896,896,896,896,896,896,896,896,896,896,896,896,898,898,898,898,896,896,896,896,896,896,896,894,894,896,896,896,896,896,896,896,894,894,894,894,894,894,894,894,894,896,896,896,896,896,896,896,896,896,896,896,896,896,896,896,896,894,894,894,894,894,894,894,894,894,891,891,891,891,891,891,891,891,889,889,889,889,889,891,891,889,889,889,889,889,887,887,887,887,887,887,887,889,889,887,887,887,887,887,887,885,885,885,885,885,885,885,885,885,885,882,882,882,0,0,0,0,0,0,0,0,0,0,0,0,0,0,0,0,0,0,0,0,0,0,0,0,0,0,0,0,0,0,0,0,0,0,0,0,0
0,0,962,959,959,962,962,959,956,956,956,956,956,954,954,954,954,954,951,951,954,954,951,948,948,948,948,948,948,948,951,951,951,951,951,948,946,946,946,946,946,946,946,946,946,946,946,946,946,946,943,943,943,943,943,943,943,943,946,946,946,946,943,943,943,943,940,940,940,943,943,943,943,943,943,943,943,943,943,940,940,940,940,940,938,938,938,938,938,940,940,940,940,940,940,940,938,938,938,938,938,938,938,940,940,940,940,940,940,940,938,938,938,938,938,938,938,938,938,935,935,938,938,938,938,938,938,938,938,938,938,938,938,940,935,935,935,935,938,935,935,935,935,938,938,935,935,935,935,935,935,935,935,933,933,933,933,933,933,933,933,933,933,933,933,933,933,933,933,933,933,933,933,933,933,933,930,930,930,930,930,930,930,930,930,930,930,930,930,928,928,928,930,930,930,930,930,930,930,928,928,928,928,928,928,928,928,928,928,928,928,925,925,928,928,928,928,928,928,928,925,925,925,925,925,925,923,923,923,923,923,827,827,827,825,823,821,819,817,815,813,813,811,809,809,809,809,809,809,811,813,817,819,819,821,823,827,827,829,831,833,923,923,920,920,920,920,920,918,918,918,918,918,918,918,918,920,920,920,923,920,920,920,920,920,920,918,918,918,918,918,918,918,918,918,915,915,915,915,915,915,915,915,915,915,915,915,918,915,915,918,915,915,915,915,915,915,915,915,915,915,915,918,918,918,918,915,915,915,915,915,915,913,913,913,913,915,915,915,915,915,915,915,915,915,915,915,915,915,915,913,913,913,913,913,910,910,910,910,910,910,910,910,910,913,913,910,910,910,908,908,908,908,908,908,908,908,908,908,908,908,910,910,908,908,908,908,908,908,908,908,908,908,908,906,906,908,908,908,908,908,908,908,908,906,906,908,908,906,906,906,906,906,906,906,906,906,906,906,906,906,906,906,903,903,903,903,901,901,901,901,901,901,901,901,903,903,903,903,903,901,901,901,901,901,901,901,901,901,901,901,901,901,901,898,898,898,898,896,896,898,898,898,898,898,898,898,898,898,898,898,898,898,898,898,898,898,896,896,896,896,896,894,894,894,894,896,896,896,896,896,896,896,896,896,896,896,896,896,896,896,896,896,896,896,896,894,894,894,894,894,894,894,894,894,894,891,891,894,894,894,891,891,891,891,891,891,891,891,894,891,891,891,891,891,891,894,894,894,894,894,894,894,894,894,894,891,891,891,891,891,891,891,891,891,891,891,889,889,889,889,889,889,889,887,887,889,889,889,889,889,889,889,887,887,887,887,887,885,885,887,887,885,885,885,885,885,885,885,885,885,885,885,885,885,885,885,882,882,882,880,880,882,0,0,0,0,0,0,0,0,0,0,0,0,0,0,0,0,0,0,0,0,0,0,0,0,0,0,0,0,0,0,0,0,0,0,0,0,0
0,0,962,959,959,959,959,956,956,956,956,956,956,954,954,954,951,951,951,951,951,951,948,946,946,946,946,946,946,946,946,946,946,948,948,946,946,946,943,943,943,943,943,943,943,943,943,943,946,946,943,943,943,943,943,943,943,943,943,943,943,943,943,943,943,940,940,940,940,940,940,943,943,943,943,940,940,940,940,938,938,938,938,938,938,938,938,938,938,938,938,938,938,938,938,938,938,938,938,938,935,935,935,938,938,938,938,938,938,938,938,935,935,938,938,935,935,935,935,935,935,935,935,935,935,933,933,935,935,938,935,935,935,935,935,933,933,933,935,935,933,933,933,933,933,933,933,933,933,933,933,933,933,933,933,933,933,933,933,930,930,930,930,930,930,930,930,930,930,930,928,928,928,928,928,928,928,928,928,928,928,928,928,928,928,928,928,928,925,925,925,925,925,928,928,928,928,928,928,928,928,925,925,925,925,925,925,925,925,925,925,925,925,925,925,925,925,925,925,925,925,925,925,923,923,923,923,923,920,920,920,827,827,827,827,823,821,819,817,817,815,813,811,811,809,809,809,809,809,811,817,817,819,821,823,825,827,829,831,831,833,835,920,920,920,920,918,918,918,918,915,915,915,915,915,915,915,915,918,918,918,918,918,918,918,918,915,915,915,915,915,915,915,915,915,913,913,915,913,913,913,913,913,913,910,910,913,913,913,913,913,913,913,913,913,910,910,913,913,913,913,913,913,913,913,915,915,915,915,915,915,913,913,913,910,910,913,913,913,913,915,915,915,915,915,915,915,915,915,913,910,910,910,910,910,910,908,908,908,908,908,908,908,908,908,908,908,908,908,908,908,908,908,906,906,906,906,906,906,906,906,908,908,908,908,908,908,906,906,906,906,906,906,906,906,906,906,906,906,906,906,906,906,906,906,906,906,906,906,906,906,906,906,903,903,903,903,903,903,903,903,903,903,901,901,901,901,901,898,898,898,898,898,898,898,901,901,901,901,901,898,898,898,898,898,898,898,898,898,898,898,898,898,898,898,898,896,896,896,896,896,896,896,896,896,896,896,896,896,896,896,896,896,896,896,896,896,896,896,894,894,894,894,894,894,894,894,894,894,894,896,896,896,896,894,894,894,894,894,894,894,891,891,894,894,894,891,891,894,891,891,891,891,891,891,891,891,891,891,891,891,889,889,889,889,889,889,889,889,889,889,889,889,889,889,889,889,889,891,891,891,891,891,891,891,889,889,889,889,889,889,889,889,889,889,889,889,889,889,887,887,887,887,887,885,885,887,887,887,887,887,887,887,885,885,885,885,885,882,882,885,885,882,882,882,882,882,882,882,882,882,882,885,885,885,885,882,882,880,880,880,880,880,0,0,0,0,0,0,0,0,0,0,0,0,0,0,0,0,0,0,0,0,0,0,0,0,0,0,0,0,0,0,0,0,0,0,0,0,0
0,0,962,959,956,956,956,954,954,954,954,954,954,954,954,954,946,946,946,948,948,948,946,946,943,943,943,943,943,943,943,943,943,943,943,946,943,943,943,943,943,940,940,940,940,940,940,940,940,943,940,940,940,940,940,940,940,940,940,943,940,940,940,940,940,940,938,938,940,940,940,940,940,940,940,940,938,938,938,935,935,935,935,935,935,935,935,935,935,935,935,935,935,935,935,935,935,935,935,935,935,935,935,935,935,935,935,935,935,935,935,935,935,935,935,933,933,935,935,933,933,933,933,933,933,933,933,933,933,933,933,933,933,933,933,933,933,933,933,933,933,930,930,930,930,930,930,930,930,930,930,930,930,930,930,930,930,930,930,930,928,928,928,928,928,928,928,928,928,925,925,925,925,925,925,925,925,925,925,925,925,925,925,925,925,925,925,925,925,925,923,923,923,923,925,925,925,925,925,925,925,925,925,925,925,925,925,925,925,925,925,925,925,923,923,923,923,923,923,925,925,923,923,923,923,923,920,920,918,918,918,827,827,827,827,825,823,821,819,817,817,815,811,811,811,809,809,809,809,811,817,819,819,821,823,827,829,831,831,833,833,835,915,915,915,915,915,915,915,915,915,915,915,915,915,915,915,915,915,915,915,915,915,915,915,915,913,913,915,915,915,913,913,913,913,913,913,913,913,910,910,910,910,910,908,908,908,910,913,910,910,910,910,910,910,910,910,910,910,910,910,910,910,910,910,910,910,910,913,913,913,913,910,910,910,910,910,910,910,910,910,913,913,913,913,913,913,910,910,910,908,908,908,908,908,908,908,908,908,908,908,908,908,908,908,906,906,906,906,906,906,906,906,906,906,906,906,906,906,906,906,906,906,906,906,906,906,906,906,906,906,906,906,903,903,903,903,903,903,903,903,906,906,906,903,903,906,906,903,903,903,903,903,901,901,901,901,901,901,901,898,898,901,898,898,898,898,898,898,898,898,898,898,898,898,898,898,898,898,898,898,898,898,898,898,898,898,898,898,898,898,898,896,896,896,896,896,896,894,894,894,894,894,894,894,894,894,894,891,891,894,894,894,894,894,894,894,894,894,891,891,891,891,891,891,891,891,891,891,891,894,894,894,894,894,894,891,891,889,889,891,889,889,891,891,891,891,891,891,891,889,889,889,889,889,889,889,889,889,889,889,889,889,889,889,889,889,889,889,889,889,889,889,887,887,887,887,887,887,887,889,889,889,889,889,889,889,887,887,887,887,887,889,889,889,889,889,887,887,887,885,885,885,882,882,882,885,885,885,885,885,887,885,882,882,882,882,882,882,882,882,882,882,882,880,880,880,880,882,880,880,882,882,882,882,882,882,880,880,878,878,878,878,0,0,0,0,0,0,0,0,0,0,0,0,0,0,0,0,0,0,0,0,0,0,0,0,0,0,0,0,0,0,0,0,0,0,0,0,0
0,0,959,956,954,954,954,954,954,954,954,954,954,946,946,951,946,946,946,946,946,946,946,946,943,943,943,943,943,943,943,943,943,943,943,943,943,940,940,940,940,940,940,938,938,938,938,938,940,940,938,938,938,938,938,940,938,938,940,940,940,940,940,940,940,938,938,938,938,938,938,938,938,938,938,938,935,935,935,933,933,933,935,935,935,933,933,935,935,935,935,933,933,933,933,933,935,935,935,935,935,935,935,935,935,935,935,933,933,935,935,935,933,933,933,933,933,933,933,933,933,933,933,933,930,930,930,930,928,928,928,928,928,933,933,933,930,930,930,933,930,928,925,925,925,928,928,928,928,930,930,930,930,930,928,928,928,928,928,928,925,925,925,925,925,925,925,925,925,925,925,925,925,925,925,925,925,925,925,925,925,925,925,925,925,925,925,925,925,923,923,923,923,923,923,923,923,923,923,923,923,923,923,923,923,923,923,923,925,923,923,923,923,920,920,923,923,923,923,923,923,923,923,923,920,920,918,918,915,915,915,915,829,829,829,827,825,821,819,819,817,815,813,811,811,811,809,809,809,811,817,821,821,823,823,827,831,831,833,835,835,913,913,913,915,915,915,915,915,915,915,913,913,913,913,913,913,913,913,913,913,913,913,913,913,913,913,913,913,913,913,913,913,910,910,910,910,910,910,908,908,908,908,906,906,908,908,910,910,910,910,910,910,908,908,908,908,908,908,908,908,908,908,908,908,908,908,908,908,910,910,910,910,910,908,908,908,908,908,908,908,910,910,910,910,910,908,908,908,908,908,908,908,908,908,908,908,906,906,906,906,906,906,906,906,906,906,906,906,906,906,903,903,903,903,903,903,903,903,903,903,903,903,903,903,903,903,903,903,903,903,903,903,903,901,901,901,901,901,901,901,903,903,903,903,903,903,903,901,898,898,898,898,898,898,898,898,898,898,898,898,898,898,898,898,898,898,896,896,896,896,896,896,896,896,896,896,896,896,896,896,896,896,896,896,896,896,896,896,896,896,896,896,896,896,894,894,894,894,891,891,891,894,894,894,894,894,891,891,891,891,891,891,891,891,891,891,891,891,889,889,889,889,889,889,889,889,889,889,889,889,889,889,891,891,891,891,889,889,889,889,889,889,889,889,889,889,889,889,889,889,889,889,889,889,889,887,887,889,889,889,887,887,889,889,889,889,887,887,887,887,887,887,887,887,887,887,887,887,885,885,885,885,887,887,887,887,887,887,887,887,887,889,889,889,889,887,887,887,885,882,882,882,882,882,882,882,882,882,882,882,885,882,882,880,880,880,880,880,880,880,880,880,880,880,880,880,880,880,880,880,880,880,880,880,880,880,878,878,878,878,878,878,0,0,0,0,0,0,0,0,0,0,0,0,0,0,0,0,0,0,0,0,0,0,0,0,0,0,0,0,0,0,0,0,0,0,0,0,0
