0,0,0,0,0,0,0,0,0,0,0,0,0,0,0,1601,1601,1601,1601,1601,1601,1601,1601,1594,1594,1594,1594,1594,1594,1586,1586,1586,1579,1579,1572,1572,1572,1572,1572,1572,1564,1564,1564,1564,1564,1557,1550,1543,1543,1550,1543,1543,1550,1550,1557,1550,1550,1550,1543,1543,1543,1550,1550,0,0,0,0,0,0,0,0,0,0,0,0,0,0,0,0,0,0,0,0,0,0,0,0,0,0,0,0,0,0,0,0,0,0,0,1489,1489,1496,1496,1509,1509,1503,1503,1509,1509,1509,1509,1509,1516,1516,1516,1516,1516,1516,1516,1516,1516,1509,1509,1516,1516,1523,1529,1529,1536,1543,1543,1550,1564,2090,2090,2078,2078,2090,2078,2078,2065,2065,2053,2053,2053,2040,2028,2028,2028,2040,2040,2040,2053,1536,1536,1536,1536,1536,1536,1536,1536,1536,1529,1529,1536,1536,1536,1536,1536,1543,1543,1543,1543,1543,1550,1557,1557,1557,1557,1564,1564,1564,1572,1579,1579,1586,1586,1594,1594,1594,1601,1601,1609,1609,1609,1609,1616,1616,1616,1616,1624,1624,1624,1632,1632,1632,1632,1639,1639,1639,1639,1647,1647,1655,1655,1655,1663,1663,1663,1671,1671,1680,1688,1688,1688,1688,1688,1688,1696,1696,1696,1705,1705,1713,1722,1722,1722,1722,1722,1722,1722,1722,1722,1722,1722,1731,1731,1722,1722,1722,1713,1713,1705,1705,1696,1696,1696,1696,1696,1696,1696,1688,1688,1688,1680,1680,1680,1671,1663,1663,1655,1655,1655,1655,1655,1647,1647,1639,1639,1639,1632,1632,1632,1632,1632,1632,0,0,0,1094,1094,1087,1084,1080,1080,1077,1073,1073,1070,1070,1070,1070,1073,1073,1073,1073,1073,1070,1067,1063,1060,1060,1054,1054,1054,1050,1050,1050,1050,1050,1047,1047,1047,1047,1044,1041,1041,1038,1038,1038,1038,1038,1034,1034,1034,1031,1031,1028,1028,1028,1025,1025,1025,1022,1019,1019,1016,1016,1013,1013,1013,1010,1010,1007,1004,1004,1001,1001,1001,998,998,995,995,992,992,989,989,989,987,984,984,981,981,981,978,978,975,975,973,973,970,967,962,962,959,959,959,959,956,956,954,951,948,948,948,946,946,943,940,938,938,938,935,933,933,930,928,928,925,925,925,923,920,918,915,915,915,915,913,910,908,906,901,898,898,896,896,891,889,889,889,887,887,885,882,880,880,882,882,882,882,885,887,889,891,891,889,889,0,0,0,0,0,1214,1210,1210,1214,1214,1214,1214,1214,1214,1214,1210,1210,1206,1202,1202,1197,1197,1197,1197,1197,1197,1202,1197,1197,1197,1206,1206,1206,1210,1227,1232,1236,1236,1236,1236,1236,1236,1232,1232,1232,1232,1227,1227,1227,1223,1219,1219,1214,1214,1214,1210,1210,1210,1210,1210,1206,1206,1206,1206,1202,1202,1197,1197,1197,1197,1193,1193,1189,1189,1185,1185,1185,1185,1181,1181,1181,1177,1177,1177,1177,1173,1173,1169,1169,1169,1169,1169,1165,1165,1169,1165,1165,1165,1161,1161,1157,1153,1153,1149,1149,1149,1149,1145,1145,1141,1141,1141,1141,1138,1138,1138,1138,1138,1138,1134,1134,1134,1130,1130,1126,1123,1123,1123,1119,1119,1119,1115,1115,1115,1115,1112,1108,1108,1105,1105,1105,1101,1101,1101,1097,1097,1097,1090,1090,1090,1087,1084,1084,1084,1080,1077,1077,1080,1080,1067,1067,1067,1067,1067,1067,0,0,0,0,0,0,0,0,0,0,0,0,0,0,0,0,0,0,0,0,0,0,0,0,0,0,0,0
0,0,0,0,0,0,0,0,0,0,0,0,0,0,0,1616,1616,1609,1601,1601,1601,1601,1601,1594,1594,1594,1594,1586,1586,1586,1586,1579,1579,1579,1572,1572,1572,1572,1572,1572,1564,1564,1564,1564,1564,1557,1550,1550,1550,1550,1550,1550,1550,1550,1550,1564,1557,1550,1543,1543,0,0,0,0,0,0,0,0,0,0,0,0,0,0,0,0,0,0,0,0,0,0,0,0,0,0,0,0,0,0,1464,1464,1464,1464,0,0,0,0,1496,1496,1503,1503,1509,1509,1503,1503,1509,1509,1509,1509,1509,1516,1523,1523,1523,1529,1523,1516,1516,1516,1516,1516,1516,1516,1523,1529,1529,1543,1543,1550,1550,1550,2078,2078,2078,2090,2090,2078,2078,2078,2065,2053,2053,2053,2040,2040,2040,2040,2040,2040,2040,2053,1536,1536,1536,1536,1536,1536,1536,1536,1536,1529,1529,1536,1536,1536,1536,1536,1543,1543,1543,1543,1543,1550,1557,1557,1564,1564,1564,1564,1572,1572,1579,1579,1586,1586,1594,1594,1601,1601,1601,1609,1609,1609,1609,1616,1616,1624,1624,1624,1624,1624,1632,1632,1632,1632,1632,1639,1639,1639,1647,1655,1655,1655,1655,1663,1663,1663,1671,1671,1680,1688,1688,1696,1696,1696,1696,1696,1696,1705,1705,1713,1713,1722,1722,1722,1722,1722,1722,1722,1731,1731,1731,1731,1731,1731,1731,1722,1722,1722,1713,1713,1713,1705,1705,1705,1696,1696,1696,1696,1688,1688,1688,1680,1680,1680,1671,1663,1663,1655,1655,1655,1655,1655,1647,1647,1647,1639,1639,1632,1632,1632,1632,1632,1632,1632,0,1090,1090,1090,1087,1084,1080,1080,1077,1073,1073,1070,1070,1070,1070,1073,1073,1073,1073,1073,1070,1067,1060,1060,1057,1054,1054,1050,1050,1050,1050,1050,1050,1050,1047,1047,1047,1044,1041,1041,1041,1038,1038,1038,1038,1034,1034,1034,1031,1031,1028,1028,1025,1025,1025,1025,1022,1022,1019,1016,1016,1013,1013,1013,1010,1010,1007,1004,1004,1001,1001,1001,998,995,995,992,992,992,989,989,989,987,984,984,981,981,981,978,978,975,973,973,970,970,967,962,962,962,959,959,959,956,956,954,951,948,948,948,946,946,943,940,938,938,938,935,933,930,930,928,928,925,925,925,923,920,918,915,915,915,913,913,910,908,906,901,898,898,896,896,891,889,889,889,887,887,887,885,882,882,882,882,882,885,885,887,891,891,891,889,889,0,0,0,0,0,1214,1214,1214,1219,1219,1219,1219,1214,1214,1210,1210,1206,1206,1202,1202,1202,1197,1197,1197,1197,1197,1202,1197,1197,1202,1202,1206,1206,1206,1219,1223,1232,1236,1236,1236,1236,1232,1232,1232,1232,1232,1227,1227,1227,1223,1219,1219,1214,1214,1214,1214,1210,1210,1210,1210,1206,1206,1202,1202,1202,1202,1197,1197,1197,1197,1193,1193,1189,1189,1185,1185,1185,1181,1181,1181,1181,1177,1177,1177,1173,1169,1169,1165,1165,1169,1169,1165,1165,1165,1165,1165,1165,1161,1157,1157,1157,1153,1153,1149,1149,1149,1149,1145,1145,1141,1141,1141,1141,1138,1138,1138,1138,1138,1138,1134,1134,1134,1130,1130,1126,1123,1123,1123,1119,1119,1119,1115,1115,1115,1115,1112,1108,1108,1105,1105,1105,1101,1101,1101,1097,1097,1097,1090,1090,1090,1087,1084,1084,1080,1080,1080,1080,1080,1070,1067,1067,1063,1063,1063,1063,0,0,0,0,0,0,0,0,0,0,0,0,0,0,0,0,0,0,0,0,0,0,0,0,0,0,0,0
0,0,0,0,0,0,0,0,0,0,0,0,0,0,0,1616,1616,1609,1609,1609,1601,1601,1601,1594,1594,1594,1594,1586,1586,1586,1586,1579,1579,1579,1572,1572,1572,1572,1572,1572,1564,1564,1564,1564,1564,1564,1557,1557,1550,1550,1550,1550,1550,1550,1550,1550,1557,1550,1543,1543,0,0,0,0,0,0,0,0,0,0,0,0,0,0,0,0,0,0,0,0,0,0,0,0,0,0,0,0,0,0,1458,1458,1464,1464,1464,1464,0,0,1489,1489,1496,1496,1509,1509,1503,1503,1509,1509,1509,1509,1509,1509,1516,1516,1523,1529,1523,1516,1516,1516,1516,1516,1516,1516,1523,1529,1536,1536,1543,1543,1550,1550,2078,2078,2078,2090,2090,2090,2078,2078,2065,2065,2053,2053,2053,2040,2040,2040,2040,2040,2040,2053,1536,1536,1536,1536,1536,1536,1536,1536,1536,1529,1529,1536,1536,1536,1543,1543,1543,1543,1550,1550,1550,1550,1557,1557,1564,1564,1564,1564,1572,1572,1572,1579,1586,1586,1594,1594,1601,1601,1601,1609,1609,1609,1609,1616,1616,1624,1624,1624,1624,1632,1632,1632,1632,1632,1632,1639,1639,1639,1647,1655,1655,1655,1655,1663,1663,1663,1671,1680,1680,1688,1688,1688,1696,1696,1696,1696,1696,1705,1705,1713,1713,1722,1722,1722,1722,1722,1722,1722,1731,1731,1731,1731,1731,1731,1731,1722,1722,1722,1722,1713,1713,1705,1705,1705,1705,1696,1696,1696,1696,1688,1688,1688,1680,1680,1671,1663,1663,1663,1655,1655,1655,1655,1655,1647,1647,1647,1647,1639,1639,1639,1639,1639,1639,0,0,0,1090,1090,1087,1084,1080,1080,1080,1077,1073,1073,1073,1070,1070,1070,1070,1073,1073,1070,1067,1063,1060,1060,1057,1054,1050,1050,1050,1050,1050,1050,1050,1050,1050,1047,1047,1044,1044,1041,1041,1038,1038,1038,1038,1034,1034,1034,1031,1031,1028,1028,1025,1025,1025,1022,1022,1022,1019,1019,1016,1013,1013,1013,1010,1010,1004,1004,1004,1001,1001,998,998,995,995,992,992,992,989,989,987,987,984,984,981,981,978,978,978,975,973,973,970,967,967,964,964,962,959,959,959,956,954,951,951,948,948,948,946,946,946,940,938,938,938,935,933,930,930,928,928,925,925,925,923,920,918,918,915,915,913,910,908,906,906,901,898,898,896,896,891,889,889,889,887,887,887,885,882,882,882,882,882,885,887,889,894,894,891,891,891,0,0,0,0,0,1219,1219,1219,1219,1219,1219,1219,1214,1214,1210,1210,1206,1206,1202,1202,1202,1197,1197,1197,1197,1197,1197,1197,1197,1202,1202,1206,1206,1206,1219,1219,1232,1236,1236,1236,1236,1232,1232,1232,1232,1232,1227,1227,1227,1227,1219,1219,1214,1214,1214,1214,1214,1210,1210,1210,1206,1206,1202,1202,1202,1202,1197,1197,1197,1197,1193,1193,1189,1189,1185,1185,1185,1181,1181,1181,1181,1181,1177,1177,1173,1169,1169,1165,1165,1169,1169,1165,1165,1165,1165,1165,1161,1161,1157,1157,1157,1153,1153,1153,1149,1149,1149,1145,1145,1141,1141,1141,1141,1138,1138,1138,1138,1138,1138,1134,1134,1134,1130,1126,1126,1123,1123,1123,1123,1119,1119,1119,1115,1115,1112,1112,1108,1108,1105,1105,1105,1105,1105,1101,1101,1097,1097,1090,1090,1090,1084,1077,1077,1077,1077,1067,1067,1063,1063,1067,1063,1060,1060,1060,1060,0,0,0,0,0,0,0,0,0,0,0,0,0,0,0,0,0,0,0,0,0,0,0,0,0,0,0,0
0,0,0,0,0,0,0,0,0,0,0,0,0,0,0,1624,1616,1609,1601,1601,1601,1601,1594,1594,1594,1594,1594,1586,1586,1586,1586,1579,1579,1579,1579,1579,1572,1572,1572,1572,1564,1564,1564,1564,1564,1564,1557,1557,1550,1550,1550,1550,1550,1550,1550,1543,1543,1543,1550,0,0,0,0,0,0,0,0,0,0,0,0,0,0,0,0,0,0,0,0,0,0,0,0,0,0,0,0,0,0,0,1458,1458,1464,1464,1464,1464,1470,1477,1483,1489,1496,1496,1503,1509,1503,1503,1509,1509,1509,1509,1509,1509,1516,1516,1523,1529,1523,1523,1516,1516,1516,1516,1516,1523,1529,1536,1536,1536,1536,1536,1550,1550,2090,2090,2090,2090,2090,2090,2078,2078,2065,2065,2053,2053,2053,2053,2040,2040,2040,2040,2040,2040,1536,1536,1536,1536,1536,1536,1536,1536,1536,1536,1536,1536,1536,1536,1536,1543,1543,1543,1550,1550,1550,1557,1557,1564,1564,1564,1564,1572,1572,1572,1572,1579,1586,1586,1594,1594,1594,1601,1601,1609,1609,1609,1616,1616,1616,1624,1624,1624,1632,1632,1632,1639,1639,1639,1639,1639,1647,1647,1647,1647,1647,1655,1655,1663,1663,1663,1671,1680,1680,1688,1688,1688,1696,1696,1696,1696,1696,1705,1705,1713,1713,1722,1722,1722,1722,1722,1731,1731,1731,1731,1731,1731,1731,1731,1731,1722,1722,1722,1722,1713,1713,1713,1713,1705,1705,1696,1696,1696,1696,1688,1688,1688,1680,1680,1671,1663,1663,1663,1655,1655,1655,1655,1655,1647,1647,1647,1647,1647,1647,1647,1647,1647,1647,1655,0,1090,1090,1090,1087,1084,1084,1080,1080,1077,1073,1073,1073,1070,1070,1070,1070,1070,1070,1070,1067,1063,1060,1060,1057,1054,1050,1050,1050,1050,1050,1050,1050,1050,1050,1047,1047,1044,1044,1041,1041,1038,1038,1038,1038,1034,1034,1034,1031,1031,1028,1028,1025,1025,1022,1022,1022,1022,1022,1019,1016,1016,1013,1013,1010,1010,1004,1004,1004,1001,1001,998,998,995,995,992,992,992,989,989,987,987,984,984,981,981,978,978,975,975,973,970,970,967,967,964,964,962,959,959,959,956,954,951,951,948,948,948,946,946,946,940,938,938,938,935,933,930,930,928,928,925,925,925,923,920,920,918,915,913,910,908,906,906,906,901,898,896,896,896,891,889,889,889,889,887,887,885,882,882,882,882,882,885,885,889,894,894,891,891,891,0,0,0,0,1219,1219,1219,1219,1219,1219,1219,1214,1214,1214,1210,1210,1206,1206,1202,1202,1202,1197,1197,1197,1197,1197,1197,1197,1197,1202,1206,1210,1210,1210,1219,1219,1232,1232,1236,1236,1236,1232,1232,1232,1232,1232,1227,1227,1223,1223,1219,1219,1219,1214,1214,1214,1210,1210,1210,1210,1202,1202,1202,1202,1202,1202,1197,1197,1197,1197,1193,1193,1189,1189,1185,1185,1185,1185,1181,1181,1181,1177,1177,1177,1173,1169,1169,1169,1169,1169,1169,1165,1165,1165,1165,1165,1161,1161,1157,1157,1157,1153,1153,1153,1149,1149,1149,1149,1145,1141,1141,1138,1138,1138,1138,1138,1138,1138,1138,1134,1134,1134,1126,1123,1123,1123,1123,1123,1119,1119,1119,1119,1115,1112,1112,1112,1108,1105,1105,1105,1105,1105,1101,1101,1097,1097,1090,1077,1070,1067,1067,1060,1060,1063,1063,1063,1060,1060,1060,1060,1057,1057,1054,1054,1054,0,0,0,0,0,0,0,0,0,0,0,0,0,0,0,0,0,0,0,0,0,0,0,0,0,0,0,0
0,0,0,0,0,0,0,0,0,0,0,0,0,0,0,1624,1616,1609,1601,1601,1601,1601,1594,1594,1594,1594,1594,1586,1586,1579,1579,1579,1579,1579,1579,1579,1572,1572,1572,1572,1564,1564,1572,1572,1564,1564,1564,1557,1557,1557,1557,1557,1550,1550,1550,1543,1543,1543,1543,0,0,0,0,0,0,0,0,0,0,0,0,0,0,0,0,0,0,0,0,0,0,0,0,0,0,0,0,0,0,0,0,1470,1470,1470,1464,1464,1470,1477,1483,1489,1496,1496,1503,1503,1503,1503,1509,1509,1509,1509,1509,1509,1516,1516,1523,1529,1523,1523,1516,1516,1516,1516,1516,1529,1529,1536,1536,1536,1536,1536,1543,1543,2090,2090,2090,2090,2090,2090,2078,2078,2065,2065,2053,2053,2053,2053,2040,2040,2040,2040,2040,2053,1543,1543,1543,1543,1536,1536,1536,1536,1536,1536,1536,1536,1536,1536,1536,1543,1543,1543,1550,1550,1557,1557,1557,1564,1564,1564,1564,1572,1572,1579,1579,1579,1586,1586,1594,1594,1594,1601,1601,1609,1609,1609,1616,1616,1624,1624,1624,1624,1632,1632,1639,1639,1639,1639,1639,1647,1655,1655,1647,1647,1647,1655,1655,1663,1663,1671,1671,1688,1688,1688,1688,1688,1696,1696,1696,1696,1705,1705,1705,1713,1713,1722,1722,1722,1722,1731,1731,1731,1731,1731,1731,1731,1731,1731,1731,1722,1722,1722,1722,1713,1713,1713,1713,1705,1705,1696,1696,1696,1696,1688,1688,1688,1688,1680,1671,1671,1663,1663,1655,1655,1655,1655,1655,1655,1655,1647,1647,1647,1647,1647,1647,1647,1655,1655,1084,1090,1090,1090,1087,1087,1084,1080,1080,1077,1073,1073,1073,1070,1070,1070,1070,1070,1070,1067,1063,1063,1060,1060,1060,1057,1050,1050,1050,1050,1050,1050,1050,1050,1050,1050,1047,1047,1044,1041,1041,1038,1038,1038,1038,1038,1038,1034,1031,1031,1028,1028,1025,1025,1022,1022,1022,1022,1022,1019,1016,1016,1016,1013,1010,1010,1004,1004,1004,1001,1001,998,998,995,995,992,992,992,989,989,987,987,984,981,981,978,978,975,975,975,973,970,970,967,967,964,964,962,959,959,959,956,954,954,951,948,948,948,946,946,943,940,938,938,938,935,933,930,928,928,928,925,925,925,923,920,920,918,915,913,910,908,906,903,903,901,898,896,896,896,891,889,889,889,887,887,887,885,885,882,882,882,882,885,885,891,894,894,894,891,889,889,889,0,1219,1219,1219,1219,1219,1219,1219,1219,1214,1214,1214,1210,1210,1206,1206,1202,1202,1202,1197,1197,1197,1197,1197,1197,1202,1202,1202,1206,1210,1210,1214,1219,1219,1223,1232,1236,1236,1236,1232,1232,1232,1227,1227,1227,1227,1223,1223,1219,1219,1214,1214,1214,1214,1210,1210,1210,1210,1202,1202,1202,1202,1202,1202,1197,1197,1197,1197,1193,1193,1189,1189,1189,1185,1185,1185,1181,1181,1181,1177,1177,1173,1173,1169,1169,1169,1169,1169,1169,1165,1165,1165,1165,1161,1161,1157,1153,1153,1153,1153,1149,1149,1149,1149,1149,1145,1145,1141,1138,1134,1134,1134,1134,1130,1130,1138,1134,1134,1130,1123,1123,1123,1119,1119,1119,1119,1119,1115,1112,1112,1112,1112,1112,1105,1105,1105,1105,1105,1101,1097,1097,1087,1087,1070,1070,1070,1067,1063,1063,1057,1057,1057,1057,1057,1057,1054,1054,1054,1054,1054,1054,1050,1050,0,0,0,0,0,0,0,0,0,0,0,0,0,0,0,0,0,0,0,0,0,0,0,0,0,0,0,0
0,0,0,0,0,0,0,0,0,0,0,0,0,0,0,1624,1609,1609,1601,1601,1601,1601,1601,1594,1594,1594,1594,1586,1586,1579,1579,1579,1579,1579,1579,1572,1572,1572,1572,1564,1564,1564,1564,1564,1564,1564,1564,1564,1564,1564,1557,1557,1550,1550,1550,1543,1543,1557,0,0,0,0,0,0,0,0,0,0,0,0,0,0,0,0,0,0,0,0,0,0,0,0,0,0,0,0,0,0,0,0,0,1470,1470,1470,1470,1470,1477,1483,1483,1496,1496,1503,1503,1503,1503,1503,1509,1509,1509,1509,1509,1509,1516,1523,1523,1523,1529,1529,1523,1523,1523,1523,1523,1529,1529,1536,1536,1536,1536,1536,1543,1543,2090,2090,2090,2090,2090,2090,2078,2078,2065,2065,2053,2053,2053,2053,2040,2040,2040,2040,2040,2053,1543,1543,1543,1543,1543,1536,1536,1536,1536,1536,1536,1536,1536,1536,1536,1543,1543,1543,1550,1550,1557,1557,1557,1564,1564,1564,1572,1572,1572,1572,1579,1579,1586,1586,1594,1594,1594,1601,1601,1609,1609,1616,1616,1624,1624,1624,1624,1632,1632,1632,1639,1639,1639,1639,1647,1647,1647,1647,1647,1647,1655,1655,1655,1663,1663,1671,1680,1688,1688,1688,1688,1696,1696,1696,1696,1696,1705,1705,1705,1713,1722,1722,1722,1722,1722,1731,1731,1731,1731,1731,1731,1731,1739,1731,1731,1722,1722,1722,1722,1722,1722,1713,1713,1713,1705,1696,1696,1696,1688,1688,1688,1688,1680,1680,1671,1671,1663,1663,1663,1663,1655,1655,1655,1655,1655,1655,1647,1647,1647,1647,1647,1655,1655,1655,1084,1084,1084,1087,1080,1080,1077,1077,1077,1077,1073,1073,1073,1070,1070,1070,1070,1067,1067,1067,1063,1063,1060,1060,1060,1060,1054,1054,1050,1050,1050,1050,1050,1050,1050,1050,1047,1047,1047,1041,1041,1041,1038,1038,1038,1038,1038,1034,1031,1031,1028,1025,1025,1025,1022,1022,1022,1022,1022,1019,1016,1016,1016,1013,1010,1010,1004,1004,1004,1001,1001,998,998,995,995,992,992,992,989,987,984,984,981,981,978,978,978,975,975,973,973,970,970,967,967,964,964,962,959,959,956,956,954,951,951,948,948,948,946,946,943,940,938,938,938,933,930,930,928,928,925,925,925,923,923,920,920,918,915,913,910,908,906,903,903,901,898,896,896,896,891,889,889,889,887,887,887,885,885,882,882,882,882,885,887,894,894,894,894,894,889,889,894,0,1223,0,1223,1223,1223,1219,1219,1219,1214,1214,1214,1210,1210,1210,1206,1202,1202,1202,1197,1197,1197,1197,1197,1197,1202,1202,1206,1206,1210,1214,1214,1219,1219,1219,1227,1232,1236,1236,1232,1232,1232,1227,1227,1227,1227,1223,1223,1219,1219,1214,1214,1210,1210,1210,1210,1206,1202,1202,1202,1202,1202,1202,1197,1197,1197,1197,1197,1193,1189,1189,1189,1189,1189,1185,1181,1181,1181,1177,1177,1173,1173,1173,1169,1169,1165,1165,1169,1165,1165,1161,1161,1161,1161,1157,1153,1153,1153,1153,1149,1149,1149,1149,1145,1145,1145,1138,1123,1123,1119,1108,1108,1108,1105,1101,1101,1105,1101,1101,1108,1115,1119,1119,1119,1119,1115,1115,1112,1090,1090,1094,1097,1101,1101,1094,1094,1094,1094,1090,1080,1080,1070,1067,1067,1067,1067,1063,1063,1060,1057,1057,1054,1054,1054,1054,1054,1050,1050,1047,1047,1050,1047,1047,0,0,0,0,0,0,0,0,0,0,0,0,0,0,0,0,0,0,0,0,0,0,0,0,0,0,0,0
0,0,0,0,0,0,0,0,0,0,0,0,0,0,0,1624,1609,1601,1601,1601,1601,1601,1601,1594,1594,1594,1594,1586,1586,1579,1579,1579,1579,1579,1579,1572,1572,1572,1572,1564,1564,1564,1564,1564,1564,1564,1564,1564,1564,1564,1557,1557,1557,1550,1550,1543,1543,1557,1564,0,0,0,0,0,0,0,0,0,1516,1516,1516,1516,0,0,0,0,0,0,0,0,0,0,0,0,0,0,0,0,0,0,0,0,1477,1477,1477,1477,1483,1489,1489,1503,1496,1496,1503,1509,1509,1509,1509,1509,1509,1509,1509,1509,1516,1523,1523,1523,1529,1529,1529,1523,1523,1523,1523,1529,1529,1536,1536,1536,1536,1536,1536,1536,1536,2103,2103,2090,2078,2078,2078,2078,2065,2065,2053,2053,2053,2053,2040,2040,2040,2040,2040,2040,1543,1543,1543,1543,1543,1536,1536,1536,1536,1536,1536,1536,1536,1536,1543,1543,1550,1550,1550,1550,1557,1557,1557,1564,1564,1572,1572,1572,1572,1572,1572,1579,1579,1586,1594,1594,1594,1601,1601,1601,1609,1616,1616,1624,1624,1624,1624,1632,1632,1632,1639,1639,1639,1639,1647,1647,1647,1647,1655,1655,1655,1655,1655,1663,1663,1680,1688,1688,1688,1688,1688,1696,1696,1696,1696,1696,1705,1705,1705,1713,1722,1722,1722,1722,1722,1731,1731,1731,1731,1731,1739,1739,1731,1731,1731,1731,1722,1722,1722,1722,1722,1722,1713,1713,1705,1696,1696,1696,1688,1688,1688,1688,1680,1680,1671,1671,1671,1663,1663,1663,1663,1655,1655,1655,1655,1655,1647,1647,1647,1639,1639,1655,1655,1655,1080,1080,1080,1087,1080,1080,1077,1077,1077,1077,1073,1073,1070,1070,1070,1070,1067,1067,1067,1063,1063,1063,1060,1060,1060,1057,1057,1057,1050,1050,1050,1050,1050,1050,1050,1050,1050,1047,1047,1044,1041,1041,1038,1038,1038,1038,1038,1034,1031,1028,1028,1025,1025,1025,1022,1022,1022,1022,1022,1019,1019,1016,1016,1013,1010,1007,1004,1004,1004,1001,1001,998,995,995,992,992,992,989,989,987,984,984,981,981,978,978,978,975,975,973,973,970,967,967,967,964,962,959,959,959,956,956,954,951,951,948,948,946,946,946,943,940,938,938,935,933,930,930,928,928,925,925,923,923,920,920,918,918,915,913,910,908,906,903,901,898,898,896,896,896,891,889,889,889,887,887,887,885,885,885,882,882,885,885,891,896,894,894,894,894,894,889,889,0,0,1223,1223,1223,1223,1219,1214,1214,1214,1214,1214,1210,1210,1210,1206,1206,1202,1202,1197,1197,1197,1197,1197,1202,1202,1206,1206,1210,1210,1214,1214,1214,1219,1219,1223,1227,1227,1232,1232,1232,1232,1232,1232,1227,1227,1223,1223,1219,1214,1214,1214,1210,1210,1202,1202,1202,1202,1202,1202,1197,1197,1197,1197,1197,1193,1193,1193,1173,1165,1161,1157,1157,1153,1153,1153,1157,1177,1177,1169,1169,1169,1169,1169,1169,1165,1165,1169,1165,1165,1161,1161,1161,1157,1149,1149,1149,1149,1149,1149,1145,1145,1145,1141,1138,1134,1126,1119,1119,1112,1108,1108,1108,1101,1097,1097,1097,1094,1094,1094,1097,1101,1115,1108,1094,1094,1094,1090,1090,1087,1087,1084,1084,1084,1087,1084,1084,1080,1077,1070,1070,1070,1067,1067,1067,1063,1063,1060,1060,1057,1057,1054,1054,1054,1054,1050,1047,1047,1044,1044,1047,1047,1047,0,0,0,0,0,0,0,0,0,0,0,0,0,0,0,0,0,0,0,0,0,0,0,0,0,0,0,0
0,0,0,0,0,0,0,0,0,0,0,0,0,0,0,1624,1609,1601,1601,1601,1601,1601,1601,1594,1594,1594,1594,1594,1586,1579,1579,1579,1579,1579,1579,1572,1572,1579,1572,1572,1564,1564,1572,1572,1564,1564,1564,1564,1564,1564,1557,1557,1550,1550,1550,1550,1550,1557,1557,1557,0,0,0,0,0,0,0,0,1516,1516,1516,1516,0,0,0,0,0,0,0,0,0,0,0,0,0,0,0,0,0,0,0,0,0,0,0,1503,1503,1503,1503,1503,1496,1496,1503,1509,1509,1509,1509,1509,1509,1509,1509,1509,1516,1523,1523,1529,1529,1529,1529,1529,1529,1529,1529,1536,1536,1536,1536,1536,1529,1529,1529,1536,2103,2103,2103,2090,2078,2078,2078,2090,2065,2065,2065,2053,2053,2053,2040,2040,2040,2040,2040,2040,1543,1543,1543,1543,1543,1536,1536,1536,1536,1536,1536,1536,1543,1543,1543,1543,1550,1550,1550,1550,1557,1557,1557,1564,1572,1572,1572,1572,1572,1572,1572,1579,1579,1586,1594,1594,1594,1601,1601,1601,1609,1609,1616,1624,1624,1624,1632,1632,1632,1632,1639,1639,1639,1647,1647,1647,1647,1647,1655,1655,1655,1655,1655,1663,1688,1688,1688,1688,1688,1688,1688,1696,1696,1696,1696,1696,1705,1705,1705,1713,1722,1722,1722,1722,1731,1731,1731,1731,1731,1731,1739,1739,1731,1731,1731,1731,1722,1722,1722,1722,1722,1713,1705,1705,1705,1696,1696,1696,1688,1688,1688,1688,1688,1680,1680,1680,1671,1671,1671,1663,1663,1655,1655,1655,1655,1655,1647,1647,1647,1639,1639,1647,1655,1655,0,1080,1080,1084,1077,1077,1077,1077,1077,1077,1073,1073,1070,1070,1070,1070,1067,1067,1063,1063,1060,1060,1060,1060,1060,1057,1057,1057,1050,1050,1050,1050,1050,1050,1050,1050,1047,1047,1044,1044,1041,1041,1038,1038,1038,1038,1038,1034,1031,1028,1028,1025,1025,1025,1022,1022,1022,1022,1022,1019,1019,1016,1016,1013,1010,1007,1004,1004,1001,1001,1001,998,995,995,992,992,992,989,989,987,984,984,984,981,978,978,975,975,973,973,973,970,967,967,964,964,962,959,956,956,956,956,954,951,948,948,948,946,946,946,943,940,938,938,935,933,930,930,928,928,925,925,923,923,920,920,918,918,915,913,910,908,906,903,901,898,898,896,896,896,891,889,889,887,887,887,887,885,885,885,882,882,885,885,891,896,894,894,894,894,894,889,889,889,0,1227,1227,1227,1223,1219,1214,1214,1214,1214,1214,1210,1210,1210,1206,1206,1202,1202,1202,1202,1202,1202,1202,1202,1202,1206,1210,1210,1210,1214,1214,1210,1210,1210,1214,1219,1223,1227,1232,1232,1232,1232,1232,1227,1227,1219,1219,1210,1210,1206,1206,1206,1206,1193,1193,1197,1197,1197,1197,1197,1197,1197,1193,1193,1193,1165,1165,1157,1157,1157,1153,1153,1153,1153,1153,1153,1153,1153,1157,1157,1165,1165,1165,1165,1165,1165,1165,1161,1141,1138,1134,1134,1138,1141,1141,1123,1123,1141,1141,1141,1141,1138,1130,1123,1123,1119,1115,1112,1108,1108,1105,1105,1101,1097,1097,1097,1094,1094,1094,1097,1094,1094,1094,1094,1090,1090,1084,1084,1084,1084,1080,1080,1080,1080,1080,1077,1077,1077,1070,1070,1067,1063,1063,1063,1063,1063,1060,1060,1057,1057,1054,1054,1054,1050,1050,1047,1044,1041,1041,1044,1047,1047,0,0,0,0,0,0,0,0,0,0,0,0,0,0,0,0,0,0,0,0,0,0,0,0,0,0,0,0
0,0,0,0,0,0,0,0,0,0,0,0,0,0,0,1624,1609,1601,1601,1601,1601,1601,1601,1601,1601,1594,1594,1594,1594,1586,1586,1586,1586,1579,1579,1572,1572,1579,1579,1572,1572,1572,1572,1572,1572,1564,1564,1572,1572,1564,1557,1557,1550,1550,1550,1550,1550,1550,1557,1557,1557,1557,1557,1557,1543,1543,1536,1536,1523,1523,1516,1516,1529,1529,1529,0,0,1550,1550,1550,1550,1550,1543,1543,1543,0,0,0,0,0,0,0,0,0,0,1509,1503,1503,1503,1503,1503,1503,1503,1509,1509,1509,1509,1509,1509,1509,1509,1509,1516,1523,1523,1529,1536,1536,1536,1529,1529,1529,1529,1536,1536,1536,1536,1536,1529,1529,1529,1529,2103,2103,2103,2090,2078,2078,2090,2090,2078,2065,2065,2065,2053,2053,2053,2040,2040,2040,2040,2040,1543,1543,1543,1543,1543,1536,1536,1536,1536,1536,1536,1536,1543,1543,1543,1550,1550,1550,1557,1557,1557,1564,1564,1564,1572,1572,1572,1572,1572,1572,1579,1579,1579,1594,1594,1594,1594,1601,1601,1601,1609,1609,1616,1624,1624,1624,1632,1632,1632,1632,1632,1639,1639,1639,1647,1647,1647,1647,1655,1655,1655,1655,1655,1671,1688,1688,1688,1688,1688,1688,1688,1696,1696,1696,1696,1696,1705,1705,1713,1713,1722,1722,1722,1731,1731,1731,1731,1731,1739,1739,1739,1731,1731,1731,1731,1722,1722,1722,1722,1713,1713,1713,1705,1705,1705,1696,1696,1688,1688,1688,1688,1688,1688,1680,1680,1680,1671,1671,1671,1663,1663,1663,1655,1655,1655,1647,1647,1647,1639,1639,1639,1647,1655,1655,0,1080,1080,1084,1077,1077,1077,1077,1077,1077,1073,1073,1070,1070,1070,1070,1067,1067,1063,1063,1060,1060,1060,1060,1060,1057,1057,1057,1054,1054,1054,1050,1050,1050,1050,1047,1047,1047,1044,1044,1041,1041,1038,1038,1038,1038,1038,1034,1031,1028,1028,1025,1025,1025,1022,1022,1022,1022,1019,1019,1019,1016,1016,1013,1007,1004,1004,1001,1001,1001,1001,995,995,995,992,992,989,989,987,987,984,984,981,981,978,978,975,975,973,973,973,970,967,967,964,962,962,959,956,956,956,956,954,951,948,948,948,946,946,943,940,938,938,938,935,933,930,930,928,928,925,925,923,923,920,920,918,918,915,913,910,908,906,903,903,898,898,896,896,896,891,889,889,887,887,887,887,885,885,885,885,885,885,887,889,894,894,894,894,894,894,894,894,894,0,1227,1227,1227,1227,1223,1219,1214,1214,1214,1214,1214,1210,1210,1210,1206,1206,1202,1202,1202,1202,1202,1202,1202,1206,1210,1210,1210,1214,1214,1214,1210,1210,1210,1210,1214,1214,1219,1227,1227,1227,1227,1227,1223,1219,1214,1210,1197,1193,1189,1189,1189,1189,1185,1185,1185,1185,1185,1189,1193,1193,1193,1185,1177,1169,1161,1157,1157,1153,1153,1153,1153,1153,1153,1149,1149,1149,1149,1149,1153,1153,1161,1157,1153,1153,1153,1149,1141,1138,1134,1130,1126,1126,1123,1123,1123,1123,1123,1123,1123,1123,1123,1123,1119,1119,1112,1112,1108,1108,1108,1105,1105,1101,1097,1097,1097,1094,1094,1094,1094,1094,1094,1090,1090,1090,1087,1084,1080,1080,1080,1080,1080,1080,1080,1077,1077,1073,1073,1070,1067,1067,1063,1063,1063,1063,1063,1060,1060,1057,1057,1054,1054,1054,1050,1050,1050,1044,1041,1041,1044,1047,1047,0,0,0,0,0,0,0,0,0,0,0,0,0,0,0,0,0,0,0,0,0,0,0,0,0,0,0,0
0,0,0,0,0,0,0,0,0,0,0,0,0,0,0,1609,1601,1601,1601,1601,1601,1601,1594,1594,1594,1601,1601,1594,1594,1594,1586,1586,1586,1586,1586,1579,1579,1579,1579,1572,1572,1572,1572,1572,1572,1564,1564,1572,1572,1564,1557,1557,1550,1550,1550,1550,1550,1550,1557,1557,1557,1557,1550,1550,1543,1543,1536,1536,1536,1536,1529,1529,1529,1529,1529,0,1550,1550,1550,1543,1543,1550,1543,1543,1536,1536,1543,1543,0,0,0,0,0,0,0,1509,1503,1503,1503,1503,1503,1509,1509,1509,1509,1516,1509,1509,1509,1509,1509,1509,1516,1516,1523,1529,1529,1536,1536,1529,1529,1529,1529,1536,1536,1536,1536,1536,1536,1536,1536,1536,2103,2103,2103,2090,2090,2090,2090,2090,2078,2065,2065,2065,2053,2053,2053,2040,2040,2040,2040,2053,1543,1543,1543,1543,1543,1543,1536,1536,1536,1543,1543,1543,1543,1543,1543,1550,1550,1550,1550,1557,1557,1564,1564,1564,1564,1572,1572,1572,1572,1579,1579,1586,1586,1594,1594,1594,1594,1601,1601,1601,1609,1609,1624,1624,1624,1624,1632,1632,1632,1632,1632,1639,1639,1639,1647,1647,1655,1655,1655,1655,1655,1663,1663,1671,1688,1688,1688,1688,1688,1688,1688,1696,1696,1696,1696,1696,1705,1705,1713,1713,1722,1722,1722,1731,1731,1731,1731,1731,1739,1739,1739,1731,1731,1731,1731,1722,1722,1722,1722,1713,1713,1713,1705,1705,1696,1696,1696,1688,1688,1688,1688,1688,1688,1680,1680,1680,1671,1671,1671,1663,1663,1663,1663,1655,1655,1647,1639,1639,1632,1632,1632,1647,1647,1077,0,1077,1077,1080,1080,1080,1077,1077,1077,1073,1073,1073,1070,1070,1070,1067,1067,1067,1063,1063,1060,1060,1060,1060,1060,1060,1060,1057,1057,1054,1054,1054,1050,1050,1050,1047,1047,1047,1044,1044,1041,1041,1038,1038,1038,1038,1038,1034,1031,1028,1028,1025,1025,1025,1022,1022,1019,1019,1019,1016,1016,1016,1016,1013,1007,1004,1004,1001,1001,1001,1001,995,995,995,992,992,989,989,987,987,984,984,981,981,978,978,978,975,975,973,973,970,967,967,964,962,962,959,956,956,956,956,954,951,948,948,948,946,946,943,940,938,938,938,935,933,930,930,928,928,925,925,923,920,920,918,918,915,915,913,910,908,906,903,903,898,898,896,896,896,894,891,889,889,887,887,887,885,885,885,885,885,885,887,889,894,894,894,894,894,894,894,896,896,1250,1232,1232,1232,1227,1227,1223,1223,1219,1219,1214,1214,1214,1214,1210,1210,1206,1206,1206,1206,1206,1206,1206,1206,1210,1210,1210,1210,1214,1210,1210,1206,1206,1206,1202,1202,1202,1202,1206,1210,1219,1219,1223,1219,1214,1210,1197,1193,1185,1185,1185,1185,1181,1181,1177,1177,1177,1177,1177,1177,1181,1181,1177,1169,1157,1157,1157,1157,1153,1153,1153,1153,1153,1149,1145,1145,1145,1145,1145,1149,1149,1149,1149,1145,1145,1141,1138,1138,1134,1130,1130,1126,1126,1123,1123,1123,1119,1119,1119,1119,1119,1123,1119,1115,1115,1112,1112,1108,1108,1105,1105,1105,1101,1097,1097,1097,1094,1094,1094,1094,1094,1090,1090,1090,1087,1087,1084,1080,1080,1080,1080,1080,1080,1080,1077,1077,1073,1070,1070,1067,1067,1063,1063,1063,1063,1060,1060,1060,1057,1057,1054,1054,1054,1050,1050,1050,1047,1044,1044,1044,1044,0,0,0,0,0,0,0,0,0,0,0,0,0,0,0,0,0,0,0,0,0,0,0,0,0,0,0,0,0
0,0,0,0,0,0,0,0,0,0,0,0,0,0,1609,1601,1601,1594,1594,1594,1594,1594,1594,1594,1594,1601,1601,1594,1594,1594,1594,1594,1586,1586,1579,1579,1579,1579,1579,1572,1572,1572,1572,1572,1572,1572,1572,1572,1564,1564,1557,1557,1550,1550,1550,1550,1550,1557,1557,1564,1557,1557,1550,1550,1543,1543,1536,1536,1536,1536,1529,1529,1536,1536,1536,1543,1550,1543,1543,1543,1543,1550,1543,1543,1536,1536,1543,1543,1543,0,0,0,0,0,1509,1509,1509,1509,1509,1509,1509,1509,1509,1509,1509,1516,1516,1509,1509,1509,1509,1509,1516,1516,1523,1529,1529,1536,1529,1529,1529,1529,1529,1529,1536,1536,1536,1536,1536,1536,1536,1543,2116,2116,2103,2090,2090,2090,2090,2090,2078,2065,2065,2065,2065,2053,2053,2053,2053,2053,2053,2053,2053,1543,1543,1543,1543,1543,1536,1536,1536,1543,1543,1543,1543,1543,1543,1550,1550,1550,1550,1557,1557,1564,1564,1564,1564,1572,1572,1572,1579,1579,1586,1586,1594,1594,1594,1594,1601,1601,1601,1609,1609,1609,1624,1624,1624,1624,1632,1632,1632,1632,1632,1639,1639,1647,1647,1655,1655,1655,1663,1655,1655,1663,1663,1671,1688,1688,1688,1688,1688,1688,1688,1696,1696,1696,1705,1705,1705,1705,1713,1713,1722,1722,1722,1722,1731,1731,1739,1739,1739,1739,1739,1739,1731,1731,1731,1722,1722,1722,1722,1722,1713,1705,1705,1705,1696,1696,1696,1688,1688,1688,1688,1688,1688,1680,1680,1680,1671,1671,1671,1663,1663,1663,1663,1655,1655,1647,1639,1632,1632,1632,1632,1632,1632,0,0,1077,1077,1080,1080,1077,1077,1077,1073,1073,1073,1073,1070,1070,1070,1067,1067,1067,1063,1063,1060,1060,1060,1060,1060,1060,1060,1057,1057,1057,1057,1054,1050,1050,1050,1047,1047,1047,1044,1044,1041,1041,1038,1038,1038,1034,1034,1034,1034,1028,1028,1025,1025,1025,1022,1022,1019,1019,1019,1016,1016,1016,1013,1013,1007,1004,1004,1001,1001,998,998,995,995,992,992,992,989,989,987,987,984,984,981,981,978,978,978,975,973,973,970,970,967,967,964,962,959,959,956,956,956,956,954,951,948,946,946,946,943,938,938,938,938,938,935,933,930,928,928,928,925,925,923,920,920,918,918,915,913,913,908,908,906,903,903,898,898,896,896,896,894,891,889,889,887,887,887,885,885,885,887,887,887,887,889,894,894,894,896,896,896,896,898,898,1250,1250,1236,1236,1232,1232,1227,1227,1223,1219,1219,1219,1219,1219,1219,1214,1210,1210,1214,1210,1210,1210,1210,1210,1210,1210,1210,1210,1210,1210,1210,1206,1202,1202,1202,1202,1202,1202,1202,1202,1202,1202,1206,1202,1185,1185,1185,1185,1181,1181,1181,1181,1181,1177,1177,1173,1173,1169,1169,1173,1173,1173,1169,1165,1157,1157,1157,1153,1153,1153,1149,1149,1149,1149,1145,1145,1141,1141,1141,1141,1141,1141,1141,1141,1141,1138,1134,1134,1134,1130,1126,1126,1123,1123,1123,1123,1119,1119,1119,1115,1115,1115,1115,1112,1112,1112,1108,1108,1108,1105,1105,1105,1101,1097,1097,1097,1094,1094,1094,1094,1090,1090,1090,1090,1087,1087,1084,1084,1084,1084,1080,1080,1080,1080,1077,1077,1073,1070,1070,1067,1067,1063,1063,1063,1063,1060,1060,1060,1057,1057,1054,1054,1054,1050,1050,1050,1047,1044,1044,1044,1044,0,0,0,0,0,0,0,0,0,0,0,0,0,0,0,0,0,0,0,0,0,0,0,0,0,0,0,0,0
0,0,0,0,0,0,0,0,0,0,0,0,0,0,1609,1601,1601,1594,1594,1594,1594,1594,1594,1594,1601,1601,1601,1601,1594,1594,1594,1594,1586,1586,1579,1579,1579,1579,1579,1579,1572,1572,1572,1572,1572,1572,1572,1572,1564,1564,1557,1557,1550,1550,1550,1550,1550,1557,1564,1564,1564,1564,1564,1550,1550,1543,1543,1543,1543,1543,1536,1536,1536,1543,1543,1543,1543,1543,1543,1543,1543,1550,1543,1543,1543,1543,1543,1543,1536,1536,0,0,0,0,0,1509,1509,1509,1509,1509,1509,1509,1509,1516,1516,1516,1516,1516,1516,1516,1516,1516,1516,1523,1523,1523,1529,1529,1529,1529,1529,1529,1529,1529,1536,1536,1543,1536,1536,1543,1536,1536,1536,2103,2103,2103,2090,2090,2090,2090,2078,2078,2065,2065,2065,2065,2053,2053,2053,2053,2065,2065,1543,1543,1543,1543,1543,1543,1543,1536,1536,1543,1543,1543,1543,1550,1550,1550,1550,1550,1557,1557,1557,1564,1564,1564,1564,1572,1572,1572,1579,1579,1586,1594,1594,1594,1601,1601,1601,1601,1601,1609,1609,1609,1624,1624,1624,1624,1632,1632,1632,1632,1639,1639,1639,1647,1655,1655,1655,1655,1663,1663,1663,1663,1663,1680,1688,1688,1688,1688,1688,1688,1688,1696,1696,1696,1705,1705,1705,1713,1713,1713,1722,1722,1722,1722,1731,1731,1739,1739,1739,1739,1739,1739,1731,1731,1731,1731,1722,1722,1722,1722,1713,1705,1705,1705,1696,1696,1696,1688,1688,1688,1680,1680,1680,1680,1671,1671,1671,1671,1671,1663,1663,1663,1663,1655,1655,1647,1639,1632,1632,1632,1632,1632,0,0,0,1077,1077,1080,1080,1077,1077,1077,1073,1073,1073,1073,1070,1070,1070,1070,1067,1067,1063,1060,1060,1060,1060,1060,1060,1060,1060,1057,1057,1057,1057,1054,1050,1050,1050,1047,1047,1044,1044,1044,1041,1041,1038,1038,1038,1034,1034,1034,1028,1028,1028,1025,1025,1025,1025,1022,1022,1019,1019,1016,1016,1016,1013,1013,1007,1004,1004,1001,1001,998,998,995,995,992,992,992,989,989,987,987,984,984,981,981,978,978,978,975,973,973,970,970,967,967,962,962,959,959,956,956,956,956,954,951,948,946,946,946,943,938,938,938,938,938,935,933,930,928,928,925,925,925,923,920,920,918,918,915,913,910,908,908,906,903,903,901,898,896,896,896,894,891,889,889,887,887,887,885,885,885,887,887,887,889,889,894,894,896,896,898,901,901,901,1250,1250,1250,1241,1236,1236,1236,1232,1232,1232,1227,1223,1219,1219,1223,1219,1219,1219,1219,1214,1214,1214,1214,1214,1214,1214,1210,1210,1210,1210,1210,1210,1206,1202,1202,1202,1202,1202,1197,1197,1197,1197,1197,1197,1189,1185,1185,1181,1181,1181,1181,1181,1181,1177,1177,1173,1173,1173,1169,1169,1169,1169,1165,1165,1165,1157,1157,1153,1153,1153,1153,1149,1149,1149,1145,1145,1145,1141,1141,1141,1141,1141,1141,1138,1138,1138,1138,1134,1134,1134,1130,1126,1126,1123,1123,1123,1123,1119,1119,1119,1115,1115,1115,1115,1112,1112,1108,1108,1108,1105,1105,1105,1105,1101,1097,1097,1097,1094,1094,1094,1094,1090,1090,1090,1090,1090,1087,1084,1084,1084,1084,1080,1080,1080,1077,1077,1077,1073,1073,1070,1070,1067,1067,1067,1063,1063,1063,1060,1057,1057,1057,1054,1054,1050,1050,1050,1050,1047,1044,1041,1041,1044,0,0,0,0,0,0,0,0,0,0,0,0,0,0,0,0,0,0,0,0,0,0,0,0,0,0,0,0,0
0,0,0,0,0,0,0,0,0,0,0,0,0,0,1609,1601,1601,1594,1594,1594,1601,1601,1594,1594,1594,1601,1594,1594,1594,1594,1594,1594,1586,1586,1579,1579,1579,1579,1579,1579,1579,1579,1572,1572,1572,1572,1572,1564,1564,1564,1557,1557,1550,1550,1550,1557,1557,1557,1557,1564,1564,1564,1564,1550,1550,1550,1543,1543,1543,1543,1543,1543,1543,1543,1543,1543,1543,1543,1543,1543,1543,1550,1543,1543,1543,1543,1536,1536,1536,1536,1536,1536,0,0,0,1516,1509,1509,1509,1516,1516,1516,1516,1516,1523,1523,1523,1516,1516,1516,1516,1516,1523,1523,1523,1523,1529,1529,1529,1529,1529,1529,1529,1529,1536,1536,1536,1543,1543,1536,1536,1536,2129,2129,2116,2103,2103,2103,2103,2090,2090,2078,2065,2065,2065,2065,2053,2053,2053,2053,2065,2065,1543,1543,1543,1543,1543,1543,1543,1543,1543,1543,1543,1543,1543,1543,1550,1550,1557,1557,1557,1557,1557,1564,1564,1564,1564,1564,1572,1572,1579,1586,1586,1594,1594,1594,1601,1601,1601,1601,1609,1609,1609,1616,1624,1624,1624,1624,1632,1632,1632,1632,1632,1639,1639,1647,1655,1655,1655,1655,1663,1663,1663,1663,1663,1680,1680,1680,1688,1688,1688,1688,1688,1696,1696,1705,1705,1705,1713,1713,1713,1713,1722,1722,1722,1731,1731,1731,1739,1739,1739,1739,1739,1739,1731,1731,1731,1731,1722,1722,1722,1722,1713,1705,1705,1696,1696,1696,1688,1688,1680,1680,1680,1680,1680,1680,1671,1671,1671,1671,1663,1663,1663,1655,1655,1655,1647,1639,1639,1632,1632,1632,0,1632,0,0,0,1080,1080,1080,1080,1077,1077,1077,1073,1073,1073,1073,1070,1070,1070,1070,1067,1067,1063,1060,1060,1060,1060,1060,1060,1060,1060,1057,1057,1057,1057,1054,1050,1050,1050,1047,1047,1044,1044,1044,1041,1041,1038,1038,1038,1034,1034,1034,1028,1028,1028,1028,1028,1025,1025,1022,1022,1019,1016,1016,1016,1016,1013,1010,1007,1004,1004,1001,1001,1001,998,995,995,992,992,992,989,989,987,987,984,984,981,981,978,978,978,975,973,973,970,970,967,967,962,962,959,959,956,956,956,956,954,951,948,946,946,946,943,943,940,938,938,938,935,933,930,930,928,925,925,925,923,920,918,918,915,915,913,910,908,908,906,903,903,901,898,896,896,894,891,891,889,889,889,887,887,887,887,887,887,887,887,889,889,891,894,896,898,898,901,901,1250,1250,1250,1250,1250,1245,1236,1236,1236,1236,1236,1232,1227,1223,1223,1227,1223,1223,1223,1219,1219,1219,1219,1214,1214,1214,1214,1210,1210,1210,1210,1210,1210,1206,1202,1202,1202,1202,1197,1197,1197,1197,1197,1197,1189,1185,1185,1185,1181,1181,1177,1177,1181,1177,1177,1177,1173,1173,1169,1169,1169,1169,1165,1165,1165,1161,1157,1157,1153,1153,1153,1153,1149,1149,1149,1145,1145,1145,1145,1141,1141,1141,1141,1138,1138,1138,1138,1134,1134,1134,1134,1134,1130,1126,1126,1123,1123,1123,1119,1119,1119,1115,1115,1115,1112,1112,1112,1108,1108,1108,1105,1105,1105,1105,1101,1097,1097,1094,1094,1094,1094,1090,1090,1090,1090,1090,1090,1087,1087,1087,1084,1084,1080,1080,1077,1077,1077,1073,1073,1073,1070,1070,1067,1067,1067,1063,1063,1060,1060,1057,1057,1057,1054,1054,1050,1050,1050,1050,1047,1044,1041,1041,1044,0,0,0,0,0,0,0,0,0,0,0,0,0,0,0,0,0,0,0,0,0,0,0,0,0,0,0,0,0
0,0,0,0,0,0,0,0,0,0,0,0,0,0,1609,1601,1601,1594,1594,1594,1601,1601,1594,1594,1594,1601,1594,1594,1594,1594,1594,1594,1586,1586,1579,1579,1579,1579,1579,1579,1579,1579,1572,1572,1572,1572,1572,1564,1564,1564,1557,1557,1550,1550,1550,1557,1557,1557,1557,1564,1564,1564,1564,1550,1550,1550,1543,1543,1543,1543,1543,1543,1543,1543,1550,1543,1543,1543,1543,1550,1550,1550,1550,1543,1543,1543,1536,1536,1536,1536,1529,1523,1523,1523,1516,1516,1516,1516,1516,1516,1516,1516,1516,1523,1523,1523,1523,1516,1516,1523,1523,1523,1523,1523,1523,1523,1529,1529,1529,1529,1529,1536,1536,1536,1536,1536,1536,1543,1579,1579,1586,2156,2156,2129,2116,2103,2103,2103,2090,2090,2090,2078,2065,2065,2065,2065,2053,2053,2053,2053,2065,2065,2065,1543,1543,1543,1543,1543,1543,1543,1543,1543,1543,1543,1543,1543,1550,1550,1557,1557,1557,1557,1557,1564,1564,1564,1564,1564,1572,1572,1579,1586,1586,1594,1594,1594,1601,1601,1601,1601,1609,1609,1609,1616,1624,1624,1624,1624,1632,1632,1632,1632,1632,1639,1639,1647,1655,1655,1655,1655,1663,1663,1663,1663,1671,1671,1680,1680,1688,1688,1688,1688,1688,1696,1696,1705,1705,1705,1713,1713,1713,1722,1722,1722,1731,1731,1731,1731,1739,1739,1739,1739,1739,1739,1731,1731,1731,1731,1722,1722,1722,1722,1713,1705,1696,1696,1696,1696,1688,1688,1680,1680,1680,1680,1680,1680,1671,1671,1671,1671,1663,1663,1663,1655,1655,1655,1647,1639,1639,1632,1624,1624,0,0,0,0,0,1080,1080,1080,1080,1077,1077,1077,1073,1073,1073,1073,1070,1070,1070,1067,1067,1067,1063,1060,1060,1060,1060,1060,1060,1060,1060,1057,1057,1057,1057,1054,1054,1050,1050,1047,1047,1044,1044,1041,1041,1041,1038,1038,1038,1034,1034,1034,1028,1028,1028,1025,1025,1025,1025,1022,1022,1019,1016,1016,1016,1016,1013,1010,1007,1004,1004,1001,1001,1001,998,995,995,992,992,992,989,989,987,987,984,984,981,981,978,978,978,975,975,970,970,970,967,967,964,962,962,959,959,956,956,956,954,951,948,946,946,946,943,943,940,938,938,938,935,933,930,930,928,928,925,925,923,920,918,918,915,913,913,910,908,906,906,903,901,898,898,896,896,894,891,891,889,889,889,887,887,887,887,887,887,887,889,889,889,891,894,896,898,901,901,1250,1250,1250,1250,1250,1250,1250,1245,1245,1245,1245,1241,1236,1232,1232,1232,1227,1227,1227,1223,1223,1219,1219,1219,1214,1214,1214,1214,1214,1214,1210,1210,1210,1210,1206,1202,1202,1202,1197,1197,1197,1197,1197,1193,1193,1189,1185,1185,1181,1181,1177,1177,1177,1177,1177,1177,1177,1173,1173,1169,1169,1169,1169,1165,1165,1165,1161,1157,1157,1157,1153,1153,1153,1149,1149,1149,1149,1145,1145,1145,1141,1141,1141,1141,1138,1138,1138,1138,1134,1134,1134,1134,1134,1130,1130,1126,1126,1123,1123,1119,1119,1115,1115,1115,1115,1112,1108,1108,1108,1105,1105,1105,1105,1105,1105,1101,1097,1097,1094,1094,1094,1094,1090,1090,1090,1090,1090,1090,1090,1087,1087,1084,1084,1080,1080,1077,1077,1077,1073,1073,1073,1070,1070,1067,1067,1067,1063,1063,1060,1060,1060,1057,1057,1054,1050,1050,1050,1050,1047,1044,1041,1041,1041,1044,0,0,0,0,0,0,0,0,0,0,0,0,0,0,0,0,0,0,0,0,0,0,0,0,0,0,0,0,0
0,0,0,0,0,0,0,0,0,0,0,0,0,0,1609,1601,1601,1594,1594,1601,1601,1601,1601,1601,1601,1601,1594,1594,1594,1594,1594,1594,1594,1586,1586,1586,1586,1579,1579,1586,1586,1579,1579,1572,1572,1572,1572,1564,1564,1564,1557,1557,1557,1550,1550,1557,1557,1557,1557,1564,1564,1564,1564,1550,1550,1550,1550,1550,1550,1550,1550,1550,1550,1550,1550,1550,1543,1543,1543,1550,1550,1550,1550,1543,1543,1543,1536,1536,1536,1536,1529,1523,1523,1523,1516,1516,1523,1523,1523,1523,1523,1523,1523,1523,1523,1523,1523,1516,1516,1523,1523,1523,1523,1523,1523,1523,1529,1529,1529,1529,1529,1536,1536,1536,1543,1543,1543,1543,1564,1572,1572,2156,2156,2129,2116,2103,2103,2103,2090,2090,2090,2078,2065,2065,2065,2065,2053,2053,2053,2053,2065,2065,2065,1543,1543,1543,1543,1543,1543,1543,1543,1543,1543,1543,1543,1550,1550,1550,1557,1557,1557,1557,1564,1564,1564,1564,1564,1572,1572,1572,1579,1586,1594,1594,1601,1601,1601,1601,1601,1601,1609,1609,1616,1616,1624,1624,1632,1632,1632,1632,1632,1632,1632,1639,1639,1647,1655,1655,1655,1655,1663,1663,1663,1663,1671,1671,1680,1680,1688,1688,1688,1688,1696,1696,1696,1705,1713,1713,1713,1722,1722,1722,1722,1722,1731,1731,1731,1739,1739,1739,1739,1739,1739,1739,1731,1731,1731,1731,1722,1722,1722,1722,1713,1705,1696,1696,1696,1696,1696,1688,1688,1688,1688,1688,1688,1680,1680,1680,1671,1671,1663,1663,1663,1655,1655,1655,1647,1639,1639,1632,1624,1624,0,0,0,0,0,1084,1084,1080,1080,1077,1077,1077,1073,1073,1073,1073,1070,1070,1070,1067,1067,1067,1063,1060,1060,1063,1060,1060,1060,1060,1060,1057,1057,1057,1057,1054,1054,1050,1050,1047,1044,1044,1044,1041,1041,1041,1038,1038,1038,1038,1034,1034,1034,1028,1028,1025,1025,1025,1025,1022,1022,1019,1016,1016,1016,1016,1013,1010,1007,1004,1004,1004,1001,1001,998,995,995,992,992,992,989,989,989,987,984,984,981,981,981,978,978,975,975,970,970,970,967,967,964,962,962,959,959,956,956,956,954,948,948,948,946,946,943,943,943,940,938,938,935,933,930,928,928,925,925,925,923,920,918,918,915,913,910,910,908,906,906,903,901,898,898,896,896,891,891,889,889,889,889,887,887,887,887,887,887,887,889,889,889,891,894,896,898,901,901,0,1250,1250,1250,1250,1250,1250,1250,1245,1245,1245,1241,1236,1236,1236,1236,1232,1232,1227,1227,1227,1223,1223,1219,1219,1219,1214,1214,1214,1214,1210,1210,1210,1210,1202,1202,1202,1197,1197,1197,1197,1197,1193,1193,1189,1189,1185,1185,1181,1181,1177,1177,1177,1177,1177,1173,1173,1173,1173,1173,1169,1169,1169,1165,1165,1165,1161,1157,1157,1157,1157,1153,1153,1153,1153,1153,1149,1149,1145,1145,1145,1141,1141,1141,1138,1138,1138,1138,1134,1134,1134,1134,1134,1130,1130,1126,1126,1123,1123,1119,1119,1115,1112,1112,1112,1108,1105,1105,1105,1105,1105,1105,1105,1105,1105,1101,1101,1097,1094,1094,1094,1094,1094,1090,1090,1090,1090,1090,1090,1087,1087,1084,1084,1080,1077,1077,1077,1073,1073,1073,1073,1073,1070,1067,1067,1067,1067,1063,1063,1063,1060,1057,1054,1054,1050,1050,1050,1047,1047,1044,1041,1041,1041,1044,1108,0,0,0,0,0,0,0,0,0,0,0,0,0,0,0,0,0,0,0,0,0,0,0,0,0,0,0,0
0,0,0,0,0,0,0,0,0,0,0,0,0,0,1609,1601,1601,1601,1601,1601,1601,1601,1601,1601,1601,1594,1594,1594,1594,1594,1594,1594,1594,1586,1586,1586,1586,1579,1579,1586,1586,1579,1572,1572,1572,1572,1572,1564,1564,1564,1564,1557,1557,1557,1557,1557,1557,1557,1564,1564,1564,1564,1557,1550,1550,1550,1550,1550,1550,1550,1550,1550,1550,1550,1550,1550,1543,1543,1543,1543,1543,1550,1550,1543,1543,1543,1543,1543,1536,1536,1529,1529,1529,1523,1523,1523,1523,1523,1523,1523,1523,1523,1523,1523,1523,1523,1523,1523,1523,1523,1523,1523,1523,1529,1523,1523,1529,1529,1529,1529,1529,1536,1536,1536,1543,1543,1543,1550,1564,1564,1564,1572,2156,2129,2116,2116,2116,2103,2090,2090,2090,2078,2078,2078,2065,2065,2065,2065,2053,2053,2065,2065,2065,1543,1543,1543,1543,1543,1543,1543,1543,1543,1543,1543,1543,1550,1550,1550,1557,1557,1557,1557,1564,1564,1564,1564,1572,1572,1572,1579,1586,1586,1594,1594,1601,1601,1601,1601,1601,1609,1609,1609,1616,1616,1624,1624,1632,1632,1632,1632,1632,1639,1639,1639,1639,1647,1655,1655,1655,1663,1663,1663,1663,1671,1671,1680,1680,1680,1688,1688,1688,1688,1696,1696,1705,1705,1713,1713,1713,1722,1722,1722,1722,1722,1731,1731,1731,1739,1739,1739,1739,1739,1739,1739,1731,1731,1731,1731,1731,1722,1722,1722,1713,1705,1705,1705,1696,1696,1696,1688,1688,1688,1688,1688,1680,1680,1671,1671,1671,1671,1663,1663,1663,1663,1663,1655,1655,1647,1632,1632,1632,0,0,0,0,0,0,1084,1084,1080,1080,1077,1077,1073,1073,1073,1073,1073,1070,1070,1070,1067,1067,1067,1063,1063,1063,1063,1060,1060,1060,1060,1060,1057,1057,1057,1057,1054,1054,1050,1050,1050,1044,1044,1044,1041,1041,1041,1041,1038,1038,1038,1034,1034,1034,1028,1028,1025,1025,1025,1025,1022,1019,1016,1016,1016,1016,1013,1010,1007,1007,1004,1004,1004,1001,1001,998,995,995,992,992,992,989,989,989,987,984,981,981,981,981,978,978,975,975,970,970,970,967,967,964,964,962,959,959,959,956,956,954,948,948,948,946,946,943,943,943,940,938,938,935,933,930,928,928,925,925,925,923,920,918,918,915,913,910,908,908,906,906,903,901,898,896,896,896,891,891,889,889,889,889,887,887,887,887,887,887,887,889,889,891,894,896,898,901,903,903,0,1255,1255,1255,1250,1250,1250,1250,1245,1245,1245,1241,1236,1236,1236,1236,1232,1232,1232,1232,1227,1227,1223,1223,1219,1219,1219,1214,1214,1214,1210,1210,1206,1206,1202,1202,1202,1197,1197,1197,1197,1197,1193,1193,1189,1185,1185,1181,1181,1177,1173,1173,1173,1177,1173,1173,1173,1173,1173,1169,1169,1169,1165,1165,1165,1161,1161,1157,1157,1157,1157,1153,1153,1153,1153,1153,1149,1149,1149,1145,1145,1141,1141,1138,1138,1138,1138,1138,1138,1138,1134,1134,1134,1134,1130,1126,1123,1123,1123,1119,1119,1115,1112,1108,1108,1101,1097,1097,1105,1105,1105,1101,1101,1105,1105,1105,1101,1101,1097,1094,1094,1094,1094,1094,1090,1090,1090,1090,1090,1087,1087,1087,1084,1080,1077,1077,1073,1070,1070,1073,1073,1073,1070,1067,1067,1063,1063,1063,1063,1063,1063,1057,1054,1054,1050,1050,1047,1047,1047,1044,1044,1044,1044,1097,1097,0,0,0,0,0,0,0,0,0,0,0,0,0,0,0,0,0,0,0,0,0,0,0,0,0,0,0,0
0,0,0,0,0,0,0,0,0,0,0,0,0,0,1601,1601,1601,1601,1601,1601,1601,1601,1601,1601,1601,1594,1594,1594,1594,1594,1594,1594,1594,1586,1586,1586,1586,1586,1586,1586,1586,1579,1572,1572,1572,1564,1564,1572,1564,1564,1564,1557,1557,1557,1557,1564,1564,1564,1564,1564,1564,1564,1557,1550,1550,1550,1557,1557,1557,1550,1550,1557,1550,1550,1550,1550,1543,1543,1550,1543,1543,1557,1550,1550,1550,1550,1543,1543,1536,1536,1529,1529,1529,1523,1523,1523,1523,1523,1523,1523,1523,1523,1523,1523,1529,1529,1529,1529,1529,1523,1523,1529,1529,1529,1529,1529,1529,1529,1536,1529,1529,1536,1536,1543,1543,1543,1550,1564,1564,1564,1564,1564,1564,2116,2116,2116,2116,2103,2090,2090,2103,2103,2078,2078,2065,2065,2065,2065,2053,2053,2065,2065,2065,1543,1543,1543,1543,1543,1543,1543,1543,1543,1543,1543,1543,1550,1550,1550,1557,1557,1557,1564,1564,1564,1564,1572,1572,1572,1572,1579,1586,1586,1594,1594,1601,1601,1601,1601,1601,1609,1609,1609,1616,1616,1624,1624,1632,1632,1632,1632,1632,1639,1639,1639,1647,1647,1655,1655,1655,1663,1663,1663,1671,1671,1671,1680,1680,1680,1688,1688,1688,1688,1696,1696,1705,1705,1713,1713,1713,1722,1722,1722,1722,1722,1731,1731,1731,1739,1739,1739,1739,1748,1739,1739,1739,1739,1731,1731,1731,1731,1722,1722,1713,1713,1705,1705,1696,1696,1696,1696,1696,1688,1688,1688,1680,1671,1671,1671,1671,1671,1663,1663,1663,1663,1663,1655,1647,1647,1632,1632,1632,0,0,0,0,0,0,1084,1084,1084,1080,1077,1077,1073,1073,1073,1073,1073,1073,1070,1070,1070,1067,1067,1063,1063,1063,1063,1060,1060,1060,1060,1057,1057,1057,1057,1057,1054,1054,1050,1050,1050,1047,1044,1044,1044,1041,1041,1041,1038,1038,1038,1034,1034,1034,1028,1028,1025,1025,1025,1022,1022,1019,1016,1016,1016,1016,1013,1010,1007,1007,1004,1004,1004,1001,1001,998,998,995,995,992,989,989,989,987,987,984,981,981,981,981,978,978,975,975,970,970,970,967,967,964,964,962,959,959,959,956,956,956,951,948,948,946,946,943,943,943,940,938,938,935,933,930,930,928,928,925,925,923,920,918,915,913,913,910,908,908,906,906,903,901,898,896,896,896,891,891,889,889,889,889,887,887,887,887,887,887,887,889,889,891,896,898,898,903,903,903,0,1255,1255,1255,1250,1250,1250,1250,1250,1245,1245,1241,1241,1236,1236,1236,1232,1232,1232,1232,1227,1227,1223,1223,1219,1219,1214,1214,1214,1214,1210,1210,1206,1206,1202,1202,1202,1197,1197,1197,1197,1197,1193,1193,1189,1185,1185,1181,1177,1173,1173,1173,1173,1177,1173,1173,1173,1173,1173,1169,1169,1169,1165,1161,1161,1161,1161,1157,1157,1157,1157,1157,1157,1153,1153,1153,1153,1149,1149,1145,1145,1141,1141,1138,1138,1138,1138,1134,1134,1134,1134,1134,1134,1134,1130,1126,1123,1123,1123,1119,1119,1112,1112,1108,1105,1087,1087,1090,1105,1101,1101,1101,1101,1105,1108,1105,1105,1105,1145,1094,1094,1094,1094,1094,1094,1094,1094,1094,1094,1090,1090,1087,1087,1087,1077,1073,1073,1070,1070,1073,1073,1073,1073,1067,1067,1063,1063,1063,1063,1063,1063,1063,1063,1119,1119,1047,1047,1047,1047,1044,1044,1044,1101,1094,1094,0,0,0,0,0,0,0,0,0,0,0,0,0,0,0,0,0,0,0,0,0,0,0,0,0,0,0,0
0,0,0,0,0,0,0,0,0,0,0,0,0,0,1601,1601,1601,1601,1601,1601,1601,1601,1601,1601,1601,1594,1594,1594,1594,1594,1594,1594,1594,1594,1586,1586,1586,1586,1586,1586,1586,1579,1572,1572,1572,1564,1564,1572,1564,1564,1564,1564,1564,1564,1564,1564,1564,1564,1564,1564,1564,1564,1564,1557,1557,1557,1557,1557,1557,1557,1557,1557,1564,1557,1557,1557,1557,1550,1550,1550,1557,1557,1557,1557,1557,1550,1543,1543,1543,1536,1529,1529,1529,1523,1523,1523,1523,1523,1523,1523,1523,1523,1523,1523,1529,1529,1529,1529,1529,1529,1529,1529,1529,1529,1529,1529,1529,1529,1536,1536,1536,1536,1536,1543,1543,1543,1550,1564,1564,1557,1557,1564,2116,2116,2116,2103,2103,2103,2090,2090,2103,2103,2078,2078,2065,2065,2065,2065,2065,2065,2065,2065,2065,0,1543,1543,1543,1543,1543,1543,1543,1543,1543,1543,1543,1543,1550,1550,1557,1557,1557,1564,1564,1564,1564,1572,1572,1572,1572,1579,1586,1586,1594,1594,1601,1601,1601,1601,1601,1609,1609,1609,1616,1624,1624,1624,1632,1632,1632,1632,1639,1639,1639,1647,1647,1655,1655,1655,1655,1663,1663,1663,1671,1671,1671,1680,1680,1680,1688,1688,1688,1688,1696,1696,1705,1705,1713,1713,1722,1722,1722,1722,1722,1731,1731,1731,1731,1739,1748,1739,1739,1748,1739,1739,1739,1739,1731,1731,1731,1722,1722,1713,1705,1696,1696,1696,1696,1688,1688,1688,1688,1680,1680,1680,1671,1671,1671,1671,1671,1663,1663,1663,1663,1655,1655,1655,1647,1639,1632,1632,1632,0,0,0,0,0,0,1084,1084,1084,1080,1080,1077,1077,1073,1073,1073,1073,1073,1073,1070,1070,1070,1067,1063,1063,1063,1063,1060,1060,1060,1060,1057,1057,1057,1057,1057,1054,1054,1050,1050,1050,1047,1047,1044,1044,1044,1041,1041,1041,1038,1038,1038,1038,1034,1028,1028,1025,1025,1022,1022,1019,1019,1016,1016,1016,1016,1013,1010,1007,1007,1004,1004,1004,1001,1001,998,998,995,995,992,989,989,989,987,987,984,981,981,981,981,978,978,975,975,970,970,970,967,967,964,964,964,962,959,959,956,956,951,951,948,948,946,946,943,943,943,940,938,938,933,933,930,930,928,928,925,923,920,920,918,915,913,913,910,910,908,906,906,903,901,898,896,896,896,894,891,889,889,889,889,887,887,887,887,887,887,887,889,889,894,898,898,901,903,906,0,0,0,1255,1255,1250,1250,1250,1245,1245,1245,1245,1236,1236,1232,1232,1232,1232,1232,1232,1227,1223,1223,1219,1219,1219,1219,1214,1214,1214,1214,1214,1214,1210,1210,1206,1202,1202,1202,1197,1197,1197,1193,1189,1189,1189,1185,1181,1177,1177,1173,1169,1169,1169,1173,1169,1169,1173,1173,1173,1169,1169,1169,1165,1161,1161,1161,1161,1161,1157,1157,1157,1157,1157,1157,1157,1157,1153,1149,1149,1145,1145,1141,1138,1134,1134,1134,1134,1134,1134,1134,1134,1134,1134,1130,1130,1130,1130,1130,1181,1177,1177,1177,1177,1080,1080,1080,1080,1080,1101,1101,1101,1101,1101,1161,1141,1141,1141,1145,1145,1149,1153,1153,1153,1153,1153,1141,1141,1138,1138,1138,1138,1138,1138,1134,1077,1073,1073,1134,1134,1134,1130,1123,1123,1119,1119,1119,1123,1123,1063,1063,1123,1123,1119,1119,1119,1115,1115,1119,1105,1105,1101,1101,1097,1094,1094,0,0,0,0,0,0,0,0,0,0,0,0,0,0,0,0,0,0,0,0,0,0,0,0,0,0,0,0
0,0,0,0,0,0,0,0,0,0,0,0,0,0,1609,1609,1601,1601,1609,1601,1601,1601,1601,1601,1601,1594,1594,1594,1594,1594,1594,1594,1594,1594,1594,1586,1586,1586,1586,1579,1579,1579,1579,1579,1572,1572,1572,1572,1564,1564,1564,1557,1557,1557,1557,1564,1564,1564,1564,1564,1564,1564,1564,1557,1557,1557,1564,1557,1557,1557,1557,1564,1564,1557,1557,1557,1557,1550,1543,1543,1550,1550,1557,1557,1557,1550,1543,1543,1543,1543,1536,1536,1536,1529,1529,1529,1529,1529,1529,1523,1523,1523,1523,1523,1529,1529,1529,1529,1529,1529,1529,1529,1529,1529,1529,1529,1529,1529,1536,1536,1536,1536,1536,1543,1543,1543,1550,1557,1557,1557,1557,1564,2116,2116,2103,2103,2103,2103,2103,2103,2103,2103,2078,2078,2065,2065,2065,2065,2065,2065,2065,2065,2065,0,1543,1543,1543,1543,1543,1543,1543,1543,1543,1543,1543,1543,1550,1550,1557,1557,1557,1564,1564,1564,1564,1572,1572,1572,1579,1579,1586,1586,1594,1594,1601,1601,1601,1601,1601,1609,1609,1609,1616,1616,1624,1624,1632,1632,1632,1632,1639,1639,1647,1647,1647,1655,1655,1655,1655,1663,1663,1663,1671,1671,1671,1680,1680,1688,1688,1688,1688,1688,1696,1696,1696,1705,1713,1713,1722,1722,1722,1722,1722,1731,1731,1731,1731,1739,1748,1748,1748,1748,1748,1739,1739,1739,1731,1731,1731,1722,1722,1696,1696,1696,1696,1688,1688,1688,1688,1680,1680,1680,1680,1671,1663,1663,1663,1663,1663,1663,1663,1655,1655,1655,1655,1647,1639,1632,1632,1624,1624,0,0,0,0,0,0,1087,1084,1084,1080,1080,1077,1077,1073,1073,1073,1073,1073,1073,1070,1070,1070,1067,1067,1063,1063,1063,1060,1060,1060,1060,1060,1057,1057,1057,1057,1054,1054,1054,1050,1050,1047,1047,1044,1044,1044,1041,1041,1041,1041,1038,1038,1038,1034,1028,1028,1025,1025,1022,1022,1019,1019,1016,1016,1016,1016,1013,1010,1007,1007,1004,1004,1004,1001,1001,998,998,995,995,995,992,989,989,989,987,987,981,981,981,981,978,978,975,975,970,970,970,967,967,964,964,964,962,959,959,956,956,951,951,948,948,946,946,943,943,943,940,938,938,933,933,930,930,928,928,925,923,920,920,918,915,915,913,910,910,908,906,903,901,901,898,896,896,894,894,891,889,889,889,887,887,887,887,887,887,887,887,889,889,894,896,898,901,901,903,0,0,0,1255,1255,1250,1250,1250,1245,1245,1245,1241,1232,1232,1232,1232,1232,1232,1232,1232,1227,1223,1223,1219,1219,1219,1219,1214,1214,1214,1214,1219,1219,1214,1214,1214,1206,1202,1197,1197,1197,1197,1193,1189,1189,1189,1185,1181,1177,1177,1173,1169,1169,1169,1173,1169,1169,1173,1173,1173,1177,1177,1169,1169,1165,1165,1165,1161,1161,1161,1193,1193,1193,1177,1177,1177,1157,1157,1153,1149,1149,1149,1141,1138,1134,1134,1134,1134,1134,1134,1134,1134,1134,1134,1130,1130,1130,1185,1185,1181,1177,1177,1177,1177,1177,1080,1073,1073,1073,1101,1101,1165,1165,1161,1161,1149,1141,1141,1145,1149,1149,1149,1149,1149,1149,1149,1145,1141,1138,1138,1138,1138,1138,1138,1138,1138,1138,1138,1134,1134,1130,1130,1123,1123,1119,1119,1119,1123,1123,1119,1119,1123,1123,1119,1119,1115,1115,1115,1112,1108,1105,1101,1101,1097,1094,1094,0,0,0,0,0,0,0,0,0,0,0,0,0,0,0,0,0,0,0,0,0,0,0,0,0,0,0,0
0,0,0,0,0,0,0,0,0,0,0,0,0,0,1609,1609,1609,1609,1609,1601,1601,1601,1601,1601,1601,1594,1594,1594,1594,1594,1594,1594,1594,1594,1594,1586,1586,1586,1586,1579,1579,1579,1579,1579,1579,1572,1572,1564,1564,1564,1572,1557,1557,1557,1557,1564,1564,1564,1564,1564,1564,1564,1564,1564,1564,1564,1564,1557,1557,1564,1564,1564,1564,1557,1557,1557,1557,1550,1543,1543,1550,1550,1550,1550,1557,1557,1550,1543,1543,1543,1543,1543,1536,1536,1536,1536,1536,1536,1536,1529,1529,1523,1523,1529,1529,1529,1529,1529,1529,1529,1529,1529,1529,1536,1536,1536,1529,1529,1536,1536,1536,1536,1536,1536,1543,1543,1550,1557,1557,1557,1557,1557,2116,2116,2103,2103,2103,2103,2103,2103,2103,2103,2078,2078,2078,2065,2065,2065,2065,2065,2065,2065,2065,0,1550,1550,1543,1543,1543,1543,1543,1543,1543,1543,1543,1543,1550,1557,1564,1557,1557,1564,1564,1564,1564,1572,1572,1572,1579,1586,1586,1594,1594,1594,1601,1601,1601,1601,1601,1609,1609,1616,1616,1616,1624,1624,1632,1632,1632,1639,1639,1639,1647,1647,1647,1655,1655,1655,1655,1663,1663,1663,1671,1671,1680,1680,1688,1688,1688,1688,1688,1688,1696,1696,1696,1705,1713,1713,1722,1722,1722,1722,1722,1731,1731,1731,1731,1748,1748,1748,1748,1748,1748,1748,1739,1739,1731,1731,1722,1722,1713,1688,1688,1680,1680,1680,1680,1671,1663,1663,1663,1671,1663,1663,1647,1647,1655,1655,1663,1655,1655,1655,1647,1647,1647,1639,1632,1624,1624,1624,1624,0,0,0,0,0,0,1084,1084,1084,1080,1080,1077,1077,1073,1073,1073,1073,1073,1073,1070,1070,1070,1070,1067,1067,1067,1063,1060,1060,1060,1060,1060,1057,1057,1054,1054,1057,1054,1054,1050,1050,1047,1047,1044,1041,1041,1041,1041,1041,1041,1038,1038,1038,1034,1028,1028,1025,1025,1022,1022,1019,1019,1016,1016,1016,1016,1013,1010,1007,1007,1004,1004,1004,1001,1001,998,998,995,995,995,992,989,989,989,987,987,984,981,981,981,978,978,978,973,970,970,970,967,967,964,964,964,962,959,959,956,956,954,951,951,948,948,946,946,946,943,940,938,935,933,933,930,930,928,928,925,925,923,920,918,915,915,913,910,910,908,906,903,901,898,898,896,896,894,894,891,889,889,889,887,887,887,887,887,887,887,887,889,889,894,896,898,901,901,903,0,0,0,1255,1255,1250,1250,1250,1245,1245,1245,1241,1232,1232,1232,1232,1232,1232,1232,1232,1232,1227,1223,1219,1219,1219,1219,1219,1219,1278,1273,1268,1259,1259,1259,1255,1255,1259,1197,1197,1197,1189,1189,1189,1189,1189,1185,1181,1181,1181,1181,1250,1250,1173,1173,1169,1169,1173,1173,1173,1177,1177,1169,1169,1165,1165,1165,1161,1161,1193,1193,1193,1193,1193,1185,1185,1189,1157,1153,1153,1153,1206,1206,1202,1206,1206,1138,1138,1134,1134,1134,1134,1134,1189,1185,1185,1185,1185,1185,1181,1177,1177,1177,1177,1177,1177,1073,1073,1073,1169,1169,1169,1165,1165,1161,1149,1149,1153,1153,1149,1149,1149,1149,1149,1149,1149,1145,1145,1138,1138,1138,1138,1141,1138,1138,1138,1138,1138,1134,1134,1130,1130,1126,1126,1123,1123,1123,1123,1123,1123,1123,1123,1119,1119,1115,1115,1112,1112,1108,1105,1105,1101,1101,1097,1094,1094,0,0,0,0,0,0,0,0,0,0,0,0,0,0,0,0,0,0,0,0,0,0,0,0,0,0,0,0
0,0,0,0,0,0,0,0,0,0,0,0,0,0,1609,1609,1609,1609,1609,1601,1601,1601,1601,1601,1601,1594,1594,1594,1594,1594,1594,1594,1594,1594,1594,1586,1586,1586,1579,1579,1579,1579,1579,1579,1579,1572,1572,1564,1564,1564,1572,1572,1564,1564,1564,1564,1564,1564,1564,1564,1564,1564,1564,1564,1564,1564,1564,1557,1557,1564,1564,1564,1564,1557,1557,1557,1557,1550,1550,1550,1550,1550,1550,1550,1557,1557,1550,1550,1543,1543,1543,1543,1543,1536,1536,1536,1536,1536,1536,1529,1529,1523,1523,1536,1529,1529,1529,1529,1529,1529,1529,1529,1536,1536,1536,1536,1529,1529,1536,1536,1536,1536,1536,1536,1543,1543,1550,1557,1557,1557,1557,1557,2116,2116,2103,2103,2103,2103,2103,2103,2103,2103,2090,2078,2078,2065,2065,2065,2065,2065,2065,2065,2065,1550,1550,1550,1550,1543,1543,1543,1543,1543,1543,1543,1550,1550,1557,1557,1564,1564,1564,1564,1564,1572,1572,1572,1572,1572,1579,1586,1586,1594,1594,1594,1594,1601,1601,1609,1609,1609,1609,1616,1616,1624,1624,1632,1632,1632,1632,1639,1639,1639,1647,1647,1647,1647,1647,1655,1655,1655,1663,1671,1671,1680,1680,1688,1688,1688,1688,1688,1688,1688,1696,1696,1705,1705,1713,1722,1722,1722,1722,1722,1722,1731,1731,1731,1731,1731,1748,1748,1748,1748,1748,1748,1748,1739,1731,1731,1722,1713,1696,1680,1671,1671,1671,1671,1663,1663,1663,1655,1647,1647,1639,1639,1639,1639,1647,1647,1647,1647,1647,1647,1647,1639,1639,1632,1632,1616,1609,1609,1624,0,0,0,0,0,1090,1084,1084,1084,1080,1080,1080,1077,1073,1073,1073,1073,1073,1073,1070,1070,1070,1070,1067,1067,1063,1063,1060,1060,1060,1060,1060,1057,1057,1054,1054,1057,1054,1054,1050,1050,1047,1044,1044,1041,1041,1041,1041,1041,1041,1038,1038,1034,1034,1028,1028,1025,1025,1022,1022,1019,1019,1016,1016,1016,1016,1013,1010,1007,1007,1004,1004,1004,1001,1001,998,998,995,995,992,992,989,989,989,987,987,984,981,981,981,978,978,978,973,970,970,970,967,967,964,964,962,959,959,959,956,956,954,951,951,948,948,948,946,946,943,940,938,935,933,933,930,930,928,928,925,925,923,920,918,918,915,913,910,910,908,906,903,901,898,898,896,896,896,894,891,889,889,889,887,887,887,887,887,887,887,887,889,891,894,898,898,898,898,898,0,0,0,1255,1255,1250,1250,1250,1312,1307,1307,1307,1297,1297,1297,1297,1297,1297,1297,1292,1288,1288,1292,1288,1288,1288,1283,1278,1278,1278,1273,1268,1268,1259,1259,1259,1259,1259,1259,1255,1255,1189,1189,1189,1189,1189,1250,1181,1181,1245,1245,1250,1250,1250,1245,1245,1245,1236,1236,1236,1236,1236,1236,1236,1232,1232,1210,1210,1197,1197,1197,1197,1197,1197,1193,1193,1193,1197,1197,1202,1202,1202,1202,1202,1206,1206,1202,1202,1202,1197,1197,1197,1197,1189,1189,1185,1185,1181,1181,1181,1177,1177,1177,1177,1177,1177,1173,1173,1173,1169,1169,1169,1169,1165,1165,1161,1161,1157,1157,1153,1153,1153,1153,1149,1149,1149,1149,1145,1141,1141,1141,1141,1141,1138,1138,1138,1138,1138,1134,1134,1130,1130,1126,1126,1123,1123,1123,1123,1123,1123,1123,1123,1119,1115,1115,1112,1112,1112,1108,1105,1105,1101,1101,1097,1094,1094,0,0,0,0,0,0,0,0,0,0,0,0,0,0,0,0,0,0,0,0,0,0,0,0,0,0,0,0
0,0,0,0,0,0,0,0,0,0,0,0,0,0,1609,1609,1609,1609,1609,1601,1601,1601,1601,1601,1601,1594,1594,1594,1594,1594,1594,1594,1594,1594,1586,1586,1579,1579,1579,1579,1579,1579,1579,1579,1579,1579,1579,1579,1572,1572,1572,1572,1572,1572,1572,1572,1564,1564,1564,1572,1564,1564,1564,1564,1564,1564,1564,1564,1564,1564,1564,1564,1564,1557,1557,1550,1550,1550,1550,1550,1550,1550,1550,1557,1557,1557,1550,1550,1543,1543,1543,1543,1543,1543,1543,1543,1543,1543,1536,1536,1536,1536,1536,1529,1529,1529,1529,1529,1529,1529,1536,1536,1536,1536,1536,1536,1536,1536,1536,1536,1536,1536,1536,1536,1536,1543,1550,1557,1557,1557,1557,1550,1550,2129,2116,2103,2103,2103,2103,2103,2103,2103,2078,2078,2078,2065,2065,2065,2065,2065,2065,2065,2065,1550,1550,1550,1550,1543,1543,1543,1543,1543,1543,1543,1550,1550,1557,1564,1564,1564,1564,1564,1564,1572,1572,1572,1572,1572,1579,1586,1586,1594,1594,1594,1594,1601,1601,1609,1609,1609,1609,1616,1616,1624,1624,1632,1632,1632,1639,1639,1639,1647,1647,1647,1647,1647,1647,1655,1655,1655,1655,1663,1671,1680,1680,1688,1688,1688,1688,1688,1696,1696,1696,1696,1705,1705,1713,1713,1722,1722,1722,1722,1722,1731,1731,1731,1731,1731,1748,1748,1748,1748,1748,1748,1748,1739,1731,1731,1722,1696,1688,1671,1671,1663,1663,1663,1663,1655,1655,1647,1639,1639,1632,1632,1632,1632,1632,1639,1639,1639,1639,1639,1639,1632,1632,1624,1624,1609,1609,1609,0,0,0,0,0,0,1090,1087,1084,1084,1080,1080,1080,1077,1073,1073,1073,1073,1073,1073,1070,1070,1070,1070,1067,1063,1063,1060,1060,1060,1060,1060,1060,1057,1057,1054,1054,1057,1054,1054,1050,1050,1047,1044,1044,1041,1041,1041,1041,1041,1041,1038,1034,1034,1031,1028,1028,1025,1025,1022,1022,1019,1019,1016,1016,1016,1016,1016,1010,1010,1007,1004,1004,1004,1001,1001,1001,998,995,995,992,992,989,989,989,987,987,984,981,981,978,978,978,975,975,973,970,970,967,967,964,964,962,959,959,959,956,956,954,954,951,951,948,948,946,946,943,943,938,938,933,933,930,930,928,928,925,925,923,923,920,918,915,913,910,910,908,906,903,901,898,898,896,896,896,894,891,889,889,889,887,887,887,887,887,887,887,887,889,891,896,898,898,898,898,0,0,0,0,1333,1333,1328,1322,1317,1312,1307,1307,1302,1297,1297,1297,1297,1297,1297,1297,1292,1292,1292,1292,1288,1288,1288,1283,1278,1278,1273,1273,1268,1268,1268,1268,1268,1264,1264,1264,1264,1264,1259,1259,1259,1255,1255,1250,1250,1250,1245,1245,1250,1250,1250,1241,1241,1245,1236,1236,1236,1236,1236,1236,1236,1232,1232,1223,1210,1202,1202,1202,1202,1206,1202,1197,1197,1197,1202,1202,1206,1206,1202,1202,1202,1206,1206,1202,1202,1202,1202,1197,1193,1189,1189,1189,1185,1185,1181,1181,1181,1181,1181,1181,1181,1181,1177,1177,1173,1173,1169,1169,1169,1165,1165,1165,1161,1161,1157,1157,1157,1153,1153,1153,1153,1149,1149,1149,1149,1145,1145,1141,1141,1141,1138,1138,1138,1138,1138,1134,1134,1130,1130,1130,1126,1126,1123,1123,1123,1123,1123,1123,1123,1119,1115,1112,1112,1112,1108,1108,1105,1105,1105,1101,1097,1097,1097,0,0,0,0,0,0,0,0,0,0,0,0,0,0,0,0,0,0,0,0,0,0,0,0,0,0,0,0
0,0,0,0,0,0,0,0,0,0,0,0,0,0,1609,1609,1609,1609,1601,1601,1601,1601,1601,1594,1594,1594,1594,1594,1594,1594,1594,1594,1594,1594,1586,1586,1579,1579,1579,1572,1572,1579,1579,1579,1579,1579,1579,1579,1572,1572,1572,1572,1572,1572,1572,1572,1572,1572,1572,1572,1564,1564,1564,1564,1564,1564,1564,1564,1564,1564,1557,1557,1557,1557,1557,1550,1550,1550,1550,1550,1550,1550,1557,1557,1557,1557,1550,1550,1550,1550,1543,1543,1543,1543,1543,1543,1543,1543,1536,1536,1536,1536,1536,1529,1529,1529,1529,1529,1529,1529,1536,1536,1536,1536,1536,1536,1536,1536,1536,1536,1536,1536,1536,1536,1536,1543,1543,1557,1557,1564,1564,1550,1550,1550,2103,2103,2103,2103,2103,2103,2103,2103,2078,2078,2078,2065,2065,2065,2065,2065,2065,2065,0,1543,1543,1543,1543,1543,1543,1543,1543,1543,1543,1543,1550,1550,1557,1564,1564,1564,1564,1564,1564,1572,1572,1572,1572,1572,1579,1586,1586,1594,1594,1594,1594,1601,1601,1609,1609,1616,1616,1616,1616,1624,1624,1632,1632,1632,1639,1639,1647,1647,1647,1647,1647,1655,1655,1655,1663,1655,1655,1663,1671,1680,1680,1688,1688,1688,1688,1688,1696,1696,1696,1696,1705,1705,1713,1713,1722,1722,1722,1722,1731,1731,1731,1739,1739,1748,1748,1748,1748,1748,1748,1748,1748,1739,1731,1722,1696,1688,1680,1671,1663,1663,1663,1655,1655,1655,1655,1647,1639,1639,1632,1632,1632,1632,1632,1632,1624,1624,1632,1632,1632,1624,1624,1616,1609,1601,1601,1609,0,0,0,0,0,1090,1090,1087,1084,1084,1080,1080,1080,1077,1077,1073,1073,1073,1073,1073,1070,1070,1070,1070,1067,1063,1063,1060,1060,1060,1060,1060,1060,1057,1057,1054,1054,1057,1054,1054,1050,1050,1047,1044,1044,1041,1041,1041,1041,1041,1041,1038,1034,1034,1031,1028,1028,1025,1025,1022,1022,1022,1019,1016,1016,1016,1016,1016,1010,1010,1007,1004,1004,1004,1001,1001,1001,998,998,995,992,992,992,989,989,987,987,984,981,981,978,978,978,975,975,973,973,970,970,967,964,964,962,962,959,959,956,956,956,954,951,951,951,948,948,948,946,943,940,938,938,938,935,933,930,928,928,925,925,923,920,918,915,913,910,910,908,906,901,898,898,898,896,896,896,894,891,889,889,889,887,887,887,887,887,887,887,889,889,894,896,898,898,898,898,898,0,1328,0,1328,1328,1328,1317,1317,1312,1307,1307,1302,1297,1297,1297,1297,1297,1297,1297,1292,1292,1292,1292,1288,1288,1288,1283,1283,1283,1273,1273,1268,1268,1268,1268,1268,1268,1268,1268,1264,1264,1259,1259,1259,1255,1255,1250,1250,1250,1245,1245,1245,1245,1245,1241,1241,1241,1236,1236,1236,1236,1236,1236,1232,1227,1223,1214,1214,1206,1206,1206,1206,1210,1210,1206,1206,1206,1206,1206,1206,1206,1206,1206,1206,1206,1206,1202,1202,1202,1202,1197,1193,1189,1189,1185,1185,1185,1181,1181,1181,1181,1181,1181,1181,1177,1177,1173,1173,1173,1169,1169,1169,1165,1165,1165,1161,1161,1161,1157,1157,1157,1153,1153,1153,1153,1149,1149,1149,1145,1145,1141,1141,1141,1141,1138,1138,1138,1138,1134,1134,1134,1134,1130,1130,1130,1130,1130,1126,1123,1123,1123,1119,1119,1115,1112,1112,1112,1108,1108,1105,1105,1105,1101,1101,1097,1097,0,0,0,0,0,0,0,0,0,0,0,0,0,0,0,0,0,0,0,0,0,0,0,0,0,0,0,0
0,0,0,0,0,0,0,0,0,0,0,0,0,0,1609,1609,1609,1609,1601,1601,1601,1601,1594,1594,1594,1594,1594,1594,1594,1594,1594,1594,1594,1594,1586,1586,1586,1579,1579,1572,1572,1579,1579,1579,1579,1579,1579,1579,1572,1572,1572,1572,1572,1564,1564,1564,1564,1564,1564,1564,1564,1564,1564,1564,1564,1564,1564,1564,1564,1564,1557,1557,1557,1557,1557,1557,1557,1550,1550,1550,1550,1550,1550,1550,1550,1550,1550,1550,1550,1550,1543,1543,1543,1543,1543,1543,1543,1543,1543,1543,1543,1543,1536,1536,1536,1536,1536,1536,1536,1536,1536,1536,1536,1536,1536,1536,1536,1536,1536,1536,1536,1536,1536,1536,1536,1543,1543,1557,1564,1564,1564,1557,1557,1557,2103,2103,2103,2103,2103,2103,2103,2103,2078,2078,2078,2065,2065,2065,2065,2065,2053,2053,0,1543,1543,1543,1543,1543,1543,1543,1543,1543,1543,1543,1550,1550,1557,1557,1557,1564,1564,1564,1564,1572,1572,1572,1572,1572,1579,1586,1586,1594,1594,1594,1601,1601,1609,1609,1609,1616,1616,1616,1624,1624,1624,1632,1632,1639,1639,1639,1647,1647,1647,1655,1655,1655,1655,1655,1663,1663,1663,1663,1671,1680,1680,1688,1688,1688,1688,1688,1696,1696,1696,1696,1705,1705,1713,1713,1722,1722,1722,1722,1731,1731,1731,1731,1739,1748,1748,1748,1748,1748,1748,1748,1748,1739,1731,1722,1696,1688,1680,1671,1663,1663,1655,1655,1655,1647,1639,1639,1632,1632,1632,1632,1632,1624,1624,1624,1624,1624,1624,1624,1616,1616,1609,1609,1609,1601,1601,1609,0,0,0,0,0,1090,1090,1084,1084,1080,1080,1080,1077,1077,1077,1073,1073,1073,1073,1073,1070,1070,1070,1070,1067,1063,1063,1060,1060,1060,1060,1060,1060,1060,1057,1054,1054,1057,1054,1054,1050,1050,1047,1047,1044,1041,1041,1041,1041,1041,1041,1038,1038,1034,1031,1031,1028,1025,1025,1025,1025,1022,1019,1019,1019,1016,1016,1016,1016,1010,1007,1004,1004,1004,1001,1001,1001,1001,998,995,995,992,992,989,989,989,987,987,984,981,981,981,978,978,975,975,975,973,973,970,967,967,964,962,962,959,959,956,956,954,951,951,951,948,948,948,946,943,940,940,938,938,935,935,933,933,930,928,925,920,920,918,918,915,910,910,908,906,901,898,898,898,896,896,896,894,891,889,889,889,887,887,887,887,887,887,887,889,889,894,896,898,898,901,0,0,0,1328,1328,1328,1328,1328,1317,1317,1312,1307,1307,1302,1302,1297,1297,1297,1297,1297,1297,1292,1292,1292,1292,1288,1288,1288,1288,1288,1288,1283,1278,1273,1268,1268,1268,1268,1268,1268,1268,1264,1264,1264,1259,1259,1255,1255,1250,1250,1250,1245,1245,1245,1245,1245,1241,1241,1236,1236,1236,1236,1236,1232,1232,1232,1223,1223,1214,1214,1210,1210,1210,1210,1214,1214,1214,1210,1210,1210,1210,1210,1206,1206,1206,1206,1206,1202,1202,1202,1202,1197,1197,1193,1193,1193,1185,1185,1185,1185,1181,1181,1181,1181,1181,1181,1177,1177,1173,1173,1173,1169,1169,1169,1169,1165,1165,1165,1161,1161,1157,1157,1157,1153,1153,1153,1153,1149,1149,1149,1149,1145,1141,1141,1141,1141,1138,1138,1138,1138,1134,1134,1134,1134,1134,1130,1130,1130,1130,1126,1123,1123,1123,1119,1119,1115,1112,1112,1112,1108,1108,1108,1105,1105,1101,1101,1097,1097,0,0,0,0,0,0,0,0,0,0,0,0,0,0,0,0,0,0,0,0,0,0,0,0,0,0,0,0
0,0,0,0,0,0,0,0,0,0,0,0,0,0,0,1609,1609,1609,1601,1601,1601,1601,1594,1594,1594,1594,1594,1594,1594,1594,1594,1594,1594,1594,1586,1586,1586,1579,1579,1572,1572,1579,1579,1579,1579,1579,1586,1579,1572,1572,1572,1572,1572,1564,1564,1564,1564,1564,1564,1564,1564,1564,1564,1564,1564,1564,1564,1564,1564,1564,1557,1557,1557,1557,1557,1557,1557,1557,1557,1557,1557,1550,1550,1550,1550,1550,1550,1550,1550,1550,1550,1543,1543,1550,1550,1543,1543,1543,1543,1543,1543,1543,1543,1536,1536,1536,1536,1536,1536,1536,1536,1536,1536,1536,1536,1536,1536,1536,1536,1536,1536,1536,1536,1536,1536,1543,1550,1557,1564,1564,1572,1572,1572,1572,2103,2103,2103,2103,2103,2103,2103,2103,2090,2078,2078,2065,2065,2065,2065,2065,2053,2053,0,1543,1543,1543,1543,1543,1543,1543,1543,1543,1543,1550,1550,1557,1557,1557,1557,1564,1564,1564,1564,1572,1572,1572,1572,1572,1579,1586,1586,1594,1594,1594,1601,1601,1609,1609,1616,1616,1616,1616,1624,1624,1632,1632,1639,1639,1647,1647,1647,1647,1647,1655,1655,1655,1655,1655,1655,1663,1663,1663,1671,1680,1680,1688,1688,1688,1688,1696,1696,1696,1696,1696,1705,1705,1713,1713,1722,1722,1722,1722,1731,1731,1731,1731,1739,1739,1748,1748,1757,1757,1748,1748,1748,1739,1731,1722,1696,1688,1680,1671,1663,1663,1655,1655,1655,1647,1639,1639,1632,1632,1632,1632,1632,1624,1624,1624,1624,1624,1624,1624,1616,1616,1609,1609,1609,1609,1609,1609,0,0,0,0,0,1094,1090,1084,1084,1080,1080,1080,1077,1077,1077,1073,1073,1073,1073,1073,1070,1070,1070,1070,1067,1067,1063,1063,1063,1060,1060,1060,1060,1060,1057,1057,1057,1057,1054,1054,1050,1050,1047,1047,1044,1044,1041,1041,1041,1041,1041,1038,1038,1034,1031,1031,1028,1028,1025,1025,1025,1022,1019,1019,1019,1019,1019,1016,1016,1013,1010,1007,1007,1004,1004,1004,1001,1001,1001,998,995,995,992,992,989,989,989,989,987,984,981,981,981,978,978,978,978,975,975,973,970,967,967,962,962,959,959,959,956,954,951,951,951,948,948,946,946,943,940,940,938,938,938,935,933,933,930,930,928,920,920,920,918,918,913,910,908,903,898,898,898,898,896,896,896,894,891,889,889,889,887,887,887,887,887,887,887,889,891,894,896,898,898,898,0,0,0,0,1322,1322,1322,1322,1317,1317,1312,1312,1312,1307,1302,1302,1302,1302,1297,1297,1297,1292,1292,1292,1292,1292,1288,1288,1288,1288,1288,1283,1278,1278,1278,1273,1273,1268,1268,1268,1268,1264,1264,1264,1264,1259,1259,1255,1255,1255,1250,1250,1250,1250,1245,1245,1241,1241,1236,1236,1236,1236,1236,1232,1232,1232,1223,1223,1214,1214,1214,1214,1214,1214,1214,1219,1214,1214,1214,1214,1214,1210,1206,1206,1206,1206,1206,1202,1202,1202,1202,1197,1197,1193,1193,1193,1189,1185,1185,1185,1185,1185,1181,1181,1181,1181,1177,1177,1173,1173,1173,1173,1169,1169,1165,1165,1165,1165,1161,1161,1157,1157,1157,1153,1153,1153,1153,1153,1149,1149,1149,1149,1145,1141,1141,1141,1138,1138,1138,1138,1134,1134,1134,1134,1134,1134,1130,1130,1130,1126,1123,1123,1123,1119,1119,1115,1115,1115,1112,1108,1108,1108,1105,1105,1101,1101,1097,1097,0,0,0,0,0,0,0,0,0,0,0,0,0,0,0,0,0,0,0,0,0,0,0,0,0,0,0,0
0,0,0,0,0,0,0,0,0,0,0,0,0,0,0,1609,1609,1609,1609,1601,1601,1601,1601,1594,1594,1594,1594,1594,1594,1594,1594,1594,1594,1594,1594,1586,1586,1579,1579,1579,1579,1579,1579,1579,1579,1579,1579,1572,1572,1572,1572,1572,1572,1564,1564,1564,1564,1564,1564,1564,1564,1564,1564,1564,1564,1564,1564,1564,1564,1564,1557,1557,1557,1557,1557,1557,1557,1557,1557,1557,1557,1550,1550,1550,1550,1550,1550,1557,1550,1550,1550,1543,1543,1550,1550,1543,1543,1543,1543,1543,1543,1543,1543,1543,1543,1543,1543,1543,1536,1536,1543,1543,1536,1536,1536,1536,1536,1536,1536,1536,1536,1536,1536,1536,1536,1543,1550,1564,1564,1564,1572,1572,1572,2103,2103,2103,2103,2116,2103,2103,2103,2103,2090,2078,2078,2065,2065,2065,2065,2065,2053,2053,2053,1550,1550,1543,1543,1543,1543,1543,1543,1543,1550,1550,1557,1557,1557,1564,1564,1564,1564,1564,1564,1564,1572,1572,1572,1579,1579,1586,1586,1594,1594,1594,1601,1601,1609,1616,1616,1616,1616,1624,1624,1624,1632,1639,1639,1639,1647,1647,1647,1655,1655,1655,1655,1655,1655,1655,1655,1663,1663,1671,1680,1680,1688,1688,1688,1688,1688,1696,1696,1696,1696,1696,1705,1705,1713,1713,1722,1722,1722,1722,1731,1731,1731,1731,1739,1739,1748,1757,1757,1757,1757,1757,1757,1748,1731,1731,1696,1688,1680,1671,1663,1663,1655,1655,1655,1647,1639,1639,1639,1639,1632,1632,1632,1624,1624,1624,1624,1624,1624,1624,1624,1616,1609,1609,1601,1601,1601,1609,0,0,0,0,1101,1094,1090,1084,1084,1080,1080,1080,1077,1077,1077,1073,1073,1073,1073,1073,1070,1070,1070,1070,1067,1067,1063,1063,1063,1063,1060,1060,1060,1060,1060,1057,1057,1060,1057,1054,1050,1047,1047,1047,1044,1044,1041,1041,1041,1041,1041,1038,1038,1034,1031,1031,1031,1028,1025,1025,1025,1025,1022,1022,1019,1019,1019,1019,1016,1016,1013,1007,1007,1007,1007,1004,1004,1004,1001,998,995,995,992,992,992,989,989,989,989,987,984,981,981,981,978,975,975,975,975,973,973,970,967,964,962,962,959,959,959,956,954,954,951,948,948,946,946,946,943,940,938,938,938,938,935,933,930,930,928,923,920,920,925,925,925,910,908,903,898,898,898,898,896,896,894,894,891,889,889,889,887,887,887,887,887,889,889,889,891,894,896,898,898,898,0,0,0,0,1322,1322,1322,1322,1317,1317,1317,1312,1312,1307,1307,1302,1302,1302,1302,1297,1297,1297,1292,1292,1292,1292,1288,1288,1288,1288,1288,1283,1283,1278,1278,1273,1273,1273,1268,1268,1268,1264,1264,1264,1264,1259,1259,1255,1255,1255,1255,1250,1250,1250,1250,1250,1245,1245,1236,1236,1236,1236,1236,1236,1236,1232,1232,1227,1223,1219,1219,1214,1214,1214,1219,1219,1219,1214,1214,1214,1214,1210,1210,1206,1206,1206,1206,1202,1202,1202,1202,1197,1197,1193,1193,1193,1189,1185,1185,1185,1185,1185,1185,1185,1181,1181,1177,1177,1173,1173,1173,1173,1169,1169,1165,1165,1165,1165,1161,1161,1161,1157,1157,1153,1153,1153,1153,1153,1149,1149,1149,1149,1145,1141,1141,1141,1138,1138,1138,1138,1134,1134,1134,1134,1134,1134,1130,1130,1130,1126,1123,1123,1123,1119,1119,1119,1115,1112,1112,1108,1108,1108,1108,1105,1105,1105,1101,1101,0,0,0,0,0,0,0,0,0,0,0,0,0,0,0,0,0,0,0,0,0,0,0,0,0,0,0,0
0,0,0,0,0,0,0,0,0,0,0,0,0,0,0,1616,1616,1616,1609,1601,1601,1601,1601,1594,1594,1594,1594,1594,1594,1594,1594,1594,1594,1594,1594,1586,1586,1586,1579,1579,1579,1579,1579,1579,1579,1579,1579,1572,1572,1572,1572,1572,1572,1572,1564,1564,1564,1564,1564,1564,1564,1564,1564,1564,1564,1564,1564,1564,1564,1557,1557,1557,1557,1557,1557,1557,1557,1557,1557,1557,1557,1557,1550,1550,1550,1557,1557,1557,1557,1557,1557,1543,1543,1550,1550,1543,1543,1543,1543,1543,1543,1543,1543,1543,1543,1543,1543,1543,1543,1543,1543,1543,1543,1543,1536,1536,1543,1536,1536,1536,1536,1536,1536,1536,1543,1543,1557,1564,1564,1564,1572,1579,1579,2103,2103,2103,2103,2103,2103,2103,2103,2103,2090,2078,2078,2078,2065,2065,2065,2065,2053,2053,2053,1543,1543,1543,1543,1543,1543,1543,1543,1543,1550,1550,1557,1557,1557,1557,1557,1564,1564,1564,1564,1564,1572,1572,1572,1579,1579,1586,1586,1594,1594,1594,1601,1601,1616,1616,1616,1624,1624,1624,1624,1624,1632,1639,1639,1639,1647,1647,1647,1655,1655,1655,1655,1655,1655,1663,1663,1663,1663,1671,1680,1688,1688,1688,1688,1688,1688,1696,1696,1696,1696,1696,1705,1705,1713,1713,1722,1722,1722,1722,1731,1731,1731,1731,1739,1739,1748,1757,1757,1757,1757,1757,1757,1748,1739,1731,1722,1696,1688,1671,1663,1663,1655,1655,1655,1647,1639,1639,1639,1639,1632,1632,1632,1624,1624,1624,1624,1624,1624,1632,1632,1624,1609,1609,1601,1601,1601,1609,0,0,0,0,1097,1094,1090,1084,1084,1080,1080,1080,1077,1077,1077,1073,1073,1073,1073,1073,1073,1073,1073,1073,1067,1067,1063,1063,1063,1063,1063,1063,1063,1060,1060,1060,1060,1063,1057,1054,1050,1047,1047,1047,1044,1041,1041,1041,1041,1041,1041,1038,1038,1038,1034,1034,1034,1028,1028,1028,1025,1025,1022,1022,1019,1019,1019,1019,1019,1016,1013,1010,1010,1010,1007,1007,1007,1004,1001,998,995,995,992,992,992,989,989,992,989,989,987,984,981,981,978,975,975,975,975,975,973,970,967,964,964,962,962,962,962,1445,1445,1439,1439,948,948,948,946,946,946,940,940,940,940,938,935,935,935,1398,923,923,920,920,925,928,930,930,0,898,898,898,898,898,896,894,894,891,891,889,889,889,887,887,887,887,887,889,889,891,894,896,896,898,898,0,0,0,0,1328,1322,1322,1322,1322,1317,1317,1317,1312,1312,1312,1307,1307,1307,1302,1302,1297,1297,1297,1292,1292,1292,1292,1288,1288,1288,1288,1288,1283,1283,1278,1278,1273,1273,1273,1268,1268,1268,1264,1264,1264,1264,1264,1259,1259,1255,1255,1255,1255,1250,1250,1250,1250,1245,1245,1236,1236,1236,1236,1236,1236,1236,1232,1232,1232,1227,1223,1223,1223,1219,1219,1219,1219,1219,1219,1219,1214,1214,1214,1210,1210,1206,1206,1206,1202,1202,1202,1197,1197,1197,1197,1193,1193,1193,1189,1185,1185,1185,1185,1185,1185,1181,1181,1177,1177,1173,1173,1173,1173,1169,1169,1169,1165,1165,1165,1161,1161,1161,1157,1157,1157,1153,1153,1153,1153,1153,1153,1149,1149,1145,1145,1145,1141,1141,1138,1138,1138,1138,1134,1134,1134,1130,1130,1130,1130,1130,1126,1123,1123,1123,1119,1119,1119,1115,1112,1112,1108,1108,1108,1108,1105,1105,1105,1101,1101,0,0,0,0,0,0,0,0,0,0,0,0,0,0,0,0,0,0,0,0,0,0,0,0,0,0,0,0
0,0,0,0,0,0,0,0,0,0,0,0,0,0,0,1616,1616,1616,1609,1609,1601,1601,1601,1601,1594,1594,1601,1594,1594,1594,1594,1594,1594,1594,1594,1586,1586,1586,1579,1579,1579,1586,1579,1579,1579,1579,1579,1572,1572,1572,1572,1572,1572,1572,1564,1564,1564,1564,1564,1564,1564,1564,1564,1564,1564,1564,1564,1564,1564,1557,1557,1557,1557,1557,1557,1564,1564,1557,1557,1557,1557,1557,1550,1550,1557,1557,1557,1557,1557,1557,1557,1557,1550,1550,1550,1543,1543,1543,1543,1543,1543,1543,1543,1543,1543,1543,1543,1543,1543,1543,1543,1543,1543,1543,1543,1543,1543,1543,1543,1536,1536,1536,1536,1536,1543,1543,1557,1564,1564,1564,1572,1564,1564,2103,2103,2103,2103,2103,2103,2103,2103,2090,2090,2078,2078,2078,2065,2065,2065,2065,2053,2053,2053,0,1550,1550,1543,1543,1550,1543,1543,1550,1550,1550,1557,1557,1557,1557,1557,1564,1564,1564,1564,1564,1572,1572,1572,1579,1579,1586,1586,1594,1594,1594,1601,1609,1616,1616,1616,1624,1624,1624,1624,1624,1632,1639,1639,1639,1647,1647,1655,1655,1655,1655,1663,1663,1663,1663,1663,1671,1671,1671,1680,1688,1688,1688,1688,1688,1688,1696,1696,1696,1696,1696,1705,1705,1713,1713,1722,1722,1722,1722,1731,1731,1731,1731,1739,1739,1748,1757,1757,1757,1757,1757,1757,1757,1748,1731,1731,1722,1696,1680,1671,1663,1663,1655,1655,1655,1647,1647,1647,1639,1632,1632,1632,1632,1632,1632,1632,1632,1671,1671,1663,1632,1624,1616,1616,1616,0,0,0,0,0,0,1094,1090,1090,1084,1084,1080,1080,1080,1077,1077,1077,1073,1073,1073,1073,1073,1073,1073,1073,1073,1070,1070,1063,1063,1063,1063,1063,1063,1063,1063,1060,1060,1067,1063,1063,1054,1047,1047,1044,1044,1044,1041,1041,1041,1041,1041,1041,1038,1038,1041,1038,1038,1034,1028,1028,1028,1028,1025,1025,1025,1022,1022,1022,1022,1022,1019,1016,1013,1010,1010,1010,1010,1010,1007,1001,1001,1001,992,992,992,995,1483,1477,1477,992,989,987,987,987,984,978,975,975,978,978,975,973,970,970,970,964,962,962,1445,1445,1445,1445,1439,1439,1439,1439,1433,946,946,1427,946,946,943,940,938,938,1404,1398,1398,1404,1404,0,0,0,0,0,0,0,901,901,898,898,898,896,894,894,891,891,889,889,889,889,889,887,887,889,889,889,891,894,896,896,898,898,0,0,0,0,1328,1322,1322,1322,1322,1317,1317,1317,1317,1312,1312,1307,1307,1307,1307,1302,1302,1302,1302,1292,1292,1292,1292,1292,1292,1288,1288,1288,1288,1283,1278,1278,1273,1273,1273,1268,1268,1268,1264,1264,1264,1264,1264,1259,1259,1255,1255,1255,1255,1250,1250,1250,1250,1245,1245,1241,1236,1236,1236,1236,1236,1236,1232,1232,1232,1227,1227,1223,1223,1223,1223,1219,1219,1219,1219,1219,1214,1214,1214,1210,1210,1206,1206,1206,1202,1202,1202,1197,1197,1197,1197,1193,1193,1193,1189,1185,1185,1185,1185,1185,1185,1181,1181,1181,1177,1177,1177,1173,1173,1173,1169,1169,1165,1165,1165,1161,1161,1161,1157,1157,1157,1153,1153,1153,1153,1153,1153,1149,1149,1145,1145,1145,1141,1141,1138,1138,1138,1138,1134,1134,1134,1130,1130,1130,1130,1130,1126,1123,1123,1123,1119,1119,1119,1115,1112,1112,1112,1108,1108,1108,1105,1105,1105,1101,1101,0,0,0,0,0,0,0,0,0,0,0,0,0,0,0,0,0,0,0,0,0,0,0,0,0,0,0,0
0,0,0,0,0,0,0,0,0,0,0,0,0,0,0,1616,1616,1616,1616,1609,1609,1601,1601,1601,1601,1601,1601,1594,1594,1594,1594,1594,1594,1594,1594,1586,1586,1586,1586,1586,1586,1586,1586,1586,1579,1579,1579,1579,1572,1572,1572,1572,1572,1572,1564,1564,1564,1564,1564,1564,1564,1564,1564,1564,1564,1564,1564,1564,1564,1557,1557,1557,1557,1557,1557,1564,1557,1557,1557,1557,1557,1564,1564,1557,1557,1557,1557,1557,1557,1557,1557,1557,1550,1550,1550,1550,1543,1543,1543,1543,1543,1543,1543,1543,1543,1543,1543,1543,1543,1543,1543,1543,1543,1543,1543,1543,1543,1543,1543,1536,1536,1536,1536,1536,1543,1543,1557,1564,1564,1564,1572,1564,1564,2090,2090,2090,2103,2103,2103,2103,2103,2090,2090,2078,2078,2065,2065,2065,2065,2065,2053,2053,2053,0,1543,1543,1543,1543,1550,1543,1543,1543,1550,1550,1557,1557,1557,1557,1557,1564,1564,1564,1564,1564,1572,1572,1572,1579,1579,1586,1594,1594,1594,1601,1609,1609,1609,1616,1616,1624,1624,1624,1624,1632,1632,1632,1639,1639,1647,1647,1655,1655,1655,1663,1663,1663,1663,1663,1663,1671,1671,1671,1680,1688,1688,1688,1688,1696,1696,1696,1696,1696,1696,1696,1705,1705,1713,1713,1722,1722,1722,1722,1731,1731,1731,1731,1739,1748,1748,1757,1757,1757,1757,1757,1757,1757,1757,1748,1739,1731,1722,1705,1688,1688,1739,1739,1739,1739,1731,1722,1671,1671,1663,1655,1639,1639,1696,1696,1696,1696,1688,1688,1680,1680,1671,1663,1663,1688,0,0,0,0,0,0,1094,1090,1090,1087,1084,1084,1080,1080,1077,1077,1077,1077,1073,1073,1073,1073,1073,1073,1073,1077,1073,1070,1070,1067,1067,1616,1616,1609,1601,1594,1594,1594,1594,1586,1586,1586,1047,1047,1044,1044,1044,1041,1041,1041,1041,1041,1041,1041,1041,1041,1050,1034,1034,1031,1031,1031,1028,1028,1028,1028,1028,1523,1523,1523,1516,1516,1016,1013,1013,1013,1013,1010,1010,1010,1010,1503,1496,1489,1489,1483,1483,1489,1483,1477,1477,1470,1464,1464,1464,1464,1464,1458,1458,1458,978,975,975,1452,1452,1452,1445,1445,1445,1445,1445,1445,1445,1439,1439,1439,1439,1433,1433,1427,1421,1421,1421,1415,940,940,1404,1398,1398,1398,1398,1398,0,0,0,0,0,0,0,901,901,901,901,898,896,894,894,891,891,889,889,889,887,887,887,887,889,889,889,891,894,896,898,898,898,0,0,0,0,1328,1322,1322,1322,1322,1317,1317,1317,1317,1312,1312,1312,1307,1307,1307,1307,1302,1302,1297,1292,1292,1292,1292,1292,1292,1292,1288,1288,1288,1283,1278,1278,1273,1273,1273,1268,1268,1268,1268,1268,1264,1264,1264,1264,1259,1259,1255,1255,1255,1250,1250,1250,1250,1245,1245,1241,1241,1241,1236,1236,1236,1236,1232,1232,1232,1227,1227,1227,1223,1223,1223,1219,1219,1219,1219,1214,1214,1214,1214,1210,1210,1206,1206,1206,1202,1202,1202,1197,1197,1197,1197,1197,1193,1193,1189,1189,1189,1185,1185,1185,1185,1181,1181,1181,1177,1173,1173,1173,1173,1169,1169,1169,1169,1165,1165,1165,1161,1161,1157,1157,1157,1153,1153,1153,1153,1153,1153,1149,1149,1145,1145,1145,1141,1141,1141,1138,1138,1138,1138,1134,1134,1130,1130,1130,1130,1126,1126,1123,1123,1123,1119,1119,1119,1115,1115,1115,1112,1112,1108,1108,1105,1105,1105,1105,1105,0,0,0,0,0,0,0,0,0,0,0,0,0,0,0,0,0,0,0,0,0,0,0,0,0,0,0,0
0,0,0,0,0,0,0,0,0,0,0,0,0,0,0,1616,1616,1616,1616,1609,1609,1601,1601,1601,1601,1594,1594,1594,1594,1594,1594,1594,1594,1594,1594,1594,1594,1594,1586,1586,1586,1586,1586,1586,1579,1579,1586,1579,1572,1572,1572,1572,1572,1564,1564,1564,1564,1564,1564,1564,1564,1564,1564,1564,1564,1564,1564,1564,1564,1557,1557,1557,1557,1557,1557,1564,1557,1557,1557,1557,1564,1564,1564,1557,1557,1557,1557,1564,1557,1557,1564,1557,1557,1557,1550,1550,1543,1543,1550,1550,1543,1543,1550,1550,1550,1550,1550,1550,1543,1543,1543,1543,1543,1543,1543,1543,1543,1543,1543,1543,1543,1543,1543,1543,1543,1543,1557,1564,1564,1564,1564,1572,1572,2090,2090,2090,2103,2103,2103,2103,2103,2090,2090,2078,2078,2065,2065,2065,2065,2065,2053,2053,2053,0,0,1543,1543,1543,1550,1543,1543,1543,1550,1550,1557,1557,1557,1557,1557,1564,1564,1564,1564,1564,1572,1572,1579,1579,1586,1594,1594,1594,1594,1601,1609,1609,1609,1616,1624,1624,1624,1624,1624,1632,1632,1632,1639,1639,1647,1647,1655,1655,1655,1655,1655,1663,1663,1663,1663,1671,1680,1680,1688,1688,1688,1688,1688,1696,1696,1696,1696,1696,1696,1696,1705,1705,1713,1722,1722,1722,1731,1731,1731,1731,1731,1739,1739,1748,1757,1757,1757,1757,1766,1766,1766,1766,1766,1757,1757,1748,1731,1731,1739,1739,1739,1739,1739,1739,1739,1731,1722,1722,1722,1722,1722,1705,1696,1696,1705,1705,1696,1696,1688,1688,1688,1688,1688,1688,1688,0,0,0,0,0,1090,1090,1090,1087,1084,1084,1080,1080,1077,1077,1077,1077,1073,1073,1073,1073,1073,1077,1077,1077,1077,1077,1077,1632,1632,1632,1616,1609,1601,1601,1594,1594,1594,1594,1586,1586,1579,1579,1047,1044,1044,1041,1041,1041,1572,1041,1041,1041,1557,1550,1550,1550,1550,1543,1536,1529,1529,1543,1536,1536,1529,1523,1523,1523,1516,1516,1516,1019,1016,1013,1013,1013,1013,1016,1503,1503,1496,1489,1489,1489,1489,1489,1483,1477,1477,1470,1470,1470,1464,1464,1464,1464,1464,1464,1464,1458,1452,1452,1452,1452,1445,1445,1445,1445,1445,1445,1445,1439,1439,1439,1433,1433,1427,1427,1421,1421,1421,1415,1410,1410,1404,1398,1398,1398,1398,1398,0,0,0,0,0,0,0,903,903,901,901,898,896,894,894,891,891,889,889,889,887,887,887,887,889,889,889,894,894,896,898,898,0,0,0,0,0,1328,1322,1322,1322,1322,1322,1322,1317,1317,1317,1312,1312,1312,1307,1307,1307,1302,1302,1297,1292,1292,1292,1292,1292,1292,1292,1292,1288,1288,1283,1283,1278,1273,1273,1273,1273,1268,1268,1268,1268,1264,1264,1264,1264,1259,1259,1255,1255,1255,1250,1250,1250,1250,1245,1245,1241,1241,1241,1241,1236,1236,1236,1232,1232,1232,1227,1227,1227,1223,1223,1223,1219,1219,1219,1219,1214,1214,1214,1214,1210,1210,1210,1206,1206,1202,1202,1197,1197,1197,1197,1197,1193,1193,1193,1189,1189,1189,1185,1185,1185,1181,1181,1181,1181,1177,1173,1173,1173,1173,1169,1169,1169,1165,1165,1165,1165,1165,1161,1157,1157,1157,1157,1157,1153,1153,1153,1153,1149,1149,1149,1145,1145,1145,1145,1141,1141,1141,1138,1138,1134,1134,1130,1130,1130,1130,1126,1126,1123,1123,1123,1119,1119,1119,1115,1115,1115,1112,1112,1108,1108,1108,1105,1105,1105,1105,0,0,0,0,0,0,0,0,0,0,0,0,0,0,0,0,0,0,0,0,0,0,0,0,0,0,0,0
0,0,0,0,0,0,0,0,0,0,0,0,0,0,0,1616,1616,1624,1616,1616,1616,1609,1609,1601,1601,1594,1594,1594,1594,1594,1594,1594,1594,1594,1594,1594,1594,1594,1586,1586,1594,1594,1586,1586,1586,1586,1579,1579,1572,1572,1572,1572,1572,1564,1564,1564,1564,1564,1564,1564,1564,1564,1564,1564,1572,1564,1564,1564,1564,1564,1557,1557,1557,1564,1564,1564,1564,1564,1557,1557,1564,1564,1564,1557,1557,1557,1557,1564,1564,1564,1564,1564,1557,1557,1550,1550,1550,1550,1550,1550,1550,1550,1550,1550,1550,1550,1550,1550,1543,1543,1543,1543,1543,1543,1543,1543,1543,1543,1543,1543,1536,1536,1536,1543,1550,1550,1557,1564,1564,1564,1564,1564,2103,2103,2090,2090,2116,2103,2103,2103,2103,2090,2090,2078,2078,2065,2065,2065,2065,2065,2053,2053,0,0,0,1557,1557,1557,1550,1550,1550,1550,1550,1557,1557,1557,1564,1564,1564,1564,1564,1564,1564,1564,1572,1572,1579,1586,1594,1594,1594,1594,1594,1609,1609,1609,1609,1616,1624,1624,1624,1624,1624,1632,1632,1639,1639,1639,1639,1647,1655,1655,1655,1655,1655,1663,1663,1663,1671,1671,1680,1688,1688,1688,1688,1696,1696,1696,1696,1696,1696,1696,1696,1696,1705,1705,1713,1722,1722,1722,1731,1731,1731,1731,1731,1739,1739,1748,1757,1757,1757,1757,1766,1766,1766,1766,1766,1757,1757,1748,1739,1739,1748,1748,1748,1748,1739,1739,1739,1731,1731,1722,1722,1722,1722,1713,1705,1705,1705,1705,1696,1696,1696,1696,1688,1688,1688,1688,1688,0,0,0,0,0,1090,1090,1090,1087,1084,1084,1080,1080,1077,1077,1077,1077,1073,1073,1073,1073,1077,1077,1080,1080,1080,1080,1080,0,1624,1624,1609,1601,1601,1601,1601,1594,1594,1594,1594,1586,1579,1579,1579,1579,1579,1579,1572,1572,1572,1572,1572,1564,1557,1550,1550,1550,1550,1550,1543,1543,1543,1543,1536,1536,1529,1523,1523,1523,1523,1523,1516,1516,1516,1516,1516,1516,1509,1509,1503,1503,1496,1489,1489,1489,1489,1489,1483,1483,1477,1470,1470,1470,1470,1464,1464,1464,1464,1464,1464,1464,1458,1452,1452,1452,1445,1445,1445,1445,1445,1445,1445,1439,1439,1439,1433,1427,1427,1421,1421,1421,1421,1415,1415,1410,1404,1404,1404,1404,1404,1404,0,0,0,0,0,0,0,903,903,901,898,898,896,896,894,891,891,889,889,889,889,889,889,889,889,889,889,894,894,896,898,898,901,0,0,0,0,1328,1328,1328,1328,1322,1322,1322,1317,1317,1317,1312,1312,1312,1307,1307,1307,1302,1302,1297,1292,1292,1292,1292,1292,1292,1292,1288,1288,1288,1288,1288,1283,1273,1273,1273,1273,1268,1268,1268,1268,1268,1268,1264,1264,1264,1259,1259,1255,1255,1255,1250,1250,1245,1245,1245,1241,1241,1241,1241,1236,1236,1236,1236,1236,1232,1232,1227,1227,1223,1223,1223,1219,1219,1219,1219,1214,1214,1214,1214,1210,1210,1210,1210,1202,1202,1202,1197,1197,1197,1197,1197,1193,1193,1193,1189,1189,1189,1185,1185,1185,1181,1181,1185,1181,1177,1173,1173,1173,1169,1169,1169,1169,1165,1165,1165,1165,1165,1161,1157,1157,1157,1157,1157,1153,1153,1153,1153,1149,1149,1149,1149,1145,1145,1145,1141,1141,1141,1138,1138,1134,1134,1130,1130,1130,1126,1126,1123,1123,1123,1123,1119,1119,1119,1115,1115,1115,1108,1108,1108,1108,1108,1108,1105,1105,1105,0,0,0,0,0,0,0,0,0,0,0,0,0,0,0,0,0,0,0,0,0,0,0,0,0,0,0,0
0,0,0,0,0,0,0,0,0,0,0,0,0,0,1616,1616,1616,1624,1616,1616,1616,1609,1609,1601,1601,1594,1594,1594,1594,1594,1594,1594,1594,1594,1594,1594,1594,1594,1594,1594,1594,1594,1594,1594,1586,1586,1579,1579,1572,1572,1572,1572,1572,1572,1572,1572,1564,1564,1564,1564,1564,1564,1572,1572,1572,1564,1564,1564,1564,1564,1557,1557,1557,1564,1564,1564,1564,1564,1557,1557,1557,1564,1564,1564,1564,1564,1564,1564,1564,1564,1564,1564,1564,1564,1557,1557,1550,1550,1550,1550,1550,1550,1550,1550,1550,1550,1550,1550,1543,1543,1543,1543,1543,1543,1543,1543,1543,1543,1543,1543,1536,1536,1536,1543,1550,1550,1557,1564,1564,1564,1564,1564,2103,2103,2103,2103,2116,2103,2103,2103,2103,2090,2090,2078,2078,2065,2065,2065,2065,2065,2053,2053,0,0,0,1557,1557,1557,1550,1550,1550,1550,1557,1557,1557,1557,1564,1564,1564,1564,1564,1564,1564,1572,1572,1579,1579,1586,1594,1594,1594,1594,1601,1609,1609,1609,1616,1616,1624,1624,1624,1624,1624,1632,1632,1632,1632,1632,1639,1639,1647,1655,1655,1655,1655,1663,1663,1663,1671,1671,1680,1688,1688,1688,1688,1696,1696,1696,1696,1696,1696,1696,1696,1705,1705,1705,1713,1722,1722,1722,1731,1731,1731,1731,1731,1739,1739,1748,1757,1757,1757,1766,1766,1766,1766,1766,1766,1757,1757,1757,1748,1748,1748,1748,1748,1739,1739,1739,1739,1731,1731,1722,1722,1722,1722,1713,1705,1705,1705,1705,1696,1696,1696,1696,1696,1696,1696,1696,1696,0,0,0,0,0,1090,1087,1087,1087,1084,1084,1080,1077,1077,1077,1077,1077,1077,1077,1077,1077,1077,1077,1080,1080,1080,1080,0,0,1616,1616,1609,1601,1601,1601,1601,1601,1594,1594,1594,1586,1579,1579,1579,1579,1579,1579,1579,1579,1572,1572,1572,1564,1557,1557,1557,1550,1550,1550,1550,1543,1543,1543,1543,1536,1536,1529,1529,1523,1523,1523,1523,1523,1516,1516,1516,1516,1516,1509,1509,1509,1503,1496,1496,1496,1489,1489,1483,1483,1483,1477,1470,1470,1470,1470,1464,1464,1464,1464,1464,1464,1458,1452,1452,1452,1445,1445,1445,1445,1445,1445,1445,1439,1439,1439,1433,1427,1427,1421,1421,1421,1421,1421,1415,1415,1410,1410,1410,1410,1410,0,0,0,0,0,0,0,0,903,903,901,898,898,896,896,894,894,891,891,889,889,889,889,889,889,889,889,894,894,896,896,898,898,901,0,0,0,0,0,1328,1328,1328,1322,1322,1322,1322,1317,1312,1312,1312,1312,1312,1307,1307,1302,1302,1297,1297,1297,1292,1292,1292,1292,1292,1288,1288,1288,1288,1288,1283,1283,1278,1273,1273,1268,1268,1268,1268,1268,1268,1264,1264,1259,1255,1255,1255,1255,1255,1250,1250,1245,1245,1245,1241,1241,1241,1241,1236,1236,1236,1236,1236,1232,1232,1232,1227,1227,1223,1223,1223,1219,1219,1219,1214,1214,1214,1214,1210,1210,1210,1210,1202,1202,1202,1202,1197,1197,1197,1197,1197,1193,1193,1189,1189,1189,1185,1185,1185,1181,1181,1185,1181,1181,1177,1173,1173,1169,1169,1169,1169,1165,1165,1165,1165,1165,1161,1161,1157,1157,1157,1157,1153,1153,1153,1153,1149,1149,1149,1149,1149,1145,1145,1145,1141,1141,1138,1138,1134,1134,1130,1130,1130,1126,1126,1123,1123,1123,1123,1119,1119,1119,1119,1115,1115,1108,1108,1108,1108,1108,1108,1105,1105,1105,0,0,0,0,0,0,0,0,0,0,0,0,0,0,0,0,0,0,0,0,0,0,0,0,0,0,0,0
