0,0,0,0,0,0,915,915,915,915,915,915,915,915,915,918,923,923,925,925,925,925,925,928,928,930,930,930,930,0,1365,1365,1359,1359,1365,1365,1365,1365,1359,1359,1359,1359,1359,1365,1365,1365,1365,1365,1365,1365,1365,1365,1365,1365,1365,1365,1370,1370,1365,1365,1365,1359,1359,1354,1354,1354,0,0,0,0,0,0,0,0,0,0,0,0,0,0,0,0,706,704,703,701,700,698,697,696,694,691,690,690,690,690,690,663,661,661,659,657,654,652,650,648,648,648,648,648,648,648,649,649,649,650,650,652,653,654,655,661,661,661,661,662,664,664,666,666,667,668,670,679,680,680,680,682,683,686,688,691,691,693,693,693,694,696,697,700,700,701,701,704,0,0,0,0,0,1145,1145,1141,1141,1145,1145,1149,1153,1153,1157,1157,1343,1343,1343,1338,1338,1338,1338,1338,1338,1338,1338,1338,1333,1333,1333,1338,1338,1338,1338,1338,1338,1338,1338,1338,1338,1338,1338,1333,1333,1333,1333,1328,1328,1328,1255,1250,1250,1250,1250,1250,1250,1250,1250,1250,1250,1250,1255,1255,1259,1259,1264,1264,1264,1328,1328,1328,1328,1328,1333,1333,1333,1333,1333,1333,1333,1328,1328,1328,1328,1322,1322,1322,1322,1322,1328,1328,1328,1322,1322,1328,1322,1322,1322,1322,1322,1322,1322,1322,1322,1322,1322,1322,1322,1322,1322,1322,1322,1322,1322,1322,1322,1322,1322,1322,1322,1322,1322,1322,1322,1322,1317,1317,1317,1317,1312,1307,1307,1307,1302,1292,1288,1025,1025,1022,1019,1019,1016,1013,1013,1010,1010,1007,1007,1007,1007,1007,1007,1013,1016,1016,1019,1022,1025,1025,1028,1028,1028,1292,1297,1297,1297,1302,1307,1302,1302,1302,1302,1302,1307,1307,1307,1307,1302,1302,1302,1302,1302,1307,1307,1307,1307,1307,1307,1307,1307,1307,1307,1307,1307,1307,1307,1307,1302,1302,1302,1297,1297,1292,1292,1292,1292,1297,1297,1292,1292,1297,1297,1297,1297,1297,1297,1297,1297,1297,1297,1292,1292,1292,1292,1292,1292,1292,1292,1292,1292,1292,1292,1292,1292,1292,1292,1292,1292,1292,1292,1292,1292,1288,1288,1292,1292,1292,1292,1292,1292,1292,1288,1288,1288,1288,1288,1288,1288,1288,1288,1288,1288,1288,1288,1288,1288,1283,1283,1283,1283,1283,1283,1283,1283,1283,1283,1283,1283,1283,1278,1278,1278,1278,1278,1278,1278,1278,1278,1278,1278,1278,1278,1278,1278,1273,1273,1273,1273,1273,1273,1273,1273,1273,1273,1273,1273,1273,1268,1268,1268,1268,1268,1268,1268,1268,1268,1268,1268,1264,1264,1268,1268,1268,1264,1264,1264,1268,1264,1264,1264,1264,1264,1264,1259,1259,1255,1255,1259,1264,1264,1264,1264,1268,1268,1268,0,0,0,0,0,0,0,0,0,0,0,0,0,0,0,1101,1090,1090,1087,1087,1087,1087,1087,1087,1090,1090,1090,1087,1087,1080,1080,1077,1073,1067,1057,1054,1054,1050,1050,1050,1047,1044,1044,1044,889,889,889,889,889,891,891,891,891,891,894,891,891,891,891,891,891,891,894,894,894,894,894,896,896,896,896,896,896,896,896,898,898,901,903,903,906,906,908,913,913,913,915,915,913,910,908,908,906,903,898,898,894,894,891,889,889,887,885,885,0,0,0,0,0,0,0,0,0,0,0,0,0,0,0,0,0,0,0,0,0,0,0,0,0,0,0,0,0,0,0,0,0,0,0,0
0,0,0,0,0,0,918,915,915,915,915,915,915,915,915,918,920,923,923,925,925,925,925,925,928,930,930,930,0,0,1370,1370,1365,1365,1365,1365,1365,1365,1359,1359,1359,1354,1354,1359,1359,1359,1365,1365,1365,1365,1365,1365,1365,1359,1359,1359,1359,1359,1359,1359,1365,1359,1359,1354,1354,1349,1349,1349,0,0,0,0,0,0,0,0,0,0,0,0,0,0,0,0,0,701,698,698,697,696,694,693,691,690,690,690,690,663,662,661,661,659,655,652,650,649,648,648,648,648,648,648,649,649,649,650,650,652,653,654,658,663,663,662,662,663,664,666,666,666,667,668,671,679,680,680,682,682,684,686,688,691,691,693,693,693,693,696,696,700,701,701,704,704,0,1138,1138,0,1138,1145,1145,1145,1145,1145,1145,1153,1153,1153,1343,1343,1343,1343,1338,1338,1338,1338,1338,1333,1333,1333,1333,1333,1333,1333,1333,1333,1333,1333,1333,1333,1333,1333,1338,1333,1333,1333,1333,1328,1328,1328,1328,1328,1328,1328,1255,1255,1250,1250,1250,1250,1250,1250,1250,1250,1250,1250,1255,1255,1259,1259,1264,1264,1264,1328,1328,1328,1328,1328,1328,1328,1328,1328,1328,1328,1328,1322,1322,1322,1322,1322,1322,1322,1322,1322,1322,1322,1322,1317,1317,1322,1317,1317,1317,1317,1322,1322,1322,1322,1322,1322,1322,1322,1322,1317,1317,1317,1317,1317,1317,1322,1322,1322,1317,1317,1317,1317,1317,1317,1317,1317,1317,1317,1312,1312,1307,1307,1307,1302,1297,1292,1288,1025,1025,1022,1022,1022,1019,1016,1013,1013,1010,1010,1010,1007,1007,1007,1007,1013,1016,1016,1019,1022,1025,1028,1028,1028,1028,1292,1292,1292,1292,1297,1302,1297,1297,1297,1297,1297,1302,1297,1297,1302,1302,1302,1302,1302,1302,1302,1302,1302,1302,1302,1302,1302,1302,1302,1302,1302,1302,1302,1302,1302,1297,1297,1292,1292,1292,1292,1292,1292,1292,1292,1292,1292,1292,1292,1292,1292,1292,1292,1292,1292,1292,1292,1292,1292,1292,1288,1288,1288,1288,1288,1288,1288,1288,1288,1288,1288,1292,1292,1288,1288,1288,1288,1288,1288,1288,1288,1288,1288,1288,1288,1288,1288,1288,1288,1288,1288,1288,1288,1288,1288,1288,1288,1288,1288,1283,1283,1283,1283,1283,1283,1278,1278,1278,1278,1283,1278,1278,1278,1278,1278,1278,1278,1273,1273,1273,1273,1273,1273,1273,1273,1273,1273,1273,1278,1278,1278,1273,1273,1273,1273,1268,1268,1268,1268,1268,1268,1268,1268,1273,1268,1268,1268,1268,1268,1264,1264,1264,1264,1264,1264,1259,1259,1259,1259,1259,1259,1259,1259,1259,1259,1259,1259,1259,1259,1259,1259,1259,1255,1255,1255,1255,1255,1255,1259,1259,1264,1268,1268,0,0,0,0,0,0,0,0,0,0,0,0,0,0,0,0,1090,1087,1084,1084,1087,1087,1087,1087,1090,1090,1087,1087,1084,1080,1080,1073,1070,1063,1054,1054,1054,1050,1050,1050,1050,1050,891,891,891,889,889,889,889,891,891,891,894,891,891,891,891,891,891,891,891,891,894,894,894,896,896,896,896,896,896,896,898,898,898,898,898,903,903,906,906,908,910,913,913,913,915,915,910,908,906,903,901,901,898,896,894,891,889,889,887,887,885,885,0,0,0,0,0,0,0,0,0,0,0,0,0,0,0,0,0,0,0,0,0,0,0,0,0,0,0,0,0,0,0,0,0,0,0,0
0,0,0,0,0,0,918,915,915,915,915,915,915,915,918,918,920,923,923,923,925,925,925,925,928,930,930,930,933,933,1370,1370,1365,1365,1365,1365,1365,1354,1354,1354,1354,1349,1349,1354,1354,1359,1365,1365,1365,1365,1359,1359,1354,1354,1354,1354,1359,1354,1354,1354,1354,1354,1354,1354,1349,1349,1349,1343,1338,1338,0,0,0,0,0,0,0,0,0,0,0,0,0,0,0,0,698,698,697,694,693,691,690,690,688,688,688,663,662,661,661,659,655,653,650,649,649,649,648,648,648,648,649,649,650,650,650,652,654,655,658,662,663,663,663,664,664,666,666,666,667,667,671,679,680,682,682,682,683,686,688,691,691,693,693,693,693,696,696,700,703,703,704,704,1138,1138,1138,1138,1138,1141,1145,1145,1145,1145,1145,1157,1157,1338,1338,1338,1338,1338,1333,1333,1333,1333,1333,1328,1328,1328,1328,1328,1328,1328,1328,1328,1328,1328,1328,1328,1333,1333,1333,1328,1328,1328,1328,1328,1328,1328,1328,1322,1322,1259,1259,1255,1255,1255,1250,1250,1250,1250,1250,1250,1250,1250,1255,1255,1259,1259,1264,1264,1264,1322,1322,1322,1322,1322,1322,1322,1322,1322,1322,1322,1322,1322,1322,1322,1322,1322,1317,1317,1317,1317,1317,1317,1317,1312,1312,1312,1312,1312,1312,1312,1317,1317,1317,1317,1317,1317,1317,1317,1317,1317,1312,1312,1312,1312,1312,1312,1312,1312,1312,1312,1312,1312,1312,1307,1307,1312,1312,1312,1307,1307,1307,1302,1302,1297,1292,1292,1288,1028,1025,1025,1022,1022,1019,1019,1016,1013,1013,1010,1010,1010,1010,1010,1010,1013,1016,1016,1019,1022,1025,1028,1028,1028,1028,1292,1292,1292,1292,1297,1297,1297,1297,1297,1297,1297,1297,1292,1292,1292,1292,1292,1297,1297,1297,1297,1297,1297,1302,1297,1297,1297,1297,1297,1297,1297,1297,1297,1297,1292,1292,1292,1292,1288,1288,1288,1288,1288,1292,1292,1292,1292,1292,1292,1292,1292,1292,1292,1292,1288,1288,1292,1288,1288,1288,1288,1288,1283,1283,1283,1288,1288,1288,1288,1288,1288,1288,1288,1288,1288,1288,1288,1283,1283,1283,1283,1283,1283,1283,1288,1288,1288,1288,1283,1283,1283,1283,1283,1283,1283,1283,1283,1283,1283,1283,1283,1283,1283,1278,1278,1278,1273,1273,1273,1278,1278,1273,1273,1273,1273,1273,1273,1273,1273,1273,1273,1273,1268,1268,1268,1268,1268,1268,1268,1268,1268,1273,1273,1268,1268,1268,1268,1268,1268,1268,1268,1268,1268,1268,1268,1264,1264,1264,1264,1259,1259,1259,1259,1259,1259,1255,1255,1255,1259,1259,1259,1255,1255,1255,1259,1255,1255,1255,1255,1255,1255,1255,1255,1255,1255,1255,1255,1255,1255,1255,1264,1273,1273,0,0,0,0,0,0,0,0,0,0,0,0,0,0,0,0,1090,1084,1084,1084,1084,1084,1087,1087,1087,1087,1087,1084,1084,1080,1080,1073,1067,1060,1054,1050,1050,1050,1047,1047,1047,896,896,891,891,889,889,889,889,889,889,889,891,891,891,894,891,891,894,894,894,894,894,894,894,896,896,896,896,896,898,898,898,898,898,901,901,903,906,906,908,910,913,915,913,913,913,913,910,908,901,898,898,896,894,894,891,889,887,887,887,885,882,882,0,0,0,0,0,0,0,0,0,0,0,0,0,0,0,0,0,0,0,0,0,0,0,0,0,0,0,0,0,0,0,0,0,0,0,0
0,0,0,0,0,0,918,915,915,915,915,915,915,915,918,918,920,920,923,923,925,925,925,925,928,930,930,930,933,933,1370,1370,1365,1365,1365,1365,1359,1354,1354,1354,1349,1349,1349,1349,1349,1354,1359,1359,1359,1359,1359,1359,1354,1354,1354,1354,1354,1354,1354,1354,1354,1349,1349,1349,1349,1349,1343,1343,1338,1333,1328,1328,0,0,0,0,0,0,0,0,0,0,0,0,0,0,0,698,697,694,693,691,690,688,688,688,688,663,662,661,661,659,655,654,652,649,649,649,648,648,648,648,649,649,650,650,650,652,654,655,659,662,662,663,664,664,666,666,666,666,667,667,679,679,680,682,682,682,683,686,687,690,691,691,691,691,693,693,693,706,706,706,706,706,0,1138,1134,1134,1134,1138,1138,1145,1145,1145,1145,1333,1333,1333,1333,1338,1333,1333,1328,1328,1328,1328,1328,1322,1322,1322,1322,1322,1322,1322,1322,1322,1322,1328,1328,1328,1328,1328,1333,1328,1328,1328,1322,1322,1322,1322,1322,1322,1322,1259,1259,1259,1255,1255,1250,1250,1250,1250,1250,1250,1250,1250,1255,1255,1259,1259,1264,1264,1268,1317,1322,1322,1322,1322,1322,1322,1317,1317,1317,1317,1317,1317,1317,1317,1317,1317,1312,1312,1312,1312,1312,1312,1312,1307,1307,1307,1307,1307,1307,1307,1307,1312,1312,1312,1312,1317,1317,1312,1312,1312,1307,1307,1307,1307,1307,1307,1307,1307,1307,1302,1302,1302,1302,1302,1302,1307,1307,1307,1307,1302,1302,1302,1297,1297,1292,1292,1288,1288,1028,1025,1025,1025,1022,1019,1019,1016,1013,1013,1010,1010,1010,1010,1010,1016,1016,1019,1022,1022,1025,1028,1028,1028,1028,1292,1292,1292,1292,1292,1297,1292,1292,1292,1292,1292,1292,1292,1292,1292,1292,1292,1292,1292,1292,1297,1297,1297,1297,1297,1297,1292,1292,1292,1292,1292,1292,1292,1292,1292,1292,1292,1288,1288,1288,1288,1288,1288,1288,1288,1288,1288,1288,1288,1288,1288,1288,1288,1288,1288,1288,1288,1288,1288,1288,1283,1283,1283,1283,1283,1283,1283,1283,1283,1283,1283,1283,1283,1283,1283,1278,1278,1278,1278,1278,1278,1278,1278,1278,1283,1283,1283,1283,1283,1283,1278,1278,1278,1278,1278,1278,1278,1278,1278,1278,1278,1278,1278,1278,1278,1273,1273,1273,1273,1273,1273,1273,1273,1273,1273,1273,1268,1268,1268,1268,1268,1268,1264,1264,1268,1268,1268,1268,1264,1264,1268,1264,1264,1264,1264,1264,1264,1264,1268,1268,1268,1268,1268,1268,1264,1264,1264,1264,1264,1259,1259,1255,1255,1255,1255,1255,1250,1250,1255,1255,1255,1255,1255,1255,1255,1255,1255,1255,1255,1255,1255,1255,1255,1255,1250,1250,1250,1250,1250,1250,0,0,0,0,0,0,0,0,0,0,0,0,0,0,0,0,0,1084,1084,1084,1084,1084,1084,1084,1084,1087,1087,1087,1087,1084,1084,1080,1080,1077,1070,1063,1057,1050,1050,1047,1047,1047,1047,1047,896,896,894,894,891,889,889,889,889,889,889,891,891,891,894,894,894,894,894,894,894,894,894,894,896,896,896,896,898,898,898,901,901,901,901,903,906,906,906,908,913,913,915,913,913,913,913,910,906,896,896,894,891,889,889,889,887,885,882,882,882,882,882,0,0,0,0,0,0,0,0,0,0,0,0,0,0,0,0,0,0,0,0,0,0,0,0,0,0,0,0,0,0,0,0,0,0,0,0
0,0,0,0,0,0,920,915,915,915,915,915,915,915,918,918,920,920,923,923,925,925,925,928,928,930,930,930,933,933,935,1365,1365,1365,1359,1354,1354,1354,1349,1349,1349,1343,1343,1343,1349,1349,1354,1354,1354,1354,1354,1354,1349,1349,1349,1349,1349,1349,1349,1349,1349,1349,1349,1349,1349,1343,1343,1343,1338,1333,1328,1328,0,0,0,0,0,0,0,0,0,0,0,0,0,0,0,0,0,694,693,691,688,688,688,687,687,687,662,661,661,659,658,655,652,650,649,649,648,648,648,649,649,649,650,650,652,653,655,657,659,661,662,663,664,664,666,666,666,667,668,668,672,676,679,682,682,683,683,686,686,688,690,691,690,690,693,693,0,0,1134,1130,1130,0,1134,1134,1134,1134,1134,1138,1138,1145,1145,1145,1317,1322,1322,1328,1328,1328,1328,1328,1322,1322,1322,1322,1322,1322,1322,1317,1317,1322,1322,1322,1317,1317,1322,1322,1322,1322,1322,1322,1328,1328,1322,1322,1322,1322,1322,1322,1322,1322,1317,1259,1259,1264,1259,1255,1250,1250,1250,1250,1250,1250,1250,1250,1255,1259,1259,1264,1264,1268,1268,1307,1312,1317,1317,1312,1312,1312,1312,1312,1312,1312,1312,1312,1312,1312,1312,1312,1307,1307,1307,1307,1307,1307,1307,1307,1307,1307,1307,1307,1302,1302,1302,1307,1307,1307,1307,1307,1307,1307,1307,1307,1307,1302,1302,1302,1302,1302,1297,1297,1297,1297,1297,1297,1297,1297,1297,1297,1302,1302,1302,1297,1297,1297,1297,1292,1292,1292,1288,1288,1025,1025,1025,1025,1022,1022,1019,1019,1016,1013,1013,1013,1010,1010,1010,1016,1016,1019,1022,1022,1025,1028,1028,1028,1031,1292,1292,1292,1292,1292,1292,1292,1292,1292,1292,1292,1292,1292,1288,1288,1292,1292,1292,1292,1292,1292,1292,1292,1292,1292,1292,1292,1292,1292,1292,1292,1292,1288,1288,1292,1288,1288,1288,1288,1288,1288,1288,1288,1288,1288,1288,1288,1288,1288,1288,1288,1288,1283,1283,1283,1283,1283,1283,1283,1283,1278,1278,1278,1278,1278,1278,1278,1278,1278,1278,1278,1283,1283,1278,1278,1278,1278,1273,1273,1273,1273,1273,1273,1273,1278,1283,1278,1278,1278,1278,1278,1273,1273,1273,1273,1273,1273,1273,1273,1273,1273,1273,1273,1273,1268,1268,1268,1268,1268,1268,1268,1268,1268,1268,1268,1268,1268,1264,1264,1264,1264,1264,1259,1259,1264,1264,1259,1259,1259,1259,1259,1259,1259,1259,1259,1259,1259,1264,1264,1264,1264,1264,1264,1264,1264,1259,1259,1259,1259,1255,1255,1255,1255,1255,1250,1250,1250,1250,1250,1250,1250,1250,1255,1255,1255,1250,1250,1250,1250,1250,1250,1250,1250,1250,1250,1250,1250,1245,1245,1245,0,0,0,0,0,0,0,0,0,0,0,0,0,0,0,1094,1090,1084,1084,1084,1084,1084,1084,1084,1084,1087,1087,1084,1084,1084,1080,1077,1073,1070,1067,1060,1050,1047,1047,1047,1044,1044,1047,894,894,896,894,894,891,891,891,889,889,889,889,891,891,891,894,894,894,894,894,894,894,894,894,894,896,896,896,896,898,898,901,901,901,901,901,903,906,906,908,908,913,915,915,913,913,913,913,908,901,894,891,891,889,887,887,885,882,882,880,880,878,878,878,0,0,0,0,0,0,0,0,0,0,0,0,0,0,0,0,0,0,0,0,0,0,0,0,0,0,0,0,0,0,0,0,0,0,0,0
0,0,0,0,0,928,923,920,915,915,915,915,915,915,918,918,920,920,923,923,925,925,928,928,930,933,933,933,935,935,935,935,1354,1354,1354,1349,1349,1349,1349,1343,1343,1343,1343,1343,1343,1343,1349,1349,1349,1349,1349,1349,1343,1343,1343,1343,1343,1343,1343,1343,1343,1343,1343,1343,1343,1343,1343,1343,1338,1333,1328,1322,1322,0,0,0,0,0,0,0,0,0,0,0,0,0,0,0,0,694,693,691,688,688,687,687,687,686,686,661,661,659,658,655,653,650,649,649,648,648,648,649,649,649,650,650,652,653,655,657,658,661,661,662,664,664,666,666,666,668,670,670,672,675,679,680,680,682,683,684,686,688,690,691,690,690,690,1138,1138,1138,1134,1130,1130,1130,1134,1134,1322,1134,1134,1317,1317,1317,1322,1317,1317,1322,1322,1322,1322,1322,1317,1317,1322,1317,1317,1317,1317,1317,1317,1317,1317,1317,1317,1317,1312,1312,1312,1317,1317,1317,1317,1317,1317,1322,1317,1317,1317,1317,1317,1317,1312,1312,1312,1264,1264,1264,1264,1259,1255,1250,1250,1250,1250,1250,1250,1255,1255,1259,1264,1264,1268,1268,1288,1297,1307,1307,1312,1307,1307,1307,1307,1307,1307,1307,1307,1307,1307,1307,1307,1307,1307,1302,1302,1302,1302,1302,1302,1302,1302,1302,1302,1302,1302,1302,1302,1302,1302,1302,1302,1302,1302,1302,1302,1302,1302,1302,1302,1297,1297,1297,1292,1292,1292,1292,1292,1292,1292,1292,1292,1292,1292,1292,1297,1292,1292,1292,1292,1292,1292,1292,1288,1288,1025,1025,1025,1025,1022,1022,1022,1019,1016,1013,1013,1013,1010,1010,1013,1016,1016,1019,1019,1022,1028,1028,1031,1031,1031,1292,1292,1288,1288,1288,1292,1288,1288,1288,1288,1288,1288,1288,1288,1288,1288,1288,1288,1288,1288,1288,1288,1288,1288,1288,1288,1288,1288,1288,1288,1288,1288,1288,1288,1288,1288,1288,1283,1283,1283,1283,1283,1283,1283,1283,1283,1283,1283,1283,1283,1283,1283,1283,1278,1278,1278,1278,1278,1278,1278,1278,1278,1278,1278,1278,1278,1278,1278,1273,1273,1273,1273,1273,1273,1273,1273,1273,1273,1268,1268,1268,1268,1268,1268,1273,1278,1278,1278,1273,1273,1273,1273,1273,1273,1268,1268,1268,1268,1268,1268,1268,1268,1268,1268,1268,1268,1268,1268,1264,1264,1264,1264,1264,1264,1264,1264,1264,1259,1259,1259,1259,1259,1259,1259,1259,1259,1259,1259,1255,1255,1255,1255,1255,1255,1255,1255,1255,1255,1255,1255,1259,1259,1264,1264,1259,1259,1255,1255,1255,1255,1255,1255,1250,1250,1250,1250,1250,1250,1250,1250,1250,1250,1250,1250,1250,1250,1250,1250,1250,1250,1250,1250,1250,1250,1245,1245,1241,1236,1232,1232,0,0,0,0,0,0,0,0,0,0,0,0,0,0,0,1090,1090,1084,1084,1084,1084,1084,1084,1084,1087,1087,1087,1084,1080,1080,1080,1077,1073,1070,1067,1060,1050,1047,1047,1047,1044,1044,894,894,894,894,894,894,891,891,891,889,889,889,889,891,891,891,894,894,894,894,894,894,894,894,894,896,896,896,896,898,898,901,901,901,903,903,903,903,906,908,910,913,915,915,915,915,913,913,910,901,896,891,889,889,887,887,885,885,882,880,880,878,875,873,873,0,0,0,0,0,0,0,0,0,0,0,0,0,0,0,0,0,0,0,0,0,0,0,0,0,0,0,0,0,0,0,0,0,0,0,0
0,0,0,0,0,928,923,920,918,918,918,915,915,915,918,918,920,920,920,923,925,925,928,928,930,933,933,933,935,935,935,935,1354,1354,1349,1349,1349,1343,1343,1343,1343,1343,1338,1338,1338,1338,1338,1338,1343,1343,1343,1343,1338,1338,1338,1338,1338,1338,1338,1338,1338,1338,1338,1343,1343,1338,1338,1338,1333,1328,1328,1322,1322,1328,0,0,0,0,0,0,0,0,0,0,0,0,0,0,0,0,693,691,690,688,687,687,686,686,686,687,661,661,659,659,654,652,650,649,648,648,649,649,649,650,650,652,652,654,655,657,658,661,661,662,664,664,666,666,666,668,670,674,674,674,675,676,680,680,682,684,686,690,690,691,691,1141,1141,1138,1138,1138,1134,1134,1130,1130,1322,1322,1322,1317,1317,1322,1317,1317,1322,1317,1317,1317,1317,1312,1312,1312,1312,1312,1317,1312,1312,1317,1317,1317,1312,1312,1312,1312,1312,1312,1307,1307,1307,1312,1312,1312,1312,1312,1312,1312,1312,1312,1312,1312,1312,1312,1307,1307,1307,1268,1268,1268,1264,1259,1259,1255,1255,1255,1255,1255,1255,1255,1259,1259,1264,1264,1268,1273,1283,1297,1302,1302,1307,1307,1307,1302,1302,1302,1302,1302,1307,1307,1302,1302,1302,1302,1302,1302,1302,1302,1302,1302,1302,1297,1297,1297,1297,1297,1297,1297,1297,1297,1297,1297,1302,1297,1297,1302,1302,1302,1297,1297,1297,1292,1292,1292,1292,1288,1288,1288,1288,1288,1288,1292,1292,1292,1292,1292,1292,1288,1288,1288,1288,1288,1288,1288,1292,1292,1038,1025,1025,1025,1025,1025,1022,1022,1019,1016,1016,1013,1013,1013,1013,1016,1016,1019,1019,1022,1028,1028,1031,1031,1031,1031,1288,1288,1283,1283,1288,1288,1288,1288,1288,1288,1288,1283,1283,1283,1283,1283,1288,1288,1288,1288,1283,1283,1283,1283,1283,1283,1283,1283,1283,1288,1288,1288,1288,1288,1283,1283,1283,1283,1278,1278,1278,1278,1278,1283,1283,1283,1283,1278,1278,1278,1278,1278,1278,1278,1273,1273,1273,1273,1273,1273,1273,1273,1273,1273,1273,1273,1273,1273,1273,1273,1273,1273,1273,1273,1273,1273,1268,1268,1268,1268,1268,1268,1268,1268,1268,1268,1273,1273,1273,1273,1268,1268,1268,1268,1268,1268,1268,1268,1264,1264,1264,1264,1264,1264,1264,1264,1264,1259,1259,1259,1259,1259,1259,1259,1259,1259,1259,1255,1255,1259,1255,1255,1255,1259,1259,1255,1255,1255,1250,1250,1250,1250,1250,1250,1250,1250,1255,1255,1250,1250,1255,1259,1259,1259,1255,1255,1255,1255,1255,1250,1250,1250,1250,1250,1245,1245,1245,1245,1245,1250,1245,1245,1250,1245,1245,1245,1245,1245,1245,1245,1245,1245,1245,1241,1241,1236,1236,1232,1232,1232,0,0,0,0,0,0,0,0,0,0,0,0,0,1094,1090,1087,1084,1084,1084,1084,1084,1084,1084,1087,1084,1084,1080,1080,1080,1077,1073,1070,1067,1063,1057,1047,1047,1044,1044,1044,1044,894,894,894,894,894,894,891,889,889,889,889,889,889,891,891,891,894,894,894,894,894,894,894,894,894,896,896,896,898,898,898,901,901,903,903,903,903,906,908,910,913,915,915,915,915,913,910,910,901,896,891,889,889,887,887,885,885,882,880,880,878,875,873,871,871,0,0,0,0,0,0,0,0,0,0,0,0,0,0,0,0,0,0,0,0,0,0,0,0,0,0,0,0,0,0,0,0,0,0,0,0
0,0,0,0,930,928,925,923,918,918,920,915,915,915,918,918,920,920,920,923,925,925,928,930,933,933,933,933,935,935,935,935,1349,1349,1349,1343,1343,1343,1338,1338,1333,1333,1333,1333,1333,1333,1333,1333,1333,1338,1338,1338,1333,1333,1333,1333,1333,1333,1333,1333,1333,1333,1333,1338,1338,1333,1333,1333,1328,1328,1328,1322,1322,1322,1322,1322,1317,1317,1317,1322,1322,0,0,0,0,0,0,0,0,0,0,691,690,688,687,687,686,686,686,686,662,662,661,659,657,653,650,649,649,649,649,649,649,650,650,652,653,654,655,657,658,659,661,662,663,664,666,666,666,667,670,672,672,672,674,676,679,680,682,686,686,0,0,0,0,1141,1141,1134,1134,1134,1130,1130,1134,1317,1317,1317,1317,1317,1317,1317,1317,1317,1317,1312,1312,1312,1312,1312,1312,1307,1307,1307,1312,1312,1312,1312,1312,1312,1312,1312,1312,1312,1312,1312,1307,1307,1307,1307,1307,1307,1307,1307,1307,1307,1307,1307,1307,1307,1307,1307,1302,1302,1302,1297,1268,1268,1264,1264,1259,1259,1255,1255,1255,1255,1255,1259,1259,1264,1264,1264,1268,1273,1283,1288,1292,1297,1302,1302,1302,1302,1302,1302,1302,1302,1302,1302,1302,1302,1297,1297,1297,1297,1297,1297,1297,1302,1302,1297,1297,1297,1297,1297,1292,1292,1292,1292,1297,1297,1297,1297,1297,1297,1297,1292,1292,1292,1292,1292,1292,1288,1288,1288,1288,1288,1288,1288,1288,1288,1288,1288,1288,1288,1288,1288,1288,1288,1288,1288,1288,1288,1288,1288,1038,1028,1028,1028,1025,1025,1025,1022,1019,1019,1016,1013,1013,1013,1013,1016,1016,1019,1022,1025,1028,1031,1031,1031,1031,1031,1283,1283,1278,1278,1283,1283,1283,1283,1283,1278,1278,1278,1278,1278,1278,1278,1278,1278,1278,1278,1278,1278,1278,1278,1278,1278,1278,1278,1278,1278,1278,1278,1283,1283,1283,1278,1278,1278,1273,1273,1273,1273,1273,1273,1273,1278,1278,1273,1273,1273,1273,1273,1273,1273,1273,1273,1268,1268,1268,1268,1268,1268,1268,1273,1268,1268,1268,1268,1268,1268,1268,1268,1268,1268,1268,1268,1268,1268,1268,1264,1264,1264,1264,1264,1264,1268,1268,1264,1264,1268,1268,1268,1268,1268,1268,1264,1264,1264,1264,1264,1259,1259,1259,1259,1259,1259,1259,1255,1255,1255,1255,1255,1255,1255,1255,1255,1255,1255,1255,1255,1255,1250,1250,1250,1250,1250,1250,1250,1250,1250,1250,1250,1250,1250,1250,1250,1250,1250,1250,1250,1250,1250,1250,1250,1250,1250,1250,1250,1250,1250,1250,1250,1245,1245,1245,1241,1241,1245,1245,1245,1245,1245,1245,1245,1241,1241,1241,1236,1236,1236,1236,1236,1236,1236,1236,1236,1236,1232,1232,1227,1227,0,0,0,0,0,0,0,0,0,0,1090,1090,1090,1090,1087,1084,1084,1087,1084,1084,1084,1087,1087,1084,1084,1080,1080,1077,1077,1073,1070,1067,1060,1047,1047,1044,1044,1044,1047,894,894,894,894,894,894,894,891,889,889,889,889,889,889,891,891,891,894,894,894,894,894,894,894,894,894,896,896,896,898,898,898,901,903,903,903,903,903,908,910,913,915,918,915,915,915,910,903,898,896,891,889,889,889,887,885,885,882,880,880,878,875,873,869,869,871,0,0,0,0,0,0,0,0,0,0,0,0,0,0,0,0,0,0,0,0,0,0,0,0,0,0,0,0,0,0,0,0,0,0,0,0
0,0,0,0,930,928,925,923,923,923,920,918,918,918,918,918,920,920,923,923,925,925,928,930,933,933,933,935,935,935,935,935,0,1343,1343,1343,1343,1338,1338,1338,1333,1333,1328,1328,1328,1328,1328,1328,1328,1328,1333,1333,1333,1333,1328,1328,1328,1328,1328,1328,1328,1328,1328,1328,1328,1328,1328,1328,1322,1322,1322,1322,1322,1322,1322,1322,1317,1317,1317,1322,1317,1317,1322,1343,1343,0,0,0,0,0,0,0,690,690,688,687,686,686,686,686,662,662,661,659,659,655,653,650,649,649,650,650,650,650,652,653,654,654,655,657,658,659,661,662,663,664,666,666,666,667,671,671,672,672,674,678,679,0,0,0,0,0,0,0,0,1141,1141,1134,1134,1134,1130,1130,1134,1307,1307,1312,1312,1307,1307,1312,1317,1317,1317,1312,1312,1312,1312,1307,1307,1307,1307,1307,1307,1307,1307,1307,1307,1307,1307,1307,1307,1307,1307,1307,1307,1307,1307,1307,1307,1307,1307,1307,1307,1307,1307,1307,1302,1302,1302,1302,1302,1302,1302,1297,1288,1278,1268,1264,1264,1259,1259,1259,1259,1259,1259,1259,1264,1264,1268,1268,1268,1278,1278,1288,1288,1292,1292,1297,1297,1297,1297,1297,1302,1302,1302,1297,1297,1297,1292,1292,1292,1297,1297,1297,1297,1297,1297,1297,1297,1292,1292,1292,1292,1292,1292,1292,1292,1292,1292,1292,1292,1292,1292,1288,1288,1288,1288,1288,1288,1288,1288,1288,1288,1288,1288,1288,1288,1288,1288,1288,1288,1288,1288,1288,1283,1283,1283,1283,1283,1283,1283,1283,1038,1034,1031,1028,1025,1025,1025,1022,1019,1019,1016,1013,1013,1013,1013,1016,1019,1022,1022,1025,1031,1031,1031,1034,1034,1034,1278,1278,1278,1278,1278,1278,1278,1278,1278,1278,1278,1273,1273,1273,1273,1273,1273,1273,1273,1273,1273,1273,1278,1278,1273,1273,1273,1273,1273,1273,1273,1278,1278,1278,1278,1273,1273,1273,1273,1273,1273,1273,1273,1273,1273,1273,1273,1268,1268,1273,1273,1273,1268,1268,1268,1268,1268,1268,1268,1268,1268,1268,1268,1268,1268,1268,1268,1268,1268,1268,1264,1264,1264,1264,1268,1264,1264,1264,1264,1264,1264,1259,1259,1259,1259,1264,1259,1259,1259,1259,1259,1259,1264,1264,1264,1264,1264,1259,1259,1259,1255,1255,1255,1255,1255,1255,1255,1250,1250,1250,1250,1250,1250,1250,1255,1250,1250,1250,1250,1250,1250,1250,1250,1245,1245,1245,1245,1245,1245,1245,1245,1250,1250,1250,1245,1245,1250,1241,1241,1241,1241,1241,1241,1241,1241,1241,1241,1245,1245,1245,1245,1245,1241,1241,1241,1236,1236,1241,1241,1241,1241,1241,1241,1241,1236,1236,1236,1236,1236,1236,1236,1236,1236,1236,1236,1232,1232,1232,1227,1223,1202,1202,0,0,0,0,0,0,0,0,0,1090,1090,1090,1090,1087,1087,1087,1087,1087,1087,1087,1087,1087,1084,1084,1080,1077,1077,1073,1070,1067,1060,1054,1044,1044,1044,1041,1041,1041,894,894,894,894,894,894,894,891,891,891,889,889,889,889,891,891,891,894,894,894,894,894,894,894,894,894,896,896,896,898,898,898,901,903,903,906,906,906,908,913,915,918,918,915,915,913,906,901,898,896,891,889,889,887,887,885,882,880,878,878,875,875,871,867,867,0,0,0,0,0,0,0,0,0,0,0,0,0,0,0,0,0,0,0,0,0,0,0,0,0,0,0,0,0,0,0,0,0,0,0,0,0
0,0,0,933,930,928,925,925,923,923,920,918,918,918,918,918,920,920,923,923,925,928,930,930,933,933,933,935,935,935,935,935,0,1343,1343,1338,1338,1338,1338,1333,1328,1328,1328,1328,1328,1328,1322,1322,1322,1328,1328,1328,1328,1328,1328,1328,1328,1328,1328,1328,1328,1328,1328,1328,1322,1322,1322,1322,1322,1322,1317,1317,1322,1322,1322,1322,1322,1317,1317,1317,1312,1312,1317,1343,1343,0,0,0,0,0,0,0,0,0,688,687,687,687,687,687,663,663,661,659,659,655,653,650,650,650,650,650,650,652,653,653,654,654,655,657,658,659,661,662,663,664,666,666,666,668,671,671,672,672,674,676,678,0,0,0,0,0,0,0,0,1145,1141,1134,1134,1134,1134,1134,1307,1307,1307,1307,1307,1307,1307,1307,1307,1302,1302,1307,1307,1307,1307,1307,1307,1307,1307,1307,1307,1302,1302,1302,1302,1307,1302,1302,1307,1307,1307,1307,1302,1302,1302,1302,1302,1302,1302,1302,1302,1302,1302,1302,1302,1302,1302,1302,1302,1297,1297,1292,1292,1288,1273,1268,1264,1264,1259,1259,1259,1259,1259,1264,1264,1264,1268,1268,1268,1278,1278,1288,1288,1288,1292,1292,1292,1292,1292,1292,1297,1297,1297,1297,1292,1292,1292,1292,1292,1292,1292,1292,1297,1292,1292,1292,1292,1292,1292,1292,1288,1288,1288,1288,1288,1288,1288,1288,1288,1288,1288,1288,1288,1288,1288,1288,1288,1288,1288,1283,1283,1283,1283,1283,1283,1283,1283,1283,1283,1283,1283,1283,1283,1283,1283,1283,1283,1283,1278,1278,1288,1034,1034,1028,1028,1025,1025,1025,1022,1019,1019,1016,1013,1013,1013,1016,1019,1022,1025,1028,1031,1031,1031,1034,1038,1038,1278,1278,1273,1273,1273,1273,1273,1273,1273,1273,1273,1273,1273,1273,1273,1273,1273,1268,1268,1268,1268,1268,1268,1268,1268,1268,1268,1273,1273,1273,1273,1273,1273,1273,1273,1268,1268,1268,1268,1268,1268,1268,1268,1268,1268,1268,1268,1268,1268,1268,1268,1268,1268,1268,1264,1264,1264,1264,1259,1259,1259,1259,1264,1264,1268,1268,1268,1264,1264,1264,1259,1259,1259,1259,1259,1259,1259,1259,1259,1259,1259,1259,1255,1255,1255,1259,1255,1255,1255,1255,1255,1255,1255,1259,1259,1259,1259,1259,1255,1255,1255,1255,1255,1255,1250,1250,1250,1250,1250,1250,1245,1245,1250,1250,1250,1250,1250,1245,1245,1245,1245,1245,1245,1241,1241,1245,1245,1241,1241,1241,1241,1245,1245,1241,1241,1241,1241,1236,1236,1236,1236,1236,1236,1236,1236,1236,1236,1236,1236,1236,1236,1236,1236,1236,1236,1236,1236,1236,1236,1236,1236,1236,1236,1236,1236,1236,1236,1236,1236,1232,1232,1232,1232,1232,1232,1232,1227,1227,1223,1219,1202,1202,0,0,0,0,0,0,0,0,0,1094,1094,1094,1090,1090,1090,1090,1087,1087,1087,1087,1087,1087,1084,1080,1077,1077,1073,1070,1067,1063,1057,1047,1044,1044,1044,1041,1038,1038,898,894,894,896,896,894,894,891,891,891,891,891,889,889,891,891,891,894,894,894,894,894,894,894,896,896,896,896,896,898,898,901,901,903,903,906,906,908,913,915,918,918,918,915,913,908,901,898,898,896,891,889,887,887,885,882,880,880,878,878,875,873,871,864,864,0,0,0,0,0,0,0,0,0,0,0,0,0,0,0,0,0,0,0,0,0,0,0,0,0,0,0,0,0,0,0,0,0,0,0,0,0
0,0,0,933,933,928,928,925,923,923,920,920,918,918,918,920,920,920,923,923,925,928,930,933,933,933,933,935,935,935,935,0,1333,1333,1333,1328,1328,1328,1328,1328,1328,1328,1328,1328,1322,1322,1322,1322,1322,1322,1322,1322,1328,1328,1328,1328,1322,1322,1328,1322,1322,1322,1322,1322,1322,1317,1317,1317,1317,1317,1312,1312,1317,1317,1317,1317,1317,1317,1317,1312,1307,1307,1312,1343,1343,0,0,0,0,0,0,0,0,0,688,687,687,687,687,688,663,662,661,659,659,657,654,652,650,650,652,652,652,652,653,653,654,654,655,657,658,659,661,662,663,664,666,667,667,668,671,672,672,672,675,676,676,0,0,0,0,0,0,0,0,1145,1145,1138,1138,1141,1141,1302,1302,1302,1302,1307,1307,1307,1307,1302,1302,1302,1302,1302,1302,1302,1302,1307,1302,1302,1302,1302,1302,1302,1302,1302,1302,1302,1302,1302,1302,1302,1302,1302,1302,1302,1302,1297,1297,1302,1297,1297,1297,1297,1302,1302,1297,1297,1297,1297,1297,1297,1297,1292,1292,1288,1273,1268,1268,1264,1264,1264,1264,1259,1259,1259,1264,1264,1268,1268,1273,1278,1283,1283,1288,1288,1292,1292,1292,1288,1288,1292,1288,1288,1288,1292,1292,1292,1288,1288,1288,1288,1288,1288,1292,1292,1288,1288,1288,1288,1288,1288,1288,1288,1288,1288,1288,1288,1288,1288,1288,1288,1288,1288,1288,1288,1283,1283,1283,1283,1283,1283,1283,1283,1283,1283,1283,1283,1283,1283,1283,1283,1283,1283,1278,1278,1278,1278,1278,1278,1273,1273,1288,1034,1034,1028,1028,1028,1025,1025,1022,1022,1019,1016,1013,1013,1013,1016,1019,1022,1025,1028,1031,1031,1031,1034,1038,1038,1273,1273,1273,1268,1268,1273,1273,1273,1273,1273,1268,1268,1268,1268,1268,1268,1268,1268,1268,1268,1268,1268,1268,1268,1268,1268,1268,1268,1268,1268,1268,1268,1273,1268,1268,1268,1268,1268,1268,1264,1264,1268,1268,1268,1264,1264,1264,1264,1264,1264,1264,1264,1264,1264,1259,1259,1259,1259,1259,1259,1255,1255,1259,1259,1264,1264,1264,1264,1264,1259,1255,1255,1259,1259,1259,1259,1259,1259,1259,1255,1255,1255,1255,1255,1255,1255,1255,1255,1250,1250,1250,1250,1255,1255,1255,1255,1255,1255,1255,1250,1250,1250,1250,1250,1250,1245,1245,1245,1245,1245,1245,1245,1245,1245,1245,1245,1245,1245,1241,1241,1241,1241,1241,1241,1241,1241,1241,1241,1241,1241,1241,1241,1241,1236,1236,1236,1236,1236,1236,1236,1236,1236,1236,1236,1236,1236,1236,1236,1236,1236,1236,1236,1236,1236,1236,1232,1232,1232,1232,1232,1232,1232,1232,1232,1232,1232,1232,1232,1232,1232,1232,1227,1227,1227,1227,1227,1227,1227,1223,1214,1206,1206,1197,1197,0,0,0,0,0,0,0,1094,1094,1094,1094,1090,1090,1090,1087,1087,1087,1087,1087,1084,1084,1080,1077,1073,1070,1067,1063,1060,1054,1047,1044,1044,1041,1038,1038,1038,898,896,896,896,896,896,894,894,894,894,894,894,891,891,891,891,891,894,894,894,894,894,894,894,896,896,896,896,898,898,898,901,901,903,906,906,906,910,915,918,918,918,918,915,908,901,898,896,896,896,891,889,887,885,882,880,880,878,875,875,873,871,869,864,864,0,0,0,0,0,0,0,0,0,0,0,0,0,0,0,0,0,0,0,0,0,0,0,0,0,0,0,0,0,0,0,0,0,0,0,0,0
0,0,0,0,933,930,930,925,925,923,923,920,920,920,920,920,920,920,923,923,925,928,933,933,935,935,935,935,935,935,935,0,0,0,1333,1328,1328,1328,1328,1328,1328,1328,1322,1322,1322,1322,1322,1322,1322,1322,1322,1322,1322,1322,1322,1322,1322,1322,1322,1322,1322,1322,1322,1322,1317,1312,1312,1312,1312,1312,1312,1312,1312,1317,1317,1317,1317,1312,1312,1312,1307,1307,1307,0,0,0,0,0,0,0,0,0,0,0,0,687,687,687,688,690,663,662,661,661,659,658,655,654,653,653,652,652,652,652,653,653,654,654,655,657,659,659,661,662,663,664,667,667,667,668,671,672,672,672,675,676,676,0,0,0,0,0,0,0,1073,1073,1073,1073,1073,1307,1302,1297,1297,1302,1302,1302,1302,1302,1302,1302,1302,1297,1297,1297,1297,1297,1297,1297,1297,1297,1297,1302,1302,1297,1297,1297,1297,1297,1297,1297,1302,1297,1297,1297,1297,1297,1297,1292,1292,1297,1297,1297,1297,1297,1297,1297,1292,1292,1297,1297,1292,1292,1292,1292,1292,1283,1278,1268,1268,1264,1264,1264,1264,1264,1259,1259,1264,1264,1268,1268,1273,1278,1283,1283,1283,1288,1288,1288,1288,1288,1288,1288,1288,1288,1288,1288,1288,1288,1288,1288,1288,1288,1283,1283,1283,1288,1283,1283,1283,1283,1288,1288,1288,1288,1288,1288,1288,1288,1288,1288,1288,1283,1283,1283,1283,1283,1283,1283,1283,1283,1283,1278,1278,1278,1278,1278,1278,1278,1278,1278,1278,1278,1278,1278,1273,1273,1273,1273,1273,1268,1268,1268,1292,1034,1034,1034,1028,1028,1025,1025,1022,1022,1019,1016,1013,1013,1013,1019,1019,1022,1025,1028,1031,1031,1031,1038,1041,1041,1273,1273,1268,1268,1268,1268,1268,1268,1268,1268,1268,1268,1268,1268,1264,1264,1264,1264,1264,1264,1264,1264,1264,1264,1264,1264,1264,1264,1264,1264,1264,1264,1264,1264,1264,1264,1264,1264,1264,1264,1264,1264,1264,1264,1264,1264,1264,1259,1259,1259,1259,1264,1264,1259,1259,1259,1255,1255,1255,1255,1255,1255,1255,1259,1259,1259,1259,1259,1255,1255,1255,1255,1255,1255,1255,1255,1255,1255,1255,1250,1250,1250,1250,1250,1245,1245,1245,1250,1250,1250,1250,1250,1250,1250,1250,1250,1250,1250,1250,1250,1250,1245,1245,1245,1245,1245,1245,1245,1241,1241,1241,1241,1245,1245,1241,1241,1241,1241,1241,1236,1236,1236,1236,1236,1236,1241,1241,1236,1236,1236,1236,1236,1236,1236,1236,1236,1236,1232,1232,1232,1232,1232,1232,1236,1232,1232,1232,1232,1232,1232,1232,1232,1232,1232,1232,1232,1232,1232,1232,1227,1227,1227,1227,1232,1232,1232,1227,1227,1227,1227,1227,1227,1227,1227,1223,1223,1223,1223,1219,1214,1210,1206,1197,1197,0,0,0,0,0,0,1105,1101,1097,1097,1094,1094,1094,1090,1090,1090,1090,1090,1087,1084,1084,1080,1077,1070,1067,1067,1060,1054,1050,1047,1044,1041,1041,1038,1038,898,898,896,896,896,896,896,894,894,894,894,894,894,891,891,891,891,894,894,894,894,894,894,894,896,896,896,896,898,898,898,901,901,903,903,906,908,908,915,918,918,918,918,918,913,901,898,896,896,896,894,891,889,887,882,880,880,878,878,875,875,873,871,864,862,862,0,0,0,0,0,0,0,0,0,0,0,0,0,0,0,0,0,0,0,0,0,0,0,0,0,0,0,0,0,0,0,0,0,0,0,0,0
0,0,0,0,0,930,928,928,928,925,923,923,923,923,923,923,923,923,925,925,928,930,933,933,935,935,935,935,935,935,935,0,0,1328,0,1328,1328,1328,1328,1328,1322,1322,1322,1322,1322,1322,1322,1322,1322,1317,1317,1322,1322,1322,1322,1322,1322,1322,1322,1322,1317,1317,1317,1317,1312,1312,1312,1307,1307,1307,1307,1307,1312,1312,1312,1312,1312,1312,1312,1307,1307,1307,1307,0,0,0,0,0,0,0,0,0,0,0,0,0,687,687,687,664,664,663,662,661,659,658,657,655,654,653,653,652,652,652,653,654,654,654,655,657,659,659,661,663,664,666,667,667,667,668,671,671,672,674,675,676,0,0,0,0,0,0,0,0,1073,1070,1070,1070,1070,1070,1070,1297,1297,1297,1297,1302,1297,1297,1297,1292,1292,1292,1292,1292,1292,1292,1292,1292,1292,1292,1292,1292,1292,1292,1297,1292,1292,1292,1292,1292,1297,1292,1292,1297,1297,1292,1292,1288,1288,1292,1292,1292,1292,1292,1292,1292,1292,1292,1292,1292,1288,1288,1288,1288,1288,1283,1283,1273,1268,1264,1264,1264,1264,1264,1264,1264,1264,1264,1268,1268,1273,1278,1278,1283,1283,1288,1288,1288,1283,1283,1283,1288,1283,1283,1283,1283,1288,1283,1283,1283,1283,1283,1278,1278,1278,1283,1278,1278,1278,1278,1283,1283,1283,1283,1283,1283,1283,1283,1283,1283,1283,1283,1283,1283,1283,1283,1278,1278,1278,1278,1273,1273,1273,1273,1273,1273,1278,1278,1278,1273,1273,1273,1273,1273,1273,1273,1273,1268,1268,1268,1268,1264,1264,1038,1038,1034,1031,1028,1025,1025,1025,1022,1019,1016,1016,1016,1016,1022,1022,1025,1025,1031,1031,1031,1034,1041,1041,1041,1264,1264,1264,1264,1264,1268,1268,1268,1268,1268,1264,1264,1264,1264,1264,1264,1264,1264,1264,1264,1264,1264,1264,1264,1264,1259,1259,1264,1259,1259,1259,1259,1259,1259,1259,1259,1259,1259,1259,1259,1259,1259,1259,1255,1255,1255,1259,1259,1259,1259,1259,1259,1259,1255,1255,1255,1255,1255,1255,1255,1255,1250,1250,1255,1255,1255,1255,1255,1250,1250,1255,1250,1250,1250,1250,1250,1250,1250,1250,1250,1250,1245,1245,1245,1241,1241,1245,1245,1245,1245,1245,1245,1245,1245,1245,1241,1241,1241,1241,1241,1241,1236,1236,1245,1245,1241,1241,1241,1241,1241,1241,1241,1241,1241,1241,1241,1236,1236,1236,1236,1236,1236,1236,1236,1236,1236,1236,1236,1236,1236,1236,1236,1236,1236,1236,1232,1232,1232,1232,1227,1227,1227,1227,1232,1232,1232,1227,1227,1227,1227,1227,1227,1227,1227,1227,1227,1227,1227,1227,1227,1227,1227,1227,1227,1227,1227,1227,1227,1223,1223,1227,1223,1223,1223,1223,1223,1223,1219,1219,1214,1210,1202,1197,1197,0,0,0,0,0,1108,1105,1101,1101,1097,1097,1094,1094,1094,1094,1090,1090,1090,1087,1080,1077,1070,1070,1070,1063,1063,1054,1044,1044,1044,1041,1041,1041,1038,1038,898,898,896,896,896,896,896,894,894,894,894,894,894,894,894,894,894,894,896,896,896,896,896,896,896,896,896,898,898,901,901,901,901,903,906,906,908,910,915,918,918,918,918,915,906,898,898,896,896,896,894,891,889,887,882,880,878,878,875,873,873,869,864,864,862,862,0,0,0,0,0,0,0,0,0,0,0,0,0,0,0,0,0,0,0,0,0,0,0,0,0,0,0,0,0,0,0,0,0,0,0,0,0
0,0,0,0,0,0,928,925,925,925,925,925,923,923,923,923,925,925,925,925,928,930,933,933,935,935,935,935,935,935,935,935,0,0,1333,1333,1328,1328,1322,1322,1322,1322,1322,1317,1317,1317,1317,1317,1312,1312,1312,1312,1312,1317,1317,1317,1317,1317,1317,1317,1317,1312,1312,1312,1307,1307,1307,1307,1307,1307,1307,1307,1307,1307,1307,1307,1307,1307,1302,1302,1297,1297,1307,0,0,0,0,0,0,0,0,0,0,0,0,0,0,0,0,666,666,664,663,662,659,658,657,655,654,654,653,653,653,653,653,654,654,654,655,657,658,661,662,663,664,666,667,667,667,668,671,671,672,674,675,676,0,0,0,0,0,0,0,1073,1073,1070,1070,1070,1070,1070,1067,1063,1060,1060,1297,1302,1297,1292,1292,1292,1292,1292,1292,1292,1292,1292,1292,1292,1288,1288,1288,1288,1288,1288,1288,1288,1288,1288,1292,1292,1292,1292,1292,1292,1292,1292,1288,1288,1288,1288,1288,1288,1288,1288,1288,1288,1288,1288,1288,1288,1288,1288,1288,1288,1288,1283,1283,1273,1268,1268,1264,1264,1264,1264,1264,1264,1264,1268,1268,1268,1273,1273,1278,1278,1278,1283,1283,1283,1283,1283,1283,1283,1283,1283,1283,1283,1283,1283,1278,1278,1278,1273,1273,1268,1268,1273,1273,1273,1273,1273,1273,1278,1278,1278,1278,1283,1283,1278,1278,1278,1278,1278,1278,1278,1278,1278,1278,1278,1273,1273,1273,1268,1268,1268,1273,1273,1273,1273,1273,1268,1268,1268,1268,1268,1268,1268,1268,1268,1268,1264,1264,1264,1264,1038,1038,1034,1034,1031,1028,1028,1025,1022,1019,1019,1016,1016,1019,1022,1022,1025,1025,1031,1031,1031,1034,1041,1041,1041,1259,1259,1259,1259,1259,1259,1259,1259,1264,1264,1259,1259,1259,1264,1259,1259,1259,1259,1259,1259,1259,1259,1259,1259,1259,1259,1259,1259,1259,1259,1259,1259,1255,1255,1259,1259,1259,1259,1259,1259,1259,1255,1255,1255,1255,1255,1255,1255,1255,1255,1255,1255,1255,1255,1255,1255,1250,1250,1250,1250,1250,1250,1250,1250,1250,1250,1250,1250,1250,1250,1250,1250,1250,1250,1250,1250,1245,1245,1245,1245,1245,1241,1241,1241,1241,1241,1241,1245,1245,1245,1245,1241,1241,1241,1241,1236,1236,1236,1236,1236,1236,1232,1232,1236,1236,1236,1236,1236,1236,1236,1236,1236,1236,1236,1236,1236,1236,1236,1236,1236,1236,1236,1236,1232,1232,1232,1232,1232,1232,1232,1232,1232,1232,1232,1232,1227,1227,1227,1227,1227,1223,1223,1223,1227,1223,1223,1223,1223,1223,1227,1223,1223,1227,1223,1223,1223,1223,1223,1223,1223,1223,1223,1223,1223,1223,1223,1223,1223,1223,1219,1219,1219,1219,1219,1219,1219,1219,1214,1214,1210,1206,1202,1189,1189,0,0,0,0,0,1108,1105,1101,1101,1097,1097,1094,1094,1094,1094,1094,1090,1084,1080,1077,1073,1067,1067,1063,1057,1054,1050,1044,1044,1041,1041,1041,1038,1034,1034,898,898,898,898,896,896,896,896,894,894,896,896,894,894,894,894,894,894,894,894,896,896,896,896,898,898,898,898,901,903,903,903,906,906,906,908,910,913,918,918,918,918,915,915,901,898,896,896,896,894,889,887,887,882,880,878,878,878,875,871,871,869,864,862,862,862,0,0,0,0,0,0,0,0,0,0,0,0,0,0,0,0,0,0,0,0,0,0,0,0,0,0,0,0,0,0,0,0,0,0,0,0,0
0,0,0,0,0,0,0,925,925,925,925,925,925,925,925,923,923,925,925,925,928,933,933,935,935,935,935,935,935,935,938,0,0,0,1322,0,1322,1322,1317,1317,1317,1317,1317,1312,1312,1312,1312,1307,1307,1307,1307,1307,1307,1307,1312,1312,1312,1312,1312,1312,1312,1312,1307,1307,1307,1307,1307,1307,1302,1302,1307,1307,1307,1307,1302,1302,1302,1302,1292,1292,1292,1292,1307,0,0,0,0,0,0,0,0,0,0,0,0,0,0,0,0,663,663,666,664,662,661,658,657,657,655,654,654,654,654,654,654,654,654,654,655,658,658,661,663,664,664,666,667,667,668,670,671,672,672,675,675,0,0,0,0,0,0,0,0,1073,1073,1073,1070,1070,1070,1070,1063,1063,1060,1060,1057,1057,1297,1292,1292,1292,1292,1292,1288,1288,1288,1288,1288,1288,1283,1283,1283,1283,1283,1283,1288,1288,1288,1283,1283,1288,1288,1288,1288,1288,1288,1288,1288,1288,1288,1288,1283,1283,1283,1283,1283,1288,1283,1283,1283,1283,1283,1283,1283,1283,1283,1278,1278,1273,1273,1268,1268,1268,1264,1264,1264,1264,1268,1268,1268,1268,1273,1273,1278,1273,1273,1278,1278,1278,1278,1278,1278,1278,1278,1278,1278,1278,1278,1278,1273,1273,1273,1268,1268,1268,1268,1268,1268,1268,1268,1268,1268,1273,1273,1273,1273,1273,1278,1273,1273,1273,1273,1273,1273,1273,1278,1273,1273,1268,1268,1268,1268,1268,1268,1268,1268,1268,1268,1268,1268,1264,1264,1264,1264,1264,1264,1264,1264,1264,1264,1264,1264,1264,1264,1038,1038,1034,1034,1034,1031,1028,1028,1025,1022,1019,1019,1019,1019,1022,1025,1025,1028,1031,1031,1031,1038,1041,1041,1041,1255,1255,1255,1255,1255,1255,1255,1255,1255,1255,1255,1255,1255,1259,1259,1259,1259,1255,1255,1255,1255,1255,1255,1255,1255,1255,1255,1255,1255,1255,1255,1255,1255,1255,1255,1255,1255,1255,1255,1255,1255,1255,1250,1250,1250,1250,1250,1250,1250,1250,1250,1250,1250,1250,1250,1250,1250,1250,1250,1250,1250,1245,1245,1245,1245,1250,1250,1250,1250,1250,1245,1245,1245,1245,1245,1241,1241,1241,1241,1236,1236,1236,1236,1236,1236,1236,1236,1241,1241,1241,1241,1236,1236,1236,1236,1236,1236,1236,1232,1232,1232,1232,1232,1232,1232,1232,1232,1232,1232,1236,1236,1236,1232,1232,1232,1236,1232,1232,1232,1232,1232,1232,1232,1232,1227,1227,1227,1227,1227,1232,1232,1232,1232,1232,1232,1227,1223,1223,1223,1223,1223,1223,1223,1223,1223,1223,1219,1219,1219,1223,1219,1219,1223,1219,1219,1219,1219,1219,1219,1219,1219,1219,1219,1223,1223,1219,1219,1219,1219,1219,1219,1219,1219,1219,1219,1214,1214,1214,1210,1206,1202,1197,1189,1189,0,1185,0,0,0,1108,1105,1101,1097,1097,1097,1094,1094,1094,1094,1094,1090,1080,1077,1073,1070,1067,1063,1060,1057,1047,1047,1044,1044,1041,1041,1038,1038,1034,1034,896,896,896,896,896,896,896,896,896,896,896,896,896,894,894,894,894,894,894,894,896,896,896,896,898,898,898,901,903,903,906,906,906,906,908,910,915,915,918,918,918,918,915,901,901,898,896,896,896,894,889,887,887,880,878,878,878,875,875,871,869,864,864,862,860,860,0,0,0,0,0,0,0,0,0,0,0,0,0,0,0,0,0,0,0,0,0,0,0,0,0,0,0,0,0,0,0,0,0,0,0,0,0
0,0,0,0,0,0,0,0,928,925,925,925,925,925,925,923,923,925,925,928,930,933,933,935,935,935,935,935,935,935,938,0,943,0,0,0,1322,1322,1312,1312,1312,1312,1307,1307,1307,1307,1307,1307,1302,1302,1302,1302,1302,1302,1307,1307,1307,1312,1307,1307,1312,1307,1307,1307,1307,1307,1302,1302,1297,1297,1297,1297,1297,1297,1297,1297,1297,1292,1292,1292,1292,1292,1292,0,0,0,0,0,0,0,0,0,0,0,0,0,0,0,0,663,663,664,664,663,662,659,658,657,655,654,654,654,654,654,654,654,654,655,655,658,659,662,663,664,664,666,667,667,668,670,672,672,672,675,676,0,0,0,0,0,0,0,0,1073,1070,1070,1067,1067,1067,1063,1060,1060,1060,1057,1054,1054,1054,1054,1292,1288,1288,1288,1288,1288,1283,1283,1283,1283,1283,1283,1283,1283,1283,1283,1283,1283,1283,1283,1283,1283,1283,1283,1283,1283,1283,1283,1283,1283,1283,1283,1283,1283,1283,1283,1283,1283,1283,1278,1278,1278,1278,1278,1278,1278,1278,1278,1273,1273,1268,1268,1268,1268,1268,1268,1264,1264,1268,1268,1268,1268,1268,1273,1273,1273,1273,1273,1273,1273,1268,1268,1268,1268,1273,1273,1273,1273,1273,1268,1268,1268,1268,1268,1268,1268,1268,1268,1268,1264,1264,1264,1264,1264,1268,1268,1268,1273,1268,1268,1273,1268,1268,1268,1268,1268,1268,1268,1268,1268,1268,1268,1264,1264,1264,1264,1264,1268,1264,1264,1264,1259,1259,1259,1255,1255,1255,1259,1259,1259,1259,1259,1259,1259,1259,1038,1038,1038,1034,1034,1031,1031,1031,1028,1025,1022,1022,1022,1022,1025,1025,1025,1031,1031,1031,1034,1038,1041,1044,1044,1255,1255,1255,1255,1255,1255,1255,1255,1255,1255,1255,1255,1255,1255,1255,1255,1255,1255,1255,1255,1255,1255,1255,1255,1255,1255,1255,1255,1250,1250,1250,1250,1250,1250,1250,1250,1250,1250,1250,1250,1250,1245,1245,1245,1245,1245,1245,1245,1245,1245,1245,1245,1245,1245,1245,1250,1250,1245,1245,1245,1245,1241,1241,1241,1241,1241,1241,1241,1250,1250,1245,1245,1245,1245,1241,1241,1236,1236,1236,1236,1236,1232,1232,1236,1236,1236,1236,1236,1236,1236,1236,1236,1236,1236,1236,1232,1232,1232,1232,1232,1232,1232,1232,1232,1232,1232,1227,1227,1227,1227,1232,1232,1232,1232,1232,1232,1232,1232,1232,1232,1232,1232,1227,1227,1223,1223,1223,1223,1223,1223,1223,1223,1227,1227,1232,1223,1223,1223,1223,1223,1223,1223,1223,1223,1223,1223,1219,1219,1219,1219,1219,1219,1219,1219,1219,1214,1214,1214,1214,1214,1214,1214,1214,1214,1219,1219,1219,1214,1214,1214,1214,1214,1214,1214,1214,1214,1210,1210,1206,1202,1202,1197,1189,1185,1185,1185,1185,1185,0,1108,1105,1101,1097,1097,1097,1094,1094,1094,1090,1090,1084,1077,1073,1070,1067,1063,1060,1057,1054,1047,1044,1041,1041,1038,1038,1038,1038,1038,896,896,896,896,896,896,896,896,896,896,896,896,896,896,894,894,896,896,896,896,896,896,896,896,896,898,898,898,901,903,906,906,906,906,908,910,913,915,918,918,915,913,910,901,901,898,898,896,896,896,889,889,887,880,878,878,875,875,875,873,871,864,864,862,862,860,860,0,0,0,0,0,0,0,0,0,0,0,0,0,0,0,0,0,0,0,0,0,0,0,0,0,0,0,0,0,0,0,0,0,0,0,0,0
0,0,0,0,0,0,0,0,928,925,925,925,925,925,925,925,925,925,925,930,933,933,935,935,935,935,935,935,935,938,940,943,0,0,0,0,0,1322,1312,1312,1307,1307,1302,1302,1302,1302,1302,1302,1302,1302,1302,1302,1302,1302,1302,1307,1307,1307,1307,1307,1307,1302,1302,1302,1302,1302,1302,1297,1292,1292,1292,1292,1292,1292,1292,1292,1292,1292,1288,1288,1288,1288,1288,0,0,0,0,0,0,0,0,0,0,0,0,0,0,0,0,664,664,664,664,666,663,662,659,658,657,655,654,654,654,654,655,655,655,655,658,658,659,662,663,664,664,666,667,667,670,671,674,674,674,675,675,675,0,0,0,0,0,0,0,1070,1070,1067,1063,1063,1063,1060,1060,1057,1057,1057,1054,1054,1054,1047,1047,1288,1288,1288,1288,1288,1283,1283,1283,1283,1278,1278,1283,1283,1283,1278,1278,1283,1283,1278,1278,1273,1273,1278,1278,1278,1278,1278,1278,1278,1278,1278,1278,1278,1283,1278,1278,1278,1278,1273,1273,1273,1273,1273,1273,1273,1273,1273,1273,1268,1268,1268,1268,1268,1268,1268,1268,1268,1268,1268,1268,1268,1268,1268,1268,1268,1268,1268,1268,1268,1268,1264,1264,1264,1268,1268,1268,1268,1268,1268,1264,1264,1264,1268,1264,1264,1264,1264,1264,1264,1264,1264,1264,1264,1264,1264,1264,1268,1268,1268,1264,1264,1264,1264,1264,1264,1264,1264,1264,1264,1264,1264,1264,1264,1264,1264,1264,1264,1259,1259,1259,1255,1255,1255,1250,1250,1255,1255,1255,1255,1250,1250,1250,1250,1255,1038,1038,1038,1034,1034,1034,1031,1031,1028,1025,1025,1022,1022,1022,1025,1025,1028,1031,1031,1031,1034,1041,1041,1044,1044,1044,1255,1255,1250,1250,1250,1250,1250,1250,1250,1250,1250,1250,1255,1255,1255,1255,1250,1250,1255,1250,1250,1250,1250,1250,1250,1250,1250,1250,1250,1250,1250,1250,1250,1250,1250,1250,1245,1245,1245,1241,1241,1241,1241,1241,1241,1241,1241,1241,1241,1245,1241,1241,1241,1241,1241,1241,1241,1241,1241,1241,1241,1236,1236,1236,1236,1236,1236,1236,1236,1241,1241,1241,1241,1241,1236,1236,1236,1232,1232,1232,1232,1232,1232,1232,1232,1232,1232,1232,1232,1232,1232,1232,1232,1232,1232,1232,1232,1232,1227,1227,1227,1227,1227,1227,1227,1227,1223,1223,1223,1223,1223,1223,1223,1232,1232,1232,1232,1227,1227,1223,1223,1223,1219,1219,1219,1219,1219,1219,1219,1219,1219,1223,1223,1219,1219,1219,1219,1219,1219,1219,1219,1223,1223,1219,1219,1219,1214,1214,1214,1214,1214,1214,1214,1214,1214,1214,1214,1210,1210,1210,1210,1210,1210,1214,1214,1214,1214,1214,1214,1214,1214,1214,1214,1210,1210,1210,1210,1206,1202,1202,1197,1189,1185,1185,1193,1185,1185,1185,1185,1197,1197,1101,1097,1097,1094,1094,1094,1090,1080,1080,1073,1073,1067,1063,1063,1060,1057,1047,1044,1044,1041,1038,1034,1034,1038,1038,1038,898,898,898,898,896,896,896,896,896,896,896,896,896,896,896,896,896,896,896,896,896,896,896,896,896,898,898,898,901,903,906,906,906,908,908,910,913,915,915,915,915,913,908,901,898,898,896,896,894,891,889,889,882,878,878,875,875,875,873,871,869,864,862,862,862,860,860,0,0,0,0,0,0,0,0,0,0,0,0,0,0,0,0,0,0,0,0,0,0,0,0,0,0,0,0,0,0,0,0,0,0,0,0,0
0,0,0,0,0,0,0,0,0,925,925,925,925,925,925,925,925,925,925,930,933,935,935,935,935,935,938,938,938,940,940,943,951,951,0,0,0,1322,1307,1302,1302,1302,1302,1302,1302,1302,1297,1297,1302,1302,1302,1302,1297,1297,1302,1302,1302,1302,1302,1302,1302,1302,1302,1302,1302,1297,1297,1292,1292,1292,1292,1292,1292,1292,1292,1292,1292,1288,1288,1288,1288,1288,1288,0,0,0,0,0,0,0,0,0,0,0,0,0,0,0,0,0,0,666,666,666,664,663,662,659,657,655,655,655,655,655,655,655,655,657,658,659,661,662,663,664,664,666,667,668,670,671,674,674,674,675,675,675,0,0,0,0,0,0,0,1067,1067,1063,1063,1060,1060,1057,1057,1057,1057,1057,1054,1054,1050,1047,1047,1044,1044,1288,1288,1288,1283,1283,1278,1278,1278,1278,1278,1278,1278,1278,1278,1278,1278,1273,1273,1273,1273,1273,1273,1273,1273,1273,1273,1273,1273,1273,1273,1273,1278,1278,1278,1278,1278,1273,1273,1268,1268,1273,1268,1268,1268,1268,1268,1268,1268,1268,1268,1268,1268,1268,1268,1268,1268,1264,1264,1268,1268,1268,1268,1268,1268,1268,1264,1264,1264,1264,1264,1264,1264,1264,1264,1264,1264,1264,1264,1264,1264,1264,1264,1264,1264,1264,1259,1259,1259,1259,1259,1259,1264,1264,1264,1264,1259,1259,1259,1259,1259,1259,1259,1259,1259,1259,1259,1259,1259,1259,1259,1259,1259,1259,1259,1259,1255,1255,1255,1255,1255,1250,1250,1250,1250,1250,1250,1250,1245,1245,1245,1245,1250,1034,1034,1034,1034,1031,1031,1031,1028,1028,1028,1025,1025,1025,1025,1025,1025,1028,1031,1031,1034,1038,1041,1041,1044,1044,1044,1250,1250,1250,1250,1245,1245,1245,1245,1250,1250,1250,1250,1250,1250,1250,1250,1250,1250,1250,1250,1250,1250,1245,1245,1245,1245,1250,1250,1245,1245,1245,1245,1245,1245,1245,1245,1241,1241,1241,1236,1236,1236,1236,1241,1241,1241,1236,1236,1236,1236,1236,1236,1236,1236,1236,1236,1236,1236,1236,1236,1236,1236,1236,1236,1236,1236,1236,1236,1236,1236,1236,1236,1236,1236,1236,1232,1232,1232,1232,1232,1232,1232,1232,1232,1232,1232,1232,1232,1232,1232,1232,1232,1232,1232,1232,1232,1227,1227,1227,1227,1227,1227,1227,1227,1223,1219,1219,1219,1219,1219,1219,1219,1219,1223,1223,1223,1227,1227,1223,1219,1219,1219,1219,1219,1219,1219,1219,1219,1219,1219,1219,1219,1219,1219,1219,1219,1219,1214,1214,1219,1219,1219,1219,1214,1214,1214,1214,1214,1214,1214,1214,1214,1214,1210,1210,1210,1210,1210,1206,1206,1210,1210,1210,1206,1206,1206,1206,1206,1206,1210,1210,1210,1210,1210,1210,1206,1206,1206,1202,1197,1197,1189,1189,1189,1189,1185,1185,1185,1185,1185,1193,1193,1193,1197,1202,1202,1094,1094,1080,1077,1070,1070,1067,1063,1063,1057,1047,1044,1044,1041,1041,1038,1034,1034,1034,1034,898,898,898,898,896,896,896,896,896,894,894,894,894,894,894,896,896,896,896,896,896,898,898,898,896,896,898,898,898,903,906,906,906,908,908,908,910,913,915,915,915,915,913,906,901,898,898,896,894,894,891,889,887,880,878,878,875,875,875,873,871,869,864,862,862,862,860,860,0,0,0,0,0,0,0,0,0,0,0,0,0,0,0,0,0,0,0,0,0,0,0,0,0,0,0,0,0,0,0,0,0,0,0,0,0
0,0,0,0,0,0,0,0,0,0,925,925,925,928,925,925,925,925,925,933,933,933,933,935,935,935,935,938,938,940,943,951,951,951,954,0,0,1307,1307,1302,1297,1297,1292,1292,1292,1292,1297,1297,1297,1297,1297,1297,1297,1297,1297,1297,1297,1297,1297,1297,1302,1297,1297,1297,1297,1297,1292,1292,1288,1288,1288,1288,1288,1288,1288,1288,1288,1288,1288,1288,1288,1288,1288,0,0,0,0,0,0,0,0,0,0,0,0,0,0,0,0,0,0,668,667,667,666,663,662,661,658,657,655,655,655,655,655,657,657,658,659,661,661,662,663,664,664,666,667,670,670,671,674,674,675,675,675,675,0,0,0,0,0,0,0,1067,1067,1063,1060,1060,1057,1057,1057,1054,1054,1054,1054,1054,1050,1050,1047,1044,1044,1044,1044,1288,1283,1283,1278,1278,1273,1273,1278,1278,1278,1273,1273,1273,1273,1273,1268,1268,1268,1273,1268,1268,1268,1268,1268,1268,1268,1268,1268,1268,1268,1268,1268,1268,1273,1273,1268,1268,1268,1268,1268,1268,1268,1268,1268,1268,1268,1268,1268,1268,1268,1264,1264,1264,1264,1264,1264,1268,1268,1268,1268,1268,1268,1264,1264,1264,1259,1259,1259,1259,1264,1264,1264,1264,1264,1259,1259,1259,1259,1259,1259,1259,1259,1259,1259,1255,1255,1259,1259,1259,1259,1259,1259,1259,1255,1255,1255,1255,1250,1250,1255,1255,1255,1255,1255,1255,1255,1255,1255,1255,1255,1255,1255,1255,1255,1250,1250,1250,1250,1250,1250,1250,1245,1245,1245,1245,1245,1245,1245,1245,1250,1034,1034,1031,1031,1028,1028,1028,1028,1028,1025,1025,1025,1025,1025,1028,1028,1028,1031,1031,1034,1038,1041,1041,1044,1044,1047,1250,1250,1245,1245,1245,1245,1245,1245,1245,1245,1245,1250,1250,1250,1250,1250,1245,1245,1245,1245,1245,1241,1241,1241,1241,1241,1241,1245,1241,1241,1241,1245,1245,1241,1241,1241,1241,1236,1236,1236,1236,1236,1236,1236,1236,1236,1232,1232,1232,1232,1236,1236,1236,1236,1236,1236,1236,1236,1232,1232,1232,1232,1232,1232,1232,1232,1232,1232,1232,1232,1232,1232,1232,1232,1232,1232,1227,1227,1227,1227,1227,1227,1227,1227,1227,1227,1227,1227,1227,1223,1223,1227,1227,1227,1227,1227,1227,1227,1223,1223,1223,1223,1223,1223,1219,1219,1219,1214,1214,1214,1214,1214,1214,1219,1219,1219,1214,1214,1219,1219,1219,1219,1214,1214,1214,1214,1214,1214,1214,1214,1214,1214,1214,1214,1214,1214,1214,1214,1214,1214,1214,1214,1214,1214,1214,1214,1210,1210,1210,1206,1206,1206,1206,1206,1202,1202,1206,1206,1202,1202,1206,1206,1206,1206,1206,1206,1202,1202,1202,1202,1202,1206,1206,1206,1206,1202,1202,1202,1197,1193,1189,1189,1185,1185,1185,1185,1185,1185,1185,1185,1189,1189,1189,1193,1193,1197,1197,1197,1070,1070,1070,1070,1067,1063,1060,1057,1044,1041,1041,1041,1038,1031,1031,1034,1034,889,889,898,898,896,896,896,896,896,894,894,894,894,894,894,894,896,896,896,896,896,898,898,898,898,898,898,898,898,898,903,906,906,906,908,908,910,913,913,915,918,915,915,910,906,901,898,896,896,891,889,889,887,885,880,878,878,875,875,873,873,869,864,864,862,862,860,860,860,0,0,0,0,0,0,0,0,0,0,0,0,0,0,0,0,0,0,0,0,0,0,0,0,0,0,0,0,0,0,0,0,0,0,0,0,0
0,0,0,0,0,0,0,0,0,0,925,925,928,928,930,930,930,930,930,933,933,933,933,935,935,935,935,938,940,943,946,948,948,951,954,954,0,1292,0,1292,1292,1292,1288,1288,1288,1288,1288,1288,1292,1292,1292,1297,1292,1292,1292,1292,1292,1292,1292,1297,1297,1292,1292,1292,1292,1292,1288,1288,1288,1288,1288,1288,1288,1288,1288,1288,1288,1288,1283,1283,1283,1288,1288,0,0,0,0,0,0,0,0,0,0,0,0,0,0,0,0,0,0,668,667,666,664,664,663,662,661,657,655,655,655,655,657,658,658,659,659,661,661,663,664,664,664,666,667,670,670,671,674,674,675,675,675,675,675,0,0,0,0,0,0,1070,1067,1063,1060,1060,1057,1054,1054,1050,1050,1050,1050,1050,1047,1047,1047,1044,1044,1044,1041,1041,1283,1283,1278,1273,1273,1273,1273,1273,1273,1273,1273,1273,1268,1268,1268,1268,1268,1268,1268,1268,1268,1268,1268,1264,1264,1268,1268,1268,1268,1268,1268,1264,1264,1264,1264,1268,1268,1268,1264,1264,1264,1264,1264,1264,1264,1264,1264,1264,1264,1264,1264,1264,1264,1264,1264,1264,1264,1264,1264,1264,1264,1264,1259,1259,1259,1259,1259,1259,1259,1259,1259,1259,1264,1259,1259,1259,1255,1255,1255,1255,1255,1255,1255,1255,1255,1255,1255,1255,1255,1255,1255,1255,1250,1250,1250,1250,1250,1250,1250,1250,1250,1250,1250,1250,1250,1250,1255,1255,1250,1250,1250,1250,1250,1250,1250,1250,1250,1250,1245,1245,1245,1241,1241,1241,1241,1241,1241,1245,1250,1250,1028,1028,1028,1028,1028,1028,1028,1028,1025,1025,1025,1025,1025,1028,1028,1031,1031,1034,1034,1038,1041,1044,1044,1044,1047,1236,1236,1236,1241,1241,1241,1241,1245,1245,1245,1245,1245,1245,1245,1245,1245,1245,1241,1241,1236,1236,1236,1236,1236,1232,1232,1236,1236,1236,1236,1236,1236,1236,1236,1236,1236,1236,1236,1236,1236,1236,1232,1232,1232,1232,1232,1232,1227,1227,1232,1232,1232,1236,1232,1232,1232,1232,1232,1232,1232,1232,1232,1232,1232,1227,1227,1227,1227,1227,1227,1227,1227,1223,1223,1227,1227,1223,1223,1223,1223,1223,1223,1223,1223,1223,1223,1223,1223,1223,1223,1223,1223,1223,1223,1223,1227,1227,1223,1223,1223,1223,1219,1219,1219,1219,1214,1214,1214,1214,1214,1214,1214,1214,1210,1210,1210,1210,1210,1210,1210,1210,1214,1214,1214,1214,1214,1214,1214,1214,1214,1214,1214,1214,1210,1210,1210,1210,1210,1210,1210,1210,1214,1214,1214,1210,1210,1210,1210,1206,1206,1206,1206,1206,1202,1202,1202,1202,1202,1202,1202,1202,1202,1202,1202,1202,1202,1202,1202,1202,1202,1202,1202,1202,1202,1202,1197,1197,1197,1193,1189,1189,1189,1185,1185,1185,1185,1185,1185,1185,1185,1189,1189,1189,1189,1189,1193,1193,1193,1067,1067,1067,1070,1063,1060,1054,1054,1044,1041,1038,1038,1038,1028,1028,1028,889,889,889,894,894,896,896,896,896,896,894,894,894,894,894,894,894,896,896,896,896,896,898,898,898,898,898,898,898,898,901,903,906,906,906,908,908,913,915,915,915,918,913,913,908,906,901,896,896,891,889,889,887,885,882,880,878,878,875,875,873,871,869,864,862,862,862,860,858,858,0,0,0,0,0,0,0,0,0,0,0,0,0,0,0,0,0,0,0,0,0,0,0,0,0,0,0,0,0,0,0,0,0,0,0,0,0
0,0,0,0,0,0,0,0,0,0,928,928,928,930,930,930,930,930,930,930,933,933,935,935,935,935,938,938,943,943,946,948,948,948,954,956,956,0,1288,1288,1288,1288,1288,1288,1288,1288,1288,1288,1288,1288,1288,1288,1288,1288,1288,1288,1288,1288,1288,1288,1288,1288,1288,1288,1288,1288,1288,1283,1283,1283,1283,1283,1283,1283,1283,1283,1288,1288,1283,1283,1283,1283,1283,0,0,0,0,0,0,0,0,0,0,0,0,0,0,0,0,0,0,0,667,666,664,664,664,663,662,661,659,658,658,658,658,658,659,659,659,661,661,662,664,664,666,666,667,670,671,671,674,674,675,675,675,675,675,0,0,0,0,0,0,0,1067,1063,1060,1060,1054,1054,1050,1050,1050,1050,1047,1047,1047,1047,1047,1044,1041,1041,1041,1041,1041,1041,1278,1273,1273,1273,1273,1273,1273,1268,1268,1268,1268,1268,1268,1268,1268,1268,1268,1264,1264,1264,1264,1264,1264,1264,1264,1264,1264,1264,1264,1264,1259,1259,1264,1264,1264,1264,1264,1264,1264,1264,1264,1264,1264,1264,1264,1264,1259,1259,1259,1259,1259,1259,1259,1259,1259,1259,1259,1264,1264,1264,1259,1259,1259,1255,1255,1255,1259,1259,1259,1259,1259,1259,1255,1255,1250,1250,1250,1250,1250,1250,1250,1250,1250,1250,1250,1250,1250,1255,1250,1250,1250,1250,1250,1250,1250,1250,1250,1245,1245,1245,1245,1250,1250,1250,1250,1250,1245,1245,1245,1245,1250,1250,1250,1245,1245,1245,1245,1241,1241,1241,1241,1241,1241,1241,1241,1241,1025,1025,1025,1025,1025,1025,1025,1025,1025,1025,1025,1025,1025,1025,1025,1028,1028,1031,1031,1034,1034,1041,1041,1044,1044,1044,1047,1236,1236,1236,1236,1236,1236,1236,1236,1241,1241,1241,1241,1245,1241,1241,1241,1241,1241,1236,1236,1236,1236,1232,1232,1232,1232,1232,1232,1232,1232,1232,1232,1232,1236,1232,1232,1232,1232,1232,1232,1232,1227,1227,1232,1227,1227,1227,1227,1223,1223,1227,1227,1227,1227,1227,1232,1232,1232,1232,1232,1232,1232,1227,1227,1227,1227,1223,1223,1223,1223,1223,1223,1223,1223,1223,1223,1223,1223,1223,1219,1219,1219,1223,1219,1219,1219,1219,1219,1219,1219,1219,1219,1219,1219,1219,1223,1223,1219,1219,1219,1219,1219,1219,1214,1214,1214,1214,1210,1210,1210,1210,1210,1210,1206,1206,1206,1206,1206,1210,1210,1210,1210,1210,1210,1210,1210,1214,1214,1210,1210,1210,1210,1210,1206,1206,1206,1206,1206,1206,1206,1206,1206,1210,1206,1206,1206,1206,1206,1202,1202,1202,1202,1202,1202,1197,1197,1197,1197,1197,1197,1197,1197,1197,1197,1197,1197,1202,1197,1197,1202,1202,1202,1197,1197,1197,1197,1197,1197,1193,1189,1189,1189,1185,1185,1185,1185,1185,1185,1185,1185,1185,1185,1185,1185,1185,1185,1181,1067,1067,1063,1063,1067,1063,1054,1054,1044,1041,1038,1038,1038,1038,1028,1028,1028,889,889,889,894,894,896,896,896,896,896,896,894,894,894,894,894,894,896,896,896,896,896,896,898,898,898,898,898,898,898,898,903,906,906,906,908,908,913,915,915,915,915,913,913,908,906,898,896,891,891,889,889,887,885,880,880,878,878,875,873,871,871,869,864,862,862,860,860,858,858,0,0,0,0,0,0,0,0,0,0,0,0,0,0,0,0,0,0,0,0,0,0,0,0,0,0,0,0,0,0,0,0,0,0,0,0,0
0,0,0,0,0,0,0,0,0,940,930,930,930,930,930,930,930,930,930,930,933,933,935,935,935,938,938,940,943,943,946,946,948,948,954,954,954,0,1288,1288,1288,1288,1283,1283,1283,1283,1283,1283,1283,1283,1283,1283,1283,1283,1278,1278,1278,1278,1283,1283,1283,1283,1283,1288,1288,1283,1283,1283,1283,1283,1283,1283,1283,1283,1283,1283,1288,1283,1283,1283,1283,1283,1041,1041,1044,1044,1041,1041,1041,0,0,0,0,0,0,0,0,0,0,0,0,0,0,667,666,666,664,664,663,662,659,658,658,658,658,659,659,659,659,661,661,662,664,664,666,666,668,670,671,671,672,675,676,676,676,676,676,0,0,0,0,0,0,0,1063,1063,1060,1060,1054,1054,1050,1050,1050,1047,1047,1047,1047,1047,1044,1041,1041,1041,1041,1041,1041,1038,1038,1038,1273,1273,1273,1273,1273,1268,1268,1268,1268,1264,1264,1264,1264,1264,1264,1264,1264,1264,1259,1259,1259,1264,1264,1259,1259,1259,1259,1259,1259,1259,1259,1264,1259,1259,1259,1259,1255,1255,1259,1259,1259,1259,1255,1255,1255,1255,1255,1255,1255,1255,1255,1259,1259,1259,1259,1259,1259,1259,1255,1255,1255,1255,1255,1255,1255,1255,1255,1255,1259,1255,1250,1250,1250,1250,1250,1250,1250,1250,1250,1250,1250,1250,1250,1250,1250,1250,1250,1250,1245,1245,1245,1245,1245,1245,1245,1245,1245,1245,1245,1245,1245,1241,1241,1245,1245,1241,1241,1245,1245,1245,1245,1245,1245,1245,1245,1241,1241,1236,1236,1241,1241,1241,1241,1241,1022,1025,1025,1025,1025,1025,1025,1025,1025,1025,1025,1025,1025,1025,1025,1028,1028,1031,1031,1034,1038,1041,1041,1044,1044,1044,1047,1236,1236,1236,1232,1232,1236,1236,1236,1236,1236,1236,1236,1232,1232,1236,1236,1236,1236,1232,1232,1232,1232,1232,1232,1232,1232,1232,1232,1232,1227,1227,1227,1227,1232,1232,1232,1232,1227,1227,1227,1227,1227,1227,1227,1223,1223,1223,1223,1223,1223,1223,1223,1227,1227,1227,1227,1227,1227,1227,1227,1227,1227,1227,1227,1223,1223,1223,1223,1219,1219,1219,1219,1219,1219,1219,1219,1219,1219,1219,1219,1219,1219,1219,1219,1219,1219,1219,1214,1214,1214,1214,1214,1214,1214,1214,1219,1219,1219,1214,1214,1214,1214,1214,1214,1214,1214,1210,1210,1210,1206,1206,1206,1206,1206,1206,1206,1206,1206,1206,1206,1206,1206,1206,1206,1202,1202,1210,1210,1206,1206,1210,1206,1206,1206,1206,1202,1202,1202,1202,1202,1202,1202,1202,1202,1202,1202,1202,1202,1202,1202,1202,1202,1202,1202,1197,1197,1197,1197,1197,1197,1197,1197,1197,1197,1193,1193,1197,1197,1197,1197,1197,1197,1197,1193,1193,1193,1193,1189,1189,1189,1189,1189,1189,1185,1185,1185,1185,1185,1185,1185,1185,1185,1185,1185,1185,1181,1177,1063,1063,1060,1060,1063,1057,1054,1050,1041,1041,1038,1038,1038,1038,1038,1038,896,896,891,891,894,894,896,896,896,896,896,894,894,894,894,894,894,894,896,896,896,896,896,896,898,898,898,898,898,898,898,898,903,906,906,906,908,910,915,915,915,915,913,913,913,908,906,898,891,891,889,889,887,887,885,880,878,875,875,871,871,871,869,864,864,862,862,860,860,858,858,0,0,0,0,0,0,0,0,0,0,0,0,0,0,0,0,0,0,0,0,0,0,0,0,0,0,0,0,0,0,0,0,0,0,0,0,0
0,0,0,0,0,0,0,0,0,940,933,933,933,930,930,930,930,930,930,933,933,933,935,935,938,938,938,943,943,943,946,946,948,951,954,954,954,0,1283,1283,1283,1283,1283,1283,1278,1278,1278,1278,1278,1278,1278,1278,1283,1278,1273,1273,1278,1278,1273,1273,1273,1273,1278,1278,1278,1278,1278,1278,1278,1278,1278,1278,1278,1278,1278,1283,1283,1283,1283,1054,1050,1044,1041,1041,1041,1041,1041,1041,1041,1041,0,0,0,0,0,0,0,0,0,0,0,0,0,668,666,666,666,664,663,662,661,659,659,659,659,659,659,659,659,661,662,663,664,664,666,667,670,670,671,672,672,675,676,676,676,676,676,0,0,0,0,0,0,0,1063,1060,1060,1060,1057,1054,1050,1047,1047,1047,1047,1044,1044,1044,1041,1041,1041,1041,1041,1041,1041,1038,1038,1038,1041,1273,1273,1273,1268,1268,1268,1264,1264,1264,1264,1264,1259,1259,1264,1259,1259,1259,1259,1259,1259,1259,1259,1259,1259,1259,1259,1255,1255,1255,1255,1259,1259,1259,1259,1255,1255,1250,1250,1250,1250,1255,1255,1255,1250,1250,1250,1250,1250,1250,1250,1255,1255,1255,1255,1255,1255,1259,1250,1250,1250,1250,1250,1250,1250,1250,1255,1255,1255,1250,1250,1245,1245,1245,1245,1245,1245,1245,1245,1245,1245,1245,1245,1245,1245,1245,1245,1245,1245,1241,1241,1241,1241,1241,1241,1241,1241,1241,1241,1241,1241,1236,1236,1236,1236,1236,1236,1236,1236,1241,1241,1241,1241,1241,1241,1236,1236,1236,1236,1241,1241,1241,1241,1022,1022,1022,1022,1022,1022,1025,1025,1025,1025,1025,1025,1025,1025,1025,1025,1028,1028,1031,1031,1034,1038,1041,1041,1044,1044,1047,1050,1232,1232,1232,1232,1232,1232,1232,1236,1232,1232,1232,1232,1227,1227,1227,1223,1223,1227,1227,1232,1227,1227,1232,1232,1227,1227,1227,1227,1227,1227,1227,1223,1223,1223,1227,1227,1227,1227,1227,1227,1223,1223,1223,1223,1219,1219,1219,1219,1219,1219,1223,1223,1223,1223,1223,1223,1223,1223,1223,1223,1223,1223,1219,1219,1219,1219,1219,1219,1219,1219,1214,1214,1214,1214,1219,1219,1219,1219,1219,1219,1219,1219,1219,1219,1219,1219,1214,1214,1214,1214,1214,1214,1214,1210,1210,1214,1214,1214,1210,1210,1210,1210,1214,1214,1210,1210,1210,1206,1206,1206,1206,1206,1206,1202,1202,1202,1202,1202,1206,1202,1202,1202,1202,1202,1202,1202,1202,1202,1202,1202,1202,1202,1202,1202,1202,1202,1202,1202,1197,1197,1197,1197,1197,1197,1197,1197,1197,1197,1197,1197,1197,1202,1202,1202,1202,1197,1197,1197,1197,1193,1193,1193,1193,1193,1193,1193,1193,1197,1197,1197,1197,1197,1197,1193,1193,1193,1193,1189,1189,1185,1185,1189,1189,1185,1185,1185,1185,1185,1185,1185,1185,1185,1185,1181,1181,1177,1054,1054,1060,1060,1060,1057,1054,1050,1044,1041,1038,1038,1034,1034,1038,1038,896,896,896,894,894,894,894,896,896,894,894,894,894,891,891,891,894,894,894,896,896,896,896,898,898,898,898,898,898,898,898,901,901,903,906,906,906,908,910,915,915,913,913,913,910,910,908,903,896,891,889,889,887,885,885,882,880,878,875,873,871,869,869,869,864,864,862,862,860,860,858,858,0,0,0,0,0,0,0,0,0,0,0,0,0,0,0,0,0,0,0,0,0,0,0,0,0,0,0,0,0,0,0,0,0,0,0,0,0
0,0,0,0,0,0,0,0,0,940,935,935,933,933,933,930,930,930,933,933,933,935,935,935,938,938,940,943,943,943,946,948,948,948,951,954,0,1283,1283,1283,1278,1278,1278,1278,1278,1273,1273,1273,1278,1278,1278,1278,1278,1273,1273,1273,1273,1273,1273,1273,1273,1273,1273,1273,1273,1273,1278,1273,1273,1273,1273,1273,1273,1273,1273,1283,1278,1038,1038,1038,1038,1038,1038,1041,1041,1041,1041,1041,1041,1041,1041,0,0,0,0,0,0,0,0,0,0,0,0,670,667,666,666,666,663,663,661,661,659,659,659,659,659,661,661,662,662,663,664,664,666,667,670,670,671,672,672,675,676,678,678,678,678,0,0,0,0,0,0,0,1063,1060,1060,1060,1057,1054,1050,1047,1047,1047,1044,1044,1044,1041,1038,1038,1038,1038,1038,1038,1038,1038,1038,1038,1038,1038,1273,1273,1268,1268,1268,1264,1264,1264,1264,1259,1259,1259,1259,1259,1255,1255,1255,1255,1255,1255,1255,1255,1255,1255,1255,1255,1250,1250,1255,1255,1255,1255,1255,1250,1250,1250,1250,1250,1245,1245,1245,1245,1245,1250,1250,1250,1250,1250,1250,1250,1250,1250,1250,1250,1250,1255,1250,1250,1250,1250,1250,1250,1250,1250,1250,1250,1250,1250,1245,1241,1241,1241,1241,1241,1241,1241,1241,1241,1245,1245,1245,1245,1245,1241,1241,1241,1241,1236,1236,1236,1236,1236,1241,1236,1236,1236,1236,1236,1236,1232,1232,1236,1232,1232,1232,1232,1232,1232,1236,1236,1236,1236,1236,1232,1232,1232,1236,1236,1241,1241,1007,1019,1019,1019,1019,1019,1022,1022,1022,1022,1022,1022,1022,1022,1022,1025,1025,1028,1031,1031,1031,1034,1038,1041,1044,1044,1047,1050,1050,1232,1232,1232,1227,1227,1232,1232,1232,1232,1232,1227,1227,1223,1223,1223,1223,1223,1223,1223,1227,1227,1227,1227,1227,1227,1227,1227,1227,1227,1223,1223,1223,1219,1219,1223,1223,1223,1223,1223,1223,1223,1219,1219,1219,1219,1219,1219,1219,1219,1219,1219,1219,1219,1219,1219,1219,1219,1219,1219,1219,1219,1219,1214,1214,1219,1214,1214,1214,1214,1214,1214,1214,1214,1214,1214,1214,1214,1214,1214,1214,1214,1214,1214,1214,1214,1214,1214,1214,1214,1210,1210,1210,1210,1210,1210,1210,1210,1210,1210,1210,1210,1206,1206,1210,1206,1206,1210,1206,1206,1206,1206,1202,1202,1202,1202,1202,1202,1202,1202,1202,1202,1202,1202,1197,1197,1197,1197,1197,1197,1197,1202,1202,1202,1202,1202,1202,1197,1197,1197,1197,1197,1197,1197,1193,1193,1193,1193,1193,1193,1193,1193,1197,1197,1197,1197,1197,1197,1193,1193,1193,1189,1189,1189,1189,1185,1185,1189,1189,1193,1193,1193,1193,1193,1193,1189,1189,1193,1185,1185,1181,1181,1181,1181,1181,1181,1181,1181,1181,1181,1181,1181,1181,1181,1177,1177,1173,1054,1054,1057,1057,1057,1054,1054,1047,1041,1041,1038,1038,1034,1034,1034,1034,896,896,896,894,894,894,894,894,894,894,894,894,894,891,891,891,894,894,894,894,896,896,896,898,898,898,898,898,901,901,901,903,903,903,906,906,906,908,913,915,915,913,913,910,910,910,908,903,896,889,889,887,887,885,885,882,878,878,873,873,871,869,869,869,864,864,862,862,860,860,858,858,0,0,0,0,0,0,0,0,0,0,0,0,0,0,0,0,0,0,0,0,0,0,0,0,0,0,0,0,0,0,0,0,0,0,0,0,0
0,0,0,0,0,0,0,0,0,940,935,935,933,933,933,930,930,930,933,933,933,935,935,935,938,938,940,943,943,943,946,946,946,948,951,954,0,1283,1283,1278,1273,1273,1273,1273,1273,1273,1273,1273,1273,1268,1268,1273,1273,1268,1268,1268,1268,1268,1268,1268,1268,1268,1268,1273,1268,1268,1268,1268,1268,1264,1264,1268,1268,1264,1264,1283,1278,1038,1038,1034,1034,1034,1038,1038,1038,1038,1038,1038,1038,1038,1038,1041,0,0,0,0,0,0,0,0,0,0,0,670,668,667,667,666,664,663,662,661,661,661,661,661,661,661,661,662,663,663,664,666,667,670,670,671,671,672,674,675,676,678,678,678,678,680,0,0,0,0,0,0,1063,1060,1060,1060,1057,1057,1054,1047,1047,1047,1044,1041,1041,1038,1038,1038,1038,1038,1038,1038,1034,1034,1034,1034,1034,1034,1034,1273,1273,1268,1264,1264,1259,1259,1259,1259,1255,1255,1255,1255,1250,1250,1250,1250,1250,1250,1250,1250,1250,1250,1250,1250,1250,1250,1250,1250,1250,1250,1250,1250,1245,1245,1245,1245,1245,1245,1245,1245,1245,1245,1241,1241,1245,1245,1245,1245,1245,1245,1245,1245,1245,1245,1245,1245,1245,1245,1245,1245,1245,1245,1241,1236,1236,1236,1241,1236,1236,1236,1236,1236,1236,1236,1236,1241,1241,1241,1241,1241,1236,1236,1236,1236,1236,1232,1232,1232,1232,1232,1236,1232,1232,1232,1232,1232,1232,1232,1232,1232,1232,1232,1232,1232,1232,1232,1232,1232,1232,1232,1232,1232,1232,1232,1232,1236,1007,1007,1007,1010,1010,1013,1016,1016,1019,1019,1019,1019,1019,1019,1019,1022,1022,1022,1025,1028,1031,1031,1034,1034,1041,1041,1044,1050,1050,1054,1054,1060,1232,1227,1227,1227,1227,1227,1227,1227,1227,1223,1223,1219,1219,1219,1219,1219,1219,1219,1219,1223,1223,1227,1227,1227,1227,1227,1223,1223,1219,1219,1219,1219,1219,1219,1219,1219,1219,1219,1219,1219,1219,1219,1219,1219,1219,1219,1219,1219,1219,1219,1219,1219,1219,1219,1219,1219,1219,1214,1214,1214,1214,1210,1210,1214,1214,1214,1214,1214,1214,1214,1214,1214,1210,1210,1210,1210,1210,1206,1206,1214,1210,1210,1214,1210,1210,1210,1206,1206,1206,1206,1206,1206,1206,1206,1206,1206,1206,1206,1206,1206,1206,1206,1206,1202,1202,1206,1202,1202,1202,1202,1202,1202,1202,1202,1202,1202,1202,1197,1197,1197,1197,1197,1197,1193,1193,1197,1197,1197,1197,1202,1197,1197,1197,1197,1197,1197,1197,1197,1197,1193,1193,1189,1189,1189,1189,1185,1185,1189,1189,1189,1193,1193,1193,1193,1193,1189,1189,1189,1189,1189,1185,1185,1185,1185,1185,1189,1189,1193,1193,1193,1193,1193,1193,1189,1189,1193,1185,1181,1181,1181,1181,1181,1181,1177,1177,1181,1181,1181,1181,1177,1177,1177,1173,1173,1169,1054,1054,1057,1057,1057,1054,1050,1047,1041,1038,1038,1038,1034,1034,1034,898,896,896,896,894,894,894,894,894,894,894,894,894,894,894,894,894,894,894,894,894,896,896,896,896,898,898,901,901,901,901,903,903,903,906,906,906,908,908,913,915,915,913,910,908,908,908,906,903,891,889,887,885,885,882,882,880,878,875,873,873,871,869,869,867,864,862,862,862,860,858,858,858,0,0,0,0,0,0,0,0,0,0,0,0,0,0,0,0,0,0,0,0,0,0,0,0,0,0,0,0,0,0,0,0,0,0,0,0,0
0,0,0,0,0,0,0,0,0,943,943,940,935,935,933,933,933,933,933,933,933,935,935,935,938,938,940,943,943,943,946,946,946,946,951,951,0,1278,1278,1273,1268,1268,1268,1268,1268,1268,1268,1268,1268,1268,1268,1268,1268,1264,1264,1264,1264,1268,1268,1264,1264,1264,1268,1268,1268,1268,1264,1264,1264,1264,1264,1264,1264,1264,1264,1034,1034,1034,1034,1034,1034,1034,1038,1038,1038,1038,1038,1034,1034,1038,1038,1038,0,0,0,0,0,0,0,0,0,0,0,671,670,670,668,667,666,664,662,661,661,661,661,661,661,661,661,662,663,664,664,666,666,670,671,671,671,672,674,675,678,679,679,679,679,680,682,0,0,0,0,0,0,1060,1060,1060,1060,1057,1054,1047,1047,1047,1044,1041,1041,1038,1034,1034,1034,1034,1034,1034,1031,1031,1031,1031,1034,1031,1028,1028,1028,1025,1025,1264,1259,1255,1255,1250,1250,1250,1250,1250,1250,1250,1245,1245,1245,1250,1250,1245,1245,1245,1245,1245,1245,1245,1245,1245,1245,1245,1245,1245,1245,1245,1241,1241,1241,1241,1241,1241,1241,1241,1236,1236,1236,1236,1241,1241,1241,1241,1241,1241,1241,1241,1241,1241,1241,1241,1241,1241,1236,1236,1236,1232,1232,1232,1236,1236,1236,1232,1232,1232,1236,1232,1232,1236,1236,1236,1236,1236,1236,1232,1232,1232,1232,1232,1232,1232,1232,1232,1232,1232,1232,1232,1232,1232,1232,1232,1232,1232,1232,1232,1227,1227,1227,1227,1227,1227,1227,1227,1232,1232,1232,1232,1232,1004,1004,1007,1007,1010,1010,1010,1013,1013,1013,1016,1016,1016,1016,1019,1019,1022,1022,1022,1025,1031,1031,1031,1034,1038,1041,1041,1044,1050,1050,1057,1057,1060,1223,1223,1223,1223,1223,1223,1223,1223,1223,1223,1223,1219,1219,1219,1219,1219,1219,1219,1219,1219,1219,1219,1219,1219,1219,1219,1219,1219,1219,1219,1214,1214,1219,1219,1219,1219,1219,1219,1219,1219,1214,1214,1214,1214,1214,1214,1214,1214,1214,1214,1214,1214,1214,1214,1214,1214,1214,1210,1210,1210,1210,1210,1210,1210,1210,1210,1210,1210,1210,1210,1206,1206,1206,1206,1206,1206,1206,1202,1202,1202,1202,1202,1206,1206,1206,1202,1202,1202,1202,1202,1202,1202,1202,1202,1202,1202,1202,1202,1202,1202,1202,1202,1202,1202,1202,1202,1202,1202,1202,1197,1197,1197,1197,1197,1197,1197,1197,1193,1193,1193,1193,1193,1193,1189,1189,1197,1197,1189,1189,1197,1197,1197,1197,1193,1193,1193,1193,1193,1189,1189,1189,1185,1185,1189,1185,1185,1185,1185,1185,1185,1185,1185,1185,1189,1189,1189,1189,1189,1189,1185,1185,1185,1185,1185,1185,1189,1126,1126,1126,1126,1138,1138,1138,1138,1138,1177,1177,1177,1177,1181,1181,1181,1177,1177,1177,1177,1177,1177,1177,1173,1173,1173,1173,1169,1169,1165,1057,1057,1054,1054,1050,1050,1044,1038,1038,1038,1034,1034,1034,1034,898,896,894,894,894,894,894,894,894,894,894,894,894,894,894,894,894,894,894,894,894,896,896,896,896,898,898,898,901,901,901,903,903,906,906,906,906,908,910,913,915,913,913,910,908,906,906,906,901,891,887,887,885,882,882,880,878,875,875,871,871,871,869,869,864,864,862,860,860,858,856,856,856,0,0,0,0,0,0,0,0,0,0,0,0,0,0,0,0,0,0,0,0,0,0,0,0,0,0,0,0,0,0,0,0,0,0,0,0,0
0,0,0,0,0,0,0,0,0,943,943,943,940,938,935,933,933,933,933,933,933,935,935,938,938,940,940,943,943,943,946,946,946,946,951,951,0,1278,1278,1264,1264,1264,1264,1264,1264,1264,1264,1268,1268,1264,1264,1264,1264,1264,1264,1264,1264,1264,1264,1264,1264,1264,1264,1268,1264,1264,1264,1264,1264,1259,1259,1259,1264,1028,1028,1025,1025,1028,1031,1031,1031,1031,1034,1034,1034,1034,1034,1034,1034,1034,1034,1034,1034,0,0,0,0,0,0,0,0,0,0,675,671,671,670,668,666,664,663,661,661,661,661,661,661,661,662,663,664,664,664,666,666,670,670,671,672,672,675,676,678,679,679,680,680,680,682,0,0,0,0,0,0,1060,1060,1060,1060,1057,1054,1047,1047,1044,1044,1041,1038,1038,1034,1034,1034,1031,1031,1031,1031,1028,1028,1028,1028,1028,1028,1025,1025,1025,1025,1022,1022,1025,1255,1250,1250,1250,1250,1250,1250,1245,1245,1245,1245,1245,1245,1245,1245,1245,1241,1241,1241,1241,1241,1241,1241,1241,1236,1236,1241,1241,1236,1236,1236,1236,1236,1236,1236,1236,1232,1232,1232,1232,1236,1236,1232,1232,1232,1236,1236,1236,1236,1236,1236,1232,1232,1232,1232,1232,1232,1232,1232,1232,1232,1232,1232,1232,1232,1232,1232,1232,1232,1232,1232,1232,1232,1232,1232,1232,1232,1227,1227,1227,1227,1227,1227,1227,1227,1227,1227,1227,1227,1227,1227,1227,1227,1227,1223,1223,1227,1227,1227,1227,1227,1227,1227,1227,1227,1227,1227,1001,1001,1001,1004,1004,1004,1007,1007,1010,1010,1010,1010,1013,1013,1016,1016,1016,1019,1022,1022,1022,1025,1031,1031,1034,1038,1038,1041,1044,1047,1054,1054,1057,1057,1060,1219,1219,1219,1219,1219,1219,1219,1219,1219,1219,1214,1214,1214,1214,1214,1214,1214,1214,1214,1214,1214,1214,1214,1214,1214,1214,1214,1214,1214,1214,1214,1214,1214,1214,1214,1214,1214,1214,1214,1214,1214,1214,1214,1214,1214,1214,1214,1214,1214,1214,1214,1214,1214,1214,1214,1210,1210,1210,1210,1206,1206,1206,1206,1206,1202,1202,1210,1210,1210,1206,1206,1206,1202,1202,1202,1202,1202,1202,1202,1202,1202,1197,1197,1197,1197,1202,1202,1202,1202,1197,1197,1197,1197,1197,1197,1197,1197,1197,1197,1197,1197,1197,1197,1197,1197,1197,1202,1202,1197,1197,1197,1197,1197,1193,1193,1189,1189,1189,1189,1189,1189,1189,1189,1189,1189,1185,1185,1189,1189,1185,1185,1185,1189,1189,1185,1185,1185,1185,1189,1185,1185,1185,1185,1185,1185,1181,1181,1185,1185,1185,1185,1185,1185,1189,1185,1185,1185,1189,1189,1185,1185,1185,1185,1185,1130,1130,1126,1126,1126,1130,1138,1138,1138,1138,0,0,1173,1173,1173,1169,1169,1177,1177,1177,1177,1177,1177,1177,1173,1173,1173,1173,1173,1169,1169,1165,1057,1057,1054,1054,1050,1047,1041,1038,1038,1038,1034,1034,1034,1034,898,896,894,894,894,894,894,894,894,894,894,891,891,891,894,894,894,894,894,894,894,896,896,896,896,898,898,898,901,901,903,903,906,906,906,906,906,908,910,913,913,913,910,908,908,906,906,903,898,891,887,887,885,882,882,880,878,875,875,871,871,869,869,869,864,862,862,860,860,858,856,856,856,0,0,0,0,0,0,0,0,0,0,0,0,0,0,0,0,0,0,0,0,0,0,0,0,0,0,0,0,0,0,0,0,0,0,0,0,0
0,0,0,0,0,0,0,0,0,0,943,943,940,938,935,933,933,933,933,933,933,935,935,938,938,940,940,940,943,943,946,946,948,948,951,951,951,1259,1259,1259,1259,1259,1259,1259,1264,1264,1264,1264,1264,1259,1255,1255,1259,1255,1255,1255,1255,1259,1259,1259,1259,1264,1264,1264,1264,1264,1259,1259,1259,1259,1255,1025,1022,1022,1025,1025,1025,1028,1028,1028,1031,1031,1031,1034,1034,1034,1034,1031,1031,1031,1031,1031,1031,0,0,0,0,0,0,0,0,0,0,675,674,674,671,670,667,664,663,662,661,661,661,661,661,661,662,663,664,664,664,666,667,670,670,671,672,674,675,676,678,679,680,680,680,682,682,684,0,0,0,0,0,0,1060,1060,1060,1060,1057,1047,1047,1044,1044,1041,1038,1038,1034,1034,1031,1031,1031,1028,1028,1028,1028,1028,1028,1025,1025,1025,1025,1025,1025,1022,1022,1022,1022,1250,1245,1245,1245,1245,1245,1245,1241,1241,1241,1241,1241,1241,1241,1241,1241,1236,1236,1236,1236,1236,1236,1236,1236,1236,1236,1236,1236,1236,1232,1232,1232,1232,1232,1232,1232,1232,1232,1232,1232,1232,1232,1232,1232,1232,1232,1232,1232,1232,1232,1232,1227,1227,1227,1227,1227,1227,1227,1227,1227,1227,1227,1227,1227,1227,1232,1227,1227,1232,1232,1232,1227,1227,1227,1227,1227,1227,1227,1227,1227,1223,1223,1223,1223,1223,1223,1223,1223,1223,1223,1223,1223,1223,1223,1223,1223,1223,1223,1223,1223,1223,1223,1223,1223,995,995,998,998,1001,1001,1004,1004,1007,1007,1007,1007,1010,1010,1010,1013,1013,1013,1016,1016,1019,1022,1022,1025,1031,1031,1034,1038,1038,1041,1044,1047,1050,1054,1057,1057,1063,1214,1214,1214,1214,1219,1219,1214,1214,1214,1214,1214,1210,1210,1210,1210,1210,1210,1210,1210,1210,1214,1214,1210,1210,1210,1210,1214,1206,1206,1206,1210,1210,1210,1210,1210,1210,1214,1214,1214,1214,1210,1210,1210,1210,1210,1210,1210,1210,1210,1210,1210,1210,1210,1210,1210,1210,1206,1206,1206,1206,1206,1202,1202,1202,1202,1197,1197,1202,1206,1206,1202,1202,1202,1202,1202,1202,1202,1202,1197,1197,1197,1197,1197,1197,1197,1197,1197,1197,1197,1197,1193,1193,1193,1193,1197,1197,1197,1197,1197,1197,1197,1197,1197,1197,1197,1197,1197,1197,1197,1197,1197,1197,1197,1189,1189,1189,1185,1185,1189,1189,1189,1189,1189,1189,1185,1185,1185,1185,1185,1185,1185,1185,1185,1185,1181,1181,1181,1181,1181,1181,1181,1181,1181,1185,1181,1181,1181,1181,1181,1181,1181,1185,1185,1185,1185,1185,1185,1185,1189,1185,1185,1134,1134,1130,1130,1130,1126,1126,1130,1130,1138,1138,1138,1138,1138,1157,1165,1165,1165,1169,1169,1173,1173,1173,1173,1173,1173,1173,1173,1169,1169,1169,1169,1169,1165,1165,1050,1050,1050,1050,1050,1047,1041,1038,1038,1038,1034,1034,1034,898,898,896,896,896,894,894,894,894,894,894,894,891,891,891,894,894,894,894,894,894,896,896,896,896,896,898,898,898,901,901,903,903,906,906,906,906,906,908,913,913,913,910,910,908,906,906,903,901,898,891,887,885,882,882,880,880,878,875,873,871,871,869,869,869,864,862,862,860,860,858,856,856,856,0,0,0,0,0,0,0,0,0,0,0,0,0,0,0,0,0,0,0,0,0,0,0,0,0,0,0,0,0,0,0,0,0,0,0,0,0
0,0,0,0,0,0,0,0,0,0,946,943,943,940,938,935,935,935,935,933,933,935,935,938,938,940,940,940,943,946,946,948,948,948,951,951,951,0,1255,1255,1255,1255,1255,1259,1259,1259,1259,1259,1259,1255,1255,1255,1255,1255,1255,1255,1255,1255,1255,1255,1259,1259,1259,1264,1259,1259,1259,1259,1259,1255,1019,1019,1022,1022,1025,1025,1025,1025,1025,1025,1028,1028,1028,1034,1034,1034,1034,1031,1031,1031,1031,1031,1031,0,0,0,0,0,0,0,0,0,0,675,675,674,674,671,668,667,664,662,662,662,661,661,661,662,662,663,664,664,664,666,667,670,671,671,672,674,676,676,678,679,680,680,682,682,683,684,0,0,0,0,0,0,0,1060,1060,1060,1057,1050,1047,1044,1041,1038,1038,1034,1034,1034,1031,1031,1028,1028,1028,1025,1025,1025,1025,1025,1025,1025,1025,1022,1022,1022,1022,1022,1022,1022,1245,1245,1245,1245,1245,1241,1241,1241,1241,1241,1236,1236,1236,1236,1236,1236,1232,1232,1232,1232,1232,1232,1232,1232,1232,1232,1232,1232,1232,1232,1232,1232,1232,1232,1232,1232,1227,1227,1232,1232,1232,1232,1232,1232,1232,1232,1232,1227,1227,1227,1227,1227,1227,1227,1227,1227,1227,1227,1227,1227,1227,1227,1227,1227,1227,1227,1227,1227,1227,1227,1227,1227,1227,1227,1227,1227,1227,1223,1223,1223,1219,1219,1219,1219,1219,1219,1219,1223,1223,1223,1219,1219,1219,1219,1219,1219,1219,1219,1219,1219,1219,1223,1223,995,995,998,998,1001,1001,1001,1001,1001,1004,1004,1004,1004,1004,1007,1010,1013,1013,1016,1016,1019,1022,1025,1028,1031,1034,1038,1038,1041,1041,1044,1047,1050,1054,1057,1057,1060,1060,1214,1210,1210,1214,1214,1214,1214,1214,1210,1210,1206,1206,1206,1206,1210,1210,1210,1210,1210,1210,1210,1210,1210,1206,1206,1210,1206,1206,1206,1206,1206,1206,1210,1210,1210,1210,1210,1210,1210,1206,1206,1206,1206,1206,1206,1206,1206,1206,1206,1206,1206,1206,1206,1206,1206,1202,1202,1202,1202,1202,1202,1202,1202,1202,1197,1197,1202,1202,1202,1202,1202,1202,1197,1197,1197,1197,1197,1197,1197,1193,1193,1197,1193,1193,1193,1197,1197,1193,1193,1193,1193,1193,1193,1193,1193,1193,1193,1193,1193,1193,1197,1193,1189,1189,1189,1193,1193,1193,1193,1193,1193,1193,1185,1185,1185,1185,1185,1185,1185,1185,1185,1185,1185,1185,1185,1185,1185,1181,1181,1181,1181,1181,1181,1181,1177,1173,1169,1169,1169,1173,1173,1173,1181,1181,1177,1177,1177,1177,1177,1177,1181,1185,1185,1181,1134,1134,1134,1134,1134,1134,1134,1134,1130,1130,1130,1130,1130,1130,1130,1138,1138,1138,1138,1138,1157,1157,1157,1165,1169,1169,1173,1169,1169,1169,1169,1169,1173,1169,1169,1169,1165,1165,1165,1165,1165,1044,1044,1047,1047,1047,1041,1038,1038,1034,1034,1034,1034,1034,896,896,894,894,894,894,894,894,894,894,894,894,894,891,891,894,894,894,894,894,894,896,896,896,898,898,898,898,898,901,903,903,903,906,906,906,906,906,908,913,913,913,910,910,908,906,903,903,901,891,889,887,885,882,882,880,880,878,875,873,871,871,869,869,869,864,862,862,860,860,858,856,856,856,0,0,0,0,0,0,0,0,0,0,0,0,0,0,0,0,0,0,0,0,0,0,0,0,0,0,0,0,0,0,0,0,0,0,0,0,0
0,0,0,0,0,0,0,0,0,0,0,0,943,943,940,940,935,935,935,933,933,935,935,938,940,940,943,943,943,946,948,951,951,954,954,954,954,0,1250,1250,1250,1255,1255,1259,1259,1255,1255,1255,1255,1250,1250,1250,1250,1250,1250,1250,1250,1250,1250,1255,1255,1255,1259,1264,1259,1259,1255,1255,1016,1016,1016,1019,1022,1022,1022,1025,1025,1025,1025,1025,1025,1025,1025,1028,1031,1031,1034,1034,1034,1034,1034,1031,1031,1034,0,0,0,0,0,0,0,0,0,0,675,674,672,671,670,667,664,663,663,662,662,662,662,662,662,663,664,664,664,666,667,670,671,672,672,675,676,678,679,679,680,682,682,683,683,684,0,0,0,0,0,0,0,1060,1060,1057,1057,1050,1047,1044,1041,1038,1038,1034,1034,1034,1031,1028,1028,1025,1025,1025,1025,1025,1025,1022,1022,1022,1022,1022,1022,1022,1019,1019,1019,1013,1013,1245,1245,1245,1241,1241,1236,1236,1236,1236,1236,1232,1232,1232,1232,1232,1232,1232,1232,1232,1227,1227,1232,1232,1232,1232,1232,1232,1232,1232,1227,1227,1232,1227,1227,1227,1227,1227,1227,1227,1227,1227,1227,1227,1227,1227,1227,1227,1227,1223,1223,1223,1227,1227,1223,1223,1223,1223,1223,1223,1223,1223,1223,1223,1223,1223,1227,1227,1227,1227,1223,1223,1223,1223,1223,1223,1223,1223,1223,1219,1219,1219,1219,1219,1219,1219,1219,1219,1219,1219,1219,1214,1214,1214,1214,1214,1214,1214,1214,1214,1214,1223,998,995,995,995,998,998,998,998,998,1001,1001,1001,1001,1004,1004,1007,1010,1010,1013,1013,1016,1019,1022,1025,1031,1031,1034,1038,1038,1041,1041,1044,1047,1054,1057,1057,1057,1060,1060,1210,1210,1210,1210,1210,1210,1210,1210,1210,1206,1206,1206,1206,1206,1206,1206,1206,1206,1206,1206,1206,1206,1206,1206,1206,1206,1202,1202,1202,1202,1202,1202,1202,1202,1202,1206,1206,1206,1206,1202,1202,1202,1202,1202,1202,1202,1202,1202,1202,1202,1202,1202,1202,1202,1202,1202,1202,1202,1202,1202,1197,1197,1197,1193,1193,1193,1193,1197,1197,1197,1197,1197,1197,1197,1197,1193,1193,1193,1189,1189,1189,1189,1193,1193,1193,1193,1193,1189,1189,1189,1189,1193,1193,1193,1193,1193,1193,1189,1189,1193,1189,1189,1189,1185,1185,1189,1189,1185,1185,1185,1185,1181,1181,1181,1181,1181,1185,1185,1185,1185,1181,1181,1185,1181,1181,1181,1177,1177,1177,1173,1173,1173,1173,1173,1169,1165,1165,1165,1165,1165,1165,1165,1165,1161,1161,1173,1169,1169,1165,1157,1153,1153,1141,1141,1134,1134,1134,1134,1134,1134,1134,1134,1130,1130,1130,1130,1130,1130,1134,1138,1138,1138,1138,1138,1141,1145,1157,1165,1169,1169,1169,1169,1169,1169,1169,1169,1169,1169,1165,1165,1165,1165,1165,1165,1165,1044,1044,1044,1044,1044,1041,1034,1034,1034,1034,1031,1031,1034,896,896,894,894,894,894,891,891,894,894,894,894,894,891,891,894,894,894,894,894,894,896,896,896,898,898,898,898,901,901,903,903,906,906,906,906,906,906,908,910,910,910,908,908,908,906,903,901,898,891,889,887,885,882,882,880,880,878,875,873,871,869,869,869,869,864,862,860,860,860,858,856,856,856,0,0,0,0,0,0,0,0,0,0,0,0,0,0,0,0,0,0,0,0,0,0,0,0,0,0,0,0,0,0,0,0,0,0,0,0,0
0,0,0,0,0,0,0,0,0,0,0,0,943,943,943,940,940,938,935,933,933,935,935,935,938,940,940,943,943,946,946,951,951,954,954,954,954,956,1250,1250,1250,1250,1250,1259,1255,1255,1255,1250,1250,1250,1250,1250,1250,1250,1250,1250,1250,1250,1250,1250,1255,1255,1255,1264,1259,1255,1255,1016,1016,1016,1016,1019,1022,1022,1022,1022,1022,1025,1025,1025,1025,1025,1025,1028,1028,1031,1031,1034,1034,1034,1034,1034,1034,1034,0,0,0,0,0,0,0,0,0,0,0,674,672,671,670,668,666,664,663,663,662,662,662,662,663,663,664,664,664,667,668,670,671,672,674,675,678,678,679,680,682,682,683,683,684,686,0,0,0,0,0,0,0,1063,1060,1057,1057,1050,1047,1047,1041,1041,1038,1038,1034,1034,1034,1028,1028,1025,1025,1025,1022,1022,1022,1022,1022,1019,1019,1022,1022,1019,1019,1019,1019,1013,1013,1013,1245,1245,1241,1241,1236,1236,1232,1232,1232,1232,1232,1232,1232,1232,1227,1227,1227,1227,1227,1227,1227,1227,1227,1232,1227,1227,1227,1227,1227,1227,1227,1227,1227,1227,1227,1227,1223,1223,1227,1227,1227,1227,1227,1227,1227,1223,1223,1219,1219,1219,1219,1219,1219,1219,1223,1223,1223,1223,1223,1223,1223,1223,1223,1223,1223,1223,1223,1223,1223,1223,1223,1223,1219,1219,1219,1219,1219,1214,1214,1214,1214,1214,1214,1214,1214,1214,1214,1214,1214,1214,1214,1214,1210,1210,1214,1210,1210,1210,1214,992,992,992,992,992,992,995,998,998,998,998,998,1001,1001,1001,1004,1007,1010,1010,1013,1013,1016,1019,1022,1025,1034,1034,1034,1038,1038,1041,1041,1044,1047,1054,1057,1057,1060,1060,1060,1206,1206,1206,1210,1210,1206,1206,1202,1202,1202,1202,1202,1202,1202,1202,1202,1202,1202,1202,1202,1206,1206,1206,1202,1202,1206,1202,1202,1202,1202,1202,1202,1202,1202,1202,1202,1202,1202,1202,1202,1202,1197,1197,1197,1202,1197,1197,1197,1197,1197,1197,1197,1197,1197,1197,1197,1197,1197,1197,1197,1197,1193,1193,1193,1189,1189,1193,1193,1193,1197,1197,1193,1193,1193,1193,1193,1189,1189,1189,1189,1185,1185,1185,1185,1185,1185,1185,1185,1189,1185,1185,1189,1189,1189,1193,1193,1193,1189,1189,1189,1189,1185,1185,1185,1185,1185,1185,1181,1181,1185,1181,1177,1177,1177,1177,1177,1181,1181,1181,1181,1181,1181,1181,1177,1177,1177,1173,1173,1173,1169,1169,1169,1169,1169,1165,1165,1161,1161,1157,1157,1157,1157,1153,1153,1153,1153,1153,1153,1153,1153,1149,1141,1141,1141,1138,1134,1134,1134,1134,1134,1134,1134,1130,1130,1130,1130,1134,1134,1134,1138,1138,1138,1141,1141,1141,1145,1157,1165,1165,1165,1169,1165,1165,1169,1165,1165,1165,1165,1165,1165,1165,1161,1161,1161,1169,1044,1044,1041,1041,1044,1038,1034,1031,1031,1031,1031,1031,896,894,894,894,894,894,894,891,891,894,894,894,894,894,894,894,894,894,894,894,894,896,896,896,896,898,898,898,898,901,903,903,906,906,906,906,908,908,908,908,910,910,908,908,908,908,906,901,898,891,889,889,887,885,882,880,880,878,878,875,873,871,869,869,869,867,864,862,860,860,860,858,856,856,856,0,0,0,0,0,0,0,0,0,0,0,0,0,0,0,0,0,0,0,0,0,0,0,0,0,0,0,0,0,0,0,0,0,0,0,0,0
0,0,0,0,0,0,0,0,0,0,0,0,943,943,943,943,940,940,938,933,933,935,935,935,938,940,940,943,943,946,946,948,951,956,956,956,956,956,1250,1250,1250,1245,1245,1255,1255,1250,1250,1250,1250,1250,1250,1250,1250,1250,1250,1250,1250,1250,1250,1250,1250,1255,1010,1010,1010,1010,1013,1013,1013,1016,1016,1019,1019,1019,1019,1022,1022,1022,1022,1022,1025,1025,1025,1025,1028,1031,1031,1034,1034,1034,1034,1034,1034,1038,0,0,0,0,0,0,0,0,0,0,0,675,674,671,670,668,667,666,664,663,663,662,662,662,663,664,664,664,666,667,668,670,671,672,674,675,678,678,679,680,682,682,683,683,684,686,0,0,0,0,0,0,0,0,0,1057,1057,1050,1047,1047,1041,1041,1038,1038,1034,1034,1028,1028,1025,1025,1025,1022,1022,1022,1022,1022,1019,1019,1019,1019,1019,1019,1016,1016,1016,1013,1010,1007,1007,1241,1241,1241,1236,1236,1232,1232,1232,1232,1232,1227,1227,1227,1227,1227,1227,1227,1223,1223,1223,1223,1223,1227,1227,1227,1227,1227,1227,1223,1223,1223,1223,1223,1223,1223,1223,1223,1223,1223,1223,1227,1223,1223,1223,1223,1219,1219,1214,1214,1219,1219,1214,1214,1214,1214,1214,1219,1219,1219,1219,1219,1219,1219,1219,1219,1219,1219,1214,1214,1214,1214,1214,1214,1214,1214,1214,1214,1214,1214,1214,1214,1214,1214,1214,1214,1210,1210,1210,1210,1210,1210,1210,1210,1210,1206,1206,1210,989,989,992,992,992,992,992,992,995,995,995,995,998,998,1001,1001,1004,1007,1010,1013,1013,1016,1016,1019,1022,1025,1034,1034,1038,1038,1041,1041,1044,1044,1047,1054,1054,1057,1060,1063,1063,1206,1206,1206,1206,1206,1206,1202,1202,1202,1202,1197,1197,1197,1197,1197,1197,1197,1197,1202,1202,1202,1202,1202,1202,1202,1202,1197,1197,1197,1197,1197,1197,1197,1197,1197,1197,1197,1197,1193,1193,1193,1197,1197,1197,1197,1193,1193,1193,1193,1197,1197,1193,1193,1193,1193,1193,1193,1193,1197,1197,1189,1189,1189,1189,1189,1189,1189,1193,1193,1193,1193,1193,1189,1189,1189,1189,1185,1185,1185,1185,1185,1185,1185,1185,1185,1185,1185,1185,1185,1185,1185,1185,1185,1185,1185,1185,1185,1185,1185,1185,1185,1185,1181,1181,1181,1181,1181,1181,1181,1181,1173,1173,1173,1177,1177,1177,1181,1181,1181,1181,1181,1181,1181,1177,1177,1177,1173,1173,1173,1165,1165,1165,1165,1165,1161,1161,1157,1157,1157,1157,1153,1153,1153,1149,1145,1145,1145,1145,1145,1145,1145,1141,1141,1141,1138,1134,1134,1134,1134,1134,1134,1130,1130,1134,1134,1134,1134,1134,1134,1138,1138,1141,1145,1145,1149,1149,1157,1161,1165,1165,1165,1165,1165,1165,1165,1165,1165,1161,1161,1161,1161,1161,1161,1161,1044,1044,1041,1041,1041,1041,1038,1034,1028,1028,1028,1031,894,894,894,894,894,894,894,894,894,894,891,891,894,894,894,894,894,894,896,896,896,896,896,896,896,896,898,898,898,898,901,903,903,906,906,908,908,908,910,910,910,908,908,908,908,908,906,903,901,898,891,889,887,885,885,882,880,880,878,875,873,871,871,869,869,869,864,864,862,860,860,860,858,856,856,856,0,0,0,0,0,0,0,0,0,0,0,0,0,0,0,0,0,0,0,0,0,0,0,0,0,0,0,0,0,0,0,0,0,0,0,0,0
0,0,0,0,0,0,0,0,0,0,0,0,0,943,943,943,943,940,940,938,935,935,935,938,940,940,943,943,946,946,946,948,951,956,956,956,956,956,956,1241,1241,1241,1245,1250,1250,1250,1250,1250,1250,1250,1250,1250,1245,1245,1245,1250,1250,1250,1245,1245,1250,1010,1010,1010,1010,1010,1013,1013,1013,1016,1016,1016,1016,1016,1019,1019,1019,1022,1022,1022,1025,1025,1025,1025,1028,1028,1031,1034,1034,1034,1034,1034,1034,1038,0,0,0,0,0,0,0,0,0,0,0,675,674,672,671,670,668,667,666,664,663,663,663,663,663,664,664,664,666,667,668,670,670,672,674,676,678,679,679,680,682,683,683,684,684,684,682,682,0,0,0,0,0,0,0,1057,1057,1054,1047,1047,1041,1041,1038,1038,1034,1034,1028,1028,1025,1025,1025,1022,1022,1022,1019,1019,1016,1016,1016,1016,1016,1016,1016,1013,1013,1010,1010,1007,1004,1004,1001,1001,1236,1236,1232,1232,1232,1227,1227,1227,1227,1227,1227,1227,1227,1223,1219,1219,1219,1219,1223,1223,1223,1223,1223,1223,1223,1223,1219,1219,1219,1219,1219,1219,1214,1214,1219,1219,1219,1223,1223,1223,1219,1219,1219,1214,1214,1214,1214,1214,1214,1214,1214,1214,1214,1214,1214,1214,1214,1214,1214,1214,1214,1219,1214,1214,1214,1214,1214,1214,1210,1210,1210,1210,1210,1210,1210,1210,1210,1210,1210,1210,1210,1210,1210,1210,1210,1210,1210,1210,1206,1206,1206,1206,1206,989,989,989,989,989,989,989,989,992,992,992,995,995,995,998,1001,1001,1004,1007,1010,1013,1013,1016,1019,1022,1022,1025,1031,1034,1038,1041,1041,1044,1044,1047,1047,1054,1054,1057,1060,1063,1063,1206,1206,1206,1206,1202,1202,1197,1197,1197,1197,1197,1197,1197,1197,1197,1197,1197,1197,1197,1197,1197,1197,1197,1197,1197,1197,1197,1197,1197,1197,1197,1197,1197,1197,1197,1197,1193,1193,1189,1189,1189,1189,1189,1189,1189,1189,1189,1193,1193,1193,1193,1189,1189,1189,1189,1189,1189,1189,1189,1189,1185,1185,1189,1189,1189,1189,1189,1189,1189,1189,1189,1189,1185,1185,1185,1185,1185,1185,1185,1185,1185,1185,1181,1181,1181,1181,1181,1185,1185,1181,1181,1181,1181,1181,1181,1181,1181,1181,1181,1185,1181,1181,1181,1177,1177,1181,1181,1177,1177,1169,1169,1169,1173,1173,1173,1173,1173,1177,1177,1177,1177,1173,1173,1173,1173,1169,1169,1169,1169,1165,1165,1161,1161,1161,1157,1157,1157,1153,1153,1153,1153,1149,1149,1145,1145,1145,1141,1141,1141,1141,1141,1141,1138,1138,1138,1134,1134,1134,1134,1134,1134,1130,1130,1134,1134,1134,1134,1134,1134,1138,1138,1145,1145,1149,1149,1149,1157,1161,1161,1161,1165,1165,1165,1165,1161,1161,1161,1161,1157,1157,1157,1157,1157,1165,1044,1044,1041,1041,1038,1038,1038,1038,1028,1025,1025,1025,894,894,891,891,894,894,894,894,894,894,891,891,894,894,894,894,894,894,896,896,896,896,896,896,896,896,898,898,898,898,901,903,906,908,908,910,910,923,923,923,910,908,908,908,906,906,906,903,901,898,889,889,887,885,882,882,880,880,878,875,873,871,871,869,869,867,864,864,862,860,860,860,858,856,856,856,0,0,0,0,0,0,0,0,0,0,0,0,0,0,0,0,0,0,0,0,0,0,0,0,0,0,0,0,0,0,0,0,0,0,0,0,0
