0,0,0,0,0,0,0,0,0,1165,1165,1165,1165,1165,1161,1161,1161,1161,1161,1161,1161,1161,1161,1161,1161,1161,1161,1161,1161,1161,1161,1161,1161,1161,1161,1165,1161,1161,1161,1161,1161,1161,1161,1161,1161,1157,1157,1157,1157,1157,1157,1157,1157,1157,1157,1157,1157,1157,1153,1153,1157,1157,1157,1157,1157,1157,1153,1153,1153,1153,1153,1153,1153,1153,1149,1149,1149,1149,1157,1153,1153,1153,1153,1153,1153,1153,1153,1153,1153,1153,1153,1153,1153,1149,1145,1145,1138,1134,1126,1123,1123,1126,1126,1123,1123,1123,1126,1130,1130,1130,1130,1130,1130,1130,1130,0,0,0,0,0,0,0,0,0,754,754,755,757,757,757,759,759,759,759,759,759,761,761,761,764,766,766,766,766,767,767,769,769,769,767,767,0,0,0,0,0,1141,1138,1138,1141,1141,1138,1138,1141,1141,1141,1141,1138,1138,1138,1138,1134,1134,1134,1134,1134,1134,1134,1134,1138,1138,1138,1138,1134,1130,1130,1130,1130,1130,1130,1130,1130,1130,1130,1126,1126,1126,1126,1126,1126,1126,1126,1130,1130,1130,1130,1130,1130,1130,1130,1130,1130,1130,1130,1130,1130,1134,1134,1134,1134,882,882,882,885,885,885,885,887,887,887,887,887,887,889,889,889,889,889,889,889,891,891,894,894,896,896,898,901,901,903,903,906,906,908,910,913,913,913,913,915,915,918,920,920,923,925,925,925,928,928,928,1115,1115,1115,1115,1115,1115,1115,1115,1115,1115,1115,1115,1115,1115,1115,1115,1115,1115,1115,1115,1115,1115,1112,1112,1112,1112,1112,1112,1112,1112,1112,1112,1112,1108,1108,1108,1108,1105,1105,1108,1108,1108,1112,1112,1112,1112,1112,1112,1108,1108,1108,1108,1108,1108,1108,1108,1108,1108,1108,1108,1108,1108,1108,1105,1101,1097,1094,1070,1067,1063,1060,1057,1054,1054,1054,1054,1054,1057,1057,1060,1060,1063,1063,1063,1067,1105,1105,1105,1105,1101,1101,1101,1101,1097,1097,1101,1101,1101,1101,1097,1097,1097,1097,1097,1094,1094,1094,1094,1094,1094,1094,1094,1094,1094,1094,1094,1094,1094,1094,1094,1094,1094,1094,1094,1094,1094,1094,1094,1094,1094,1094,1094,1090,1090,1094,1094,1090,1090,1090,1090,1090,1090,1090,1090,1094,1094,1094,1094,1094,1094,1094,1090,1090,1090,1087,1087,1087,1087,1087,1087,1090,1090,1087,1087,1087,1087,1084,1084,1084,1084,1084,1084,1084,1084,1087,1084,1084,1084,1084,1084,1084,1080,1080,1080,1080,1080,1080,1080,1080,1080,1077,1073,1073,1073,1073,1070,1070,1070,1070,1070,1070,1070,1070,1070,1070,1070,1070,1070,1070,1073,1073,1073,1073,1073,1073,1070,1070,1073,1073,1070,1070,1070,1070,1067,1067,1067,1067,1067,1067,1067,1067,1067,1060,1057,1057,1054,1054,1054,1054,1054,1054,1054,1054,1041,1041,1077,1077,1077,1077,1028,1025,1025,1070,1028,1028,1077,1077,1077,1077,1077,1080,1080,1077,1077,1077,1077,1077,1077,1073,1070,1070,1067,1067,1067,1067,1067,1067,1067,1067,1067,1067,1067,1067,1067,1067,1067,1067,1067,0,0,0,0,0,0,0,0,0,773,773,773,773,771,771,771,771,771,769,769,769,769,769,769,767,767,767,767,767,767,767,767,767,767,767,767,767,767,767,767,767,766,766,0,0,0,0,0,0,0,0,0,0,0,0,0,0,0,0,0,0,0,0,0,0,0,0,0,0,0,0,0,0,0,0,0,0,0,0,0,0
0,0,0,0,0,0,0,0,0,1165,1161,1161,1161,1157,1157,1157,1157,1161,1161,1157,1157,1157,1157,1157,1157,1157,1157,1157,1157,1157,1157,1157,1157,1161,1161,1161,1161,1161,1161,1161,1161,1161,1157,1157,1157,1157,1157,1157,1153,1153,1157,1153,1153,1153,1153,1153,1153,1149,1149,1149,1153,1153,1153,1153,1153,1153,1149,1149,1149,1149,1149,1153,1149,1149,1149,1149,1149,1149,1149,1149,1149,1149,1149,1149,1149,1149,1149,1149,1149,1149,1149,1149,1149,1149,1145,1145,1138,1134,1130,1126,1126,1126,1126,1123,1123,1123,1126,1130,1126,1126,1126,1126,1126,1126,1126,0,0,0,0,0,0,0,0,0,0,0,759,759,759,759,759,759,759,759,759,761,761,762,762,764,766,766,767,767,767,769,769,769,769,769,769,0,0,0,0,1130,1130,1130,1134,1134,1138,1138,1138,1138,1138,1138,1138,1138,1138,1134,1134,1134,1134,1134,1134,1134,1134,1134,1134,1134,1134,1134,1130,1130,1130,1130,1126,1126,1126,1126,1126,1123,1123,1123,1123,1123,1123,1123,1123,1123,1123,1123,1126,1126,1126,1130,1130,1130,1130,1130,1130,1130,1130,1130,878,878,878,878,878,882,882,882,882,885,885,885,885,885,885,885,885,885,885,887,887,887,887,887,889,889,891,891,894,894,896,896,898,901,903,903,906,906,906,908,910,913,913,913,915,915,918,918,920,920,923,923,925,925,1115,1115,1112,1112,1112,1115,1115,1115,1112,1112,1112,1112,1112,1112,1108,1108,1112,1112,1112,1112,1112,1112,1112,1112,1112,1112,1112,1108,1108,1108,1108,1108,1108,1108,1108,1108,1108,1105,1105,1105,1105,1105,1105,1105,1105,1108,1108,1108,1108,1108,1108,1108,1105,1105,1105,1105,1105,1105,1105,1105,1105,1105,1105,1105,1105,1105,1101,1097,1094,1090,1087,1073,1067,1060,1060,1057,1057,1057,1057,1057,1057,1060,1060,1063,1063,1063,1067,1067,1105,1105,1105,1101,1101,1097,1097,1097,1097,1097,1097,1097,1097,1097,1094,1094,1094,1094,1094,1094,1094,1094,1094,1094,1094,1090,1090,1090,1090,1090,1090,1090,1090,1090,1090,1090,1090,1090,1090,1090,1090,1090,1090,1090,1090,1090,1087,1087,1087,1087,1087,1087,1090,1090,1090,1090,1090,1087,1087,1087,1087,1090,1090,1090,1090,1090,1090,1090,1084,1084,1084,1084,1084,1084,1084,1087,1087,1084,1084,1084,1084,1080,1080,1080,1080,1080,1080,1080,1084,1084,1084,1080,1080,1080,1080,1080,1080,1080,1080,1077,1077,1077,1077,1077,1077,1073,1070,1070,1070,1067,1067,1067,1067,1067,1067,1067,1067,1067,1067,1067,1067,1067,1067,1067,1070,1070,1070,1070,1070,1070,1067,1067,1067,1067,1067,1067,1067,1063,1063,1063,1060,1060,1063,1060,1060,1060,1057,1057,1054,1054,1050,1050,1050,1050,1050,1050,1044,1044,1041,1038,1038,1034,1034,1031,1028,1025,1025,1028,1028,1025,1025,1025,1077,1077,1077,1077,1022,1019,1080,1080,1080,1080,1073,1073,1070,1070,1067,1067,1067,1067,1067,1067,1067,1067,1063,1063,1063,1063,1063,1063,1063,1063,1063,0,0,0,0,0,0,0,0,773,773,773,773,773,773,773,773,773,771,771,771,769,769,769,769,769,769,767,767,767,767,767,767,767,767,767,767,767,767,767,767,767,767,767,0,0,0,0,0,0,0,0,0,0,0,0,0,0,0,0,0,0,0,0,0,0,0,0,0,0,0,0,0,0,0,0,0,0,0,0,0,0
0,0,0,0,0,0,0,0,0,1165,1157,1157,1157,1153,1153,1153,1153,1153,1153,1149,1149,1153,1153,1153,1153,1153,1153,1149,1149,1149,1153,1153,1153,1157,1157,1161,1161,1161,1161,1161,1161,1157,1157,1153,1153,1153,1153,1153,1149,1149,1149,1149,1149,1149,1149,1149,1149,1145,1145,1149,1149,1149,1149,1149,1149,1149,1149,1149,1149,1149,1149,1149,1149,1149,1145,1145,1145,1145,1145,1145,1145,1145,1145,1145,1145,1145,1145,1145,1145,1145,1149,1149,1149,1145,1145,1141,1138,1134,1130,1130,1130,1130,1126,1126,1126,1126,1126,1130,1126,1126,1126,1126,1126,1126,1126,1134,0,0,0,0,0,0,0,0,0,0,759,759,759,759,761,759,759,761,761,761,761,764,766,766,766,767,767,767,769,769,771,771,771,773,0,0,0,0,0,1126,1126,1130,1126,1126,1134,1134,1134,1134,1134,1134,1134,1134,1134,1130,1130,1130,1130,1130,1130,1134,1134,1134,1134,1134,1130,1130,1126,1126,1126,1126,1126,1126,1126,1126,1126,1123,1123,1123,1119,1119,1119,1119,1119,1119,1119,1123,1126,1126,1126,1126,1126,1126,1126,875,875,875,875,875,875,875,873,873,875,878,880,880,882,882,882,882,882,882,882,882,882,882,885,885,885,887,887,887,887,889,891,891,894,894,896,896,898,901,903,903,906,906,908,910,910,913,913,915,915,915,918,918,920,920,923,923,925,1115,1112,1112,1108,1108,1112,1112,1112,1112,1112,1108,1108,1108,1108,1108,1105,1105,1105,1105,1105,1108,1108,1108,1108,1112,1112,1108,1108,1105,1105,1105,1105,1105,1105,1105,1105,1105,1105,1105,1105,1105,1101,1101,1101,1101,1101,1105,1105,1105,1105,1105,1105,1105,1105,1105,1105,1105,1105,1105,1105,1101,1101,1101,1101,1101,1101,1101,1097,1097,1094,1090,1087,1084,1073,1067,1063,1057,1057,1057,1057,1057,1057,1060,1063,1063,1063,1067,1067,1070,1094,1101,1101,1097,1094,1094,1094,1094,1094,1094,1094,1094,1094,1094,1094,1090,1090,1094,1090,1090,1090,1090,1090,1090,1090,1090,1090,1090,1090,1090,1090,1090,1087,1087,1087,1090,1090,1087,1087,1087,1087,1087,1087,1087,1087,1087,1084,1084,1084,1084,1084,1084,1080,1080,1084,1084,1087,1084,1084,1084,1084,1084,1087,1087,1087,1087,1084,1084,1084,1084,1084,1080,1080,1080,1080,1080,1080,1080,1080,1080,1080,1080,1080,1080,1080,1080,1080,1080,1080,1080,1080,1080,1080,1080,1080,1080,1077,1077,1077,1077,1077,1077,1077,1073,1073,1070,1070,1067,1067,1067,1067,1063,1063,1063,1063,1067,1067,1067,1067,1067,1067,1067,1067,1067,1067,1067,1067,1067,1067,1067,1067,1067,1067,1067,1063,1063,1063,1060,1060,1060,1057,1057,1057,1057,1057,1057,1057,1054,1054,1054,1050,1050,1050,1047,1047,1047,1044,1044,1041,1038,1038,1034,1034,1031,1028,1028,1028,1028,1028,1025,1025,1025,1025,1022,1022,1022,1022,1019,1019,1019,1016,1016,1013,1010,1010,1010,1013,1013,1013,1013,1013,1067,1067,1067,1063,1063,1063,1063,1063,1063,1063,1063,1063,0,0,0,0,0,0,0,0,773,773,773,773,773,773,773,773,773,773,771,771,771,769,769,769,769,769,767,767,767,767,767,767,767,767,767,767,767,767,767,767,767,767,767,0,0,0,0,0,0,0,0,0,0,0,0,0,0,0,0,0,0,0,0,0,0,0,0,0,0,0,0,0,0,0,0,0,0,0,0,0,0
0,0,0,0,0,0,0,0,0,0,1149,1149,1149,1149,1149,1149,1149,1149,1149,1149,1149,1149,1149,1149,1149,1149,1149,1149,1149,1149,1149,1149,1153,1153,1157,1161,1157,1157,1157,1157,1157,1157,1153,1153,1153,1153,1153,1149,1149,1149,1149,1145,1145,1145,1141,1141,1141,1141,1141,1145,1145,1145,1149,1149,1149,1149,1145,1145,1145,1145,1145,1145,1145,1145,1145,1145,1145,1145,1141,1141,1141,1141,1141,1141,1141,1141,1141,1145,1141,1141,1141,1141,1141,1141,1141,1141,1138,1134,1130,1130,1130,1130,1126,1126,1126,1126,1126,1126,1130,1130,1130,1130,1126,1126,1126,1134,1134,0,0,0,0,0,0,0,0,0,761,761,761,761,761,761,761,761,761,761,761,764,766,766,767,767,767,771,771,771,771,773,773,773,0,0,0,0,0,1126,1126,1126,1123,1123,1126,1126,1130,1130,1130,1130,1130,1130,1130,1126,1126,1126,1126,1130,1130,1130,1130,1130,1130,1130,1126,1126,1123,1123,1123,1123,1123,1123,1123,1123,1123,1119,1119,1119,1119,1119,1119,1119,1119,1119,1119,1119,1123,1123,1123,1123,1123,1126,875,875,875,875,875,875,875,873,873,873,873,875,875,875,878,882,880,880,880,880,880,880,880,882,882,882,885,887,887,887,887,889,891,891,894,894,896,898,901,903,903,903,906,906,908,910,910,913,913,915,915,915,918,918,920,920,1105,1105,1105,1108,1108,1108,1105,1105,1105,1105,1108,1108,1105,1105,1105,1105,1105,1105,1105,1101,1101,1105,1105,1105,1105,1105,1105,1108,1108,1105,1105,1105,1105,1105,1105,1101,1101,1101,1101,1101,1101,1101,1101,1101,1101,1101,1101,1101,1101,1105,1101,1101,1101,1101,1101,1101,1101,1101,1101,1101,1101,1101,1101,1097,1097,1101,1097,1097,1097,1097,1097,1094,1090,1090,1087,1084,1077,1070,1067,1063,1063,1057,1057,1057,1060,1063,1063,1067,1067,1067,1070,1070,1087,1087,1094,1094,1094,1090,1090,1094,1094,1090,1090,1090,1090,1090,1087,1087,1087,1090,1087,1087,1087,1087,1087,1087,1087,1087,1087,1084,1084,1087,1087,1084,1084,1084,1084,1087,1087,1084,1084,1084,1084,1084,1084,1084,1084,1080,1080,1080,1080,1080,1080,1080,1080,1080,1080,1080,1080,1080,1080,1080,1080,1080,1080,1080,1080,1080,1080,1080,1080,1080,1080,1080,1080,1080,1080,1080,1080,1080,1080,1080,1080,1077,1077,1077,1077,1077,1077,1077,1080,1080,1080,1080,1077,1077,1077,1077,1077,1073,1073,1073,1073,1077,1073,1070,1070,1067,1067,1067,1067,1063,1063,1063,1063,1063,1063,1063,1063,1067,1067,1067,1067,1067,1067,1067,1063,1063,1067,1067,1063,1063,1063,1063,1063,1063,1063,1060,1060,1057,1057,1057,1057,1057,1057,1057,1057,1057,1054,1054,1050,1050,1050,1050,1050,1047,1047,1044,1044,1041,1041,1038,1038,1034,1034,1034,1031,1028,1028,1028,1028,1028,1025,1025,1025,1022,1022,1022,1022,1019,1019,1019,1016,1016,1013,1010,1010,1010,1013,1013,1013,1013,1013,1013,1016,1016,1067,1067,1063,1063,1063,1063,1063,1067,0,0,0,0,0,0,0,0,773,773,773,773,773,773,773,773,773,773,773,771,771,771,769,769,769,769,769,769,769,767,767,767,767,767,767,767,769,769,769,769,767,767,769,769,0,0,0,0,0,0,0,0,0,0,0,0,0,0,0,0,0,0,0,0,0,0,0,0,0,0,0,0,0,0,0,0,0,0,0,0,0,0
0,0,0,0,0,0,0,0,0,0,1145,1145,1149,1149,1149,1149,1149,1145,1145,1145,1145,1145,1145,1145,1145,1145,1145,1145,1145,1145,1145,1145,1145,1145,1145,1149,1153,1149,1149,1153,1149,1149,1149,1149,1145,1145,1149,1149,1145,1145,1145,1145,1141,1138,1138,1138,1138,1138,1138,1141,1141,1145,1145,1145,1145,1145,1145,1141,1141,1141,1141,1141,1141,1141,1141,1141,1138,1138,1138,1138,1138,1138,1138,1138,1138,1138,1138,1138,1138,1138,1138,1138,1138,1138,1134,1134,1134,1134,1134,1130,1130,1130,1126,1126,1126,1126,1126,1126,1126,1126,1130,1130,1126,1126,1126,1134,1134,0,0,0,0,0,0,0,0,0,761,759,759,759,761,761,761,761,761,761,762,764,766,766,767,767,769,771,773,773,773,773,774,774,0,0,0,0,0,1123,1123,1123,1119,1119,1123,1123,1123,1123,1123,1123,1126,1130,1130,1123,1123,1123,1123,1126,1126,1126,1126,1126,1130,1126,1123,1123,1119,1119,1119,1119,1119,1119,1119,1119,1119,1119,1119,1119,1115,1115,1115,1115,1115,1115,1115,1119,1123,1123,1123,1123,1123,1123,875,875,875,875,875,875,875,873,873,873,873,873,873,873,875,878,878,878,878,878,878,880,880,880,882,882,885,887,887,887,887,889,891,894,894,894,896,898,903,903,906,906,906,908,908,910,910,913,913,915,915,915,918,1105,1105,1105,1105,1105,1105,1105,1105,1105,1105,1105,1101,1101,1101,1101,1101,1101,1101,1105,1105,1101,1101,1101,1101,1101,1101,1101,1101,1101,1101,1101,1101,1101,1101,1101,1101,1101,1101,1101,1101,1097,1097,1101,1101,1101,1101,1101,1101,1101,1097,1097,1097,1101,1097,1097,1097,1094,1094,1094,1097,1097,1097,1097,1097,1097,1097,1097,1097,1097,1094,1094,1094,1094,1094,1090,1090,1087,1087,1084,1080,1073,1070,1067,1063,1063,1063,1063,1063,1063,1063,1067,1067,1070,1073,1077,1080,1084,1087,1090,1090,1090,1090,1090,1090,1090,1090,1090,1087,1087,1084,1084,1084,1087,1084,1084,1084,1084,1084,1084,1084,1084,1084,1084,1084,1084,1084,1080,1080,1080,1080,1080,1084,1080,1080,1080,1080,1080,1080,1080,1080,1077,1077,1077,1080,1080,1077,1077,1077,1080,1080,1080,1080,1077,1077,1077,1077,1077,1077,1077,1077,1077,1077,1077,1080,1080,1080,1077,1077,1080,1080,1077,1077,1077,1077,1077,1077,1077,1077,1077,1077,1077,1077,1077,1077,1077,1077,1077,1077,1073,1073,1073,1073,1073,1073,1070,1070,1070,1070,1067,1067,1067,1063,1063,1063,1063,1063,1063,1060,1060,1063,1063,1063,1063,1063,1063,1067,1067,1067,1067,1063,1063,1067,1063,1063,1060,1060,1060,1060,1060,1060,1060,1060,1057,1057,1057,1057,1054,1054,1054,1054,1054,1054,1050,1050,1050,1050,1050,1047,1044,1044,1044,1041,1041,1041,1038,1038,1038,1034,1034,1031,1031,1031,1028,1028,1028,1025,1025,1025,1025,1022,1022,1022,1019,1019,1016,1016,1016,1016,1013,1013,1013,1013,1013,1013,1013,1013,1013,1016,1013,1013,1013,1063,1063,1063,1063,1063,0,0,0,0,0,0,0,773,773,773,773,773,773,773,773,773,773,773,773,773,771,771,771,771,769,769,769,769,769,769,767,767,767,767,767,767,769,769,769,769,769,769,769,769,769,0,0,0,0,0,0,0,0,0,0,0,0,0,0,0,0,0,0,0,0,0,0,0,0,0,0,0,0,0,0,0,0,0,0,0,0,0,0
0,0,0,0,0,0,0,0,0,0,1145,1145,1145,1145,1145,1145,1145,1145,1145,1145,1145,1141,1141,1141,1145,1141,1141,1141,1141,1141,1141,1141,1145,1141,1141,1145,1149,1149,1149,1149,1145,1145,1145,1145,1145,1145,1145,1145,1145,1145,1141,1141,1141,1138,1138,1138,1138,1138,1138,1138,1138,1141,1141,1141,1141,1141,1141,1141,1138,1138,1138,1138,1138,1138,1138,1138,1138,1138,1134,1134,1134,1134,1134,1134,1134,1134,1134,1138,1134,1134,1134,1134,1134,1134,1134,1134,1134,1134,1134,1130,1130,1130,1130,1130,1130,1130,1126,1126,1126,1126,1126,1126,1126,1126,1126,1130,1130,0,0,0,0,0,0,0,0,0,0,759,759,759,759,759,761,761,761,762,764,766,767,767,767,767,771,773,773,773,773,774,776,776,0,0,0,0,0,1123,1123,1119,1119,1119,1119,1119,1119,1119,1119,1123,1123,1123,1123,1123,1119,1119,1119,1123,1123,1123,1123,1123,1123,1119,1119,1119,1119,1119,1119,1119,1119,1119,1119,1119,1119,1115,1115,1115,1115,1115,1115,1115,1115,1115,1115,1115,1119,1123,1123,1123,867,873,873,873,873,873,873,873,873,871,871,871,871,871,873,873,875,875,878,878,878,878,878,880,880,880,882,882,885,887,887,887,889,889,891,894,894,896,898,898,903,903,906,906,906,908,910,910,913,915,915,915,915,915,1105,1105,1105,1105,1105,1105,1105,1105,1105,1105,1101,1101,1101,1101,1097,1097,1101,1101,1101,1101,1101,1101,1101,1101,1101,1101,1101,1101,1101,1101,1097,1097,1097,1097,1097,1097,1094,1094,1094,1097,1097,1094,1094,1097,1097,1097,1097,1097,1097,1097,1097,1097,1097,1097,1094,1094,1094,1094,1094,1094,1094,1094,1094,1094,1094,1094,1094,1094,1094,1094,1094,1094,1094,1094,1090,1090,1087,1084,1084,1080,1080,1077,1073,1070,1067,1067,1067,1067,1067,1067,1067,1070,1070,1073,1077,1077,1080,1080,1080,1084,1084,1087,1087,1087,1087,1087,1087,1084,1084,1084,1084,1080,1080,1084,1084,1080,1080,1080,1080,1080,1080,1080,1080,1080,1080,1080,1080,1080,1080,1080,1080,1080,1080,1080,1080,1080,1077,1077,1077,1077,1077,1077,1077,1077,1077,1077,1077,1077,1077,1077,1077,1077,1077,1077,1077,1077,1073,1073,1070,1070,1070,1070,1073,1073,1077,1077,1077,1077,1077,1077,1077,1077,1077,1077,1077,1077,1073,1073,1073,1073,1073,1073,1073,1073,1073,1073,1073,1073,1073,1073,1073,1073,1070,1070,1070,1070,1070,1067,1067,1067,1067,1063,1063,1063,1063,1063,1060,1060,1060,1060,1060,1060,1063,1063,1063,1063,1063,1063,1063,1063,1063,1063,1063,1063,1063,1057,1057,1060,1060,1060,1060,1057,1057,1057,1057,1057,1054,1054,1054,1054,1054,1054,1054,1050,1050,1050,1050,1047,1047,1044,1044,1041,1041,1041,1041,1038,1034,1034,1034,1034,1031,1031,1031,1028,1028,1028,1028,1025,1025,1025,1022,1022,1022,1019,1019,1016,1016,1016,1016,1013,1013,1013,1013,1013,1013,1013,1013,1013,1016,1013,1013,1013,1063,1063,1063,1063,0,0,0,0,0,0,773,773,773,773,773,773,773,773,773,773,773,773,773,773,773,773,771,771,771,769,769,769,769,769,769,769,769,769,769,769,769,769,769,769,769,769,769,769,769,769,0,0,0,0,0,0,0,0,0,0,0,0,0,0,0,0,0,0,0,0,0,0,0,0,0,0,0,0,0,0,0,0,0,0,0,0,0,0
0,0,0,0,0,0,0,0,0,0,1138,1138,1138,1141,1145,1141,1141,1141,1141,1141,1141,1138,1138,1141,1141,1141,1141,1138,1138,1138,1138,1138,1138,1134,1134,1134,1141,1145,1145,1141,1141,1141,1141,1141,1138,1138,1141,1141,1141,1141,1138,1138,1138,1138,1138,1134,1134,1134,1134,1138,1138,1138,1138,1138,1138,1138,1138,1138,1134,1134,1134,1134,1134,1134,1134,1134,1134,1134,1134,1134,1134,1130,1130,1134,1134,1134,1134,1134,1130,1130,1130,1130,1130,1130,1130,1130,1130,1130,1130,1130,1130,1130,1130,1126,1126,1126,1123,1123,1123,1123,1123,1123,1123,1126,1126,1130,1130,0,0,0,0,0,0,0,0,0,0,757,757,759,759,759,761,761,761,764,764,767,767,767,767,769,773,773,773,773,773,774,776,776,0,0,0,0,0,1119,1119,1119,1119,1119,1119,1119,1119,1119,1119,1119,1119,1119,1119,1119,1115,1115,1115,1119,1119,1119,1119,1119,1119,1119,1119,1115,1115,1119,1119,1119,1119,1115,1115,1115,1119,1115,1115,1115,1115,1115,1115,1115,1115,1115,1115,1115,1119,1119,867,867,867,869,869,871,871,871,871,871,871,871,871,871,871,871,871,871,873,875,875,878,878,878,878,880,880,880,882,882,885,887,887,887,889,891,894,894,894,896,898,903,903,903,906,906,906,908,910,910,913,915,915,915,915,1101,1101,1101,1101,1101,1101,1101,1101,1101,1101,1101,1101,1101,1097,1097,1094,1094,1097,1101,1097,1097,1101,1101,1097,1097,1097,1097,1097,1097,1097,1097,1097,1094,1094,1094,1094,1094,1094,1094,1090,1090,1090,1090,1090,1094,1094,1094,1094,1094,1097,1097,1094,1094,1094,1094,1094,1094,1090,1090,1090,1090,1090,1090,1094,1094,1090,1090,1094,1094,1094,1090,1090,1090,1090,1090,1090,1087,1087,1084,1084,1080,1080,1077,1073,1070,1070,1067,1067,1067,1067,1070,1070,1073,1073,1077,1077,1080,1080,1080,1080,1080,1080,1080,1080,1080,1080,1084,1084,1084,1080,1080,1080,1080,1080,1080,1080,1080,1080,1080,1077,1077,1080,1080,1080,1077,1077,1080,1080,1080,1077,1077,1077,1077,1077,1077,1077,1077,1077,1077,1073,1073,1073,1073,1073,1073,1073,1077,1077,1073,1073,1077,1077,1077,1073,1073,1073,1073,1073,1070,1070,1067,1067,1067,1067,1067,1070,1073,1073,1073,1073,1077,1073,1073,1073,1073,1073,1073,1073,1073,1073,1070,1070,1070,1070,1070,1070,1070,1070,1070,1070,1070,1070,1070,1070,1067,1067,1067,1067,1067,1067,1063,1063,1063,1063,1063,1063,1060,1060,1060,1060,1060,1060,1060,1060,1060,1060,1060,1060,1060,1063,1060,1060,1060,1057,1057,1057,1057,1057,1057,1057,1057,1057,1057,1057,1054,1054,1054,1054,1054,1054,1054,1054,1054,1050,1050,1050,1050,1050,1047,1047,1044,1044,1041,1041,1041,1041,1038,1034,1034,1034,1034,1031,1031,1031,1028,1028,1028,1028,1025,1025,1025,1025,1022,1022,1019,1019,1016,1016,1016,1016,1013,1013,1013,1013,1013,1013,1013,1013,1016,1016,1013,1013,1013,1016,0,0,0,0,0,0,0,0,774,773,773,773,773,773,773,773,773,773,773,773,773,773,773,773,773,771,771,771,769,769,769,769,769,769,769,769,769,769,769,769,769,769,769,769,769,769,771,771,771,0,0,0,0,0,0,0,0,0,0,0,0,0,0,0,0,0,0,0,0,0,0,0,0,0,0,0,0,0,0,0,0,0,0,0,0,0,0
0,0,0,0,0,0,0,0,0,0,1138,1138,1138,1141,1141,1141,1138,1138,1138,1138,1138,1138,1138,1138,1138,1141,1138,1134,1134,1134,1134,1134,1134,1130,1130,1134,1134,1134,1134,1134,1138,1138,1138,1138,1138,1138,1138,1138,1138,1138,1138,1138,1138,1134,1134,1134,1134,1134,1134,1134,1134,1138,1138,1138,1138,1138,1138,1138,1134,1134,1134,1134,1134,1134,1134,1134,1134,1130,1130,1130,1130,1130,1130,1130,1130,1130,1130,1130,1130,1130,1130,1130,1130,1130,1130,1130,1130,1130,1130,1130,1130,1130,1126,1126,1126,1123,1123,1123,1119,1119,1123,1119,1119,1123,1123,1119,1119,0,0,0,0,0,0,0,0,0,0,757,757,759,761,761,761,761,761,764,764,767,767,767,769,769,773,773,773,773,774,774,776,776,0,0,0,0,0,1119,1119,1119,1119,1119,1115,1115,1115,1115,1115,1115,1115,1115,1115,1115,1115,1112,1112,1112,1112,1112,1112,1115,1115,1115,1115,1112,1112,1115,1115,1115,1115,1115,1115,1115,1115,1115,1115,1115,1115,1115,1115,1115,1115,1115,1115,867,867,867,867,867,867,867,869,869,869,869,869,869,869,869,869,869,869,869,871,871,873,873,875,875,878,878,880,880,880,880,882,882,885,887,887,887,889,891,894,894,896,896,901,903,903,903,906,906,906,908,910,910,913,915,915,1097,1097,1097,1101,1101,1097,1097,1097,1101,1101,1101,1101,1101,1097,1097,1094,1094,1094,1094,1094,1097,1097,1097,1097,1097,1097,1094,1094,1094,1094,1094,1094,1090,1090,1090,1090,1090,1090,1090,1090,1090,1090,1090,1087,1087,1087,1087,1087,1087,1090,1090,1094,1094,1094,1090,1090,1094,1090,1090,1090,1090,1090,1090,1090,1090,1090,1090,1090,1090,1090,1090,1090,1090,1090,1087,1087,1090,1087,1084,1084,1084,1080,1080,1077,1077,1073,1070,1070,1067,1067,1067,1067,1070,1070,1073,1073,1077,1077,1077,1077,1077,1077,1077,1077,1077,1077,1077,1080,1080,1077,1077,1080,1080,1080,1080,1080,1077,1077,1077,1077,1077,1077,1077,1077,1077,1077,1077,1077,1077,1077,1077,1077,1077,1077,1077,1077,1077,1077,1073,1073,1073,1073,1073,1070,1070,1070,1073,1073,1073,1073,1073,1073,1073,1073,1073,1073,1073,1073,1073,1070,1070,1067,1067,1067,1067,1067,1067,1067,1067,1067,1067,1067,1070,1070,1070,1070,1070,1070,1073,1073,1070,1070,1067,1067,1067,1067,1067,1067,1067,1067,1067,1067,1067,1067,1067,1067,1067,1067,1067,1067,1067,1063,1063,1063,1063,1063,1060,1060,1060,1060,1057,1057,1057,1057,1057,1057,1057,1057,1057,1060,1060,1057,1057,1057,1054,1054,1054,1054,1050,1050,1054,1054,1054,1054,1054,1054,1054,1054,1054,1054,1054,1054,1050,1050,1050,1050,1050,1050,1050,1050,1047,1047,1044,1044,1041,1041,1041,1041,1038,1034,1034,1034,1034,1031,1031,1031,1028,1028,1028,1028,1025,1025,1025,1025,1022,1022,1019,1019,1016,1016,1016,1016,1013,1013,1013,1013,1013,1013,1013,1013,1016,1016,1016,1016,1016,1016,0,0,0,0,0,0,0,774,774,773,773,771,771,771,771,771,771,771,771,773,773,773,773,773,771,771,771,771,769,769,769,769,769,769,771,771,771,769,769,769,769,769,769,769,771,771,771,771,771,0,0,0,0,0,0,0,0,0,0,0,0,0,0,0,0,0,0,0,0,0,0,0,0,0,0,0,0,0,0,0,0,0,0,0,0,0,0
0,0,0,0,0,0,0,0,0,1138,1134,1134,1134,1138,1138,1138,1138,1134,1134,1138,1138,1138,1138,1138,1138,1138,1138,1134,1134,1134,1134,1130,1130,1130,1130,1130,1130,1130,1130,1130,1130,1134,1134,1134,1134,1134,1134,1134,1138,1138,1134,1134,1134,1134,1134,1134,1130,1130,1130,1130,1134,1134,1134,1134,1134,1134,1134,1134,1130,1130,1130,1130,1130,1130,1130,1130,1130,1130,1130,1126,1126,1126,1126,1126,1126,1126,1126,1126,1126,1126,1126,1126,1126,1126,1126,1130,1126,1126,1126,1126,1126,1126,1123,1123,1123,1123,1119,1119,1119,1119,1119,1119,1119,1119,1119,1119,1119,0,0,0,0,0,0,0,0,0,0,759,759,761,761,761,761,761,761,764,766,767,767,767,769,771,773,773,773,774,774,774,776,776,780,0,0,0,0,1123,1119,1119,1119,1115,1115,1112,1112,1112,1115,1112,1112,1112,1112,1112,1112,1112,1112,1112,1112,1112,1108,1108,1108,1108,1108,1112,1112,1112,1112,1112,1112,1112,1112,1115,1115,1115,1115,1115,1115,1115,1115,1115,860,860,864,864,864,864,864,867,867,867,869,869,869,869,869,869,869,869,869,869,869,869,871,871,871,873,875,875,878,878,880,880,882,882,885,885,887,887,887,889,891,894,894,896,896,898,901,903,903,903,906,906,906,1087,910,910,913,1090,1094,1094,1094,1097,1097,1097,1097,1097,1097,1097,1097,1097,1097,1097,1094,1094,1094,1090,1090,1090,1090,1094,1094,1094,1090,1090,1090,1090,1090,1090,1090,1090,1090,1090,1090,1087,1087,1087,1087,1087,1087,1087,1087,1087,1087,1087,1087,1087,1087,1087,1087,1084,1084,1090,1090,1090,1090,1090,1090,1090,1090,1090,1087,1087,1087,1087,1087,1087,1087,1087,1087,1087,1087,1087,1084,1084,1087,1087,1084,1080,1080,1080,1080,1080,1077,1077,1073,1073,1070,1067,1067,1070,1070,1070,1073,1073,1073,1077,1077,1077,1077,1077,1077,1077,1077,1077,1077,1077,1077,1077,1077,1077,1077,1077,1077,1077,1077,1077,1077,1077,1077,1073,1073,1073,1073,1073,1073,1073,1077,1077,1077,1077,1077,1073,1073,1073,1073,1073,1073,1070,1070,1070,1070,1070,1070,1070,1070,1070,1070,1073,1073,1073,1073,1073,1073,1073,1073,1073,1070,1070,1070,1070,1067,1067,1067,1067,1063,1063,1063,1063,1063,1063,1063,1063,1063,1063,1063,1067,1067,1070,1067,1067,1067,1067,1067,1063,1063,1063,1063,1063,1063,1063,1063,1063,1063,1063,1063,1063,1063,1063,1063,1063,1063,1063,1063,1063,1063,1060,1060,1060,1057,1057,1057,1057,1057,1057,1057,1057,1057,1057,1057,1057,1057,1054,1054,1054,1054,1054,1054,1050,1050,1050,1050,1050,1050,1050,1050,1054,1054,1050,1050,1050,1050,1050,1050,1050,1050,1050,1050,1050,1047,1047,1047,1044,1044,1041,1041,1041,1041,1038,1038,1038,1034,1034,1034,1031,1031,1031,1028,1028,1028,1028,1025,1025,1025,1022,1022,1019,1019,1019,1016,1016,1016,1016,1016,1016,1016,1016,1013,1013,1013,1016,1016,1013,1013,1013,1013,0,0,0,0,0,0,0,774,774,773,773,771,771,771,771,771,771,771,771,773,773,773,773,773,771,771,771,771,769,769,769,769,771,771,771,771,771,771,771,771,771,771,771,771,771,771,773,773,773,0,0,0,0,0,0,0,0,0,0,0,0,0,0,0,0,0,0,0,0,0,0,0,0,0,0,0,0,0,0,0,0,0,0,0,0,0,0
0,0,0,0,0,0,0,0,0,1134,1134,1134,1134,1134,1134,1134,1134,1134,1134,1134,1134,1134,1134,1134,1134,1134,1134,1134,1134,1134,1134,1130,1130,1130,1126,1126,1130,1130,1130,1130,1130,1130,1134,1134,1134,1130,1130,1130,1134,1134,1134,1134,1130,1130,1130,1130,1126,1126,1126,1126,1126,1130,1130,1130,1130,1130,1130,1130,1126,1126,1126,1126,1126,1126,1126,1126,1126,1126,1126,1126,1126,1123,1123,1123,1123,1123,1123,1123,1123,1123,1126,1126,1126,1126,1126,1126,1123,1123,1123,1123,1123,1123,1119,1119,1123,1123,1119,1119,1119,1119,1119,1115,1115,1115,1115,1115,1115,0,0,0,0,0,0,0,0,0,0,757,757,761,762,762,761,761,764,766,767,767,767,767,769,771,773,773,774,774,774,776,776,778,780,0,0,0,0,0,1119,1119,1119,1115,1112,1108,1108,1108,1112,1108,1108,1108,1108,1108,1105,1105,1108,1105,1105,1105,1105,1105,1105,1105,1105,1108,1108,1108,1112,1112,1112,1112,1112,1112,1112,1108,1108,1115,1115,1115,860,860,860,860,862,864,864,864,864,864,864,867,867,867,867,867,869,869,869,869,869,869,869,869,871,871,871,873,875,875,878,878,880,880,882,885,885,885,887,889,889,891,894,894,896,896,896,898,901,903,903,903,906,1087,1087,1087,1087,1090,1090,1090,1090,1090,1090,1094,1094,1094,1094,1094,1094,1094,1094,1094,1094,1094,1094,1094,1094,1090,1090,1090,1090,1094,1090,1090,1090,1090,1090,1087,1087,1087,1087,1087,1087,1087,1087,1087,1087,1084,1084,1087,1087,1087,1087,1087,1087,1087,1084,1084,1084,1084,1080,1080,1080,1077,1077,1080,1087,1087,1087,1087,1090,1087,1087,1087,1087,1087,1087,1084,1084,1084,1084,1084,1084,1084,1080,1080,1080,1080,1080,1080,1080,1077,1077,1077,1077,1077,1077,1073,1070,1070,1070,1070,1070,1073,1073,1073,1073,1077,1077,1077,1077,1077,1073,1073,1073,1073,1073,1073,1073,1073,1073,1073,1073,1073,1073,1073,1073,1073,1073,1073,1073,1073,1070,1070,1070,1070,1070,1073,1073,1073,1073,1073,1073,1073,1070,1070,1070,1070,1070,1070,1067,1067,1067,1067,1067,1067,1067,1067,1067,1067,1067,1067,1067,1070,1070,1070,1067,1067,1067,1067,1067,1067,1067,1063,1063,1063,1063,1063,1063,1063,1063,1063,1060,1060,1060,1060,1060,1060,1060,1063,1063,1063,1063,1063,1063,1063,1063,1060,1060,1063,1063,1060,1060,1063,1060,1060,1060,1060,1060,1057,1057,1060,1060,1060,1060,1060,1060,1060,1060,1057,1057,1057,1054,1054,1057,1057,1057,1054,1054,1054,1057,1057,1054,1054,1054,1054,1054,1054,1054,1050,1050,1050,1047,1047,1047,1047,1050,1050,1050,1050,1050,1050,1050,1047,1047,1050,1050,1047,1047,1047,1047,1047,1044,1044,1041,1041,1041,1041,1041,1038,1038,1038,1038,1034,1034,1034,1034,1031,1028,1028,1028,1028,1025,1025,1025,1025,1022,1022,1019,1019,1016,1016,1016,1016,1016,1016,1016,1019,1019,1016,1016,1016,1016,1013,1013,1013,1013,0,0,0,0,0,0,773,773,773,773,773,771,771,771,771,771,771,771,771,773,773,773,773,773,771,771,771,771,769,769,769,769,771,771,771,771,771,771,771,771,771,771,771,771,771,771,773,773,773,0,0,0,0,0,0,0,0,0,0,0,0,0,0,0,0,0,0,0,0,0,0,0,0,0,0,0,0,0,0,0,0,0,0,0,0,0,0
0,0,0,0,0,0,0,0,0,1134,1130,1130,1130,1134,1134,1130,1130,1130,1130,1130,1130,1130,1130,1130,1130,1130,1130,1130,1130,1130,1130,1130,1130,1126,1126,1126,1126,1126,1126,1126,1126,1126,1130,1130,1130,1130,1130,1130,1130,1130,1130,1130,1130,1130,1130,1126,1126,1123,1123,1123,1123,1123,1123,1123,1123,1123,1123,1123,1123,1123,1123,1123,1123,1123,1123,1123,1126,1126,1126,1123,1123,1119,1119,1119,1119,1119,1119,1119,1119,1119,1123,1123,1123,1126,1126,1123,1119,1119,1119,1119,1119,1119,1115,1115,1115,1115,1115,1115,1115,1115,1115,1115,1115,1115,1115,1112,1112,0,0,0,0,0,0,0,0,0,0,752,752,761,762,762,762,762,764,766,767,767,769,769,771,773,773,774,774,774,776,776,776,778,780,780,0,0,0,0,1119,1115,1115,1112,1105,1105,1105,1105,1105,1105,1105,1105,1105,1105,1105,1105,1105,1105,1105,1105,1105,1105,1105,1105,1105,1105,1108,1108,1108,1108,1108,1112,1112,1112,1112,1108,1108,1115,1115,860,860,860,860,860,860,862,864,864,864,864,864,864,864,862,862,864,867,867,867,867,867,869,869,869,871,871,871,873,875,875,878,880,880,882,882,885,885,887,887,889,891,891,894,896,896,896,898,898,901,903,903,906,906,1087,1087,1087,1087,1087,1090,1090,1090,1090,1090,1090,1090,1090,1090,1090,1090,1090,1090,1090,1090,1090,1090,1090,1090,1090,1090,1090,1090,1090,1090,1090,1087,1087,1087,1087,1087,1087,1087,1084,1084,1084,1084,1084,1084,1084,1084,1084,1084,1084,1084,1084,1084,1084,1084,1080,1077,1077,1077,1077,1077,1077,1077,1077,1084,1084,1084,1084,1087,1087,1087,1084,1084,1084,1084,1080,1080,1080,1080,1080,1080,1080,1080,1077,1077,1077,1077,1077,1077,1077,1077,1077,1077,1077,1073,1073,1070,1070,1070,1070,1070,1073,1073,1073,1073,1073,1077,1073,1073,1073,1073,1073,1070,1070,1070,1070,1070,1070,1070,1070,1070,1070,1070,1070,1070,1070,1070,1070,1067,1067,1067,1070,1070,1070,1070,1070,1070,1070,1070,1070,1070,1070,1070,1067,1067,1067,1067,1067,1067,1067,1067,1067,1067,1067,1067,1063,1063,1067,1067,1067,1067,1067,1067,1067,1067,1063,1063,1063,1063,1063,1063,1060,1060,1060,1060,1060,1060,1060,1060,1060,1060,1060,1060,1057,1057,1057,1057,1057,1057,1057,1057,1060,1060,1060,1060,1060,1060,1060,1060,1057,1057,1060,1057,1057,1057,1057,1057,1057,1057,1057,1060,1060,1060,1060,1060,1057,1057,1054,1054,1054,1054,1054,1054,1054,1054,1054,1054,1054,1054,1054,1054,1054,1050,1050,1050,1050,1050,1047,1047,1047,1047,1047,1047,1047,1047,1047,1047,1044,1044,1047,1047,1047,1044,1044,1044,1047,1044,1044,1044,1044,1044,1041,1041,1041,1041,1041,1041,1038,1038,1038,1038,1038,1034,1034,1034,1034,1031,1028,1028,1028,1028,1028,1028,1025,1025,1025,1022,1019,1019,1016,1016,1016,1016,1019,1019,1022,1022,1019,1019,1016,1016,1013,1013,1013,0,0,0,0,0,0,774,773,773,773,773,773,771,771,771,771,771,771,773,773,773,773,773,773,773,771,771,771,771,771,771,771,771,771,771,771,771,771,771,771,771,771,771,771,771,771,773,773,774,774,0,0,0,0,0,0,0,0,0,0,0,0,0,0,0,0,0,0,0,0,0,0,0,0,0,0,0,0,0,0,0,0,0,0,0,0,0,0
0,0,0,0,0,0,0,0,1130,1130,1130,1123,1123,1130,1130,1130,1130,1130,1130,1130,1130,1130,1130,1126,1126,1126,1130,1126,1126,1126,1126,1126,1123,1123,1123,1123,1123,1123,1123,1123,1123,1123,1126,1126,1126,1130,1126,1126,1126,1126,1126,1126,1123,1123,1123,1123,1123,1123,1119,1119,1119,1119,1119,1123,1119,1119,1119,1119,1123,1123,1119,1119,1119,1119,1119,1119,1119,1123,1119,1119,1119,1115,1115,1115,1115,1115,1115,1115,1115,1115,1119,1119,1119,1119,1119,1123,1119,1119,1115,1115,1115,1115,1115,1115,1115,1115,1112,1112,1112,1115,1112,1112,1112,1112,1112,1108,1108,1105,1105,0,0,0,0,0,0,0,0,752,752,766,764,764,764,764,766,766,767,769,771,771,773,773,773,774,774,776,778,778,780,780,780,780,0,0,0,0,0,1115,1112,1105,1101,1101,1101,1101,1101,1101,1101,1101,1101,1101,1097,1097,1101,1101,1101,1101,1101,1101,1101,1101,1101,1105,1105,1105,1108,1108,1108,1112,1112,1112,1112,1112,1112,858,858,858,858,858,860,860,860,860,862,862,862,862,862,862,862,862,862,862,864,867,867,867,867,869,869,869,871,871,873,875,875,878,880,880,882,885,885,885,887,887,889,891,894,894,896,896,896,898,898,901,901,1087,1087,1087,1087,1087,1087,1087,1087,1087,1087,1087,1087,1090,1090,1090,1090,1090,1087,1087,1087,1087,1087,1087,1087,1087,1087,1087,1087,1087,1087,1087,1087,1087,1087,1084,1084,1080,1080,1080,1080,1080,1084,1084,1084,1080,1080,1080,1080,1080,1080,1080,1084,1080,1080,1084,1080,1080,1080,1077,1077,1077,1077,1077,1077,1077,1077,1077,1080,1080,1080,1080,1080,1080,1080,1080,1080,1080,1080,1080,1080,1080,1080,1080,1080,1080,1077,1077,1077,1073,1073,1073,1073,1073,1073,1073,1077,1073,1073,1073,1073,1070,1070,1070,1070,1070,1070,1073,1073,1073,1073,1073,1073,1073,1070,1070,1070,1067,1067,1067,1067,1067,1067,1067,1067,1067,1067,1067,1067,1067,1067,1067,1067,1067,1067,1067,1067,1067,1067,1067,1067,1067,1067,1067,1067,1067,1067,1067,1067,1067,1067,1067,1067,1067,1067,1063,1063,1063,1063,1063,1063,1063,1063,1063,1063,1063,1063,1063,1063,1060,1060,1060,1060,1060,1060,1060,1060,1057,1057,1057,1057,1057,1057,1057,1057,1057,1057,1057,1057,1057,1057,1057,1057,1057,1057,1054,1054,1054,1057,1057,1057,1057,1057,1054,1054,1057,1054,1054,1057,1054,1054,1054,1054,1057,1057,1057,1057,1057,1057,1054,1054,1054,1054,1050,1050,1050,1054,1054,1050,1050,1050,1050,1050,1050,1050,1050,1050,1050,1050,1047,1047,1044,1044,1044,1044,1044,1044,1044,1044,1044,1044,1044,1044,1044,1044,1041,1041,1041,1044,1044,1044,1044,1041,1041,1041,1041,1041,1041,1041,1041,1041,1038,1038,1038,1038,1038,1034,1034,1034,1031,1031,1028,1028,1028,1028,1028,1028,1025,1025,1025,1022,1022,1019,1019,1019,1019,1019,1022,1022,1025,1025,1022,1022,1019,1019,1019,0,0,0,0,0,0,0,774,774,774,774,774,773,773,773,773,773,773,773,773,773,773,773,773,773,773,773,773,771,771,771,771,771,771,771,771,773,773,773,773,773,773,771,771,771,771,773,773,773,774,774,774,0,0,0,0,0,0,0,0,0,0,0,0,0,0,0,0,0,0,0,0,0,0,0,0,0,0,0,0,0,0,0,0,0,0,0,0,0,0
0,0,0,0,0,0,0,0,1130,1130,1130,1119,1119,1126,1123,1123,1126,1126,1126,1126,1126,1126,1126,1126,1126,1126,1126,1126,1123,1123,1123,1123,1119,1119,1119,1119,1119,1119,1119,1119,1119,1123,1123,1123,1123,1126,1126,1123,1123,1123,1123,1123,1119,1119,1119,1119,1115,1115,1115,1119,1115,1115,1115,1119,1119,1115,1115,1115,1119,1119,1119,1115,1115,1119,1119,1119,1119,1119,1119,1115,1115,1115,1115,1115,1115,1112,1112,1115,1115,1115,1115,1119,1119,1119,1119,1119,1115,1115,1115,1112,1112,1115,1112,1112,1108,1108,1108,1108,1108,1108,1108,1108,1108,1108,1108,1108,1105,1105,1105,1101,1101,0,0,0,0,0,0,0,0,766,766,766,766,766,766,767,767,769,771,771,773,773,773,774,774,776,778,778,780,780,780,781,783,0,0,0,0,1115,1105,1101,1101,1101,1101,1097,1097,1097,1097,1097,1097,1094,1094,1094,1097,1097,1097,1097,1097,1101,1101,1101,1101,1105,1105,1105,1108,1108,1108,1112,851,851,851,854,854,856,856,856,858,858,858,858,858,858,860,860,860,860,860,862,862,860,860,862,864,867,867,867,867,869,869,871,871,873,873,875,875,878,880,880,882,885,885,887,887,889,891,894,894,894,894,896,896,898,898,901,1087,1087,1087,1087,1087,1087,1084,1084,1084,1084,1084,1084,1087,1087,1087,1087,1087,1087,1087,1087,1087,1087,1087,1087,1084,1084,1084,1084,1084,1084,1080,1080,1080,1080,1080,1080,1080,1080,1080,1080,1080,1080,1080,1080,1080,1080,1080,1080,1080,1080,1080,1080,1080,1080,1080,1080,1077,1077,1077,1073,1073,1073,1073,1073,1073,1073,1073,1073,1077,1077,1077,1077,1077,1077,1077,1077,1077,1077,1077,1077,1077,1077,1077,1077,1077,1077,1077,1073,1073,1070,1070,1070,1070,1070,1070,1070,1073,1073,1073,1073,1070,1070,1070,1070,1070,1070,1070,1070,1070,1070,1070,1070,1070,1070,1067,1067,1067,1063,1063,1063,1063,1063,1063,1063,1063,1063,1063,1063,1063,1067,1067,1063,1063,1063,1063,1063,1063,1063,1063,1063,1063,1067,1067,1067,1067,1067,1067,1063,1063,1063,1063,1063,1063,1063,1063,1063,1063,1063,1063,1060,1060,1060,1060,1060,1060,1060,1060,1057,1057,1057,1057,1057,1057,1057,1057,1057,1057,1054,1054,1054,1054,1054,1054,1054,1057,1057,1057,1057,1054,1054,1054,1054,1054,1054,1054,1054,1050,1050,1050,1050,1047,1047,1054,1054,1054,1054,1054,1054,1054,1054,1054,1050,1050,1054,1054,1054,1054,1054,1054,1054,1050,1050,1050,1050,1050,1050,1050,1050,1050,1050,1047,1047,1047,1047,1047,1047,1047,1047,1047,1047,1044,1044,1044,1044,1041,1041,1041,1041,1041,1041,1041,1041,1041,1041,1041,1041,1041,1041,1041,1041,1041,1041,1041,1041,1041,1041,1041,1041,1041,1041,1038,1038,1038,1038,1038,1038,1034,1034,1034,1031,1031,1028,1028,1028,1028,1028,1028,1025,1025,1025,1022,1022,1022,1022,1022,1022,1022,1022,1025,1025,1025,1025,1025,1022,1022,0,0,0,0,0,0,0,0,774,774,774,774,774,773,773,773,773,773,773,773,773,773,773,773,773,773,773,773,771,771,771,771,771,771,771,771,771,773,773,773,773,773,773,773,773,773,773,773,773,773,774,774,774,0,0,0,0,0,0,0,0,0,0,0,0,0,0,0,0,0,0,0,0,0,0,0,0,0,0,0,0,0,0,0,0,0,0,0,0,0,0
0,0,0,0,0,0,0,0,1126,1126,1126,1119,1119,1119,1119,1119,1119,1119,1119,1123,1123,1123,1123,1123,1123,1123,1123,1123,1123,1123,1119,1119,1119,1119,1119,1119,1119,1119,1119,1119,1119,1119,1119,1119,1119,1123,1119,1119,1119,1119,1119,1119,1119,1119,1115,1115,1115,1115,1115,1112,1112,1112,1112,1115,1115,1115,1115,1115,1115,1115,1115,1115,1115,1115,1115,1115,1115,1115,1112,1112,1112,1112,1112,1112,1112,1112,1112,1112,1112,1112,1112,1115,1115,1115,1115,1115,1115,1115,1112,1112,1112,1112,1108,1105,1105,1105,1105,1105,1105,1105,1105,1105,1105,1105,1105,1105,1105,1105,1101,1101,1101,0,0,0,0,0,0,0,0,766,766,766,766,766,766,767,767,771,771,771,773,773,773,774,776,778,780,780,781,781,781,783,783,0,0,0,0,1105,1101,1101,1097,1097,1097,1097,1097,1094,1094,1094,1094,1094,1094,1094,1094,1097,1097,1097,1097,1097,1101,1101,1101,1101,1105,1105,1105,849,849,849,849,851,851,851,851,851,851,854,856,858,858,858,858,858,858,858,858,860,860,860,860,860,860,860,864,867,867,867,867,869,869,871,873,873,875,875,878,878,880,882,885,885,887,887,889,889,891,894,894,894,894,896,896,898,898,1084,1084,1084,1084,1084,1084,1084,1084,1084,1084,1084,1084,1084,1084,1084,1084,1084,1084,1084,1080,1080,1084,1084,1084,1080,1080,1080,1080,1077,1077,1077,1077,1077,1077,1077,1077,1077,1077,1077,1077,1077,1077,1077,1077,1077,1077,1077,1077,1077,1077,1077,1077,1077,1077,1077,1077,1077,1077,1073,1073,1073,1070,1070,1070,1070,1070,1070,1070,1070,1073,1073,1073,1073,1073,1073,1073,1073,1073,1073,1073,1073,1073,1073,1073,1073,1077,1077,1073,1070,1070,1067,1067,1067,1067,1067,1067,1067,1070,1070,1070,1067,1067,1067,1067,1067,1067,1067,1067,1067,1067,1067,1067,1067,1067,1067,1063,1063,1063,1063,1063,1063,1060,1060,1060,1060,1060,1063,1063,1063,1063,1063,1063,1063,1063,1063,1063,1063,1060,1060,1060,1060,1057,1057,1060,1060,1060,1063,1063,1063,1063,1063,1063,1063,1063,1060,1060,1060,1060,1060,1060,1060,1057,1057,1057,1057,1057,1057,1057,1057,1054,1054,1054,1054,1054,1054,1054,1054,1054,1054,1054,1054,1054,1054,1054,1054,1054,1054,1054,1054,1050,1050,1050,1050,1050,1050,1050,1050,1050,1047,1044,1044,1044,1044,1044,1047,1050,1050,1050,1050,1050,1050,1050,1050,1050,1050,1050,1050,1050,1047,1047,1047,1047,1047,1050,1050,1050,1050,1050,1050,1050,1047,1047,1047,1044,1044,1044,1044,1044,1044,1044,1044,1041,1041,1041,1041,1041,1038,1038,1038,1041,1038,1038,1038,1038,1041,1041,1041,1041,1041,1041,1041,1038,1038,1038,1041,1041,1038,1038,1038,1041,1041,1038,1038,1038,1038,1038,1034,1034,1034,1034,1031,1028,1028,1028,1028,1028,1028,1028,1028,1025,1025,1025,1025,1025,1025,1025,1025,1025,1025,1025,1028,1025,1025,1025,1025,1025,0,0,0,0,0,0,0,774,774,774,774,774,774,774,774,774,774,774,774,774,774,773,773,774,773,773,773,773,771,771,771,771,771,771,771,771,773,773,773,773,773,773,773,773,773,774,774,773,773,774,774,774,774,0,0,0,0,0,0,0,0,0,0,0,0,0,0,0,0,0,0,0,0,0,0,0,0,0,0,0,0,0,0,0,0,0,0,0,0,0,0
0,0,0,0,0,0,0,0,1126,1126,1123,1119,1119,1119,1115,1115,1115,1115,1119,1119,1119,1119,1123,1123,1119,1119,1123,1123,1119,1119,1119,1119,1119,1119,1119,1115,1115,1115,1115,1115,1115,1115,1115,1115,1115,1115,1115,1115,1115,1115,1115,1115,1115,1115,1115,1115,1115,1115,1112,1112,1112,1112,1112,1112,1112,1112,1112,1112,1112,1112,1112,1112,1112,1115,1115,1115,1112,1112,1112,1112,1108,1108,1108,1108,1108,1108,1108,1108,1108,1108,1108,1108,1108,1108,1108,1108,1108,1108,1112,1108,1108,1108,1105,1105,1105,1101,1101,1101,1101,1105,1101,1101,1105,1105,1105,1105,1101,1101,1101,1097,1097,0,0,0,0,0,0,0,0,767,767,766,766,766,766,767,767,771,771,773,773,773,774,774,776,780,780,780,781,781,783,783,783,785,785,0,1105,1105,1101,1097,1097,1097,1094,1094,1094,1094,1090,1090,1090,1090,1090,1090,1094,1094,1094,1094,1094,1094,1094,1097,1101,1101,1105,1105,851,849,849,849,849,851,851,851,851,851,851,851,851,854,854,854,854,854,856,856,856,858,858,858,860,860,860,860,864,867,867,867,867,869,869,871,873,875,875,875,878,880,880,882,885,885,887,887,889,889,891,894,894,894,896,896,896,898,898,1084,1084,1084,1084,1084,1084,1084,1084,1080,1080,1080,1080,1080,1077,1077,1077,1077,1077,1077,1077,1077,1077,1077,1077,1077,1077,1077,1077,1077,1077,1073,1073,1073,1077,1077,1077,1077,1077,1077,1077,1077,1077,1077,1077,1077,1077,1077,1077,1077,1077,1077,1073,1073,1073,1073,1073,1073,1073,1070,1070,1070,1070,1067,1067,1070,1070,1070,1070,1070,1073,1073,1070,1070,1070,1070,1073,1073,1070,1070,1070,1070,1070,1070,1070,1070,1067,1067,1070,1067,1067,1067,1067,1067,1067,1067,1067,1067,1067,1067,1067,1063,1063,1063,1067,1067,1067,1067,1067,1067,1067,1063,1063,1063,1063,1063,1063,1063,1060,1060,1060,1060,1060,1057,1057,1057,1057,1060,1060,1057,1057,1060,1060,1060,1060,1060,1060,1060,1060,1060,1060,1057,1057,1057,1057,1057,1057,1057,1054,1054,1060,1060,1060,1060,1060,1060,1060,1060,1057,1057,1057,1057,1057,1057,1054,1054,1054,1054,1054,1054,1054,1054,1054,1050,1050,1050,1050,1050,1050,1050,1050,1050,1050,1050,1050,1050,1050,1050,1050,1050,1050,1050,1050,1050,1050,1050,1050,1047,1047,1044,1044,1041,1041,1041,1041,1044,1044,1047,1047,1050,1050,1050,1050,1047,1047,1047,1047,1047,1044,1044,1041,1041,1044,1044,1044,1047,1047,1047,1047,1047,1047,1047,1044,1044,1041,1041,1041,1041,1041,1041,1041,1041,1041,1038,1038,1038,1038,1038,1038,1038,1038,1038,1034,1034,1038,1038,1038,1038,1038,1038,1038,1038,1034,1034,1034,1034,1034,1034,1038,1038,1038,1038,1038,1038,1038,1034,1034,1034,1034,1034,1031,1028,1028,1028,1028,1028,1028,1028,1028,1028,1028,1028,1025,1025,1025,1025,1025,1025,1025,1028,1028,1028,1028,1025,1025,1025,1025,1025,0,0,0,0,0,776,774,774,774,773,773,773,773,774,774,774,774,774,774,774,773,773,774,773,773,773,773,771,771,771,771,771,771,771,771,773,773,773,773,774,774,774,774,774,774,774,774,774,774,774,776,776,0,0,0,0,0,0,0,0,0,0,0,0,0,0,0,0,0,0,0,0,0,0,0,0,0,0,0,0,0,0,0,0,0,0,0,0,0,0
0,0,0,0,0,0,0,0,1126,1126,1123,1119,1119,1115,1115,1115,1115,1115,1115,1115,1115,1119,1119,1119,1119,1119,1119,1119,1119,1119,1115,1115,1115,1115,1115,1115,1115,1115,1115,1112,1112,1112,1112,1112,1112,1112,1115,1115,1112,1112,1112,1112,1112,1112,1112,1112,1115,1112,1112,1112,1108,1108,1108,1108,1108,1108,1108,1108,1108,1105,1105,1108,1112,1112,1112,1112,1108,1108,1108,1108,1108,1105,1105,1105,1105,1105,1105,1105,1105,1108,1108,1105,1105,1105,1105,1105,1105,1105,1108,1105,1105,1105,1105,1105,1105,1101,1101,1101,1101,1101,1101,1101,1101,1101,1101,1101,1101,1101,1101,1097,1094,1094,0,0,0,0,0,0,0,767,767,767,767,767,767,769,769,771,773,773,774,774,774,776,778,780,781,781,783,785,785,785,785,785,0,0,0,0,1097,1097,1094,1094,1094,1090,1090,1090,1090,1090,1090,1090,1090,1090,1090,1090,1090,1090,1094,1094,1094,1097,1097,841,847,847,847,847,847,849,849,849,849,849,849,849,849,849,849,851,851,851,851,854,854,854,854,856,858,858,858,860,860,860,864,867,867,867,867,869,869,871,873,875,875,878,878,880,882,882,885,885,887,887,889,889,891,894,894,894,896,896,896,898,1073,1077,1080,1080,1080,1080,1080,1080,1080,1080,1077,1077,1077,1077,1073,1073,1073,1077,1077,1077,1077,1077,1077,1077,1073,1073,1073,1073,1073,1073,1073,1073,1070,1070,1073,1073,1073,1073,1073,1073,1073,1073,1073,1073,1073,1073,1073,1073,1073,1073,1073,1073,1073,1073,1073,1073,1070,1070,1067,1067,1067,1067,1067,1067,1067,1067,1067,1067,1067,1067,1067,1067,1067,1067,1067,1067,1067,1070,1070,1067,1067,1067,1067,1067,1067,1067,1063,1063,1063,1063,1063,1063,1063,1063,1063,1063,1063,1063,1063,1063,1063,1060,1060,1063,1063,1063,1063,1063,1063,1063,1063,1063,1063,1060,1060,1060,1060,1060,1060,1060,1060,1060,1057,1057,1057,1057,1057,1057,1057,1054,1054,1057,1057,1054,1054,1057,1057,1057,1057,1057,1054,1054,1054,1054,1054,1054,1054,1054,1054,1054,1054,1054,1054,1057,1057,1054,1054,1054,1054,1054,1054,1054,1054,1054,1054,1050,1050,1050,1050,1050,1050,1050,1050,1050,1050,1050,1050,1050,1050,1050,1047,1047,1047,1047,1047,1047,1047,1047,1047,1047,1047,1047,1047,1047,1047,1047,1047,1044,1044,1044,1041,1041,1041,1041,1041,1041,1041,1044,1047,1047,1047,1044,1044,1047,1047,1044,1044,1041,1041,1041,1041,1041,1041,1041,1041,1041,1044,1044,1044,1044,1044,1041,1041,1041,1041,1038,1038,1038,1038,1038,1038,1038,1038,1038,1038,1038,1038,1034,1034,1034,1034,1034,1034,1034,1034,1034,1038,1034,1034,1034,1034,1034,1031,1031,1031,1031,1034,1034,1034,1034,1034,1034,1038,1038,1038,1034,1034,1031,1031,1031,1028,1028,1028,1028,1028,1028,1028,1028,1028,1028,1028,1028,1028,1025,1025,1028,1028,1028,1028,1028,1028,1028,1028,1025,1025,1025,1025,0,0,0,0,776,776,776,774,774,774,773,773,773,773,774,774,774,774,774,774,774,774,774,774,773,773,773,773,771,771,771,771,771,773,773,773,773,774,774,774,774,774,774,774,774,774,774,774,774,776,776,776,776,0,0,0,0,0,0,0,0,0,0,0,0,0,0,0,0,0,0,0,0,0,0,0,0,0,0,0,0,0,0,0,0,0,0,0,0,0,0
0,0,0,0,0,0,0,0,1119,1119,1119,1115,1115,1115,1115,1115,1115,1115,1115,1115,1115,1115,1115,1115,1115,1115,1115,1115,1115,1115,1115,1115,1115,1115,1115,1115,1115,1112,1108,1108,1108,1108,1108,1108,1108,1108,1112,1112,1108,1108,1108,1108,1108,1108,1108,1108,1112,1112,1108,1108,1108,1105,1105,1108,1105,1105,1105,1105,1105,1105,1105,1105,1105,1105,1105,1108,1105,1105,1105,1105,1105,1105,1105,1105,1105,1105,1105,1105,1105,1105,1105,1101,1101,1105,1101,1101,1101,1101,1105,1105,1105,1105,1101,1101,1101,1101,1101,1097,1097,1097,1097,1097,1097,1097,1097,1101,1101,1101,1094,1094,1084,1084,0,0,0,0,0,0,0,0,769,769,767,767,769,769,771,773,773,773,774,774,776,776,780,780,781,781,783,785,785,785,785,785,0,0,0,1097,1097,1094,1094,1094,1090,1090,1090,1090,1087,1087,1087,1087,1087,1087,1090,1090,1090,1090,1094,1094,843,843,841,841,843,843,845,847,847,847,849,849,849,849,849,849,849,849,849,849,849,849,851,851,851,854,854,856,856,858,858,860,860,862,864,867,867,867,869,869,871,871,873,875,878,878,878,882,882,885,885,887,887,889,889,889,891,894,894,894,1077,1077,1073,1073,1073,1073,1077,1077,1077,1077,1077,1077,1077,1077,1077,1073,1073,1073,1073,1070,1070,1070,1073,1073,1073,1073,1073,1073,1073,1073,1073,1073,1073,1073,1073,1070,1070,1070,1070,1070,1070,1070,1070,1073,1073,1073,1073,1073,1073,1073,1073,1073,1073,1073,1073,1073,1070,1070,1070,1070,1067,1067,1067,1063,1063,1063,1063,1063,1063,1063,1063,1063,1063,1063,1067,1067,1067,1067,1067,1067,1067,1067,1067,1067,1067,1067,1067,1063,1063,1063,1060,1060,1060,1060,1060,1060,1060,1057,1057,1060,1060,1060,1060,1060,1060,1057,1057,1060,1060,1060,1060,1060,1060,1060,1060,1057,1057,1057,1057,1057,1057,1057,1057,1057,1057,1057,1054,1054,1054,1054,1054,1054,1054,1054,1054,1054,1054,1050,1050,1054,1054,1054,1054,1054,1054,1054,1050,1050,1050,1050,1050,1050,1050,1050,1050,1050,1050,1050,1050,1050,1050,1054,1050,1050,1050,1050,1050,1050,1050,1050,1050,1050,1050,1050,1050,1050,1047,1047,1047,1047,1047,1047,1047,1047,1047,1044,1044,1044,1044,1044,1044,1044,1044,1044,1044,1044,1044,1044,1044,1044,1044,1044,1044,1041,1041,1041,1041,1041,1041,1041,1041,1041,1044,1044,1044,1041,1041,1041,1041,1038,1038,1041,1041,1038,1038,1038,1038,1038,1038,1041,1041,1041,1041,1041,1041,1041,1038,1038,1038,1038,1038,1034,1034,1034,1034,1034,1034,1034,1034,1034,1034,1031,1031,1031,1031,1031,1031,1031,1031,1031,1031,1034,1031,1031,1031,1031,1031,1031,1031,1031,1031,1031,1031,1031,1031,1028,1028,1028,1028,1031,1031,1028,1028,1028,1028,1028,1028,1028,1028,1028,1028,1025,1025,1025,1025,1025,1025,1025,1025,1025,1025,1025,1025,1025,1025,1025,1025,1025,1025,1028,1028,0,0,776,776,776,776,776,776,774,774,774,774,774,774,774,774,774,774,774,774,774,774,774,774,773,773,773,773,773,771,771,771,771,773,773,773,773,774,774,774,774,774,774,774,774,774,774,776,776,776,776,776,776,0,0,0,0,0,0,0,0,0,0,0,0,0,0,0,0,0,0,0,0,0,0,0,0,0,0,0,0,0,0,0,0,0,0,0,0,0,0
0,0,0,0,0,0,0,0,1119,1119,1115,1115,1115,1115,1115,1115,1115,1115,1115,1115,1115,1115,1112,1112,1112,1112,1112,1112,1112,1112,1112,1112,1112,1112,1112,1112,1112,1108,1108,1105,1105,1108,1105,1105,1108,1108,1108,1108,1105,1105,1105,1105,1105,1105,1105,1105,1108,1108,1108,1108,1105,1105,1105,1105,1105,1105,1101,1101,1101,1101,1101,1101,1101,1105,1101,1101,1101,1101,1101,1101,1101,1101,1101,1101,1101,1101,1101,1101,1101,1101,1101,1101,1101,1101,1101,1101,1097,1097,1101,1101,1101,1101,1101,1101,1101,1101,1097,1097,1097,1094,1094,1094,1090,1090,1094,1094,1090,1090,1090,1090,1084,1084,0,0,0,0,0,0,0,0,773,771,771,771,771,771,771,773,773,774,774,774,776,778,780,780,781,783,783,785,785,785,787,787,0,0,0,0,1094,1094,1094,1094,1090,1090,1090,1087,1087,1087,1087,1087,1087,1087,1087,1087,1090,1090,1094,841,841,841,841,841,843,843,843,845,845,847,847,849,849,849,849,847,847,849,849,849,849,849,849,851,851,854,854,856,856,856,858,860,860,864,867,867,867,867,869,869,871,873,875,878,878,878,880,882,885,885,887,887,889,889,889,889,891,894,894,894,1073,1073,1073,1073,1073,1073,1073,1073,1073,1073,1073,1073,1073,1073,1073,1073,1070,1070,1067,1067,1067,1067,1067,1070,1070,1070,1070,1070,1070,1070,1070,1070,1070,1070,1070,1067,1067,1067,1067,1067,1067,1067,1070,1070,1070,1070,1070,1070,1070,1070,1070,1070,1070,1070,1070,1070,1067,1067,1067,1067,1063,1063,1063,1063,1063,1060,1060,1060,1063,1063,1063,1063,1063,1063,1063,1063,1067,1067,1067,1067,1067,1063,1063,1063,1063,1063,1063,1060,1060,1060,1057,1057,1057,1057,1057,1057,1057,1057,1057,1057,1054,1054,1054,1057,1057,1057,1057,1057,1057,1057,1057,1057,1057,1057,1057,1057,1054,1054,1054,1054,1054,1054,1054,1054,1054,1054,1054,1050,1050,1050,1050,1050,1050,1050,1050,1050,1050,1050,1050,1050,1050,1050,1050,1050,1050,1050,1050,1050,1050,1047,1047,1047,1047,1047,1047,1047,1047,1047,1047,1047,1047,1047,1047,1047,1050,1047,1047,1050,1050,1050,1050,1050,1050,1047,1047,1047,1044,1044,1044,1044,1044,1044,1047,1047,1044,1044,1044,1044,1041,1041,1041,1041,1041,1041,1041,1041,1044,1044,1041,1041,1041,1041,1041,1041,1041,1041,1041,1041,1041,1041,1041,1041,1041,1041,1041,1041,1041,1041,1038,1038,1038,1034,1034,1034,1038,1038,1038,1038,1038,1038,1038,1038,1038,1038,1038,1038,1038,1038,1038,1034,1034,1034,1034,1034,1034,1031,1031,1031,1031,1031,1031,1031,1031,1028,1028,1028,1028,1028,1028,1028,1028,1028,1028,1028,1028,1028,1028,1028,1028,1028,1028,1028,1028,1028,1028,1028,1028,1028,1028,1025,1025,1025,1025,1025,1025,1025,1025,1025,1025,1025,1025,1025,1025,1025,1022,1022,1022,1022,1022,1022,1025,1025,1025,1025,1025,1025,1025,1025,1025,1028,1028,778,778,776,776,776,776,776,774,774,774,774,774,774,774,774,774,774,774,774,774,774,774,774,774,774,773,773,773,773,773,773,773,773,773,773,773,774,774,774,774,774,774,774,776,776,776,776,776,776,778,778,778,778,0,0,0,0,0,0,0,0,0,0,0,0,0,0,0,0,0,0,0,0,0,0,0,0,0,0,0,0,0,0,0,0,0,0,0,0,0,0
0,0,0,0,0,0,0,1115,1115,1115,1115,1115,1115,1115,1115,1115,1115,1115,1115,1115,1112,1112,1108,1108,1108,1105,1105,1108,1105,1105,1108,1108,1105,1105,1108,1108,1105,1105,1105,1105,1105,1105,1105,1105,1105,1105,1105,1105,1105,1105,1101,1101,1101,1101,1101,1101,1101,1105,1105,1105,1101,1101,1105,1105,1101,1101,1101,1101,1101,1101,1101,1101,1101,1101,1101,1097,1097,1097,1097,1097,1097,1097,1097,1101,1101,1097,1097,1097,1097,1097,1097,1094,1094,1097,1097,1097,1097,1097,1097,1097,1097,1101,1101,1101,1101,1101,1097,1094,1094,1090,1090,1090,1090,1090,1090,1090,1090,1090,1090,1087,1084,1084,0,0,0,0,0,0,0,0,774,773,773,773,773,773,774,774,774,774,776,776,778,780,780,781,781,783,785,785,785,787,787,787,787,787,0,1094,1094,1090,1090,1090,1090,1090,1087,1087,1087,1087,1087,1087,1087,837,837,837,837,839,841,841,841,841,843,843,843,843,843,845,845,845,847,847,847,847,847,847,847,847,849,849,849,849,849,851,854,854,854,856,856,856,858,860,862,867,867,867,867,869,869,869,871,873,875,878,878,880,880,885,885,885,887,887,889,889,889,889,891,894,1073,1073,1073,1073,1070,1070,1070,1070,1070,1070,1070,1070,1070,1070,1070,1070,1070,1067,1067,1067,1067,1067,1063,1063,1067,1067,1067,1067,1067,1067,1067,1067,1067,1067,1067,1067,1067,1067,1063,1063,1063,1063,1063,1063,1063,1063,1067,1067,1067,1067,1067,1067,1067,1067,1067,1067,1063,1063,1063,1063,1063,1063,1063,1063,1060,1060,1060,1060,1060,1060,1060,1060,1060,1060,1060,1060,1063,1063,1063,1063,1063,1063,1063,1060,1060,1060,1060,1060,1057,1057,1057,1057,1057,1057,1054,1054,1054,1054,1054,1054,1050,1050,1054,1054,1054,1054,1054,1054,1054,1054,1054,1054,1054,1054,1054,1054,1054,1054,1054,1054,1054,1054,1054,1054,1054,1054,1054,1050,1050,1050,1050,1050,1050,1050,1050,1050,1050,1050,1050,1050,1050,1050,1050,1050,1050,1050,1047,1047,1047,1047,1047,1044,1044,1044,1044,1044,1044,1044,1044,1044,1041,1041,1044,1041,1041,1041,1041,1041,1041,1044,1047,1047,1047,1047,1047,1044,1044,1044,1041,1041,1041,1041,1041,1041,1044,1044,1041,1041,1041,1041,1041,1041,1041,1041,1041,1041,1041,1041,1041,1041,1041,1041,1038,1038,1038,1038,1038,1038,1038,1038,1038,1038,1038,1038,1038,1038,1038,1038,1038,1038,1038,1038,1034,1034,1031,1031,1031,1031,1031,1034,1034,1038,1038,1038,1038,1034,1034,1038,1034,1034,1034,1031,1031,1031,1031,1031,1031,1028,1028,1028,1028,1028,1028,1028,1028,1028,1028,1028,1028,1028,1028,1028,1025,1025,1025,1025,1025,1025,1025,1025,1025,1025,1025,1025,1025,1025,1025,1025,1025,1025,1025,1025,1025,1022,1022,1022,1022,1025,1025,1025,1025,1025,1025,1025,1022,1022,1019,1019,1019,1019,1019,1019,1019,1019,1019,1022,1025,1025,1025,1025,1025,1025,778,778,778,776,776,776,776,776,774,774,774,774,774,774,774,774,774,774,774,774,774,774,774,774,774,774,774,774,773,773,773,773,773,773,774,774,774,774,774,774,774,774,774,774,776,776,776,776,776,778,778,778,778,780,0,0,0,0,0,0,0,0,0,0,0,0,0,0,0,0,0,0,0,0,0,0,0,0,0,0,0,0,0,0,0,0,0,0,0,0,0,0
0,0,0,0,0,0,0,1115,1115,1112,1112,1108,1108,1108,1108,1112,1112,1112,1112,1112,1108,1108,1105,1105,1105,1101,1101,1105,1101,1101,1105,1105,1101,1101,1105,1105,1105,1105,1105,1105,1105,1105,1101,1101,1101,1101,1105,1105,1105,1105,1101,1101,1101,1101,1097,1097,1097,1097,1101,1101,1101,1101,1101,1101,1101,1097,1097,1097,1097,1097,1097,1097,1097,1097,1094,1094,1094,1094,1094,1094,1094,1094,1094,1094,1094,1094,1094,1094,1094,1094,1094,1094,1094,1094,1094,1094,1094,1094,1094,1094,1097,1097,1097,1097,1097,1097,1097,1094,1090,1090,1090,1087,1087,1087,1087,1087,1087,1087,1087,1087,1084,1080,1080,0,0,0,0,0,0,0,0,774,773,773,773,774,774,774,774,776,778,778,780,780,781,781,783,783,785,785,787,787,787,787,787,0,789,1090,0,1090,1090,1090,1090,1087,1087,1087,1087,1084,1084,837,837,837,837,837,837,839,841,841,841,843,841,841,843,843,843,843,843,845,845,845,845,845,845,845,847,847,847,849,849,849,849,851,854,856,856,858,858,858,860,864,864,867,867,867,869,869,869,869,871,873,875,878,878,880,880,885,885,885,887,887,889,889,889,1073,1073,1070,1070,1070,1070,1070,1070,1070,1067,1067,1067,1067,1067,1067,1067,1067,1067,1070,1067,1063,1063,1063,1063,1063,1063,1063,1063,1063,1063,1067,1067,1063,1063,1063,1063,1063,1063,1063,1063,1063,1063,1063,1060,1060,1060,1060,1060,1060,1060,1060,1060,1063,1063,1063,1063,1063,1063,1060,1060,1060,1060,1060,1060,1060,1060,1060,1060,1060,1060,1057,1057,1060,1057,1057,1057,1057,1057,1057,1060,1060,1060,1060,1060,1060,1060,1057,1057,1057,1057,1057,1057,1057,1057,1057,1054,1054,1054,1054,1054,1054,1050,1050,1050,1050,1050,1050,1050,1054,1054,1050,1050,1050,1050,1050,1050,1050,1054,1050,1050,1050,1050,1050,1050,1050,1050,1050,1050,1050,1050,1050,1047,1047,1047,1047,1047,1047,1047,1047,1047,1047,1047,1047,1047,1047,1047,1047,1047,1047,1047,1047,1044,1044,1044,1044,1044,1044,1041,1041,1041,1041,1041,1041,1038,1038,1041,1041,1041,1041,1041,1041,1041,1041,1041,1041,1044,1044,1044,1041,1041,1041,1041,1041,1041,1041,1041,1041,1041,1041,1041,1041,1041,1041,1041,1041,1041,1041,1041,1038,1038,1038,1038,1038,1038,1038,1038,1034,1034,1038,1038,1038,1038,1038,1034,1034,1034,1034,1034,1034,1034,1034,1034,1034,1034,1034,1034,1031,1031,1031,1031,1031,1031,1031,1031,1031,1034,1034,1034,1034,1034,1034,1031,1031,1031,1031,1028,1028,1028,1028,1028,1028,1025,1025,1025,1025,1025,1025,1025,1025,1025,1025,1025,1025,1025,1025,1025,1025,1025,1025,1025,1025,1025,1025,1025,1025,1022,1022,1022,1022,1022,1022,1019,1019,1019,1022,1022,1022,1019,1019,1019,1019,1019,1019,1022,1022,1022,1022,1022,1019,1019,1019,1019,1019,1016,1016,1019,1019,1019,1019,1022,1022,1025,1025,1025,776,778,778,776,776,776,776,776,776,776,774,774,774,774,774,774,774,774,774,774,774,774,774,774,774,774,774,774,774,773,773,773,773,773,773,774,774,774,774,774,774,774,774,774,776,776,776,776,776,776,778,778,780,780,780,0,0,0,0,0,0,0,0,0,0,0,0,0,0,0,0,0,0,0,0,0,0,0,0,0,0,0,0,0,0,0,0,0,0,0,0,0,0
0,0,0,0,0,0,0,0,1115,1108,1105,1105,1105,1105,1105,1105,1105,1105,1105,1105,1105,1105,1101,1101,1101,1097,1097,1097,1097,1097,1101,1101,1101,1101,1101,1101,1101,1105,1101,1101,1101,1101,1101,1101,1101,1101,1101,1101,1101,1101,1101,1101,1101,1097,1097,1097,1097,1097,1097,1097,1097,1097,1101,1101,1097,1097,1097,1097,1094,1094,1094,1090,1090,1094,1090,1090,1090,1090,1090,1090,1090,1090,1090,1090,1090,1090,1090,1090,1090,1090,1090,1090,1090,1090,1090,1090,1090,1090,1090,1090,1090,1090,1094,1094,1094,1094,1094,1090,1087,1087,1087,1087,1087,1087,1084,1084,1084,1084,1084,1084,1080,1080,1080,1080,1080,0,0,0,0,0,0,774,774,774,774,774,774,776,776,778,778,780,780,781,781,781,783,785,785,785,787,787,787,787,787,789,789,789,1090,1090,1090,1090,1090,841,839,839,1084,839,839,837,837,837,837,837,839,839,839,841,841,841,841,841,843,843,843,843,843,843,845,845,845,845,845,845,845,847,847,849,849,849,851,854,854,856,858,858,860,860,860,864,867,867,869,869,869,869,869,871,873,875,875,878,880,880,882,885,887,887,887,889,889,1067,1067,1067,1070,1067,1067,1070,1067,1067,1067,1067,1067,1067,1063,1063,1063,1063,1063,1063,1063,1063,1063,1063,1063,1063,1063,1063,1063,1063,1063,1063,1063,1063,1063,1063,1063,1060,1060,1060,1063,1060,1060,1060,1060,1060,1060,1057,1057,1057,1057,1057,1057,1057,1057,1060,1060,1057,1057,1060,1060,1057,1057,1057,1057,1057,1057,1057,1057,1057,1057,1057,1057,1057,1057,1057,1057,1057,1054,1054,1054,1057,1057,1060,1060,1060,1057,1057,1057,1054,1054,1054,1054,1054,1054,1054,1054,1054,1054,1054,1050,1050,1050,1050,1047,1047,1047,1050,1050,1050,1050,1050,1050,1050,1050,1050,1050,1047,1047,1047,1044,1044,1044,1044,1044,1044,1047,1047,1047,1050,1050,1047,1047,1047,1044,1044,1044,1044,1044,1044,1044,1047,1047,1044,1044,1047,1047,1044,1044,1044,1044,1044,1044,1044,1044,1041,1041,1041,1041,1041,1041,1041,1041,1038,1038,1038,1038,1038,1038,1038,1038,1038,1038,1038,1038,1038,1038,1038,1038,1038,1038,1038,1041,1038,1038,1038,1038,1038,1038,1038,1038,1038,1038,1038,1038,1038,1038,1038,1038,1038,1038,1038,1038,1038,1038,1034,1034,1034,1034,1034,1034,1034,1034,1034,1034,1031,1031,1031,1031,1031,1031,1031,1031,1031,1031,1031,1031,1031,1028,1028,1028,1028,1028,1028,1031,1028,1028,1028,1028,1031,1031,1031,1031,1031,1028,1028,1028,1028,1028,1025,1025,1025,1025,1025,1025,1025,1025,1025,1025,1025,1025,1025,1022,1022,1025,1025,1025,1022,1022,1022,1022,1022,1022,1022,1022,1022,1022,1022,1019,1019,1019,1019,1019,1019,1016,1016,1016,1019,1019,1019,1019,1019,1019,1019,1016,1016,1016,1016,1016,1019,1019,1016,1016,1016,1016,1016,1016,1016,1016,1016,1016,1016,1019,1022,1022,1025,1025,776,776,776,776,776,776,776,776,776,776,774,774,774,774,774,774,774,774,774,774,774,774,774,774,774,774,774,774,774,774,774,774,774,774,774,774,774,774,774,774,774,774,774,774,776,776,776,776,776,778,778,780,780,780,780,0,0,0,0,0,0,0,0,0,0,0,0,0,0,0,0,0,0,0,0,0,0,0,0,0,0,0,0,0,0,0,0,0,0,0,0,0,0
0,0,0,0,0,0,0,0,0,1105,1105,1105,1101,1101,1101,1101,1097,1097,1097,1097,1097,1097,1097,1094,1094,1094,1094,1094,1094,1094,1097,1097,1097,1097,1097,1097,1097,1101,1101,1097,1097,1097,1097,1097,1097,1097,1097,1097,1097,1097,1097,1097,1097,1094,1094,1094,1090,1090,1090,1094,1094,1094,1097,1097,1097,1094,1094,1094,1090,1090,1090,1090,1090,1090,1090,1087,1087,1087,1087,1087,1090,1090,1090,1090,1090,1090,1090,1090,1087,1087,1087,1087,1087,1087,1087,1090,1090,1087,1087,1087,1090,1090,1090,1090,1090,1090,1090,1087,1087,1087,1084,1084,1084,1084,1084,1084,1080,1080,1080,1080,1080,1077,1077,1077,1077,0,0,0,0,0,0,0,776,776,776,776,776,776,778,778,780,780,781,781,781,781,783,783,787,787,787,787,789,789,789,789,789,789,790,1090,1090,1080,1080,841,839,839,1077,837,837,837,837,837,837,837,839,839,839,839,841,841,841,841,841,841,841,843,843,843,843,843,843,845,845,845,845,847,847,849,849,851,851,854,856,856,858,860,860,860,862,864,867,869,869,869,871,871,873,873,873,875,878,878,878,880,880,882,887,887,887,1070,1067,1067,1067,1067,1067,1067,1067,1067,1063,1063,1063,1063,1063,1063,1063,1063,1063,1063,1060,1060,1060,1060,1060,1060,1060,1060,1060,1060,1060,1060,1063,1060,1060,1063,1060,1060,1060,1060,1060,1060,1060,1060,1060,1060,1060,1060,1057,1057,1057,1057,1057,1057,1057,1057,1057,1057,1057,1057,1054,1054,1054,1050,1050,1054,1054,1054,1057,1057,1057,1057,1054,1054,1054,1054,1050,1050,1050,1050,1050,1050,1050,1050,1054,1054,1054,1054,1054,1054,1054,1054,1054,1054,1054,1054,1054,1054,1054,1054,1054,1050,1050,1050,1050,1047,1047,1044,1044,1047,1047,1047,1047,1050,1050,1050,1047,1047,1047,1044,1044,1044,1044,1041,1041,1041,1044,1044,1044,1044,1044,1047,1044,1044,1041,1041,1041,1041,1041,1041,1041,1041,1041,1044,1044,1044,1044,1044,1044,1044,1044,1041,1041,1041,1041,1041,1041,1041,1041,1038,1038,1038,1038,1038,1038,1038,1038,1038,1038,1038,1038,1038,1038,1038,1038,1038,1038,1038,1034,1034,1034,1034,1034,1034,1034,1034,1034,1034,1034,1034,1034,1034,1034,1034,1034,1034,1034,1034,1038,1038,1038,1038,1038,1038,1034,1034,1034,1031,1031,1031,1031,1031,1031,1031,1031,1031,1031,1028,1028,1028,1028,1028,1028,1028,1028,1028,1028,1028,1028,1028,1028,1028,1028,1028,1028,1028,1028,1028,1028,1028,1028,1028,1028,1028,1025,1025,1025,1028,1028,1025,1025,1025,1025,1025,1025,1025,1025,1022,1022,1025,1022,1022,1022,1022,1022,1022,1022,1022,1022,1022,1022,1022,1019,1019,1019,1019,1019,1019,1019,1019,1019,1016,1016,1016,1016,1016,1016,1016,1016,1016,1016,1016,1016,1016,1016,1016,1016,1016,1016,1013,1013,1013,1013,1013,1013,1016,1016,1013,1013,1013,1013,1016,1016,1016,1019,1019,1022,1025,1025,776,776,776,776,776,776,776,776,776,776,776,776,774,774,774,774,774,774,774,774,774,774,774,774,774,774,774,774,774,774,774,774,774,774,774,774,774,774,774,774,774,774,774,774,776,776,776,776,778,778,780,781,781,781,781,0,0,0,0,0,0,0,0,0,0,0,0,0,0,0,0,0,0,0,0,0,0,0,0,0,0,0,0,0,0,0,0,0,0,0,0,0,0
0,0,0,0,0,0,0,0,0,1101,1097,1097,1097,1094,1094,1094,1094,1094,1094,1094,1094,1097,1094,1090,1090,1090,1090,1094,1094,1094,1094,1097,1097,1097,1097,1097,1097,1097,1097,1097,1097,1097,1097,1094,1094,1094,1094,1094,1094,1094,1094,1094,1094,1090,1090,1090,1090,1090,1090,1090,1094,1094,1094,1094,1094,1094,1090,1090,1090,1090,1090,1087,1087,1087,1087,1084,1084,1087,1087,1087,1087,1087,1087,1087,1087,1087,1087,1087,1087,1087,1087,1087,1087,1087,1084,1084,1087,1087,1087,1087,1087,1087,1087,1087,1087,1090,1087,1087,1084,1084,1084,1080,1080,1080,1080,1080,1080,1080,1080,1080,1080,1077,1077,1077,1077,1077,0,0,0,0,0,0,780,780,780,778,778,780,778,778,780,780,781,781,781,781,783,783,787,787,789,789,789,789,789,789,789,790,790,1094,1094,1080,1080,837,837,835,835,835,837,837,835,835,837,837,837,837,839,839,839,841,841,841,841,841,841,841,841,841,843,843,843,843,845,845,845,847,847,849,849,851,851,854,856,858,858,860,860,862,862,867,867,869,869,871,871,873,873,873,875,875,878,878,878,878,880,882,887,1063,1063,1063,1063,1063,1063,1067,1063,1063,1063,1063,1063,1063,1063,1060,1060,1060,1060,1060,1060,1060,1060,1060,1060,1060,1060,1060,1060,1060,1060,1060,1060,1060,1060,1060,1060,1060,1060,1060,1060,1057,1057,1057,1057,1054,1054,1057,1057,1057,1057,1054,1054,1054,1054,1054,1054,1054,1054,1054,1054,1050,1050,1050,1050,1050,1047,1047,1050,1050,1054,1054,1054,1054,1054,1054,1050,1050,1050,1050,1050,1050,1050,1050,1050,1050,1054,1054,1054,1054,1050,1050,1050,1050,1050,1050,1050,1050,1050,1050,1050,1050,1050,1050,1050,1047,1047,1044,1044,1044,1044,1044,1044,1044,1044,1047,1047,1047,1047,1044,1044,1044,1041,1041,1041,1041,1041,1041,1041,1041,1041,1041,1041,1041,1041,1041,1041,1041,1041,1041,1041,1041,1041,1041,1041,1041,1041,1041,1041,1041,1041,1041,1041,1041,1041,1041,1041,1041,1041,1038,1038,1038,1038,1038,1038,1038,1038,1038,1034,1034,1034,1034,1038,1034,1034,1034,1034,1034,1034,1034,1034,1031,1031,1031,1031,1031,1031,1031,1031,1031,1031,1031,1031,1034,1034,1034,1031,1031,1031,1034,1034,1034,1034,1034,1034,1034,1031,1031,1031,1031,1031,1028,1028,1028,1028,1028,1028,1028,1028,1028,1028,1028,1028,1028,1028,1028,1028,1028,1025,1025,1028,1028,1025,1025,1025,1025,1025,1025,1025,1025,1025,1025,1025,1025,1025,1022,1022,1022,1022,1022,1022,1022,1022,1022,1022,1022,1022,1022,1022,1022,1022,1022,1019,1019,1022,1019,1019,1019,1019,1019,1019,1019,1019,1019,1016,1016,1016,1016,1016,1016,1016,1016,1016,1016,1016,1016,1016,1016,1016,1016,1016,1016,1016,1013,1013,1013,1013,1013,1013,1013,1013,1010,1010,1010,1010,1010,1010,1010,1010,1013,1013,1013,1013,1013,1013,1013,1016,1019,1022,1022,0,776,776,776,776,776,776,776,776,776,776,776,776,774,774,774,774,774,774,774,774,773,773,774,774,774,774,774,774,774,774,774,774,774,774,774,774,774,774,774,774,774,774,774,776,776,776,776,778,778,780,781,783,783,783,0,0,0,0,0,0,0,0,0,0,0,0,0,0,0,0,0,0,0,0,0,0,0,0,0,0,0,0,0,0,0,0,0,0,0,0,0,0,0
0,0,0,0,0,0,0,0,0,1101,1097,1097,1090,1090,1090,1090,1090,1090,1090,1090,1090,1094,1090,1090,1090,1090,1090,1090,1090,1090,1090,1094,1097,1097,1094,1094,1094,1094,1094,1094,1094,1094,1094,1090,1090,1090,1090,1090,1090,1090,1090,1090,1090,1090,1090,1090,1090,1087,1087,1090,1090,1090,1090,1090,1094,1090,1090,1090,1087,1087,1087,1087,1084,1084,1084,1084,1084,1084,1084,1084,1084,1084,1084,1084,1084,1087,1087,1087,1084,1084,1084,1084,1084,1080,1080,1080,1084,1084,1084,1084,1084,1084,1087,1084,1084,1084,1084,1084,1080,1080,1080,1080,1080,1080,1080,1080,1080,1077,1077,1077,1077,1077,1077,1077,1077,1077,0,0,0,0,785,785,783,781,781,780,780,780,780,780,781,781,781,781,781,781,783,785,787,787,789,789,789,789,790,790,790,790,790,829,829,833,833,833,833,833,835,835,835,835,835,835,835,837,837,837,837,837,837,839,839,839,839,839,841,841,841,841,841,843,843,843,845,845,847,847,849,849,851,854,854,856,856,858,858,860,860,862,864,867,867,869,869,871,873,873,873,873,875,875,878,878,878,878,880,1050,1050,1057,1057,1057,1060,1060,1060,1060,1060,1060,1063,1060,1060,1060,1060,1060,1060,1060,1060,1060,1057,1057,1057,1057,1057,1057,1057,1057,1057,1057,1054,1054,1057,1057,1057,1057,1057,1057,1057,1057,1057,1054,1054,1054,1054,1054,1054,1054,1054,1054,1054,1054,1050,1050,1050,1050,1050,1050,1050,1050,1050,1050,1047,1047,1050,1047,1047,1047,1047,1047,1047,1047,1047,1050,1050,1050,1050,1050,1047,1047,1047,1047,1047,1047,1047,1047,1050,1050,1050,1047,1047,1047,1047,1047,1047,1047,1050,1050,1050,1050,1050,1050,1050,1047,1047,1047,1044,1041,1041,1041,1041,1041,1041,1041,1041,1041,1044,1044,1041,1041,1041,1041,1041,1038,1038,1038,1038,1038,1038,1038,1038,1038,1038,1038,1038,1038,1038,1038,1041,1038,1038,1038,1041,1041,1041,1041,1041,1041,1038,1038,1038,1038,1038,1038,1038,1038,1038,1038,1038,1038,1034,1034,1031,1031,1031,1034,1034,1034,1031,1031,1031,1031,1034,1034,1034,1031,1031,1031,1031,1031,1031,1028,1028,1028,1028,1028,1028,1028,1028,1028,1028,1028,1028,1028,1028,1028,1028,1028,1028,1031,1031,1031,1031,1031,1028,1028,1028,1028,1028,1028,1028,1028,1025,1025,1025,1025,1025,1025,1025,1025,1025,1025,1025,1025,1025,1025,1025,1025,1025,1025,1025,1025,1025,1025,1025,1025,1025,1025,1025,1022,1022,1022,1022,1022,1022,1019,1019,1019,1019,1019,1016,1016,1016,1016,1019,1019,1019,1019,1019,1016,1016,1019,1016,1016,1016,1016,1016,1016,1016,1016,1016,1016,1016,1016,1016,1016,1016,1013,1013,1013,1013,1016,1013,1013,1013,1013,1013,1013,1013,1013,1013,1013,1013,1013,1010,1010,1010,1010,1010,1010,1010,1010,1007,1007,1007,1007,1007,1007,1007,1007,1007,1007,1010,1010,1013,1013,1016,1016,1016,0,0,776,776,776,776,776,776,776,776,776,776,776,776,776,774,774,774,774,774,774,774,773,773,774,774,774,774,774,774,774,774,774,774,774,774,774,774,774,774,774,774,774,774,776,776,776,776,778,778,781,781,781,783,783,783,0,0,0,0,0,0,0,0,0,0,0,0,0,0,0,0,0,0,0,0,0,0,0,0,0,0,0,0,0,0,0,0,0,0,0,0,0,0,0
0,0,0,0,0,0,0,1090,1087,1087,1097,1087,1087,1090,1090,1090,1090,1090,1090,1090,1090,1090,1090,1090,1090,1090,1090,1090,1090,1090,1090,1090,1090,1090,1090,1090,1090,1090,1090,1090,1090,1090,1090,1090,1090,1090,1090,1090,1090,1090,1090,1090,1090,1087,1087,1087,1087,1087,1087,1087,1087,1087,1087,1090,1090,1090,1087,1087,1087,1087,1087,1084,1084,1084,1084,1080,1080,1080,1080,1080,1080,1080,1080,1080,1080,1084,1084,1084,1080,1080,1080,1080,1080,1077,1077,1077,1080,1080,1080,1080,1080,1080,1080,1080,1077,1077,1080,1080,1077,1077,1077,1077,1077,1080,1077,1077,1077,1077,1077,1077,1077,1077,1077,1073,1073,1073,0,0,0,0,785,785,783,781,781,781,781,781,780,780,781,781,781,781,781,783,783,785,787,789,789,790,790,790,790,790,792,792,794,829,829,829,829,831,831,831,831,833,833,833,835,835,835,835,835,835,835,835,835,835,835,837,837,837,839,839,839,841,841,841,841,843,845,845,849,849,849,851,851,854,856,856,858,858,860,860,862,862,864,867,867,869,869,871,873,873,875,875,875,878,878,880,1050,1050,1050,1050,1050,1054,1054,1054,1057,1057,1057,1057,1057,1057,1057,1054,1054,1054,1057,1057,1057,1057,1057,1057,1057,1057,1054,1054,1054,1054,1054,1054,1054,1054,1050,1050,1054,1054,1054,1054,1054,1057,1057,1054,1054,1050,1050,1050,1050,1050,1050,1050,1050,1050,1050,1050,1050,1050,1050,1050,1047,1047,1047,1047,1047,1047,1047,1047,1047,1047,1047,1047,1047,1047,1047,1044,1044,1044,1044,1044,1047,1047,1047,1047,1047,1044,1044,1044,1044,1044,1047,1047,1047,1044,1044,1044,1044,1044,1044,1044,1047,1047,1047,1047,1047,1044,1044,1044,1044,1041,1041,1041,1041,1038,1038,1038,1038,1038,1038,1038,1038,1038,1038,1038,1038,1038,1038,1034,1034,1038,1038,1034,1034,1034,1034,1034,1034,1034,1034,1034,1034,1034,1034,1038,1038,1038,1038,1038,1038,1038,1038,1038,1038,1038,1034,1034,1038,1038,1034,1034,1038,1034,1034,1034,1034,1031,1031,1031,1031,1031,1031,1031,1031,1031,1031,1031,1031,1031,1031,1031,1031,1031,1028,1028,1028,1028,1028,1028,1028,1028,1028,1028,1028,1028,1025,1025,1025,1025,1028,1025,1025,1025,1025,1028,1028,1028,1028,1028,1028,1028,1028,1028,1025,1025,1025,1025,1025,1025,1022,1022,1025,1022,1022,1022,1022,1022,1022,1022,1022,1022,1022,1022,1022,1022,1022,1022,1022,1022,1019,1019,1019,1019,1022,1019,1019,1019,1019,1019,1019,1016,1016,1016,1016,1016,1016,1013,1013,1013,1016,1013,1013,1013,1016,1016,1016,1016,1016,1016,1016,1013,1013,1016,1013,1013,1013,1016,1013,1013,1013,1013,1013,1013,1013,1013,1013,1013,1013,1013,1013,1010,1010,1013,1010,1010,1010,1010,1010,1010,1010,1007,1007,1007,1010,1007,1007,1007,1007,1007,1007,1007,1004,1004,1004,1004,1004,1004,1004,1004,1004,1013,0,0,0,778,0,776,776,776,776,776,776,776,776,776,776,776,776,776,774,774,774,774,774,774,774,774,774,774,774,773,773,774,774,774,774,774,774,774,774,774,774,774,776,776,776,776,776,776,776,778,778,778,780,781,781,783,785,785,790,0,0,0,0,0,0,0,0,0,0,0,0,0,0,0,0,0,0,0,0,0,0,0,0,0,0,0,0,0,0,0,0,0,0,0,0,0,0,0
0,0,0,0,0,0,1087,1087,1087,1087,1087,1087,1087,1087,1087,1087,1087,1087,1087,1087,1087,1087,1087,1087,1087,1087,1087,1090,1090,1087,1087,1087,1087,1087,1087,1087,1087,1087,1087,1090,1090,1087,1087,1087,1087,1087,1087,1087,1087,1087,1087,1087,1087,1087,1087,1087,1087,1084,1084,1084,1084,1084,1084,1084,1087,1087,1087,1084,1084,1084,1084,1080,1080,1080,1080,1077,1077,1077,1077,1077,1077,1077,1077,1077,1077,1080,1080,1080,1077,1077,1077,1077,1077,1077,1077,1077,1077,1077,1077,1077,1077,1077,1077,1077,1077,1073,1073,1073,1073,1073,1077,1077,1077,1077,1077,1077,1077,1077,1077,1073,1073,1073,1073,1073,1070,1070,0,0,0,0,0,785,783,781,781,781,781,781,780,780,781,781,781,781,783,783,785,787,789,789,790,792,792,792,792,792,792,792,794,827,827,827,829,829,829,831,831,831,831,831,831,831,831,831,833,833,833,833,833,835,835,835,835,835,837,839,839,841,841,841,841,843,845,847,849,849,851,851,854,854,856,856,858,860,860,860,862,864,867,867,867,869,869,871,873,875,875,878,1050,1050,1050,1050,1050,1050,1050,1050,1050,1050,1050,1050,1054,1054,1057,1057,1057,1057,1054,1054,1054,1050,1050,1050,1050,1050,1054,1054,1054,1054,1050,1050,1050,1050,1050,1050,1050,1050,1050,1050,1050,1050,1050,1050,1050,1050,1054,1050,1050,1050,1050,1050,1047,1047,1047,1047,1047,1047,1047,1047,1047,1047,1047,1047,1047,1047,1047,1044,1044,1044,1044,1044,1044,1044,1044,1044,1044,1044,1044,1041,1041,1041,1041,1041,1041,1041,1041,1041,1041,1041,1041,1041,1041,1041,1044,1044,1044,1044,1041,1041,1041,1041,1041,1041,1044,1044,1044,1044,1044,1041,1041,1041,1041,1038,1038,1038,1038,1038,1038,1038,1038,1038,1038,1038,1038,1034,1031,1031,1034,1034,1034,1034,1034,1034,1034,1034,1034,1034,1034,1031,1031,1031,1031,1031,1031,1031,1034,1034,1034,1031,1031,1034,1034,1031,1031,1034,1034,1034,1031,1031,1031,1034,1031,1031,1031,1031,1031,1028,1028,1031,1028,1028,1028,1028,1028,1028,1028,1028,1028,1028,1028,1028,1028,1028,1028,1028,1028,1028,1028,1028,1028,1025,1025,1025,1025,1025,1025,1025,1025,1025,1025,1025,1025,1025,1025,1025,1025,1025,1025,1025,1025,1025,1025,1025,1025,1025,1025,1025,1025,1025,1022,1022,1022,1022,1022,1022,1019,1019,1022,1022,1022,1022,1022,1022,1022,1022,1022,1022,1022,1022,1022,1019,1019,1019,1019,1019,1019,1019,1019,1016,1016,1016,1016,1016,1013,1013,1013,1013,1013,1013,1013,1013,1013,1013,1013,1013,1013,1013,1013,1013,1013,1013,1013,1013,1013,1013,1013,1013,1013,1010,1010,1010,1010,1010,1010,1010,1010,1010,1010,1010,1010,1010,1010,1010,1010,1010,1007,1007,1007,1007,1007,1007,1007,1007,1007,1007,1007,1007,1007,1007,1004,1004,1004,1004,1004,1004,1004,1004,1004,1004,1004,1004,1004,0,0,0,778,0,778,776,776,776,776,776,776,776,776,776,776,776,776,774,774,774,774,774,774,774,774,774,774,774,774,773,773,774,774,774,774,774,774,774,774,776,774,774,776,776,776,776,778,778,778,778,778,780,781,783,783,783,785,790,790,805,805,0,0,0,0,0,0,0,0,0,0,0,0,0,0,0,0,0,0,0,0,0,0,0,0,0,0,0,0,0,0,0,0,0,0,0,0,0
0,0,0,0,0,0,1087,1087,1087,1087,1084,1084,1080,1080,1087,1087,1087,1087,1087,1087,1087,1087,1087,1087,1087,1087,1087,1090,1087,1087,1084,1084,1087,1087,1087,1087,1087,1087,1087,1087,1084,1084,1084,1087,1087,1087,1087,1087,1087,1084,1084,1087,1087,1087,1084,1084,1084,1084,1080,1080,1080,1080,1080,1080,1080,1084,1080,1080,1080,1084,1080,1080,1080,1080,1080,1077,1077,1077,1077,1077,1077,1073,1073,1077,1077,1077,1077,1077,1077,1077,1073,1073,1073,1073,1073,1073,1077,1077,1073,1073,1073,1073,1073,1073,1073,1073,1073,1073,1073,1073,1070,1070,1073,1073,1073,1077,1073,1073,1073,1073,1073,1070,1070,1070,1067,1067,0,0,0,0,0,785,783,781,781,781,781,781,781,781,781,781,781,783,783,783,787,787,789,790,792,792,794,794,794,794,794,794,827,827,827,827,827,827,827,829,829,829,829,829,829,829,829,829,829,829,831,831,833,833,833,833,835,835,837,839,839,841,841,841,843,843,845,847,851,851,851,854,854,856,856,858,858,860,860,862,862,864,867,867,867,869,869,873,875,875,1050,1050,1050,1050,1050,1050,1050,1050,1050,1047,1047,1050,1050,1050,1050,1050,1050,1050,1050,1050,1050,1050,1050,1050,1050,1047,1047,1047,1044,1044,1047,1047,1047,1047,1047,1047,1050,1050,1050,1050,1047,1047,1050,1050,1050,1050,1050,1050,1050,1047,1047,1047,1047,1047,1047,1047,1047,1044,1044,1044,1044,1044,1044,1044,1044,1044,1044,1044,1044,1041,1041,1041,1041,1041,1041,1041,1041,1041,1041,1041,1041,1041,1038,1038,1038,1038,1038,1038,1038,1038,1038,1038,1038,1038,1038,1038,1041,1041,1041,1041,1041,1041,1038,1038,1038,1038,1041,1041,1041,1041,1041,1041,1041,1038,1038,1038,1034,1034,1034,1038,1038,1034,1034,1034,1034,1034,1031,1031,1031,1031,1031,1034,1034,1034,1034,1034,1034,1031,1031,1031,1031,1028,1028,1028,1028,1028,1028,1028,1031,1031,1028,1028,1028,1028,1028,1028,1028,1028,1031,1031,1028,1028,1031,1031,1028,1028,1028,1028,1028,1028,1028,1028,1028,1025,1025,1025,1028,1028,1028,1028,1025,1025,1025,1025,1025,1025,1025,1025,1025,1025,1025,1025,1025,1025,1025,1025,1025,1025,1025,1025,1022,1022,1022,1022,1025,1022,1022,1022,1022,1022,1022,1019,1019,1019,1019,1019,1022,1022,1022,1022,1022,1022,1022,1022,1019,1019,1019,1019,1019,1019,1019,1019,1016,1016,1019,1019,1019,1019,1019,1019,1019,1019,1019,1019,1016,1016,1016,1016,1016,1016,1016,1016,1016,1016,1016,1013,1013,1013,1013,1013,1010,1010,1010,1010,1010,1010,1010,1013,1013,1013,1013,1010,1010,1010,1010,1010,1010,1010,1010,1010,1010,1007,1007,1007,1007,1007,1007,1007,1007,1007,1007,1007,1007,1007,1007,1004,1004,1004,1004,1004,1004,1004,1004,1004,1004,1004,1004,1004,1004,1004,1004,1004,1004,1004,1001,1001,1001,1001,1001,1001,1001,1001,1001,1001,0,0,0,0,0,778,778,776,776,776,776,776,776,776,776,776,776,776,776,774,774,774,774,774,774,774,774,774,774,774,774,773,773,774,774,774,774,774,774,774,776,776,776,776,776,776,776,778,780,780,780,781,781,781,781,781,781,785,785,802,802,805,805,0,0,0,0,0,0,0,0,0,0,0,0,0,0,0,0,0,0,0,0,0,0,0,0,0,0,0,0,0,0,0,0,0,0,0,0,0
0,0,0,0,0,0,1084,1084,1087,1087,1084,1084,1080,1080,1080,1080,1080,1080,1084,1084,1084,1084,1084,1080,1080,1080,1080,1084,1084,1080,1077,1077,1080,1080,1080,1084,1084,1084,1084,1084,1080,1080,1080,1080,1080,1080,1080,1084,1084,1084,1084,1084,1084,1084,1080,1080,1080,1080,1080,1077,1077,1077,1073,1073,1077,1077,1077,1077,1077,1080,1080,1080,1080,1080,1077,1077,1073,1073,1073,1073,1073,1073,1073,1073,1073,1073,1073,1073,1073,1073,1070,1070,1070,1070,1073,1073,1073,1073,1070,1070,1067,1067,1070,1070,1070,1070,1070,1073,1070,1070,1070,1070,1070,1070,1070,1073,1073,1073,1070,1070,1070,1070,1067,1067,1067,1063,1063,0,0,0,0,787,783,781,781,781,781,781,781,781,781,781,783,783,783,785,787,789,790,792,792,794,794,794,794,794,794,794,829,829,827,827,827,827,827,827,827,827,827,827,827,827,827,827,827,829,829,831,831,833,833,833,835,835,837,839,839,841,841,843,843,845,845,849,851,851,851,854,856,856,858,858,860,860,860,862,862,864,867,867,867,869,875,875,875,1050,1050,1050,1050,1050,1050,1050,1050,1050,1050,1047,1047,1047,1047,1047,1047,1047,1050,1050,1050,1050,1050,1047,1047,1047,1047,1047,1044,1044,1044,1041,1041,1044,1044,1047,1047,1047,1047,1047,1047,1047,1047,1047,1047,1047,1047,1047,1047,1047,1047,1047,1044,1044,1044,1044,1044,1041,1041,1041,1041,1041,1041,1041,1041,1041,1041,1041,1041,1041,1041,1038,1038,1038,1038,1038,1038,1038,1038,1038,1038,1038,1038,1038,1038,1038,1038,1038,1038,1038,1034,1034,1034,1034,1034,1034,1034,1034,1038,1038,1038,1038,1038,1038,1038,1038,1038,1038,1038,1038,1038,1038,1041,1038,1038,1038,1038,1034,1034,1034,1034,1034,1034,1031,1031,1034,1031,1031,1028,1028,1028,1028,1031,1031,1031,1031,1028,1028,1028,1028,1028,1028,1028,1028,1028,1028,1028,1028,1028,1028,1028,1028,1028,1028,1025,1025,1025,1025,1025,1025,1025,1028,1028,1028,1028,1028,1028,1025,1025,1025,1025,1025,1025,1025,1025,1025,1025,1025,1025,1025,1025,1025,1025,1025,1025,1022,1022,1022,1022,1022,1022,1022,1022,1022,1022,1022,1022,1022,1022,1022,1022,1022,1019,1019,1019,1019,1019,1019,1019,1019,1019,1019,1019,1019,1019,1016,1016,1016,1016,1016,1016,1019,1019,1019,1019,1019,1019,1016,1016,1016,1016,1016,1016,1016,1016,1016,1016,1016,1016,1016,1016,1016,1016,1016,1016,1016,1016,1016,1016,1016,1016,1016,1016,1013,1013,1013,1013,1010,1010,1010,1010,1010,1007,1007,1007,1007,1007,1007,1007,1010,1010,1010,1010,1010,1010,1007,1004,1004,1004,1007,1007,1007,1007,1007,1004,1004,1004,1004,1004,1004,1004,1004,1004,1004,1004,1004,1004,1001,1001,1001,1004,1004,1004,1004,1004,1004,1004,1004,1004,1004,1004,1004,1004,1001,1001,1001,1001,1001,1001,1001,1001,998,998,998,998,1001,1001,0,0,781,781,778,778,776,776,776,776,776,776,776,776,776,776,776,776,774,774,774,774,774,774,774,774,774,774,774,774,773,773,774,774,774,774,774,774,774,776,776,776,776,776,778,778,780,780,781,781,781,781,781,783,781,781,785,796,796,800,802,802,0,0,0,0,0,0,0,0,0,0,0,0,0,0,0,0,0,0,0,0,0,0,0,0,0,0,0,0,0,0,0,0,0,0,0,0,0
0,0,0,0,0,0,1084,1084,1087,1087,1084,1084,1080,1080,1080,1077,1077,1077,1077,1077,1077,1077,1080,1077,1077,1077,1077,1077,1077,1077,1073,1073,1077,1077,1077,1077,1077,1080,1080,1077,1077,1077,1077,1077,1077,1077,1077,1077,1080,1077,1077,1080,1080,1080,1080,1077,1077,1077,1077,1077,1077,1077,1073,1073,1073,1073,1073,1073,1077,1077,1077,1077,1077,1077,1077,1073,1073,1073,1073,1073,1073,1070,1070,1070,1070,1073,1070,1070,1070,1070,1070,1070,1070,1070,1070,1070,1070,1070,1067,1067,1067,1067,1067,1067,1067,1067,1067,1070,1067,1067,1067,1067,1067,1067,1067,1067,1070,1070,1067,1063,1063,1067,1067,1067,1063,1063,1063,0,0,0,0,787,783,781,781,781,781,781,781,781,781,783,783,783,785,787,787,789,792,792,794,794,794,794,794,794,794,794,825,825,825,825,825,825,825,825,827,825,825,825,825,825,827,827,827,827,829,831,831,831,833,833,835,835,837,841,841,841,843,843,843,845,847,849,851,851,854,854,856,856,858,858,860,860,860,862,862,864,864,867,867,1050,1050,1050,1050,1047,1047,1047,1047,1047,1047,1047,1047,1047,1047,1047,1047,1047,1047,1047,1047,1047,1047,1047,1047,1047,1047,1047,1047,1044,1044,1044,1044,1044,1041,1041,1041,1041,1041,1044,1044,1044,1044,1044,1047,1047,1047,1047,1047,1047,1047,1044,1044,1044,1044,1044,1041,1041,1041,1041,1038,1038,1038,1038,1038,1038,1038,1038,1038,1041,1041,1041,1038,1038,1038,1038,1038,1038,1038,1038,1038,1038,1034,1034,1034,1034,1034,1034,1034,1034,1034,1034,1034,1034,1034,1031,1031,1031,1031,1031,1031,1031,1034,1034,1034,1034,1034,1038,1034,1034,1038,1038,1038,1038,1038,1038,1038,1038,1038,1034,1034,1031,1031,1031,1031,1031,1031,1028,1028,1031,1031,1031,1028,1028,1028,1028,1028,1028,1028,1028,1028,1028,1028,1025,1025,1025,1025,1025,1025,1025,1025,1025,1025,1025,1025,1025,1025,1025,1025,1025,1025,1025,1025,1025,1025,1025,1025,1022,1022,1025,1022,1022,1022,1022,1022,1022,1022,1022,1022,1022,1019,1019,1022,1022,1022,1022,1022,1022,1019,1019,1019,1019,1019,1019,1019,1019,1019,1019,1019,1019,1019,1019,1019,1019,1019,1019,1016,1016,1013,1013,1016,1016,1016,1016,1016,1016,1016,1016,1016,1016,1016,1016,1016,1016,1016,1016,1013,1013,1016,1016,1016,1016,1016,1016,1016,1016,1016,1016,1016,1016,1013,1013,1013,1013,1013,1013,1013,1013,1010,1010,1013,1013,1013,1013,1013,1013,1013,1013,1013,1010,1010,1010,1007,1007,1007,1007,1007,1007,1007,1007,1007,1007,1007,1007,1007,1007,1007,1007,1007,1004,1004,1004,1004,1004,1004,1004,1007,1004,1004,1004,1004,1004,1001,1001,1001,1001,1001,1001,1001,1001,1001,995,995,998,998,998,1001,1001,1001,1001,1004,1001,1001,1001,1001,1001,1001,1001,1001,1001,998,998,998,998,998,995,995,995,998,998,0,0,0,781,781,778,778,778,778,776,776,776,776,776,776,776,776,776,776,774,774,774,774,774,774,774,774,774,774,774,774,774,774,774,774,774,774,774,774,774,776,776,776,776,778,778,780,781,781,781,781,783,783,783,783,785,785,794,794,796,798,798,798,0,0,0,0,0,0,0,0,0,0,0,0,0,0,0,0,0,0,0,0,0,0,0,0,0,0,0,0,0,0,0,0,0,0,0,0,0
0,0,0,0,0,0,1084,1084,1087,1087,1084,1084,1080,1080,1080,1077,1077,1077,1077,1077,1077,1077,1077,1073,1073,1073,1073,1073,1073,1073,1073,1073,1073,1073,1077,1077,1077,1077,1077,1073,1073,1073,1073,1073,1073,1073,1073,1073,1077,1073,1070,1070,1073,1073,1073,1077,1077,1077,1077,1073,1073,1073,1073,1073,1073,1073,1073,1073,1073,1073,1073,1073,1073,1073,1070,1070,1070,1070,1070,1070,1070,1070,1070,1070,1070,1070,1070,1070,1067,1067,1067,1067,1067,1067,1067,1067,1067,1067,1063,1063,1063,1063,1063,1063,1063,1063,1063,1067,1067,1063,1063,1063,1060,1060,1060,1063,1063,1063,1063,1063,1063,1060,1060,1060,1060,1060,1060,0,0,0,0,0,783,781,781,781,781,781,781,781,783,783,785,785,787,787,789,790,792,792,794,794,796,796,794,794,794,796,825,825,823,823,823,823,823,823,825,823,823,823,823,825,825,827,827,827,829,831,831,831,833,835,835,835,839,841,841,841,843,843,843,845,847,849,851,851,854,856,856,858,858,860,860,860,860,862,862,864,864,1050,1050,1050,1050,1047,1047,1047,1047,1047,1047,1047,1047,1047,1047,1047,1047,1047,1047,1047,1044,1044,1044,1044,1047,1047,1044,1044,1044,1044,1044,1044,1041,1041,1041,1041,1041,1038,1038,1041,1041,1041,1041,1041,1044,1044,1044,1044,1041,1041,1044,1044,1044,1041,1041,1041,1041,1041,1038,1038,1038,1038,1038,1038,1038,1038,1038,1038,1038,1038,1038,1038,1038,1038,1034,1034,1034,1034,1034,1034,1034,1034,1034,1034,1034,1031,1031,1031,1031,1031,1031,1031,1031,1031,1031,1031,1028,1028,1028,1028,1028,1028,1028,1031,1031,1031,1031,1031,1031,1031,1028,1028,1028,1034,1034,1034,1034,1034,1034,1034,1034,1031,1031,1028,1028,1028,1028,1028,1028,1028,1028,1028,1028,1028,1028,1028,1028,1028,1028,1028,1028,1025,1025,1025,1025,1025,1022,1022,1019,1019,1022,1022,1022,1022,1025,1025,1022,1022,1022,1022,1022,1022,1022,1022,1022,1022,1022,1022,1022,1019,1019,1019,1016,1016,1019,1019,1019,1019,1019,1019,1019,1019,1019,1019,1019,1019,1019,1019,1019,1019,1019,1016,1016,1016,1016,1016,1016,1016,1016,1016,1016,1019,1019,1016,1016,1016,1016,1016,1016,1013,1013,1013,1013,1013,1013,1013,1013,1013,1016,1016,1016,1013,1013,1013,1013,1013,1013,1013,1013,1013,1010,1010,1013,1013,1013,1013,1013,1013,1013,1013,1013,1013,1010,1010,1007,1007,1007,1007,1007,1007,1007,1007,1007,1010,1010,1010,1010,1010,1010,1010,1007,1007,1007,1007,1007,1007,1007,1007,1007,1007,1007,1004,1004,1004,1004,1004,1004,1004,1004,1004,1004,1004,1004,1004,1001,1001,1001,1001,1001,1001,1001,1001,1001,1001,1001,1001,1001,998,998,998,998,998,995,992,992,995,995,995,995,995,998,998,1001,1001,1001,1001,998,998,998,998,995,995,995,995,995,995,995,995,992,992,0,0,0,0,0,781,780,780,778,778,778,778,776,776,776,776,776,776,776,774,774,774,774,774,774,774,774,774,774,774,774,774,774,774,774,774,774,774,774,776,776,776,776,778,778,778,780,780,780,781,781,781,783,783,783,785,785,785,796,794,794,796,796,796,798,0,0,0,0,0,0,0,0,0,0,0,0,0,0,0,0,0,0,0,0,0,0,0,0,0,0,0,0,0,0,0,0,0,0,0,0,0
0,0,0,0,0,0,1087,1087,1087,1087,1084,1080,1077,1077,1077,1073,1073,1073,1073,1073,1073,1073,1073,1070,1070,1070,1070,1070,1070,1070,1070,1070,1073,1073,1073,1073,1073,1073,1073,1070,1070,1070,1070,1067,1067,1067,1070,1070,1070,1070,1067,1067,1070,1070,1070,1070,1070,1073,1073,1073,1073,1073,1070,1070,1070,1070,1070,1070,1070,1070,1070,1067,1067,1067,1067,1067,1067,1067,1067,1070,1070,1067,1067,1067,1067,1067,1067,1067,1067,1067,1063,1063,1063,1063,1063,1063,1063,1063,1063,1063,1063,1063,1063,1063,1060,1060,1063,1063,1063,1063,1060,1060,1060,1057,1057,1057,1060,1060,1060,1060,1060,1060,1060,1060,1060,1060,1060,0,0,0,0,0,0,781,781,781,781,781,781,781,783,783,785,785,787,787,789,790,792,792,794,794,796,796,796,796,796,798,803,809,819,819,821,821,821,821,821,821,821,823,823,825,825,825,827,827,829,829,831,831,833,835,837,837,839,841,841,841,843,843,843,845,847,849,851,854,854,856,856,858,858,860,860,860,860,860,860,860,1047,1047,1047,1047,1047,1047,1047,1044,1044,1044,1044,1044,1047,1047,1044,1044,1044,1044,1044,1044,1044,1044,1041,1041,1044,1044,1041,1041,1041,1041,1041,1041,1041,1038,1038,1038,1038,1038,1038,1038,1038,1038,1038,1038,1041,1041,1041,1038,1038,1038,1038,1034,1034,1034,1038,1038,1038,1038,1038,1038,1038,1038,1034,1034,1034,1034,1034,1034,1034,1034,1034,1034,1034,1034,1034,1034,1034,1031,1031,1031,1031,1031,1031,1031,1028,1028,1028,1028,1028,1028,1028,1028,1028,1028,1028,1028,1028,1025,1025,1025,1025,1025,1025,1028,1028,1028,1028,1028,1028,1028,1025,1025,1028,1025,1025,1025,1025,1028,1031,1031,1028,1028,1028,1028,1025,1025,1025,1025,1025,1025,1025,1025,1025,1025,1025,1025,1025,1025,1025,1025,1025,1025,1022,1022,1022,1022,1019,1019,1019,1019,1019,1019,1019,1019,1022,1022,1019,1019,1022,1022,1022,1022,1022,1022,1022,1022,1022,1019,1019,1019,1016,1016,1016,1016,1016,1016,1016,1016,1016,1016,1016,1016,1016,1016,1016,1016,1019,1019,1019,1016,1016,1016,1016,1013,1013,1013,1013,1013,1013,1013,1013,1016,1016,1016,1013,1013,1013,1016,1013,1013,1013,1010,1010,1010,1013,1010,1010,1010,1013,1013,1013,1013,1013,1013,1013,1010,1010,1010,1010,1010,1010,1010,1010,1010,1010,1010,1010,1013,1013,1013,1010,1010,1007,1007,1007,1007,1007,1004,1004,1004,1004,1004,1004,1007,1007,1007,1007,1004,1004,1004,1004,1004,1004,1004,1004,1004,1004,1004,1004,1004,1004,1004,1004,1004,1001,1001,1001,1001,1001,1001,1001,1001,1001,1001,1001,1001,998,998,998,998,995,995,995,995,998,998,998,998,998,998,995,995,995,992,992,992,992,992,992,992,995,995,998,998,998,998,995,995,992,992,992,992,992,992,992,992,992,992,992,992,0,776,0,778,778,778,780,780,778,778,778,778,776,776,776,776,774,774,774,774,774,774,774,774,774,774,774,774,774,774,774,774,774,774,774,774,774,774,776,776,776,776,778,780,780,780,781,781,781,781,781,783,783,783,783,785,787,787,796,796,796,796,794,794,0,0,0,0,0,0,0,0,0,0,0,0,0,0,0,0,0,0,0,0,0,0,0,0,0,0,0,0,0,0,0,0,0,0,0,0,0,0
0,0,0,0,0,0,1077,1077,1077,1080,1077,1077,1077,1077,1073,1073,1070,1070,1070,1070,1070,1070,1070,1067,1067,1067,1067,1067,1067,1070,1070,1070,1070,1070,1073,1073,1073,1070,1070,1067,1067,1067,1067,1067,1063,1063,1063,1067,1067,1063,1063,1063,1067,1067,1067,1067,1067,1070,1070,1070,1070,1070,1067,1067,1067,1070,1067,1067,1067,1067,1067,1063,1063,1063,1063,1063,1067,1067,1067,1067,1067,1063,1063,1063,1063,1063,1063,1063,1063,1063,1063,1063,1060,1060,1060,1063,1063,1060,1060,1063,1060,1060,1060,1060,1060,1060,1060,1060,1060,1060,1057,1057,1054,1054,1054,1054,1054,1054,1057,1057,1057,1057,1060,1060,1060,1057,1057,0,0,0,0,0,0,0,781,781,783,781,781,781,783,785,785,787,787,787,789,790,792,794,794,794,796,796,796,798,800,802,803,807,811,819,819,819,819,819,821,821,821,821,823,823,825,825,827,827,829,829,831,831,835,835,837,839,841,841,843,843,843,843,845,847,849,849,851,854,854,856,856,856,858,860,860,860,860,860,860,1047,1047,1047,1044,1044,1044,1044,1044,1044,1041,1041,1041,1044,1044,1044,1044,1044,1044,1044,1041,1041,1041,1041,1041,1041,1041,1038,1038,1038,1038,1038,1038,1038,1038,1038,1038,1038,1038,1034,1034,1034,1034,1034,1034,1034,1038,1038,1038,1034,1034,1034,1031,1031,1031,1031,1031,1031,1031,1034,1034,1034,1034,1034,1034,1034,1034,1034,1034,1034,1034,1034,1034,1034,1034,1034,1031,1031,1031,1031,1031,1031,1031,1028,1028,1028,1025,1025,1025,1025,1028,1025,1025,1028,1028,1028,1028,1025,1025,1025,1025,1025,1025,1025,1025,1025,1025,1025,1025,1025,1025,1022,1022,1022,1022,1022,1022,1019,1019,1019,1022,1025,1028,1028,1028,1028,1025,1022,1022,1025,1022,1022,1022,1022,1022,1022,1025,1025,1025,1025,1025,1025,1022,1022,1022,1022,1019,1019,1019,1019,1016,1016,1016,1016,1016,1016,1019,1016,1016,1016,1016,1016,1016,1016,1019,1019,1019,1019,1019,1016,1016,1016,1016,1013,1013,1013,1013,1013,1013,1013,1013,1013,1013,1016,1013,1013,1016,1016,1016,1016,1016,1016,1013,1013,1013,1013,1013,1013,1010,1010,1010,1010,1010,1010,1013,1013,1013,1013,1013,1013,1013,1010,1010,1010,1010,1010,1010,1007,1007,1010,1010,1013,1013,1010,1010,1010,1010,1010,1010,1010,1007,1007,1007,1007,1007,1007,1007,1007,1007,1007,1007,1007,1010,1007,1007,1007,1004,1004,1004,1004,1004,1004,1004,1004,1004,1004,1004,1004,1004,1004,1004,1004,1001,1001,1001,1001,1001,1001,1001,1001,1001,1001,1001,1001,1001,1001,1001,998,998,998,998,998,995,995,998,998,998,998,998,998,998,995,995,992,992,995,995,995,995,995,995,995,995,992,992,992,992,992,992,992,992,992,992,992,995,995,995,995,992,992,989,989,989,989,989,989,989,989,989,992,992,0,776,776,776,778,778,778,780,780,778,778,778,778,776,776,776,774,774,774,774,774,774,774,774,774,774,774,774,774,774,774,774,774,774,774,774,774,774,776,776,776,778,778,780,780,780,781,781,781,781,781,783,783,783,783,785,794,794,794,794,796,796,794,794,794,0,0,0,0,0,0,0,0,0,0,0,0,0,0,0,0,0,0,0,0,0,0,0,0,0,0,0,0,0,0,0,0,0,0,0,0,0,0
0,0,0,0,0,0,1077,1077,1077,1077,1077,1077,1073,1073,1070,1070,1067,1067,1067,1067,1067,1067,1067,1067,1067,1067,1067,1067,1067,1067,1067,1067,1067,1070,1070,1070,1070,1067,1067,1067,1067,1063,1063,1063,1063,1063,1063,1063,1063,1060,1060,1063,1063,1063,1063,1067,1067,1067,1067,1067,1067,1067,1063,1063,1063,1063,1063,1067,1067,1067,1067,1063,1063,1063,1063,1063,1063,1063,1063,1063,1063,1063,1063,1063,1063,1063,1060,1060,1060,1060,1060,1060,1057,1057,1060,1060,1060,1060,1060,1060,1060,1060,1057,1057,1057,1057,1057,1057,1057,1057,1054,1054,1054,1050,1050,1050,1050,1050,1050,1054,1054,1054,1054,1057,1054,1054,1054,0,0,0,0,0,0,0,0,787,783,783,783,785,785,785,787,787,787,787,789,792,792,794,794,796,796,798,798,800,802,802,803,807,809,817,819,819,819,819,819,821,821,821,821,823,825,825,827,827,829,831,831,833,835,837,839,839,841,843,843,843,845,845,847,847,849,849,851,854,854,856,856,856,858,860,860,860,860,1038,1038,1038,1041,1041,1044,1041,1041,1041,1041,1041,1038,1038,1038,1038,1038,1038,1041,1041,1041,1041,1038,1038,1038,1038,1038,1038,1038,1034,1034,1034,1034,1034,1034,1038,1038,1038,1038,1034,1034,1034,1034,1034,1034,1034,1034,1034,1034,1034,1034,1034,1031,1031,1028,1028,1028,1028,1028,1028,1028,1028,1031,1031,1031,1031,1031,1031,1031,1031,1031,1031,1031,1031,1031,1031,1028,1028,1028,1028,1028,1028,1028,1028,1028,1028,1028,1025,1025,1025,1025,1025,1025,1025,1025,1025,1025,1025,1025,1025,1025,1022,1022,1022,1022,1022,1022,1025,1025,1025,1022,1022,1022,1022,1022,1022,1019,1019,1019,1019,1019,1019,1019,1019,1019,1022,1022,1025,1025,1022,1022,1022,1019,1019,1019,1016,1016,1019,1022,1022,1022,1022,1022,1022,1022,1019,1019,1019,1019,1016,1016,1016,1016,1016,1016,1016,1016,1016,1016,1016,1016,1016,1016,1016,1016,1016,1016,1016,1016,1016,1016,1016,1016,1016,1013,1013,1013,1013,1013,1013,1013,1013,1013,1013,1010,1010,1010,1010,1013,1013,1013,1013,1013,1013,1013,1013,1013,1010,1010,1010,1010,1010,1010,1010,1007,1007,1010,1010,1010,1010,1010,1010,1010,1010,1007,1007,1007,1007,1007,1007,1007,1007,1007,1010,1010,1007,1007,1007,1007,1007,1007,1007,1007,1004,1004,1004,1004,1004,1004,1004,1004,1004,1004,1004,1004,1004,1004,1004,1004,1004,1004,1001,1001,1001,1001,1001,1001,1001,1001,1001,1001,1001,1001,1001,998,998,998,995,995,998,998,998,998,998,998,998,998,998,998,995,995,995,995,995,995,995,995,995,995,995,995,995,992,992,992,992,992,992,992,992,992,992,992,992,992,992,992,989,989,989,989,989,989,989,989,989,989,989,989,989,989,989,989,989,989,989,989,989,989,987,987,987,987,776,776,776,776,778,778,778,780,778,778,778,778,776,776,774,774,774,774,774,774,774,774,774,774,774,774,774,774,774,774,774,774,774,774,774,774,774,776,776,776,778,778,778,780,780,780,781,781,781,781,783,783,783,785,785,785,794,794,794,794,796,794,792,792,792,0,0,0,0,0,0,0,0,0,0,0,0,0,0,0,0,0,0,0,0,0,0,0,0,0,0,0,0,0,0,0,0,0,0,0,0,0,0
