0,0,0,0,0,0,0,0,0,0,1586,1579,1579,1579,1586,1586,1586,1586,1586,1586,1586,1586,1586,1579,1579,1572,1572,1572,1572,1572,1572,984,984,984,984,984,981,981,978,975,975,975,975,978,978,978,981,981,984,984,984,987,987,989,989,992,992,995,995,995,998,998,0,0,0,0,0,0,0,0,0,0,0,0,805,803,802,802,800,798,794,790,785,710,707,704,704,703,701,698,694,693,690,688,687,686,684,684,682,680,679,679,679,679,679,679,679,680,680,680,680,680,680,680,682,682,682,683,683,684,684,686,686,687,688,688,690,691,691,693,694,697,697,698,700,700,700,701,704,706,708,716,717,719,720,720,722,723,725,727,727,728,728,730,731,733,734,734,736,738,738,741,741,741,746,747,747,749,749,750,750,752,754,754,755,759,759,761,762,764,766,767,767,769,771,773,776,776,776,778,780,781,783,783,785,787,787,787,789,789,790,790,794,798,798,798,802,802,802,796,796,798,798,798,798,1245,1250,1250,1250,1255,1255,1255,1255,1255,1259,1259,1259,1255,1255,1255,1255,1255,1259,1259,1259,1264,1264,1264,1268,1268,1268,1268,1268,1264,1264,1509,1509,1503,1503,1503,1509,1503,1503,1509,1509,1509,1509,1509,1509,1509,1509,1509,1509,1509,1509,1509,1509,1509,1509,1509,1509,1503,1503,1503,1503,1503,1496,1496,1496,1496,1496,1496,1496,1496,1496,1496,1496,1496,1496,1496,1496,1489,1489,1489,1489,1483,1483,0,0,0,0,0,1001,1001,1001,1001,1001,1001,998,995,995,992,992,992,992,992,992,995,995,998,1001,1001,1001,1004,1004,1007,1007,0,1007,0,1477,1477,1477,1477,1477,1477,1477,1477,1477,1477,1477,1477,1477,1470,1470,1470,1470,1470,1470,1470,1470,1470,1470,1470,1470,1464,1464,1464,1464,1464,1464,1464,1464,1464,1464,1464,1464,1464,1464,1464,1458,1458,1458,1458,1458,1458,1464,1464,1458,1458,1458,1452,1452,1458,1458,1458,1458,1458,1458,1464,1458,1458,1458,1458,1458,1458,1458,1458,1452,1452,1452,1452,1452,1445,1445,1452,1452,1445,1445,1445,1445,1445,1445,1445,1445,1445,1445,1439,1439,1439,1439,1439,1439,1439,1439,1439,1439,1439,1433,1433,1433,1433,1433,1433,1433,1433,1433,1433,1433,1433,1433,1427,1427,1421,1421,1421,1415,1415,1415,1415,1415,1410,1404,1404,1398,1398,1398,1392,1392,1392,1387,1381,1381,1381,1376,1376,1370,1370,1370,1365,1365,1365,1359,1359,1354,1354,1354,1349,1349,1349,1343,1343,1338,1333,1333,1333,1328,1328,1322,1322,1322,1317,1312,1312,1307,1307,1307,1302,1302,1302,1297,1292,1292,1288,1288,1288,1288,1283,1283,1278,1278,1273,1268,1268,1268,1264,1264,1259,1259,1255,1255,1255,1250,1250,1250,1245,1241,1241,1236,1236,1236,1236,1236,1236,1232,1232,1227,1227,1223,1219,1219,1214,1214,1214,1210,1210,1206,1206,1206,1202,1202,1197,1197,1197,1197,1193,1189,1189,1189,1185,1185,1181,1181,1181,1181,1057,1057,1054,1050,1050,0,0,1013,1013,1013,1010,1007,1007,1004,1001,1001,998,998,1001,1001,1001,998,992,992,989,987,987,984,981,978,978,975,975,973,970,970,970,970,970,970,970,0,0,0,0,0,0,0,0,0,0,0,0,0,0,0,0,0,0,0,0,0,0,0,0,0,0,0,0,0,0,0,0,0,0
0,0,0,0,0,0,0,0,0,0,1579,1572,1572,1572,1579,1579,1579,1579,1579,1579,1579,1579,1579,1572,1572,1572,1572,1572,1572,1564,1564,1564,987,987,987,984,984,981,978,978,975,975,975,978,978,981,981,984,984,984,987,987,987,989,989,992,992,995,995,995,998,998,1001,0,0,0,0,0,0,0,0,0,0,0,0,803,800,800,800,794,792,790,785,785,780,704,703,703,700,697,694,693,690,688,687,686,683,683,680,679,678,678,676,676,676,676,676,678,678,678,679,679,679,680,680,680,682,682,683,684,684,686,686,687,688,688,690,691,691,693,694,697,698,698,700,701,701,703,707,710,714,716,717,719,720,722,723,725,725,727,727,728,728,730,733,733,734,736,736,738,739,741,741,741,746,747,747,749,749,750,750,752,754,755,757,759,761,761,764,764,766,767,767,769,773,774,776,776,776,778,780,781,783,783,785,787,787,787,789,789,790,790,794,798,798,802,802,802,802,796,796,796,796,1232,1245,1245,1245,1245,1250,1250,1250,1250,1250,1250,1255,1255,1255,1255,1255,1255,1255,1255,1259,1259,1259,1264,1264,1264,1268,1268,1268,1268,1268,1268,1503,1503,1496,1496,1496,1496,1503,1503,1496,1496,1503,1503,1503,1503,1503,1503,1503,1503,1503,1503,1503,1503,1503,1503,1503,1509,1496,1496,1496,1496,1496,1496,1489,1489,1489,1489,1489,1489,1489,1489,1489,1489,1489,1489,1489,1489,1489,1489,1489,1483,1483,1483,1483,1483,0,0,0,0,0,1007,1004,1001,1001,1001,1001,998,995,992,992,992,992,992,992,995,995,998,1001,1001,1004,1004,1007,1007,1007,1007,0,0,1477,1477,1477,1470,1470,1477,1470,1470,1470,1477,1477,1470,1470,1470,1470,1470,1464,1464,1464,1464,1464,1464,1464,1464,1464,1464,1464,1464,1464,1464,1464,1464,1458,1458,1458,1458,1458,1458,1458,1458,1458,1458,1452,1452,1452,1452,1452,1452,1452,1452,1452,1452,1452,1452,1452,1452,1452,1452,1452,1452,1452,1452,1452,1452,1452,1452,1452,1452,1452,1445,1445,1445,1445,1445,1445,1445,1445,1445,1445,1445,1445,1439,1439,1439,1439,1439,1439,1439,1439,1439,1433,1433,1433,1433,1433,1433,1433,1433,1427,1427,1427,1427,1427,1427,1427,1427,1427,1427,1427,1433,1433,1427,1427,1421,1421,1421,1415,1415,1415,1410,1410,1410,1404,1398,1398,1398,1398,1392,1392,1392,1387,1381,1381,1381,1376,1376,1370,1370,1370,1365,1365,1365,1359,1354,1354,1354,1354,1349,1349,1349,1343,1343,1338,1333,1333,1333,1328,1328,1322,1322,1322,1317,1312,1312,1307,1307,1307,1302,1302,1302,1297,1297,1292,1292,1288,1288,1288,1288,1283,1278,1278,1273,1268,1268,1268,1268,1264,1264,1259,1259,1255,1255,1255,1250,1250,1250,1245,1245,1241,1241,1236,1236,1236,1236,1232,1232,1227,1227,1223,1223,1219,1219,1214,1214,1210,1210,1206,1206,1206,1202,1202,1197,1197,1197,1197,1193,1193,1193,1189,1189,1185,1181,1181,1181,1054,1054,1047,1044,1041,1038,1038,0,0,1013,1013,1010,1007,1004,1004,1001,1001,998,998,1001,1001,1001,998,992,992,989,987,987,984,981,978,975,975,973,970,970,970,970,970,970,970,970,0,0,0,0,0,0,0,0,0,0,0,0,0,0,0,0,0,0,0,0,0,0,0,0,0,0,0,0,0,0,0,0,0,0
0,0,0,0,0,0,0,0,0,0,1572,1572,1572,1572,1572,1579,1579,1579,1579,1579,1579,1579,1572,1572,1564,1564,1564,1564,1564,1564,1564,1564,0,987,987,987,987,984,978,978,975,975,975,978,978,981,981,984,984,984,987,987,987,989,989,995,995,995,995,995,998,998,1001,0,0,0,0,0,0,0,0,0,0,0,0,803,800,800,798,794,792,789,787,783,778,703,703,703,700,697,694,693,690,688,687,686,683,683,679,676,676,676,675,675,675,675,675,676,676,676,678,678,678,679,680,680,682,682,683,684,684,686,686,687,688,688,690,691,693,693,696,697,698,700,701,701,704,708,713,714,716,717,719,720,720,722,723,725,725,727,728,728,730,731,733,734,736,736,736,738,739,741,741,744,746,747,749,749,749,750,752,752,754,757,759,761,761,762,764,766,766,767,767,769,773,774,778,778,778,778,780,781,783,783,785,787,787,789,789,789,790,790,790,790,790,802,802,802,802,800,800,800,1232,1232,1245,1245,1245,1245,1245,1245,1250,1250,1250,1250,1250,1250,1250,1250,1250,1255,1255,1255,1255,1259,1259,1264,1264,1264,1268,1268,1268,1268,1268,1268,1496,1496,1496,1489,1489,1496,1496,1496,1496,1496,1496,1496,1496,1496,1496,1496,1496,1496,1496,1496,1496,1496,1496,1496,1496,1503,1496,1496,1489,1489,1489,1489,1489,1483,1483,1489,1489,1489,1483,1483,1483,1483,1483,1483,1483,1483,1483,1483,1483,1483,1483,1483,1477,1477,0,0,0,0,0,1007,1007,1004,1004,1004,1001,998,995,995,992,992,992,992,995,995,995,1001,1001,1004,1004,1004,1007,1010,1010,0,0,0,0,1477,1477,1470,1470,1470,1470,1470,1470,1470,1470,1470,1464,1464,1464,1464,1464,1464,1464,1464,1464,1464,1464,1458,1458,1458,1458,1458,1458,1458,1458,1458,1452,1452,1452,1452,1452,1452,1452,1452,1452,1452,1452,1452,1452,1445,1445,1452,1452,1452,1452,1445,1445,1452,1452,1445,1445,1445,1445,1445,1445,1445,1445,1445,1445,1445,1445,1445,1445,1439,1439,1439,1439,1439,1439,1445,1445,1439,1439,1439,1439,1439,1433,1433,1439,1439,1439,1439,1433,1433,1433,1433,1433,1433,1427,1427,1427,1427,1427,1427,1427,1427,1427,1421,1421,1421,1421,1421,1421,1421,1421,1421,1421,1421,1421,1421,1415,1415,1415,1410,1410,1410,1404,1398,1398,1398,1392,1392,1392,1392,1387,1381,1381,1381,1376,1376,1370,1370,1370,1365,1365,1365,1359,1354,1354,1354,1354,1349,1349,1349,1343,1343,1338,1333,1333,1333,1328,1328,1322,1322,1322,1317,1312,1312,1307,1307,1307,1307,1307,1302,1302,1297,1292,1292,1292,1288,1288,1288,1288,1283,1278,1278,1273,1268,1268,1268,1268,1264,1264,1259,1259,1255,1255,1250,1250,1250,1245,1245,1241,1241,1236,1236,1236,1236,1232,1232,1232,1227,1227,1223,1219,1219,1214,1214,1214,1210,1206,1206,1206,1202,1202,1197,1197,1197,1197,1193,1193,1193,1193,1193,1193,1193,1193,1041,1047,1047,1044,1041,1038,1038,1038,0,0,1016,1010,1010,1004,1004,1004,1001,1001,1001,1001,1001,1001,1001,998,992,989,989,987,987,984,981,978,975,973,973,970,970,970,970,970,970,973,973,0,0,0,0,0,0,0,0,0,0,0,0,0,0,0,0,0,0,0,0,0,0,0,0,0,0,0,0,0,0,0,0,0,0
0,0,0,0,0,0,0,0,0,0,1572,1564,1564,1564,1572,1572,1572,1579,1572,1572,1572,1579,1564,1564,1557,1557,1557,1557,1557,1557,1557,1564,0,0,987,987,984,984,984,978,978,978,978,978,981,981,984,984,984,987,987,989,989,992,992,995,995,995,995,995,998,998,1001,0,0,0,0,0,0,0,0,0,0,0,0,0,0,800,798,794,792,789,787,783,778,700,700,700,698,697,694,693,690,688,687,687,684,682,678,676,676,675,675,675,674,674,675,675,676,676,676,676,678,679,680,680,682,682,683,684,684,686,686,687,688,688,690,691,693,694,696,697,698,700,703,704,710,713,714,714,716,717,719,720,722,722,723,725,727,727,728,728,730,731,733,734,736,736,738,738,739,741,742,744,746,747,749,749,750,752,752,752,754,757,759,761,762,764,766,766,766,767,767,771,773,774,776,778,778,778,780,781,781,783,785,787,787,789,789,789,792,792,792,0,0,0,0,1227,1232,1236,1236,1232,1232,1232,1236,1241,1241,1245,1245,1245,1250,1245,1245,1245,1250,1250,1250,1250,1250,1250,1255,1255,1255,1259,1259,1264,1264,1264,1268,1268,1268,1268,1268,1273,1496,1496,1489,1489,1489,1489,1489,1489,1489,1489,1489,1489,1489,1489,1489,1489,1489,1489,1489,1489,1496,1496,1496,1496,1496,1489,1489,1489,1483,1483,1483,1489,1483,1483,1483,1483,1483,1483,1483,1483,1477,1477,1477,1477,1477,1477,1477,1477,1477,1477,1477,1477,1477,1470,1464,1464,1464,0,0,1007,1007,1001,1001,1004,1004,1001,998,995,992,992,992,992,995,995,995,1001,1001,1004,1004,1004,1007,1010,1010,1013,0,1013,1483,1483,1477,1470,1470,1464,1464,1464,1464,1464,1464,1464,1464,1464,1458,1458,1458,1458,1458,1458,1458,1458,1452,1452,1452,1452,1452,1452,1452,1452,1452,1452,1452,1452,1452,1445,1445,1445,1445,1445,1445,1445,1445,1445,1445,1445,1445,1445,1445,1445,1445,1445,1445,1445,1445,1445,1445,1445,1445,1445,1445,1445,1445,1445,1445,1445,1445,1439,1439,1439,1439,1433,1433,1433,1433,1439,1439,1433,1433,1433,1433,1433,1427,1427,1427,1427,1433,1433,1427,1427,1427,1427,1427,1427,1427,1427,1427,1427,1421,1421,1421,1421,1421,1421,1421,1415,1415,1415,1415,1421,1421,1421,1421,1421,1421,1415,1415,1415,1410,1410,1410,1404,1404,1398,1398,1398,1392,1392,1392,1392,1387,1387,1381,1376,1376,1376,1370,1370,1370,1365,1365,1365,1359,1354,1354,1354,1354,1349,1349,1349,1343,1343,1338,1333,1333,1333,1328,1328,1322,1322,1322,1317,1312,1312,1312,1307,1307,1307,1307,1302,1302,1297,1292,1292,1292,1292,1288,1288,1288,1283,1278,1278,1273,1273,1268,1268,1268,1264,1264,1264,1259,1255,1255,1250,1250,1250,1245,1245,1245,1241,1236,1236,1236,1236,1232,1232,1227,1227,1227,1223,1219,1219,1214,1214,1214,1210,1206,1206,1206,1202,1202,1202,1197,1197,1197,1197,1197,1197,1197,1197,1197,1197,1041,1041,1041,1044,1041,1038,1034,1034,1034,1034,1010,1010,1010,1004,1004,1001,1001,1001,1001,1001,1001,1001,1001,998,995,992,989,989,987,987,987,984,981,975,973,970,970,970,970,970,970,970,978,992,0,0,0,0,0,0,0,0,0,0,0,0,0,0,0,0,0,0,0,0,0,0,0,0,0,0,0,0,0,0,0,0,0,0
0,0,0,0,0,0,0,0,0,0,1564,1564,1564,1564,1564,1564,1572,1572,1572,1572,1572,1564,1557,1557,1550,1550,1550,1550,1550,1557,1557,1564,0,0,0,0,984,984,984,981,978,978,978,978,981,981,984,984,984,987,987,989,989,992,995,995,995,995,995,995,995,995,998,0,0,0,0,0,0,0,0,0,0,0,0,0,0,800,798,794,790,789,787,785,780,700,698,698,697,697,696,693,691,688,687,687,684,680,678,676,676,675,675,674,674,674,675,675,676,676,676,676,678,679,680,680,682,682,683,684,684,686,686,687,688,688,690,691,693,694,696,698,700,701,706,710,713,713,714,716,716,717,719,720,722,723,725,727,727,727,728,730,730,731,733,734,736,738,738,739,739,741,742,744,746,747,749,750,750,752,752,754,754,757,761,761,762,764,766,766,767,767,767,771,773,774,776,776,776,778,778,780,781,783,785,787,787,789,789,790,792,792,0,0,0,1227,1227,1227,1232,1232,1232,1232,1232,1232,1232,1236,1241,1241,1245,1245,1245,1245,1245,1245,1250,1250,1250,1250,1250,1250,1255,1255,1255,1259,1259,1264,1264,1268,1268,1268,1273,1273,1273,1273,1273,1496,1489,1489,1489,1489,1489,1489,1483,1483,1483,1489,1489,1483,1483,1483,1483,1483,1483,1483,1483,1483,1489,1483,1483,1483,1483,1483,1483,1483,1483,1483,1483,1483,1477,1477,1477,1477,1477,1470,1470,1470,1470,1470,1470,1470,1470,1470,1477,1477,1470,1470,1470,1470,1464,1464,1464,0,0,0,1007,1001,1001,1004,1004,1001,998,995,995,992,992,995,995,995,998,1001,1001,1004,1004,1004,1010,1010,1013,1013,1013,1013,1477,0,1477,1470,1470,1464,1464,1458,1458,1458,1458,1458,1458,1458,1452,1452,1452,1452,1452,1452,1452,1452,1452,1445,1445,1445,1445,1445,1445,1445,1445,1445,1445,1445,1445,1445,1445,1445,1445,1439,1439,1445,1439,1439,1439,1439,1439,1439,1439,1439,1439,1439,1439,1439,1439,1439,1439,1439,1439,1439,1439,1439,1439,1439,1439,1439,1439,1439,1433,1433,1433,1433,1427,1427,1427,1433,1433,1427,1427,1427,1427,1427,1421,1421,1421,1421,1427,1427,1427,1421,1421,1421,1421,1421,1421,1421,1421,1421,1421,1421,1421,1421,1415,1415,1415,1410,1410,1410,1410,1415,1415,1415,1415,1415,1415,1415,1415,1410,1410,1404,1404,1404,1398,1398,1398,1392,1392,1392,1392,1392,1387,1381,1381,1376,1376,1376,1376,1370,1370,1370,1365,1365,1359,1354,1354,1354,1354,1349,1349,1349,1343,1343,1338,1333,1333,1333,1328,1328,1328,1322,1322,1317,1312,1312,1312,1312,1312,1307,1307,1302,1302,1297,1297,1292,1292,1292,1288,1288,1288,1283,1283,1278,1273,1273,1268,1268,1268,1268,1264,1264,1259,1255,1255,1255,1250,1250,1245,1245,1245,1241,1236,1236,1236,1236,1232,1232,1227,1227,1227,1223,1223,1219,1214,1214,1214,1210,1206,1206,1210,1206,1202,1202,1197,1197,1197,1197,1197,1197,1197,1197,1197,1044,1041,1041,1041,1044,1038,1034,1034,1031,1031,1031,0,1004,1004,1004,1004,1001,1001,1001,1001,998,998,998,998,995,995,992,989,989,987,987,987,984,981,975,973,970,970,970,970,970,970,970,992,998,0,0,0,0,0,0,0,0,0,0,0,0,0,0,0,0,0,0,0,0,0,0,0,0,0,0,0,0,0,0,0,0,0,0
0,0,0,0,0,0,0,0,0,0,1564,1564,1557,1557,1557,1557,1564,1564,1564,1564,1564,1557,1557,1557,1550,1550,1550,1550,1550,1550,1557,0,0,0,0,0,0,984,984,984,981,978,978,981,981,984,984,984,984,987,989,989,989,995,995,998,995,995,995,995,995,995,998,0,0,0,0,0,0,0,0,0,0,0,0,0,0,0,0,794,790,789,787,785,781,776,698,698,697,697,696,694,693,690,688,687,684,680,678,676,676,675,675,674,674,674,675,675,675,676,676,676,678,680,680,680,682,683,683,684,684,686,687,687,690,690,691,693,694,696,697,701,703,706,708,713,713,714,714,716,716,717,719,722,723,723,725,727,727,728,728,730,731,733,733,734,738,738,738,739,741,741,742,744,746,747,749,750,750,752,752,754,755,759,761,762,764,766,766,767,767,767,769,773,773,774,776,776,776,778,778,780,781,783,785,787,789,789,790,790,1227,1227,1223,1223,1223,1227,1227,1227,1227,1232,1232,1232,1232,1232,1232,1236,1236,1241,1241,1245,1245,1245,1245,1245,1245,1245,1245,1250,1250,1255,1255,1255,1255,1259,1259,1264,1264,1268,1268,1273,1273,1273,1273,1273,1273,1483,1483,1483,1483,1483,1483,1483,1483,1483,1483,1483,1483,1483,1483,1483,1483,1483,1483,1483,1477,1477,1477,1470,1470,1470,1477,1477,1477,1477,1477,1477,1477,1477,1477,1477,1477,1470,1470,1470,1464,1464,1464,1464,1464,1464,1464,1464,1470,1464,1464,1464,1464,1464,1458,1445,1445,0,0,0,1007,1004,1004,1004,1004,1001,1001,998,995,995,995,995,995,995,1001,1001,1001,1004,1004,1004,1010,1010,1013,1013,1013,0,1016,1470,1470,1470,1464,1458,1458,1458,1458,1452,1452,1452,1452,1452,1452,1445,1445,1445,1452,1452,1445,1445,1445,1445,1445,1445,1445,1445,1445,1445,1445,1445,1445,1439,1439,1439,1439,1439,1439,1439,1439,1439,1439,1439,1439,1439,1439,1439,1439,1439,1439,1439,1439,1439,1439,1433,1433,1433,1433,1427,1427,1427,1433,1433,1433,1433,1433,1433,1427,1427,1427,1427,1421,1421,1427,1427,1427,1421,1421,1421,1421,1421,1421,1421,1421,1421,1421,1421,1421,1421,1421,1421,1421,1421,1421,1421,1421,1421,1421,1421,1415,1415,1415,1415,1410,1410,1410,1410,1410,1410,1410,1415,1415,1410,1410,1410,1404,1404,1404,1398,1398,1404,1398,1398,1392,1392,1392,1392,1392,1392,1387,1381,1381,1376,1376,1376,1376,1370,1370,1370,1365,1365,1359,1354,1354,1354,1354,1354,1349,1349,1349,1343,1343,1338,1333,1333,1333,1328,1328,1328,1322,1322,1317,1317,1312,1312,1312,1307,1307,1307,1302,1302,1297,1297,1297,1292,1288,1288,1288,1283,1283,1278,1278,1273,1273,1268,1268,1268,1264,1264,1259,1255,1255,1255,1250,1250,1250,1245,1241,1241,1236,1236,1236,1236,1232,1232,1232,1227,1227,1223,1223,1219,1214,1214,1214,1214,1210,1210,1210,1210,1206,1202,1202,1202,1202,1197,1197,1197,1197,1197,1047,1044,1041,1041,1041,1038,1034,1031,1028,1028,1028,1028,0,0,1004,1004,1004,1001,1001,1001,1001,998,998,998,995,995,992,992,989,984,984,984,984,981,981,975,973,970,967,967,970,970,970,0,0,0,0,0,0,0,0,0,0,0,0,0,0,0,0,0,0,0,0,0,0,0,0,0,0,0,0,0,0,0,0,0,0,0,0,0
0,0,0,0,0,0,0,0,0,0,1564,1557,1557,1557,1557,1557,1557,1550,1550,1550,1550,1557,1550,1550,1543,1543,1543,1543,1543,1543,1543,0,0,0,0,0,0,0,987,984,984,981,981,981,984,984,984,984,987,987,989,989,992,995,998,998,995,995,995,995,995,995,998,1001,0,0,0,0,0,0,0,0,0,0,0,0,0,0,0,0,789,787,785,785,781,778,698,698,697,696,694,693,693,691,688,687,684,680,678,676,675,675,675,674,674,674,674,675,675,675,676,676,678,680,680,680,682,683,684,686,687,687,687,688,690,691,691,696,697,698,701,703,704,707,710,713,714,714,714,716,716,717,719,722,722,723,725,727,728,728,728,730,731,733,734,736,738,738,739,739,741,741,742,744,747,749,749,750,752,752,754,754,755,759,761,762,764,766,766,767,767,767,771,773,774,774,776,776,776,778,778,780,781,783,783,783,1219,1219,1219,0,0,1227,1223,1223,1223,1223,1227,1227,1227,1232,1232,1232,1232,1232,1232,1236,1236,1241,1241,1241,1245,1245,1245,1245,1245,1245,1245,1250,1250,1255,1255,1255,1255,1259,1259,1264,1264,1268,1268,1273,1273,1273,1273,1278,1278,1483,1483,1483,1483,1483,1483,1483,1483,1477,1477,1483,1483,1483,1477,1477,1477,1477,1477,1477,1470,1470,1470,1470,1470,1470,1464,1464,1464,1464,1470,1470,1470,1470,1470,1470,1470,1464,1464,1464,1464,1464,1464,1458,1458,1458,1458,1464,1464,1464,1458,1458,1458,1458,1452,1445,1445,1445,0,1004,1004,1004,1004,1007,1004,1001,1001,998,998,995,995,995,995,998,1001,1001,1001,1004,1007,1007,1010,1013,1013,1013,1016,1016,1016,1016,1470,1470,1458,1458,1452,1452,1452,1452,1452,1452,1445,1445,1445,1445,1445,1445,1445,1445,1439,1439,1439,1439,1439,1439,1439,1439,1439,1439,1439,1439,1439,1439,1439,1433,1433,1433,1433,1433,1433,1433,1433,1433,1433,1433,1433,1439,1439,1439,1439,1433,1433,1433,1433,1427,1427,1427,1427,1427,1421,1421,1421,1421,1421,1421,1427,1427,1427,1427,1421,1421,1421,1421,1421,1421,1421,1421,1421,1421,1421,1421,1421,1421,1421,1421,1421,1421,1421,1415,1415,1415,1415,1415,1415,1415,1415,1415,1415,1415,1415,1415,1415,1410,1404,1404,1404,1404,1404,1404,1410,1410,1410,1410,1410,1410,1404,1404,1398,1398,1398,1398,1392,1392,1392,1392,1392,1392,1392,1387,1387,1381,1381,1376,1376,1376,1376,1370,1370,1370,1365,1365,1359,1354,1354,1354,1354,1354,1354,1349,1349,1343,1343,1338,1333,1333,1333,1328,1328,1328,1322,1322,1317,1317,1312,1312,1312,1307,1307,1307,1307,1302,1302,1297,1297,1292,1292,1288,1288,1283,1283,1283,1278,1273,1273,1268,1268,1268,1264,1264,1259,1255,1255,1255,1250,1250,1250,1245,1241,1241,1236,1236,1236,1236,1236,1232,1232,1227,1227,1227,1223,1219,1214,1214,1214,1214,1210,1210,1210,1206,1206,1206,1202,1202,1202,1202,1202,1197,1197,1054,1047,1047,1041,1041,1038,1034,1031,1028,1025,1025,1025,1025,0,0,1004,1004,1004,1001,1001,998,998,998,998,995,995,992,992,989,989,984,984,984,981,981,978,975,973,970,967,967,970,970,970,0,0,0,0,0,0,0,0,0,0,0,0,0,0,0,0,0,0,0,0,0,0,0,0,0,0,0,0,0,0,0,0,0,0,0,0,0
0,0,0,0,0,0,0,0,0,0,1557,1557,1557,1557,1550,1550,1550,1543,1543,1543,1543,1543,1543,1543,1536,1536,1536,1529,1529,1536,1543,0,0,0,0,0,0,0,987,987,984,984,984,984,987,987,987,987,987,987,989,989,992,995,998,998,998,998,998,998,995,995,998,998,0,0,0,0,0,0,0,0,0,0,0,0,0,0,0,785,785,785,783,783,781,778,776,698,696,696,694,693,693,691,688,687,682,680,678,676,675,675,675,674,674,674,674,675,675,675,676,676,679,680,680,682,682,684,686,687,687,687,691,693,694,694,694,697,700,701,703,703,704,706,711,713,714,714,716,716,717,719,720,722,722,723,725,727,728,728,730,730,733,733,734,736,738,739,739,739,741,741,742,744,747,749,749,750,752,752,754,754,755,759,761,762,764,766,766,767,767,767,771,773,774,774,774,774,776,774,774,780,780,780,1210,0,0,1219,1219,1223,1223,1223,1219,1219,1223,1223,1223,1223,1227,1227,1227,1232,1232,1232,1232,1232,1236,1236,1241,1241,1245,1245,1245,1245,1245,1245,1245,1250,1250,1255,1255,1255,1255,1259,1264,1264,1264,1268,1268,1273,1273,1273,1278,1278,1278,1477,1477,1477,1477,1477,1477,1477,1477,1477,1477,1477,1477,1477,1470,1470,1470,1470,1470,1464,1464,1464,1464,1464,1464,1464,1464,1464,1464,1464,1464,1464,1464,1464,1464,1464,1464,1464,1464,1464,1458,1458,1458,1458,1458,1458,1458,1458,1458,1458,1452,1452,1452,1452,1445,1445,1445,0,0,0,1010,0,1010,1007,1004,1004,1001,998,998,998,998,998,998,998,1001,1001,1004,1004,1007,1007,1010,1013,1016,1016,1016,1016,1016,1016,0,1458,1458,1445,1445,1445,1445,1445,1445,1445,1445,1445,1445,1439,1439,1439,1439,1439,1439,1439,1439,1433,1433,1433,1433,1433,1433,1433,1433,1439,1433,1433,1433,1433,1433,1427,1427,1427,1427,1427,1427,1427,1427,1427,1427,1427,1433,1433,1427,1427,1427,1427,1427,1427,1427,1427,1427,1421,1421,1421,1415,1415,1415,1415,1415,1415,1421,1421,1421,1421,1415,1415,1415,1415,1415,1415,1415,1415,1415,1415,1415,1415,1415,1415,1415,1415,1415,1415,1415,1415,1415,1415,1415,1415,1415,1415,1415,1415,1410,1410,1410,1410,1404,1404,1398,1398,1398,1398,1398,1404,1404,1404,1404,1404,1398,1398,1398,1392,1392,1392,1392,1392,1387,1387,1392,1387,1387,1387,1387,1381,1381,1376,1376,1376,1376,1370,1370,1370,1365,1365,1365,1359,1359,1354,1354,1354,1354,1349,1349,1349,1343,1338,1333,1333,1333,1328,1328,1328,1322,1322,1317,1317,1312,1312,1312,1312,1307,1307,1307,1307,1302,1297,1297,1292,1292,1288,1288,1288,1283,1283,1278,1273,1273,1268,1268,1268,1268,1264,1259,1255,1255,1255,1255,1250,1250,1245,1245,1245,1236,1236,1236,1236,1236,1232,1232,1232,1232,1227,1223,1219,1214,1214,1214,1214,1210,1210,1210,1206,1206,1206,1202,1202,1202,1202,1202,1054,1054,1050,1044,1041,1041,1038,1038,1031,1028,1028,1025,1025,1025,1025,1016,0,1004,1004,1001,1001,998,998,998,998,995,995,992,992,992,989,989,981,981,981,981,978,978,978,973,970,970,970,817,0,0,0,0,0,0,0,0,0,0,0,0,0,0,0,0,0,0,0,0,0,0,0,0,0,0,0,0,0,0,0,0,0,0,0,0,0,0,0
0,0,0,0,0,0,0,0,0,0,1550,1550,1550,1550,1543,1543,1543,1543,1543,1543,1543,1543,1543,1543,1536,1529,1529,1529,1529,1536,1536,0,0,0,0,0,0,0,987,987,987,984,984,984,987,987,987,987,987,989,989,992,992,998,998,998,998,998,998,998,998,998,998,998,0,0,0,0,0,0,0,0,0,0,0,0,0,0,0,785,783,783,781,781,781,780,778,774,696,696,694,693,693,691,690,687,682,680,678,678,676,675,675,674,674,674,675,675,675,675,676,676,679,680,680,682,683,686,686,687,687,690,691,693,694,696,697,698,701,701,703,703,703,704,707,713,714,714,716,716,717,719,720,722,723,723,725,727,728,728,730,731,733,733,734,736,738,738,739,739,741,741,742,746,747,749,750,752,752,754,754,755,757,759,761,762,764,766,766,767,767,767,771,773,774,774,774,774,774,774,774,774,774,0,1210,1210,1210,1219,1219,1219,1219,1219,1219,1219,1219,1219,1223,1223,1223,1227,1227,1232,1232,1232,1232,1232,1232,1236,1241,1241,1245,1245,1245,1245,1245,1245,1245,1250,1255,1255,1255,1255,1255,1259,1264,1264,1264,1268,1268,1273,1273,1273,1278,1278,1278,1278,1470,1470,1470,1470,1470,1470,1470,1470,1470,1470,1470,1470,1464,1464,1464,1464,1464,1464,1464,1464,1464,1464,1458,1458,1458,1458,1458,1458,1458,1458,1458,1458,1458,1458,1458,1458,1458,1458,1458,1458,1458,1458,1452,1452,1452,1452,1452,1452,1445,1445,1445,1445,1445,1439,1439,1439,1433,0,0,1010,1010,1010,1007,1004,1004,1001,1001,998,998,998,998,998,1001,1001,1004,1004,1007,1007,1013,1013,1016,1016,1016,1016,1016,1016,1019,1452,1452,1445,1439,1439,1439,1439,1439,1439,1439,1439,1439,1439,1439,1439,1439,1439,1433,1433,1433,1427,1427,1427,1427,1427,1427,1427,1427,1433,1433,1427,1427,1427,1427,1421,1421,1421,1421,1421,1427,1427,1421,1421,1421,1421,1421,1415,1415,1421,1421,1421,1421,1421,1421,1421,1421,1415,1415,1415,1415,1415,1415,1415,1415,1415,1415,1415,1415,1415,1415,1415,1415,1415,1415,1415,1415,1415,1415,1415,1415,1415,1415,1415,1410,1410,1415,1410,1410,1410,1410,1410,1410,1410,1410,1410,1410,1410,1410,1410,1404,1404,1398,1398,1398,1398,1398,1398,1398,1398,1398,1398,1398,1398,1398,1398,1392,1392,1392,1392,1392,1387,1387,1387,1387,1381,1381,1387,1381,1381,1381,1376,1376,1376,1376,1370,1370,1370,1365,1365,1365,1359,1359,1354,1354,1354,1354,1349,1349,1349,1343,1338,1338,1333,1333,1333,1328,1328,1328,1322,1317,1317,1312,1312,1312,1312,1307,1307,1307,1307,1302,1302,1297,1292,1292,1288,1288,1288,1288,1283,1283,1278,1273,1273,1268,1268,1268,1268,1264,1259,1255,1255,1255,1250,1250,1250,1245,1245,1236,1236,1236,1236,1236,1236,1232,1232,1232,1227,1223,1223,1219,1214,1214,1214,1210,1210,1210,1210,1206,1206,1202,1202,1067,1067,1063,1060,1054,1044,1044,1041,1038,1034,1034,1031,1028,1025,1025,1025,1016,1016,1016,0,1001,1001,1001,1001,998,998,998,998,995,992,992,992,992,989,989,981,981,978,978,975,975,978,978,817,817,817,817,817,0,0,0,0,0,0,0,0,0,0,0,0,0,0,0,0,0,0,0,0,0,0,0,0,0,0,0,0,0,0,0,0,0,0,0,0,0,0
0,0,0,0,0,0,0,0,0,0,1543,1543,1543,1543,1536,1536,1536,1536,1536,1536,1536,1536,1536,1536,1529,1529,1523,1523,1523,1529,1529,0,0,0,0,0,0,0,987,987,987,984,984,984,987,987,987,987,987,989,989,992,995,995,998,998,998,998,998,998,998,998,998,1001,0,0,0,0,0,0,0,0,0,0,0,0,0,0,0,0,783,781,781,781,780,778,776,774,773,771,769,767,766,764,764,764,759,678,678,678,676,675,675,675,675,675,675,675,675,675,676,679,680,680,682,683,684,686,687,687,688,691,693,694,696,696,698,698,701,701,703,703,703,704,706,713,714,714,716,716,717,719,722,722,723,725,725,727,728,728,730,731,733,733,734,736,738,738,739,739,741,742,742,747,749,750,750,752,752,754,754,755,757,759,759,762,764,766,766,767,767,769,771,773,774,773,773,773,773,774,774,774,1210,1210,1210,1210,1210,1210,1214,1214,1214,1219,1219,1219,1219,1219,1219,1223,1223,1227,1227,1227,1227,1232,1232,1232,1232,1236,1236,1241,1241,1245,1245,1245,1245,1245,1250,1250,1255,1255,1259,1259,1259,1264,1264,1264,1268,1268,1268,1273,1273,1273,1278,1278,1278,1278,1470,1470,1470,1464,1464,1464,1464,1464,1464,1464,1464,1464,1464,1464,1464,1464,1464,1458,1458,1458,1458,1458,1458,1458,1458,1458,1458,1458,1458,1458,1458,1458,1452,1452,1452,1452,1452,1452,1452,1452,1452,1452,1452,1452,1445,1445,1452,1445,1445,1445,1445,1445,1439,1433,1433,1433,1433,0,1013,1013,1013,1013,1010,1007,1004,1004,1001,1001,1001,1001,1001,1001,1001,1001,1004,1004,1007,1007,1013,1013,1016,1016,1019,1019,1019,1019,0,1452,1452,1439,1433,1433,1433,1433,1433,1433,1433,1433,1427,1427,1433,1433,1433,1433,1427,1427,1427,1421,1421,1421,1421,1421,1427,1427,1427,1427,1427,1427,1421,1421,1421,1421,1421,1421,1421,1421,1421,1421,1421,1421,1421,1421,1421,1415,1415,1415,1415,1415,1415,1415,1415,1415,1415,1415,1415,1415,1415,1415,1415,1410,1410,1410,1410,1410,1410,1410,1410,1410,1410,1410,1410,1410,1410,1410,1410,1410,1410,1410,1410,1410,1404,1404,1404,1404,1404,1404,1404,1404,1404,1404,1404,1404,1404,1398,1398,1398,1398,1398,1398,1398,1392,1392,1392,1392,1392,1392,1392,1392,1392,1392,1392,1392,1392,1392,1387,1387,1387,1387,1381,1381,1381,1381,1381,1381,1376,1376,1376,1376,1376,1370,1370,1370,1370,1370,1365,1365,1365,1359,1359,1354,1354,1354,1354,1354,1349,1349,1343,1343,1338,1333,1333,1333,1328,1328,1328,1322,1322,1317,1317,1317,1312,1312,1307,1307,1307,1307,1302,1302,1292,1292,1288,1288,1288,1288,1288,1283,1278,1278,1273,1273,1268,1268,1268,1268,1264,1259,1255,1255,1255,1255,1250,1250,1250,1245,1236,1236,1236,1236,1236,1236,1232,1232,1227,1227,1223,1223,1219,1214,1214,1214,1210,1210,1210,1210,1206,1206,1206,1070,1067,1063,1063,1060,1057,1044,1041,1038,1034,1031,1028,1025,1022,1019,1019,1016,1013,1013,1013,1001,1001,1001,1001,998,998,998,998,998,995,992,992,992,989,989,987,981,981,978,978,975,975,817,817,817,817,817,817,817,817,0,0,0,0,0,0,0,0,0,0,0,0,0,0,0,0,0,0,0,0,0,0,0,0,0,0,0,0,0,0,0,0,0,0,0,0,0
0,0,0,0,0,0,0,0,0,0,1536,1536,1536,1536,1536,1536,1536,1536,1536,1536,1536,1536,1536,1536,1529,1523,1523,1516,1516,1523,1523,0,0,0,0,0,0,0,0,987,987,984,984,984,987,987,987,987,987,989,989,992,995,995,998,998,998,998,998,998,998,998,1001,1001,0,0,0,0,0,0,0,0,0,0,0,0,0,0,0,0,0,781,780,780,780,778,776,774,773,771,769,767,766,762,759,759,759,678,678,678,676,676,675,675,675,675,675,675,675,675,676,679,680,680,683,684,686,687,687,687,688,691,693,694,696,696,698,700,701,703,703,703,703,704,706,713,714,716,716,717,717,719,722,722,723,725,727,727,728,728,730,731,733,733,734,736,738,739,739,741,741,742,744,747,749,750,750,752,752,754,754,755,757,759,759,761,764,764,766,766,767,769,773,773,774,773,773,773,773,773,1206,1210,1210,1210,1210,1210,1210,1210,1214,1214,1214,1219,1214,1214,1219,1219,1219,1219,1219,1223,1227,1227,1227,1227,1232,1232,1232,1236,1236,1241,1241,1245,1245,1245,1245,1245,1250,1255,1255,1259,1259,1259,1259,1264,1264,1264,1268,1268,1268,1273,1273,1273,1278,1278,1278,1278,1464,1464,1464,1464,1464,1464,1464,1464,1464,1464,1464,1464,1458,1458,1458,1458,1458,1452,1452,1452,1452,1452,1452,1452,1452,1458,1452,1452,1452,1452,1452,1452,1445,1445,1452,1445,1445,1445,1445,1445,1445,1445,1445,1445,1445,1445,1445,1445,1439,1439,1439,1439,1433,1433,1427,1427,1427,1415,1013,1013,1013,1013,1010,1010,1007,1004,1004,1004,1001,1001,1001,1001,1001,1004,1004,1004,1007,1010,1013,1016,1019,1019,1019,1019,1019,1019,0,1421,1421,1421,1421,1427,1427,1427,1427,1427,1427,1427,1421,1421,1421,1421,1421,1427,1427,1427,1421,1421,1421,1421,1421,1421,1421,1421,1421,1421,1421,1421,1415,1415,1415,1415,1415,1415,1415,1415,1415,1415,1415,1415,1415,1415,1415,1415,1415,1410,1410,1410,1410,1410,1410,1410,1410,1404,1404,1404,1410,1404,1404,1404,1404,1404,1404,1404,1404,1404,1404,1404,1404,1404,1398,1398,1410,1404,1404,1410,1410,1410,1404,1404,1398,1398,1398,1398,1398,1398,1398,1398,1398,1398,1398,1398,1398,1392,1392,1392,1392,1392,1392,1392,1392,1392,1387,1387,1387,1387,1387,1387,1392,1392,1387,1387,1387,1387,1387,1381,1381,1381,1381,1381,1381,1376,1376,1376,1376,1376,1376,1370,1370,1370,1370,1370,1370,1370,1365,1365,1365,1359,1359,1359,1354,1354,1354,1354,1349,1349,1349,1343,1338,1338,1333,1333,1333,1328,1328,1322,1322,1317,1317,1317,1312,1312,1307,1307,1307,1307,1302,1302,1292,1292,1288,1288,1288,1288,1288,1283,1278,1278,1273,1273,1268,1268,1268,1268,1264,1259,1259,1255,1255,1255,1250,1250,1250,1245,1236,1236,1236,1236,1236,1236,1232,1232,1227,1227,1223,1223,1219,1214,1214,1214,1214,1210,1210,1210,1206,1206,1070,1067,1063,1063,1060,1060,1054,1044,1038,1034,1034,1028,1025,1022,1019,1016,1016,1013,1010,1007,1007,1001,1001,1001,998,998,998,995,995,995,995,992,992,989,989,989,984,981,981,978,978,978,978,821,817,817,817,817,817,817,817,0,0,0,0,0,0,0,0,0,0,0,0,0,0,0,0,0,0,0,0,0,0,0,0,0,0,0,0,0,0,0,0,0,0,0,0,0
0,0,0,0,0,0,0,0,0,0,1523,1523,1529,1529,1529,1529,1536,1536,1529,1529,1529,1529,1529,1529,1523,1523,1516,1516,1516,1516,1516,1516,0,0,0,0,0,0,0,0,987,987,987,987,987,987,987,987,987,989,989,992,995,995,998,998,998,998,998,998,998,998,1001,1001,1007,1007,1010,0,0,0,0,0,0,0,0,0,0,0,0,0,0,0,780,780,781,781,776,774,773,771,769,767,766,762,759,757,755,755,678,678,676,676,675,675,675,675,675,675,675,675,676,680,680,682,684,684,686,687,687,688,691,693,693,696,696,697,698,700,701,703,703,703,703,704,706,713,714,717,717,717,717,719,722,722,723,725,727,727,728,728,730,731,733,734,734,736,738,739,739,741,741,742,744,747,749,750,750,752,752,754,755,755,757,759,759,761,762,764,766,766,767,769,774,778,778,778,778,1206,1206,1206,1206,1210,1210,1210,1210,1210,1210,1214,1214,1214,1214,1214,1214,1214,1219,1219,1219,1219,1219,1223,1227,1227,1227,1227,1232,1232,1232,1236,1236,1241,1241,1245,1245,1245,1245,1250,1250,1255,1255,1259,1264,1264,1264,1264,1264,1268,1268,1268,1268,1273,1273,1278,1278,1278,1278,1278,1458,1458,1458,1458,1458,1458,1458,1458,1458,1458,1458,1458,1458,1458,1452,1452,1452,1445,1445,1445,1445,1445,1445,1445,1445,1445,1445,1445,1445,1445,1445,1445,1445,1439,1439,1439,1439,1439,1439,1439,1439,1439,1439,1439,1439,1439,1439,1439,1433,1433,1433,1433,1433,1427,1421,1415,1415,1415,1013,1013,1013,1016,1013,1013,1010,1007,1004,1004,1004,1001,1001,1001,1001,1004,1004,1007,1007,1010,1013,1016,1019,1019,1019,1022,1019,1019,1019,0,1415,1415,1415,1421,1421,1421,1421,1421,1421,1421,1415,1415,1415,1415,1415,1415,1415,1415,1421,1421,1421,1415,1415,1415,1421,1421,1415,1415,1415,1415,1415,1415,1415,1415,1415,1415,1415,1415,1415,1415,1415,1415,1415,1415,1415,1404,1404,1404,1404,1404,1404,1404,1404,1404,1404,1398,1398,1398,1404,1404,1404,1398,1398,1398,1398,1398,1398,1398,1398,1398,1398,1398,1398,1398,1398,1392,1392,1398,1404,1404,1398,1398,1398,1392,1392,1392,1392,1392,1392,1392,1392,1392,1392,1392,1392,1387,1387,1392,1387,1387,1387,1387,1387,1387,1381,1381,1381,1381,1381,1381,1381,1381,1381,1381,1381,1376,1376,1376,1376,1376,1376,1376,1376,1376,1376,1376,1376,1370,1370,1370,1370,1365,1365,1365,1365,1365,1365,1365,1365,1359,1359,1359,1354,1354,1354,1354,1349,1349,1349,1343,1338,1338,1333,1333,1333,1328,1328,1328,1322,1322,1317,1317,1312,1312,1307,1307,1307,1307,1302,1297,1292,1292,1288,1288,1288,1288,1288,1283,1278,1278,1278,1273,1268,1268,1268,1268,1264,1259,1259,1259,1259,1255,1255,1250,1250,1245,1241,1241,1241,1236,1236,1236,1232,1232,1227,1227,1223,1223,1219,1219,1214,1214,1214,1214,1210,1210,1210,1067,1067,1063,1063,1063,1060,1057,1054,1041,1038,1031,1031,1028,1025,1022,1019,1016,1016,1013,1010,1007,1004,1004,1001,1001,998,998,998,995,995,995,992,992,992,989,989,989,981,981,978,975,975,825,825,821,819,819,819,819,819,819,819,0,0,0,0,0,0,0,0,0,0,0,0,0,0,0,0,0,0,0,0,0,0,0,0,0,0,0,0,0,0,0,0,0,0,0,0,0
0,0,0,0,0,0,0,0,0,1516,1516,1523,1516,1516,1516,1523,1529,1529,1529,1523,1523,1523,1523,1523,1516,1516,1516,1516,1516,1516,1509,1509,0,0,0,0,0,0,0,992,989,989,987,987,987,987,987,987,987,989,992,992,995,995,998,998,998,998,998,1001,1001,1001,1001,1004,1007,1007,1010,1016,1019,0,0,0,0,0,0,0,0,0,0,0,0,0,0,781,781,781,774,773,773,771,769,767,766,762,759,757,755,749,747,678,676,676,675,675,675,675,675,675,675,675,678,682,682,684,684,686,687,687,688,690,691,693,694,696,696,697,698,700,701,701,703,703,703,704,706,713,716,717,717,719,719,720,722,722,723,725,727,727,728,728,730,731,733,734,734,736,738,739,739,741,742,742,746,747,750,750,750,752,754,754,755,757,757,757,759,759,761,761,766,766,767,767,767,1206,1206,1206,1206,1206,1206,1206,1206,1206,1210,1210,1210,1210,1210,1210,1210,1210,1210,1214,1214,1214,1214,1214,1219,1219,1219,1223,1227,1227,1227,1232,1232,1232,1236,1236,1236,1241,1241,1245,1245,1245,1245,1250,1250,1255,1259,1264,1264,1264,1264,1264,1268,1268,1268,1268,1268,1273,1273,1278,1278,1283,1283,1283,1283,1283,1452,1452,1452,1452,1452,1452,1452,1452,1452,1452,1452,1452,1445,1445,1445,1445,1445,1445,1439,1439,1439,1439,1439,1439,1439,1439,1439,1439,1439,1439,1439,1439,1439,1439,1439,1433,1433,1439,1439,1439,1439,1439,1433,1433,1433,1433,1433,1427,1427,1427,1427,1421,1421,1415,1415,1016,1016,1016,1016,1016,1016,1013,1013,1010,1007,1004,1004,1004,1004,1004,1004,1004,1004,1007,1010,1013,1013,1016,1019,1019,1022,1022,1022,1022,1022,0,1410,1410,1410,1415,1421,1421,1421,1415,1415,1415,1415,1410,1410,1410,1410,1410,1415,1415,1415,1415,1410,1410,1415,1415,1415,1410,1410,1410,1415,1410,1410,1410,1410,1410,1410,1410,1410,1410,1410,1410,1410,1410,1410,1404,1398,1398,1398,1398,1398,1398,1398,1398,1404,1398,1398,1398,1398,1398,1398,1398,1398,1398,1398,1398,1398,1398,1398,1398,1398,1398,1398,1392,1392,1392,1392,1392,1392,1392,1392,1392,1392,1392,1392,1392,1392,1392,1392,1392,1392,1387,1387,1387,1387,1387,1381,1381,1381,1381,1381,1381,1381,1381,1381,1381,1376,1376,1376,1376,1376,1381,1381,1376,1376,1376,1376,1376,1376,1376,1376,1376,1376,1376,1376,1376,1376,1376,1370,1370,1370,1370,1365,1365,1365,1365,1365,1365,1365,1365,1365,1359,1359,1359,1354,1354,1354,1349,1349,1349,1349,1343,1343,1338,1333,1333,1333,1328,1328,1328,1322,1322,1317,1317,1312,1312,1312,1307,1307,1307,1307,1297,1292,1292,1288,1288,1288,1288,1288,1283,1283,1278,1278,1273,1273,1273,1273,1268,1268,1268,1259,1259,1259,1255,1255,1250,1250,1245,1245,1241,1241,1241,1236,1236,1236,1232,1232,1227,1227,1223,1223,1219,1219,1214,1214,1214,1214,1214,1070,1067,1063,1063,1063,1060,1060,1057,1047,1041,1034,1031,1028,1025,1022,1019,1019,1016,1013,1013,1010,1007,1004,1004,1001,998,995,995,995,995,992,992,992,989,989,989,989,989,981,981,978,975,975,827,825,823,821,821,821,819,819,819,819,0,0,0,0,0,0,0,0,0,0,0,0,0,0,0,0,0,0,0,0,0,0,0,0,0,0,0,0,0,0,0,0,0,0,0,0,0
0,0,0,0,0,0,0,0,0,1516,1516,1516,1516,1516,1516,1516,1523,1523,1516,1516,1516,1516,1516,1516,1516,1516,1516,1516,1516,1516,1509,1509,1509,0,0,0,0,0,0,992,989,989,989,987,987,987,987,987,987,989,989,989,995,995,995,998,998,998,998,1001,1001,1001,1001,1004,1007,1007,1013,1016,1019,0,0,1489,1483,1483,0,0,0,0,0,0,0,0,0,781,781,781,774,773,771,769,767,766,766,762,759,757,750,749,747,747,676,676,675,675,675,675,675,675,675,675,682,682,683,686,686,687,687,687,690,690,691,693,694,696,696,698,698,700,701,701,703,703,703,704,706,713,716,717,719,719,719,720,722,722,723,725,727,728,728,728,730,733,733,734,734,736,736,739,741,742,744,744,746,747,749,750,750,752,754,754,755,757,757,757,759,759,761,761,0,761,761,1197,0,1197,1206,1206,1206,1202,1202,1202,1202,1202,1206,1206,1206,1210,1210,1210,1210,1210,1210,1210,1214,1214,1214,1214,1219,1219,1219,1223,1227,1227,1227,1232,1232,1232,1236,1236,1236,1241,1241,1245,1245,1245,1250,1250,1250,1255,1259,1264,1268,1268,1264,1264,1268,1268,1268,1268,1268,1273,1273,1278,1278,1283,1283,1283,1283,1283,1445,1445,1445,1445,1445,1445,1445,1445,1445,1445,1445,1445,1445,1439,1439,1439,1439,1439,1439,1439,1439,1439,1439,1433,1433,1433,1433,1433,1433,1433,1433,1433,1433,1433,1433,1433,1433,1433,1433,1433,1433,1433,1427,1427,1427,1427,1427,1421,1421,1427,1421,1421,1415,1415,1415,1016,1016,1016,1016,1016,1016,1016,1013,1010,1007,1004,1004,1004,1004,1004,1004,1004,1004,1007,1010,1013,1013,1016,1019,1019,1022,1022,1022,1022,1022,0,1410,1410,1410,1415,1415,1415,1415,1415,1415,1415,1410,1404,1404,1410,1410,1410,1404,1404,1410,1410,1404,1404,1404,1404,1404,1410,1404,1404,1410,1410,1404,1404,1404,1404,1404,1404,1404,1410,1410,1410,1410,1410,1410,1398,1398,1398,1398,1398,1398,1392,1392,1398,1398,1398,1398,1398,1398,1398,1398,1398,1398,1392,1392,1392,1392,1392,1392,1392,1392,1392,1392,1392,1392,1392,1387,1387,1387,1381,1381,1381,1381,1381,1387,1387,1387,1387,1387,1387,1387,1387,1387,1381,1381,1387,1381,1381,1381,1381,1381,1381,1376,1376,1376,1376,1376,1376,1376,1376,1376,1376,1376,1376,1376,1376,1376,1376,1376,1370,1370,1370,1370,1370,1370,1370,1370,1370,1370,1370,1365,1365,1365,1365,1359,1359,1359,1359,1359,1359,1359,1359,1359,1359,1354,1354,1354,1349,1349,1349,1349,1343,1343,1338,1333,1333,1333,1328,1328,1328,1322,1322,1317,1317,1312,1312,1312,1307,1307,1307,1307,1297,1292,1292,1288,1288,1288,1288,1288,1283,1283,1278,1278,1273,1273,1273,1273,1273,1268,1268,1259,1259,1259,1255,1255,1250,1250,1245,1245,1241,1241,1241,1236,1236,1236,1232,1232,1227,1227,1223,1223,1219,1219,1214,1214,1214,1214,1080,1070,1067,1063,1063,1063,1060,1057,1054,1044,1041,1034,1028,1025,1022,1022,1019,1019,1013,1013,1010,1004,1004,1001,998,998,995,995,992,992,992,992,992,992,989,989,989,989,989,981,981,981,981,827,825,825,823,821,821,821,821,819,819,819,0,0,0,0,0,0,0,0,0,0,0,0,0,0,0,0,0,0,0,0,0,0,0,0,0,0,0,0,0,0,0,0,0,0,0,0,0
0,0,0,0,0,0,0,0,0,1509,1509,1516,1516,1509,1509,1509,1509,1516,1509,1509,1509,1509,1509,1509,1509,1509,1509,1516,1509,1509,1503,1503,1503,0,0,0,0,0,0,992,989,989,989,987,987,987,987,987,987,989,989,989,995,995,995,998,998,998,998,1001,1001,1001,1004,1004,1007,1007,1013,1016,1489,1489,1489,1489,1483,1483,1483,1483,0,0,0,0,0,0,0,0,0,0,0,769,769,767,766,766,764,762,759,755,750,749,747,747,747,747,675,675,675,675,675,675,675,684,684,684,686,687,687,687,687,688,690,691,693,693,694,696,697,698,698,700,701,703,703,703,703,706,710,713,716,717,717,719,719,720,722,722,723,727,727,728,728,730,731,733,734,734,734,736,736,739,741,744,744,746,747,747,749,750,750,752,754,754,754,757,757,759,759,759,761,0,761,0,0,0,1197,1197,1197,1197,1202,1197,1197,1202,1202,1202,1206,1206,1206,1210,1210,1210,1210,1210,1210,1210,1210,1214,1214,1214,1219,1219,1219,1223,1227,1227,1227,1232,1232,1232,1236,1236,1236,1241,1241,1245,1245,1245,1250,1250,1255,1264,1264,1264,1268,1268,1268,1268,1268,1268,1268,1268,1268,1273,1273,1278,1278,1283,1283,1283,1283,1439,1439,1439,1439,1439,1439,1439,1439,1439,1439,1439,1439,1439,1439,1439,1439,1439,1433,1433,1433,1433,1433,1433,1433,1433,1433,1433,1433,1433,1427,1427,1427,1427,1427,1427,1427,1427,1427,1433,1433,1427,1427,1427,1421,1421,1421,1421,1421,1415,1415,1415,1415,1415,1415,1415,1410,1019,1019,1016,1016,1019,1019,1016,1016,1013,1010,1007,1004,1004,1004,1004,1004,1004,1004,1007,1010,1013,1016,1016,1019,1019,1022,1022,1022,1022,1022,0,1404,1404,1404,1410,1410,1410,1410,1410,1410,1410,1404,1404,1404,1404,1404,1404,1398,1398,1404,1404,1404,1398,1398,1398,1398,1398,1398,1398,1404,1404,1404,1404,1404,1404,1404,1398,1398,1404,1404,1404,1404,1404,1398,1398,1398,1398,1392,1392,1392,1392,1392,1392,1392,1392,1392,1392,1392,1392,1392,1392,1392,1387,1387,1387,1387,1387,1387,1387,1387,1392,1392,1392,1387,1387,1381,1381,1381,1381,1381,1381,1381,1381,1381,1381,1381,1376,1376,1381,1381,1381,1381,1381,1381,1376,1376,1376,1376,1376,1376,1376,1376,1376,1376,1376,1376,1376,1376,1376,1376,1376,1376,1370,1370,1370,1370,1370,1370,1370,1370,1370,1370,1370,1370,1370,1370,1370,1370,1365,1365,1359,1359,1359,1359,1359,1354,1354,1359,1359,1354,1354,1354,1354,1354,1354,1349,1349,1349,1349,1349,1343,1343,1338,1333,1333,1333,1328,1328,1328,1328,1322,1322,1317,1317,1312,1312,1312,1307,1307,1307,1302,1292,1292,1288,1288,1288,1288,1288,1283,1283,1278,1278,1278,1273,1273,1273,1268,1268,1268,1268,1264,1264,1259,1255,1250,1250,1245,1245,1241,1241,1236,1236,1236,1236,1232,1232,1232,1227,1227,1223,1219,1219,1219,1214,1214,1214,1077,1070,1067,1063,1063,1060,1060,1057,1054,1041,1038,1034,1028,1025,1022,1019,1019,1016,1013,1013,1007,1004,1004,1001,998,995,995,992,992,992,992,992,992,992,989,989,989,989,989,984,981,981,827,827,825,825,823,823,823,821,821,821,819,819,0,0,0,0,0,0,0,0,0,0,0,0,0,0,0,0,0,0,0,0,0,0,0,0,0,0,0,0,0,0,0,0,0,0,0,0,0
0,0,0,0,0,0,0,0,0,1509,1509,1509,1509,1509,1509,1509,1509,1509,1509,1509,1509,1509,1509,1509,1503,1503,1503,1503,1503,1503,1503,1503,1503,1503,0,0,0,0,0,992,989,987,987,987,987,987,987,987,987,989,992,992,995,995,995,998,998,998,998,1001,1001,1001,1004,1007,1010,1010,1483,1483,1483,1483,1483,1483,1483,1477,1477,1477,0,0,0,0,0,0,0,0,0,0,0,769,767,767,766,764,762,761,759,755,752,750,749,747,746,746,746,675,675,675,675,675,688,688,686,686,687,687,687,688,688,690,691,693,693,694,694,696,697,698,700,701,701,703,703,703,704,707,710,713,716,717,717,719,719,720,722,723,725,727,727,728,728,730,731,733,734,736,736,738,738,739,742,744,744,746,747,747,749,750,750,752,754,754,754,755,757,757,759,759,759,1193,1193,1193,1193,1193,1197,1197,1197,1197,1197,1197,1197,1197,1202,1202,1202,1202,1202,1206,1210,1210,1210,1210,1210,1210,1210,1214,1214,1214,1219,1219,1219,1223,1227,1227,1232,1232,1232,1232,1236,1236,1236,1241,1241,1245,1245,1245,1250,1255,1255,1264,1273,1273,1273,1268,1268,1268,1268,1268,1268,1268,1268,1273,1278,1278,1278,1283,1283,1283,1283,1433,1433,1433,1439,1439,1439,1433,1433,1433,1433,1433,1433,1433,1433,1433,1433,1433,1433,1433,1433,1433,1433,1427,1427,1427,1427,1427,1427,1427,1427,1427,1421,1421,1421,1421,1421,1421,1421,1427,1427,1421,1421,1421,1421,1421,1421,1421,1421,1415,1415,1415,1415,1415,1415,1415,1410,1019,1019,1016,1016,1019,1019,1016,1016,1016,1013,1010,1007,1004,1004,1004,1004,1004,1007,1007,1010,1013,1016,1016,1019,1022,1022,1022,1022,1022,1022,1392,1398,1398,1398,1404,1410,1404,1404,1404,1404,1404,1404,1398,1398,1398,1398,1398,1398,1398,1398,1398,1398,1398,1398,1398,1398,1398,1398,1392,1392,1392,1392,1398,1398,1398,1398,1398,1398,1398,1398,1398,1398,1398,1398,1392,1392,1392,1392,1392,1392,1392,1392,1392,1392,1392,1392,1392,1392,1392,1392,1387,1387,1387,1387,1387,1381,1381,1387,1387,1387,1387,1387,1387,1387,1387,1381,1381,1376,1376,1376,1376,1376,1376,1376,1376,1376,1376,1376,1376,1376,1376,1376,1376,1376,1376,1376,1376,1376,1376,1376,1376,1370,1370,1370,1370,1370,1370,1370,1370,1370,1370,1370,1370,1370,1370,1370,1370,1370,1365,1365,1365,1365,1365,1365,1365,1365,1365,1365,1359,1359,1354,1354,1354,1354,1354,1354,1354,1354,1354,1354,1354,1354,1354,1354,1349,1349,1349,1349,1343,1343,1338,1338,1338,1333,1333,1328,1328,1328,1328,1328,1322,1322,1322,1317,1312,1312,1312,1312,1307,1307,1307,1292,1292,1292,1288,1288,1288,1288,1283,1283,1278,1278,1278,1273,1273,1273,1268,1268,1268,1268,1264,1264,1259,1255,1250,1250,1245,1245,1241,1241,1236,1236,1236,1236,1232,1232,1232,1232,1227,1227,1223,1219,1219,1219,1214,1080,1073,1067,1067,1063,1060,1060,1057,1057,1054,1041,1038,1034,1028,1025,1025,1019,1016,1016,1013,1013,1007,1004,1004,1001,998,995,995,992,992,992,992,992,992,992,989,989,989,989,989,989,989,989,827,827,827,825,825,823,823,821,821,821,821,821,0,0,0,0,0,0,0,0,0,0,0,0,0,0,0,0,0,0,0,0,0,0,0,0,0,0,0,0,0,0,0,0,0,0,0,0,0
0,0,0,0,0,0,0,0,0,1509,1509,1509,1503,1503,1503,1503,1503,1509,1503,1503,1503,1503,1503,1503,1503,1496,1496,1496,1496,1496,1496,1496,1496,1496,1496,0,0,0,0,992,989,987,987,987,987,987,987,987,987,989,992,992,995,995,995,998,998,998,1001,1001,1001,1004,1007,1007,1010,1010,1483,1483,1483,1483,1483,1483,1483,1477,1477,1477,1477,0,0,0,0,0,0,0,0,0,0,0,767,767,766,764,762,761,759,755,752,750,749,747,746,744,744,703,703,703,703,703,693,688,688,687,687,688,688,688,690,690,691,693,693,694,694,696,697,698,700,701,703,704,704,704,706,707,713,714,716,717,717,719,719,720,722,723,725,727,728,728,728,730,731,733,734,736,736,738,738,741,742,744,744,746,747,747,749,749,749,750,752,752,752,755,757,757,759,759,1185,1193,1193,1193,1193,1193,1197,1197,1193,1193,1197,1197,1197,1197,1197,1202,1202,1202,1202,1202,1206,1206,1206,1210,1210,1210,1210,1214,1214,1214,1219,1219,1223,1223,1227,1227,1232,1232,1232,1232,1236,1236,1236,1241,1241,1439,1439,1433,1433,1427,1427,1278,1278,1278,1278,1278,1273,1273,1268,1268,1268,1268,1273,1278,1278,1283,1283,1283,1283,1283,1283,1283,1433,1433,1433,1433,1433,1433,1433,1433,1433,1433,1427,1427,1427,1433,1433,1433,1427,1427,1427,1427,1427,1427,1421,1421,1427,1427,1421,1421,1421,1421,1421,1415,1415,1415,1415,1415,1415,1421,1415,1415,1421,1415,1415,1415,1415,1415,1415,1415,1410,1410,1410,1410,1410,1410,1410,1022,1022,1019,1019,1022,1022,1019,1019,1016,1013,1013,1007,1004,1004,1004,1004,1004,1007,1007,1010,1013,1016,1019,1022,1022,1022,1022,1022,1022,1022,1392,1392,1392,1398,1404,1404,1398,1398,1398,1398,1398,1398,1398,1398,1398,1398,1398,1398,1398,1398,1398,1398,1392,1392,1392,1398,1392,1392,1392,1392,1392,1392,1392,1392,1392,1392,1392,1392,1392,1398,1398,1398,1398,1398,1392,1387,1387,1387,1387,1387,1387,1387,1387,1387,1387,1387,1387,1387,1387,1387,1387,1381,1381,1381,1381,1381,1381,1381,1381,1381,1381,1387,1381,1381,1381,1376,1376,1376,1376,1376,1370,1370,1370,1370,1376,1376,1370,1370,1376,1370,1370,1370,1370,1370,1376,1376,1376,1370,1370,1370,1370,1370,1370,1370,1370,1370,1370,1370,1370,1370,1365,1365,1365,1365,1365,1365,1365,1365,1359,1359,1359,1359,1359,1359,1359,1359,1359,1359,1354,1354,1354,1354,1354,1354,1349,1349,1349,1349,1349,1349,1349,1349,1349,1349,1349,1343,1343,1343,1343,1343,1338,1338,1333,1333,1333,1328,1328,1328,1328,1328,1328,1322,1322,1317,1312,1312,1312,1312,1312,1307,1307,1297,1292,1292,1288,1288,1288,1288,1283,1283,1283,1278,1278,1278,1273,1273,1268,1268,1268,1268,1268,1264,1259,1255,1255,1250,1250,1245,1245,1241,1241,1236,1236,1236,1236,1232,1232,1232,1232,1227,1223,1219,1219,1219,1219,1067,1067,1067,1063,1063,1060,1060,1057,1054,1044,1041,1038,1031,1028,1025,1019,1016,1016,1013,1013,1010,1007,1004,1004,1001,998,995,992,992,992,992,992,992,992,992,992,992,992,992,989,989,989,829,827,827,827,827,825,825,823,823,823,821,821,821,0,0,0,0,0,0,0,0,0,0,0,0,0,0,0,0,0,0,0,0,0,0,0,0,0,0,0,0,0,0,0,0,0,0,0,0,0
0,0,0,0,0,0,0,0,0,1496,1496,1496,1496,1496,1496,1496,1496,1503,1503,1503,1503,1503,1496,1496,1496,1496,1496,1496,1496,1496,1496,1496,1496,1489,1489,1489,0,0,0,0,989,987,987,987,987,987,987,987,989,989,992,992,992,995,995,998,998,998,1001,1001,1001,1004,1007,1010,1016,1016,1483,1483,1483,1483,1483,1483,1483,1477,1477,1477,1477,1477,1477,0,0,0,0,0,0,0,0,0,0,0,766,766,762,761,759,754,752,750,749,747,746,744,742,703,703,703,701,698,693,691,690,690,690,690,690,690,690,691,691,693,694,694,694,696,697,698,700,701,703,704,704,706,707,708,713,714,716,717,717,719,720,722,722,723,725,727,728,728,730,731,731,733,734,738,738,738,739,741,742,744,744,746,747,747,749,749,749,749,749,750,750,750,750,1181,1181,1181,0,1185,1185,1193,1193,1193,1193,1193,1193,1193,1193,1193,1193,1197,1197,1197,1202,1202,1202,1202,1206,1206,1206,1210,1210,1210,1210,1214,1214,1214,1219,1219,1223,1223,1227,1227,1232,1232,1232,1232,1236,1236,1433,1433,1433,1433,1433,1433,1433,1421,1421,1421,1283,1283,1283,1278,1278,1278,1273,1273,1273,1278,1278,1278,1283,1283,1283,1283,1283,1283,1283,1283,1427,1427,1427,1427,1427,1427,1427,1427,1427,1421,1421,1421,1421,1427,1427,1421,1421,1421,1421,1421,1421,1421,1421,1421,1421,1421,1421,1421,1415,1415,1415,1415,1415,1415,1415,1415,1415,1415,1415,1410,1410,1410,1410,1410,1410,1410,1410,1410,1410,1410,1410,1410,1410,1410,1410,1019,1019,1019,1019,1022,1022,1022,1019,1016,1016,1013,1010,1007,1007,1007,1007,1007,1007,1010,1013,1016,1016,1019,1022,1022,1022,1022,1022,1022,0,1392,1392,1392,1398,1398,1398,1398,1398,1398,1398,1392,1392,1392,1392,1392,1392,1392,1392,1392,1392,1392,1392,1392,1392,1392,1392,1392,1392,1392,1392,1392,1392,1387,1387,1387,1387,1387,1387,1392,1392,1392,1392,1392,1392,1387,1387,1387,1387,1387,1387,1381,1381,1381,1381,1381,1381,1381,1381,1381,1376,1376,1376,1376,1376,1376,1376,1376,1376,1376,1376,1381,1381,1381,1381,1376,1376,1370,1370,1370,1370,1370,1370,1370,1370,1370,1370,1370,1370,1370,1370,1370,1365,1365,1359,1359,1365,1370,1370,1370,1370,1370,1370,1365,1365,1365,1365,1365,1365,1365,1365,1359,1359,1359,1359,1359,1359,1359,1359,1354,1354,1354,1354,1354,1354,1354,1354,1354,1354,1354,1349,1349,1349,1349,1349,1343,1343,1343,1343,1343,1343,1343,1343,1343,1343,1343,1343,1343,1343,1333,1333,1333,1333,1333,1333,1333,1328,1328,1328,1328,1328,1328,1322,1322,1317,1317,1312,1312,1312,1312,1307,1307,1297,1292,1292,1292,1288,1288,1288,1283,1283,1283,1283,1278,1278,1273,1273,1273,1273,1268,1268,1268,1264,1259,1255,1255,1250,1250,1250,1245,1245,1241,1241,1236,1236,1236,1232,1232,1232,1232,1227,1223,1223,1223,1219,1070,1067,1063,1063,1063,1060,1060,1057,1054,1054,1041,1038,1034,1031,1025,1022,1016,1016,1016,1013,1013,1007,1004,1004,1004,1001,998,995,992,992,992,992,989,989,989,992,992,992,992,992,989,831,831,829,827,827,827,827,827,825,825,823,823,823,821,821,0,0,0,0,0,0,0,0,0,0,0,0,0,0,0,0,0,0,0,0,0,0,0,0,0,0,0,0,0,0,0,0,0,0,0,0,0
0,0,0,0,0,0,0,0,0,1496,1496,1489,1489,1489,1489,1496,1496,1496,1496,1496,1496,1496,1496,1496,1489,1489,1489,1489,1489,1489,1496,1489,1489,1489,1489,1489,0,0,0,0,992,989,989,989,989,989,987,987,989,989,992,992,992,995,995,998,998,998,1001,1004,1004,1007,1010,1010,1013,1013,1483,1483,1483,1483,1483,1483,1477,1477,1470,1470,1470,1464,1464,0,0,0,0,0,0,0,0,0,0,0,766,766,762,761,759,754,752,750,749,747,746,744,742,703,703,703,701,698,696,693,691,690,690,690,690,690,691,691,693,693,694,694,696,697,697,698,700,701,703,704,704,706,707,708,713,714,716,717,717,719,720,722,722,723,727,728,728,728,730,731,731,733,734,738,738,738,739,741,742,744,744,746,747,747,747,747,747,747,747,750,750,750,1181,1181,1181,1181,1181,1181,1185,1185,1185,1189,1189,1189,1189,1189,1189,1193,1193,1193,1197,1197,1197,1197,1197,1202,1206,1206,1206,1206,1210,1210,1210,1214,1214,1214,1219,1219,1223,1223,1227,1227,1227,1232,1232,1415,1415,1421,1427,1427,1427,1433,1433,1433,1427,1421,1421,1421,1288,1283,1283,1283,1278,1278,1273,1273,1278,1278,1278,1278,1283,1283,1283,1283,1283,1283,1283,1283,1421,1421,1421,1427,1427,1421,1421,1421,1421,1421,1421,1421,1421,1421,1421,1421,1415,1415,1415,1415,1415,1415,1415,1415,1415,1415,1415,1415,1415,1415,1415,1415,1410,1410,1410,1410,1410,1410,1404,1404,1404,1404,1410,1410,1410,1410,1410,1410,1404,1404,1404,1404,1404,1404,1404,1019,1019,1016,1016,1022,1022,1022,1022,1019,1016,1013,1010,1010,1007,1007,1007,1007,1010,1010,1013,1016,1019,1019,1022,1025,1025,1022,1022,1022,0,1392,1392,1392,1398,1398,1398,1392,1392,1392,1392,1392,1392,1392,1392,1392,1392,1392,1387,1387,1387,1387,1387,1387,1387,1387,1387,1387,1387,1387,1387,1387,1387,1381,1381,1381,1381,1381,1381,1376,1376,1381,1392,1387,1387,1381,1381,1381,1381,1381,1381,1381,1381,1381,1381,1376,1376,1376,1376,1376,1376,1376,1376,1376,1376,1376,1376,1376,1376,1376,1376,1376,1376,1376,1376,1376,1370,1370,1370,1365,1365,1365,1365,1365,1365,1365,1365,1365,1365,1365,1365,1365,1365,1359,1354,1354,1359,1354,1354,1359,1365,1365,1365,1359,1359,1359,1359,1359,1359,1359,1359,1354,1354,1354,1354,1354,1354,1354,1354,1349,1349,1349,1349,1349,1349,1349,1349,1349,1349,1349,1349,1343,1343,1343,1343,1338,1338,1338,1338,1338,1343,1338,1338,1338,1343,1338,1338,1338,1338,1333,1333,1333,1333,1333,1333,1333,1328,1328,1328,1328,1328,1328,1322,1322,1317,1317,1312,1312,1312,1307,1307,1302,1302,1292,1292,1292,1292,1288,1288,1288,1283,1283,1283,1283,1278,1273,1273,1273,1273,1268,1268,1268,1264,1259,1255,1255,1250,1250,1250,1245,1245,1241,1241,1236,1236,1236,1236,1232,1232,1232,1232,1227,1223,1073,1070,1070,1067,1063,1063,1063,1060,1057,1057,1054,1050,1041,1038,1034,1028,1025,1019,1016,1016,1016,1013,1010,1007,1004,1001,1001,1001,995,992,992,992,992,989,989,989,989,989,989,835,837,837,835,831,831,829,829,829,829,829,827,827,827,825,825,825,823,823,0,0,0,0,0,0,0,0,0,0,0,0,0,0,0,0,0,0,0,0,0,0,0,0,0,0,0,0,0,0,0,0,0,0,0,0,0
0,0,0,0,0,0,0,0,0,1489,1489,1489,1489,1489,1489,1489,1489,1496,1489,1489,1496,1496,1489,1489,1489,1489,1489,1489,1489,1489,1489,1489,1483,1483,1489,0,0,0,0,0,992,992,992,989,989,989,989,989,989,992,992,992,992,995,995,998,998,1001,1001,1004,1004,1007,1010,1010,1013,1013,1013,1483,1483,1477,1477,1477,1470,1470,1470,1464,1464,1464,1464,1464,1464,0,0,0,0,0,0,0,0,0,0,766,766,761,759,755,754,750,749,747,746,744,742,703,703,703,701,700,697,696,693,691,690,690,690,691,691,691,693,693,694,694,696,697,697,700,701,703,703,704,704,706,707,708,711,714,716,717,717,719,720,722,723,725,727,728,728,730,731,731,733,734,736,738,738,739,739,741,742,744,744,746,747,747,747,747,747,747,747,747,747,1177,1181,1181,1181,1181,1181,1181,1181,1185,1185,1185,1185,1185,1185,1185,1185,1189,1193,1193,1197,1197,1197,1197,1197,1202,1202,1206,1206,1206,1210,1210,1210,1214,1214,1214,1219,1219,1223,1223,1227,1227,1227,1415,1415,1415,1415,1421,1421,1427,1427,1427,1427,1427,1421,1421,1421,1415,1288,1283,1283,1283,1283,1278,1278,1278,1278,1278,1278,1278,1283,1283,1283,1283,1283,1288,1288,1288,1421,1421,1421,1415,1415,1415,1415,1421,1421,1421,1421,1421,1421,1415,1415,1415,1415,1415,1415,1415,1415,1410,1410,1410,1410,1410,1410,1410,1410,1410,1410,1410,1410,1410,1404,1404,1404,1398,1398,1398,1398,1398,1404,1404,1404,1404,1404,1404,1404,1404,1398,1398,1398,1398,1404,1404,1016,1016,1016,1022,1022,1022,1022,1019,1016,1016,1013,1010,1010,1010,1010,1010,1010,1013,1016,1016,1019,1022,1025,1025,1025,1022,1022,1022,1025,1392,1392,1392,1392,1392,1392,1387,1387,1387,1387,1387,1387,1387,1387,1387,1387,1387,1387,1387,1387,1387,1381,1381,1381,1381,1381,1381,1381,1381,1381,1381,1381,1376,1376,1376,1376,1376,1376,1376,1376,1376,1376,1376,1376,1376,1376,1376,1376,1376,1376,1376,1376,1376,1376,1376,1370,1370,1370,1370,1370,1370,1370,1370,1370,1370,1370,1370,1370,1370,1370,1370,1370,1370,1370,1370,1365,1365,1365,1365,1365,1359,1359,1359,1359,1359,1359,1359,1359,1359,1359,1359,1359,1354,1354,1354,1354,1349,1349,1354,1354,1349,1349,1354,1354,1354,1354,1354,1354,1354,1354,1354,1354,1354,1354,1354,1354,1349,1349,1349,1343,1343,1343,1343,1343,1343,1343,1349,1349,1343,1343,1338,1338,1338,1338,1333,1333,1333,1333,1333,1338,1338,1338,1338,1338,1333,1333,1333,1333,1333,1333,1333,1333,1328,1328,1328,1328,1328,1328,1328,1328,1328,1322,1317,1317,1317,1312,1312,1312,1307,1307,1302,1302,1297,1297,1292,1292,1292,1288,1288,1288,1283,1283,1278,1278,1273,1273,1273,1273,1268,1268,1268,1264,1259,1255,1255,1255,1250,1250,1250,1250,1245,1241,1236,1236,1236,1236,1232,1232,1232,1232,1227,1070,1070,1067,1067,1067,1063,1063,1063,1060,1057,1054,1050,1050,1038,1034,1034,1025,1022,1019,1016,1013,1013,1010,1010,1004,1004,1001,1001,1001,995,992,992,992,992,989,989,989,989,989,835,835,835,835,835,833,833,831,831,831,829,829,829,827,827,827,827,825,825,825,0,0,0,0,0,0,0,0,0,0,0,0,0,0,0,0,0,0,0,0,0,0,0,0,0,0,0,0,0,0,0,0,0,0,0,0,0
0,0,0,0,0,0,0,0,0,1489,1489,1489,1489,1489,1489,1489,1489,1489,1489,1489,1489,1483,1483,1483,1483,1483,1483,1483,1483,1483,1489,1483,1477,1477,1477,0,0,0,0,0,992,992,992,992,989,989,989,989,992,992,992,992,992,995,995,998,998,1001,1001,1004,1007,1010,1010,1010,1013,1013,1013,1483,1483,1470,1470,1470,1464,1464,1464,1464,1458,1458,1458,1452,1452,0,0,0,0,0,0,0,0,0,0,0,0,0,0,755,754,750,749,747,746,746,744,703,703,703,701,700,698,697,696,693,691,691,691,691,691,693,693,693,694,694,694,697,697,700,701,703,704,704,706,706,707,708,711,713,716,717,717,719,720,722,723,725,727,728,728,730,730,731,733,734,738,738,738,739,739,741,742,744,744,746,747,747,747,747,747,747,1173,1177,1177,1177,1177,1177,1177,1177,1177,1177,1177,1181,1181,1181,1185,1185,1185,1185,1185,1189,1193,1193,1197,1197,1197,1197,1197,1202,1202,1206,1206,1206,1210,1210,1210,1214,1214,1214,1219,1219,1219,1223,1227,1227,1415,1415,1415,1415,1415,1421,1421,1421,1421,1421,1421,1421,1421,1415,1415,1415,1415,1288,1283,1283,1283,1283,1278,1278,1278,1278,1278,1278,1283,1283,1283,1283,1283,1288,1288,1288,1288,1415,1415,1410,1410,1410,1410,1415,1410,1410,1415,1415,1415,1415,1415,1415,1410,1410,1410,1410,1410,1410,1410,1410,1410,1410,1410,1404,1404,1404,1410,1404,1404,1404,1404,1398,1398,1398,1392,1392,1392,1392,1398,1398,1398,1398,1398,1398,1398,1398,1392,1392,1392,1398,1392,1392,1392,1025,1025,1025,1025,1025,1022,1019,1016,1016,1013,1013,1010,1010,1010,1010,1013,1013,1016,1019,1019,1022,1025,1025,1025,1025,1025,1025,1025,1392,1392,1392,1392,1392,1387,1387,1381,1381,1381,1381,1381,1381,1381,1381,1381,1381,1381,1381,1381,1381,1376,1376,1376,1376,1376,1376,1376,1376,1376,1376,1376,1376,1376,1376,1376,1376,1376,1370,1370,1370,1370,1370,1370,1370,1370,1370,1370,1370,1370,1370,1370,1370,1370,1370,1370,1370,1370,1370,1370,1370,1365,1365,1370,1370,1370,1370,1370,1365,1365,1365,1365,1359,1359,1365,1359,1359,1359,1359,1359,1359,1359,1359,1359,1354,1354,1359,1354,1354,1354,1354,1354,1354,1349,1349,1349,1349,1349,1349,1349,1349,1349,1349,1349,1349,1349,1354,1354,1354,1349,1349,1349,1349,1349,1349,1349,1343,1343,1338,1338,1338,1338,1338,1338,1338,1343,1343,1343,1343,1338,1333,1333,1333,1333,1333,1333,1333,1333,1333,1333,1333,1333,1333,1333,1333,1333,1328,1328,1328,1328,1328,1328,1328,1328,1328,1328,1328,1328,1328,1328,1328,1322,1317,1317,1317,1312,1312,1307,1307,1307,1307,1307,1302,1297,1292,1292,1292,1288,1288,1288,1288,1283,1278,1278,1273,1273,1273,1273,1268,1268,1268,1264,1259,1255,1255,1255,1250,1250,1250,1250,1245,1245,1236,1236,1236,1236,1232,1232,1232,1232,1067,1067,1067,1067,1067,1067,1063,1063,1060,1060,1057,1054,1050,1041,1038,1034,1031,1025,1016,1016,1016,1013,1010,1010,1007,1004,1001,1001,1001,1001,998,995,995,992,992,989,989,989,992,992,835,835,835,835,835,835,835,835,833,833,831,831,831,829,829,829,829,827,825,825,0,0,0,0,0,0,0,0,0,0,0,0,0,0,0,0,0,0,0,0,0,0,0,0,0,0,0,0,0,0,0,0,0,0,0,0,0
0,0,0,0,0,0,0,0,0,1489,1489,1489,1489,1489,1489,1483,1483,1489,1483,1483,1483,1483,1483,1483,1483,1483,1483,1483,1483,1483,1483,1483,1477,1470,1470,1470,0,0,0,0,995,992,992,992,992,992,989,989,992,992,992,992,992,995,998,998,1001,1001,1004,1004,1007,1010,1010,1013,1013,1013,1013,1464,1464,1464,1464,1464,1464,1458,1458,1458,1458,1458,1452,1452,1445,1445,0,0,0,0,0,0,0,0,0,0,0,0,0,0,754,752,749,747,746,744,744,744,703,701,700,700,698,698,697,694,693,691,691,691,691,693,693,694,694,694,694,696,697,700,701,703,704,706,706,706,707,708,710,713,714,717,717,719,720,722,725,727,728,728,728,730,730,731,733,734,738,738,738,739,739,741,742,744,746,747,747,749,749,749,1173,1173,1173,1177,1177,1173,1173,1173,1177,1177,1177,1177,1177,1181,1181,1181,1185,1185,1185,1185,1185,1189,1193,1193,1197,1197,1197,1197,1202,1202,1202,1206,1206,1210,1210,1210,1210,1214,1214,1214,1219,1219,1219,1223,1227,1227,1415,1415,1415,1415,1415,1421,1421,1421,1415,1415,1415,1415,1415,1415,1410,1410,1410,1288,1283,1283,1283,1283,1283,1283,1283,1283,1283,1283,1283,1283,1283,1288,1288,1288,1288,1288,1288,1410,1404,1404,1410,1410,1410,1410,1404,1404,1410,1404,1404,1410,1410,1410,1410,1404,1404,1404,1404,1404,1404,1404,1404,1404,1404,1404,1398,1398,1404,1404,1404,1398,1398,1398,1398,1392,1392,1392,1392,1392,1392,1392,1392,1392,1392,1392,1392,1392,1392,1392,1392,1392,1387,1387,1392,1025,1025,1025,1025,1025,1022,1022,1019,1016,1016,1013,1013,1013,1013,1013,1013,1013,1016,1016,1019,1022,1025,1025,1025,1025,1025,1025,1025,1392,1392,1392,1392,1387,1381,1381,1381,1381,1381,1381,1381,1376,1376,1376,1376,1376,1376,1376,1376,1376,1376,1376,1370,1370,1370,1370,1370,1370,1376,1370,1370,1370,1370,1370,1370,1370,1370,1370,1370,1370,1370,1370,1365,1365,1365,1365,1365,1365,1365,1365,1370,1370,1370,1370,1365,1365,1365,1365,1365,1365,1359,1359,1365,1365,1365,1365,1359,1359,1359,1359,1354,1354,1359,1359,1354,1354,1354,1354,1354,1354,1354,1354,1354,1354,1354,1354,1354,1354,1349,1349,1354,1349,1349,1349,1349,1343,1343,1343,1343,1343,1349,1343,1343,1343,1343,1343,1343,1349,1349,1349,1343,1343,1349,1343,1343,1338,1338,1338,1338,1333,1333,1338,1338,1338,1338,1338,1338,1338,1338,1333,1333,1333,1333,1333,1333,1333,1328,1328,1333,1333,1333,1328,1328,1328,1328,1322,1322,1322,1322,1328,1328,1328,1322,1322,1322,1322,1322,1322,1322,1322,1317,1317,1317,1317,1312,1312,1307,1307,1307,1307,1307,1307,1302,1297,1292,1292,1288,1288,1288,1288,1283,1283,1278,1273,1273,1273,1273,1273,1268,1268,1264,1259,1255,1255,1255,1255,1250,1250,1250,1245,1245,1241,1236,1236,1236,1232,1232,1232,1232,1067,1067,1067,1063,1063,1063,1063,1060,1060,1057,1054,1054,1044,1041,1034,1031,1025,1022,1016,1016,1016,1013,1010,1007,1004,1004,1001,1001,1001,1001,998,995,995,995,992,989,989,992,992,837,837,837,837,837,837,835,835,835,835,833,833,833,831,831,831,829,829,829,827,827,0,0,0,0,0,0,0,0,0,0,0,0,0,0,0,0,0,0,0,0,0,0,0,0,0,0,0,0,0,0,0,0,0,0,0,0,0
0,0,0,0,0,0,0,0,0,1489,1489,1483,1483,1483,1483,1483,1483,1477,1477,1477,1477,1477,1477,1477,1470,1470,1477,1477,1477,1477,1477,1470,1464,1464,1464,1464,0,0,0,0,0,995,995,992,992,992,992,992,992,992,992,992,995,995,998,1001,1001,1004,1004,1004,1007,1010,1010,1013,1013,1013,1013,0,1458,1458,1458,1458,1458,1458,1458,1458,1458,1452,1452,1445,1445,1439,1433,1433,0,0,0,0,0,0,0,0,0,0,0,0,0,0,749,747,746,744,744,744,703,701,700,700,698,698,697,696,693,693,693,693,693,693,693,694,694,694,694,696,697,704,704,704,704,706,707,707,708,708,710,711,714,717,717,720,722,723,725,727,728,728,728,730,730,731,733,734,736,738,738,739,739,741,742,744,746,746,746,1169,1169,1169,1169,1169,1169,1169,1169,1173,1173,1173,1173,1173,1177,1177,1177,1181,1181,1181,1181,1185,1185,1185,1185,1189,1193,1193,1197,1197,1197,1197,1202,1202,1206,1206,1206,1210,1210,1210,1210,1210,1214,1214,1219,1223,1223,1410,1410,1410,1410,1410,1410,1410,1410,1415,1415,1415,1415,1415,1415,1410,1410,1410,1410,1404,1404,1404,1283,1283,1283,1283,1283,1283,1283,1283,1283,1283,1283,1283,1288,1288,1288,1288,1288,1288,1288,1410,1404,1404,1404,1404,1404,1404,1398,1398,1398,1398,1398,1404,1398,1398,1404,1404,1404,1404,1398,1398,1398,1398,1398,1398,1398,1398,1398,1398,1398,1398,1398,1398,1392,1392,1392,1387,1387,1387,1387,1387,1387,1387,1387,1387,1387,1387,1387,1387,1387,1387,1387,1381,1381,1387,1392,1025,1025,1025,1025,1025,1022,1022,1022,1019,1016,1016,1013,1013,1013,1013,1013,1013,1016,1016,1019,1022,1025,1025,1025,1028,1028,1028,1028,1381,1381,1381,1381,1376,1376,1376,1376,1376,1376,1376,1376,1376,1376,1376,1376,1376,1376,1376,1376,1370,1370,1370,1370,1370,1370,1370,1370,1370,1370,1370,1370,1370,1370,1370,1370,1370,1370,1370,1365,1365,1365,1365,1359,1359,1359,1359,1359,1359,1359,1359,1359,1359,1359,1359,1359,1359,1359,1359,1359,1359,1359,1359,1359,1359,1354,1354,1354,1354,1354,1354,1354,1354,1354,1354,1354,1354,1354,1354,1354,1354,1354,1349,1349,1349,1349,1349,1349,1349,1349,1349,1349,1349,1349,1349,1349,1343,1343,1343,1343,1343,1343,1343,1343,1343,1343,1343,1338,1338,1338,1338,1338,1338,1343,1338,1338,1333,1333,1333,1333,1333,1333,1333,1333,1338,1338,1338,1338,1333,1333,1333,1333,1333,1328,1328,1328,1328,1328,1328,1328,1328,1328,1328,1328,1322,1322,1322,1322,1322,1322,1322,1322,1328,1317,1317,1317,1317,1322,1322,1317,1317,1317,1312,1312,1312,1312,1312,1307,1307,1307,1307,1307,1307,1302,1302,1292,1292,1288,1288,1288,1288,1283,1283,1278,1278,1278,1273,1273,1273,1268,1268,1264,1259,1255,1255,1255,1255,1250,1250,1250,1250,1245,1241,1236,1236,1236,1232,1232,1232,1232,1070,1070,1067,1063,1063,1063,1060,1060,1057,1057,1054,1050,1041,1028,1025,1022,1019,1016,1016,1013,1013,1010,1007,1004,1004,1001,1001,1001,1001,998,998,998,998,995,992,989,989,989,839,839,837,837,837,837,837,837,837,837,835,835,835,835,833,833,831,831,831,829,829,829,0,0,0,0,0,0,0,0,0,0,0,0,0,0,0,0,0,0,0,0,0,0,0,0,0,0,0,0,0,0,0,0,0,0,0,0,0
0,0,0,0,0,0,0,0,0,1483,1483,1483,1477,1477,1477,1477,1470,1470,1464,1464,1464,1464,1464,1464,1464,1464,1464,1464,1464,1464,1464,1464,1458,1458,1458,1452,1452,0,0,0,0,995,995,998,995,992,992,992,992,992,992,992,995,995,998,1001,1001,1004,1004,1004,1007,1007,1010,1013,1013,1013,1013,0,1452,1452,1452,1458,1458,1458,1458,1458,1458,1452,1452,1445,1445,1439,1433,1433,1439,0,0,0,0,0,0,0,0,0,0,0,0,0,0,746,746,744,744,744,742,701,700,700,698,698,697,696,694,693,693,693,693,693,693,694,694,694,694,697,703,704,704,704,706,707,707,708,708,708,710,711,713,717,717,720,722,723,727,727,728,728,728,730,730,731,733,734,736,738,739,739,741,742,742,744,744,744,0,1165,1169,1169,1169,1169,1169,1169,1169,1169,1169,1169,1169,1173,1173,1173,1177,1181,1181,1181,1181,1185,1185,1185,1185,1189,1193,1197,1197,1197,1202,1202,1202,1202,1206,1206,1206,1210,1210,1210,1210,1210,1214,1214,1219,1410,1410,1410,1404,1404,1404,1404,1404,1404,1404,1410,1410,1410,1410,1410,1410,1410,1410,1404,1404,1398,1398,1398,1283,1283,1283,1283,1283,1283,1283,1283,1283,1283,1283,1283,1288,1288,1288,1288,1288,1288,1288,1410,1398,1398,1398,1398,1398,1398,1392,1392,1392,1392,1392,1398,1392,1392,1398,1398,1398,1398,1392,1392,1392,1392,1392,1392,1392,1392,1392,1392,1392,1392,1392,1392,1392,1392,1387,1387,1387,1387,1387,1387,1387,1387,1387,1387,1387,1387,1387,1387,1381,1381,1381,1381,1381,1387,1387,1387,1025,1025,1025,1025,1022,1022,1022,1019,1016,1016,1013,1013,1013,1013,1013,1013,1016,1016,1019,1022,1025,1028,1028,1028,1028,1031,1031,1381,1381,1376,1376,1376,1370,1370,1370,1370,1370,1376,1376,1376,1376,1376,1370,1370,1370,1370,1370,1370,1365,1365,1365,1365,1365,1359,1359,1359,1359,1359,1359,1365,1365,1365,1365,1365,1365,1365,1365,1365,1365,1359,1359,1359,1359,1359,1359,1354,1354,1354,1354,1354,1354,1354,1354,1354,1359,1359,1359,1359,1354,1354,1354,1354,1354,1354,1354,1354,1354,1354,1354,1354,1354,1354,1349,1349,1349,1349,1349,1349,1349,1349,1349,1349,1349,1343,1343,1343,1343,1343,1343,1343,1343,1343,1343,1338,1338,1338,1338,1338,1338,1338,1338,1338,1338,1338,1333,1333,1333,1333,1333,1333,1333,1333,1333,1333,1333,1333,1333,1333,1333,1333,1333,1333,1333,1333,1333,1328,1328,1328,1328,1328,1328,1328,1328,1328,1328,1328,1328,1328,1322,1322,1322,1322,1322,1317,1317,1317,1312,1312,1317,1312,1312,1312,1312,1312,1312,1312,1312,1312,1312,1312,1312,1307,1307,1307,1302,1302,1307,1302,1302,1302,1302,1302,1292,1292,1288,1288,1288,1288,1288,1283,1283,1278,1278,1278,1273,1273,1268,1268,1264,1259,1259,1255,1255,1255,1255,1250,1250,1250,1245,1241,1236,1236,1236,1232,1232,1232,1232,1070,1070,1067,1063,1063,1063,1060,1057,1054,1054,1050,1047,1028,1025,1025,1022,1019,1016,1016,1013,1013,1007,1007,1004,1001,1001,1001,1001,998,998,998,998,998,995,992,989,989,843,843,839,837,837,837,837,837,837,837,837,837,837,835,835,835,833,833,831,831,831,829,829,0,0,0,0,0,0,0,0,0,0,0,0,0,0,0,0,0,0,0,0,0,0,0,0,0,0,0,0,0,0,0,0,0,0,0,0,0
0,0,0,0,0,0,0,0,0,1483,1483,1477,1477,1470,1470,1470,1470,1464,1464,1464,1464,1464,1464,1458,1458,1458,1458,1458,1458,1458,1458,1458,1452,1452,1452,1452,1452,0,0,0,0,998,998,995,995,992,992,992,992,992,992,992,995,995,998,998,1001,1001,1004,1004,1007,1007,1010,1013,1013,1013,1016,1016,1452,1452,1452,1452,1452,1452,1452,1452,1452,1452,1445,1445,1439,1439,1439,1439,1439,1439,0,0,0,0,0,0,0,0,0,0,0,0,0,746,746,744,744,744,744,703,703,701,700,698,697,696,694,694,693,693,693,693,693,694,696,696,697,698,703,704,704,704,707,707,707,708,708,708,710,711,713,716,717,720,722,723,727,727,728,728,728,730,730,731,734,736,736,738,739,741,741,742,744,744,744,0,0,1165,1165,1165,1165,1165,1165,1165,1165,1165,1165,1169,1169,1173,1173,1173,1173,1181,1181,1181,1181,1185,1185,1185,1189,1193,1193,1197,1197,1197,1202,1202,1206,1206,1206,1206,1210,1210,1210,1210,1210,1210,1214,1404,1404,1410,1410,1404,1404,1404,1404,1404,1398,1398,1398,1404,1404,1410,1410,1410,1404,1404,1404,1404,1398,1398,1392,1392,1278,1278,1283,1288,1283,1283,1283,1283,1283,1283,1283,1283,1288,1288,1288,1292,1288,1288,1292,1404,1398,1398,1398,1398,1398,1392,1392,1392,1392,1387,1387,1387,1387,1387,1387,1392,1392,1392,1392,1392,1392,1392,1392,1392,1392,1392,1392,1387,1387,1387,1387,1387,1387,1387,1387,1387,1387,1381,1381,1381,1381,1381,1381,1381,1381,1381,1381,1381,1376,1376,1376,1376,1376,1376,1387,1387,0,1025,1025,1025,1022,1022,1022,1022,1019,1016,1016,1013,1013,1013,1016,1016,1016,1019,1019,1022,1025,1028,1028,1028,1031,1034,1038,1381,1381,1376,1370,1370,1370,1370,1370,1370,1370,1370,1370,1370,1370,1370,1370,1370,1370,1365,1365,1365,1359,1359,1359,1359,1359,1359,1359,1359,1359,1359,1359,1359,1359,1359,1359,1359,1359,1359,1359,1359,1354,1354,1354,1354,1354,1354,1354,1349,1349,1349,1349,1349,1354,1354,1354,1354,1354,1354,1354,1354,1354,1354,1354,1349,1349,1349,1349,1349,1349,1354,1349,1349,1349,1349,1349,1349,1343,1343,1343,1343,1343,1343,1343,1343,1343,1343,1338,1338,1338,1338,1338,1338,1338,1338,1338,1338,1338,1338,1338,1338,1338,1338,1333,1333,1333,1333,1333,1333,1333,1333,1333,1333,1328,1328,1328,1328,1328,1328,1328,1328,1328,1328,1328,1333,1328,1328,1328,1328,1328,1328,1322,1322,1328,1322,1322,1322,1322,1322,1322,1322,1317,1317,1317,1317,1317,1312,1312,1312,1312,1312,1312,1307,1307,1307,1307,1312,1312,1312,1312,1312,1312,1312,1307,1307,1302,1302,1302,1302,1302,1302,1302,1302,1302,1292,1292,1292,1292,1288,1288,1288,1288,1283,1283,1278,1278,1278,1273,1273,1268,1268,1264,1264,1259,1255,1255,1255,1255,1250,1250,1250,1250,1245,1241,1236,1236,1232,1232,1232,1232,1070,1070,1067,1063,1063,1063,1057,1054,1047,1044,1041,1041,1028,1025,1022,1019,1019,1016,1016,1013,1013,1007,1007,1004,1001,1001,1001,1001,998,998,998,995,995,995,995,841,841,841,841,839,839,839,839,839,839,837,837,837,837,837,837,837,835,835,835,833,833,831,831,831,0,0,0,0,0,0,0,0,0,0,0,0,0,0,0,0,0,0,0,0,0,0,0,0,0,0,0,0,0,0,0,0,0,0,0,0,0
0,0,0,0,0,0,0,0,0,1477,1477,1470,1470,1464,1464,1464,1464,1464,1464,1464,1464,1464,1458,1458,1458,1458,1452,1452,1458,1458,1458,1458,1452,1452,1452,1445,1445,0,0,0,998,0,998,995,995,992,992,992,992,992,992,992,995,995,998,998,1001,1001,1004,1004,1007,1010,1013,1013,1013,1013,1016,1016,0,1452,1452,1452,1452,1452,1452,1445,1445,1445,1439,1439,1439,1439,1433,1433,1433,1433,1433,0,0,0,0,0,0,0,0,0,0,0,0,0,746,746,746,746,744,704,703,703,701,700,697,696,694,694,693,693,694,694,694,696,696,697,698,700,701,703,704,704,707,707,707,708,708,710,710,711,711,716,717,719,720,723,727,727,728,728,728,730,730,730,734,736,736,739,739,741,741,742,742,742,0,1165,1165,1165,1165,1165,1165,1165,1165,1165,1165,1165,1165,1169,1169,1169,1173,1173,1173,1181,1181,1181,1181,1185,1185,1189,1189,1193,1193,1197,1197,1197,1202,1202,1206,1206,1206,1210,1210,1210,1210,1210,1398,1398,1398,1398,1398,1398,1404,1398,1398,1404,1398,1398,1398,1392,1392,1398,1398,1398,1404,1404,1398,1398,1398,1398,1398,1392,1392,1392,1273,1273,1283,1288,1288,1283,1283,1283,1283,1283,1283,1283,1288,1288,1288,1292,1288,1288,1292,1292,1392,1392,1392,1392,1392,1387,1387,1387,1387,1387,1387,1381,1381,1381,1387,1387,1387,1387,1387,1387,1387,1387,1387,1387,1387,1387,1387,1387,1387,1387,1387,1387,1387,1387,1387,1381,1381,1381,1381,1381,1381,1376,1376,1376,1376,1376,1376,1376,1370,1370,1370,1370,1370,1365,1365,1365,1365,1025,1025,1025,1025,1025,1025,1022,1019,1019,1016,1016,1016,1016,1016,1016,1016,1019,1019,1022,1025,1028,1028,1031,1034,1038,1038,1038,1365,1365,1365,1370,1370,1365,1365,1365,1365,1365,1370,1370,1365,1365,1370,1365,1365,1365,1359,1359,1354,1354,1354,1354,1354,1354,1354,1354,1354,1354,1354,1354,1354,1354,1354,1354,1354,1354,1354,1354,1354,1354,1354,1354,1354,1354,1349,1349,1349,1349,1349,1349,1349,1349,1349,1354,1349,1349,1349,1349,1349,1349,1349,1349,1349,1349,1349,1349,1349,1349,1349,1349,1343,1343,1343,1343,1343,1343,1343,1338,1338,1343,1343,1338,1338,1338,1338,1338,1333,1333,1333,1333,1333,1333,1333,1333,1333,1333,1333,1333,1333,1333,1333,1333,1333,1333,1333,1333,1333,1328,1328,1328,1328,1322,1322,1322,1322,1322,1322,1328,1328,1328,1328,1328,1322,1322,1322,1322,1322,1322,1322,1322,1322,1317,1317,1317,1317,1317,1317,1312,1312,1312,1312,1312,1312,1312,1307,1307,1307,1307,1307,1307,1307,1307,1307,1312,1312,1312,1312,1312,1307,1307,1307,1307,1302,1302,1302,1302,1302,1302,1302,1297,1297,1292,1292,1292,1292,1288,1288,1288,1288,1283,1283,1278,1278,1278,1273,1273,1273,1268,1264,1264,1264,1255,1255,1255,1255,1255,1250,1250,1250,1245,1241,1241,1236,1236,1232,1232,1227,1073,1070,1067,1067,1063,1060,1057,1050,1044,1041,1038,1038,1028,1025,1022,1019,1019,1016,1016,1013,1013,1007,1007,1001,1001,1001,1001,1001,998,998,0,0,998,841,0,841,841,841,841,839,839,839,839,839,839,837,837,837,837,837,837,837,835,835,835,835,835,833,831,831,0,0,0,0,0,0,0,0,0,0,0,0,0,0,0,0,0,0,0,0,0,0,0,0,0,0,0,0,0,0,0,0,0,0,0,0,0
0,0,0,0,0,0,0,0,0,1477,1470,1470,1464,1464,1464,1464,1464,1464,1458,1458,1458,1458,1458,1458,1458,1458,1452,1452,1452,1452,1452,1452,1445,1445,1452,1445,1445,0,0,0,0,0,0,998,995,992,992,992,992,992,992,992,995,998,998,1001,1001,1004,1004,1004,1007,1010,1013,1013,1013,1013,1016,1016,0,1452,1452,1445,1445,1445,1445,1445,1445,1439,1439,1439,1433,1433,1433,1433,1433,1427,1427,1433,0,0,0,0,0,0,0,0,0,0,0,0,0,746,746,746,747,704,704,703,703,700,697,696,694,694,694,694,694,694,694,696,697,697,698,700,701,703,704,704,707,707,707,708,708,710,710,711,711,717,717,719,720,725,727,727,728,728,728,728,728,730,733,734,734,739,739,741,742,744,744,0,1165,0,1165,1165,1161,1161,1161,1165,1165,1165,1165,1165,1165,1165,1169,1169,1173,1173,1173,1181,1181,1181,1185,1185,1189,1189,1193,1193,1197,1197,1197,1197,1202,1206,1206,1210,1210,1210,1210,1398,1398,1398,1398,1398,1398,1398,1398,1398,1398,1392,1392,1392,1392,1392,1392,1392,1392,1392,1398,1398,1398,1398,1398,1398,1392,1392,1392,1392,1392,1392,1273,1273,1283,1288,1288,1288,1283,1283,1283,1283,1283,1283,1288,1288,1288,1292,1288,1288,1292,1292,1387,1387,1387,1387,1387,1387,1387,1381,1381,1381,1381,1376,1376,1376,1376,1381,1381,1387,1387,1387,1387,1387,1381,1381,1381,1381,1381,1376,1376,1381,1381,1381,1381,1381,1381,1376,1376,1376,1376,1376,1376,1376,1376,1370,1370,1370,1370,1370,1370,1370,1365,1365,1365,1365,1365,1365,1365,1028,1028,1028,1025,1025,1025,1025,1022,1016,1016,1016,1016,1016,1016,1016,1016,1019,1019,1022,1028,1028,1031,1034,1034,1038,1038,1038,1359,1359,1359,1359,1359,1359,1359,1365,1359,1359,1365,1365,1365,1365,1365,1365,1359,1359,1354,1354,1354,1354,1349,1349,1349,1349,1349,1349,1354,1354,1354,1354,1354,1354,1354,1354,1349,1349,1349,1349,1349,1349,1349,1349,1349,1349,1349,1343,1343,1343,1343,1343,1343,1343,1349,1349,1349,1349,1349,1349,1349,1349,1343,1343,1338,1338,1343,1338,1338,1338,1343,1343,1338,1338,1338,1338,1338,1338,1333,1333,1333,1333,1333,1333,1333,1333,1333,1333,1333,1333,1333,1333,1333,1333,1333,1333,1333,1328,1328,1328,1328,1328,1328,1328,1328,1328,1328,1328,1328,1328,1328,1328,1328,1322,1322,1322,1322,1317,1317,1317,1317,1317,1322,1322,1322,1317,1317,1317,1317,1317,1317,1317,1317,1312,1312,1312,1312,1312,1312,1312,1312,1312,1312,1312,1307,1307,1307,1307,1302,1302,1302,1302,1302,1302,1307,1307,1307,1307,1307,1307,1307,1302,1302,1302,1302,1302,1302,1302,1297,1297,1297,1297,1297,1292,1292,1292,1292,1288,1288,1288,1283,1283,1283,1278,1278,1278,1273,1273,1273,1273,1268,1268,1264,1255,1255,1255,1255,1255,1250,1250,1250,1245,1241,1241,1236,1236,1232,1232,1227,1227,1070,1067,1067,1063,1060,1054,1047,1044,1041,1038,1038,1028,1025,1025,1022,1022,1022,1016,1013,1013,1007,1007,1001,1001,1001,1001,1001,998,998,998,0,0,0,0,841,841,841,843,841,841,841,841,841,839,839,837,837,837,837,837,837,835,835,835,835,835,833,833,833,0,0,0,0,0,0,0,0,0,0,0,0,0,0,0,0,0,0,0,0,0,0,0,0,0,0,0,0,0,0,0,0,0,0,0,0,0
0,0,0,0,0,0,0,0,0,1470,1470,1464,1464,1458,1458,1458,1458,1458,1458,1458,1458,1458,1458,1452,1452,1452,1452,1452,1452,1452,1452,1452,1445,1445,1445,1439,1439,1439,0,0,0,0,998,998,998,995,995,995,995,992,992,995,995,998,998,1001,1001,1001,1004,1007,1010,1010,1013,1013,1013,1013,1019,1019,0,1445,1445,1445,1445,1439,1439,1439,1439,1439,1433,1433,1433,1433,1433,1433,1427,1427,1421,1415,1415,0,0,0,0,0,0,0,0,0,0,0,0,0,0,0,0,0,0,704,704,703,698,697,696,694,694,694,694,694,694,696,697,697,698,700,701,703,704,704,706,707,708,708,708,710,710,711,711,716,719,722,723,725,727,727,728,728,728,728,728,728,731,731,733,738,739,742,742,742,0,1165,1165,1165,1165,1161,1161,1161,1161,1161,1165,1165,1165,1165,1165,1165,1169,1169,1173,1173,1173,1181,1181,1181,1185,1189,1189,1193,1193,1193,1197,1197,1197,1202,1202,1206,1210,1210,1210,1210,1392,1392,1392,1392,1398,1392,1392,1392,1392,1392,1392,1392,1392,1392,1392,1392,1392,1392,1392,1392,1392,1392,1392,1392,1392,1392,1392,1392,1392,1387,1387,1387,1387,1283,1283,1288,1288,1288,1283,1283,1283,1283,1288,1288,1288,1288,1292,1292,1292,1292,1292,1297,1381,1387,1381,1381,1381,1381,1381,1381,1381,1381,1376,1376,1370,1370,1376,1376,1376,1376,1381,1381,1381,1381,1381,1376,1376,1376,1376,1370,1370,1370,1370,1370,1376,1376,1376,1370,1370,1370,1370,1376,1376,1370,1370,1370,1370,1370,1370,1370,1370,1370,1365,1365,1365,1365,1365,1365,1365,1028,1028,1028,1028,1028,1028,1025,1022,1016,1016,1016,1016,1016,1016,1016,1016,1019,1019,1025,1028,1028,1031,1034,1038,1038,1038,1038,1359,1359,1359,1359,1359,1354,1354,1354,1349,1349,1354,1354,1359,1359,1359,1359,1354,1354,1354,1354,1349,1349,1349,1343,1343,1349,1349,1349,1349,1349,1349,1349,1349,1349,1349,1349,1349,1343,1343,1343,1343,1343,1343,1343,1343,1343,1343,1338,1338,1338,1343,1338,1338,1338,1343,1343,1343,1343,1343,1343,1343,1343,1338,1338,1333,1333,1333,1333,1333,1333,1338,1338,1338,1333,1333,1333,1333,1333,1333,1333,1333,1333,1333,1333,1333,1328,1328,1328,1328,1328,1328,1328,1328,1328,1328,1328,1328,1328,1328,1328,1322,1322,1322,1322,1322,1322,1322,1322,1322,1322,1322,1328,1322,1322,1322,1322,1317,1317,1312,1312,1312,1312,1312,1312,1312,1312,1312,1312,1312,1312,1312,1312,1312,1312,1312,1307,1307,1307,1307,1307,1307,1307,1307,1307,1307,1307,1307,1302,1302,1302,1302,1302,1297,1297,1302,1302,1302,1302,1302,1302,1302,1302,1302,1302,1302,1302,1302,1297,1297,1297,1292,1292,1292,1292,1288,1288,1288,1288,1288,1283,1283,1283,1283,1278,1278,1278,1273,1273,1273,1273,1268,1268,1264,1264,1255,1255,1255,1255,1250,1250,1250,1245,1241,1241,1236,1236,1232,1232,1232,1232,1073,1070,1067,1063,1060,1054,1044,1041,1041,1038,1038,1028,1025,1025,1022,1022,1019,1016,1016,1013,1010,1007,1001,1001,1001,1001,1001,998,998,998,0,0,843,0,841,841,843,843,843,843,843,843,841,839,839,839,839,837,837,837,837,837,835,835,835,835,835,835,835,0,0,0,0,0,0,0,0,0,0,0,0,0,0,0,0,0,0,0,0,0,0,0,0,0,0,0,0,0,0,0,0,0,0,0,0,0
0,0,0,0,0,0,0,0,0,1464,1464,1458,1458,1452,1452,1458,1452,1452,1452,1452,1452,1452,1452,1452,1452,1452,1445,1445,1445,1445,1445,1445,1439,1439,1439,1439,1433,1433,0,1427,0,0,1007,1004,1004,1001,998,998,998,995,995,995,998,998,998,1001,1001,1001,1004,1007,1010,1010,1013,1013,1013,1013,1019,1019,1019,0,1445,1445,1439,1433,1433,1433,1433,1433,1433,1433,1433,1433,1433,1427,1427,1421,1421,1415,1415,0,0,0,0,0,0,0,0,0,0,0,0,0,0,0,0,0,0,0,0,0,0,700,697,694,694,694,694,694,694,696,697,697,698,700,701,703,704,704,706,707,708,708,710,710,711,711,711,716,719,722,723,725,727,727,728,728,728,728,728,728,730,730,731,738,738,1149,1149,1153,1161,1161,1161,1161,1161,1161,1161,1157,1157,1161,1161,1161,1165,1165,1165,1169,1169,1169,1173,1173,1177,1181,1181,1181,1185,1189,1189,1193,1193,1193,1193,1197,1197,1197,1202,1206,1387,1387,1387,1387,1387,1392,1392,1392,1392,1392,1392,1392,1392,1392,1392,1392,1392,1392,1392,1392,1392,1387,1387,1387,1387,1387,1387,1387,1387,1387,1387,1387,1387,1387,1387,1387,1387,1288,1288,1288,1288,1288,1288,1283,1283,1288,1288,1288,1288,1288,1292,1292,1292,1292,1297,1297,1381,1381,1376,1376,1376,1376,1376,1376,1376,1376,1370,1370,1370,1370,1370,1370,1370,1370,1376,1376,1370,1370,1370,1370,1370,1365,1365,1365,1365,1365,1365,1365,1365,1365,1370,1370,1370,1370,1370,1370,1370,1370,1370,1370,1370,1365,1365,1365,1365,1365,1365,1359,1359,1359,1359,1359,1359,1349,1031,1031,1031,1028,1028,1025,1025,1019,1019,1016,1016,1016,1016,1016,1016,1019,1022,1025,1028,1031,1034,1034,1038,1038,1038,1038,1354,1354,1354,1354,1354,1354,1349,1349,1349,1349,1349,1349,1349,1354,1354,1354,1354,1349,1349,1349,1343,1343,1343,1343,1343,1343,1343,1343,1343,1343,1343,1349,1349,1349,1349,1349,1343,1343,1343,1338,1338,1338,1338,1338,1338,1338,1338,1333,1333,1338,1338,1338,1333,1333,1338,1338,1338,1338,1338,1338,1338,1338,1333,1333,1333,1333,1333,1328,1328,1328,1328,1333,1333,1328,1328,1333,1333,1333,1328,1328,1328,1328,1328,1328,1328,1328,1328,1328,1328,1328,1328,1328,1328,1328,1328,1328,1328,1328,1322,1322,1322,1322,1322,1317,1317,1322,1317,1317,1317,1317,1317,1317,1317,1317,1317,1317,1312,1312,1312,1312,1312,1312,1312,1312,1312,1312,1312,1312,1312,1312,1312,1307,1307,1307,1307,1307,1307,1307,1307,1307,1307,1307,1307,1307,1307,1302,1302,1297,1297,1297,1297,1297,1292,1292,1297,1297,1297,1297,1297,1297,1297,1297,1297,1297,1297,1297,1297,1297,1292,1292,1292,1292,1288,1288,1288,1283,1283,1283,1278,1278,1278,1278,1283,1278,1273,1273,1273,1273,1273,1268,1268,1268,1264,1264,1259,1255,1255,1255,1255,1250,1250,1245,1245,1241,1241,1236,1232,1232,1232,1077,1073,1070,1067,1063,1060,1050,1044,1041,1038,1038,1034,1028,1028,1028,1025,1022,1019,1016,1016,1013,1013,1013,1001,1001,1001,1001,1001,995,995,0,0,0,0,843,843,843,843,843,843,843,843,843,843,841,839,839,839,839,839,837,837,837,837,837,837,837,837,837,837,0,0,0,0,0,0,0,0,0,0,0,0,0,0,0,0,0,0,0,0,0,0,0,0,0,0,0,0,0,0,0,0,0,0,0,0,0
0,0,0,0,0,0,0,0,0,1458,1458,1458,1452,1445,1445,1445,1445,1445,1445,1445,1445,1445,1445,1445,1445,1445,1445,1439,1439,1445,1439,1439,1433,1433,1433,1433,1433,1427,1427,0,0,0,1007,1007,1007,1007,1004,1001,1001,998,998,998,998,998,1001,1001,1001,1001,1004,1007,1010,1013,1013,1013,1013,1013,1016,1016,1016,0,1439,1439,1439,1433,1433,1433,1433,1433,1427,1427,1421,1421,1421,1421,1421,1421,1415,1415,1415,0,0,0,0,0,0,0,0,0,0,0,0,0,0,0,0,0,0,0,0,0,0,703,698,697,694,694,694,694,694,696,697,697,698,700,701,703,703,704,706,707,707,708,710,710,711,711,713,716,719,722,723,725,727,727,728,728,728,728,728,728,730,730,731,731,1149,1149,1149,1153,1157,1157,1161,1157,1157,1157,1157,1157,1157,1157,1161,1161,1161,1165,1165,1169,1169,1173,1173,1173,1177,1181,1181,1181,1185,1189,1193,1193,1193,1193,1193,1197,1197,1197,1202,1387,1387,1387,1387,1387,1387,1387,1387,1387,1387,1387,1387,1387,1387,1387,1387,1387,1387,1387,1387,1387,1387,1387,1387,1387,1387,1387,1387,1381,1381,1381,1381,1387,1387,1387,1387,1381,1381,1292,1292,1292,1292,1288,1288,1288,1288,1288,1288,1288,1288,1292,1292,1297,1297,1297,1297,1302,1302,1376,1376,1376,1376,1376,1376,1376,1370,1370,1370,1370,1370,1370,1370,1365,1365,1370,1370,1370,1365,1365,1365,1365,1365,1365,1365,1365,1365,1365,1365,1365,1365,1365,1365,1365,1365,1365,1365,1370,1370,1365,1365,1365,1365,1365,1365,1365,1365,1365,1359,1359,1354,1354,1354,1349,1349,1349,1034,1034,1031,1031,1028,1028,1025,1019,1019,1019,1016,1016,1016,1016,1019,1022,1022,1025,1031,1031,1034,1038,1038,1038,1038,1038,1349,1349,1349,1349,1349,1349,1349,1349,1343,1343,1343,1343,1343,1343,1343,1343,1349,1349,1343,1343,1338,1338,1338,1338,1338,1338,1338,1338,1343,1343,1343,1343,1343,1343,1343,1343,1343,1338,1338,1333,1333,1333,1333,1333,1333,1333,1333,1333,1333,1333,1333,1333,1333,1333,1333,1333,1333,1333,1333,1333,1333,1333,1333,1333,1333,1328,1328,1328,1322,1322,1317,1317,1322,1322,1328,1328,1328,1328,1328,1328,1328,1328,1328,1328,1322,1322,1328,1328,1322,1322,1322,1322,1322,1322,1322,1322,1322,1322,1322,1317,1317,1317,1317,1317,1317,1317,1317,1312,1312,1312,1312,1312,1312,1312,1312,1312,1312,1312,1312,1307,1307,1307,1307,1307,1307,1307,1307,1307,1307,1307,1307,1307,1307,1307,1307,1302,1302,1302,1302,1302,1302,1302,1302,1302,1302,1297,1297,1297,1292,1292,1292,1292,1292,1292,1292,1292,1292,1292,1292,1292,1292,1292,1292,1288,1288,1288,1288,1288,1292,1292,1288,1288,1288,1288,1283,1283,1278,1278,1278,1278,1273,1273,1278,1278,1273,1273,1273,1273,1273,1268,1268,1268,1264,1264,1259,1255,1255,1255,1255,1250,1250,1245,1245,1241,1241,1236,1236,1232,1232,1073,1067,1067,1063,1063,1054,1050,1041,1038,1038,1038,1031,1031,1028,1028,1025,1022,1019,1019,1016,1013,1013,1013,0,0,0,0,0,995,995,0,0,0,845,843,843,843,843,843,843,843,843,843,843,841,841,841,841,839,839,839,839,837,837,837,837,837,837,837,837,0,0,0,0,0,0,0,0,0,0,0,0,0,0,0,0,0,0,0,0,0,0,0,0,0,0,0,0,0,0,0,0,0,0,0,0,0
0,0,0,0,0,0,0,0,0,1439,1439,1452,1439,1439,1439,1439,1439,1439,1445,1445,1445,1445,1445,1445,1445,1445,1445,1439,1439,1439,1439,1439,1433,1433,1433,1433,1427,1421,1421,0,1415,0,1010,1007,1007,1007,1004,1001,1001,998,998,998,998,998,1001,1001,1001,1001,1004,1007,1013,1013,1013,1013,1013,1013,1016,1016,1016,0,1433,1439,1439,1433,1433,1427,1427,1427,1421,1421,1415,1415,1415,1415,1415,1415,1410,1410,1410,1410,0,0,0,0,0,0,0,0,0,0,0,0,0,0,0,0,0,0,0,0,704,703,698,698,697,696,696,696,696,697,697,697,698,700,701,703,703,704,706,707,707,708,710,710,711,711,713,716,717,720,722,725,727,728,728,728,728,728,728,728,1145,1145,1145,1149,1149,1149,1149,1149,1153,1157,1157,1153,1153,1153,1157,1153,1153,1153,1157,1161,1161,1165,1165,1169,1173,1173,1173,1173,1177,1181,1181,1181,1185,1189,1193,1193,1193,1193,1197,1197,1197,1387,1387,1387,1381,1381,1381,1381,1381,1381,1381,1381,1381,1381,1381,1381,1381,1381,1381,1381,1381,1381,1381,1381,1387,1387,1381,1381,1381,1381,1381,1381,1381,1376,1376,1376,1376,1376,1381,1376,1376,1365,1297,1297,1292,1292,1288,1288,1288,1288,1288,1288,1288,1292,1292,1297,1297,1297,1302,1302,1302,1370,1370,1370,1370,1370,1370,1370,1370,1370,1370,1365,1365,1365,1365,1365,1365,1365,1365,1365,1359,1359,1359,1359,1359,1359,1359,1359,1359,1359,1359,1359,1359,1359,1359,1359,1359,1359,1359,1359,1359,1359,1359,1365,1365,1365,1359,1359,1359,1359,1354,1354,1349,1349,1343,1338,1338,1338,1034,1034,1034,1031,1031,1028,1025,1022,1022,1019,1019,1019,1019,1019,1019,1022,1025,1028,1031,1034,1034,1034,1038,1038,1038,1038,1349,1349,1343,1343,1349,1349,1343,1343,1343,1343,1338,1338,1338,1338,1338,1338,1338,1338,1338,1338,1338,1338,1338,1333,1333,1333,1333,1333,1333,1333,1333,1338,1338,1338,1338,1338,1333,1333,1333,1328,1328,1328,1328,1328,1328,1328,1328,1328,1328,1328,1328,1328,1328,1328,1328,1328,1328,1328,1328,1328,1328,1328,1328,1328,1328,1328,1322,1322,1317,1317,1312,1312,1317,1317,1317,1317,1317,1322,1322,1322,1322,1322,1322,1322,1322,1322,1322,1322,1322,1322,1322,1322,1317,1317,1317,1317,1317,1312,1312,1317,1312,1312,1312,1312,1312,1312,1312,1307,1307,1312,1312,1307,1307,1307,1307,1307,1307,1307,1307,1307,1307,1307,1307,1307,1307,1302,1302,1302,1302,1302,1302,1302,1302,1302,1302,1302,1302,1302,1297,1297,1302,1297,1297,1297,1297,1297,1297,1292,1292,1292,1292,1292,1292,1292,1292,1292,1292,1288,1288,1288,1288,1288,1288,1288,1288,1288,1288,1288,1288,1288,1288,1288,1288,1283,1278,1278,1278,1278,1278,1273,1273,1273,1273,1273,1273,1273,1273,1273,1273,1268,1268,1268,1264,1264,1255,1255,1255,1255,1255,1255,1250,1250,1245,1241,1241,1236,1236,1236,1236,1067,1063,1063,1054,1050,1047,1044,1041,1038,1034,1034,1031,1031,1028,1028,1025,1022,1019,1016,1016,1016,1013,1013,0,0,0,0,0,0,0,0,0,845,845,843,843,845,845,845,845,845,845,845,843,843,841,841,841,841,841,841,841,839,839,839,839,839,837,837,837,0,0,0,0,0,0,0,0,0,0,0,0,0,0,0,0,0,0,0,0,0,0,0,0,0,0,0,0,0,0,0,0,0,0,0,0,0
0,0,0,0,0,0,0,0,0,1433,1433,1433,1433,1433,1433,1433,1433,1433,1439,1439,1439,1439,1439,1439,1439,1439,1439,1439,1439,1439,1433,1433,1427,1427,1427,1427,1421,1415,1415,1415,1415,0,1010,1010,1007,1007,1004,1004,1001,1001,998,998,998,998,1001,1001,1001,1001,1004,1007,1013,1013,1013,1013,1013,1013,1016,1016,1016,0,1433,1433,1433,1427,1427,1421,1421,1421,1415,1415,1415,1415,1415,1415,1415,1410,1410,1410,1404,1404,1404,0,0,0,0,0,0,0,0,0,0,0,0,0,0,0,0,0,0,0,704,703,700,698,697,697,696,696,696,697,697,697,698,700,701,703,703,704,706,707,708,708,710,710,711,711,713,716,716,717,722,725,728,728,730,728,728,728,1145,1145,1145,1145,1145,1149,1149,1149,1149,1149,1149,1149,1149,1149,1149,1149,1153,1149,1149,1149,1153,1157,1161,1165,1165,1169,1173,1173,1173,1173,1177,1181,1181,1181,1185,1189,1193,1193,1193,1197,1387,1387,1387,1387,1387,1381,1381,1381,1381,1376,1376,1381,1376,1376,1381,1381,1381,1381,1376,1376,1381,1381,1381,1381,1381,1381,1381,1381,1381,1381,1376,1376,1376,1376,1376,1376,1370,1370,1370,1370,1370,1365,1365,1359,1307,1302,1297,1292,1292,1288,1288,1288,1288,1288,1288,1292,1292,1297,1297,1297,1302,1302,1307,1365,1365,1370,1370,1370,1370,1370,1370,1370,1365,1365,1365,1365,1359,1359,1359,1354,1354,1354,1354,1354,1354,1354,1354,1354,1354,1354,1354,1354,1359,1359,1359,1359,1354,1354,1359,1354,1354,1354,1354,1354,1354,1349,1349,1354,1354,1354,1354,1354,1349,1349,1349,1343,1343,1338,1338,1338,1034,1034,1034,1031,1031,1031,1025,1022,1022,1022,1019,1019,1019,1019,1022,1022,1025,1028,1031,1034,1034,1034,1038,1038,1038,1038,1349,1349,1343,1343,1343,1343,1343,1343,1343,1338,1338,1338,1338,1338,1338,1338,1338,1338,1333,1333,1333,1333,1333,1333,1333,1333,1333,1333,1333,1333,1333,1333,1333,1333,1333,1333,1333,1328,1328,1328,1328,1328,1322,1322,1322,1328,1328,1328,1322,1322,1328,1328,1328,1322,1322,1322,1322,1328,1322,1322,1322,1322,1328,1328,1322,1322,1322,1317,1317,1312,1312,1312,1312,1312,1312,1312,1312,1312,1312,1312,1312,1317,1317,1317,1317,1317,1317,1317,1317,1317,1317,1317,1312,1312,1312,1312,1312,1312,1312,1312,1307,1307,1307,1307,1307,1307,1307,1302,1302,1307,1302,1302,1302,1302,1302,1302,1302,1302,1302,1302,1302,1302,1302,1302,1297,1297,1297,1297,1297,1297,1297,1297,1292,1292,1292,1292,1297,1297,1297,1297,1302,1292,1292,1292,1292,1292,1292,1292,1288,1288,1288,1288,1288,1288,1288,1288,1288,1288,1283,1283,1283,1283,1283,1278,1278,1278,1283,1288,1288,1288,1283,1283,1283,1278,1273,1273,1273,1273,1273,1273,1273,1273,1273,1273,1273,1273,1268,1268,1268,1268,1268,1264,1264,1264,1255,1255,1255,1255,1255,1255,1250,1250,1245,1245,1241,1236,1236,1236,1236,1063,1060,1054,1054,1050,1047,1044,1041,1038,1034,1034,1031,1031,1028,1028,1025,1022,1019,1016,1016,1016,1016,1016,0,0,0,0,0,0,0,0,0,845,845,845,845,845,845,845,845,845,845,845,843,843,843,843,843,843,843,843,843,841,841,841,839,839,839,839,839,0,0,0,0,0,0,0,0,0,0,0,0,0,0,0,0,0,0,0,0,0,0,0,0,0,0,0,0,0,0,0,0,0,0,0,0,0
0,0,0,0,0,0,0,0,0,1433,1433,1433,1433,1433,1427,1427,1427,1427,1427,1433,1433,1433,1433,1433,1433,1433,1433,1433,1433,1433,1433,1433,1427,1427,1427,1421,1421,1415,1415,1415,1415,1013,1010,1010,1010,1010,1007,1007,1004,1001,998,998,998,998,1001,1001,1001,1001,1004,1010,1013,1013,1013,1013,1013,1013,1016,1016,1016,1016,1433,1433,1421,1415,1415,1415,1415,1415,1415,1415,1415,1415,1415,1410,1410,1410,1410,1410,1404,1404,1404,1404,0,0,0,0,0,0,0,0,0,0,0,0,0,0,0,0,0,710,707,704,701,700,698,698,697,697,697,697,697,697,698,700,701,703,703,706,706,707,708,710,710,710,711,713,714,714,716,716,722,0,0,722,0,0,0,1145,1145,1145,1145,1145,1145,1145,1149,1149,1149,1149,1149,1149,1149,1145,1145,1145,1145,1145,1145,1145,1153,1153,1153,1161,1165,1169,1173,1173,1173,1173,1177,1181,1181,1181,1185,1376,1376,1376,1381,1381,1387,1387,1387,1381,1381,1381,1381,1381,1376,1376,1376,1376,1376,1376,1376,1376,1376,1376,1376,1376,1376,1376,1376,1376,1376,1376,1376,1376,1376,1376,1376,1376,1370,1370,1370,1370,1370,1365,1365,1365,1365,1359,1359,1349,1312,1307,1302,1297,1292,1292,1292,1288,1288,1288,1288,1292,1292,1297,1297,1297,1302,1302,1307,1359,1359,1365,1365,1365,1365,1365,1365,1365,1359,1359,1359,1359,1354,1354,1354,1354,1354,1354,1349,1349,1349,1354,1354,1354,1354,1354,1354,1354,1354,1354,1354,1354,1354,1354,1354,1354,1354,1349,1349,1349,1343,1343,1343,1343,1343,1338,1338,1343,1343,1343,1343,1343,1338,1338,1338,1338,1038,1038,1034,1034,1031,1031,1028,1025,1022,1022,1022,1022,1022,1022,1022,1025,1025,1028,1031,1034,1034,1038,1038,1038,1038,1038,1038,1338,1338,1338,1338,1338,1338,1338,1338,1333,1333,1333,1333,1333,1333,1333,1333,1333,1328,1328,1328,1328,1328,1328,1328,1328,1328,1328,1328,1328,1328,1333,1333,1328,1328,1328,1328,1328,1328,1322,1322,1322,1322,1322,1322,1322,1322,1322,1322,1322,1322,1322,1322,1322,1322,1322,1322,1322,1317,1317,1317,1317,1322,1322,1322,1322,1317,1317,1312,1312,1312,1312,1312,1312,1312,1312,1312,1312,1312,1312,1312,1312,1312,1317,1312,1312,1312,1312,1312,1312,1312,1312,1307,1307,1307,1307,1307,1307,1307,1307,1307,1307,1307,1307,1302,1302,1302,1302,1302,1302,1297,1297,1297,1297,1297,1297,1297,1297,1297,1302,1302,1297,1297,1297,1297,1292,1292,1292,1292,1292,1292,1292,1292,1292,1292,1288,1288,1288,1288,1292,1292,1288,1288,1288,1288,1288,1288,1288,1283,1283,1283,1283,1283,1283,1283,1283,1283,1283,1278,1278,1278,1273,1273,1273,1273,1278,1278,1278,1278,1283,1283,1283,1278,1273,1273,1273,1273,1273,1273,1273,1268,1268,1273,1273,1268,1268,1268,1268,1268,1264,1264,1264,1264,1259,1255,1255,1255,1255,1255,1255,1250,1250,1250,1245,1245,1236,1236,1063,1060,1060,1060,1054,1054,1050,1050,1047,1041,1038,1038,1034,1031,1031,1028,1028,1025,1022,1019,1016,1016,1016,1016,1016,1016,0,0,0,0,0,0,0,851,847,847,847,845,845,845,845,845,845,845,845,845,843,843,843,843,843,843,843,843,841,841,841,841,841,841,841,841,0,0,0,0,0,0,0,0,0,0,0,0,0,0,0,0,0,0,0,0,0,0,0,0,0,0,0,0,0,0,0,0,0,0,0,0,0
