0,0,0,0,0,1007,1007,1010,1010,1010,1013,1013,1010,1010,1013,1010,1010,1013,1013,1013,1010,1010,1010,1013,1013,1013,1013,1010,1010,1010,1010,1010,1010,1010,1010,1010,1010,1007,1007,1004,1004,1007,1007,1007,1007,1007,1007,1007,1007,1007,1007,1004,1004,1004,1004,1004,1004,1001,1001,1001,1001,1001,1001,1001,1001,1001,1001,1001,1001,1001,1001,1001,1001,1001,1001,998,998,998,998,998,1004,1004,1004,1001,1001,1001,1001,1001,1001,1001,1001,1001,1001,1001,1001,1001,1001,1001,1001,1001,1001,1001,1001,1001,1001,1001,998,998,998,998,998,998,998,998,998,998,998,998,998,998,995,995,995,992,992,992,992,992,992,992,992,989,989,987,987,987,815,815,815,813,813,811,811,811,811,813,815,815,817,817,819,819,819,821,823,825,825,825,827,827,827,827,827,833,989,989,989,989,987,987,987,987,987,987,987,987,987,987,987,984,984,984,984,984,987,987,987,987,987,987,987,984,984,984,984,984,981,981,981,981,981,981,981,981,981,981,981,981,981,981,978,978,978,978,978,978,978,978,978,978,981,981,978,978,978,978,978,978,978,978,978,978,978,978,978,978,978,978,978,978,975,975,975,973,973,975,975,975,975,975,975,975,975,975,973,973,973,973,973,973,973,973,973,973,973,973,973,970,970,970,970,970,967,967,967,967,970,970,967,967,967,967,967,967,967,967,967,967,967,967,967,967,967,967,967,967,967,967,967,967,967,967,967,967,967,967,967,967,964,964,967,967,967,967,967,967,967,964,964,964,964,962,962,962,962,962,962,962,962,962,962,962,962,962,962,962,962,962,959,959,959,959,959,959,959,959,959,959,959,959,956,956,956,959,959,959,959,962,962,962,959,959,956,956,956,956,956,956,956,956,956,956,956,956,956,956,956,956,956,956,956,954,954,954,954,954,954,954,954,954,954,954,954,951,951,951,951,951,951,951,951,951,951,951,954,954,954,954,951,951,951,951,951,951,948,948,948,948,948,951,948,948,948,948,948,948,948,948,948,948,948,948,948,948,946,946,946,946,946,946,946,946,946,946,943,943,943,943,943,943,946,946,946,946,946,946,946,943,943,943,946,943,943,943,943,943,943,943,946,946,946,943,943,943,943,943,940,940,940,940,940,940,938,938,938,938,938,938,938,938,938,938,938,935,935,935,935,935,935,935,935,935,935,935,935,869,869,871,871,871,871,871,871,871,871,873,873,871,869,869,869,0,0,0,787,785,785,785,785,785,783,783,783,783,785,785,783,783,783,783,783,783,783,783,783,781,781,781,781,781,781,781,783,783,785,785,785,787,787,789,790,790,790,792,792,811,811,811,811,813,811,811,811,811,809,805,805,803,803,802,802,800,800,798,798,794,790,790,789,787,785,783,783,781,780,778,776,776,771,771,771,0,0,0,0,0,0,0,0,0,0,0,0,0,0,0,0,0,0,0,0,0,0,0,0,0,0,0,0,0,0,0,0,0,0,0,0,0,0,0
0,0,0,0,0,1007,1007,1010,1007,1007,1010,1010,1001,1001,1001,1001,1001,1001,1010,1010,1007,1007,1007,1010,1010,1010,1010,1010,1010,1010,1010,1010,1010,1007,1007,1007,1007,1004,1004,1001,1001,1004,1004,1004,1004,1004,1004,1004,1004,1004,1004,1004,1004,1001,1001,1001,1001,1001,998,998,998,998,1001,1001,998,998,1001,1001,1001,1001,1001,1001,1001,998,998,998,998,998,998,998,998,998,998,998,1001,998,998,998,998,998,998,998,998,998,998,998,998,998,998,998,998,998,998,998,998,995,995,995,995,995,995,995,995,995,995,995,995,995,995,995,995,992,992,992,989,989,989,989,989,989,989,989,987,987,987,987,987,815,815,815,813,813,813,813,815,815,817,817,817,819,819,819,819,821,823,825,825,825,827,827,829,829,831,833,989,989,989,987,987,987,984,984,984,984,984,984,984,984,984,981,981,981,981,981,984,984,984,984,984,984,984,981,981,981,981,978,978,978,978,978,981,978,978,978,978,978,978,978,978,978,978,978,978,975,975,975,975,978,975,975,975,975,975,975,978,978,978,978,975,975,975,975,975,975,975,975,975,975,975,975,975,975,973,973,973,973,973,973,973,973,975,973,973,973,973,970,970,973,973,973,973,973,973,973,970,970,970,967,967,967,967,967,967,967,967,967,967,967,967,967,967,964,964,964,964,964,964,964,967,967,964,964,964,964,964,964,964,964,964,967,967,967,967,964,964,964,964,964,964,964,967,964,964,964,964,964,964,964,964,962,962,962,962,962,959,959,959,959,959,959,959,959,959,959,959,959,959,959,959,959,959,959,959,959,959,959,959,959,959,956,956,956,956,956,956,956,956,959,959,959,956,956,956,956,956,954,954,954,954,954,954,954,954,954,956,956,956,956,956,954,954,951,951,951,951,948,948,951,951,951,951,951,951,951,948,948,948,948,948,948,948,948,948,948,948,948,948,951,951,948,948,948,948,948,948,948,948,948,948,948,948,948,948,946,946,946,946,946,946,948,948,948,946,946,946,946,946,943,943,943,943,943,943,940,940,940,940,940,940,940,943,943,943,940,940,943,943,940,940,940,940,940,940,940,940,940,940,940,943,943,943,943,940,940,940,940,938,938,938,938,938,938,938,938,938,938,938,938,938,938,935,935,935,935,935,935,935,935,935,935,935,935,935,935,935,869,869,869,869,871,871,871,873,873,873,873,873,871,869,867,867,867,0,0,0,785,785,785,785,785,783,783,783,783,785,785,783,783,783,783,783,783,783,783,783,783,783,783,783,783,783,783,783,785,785,787,787,787,787,789,789,789,790,790,811,811,811,811,811,813,811,811,811,811,807,805,803,803,803,802,802,800,798,798,796,792,790,789,787,787,785,783,781,781,780,778,776,773,771,769,769,0,0,0,0,0,0,0,0,0,0,0,0,0,0,0,0,0,0,0,0,0,0,0,0,0,0,0,0,0,0,0,0,0,0,0,0,0,0,0
0,0,0,0,1007,1007,1007,1007,1004,1004,1004,1004,1001,1001,1001,1001,1001,998,998,1001,1004,1004,1004,1004,1007,1007,1007,1007,1007,1007,1007,1007,1007,1007,1007,1004,1004,1001,1001,1001,998,998,998,1001,1001,1001,1001,1001,1001,1001,1001,1001,1001,1001,1001,998,998,998,998,998,998,998,998,998,998,998,998,998,998,998,998,998,998,998,998,998,995,995,995,992,992,995,995,995,995,995,995,995,995,995,995,995,995,995,995,995,995,995,995,992,992,992,995,992,992,992,992,992,992,992,992,992,992,992,992,992,992,992,992,992,989,989,989,989,989,989,989,987,987,989,989,987,987,987,987,987,987,984,817,817,817,815,815,815,817,817,817,817,819,819,819,819,821,821,823,825,825,827,829,831,831,831,833,833,833,989,987,984,984,984,981,981,984,984,984,981,981,981,978,978,978,978,978,978,978,978,978,981,981,981,978,978,978,978,978,978,975,975,978,978,978,978,978,978,978,975,975,975,975,975,975,975,975,975,975,975,975,975,975,975,975,975,975,975,975,975,973,973,975,975,973,973,973,973,973,975,975,975,973,973,973,973,970,970,970,970,970,970,970,970,970,970,970,970,970,967,967,970,970,970,970,970,970,970,970,970,970,967,967,964,964,964,964,964,964,964,964,964,964,964,964,964,964,964,962,962,962,964,964,964,964,964,964,964,964,964,964,964,964,964,964,964,964,964,962,962,959,959,962,962,964,964,964,964,962,962,962,962,962,959,959,959,959,959,959,959,959,959,959,959,956,956,956,956,956,956,956,956,956,956,956,956,956,956,956,956,956,956,956,956,956,956,956,956,956,956,956,956,956,956,956,954,954,954,954,951,951,951,951,951,951,951,951,951,954,954,954,954,954,954,951,948,948,948,948,948,948,948,948,948,948,948,948,948,948,948,948,948,948,948,948,948,948,948,948,948,948,948,946,946,948,946,946,946,946,946,946,946,946,946,946,946,946,946,946,946,946,946,946,946,946,946,946,946,946,943,943,943,940,940,940,940,940,938,938,938,938,938,938,938,938,940,940,940,940,940,940,940,938,938,938,938,938,938,938,938,938,938,938,940,940,940,938,938,938,938,938,938,935,935,938,938,935,935,935,935,935,935,935,935,935,935,933,933,933,933,933,933,930,930,930,930,933,933,869,869,869,869,869,871,871,873,873,873,873,873,873,871,869,867,867,867,0,0,0,0,787,785,785,785,783,783,783,783,783,785,783,783,783,783,783,783,783,783,783,783,783,783,783,783,783,783,783,785,787,787,787,787,787,789,789,789,790,790,811,811,811,811,813,813,811,811,811,809,807,805,803,803,802,800,800,798,798,796,794,790,790,789,787,785,785,783,781,780,778,776,776,773,771,769,769,0,0,0,0,0,0,0,0,0,0,0,0,0,0,0,0,0,0,0,0,0,0,0,0,0,0,0,0,0,0,0,0,0,0,0,0,0,0,0
0,0,0,0,1004,1004,1004,1004,1004,1004,1004,1001,1001,1001,1001,1001,1001,998,998,1001,1001,1001,1001,1001,1004,1004,1004,1004,1004,1004,1004,1004,1004,1001,1001,1001,1001,1001,1001,998,998,998,998,998,998,1001,998,998,1001,1001,1001,1001,1001,998,998,998,998,998,998,998,995,995,995,998,995,995,995,995,995,998,998,998,998,998,998,998,995,992,992,989,989,989,989,989,992,992,992,992,992,992,992,992,995,995,995,995,992,992,992,992,989,989,992,989,989,989,989,989,989,989,989,989,989,989,989,989,989,989,989,989,987,987,987,987,987,987,987,987,987,987,987,984,984,984,984,984,984,984,817,817,817,817,817,817,817,817,817,819,819,821,821,821,823,823,825,825,827,829,831,831,833,833,833,833,833,984,984,984,981,981,978,978,981,981,978,978,978,978,978,975,975,975,975,975,975,975,975,975,978,978,975,975,975,975,975,975,975,975,975,978,978,975,975,975,975,975,975,975,975,975,973,973,973,973,973,975,975,973,973,973,973,973,973,973,973,973,973,973,970,970,970,970,970,970,970,973,973,973,970,970,970,970,967,967,967,967,967,967,967,967,967,967,967,967,967,967,967,967,967,967,967,967,967,967,967,967,967,964,964,964,964,964,962,962,962,962,962,962,962,962,962,962,962,962,962,962,962,962,962,962,962,962,959,959,962,962,962,962,962,962,962,962,962,959,959,959,956,956,959,959,959,959,959,959,959,959,959,959,959,959,959,956,956,956,956,956,956,956,956,956,956,956,956,954,954,956,954,954,956,956,956,956,954,954,956,956,956,956,954,954,954,954,954,954,954,956,956,956,956,954,954,951,951,951,951,951,948,948,948,948,948,948,948,948,951,951,948,948,948,948,948,948,946,946,946,946,946,946,946,946,946,946,946,946,946,946,946,946,946,946,946,946,946,946,946,946,946,946,946,946,946,943,943,946,946,946,946,943,943,946,946,943,943,943,943,943,943,943,943,943,943,943,943,943,943,940,940,940,938,938,938,938,938,938,938,938,938,938,938,938,938,938,938,938,938,938,938,938,938,938,938,938,938,935,935,935,935,935,935,935,935,935,935,935,935,935,935,935,933,933,933,933,933,933,933,933,933,933,933,933,930,930,930,930,930,930,930,930,928,928,928,928,928,928,869,869,869,869,869,871,871,871,873,873,873,873,873,871,869,867,867,867,0,0,0,787,787,787,785,785,783,783,783,783,783,785,783,783,785,785,783,783,783,783,783,783,783,783,783,783,783,783,783,785,787,787,787,787,787,789,787,787,790,813,813,813,813,813,813,811,811,811,807,807,805,803,803,803,802,800,800,798,796,794,792,789,789,787,785,785,783,781,780,778,776,774,774,771,771,769,769,0,0,0,0,0,0,0,0,0,0,0,0,0,0,0,0,0,0,0,0,0,0,0,0,0,0,0,0,0,0,0,0,0,0,0,0,0,0,0
0,0,0,0,1001,1001,1001,1001,1004,1004,1001,1001,1001,1001,1001,998,998,998,998,1001,998,998,998,998,998,1001,1001,1001,1001,1001,1001,1001,1001,998,998,998,998,998,998,998,998,995,995,998,998,998,998,998,998,998,998,998,998,998,998,995,995,995,995,995,995,992,992,995,995,995,995,992,992,995,995,995,995,995,995,992,992,989,989,989,989,989,989,989,989,989,989,989,989,989,989,989,989,989,989,989,989,989,989,989,989,989,989,989,989,989,989,987,987,987,987,987,987,987,987,984,984,984,984,987,984,984,984,987,987,987,984,984,984,984,984,984,981,981,984,984,981,981,819,819,819,819,817,817,819,819,819,819,821,821,823,823,823,825,827,827,829,829,831,831,833,833,833,833,833,833,984,978,978,978,978,978,978,978,978,978,975,975,975,975,975,975,975,975,975,975,975,975,975,975,973,973,973,973,975,975,975,975,975,975,975,975,975,975,975,973,973,973,973,973,970,970,970,970,970,973,973,970,970,970,970,970,970,970,967,967,970,970,967,967,967,967,967,967,967,967,967,967,967,967,967,967,967,967,967,967,967,967,967,967,967,967,967,964,964,964,964,964,964,964,964,964,967,964,964,964,964,964,962,962,962,962,962,959,959,959,959,959,959,959,959,959,959,959,959,959,959,959,959,959,959,959,956,956,956,956,956,959,959,959,956,956,956,956,956,956,954,954,956,956,959,959,956,956,956,956,956,956,956,956,956,956,956,956,956,956,956,956,956,956,954,954,954,951,951,951,951,951,954,954,954,954,954,954,954,954,954,954,954,954,951,951,951,951,951,951,951,951,954,951,951,948,948,948,948,948,948,948,948,948,948,948,948,948,948,948,948,948,948,948,946,946,946,946,946,946,946,943,943,946,946,946,946,946,946,946,946,946,946,946,946,946,946,946,946,946,946,946,946,943,943,943,943,943,943,943,943,943,943,943,943,943,943,943,943,940,940,943,940,940,940,940,940,940,940,938,938,938,938,938,938,935,935,938,938,938,938,938,938,938,938,938,935,935,935,938,935,935,935,935,935,935,935,935,935,935,933,933,933,933,933,933,935,935,935,935,933,933,930,930,930,930,930,933,933,930,930,933,930,930,928,928,930,930,928,928,928,928,928,928,928,928,928,928,869,869,871,869,869,871,871,871,873,873,873,875,873,871,871,0,0,0,0,0,0,0,789,787,787,785,785,783,783,783,783,783,783,785,785,785,785,785,783,783,783,783,783,783,783,783,783,783,785,785,787,787,787,787,787,789,787,787,787,813,813,813,813,813,811,811,811,807,805,805,805,803,802,802,800,800,798,796,794,792,790,789,787,785,783,783,783,781,778,776,774,774,774,771,769,769,769,0,0,0,0,0,0,0,0,0,0,0,0,0,0,0,0,0,0,0,0,0,0,0,0,0,0,0,0,0,0,0,0,0,0,0,0,0,0,0
0,0,0,0,1001,1001,1001,1001,1001,1001,998,998,1001,998,998,998,998,998,998,998,998,998,998,995,995,998,998,998,998,998,998,998,998,998,998,998,998,998,998,998,995,995,995,995,995,995,995,998,998,998,998,998,998,995,995,995,995,995,992,992,992,992,992,992,992,992,992,989,989,989,989,992,992,992,992,992,989,989,989,987,987,987,987,987,987,987,987,987,987,987,987,987,987,987,987,987,987,987,987,987,987,987,987,987,987,987,987,987,987,987,987,984,984,984,984,981,981,981,981,984,981,981,981,981,984,984,984,981,981,984,981,981,978,978,981,981,981,981,819,819,819,819,819,819,819,819,819,821,821,823,823,823,825,825,827,827,829,831,833,833,833,833,833,833,833,833,978,978,975,973,973,975,975,975,973,973,973,973,973,973,973,973,973,973,973,973,973,973,973,973,970,970,970,970,970,970,973,973,973,973,973,973,973,973,973,973,973,973,973,970,970,970,970,970,970,970,970,970,967,967,967,967,967,967,964,964,964,964,964,964,964,967,967,964,964,964,964,964,967,967,967,967,967,967,967,964,964,964,964,964,962,962,962,962,962,962,962,962,962,962,962,964,962,962,962,962,962,959,959,959,959,959,956,956,956,956,956,956,956,956,956,956,956,956,959,956,956,956,956,956,956,956,956,956,956,956,954,954,954,954,954,954,954,954,954,954,954,954,954,954,956,956,956,956,956,954,954,954,956,956,956,954,954,954,954,954,954,954,954,954,951,951,948,948,948,948,948,948,948,948,951,951,951,951,951,951,951,951,948,948,948,948,948,948,948,948,948,948,948,948,948,948,948,948,946,946,946,946,946,946,946,946,946,946,946,946,946,946,946,946,946,946,943,943,943,943,943,943,943,943,943,943,946,943,943,943,943,943,943,943,943,943,943,943,943,943,943,943,943,943,940,940,940,940,940,940,940,938,938,940,940,940,940,940,940,940,940,940,938,938,938,938,938,938,938,938,935,935,935,935,935,935,935,935,935,935,935,935,935,935,935,935,933,933,935,935,935,935,935,935,935,933,933,933,933,933,930,930,930,930,930,930,930,933,933,933,930,930,928,928,928,928,928,928,928,928,928,928,928,928,928,928,928,928,928,928,928,928,925,925,925,925,925,925,869,869,871,869,869,871,871,871,871,873,873,875,873,873,0,0,0,0,0,0,0,792,790,789,787,785,785,783,783,783,783,783,783,785,785,785,785,785,785,785,783,783,783,783,783,783,783,783,785,785,787,787,787,787,787,785,785,787,787,815,815,813,813,813,811,811,809,807,805,805,803,803,802,802,800,798,796,796,794,792,789,787,787,785,783,783,781,780,778,776,774,773,771,769,769,767,767,0,0,0,0,0,0,0,0,0,0,0,0,0,0,0,0,0,0,0,0,0,0,0,0,0,0,0,0,0,0,0,0,0,0,0,0,0,0,0
0,0,0,0,1001,1001,998,998,1001,1001,998,998,998,998,998,995,995,995,995,995,995,995,995,995,995,995,995,995,995,995,995,995,995,995,995,995,995,995,995,995,995,992,992,995,995,995,995,995,995,995,995,995,992,992,992,992,992,992,989,989,989,989,989,989,989,989,989,987,987,987,987,989,989,989,989,989,989,989,987,987,987,987,987,987,987,987,987,987,987,987,987,987,987,987,987,984,984,984,984,987,984,984,984,984,987,987,987,987,987,984,984,984,984,981,981,981,981,978,978,981,978,978,978,978,978,981,978,978,978,981,981,981,978,978,978,981,978,978,819,819,819,819,819,819,819,819,819,821,823,823,823,825,825,827,827,827,829,831,833,833,835,835,835,835,835,835,978,978,970,970,970,970,970,970,970,970,970,970,973,973,973,973,973,973,970,970,970,970,970,970,970,967,967,970,970,970,970,970,970,970,970,970,970,970,970,967,967,970,970,967,967,967,967,967,967,967,967,967,964,964,964,964,964,964,962,962,962,962,962,962,962,964,964,964,964,962,962,962,962,962,962,962,964,964,964,964,964,964,962,962,962,959,959,959,959,959,959,959,959,959,959,959,959,959,959,959,959,959,956,956,956,956,956,956,956,956,954,954,954,956,956,956,956,956,956,956,956,954,954,954,956,954,954,954,954,954,954,951,951,951,951,951,951,951,951,951,951,951,951,954,954,954,954,954,954,954,954,954,954,954,954,954,954,954,954,954,954,951,951,951,948,948,948,946,946,946,948,948,948,948,948,948,948,948,948,948,946,946,946,946,946,946,946,948,948,948,946,946,946,946,946,946,943,943,946,946,946,946,946,946,946,946,946,946,946,946,943,943,943,943,943,943,940,940,943,943,943,940,940,943,943,943,943,940,940,940,940,940,940,940,940,940,940,940,940,940,940,940,940,940,940,940,940,940,938,938,938,935,935,935,935,938,938,938,938,938,938,938,938,935,935,935,935,935,935,933,933,935,935,935,935,935,935,935,935,935,935,935,935,933,933,933,930,930,933,933,933,933,933,933,933,933,933,930,930,930,928,928,928,928,928,928,928,928,925,925,928,928,928,925,925,925,925,925,925,925,925,928,928,925,925,925,925,925,925,925,925,925,923,923,923,923,923,925,869,869,869,871,871,871,871,871,871,873,873,873,873,873,0,0,0,0,0,0,794,792,792,790,789,787,785,783,783,783,783,783,783,785,785,785,787,785,785,785,785,783,783,783,783,783,783,783,785,785,787,787,787,787,787,783,783,783,815,815,815,813,813,811,811,811,807,805,805,803,803,802,800,800,800,798,796,794,792,790,789,787,787,785,783,783,781,780,778,776,773,771,769,767,767,766,766,0,0,0,0,0,0,0,0,0,0,0,0,0,0,0,0,0,0,0,0,0,0,0,0,0,0,0,0,0,0,0,0,0,0,0,0,0,0,0
0,0,0,0,998,998,995,995,998,998,998,998,998,998,998,995,995,992,992,992,992,992,992,992,992,992,992,989,989,989,989,989,992,992,992,992,992,992,992,992,992,992,992,992,992,992,992,992,992,992,992,992,992,992,989,989,989,989,989,989,989,989,989,989,987,987,987,987,987,987,987,987,989,989,989,989,989,987,987,987,987,987,987,987,987,987,987,987,984,984,984,984,984,984,984,984,984,984,984,984,984,984,984,984,984,984,984,984,984,981,981,981,981,978,978,978,978,978,978,978,978,978,978,975,975,978,978,978,978,978,978,978,978,978,978,978,978,978,978,819,819,819,819,819,821,819,819,821,823,823,823,825,825,827,827,829,829,831,833,833,835,835,835,835,835,835,967,967,967,967,967,967,967,967,967,967,967,967,970,970,970,970,970,970,970,967,967,967,967,967,967,967,967,967,967,967,967,967,967,967,967,967,967,967,967,967,967,967,967,964,964,964,964,964,964,964,964,964,962,962,962,962,962,962,959,959,959,959,962,962,962,962,962,962,962,962,959,959,959,959,959,959,959,959,962,962,962,959,959,959,959,956,956,959,959,959,956,956,956,956,956,956,956,956,956,956,956,956,956,956,956,954,954,954,954,954,951,951,951,954,954,954,954,954,954,954,954,951,951,954,954,954,951,951,951,951,951,951,948,948,948,948,948,948,948,948,946,946,948,951,951,951,951,951,951,951,951,951,951,951,951,951,951,948,948,948,948,948,948,948,948,946,946,946,946,946,946,946,946,946,946,946,946,946,946,943,943,943,943,943,943,943,943,946,946,946,946,946,946,946,946,943,943,943,940,940,943,943,943,943,943,943,943,943,943,943,940,940,940,940,940,940,940,940,940,940,940,940,940,940,940,940,940,940,940,940,940,938,938,938,938,938,938,938,938,938,938,938,938,938,938,938,938,938,938,935,935,933,933,933,933,930,930,930,935,935,935,935,935,935,933,933,933,933,933,930,930,933,933,933,933,933,933,933,933,935,933,933,933,930,930,930,928,928,930,930,930,930,930,930,930,928,928,928,928,928,928,928,928,928,925,925,925,925,925,925,925,925,925,925,925,923,923,925,925,925,925,925,925,925,925,925,925,923,923,923,923,923,920,920,923,923,923,923,869,869,869,869,869,871,871,871,871,873,873,873,873,873,873,0,0,800,0,796,794,794,794,792,790,789,787,783,783,783,781,781,781,781,783,783,785,785,785,785,785,783,783,783,783,783,783,783,785,785,787,787,787,787,787,783,783,819,819,815,815,813,813,811,811,807,805,805,803,803,802,802,800,798,798,796,794,792,792,790,789,787,787,785,783,783,781,780,778,774,771,769,767,766,766,764,764,0,0,0,0,0,0,0,0,0,0,0,0,0,0,0,0,0,0,0,0,0,0,0,0,0,0,0,0,0,0,0,0,0,0,0,0,0,0,0
0,0,0,0,995,995,995,995,995,995,995,995,995,995,992,992,992,992,989,989,989,989,989,989,989,989,989,989,989,989,987,987,989,989,989,989,989,989,992,992,989,989,989,989,989,989,989,989,989,992,989,989,989,989,989,987,987,987,987,987,987,987,987,987,984,984,984,984,984,984,984,984,987,987,987,987,987,987,987,984,984,984,984,984,984,984,984,984,981,981,981,981,981,981,981,981,981,984,984,984,981,981,981,981,981,981,978,978,978,978,978,978,978,978,978,978,978,978,978,978,975,975,975,975,975,978,978,975,975,975,975,975,975,975,975,975,975,975,975,821,821,821,821,821,821,819,819,821,823,825,825,825,827,827,829,829,831,833,833,835,835,835,837,837,837,837,967,967,967,967,967,967,967,967,964,964,964,967,964,964,964,964,967,967,967,967,967,967,967,967,964,964,964,964,964,964,964,964,964,964,964,964,964,964,964,964,964,964,964,964,964,964,964,964,962,962,962,962,962,959,959,959,959,959,959,956,956,956,956,956,959,959,959,959,959,959,959,959,959,956,956,956,956,956,956,956,956,956,956,956,956,956,956,956,956,956,956,956,956,956,954,954,954,954,954,954,954,954,954,954,954,954,954,951,951,951,948,948,948,948,948,948,951,951,951,951,951,948,948,948,948,951,948,948,948,951,948,948,948,948,946,946,946,946,946,946,946,946,946,948,948,948,948,948,951,948,948,948,948,948,948,948,948,946,946,948,948,946,946,946,946,946,943,943,943,943,943,946,946,946,943,943,943,943,943,943,940,940,940,940,940,940,940,940,940,943,943,943,943,943,943,940,940,940,940,938,938,938,938,938,943,943,943,943,940,940,940,940,940,938,938,938,938,938,938,938,938,938,938,938,938,938,938,938,938,938,938,938,938,938,935,935,935,935,935,935,935,935,935,935,935,935,935,935,935,933,933,930,930,930,930,930,930,928,928,928,930,933,933,933,933,933,930,930,930,930,930,930,933,933,933,933,933,933,933,933,933,930,930,928,928,928,928,928,928,928,928,928,928,928,928,928,928,925,925,928,925,925,925,925,925,925,923,923,925,925,923,923,923,923,923,923,923,923,923,923,923,925,925,923,923,923,923,923,920,920,920,920,920,920,920,920,920,923,871,871,871,869,869,871,871,871,871,873,873,873,873,873,0,0,0,800,798,796,796,796,796,794,792,790,789,785,783,783,781,781,781,781,783,783,785,785,785,785,785,785,785,785,785,783,783,783,783,785,785,785,785,785,785,783,783,819,819,815,815,813,811,811,807,805,805,805,803,803,802,802,800,798,796,794,792,790,790,790,789,787,787,785,783,781,781,780,776,773,771,769,767,764,764,762,762,0,0,0,0,0,0,0,0,0,0,0,0,0,0,0,0,0,0,0,0,0,0,0,0,0,0,0,0,0,0,0,0,0,0,0,0,0,0,0
0,0,0,0,995,995,992,992,992,992,992,992,992,992,992,992,992,989,989,989,989,989,989,989,989,989,987,987,987,987,987,987,987,987,989,989,987,987,987,989,987,987,987,987,987,989,989,989,989,989,989,989,987,987,987,984,984,984,984,984,984,984,984,984,984,984,981,981,981,981,981,984,984,984,981,981,981,984,984,984,984,984,984,984,981,981,978,978,978,978,978,978,978,978,978,978,978,981,981,978,978,978,978,978,978,978,975,975,975,975,975,975,975,975,975,978,978,978,978,975,975,975,975,975,975,975,975,975,975,975,975,975,975,973,973,973,973,975,975,0,823,823,821,821,821,821,821,823,823,825,825,827,827,829,829,831,833,833,835,835,837,837,837,837,839,839,964,964,964,964,964,964,964,964,964,964,964,964,964,964,964,964,964,964,964,964,964,964,964,964,962,962,962,959,959,959,959,962,962,962,962,962,962,962,962,962,962,962,962,962,962,962,962,962,959,959,959,959,959,956,956,959,956,956,956,956,956,956,956,956,956,956,956,956,956,956,956,956,956,956,956,956,954,954,954,954,954,954,954,954,954,954,954,956,956,956,956,956,954,954,954,954,954,954,954,954,951,951,951,951,951,951,951,951,948,948,948,946,946,948,948,948,948,948,951,951,948,948,948,948,948,946,946,946,948,948,946,946,946,946,946,946,946,946,946,946,943,943,943,946,946,946,946,946,948,948,948,948,948,946,946,946,946,946,946,946,946,946,943,943,943,943,943,943,940,940,940,943,943,943,940,940,940,943,940,940,940,940,938,938,938,938,938,940,940,940,940,940,940,940,938,938,938,938,938,938,938,935,935,938,938,938,938,940,940,940,938,938,938,938,938,938,938,938,938,938,938,938,938,938,935,935,935,935,935,935,935,935,935,935,935,935,935,935,935,935,935,933,933,935,935,935,933,933,933,930,930,930,930,930,930,928,928,928,928,928,928,928,928,928,930,930,930,930,930,928,928,928,928,928,930,930,930,930,930,930,930,928,928,928,928,925,925,925,925,925,925,925,925,925,925,925,925,925,925,925,923,923,923,923,923,923,923,923,923,923,923,923,923,920,920,923,923,920,920,923,923,923,923,923,920,920,920,920,920,920,920,920,918,918,920,920,920,920,871,871,871,869,869,871,871,871,871,873,873,875,875,875,803,0,802,800,798,798,796,796,796,796,794,790,790,789,783,783,781,781,781,781,783,783,783,785,785,785,785,785,785,785,785,783,783,783,783,783,783,783,783,783,783,783,783,829,821,819,815,813,811,811,807,805,805,803,803,802,802,800,798,796,796,792,792,790,790,789,789,787,787,785,783,781,781,778,774,771,769,767,766,764,762,762,762,0,0,0,0,0,0,0,0,0,0,0,0,0,0,0,0,0,0,0,0,0,0,0,0,0,0,0,0,0,0,0,0,0,0,0,0,0,0,0
0,0,0,0,989,989,989,989,989,989,989,992,992,989,989,989,989,987,987,987,987,987,987,987,987,987,987,987,984,984,984,987,987,987,987,987,987,984,984,984,981,981,981,984,987,987,987,987,987,987,987,987,987,984,984,981,981,981,981,981,981,978,978,981,981,978,978,978,978,978,981,981,981,981,981,978,978,981,981,981,981,981,981,978,978,978,975,975,975,975,975,975,975,975,975,978,978,978,975,975,975,975,975,975,975,975,973,973,973,975,975,975,975,975,975,975,975,975,975,975,975,975,973,973,973,973,973,973,973,973,973,973,973,973,970,970,970,970,970,964,823,823,821,821,821,821,821,823,825,825,825,827,829,831,831,831,833,833,835,835,837,837,839,839,841,841,964,964,964,964,964,964,964,964,964,962,962,962,962,962,959,959,962,962,962,962,962,962,962,962,959,959,959,959,959,959,959,959,959,962,962,962,959,959,959,959,959,959,959,959,959,959,959,959,959,956,956,956,956,956,956,956,956,954,954,954,954,954,954,954,954,954,954,954,954,954,954,954,954,954,954,954,954,951,951,951,951,951,951,951,954,954,954,954,954,954,954,954,954,954,954,954,951,951,951,951,951,951,951,951,951,951,948,948,946,946,946,946,946,946,946,946,946,946,948,948,946,946,946,946,946,946,946,946,946,946,946,943,943,943,943,943,943,943,943,943,940,940,943,943,943,943,943,940,940,943,943,946,946,946,946,946,946,943,943,943,943,943,940,940,940,940,940,940,938,938,940,940,940,940,938,938,938,940,938,938,938,938,938,938,938,938,938,938,938,938,938,938,938,938,938,938,938,935,935,935,935,935,935,935,935,935,935,935,935,935,935,938,935,935,935,935,935,935,935,935,935,935,938,935,935,935,935,935,933,933,933,933,933,933,933,933,933,933,933,933,933,930,930,930,933,930,930,930,930,928,928,928,928,928,928,928,928,928,928,928,928,928,928,928,925,925,928,928,928,928,928,928,928,928,928,928,928,928,928,928,928,928,925,925,925,925,925,925,925,925,925,923,923,923,923,923,923,923,923,923,923,920,920,920,920,920,920,920,920,920,920,920,920,920,920,920,920,918,918,918,920,920,920,920,920,920,918,918,918,918,918,918,915,915,918,918,918,920,871,871,871,869,869,871,869,869,871,873,873,875,875,800,803,803,802,802,800,800,798,798,798,796,794,794,792,790,785,783,783,781,781,781,781,781,783,783,783,783,785,783,783,783,783,783,783,783,783,783,783,783,783,783,783,833,833,827,823,821,817,813,811,807,805,805,805,803,803,802,800,798,796,796,794,792,790,790,790,789,789,787,787,785,783,781,780,778,774,771,769,767,766,764,762,761,761,0,0,0,0,0,0,0,0,0,0,0,0,0,0,0,0,0,0,0,0,0,0,0,0,0,0,0,0,0,0,0,0,0,0,0,0,0,0,0
0,0,0,0,989,987,987,989,989,987,987,989,989,987,987,984,984,987,984,984,984,984,984,984,981,981,981,981,981,981,981,981,981,981,984,984,984,984,981,981,981,981,978,978,978,978,981,981,981,981,981,981,981,984,981,978,978,981,981,978,978,978,978,978,978,978,978,978,978,978,978,978,978,978,978,978,978,978,978,978,978,975,975,975,975,973,973,973,973,973,973,975,975,975,975,975,975,975,973,973,973,973,973,973,973,973,970,970,973,973,973,973,973,973,973,975,973,973,973,973,973,973,970,970,970,970,970,973,970,970,970,970,970,970,967,967,964,964,964,964,825,825,823,823,823,823,823,825,825,827,827,827,829,831,831,833,833,835,835,837,837,839,839,839,841,843,962,962,962,964,964,964,964,964,962,962,959,959,959,959,959,959,959,959,959,959,959,959,959,956,956,956,956,956,956,956,956,956,959,959,959,959,959,959,956,956,956,956,956,956,956,956,956,956,956,956,956,956,956,956,956,956,954,954,954,954,954,954,951,951,951,951,951,948,948,951,954,954,954,954,954,954,951,948,948,948,948,948,948,948,951,951,951,951,951,951,951,948,948,951,951,951,951,948,948,948,948,948,948,948,948,948,946,946,946,946,946,946,946,946,946,946,946,946,946,946,946,946,946,943,943,943,943,943,943,943,943,940,940,940,938,938,940,940,940,940,938,938,940,940,940,940,940,938,938,940,940,940,940,940,940,943,943,940,940,940,940,940,938,938,938,938,938,938,938,938,938,938,938,938,938,935,935,938,938,938,935,935,938,938,938,938,938,938,938,938,938,938,938,938,935,935,935,933,933,933,930,930,930,933,933,933,933,935,935,935,933,933,933,933,933,933,933,933,933,933,933,933,935,933,930,930,933,933,933,933,933,933,930,930,930,930,930,930,930,930,930,928,928,928,928,928,928,928,928,928,928,925,925,925,925,925,925,925,925,925,925,925,925,925,925,923,923,925,925,925,925,925,925,925,925,925,925,925,925,925,925,925,925,925,925,925,925,923,923,923,923,923,920,920,920,920,920,920,920,920,918,918,918,918,918,918,918,918,918,918,918,918,918,918,918,918,918,918,918,918,918,918,915,915,918,918,918,918,915,915,915,915,915,915,915,915,915,918,871,871,871,869,869,871,869,869,871,873,873,800,800,800,803,803,803,803,802,800,798,798,798,796,796,794,794,792,790,785,783,781,781,781,781,781,783,783,783,783,783,783,783,783,783,783,783,781,781,781,783,783,783,783,783,833,833,827,825,823,817,813,811,807,805,805,803,803,802,800,798,798,796,794,792,792,790,790,789,789,787,787,785,783,781,778,778,776,774,771,769,766,764,762,761,761,761,0,0,0,0,0,0,0,0,0,0,0,0,0,0,0,0,0,0,0,0,0,0,0,0,0,0,0,0,0,0,0,0,0,0,0,0,0,0,0
0,0,0,0,989,987,987,989,987,987,987,987,984,984,984,981,981,984,981,981,981,984,984,984,981,981,981,978,978,978,978,978,981,981,981,981,981,981,978,978,978,978,978,975,975,975,975,975,975,975,975,978,981,981,978,978,978,978,978,978,975,975,975,975,975,975,975,975,978,978,978,978,978,978,978,975,975,975,975,975,973,973,970,970,970,970,970,970,970,970,970,973,973,973,973,973,970,970,970,970,970,970,970,970,970,970,967,967,970,970,970,970,970,970,970,973,973,970,970,970,970,967,967,967,967,967,967,970,967,967,967,967,967,967,967,964,964,964,964,964,827,827,827,825,825,825,825,825,825,827,827,829,831,831,833,833,835,835,835,837,837,839,839,839,841,843,962,962,962,962,962,962,962,962,962,959,959,956,956,956,956,956,956,956,956,956,959,956,956,956,956,956,956,956,956,956,956,956,956,956,956,956,956,956,956,954,954,954,954,954,954,954,954,954,956,956,956,954,954,954,954,954,954,954,954,954,951,951,951,951,951,951,948,948,948,948,951,951,951,951,951,951,948,948,948,948,946,946,946,946,948,948,948,948,948,948,946,946,946,946,946,948,948,946,946,946,946,946,946,948,946,946,946,946,946,946,943,943,943,943,943,943,946,943,943,943,943,943,943,943,943,943,943,943,943,943,940,940,940,938,938,938,938,938,938,938,938,938,938,940,940,938,938,938,938,938,938,938,938,938,938,938,940,940,938,938,938,938,938,938,938,938,938,938,938,938,935,935,938,938,935,935,935,935,935,935,935,935,935,935,935,935,935,935,935,935,935,935,935,935,933,933,930,930,930,930,930,930,930,930,930,930,930,930,930,933,930,930,930,930,928,928,930,930,930,930,930,930,930,930,930,930,930,930,930,930,930,930,930,930,930,928,928,928,928,928,928,925,925,925,925,925,925,925,925,925,925,925,925,925,925,925,925,925,925,925,925,923,923,923,923,923,923,923,923,923,923,923,923,923,923,923,923,925,923,923,923,923,923,923,923,923,923,923,923,923,923,920,918,918,918,918,918,918,918,918,918,918,918,918,918,918,918,918,918,918,915,915,915,915,915,915,915,915,915,915,913,913,913,915,913,913,915,915,915,915,915,913,913,913,913,915,915,913,871,871,871,871,871,871,871,871,871,871,802,802,800,800,803,803,805,805,803,802,800,800,800,798,798,796,796,794,792,790,789,785,783,783,783,783,783,781,781,781,783,783,783,783,783,783,783,781,781,781,781,781,783,783,835,835,833,829,829,827,823,815,813,807,805,803,803,802,800,798,798,796,794,792,792,790,790,789,787,787,787,785,783,780,780,776,774,774,773,771,769,766,764,762,761,761,761,0,0,0,0,0,0,0,0,0,0,0,0,0,0,0,0,0,0,0,0,0,0,0,0,0,0,0,0,0,0,0,0,0,0,0,0,0,0,0
0,0,0,0,989,989,989,987,984,984,984,984,981,981,981,981,981,981,981,978,978,981,981,978,978,978,978,978,978,978,978,978,978,978,978,978,978,978,978,978,975,975,975,975,975,975,975,975,973,973,975,975,975,975,975,975,975,975,975,975,975,975,975,975,975,975,975,975,978,975,975,975,975,975,975,973,973,973,973,973,973,970,970,970,970,970,970,970,970,967,967,970,970,970,970,970,970,970,970,970,970,967,967,967,967,967,967,967,967,967,967,967,967,967,967,970,970,970,970,967,967,967,967,964,964,964,964,964,964,964,964,964,964,964,964,962,962,962,962,964,829,829,827,825,825,825,825,825,825,827,827,829,831,833,833,833,835,835,835,837,839,839,839,841,843,843,959,959,959,962,962,962,962,959,959,956,956,956,956,956,956,956,956,956,956,956,956,956,956,956,954,954,954,954,954,954,954,954,954,954,956,956,954,954,954,954,954,954,954,954,954,954,954,954,954,954,954,954,954,954,951,951,951,951,951,951,951,951,951,948,948,948,948,946,946,948,948,948,948,948,951,951,948,946,946,946,946,946,946,946,946,946,946,946,943,943,943,943,943,943,943,946,943,943,943,946,946,946,946,946,946,946,946,943,943,943,943,943,943,943,943,943,943,943,943,940,940,943,943,940,940,940,940,938,938,938,938,938,938,938,938,938,938,935,935,938,935,935,935,938,938,938,938,938,938,935,935,935,935,938,938,938,938,938,938,938,938,935,935,935,935,935,935,935,935,935,935,935,935,935,935,935,935,935,935,933,933,933,935,935,933,933,933,933,933,933,933,933,933,933,930,930,928,928,928,928,928,928,928,928,928,928,928,928,928,928,928,928,928,928,928,928,928,928,928,928,930,930,930,928,928,928,928,928,928,928,928,928,928,928,928,928,925,925,925,925,925,925,925,925,925,925,925,925,925,925,925,925,925,925,925,925,925,925,923,923,923,923,923,920,920,920,920,920,920,920,920,920,920,920,920,920,920,923,920,920,920,923,920,920,920,920,920,920,920,920,920,918,918,918,918,918,918,918,918,918,918,918,918,915,915,915,915,915,915,915,913,913,913,913,913,910,910,910,910,910,910,910,910,910,910,910,910,910,913,913,913,913,910,910,910,913,913,871,871,871,871,871,871,871,871,871,871,796,796,800,802,802,803,805,805,805,805,803,802,802,800,798,798,798,796,796,794,792,792,787,785,785,785,783,783,781,781,781,783,783,783,783,783,783,783,781,780,780,781,781,781,889,835,835,833,829,829,827,825,817,813,807,803,803,802,800,798,798,796,794,794,792,790,790,789,789,787,785,785,783,780,778,776,773,773,773,771,771,769,766,764,762,761,761,761,0,0,0,0,0,0,0,0,0,0,0,0,0,0,0,0,0,0,0,0,0,0,0,0,0,0,0,0,0,0,0,0,0,0,0,0,0,0,0
0,0,0,0,987,987,987,987,984,981,981,981,978,978,978,978,978,978,978,978,978,978,978,978,978,978,978,978,978,978,975,975,975,975,975,975,975,975,975,975,975,975,975,973,973,973,975,973,973,973,973,975,975,975,975,975,975,975,975,975,975,973,973,973,973,973,973,975,975,975,975,973,973,973,973,970,970,970,970,970,970,970,967,967,970,970,970,967,967,967,967,970,967,967,967,967,967,967,967,967,967,967,967,967,967,967,964,964,964,967,964,964,964,964,967,967,967,967,967,964,964,964,964,964,964,964,964,964,964,962,962,962,962,964,962,959,959,959,959,962,962,829,829,827,827,825,825,825,827,827,829,831,833,833,833,835,835,835,837,837,839,839,841,841,843,845,956,956,956,959,956,956,956,956,956,956,956,956,956,956,954,954,954,954,954,954,954,954,954,954,954,954,954,954,954,954,954,954,954,951,951,951,951,951,951,951,951,951,951,951,951,951,951,951,951,951,951,951,951,951,948,948,948,948,946,946,948,948,948,948,946,946,946,946,946,946,946,946,948,948,948,948,946,946,946,946,943,943,943,943,943,946,943,943,940,940,940,940,940,940,940,943,943,943,940,940,940,940,943,943,943,943,943,943,943,943,940,940,940,940,940,940,940,940,940,938,938,940,940,938,938,938,938,938,938,938,938,935,935,935,935,935,935,935,935,935,935,935,935,935,935,935,935,935,935,933,933,933,933,935,935,935,935,935,935,935,935,933,933,933,933,933,933,933,933,933,933,933,933,933,933,933,933,933,933,933,930,930,933,933,933,933,933,933,933,930,930,930,930,928,928,928,928,925,925,925,928,928,928,928,928,928,928,928,928,928,928,925,925,925,925,925,925,925,925,925,925,925,925,925,925,925,925,925,925,925,925,925,925,925,925,925,925,925,925,923,923,923,923,923,923,923,923,923,923,923,923,923,923,923,923,923,923,923,923,923,923,923,920,918,918,918,918,918,920,918,918,918,918,918,918,918,918,918,918,918,920,920,920,920,918,918,918,918,918,918,918,918,915,915,915,915,915,915,915,915,915,915,915,915,915,915,915,915,913,913,913,913,910,910,910,910,910,910,910,908,908,908,908,910,908,908,908,908,908,910,908,908,908,908,908,908,908,871,871,871,871,871,871,871,871,871,796,796,796,800,805,805,805,805,807,807,805,805,803,803,803,800,800,798,798,798,796,796,794,790,785,785,787,785,783,781,781,781,783,783,783,783,783,783,783,781,780,780,889,889,889,889,891,835,835,831,831,829,827,825,815,807,803,803,802,800,798,796,796,794,792,790,790,789,789,787,785,783,781,780,776,774,773,771,771,771,769,769,767,764,762,761,761,759,759,0,0,0,0,0,0,0,0,0,0,0,0,0,0,0,0,0,0,0,0,0,0,0,0,0,0,0,0,0,0,0,0,0,0,0,0,0,0,0
0,0,0,0,984,984,984,984,981,978,978,978,978,978,978,975,975,975,975,975,975,973,973,973,975,975,978,975,975,975,975,975,975,973,973,973,973,975,975,975,973,973,973,970,970,973,973,973,973,970,970,973,973,973,973,975,975,975,975,973,973,970,970,970,973,973,973,973,973,975,973,970,970,970,970,970,967,967,967,970,967,967,967,967,967,967,967,967,967,967,967,967,967,967,967,967,967,967,967,967,964,964,964,964,964,964,964,964,964,964,962,962,964,964,964,964,964,964,964,964,962,962,962,962,962,962,962,962,962,962,959,959,959,959,959,956,956,956,956,959,959,829,829,827,827,827,827,827,827,827,829,831,833,833,833,835,835,835,837,839,841,841,843,843,845,845,845,956,954,954,954,954,954,954,954,954,954,954,954,954,954,954,951,951,951,951,951,951,951,951,951,951,951,951,951,951,951,951,951,951,951,951,948,948,948,948,951,951,951,951,951,951,951,951,951,951,951,948,948,946,946,946,946,946,946,946,946,946,946,946,946,946,946,946,943,943,943,943,943,943,946,946,943,943,943,943,943,943,943,943,943,943,940,940,938,938,940,938,938,938,938,938,938,938,938,938,938,938,940,938,938,938,940,940,940,940,940,940,940,940,940,938,938,935,935,935,935,935,935,935,935,935,935,935,935,935,935,935,935,935,935,935,933,933,933,933,933,933,933,935,933,933,933,933,933,933,933,933,933,933,933,933,933,935,935,933,933,933,933,933,930,930,930,930,930,930,930,930,930,930,930,930,930,930,930,930,928,928,930,930,930,930,930,930,928,928,928,928,928,928,928,925,925,925,925,925,925,925,925,925,925,925,925,925,925,925,925,925,925,925,925,925,925,925,925,925,923,923,923,923,923,923,925,923,923,925,923,923,923,923,923,923,923,920,920,920,920,920,920,920,920,920,923,923,923,920,920,920,920,920,920,920,920,920,920,920,920,920,918,918,918,918,918,918,918,918,918,918,918,918,918,918,915,915,915,915,918,918,918,918,918,918,915,915,915,915,915,915,915,915,915,915,915,915,915,915,915,915,915,915,913,913,913,913,913,913,910,910,910,910,908,908,908,908,908,908,908,908,908,908,908,908,908,908,908,908,908,908,906,903,903,906,906,871,871,871,871,871,871,871,871,871,871,805,805,805,807,807,807,807,807,807,805,805,805,805,803,802,802,800,800,800,798,796,796,794,794,794,790,789,783,781,781,781,783,783,783,898,896,896,785,783,781,781,891,889,889,891,891,891,829,829,829,829,827,827,827,807,803,803,800,798,798,796,794,792,790,790,789,789,789,785,783,780,778,774,773,773,771,771,769,769,767,766,764,762,761,759,759,759,759,0,0,0,0,0,0,0,0,0,0,0,0,0,0,0,0,0,0,0,0,0,0,0,0,0,0,0,0,0,0,0,0,0,0,0,0,0,0,0
0,0,0,0,981,981,981,981,978,978,978,978,978,975,975,975,975,975,975,973,973,973,973,973,973,975,975,975,975,975,973,973,973,970,970,970,970,973,970,970,970,970,970,970,970,970,970,970,970,967,967,970,970,970,973,973,973,973,973,973,970,964,964,967,967,967,970,970,973,973,970,970,967,967,967,967,967,967,967,967,967,964,964,964,967,964,964,964,964,964,964,964,964,964,964,964,967,967,967,964,964,964,964,964,962,962,962,962,962,959,959,959,959,959,962,962,962,962,962,962,959,959,959,959,959,959,959,959,959,959,959,956,956,956,956,954,954,954,954,954,956,829,829,829,827,827,827,827,827,829,831,831,833,833,835,835,837,837,837,839,841,841,843,843,845,845,845,951,951,951,951,951,951,951,951,951,954,954,951,951,951,951,948,948,948,948,948,948,948,948,948,948,948,948,948,948,948,948,946,946,946,946,946,946,946,946,946,946,946,946,951,948,948,948,948,948,948,946,946,946,946,943,943,943,943,943,943,943,943,943,943,943,943,943,940,940,940,940,940,940,940,940,943,940,940,940,940,940,940,940,940,938,938,938,938,938,938,938,938,935,935,935,935,935,935,935,935,935,935,935,935,935,935,935,935,938,935,935,935,935,935,935,935,935,933,933,933,933,935,935,935,933,933,933,933,933,933,933,933,933,933,933,933,933,933,930,930,930,930,930,930,930,930,930,930,930,930,930,930,930,930,930,933,933,933,930,930,930,928,928,928,928,928,928,928,928,928,928,930,928,928,928,928,928,928,928,928,928,928,928,928,928,928,928,928,928,928,925,925,925,925,925,925,925,923,923,925,923,923,923,923,923,923,923,923,923,923,923,923,923,923,923,923,923,923,923,923,920,920,920,920,920,920,920,923,923,920,920,920,920,920,920,920,920,920,920,920,920,920,920,920,920,920,920,920,920,918,918,918,918,918,918,918,918,918,918,918,918,918,915,915,915,915,915,915,915,915,915,915,915,915,915,915,913,913,913,913,910,910,915,915,915,915,913,913,915,913,913,910,910,913,913,913,913,913,913,913,913,913,913,913,913,913,913,913,910,910,908,908,908,906,906,906,906,906,908,908,908,908,906,906,906,906,906,906,906,903,903,901,901,901,901,906,871,871,871,871,871,871,871,871,871,871,809,809,809,809,809,809,809,807,807,805,805,805,805,805,803,803,803,802,802,802,798,796,796,796,796,794,792,792,898,898,898,896,896,896,896,896,896,894,894,894,891,891,891,891,889,889,891,891,829,829,829,827,827,827,815,805,803,798,796,796,794,794,792,790,789,789,787,783,781,780,778,776,774,773,773,771,771,769,769,766,764,762,761,759,759,755,755,755,0,0,0,0,0,0,0,0,0,0,0,0,0,0,0,0,0,0,0,0,0,0,0,0,0,0,0,0,0,0,0,0,0,0,0,0,0,0,0
0,0,0,0,981,981,981,978,978,975,975,975,975,975,975,973,973,973,973,973,973,970,970,970,970,973,973,973,973,973,970,970,970,967,967,967,967,970,970,967,967,967,967,967,967,967,967,967,967,967,967,967,967,967,970,970,970,970,970,970,967,962,962,962,962,962,959,959,962,964,967,967,967,967,967,967,964,964,964,964,967,964,964,964,964,964,964,962,962,962,962,962,962,962,962,964,964,964,964,964,962,962,962,962,962,959,959,959,959,959,956,956,956,956,959,959,959,959,959,959,959,959,959,959,956,956,956,956,956,956,956,954,954,954,954,954,951,951,951,951,954,954,833,829,829,829,829,829,829,829,831,833,833,835,835,837,837,837,837,839,841,843,843,843,847,847,847,849,948,948,948,948,948,948,948,948,948,948,948,948,948,946,946,946,946,946,946,946,946,946,946,946,946,946,946,946,946,946,943,943,946,943,943,943,943,943,943,943,943,943,943,943,946,946,946,946,943,943,943,943,943,943,943,943,943,943,943,940,940,940,940,940,940,940,938,938,938,938,938,938,938,938,938,938,938,938,938,938,938,935,935,935,935,935,935,935,935,935,935,935,935,933,933,935,933,933,933,935,933,933,933,933,933,933,933,933,933,933,933,933,933,933,933,933,933,933,933,933,933,933,933,933,933,933,933,933,933,933,933,933,933,930,930,928,928,928,928,928,928,930,930,930,930,930,930,928,928,928,928,928,930,930,930,930,928,928,928,928,925,925,925,925,925,925,925,925,925,925,925,928,928,928,928,928,928,928,925,925,928,928,925,925,925,925,925,925,925,925,925,925,925,925,923,923,923,923,923,923,923,920,920,920,920,923,923,923,923,920,920,920,920,920,920,920,920,920,918,918,918,918,918,918,918,918,918,918,918,920,920,918,918,920,918,918,918,918,918,918,918,918,918,918,918,918,918,918,918,918,918,915,915,915,915,915,915,915,915,915,915,915,915,915,915,913,913,913,913,913,913,913,915,913,913,910,910,910,910,910,910,910,910,910,910,910,910,910,910,910,910,910,910,910,910,910,910,910,910,913,913,910,910,910,910,910,910,908,908,908,908,906,906,906,906,906,906,906,906,906,906,906,903,903,903,903,903,903,903,903,901,901,898,894,894,871,871,871,869,869,871,871,871,873,811,811,811,811,809,809,809,809,807,807,807,805,805,805,805,805,803,803,803,803,803,800,798,798,796,796,794,794,794,898,898,898,896,896,896,896,896,894,894,894,894,891,891,891,891,889,889,891,891,891,889,829,829,829,829,829,829,829,794,794,792,792,792,790,789,789,785,783,781,780,780,776,776,774,773,771,771,769,769,766,764,762,761,761,759,757,755,754,754,0,0,0,0,0,0,0,0,0,0,0,0,0,0,0,0,0,0,0,0,0,0,0,0,0,0,0,0,0,0,0,0,0,0,0,0,0,0,0
0,0,0,978,978,978,978,978,975,975,975,973,973,973,973,970,970,967,967,970,970,967,967,967,967,970,970,973,973,973,970,970,970,967,967,967,967,967,967,964,964,964,964,964,964,964,964,964,964,962,962,964,964,964,964,964,964,964,964,964,959,959,959,959,959,959,959,959,959,959,962,962,964,962,962,964,964,964,964,964,964,964,962,962,964,964,962,962,962,962,962,959,959,959,959,959,962,962,962,962,959,959,959,959,959,956,956,956,956,956,956,956,956,956,956,956,956,956,956,956,956,956,956,956,956,956,956,954,954,954,954,954,951,951,951,951,948,948,948,948,948,948,833,831,829,829,829,829,829,829,831,833,835,835,837,837,837,837,839,841,843,843,845,845,847,847,847,849,946,946,946,946,946,946,946,946,946,946,946,946,946,946,946,946,946,943,943,943,943,943,943,943,943,943,943,943,943,943,940,940,940,940,940,940,940,940,940,940,940,943,940,940,940,940,938,938,938,938,940,940,940,940,940,940,940,940,940,938,938,938,938,938,938,938,935,935,935,935,935,935,935,935,935,935,935,935,935,935,935,935,935,935,935,935,935,933,933,935,935,935,933,933,933,933,933,933,933,933,933,933,933,933,933,933,930,930,930,930,930,930,930,930,933,930,930,930,930,930,930,930,930,928,928,930,930,930,930,930,930,930,930,928,928,928,925,925,925,925,925,928,928,928,928,928,928,928,928,928,928,928,928,928,928,928,925,925,925,925,925,925,925,925,925,925,923,923,923,923,923,923,923,923,928,925,925,925,925,925,925,925,923,923,923,925,923,923,925,925,925,925,923,923,923,923,920,920,920,920,918,918,920,920,920,920,920,920,920,920,920,918,918,918,918,918,918,918,918,918,918,918,918,918,918,915,915,918,915,915,915,915,918,918,918,918,918,918,918,918,918,918,918,918,915,915,915,915,915,915,915,915,915,913,913,913,913,913,913,913,913,913,913,913,910,910,910,910,910,910,910,910,913,913,910,910,910,910,908,908,908,910,908,908,908,906,906,908,908,908,908,908,908,908,908,908,908,908,910,910,910,908,908,908,908,908,908,908,906,906,906,906,906,906,906,906,906,906,906,903,903,903,901,901,901,901,901,901,901,901,898,898,896,894,894,871,871,869,869,869,871,871,871,811,811,811,811,811,811,809,809,809,807,807,805,805,805,805,805,805,805,805,803,803,803,802,800,798,796,796,796,796,796,896,896,896,896,896,896,894,894,894,894,894,894,891,891,891,891,889,889,889,889,889,889,889,829,829,829,829,829,829,794,794,792,792,790,790,789,785,783,783,781,780,778,776,774,774,773,771,771,769,766,764,762,761,761,759,757,755,754,754,754,0,0,0,0,0,0,0,0,0,0,0,0,0,0,0,0,0,0,0,0,0,0,0,0,0,0,0,0,0,0,0,0,0,0,0,0,0,0,0
0,0,0,978,978,978,975,975,975,973,973,973,970,970,970,970,970,967,967,967,967,967,967,967,967,967,967,967,967,967,964,964,967,967,967,964,964,964,964,962,962,962,962,962,962,959,959,956,956,959,959,959,962,962,964,962,962,962,962,959,959,959,959,956,956,956,956,956,956,956,959,959,959,959,959,959,959,959,962,962,962,962,962,962,962,962,962,959,959,956,956,956,956,956,956,956,959,959,956,956,956,956,956,956,956,956,956,956,956,956,954,954,954,954,954,951,951,951,954,954,954,954,954,954,954,954,954,954,954,954,954,948,948,948,948,948,946,946,946,946,946,946,833,831,831,831,831,831,831,831,833,833,835,835,837,839,839,839,841,843,843,845,847,847,847,849,849,851,946,943,943,946,946,943,943,946,946,946,943,943,946,943,943,943,943,943,940,940,940,943,943,943,940,940,940,943,943,943,940,940,940,938,938,938,938,935,935,938,938,938,935,935,938,938,938,935,935,935,935,935,938,938,938,938,938,938,938,935,935,935,935,935,935,935,935,935,933,933,933,933,935,935,935,935,935,935,935,935,933,933,933,933,933,933,933,933,933,933,933,933,933,933,933,933,933,930,930,930,930,930,930,930,928,928,930,930,930,930,930,930,930,928,928,928,928,928,928,928,928,928,928,928,928,928,928,928,928,928,928,928,928,925,925,925,925,923,923,923,923,925,925,925,925,925,925,925,925,925,925,925,928,928,925,925,925,925,925,925,923,923,923,923,923,923,923,920,920,920,920,920,920,920,923,923,923,923,923,923,923,923,920,920,920,920,920,920,923,923,923,923,920,920,920,920,918,918,918,918,918,918,918,918,918,918,918,918,918,918,918,918,915,915,915,915,915,915,915,915,915,915,915,915,915,915,915,915,915,915,915,915,915,915,915,915,915,915,915,915,915,915,915,915,915,913,913,913,913,913,913,913,913,910,910,910,910,910,910,910,910,910,910,910,908,908,908,908,908,908,908,908,908,908,908,908,908,908,908,906,906,906,906,906,906,906,906,906,906,906,906,906,906,906,908,906,906,906,906,908,906,906,906,906,906,906,906,903,903,903,903,903,903,903,903,903,903,903,903,903,903,903,901,901,901,898,898,898,898,898,896,896,896,894,894,871,871,869,869,869,869,869,811,811,811,811,811,811,811,809,809,809,807,807,805,805,805,805,805,805,805,805,803,803,805,802,800,798,796,796,796,796,796,891,891,891,894,894,894,891,891,894,894,891,891,891,891,891,889,889,889,887,887,889,889,889,889,831,829,829,829,831,829,792,790,790,790,789,785,785,783,781,780,780,778,776,774,773,773,771,769,769,764,762,762,761,759,759,757,755,754,752,752,0,0,0,0,0,0,0,0,0,0,0,0,0,0,0,0,0,0,0,0,0,0,0,0,0,0,0,0,0,0,0,0,0,0,0,0,0,0,0
0,0,0,975,975,975,973,973,970,970,970,967,967,967,967,967,967,967,967,964,964,964,964,964,964,964,964,964,962,962,959,959,962,964,964,964,964,964,962,962,962,959,959,959,959,959,959,956,956,959,959,959,959,959,959,956,956,959,959,959,956,956,956,956,956,956,956,956,956,956,956,956,956,956,956,956,956,956,954,954,954,956,956,956,956,959,959,956,956,954,954,954,956,956,956,956,956,956,956,956,956,956,956,956,954,954,954,954,954,954,954,954,951,951,951,948,948,948,951,951,951,951,951,954,954,954,954,951,951,951,948,946,946,946,946,946,946,946,946,946,946,946,833,833,833,831,831,831,833,833,833,835,835,837,837,839,839,841,841,843,843,845,847,847,847,849,849,849,943,943,943,943,943,943,943,943,943,943,943,943,943,943,943,943,943,940,940,940,940,940,940,940,938,938,940,940,940,940,938,938,938,938,938,935,935,935,935,935,935,935,935,935,935,935,935,935,935,935,935,935,935,935,935,935,935,935,935,935,935,935,935,935,933,933,933,933,933,933,933,933,933,933,933,933,933,933,933,933,933,933,933,933,933,933,933,933,933,933,933,933,930,930,930,930,928,928,928,928,928,928,928,928,928,928,928,928,928,928,928,928,928,928,925,925,925,925,925,925,925,925,925,925,925,925,925,925,925,925,925,925,925,925,925,923,923,923,923,923,923,925,925,925,925,925,925,925,925,925,925,925,925,925,923,923,923,923,923,923,920,920,920,920,920,920,920,920,920,920,918,918,918,918,918,918,918,918,918,918,920,920,920,920,920,920,920,920,920,920,920,920,920,918,918,918,918,918,918,918,915,915,915,915,915,915,915,915,915,915,915,915,915,915,913,913,915,915,915,915,915,915,915,915,915,913,913,913,913,913,913,913,913,913,913,913,913,913,913,913,913,913,913,913,913,913,913,913,913,913,913,910,910,910,910,910,910,908,908,908,908,908,908,908,908,906,906,906,906,906,906,906,906,906,906,906,906,906,906,906,903,903,903,903,903,903,903,903,903,903,906,906,906,906,906,906,903,903,903,903,903,901,901,901,901,901,901,901,901,901,901,901,901,898,898,901,901,901,901,901,901,901,898,898,898,898,898,898,898,896,896,896,894,891,891,871,871,869,869,869,869,813,811,811,811,811,811,811,811,809,809,809,807,805,805,805,805,805,805,805,805,805,805,805,805,803,800,800,891,891,891,891,891,891,889,889,889,891,891,889,889,891,891,891,891,889,889,889,889,889,887,887,887,887,887,887,887,831,829,829,831,831,829,792,790,790,789,789,785,783,783,781,780,778,776,776,774,773,771,769,769,766,764,762,761,761,759,759,755,755,754,752,752,0,0,0,0,0,0,0,0,0,0,0,0,0,0,0,0,0,0,0,0,0,0,0,0,0,0,0,0,0,0,0,0,0,0,0,0,0,0,0
0,0,0,967,967,967,967,967,967,967,967,967,967,967,967,964,964,964,964,964,964,964,964,964,964,962,962,959,959,959,959,959,959,962,962,962,959,959,959,959,959,959,959,956,956,956,956,956,956,956,956,956,956,956,956,954,954,956,956,956,956,956,956,956,956,956,954,954,954,954,954,954,954,954,954,954,954,954,954,954,954,954,954,954,954,954,956,956,956,954,954,954,954,954,954,954,954,954,954,954,954,954,954,954,954,951,951,951,951,951,951,951,951,951,948,948,948,948,948,951,951,951,951,951,951,951,951,951,951,951,948,946,946,946,946,946,946,946,946,946,946,943,835,833,833,833,833,833,833,835,835,835,837,837,839,841,841,841,843,843,845,845,847,847,847,849,849,849,854,854,943,943,943,940,940,940,943,940,940,940,940,940,940,940,940,940,938,938,938,938,938,938,938,935,935,938,938,935,935,935,935,935,935,935,935,935,935,935,933,933,933,933,933,933,933,933,933,933,933,933,933,933,933,933,933,933,933,933,933,933,933,933,933,933,933,933,930,930,930,930,933,933,933,933,933,933,930,930,933,930,930,930,930,930,930,930,930,930,930,930,928,928,928,928,928,928,925,925,925,925,925,925,925,925,925,925,925,925,925,925,925,925,925,925,925,925,925,923,923,923,923,925,925,925,925,925,925,925,925,923,923,923,923,923,923,920,920,920,923,925,925,923,923,923,923,923,923,923,923,923,923,923,920,920,920,920,920,920,918,918,918,920,918,918,918,918,918,918,918,918,915,915,915,915,915,915,915,915,915,915,915,918,918,918,918,918,918,920,920,920,918,918,918,918,915,915,915,915,915,915,913,913,913,913,913,913,913,913,913,913,913,913,910,910,913,910,910,913,913,913,913,913,913,913,910,910,910,910,910,910,910,910,910,910,910,910,910,910,910,910,910,910,910,910,910,910,910,910,910,910,908,908,908,908,908,908,908,908,908,906,906,906,906,906,906,906,906,906,906,906,906,906,903,903,903,903,903,903,901,901,901,901,901,901,901,901,901,901,903,901,901,901,901,901,901,898,898,901,901,901,901,898,898,898,898,898,898,898,898,898,898,898,898,898,898,898,898,898,898,898,898,898,896,896,896,896,896,896,894,894,894,889,887,871,871,869,869,869,813,813,811,811,811,811,811,811,811,809,809,807,807,805,805,805,805,805,805,805,805,805,805,805,805,803,802,802,889,889,889,889,889,889,889,889,889,889,889,889,889,889,889,889,889,889,889,889,889,887,887,887,887,885,885,885,885,885,887,835,835,831,831,831,790,789,789,785,785,783,781,781,780,778,776,776,774,773,771,769,767,766,764,762,761,761,759,757,755,755,754,750,750,0,0,0,0,0,0,0,0,0,0,0,0,0,0,0,0,0,0,0,0,0,0,0,0,0,0,0,0,0,0,0,0,0,0,0,0,0,0,0
0,0,0,967,967,967,967,967,967,967,967,964,964,967,967,964,964,964,962,962,964,964,964,964,962,959,959,959,959,959,956,956,959,959,959,959,959,959,956,956,956,956,956,956,956,956,956,956,956,956,954,954,954,954,954,954,954,956,956,956,954,954,954,954,954,954,954,954,954,954,954,954,954,951,951,951,951,951,951,951,951,954,954,951,951,951,951,951,951,951,951,951,954,951,951,951,954,954,951,951,951,951,951,951,951,948,948,948,948,948,951,948,948,948,948,946,946,946,948,948,948,948,948,948,948,948,948,948,948,948,946,946,946,946,946,946,946,943,943,943,943,943,938,833,833,833,833,835,835,835,835,837,837,839,839,841,841,843,843,843,845,845,847,847,849,849,849,851,854,854,935,940,940,940,940,940,940,940,940,940,940,940,938,938,938,938,935,935,935,935,935,935,935,935,935,935,935,933,933,933,933,935,935,933,933,933,933,933,933,933,930,930,930,930,930,930,933,933,933,933,933,933,933,933,933,930,930,930,930,933,933,933,933,933,930,930,930,928,928,930,930,930,930,930,928,928,928,928,928,928,928,930,930,930,928,928,928,928,928,928,925,925,925,925,925,925,925,925,925,925,925,925,925,925,925,925,925,925,925,925,925,925,923,923,923,923,923,923,923,923,923,923,923,923,923,923,923,923,923,923,920,920,920,920,920,920,920,920,920,923,923,920,920,920,920,920,920,920,920,920,920,920,918,918,918,918,918,918,918,918,918,918,918,918,918,918,918,915,915,915,913,913,913,913,913,913,913,913,915,915,915,915,915,915,918,918,918,918,918,918,918,915,915,915,915,915,913,913,913,913,913,910,910,910,910,910,910,910,910,910,910,910,910,910,910,910,910,910,910,913,910,910,910,910,908,908,908,908,908,908,908,908,908,908,908,908,908,908,908,908,908,908,908,908,908,908,908,908,908,908,908,908,906,906,906,906,906,906,906,906,906,903,903,903,903,903,903,903,903,903,903,903,901,901,901,901,901,901,901,898,898,901,901,901,898,898,898,901,901,901,898,898,898,898,898,898,898,898,898,898,898,898,898,898,898,898,896,896,896,896,896,896,896,896,896,896,896,896,896,896,896,896,896,896,896,896,894,894,891,891,891,889,887,871,871,869,869,813,813,813,811,811,811,811,811,811,811,809,809,807,805,805,805,805,805,805,805,805,805,805,805,805,805,803,803,889,889,889,889,889,889,887,887,887,887,889,889,887,887,887,889,889,889,887,887,887,889,887,887,885,885,885,885,882,882,882,882,837,835,835,833,831,790,789,789,785,783,783,781,780,778,778,776,776,774,773,771,769,766,764,762,761,761,759,759,757,755,754,752,750,750,0,0,0,0,0,0,0,0,0,0,0,0,0,0,0,0,0,0,0,0,0,0,0,0,0,0,0,0,0,0,0,0,0,0,0,0,0,0,0
0,0,0,964,964,964,964,964,964,964,964,962,962,962,964,964,964,962,962,962,962,962,962,962,959,959,959,959,959,959,956,956,956,956,956,956,956,956,956,956,956,956,956,954,954,954,954,954,954,954,954,954,954,954,954,954,954,954,954,954,954,954,954,954,954,954,954,954,951,951,951,951,951,948,948,948,948,948,948,951,951,951,951,951,951,951,951,948,946,946,946,951,951,951,951,951,951,951,948,948,948,948,948,948,948,948,946,946,946,948,946,946,948,948,946,946,946,946,946,946,946,946,946,946,946,946,946,946,946,946,946,946,946,943,943,943,943,943,943,943,940,940,938,833,833,833,833,835,835,835,835,837,839,839,841,841,843,843,843,845,847,847,847,847,849,849,851,851,854,933,933,938,938,938,938,938,938,938,938,935,935,935,935,935,935,935,935,935,935,933,933,935,933,933,933,933,935,933,933,933,933,933,933,933,933,933,933,930,930,930,928,928,928,928,928,928,930,930,930,930,930,930,930,928,928,928,928,928,928,930,930,930,930,930,930,928,928,928,928,928,928,928,928,928,928,928,928,928,928,925,925,925,925,925,925,925,925,925,925,925,925,925,925,925,925,925,925,925,925,925,925,925,923,923,923,923,923,923,923,923,923,923,923,923,923,923,923,923,923,920,920,920,920,920,920,918,918,918,918,918,918,918,918,920,920,918,918,918,918,920,920,918,918,918,918,918,918,918,918,918,918,918,915,915,915,915,915,915,915,915,915,915,915,915,915,915,915,915,915,913,913,913,910,910,910,910,910,913,913,913,913,913,913,913,913,913,913,915,915,915,915,915,915,915,915,913,913,913,910,910,910,910,910,910,910,908,908,910,910,910,908,908,908,908,908,908,908,908,908,910,908,908,908,908,906,906,906,906,906,906,906,906,906,908,906,906,908,906,906,906,903,903,903,903,906,906,906,906,906,906,906,906,906,906,906,906,906,903,903,903,903,903,903,903,903,903,901,901,901,901,901,901,898,898,898,898,898,898,898,898,898,898,898,898,898,898,898,898,898,898,898,898,896,896,896,896,896,896,898,898,898,898,896,896,896,896,896,896,896,896,896,896,896,896,896,894,894,894,894,896,896,894,894,894,894,894,894,891,891,891,891,889,813,813,813,869,813,813,813,813,813,813,811,811,811,811,811,809,807,807,805,805,803,803,803,805,805,803,803,805,805,805,805,805,805,889,889,889,887,887,887,887,887,885,885,887,887,887,885,885,887,887,887,885,885,885,885,885,885,885,885,882,882,882,880,880,880,880,837,835,833,831,831,831,829,785,783,783,781,780,778,778,776,776,774,773,771,769,766,762,762,761,761,759,759,755,755,754,750,749,749,0,0,0,0,0,0,0,0,0,0,0,0,0,0,0,0,0,0,0,0,0,0,0,0,0,0,0,0,0,0,0,0,0,0,0,0,0,0,0
0,0,0,964,964,964,962,962,962,962,962,962,962,959,956,956,956,959,959,959,959,959,959,959,959,956,956,956,956,956,956,956,954,954,954,954,954,954,956,954,954,954,954,954,954,954,954,954,954,954,954,951,951,951,954,954,954,954,954,954,954,954,954,954,954,954,951,951,951,951,948,948,946,946,948,948,946,946,946,948,948,948,948,948,948,948,948,946,946,946,946,946,946,946,946,946,946,948,948,948,948,946,946,946,946,946,946,946,946,946,946,946,946,946,946,946,943,943,946,946,943,943,943,943,943,943,943,943,943,943,943,943,943,943,943,943,943,940,940,938,938,938,935,933,833,833,835,835,835,835,837,839,839,841,841,841,843,843,845,847,847,847,849,849,849,849,851,854,854,930,930,933,935,935,935,935,935,935,935,933,933,933,933,933,933,933,933,933,933,933,933,933,933,933,930,930,933,930,930,930,930,933,933,933,930,930,930,930,928,928,928,928,928,925,925,928,928,928,928,928,928,928,925,925,925,925,925,925,925,928,925,925,925,928,925,925,925,925,925,925,925,925,925,925,925,925,925,925,925,925,925,923,923,923,923,923,923,923,923,923,923,923,923,923,923,923,923,923,923,923,923,923,923,923,923,923,923,920,920,920,920,920,920,920,920,920,920,920,920,920,920,920,918,918,918,915,915,915,915,915,915,915,915,915,915,915,915,915,915,918,918,918,918,918,918,918,918,918,918,915,915,915,915,913,913,913,913,913,913,913,913,915,915,915,915,915,913,913,913,910,910,910,910,910,910,910,910,910,910,910,910,910,910,910,910,910,910,910,910,910,913,913,913,913,913,910,910,910,910,908,908,908,908,908,908,908,908,908,908,908,908,908,908,908,908,908,908,908,908,908,908,906,906,906,906,906,903,903,903,903,903,903,906,906,906,906,906,903,903,903,901,901,901,901,903,903,903,903,903,906,903,903,903,903,903,903,901,901,901,901,901,901,901,901,901,901,901,901,901,901,898,898,898,898,898,898,898,898,898,896,896,898,898,898,898,898,898,898,898,896,896,896,896,894,894,894,894,896,896,896,896,896,896,896,896,896,894,894,894,894,894,894,894,894,894,894,894,891,891,894,894,894,891,891,891,891,891,891,891,889,889,813,813,813,811,811,813,813,813,813,813,813,813,811,811,811,811,809,807,807,805,805,803,803,803,803,803,803,803,803,803,805,805,805,889,889,887,887,887,887,887,887,885,885,885,885,885,885,885,885,882,882,882,882,882,882,882,882,882,882,882,882,882,880,880,880,878,878,839,837,835,835,833,833,831,785,785,783,781,780,780,780,778,776,774,773,773,769,764,762,762,761,761,759,759,755,755,752,750,749,749,0,0,0,0,0,0,0,0,0,0,0,0,0,0,0,0,0,0,0,0,0,0,0,0,0,0,0,0,0,0,0,0,0,0,0,0,0,0,0
0,0,0,962,962,962,962,962,959,959,959,959,959,956,956,956,956,956,956,956,954,954,959,959,956,956,956,956,956,956,954,954,954,954,954,954,951,951,954,954,954,951,951,954,951,951,951,951,951,951,951,948,948,951,951,951,951,951,951,951,951,951,951,951,951,951,951,951,948,946,946,946,946,946,946,946,946,946,946,946,946,946,946,946,946,946,943,943,943,943,943,946,946,946,946,946,946,943,943,946,946,946,946,946,946,946,943,943,943,943,943,943,943,943,943,943,943,943,943,943,943,943,940,940,940,940,940,940,940,940,940,940,940,940,940,940,940,940,938,938,938,938,935,933,835,835,835,835,835,837,837,839,839,841,841,841,843,843,845,847,847,849,849,849,851,851,854,854,854,856,928,928,930,930,933,933,933,933,933,933,930,930,930,930,930,930,930,930,930,930,930,930,930,930,930,930,930,930,928,928,928,930,930,930,928,928,928,925,925,925,925,925,925,925,925,925,925,925,925,925,925,923,923,923,923,923,925,925,925,925,923,923,923,923,923,923,923,923,923,923,923,923,923,923,925,923,923,923,923,923,923,920,920,920,920,920,920,920,920,920,923,923,923,923,923,923,923,923,923,923,923,923,923,920,920,920,920,918,918,918,918,918,918,918,918,918,918,915,915,915,915,915,915,915,915,915,915,913,913,913,913,913,913,913,913,913,913,915,915,918,918,918,918,915,915,915,915,915,915,915,913,913,913,910,910,910,910,910,910,910,910,913,913,913,913,913,910,910,910,910,910,910,910,908,908,908,908,908,908,908,908,910,910,910,910,908,908,908,908,908,908,908,908,910,910,908,908,908,908,908,908,908,908,908,908,906,906,906,906,906,906,906,906,906,906,906,906,906,906,906,906,906,906,903,903,903,903,901,901,901,901,901,901,903,903,903,903,901,901,901,898,898,898,901,901,901,901,901,903,903,901,901,901,901,901,898,898,898,898,898,898,898,898,898,898,898,898,898,898,898,896,896,898,896,896,896,896,896,896,896,896,896,896,896,896,896,896,896,896,894,894,894,891,891,891,891,891,894,894,894,894,891,891,894,894,894,894,894,894,894,891,891,891,891,891,891,891,889,889,891,891,891,889,889,889,889,889,889,889,889,889,813,813,813,811,811,813,813,813,813,813,813,813,813,813,811,811,807,807,805,805,803,803,803,803,803,803,803,803,803,803,803,803,889,889,889,887,887,885,885,885,885,885,882,882,885,885,882,882,882,880,880,880,880,880,882,882,882,882,880,880,880,880,880,878,878,878,875,873,839,835,835,835,831,831,829,829,783,781,780,780,780,778,778,776,774,773,769,764,762,762,761,761,759,757,755,754,752,750,749,749,0,0,0,0,0,0,0,0,0,0,0,0,0,0,0,0,0,0,0,0,0,0,0,0,0,0,0,0,0,0,0,0,0,0,0,0,0,0,0
0,0,0,959,959,959,959,959,959,959,959,959,959,956,956,956,954,954,956,954,954,954,954,954,954,954,954,954,954,956,954,954,951,951,951,951,948,948,951,948,948,948,948,951,951,948,948,948,948,948,946,946,948,948,948,948,946,946,946,946,946,948,948,948,948,948,948,946,946,946,943,943,943,943,943,943,943,943,943,946,943,943,943,943,943,943,940,940,940,943,943,943,943,943,943,943,943,943,943,943,943,943,943,943,943,943,943,943,943,943,943,943,943,943,943,940,940,940,940,940,940,940,938,938,938,938,935,935,938,935,935,938,938,938,938,938,935,935,935,935,935,933,933,933,933,837,837,837,837,837,839,839,841,841,841,843,843,845,847,847,849,849,851,851,851,854,854,856,856,856,928,928,928,928,928,928,928,930,930,930,928,928,928,928,928,928,928,928,928,928,928,928,928,928,928,928,928,928,925,925,925,925,925,928,925,925,925,925,923,923,923,923,923,923,923,925,925,923,923,923,923,923,920,920,923,923,923,923,923,923,923,923,923,920,920,920,920,920,920,920,920,920,920,920,923,923,920,920,923,920,920,918,918,920,920,918,918,918,918,920,920,920,920,920,920,920,920,920,920,920,920,920,920,920,918,918,915,915,915,915,915,915,915,915,915,915,915,913,913,913,913,913,913,913,913,913,913,913,910,910,910,910,910,908,908,908,910,913,913,915,915,915,915,915,915,915,915,913,913,913,910,910,910,908,908,908,908,908,908,908,908,910,910,910,910,910,908,908,908,908,908,908,908,908,908,906,906,906,906,906,906,908,908,908,908,908,908,908,906,906,908,906,906,906,906,906,906,906,906,906,906,906,906,906,906,906,906,906,906,906,906,906,906,906,906,906,906,903,903,903,903,903,903,903,901,901,901,901,901,901,901,901,901,901,901,898,898,898,898,898,898,898,898,898,898,898,898,898,898,898,898,898,898,898,898,898,896,896,896,896,898,898,898,898,898,896,896,896,896,896,896,896,896,896,896,896,896,896,896,896,894,894,894,894,894,894,896,896,894,894,894,891,891,891,891,891,891,891,894,894,891,889,889,889,889,889,889,889,891,891,891,891,889,889,889,889,889,889,889,889,889,889,889,889,889,889,889,889,889,887,887,887,813,813,813,813,813,813,813,813,813,813,813,813,811,811,811,807,805,805,803,803,803,803,803,803,803,803,803,803,803,803,803,889,889,889,885,885,882,882,882,882,882,882,882,882,882,882,880,880,880,880,880,880,880,880,880,880,880,880,880,880,880,878,878,875,875,875,871,871,871,871,869,831,831,829,829,829,827,780,780,780,778,778,776,774,773,769,766,764,762,761,761,759,757,755,754,752,750,749,749,0,0,0,0,0,0,0,0,0,0,0,0,0,0,0,0,0,0,0,0,0,0,0,0,0,0,0,0,0,0,0,0,0,0,0,0,0,0,0
0,0,0,956,954,954,956,956,956,956,954,954,956,954,954,954,946,946,954,951,951,951,951,951,951,951,951,951,951,951,951,951,951,948,948,948,946,946,946,946,946,946,946,946,946,946,946,946,946,946,946,946,946,946,946,946,946,946,946,946,946,946,946,946,946,946,946,946,943,943,943,943,943,943,943,943,943,940,940,940,940,940,940,940,940,938,938,938,938,940,940,940,940,940,940,940,940,940,940,940,940,940,940,940,940,940,938,938,938,940,940,940,940,940,940,940,938,938,938,938,938,938,935,935,935,935,935,935,935,935,935,935,933,933,935,933,933,933,933,933,933,930,930,930,930,841,841,839,839,841,841,841,841,841,841,843,843,845,847,849,849,849,851,851,851,854,854,856,856,858,925,925,925,925,925,925,925,925,925,925,925,925,925,928,928,928,925,925,928,928,928,928,928,928,925,925,925,925,925,925,925,923,923,925,923,923,923,923,923,923,923,923,923,923,923,923,923,920,920,920,920,918,918,918,920,920,920,920,920,920,920,918,918,918,918,918,915,915,915,918,918,918,918,918,918,915,915,918,918,918,918,915,915,918,918,915,915,915,915,915,915,915,915,918,915,915,918,918,918,918,918,918,918,918,915,915,915,915,913,913,913,913,913,913,913,910,910,908,908,908,908,908,908,910,910,910,910,910,910,908,908,908,908,908,908,908,908,908,908,913,913,913,913,913,913,913,913,913,910,910,908,908,908,908,908,908,908,908,908,908,908,908,908,908,908,908,906,906,908,908,908,908,908,906,906,906,906,906,906,906,906,906,906,908,906,906,906,906,906,906,906,906,906,903,903,903,901,901,906,906,906,906,906,906,906,906,906,903,903,903,903,906,906,906,903,903,903,901,901,901,901,901,901,898,898,898,898,898,898,898,898,898,898,898,898,896,896,896,896,896,896,896,896,896,898,898,898,898,898,898,896,896,896,896,896,896,896,896,896,896,896,896,896,896,896,896,896,896,896,896,896,896,896,896,896,894,894,894,894,894,891,891,891,891,891,891,891,891,891,891,891,891,889,889,889,889,889,891,891,891,889,889,889,889,887,887,887,887,889,889,889,889,889,889,887,887,887,887,887,887,887,887,889,889,889,887,887,887,887,887,887,885,813,813,813,813,813,813,813,813,813,813,813,813,811,811,807,805,805,803,803,803,803,803,803,803,803,803,803,803,803,803,803,803,887,887,885,882,880,880,880,880,882,880,880,880,880,880,880,880,880,880,880,880,880,880,880,880,880,880,880,880,878,878,878,875,873,873,871,871,869,869,869,869,829,829,829,829,829,829,829,829,829,829,776,776,773,769,767,764,764,761,761,759,757,755,752,752,750,749,749,0,0,0,0,0,0,0,0,0,0,0,0,0,0,0,0,0,0,0,0,0,0,0,0,0,0,0,0,0,0,0,0,0,0,0,0,0,0,0
0,0,0,954,954,954,954,954,954,954,951,951,948,946,946,946,946,946,946,946,948,948,948,948,948,951,951,946,946,951,948,946,946,946,948,948,946,946,946,946,946,943,943,943,943,946,943,943,943,943,943,943,943,943,943,943,943,943,943,943,943,943,943,943,946,946,943,943,943,943,940,940,940,940,940,940,940,938,938,938,940,938,938,938,938,938,935,935,935,938,938,938,938,938,940,940,938,938,938,938,938,940,940,938,938,938,938,938,938,935,935,938,938,938,938,938,935,935,935,935,935,933,933,933,935,933,933,933,933,933,933,933,930,930,930,930,930,928,928,930,930,928,928,930,928,928,841,841,841,841,841,841,841,843,843,843,845,847,849,849,851,851,851,851,854,854,856,858,858,858,923,923,923,923,923,923,923,923,923,923,923,923,923,923,925,925,925,925,925,925,925,925,925,925,925,925,923,923,923,923,923,923,923,923,923,923,923,920,920,920,920,920,920,920,920,920,918,918,918,918,918,918,918,918,918,918,918,918,918,918,918,918,915,915,915,915,915,913,913,915,915,915,915,915,915,915,913,913,915,915,915,915,915,915,915,915,915,915,915,915,915,915,915,915,913,913,913,913,913,913,913,913,913,913,913,913,913,913,913,913,913,913,913,913,910,908,908,908,908,908,906,906,906,908,908,908,908,908,908,906,906,906,906,906,906,906,906,906,906,910,910,910,913,913,910,910,910,910,908,908,908,908,908,908,906,906,906,906,906,906,906,906,906,906,906,906,906,906,906,906,906,906,906,906,906,906,906,906,906,906,906,906,906,906,906,906,906,906,903,903,903,903,903,901,901,901,898,898,898,898,898,901,903,903,903,903,903,901,901,901,901,903,901,901,901,901,901,898,898,898,898,898,898,898,898,898,898,898,898,898,898,898,896,896,896,896,894,894,894,894,896,896,896,896,896,896,896,896,896,896,896,896,894,894,894,894,891,891,894,894,894,894,894,894,894,894,891,891,891,894,894,894,894,894,894,891,891,891,891,889,889,889,889,889,889,889,889,889,889,889,889,889,889,889,889,889,889,889,889,889,889,887,887,887,887,887,887,887,885,885,887,887,887,887,887,885,885,887,887,887,887,887,887,887,887,887,887,887,887,885,885,882,882,813,813,813,813,813,813,860,860,860,860,860,811,811,807,805,805,803,803,803,803,803,803,803,802,802,802,802,802,802,802,802,885,885,882,880,880,880,878,878,878,878,878,878,878,878,878,878,878,878,878,878,878,878,878,878,878,878,878,878,875,875,875,873,871,871,871,871,869,869,869,869,869,829,829,829,829,829,829,829,829,829,829,0,0,829,0,764,764,762,762,759,757,755,752,752,750,749,749,0,0,0,0,0,0,0,0,0,0,0,0,0,0,0,0,0,0,0,0,0,0,0,0,0,0,0,0,0,0,0,0,0,0,0,0,0,0,0
0,0,0,951,951,951,951,951,951,951,948,948,948,946,946,946,943,943,943,943,946,946,946,946,946,948,946,946,946,940,940,946,946,946,946,943,943,943,943,943,943,943,943,943,943,943,943,940,940,940,940,940,943,943,943,943,943,943,943,943,940,940,943,943,943,943,943,943,940,940,940,940,940,938,938,938,938,938,938,938,938,938,938,935,935,935,935,935,935,935,935,935,938,938,938,938,938,935,935,935,938,938,938,935,935,935,935,935,935,935,935,935,935,935,933,933,935,935,933,933,933,933,933,933,933,933,933,933,933,933,930,930,928,928,928,928,928,928,928,928,928,928,928,928,925,925,925,843,843,843,843,843,843,843,843,845,845,849,849,851,851,851,851,851,854,856,856,858,858,858,923,923,923,923,923,923,923,923,923,923,923,923,923,923,923,923,923,923,923,925,923,923,923,925,923,923,923,923,923,923,920,920,920,920,920,920,920,920,920,920,920,920,918,918,918,918,915,915,915,915,915,915,915,915,915,915,918,915,915,918,915,915,915,915,915,915,913,913,913,913,913,913,913,913,913,913,913,913,913,913,913,913,913,913,915,913,913,913,913,913,913,913,913,913,910,910,910,910,910,908,908,908,908,910,910,908,908,910,910,910,910,910,910,910,908,908,908,906,906,906,906,906,906,906,906,906,906,906,906,906,906,906,906,906,906,906,906,906,906,908,908,908,908,908,908,908,908,908,908,908,908,906,906,906,906,906,906,906,906,903,903,903,903,903,903,903,903,903,906,906,906,906,903,903,903,901,901,901,901,901,901,901,903,903,903,903,903,903,903,903,901,901,901,901,898,898,898,898,898,898,898,898,898,898,898,901,901,898,898,898,898,901,898,898,898,898,898,898,898,898,896,896,896,896,896,896,896,896,896,896,896,896,896,894,894,894,894,894,894,894,894,894,894,894,896,894,894,894,894,894,894,894,894,891,891,891,891,891,891,891,891,891,891,891,891,891,889,889,889,891,891,891,891,891,891,889,889,889,889,887,887,887,887,889,887,887,887,887,887,887,887,887,887,887,887,887,887,887,887,887,887,887,887,887,885,885,885,882,882,882,882,882,882,882,885,885,885,885,885,885,885,885,885,885,885,885,885,885,885,885,885,882,882,882,813,813,860,860,860,860,860,860,860,860,860,860,807,805,805,803,803,803,803,803,803,802,802,802,802,802,802,800,800,800,802,885,880,880,878,878,875,875,875,875,875,875,875,875,875,878,878,878,878,878,875,875,875,875,875,873,873,873,873,873,873,871,871,871,871,871,869,869,869,869,869,833,833,831,829,829,829,829,829,829,829,829,829,0,0,766,766,766,762,761,757,755,752,752,750,749,749,0,0,0,0,0,0,0,0,0,0,0,0,0,0,0,0,0,0,0,0,0,0,0,0,0,0,0,0,0,0,0,0,0,0,0,0,0,0,0
0,0,0,951,948,948,948,946,946,946,946,946,946,946,946,946,943,943,943,943,946,946,943,943,943,943,940,940,940,938,938,940,940,940,943,943,943,943,943,943,943,943,943,940,940,943,940,940,940,940,940,940,940,940,940,940,940,940,940,940,940,940,940,940,940,940,940,940,938,938,938,938,938,938,935,935,935,935,935,935,935,935,935,935,935,935,933,933,933,935,935,935,935,935,935,935,935,933,933,933,935,935,935,933,933,933,933,933,933,933,933,933,933,933,930,930,930,930,930,930,933,933,933,933,933,930,930,930,930,930,928,928,928,928,928,928,928,928,925,925,925,925,925,925,925,925,925,845,845,845,843,843,843,845,845,845,847,849,849,851,851,851,851,854,856,856,858,858,860,860,860,923,920,920,923,923,923,923,920,920,920,920,920,920,923,920,920,920,920,920,920,920,923,923,923,920,920,920,920,920,920,918,918,918,920,920,920,920,920,920,918,918,918,918,918,915,915,915,915,915,915,915,915,915,915,915,915,915,915,915,915,915,915,913,913,913,913,913,910,910,913,913,913,913,913,913,910,910,910,910,913,910,910,910,910,910,910,910,913,913,913,913,913,910,910,910,910,908,908,908,906,906,908,908,908,908,908,908,908,908,908,908,908,908,906,906,906,906,906,906,903,903,903,906,906,906,906,906,906,906,903,903,903,903,903,903,903,903,906,906,906,906,906,906,906,906,903,903,903,906,906,906,906,903,903,903,903,903,903,901,901,901,901,901,901,903,903,903,903,903,903,903,901,901,898,898,898,898,898,898,898,898,898,901,901,901,901,901,901,901,898,898,898,898,896,896,896,896,896,896,896,896,896,896,896,896,896,896,898,898,898,898,898,898,898,898,898,898,896,896,896,896,896,894,894,894,894,894,894,894,894,894,894,894,891,891,891,891,891,891,894,894,894,894,894,891,891,891,891,891,891,891,891,891,891,889,889,889,889,889,889,889,889,889,889,889,889,889,889,889,889,889,889,889,889,889,887,887,887,887,887,887,887,887,885,885,885,885,885,885,885,885,885,885,885,885,885,887,887,887,887,887,885,885,885,882,882,882,880,880,880,880,880,880,880,880,882,882,882,885,885,885,885,882,882,882,882,882,882,882,882,880,880,880,860,860,860,860,860,860,860,860,860,860,860,860,805,805,803,803,803,803,803,803,802,802,802,802,802,802,802,800,800,800,800,800,878,878,875,875,873,873,873,873,873,873,873,873,873,875,875,875,875,875,873,873,873,873,873,871,871,871,871,871,871,871,871,871,871,871,869,869,869,869,869,0,837,833,831,831,829,829,827,827,829,829,829,0,0,0,0,769,762,761,759,755,754,754,752,750,750,0,0,0,0,0,0,0,0,0,0,0,0,0,0,0,0,0,0,0,0,0,0,0,0,0,0,0,0,0,0,0,0,0,0,0,0,0,0,0
0,0,0,948,946,946,946,946,946,946,946,946,946,943,943,946,940,940,943,943,943,943,943,943,943,940,938,938,938,935,935,938,938,940,940,940,940,940,940,940,940,940,940,938,938,938,938,938,938,938,938,938,938,938,938,940,940,940,940,940,938,938,938,938,938,935,935,938,935,935,935,935,935,935,935,935,935,935,935,935,935,935,933,933,933,933,933,933,933,933,933,933,933,933,933,933,933,933,930,930,933,933,933,933,933,933,933,930,930,930,930,930,930,928,928,928,928,928,928,928,928,928,928,930,930,930,930,928,928,928,928,928,928,928,925,925,925,925,925,925,925,925,925,925,925,925,925,847,847,845,845,845,845,845,845,847,847,849,849,851,851,854,854,856,856,858,858,860,860,860,860,918,918,918,918,918,920,918,918,918,918,918,918,918,920,918,918,918,918,920,918,918,918,918,920,918,918,918,918,918,918,918,915,915,915,915,915,915,918,918,915,915,915,915,915,915,913,913,913,913,913,913,913,913,913,913,915,915,913,913,913,913,913,913,910,910,910,910,910,910,910,910,910,910,910,910,908,908,908,910,910,908,908,908,908,908,908,908,908,908,910,910,910,910,908,908,908,908,906,906,906,906,906,906,906,906,906,906,906,906,906,906,906,906,906,906,906,906,906,903,903,903,903,903,903,903,903,903,903,903,903,903,903,903,903,903,903,903,903,903,903,903,903,903,903,903,903,901,901,901,901,901,903,901,901,901,901,901,901,901,901,901,901,901,901,901,901,901,903,903,903,901,898,898,898,898,898,898,898,898,896,896,896,896,898,898,898,898,898,898,898,898,896,896,896,896,896,896,894,894,896,894,894,896,894,894,896,896,896,896,896,896,898,898,896,896,896,896,896,896,896,894,891,891,891,891,891,891,891,891,891,891,891,891,889,889,889,889,889,889,889,889,889,889,889,889,889,889,889,889,889,889,889,889,889,889,889,889,889,889,889,887,887,887,887,887,887,887,887,887,885,885,887,887,887,887,887,887,887,885,885,885,885,885,885,882,882,885,882,882,882,882,882,882,882,882,882,885,885,885,885,885,885,885,882,882,880,880,880,880,880,880,878,878,878,878,880,880,880,882,882,882,882,882,880,880,880,880,882,882,880,880,878,878,862,860,860,860,860,860,860,860,860,860,860,860,803,803,803,803,803,803,803,802,802,802,802,802,802,802,800,800,800,802,800,800,871,871,871,871,871,871,871,871,871,871,871,871,871,873,873,873,873,873,871,871,871,871,871,871,871,871,871,871,871,869,869,869,869,869,869,869,869,867,867,867,833,833,833,831,829,829,827,827,827,827,827,0,0,0,769,769,766,762,759,757,755,755,754,752,752,0,0,0,0,0,0,0,0,0,0,0,0,0,0,0,0,0,0,0,0,0,0,0,0,0,0,0,0,0,0,0,0,0,0,0,0,0,0,0
0,0,0,946,946,943,943,943,943,943,943,943,943,943,943,943,940,940,938,938,940,940,940,940,940,938,935,935,935,935,935,935,938,938,938,938,938,938,938,938,938,938,938,935,935,935,935,935,935,935,935,935,935,935,935,935,938,938,938,938,935,935,935,935,935,933,933,933,935,935,935,933,933,933,933,933,933,933,933,933,933,933,933,933,933,933,930,930,930,930,930,930,928,928,928,928,930,930,928,928,928,930,930,930,930,930,930,930,928,928,928,928,928,925,925,925,925,925,925,925,925,925,925,925,925,925,925,925,925,925,925,925,925,925,925,925,925,925,925,925,925,923,923,923,923,923,925,851,849,847,845,845,847,847,847,847,849,849,851,851,854,856,856,858,858,858,860,860,860,860,860,915,915,918,918,918,918,915,915,918,918,918,918,918,918,918,918,918,918,918,915,915,915,915,915,915,915,915,915,915,915,915,915,915,915,915,915,915,915,915,913,913,913,913,913,913,913,913,913,913,910,910,913,913,913,913,913,913,913,913,913,913,913,913,910,910,910,910,910,908,908,910,908,908,910,908,906,906,906,906,906,906,906,906,906,906,906,906,906,906,906,906,906,908,906,906,906,906,906,906,906,906,906,906,906,903,903,906,903,903,903,903,903,903,903,903,903,903,903,903,903,901,901,901,901,901,901,901,901,901,903,901,901,901,901,901,901,901,901,901,901,903,903,903,901,901,901,901,901,901,898,898,898,898,898,898,898,898,898,898,898,898,898,898,898,901,898,898,901,901,898,898,898,898,896,896,896,896,896,896,896,896,896,896,896,896,896,896,896,896,896,896,896,896,894,894,894,894,894,894,894,894,891,891,891,891,894,894,894,894,894,894,894,896,896,896,896,896,896,894,894,891,891,889,889,889,889,889,889,889,889,889,889,889,889,887,887,887,887,889,889,889,889,889,889,887,887,887,887,887,887,887,887,887,887,887,887,887,887,887,887,887,887,885,885,882,882,882,882,882,882,882,882,885,885,885,885,885,885,885,885,882,882,885,885,882,882,882,882,882,880,880,880,880,880,880,880,880,880,882,882,882,882,880,880,880,878,878,878,878,878,878,878,878,878,878,878,878,878,878,878,880,880,880,880,880,880,880,880,880,880,878,878,878,862,862,860,860,860,858,858,858,858,858,858,858,802,802,803,802,802,802,802,802,802,802,802,802,802,802,800,800,802,802,802,802,869,869,871,869,869,869,871,871,871,871,871,871,871,871,871,871,871,869,869,869,869,869,869,869,869,869,869,869,869,869,869,869,869,869,867,867,864,862,862,0,862,0,831,831,829,829,827,827,825,825,0,798,798,792,0,773,769,764,762,759,755,755,755,754,754,0,0,0,0,0,0,0,0,0,0,0,0,0,0,0,0,0,0,0,0,0,0,0,0,0,0,0,0,0,0,0,0,0,0,0,0,0,0,0
0,0,0,946,943,943,943,943,943,943,943,943,943,940,940,938,938,938,938,938,938,938,938,938,938,935,935,935,935,935,935,935,935,935,935,935,935,935,933,933,933,933,933,933,933,933,933,933,933,933,933,933,933,933,933,933,933,933,933,935,933,933,933,933,933,933,930,930,933,933,933,933,933,933,933,930,930,930,933,930,930,930,930,930,930,930,930,928,928,928,928,928,925,925,925,928,928,928,925,925,925,925,925,925,925,928,928,928,925,925,925,925,925,925,925,925,925,925,925,925,923,923,923,923,923,923,923,923,923,923,923,925,925,925,925,925,925,925,925,923,923,923,923,923,923,923,923,849,849,847,847,847,847,847,847,849,849,851,851,854,856,856,858,858,858,858,860,860,862,860,860,915,915,918,915,915,915,915,915,915,915,915,915,915,915,915,915,915,915,915,915,913,913,913,913,913,913,913,913,913,913,913,913,913,913,913,913,913,913,913,913,913,913,913,913,913,910,910,910,910,910,910,910,910,910,910,910,913,910,910,910,910,910,910,908,908,908,908,908,908,908,908,908,908,906,906,906,906,906,906,906,906,906,906,906,906,906,906,906,906,906,906,906,903,903,903,903,906,906,903,903,903,903,903,903,903,903,903,903,903,903,901,901,901,901,903,903,903,903,903,901,898,898,898,898,898,898,898,898,898,901,898,898,898,898,898,898,898,898,898,898,898,898,901,898,898,898,898,898,898,898,896,896,896,896,896,896,896,898,898,896,896,898,898,898,898,898,898,896,896,896,896,896,896,894,894,894,894,896,896,896,894,894,894,894,894,894,894,894,894,896,896,894,894,894,891,891,891,891,891,891,891,891,889,889,889,891,891,891,891,891,891,891,891,891,894,894,894,894,891,891,889,889,889,889,889,889,889,889,889,889,889,889,887,887,887,887,887,887,887,887,887,887,887,887,887,885,885,885,885,885,885,887,887,887,885,885,885,887,885,885,885,885,885,882,880,880,880,880,880,880,880,882,882,882,882,882,882,882,882,882,882,882,882,882,880,880,882,880,880,880,880,880,880,878,878,878,878,880,880,880,880,880,878,878,878,878,878,878,878,878,878,878,878,878,875,875,875,875,875,875,875,875,880,878,878,878,878,880,880,880,878,878,878,860,860,858,858,858,858,858,856,856,856,858,858,802,802,803,802,802,802,802,802,802,800,800,800,800,800,800,802,802,802,803,869,869,869,869,869,869,869,869,869,869,869,869,869,869,869,867,867,867,867,867,867,867,867,869,869,869,869,869,869,867,867,867,867,867,867,867,867,864,862,862,862,0,860,0,0,0,829,827,827,825,825,0,798,798,792,790,778,773,773,764,761,757,757,757,755,755,0,0,0,0,0,0,0,0,0,0,0,0,0,0,0,0,0,0,0,0,0,0,0,0,0,0,0,0,0,0,0,0,0,0,0,0,0,0,0
0,0,0,943,943,943,943,940,940,940,940,940,940,940,940,938,938,935,935,935,935,935,935,935,935,935,933,933,935,933,933,933,933,933,933,933,933,933,930,930,930,930,928,928,928,930,930,930,930,930,930,930,928,928,928,928,928,928,930,930,930,930,930,930,930,930,928,928,930,930,930,928,928,930,930,928,928,928,930,928,928,928,928,928,928,928,928,925,925,925,925,925,925,925,925,925,925,925,925,925,925,925,925,925,925,925,925,925,925,925,925,923,923,925,923,923,923,923,923,923,923,923,923,923,920,920,920,920,920,920,920,920,920,923,923,923,923,923,923,923,923,923,923,920,920,920,923,849,847,847,847,847,847,847,849,849,849,851,851,854,856,856,858,858,858,858,860,862,860,860,860,915,915,918,915,915,915,913,913,915,915,915,915,915,915,915,915,915,913,913,913,913,913,913,913,913,913,913,913,910,910,910,910,910,910,913,913,913,913,913,910,910,910,910,910,910,910,908,908,908,908,908,908,908,908,908,908,910,910,908,908,908,908,908,908,908,908,906,906,906,906,906,906,906,906,906,903,903,903,903,903,903,903,903,906,906,903,903,903,903,903,903,903,903,903,901,901,901,903,903,903,903,903,903,903,903,903,901,901,901,901,898,898,898,898,901,901,901,901,901,901,898,896,896,898,898,898,898,898,898,898,898,898,896,896,896,896,896,898,898,898,898,898,898,898,898,898,898,898,896,896,896,896,896,896,896,896,896,896,896,896,896,896,896,896,896,896,896,896,894,894,894,894,891,891,891,891,891,894,894,894,894,894,894,894,891,891,891,891,891,894,894,891,891,891,889,889,889,889,889,889,889,889,889,889,889,889,889,889,889,889,889,889,889,891,889,889,889,889,889,889,889,889,887,887,887,887,887,887,887,887,887,887,885,885,885,885,885,887,887,887,887,887,885,885,885,885,885,882,882,882,882,882,885,885,882,882,882,885,885,885,885,882,882,880,880,880,880,880,880,880,880,880,880,880,882,882,882,880,880,880,880,880,880,880,880,880,880,880,880,880,880,880,878,878,878,878,878,878,875,875,878,875,875,875,875,875,875,878,878,878,878,875,875,875,873,873,873,873,873,873,873,873,875,875,875,878,878,880,880,878,878,878,878,860,860,858,858,858,856,856,856,856,856,856,856,803,803,803,802,802,802,802,802,802,800,800,800,800,800,800,800,802,802,802,869,869,869,869,867,867,869,869,869,869,867,867,869,869,867,864,864,864,864,864,864,864,867,867,867,867,867,867,867,867,867,867,867,867,867,864,864,864,862,862,860,860,860,0,0,856,825,825,825,825,825,813,813,798,792,790,781,776,774,769,764,764,764,761,759,759,0,0,0,0,0,0,0,0,0,0,0,0,0,0,0,0,0,0,0,0,0,0,0,0,0,0,0,0,0,0,0,0,0,0,0,0,0,0,0
