0,0,0,0,0,0,1161,1161,1165,1169,1169,1165,1165,1165,1165,1161,1161,1161,1157,1157,1157,1157,1157,1157,1157,1157,1157,1153,1149,1149,1149,1149,1149,1149,1149,1149,1149,1149,1145,1145,1145,1145,1145,1145,1145,1145,1145,1145,1145,1145,1145,1145,1145,1145,1145,1145,1149,1145,1145,1149,1149,1149,1145,1145,1149,1149,1149,1149,1145,1145,1145,1145,1141,1141,1145,1141,1141,1145,1145,1145,1149,1145,1145,1149,1149,1149,1149,1149,1149,1149,1149,1149,1145,1145,1145,1145,1145,1145,1145,1145,1145,1145,1145,1141,1141,1141,1141,1141,1145,1145,1145,1145,1145,1141,1141,1134,1130,1123,1119,1119,1119,1115,1115,1115,1115,1119,1119,1119,1123,1126,1130,1130,1130,1130,1134,0,0,0,0,0,0,0,0,0,741,741,741,741,741,741,741,742,744,746,746,747,747,747,747,749,749,750,750,752,752,754,754,754,754,754,0,0,0,0,0,1145,1145,1141,1141,1141,1141,1141,1141,1141,1141,1141,1141,1138,1138,1138,1138,1138,1138,1138,1138,1138,1134,1134,1134,1134,1134,1134,1134,1134,1134,1134,1134,1134,1134,1130,1130,1134,1134,1134,1134,1134,1134,1134,1134,1134,1134,1134,1134,1134,1134,1134,1134,1134,1134,1134,1134,1134,1134,1134,1134,1134,1134,1134,1134,1134,1134,1130,1130,1130,1130,1126,1126,1126,1126,1130,1130,1126,1126,1126,1126,1123,1123,1123,1123,951,951,946,943,938,930,928,928,925,923,923,918,918,915,915,915,915,915,913,913,913,910,910,910,910,910,910,910,910,910,913,913,910,910,910,913,913,915,915,915,915,918,918,918,918,918,920,923,923,923,928,930,930,930,933,935,935,938,938,940,940,946,946,948,948,948,951,951,954,956,956,956,959,959,959,1119,1119,1119,1119,1123,1119,1119,1123,1123,1123,1126,1126,1126,1126,1126,1123,1123,1123,1123,1123,1123,1123,1123,1028,1028,1025,1022,1019,1019,1016,1013,1013,1013,1013,1013,1013,1013,1016,1016,1019,1022,1022,1025,1025,1025,1028,1119,1119,1119,1119,1119,1119,1119,1119,1119,1119,1119,1115,1115,1115,1115,1119,1119,1115,1115,1115,1115,1115,1119,1119,1119,1119,1119,1119,1119,1119,1119,1115,1115,1115,1115,1115,1115,1115,1115,1115,1115,1115,1115,1115,1115,1115,1115,1119,1115,1112,1112,1112,1112,1112,1108,1108,1108,1112,1112,1112,1112,1112,1112,1108,1108,1108,1108,1108,1108,1112,1112,1112,1112,1112,1112,1112,1108,1108,1108,1108,1108,1108,1108,1108,1108,1108,1108,1105,1105,1105,1105,1105,1105,1105,1105,1105,1105,1105,1105,1105,1105,1105,1105,1105,1105,1105,1105,1105,1105,1101,1101,1101,1097,1097,1101,1101,1097,1097,1097,1097,1097,1097,1097,1105,1097,1097,1097,1097,1097,1097,1097,1097,1097,1097,1094,1094,1094,1094,1094,1097,1097,1097,1101,1101,1101,1097,1097,1094,1094,1090,1090,1094,1094,1094,1094,1094,1094,1094,1097,1094,1094,1094,1094,1094,1094,1094,1094,1094,1094,1094,1094,1094,1097,1097,1094,1094,1094,1094,1094,1094,1094,1094,1094,1094,1094,1094,1101,1097,1097,1094,1094,1094,1094,1094,1094,1094,1094,1094,1094,1090,1090,1094,1090,1090,1090,1090,1090,1090,1090,1090,1090,1090,1090,1090,1090,1090,1090,1090,1090,1094,1094,1094,1090,1090,1094,1090,1090,0,0,0,0,0,0,0,0,0,0,0,0,0,0,0,0,0,0,0,0,0,0,0,0,0,0,0,0,0,0,0,0,0
0,0,0,0,0,0,1161,1161,1165,1165,1165,1165,1161,1161,1161,1161,1157,1157,1153,1153,1153,1153,1153,1153,1153,1153,1153,1149,1149,1149,1149,1149,1149,1149,1149,1149,1145,1145,1145,1145,1145,1145,1145,1145,1145,1145,1145,1145,1145,1145,1145,1145,1145,1145,1145,1145,1145,1145,1145,1145,1145,1145,1145,1145,1145,1145,1145,1145,1145,1141,1141,1141,1138,1138,1141,1141,1141,1141,1145,1145,1145,1145,1145,1145,1145,1145,1145,1145,1145,1145,1145,1145,1141,1141,1141,1141,1141,1141,1141,1141,1141,1141,1141,1141,1141,1141,1141,1141,1141,1141,1141,1141,1145,1141,1141,1134,1130,1130,1123,1123,1119,1119,1119,1119,1119,1119,1119,1119,1123,1126,1130,1130,1130,1130,1130,0,0,0,0,0,0,0,0,0,741,741,741,741,741,741,742,742,744,746,747,747,747,749,749,749,750,750,752,752,754,754,754,754,754,754,0,0,0,0,0,1145,1141,1141,1138,1138,1138,1138,1138,1134,1134,1138,1134,1134,1134,1134,1134,1134,1134,1134,1134,1134,1134,1134,1130,1130,1134,1134,1134,1134,1134,1134,1134,1130,1130,1130,1130,1130,1130,1126,1126,1130,1130,1130,1130,1130,1130,1130,1130,1130,1130,1130,1130,1130,1130,1130,1130,1130,1130,1130,1130,1130,1130,1130,1126,1126,1130,1126,1126,1126,1126,1126,1126,1123,1123,1126,1123,1123,1123,1123,1123,1123,1119,1119,1123,1123,946,946,943,938,930,928,928,925,923,920,918,915,913,913,913,913,913,910,910,910,910,908,908,908,908,910,910,910,910,910,910,908,908,908,910,913,913,915,915,915,915,918,918,918,918,920,923,923,923,928,930,933,933,933,935,935,938,938,940,943,946,946,948,948,951,951,951,954,956,956,1119,1119,1119,1119,1119,1119,1119,1119,1119,1119,1119,1119,1123,1123,1123,1123,1123,1123,1123,1123,1123,1123,1119,1119,1119,1119,1119,1028,1028,1028,1025,1022,1019,1016,1016,1013,1013,1013,1013,1013,1016,1016,1016,1019,1022,1022,1025,1025,1025,1028,1119,1119,1119,1115,1115,1115,1115,1115,1115,1115,1115,1115,1115,1115,1112,1112,1112,1112,1112,1112,1112,1115,1115,1115,1115,1115,1119,1115,1115,1115,1115,1112,1112,1112,1112,1112,1112,1112,1112,1112,1112,1112,1112,1112,1112,1112,1112,1115,1112,1108,1108,1108,1108,1108,1108,1108,1108,1108,1108,1108,1108,1108,1108,1105,1105,1105,1105,1105,1105,1105,1105,1105,1108,1108,1108,1108,1105,1105,1105,1105,1105,1105,1105,1105,1105,1105,1101,1101,1101,1101,1101,1101,1101,1101,1101,1105,1101,1101,1101,1101,1101,1101,1101,1101,1101,1101,1101,1101,1094,1094,1097,1097,1094,1094,1094,1094,1094,1094,1094,1094,1094,1094,1094,1094,1097,1094,1094,1094,1094,1094,1094,1094,1094,1094,1094,1094,1094,1094,1094,1094,1094,1094,1094,1094,1097,1094,1094,1094,1090,1090,1090,1094,1094,1094,1094,1094,1094,1094,1094,1090,1090,1090,1090,1090,1090,1090,1090,1094,1090,1090,1090,1090,1090,1090,1090,1094,1094,1094,1094,1094,1094,1094,1094,1094,1090,1090,1090,1094,1094,1094,1090,1090,1090,1090,1090,1090,1090,1090,1090,1090,1090,1090,1087,1087,1087,1087,1087,1087,1090,1090,1090,1090,1090,1090,1087,1087,1087,1090,1090,1094,1094,1094,1090,1090,1090,1090,1090,0,0,0,0,0,0,0,0,0,0,0,0,0,0,0,0,0,0,0,0,0,0,0,0,0,0,0,0,0,0,0,0,0
0,0,0,0,0,0,1161,1161,1161,1161,1161,1161,1157,1157,1157,1157,1153,1153,1149,1149,1149,1149,1149,1149,1149,1149,1149,1149,1145,1145,1145,1145,1145,1145,1145,1145,1145,1145,1145,1141,1141,1141,1141,1141,1145,1145,1145,1145,1141,1141,1141,1141,1141,1141,1141,1141,1141,1141,1145,1145,1145,1145,1141,1141,1141,1141,1141,1145,1141,1141,1141,1141,1138,1138,1138,1138,1141,1141,1141,1141,1145,1141,1141,1141,1141,1145,1141,1141,1141,1141,1141,1141,1138,1138,1138,1138,1138,1138,1138,1138,1138,1141,1141,1138,1138,1138,1138,1138,1141,1141,1141,1141,1141,1138,1138,1134,1134,1134,1126,1123,1119,1119,1119,1119,1119,1119,1119,1123,1126,1126,1130,1130,1130,1130,1130,1130,0,0,0,0,0,0,0,741,741,741,742,742,742,742,744,744,746,747,747,747,749,749,749,750,750,752,752,754,754,754,754,754,755,755,0,0,0,0,0,1141,1141,1138,1134,1130,1130,1134,1134,1130,1130,1134,1134,1134,1134,1134,1134,1134,1134,1134,1134,1130,1130,1130,1130,1130,1130,1130,1130,1130,1130,1130,1130,1126,1126,1126,1126,1126,1126,1126,1126,1126,1126,1126,1126,1126,1126,1126,1126,1126,1126,1126,1126,1126,1126,1126,1126,1126,1126,1126,1126,1126,1126,1126,1123,1123,1123,1123,1123,1123,1123,1123,1123,1119,1119,1123,1119,1119,1119,1119,1119,1119,1119,1119,1119,1119,1119,1119,0,930,930,928,928,925,923,918,913,910,910,910,908,908,908,906,906,910,908,908,908,908,908,908,908,908,908,908,908,908,908,908,908,910,913,913,915,915,915,918,918,918,918,920,923,923,925,928,930,933,933,935,935,935,938,940,943,943,946,946,948,948,951,951,954,1112,1112,1112,1115,1115,1119,1119,1119,1119,1119,1119,1119,1115,1115,1115,1119,1119,1119,1119,1119,1119,1119,1119,1119,1119,1119,1119,1115,1115,1115,1028,1028,1028,1025,1022,1019,1016,1016,1013,1013,1013,1013,1016,1016,1016,1019,1019,1022,1022,1025,1025,1025,1028,1115,1115,1112,1112,1112,1112,1112,1112,1112,1112,1112,1112,1112,1112,1108,1108,1108,1108,1108,1108,1108,1108,1112,1112,1112,1112,1112,1112,1108,1108,1108,1108,1108,1108,1108,1108,1108,1108,1108,1108,1108,1108,1108,1108,1108,1108,1108,1108,1108,1108,1108,1108,1105,1105,1105,1105,1105,1105,1105,1105,1105,1105,1105,1101,1101,1101,1101,1101,1101,1101,1101,1101,1101,1101,1101,1105,1105,1101,1101,1101,1101,1101,1101,1101,1101,1101,1097,1097,1097,1097,1097,1097,1097,1097,1097,1097,1097,1097,1101,1101,1097,1097,1097,1097,1097,1094,1094,1090,1090,1090,1090,1090,1094,1094,1094,1094,1094,1094,1094,1094,1094,1090,1090,1090,1094,1094,1094,1094,1094,1094,1094,1094,1094,1090,1090,1090,1090,1090,1090,1090,1090,1090,1090,1094,1094,1090,1090,1090,1090,1090,1090,1090,1090,1090,1090,1090,1090,1090,1090,1090,1090,1087,1087,1087,1090,1090,1090,1090,1090,1090,1090,1090,1090,1090,1090,1090,1090,1090,1090,1090,1090,1090,1090,1087,1087,1087,1087,1090,1090,1090,1090,1090,1090,1090,1090,1090,1090,1090,1090,1090,1090,1090,1084,1084,1084,1084,1084,1087,1087,1087,1087,1087,1087,1087,1087,1087,1087,1090,1090,1094,1094,1094,1090,1090,1090,1090,1090,0,0,0,0,0,0,0,0,0,0,0,0,0,0,0,0,0,0,0,0,0,0,0,0,0,0,0,0,0,0,0,0,0
0,0,0,0,0,0,1157,1157,1157,1157,1157,1157,1157,1153,1153,1153,1149,1149,1149,1149,1149,1149,1149,1149,1149,1149,1149,1145,1145,1145,1145,1145,1145,1145,1145,1145,1145,1141,1141,1141,1138,1138,1138,1138,1138,1141,1141,1141,1138,1138,1138,1138,1138,1138,1138,1138,1141,1141,1141,1141,1141,1141,1138,1138,1138,1141,1141,1141,1138,1138,1138,1138,1134,1134,1134,1134,1134,1138,1138,1138,1141,1141,1138,1138,1138,1138,1138,1138,1138,1138,1138,1138,1138,1134,1134,1134,1134,1138,1134,1134,1134,1134,1134,1134,1134,1134,1134,1134,1138,1138,1138,1138,1138,1134,1134,1134,1130,1130,1126,1123,1123,1119,1119,1119,1119,1119,1123,1123,1126,1130,1130,1130,1130,1130,1130,1130,0,0,0,0,0,0,0,741,741,742,742,742,744,744,744,746,746,747,747,747,749,749,750,750,752,752,754,754,754,755,755,755,755,755,0,0,0,0,0,1138,1138,1134,1130,1126,1126,1130,1130,1130,1130,1130,1130,1130,1130,1130,1130,1130,1130,1130,1130,1130,1130,1126,1126,1126,1126,1126,1126,1126,1123,1123,1126,1123,1123,1123,1123,1123,1123,1123,1123,1123,1123,1123,1123,1123,1123,1123,1123,1123,1123,1123,1123,1123,1123,1123,1123,1123,1123,1123,1123,1123,1123,1123,1119,1119,1119,1119,1119,1119,1119,1119,1119,1119,1119,1119,1119,1119,1119,1119,1119,1119,1119,1115,1115,1115,1115,1115,0,930,930,930,930,925,923,918,906,906,903,903,903,903,903,901,901,901,901,903,903,906,906,906,906,906,906,906,906,906,906,906,908,908,913,913,913,915,915,918,918,920,920,923,923,923,925,928,930,933,933,935,935,938,938,940,943,943,946,946,948,948,951,951,1112,1112,1112,1112,1115,1115,1115,1115,1115,1115,1115,1115,1115,1115,1112,1112,1115,1115,1112,1112,1115,1115,1119,1115,1115,1115,1115,1115,1112,1112,1112,1028,1028,1028,1028,1025,1019,1016,1016,1016,1016,1016,1016,1016,1016,1019,1019,1022,1025,1025,1025,1025,1025,1028,1112,1112,1108,1108,1108,1108,1108,1108,1108,1108,1108,1108,1108,1108,1108,1108,1108,1108,1108,1105,1105,1105,1105,1108,1108,1108,1108,1108,1108,1108,1105,1105,1105,1105,1105,1105,1105,1105,1105,1105,1105,1105,1105,1105,1105,1105,1105,1105,1105,1105,1105,1105,1105,1105,1105,1105,1101,1101,1101,1101,1101,1097,1097,1097,1097,1097,1097,1097,1097,1097,1097,1097,1097,1097,1097,1094,1094,1101,1101,1101,1101,1097,1097,1101,1101,1097,1097,1094,1094,1094,1094,1094,1094,1094,1094,1094,1094,1094,1097,1097,1097,1094,1094,1097,1094,1094,1090,1090,1090,1090,1090,1090,1090,1090,1090,1090,1090,1090,1090,1090,1090,1087,1087,1087,1087,1087,1090,1090,1090,1090,1090,1090,1090,1090,1090,1087,1087,1087,1087,1090,1090,1090,1090,1090,1090,1087,1087,1090,1090,1090,1090,1090,1090,1090,1087,1084,1084,1084,1084,1084,1080,1080,1080,1087,1087,1087,1090,1090,1090,1090,1087,1087,1087,1087,1087,1087,1087,1090,1087,1087,1090,1087,1087,1084,1084,1084,1084,1090,1090,1087,1084,1084,1084,1084,1087,1090,1087,1087,1090,1087,1087,1084,1084,1084,1084,1084,1084,1084,1084,1084,1084,1084,1084,1087,1087,1090,1094,1090,1090,1094,1094,1094,1090,1084,1084,1084,1084,0,0,0,0,0,0,0,0,0,0,0,0,0,0,0,0,0,0,0,0,0,0,0,0,0,0,0,0,0,0,0,0,0
0,0,0,0,0,1157,1153,1153,1157,1153,1153,1153,1153,1153,1153,1149,1149,1149,1145,1145,1145,1145,1145,1145,1145,1145,1145,1141,1141,1141,1141,1141,1145,1141,1141,1145,1141,1141,1138,1138,1138,1134,1134,1134,1134,1138,1138,1138,1138,1138,1138,1138,1134,1134,1134,1134,1134,1134,1134,1134,1134,1134,1134,1134,1134,1134,1134,1134,1134,1134,1134,1134,1134,1134,1134,1134,1134,1134,1134,1134,1134,1138,1138,1138,1138,1138,1138,1138,1134,1134,1134,1138,1134,1134,1134,1134,1134,1134,1134,1134,1134,1134,1134,1134,1134,1130,1130,1130,1134,1134,1134,1134,1134,1134,1134,1130,1130,1130,1126,1126,1123,1119,1119,1119,1119,1123,1123,1126,1126,1130,1130,1130,1130,1130,1130,1130,1130,0,0,0,0,0,0,0,746,744,744,744,744,746,746,746,746,747,747,747,749,750,750,752,752,754,754,754,755,755,755,755,755,755,0,0,0,0,0,1138,1134,1130,1130,1126,1126,1126,1126,1126,1126,1126,1126,1130,1126,1126,1126,1130,1130,1126,1126,1126,1126,1126,1126,1123,1123,1123,1123,1123,1123,1123,1123,1123,1123,1119,1119,1119,1119,1119,1119,1119,1119,1119,1119,1119,1119,1119,1119,1119,1119,1119,1119,1119,1119,1119,1119,1119,1119,1119,1119,1119,1119,1119,1115,1115,1119,1115,1115,1119,1119,1119,1119,1115,1115,1115,1115,1115,1115,1115,1115,1115,1115,1115,1115,1115,1115,1115,0,0,0,896,894,894,894,896,896,898,898,898,898,898,898,898,898,898,898,898,901,901,901,901,903,903,906,906,906,906,906,906,908,908,913,913,913,915,918,918,918,920,920,923,923,925,925,930,930,933,935,935,935,938,938,940,943,943,946,946,948,948,1108,1108,1108,1108,1108,1108,1112,1112,1112,1112,1112,1112,1112,1112,1112,1112,1112,1112,1112,1112,1112,1108,1108,1108,1112,1112,1112,1112,1112,1112,1112,1112,1108,1031,1031,1031,1028,1025,1019,1019,1016,1016,1016,1016,1016,1016,1016,1019,1022,1022,1025,1025,1025,1025,1028,1112,1112,1108,1108,1108,1108,1108,1108,1108,1108,1108,1108,1108,1108,1108,1108,1105,1105,1105,1105,1105,1105,1105,1105,1105,1105,1105,1105,1105,1105,1105,1105,1101,1101,1101,1105,1105,1105,1105,1105,1105,1105,1105,1105,1105,1105,1101,1101,1105,1105,1105,1105,1105,1105,1105,1101,1097,1097,1097,1097,1097,1097,1097,1097,1097,1097,1097,1094,1094,1094,1097,1097,1094,1094,1094,1094,1094,1094,1094,1094,1097,1097,1094,1094,1097,1097,1094,1094,1094,1094,1094,1094,1090,1090,1090,1090,1094,1094,1094,1094,1094,1094,1094,1090,1090,1090,1090,1090,1087,1087,1087,1087,1087,1090,1090,1090,1090,1090,1087,1087,1087,1087,1087,1084,1084,1084,1084,1087,1087,1084,1084,1087,1087,1090,1087,1087,1087,1084,1084,1084,1090,1084,1084,1090,1090,1090,1087,1087,1087,1087,1087,1087,1087,1087,1087,1084,1080,1080,1080,1080,1080,1080,1080,1080,1084,1084,1084,1087,1087,1087,1087,1087,1087,1087,1087,1087,1087,1087,1087,1084,1084,1084,1084,1084,1080,1080,1080,1080,1080,1080,1084,1084,1084,1084,1084,1084,1084,1084,1084,1084,1084,1084,1080,1080,1080,1080,1080,1080,1080,1080,1080,1080,1080,1080,1080,1084,1087,1094,1097,1097,1097,1097,1097,1084,1084,1084,1080,1080,0,0,0,0,0,0,0,0,0,0,0,0,0,0,0,0,0,0,0,0,0,0,0,0,0,0,0,0,0,0,0,0,0
0,0,0,0,0,1153,1153,1153,1153,1153,1149,1149,1149,1149,1149,1145,1145,1145,1145,1141,1141,1141,1141,1141,1141,1141,1141,1141,1141,1138,1138,1141,1141,1141,1141,1141,1141,1138,1138,1134,1134,1130,1130,1134,1134,1134,1134,1134,1134,1134,1134,1134,1130,1130,1130,1134,1130,1130,1130,1130,1130,1130,1130,1130,1130,1130,1130,1130,1134,1134,1130,1130,1130,1130,1130,1130,1130,1130,1130,1130,1130,1134,1130,1130,1134,1134,1134,1134,1134,1130,1130,1134,1134,1130,1130,1130,1130,1130,1130,1130,1130,1130,1130,1130,1130,1130,1130,1126,1126,1126,1126,1126,1126,1126,1130,1130,1130,1130,1126,1126,1123,1123,1123,1123,1123,1123,1123,1123,1126,1126,1126,1126,1126,1126,1126,1126,1130,0,0,0,0,0,0,0,0,744,744,744,744,746,746,746,746,747,747,749,749,750,752,752,752,754,754,754,755,755,755,755,757,757,0,0,0,0,0,1138,1134,1130,1126,1123,1123,1126,1126,1123,1123,1123,1126,1126,1123,1123,1126,1126,1126,1126,1123,1123,1123,1123,1123,1123,1119,1119,1123,1119,1119,1119,1119,1119,1119,1119,1119,1119,1119,1119,1119,1119,1119,1119,1115,1115,1115,1115,1115,1119,1115,1115,1115,1115,1119,1119,1119,1115,1115,1115,1115,1115,1115,1115,1115,1115,1115,1115,1115,1115,1115,1115,1115,1115,1115,1115,1115,1115,1115,1115,1115,1115,1115,1115,1115,1115,1115,1115,0,0,894,896,896,894,894,896,896,896,896,896,896,898,898,898,898,896,896,898,898,898,898,898,901,901,903,903,903,906,906,906,908,908,910,913,913,915,918,918,918,920,920,923,923,925,925,930,933,933,935,935,935,938,938,940,940,943,1108,1108,1108,1108,1108,1108,1108,1108,1108,1108,1108,1108,1108,1108,1108,1108,1108,1108,1108,1108,1108,1108,1108,1108,1108,1105,1105,1108,1108,1108,1108,1108,1108,1108,1108,1108,1108,1034,1034,1031,1031,1028,1022,1019,1016,1016,1016,1016,1016,1016,1016,1019,1022,1022,1025,1025,1025,1025,1028,1112,1112,1108,1105,1105,1105,1105,1105,1105,1105,1105,1105,1105,1105,1105,1105,1105,1105,1105,1105,1101,1101,1101,1101,1101,1101,1101,1097,1097,1105,1101,1101,1101,1097,1097,1101,1101,1101,1101,1105,1105,1101,1101,1101,1101,1101,1097,1097,1097,1097,1097,1094,1094,1094,1094,1094,1094,1094,1094,1094,1094,1097,1097,1094,1094,1094,1094,1094,1094,1094,1094,1094,1094,1094,1090,1090,1090,1090,1090,1090,1090,1090,1090,1094,1094,1094,1094,1090,1090,1090,1090,1090,1090,1090,1090,1090,1090,1090,1090,1090,1090,1090,1090,1087,1087,1087,1087,1087,1087,1087,1087,1084,1084,1087,1087,1087,1087,1087,1087,1084,1084,1084,1084,1084,1084,1080,1080,1084,1084,1084,1084,1084,1084,1084,1084,1084,1084,1080,1080,1080,1084,1080,1080,1080,1080,1084,1080,1080,1080,1084,1084,1084,1080,1080,1084,1080,1080,1077,1077,1080,1080,1080,1080,1080,1080,1080,1080,1080,1080,1080,1080,1084,1084,1084,1084,1084,1084,1084,1084,1080,1080,1080,1077,1077,1080,1077,1077,1080,1080,1080,1080,1080,1080,1080,1080,1080,1080,1080,1080,1080,1080,1080,1077,1077,1077,1077,1077,1077,1080,1080,1080,1077,1077,1077,1077,1077,1077,0,0,0,1090,0,0,1090,1087,1087,1080,1080,0,0,0,0,0,0,0,0,0,0,0,0,0,0,0,0,0,0,0,0,0,0,0,0,0,0,0,0,0,0,0,0,0
0,0,0,0,0,1153,1149,1149,1149,1149,1145,1145,1145,1145,1141,1141,1141,1141,1141,1141,1138,1138,1141,1141,1141,1141,1141,1138,1138,1134,1134,1138,1138,1138,1138,1138,1134,1134,1134,1130,1130,1130,1130,1130,1130,1130,1130,1130,1130,1130,1130,1130,1130,1130,1130,1130,1130,1130,1130,1126,1126,1126,1126,1126,1126,1126,1126,1130,1130,1130,1126,1126,1130,1130,1130,1130,1126,1126,1126,1126,1126,1130,1130,1130,1126,1126,1130,1130,1130,1126,1126,1130,1130,1130,1130,1126,1126,1126,1130,1130,1130,1126,1126,1126,1126,1126,1126,1126,1126,1123,1123,1123,1123,1123,1126,1126,1126,1130,1126,1126,1123,1123,1123,1123,1123,1123,1123,1123,1123,1126,1123,1123,1123,1123,1126,1126,1126,0,0,0,0,0,0,0,0,0,744,744,744,746,746,746,746,747,747,747,749,750,752,752,752,754,754,754,755,757,757,757,757,757,0,0,0,0,0,1138,1134,1130,1123,1119,1119,1123,1123,1119,1119,1123,1123,1123,1123,1123,1123,1123,1123,1123,1123,1123,1123,1119,1119,1119,1119,1119,1119,1119,1119,1119,1119,1119,1119,1119,1119,1119,1119,1115,1115,1115,1115,1115,1115,1115,1112,1112,1115,1115,1115,1115,1115,1115,1115,1115,1115,1115,1115,1115,1115,1115,1115,1115,1115,1115,1115,1112,1112,1112,1112,1112,1115,1112,1112,1115,1115,1115,1115,1115,1115,1115,1115,1115,1115,1115,1115,889,889,891,894,894,894,896,896,896,896,896,896,896,896,896,896,896,896,896,896,896,896,896,896,896,898,898,903,903,903,906,906,906,908,908,910,913,913,915,918,918,918,920,923,923,925,925,925,930,933,935,935,935,935,938,938,938,938,938,1108,1108,1108,1108,1108,1108,1108,1108,1108,1108,1108,1108,1105,1105,1105,1105,1108,1108,1108,1108,1108,1108,1108,1105,1105,1105,1105,1105,1105,1105,1105,1105,1105,1105,1105,1105,1105,1034,1034,1034,1034,1038,1025,1022,1019,1019,1016,1016,1016,1016,1019,1022,1022,1025,1025,1028,1028,1028,1028,1105,1105,1105,1105,1101,1101,1101,1101,1101,1101,1101,1101,1101,1101,1101,1101,1101,1101,1101,1101,1097,1097,1097,1097,1097,1097,1097,1097,1097,1097,1097,1097,1097,1097,1097,1097,1097,1097,1097,1101,1101,1097,1097,1097,1097,1097,1094,1094,1094,1094,1094,1090,1090,1090,1090,1090,1090,1090,1090,1090,1094,1094,1094,1094,1090,1090,1090,1090,1090,1090,1090,1090,1090,1090,1090,1090,1090,1090,1090,1087,1087,1084,1084,1084,1087,1087,1090,1090,1090,1087,1087,1087,1087,1087,1087,1087,1087,1087,1087,1087,1087,1087,1087,1084,1084,1084,1084,1084,1084,1084,1084,1080,1080,1087,1087,1084,1084,1084,1087,1084,1084,1084,1080,1080,1080,1080,1080,1080,1080,1080,1080,1080,1080,1080,1080,1080,1080,1080,1080,1080,1080,1080,1077,1077,1080,1080,1080,1080,1080,1080,1080,1080,1080,1080,1080,1080,1077,1077,1077,1077,1077,1077,1077,1077,1077,1077,1077,1077,1077,1080,1080,1080,1080,1080,1080,1080,1080,1080,1080,1080,1080,1077,1077,1077,1077,1077,1077,1077,1077,1077,1077,1077,1077,1077,1077,1080,1080,1080,1080,1080,1080,1080,1077,1077,1077,1077,1077,1077,1077,1077,1073,1073,1070,1070,1070,1070,1070,1070,0,0,0,0,0,1090,1090,1087,1084,1084,0,0,0,0,0,0,0,0,0,0,0,0,0,0,0,0,0,0,0,0,0,0,0,0,0,0,0,0,0,0,0,0,0
0,0,0,0,0,1149,1149,1145,1145,1141,1141,1141,1141,1138,1134,1134,1134,1134,1138,1134,1134,1134,1138,1138,1134,1134,1134,1134,1134,1130,1130,1130,1134,1134,1134,1134,1130,1130,1134,1130,1130,1130,1130,1130,1130,1130,1130,1130,1130,1130,1130,1130,1126,1126,1126,1126,1126,1126,1126,1123,1123,1123,1123,1126,1123,1123,1123,1126,1126,1123,1123,1123,1123,1126,1126,1126,1126,1123,1123,1123,1123,1126,1123,1123,1123,1123,1126,1126,1126,1123,1123,1123,1126,1126,1126,1126,1126,1126,1126,1126,1126,1123,1123,1126,1123,1123,1123,1123,1123,1123,1123,1123,1123,1123,1123,1126,1126,1126,1126,1126,1123,1123,1123,1123,1123,1119,1119,1123,1123,1123,1119,1119,1119,1119,1123,1123,1126,0,0,0,0,0,0,0,0,0,746,746,746,746,746,746,746,747,747,747,749,750,752,752,752,754,754,754,755,757,757,757,759,759,759,0,0,0,0,1138,1134,1123,1123,1119,1119,1119,1119,1119,1119,1119,1123,1123,1119,1119,1119,1119,1119,1119,1119,1119,1119,1119,1119,1119,1119,1119,1115,1115,1115,1119,1115,1115,1115,1115,1115,1115,1115,1115,1115,1115,1115,1115,1112,1112,1108,1108,1112,1112,1112,1112,1112,1112,1112,1112,1112,1108,1108,1112,1112,1115,1115,1115,1112,1112,1112,1112,1112,1112,1108,1108,1112,1112,1112,1112,1112,1112,1112,1112,1115,1115,1112,1112,889,889,889,889,889,891,894,894,894,894,894,894,894,894,894,894,894,896,894,894,894,896,896,896,896,896,896,896,898,898,903,903,903,906,906,906,908,908,910,913,913,915,918,918,920,920,923,923,925,925,928,930,933,935,938,938,938,938,938,938,938,1105,1105,1105,1105,1105,1105,1105,1105,1105,1105,1105,1101,1101,1105,1101,1101,1101,1105,1105,1105,1105,1105,1105,1105,1105,1105,1105,1105,1105,1105,1105,1105,1101,1101,1101,1101,1101,1101,1034,1034,1038,1038,1038,1028,1025,1022,1019,1019,1019,1019,1019,1019,1022,1022,1025,1028,1028,1028,1028,1028,1105,1105,1101,1101,1097,1097,1097,1097,1097,1097,1097,1097,1097,1097,1097,1101,1097,1097,1097,1097,1094,1094,1094,1094,1094,1094,1094,1094,1094,1094,1094,1094,1094,1094,1094,1094,1097,1097,1097,1097,1097,1097,1097,1097,1094,1094,1094,1094,1090,1090,1090,1090,1090,1090,1087,1087,1087,1084,1084,1084,1090,1090,1090,1090,1087,1087,1090,1090,1087,1087,1087,1087,1087,1087,1087,1087,1087,1087,1087,1087,1084,1084,1084,1084,1084,1084,1084,1084,1087,1087,1087,1084,1084,1084,1084,1084,1087,1084,1084,1084,1084,1084,1084,1084,1080,1080,1084,1080,1080,1080,1080,1080,1080,1080,1080,1080,1080,1080,1084,1080,1080,1080,1080,1080,1080,1080,1077,1077,1077,1077,1080,1080,1077,1077,1077,1077,1077,1077,1077,1077,1077,1077,1077,1077,1077,1077,1077,1077,1077,1077,1077,1077,1077,1077,1077,1077,1077,1077,1077,1077,1077,1077,1077,1077,1077,1073,1073,1073,1073,1077,1077,1077,1077,1077,1077,1077,1077,1077,1077,1077,1077,1077,1077,1077,1077,1073,1073,1073,1077,1077,1077,1077,1077,1077,1077,1077,1077,1077,1077,1077,1077,1077,1077,1077,1073,1073,1073,1073,1073,1073,1070,1070,1067,1067,1070,1067,1067,0,0,0,0,0,0,1090,1090,1087,1087,1087,0,0,0,0,0,0,0,0,0,0,0,0,0,0,0,0,0,0,0,0,0,0,0,0,0,0,0,0,0,0,0,0,0
0,0,0,0,0,1145,1145,1145,1138,1138,1138,1138,1138,1134,1134,1130,1130,1134,1134,1134,1134,1134,1134,1134,1130,1126,1126,1126,1126,1123,1123,1123,1126,1126,1130,1126,1126,1130,1130,1126,1126,1126,1126,1126,1126,1126,1126,1130,1130,1130,1126,1126,1126,1123,1123,1123,1123,1123,1119,1119,1119,1119,1119,1119,1119,1119,1119,1123,1123,1119,1119,1123,1123,1123,1123,1123,1123,1123,1119,1119,1119,1119,1119,1119,1119,1119,1123,1123,1123,1123,1123,1123,1123,1123,1123,1123,1123,1123,1123,1119,1119,1119,1119,1119,1119,1119,1119,1119,1119,1119,1119,1119,1119,1119,1123,1123,1123,1123,1123,1123,1123,1119,1119,1119,1119,1119,1119,1119,1119,1119,1119,1119,1119,1119,1123,1123,1123,0,0,0,0,0,0,0,0,0,746,746,746,746,746,746,746,747,747,747,749,750,752,752,752,754,754,754,755,757,759,759,759,759,759,0,0,0,0,0,1134,1123,1119,1119,1119,1119,1119,1115,1115,1119,1119,1119,1119,1119,1119,1119,1119,1115,1115,1115,1115,1115,1115,1115,1115,1115,1112,1112,1112,1112,1115,1115,1112,1112,1115,1115,1115,1112,1112,1112,1112,1108,1108,1105,1105,1105,1108,1108,1108,1112,1112,1112,1112,1112,1112,1108,1108,1108,1108,1108,1108,1108,1112,1112,1112,1108,1108,1108,1108,1108,1108,1108,1108,1112,1112,1108,1108,1112,1112,1112,887,887,887,887,887,887,887,889,891,894,894,894,894,894,894,894,894,894,894,894,894,894,894,894,894,896,896,896,896,896,896,898,903,903,906,906,906,906,908,908,910,913,913,915,918,918,920,920,923,923,925,925,928,930,935,935,938,938,938,938,938,938,1105,1105,1105,1105,1105,1105,1105,1105,1105,1101,1101,1101,1097,1097,1097,1097,1097,1097,1101,1101,1101,1101,1101,1101,1101,1105,1105,1101,1101,1101,1105,1101,1101,1101,1101,1101,1101,1097,1097,1097,1038,1038,1038,1038,1034,1025,1025,1022,1019,1019,1019,1019,1022,1022,1025,1025,1028,1028,1028,1028,1028,1031,1105,1101,1097,1094,1094,1094,1094,1094,1094,1094,1094,1094,1094,1097,1097,1094,1094,1094,1094,1094,1094,1094,1094,1094,1094,1094,1094,1094,1094,1094,1094,1094,1090,1090,1090,1090,1090,1094,1094,1094,1094,1094,1094,1094,1090,1090,1090,1090,1090,1090,1087,1087,1084,1084,1084,1084,1084,1084,1084,1084,1084,1084,1084,1087,1087,1087,1087,1087,1084,1084,1084,1084,1084,1084,1084,1084,1084,1084,1084,1080,1080,1080,1080,1080,1080,1080,1080,1080,1080,1080,1084,1080,1080,1080,1080,1084,1080,1080,1080,1080,1080,1080,1080,1080,1080,1080,1080,1080,1080,1077,1077,1077,1077,1077,1077,1077,1077,1080,1077,1077,1077,1077,1077,1077,1077,1077,1077,1077,1077,1077,1077,1077,1077,1077,1077,1077,1077,1073,1073,1073,1073,1077,1077,1077,1077,1077,1077,1077,1073,1073,1073,1073,1073,1073,1073,1077,1077,1077,1077,1077,1077,1073,1073,1073,1073,1073,1073,1073,1073,1073,1073,1073,1073,1077,1077,1077,1073,1073,1073,1073,1073,1073,1073,1077,1073,1070,1070,1070,1070,1070,1073,1073,1073,1073,1073,1073,1073,1073,1073,1073,1077,1077,1077,1070,1070,1070,1070,1070,1070,1067,1067,1067,1067,1067,1067,1067,1067,0,0,0,0,0,1094,1094,1090,1087,1087,0,0,0,0,0,0,0,0,0,0,0,0,0,0,0,0,0,0,0,0,0,0,0,0,0,0,0,0,0,0,0,0,0
0,0,0,0,0,1145,1145,1141,1138,1134,1134,1134,1134,1134,1130,1130,1130,1130,1130,1130,1126,1126,1126,1123,1123,1119,1119,1123,1123,1123,1123,1123,1123,1123,1123,1123,1123,1126,1126,1126,1126,1123,1123,1126,1126,1123,1123,1126,1126,1126,1126,1126,1123,1123,1123,1123,1123,1119,1119,1119,1119,1119,1119,1119,1119,1119,1119,1119,1119,1119,1119,1119,1119,1119,1119,1123,1123,1119,1119,1119,1119,1119,1115,1115,1115,1115,1119,1119,1119,1119,1119,1119,1119,1119,1119,1115,1115,1115,1119,1119,1119,1119,1119,1119,1119,1119,1119,1119,1119,1119,1119,1119,1119,1119,1119,1119,1119,1119,1119,1119,1119,1119,1119,1119,1119,1119,1119,1119,1119,1119,1119,1119,1119,1119,1119,1119,1119,0,0,0,0,0,0,0,0,0,747,747,746,746,746,746,747,747,747,749,749,750,752,752,752,754,754,755,757,759,759,759,759,761,761,762,0,0,0,0,1134,1119,1119,1115,1112,1112,1112,1112,1112,1112,1115,1115,1115,1115,1115,1115,1112,1112,1112,1112,1112,1112,1112,1112,1112,1112,1108,1108,1108,1108,1108,1108,1108,1108,1112,1112,1112,1112,1112,1108,1105,1105,1105,1105,1105,1101,1101,1105,1105,1105,1108,1108,1108,1108,1108,1105,1105,1105,1105,1105,1108,1105,1105,1105,1105,1105,1105,1105,1105,1105,1105,1105,1105,1108,1108,1108,1108,1108,878,878,885,885,887,887,887,887,887,887,889,889,891,891,894,894,894,891,891,891,894,894,894,894,894,894,894,896,896,896,896,896,896,898,903,903,906,906,906,906,908,910,910,913,913,915,918,920,920,923,923,925,925,925,928,930,935,935,938,938,938,938,938,938,1101,1101,1101,1101,1101,1101,1101,1101,1101,1101,1097,1097,1094,1094,1097,1097,1097,1097,1097,1097,1101,1097,1097,1097,1097,1097,1097,1097,1094,1094,1094,1097,1094,1094,1097,1094,1094,1094,1094,1094,1041,1041,1041,1041,1038,1028,1025,1022,1022,1022,1022,1022,1022,1025,1025,1025,1028,1028,1028,1028,1031,1031,1094,1094,1094,1094,1094,1094,1094,1094,1090,1090,1090,1090,1094,1094,1094,1094,1094,1094,1094,1090,1090,1090,1090,1090,1090,1090,1090,1090,1094,1090,1090,1090,1090,1090,1090,1087,1087,1087,1087,1090,1090,1090,1090,1090,1090,1090,1090,1087,1087,1087,1084,1084,1084,1080,1080,1084,1084,1084,1080,1080,1084,1084,1084,1084,1084,1084,1084,1084,1084,1084,1084,1084,1084,1084,1084,1084,1084,1084,1084,1080,1080,1080,1080,1077,1077,1077,1077,1077,1077,1077,1077,1077,1080,1080,1080,1080,1080,1080,1080,1080,1080,1080,1080,1080,1080,1080,1077,1077,1077,1073,1070,1070,1070,1070,1073,1073,1073,1077,1077,1077,1077,1077,1077,1077,1077,1077,1077,1077,1077,1077,1077,1073,1073,1073,1073,1073,1073,1073,1073,1073,1073,1073,1073,1073,1073,1073,1073,1073,1073,1070,1070,1070,1070,1070,1070,1073,1073,1073,1073,1073,1073,1073,1073,1073,1073,1073,1073,1073,1073,1070,1070,1070,1070,1070,1070,1070,1067,1067,1070,1070,1070,1070,1070,1070,1070,1070,1067,1067,1067,1067,1067,1067,1070,1070,1070,1070,1070,1070,1067,1067,1073,1073,1073,1070,1067,1067,1067,1067,1067,1067,1067,1067,1067,1067,1063,1063,1063,1063,0,0,0,0,0,0,0,0,0,0,0,0,0,0,0,0,0,0,0,0,0,0,0,0,0,0,0,0,0,0,0,0,0,0,0,0,0,0,0,0,0,0
0,0,0,0,0,1141,1141,1138,1134,1134,1134,1134,1134,1130,1130,1126,1126,1126,1126,1126,1123,1123,1123,1123,1123,1119,1119,1119,1119,1123,1123,1119,1119,1119,1123,1123,1123,1123,1123,1123,1123,1123,1123,1123,1123,1123,1123,1123,1123,1123,1123,1123,1119,1119,1119,1119,1119,1119,1119,1119,1119,1119,1119,1119,1119,1115,1115,1115,1115,1115,1115,1119,1119,1119,1119,1119,1119,1119,1115,1115,1115,1115,1115,1115,1112,1112,1112,1112,1112,1115,1115,1115,1115,1115,1115,1115,1115,1115,1115,1115,1115,1115,1115,1119,1115,1115,1119,1119,1119,1119,1119,1119,1119,1119,1119,1119,1119,1119,1119,1119,1119,1115,1115,1115,1115,1115,1115,1115,1115,1115,1115,1115,1115,1115,1115,1115,1115,0,0,0,0,0,0,766,766,766,766,747,747,747,747,747,747,747,749,749,750,752,752,754,754,754,755,755,757,759,759,759,761,761,762,762,0,0,0,0,0,1115,1115,1112,1108,1108,1108,1108,1108,1108,1112,1112,1112,1112,1112,1112,1112,1108,1108,1112,1108,1108,1108,1112,1112,1108,1108,1108,1108,1105,1105,1105,1105,1105,1108,1108,1108,1108,1108,1105,1105,1105,1101,1101,1101,1101,1101,1101,1101,1105,1105,1105,1105,1105,1105,1105,1105,1105,1105,1105,1105,1105,1105,1105,1101,1101,1101,1101,1101,1101,1101,1105,1105,882,882,882,885,885,878,878,885,885,885,885,885,885,885,887,887,889,889,889,891,891,891,891,891,891,891,891,891,894,894,894,894,894,894,896,896,896,898,898,903,906,906,908,908,908,910,910,913,913,913,915,920,920,920,923,923,925,925,928,930,933,938,938,938,938,938,938,1101,1097,1097,1101,1097,1097,1097,1097,1097,1097,1097,1094,1094,1094,1094,1094,1094,1094,1094,1094,1094,1094,1094,1094,1094,1094,1094,1094,1094,1094,1094,1094,1094,1094,1094,1094,1094,1094,1094,1094,1090,1090,1090,1041,1041,1041,1034,1031,1028,1025,1022,1022,1022,1022,1025,1025,1025,1025,1028,1031,1031,1031,1031,1031,1094,1094,1094,1090,1090,1090,1090,1090,1090,1090,1090,1090,1090,1090,1090,1090,1090,1090,1090,1090,1087,1087,1087,1087,1087,1087,1084,1084,1087,1087,1087,1084,1084,1084,1084,1084,1084,1084,1084,1084,1084,1087,1087,1087,1084,1084,1087,1084,1084,1084,1080,1080,1080,1080,1080,1080,1080,1080,1080,1080,1080,1080,1080,1080,1080,1080,1080,1080,1080,1080,1080,1080,1080,1080,1080,1080,1080,1080,1080,1080,1080,1080,1077,1077,1077,1077,1077,1077,1073,1073,1077,1077,1077,1077,1077,1077,1077,1077,1077,1080,1077,1077,1077,1077,1077,1077,1073,1073,1070,1070,1067,1067,1067,1067,1070,1073,1073,1073,1077,1077,1077,1073,1073,1077,1077,1077,1077,1073,1073,1073,1073,1073,1070,1070,1070,1070,1070,1073,1073,1070,1070,1070,1070,1067,1067,1067,1073,1070,1070,1070,1070,1067,1067,1067,1067,1070,1070,1070,1070,1073,1070,1070,1070,1070,1070,1070,1067,1067,1067,1067,1067,1067,1067,1067,1067,1067,1067,1067,1067,1067,1067,1067,1067,1067,1067,1067,1067,1067,1067,1067,1063,1063,1063,1063,1063,1070,1067,1067,1067,1067,1067,1067,1067,1067,1063,1063,1063,1063,1063,1063,1063,1060,1060,1063,1063,1063,1060,1060,1060,0,0,0,0,0,0,0,0,0,0,0,0,0,0,0,0,0,0,0,0,0,0,0,0,0,0,0,0,0,0,0,0,0,0,0,0,0,0,0,0,0
0,0,0,0,0,1138,1138,1134,1130,1130,1130,1130,1130,1130,1126,1126,1126,1126,1126,1123,1119,1119,1119,1119,1119,1119,1119,1119,1119,1119,1119,1119,1119,1119,1119,1119,1119,1119,1119,1119,1119,1119,1119,1119,1119,1119,1119,1119,1119,1119,1119,1119,1115,1115,1119,1119,1119,1119,1115,1115,1115,1115,1115,1115,1115,1115,1115,1115,1115,1115,1115,1115,1115,1115,1115,1115,1115,1115,1115,1115,1115,1115,1112,1112,1112,1112,1112,1108,1108,1112,1112,1112,1112,1115,1115,1115,1112,1112,1115,1112,1112,1112,1112,1112,1112,1112,1112,1115,1115,1115,1115,1115,1115,1115,1115,1115,1115,1115,1115,1115,1115,1112,1112,1112,1112,1112,1112,1112,1112,1112,1112,1112,1112,1112,1112,1112,1112,0,0,0,0,0,0,766,766,766,762,762,762,747,747,747,749,749,750,750,752,752,752,754,754,755,757,757,759,759,761,761,761,761,762,764,767,767,0,0,0,1115,1115,1105,1105,1105,1108,1105,1105,1105,1108,1108,1108,1108,1108,1108,1108,1105,1105,1105,1105,1105,1105,1105,1105,1105,1105,1101,1101,1101,1101,1101,1101,1101,1105,1105,1105,1105,1105,1101,1101,1101,1101,1101,1101,1097,1097,1097,1097,1097,1097,1101,1101,1101,1101,1101,1101,1101,1097,1097,1101,1101,1101,1101,1101,1101,1101,1101,1101,1101,1101,880,880,880,882,882,882,882,882,882,885,885,885,885,885,885,885,885,885,885,885,885,887,889,889,889,889,889,889,891,891,891,894,894,894,894,894,896,896,896,898,901,906,906,908,908,908,910,910,913,913,915,918,920,920,920,923,923,923,925,925,928,933,938,938,938,938,1097,1097,1097,1097,1097,1097,1097,1094,1094,1094,1094,1094,1094,1094,1094,1094,1094,1090,1090,1094,1094,1090,1090,1090,1090,1090,1090,1090,1090,1090,1094,1094,1090,1090,1090,1090,1090,1090,1090,1090,1090,1090,1090,1090,1087,1087,1054,1047,1044,1034,1031,1028,1025,1025,1025,1025,1025,1025,1025,1025,1028,1028,1031,1031,1031,1031,1034,1094,1090,1090,1090,1090,1090,1090,1090,1087,1087,1087,1090,1090,1087,1087,1087,1087,1087,1087,1087,1084,1084,1084,1084,1084,1084,1080,1080,1084,1084,1084,1084,1080,1080,1080,1080,1080,1080,1080,1080,1080,1080,1080,1080,1080,1080,1080,1080,1080,1080,1080,1080,1080,1080,1080,1080,1080,1080,1080,1080,1080,1080,1080,1080,1080,1077,1077,1077,1077,1077,1077,1077,1077,1077,1077,1077,1077,1077,1077,1077,1077,1077,1077,1073,1073,1073,1073,1073,1073,1073,1073,1073,1073,1073,1073,1073,1073,1077,1077,1077,1077,1077,1077,1077,1073,1073,1073,1070,1070,1067,1067,1067,1067,1067,1067,1070,1070,1070,1073,1073,1073,1073,1073,1073,1073,1073,1073,1073,1073,1070,1070,1067,1067,1067,1067,1067,1067,1067,1067,1067,1067,1067,1067,1067,1067,1067,1067,1067,1067,1067,1067,1067,1067,1067,1067,1067,1067,1067,1067,1070,1067,1067,1067,1067,1067,1067,1067,1067,1063,1063,1063,1063,1063,1063,1063,1063,1063,1063,1063,1063,1063,1063,1063,1063,1063,1063,1063,1063,1063,1063,1063,1060,1060,1060,1060,1063,1063,1063,1063,1063,1063,1063,1063,1063,1060,1060,1060,1060,1060,1060,1060,1060,1060,1060,1060,1060,1060,1060,1060,0,0,0,0,0,0,0,0,0,0,0,0,0,0,0,0,0,0,0,0,0,0,0,0,0,0,0,0,0,0,0,0,0,0,0,0,0,0,0,0,0
0,0,0,0,0,1134,1134,1134,1130,1126,1126,1126,1126,1126,1126,1126,1126,1126,1123,1123,1119,1119,1119,1119,1119,1115,1115,1119,1119,1119,1119,1119,1119,1119,1115,1115,1115,1115,1115,1115,1119,1115,1115,1115,1115,1115,1115,1115,1112,1112,1115,1115,1112,1112,1115,1115,1115,1115,1115,1115,1115,1115,1115,1115,1115,1112,1112,1112,1112,1112,1112,1112,1112,1115,1112,1112,1112,1112,1112,1112,1112,1112,1112,1108,1108,1108,1105,1105,1108,1108,1108,1108,1108,1112,1112,1112,1112,1112,1112,1108,1108,1108,1108,1108,1108,1108,1108,1108,1108,1108,1108,1112,1112,1112,1112,1112,1112,1112,1112,1112,1108,1108,1108,1108,1108,1108,1108,1108,1112,1112,1108,1108,1112,1112,1108,1108,1108,1108,0,0,0,0,0,767,767,766,766,761,761,752,749,749,749,750,750,752,752,752,754,754,755,757,757,757,759,761,761,761,762,762,764,764,766,767,0,0,0,0,1105,1101,1101,1101,1105,1105,1105,1105,1105,1105,1105,1105,1105,1105,1105,1105,1105,1101,1101,1101,1101,1101,1101,1101,1101,1101,1101,1101,1101,1101,1101,1101,1101,1101,1101,1101,1101,1097,1097,1097,1097,1097,1097,1094,1094,1094,1094,1094,1094,1097,1097,1097,1097,1097,1097,1094,1094,1094,1097,1097,1097,1097,1097,1097,1097,1101,1101,878,878,878,880,880,880,880,880,880,880,880,882,882,885,885,885,885,882,882,882,882,882,882,882,885,885,887,887,887,887,889,889,891,894,894,894,894,894,894,894,896,901,906,906,908,908,910,910,910,913,913,915,915,918,920,920,920,1060,1060,925,925,1057,935,935,1087,1087,1090,1094,1094,1094,1094,1094,1094,1094,1094,1094,1094,1090,1090,1090,1090,1090,1090,1090,1090,1090,1090,1090,1090,1090,1090,1090,1090,1090,1087,1087,1090,1090,1090,1090,1090,1087,1087,1087,1087,1087,1087,1087,1087,1087,1087,1084,1080,1077,1054,1047,1044,1038,1034,1028,1028,1025,1025,1025,1025,1025,1025,1025,1028,1031,1031,1034,1034,1034,1034,1038,1090,1087,1087,1087,1087,1087,1087,1087,1084,1084,1087,1084,1084,1087,1084,1084,1084,1084,1084,1080,1080,1080,1080,1084,1080,1080,1080,1080,1080,1080,1080,1080,1080,1080,1080,1080,1080,1077,1077,1080,1077,1077,1077,1077,1077,1077,1077,1077,1077,1080,1077,1077,1077,1077,1077,1077,1077,1077,1077,1077,1077,1077,1077,1077,1077,1077,1077,1077,1077,1073,1073,1073,1073,1073,1073,1073,1073,1073,1073,1073,1073,1073,1070,1070,1070,1073,1073,1070,1070,1073,1070,1070,1070,1070,1067,1067,1067,1067,1077,1073,1073,1073,1073,1073,1070,1070,1067,1067,1067,1063,1063,1063,1063,1067,1067,1067,1067,1067,1070,1070,1070,1070,1067,1067,1067,1067,1067,1067,1067,1067,1067,1063,1063,1063,1063,1063,1067,1067,1067,1067,1067,1067,1067,1067,1067,1067,1063,1063,1067,1067,1067,1063,1063,1063,1067,1067,1067,1067,1063,1063,1063,1063,1063,1063,1063,1063,1063,1060,1060,1060,1060,1060,1063,1063,1063,1063,1063,1063,1063,1060,1060,1060,1063,1060,1060,1060,1060,1060,1063,1060,1060,1060,1057,1057,1060,1060,1060,1060,1060,1060,1060,1060,1063,1057,1057,1057,1057,1060,1060,1060,1060,1060,1060,1060,1060,1060,1060,1060,1060,0,0,0,0,0,0,0,0,0,0,0,0,0,0,0,0,0,0,0,0,0,0,0,0,0,0,0,0,0,0,0,0,0,0,0,0,0,0,0,0
0,0,0,0,0,1126,1126,1130,1130,1126,1126,1126,1126,1123,1123,1123,1123,1123,1123,1119,1119,1119,1119,1119,1115,1115,1115,1115,1115,1115,1115,1115,1112,1112,1115,1115,1112,1112,1112,1115,1115,1115,1115,1115,1115,1115,1112,1108,1108,1108,1108,1108,1108,1108,1112,1112,1112,1112,1112,1112,1112,1112,1112,1112,1112,1108,1108,1108,1112,1108,1108,1108,1112,1112,1108,1108,1108,1108,1108,1108,1108,1108,1108,1105,1105,1105,1105,1105,1105,1105,1105,1105,1105,1105,1108,1108,1108,1108,1108,1108,1108,1108,1108,1108,1105,1105,1105,1105,1105,1105,1105,1105,1105,1108,1108,1108,1108,1108,1108,1108,1105,1105,1105,1105,1105,1105,1108,1108,1108,1108,1105,1105,1105,1108,1108,1108,1108,1108,0,0,0,0,0,767,767,766,766,759,759,752,750,750,750,750,750,752,752,754,754,754,755,759,759,759,759,761,761,761,762,762,764,766,766,767,767,0,0,0,1105,1101,1101,1101,1101,1101,1101,1101,1101,1105,1105,1105,1105,1105,1105,1101,1101,1101,1101,1097,1097,1097,1097,1101,1097,1097,1097,1097,1097,1097,1097,1097,1097,1097,1097,1097,1097,1094,1094,1097,1097,1097,1094,1094,1094,1090,1090,1090,1090,1090,1090,1090,1094,1094,1094,1094,1090,1090,1094,1094,1094,1094,1094,1094,1097,1101,1101,878,878,878,878,880,880,880,880,880,880,880,882,882,882,882,882,882,882,880,880,880,880,880,880,882,885,885,885,885,887,889,889,891,894,894,894,894,894,894,894,896,906,906,908,910,910,910,910,910,913,913,915,918,920,920,920,1060,1060,1060,1060,1063,1063,1080,1080,1084,1084,1087,1087,1090,1090,1090,1094,1094,1094,1094,1090,1090,1090,1090,1087,1087,1087,1087,1087,1087,1087,1090,1090,1090,1090,1087,1087,1087,1087,1087,1087,1087,1087,1087,1087,1087,1087,1084,1084,1084,1084,1084,1087,1087,1087,1087,1084,1080,1077,1057,1054,1044,1041,1038,1031,1028,1025,1025,1025,1025,1025,1025,1025,1028,1031,1034,1034,1034,1034,1038,1038,1084,1084,1084,1084,1084,1084,1084,1084,1080,1080,1084,1080,1080,1080,1080,1080,1080,1080,1080,1080,1080,1080,1080,1080,1080,1077,1077,1077,1080,1080,1077,1077,1077,1077,1077,1077,1077,1077,1077,1077,1077,1077,1077,1077,1073,1073,1073,1073,1073,1077,1077,1077,1077,1077,1077,1077,1077,1077,1077,1077,1077,1077,1077,1077,1073,1073,1073,1073,1073,1070,1070,1070,1070,1070,1070,1070,1070,1070,1070,1070,1070,1070,1067,1067,1070,1070,1070,1067,1067,1070,1070,1067,1067,1067,1067,1067,1063,1063,1063,1063,1067,1070,1070,1070,1070,1067,1067,1067,1067,1063,1063,1063,1063,1063,1067,1063,1063,1067,1067,1067,1067,1067,1067,1063,1063,1067,1067,1063,1063,1063,1063,1063,1063,1063,1063,1063,1063,1063,1063,1063,1063,1063,1063,1063,1063,1063,1063,1063,1063,1063,1063,1063,1063,1063,1063,1063,1063,1063,1063,1063,1063,1060,1060,1060,1063,1063,1060,1060,1060,1060,1060,1060,1060,1060,1060,1060,1063,1060,1060,1060,1057,1057,1060,1060,1060,1060,1060,1060,1060,1057,1057,1054,1054,1054,1057,1057,1057,1057,1057,1057,1057,1057,1057,1054,1054,1054,1054,1057,1057,1057,1057,1057,1057,1057,1060,1060,1060,1060,1060,0,0,0,0,0,0,0,0,0,0,0,0,0,0,0,0,0,0,0,0,0,0,0,0,0,0,0,0,0,0,0,0,0,0,0,0,0,0,0,0
0,0,0,0,0,1123,1123,1126,1126,1123,1123,1123,1123,1123,1119,1119,1119,1119,1119,1119,1115,1115,1115,1115,1115,1115,1115,1115,1115,1115,1115,1108,1108,1108,1108,1108,1108,1108,1108,1108,1112,1112,1112,1112,1112,1108,1105,1105,1105,1105,1105,1105,1105,1105,1108,1108,1108,1108,1108,1108,1108,1108,1105,1105,1105,1105,1105,1105,1108,1105,1105,1108,1108,1108,1108,1108,1105,1105,1105,1105,1105,1105,1105,1105,1105,1105,1101,1101,1101,1101,1101,1101,1101,1101,1105,1105,1101,1101,1105,1105,1105,1105,1105,1105,1105,1105,1105,1105,1101,1101,1105,1105,1105,1105,1105,1105,1101,1101,1105,1105,1105,1101,1101,1101,1105,1105,1105,1105,1105,1105,1101,1101,1101,1101,1105,1105,1105,1105,0,0,0,0,0,0,766,766,757,757,752,752,750,750,750,750,752,752,754,754,754,755,757,759,759,759,759,761,761,761,762,762,766,766,767,767,0,0,0,0,1101,1101,1101,1101,1101,1101,1101,1101,1101,1101,1101,1097,1097,1101,1101,1101,1101,1097,1097,1097,1097,1097,1097,1097,1097,1094,1094,1097,1094,1094,1094,1097,1097,1097,1097,1094,1094,1094,1094,1094,1094,1094,1090,1090,1090,1090,1090,1090,1090,1090,1090,1090,1090,1090,1090,1090,1090,1090,1090,1094,1094,1090,1090,1094,871,871,871,873,875,875,875,878,878,878,878,878,880,880,880,880,880,880,880,880,880,880,880,880,880,880,880,882,882,885,885,885,887,889,889,891,894,894,894,894,894,896,896,898,906,906,908,910,913,913,913,913,913,915,915,918,920,923,923,1077,1070,1070,1070,1077,1077,1080,1080,1080,1080,1084,1084,1087,1087,1087,1087,1087,1087,1090,1090,1087,1087,1087,1087,1087,1087,1087,1087,1087,1087,1087,1087,1087,1087,1087,1084,1084,1084,1084,1084,1084,1084,1084,1084,1084,1084,1080,1080,1080,1080,1080,1084,1084,1084,1084,1080,1080,1077,1073,1054,1044,1041,1038,1031,1031,1028,1028,1028,1028,1025,1025,1025,1028,1031,1034,1038,1038,1038,1041,1041,1044,1080,1080,1080,1080,1077,1077,1077,1077,1077,1077,1077,1077,1080,1080,1080,1080,1080,1077,1077,1077,1077,1077,1077,1077,1077,1077,1077,1077,1077,1077,1077,1077,1077,1077,1077,1073,1073,1073,1073,1073,1073,1073,1073,1070,1070,1070,1070,1070,1070,1073,1073,1077,1077,1073,1073,1073,1077,1077,1073,1073,1073,1073,1073,1070,1070,1070,1070,1070,1067,1067,1067,1067,1067,1067,1067,1067,1067,1067,1067,1070,1067,1067,1067,1067,1067,1067,1067,1067,1067,1067,1067,1063,1063,1063,1063,1063,1060,1060,1060,1063,1063,1063,1067,1067,1067,1063,1063,1063,1063,1063,1063,1063,1063,1063,1063,1063,1067,1067,1067,1067,1063,1063,1063,1063,1063,1063,1057,1057,1060,1060,1060,1060,1060,1060,1060,1060,1060,1060,1060,1060,1063,1063,1063,1063,1063,1063,1063,1063,1060,1060,1060,1060,1060,1060,1060,1060,1060,1060,1060,1060,1060,1060,1060,1063,1063,1060,1060,1060,1060,1057,1054,1054,1057,1057,1060,1060,1057,1057,1057,1057,1057,1057,1060,1060,1060,1057,1057,1057,1054,1054,1054,1054,1054,1054,1054,1054,1054,1054,1054,1054,1054,1054,1054,1054,1054,1054,1054,1054,1054,1054,1054,1054,1054,1050,1050,1054,0,0,0,0,0,0,0,0,0,0,0,0,0,0,0,0,0,0,0,0,0,0,0,0,0,0,0,0,0,0,0,0,0,0,0,0,0,0,0,0,0,0
0,0,0,0,0,1123,1123,1123,1123,1123,1119,1119,1119,1119,1119,1119,1119,1119,1119,1115,1115,1115,1115,1115,1115,1115,1115,1115,1115,1115,1112,1108,1108,1105,1105,1105,1105,1101,1101,1101,1105,1105,1105,1105,1108,1108,1105,1105,1105,1105,1105,1105,1105,1105,1108,1108,1108,1108,1108,1108,1105,1105,1101,1101,1101,1101,1101,1101,1105,1105,1105,1105,1105,1105,1105,1105,1105,1105,1101,1101,1105,1105,1101,1101,1101,1101,1101,1101,1101,1101,1101,1101,1097,1097,1101,1101,1097,1097,1101,1101,1101,1101,1101,1101,1101,1101,1101,1101,1101,1101,1101,1101,1101,1101,1101,1101,1101,1101,1101,1101,1097,1097,1101,1101,1101,1101,1101,1105,1105,1105,1101,1101,1097,1097,1101,1101,1101,1101,0,0,0,0,0,0,766,766,759,757,752,752,752,750,750,752,752,754,754,754,755,755,757,759,759,759,761,761,761,762,762,764,766,766,767,767,0,0,0,1101,1101,1097,1097,1097,1097,1097,1097,1094,1094,1094,1097,1097,1097,1097,1097,1097,1097,1097,1094,1094,1094,1094,1094,1097,1094,1094,1094,1094,1094,1094,1094,1094,1094,1094,1094,1094,1094,1090,1090,1090,1090,1090,1090,1090,1087,1087,1087,1087,1087,1087,1090,1090,1090,1090,1090,1090,1090,1090,1090,1090,1090,1090,869,869,871,869,869,871,873,875,875,875,878,878,878,875,875,875,878,878,878,878,878,878,878,878,878,878,880,880,880,882,882,885,885,887,887,889,889,891,894,894,896,896,896,896,898,901,906,906,908,910,913,913,913,913,915,915,918,920,923,923,1073,1073,1077,1077,1077,1077,1077,1077,1077,1077,1077,1080,1080,1084,1084,1084,1084,1084,1084,1084,1084,1084,1084,1084,1084,1084,1084,1084,1084,1084,1084,1084,1084,1084,1084,1084,1084,1080,1080,1080,1080,1080,1084,1084,1084,1080,1080,1080,1080,1080,1080,1080,1080,1080,1080,1080,1080,1080,1077,1073,1057,1047,1044,1038,1034,1031,1028,1028,1028,1028,1028,1028,1028,1031,1034,1038,1038,1038,1041,1041,1041,1044,1077,1077,1077,1077,1073,1073,1073,1070,1070,1073,1073,1077,1077,1077,1077,1077,1077,1077,1077,1077,1077,1077,1077,1077,1073,1073,1073,1073,1077,1077,1077,1077,1077,1073,1073,1073,1070,1070,1073,1070,1070,1070,1070,1067,1067,1067,1067,1067,1067,1067,1070,1070,1073,1073,1073,1073,1073,1073,1070,1070,1067,1067,1070,1067,1067,1067,1067,1067,1067,1067,1063,1063,1063,1063,1063,1063,1067,1063,1063,1067,1063,1063,1063,1067,1067,1063,1063,1063,1063,1063,1063,1063,1063,1060,1060,1060,1057,1057,1057,1063,1063,1063,1063,1063,1063,1063,1063,1063,1063,1060,1060,1060,1060,1060,1063,1063,1063,1067,1067,1063,1063,1063,1060,1060,1054,1054,1054,1054,1054,1057,1057,1060,1060,1060,1057,1057,1057,1057,1057,1057,1057,1057,1060,1060,1063,1060,1060,1060,1057,1057,1057,1057,1057,1057,1057,1057,1057,1057,1057,1060,1057,1057,1057,1060,1060,1060,1057,1057,1057,1057,1054,1054,1057,1057,1057,1057,1054,1054,1054,1054,1054,1057,1057,1057,1057,1057,1057,1054,1054,1054,1050,1050,1050,1050,1050,1054,1054,1050,1050,1050,1050,1050,1050,1054,1050,1050,1054,1050,1050,1050,1050,1047,1044,1044,1050,1054,0,0,0,0,0,0,0,0,0,0,0,0,0,0,0,0,0,0,0,0,0,0,0,0,0,0,0,0,0,0,0,0,0,0,0,0,0,0,0,0,0,0
0,0,0,0,0,1119,1119,1119,1119,1119,1119,1119,1119,1119,1119,1119,1119,1119,1115,1115,1112,1112,1112,1112,1112,1112,1112,1112,1112,1112,1108,1105,1105,1101,1101,1101,1101,1101,1101,1101,1101,1101,1101,1101,1105,1105,1105,1105,1105,1105,1101,1101,1101,1105,1105,1105,1105,1105,1105,1105,1105,1101,1097,1097,1097,1101,1101,1101,1101,1101,1101,1101,1101,1101,1101,1101,1101,1101,1101,1101,1101,1101,1101,1101,1101,1101,1101,1101,1101,1101,1097,1097,1094,1094,1097,1097,1097,1097,1097,1097,1101,1101,1097,1097,1097,1097,1097,1097,1097,1097,1097,1097,1097,1097,1097,1097,1097,1097,1097,1097,1097,1094,1094,1097,1097,1101,1097,1097,1101,1101,1097,1097,1094,1094,1097,1094,1094,1094,0,0,0,0,0,0,0,0,759,754,752,752,754,752,752,752,752,754,754,754,755,755,759,759,759,761,761,762,762,762,764,764,766,766,767,767,0,0,0,0,1094,1090,1090,1094,1094,1094,1094,1090,1090,1090,1094,1094,1094,1094,1094,1094,1094,1090,1090,1090,1090,1090,1094,1094,1090,1090,1090,1090,1090,1090,1090,1090,1090,1090,1090,1090,1090,1090,1090,1090,1090,1087,1087,1087,1087,1087,1087,1087,1087,1087,1087,1087,1087,1087,1090,1090,1087,1087,869,869,869,869,869,869,869,869,869,869,871,873,873,873,875,875,875,875,873,873,873,873,873,873,875,875,875,878,878,878,878,878,880,882,882,885,887,887,887,889,889,891,894,894,896,896,896,896,901,903,906,906,910,913,913,913,915,915,915,918,920,920,923,1073,1073,1073,1073,1073,1077,1077,1077,1077,1077,1077,1077,1080,1080,1080,1080,1080,1080,1080,1080,1080,1080,1080,1080,1080,1080,1080,1080,1080,1080,1080,1080,1080,1080,1080,1080,1080,1080,1080,1080,1080,1080,1080,1080,1080,1080,1080,1080,1080,1080,1080,1077,1077,1077,1077,1077,1077,1077,1077,1073,1070,1057,1047,1044,1038,1034,1034,1031,1028,1028,1028,1028,1028,1028,1034,1034,1038,1038,1041,1041,1041,1044,1044,1067,1073,1073,1073,1073,1070,1070,1070,1070,1073,1073,1073,1073,1073,1073,1077,1077,1073,1073,1073,1073,1073,1073,1073,1073,1073,1073,1073,1073,1073,1073,1073,1073,1073,1073,1070,1070,1070,1070,1070,1067,1067,1067,1067,1067,1067,1067,1067,1067,1067,1067,1067,1067,1067,1067,1070,1067,1067,1067,1067,1067,1067,1067,1067,1067,1067,1067,1063,1063,1063,1063,1063,1063,1063,1063,1063,1063,1063,1063,1063,1060,1060,1060,1063,1063,1063,1063,1063,1063,1063,1063,1063,1060,1060,1060,1060,1057,1057,1057,1060,1060,1060,1060,1060,1060,1057,1057,1060,1060,1060,1060,1060,1060,1060,1063,1063,1063,1063,1063,1063,1060,1057,1054,1054,1054,1054,1054,1054,1054,1054,1054,1057,1057,1057,1057,1054,1054,1054,1054,1054,1054,1057,1057,1057,1054,1054,1054,1057,1054,1054,1054,1054,1054,1054,1054,1054,1054,1057,1057,1057,1057,1054,1054,1054,1054,1054,1054,1054,1057,1054,1054,1054,1054,1054,1054,1054,1054,1054,1054,1054,1054,1054,1057,1057,1057,1057,1054,1054,1054,1054,1050,1050,1050,1050,1050,1050,1050,1050,1050,1050,1050,1050,1050,1050,1050,1050,1050,1050,1050,1050,1047,1044,1041,1041,1041,0,0,0,0,0,0,0,0,0,0,0,0,0,0,0,0,0,0,0,0,0,0,0,0,0,0,0,0,0,0,0,0,0,0,0,0,0,0,0,0,0,0,0
0,0,0,0,0,1119,1119,1119,1119,1119,1115,1115,1115,1115,1115,1115,1115,1115,1112,1112,1108,1108,1108,1108,1108,1108,1108,1108,1108,1108,1108,1105,1105,1101,1101,1101,1101,1101,1097,1097,1097,1097,1097,1097,1101,1101,1097,1097,1101,1101,1101,1101,1101,1101,1101,1105,1105,1101,1101,1101,1101,1097,1094,1094,1094,1097,1097,1097,1101,1101,1101,1097,1097,1097,1097,1097,1097,1097,1097,1097,1101,1097,1097,1097,1097,1097,1097,1097,1097,1097,1097,1094,1094,1094,1094,1094,1094,1094,1094,1097,1097,1097,1094,1094,1097,1097,1097,1097,1094,1094,1097,1094,1094,1094,1094,1094,1094,1094,1094,1094,1094,1094,1094,1094,1094,1094,1090,1090,1094,1094,1094,1094,1090,1090,1090,1090,1090,1090,0,0,0,0,0,0,0,0,0,754,752,752,754,752,752,752,754,754,755,755,755,757,759,759,759,761,761,762,762,762,764,764,766,766,767,767,0,0,0,0,1090,1087,1087,1087,1087,1087,1090,1087,1087,1087,1087,1090,1090,1090,1090,1090,1090,1090,1090,1087,1087,1090,1090,1090,1090,1090,1090,1090,1090,1087,1087,1087,1087,1087,1087,1087,1087,1087,1087,1087,1087,1087,1087,1084,1084,1084,1084,1087,1087,1087,1087,1087,1087,1087,1087,1087,1087,867,867,867,867,869,869,869,869,869,869,869,871,871,871,873,873,873,873,873,873,873,873,873,873,873,873,873,875,875,878,878,878,878,880,882,882,885,887,887,887,889,889,891,894,894,896,896,896,898,903,906,906,908,910,910,913,915,915,915,918,920,923,923,1070,1070,1073,1073,1073,1073,1073,1073,1073,1073,1073,1073,1073,1077,1077,1077,1077,1077,1077,1077,1077,1077,1077,1077,1077,1077,1077,1077,1077,1077,1077,1077,1077,1077,1077,1077,1077,1077,1080,1080,1080,1080,1080,1080,1080,1080,1080,1077,1077,1077,1077,1077,1077,1077,1077,1077,1077,1077,1073,1073,1070,1067,1063,1047,1044,1041,1038,1034,1031,1031,1028,1028,1031,1031,1031,1034,1038,1038,1038,1041,1041,1041,1044,1057,1063,1067,1067,1070,1070,1070,1070,1067,1067,1067,1067,1067,1070,1070,1070,1073,1073,1073,1070,1070,1070,1073,1070,1070,1070,1070,1070,1070,1070,1070,1070,1070,1070,1070,1067,1067,1067,1067,1067,1067,1067,1067,1063,1063,1063,1063,1063,1063,1063,1063,1063,1063,1067,1067,1063,1063,1063,1067,1063,1063,1063,1063,1067,1063,1063,1063,1063,1063,1060,1060,1060,1060,1060,1060,1060,1060,1060,1063,1063,1060,1057,1057,1057,1057,1057,1060,1057,1057,1063,1063,1063,1060,1060,1057,1057,1057,1054,1054,1057,1057,1054,1054,1057,1057,1057,1054,1054,1054,1054,1057,1057,1054,1054,1054,1054,1054,1054,1054,1063,1060,1057,1054,1054,1054,1050,1050,1050,1050,1050,1050,1050,1054,1054,1054,1054,1054,1054,1054,1054,1054,1054,1054,1054,1054,1050,1050,1054,1054,1050,1050,1054,1054,1054,1054,1054,1054,1054,1050,1050,1054,1054,1054,1054,1054,1054,1054,1054,1054,1054,1050,1050,1050,1050,1050,1050,1050,1050,1050,1050,1050,1050,1050,1050,1050,1054,1054,1050,1050,1050,1050,1050,1047,1047,1050,1050,1050,1047,1047,1047,1047,1047,1047,1047,1047,1047,1050,1050,1050,1050,1050,1047,1044,1038,1038,1038,0,0,0,0,0,0,0,0,0,0,0,0,0,0,0,0,0,0,0,0,0,0,0,0,0,0,0,0,0,0,0,0,0,0,0,0,0,0,0,0,0,0,0
0,0,0,0,0,1115,1115,1115,1115,1115,1115,1115,1115,1112,1112,1112,1112,1112,1112,1108,1105,1105,1105,1105,1105,1105,1105,1105,1105,1105,1105,1105,1101,1101,1101,1097,1097,1097,1094,1094,1094,1094,1094,1094,1097,1097,1097,1097,1097,1097,1097,1097,1097,1097,1101,1101,1101,1097,1097,1101,1101,1097,1094,1094,1094,1097,1097,1097,1097,1101,1097,1094,1094,1094,1094,1094,1094,1094,1094,1097,1097,1097,1097,1097,1097,1097,1097,1097,1097,1094,1094,1094,1090,1090,1094,1094,1094,1094,1094,1094,1094,1094,1094,1094,1094,1094,1094,1094,1094,1094,1094,1090,1090,1090,1090,1090,1090,1090,1090,1090,1090,1090,1090,1090,1090,1090,1090,1090,1090,1090,1090,1090,1090,1090,1090,1090,1087,1087,1094,0,0,0,0,0,0,0,0,752,752,752,754,752,752,754,754,754,755,755,755,757,759,759,759,761,761,762,764,764,766,766,766,766,767,767,0,0,0,0,1087,1087,1087,1087,1087,1087,1087,1087,1087,1084,1084,1087,1087,1087,1087,1087,1087,1087,1087,1084,1084,1087,1087,1087,1087,1087,1090,1087,1087,1087,1084,1084,1084,1084,1084,1084,1087,1087,1087,1087,1087,1084,1084,1084,1084,1084,1084,1084,1084,1084,1084,1084,1084,1087,1087,864,864,867,867,867,867,867,867,867,867,869,869,869,869,869,869,871,871,871,871,871,871,871,871,871,873,873,873,873,875,875,878,878,880,880,880,882,885,885,887,887,887,889,889,891,894,894,896,896,896,901,903,906,906,906,910,910,913,915,915,918,1070,1070,1067,1067,1070,1070,1070,1070,1070,1073,1073,1073,1073,1073,1073,1073,1073,1073,1073,1077,1077,1073,1073,1073,1073,1073,1073,1073,1073,1073,1073,1073,1077,1077,1073,1073,1073,1073,1073,1073,1073,1073,1077,1077,1077,1077,1077,1077,1077,1077,1077,1077,1077,1077,1077,1077,1077,1077,1077,1073,1073,1073,1070,1070,1067,1063,1063,1057,1044,1041,1038,1034,1031,1031,1028,1028,1031,1031,1031,1034,1038,1038,1038,1041,1041,1044,1047,1054,1060,1063,1067,1067,1067,1067,1067,1067,1063,1063,1063,1063,1063,1067,1067,1070,1070,1070,1067,1067,1067,1070,1067,1067,1067,1067,1067,1067,1067,1067,1067,1067,1067,1067,1063,1063,1063,1063,1063,1063,1063,1063,1063,1063,1063,1063,1063,1063,1063,1063,1060,1060,1063,1063,1057,1057,1057,1057,1057,1057,1063,1063,1063,1063,1063,1060,1060,1060,1057,1057,1057,1057,1057,1057,1057,1057,1060,1057,1057,1057,1057,1054,1054,1054,1054,1054,1054,1054,1054,1060,1054,1054,1054,1054,1054,1054,1054,1054,1054,1054,1050,1050,1050,1050,1054,1054,1050,1050,1054,1054,1054,1054,1050,1050,1050,1050,1050,1050,1050,1054,1054,1054,1054,1050,1050,1050,1050,1050,1050,1050,1050,1050,1050,1050,1050,1050,1050,1054,1050,1050,1054,1054,1054,1050,1050,1050,1047,1047,1047,1047,1047,1047,1050,1050,1050,1050,1050,1050,1050,1050,1050,1050,1050,1050,1050,1050,1050,1050,1050,1050,1050,1047,1047,1047,1050,1047,1047,1050,1050,1050,1050,1050,1050,1047,1047,1050,1047,1047,1047,1047,1047,1047,1047,1047,1047,1047,1047,1047,1047,1044,1044,1044,1044,1044,1044,1047,1047,1047,1047,1047,1044,1041,1038,1038,1034,1034,1034,0,0,0,0,0,0,0,0,0,0,0,0,0,0,0,0,0,0,0,0,0,0,0,0,0,0,0,0,0,0,0,0,0,0,0,0,0,0,0,0,0
0,0,0,0,0,1115,1112,1112,1112,1112,1112,1112,1112,1108,1108,1108,1108,1108,1108,1108,1105,1105,1105,1105,1105,1105,1105,1105,1101,1101,1101,1101,1101,1097,1097,1097,1090,1090,1090,1090,1094,1094,1094,1094,1097,1094,1094,1094,1094,1094,1094,1094,1094,1094,1094,1094,1094,1097,1097,1097,1097,1094,1090,1090,1090,1094,1094,1094,1094,1097,1094,1094,1094,1090,1090,1090,1090,1090,1090,1094,1094,1094,1094,1094,1094,1094,1090,1090,1094,1090,1090,1090,1090,1090,1090,1090,1090,1090,1094,1090,1090,1090,1090,1090,1090,1090,1090,1090,1090,1090,1090,1090,1090,1090,1087,1087,1090,1090,1090,1090,1090,1090,1087,1087,1087,1087,1087,1087,1087,1087,1087,1087,1087,1087,1084,1084,1077,1063,1063,0,0,0,0,0,0,0,0,752,752,752,754,754,754,754,754,755,755,755,757,759,759,759,759,761,761,762,764,764,766,766,767,767,767,769,0,0,0,0,1077,1077,1084,1084,1084,1084,1084,1087,1084,1080,1080,1080,1080,1084,1084,1084,1084,1084,1084,1080,1080,1084,1084,1084,1084,1084,1084,1084,1084,1084,1080,1080,1080,1080,1080,1080,1080,1084,1084,1084,1084,1084,1080,1080,1080,1080,1080,1080,1080,1084,1084,1084,1084,862,862,864,864,864,867,867,867,867,867,867,867,867,867,867,867,867,867,867,869,869,869,869,869,869,871,871,871,873,873,873,875,875,878,878,880,880,882,882,885,887,887,887,889,889,891,891,894,894,896,898,898,901,903,906,906,906,910,910,915,915,1067,1067,1067,1067,1067,1067,1067,1067,1067,1067,1067,1070,1070,1070,1070,1070,1070,1070,1070,1073,1073,1070,1070,1070,1070,1070,1070,1070,1070,1070,1070,1070,1070,1070,1073,1073,1073,1070,1070,1067,1067,1067,1070,1070,1070,1073,1073,1073,1073,1073,1073,1073,1073,1073,1073,1073,1073,1073,1073,1073,1073,1073,1070,1070,1067,1067,1067,1063,1063,1060,1047,1044,1041,1038,1034,1034,1031,1031,1031,1031,1034,1034,1038,1038,1038,1041,1041,1044,1047,1054,1057,1063,1063,1063,1063,1063,1063,1067,1063,1063,1063,1063,1063,1063,1063,1067,1067,1067,1067,1067,1067,1063,1063,1063,1063,1063,1063,1063,1060,1060,1060,1063,1063,1063,1063,1063,1063,1063,1063,1063,1063,1063,1060,1060,1060,1060,1060,1060,1060,1060,1060,1057,1057,1057,1054,1054,1054,1054,1054,1054,1057,1057,1060,1060,1063,1060,1060,1057,1054,1054,1054,1054,1054,1054,1054,1054,1054,1054,1054,1054,1054,1054,1054,1054,1054,1054,1054,1050,1050,1054,1050,1050,1050,1054,1050,1050,1054,1054,1054,1054,1050,1047,1047,1050,1050,1050,1050,1050,1050,1050,1047,1044,1044,1044,1044,1044,1047,1047,1050,1050,1050,1050,1050,1050,1047,1047,1047,1050,1047,1047,1047,1050,1050,1050,1050,1050,1050,1050,1050,1050,1050,1050,1050,1050,1050,1047,1047,1047,1047,1044,1044,1044,1044,1044,1044,1047,1047,1047,1047,1047,1047,1047,1047,1050,1050,1050,1050,1050,1050,1050,1047,1044,1044,1044,1044,1044,1044,1044,1047,1047,1047,1044,1044,1047,1047,1047,1047,1044,1044,1044,1047,1044,1044,1047,1044,1044,1044,1044,1044,1044,1044,1044,1044,1044,1044,1044,1041,1041,1041,1041,1041,1038,1034,1034,1034,1034,1034,0,0,0,0,0,0,0,0,0,0,0,0,0,0,0,0,0,0,0,0,0,0,0,0,0,0,0,0,0,0,0,0,0,0,0,0,0,0,0,0,0
0,0,0,0,0,1112,1108,1105,1105,1105,1108,1108,1108,1108,1108,1105,1105,1105,1105,1105,1105,1105,1101,1101,1101,1101,1101,1101,1097,1097,1097,1097,1097,1094,1094,1094,1090,1090,1090,1090,1090,1090,1090,1090,1090,1090,1090,1090,1090,1090,1090,1090,1090,1090,1090,1090,1090,1090,1090,1090,1090,1090,1090,1090,1090,1094,1094,1094,1094,1094,1090,1090,1090,1090,1090,1087,1087,1090,1090,1090,1090,1090,1090,1090,1090,1090,1087,1087,1087,1090,1087,1087,1090,1090,1090,1090,1090,1090,1090,1090,1090,1090,1090,1090,1090,1090,1090,1090,1087,1087,1087,1087,1087,1087,1087,1087,1087,1087,1087,1087,1087,1087,1087,1087,1087,1087,1087,1087,1087,1087,1087,1087,1087,1084,1084,1080,1073,1063,1063,0,0,0,0,0,0,0,0,754,752,752,754,754,754,754,754,755,755,755,757,759,759,759,759,761,762,764,764,766,766,767,767,767,769,771,0,0,0,0,1077,1077,1080,1080,1080,1080,1080,1084,1080,1080,1077,1077,1077,1080,1080,1080,1080,1080,1080,1077,1077,1077,1077,1077,1077,1077,1080,1080,1080,1077,1077,1077,1077,1077,1077,1077,1077,1080,1080,1080,1080,1077,1077,1077,1077,1077,1077,1077,1080,1080,1080,1080,862,862,862,862,862,862,864,864,864,864,864,862,862,864,864,864,864,864,864,864,867,867,867,867,869,869,869,871,871,873,873,873,875,878,878,880,880,882,882,885,885,887,887,887,889,891,891,894,894,896,896,898,898,901,903,903,903,906,1063,1063,1063,1063,1063,1063,1063,1063,1067,1067,1063,1063,1063,1063,1063,1067,1067,1067,1067,1067,1067,1067,1067,1070,1070,1070,1070,1070,1070,1067,1067,1067,1067,1067,1067,1067,1067,1067,1070,1070,1070,1067,1067,1067,1067,1067,1067,1067,1070,1070,1070,1070,1073,1073,1070,1070,1070,1070,1070,1070,1070,1073,1073,1073,1070,1070,1070,1070,1067,1067,1063,1063,1063,1060,1057,1047,1041,1038,1038,1034,1034,1034,1034,1034,1034,1038,1038,1038,1038,1041,1041,1044,1050,1050,1054,1060,1063,1063,1063,1063,1063,1063,1060,1060,1060,1063,1060,1060,1063,1063,1063,1063,1063,1063,1060,1060,1060,1060,1060,1057,1057,1060,1060,1057,1057,1060,1060,1060,1060,1060,1063,1063,1060,1060,1060,1060,1057,1057,1057,1057,1057,1057,1057,1057,1057,1057,1057,1057,1054,1054,1054,1054,1054,1054,1054,1054,1054,1054,1060,1057,1057,1054,1054,1054,1050,1050,1050,1050,1050,1050,1050,1050,1050,1050,1050,1050,1050,1050,1050,1050,1050,1050,1050,1054,1050,1050,1050,1054,1050,1050,1054,1054,1050,1050,1050,1047,1047,1047,1047,1047,1047,1047,1047,1044,1041,1041,1041,1038,1038,1038,1041,1041,1044,1044,1044,1047,1047,1047,1044,1044,1044,1044,1047,1047,1047,1047,1047,1047,1047,1050,1050,1050,1050,1050,1050,1050,1047,1047,1047,1047,1044,1044,1044,1044,1044,1044,1044,1041,1041,1044,1041,1041,1041,1041,1044,1044,1044,1044,1044,1050,1047,1047,1047,1047,1044,1041,1041,1041,1041,1041,1041,1041,1041,1041,1044,1044,1044,1041,1041,1041,1044,1044,1044,1044,1044,1044,1044,1044,1044,1041,1041,1041,1041,1041,1041,1041,1044,1041,1041,1041,1038,1038,1041,1041,1041,1038,1034,1034,1034,1034,1034,0,0,0,0,0,0,0,0,0,0,0,0,0,0,0,0,0,0,0,0,0,0,0,0,0,0,0,0,0,0,0,0,0,0,0,0,0,0,0,0,0
0,0,0,0,1105,1105,1101,1101,1101,1101,1101,1105,1105,1105,1105,1105,1101,1101,1101,1101,1101,1101,1101,1097,1097,1097,1097,1097,1094,1090,1090,1090,1090,1090,1090,1090,1090,1090,1090,1090,1090,1090,1090,1090,1090,1090,1087,1087,1087,1087,1087,1087,1087,1087,1087,1087,1087,1087,1087,1087,1087,1087,1087,1087,1087,1090,1090,1090,1090,1090,1090,1087,1087,1087,1087,1087,1087,1087,1087,1087,1087,1087,1087,1087,1087,1087,1084,1084,1084,1084,1084,1084,1087,1087,1087,1087,1087,1087,1090,1087,1087,1087,1087,1087,1087,1087,1087,1087,1087,1084,1084,1084,1084,1084,1084,1084,1084,1084,1084,1084,1084,1087,1084,1084,1084,1084,1084,1084,1084,1084,1084,1084,1084,1084,1080,1077,1073,1063,1063,1070,0,0,0,0,0,0,0,754,754,754,754,754,754,754,755,755,757,757,757,759,759,759,761,761,762,764,766,766,766,767,767,767,769,771,0,0,0,0,1077,1077,1080,1080,1080,1080,1080,1080,1077,1077,1077,1077,1077,1077,1077,1077,1077,1077,1077,1073,1073,1073,1073,1073,1073,1073,1073,1077,1077,1077,1073,1073,1073,1073,1073,1073,1077,1077,1077,1077,1077,1077,1077,1077,1077,1077,1077,1077,1077,1077,1077,1077,860,860,862,862,862,862,862,862,862,862,862,862,862,862,862,862,862,862,864,864,867,867,867,867,867,869,869,869,871,871,873,873,875,878,878,880,882,885,885,885,885,887,887,889,889,891,891,894,896,896,898,898,901,901,903,903,903,1063,1063,1063,1063,1063,1063,1063,1063,1063,1063,1063,1063,1063,1063,1063,1063,1063,1063,1063,1063,1063,1063,1067,1067,1067,1067,1067,1067,1067,1067,1067,1067,1067,1067,1067,1067,1067,1067,1067,1067,1067,1067,1067,1063,1063,1063,1063,1063,1063,1067,1067,1067,1070,1070,1070,1067,1067,1067,1067,1067,1070,1070,1070,1070,1070,1067,1067,1067,1067,1067,1067,1063,1063,1060,1060,1057,1047,1044,1041,1038,1038,1038,1038,1034,1034,1034,1038,1038,1038,1038,1041,1041,1044,1050,1050,1054,1060,1060,1060,1060,1060,1060,1057,1057,1057,1057,1054,1054,1057,1057,1057,1057,1060,1060,1060,1057,1057,1057,1057,1057,1057,1057,1057,1057,1057,1057,1057,1060,1060,1057,1057,1060,1060,1057,1057,1057,1057,1054,1054,1054,1054,1054,1054,1054,1054,1054,1054,1054,1054,1054,1054,1050,1050,1054,1050,1050,1050,1050,1050,1050,1050,1050,1054,1050,1050,1050,1050,1047,1047,1047,1047,1050,1050,1050,1050,1050,1050,1047,1047,1047,1047,1047,1047,1047,1050,1050,1050,1050,1050,1050,1050,1054,1050,1050,1047,1047,1047,1044,1044,1044,1044,1044,1044,1044,1041,1038,1038,1038,1038,1034,1034,1034,1034,1038,1041,1041,1041,1044,1044,1044,1044,1044,1044,1044,1044,1044,1044,1047,1047,1047,1047,1047,1050,1050,1050,1050,1047,1044,1044,1044,1044,1041,1041,1041,1041,1041,1044,1041,1041,1041,1041,1041,1038,1038,1041,1041,1041,1041,1041,1041,1041,1041,1044,1044,1044,1041,1038,1038,1038,1038,1041,1041,1041,1041,1041,1041,1041,1041,1041,1041,1041,1041,1041,1041,1041,1041,1041,1041,1041,1041,1038,1038,1038,1038,1038,1038,1038,1041,1038,1038,1038,1038,1038,1038,1038,1038,1038,1034,1034,1034,1034,1034,0,0,0,0,0,0,0,0,0,0,0,0,0,0,0,0,0,0,0,0,0,0,0,0,0,0,0,0,0,0,0,0,0,0,0,0,0,0,0,0,0
0,0,0,0,1101,1101,1101,1101,1101,1101,1101,1101,1101,1101,1101,1101,1101,1101,1101,1097,1097,1097,1097,1097,1094,1094,1094,1090,1090,1090,1090,1090,1087,1087,1087,1087,1087,1087,1087,1087,1087,1087,1087,1087,1087,1087,1087,1087,1087,1087,1087,1087,1087,1087,1087,1084,1084,1084,1084,1084,1084,1087,1084,1084,1084,1084,1084,1084,1084,1087,1087,1087,1087,1084,1084,1084,1084,1087,1087,1084,1084,1084,1084,1084,1084,1080,1080,1084,1080,1080,1084,1084,1084,1084,1087,1087,1087,1087,1087,1087,1087,1087,1087,1087,1084,1084,1084,1084,1084,1084,1084,1084,1084,1080,1080,1080,1080,1084,1084,1084,1084,1084,1084,1084,1080,1080,1080,1084,1080,1080,1080,1084,1084,1080,1077,1077,1073,1073,1070,1070,0,0,0,0,0,0,0,755,755,755,755,755,755,755,755,757,757,757,759,759,761,761,761,762,764,766,766,766,767,767,767,767,769,771,0,0,0,0,1073,1073,1073,1077,1077,1077,1077,1077,1077,1077,1077,1073,1073,1073,1073,1073,1073,1073,1073,1070,1070,1070,1070,1070,1070,1070,1070,1070,1073,1073,1073,1073,1073,1073,1073,1073,1073,1073,1073,1077,1077,1077,1077,1077,1077,1077,1077,1077,1077,858,858,858,858,860,860,860,860,860,860,860,862,862,860,860,860,860,860,860,860,862,862,864,867,867,867,867,867,869,869,869,871,871,873,875,875,878,880,882,882,885,885,885,887,887,889,889,891,894,894,896,896,896,898,901,903,903,903,906,906,1063,1063,1063,1063,1063,1063,1063,1063,1063,1063,1063,1060,1060,1060,1060,1060,1060,1060,1060,1060,1063,1063,1063,1063,1067,1067,1067,1067,1067,1067,1067,1067,1067,1067,1067,1067,1063,1063,1063,1063,1063,1063,1063,1063,1063,1063,1063,1063,1063,1063,1063,1063,1063,1063,1063,1067,1067,1067,1067,1067,1067,1067,1067,1067,1067,1067,1067,1063,1063,1063,1063,1063,1060,1060,1057,1054,1054,1044,1041,1041,1038,1038,1038,1038,1038,1038,1038,1038,1038,1041,1041,1041,1044,1050,1050,1054,1057,1057,1057,1057,1057,1057,1054,1054,1054,1054,1054,1054,1054,1054,1054,1054,1054,1054,1054,1054,1054,1054,1054,1054,1054,1054,1054,1054,1054,1054,1057,1057,1057,1054,1054,1057,1057,1057,1054,1054,1054,1054,1054,1054,1054,1054,1054,1054,1054,1054,1050,1050,1050,1050,1050,1050,1050,1050,1050,1050,1050,1047,1047,1047,1047,1047,1047,1047,1047,1050,1047,1047,1047,1047,1047,1047,1047,1047,1047,1047,1047,1047,1047,1047,1047,1047,1044,1041,1041,1044,1044,1044,1044,1050,1050,1050,1047,1047,1047,1044,1044,1041,1041,1041,1044,1044,1044,1041,1038,1038,1034,1034,1038,1031,1031,1031,1031,1034,1034,1038,1038,1038,1041,1041,1041,1041,1041,1041,1041,1041,1044,1044,1044,1044,1044,1047,1050,1050,1050,1047,1047,1044,1044,1044,1041,1041,1041,1041,1041,1041,1041,1041,1041,1041,1038,1038,1038,1038,1038,1038,1038,1038,1038,1038,1038,1038,1038,1038,1041,1038,1034,1034,1034,1034,1038,1041,1041,1041,1041,1041,1041,1041,1041,1041,1041,1041,1041,1041,1038,1038,1038,1038,1038,1038,1034,1034,1034,1038,1038,1038,1038,1038,1034,1034,1034,1034,1034,1034,1034,1034,1034,1031,1025,1019,1013,1013,0,0,0,0,0,0,0,0,0,0,0,0,0,0,0,0,0,0,0,0,0,0,0,0,0,0,0,0,0,0,0,0,0,0,0,0,0,0,0,0,0
0,0,0,0,1101,1101,1101,1097,1097,1097,1097,1101,1101,1101,1101,1101,1097,1097,1097,1094,1094,1094,1094,1094,1094,1090,1090,1090,1090,1087,1087,1087,1087,1087,1087,1087,1087,1084,1084,1087,1084,1084,1084,1084,1084,1084,1084,1084,1084,1084,1084,1084,1084,1084,1084,1084,1084,1077,1077,1080,1080,1084,1084,1084,1084,1080,1080,1080,1080,1080,1080,1080,1080,1084,1084,1080,1080,1084,1084,1080,1080,1080,1080,1080,1080,1077,1077,1077,1080,1080,1080,1080,1084,1084,1084,1084,1084,1084,1084,1080,1080,1084,1084,1080,1080,1080,1080,1080,1080,1080,1080,1080,1080,1077,1077,1077,1080,1080,1080,1080,1080,1080,1080,1080,1077,1077,1077,1077,1077,1077,1077,1080,1080,1080,1077,1073,1073,1073,1070,1070,1070,0,0,0,0,0,0,0,0,757,757,757,755,755,757,757,757,759,759,761,761,761,761,762,764,766,766,766,767,767,769,769,771,771,0,0,0,0,1067,1067,1070,1073,1073,1073,1073,1077,1073,1073,1073,1073,1070,1070,1070,1070,1070,1070,1070,1070,1067,1067,1067,1067,1067,1067,1067,1070,1070,1070,1070,1070,1070,1070,1070,1070,1073,1073,1073,1073,1073,1073,1073,1077,1077,1077,1077,851,851,854,856,856,856,858,858,860,860,860,858,858,858,858,858,858,858,858,858,860,860,860,862,864,867,867,867,867,867,869,869,869,871,871,873,875,875,878,880,882,882,885,885,885,887,887,889,889,891,894,894,896,896,898,901,901,903,903,1063,1063,1063,1060,1060,1060,1063,1060,1060,1060,1060,1060,1060,1060,1060,1060,1060,1060,1060,1060,1060,1060,1060,1060,1060,1060,1060,1063,1063,1063,1063,1063,1063,1063,1063,1063,1063,1063,1063,1063,1063,1060,1060,1060,1060,1063,1063,1063,1063,1063,1063,1063,1063,1063,1063,1063,1063,1060,1060,1060,1060,1063,1063,1063,1063,1063,1063,1063,1063,1060,1060,1060,1060,1060,1060,1060,1057,1057,1054,1054,1047,1044,1041,1041,1038,1038,1038,1038,1038,1038,1038,1038,1041,1041,1041,1044,1050,1050,1050,1054,1054,1054,1054,1054,1054,1054,1054,1054,1054,1054,1054,1054,1054,1054,1054,1054,1054,1054,1054,1054,1054,1054,1054,1054,1054,1054,1054,1054,1054,1054,1054,1054,1054,1054,1054,1054,1054,1050,1050,1050,1050,1050,1054,1054,1054,1050,1050,1050,1050,1050,1047,1047,1047,1047,1047,1047,1047,1047,1047,1044,1044,1044,1044,1044,1044,1044,1044,1044,1044,1044,1047,1047,1047,1047,1047,1047,1044,1044,1047,1044,1044,1044,1044,1044,1044,1041,1041,1041,1041,1041,1041,1041,1041,1041,1047,1044,1041,1041,1041,1041,1041,1041,1041,1044,1044,1041,1041,1038,1034,1034,1034,1034,1028,1028,1031,1031,1031,1031,1031,1031,1031,1038,1038,1038,1038,1038,1038,1038,1041,1041,1041,1041,1041,1041,1044,1047,1047,1047,1044,1044,1044,1041,1041,1041,1038,1038,1038,1038,1038,1038,1038,1038,1038,1038,1038,1034,1034,1034,1034,1038,1038,1034,1034,1034,1034,1034,1031,1031,1031,1031,1034,1034,1034,1034,1038,1038,1038,1038,1038,1038,1038,1038,1038,1038,1038,1038,1038,1038,1034,1034,1034,1028,1028,1028,1031,1034,1034,1034,1034,1034,1034,1034,1031,1031,1028,1028,1028,1031,1028,1028,1025,1019,1016,1013,1013,1013,1013,0,0,0,0,0,0,0,0,0,0,0,0,0,0,0,0,0,0,0,0,0,0,0,0,0,0,0,0,0,0,0,0,0,0,0,0,0,0,0
0,0,0,0,1097,1097,1101,1097,1097,1097,1097,1101,1101,1101,1101,1097,1097,1097,1094,1094,1094,1094,1094,1090,1090,1090,1090,1087,1087,1087,1087,1084,1084,1084,1084,1084,1084,1080,1080,1084,1077,1077,1077,1073,1073,1077,1077,1080,1080,1080,1080,1080,1080,1080,1080,1080,1080,1077,1077,1077,1077,1077,1077,1077,1077,1077,1080,1080,1077,1077,1077,1077,1077,1077,1077,1077,1077,1080,1080,1080,1080,1077,1077,1077,1077,1077,1077,1077,1077,1077,1077,1077,1077,1077,1077,1077,1080,1080,1080,1077,1077,1077,1077,1077,1077,1077,1077,1077,1077,1077,1077,1077,1077,1077,1077,1077,1077,1077,1077,1077,1077,1077,1077,1077,1077,1077,1077,1077,1077,1077,1077,1077,1077,1077,1073,1073,1070,1070,1070,1070,1070,0,0,0,0,0,0,0,0,0,757,757,757,757,757,759,759,759,759,761,761,761,762,764,766,766,766,767,767,769,769,771,771,771,0,0,0,0,1067,1067,1067,1070,1070,1073,1073,1073,1073,1073,1070,1070,1070,1070,1067,1067,1067,1067,1067,1067,1067,1067,1067,1067,1067,1067,1067,1067,1067,1067,1067,1067,1067,1070,1070,1070,1070,1070,1070,1073,1073,1073,1073,847,847,849,849,851,851,854,854,854,854,856,858,858,858,858,858,856,856,856,856,858,858,858,858,860,860,860,862,864,867,867,867,867,869,869,869,869,871,873,875,875,878,880,882,885,885,885,887,887,887,887,889,889,891,894,896,896,896,898,901,901,1057,1057,1057,1060,1060,1060,1060,1060,1060,1060,1060,1060,1060,1060,1057,1057,1060,1057,1057,1057,1057,1057,1060,1060,1060,1060,1060,1060,1060,1063,1063,1063,1063,1063,1063,1063,1060,1060,1063,1060,1060,1060,1060,1060,1060,1057,1057,1057,1057,1057,1060,1060,1060,1060,1060,1060,1060,1060,1060,1057,1057,1057,1057,1057,1057,1057,1057,1060,1060,1060,1057,1057,1057,1057,1057,1057,1057,1057,1057,1057,1054,1054,1047,1044,1041,1041,1041,1038,1038,1038,1038,1041,1041,1041,1041,1041,1044,1044,1047,1050,1050,1050,1050,1050,1050,1054,1054,1050,1050,1050,1050,1050,1050,1050,1050,1050,1050,1050,1050,1050,1050,1050,1050,1054,1050,1050,1050,1054,1054,1054,1054,1054,1054,1054,1050,1050,1050,1050,1050,1050,1050,1050,1047,1047,1047,1047,1047,1047,1047,1047,1047,1047,1044,1044,1044,1041,1041,1044,1044,1044,1044,1044,1044,1044,1044,1044,1044,1044,1044,1044,1044,1041,1041,1041,1041,1044,1044,1044,1044,1044,1044,1044,1044,1044,1044,1041,1041,1041,1041,1041,1041,1041,1041,1041,1041,1041,1044,1041,1041,1041,1041,1041,1041,1041,1041,1041,1041,1041,1041,1038,1034,1031,1028,1028,1028,1028,1028,1028,1028,1028,1028,1028,1028,1031,1031,1034,1034,1034,1034,1034,1034,1034,1034,1034,1031,1031,1038,1038,1034,1034,1044,1044,1041,1038,1038,1038,1038,1034,1034,1034,1034,1034,1034,1034,1031,1031,1028,1028,1031,1031,1031,1034,1034,1031,1031,1034,1031,1031,1028,1028,1028,1028,1028,1028,1031,1034,1034,1034,1034,1034,1034,1034,1038,1034,1034,1034,1034,1038,1034,1034,1034,1034,1034,1028,1028,1028,1028,1028,1031,1034,1031,1031,1028,1028,1028,1028,1028,1028,1028,1028,1028,1025,1022,1016,1016,1013,1013,1013,1013,1010,1010,0,0,0,0,0,0,0,0,0,0,0,0,0,0,0,0,0,0,0,0,0,0,0,0,0,0,0,0,0,0,0,0,0,0,0,0,0
0,0,0,0,1097,1097,1097,1097,1097,1094,1094,1097,1097,1097,1097,1094,1094,1094,1090,1090,1090,1090,1090,1090,1090,1090,1087,1087,1087,1084,1084,1084,1080,1080,1080,1080,1080,1077,1077,1077,1073,1073,1073,1073,1073,1073,1077,1077,1077,1077,1077,1077,1077,1077,1077,1077,1077,1077,1077,1077,1073,1073,1073,1073,1073,1073,1077,1077,1077,1077,1077,1077,1077,1077,1077,1077,1077,1077,1077,1077,1077,1077,1077,1077,1077,1077,1073,1073,1073,1073,1077,1073,1073,1073,1077,1077,1077,1077,1077,1077,1077,1073,1073,1073,1073,1073,1073,1073,1073,1073,1073,1073,1073,1073,1070,1070,1073,1073,1073,1077,1073,1073,1077,1077,1077,1077,1077,1077,1077,1073,1073,1073,1073,1073,1070,1070,1070,1070,1070,1067,1067,1067,0,0,0,0,0,0,0,0,757,757,759,759,759,759,759,759,759,761,761,761,762,764,766,767,767,767,769,769,771,771,771,771,0,0,0,0,1060,1060,1063,1063,1067,1067,1067,1067,1070,1070,1070,1067,1067,1067,1067,1067,1067,1067,1067,1063,1063,1063,1063,1063,1063,1063,1063,1063,1063,1063,1067,1067,1067,1067,1067,1067,1070,1070,1070,851,849,849,849,847,847,849,849,851,851,854,854,854,854,856,856,856,858,858,856,856,856,856,856,856,856,858,858,860,860,860,860,864,867,867,867,867,869,869,871,871,871,873,878,878,880,882,882,885,885,885,887,887,887,887,889,889,891,1050,1050,1054,1054,1054,1054,1054,1054,1054,1057,1057,1057,1057,1057,1057,1057,1057,1057,1057,1057,1057,1057,1057,1057,1057,1054,1054,1054,1054,1057,1054,1054,1054,1057,1054,1054,1060,1060,1060,1060,1060,1060,1060,1060,1060,1060,1060,1060,1057,1057,1057,1057,1054,1054,1054,1054,1054,1057,1060,1060,1060,1060,1060,1060,1060,1057,1057,1057,1057,1057,1057,1054,1054,1054,1057,1057,1057,1054,1054,1054,1054,1054,1054,1054,1054,1054,1054,1054,1050,1047,1047,1044,1041,1041,1041,1041,1041,1041,1041,1041,1041,1041,1041,1044,1044,1044,1047,1047,1050,1050,1050,1050,1050,1050,1047,1047,1047,1047,1047,1047,1047,1047,1047,1047,1047,1047,1047,1047,1047,1047,1050,1050,1050,1050,1050,1050,1050,1050,1050,1050,1047,1047,1047,1047,1047,1047,1047,1047,1047,1044,1044,1044,1044,1044,1044,1044,1044,1044,1044,1041,1041,1041,1041,1041,1041,1041,1041,1041,1041,1041,1041,1041,1041,1041,1041,1041,1041,1041,1041,1041,1041,1041,1041,1041,1041,1041,1041,1041,1041,1041,1041,1041,1041,1038,1038,1038,1038,1038,1038,1038,1038,1038,1041,1041,1041,1041,1041,1034,1034,1038,1038,1038,1038,1041,1038,1038,1034,1031,1028,1025,1025,1025,1025,1025,1025,1025,1025,1025,1025,1025,1028,1028,1028,1028,1031,1031,1031,1031,1031,1028,1028,1028,1028,1025,1025,1025,1025,1028,1028,1041,1038,1038,1038,1038,1028,1028,1028,1025,1025,1031,1031,1031,1031,1028,1028,1028,1028,1028,1031,1031,1031,1031,1031,1031,1028,1028,1028,1028,1028,1028,1028,1028,1028,1031,1031,1031,1031,1031,1031,1034,1034,1031,1031,1034,1034,1034,1031,1031,1031,1031,1028,1028,1025,1025,1025,1028,1028,1028,1025,1025,1025,1025,1028,1028,1028,1025,1025,1025,1022,1019,1016,1013,1013,1013,1013,1013,1007,1007,0,0,0,0,0,0,0,0,0,0,0,0,0,0,0,0,0,0,0,0,0,0,0,0,0,0,0,0,0,0,0,0,0,0,0,0,0
0,0,0,0,1097,1097,1097,1097,1094,1090,1090,1090,1094,1090,1090,1090,1090,1090,1090,1090,1090,1090,1090,1090,1087,1087,1087,1084,1084,1084,1084,1084,1080,1077,1077,1077,1077,1073,1073,1073,1073,1073,1073,1073,1073,1073,1073,1073,1073,1073,1073,1073,1073,1073,1073,1073,1073,1073,1073,1073,1073,1073,1073,1070,1070,1070,1070,1073,1073,1073,1073,1073,1073,1073,1073,1073,1073,1073,1073,1077,1073,1073,1070,1070,1073,1073,1070,1070,1070,1070,1070,1070,1070,1070,1073,1073,1073,1073,1073,1073,1073,1073,1070,1070,1070,1070,1070,1073,1070,1070,1070,1070,1070,1070,1070,1070,1070,1070,1073,1073,1073,1073,1073,1073,1073,1073,1073,1073,1073,1073,1070,1070,1070,1070,1067,1067,1067,1067,1067,1067,1067,1067,1067,0,0,0,0,0,0,0,757,757,759,759,759,759,759,759,761,761,761,762,764,766,766,767,767,769,771,771,771,771,771,771,0,0,0,0,1060,1060,1060,1063,1063,1067,1067,1067,1067,1067,1067,1067,1067,1067,1063,1063,1063,1063,1063,1063,1063,1063,1063,1063,1063,1063,1063,1063,1063,1063,1063,1063,1063,1063,1063,843,843,843,847,847,849,849,849,849,849,849,849,849,851,851,851,851,854,854,854,854,856,856,856,854,854,854,854,856,856,858,858,860,860,860,860,864,867,867,867,867,869,869,871,871,871,873,878,878,880,882,885,885,885,885,887,887,887,887,889,889,1050,1050,1050,1050,1050,1050,1050,1050,1050,1050,1054,1054,1054,1054,1054,1054,1054,1054,1054,1054,1057,1054,1054,1054,1054,1054,1054,1054,1054,1054,1054,1050,1050,1050,1054,1054,1054,1057,1057,1057,1057,1057,1057,1057,1054,1054,1057,1057,1057,1057,1054,1054,1054,1054,1054,1054,1054,1054,1054,1054,1054,1054,1054,1054,1054,1054,1054,1054,1054,1054,1054,1054,1054,1054,1054,1054,1050,1050,1054,1054,1054,1054,1054,1054,1054,1054,1054,1054,1050,1050,1047,1047,1044,1041,1041,1041,1041,1041,1041,1041,1041,1041,1041,1041,1041,1044,1044,1044,1047,1047,1047,1047,1047,1047,1047,1047,1047,1047,1047,1047,1044,1044,1047,1047,1047,1047,1047,1047,1047,1047,1047,1047,1047,1047,1050,1050,1050,1047,1047,1050,1047,1044,1044,1044,1044,1044,1044,1044,1044,1041,1041,1041,1041,1041,1041,1041,1041,1044,1041,1041,1041,1041,1041,1038,1038,1038,1041,1041,1038,1038,1038,1038,1038,1038,1038,1038,1038,1038,1038,1038,1038,1038,1038,1038,1038,1038,1038,1041,1041,1038,1038,1041,1041,1041,1038,1038,1038,1038,1038,1038,1038,1038,1038,1038,1038,1038,1038,1038,1034,1034,1034,1034,1038,1038,1038,1038,1034,1028,1028,1025,1025,1025,1025,1025,1025,1025,1025,1025,1025,1025,1025,1025,1025,1025,1025,1025,1025,1025,1028,1028,1025,1025,1022,1022,1019,1019,1019,1019,1022,1022,1022,1025,1025,1025,1022,1019,1019,1022,1019,1019,1019,1019,1022,1022,1022,1022,1025,1028,1028,1031,1031,1028,1028,1028,1028,1028,1025,1025,1025,1025,1025,1025,1025,1028,1028,1031,1031,1028,1028,1031,1031,1028,1028,1028,1031,1034,1034,1031,1031,1028,1028,1025,1025,1025,1025,1025,1025,1025,1025,1022,1022,1022,1022,1025,1025,1025,1025,1022,1022,1019,1019,1016,1013,1013,1010,1010,1010,1007,1007,1007,0,0,0,0,0,0,0,0,0,0,0,0,0,0,0,0,0,0,0,0,0,0,0,0,0,0,0,0,0,0,0,0,0,0,0,0
0,0,0,0,1094,1094,1094,1094,1094,1090,1090,1090,1090,1087,1087,1087,1087,1090,1090,1087,1087,1087,1087,1087,1087,1087,1084,1084,1084,1080,1080,1080,1080,1077,1077,1077,1077,1073,1073,1073,1073,1073,1073,1073,1073,1073,1070,1070,1070,1070,1070,1070,1070,1070,1070,1070,1070,1073,1073,1070,1070,1070,1070,1070,1070,1067,1067,1070,1073,1073,1073,1073,1073,1073,1070,1070,1070,1070,1070,1073,1070,1070,1067,1067,1067,1067,1067,1067,1067,1067,1067,1067,1067,1067,1067,1070,1070,1070,1070,1070,1070,1070,1070,1070,1070,1070,1070,1070,1070,1070,1070,1070,1067,1067,1067,1067,1067,1067,1067,1070,1067,1067,1070,1070,1070,1070,1067,1067,1070,1067,1063,1063,1063,1063,1063,1063,1063,1063,1063,1063,1063,1063,1063,1067,0,0,0,0,0,0,761,761,759,759,759,759,759,761,761,761,762,764,764,766,767,767,767,769,771,771,773,773,771,771,0,0,0,0,1060,1060,1060,1063,1063,1063,1063,1063,1063,1063,1063,1063,1063,1063,1063,1063,1063,1060,1060,1060,1060,1060,1060,1060,1060,1060,1063,1063,1063,1063,858,851,847,847,845,843,843,843,845,847,849,849,849,849,847,847,847,847,849,849,849,849,851,851,851,851,851,851,854,854,854,854,854,856,856,858,858,860,860,860,860,864,867,867,867,869,871,871,873,873,873,875,878,878,880,882,885,885,885,887,887,887,887,889,889,1050,1050,1050,1050,1050,1050,1050,1050,1050,1050,1050,1050,1050,1050,1050,1050,1050,1050,1050,1050,1050,1050,1050,1050,1050,1050,1050,1050,1050,1050,1050,1050,1050,1050,1050,1050,1050,1054,1054,1054,1054,1054,1050,1050,1054,1054,1054,1054,1054,1054,1054,1054,1050,1050,1050,1050,1050,1050,1050,1050,1050,1050,1050,1050,1050,1050,1050,1050,1050,1050,1054,1050,1050,1050,1050,1050,1050,1050,1050,1050,1050,1050,1050,1050,1050,1050,1050,1050,1050,1050,1050,1047,1047,1044,1041,1041,1041,1041,1041,1041,1041,1041,1041,1041,1041,1041,1044,1044,1044,1044,1044,1044,1044,1044,1044,1044,1044,1044,1044,1044,1044,1044,1044,1044,1044,1044,1047,1047,1044,1044,1044,1044,1041,1041,1041,1041,1041,1041,1044,1044,1044,1044,1041,1041,1041,1044,1041,1041,1041,1041,1041,1041,1038,1038,1038,1038,1041,1041,1041,1041,1041,1041,1041,1041,1038,1038,1038,1038,1038,1038,1038,1038,1038,1034,1034,1034,1034,1034,1034,1034,1034,1038,1038,1038,1038,1038,1038,1031,1031,1031,1038,1038,1038,1038,1031,1031,1034,1034,1038,1038,1038,1038,1034,1034,1034,1034,1031,1031,1031,1031,1031,1031,1031,1031,1031,1031,1031,1028,1025,1025,1022,1022,1022,1022,1022,1022,1022,1022,1022,1022,1022,1022,1025,1022,1022,1025,1025,1025,1022,1022,1025,1025,1022,1022,1022,1019,1019,1019,1019,1019,1019,1019,1022,1022,1022,1019,1019,1019,1019,1016,1016,1016,1019,1019,1016,1016,1019,1022,1022,1025,1031,1031,1028,1028,1028,1028,1025,1022,1022,1022,1022,1022,1022,1025,1025,1028,1028,1028,1028,1028,1028,1028,1028,1028,1028,1028,1034,1031,1031,1028,1028,1028,1025,1025,1025,1025,1025,1025,1022,1019,1019,1019,1019,1019,1019,1019,1019,1019,1019,1019,1019,1016,1016,1013,1013,1010,1010,1010,1004,1004,1004,0,0,0,0,0,0,0,0,0,0,0,0,0,0,0,0,0,0,0,0,0,0,0,0,0,0,0,0,0,0,0,0,0,0,0,0
0,0,0,0,1090,1090,1094,1094,1090,1090,1090,1090,1087,1087,1087,1087,1087,1087,1084,1084,1087,1087,1087,1087,1087,1087,1084,1080,1080,1077,1077,1080,1077,1077,1073,1073,1073,1070,1070,1070,1070,1070,1070,1070,1070,1070,1070,1070,1070,1070,1070,1070,1067,1067,1070,1070,1070,1070,1070,1070,1067,1067,1070,1067,1067,1067,1067,1070,1070,1070,1070,1070,1070,1070,1067,1063,1063,1067,1067,1070,1067,1067,1067,1067,1067,1067,1063,1063,1063,1063,1063,1067,1067,1067,1067,1067,1067,1067,1067,1067,1067,1067,1067,1067,1067,1070,1070,1070,1070,1067,1067,1067,1067,1067,1063,1063,1063,1063,1067,1067,1063,1063,1063,1067,1067,1063,1063,1063,1063,1063,1063,1063,1063,1063,1063,1063,1063,1063,1063,1063,1060,1060,1063,1063,0,0,0,0,0,0,0,761,761,761,761,761,761,761,761,762,764,764,766,766,767,769,769,771,771,773,773,773,773,773,0,0,0,0,1060,1057,1057,1060,1060,1060,1060,1057,1057,1060,1060,1060,1060,1060,1060,1060,1060,1060,1060,1060,1057,1057,1060,1060,1060,1060,1060,1060,1060,858,856,849,845,845,845,843,843,843,843,845,847,845,845,847,845,845,845,845,847,847,849,849,849,849,849,851,851,851,851,854,854,854,854,856,856,858,858,860,860,860,862,864,867,867,867,869,871,871,873,873,873,875,878,878,880,882,882,885,885,887,887,887,889,889,1044,1047,1047,1047,1047,1047,1047,1047,1047,1047,1047,1047,1047,1047,1047,1047,1047,1047,1047,1047,1047,1047,1047,1047,1047,1047,1047,1050,1050,1047,1047,1050,1047,1047,1047,1050,1047,1047,1050,1050,1050,1050,1050,1050,1050,1050,1050,1050,1050,1050,1050,1050,1050,1050,1050,1050,1050,1050,1050,1050,1047,1047,1047,1047,1047,1047,1050,1050,1050,1050,1050,1050,1050,1047,1047,1050,1047,1047,1047,1047,1047,1050,1050,1047,1047,1047,1047,1047,1047,1047,1047,1047,1047,1047,1044,1041,1041,1041,1041,1041,1041,1038,1038,1038,1041,1041,1041,1041,1041,1044,1044,1041,1041,1041,1041,1041,1041,1041,1041,1041,1041,1041,1041,1041,1041,1041,1044,1044,1044,1044,1041,1041,1041,1038,1038,1038,1038,1038,1038,1038,1038,1041,1041,1041,1041,1041,1041,1041,1038,1038,1038,1038,1038,1038,1038,1038,1038,1038,1038,1038,1038,1038,1038,1038,1038,1038,1038,1038,1038,1038,1034,1034,1034,1031,1031,1031,1031,1031,1031,1031,1031,1031,1028,1028,1028,1028,1028,1028,1028,1028,1028,1028,1028,1028,1031,1031,1031,1031,1034,1028,1028,1034,1034,1031,1028,1028,1028,1028,1028,1028,1028,1028,1028,1031,1031,1031,1031,1028,1022,1022,1019,1019,1019,1019,1019,1019,1019,1019,1019,1019,1019,1019,1019,1019,1019,1019,1022,1022,1022,1022,1022,1019,1019,1019,1019,1019,1019,1016,1016,1016,1019,1019,1019,1019,1019,1019,1016,1016,1016,1016,1016,1016,1016,1016,1016,1013,1013,1013,1016,1016,1019,1025,1025,1025,1025,1028,1025,1022,1016,1013,1013,1010,992,989,989,1025,1025,1025,1025,1022,1022,1022,1025,1028,1025,1025,1028,1028,1031,1028,1028,1028,1028,1025,1025,1025,1022,1022,1022,1019,1019,1019,1016,1016,1016,1016,1016,1016,1019,1019,1019,1016,1016,1013,1013,1010,1010,1010,1010,1004,1004,1004,0,0,0,0,0,0,0,0,0,0,0,0,0,0,0,0,0,0,0,0,0,0,0,0,0,0,0,0,0,0,0,0,0,0,0,0
0,0,0,0,1090,1090,1090,1090,1090,1087,1087,1087,1087,1084,1084,1084,1084,1084,1084,1084,1084,1084,1084,1084,1084,1087,1084,1080,1080,1077,1077,1077,1073,1073,1073,1070,1070,1067,1067,1067,1067,1067,1070,1067,1067,1070,1070,1070,1070,1067,1067,1067,1067,1067,1067,1067,1067,1067,1070,1067,1067,1067,1067,1067,1067,1063,1063,1067,1067,1067,1067,1067,1067,1063,1063,1063,1063,1063,1063,1067,1067,1067,1067,1063,1063,1063,1060,1060,1060,1060,1060,1060,1060,1060,1063,1067,1063,1063,1063,1063,1063,1063,1063,1063,1063,1067,1067,1067,1067,1067,1067,1063,1063,1063,1063,1063,1063,1063,1063,1063,1063,1063,1063,1063,1063,1063,1063,1063,1063,1060,1060,1060,1060,1063,1060,1060,1060,1060,1060,1060,1060,1060,1060,1063,0,0,0,0,0,0,0,761,761,761,761,761,761,761,761,762,764,764,766,766,767,767,769,771,771,773,773,773,773,773,0,0,0,1057,0,1057,1057,1057,1057,1057,1057,1057,1057,1057,1057,1057,1060,1060,1060,1060,1060,1057,1057,1057,1054,1054,1057,1057,1057,1060,1060,1060,1060,843,843,843,843,843,843,843,843,843,843,845,845,845,845,845,845,845,843,843,845,845,847,847,847,847,849,849,849,849,851,851,851,851,854,856,856,858,858,860,860,860,864,864,867,867,869,869,871,873,873,875,875,875,878,878,880,882,882,882,885,887,887,889,1044,1044,1044,1047,1047,1047,1047,1044,1044,1044,1044,1044,1044,1041,1041,1044,1044,1044,1044,1044,1047,1044,1044,1044,1044,1044,1044,1041,1041,1044,1044,1044,1047,1047,1044,1044,1047,1047,1047,1047,1047,1047,1047,1047,1047,1044,1044,1047,1047,1047,1047,1047,1047,1047,1047,1047,1047,1047,1047,1047,1047,1047,1044,1044,1044,1044,1044,1044,1044,1047,1047,1047,1050,1050,1047,1047,1047,1047,1047,1047,1047,1047,1047,1047,1047,1047,1047,1044,1041,1041,1044,1044,1044,1044,1044,1044,1041,1041,1041,1041,1041,1041,1041,1038,1038,1038,1038,1041,1041,1041,1041,1041,1041,1041,1041,1041,1041,1041,1041,1041,1041,1041,1041,1041,1041,1041,1041,1041,1041,1041,1041,1041,1041,1038,1038,1038,1034,1034,1034,1034,1034,1034,1034,1038,1038,1038,1038,1038,1038,1038,1038,1034,1034,1034,1034,1034,1034,1034,1034,1034,1038,1038,1038,1034,1034,1034,1038,1038,1038,1034,1034,1034,1034,1031,1031,1031,1028,1028,1028,1028,1028,1028,1028,1028,1028,1025,1025,1028,1028,1028,1028,1028,1028,1028,1028,1028,1028,1028,1028,1028,1028,1025,1025,1025,1031,1028,1028,1028,1028,1028,1025,1025,1025,1025,1028,1028,1028,1028,1028,1019,1019,1019,1016,1016,1016,1016,1016,1016,1016,1016,1016,1016,1016,1016,1016,1016,1016,1019,1019,1019,1019,1019,1019,1019,1016,1016,1016,1016,1016,1016,1016,1016,1016,1016,1016,1016,1016,1016,1016,1016,1016,1016,1016,1016,1016,1016,1013,1013,1013,1013,1010,1010,1010,1010,1016,1019,1022,1025,1022,1004,1001,998,992,992,992,989,989,987,984,984,984,984,981,981,981,981,1025,1025,1025,1028,1031,1028,1028,1028,1028,1025,1025,1025,1022,1022,1019,1016,1016,1016,1016,1016,1016,1016,1016,1016,1016,1016,1016,1016,1016,1013,1013,1010,1010,1010,1010,1010,1007,1007,0,0,0,0,0,0,0,0,0,0,0,0,0,0,0,0,0,0,0,0,0,0,0,0,0,0,0,0,0,0,0,0,0,0,0,0
0,0,0,0,1087,1087,1087,1087,1087,1084,1084,1084,1084,1084,1084,1080,1080,1080,1080,1080,1080,1080,1084,1084,1084,1084,1080,1077,1077,1073,1073,1073,1070,1070,1070,1067,1067,1063,1063,1063,1063,1063,1067,1063,1063,1067,1067,1067,1067,1067,1067,1063,1063,1067,1067,1067,1067,1067,1067,1067,1067,1067,1067,1063,1063,1063,1063,1063,1063,1063,1063,1063,1063,1063,1060,1060,1060,1060,1060,1063,1063,1063,1063,1063,1063,1060,1060,1060,1060,1060,1060,1057,1057,1057,1060,1060,1060,1060,1060,1060,1060,1060,1060,1060,1060,1063,1063,1063,1063,1063,1063,1063,1063,1063,1060,1060,1060,1060,1060,1060,1060,1057,1057,1060,1060,1060,1060,1060,1060,1060,1060,1060,1060,1060,1057,1057,1060,1060,1060,1057,1057,1057,1057,1060,0,0,0,0,0,0,0,762,762,761,761,761,761,761,761,762,764,764,766,766,767,767,769,769,773,773,773,773,773,773,773,773,0,0,0,1057,1054,1054,1054,1054,1054,1054,1054,1054,1054,1054,1057,1057,1057,1057,1057,1057,1054,1054,1054,1054,1054,1054,1054,837,837,837,837,839,839,841,841,841,841,841,841,841,843,843,843,843,843,843,843,843,843,843,843,845,845,845,847,847,847,849,849,849,849,851,851,851,854,856,856,858,858,860,860,862,864,867,867,867,869,869,871,873,873,875,875,875,878,878,880,880,882,882,885,1041,1041,1041,1041,1044,1044,1044,1044,1044,1044,1041,1041,1041,1041,1041,1041,1041,1041,1041,1041,1041,1041,1041,1041,1041,1041,1038,1038,1041,1041,1038,1038,1038,1041,1041,1041,1041,1041,1041,1041,1044,1044,1044,1044,1044,1044,1047,1047,1044,1044,1044,1044,1044,1044,1044,1044,1044,1044,1044,1044,1044,1044,1044,1044,1044,1041,1041,1041,1041,1041,1041,1041,1044,1044,1044,1044,1047,1044,1044,1044,1044,1044,1044,1044,1044,1044,1044,1044,1044,1044,1041,1038,1038,1038,1038,1038,1041,1041,1041,1041,1038,1038,1038,1038,1038,1038,1038,1038,1038,1038,1038,1041,1038,1038,1041,1041,1038,1038,1038,1038,1038,1038,1041,1041,1041,1041,1038,1038,1038,1038,1038,1038,1038,1038,1041,1038,1038,1038,1034,1031,1031,1031,1031,1031,1031,1031,1031,1031,1034,1031,1031,1038,1034,1034,1034,1034,1034,1034,1034,1034,1034,1034,1034,1034,1034,1034,1031,1031,1031,1031,1031,1034,1031,1031,1031,1031,1031,1028,1028,1028,1028,1025,1025,1025,1028,1025,1025,1025,1025,1025,1025,1025,1025,1025,1025,1025,1025,1025,1025,1025,1025,1022,1022,1025,1025,1022,1022,1028,1028,1028,1028,1028,1025,1025,1025,1025,1025,1025,1025,1025,1025,1022,1019,1019,1019,1016,1016,1016,1016,1016,1016,1016,1016,1016,1016,1016,1016,1016,1016,1016,1016,1016,1016,1016,1016,1016,1016,1016,1016,1016,1016,1016,1016,1016,1016,1016,1016,1016,1013,1013,1013,1013,1013,1013,1013,1013,1013,1013,1013,1013,1010,1010,1010,1007,1007,1007,1007,1007,1004,1004,1022,1016,1004,998,995,992,992,992,989,989,987,984,984,984,984,981,981,981,981,981,981,1025,1028,1031,1031,1028,1028,1028,1028,1028,1028,1025,1022,1016,1016,1016,1016,1016,1016,1016,1016,1016,1016,1016,1016,1016,1016,1013,1013,1013,1010,1010,1010,1010,1010,1010,0,0,0,0,0,0,0,0,0,0,0,0,0,0,0,0,0,0,0,0,0,0,0,0,0,0,0,0,0,0,0,0,0,0,0,0,0
0,0,0,0,1084,1084,1087,1087,1087,1084,1084,1084,1084,1080,1080,1080,1080,1080,1077,1077,1077,1077,1077,1077,1080,1080,1077,1077,1073,1070,1070,1070,1070,1070,1067,1067,1063,1063,1063,1063,1063,1063,1063,1063,1063,1063,1063,1063,1063,1063,1063,1063,1063,1063,1063,1063,1063,1063,1063,1063,1063,1063,1063,1063,1060,1060,1060,1060,1060,1060,1060,1060,1060,1060,1060,1060,1060,1060,1060,1063,1063,1063,1063,1060,1060,1060,1057,1057,1054,1054,1054,1054,1054,1054,1057,1057,1057,1057,1057,1057,1057,1057,1057,1057,1057,1060,1060,1060,1060,1060,1060,1060,1060,1060,1060,1060,1060,1060,1057,1057,1057,1057,1057,1057,1057,1057,1057,1057,1057,1057,1057,1057,1057,1057,1057,1057,1054,1054,1057,1057,1054,1054,1054,1057,0,0,0,0,0,0,0,762,762,762,761,761,761,762,762,762,764,764,766,767,767,769,769,769,773,773,773,773,773,773,773,0,0,0,0,1050,1050,1050,1050,1050,1050,1050,1050,1050,1050,1050,1054,1054,1054,1054,1054,1054,1054,1050,1050,1050,833,833,835,835,835,837,837,837,837,837,837,841,841,841,841,841,841,841,841,841,841,841,841,841,841,841,841,843,843,845,845,845,845,847,847,849,849,851,851,854,854,856,858,858,860,860,862,862,864,867,867,867,869,871,873,873,875,875,875,878,878,878,880,880,882,1041,1041,1041,1041,1041,1041,1041,1041,1041,1041,1041,1041,1041,1038,1038,1038,1038,1038,1038,1038,1038,1038,1038,1038,1038,1038,1038,1038,1034,1034,1038,1038,1038,1038,1038,1038,1038,1038,1038,1038,1038,1038,1041,1041,1041,1044,1044,1044,1044,1044,1044,1044,1044,1044,1044,1044,1044,1044,1044,1044,1044,1041,1041,1041,1041,1041,1041,1038,1038,1038,1041,1041,1041,1041,1041,1041,1041,1041,1044,1041,1041,1041,1041,1041,1041,1041,1041,1041,1041,1041,1041,1041,1041,1038,1038,1034,1034,1034,1031,1031,1031,1034,1038,1038,1038,1038,1034,1034,1034,1034,1034,1034,1038,1038,1038,1038,1038,1038,1038,1038,1038,1038,1038,1038,1038,1038,1038,1038,1038,1034,1034,1038,1038,1038,1038,1038,1038,1038,1038,1034,1034,1031,1031,1031,1031,1031,1031,1031,1031,1031,1031,1031,1028,1028,1028,1031,1031,1031,1031,1031,1031,1034,1034,1031,1031,1031,1028,1028,1028,1028,1028,1028,1028,1031,1028,1028,1028,1028,1028,1028,1025,1025,1025,1025,1025,1025,1025,1025,1025,1022,1022,1022,1022,1022,1022,1022,1022,1025,1025,1025,1025,1025,1025,1019,1019,1019,1019,1019,1019,1019,1025,1025,1025,1025,1025,1025,1025,1025,1025,1025,1022,1022,1022,1022,1019,1019,1016,1016,1016,1016,1016,1016,1016,1013,1013,1013,1013,1013,1013,1013,1013,1013,1013,1016,1016,1013,1013,1013,1013,1013,1013,1013,1013,1013,1013,1013,1013,1013,1013,1013,1013,1013,1013,1013,1013,1013,1013,1013,1013,1013,1013,1010,1007,1007,1007,1004,1004,1004,1004,1004,1004,1004,1004,1004,1001,995,995,992,992,992,989,989,989,987,984,984,984,978,978,981,978,978,978,978,975,975,1031,1028,1028,1028,1028,1028,1028,1025,1016,1013,1013,1013,1016,1016,1016,1013,1013,1013,1013,1010,1010,1013,1010,1010,1010,1010,1007,1007,1007,1010,1010,1010,1013,0,0,0,0,0,0,0,0,0,0,0,0,0,0,0,0,0,0,0,0,0,0,0,0,0,0,0,0,0,0,0,0,0,0,0,0
