0,0,0,0,0,0,0,0,0,0,0,0,0,1748,1748,1748,1739,1739,1739,1739,1739,1739,1739,1739,1739,1739,1731,1731,1731,1739,1739,1739,1739,1739,1739,1739,1739,1731,1731,1731,1731,1731,1731,1731,1731,1731,1731,1731,1731,1731,1731,1731,1731,1731,1731,1731,1731,1731,1731,1731,1731,1731,1731,0,0,0,0,0,0,0,0,0,0,0,0,878,875,875,875,875,875,875,875,875,875,875,875,875,875,869,869,871,871,873,873,873,873,871,871,873,871,871,869,869,869,873,873,871,869,869,869,875,875,878,878,878,878,880,878,878,878,878,878,878,878,878,875,875,875,878,882,882,882,882,885,885,885,885,885,882,882,882,878,878,878,878,878,878,878,880,880,880,880,885,880,880,880,880,880,882,880,880,880,880,885,885,885,885,885,887,885,880,880,880,891,891,889,889,889,889,880,880,878,871,871,894,894,889,887,887,894,894,894,891,887,887,889,889,887,887,887,887,896,894,894,894,894,891,891,894,894,894,894,894,896,896,896,896,901,901,901,908,908,913,913,913,913,896,896,898,898,898,896,894,894,894,894,898,908,908,906,906,906,908,903,901,901,903,906,910,906,903,903,910,910,908,906,906,906,903,903,903,903,903,906,906,906,908,908,908,906,901,898,898,901,908,906,906,908,908,906,906,906,898,898,898,898,903,903,903,903,903,903,903,903,903,906,908,908,910,910,913,913,913,915,918,918,918,915,915,915,918,918,918,918,920,920,923,923,923,923,923,918,918,920,920,923,923,923,923,923,920,920,920,920,920,920,923,923,925,923,923,923,923,920,920,920,920,920,920,923,918,918,918,918,918,918,918,918,918,920,918,918,920,923,923,923,920,920,920,920,923,928,933,933,930,930,928,928,925,925,925,923,923,923,920,920,920,923,925,925,928,933,935,938,938,938,940,940,0,0,0,0,0,1523,1516,1516,1516,1509,1509,1503,1496,1489,1489,1489,1489,1489,1489,1489,1483,1483,1477,1477,1470,1470,1464,1464,1464,1464,1464,1458,1458,1458,1452,1452,1445,1445,1445,1445,1439,1439,1439,1433,1433,1427,1421,1421,1421,1421,1421,1421,1415,1415,1415,1410,1410,1404,1404,1404,1404,1404,1398,1398,1398,1392,1392,1392,1392,1387,1381,1381,1376,1376,1376,1376,1376,1370,1370,1370,1370,1365,1365,1359,1359,1354,1354,1349,1349,1349,1349,1349,1349,1349,1343,1343,1343,1338,1338,1338,1333,1333,1333,1333,1333,1328,1328,1322,1317,1312,1312,1312,1312,1312,1307,1307,1307,1307,1307,1302,1297,1297,1292,1292,1292,1288,1288,1288,1288,1288,1288,1283,1283,1283,1278,1278,1273,1268,1268,1268,1268,1268,1264,1264,1259,1259,1255,1255,1255,1255,1255,1255,1250,1250,1250,1250,1245,1245,1241,1236,1236,1236,1236,1236,1232,1232,1232,1232,1232,1227,1227,1223,1223,1219,1219,1219,1214,1214,1214,1214,1210,1210,1206,1206,1202,1202,1202,1202,1197,1197,1197,1197,1197,1193,1193,1189,1189,1189,1185,1185,1185,1185,1181,1181,1181,1181,1177,1177,1173,1173,1173,0,0,0,0,0,0,0,0,0,0,0,0,0,0,0,0,0,0,0,0,0,0,0,0,0,0,0,0,0,0
0,0,0,0,0,0,0,0,0,0,0,0,0,1748,1748,1748,1748,1739,1739,1739,1748,1739,1739,1748,1748,1748,1748,1739,1739,1748,1739,1739,1739,1739,1739,1739,1739,1731,1731,1739,1739,1739,1731,1731,1731,1739,1731,1731,1731,1731,1731,1731,1731,1731,1731,1731,1731,1731,1731,1731,1731,1731,1731,0,0,0,0,0,0,0,0,0,0,0,0,878,875,875,875,875,875,875,873,873,873,873,873,873,873,864,864,864,860,860,864,867,869,869,869,869,869,864,864,864,864,864,867,867,867,867,869,869,869,869,869,875,875,875,875,875,875,873,873,873,873,875,875,873,873,873,873,873,871,871,875,882,882,882,880,878,878,878,875,875,875,873,873,869,869,875,875,878,878,878,878,878,878,875,875,878,878,878,878,880,882,880,880,880,880,885,880,878,878,878,878,878,882,882,885,878,878,878,875,871,871,873,873,878,880,880,887,887,887,887,885,885,885,885,885,885,885,885,887,887,887,889,887,885,885,885,887,885,885,887,887,891,891,896,894,894,889,887,887,889,913,913,913,896,896,896,896,896,889,889,889,889,889,889,898,898,896,896,903,903,898,896,896,896,896,896,898,896,896,896,896,901,894,894,901,901,901,901,901,901,901,903,903,903,903,903,901,898,898,898,898,903,903,903,906,906,906,903,896,896,896,896,898,898,901,901,903,903,903,901,901,901,901,906,906,906,903,903,906,896,894,894,910,913,913,913,913,915,915,915,918,920,920,918,918,918,918,913,913,913,913,913,915,920,920,920,918,918,918,918,918,915,915,918,918,920,920,920,918,918,918,918,918,918,915,915,913,910,908,908,915,915,915,915,915,915,915,915,915,915,915,915,915,915,915,913,913,913,915,915,930,928,928,928,928,925,925,923,923,920,920,920,920,920,923,925,928,930,933,935,938,938,940,940,940,0,0,0,0,0,1523,1523,1516,1516,1509,1509,1503,1496,1489,1489,1489,1489,1489,1489,1489,1483,1483,1477,1477,1470,1470,1470,1464,1464,1464,1464,1458,1458,1458,1452,1452,1445,1445,1445,1445,1439,1439,1439,1433,1433,1427,1427,1427,1421,1421,1421,1421,1421,1415,1415,1415,1410,1404,1404,1404,1404,1404,1398,1398,1398,1398,1392,1392,1392,1387,1381,1381,1381,1376,1376,1376,1376,1370,1370,1370,1370,1370,1365,1365,1359,1354,1354,1354,1349,1349,1349,1349,1349,1349,1349,1343,1343,1343,1338,1338,1333,1333,1333,1333,1333,1328,1328,1322,1322,1312,1312,1312,1312,1312,1307,1307,1307,1307,1307,1302,1297,1297,1292,1292,1292,1288,1288,1288,1288,1288,1288,1283,1283,1283,1278,1278,1273,1268,1268,1268,1268,1268,1268,1264,1259,1259,1259,1255,1255,1255,1255,1255,1250,1250,1250,1250,1245,1245,1241,1236,1236,1236,1236,1236,1236,1232,1232,1232,1232,1227,1227,1227,1223,1219,1219,1219,1219,1214,1214,1214,1214,1210,1210,1206,1202,1202,1202,1202,1202,1197,1197,1197,1197,1197,1193,1193,1189,1189,1189,1185,1185,1185,1185,1181,1181,1181,1177,1177,1173,1173,1173,0,0,0,0,0,0,0,0,0,0,0,0,0,0,0,0,0,0,0,0,0,0,0,0,0,0,0,0,0,0
0,0,0,0,0,0,0,0,0,0,0,0,0,1748,1748,1739,1739,1739,1739,1739,1748,1748,1748,1748,1748,1748,1748,1748,1748,1748,1748,1748,1739,1739,1739,1739,1739,1739,1739,1739,1739,1739,1731,1731,1731,1739,1731,1731,1731,1731,1731,1731,1731,1731,1731,1731,1731,1731,1731,1731,1731,1713,1705,1705,0,0,0,0,0,0,0,0,0,0,0,878,878,875,875,875,873,873,871,871,873,871,869,862,860,860,860,860,860,858,858,858,858,864,862,862,864,862,860,860,860,862,862,864,864,867,867,867,864,864,862,862,862,862,867,869,873,871,871,871,871,871,871,869,869,869,869,867,867,867,862,862,862,862,878,873,871,869,869,869,871,871,869,867,867,869,873,869,869,869,875,875,875,871,871,873,875,875,875,878,878,875,875,875,875,878,875,875,875,873,871,869,869,869,869,869,869,871,875,873,873,871,871,873,878,878,878,878,885,885,885,885,880,880,882,882,882,885,885,885,885,885,885,882,882,882,885,885,885,882,882,887,887,887,885,885,885,885,885,885,887,887,887,889,889,891,889,887,887,887,887,887,887,887,889,889,891,891,891,891,891,891,891,891,891,894,891,891,891,891,889,889,889,889,896,898,896,896,898,896,896,901,901,903,901,901,898,896,896,896,896,898,901,901,903,903,903,896,896,896,896,896,896,896,896,898,901,901,901,898,898,896,896,898,898,901,896,894,894,891,891,894,896,896,906,906,906,915,913,913,915,915,915,915,913,913,913,910,910,910,910,910,910,915,918,918,915,915,915,915,913,913,913,913,910,910,910,915,918,918,915,915,918,915,910,908,908,908,906,906,908,908,908,910,910,913,913,910,908,908,910,910,910,910,910,910,910,910,910,910,910,913,923,925,925,925,923,923,920,920,920,918,918,920,923,925,928,930,933,938,938,940,940,943,943,0,0,0,0,0,1523,1523,1516,1516,1509,1509,1503,1496,1496,1489,1489,1489,1489,1489,1489,1483,1483,1477,1477,1470,1470,1470,1470,1464,1464,1464,1458,1458,1458,1452,1452,1452,1445,1445,1445,1445,1439,1439,1439,1433,1433,1427,1427,1427,1421,1421,1421,1421,1415,1415,1415,1410,1410,1410,1410,1410,1404,1404,1398,1398,1398,1392,1392,1392,1392,1387,1381,1381,1381,1376,1376,1376,1376,1370,1370,1370,1370,1365,1365,1359,1354,1354,1354,1354,1349,1349,1349,1349,1349,1349,1349,1343,1343,1338,1338,1333,1333,1333,1333,1333,1328,1328,1328,1322,1317,1317,1312,1312,1312,1312,1307,1307,1307,1307,1302,1302,1297,1297,1292,1292,1292,1288,1288,1288,1288,1288,1288,1283,1283,1283,1273,1273,1268,1268,1268,1268,1268,1268,1264,1264,1264,1259,1259,1255,1255,1255,1255,1250,1250,1250,1250,1245,1245,1241,1236,1236,1236,1236,1236,1236,1232,1232,1232,1232,1227,1227,1227,1223,1219,1219,1219,1219,1219,1214,1214,1214,1214,1210,1206,1206,1202,1202,1202,1202,1197,1197,1197,1197,1197,1193,1193,1189,1189,1189,1185,1185,1185,1185,1181,1181,1181,1181,1177,1177,1173,1173,0,0,0,0,0,0,0,0,0,0,0,0,0,0,0,0,0,0,0,0,0,0,0,0,0,0,0,0,0,0
0,0,0,0,0,0,0,0,0,0,0,0,0,1748,1748,1739,1739,1739,1739,1739,1748,1748,1748,1748,1748,1748,1739,1739,1748,1748,1739,1739,1739,1739,1739,1739,1739,1739,1739,1748,1748,1739,1739,1739,1739,1739,1731,1731,1731,1731,1731,1731,1731,1731,1731,1731,1731,1731,1731,1731,1731,1713,1705,1705,0,0,0,0,0,0,0,0,0,0,0,878,875,875,875,873,873,871,871,871,869,867,860,860,858,858,858,858,858,854,851,851,851,854,851,851,858,858,858,858,860,860,860,862,862,862,864,862,858,858,858,858,858,858,858,860,862,864,867,867,864,864,867,862,862,864,864,864,864,864,858,858,860,860,860,860,860,862,862,864,867,867,867,867,867,867,869,869,869,869,869,869,869,869,869,871,871,871,873,871,871,871,869,869,869,871,871,871,873,871,869,869,869,867,867,867,867,867,869,869,869,871,871,871,871,875,875,878,878,880,880,882,880,880,882,880,880,880,880,880,878,878,880,880,880,880,882,882,882,882,882,885,882,882,882,882,882,882,882,882,885,885,885,885,887,889,887,887,885,885,885,885,885,885,887,887,887,887,887,885,885,882,882,885,885,887,889,889,889,889,887,887,887,887,887,887,887,887,891,894,894,898,898,896,896,898,896,894,894,894,894,894,896,896,896,896,896,894,894,894,894,894,894,894,894,894,896,896,894,894,898,896,896,896,896,896,891,891,894,891,891,894,894,894,894,896,896,898,896,894,894,913,901,901,913,913,908,906,903,903,906,906,906,901,901,918,915,913,910,910,908,908,908,908,903,898,898,915,913,913,913,913,915,913,908,908,908,906,903,903,906,903,903,903,906,906,906,906,906,906,906,906,906,908,908,908,908,908,908,908,906,906,910,925,898,898,913,915,915,915,918,918,918,918,923,925,928,933,935,938,940,940,943,943,946,946,0,0,0,0,1523,1523,1516,1516,1509,1509,1503,1496,1496,1496,1489,1489,1489,1489,1489,1489,1483,1477,1477,1470,1470,1470,1470,1470,1464,1464,1464,1458,1458,1452,1452,1452,1445,1445,1445,1445,1439,1439,1439,1433,1433,1433,1433,1427,1427,1421,1421,1421,1421,1415,1415,1415,1415,1410,1410,1410,1404,1404,1398,1398,1398,1398,1392,1392,1392,1387,1387,1381,1381,1376,1376,1376,1376,1370,1370,1370,1370,1370,1365,1365,1359,1354,1354,1354,1354,1349,1349,1349,1349,1349,1349,1343,1343,1338,1338,1333,1333,1333,1333,1333,1333,1328,1328,1322,1322,1317,1317,1312,1312,1312,1312,1312,1307,1307,1307,1302,1297,1297,1297,1292,1292,1292,1288,1288,1288,1288,1288,1283,1283,1283,1273,1273,1268,1268,1268,1268,1268,1268,1268,1264,1264,1264,1259,1259,1255,1255,1255,1250,1250,1250,1250,1245,1245,1245,1241,1241,1236,1236,1236,1236,1232,1232,1232,1232,1232,1227,1227,1223,1219,1219,1219,1219,1219,1214,1214,1214,1214,1210,1206,1206,1202,1202,1202,1202,1197,1197,1197,1197,1197,1197,1193,1193,1189,1189,1185,1185,1185,1185,1181,1181,1181,1181,1177,1177,1177,1177,0,0,0,0,0,0,0,0,0,0,0,0,0,0,0,0,0,0,0,0,0,0,0,0,0,0,0,0,0,0
0,0,0,0,0,0,0,0,0,0,0,0,0,1748,1748,1748,1748,1748,1757,1748,1748,1748,1748,1748,1748,1739,1739,1739,1739,1739,1739,1739,1739,1739,1739,1739,1739,1739,1739,1748,1748,1748,1739,1739,1739,1739,1739,1731,1731,1731,1731,1731,1731,1731,1731,1731,1731,1731,1731,1731,1731,1731,1705,1705,1722,0,0,0,0,0,0,0,0,0,0,878,875,875,875,873,873,871,871,869,864,860,860,858,858,858,858,856,854,851,851,851,851,849,849,843,843,845,845,854,854,856,856,858,858,856,854,851,851,849,849,849,854,851,851,854,854,854,856,854,854,856,860,860,860,860,860,862,862,862,858,858,860,860,860,860,860,860,860,860,860,860,860,862,862,862,867,864,864,867,867,867,867,867,867,869,869,869,869,869,869,864,862,862,860,860,862,869,869,871,869,867,867,867,867,864,864,864,867,867,867,864,864,867,867,869,871,873,873,875,878,880,873,873,878,878,878,878,875,875,875,875,875,878,878,878,880,880,880,878,878,880,880,878,878,878,878,878,878,878,875,875,880,880,885,885,882,882,882,882,880,880,882,882,882,880,880,882,882,878,878,880,880,880,880,885,885,885,887,889,887,887,887,885,885,885,882,882,882,885,885,898,887,885,885,885,885,891,891,889,889,889,891,885,882,882,885,887,887,887,885,885,885,887,887,887,887,887,891,891,894,887,880,880,889,889,889,891,891,891,891,891,891,891,891,891,891,891,891,891,889,889,894,894,896,898,898,901,901,901,901,898,898,898,898,896,896,898,903,903,903,903,903,906,901,896,896,908,908,906,906,910,913,910,906,901,901,901,898,898,898,898,896,896,898,898,903,901,901,903,903,903,903,903,903,906,906,906,906,903,898,896,896,894,894,896,898,906,906,906,908,915,915,915,920,925,928,933,935,940,940,943,943,946,946,946,0,0,0,0,0,1523,1516,1516,1509,1509,1503,1496,1496,1496,1489,1489,1489,1489,1489,1489,1483,1483,1477,1470,1470,1470,1470,1470,1464,1464,1464,1458,1458,1452,1452,1452,1445,1445,1445,1445,1439,1439,1439,1439,1439,1433,1433,1433,1427,1427,1427,1421,1421,1421,1415,1415,1415,1415,1410,1410,1404,1404,1404,1398,1398,1398,1398,1392,1392,1392,1392,1381,1381,1381,1376,1376,1376,1376,1370,1370,1370,1370,1365,1365,1359,1359,1354,1354,1354,1354,1354,1349,1349,1349,1349,1343,1343,1338,1338,1333,1333,1333,1333,1333,1333,1328,1328,1328,1322,1322,1317,1317,1312,1312,1312,1312,1312,1307,1307,1302,1302,1297,1297,1297,1292,1292,1292,1292,1288,1288,1288,1288,1283,1283,1273,1273,1268,1268,1268,1268,1268,1268,1268,1264,1264,1264,1259,1259,1255,1255,1255,1250,1250,1250,1250,1245,1245,1245,1241,1241,1241,1236,1236,1236,1236,1236,1232,1232,1232,1227,1227,1227,1223,1223,1223,1219,1219,1214,1214,1214,1214,1210,1206,1206,1202,1202,1202,1202,1202,1202,1197,1197,1197,1197,1193,1193,1193,1189,1189,1185,1185,1181,1181,1181,1181,1181,1177,1177,1177,1177,0,0,0,0,0,0,0,0,0,0,0,0,0,0,0,0,0,0,0,0,0,0,0,0,0,0,0,0,0,0
0,0,0,0,0,0,0,0,0,0,0,0,0,1748,1748,1757,1757,1757,1757,1757,1748,1748,1748,1748,1748,1739,1739,1739,1739,1739,1739,1739,1739,1739,1739,1739,1739,1739,1739,1748,1748,1748,1739,1739,1739,1739,1739,1739,1739,1739,1731,1731,1731,1731,1731,1731,1731,1731,1739,1731,1731,1731,1722,1722,1722,1722,0,0,0,0,0,0,0,0,0,878,875,875,875,875,873,871,869,869,864,860,858,858,858,858,856,854,851,851,849,849,849,847,847,843,843,845,845,849,851,849,849,851,851,851,849,847,847,847,847,847,847,847,847,847,845,845,849,847,847,849,851,856,856,856,858,860,860,860,858,858,858,858,858,858,858,858,858,858,858,856,856,858,858,858,862,860,860,862,862,862,862,862,864,864,864,867,867,867,864,862,860,858,856,854,854,860,867,867,867,864,864,864,864,862,862,862,864,867,864,862,862,862,864,862,862,867,867,873,873,873,871,871,875,875,873,873,873,873,871,871,873,875,875,875,878,878,878,878,878,869,869,869,869,869,869,871,871,871,869,862,862,860,860,860,869,882,878,878,875,875,875,871,871,869,869,869,869,871,873,875,878,878,878,882,882,882,882,885,882,880,880,882,882,882,880,880,880,878,878,878,882,885,880,880,885,887,887,885,880,880,880,880,880,880,880,880,880,882,882,880,880,882,880,880,880,882,885,885,885,882,880,880,882,880,880,885,887,887,887,887,887,887,887,887,887,887,889,889,889,889,894,894,896,896,896,896,896,898,898,894,894,889,889,891,891,891,896,898,898,898,898,901,896,894,891,891,894,894,894,910,913,906,903,896,894,894,891,891,894,889,889,889,894,894,898,898,898,901,901,901,901,898,898,901,901,901,896,896,891,891,894,894,894,896,898,901,903,903,906,908,910,910,913,918,930,933,935,940,940,943,943,946,946,946,0,0,0,0,1523,1523,1516,1516,1509,1509,1503,1496,1496,1496,1489,1489,1489,1489,1489,1489,1489,1483,1483,1477,1470,1470,1470,1470,1470,1464,1464,1464,1458,1458,1452,1452,1445,1445,1445,1445,1439,1439,1439,1439,1439,1439,1439,1433,1433,1433,1427,1427,1421,1421,1415,1415,1415,1415,1415,1410,1410,1404,1404,1404,1398,1398,1398,1392,1392,1392,1392,1387,1381,1381,1376,1376,1376,1376,1370,1370,1370,1370,1365,1365,1365,1359,1354,1354,1354,1354,1354,1354,1349,1349,1349,1349,1343,1343,1338,1338,1333,1333,1333,1333,1333,1328,1328,1328,1322,1322,1322,1317,1317,1317,1312,1312,1312,1307,1307,1307,1302,1302,1302,1297,1297,1292,1292,1292,1292,1292,1288,1288,1288,1278,1273,1273,1273,1273,1268,1268,1268,1268,1268,1268,1264,1264,1264,1259,1259,1255,1255,1250,1250,1250,1250,1250,1245,1245,1241,1241,1241,1236,1236,1236,1236,1236,1232,1232,1232,1227,1227,1227,1223,1223,1223,1219,1219,1214,1214,1214,1214,1210,1206,1206,1202,1202,1202,1202,1202,1202,1197,1197,1197,1197,1197,1193,1193,1189,1189,1185,1185,1181,1181,1181,1181,1181,1177,1177,1177,1177,0,0,0,0,0,0,0,0,0,0,0,0,0,0,0,0,0,0,0,0,0,0,0,0,0,0,0,0,0,0
0,0,0,0,0,0,0,0,0,0,0,0,0,1757,1757,1757,1757,1757,1757,1757,1748,1748,1748,1748,1748,1748,1748,1748,1748,1748,1739,1739,1739,1739,1739,1739,1739,1739,1739,1748,1748,1748,1739,1739,1739,1739,1739,1739,1739,1739,1739,1739,1731,1731,1731,1731,1731,1731,1739,1739,1739,1731,1731,1731,1722,1722,1739,1739,0,0,0,0,0,0,0,0,875,875,875,875,873,871,869,867,862,860,858,858,858,858,856,854,851,849,849,847,843,843,843,843,843,843,845,845,845,845,845,845,847,849,843,843,847,845,845,843,843,843,843,845,843,843,843,845,843,843,845,845,845,843,843,851,858,858,856,856,858,858,858,856,856,856,856,854,854,854,854,856,856,856,856,858,858,856,856,856,854,854,856,858,860,864,864,860,860,860,858,856,854,851,851,849,849,849,849,854,862,860,860,860,860,860,860,860,860,860,858,858,860,858,858,858,862,869,867,864,862,862,869,869,862,860,860,864,864,864,867,867,869,869,869,873,869,869,867,864,864,864,864,867,867,869,869,869,862,862,860,860,860,860,862,862,862,862,869,867,867,867,867,867,867,867,867,867,869,871,873,871,871,871,875,875,882,885,882,878,878,878,878,878,878,878,873,873,873,875,875,875,875,875,878,878,878,878,878,878,878,875,875,875,875,878,878,880,880,878,878,878,878,878,873,873,873,873,880,880,880,880,878,878,878,880,880,885,882,882,885,885,885,885,885,885,885,887,887,887,887,894,896,896,896,896,887,887,887,887,887,887,885,885,887,887,887,889,891,894,896,896,891,891,889,889,889,887,882,880,880,880,880,889,889,889,887,887,889,887,887,887,887,887,889,894,894,894,896,896,896,896,894,894,891,891,891,889,889,889,891,891,891,894,896,898,903,903,906,908,908,910,913,918,933,935,938,940,943,943,946,946,946,0,0,0,0,0,1523,1523,1516,1516,1509,1503,1503,1496,1496,1496,1496,1489,1489,1489,1489,1489,1489,1483,1483,1477,1470,1470,1470,1470,1470,1464,1464,1464,1464,1458,1452,1452,1445,1445,1445,1445,1439,1439,1439,1439,1439,1439,1439,1433,1433,1433,1427,1427,1427,1421,1421,1415,1415,1415,1415,1410,1410,1410,1410,1404,1398,1398,1398,1398,1392,1392,1392,1387,1381,1381,1381,1376,1376,1376,1370,1370,1370,1370,1370,1370,1365,1365,1365,1359,1354,1354,1354,1354,1354,1349,1349,1349,1343,1343,1338,1338,1338,1333,1333,1333,1333,1328,1328,1328,1328,1322,1322,1322,1317,1317,1312,1312,1312,1307,1307,1307,1307,1302,1302,1302,1297,1297,1292,1292,1292,1292,1288,1288,1288,1278,1273,1273,1273,1273,1273,1273,1268,1268,1268,1268,1268,1264,1264,1259,1259,1255,1255,1250,1250,1250,1250,1250,1245,1245,1241,1241,1241,1236,1236,1236,1236,1232,1232,1232,1232,1227,1227,1227,1223,1223,1223,1219,1219,1219,1214,1214,1214,1214,1210,1206,1206,1206,1202,1202,1202,1202,1197,1197,1197,1197,1197,1193,1193,1189,1189,1185,1185,1181,1181,1181,1181,1181,1177,1177,1177,1177,0,0,0,0,0,0,0,0,0,0,0,0,0,0,0,0,0,0,0,0,0,0,0,0,0,0,0,0,0,0
0,0,0,0,0,0,0,0,0,0,0,0,0,1757,1757,1757,1757,1757,1757,1757,1757,1748,1748,1757,1757,1748,1748,1748,1748,1748,1739,1739,1739,1739,1739,1748,1748,1748,1748,1748,1748,1748,1739,1739,1748,1739,1739,1739,1739,1739,1739,1739,1731,1731,1731,1731,1731,1731,1739,1739,1739,1739,1731,1731,1731,1731,1731,1731,1731,0,0,0,0,0,0,0,875,875,875,875,873,871,869,867,862,860,858,858,858,856,854,854,849,849,847,843,843,841,841,841,841,841,841,841,841,843,843,843,843,841,841,841,841,843,841,841,841,839,839,843,841,841,841,841,841,839,839,835,835,837,837,837,833,833,833,835,856,856,856,856,854,854,851,849,849,849,849,849,849,847,847,845,845,845,843,843,843,843,847,847,847,843,843,843,856,856,854,851,851,849,847,845,845,845,845,847,854,854,856,856,858,851,851,851,854,854,854,854,856,854,854,854,854,858,864,860,858,858,858,858,858,858,858,858,860,860,860,860,867,867,867,871,864,864,862,860,860,860,860,860,860,860,860,862,862,860,860,858,858,858,860,860,860,860,860,862,862,862,864,864,864,862,862,862,864,862,862,864,862,860,860,858,854,851,851,851,875,875,875,875,875,875,873,873,873,873,873,871,867,867,869,873,873,873,873,873,875,873,873,875,875,875,875,875,875,873,873,873,873,871,871,873,873,873,873,873,878,878,878,875,875,875,875,880,882,882,885,885,885,885,885,885,885,885,871,871,871,869,869,869,869,869,882,882,882,880,880,880,880,880,882,882,882,882,891,894,896,891,889,889,889,887,887,885,880,880,875,875,875,878,878,880,880,882,882,882,882,882,882,882,882,887,887,887,889,894,894,894,889,889,889,885,885,887,887,887,889,889,891,894,896,898,901,901,903,906,908,908,913,915,935,935,938,940,943,943,946,946,946,0,0,0,0,0,1523,1523,1516,1516,1509,1503,1503,1496,1496,1496,1496,1489,1489,1489,1489,1489,1489,1483,1483,1477,1477,1470,1470,1470,1470,1464,1464,1464,1464,1458,1458,1452,1452,1452,1445,1445,1445,1439,1439,1439,1439,1439,1439,1433,1433,1433,1433,1427,1427,1421,1421,1415,1415,1415,1415,1415,1410,1410,1410,1404,1404,1398,1398,1398,1398,1392,1392,1392,1387,1381,1381,1376,1376,1376,1376,1370,1370,1370,1370,1370,1365,1365,1365,1359,1359,1354,1354,1354,1354,1349,1349,1349,1349,1343,1343,1338,1338,1333,1333,1333,1333,1328,1328,1328,1328,1322,1322,1322,1317,1317,1312,1312,1312,1307,1307,1307,1307,1307,1307,1302,1302,1297,1297,1292,1292,1292,1288,1288,1288,1278,1278,1273,1273,1273,1273,1273,1273,1268,1268,1268,1268,1264,1264,1259,1259,1255,1255,1250,1250,1250,1250,1250,1245,1245,1245,1241,1241,1236,1236,1236,1236,1232,1232,1232,1232,1232,1227,1227,1223,1223,1223,1219,1219,1219,1214,1214,1214,1210,1210,1206,1206,1206,1202,1202,1202,1202,1197,1197,1197,1197,1197,1193,1193,1193,1189,1185,1185,1185,1181,1181,1181,1181,1181,1177,1177,1177,0,0,0,0,0,0,0,0,0,0,0,0,0,0,0,0,0,0,0,0,0,0,0,0,0,0,0,0,0,0
0,0,0,0,0,0,0,0,0,0,0,0,0,1757,1757,1757,1757,1757,1757,1757,1757,1748,1748,1757,1757,1748,1748,1748,1748,1748,1739,1739,1739,1739,1748,1748,1748,1748,1748,1748,1748,1748,1739,1739,1748,1748,1748,1748,1748,1748,1739,1739,1739,1739,1739,1739,1739,1739,1739,1739,1739,1739,1739,1739,1731,1731,1731,1731,1731,1731,1731,0,0,0,0,0,878,875,875,875,873,871,869,867,862,860,860,858,858,856,854,851,849,847,845,843,843,841,841,841,839,839,839,839,839,839,839,841,841,841,839,839,839,839,841,839,837,837,837,841,841,841,837,837,837,835,835,835,835,835,835,833,833,831,831,833,831,831,831,833,845,845,847,845,845,843,843,843,843,839,839,839,843,843,841,841,841,841,843,843,837,837,841,841,851,851,851,849,843,843,843,843,843,841,841,841,847,849,849,851,849,847,847,847,847,849,849,849,851,851,851,851,851,851,854,856,854,854,856,854,851,851,851,854,854,854,854,856,858,858,858,858,858,860,860,858,856,856,856,858,860,858,858,858,860,860,858,856,856,856,858,858,856,856,856,858,860,860,860,860,860,860,860,860,860,860,860,862,860,860,858,856,854,851,851,851,875,873,873,873,873,873,869,869,871,869,869,869,867,867,869,869,869,869,871,869,869,869,873,871,871,873,873,873,873,869,869,869,869,871,871,871,871,871,871,871,867,867,867,867,867,867,873,860,860,860,860,862,871,871,873,871,869,869,871,869,869,867,864,864,867,867,867,867,869,869,871,871,873,873,871,871,871,871,880,880,891,891,889,889,887,885,882,882,880,878,873,873,873,875,875,878,880,880,880,880,880,880,880,880,878,878,878,878,880,887,889,887,882,882,882,880,880,882,882,882,887,889,891,894,896,898,901,901,903,906,908,908,913,915,935,938,940,943,943,946,946,946,946,0,0,0,0,1516,1516,1516,1516,1516,1509,1503,1503,1496,1496,1496,1496,1489,1489,1489,1489,1489,1489,1483,1483,1477,1477,1470,1470,1470,1470,1464,1464,1464,1464,1458,1458,1452,1452,1452,1445,1445,1445,1445,1439,1439,1439,1439,1439,1439,1433,1433,1433,1427,1427,1421,1421,1415,1415,1415,1415,1415,1415,1410,1410,1410,1404,1404,1398,1398,1398,1398,1392,1392,1392,1387,1381,1381,1376,1376,1376,1376,1370,1370,1370,1370,1370,1370,1365,1359,1359,1354,1354,1354,1354,1349,1349,1349,1343,1343,1343,1338,1338,1338,1333,1333,1333,1333,1333,1328,1328,1328,1322,1322,1317,1317,1312,1312,1312,1312,1307,1307,1307,1307,1307,1302,1302,1297,1297,1292,1292,1292,1288,1288,1288,1283,1278,1278,1273,1273,1273,1273,1273,1268,1268,1268,1268,1264,1264,1259,1259,1255,1255,1250,1250,1250,1250,1250,1250,1245,1245,1245,1241,1241,1236,1236,1236,1232,1232,1232,1232,1232,1232,1227,1223,1223,1223,1219,1219,1219,1214,1214,1214,1210,1210,1206,1206,1206,1202,1202,1202,1202,1202,1197,1197,1197,1197,1197,1193,1193,1189,1185,1185,1185,1185,1181,1181,1181,1181,1177,1177,1177,0,0,0,0,0,0,0,0,0,0,0,0,0,0,0,0,0,0,0,0,0,0,0,0,0,0,0,0,0,0
0,0,0,0,0,0,0,0,0,0,0,0,0,1757,1757,1757,1757,1757,1757,1757,1757,1757,1757,1757,1757,1757,1748,1748,1748,1748,1739,1739,1748,1748,1748,1748,1748,1748,1748,1748,1748,1748,1739,1739,1748,1748,1748,1748,1748,1748,1748,1748,1748,1748,1739,1739,1739,1739,1739,1739,1739,1739,1739,1739,1739,1739,1731,1731,1731,1722,1722,1722,0,0,0,0,0,875,873,873,873,871,867,864,862,860,860,858,858,856,854,849,847,845,845,843,841,841,841,839,837,837,835,833,833,835,835,833,833,837,835,835,839,839,839,837,835,835,835,839,839,837,835,835,835,835,835,835,833,833,833,831,831,829,829,829,829,829,831,831,833,833,833,839,839,841,835,835,835,835,835,835,835,835,837,837,837,837,837,837,835,835,835,835,835,835,837,839,839,839,839,839,839,841,837,837,841,841,841,841,843,843,843,845,845,845,847,847,847,847,847,847,845,845,843,843,854,854,849,849,849,849,851,849,849,849,849,851,851,849,847,847,849,858,858,856,856,854,854,856,856,856,854,854,858,858,856,854,854,854,856,856,856,854,854,854,858,858,856,856,858,856,856,856,856,856,856,858,856,856,854,854,854,851,851,851,856,858,860,860,858,858,860,860,862,864,864,864,860,860,860,860,860,860,860,860,864,869,871,869,869,869,869,867,867,864,864,867,867,867,867,867,869,867,867,867,867,867,867,867,864,860,860,860,860,860,860,862,864,869,869,869,864,862,862,862,862,862,862,862,864,864,864,864,867,867,867,867,869,869,869,869,869,867,864,864,862,862,889,889,887,885,880,878,878,875,871,871,871,873,873,873,875,875,875,878,878,878,878,875,873,873,873,873,873,887,873,873,880,880,880,878,878,880,880,882,885,887,889,891,894,896,898,901,901,906,908,908,913,918,935,938,940,946,946,946,948,948,0,0,0,0,0,1516,1516,1516,1516,1516,1509,1509,1503,1496,1496,1496,1496,1496,1496,1489,1489,1489,1489,1483,1483,1477,1477,1470,1470,1470,1470,1464,1464,1464,1464,1464,1458,1458,1452,1452,1445,1445,1445,1445,1439,1439,1439,1439,1439,1439,1439,1433,1433,1427,1427,1421,1421,1421,1415,1415,1415,1415,1415,1415,1415,1410,1404,1404,1398,1398,1398,1398,1392,1392,1392,1387,1381,1381,1376,1376,1376,1376,1370,1370,1370,1370,1370,1370,1365,1359,1359,1359,1354,1354,1354,1354,1349,1349,1343,1343,1343,1343,1343,1338,1333,1333,1333,1333,1333,1328,1328,1328,1328,1322,1317,1317,1317,1312,1312,1312,1307,1307,1307,1307,1307,1302,1302,1297,1297,1292,1292,1292,1292,1288,1288,1283,1283,1278,1278,1273,1273,1273,1273,1273,1268,1268,1268,1264,1264,1264,1259,1255,1255,1255,1250,1250,1250,1250,1250,1250,1250,1245,1241,1241,1241,1236,1236,1232,1232,1232,1232,1232,1232,1227,1223,1223,1223,1219,1219,1219,1214,1214,1214,1210,1210,1206,1206,1206,1202,1202,1202,1202,1202,1202,1197,1197,1197,1197,1193,1193,1189,1185,1185,1185,1185,1181,1181,1181,1181,1177,1177,1177,0,0,0,0,0,0,0,0,0,0,0,0,0,0,0,0,0,0,0,0,0,0,0,0,0,0,0,0,0,0
0,0,0,0,0,0,0,0,0,0,0,0,0,1757,1757,1757,1757,1757,1757,1757,1757,1757,1757,1757,1757,1757,1757,1757,1748,1748,1748,1748,1748,1748,1748,1748,1748,1748,1748,1748,1748,1748,1748,1748,1748,1748,1748,1748,1748,1748,1748,1748,1748,1748,1739,1739,1739,1739,1748,1748,1748,1748,1748,1739,1731,1731,1731,1731,1731,1722,1722,1722,1722,0,0,0,0,0,873,873,873,869,867,864,862,860,860,858,858,856,854,849,847,843,843,843,841,841,839,837,837,835,833,833,831,831,831,831,829,829,829,827,827,827,829,829,831,825,825,833,833,833,833,833,833,833,831,831,831,831,831,829,829,827,827,827,827,827,829,829,831,829,829,829,831,833,831,831,833,833,833,833,833,833,835,837,835,835,835,835,833,833,833,835,833,833,835,837,837,837,837,837,837,839,837,837,839,839,839,839,841,841,841,841,843,843,845,845,845,843,843,841,841,839,837,835,835,833,833,835,843,839,839,847,847,847,847,847,845,843,843,845,845,845,847,847,847,851,845,845,849,845,845,843,843,843,851,849,849,851,851,854,851,851,851,854,854,854,851,851,851,854,854,854,854,854,854,854,854,851,851,851,854,854,854,854,854,854,854,851,851,851,851,851,851,851,858,858,858,858,858,856,856,856,856,858,860,860,860,864,867,867,864,862,862,862,862,860,860,864,864,864,864,864,864,862,862,862,862,862,862,860,860,860,860,860,860,860,864,869,869,867,864,862,862,862,862,860,860,860,860,862,862,860,860,862,862,862,862,860,860,862,862,864,864,864,862,860,860,862,862,862,862,864,864,867,867,869,869,871,871,873,873,873,873,875,873,873,875,873,871,871,869,864,864,869,869,869,878,878,878,878,878,878,880,880,882,885,889,891,894,894,896,898,901,903,908,908,915,933,935,940,943,946,946,946,948,948,0,0,0,0,0,1523,1516,1516,1516,1516,1516,1509,1503,1496,1496,1496,1496,1496,1496,1489,1489,1489,1489,1483,1483,1483,1477,1470,1470,1470,1470,1464,1464,1464,1464,1464,1458,1458,1452,1452,1445,1445,1445,1445,1439,1439,1439,1439,1439,1439,1439,1433,1433,1433,1427,1427,1421,1421,1415,1415,1415,1415,1415,1415,1415,1410,1410,1404,1398,1398,1398,1398,1392,1392,1392,1387,1387,1381,1381,1376,1376,1376,1370,1370,1370,1370,1370,1370,1365,1365,1359,1359,1354,1354,1354,1354,1349,1349,1349,1349,1343,1343,1343,1338,1338,1333,1333,1333,1333,1328,1328,1328,1328,1322,1322,1317,1317,1312,1312,1307,1307,1307,1307,1307,1302,1302,1302,1297,1297,1292,1292,1292,1292,1288,1288,1283,1283,1283,1278,1278,1278,1273,1273,1273,1268,1268,1268,1264,1264,1259,1259,1255,1255,1255,1255,1250,1250,1250,1250,1245,1245,1245,1245,1241,1241,1236,1236,1236,1236,1232,1232,1232,1232,1227,1227,1223,1223,1219,1219,1219,1214,1214,1214,1210,1210,1206,1206,1206,1202,1202,1202,1202,1202,1202,1197,1197,1197,1197,1193,1193,1189,1185,1185,1185,1185,1181,1181,1181,1181,1177,1177,1177,0,0,0,0,0,0,0,0,0,0,0,0,0,0,0,0,0,0,0,0,0,0,0,0,0,0,0,0,0,0
0,0,0,0,0,0,0,0,0,0,0,0,0,1757,1757,1757,1757,1757,1757,1757,1757,1757,1757,1757,1757,1757,1757,1757,1748,1748,1748,1748,1748,1757,1757,1748,1748,1757,1757,1748,1748,1748,1748,1748,1748,1739,1739,1748,1748,1748,1748,1748,1739,1739,1739,1739,1748,1748,1748,1748,1748,1748,1739,1739,1731,1731,1731,1731,1731,1722,1722,1722,1722,0,0,0,0,0,0,0,0,869,867,864,864,860,860,860,858,856,854,849,847,843,843,841,841,839,839,835,835,835,833,831,831,831,829,829,827,827,827,825,825,825,817,817,819,819,819,819,819,819,819,825,825,829,829,829,831,831,829,827,827,827,827,825,825,825,827,827,827,827,827,829,829,827,827,827,827,827,827,833,833,833,833,833,833,833,829,829,829,829,831,831,831,831,831,831,833,833,835,835,835,835,835,835,837,835,835,835,839,839,839,841,841,841,841,841,841,841,839,839,837,835,833,833,833,833,833,835,835,835,833,833,835,835,841,841,837,837,837,837,837,837,841,843,843,847,835,835,835,843,843,843,843,843,843,845,847,849,849,851,849,849,849,847,847,847,845,845,847,849,849,851,851,851,851,851,851,849,849,851,851,849,849,845,845,849,847,847,847,847,847,849,849,849,849,851,856,856,851,851,851,854,854,851,851,851,851,856,862,862,862,860,858,858,858,856,856,856,860,860,860,860,858,858,858,858,860,862,860,860,858,858,858,856,856,856,856,856,856,858,858,858,858,858,858,858,858,858,858,858,858,856,856,856,856,856,858,858,858,860,860,862,862,864,862,860,860,862,862,862,862,862,862,864,867,864,864,867,869,871,871,869,869,871,871,871,871,871,869,867,864,862,862,862,864,864,871,873,873,875,875,878,880,880,882,885,887,889,894,894,896,898,901,903,908,910,918,935,938,940,943,946,946,946,948,948,0,0,0,0,0,1523,1523,1516,1516,1516,1516,1509,1509,1496,1496,1496,1496,1496,1496,1496,1489,1489,1489,1489,1483,1483,1477,1470,1470,1470,1470,1470,1470,1464,1464,1464,1464,1458,1452,1452,1445,1445,1445,1445,1445,1439,1439,1439,1439,1439,1439,1433,1433,1433,1427,1427,1421,1421,1421,1415,1415,1415,1415,1415,1415,1410,1410,1404,1398,1398,1398,1398,1398,1392,1392,1392,1387,1381,1381,1376,1376,1376,1370,1370,1370,1370,1370,1370,1365,1365,1359,1359,1354,1354,1354,1354,1349,1349,1349,1349,1349,1343,1343,1338,1338,1333,1333,1333,1333,1328,1328,1328,1328,1322,1322,1317,1317,1312,1312,1307,1307,1307,1307,1302,1302,1302,1297,1297,1297,1292,1292,1292,1288,1288,1288,1288,1283,1283,1283,1278,1278,1273,1273,1273,1273,1268,1268,1268,1264,1259,1259,1255,1255,1255,1255,1250,1250,1250,1250,1245,1245,1245,1245,1241,1241,1236,1236,1236,1236,1232,1232,1232,1232,1227,1227,1223,1223,1219,1219,1219,1219,1214,1214,1210,1210,1206,1206,1206,1202,1202,1202,1202,1202,1202,1197,1197,1197,1197,1193,1193,1189,1189,1189,1185,1185,1185,1181,1181,1181,1181,1181,1181,0,0,0,0,0,0,0,0,0,0,0,0,0,0,0,0,0,0,0,0,0,0,0,0,0,0,0,0,0,0
0,0,0,0,0,0,0,0,0,0,0,0,0,1766,1757,1757,1757,1757,1757,1757,1757,1757,1757,1757,1757,1757,1757,1757,1748,1748,1757,1757,1757,1757,1757,1757,1757,1757,1757,1748,1748,1748,1748,1748,1748,1739,1739,1748,1748,1748,1748,1748,1739,1739,1739,1739,1748,1748,1748,1748,1748,1748,1739,1739,1739,1731,1731,1731,1731,1731,1731,1731,1722,1722,0,0,0,0,0,0,0,0,867,867,864,864,862,860,860,858,856,849,847,843,843,841,841,839,837,835,833,833,833,831,829,829,827,827,825,821,821,825,817,817,815,815,817,817,817,817,817,817,817,819,819,823,825,825,829,827,825,825,825,825,825,821,821,821,823,823,823,825,825,825,827,825,825,825,825,825,825,829,827,827,829,829,829,833,829,827,827,827,829,829,829,829,829,829,829,831,829,829,829,829,829,827,827,827,827,827,827,827,827,827,827,839,829,825,825,827,827,829,829,829,829,831,831,831,831,831,831,833,833,833,831,829,829,835,835,835,835,835,835,833,833,833,833,833,835,835,835,841,839,839,839,839,841,841,843,845,847,847,847,847,847,843,843,845,845,843,843,845,847,847,847,847,847,847,847,845,845,845,843,843,841,841,843,843,839,839,839,843,843,845,845,845,845,845,849,849,847,847,849,849,847,845,845,847,847,843,843,843,854,854,858,858,858,856,851,851,854,856,854,851,851,854,851,851,854,862,856,845,845,858,856,851,851,849,849,851,851,854,854,854,854,854,854,854,851,851,851,851,854,854,854,854,854,854,854,856,856,856,858,860,860,862,862,862,862,862,862,860,860,858,858,858,858,858,858,862,867,867,869,867,867,869,869,869,869,862,860,860,860,860,860,860,862,862,867,871,871,873,875,878,880,880,882,885,887,889,891,894,896,898,898,903,910,918,933,935,938,940,943,946,946,946,946,948,0,0,0,0,1523,1523,1516,1516,1523,1516,1516,1516,1509,1503,1503,1503,1496,1496,1496,1496,1489,1489,1489,1489,1483,1483,1477,1477,1470,1470,1470,1470,1470,1470,1464,1464,1464,1458,1458,1452,1445,1445,1445,1445,1445,1439,1439,1439,1439,1439,1433,1433,1433,1427,1427,1427,1421,1421,1421,1415,1415,1415,1415,1415,1415,1410,1410,1404,1398,1398,1398,1398,1398,1392,1392,1392,1387,1387,1381,1381,1376,1376,1370,1370,1370,1370,1370,1370,1365,1365,1365,1359,1359,1354,1354,1354,1349,1349,1349,1349,1349,1343,1338,1338,1338,1333,1333,1333,1333,1328,1328,1328,1328,1322,1322,1317,1317,1312,1312,1307,1307,1307,1307,1302,1302,1297,1297,1297,1292,1292,1292,1292,1288,1288,1288,1288,1288,1283,1283,1278,1278,1278,1273,1273,1273,1268,1268,1268,1264,1259,1259,1255,1255,1255,1255,1255,1250,1250,1250,1250,1250,1250,1245,1245,1241,1241,1236,1236,1236,1236,1232,1232,1232,1227,1227,1227,1223,1223,1219,1219,1219,1214,1214,1214,1210,1210,1210,1206,1206,1206,1202,1202,1202,1202,1197,1197,1197,1197,1197,1193,1193,1189,1189,1189,1185,1185,1185,1181,1181,1181,1181,1181,0,0,0,0,0,0,0,0,0,0,0,0,0,0,0,0,0,0,0,0,0,0,0,0,0,0,0,0,0,0
0,0,0,0,0,0,0,0,0,0,0,0,0,1766,1766,1757,1757,1757,1757,1757,1757,1757,1757,1757,1757,1757,1757,1757,1748,1748,1757,1757,1757,1757,1757,1757,1757,1757,1757,1757,1748,1748,1748,1748,1748,1748,1748,1748,1748,1748,1748,1748,1748,1748,1748,1748,1748,1748,1748,1748,1757,1748,1739,1739,1739,1731,1731,1731,1731,1731,1731,1722,1722,1713,1713,0,0,0,0,0,0,0,0,0,0,0,867,867,867,862,860,851,847,843,843,841,839,839,835,835,833,833,833,829,829,827,827,823,821,819,819,819,815,815,815,815,815,815,815,817,817,817,817,817,817,819,819,819,821,821,823,823,821,821,819,819,819,819,819,819,819,819,819,819,819,819,819,823,823,821,821,823,823,821,821,823,823,825,825,825,825,825,827,827,827,827,827,827,827,827,827,827,827,829,827,827,827,827,821,821,825,823,821,821,821,821,821,821,821,821,825,827,827,827,827,829,829,829,829,827,827,829,827,827,827,827,827,835,833,833,831,831,831,831,831,831,831,831,831,831,833,833,837,837,839,839,839,839,839,839,839,847,847,847,847,841,841,841,843,843,843,843,847,847,847,847,847,845,845,843,841,841,839,839,837,837,837,837,837,837,837,837,837,839,837,837,843,843,845,845,845,845,845,847,847,845,843,843,837,837,835,835,837,854,854,854,854,851,849,849,849,849,849,849,847,845,845,845,845,843,843,843,845,845,849,845,845,845,845,849,849,849,849,851,849,849,851,849,843,843,845,849,849,849,849,851,851,851,851,851,851,854,856,839,837,835,835,835,833,833,862,858,858,854,854,854,854,854,854,849,847,847,847,849,849,849,849,849,851,854,854,856,858,860,860,860,862,862,864,867,869,871,873,875,878,880,882,885,887,889,891,894,896,898,898,925,925,928,933,935,938,940,943,946,946,946,946,0,0,0,0,0,1516,1516,1516,1516,1523,1516,1516,1516,1509,1503,1503,1503,1503,1496,1496,1496,1496,1489,1489,1489,1489,1483,1477,1477,1477,1470,1470,1470,1470,1470,1464,1464,1464,1458,1458,1452,1452,1445,1445,1445,1445,1439,1439,1439,1439,1439,1433,1433,1427,1427,1427,1421,1421,1421,1421,1415,1415,1415,1415,1415,1415,1410,1410,1404,1398,1398,1398,1398,1398,1392,1392,1392,1387,1387,1387,1381,1376,1376,1376,1370,1370,1370,1370,1370,1370,1365,1365,1359,1359,1354,1354,1354,1354,1349,1349,1349,1349,1343,1338,1338,1338,1333,1333,1333,1333,1328,1328,1328,1328,1322,1322,1322,1317,1312,1312,1307,1307,1307,1307,1307,1302,1297,1297,1297,1292,1292,1292,1292,1288,1288,1288,1288,1288,1288,1283,1283,1283,1278,1273,1273,1273,1268,1268,1268,1264,1264,1259,1259,1255,1255,1255,1255,1250,1250,1250,1250,1250,1250,1245,1245,1241,1241,1236,1236,1236,1236,1236,1232,1232,1227,1227,1227,1223,1223,1219,1219,1219,1214,1214,1214,1210,1210,1210,1210,1206,1206,1206,1202,1202,1202,1197,1197,1197,1197,1197,1197,1193,1193,1193,1189,1189,1185,1185,1185,1181,1181,1181,1181,0,0,0,0,0,0,0,0,0,0,0,0,0,0,0,0,0,0,0,0,0,0,0,0,0,0,0,0,0,0
0,0,0,0,0,0,0,0,0,0,0,0,0,1766,1766,1757,1757,1757,1757,1757,1757,1757,1757,1757,1766,1766,1757,1757,1748,1748,1757,1757,1757,1757,1757,1757,1757,1757,1757,1757,1748,1748,1748,1748,1748,1748,1748,1748,1748,1748,1748,1748,1748,1748,1748,1748,1757,1757,1757,1757,1757,1748,1739,1739,1739,1739,1739,1739,1731,1731,1731,1722,1722,1713,1713,0,0,0,0,0,0,0,0,0,0,0,875,875,873,873,873,862,849,843,843,841,839,839,835,835,833,833,833,829,827,827,825,823,819,819,819,817,813,813,813,813,813,813,813,811,811,811,813,815,815,815,805,805,807,811,811,813,817,815,815,815,815,815,815,815,815,815,817,817,817,815,815,823,823,819,819,815,815,815,815,815,815,815,815,815,817,817,823,825,823,823,823,823,823,821,821,821,823,825,819,819,819,819,819,819,819,819,819,819,819,819,819,819,819,821,823,823,823,823,825,825,825,825,825,821,821,821,821,821,821,821,821,831,829,829,827,825,825,829,827,827,827,829,829,827,827,829,827,827,827,833,835,833,833,831,821,821,843,847,847,837,837,839,839,839,841,841,841,841,835,833,833,837,837,837,837,837,835,835,833,833,833,833,835,833,833,835,835,837,833,833,837,837,837,841,841,841,843,845,845,841,837,837,835,835,833,833,833,833,854,854,851,849,843,837,837,841,841,841,843,841,841,843,841,841,841,841,841,843,845,843,843,843,843,847,847,847,847,847,847,847,847,845,843,843,843,845,845,845,847,849,849,849,849,849,849,849,837,837,837,835,835,835,833,833,833,833,854,854,849,847,847,851,849,849,847,845,845,845,845,845,845,845,847,847,847,849,854,856,858,860,860,862,862,867,869,871,873,875,878,880,882,885,887,889,891,894,896,898,928,928,928,930,933,935,938,940,943,946,946,946,948,948,0,0,0,0,1516,1516,1516,1516,1523,1516,1516,1516,1509,1509,1503,1503,1503,1496,1496,1496,1496,1489,1489,1489,1489,1483,1483,1477,1477,1477,1470,1470,1470,1470,1470,1464,1464,1458,1458,1452,1452,1445,1445,1445,1445,1445,1439,1439,1439,1439,1433,1433,1427,1427,1427,1421,1421,1421,1421,1415,1415,1415,1415,1415,1415,1410,1410,1404,1398,1398,1398,1398,1398,1392,1392,1392,1387,1387,1387,1381,1376,1376,1376,1370,1370,1370,1370,1370,1370,1365,1365,1359,1359,1354,1354,1354,1354,1349,1349,1349,1349,1343,1338,1338,1333,1333,1333,1333,1333,1328,1328,1328,1328,1328,1322,1322,1317,1312,1312,1312,1307,1307,1307,1307,1302,1297,1297,1297,1297,1292,1292,1292,1292,1288,1288,1288,1288,1288,1283,1283,1283,1278,1273,1273,1273,1268,1268,1268,1268,1264,1264,1259,1259,1255,1255,1255,1255,1255,1250,1250,1250,1250,1245,1245,1245,1241,1241,1236,1236,1236,1232,1232,1232,1227,1227,1227,1223,1223,1223,1219,1219,1219,1214,1214,1214,1210,1210,1210,1206,1206,1206,1202,1202,1202,1197,1197,1197,1197,1197,1197,1197,1193,1193,1189,1189,1185,1185,1185,1181,1181,1181,1181,0,0,0,0,0,0,0,0,0,0,0,0,0,0,0,0,0,0,0,0,0,0,0,0,0,0,0,0,0,0
0,0,0,0,0,0,0,0,0,0,0,0,0,1766,1766,1766,1766,1766,1766,1766,1766,1766,1766,1766,1766,1766,1757,1757,1757,1757,1757,1757,1757,1757,1757,1757,1757,1757,1757,1757,1757,1757,1757,1748,1748,1748,1748,1748,1748,1748,1748,1748,1748,1748,1748,1748,1757,1757,1757,1757,1757,1748,1739,1739,1739,1739,1739,1739,1731,1731,1731,1731,1722,1722,1722,0,0,0,0,0,0,0,0,0,0,0,880,880,878,878,875,873,873,875,843,841,841,839,833,833,833,833,833,827,827,827,825,823,819,819,817,815,813,813,813,813,811,809,809,809,809,809,809,809,809,813,803,803,805,807,807,811,809,809,809,809,809,809,807,803,803,805,807,811,811,809,809,809,809,813,811,811,811,811,811,809,809,811,813,813,813,815,815,815,815,817,819,819,817,817,817,817,819,819,819,819,819,819,819,819,819,819,817,815,815,815,817,817,817,817,819,821,821,821,821,823,823,821,821,819,819,819,819,819,819,819,819,819,819,825,823,817,817,819,819,821,823,823,823,827,827,827,825,825,825,823,823,823,825,827,821,821,821,821,821,833,833,839,837,835,835,835,835,841,835,829,829,829,831,831,833,831,831,831,831,831,831,831,831,831,831,831,831,833,829,829,829,831,831,835,835,837,837,841,843,839,837,835,833,833,833,831,829,829,829,829,833,833,837,837,837,837,837,837,837,837,837,839,837,837,837,839,839,841,841,841,841,841,841,845,845,845,845,845,845,845,845,841,841,841,843,843,843,843,843,845,845,845,845,845,841,839,837,837,837,835,835,835,833,833,831,831,835,837,839,841,841,845,843,843,845,845,845,845,845,845,845,845,845,845,845,847,849,854,856,858,860,860,862,867,869,871,873,875,878,880,882,882,887,889,891,930,930,930,930,930,930,933,935,935,938,940,943,946,946,946,948,948,0,0,0,0,1523,1516,1516,1516,1523,1516,1516,1516,1516,1509,1503,1503,1503,1496,1496,1496,1496,1489,1489,1489,1489,1483,1483,1477,1477,1477,1470,1470,1470,1470,1470,1464,1464,1464,1458,1458,1452,1452,1452,1445,1445,1445,1445,1439,1439,1439,1433,1433,1433,1427,1427,1427,1421,1421,1421,1421,1415,1415,1415,1415,1415,1410,1410,1404,1398,1398,1398,1398,1398,1392,1392,1392,1387,1387,1387,1381,1376,1376,1376,1376,1370,1370,1370,1370,1370,1365,1365,1365,1359,1359,1354,1354,1354,1349,1349,1349,1349,1343,1338,1338,1333,1333,1333,1333,1333,1328,1328,1328,1328,1328,1322,1322,1317,1312,1312,1312,1307,1307,1307,1307,1302,1302,1297,1297,1297,1292,1292,1292,1288,1288,1288,1288,1288,1288,1283,1283,1283,1278,1273,1273,1273,1273,1268,1268,1268,1264,1264,1264,1259,1259,1255,1255,1255,1255,1250,1250,1250,1250,1250,1245,1245,1241,1241,1236,1236,1236,1232,1232,1232,1227,1227,1227,1223,1223,1223,1219,1219,1219,1214,1214,1214,1210,1210,1210,1210,1206,1206,1202,1202,1202,1202,1202,1197,1197,1197,1197,1197,1193,1193,1189,1189,1185,1185,1185,1181,1181,1181,1181,0,0,0,0,0,0,0,0,0,0,0,0,0,0,0,0,0,0,0,0,0,0,0,0,0,0,0,0,0,0
0,0,0,0,0,0,0,0,0,0,0,0,0,1757,1757,1766,1766,1766,1766,1766,1766,1766,1766,1766,1766,1766,1757,1757,1757,1757,1757,1757,1757,1757,1757,1757,1757,1766,1757,1757,1757,1757,1757,1748,1748,1748,1748,1748,1748,1748,1748,1748,1757,1748,1748,1748,1757,1757,1757,1757,1757,1748,1739,1739,1739,1748,1748,1739,1739,1739,1739,1731,1731,1731,1731,0,0,0,0,0,0,0,0,0,0,887,880,880,880,878,875,875,875,875,875,875,875,873,833,833,833,833,833,827,827,827,825,823,819,819,817,813,813,813,811,811,809,807,807,805,803,803,802,800,798,798,800,802,802,803,803,807,805,805,807,807,803,803,803,803,803,805,807,807,807,807,807,807,809,809,809,809,809,809,809,807,807,809,811,811,811,811,811,811,813,813,813,811,811,815,813,813,811,811,811,811,813,815,815,815,815,817,813,813,813,813,815,815,815,815,817,819,819,819,819,819,819,819,817,817,817,817,817,817,819,817,809,809,811,811,813,813,813,813,815,817,817,817,817,823,825,825,825,825,823,821,819,819,817,817,813,813,813,819,819,819,833,835,833,833,831,825,821,821,821,821,821,821,827,827,829,829,827,827,827,827,827,827,829,829,829,829,829,829,827,827,827,827,827,827,831,831,831,833,835,835,835,835,831,831,831,827,827,827,827,827,829,829,831,833,835,835,835,833,833,833,833,835,835,835,835,837,837,837,837,837,839,839,839,841,843,843,843,843,843,843,841,841,839,839,841,841,841,841,843,843,843,843,845,843,839,839,837,837,837,835,835,835,833,831,831,831,833,833,835,837,837,839,839,839,841,841,843,841,841,843,843,843,843,845,845,845,847,849,854,856,858,860,860,864,867,871,873,878,880,880,882,882,882,889,894,928,930,930,930,930,933,933,935,935,938,940,940,946,946,948,948,0,0,0,0,0,1523,1523,1523,1523,1523,1516,1516,1516,1516,1509,1509,1503,1503,1503,1496,1496,1496,1489,1489,1489,1489,1489,1489,1483,1483,1483,1483,1477,1470,1470,1470,1470,1464,1464,1464,1458,1452,1452,1452,1445,1445,1445,1445,1445,1439,1439,1433,1433,1433,1433,1427,1427,1421,1421,1421,1421,1415,1415,1415,1415,1415,1410,1410,1404,1398,1398,1398,1398,1398,1392,1392,1392,1392,1387,1387,1381,1376,1376,1376,1376,1376,1370,1370,1370,1370,1365,1365,1365,1359,1359,1354,1354,1354,1354,1349,1349,1349,1343,1338,1338,1333,1333,1333,1333,1328,1328,1328,1328,1328,1328,1322,1317,1317,1312,1312,1312,1312,1307,1307,1307,1302,1302,1297,1297,1297,1292,1292,1292,1288,1288,1288,1288,1288,1288,1283,1283,1283,1278,1278,1273,1273,1273,1268,1268,1268,1264,1264,1264,1259,1259,1255,1255,1255,1255,1250,1250,1250,1250,1250,1245,1245,1241,1241,1236,1236,1236,1232,1232,1232,1227,1227,1227,1223,1223,1223,1219,1219,1219,1219,1214,1214,1214,1214,1210,1210,1210,1206,1206,1206,1202,1202,1202,1197,1197,1197,1197,1197,1197,1193,1189,1189,1185,1185,1185,1185,1181,1181,1181,0,0,0,0,0,0,0,0,0,0,0,0,0,0,0,0,0,0,0,0,0,0,0,0,0,0,0,0,0,0
0,0,0,0,0,0,0,0,0,0,0,0,0,1757,1757,1766,1766,1766,1766,1766,1766,1766,1766,1766,1766,1766,1757,1757,1757,1757,1757,1757,1757,1757,1757,1757,1766,1766,1757,1757,1757,1757,1757,1748,1748,1748,1748,1757,1748,1748,1748,1748,1757,1748,1748,1748,1757,1757,1757,1748,1748,1748,1748,1748,1748,1748,1748,1748,1739,1739,1739,1739,1739,1739,1748,0,0,0,0,0,0,0,0,0,891,887,885,885,880,880,878,875,875,875,875,875,875,873,873,875,833,833,833,827,827,827,825,823,821,819,817,813,813,813,811,809,809,807,805,803,802,802,800,796,796,796,796,798,798,800,800,803,802,802,803,803,802,800,800,802,802,802,803,805,805,805,805,805,805,803,802,802,803,803,805,803,802,802,802,802,802,803,809,809,805,805,805,809,807,807,807,807,807,809,809,809,811,811,811,811,811,813,811,811,811,811,813,813,813,813,815,817,817,817,817,817,817,815,813,813,813,811,811,809,809,807,805,805,807,809,809,811,811,811,813,813,813,813,813,817,817,823,819,819,819,817,817,817,815,815,813,811,811,811,811,811,813,815,819,819,819,819,819,819,819,819,819,819,825,825,825,825,825,825,823,823,821,821,827,827,827,827,827,827,827,825,825,825,823,823,823,827,827,827,835,833,833,831,831,831,829,827,827,825,825,825,827,827,827,831,833,833,833,833,833,833,831,831,829,829,827,827,833,829,829,831,837,839,823,823,843,841,829,829,833,837,837,837,837,837,839,841,841,839,839,843,843,835,835,837,837,837,835,835,835,835,833,833,833,831,831,831,833,833,833,835,835,835,835,835,837,839,839,839,839,841,843,843,843,843,845,845,847,849,854,856,858,860,860,864,864,869,873,875,880,880,882,882,882,923,923,928,930,930,930,933,933,935,935,935,938,940,940,946,946,948,948,0,0,0,0,0,1523,1523,1523,1523,1523,1516,1516,1516,1516,1509,1509,1503,1503,1503,1496,1496,1496,1496,1489,1489,1489,1489,1489,1489,1489,1489,1483,1477,1477,1477,1470,1470,1464,1464,1464,1464,1458,1452,1452,1452,1445,1445,1445,1445,1445,1439,1439,1433,1433,1433,1427,1427,1421,1421,1421,1421,1415,1415,1415,1415,1415,1410,1410,1404,1404,1398,1398,1398,1398,1392,1392,1392,1392,1387,1387,1381,1381,1376,1376,1376,1376,1376,1370,1370,1370,1365,1365,1365,1365,1359,1359,1359,1354,1354,1349,1349,1349,1343,1338,1338,1338,1333,1333,1333,1328,1328,1328,1328,1328,1328,1322,1317,1317,1312,1312,1312,1312,1307,1307,1307,1307,1302,1302,1297,1297,1292,1292,1292,1292,1288,1288,1288,1288,1288,1283,1283,1283,1278,1278,1273,1273,1273,1268,1268,1268,1268,1264,1264,1259,1259,1255,1255,1255,1255,1255,1250,1250,1250,1250,1245,1245,1241,1241,1241,1236,1236,1236,1232,1232,1227,1227,1227,1223,1223,1223,1223,1219,1219,1219,1214,1214,1214,1214,1210,1210,1210,1210,1206,1206,1202,1202,1202,1197,1197,1197,1197,1197,1197,1193,1189,1189,1185,1185,1185,1185,1181,1181,1181,0,0,0,0,0,0,0,0,0,0,0,0,0,0,0,0,0,0,0,0,0,0,0,0,0,0,0,0,0,0
0,0,0,0,0,0,0,0,0,0,0,0,0,1766,1766,1766,1766,1766,1766,1766,1776,1766,1766,1766,1766,1766,1766,1757,1757,1757,1757,1757,1757,1757,1757,1766,1766,1766,1766,1757,1757,1757,1757,1748,1748,1748,1757,1757,1757,1757,1757,1757,1757,1748,1748,1748,1757,1748,1748,1748,1748,1748,1748,1748,1748,1748,1748,1748,1748,1748,1748,1748,1748,1748,0,0,0,0,0,0,0,0,0,0,891,887,887,885,882,880,878,878,878,875,875,875,875,875,875,875,871,869,833,831,827,825,823,823,819,819,817,813,813,813,811,809,807,805,805,802,802,800,796,796,796,794,794,794,794,794,794,796,794,794,796,796,796,796,796,798,798,798,798,802,802,800,798,798,800,800,798,798,798,796,796,796,796,796,798,798,798,800,803,803,802,802,802,802,802,802,802,803,805,805,805,805,805,805,805,809,809,809,809,809,809,809,811,811,813,813,815,815,815,815,815,815,815,813,811,809,809,809,809,807,807,805,805,805,807,809,807,807,809,809,809,809,809,809,805,803,802,802,803,815,817,817,815,815,813,811,809,807,807,809,809,809,809,809,809,807,807,817,819,819,819,819,817,817,823,821,821,821,821,821,819,819,819,817,817,823,821,821,823,823,825,823,821,821,819,819,819,823,823,823,825,833,833,831,831,831,827,825,825,825,825,825,825,825,825,825,831,831,829,827,827,829,827,825,823,823,817,817,813,811,811,819,819,827,821,821,821,821,821,823,825,827,829,831,831,829,829,831,827,827,823,823,829,827,827,829,829,829,833,833,833,833,833,833,831,831,829,829,831,831,831,833,833,833,831,831,833,835,835,837,837,839,841,841,843,843,845,845,847,849,851,854,858,860,862,864,864,869,871,873,878,880,882,882,923,923,923,925,928,928,930,933,933,935,935,935,938,940,940,946,948,948,951,0,0,0,0,0,1523,1523,1523,1523,1523,1516,1516,1516,1516,1509,1509,1503,1503,1503,1503,1496,1496,1496,1496,1489,1489,1489,1489,1489,1489,1489,1483,1477,1477,1477,1470,1470,1470,1464,1464,1464,1464,1452,1452,1452,1445,1445,1445,1445,1445,1439,1439,1433,1433,1433,1427,1427,1421,1421,1421,1421,1415,1415,1415,1415,1415,1415,1410,1404,1404,1404,1398,1398,1398,1398,1392,1392,1392,1387,1387,1387,1381,1376,1376,1376,1376,1376,1370,1370,1370,1370,1370,1365,1365,1365,1359,1359,1354,1354,1354,1354,1349,1343,1343,1338,1338,1338,1333,1333,1333,1328,1328,1328,1328,1328,1322,1317,1317,1312,1312,1312,1312,1312,1307,1307,1307,1307,1302,1302,1297,1297,1292,1292,1292,1292,1288,1288,1288,1288,1288,1283,1283,1283,1278,1278,1273,1273,1273,1268,1268,1268,1268,1264,1264,1259,1259,1255,1255,1255,1255,1250,1250,1250,1250,1250,1245,1241,1241,1241,1236,1236,1236,1232,1232,1232,1232,1227,1223,1223,1223,1223,1219,1219,1219,1219,1219,1214,1214,1214,1210,1210,1210,1206,1206,1202,1202,1202,1202,1202,1197,1197,1197,1197,1197,1189,1189,1185,1185,1185,1185,1181,1181,1181,0,0,0,0,0,0,0,0,0,0,0,0,0,0,0,0,0,0,0,0,0,0,0,0,0,0,0,0,0,0
0,0,0,0,0,0,0,0,0,0,0,0,0,1766,1766,1766,1766,1766,1766,1766,1776,1766,1766,1766,1766,1766,1766,1757,1757,1757,1757,1757,1757,1757,1757,1766,1766,1766,1766,1766,1757,1757,1757,1757,1757,1757,1757,1757,1757,1757,1757,1757,1757,1757,1757,1757,1757,1748,1748,1748,1748,1748,1748,1748,1748,1748,1748,1748,1748,1748,1748,1748,1748,1748,0,0,0,0,0,0,0,0,0,0,0,889,887,887,882,882,880,878,878,878,875,875,875,875,875,875,871,869,869,869,827,825,823,823,819,819,815,811,811,809,809,807,805,803,803,802,800,800,796,794,794,792,792,792,792,790,790,790,781,781,790,790,790,790,792,794,794,794,796,796,796,794,794,792,792,794,792,792,790,790,792,792,790,790,792,794,796,796,800,796,796,796,796,796,796,798,798,798,802,802,802,802,789,789,789,796,798,798,805,805,805,805,805,805,807,807,805,805,805,811,809,809,809,809,809,807,807,807,807,805,803,803,803,803,805,805,805,805,807,807,805,803,803,803,802,802,802,802,802,803,805,805,805,809,809,807,805,805,805,805,805,805,805,805,805,805,805,805,805,805,805,817,815,815,815,817,817,819,817,817,817,815,815,813,813,813,813,815,811,811,817,817,817,815,811,811,815,817,817,823,825,825,825,803,827,827,827,819,819,823,823,821,821,823,821,821,823,823,825,825,823,823,823,821,811,811,811,811,811,811,811,813,815,817,819,821,821,821,821,821,821,823,825,827,827,823,823,823,823,823,821,821,821,821,821,823,823,823,829,833,827,827,829,829,829,829,827,827,827,829,831,829,829,831,829,829,831,833,833,835,835,837,839,841,843,843,843,845,847,849,851,854,860,860,862,864,864,869,871,873,878,880,913,918,923,923,923,925,928,928,930,933,933,935,935,935,938,940,940,946,948,951,954,0,0,0,0,0,1523,1523,1523,1523,1523,1516,1516,1516,1516,1509,1509,1503,1503,1503,1503,1496,1496,1496,1496,1496,1489,1489,1489,1489,1489,1489,1483,1477,1477,1477,1470,1470,1470,1464,1464,1464,1464,1458,1458,1452,1452,1445,1445,1445,1445,1439,1439,1433,1433,1433,1427,1427,1421,1421,1421,1421,1415,1415,1415,1415,1415,1410,1410,1410,1404,1404,1398,1398,1398,1398,1392,1392,1392,1392,1387,1387,1381,1376,1376,1376,1376,1376,1370,1370,1370,1370,1370,1365,1365,1365,1359,1359,1359,1354,1354,1354,1349,1349,1343,1343,1338,1338,1338,1338,1333,1333,1328,1328,1328,1328,1322,1317,1317,1317,1312,1312,1312,1312,1312,1307,1307,1307,1307,1302,1297,1297,1297,1292,1292,1292,1292,1288,1288,1288,1288,1283,1283,1283,1278,1278,1273,1273,1273,1268,1268,1268,1268,1268,1264,1264,1259,1259,1255,1255,1255,1255,1250,1250,1250,1250,1245,1241,1241,1241,1236,1236,1236,1232,1232,1232,1232,1227,1227,1223,1223,1223,1219,1219,1219,1219,1219,1214,1214,1214,1214,1214,1210,1206,1206,1202,1202,1202,1202,1202,1202,1197,1197,1197,1197,1189,1189,1185,1185,1185,1185,1181,1181,1181,0,0,0,0,0,0,0,0,0,0,0,0,0,0,0,0,0,0,0,0,0,0,0,0,0,0,0,0,0,0
0,0,0,0,0,0,0,0,0,0,0,0,0,1766,1766,1766,1766,1766,1776,1776,1776,1776,1776,1766,1766,1766,1766,1766,1766,1757,1757,1757,1757,1757,1757,1766,1766,1766,1766,1766,1757,1757,1757,1757,1757,1757,1757,1757,1757,1757,1757,1757,1757,1757,1757,1757,1757,1748,1748,1748,1748,1748,1748,1748,1748,1748,1748,1748,1748,1748,1748,1748,1757,1757,1757,0,0,0,0,0,0,0,0,0,0,891,889,887,885,882,880,878,878,878,878,875,875,875,873,873,871,869,869,867,867,864,862,823,819,819,815,811,811,809,809,807,805,803,803,802,800,800,796,794,794,792,790,790,789,789,787,783,781,781,783,783,785,787,787,789,789,789,789,787,787,789,789,787,787,789,790,790,789,787,787,789,789,789,789,790,792,789,781,781,789,790,792,792,794,796,796,796,796,796,792,789,789,789,789,789,789,787,783,783,803,803,803,803,803,802,802,798,798,800,803,802,802,800,800,802,803,802,796,796,800,800,802,803,802,802,803,803,803,802,800,800,802,802,800,800,802,802,802,803,802,802,802,803,803,803,802,802,802,803,803,803,803,805,805,803,803,803,803,803,803,803,803,803,811,811,811,813,807,807,815,813,811,809,809,807,807,809,807,805,805,815,813,813,809,807,803,803,805,803,803,803,0,0,803,811,811,805,805,823,803,803,803,803,802,802,803,802,802,821,819,819,817,813,811,811,811,811,811,811,811,811,813,813,813,815,815,815,815,821,821,821,821,821,823,821,821,821,821,821,821,821,821,821,821,821,821,821,819,819,823,823,821,821,829,827,825,823,823,827,827,827,827,827,827,827,829,829,831,833,835,837,839,839,841,843,843,845,847,849,851,854,860,862,862,864,867,878,878,878,880,910,913,918,920,920,920,925,928,928,930,933,933,935,935,938,938,940,940,948,954,954,956,0,0,0,0,0,1523,1523,1523,1523,1523,1516,1516,1516,1516,1516,1509,1503,1503,1503,1503,1496,1496,1496,1496,1496,1489,1489,1489,1489,1489,1489,1483,1477,1477,1477,1470,1470,1470,1464,1464,1464,1464,1458,1458,1452,1452,1452,1445,1445,1445,1439,1439,1439,1433,1433,1433,1427,1421,1421,1421,1421,1415,1415,1415,1415,1415,1410,1410,1410,1410,1404,1404,1398,1398,1398,1398,1392,1392,1392,1392,1387,1381,1381,1376,1376,1376,1376,1370,1370,1370,1370,1365,1365,1365,1365,1365,1359,1359,1354,1354,1354,1349,1349,1343,1343,1338,1338,1338,1338,1333,1333,1328,1328,1328,1328,1322,1317,1317,1317,1312,1312,1312,1312,1312,1307,1307,1307,1307,1302,1302,1297,1297,1292,1292,1292,1292,1292,1288,1288,1288,1288,1283,1283,1278,1278,1273,1273,1273,1268,1268,1268,1268,1268,1264,1264,1259,1259,1255,1255,1255,1255,1250,1250,1250,1250,1250,1245,1241,1241,1236,1236,1236,1232,1232,1232,1232,1232,1227,1227,1227,1227,1223,1223,1219,1219,1219,1214,1214,1214,1214,1214,1210,1210,1206,1206,1202,1202,1202,1202,1202,1197,1197,1197,1193,1189,1189,1189,1185,1185,1185,1185,1181,1181,0,0,0,0,0,0,0,0,0,0,0,0,0,0,0,0,0,0,0,0,0,0,0,0,0,0,0,0,0,0
0,0,0,0,0,0,0,0,0,0,0,0,0,1766,1766,1766,1776,1776,1776,1776,1776,1766,1766,1766,1766,1766,1766,1766,1766,1757,1757,1757,1757,1766,1766,1766,1766,1766,1766,1766,1766,1766,1757,1757,1757,1757,1757,1757,1757,1757,1757,1757,1757,1757,1757,1757,1757,1757,1757,1757,1757,1757,1748,1748,1748,1757,1748,1748,1748,1748,1748,1748,1757,1757,1757,0,0,0,0,0,0,0,0,0,0,0,891,889,885,885,880,880,878,878,878,875,875,875,873,873,871,869,869,867,867,864,862,823,819,817,817,811,811,809,809,807,805,803,803,802,800,796,794,794,792,790,790,789,789,787,783,783,781,781,781,781,781,783,785,785,787,787,785,785,785,785,785,783,783,781,781,781,781,781,783,787,787,785,785,785,787,785,781,781,783,783,783,785,785,787,789,792,792,792,790,787,785,785,785,785,787,787,783,781,781,781,789,789,798,798,796,796,796,796,800,800,802,800,800,802,802,798,796,796,796,798,800,802,802,802,802,802,802,800,798,798,800,800,800,800,798,798,798,798,798,798,798,800,800,800,800,800,800,802,800,800,802,802,802,802,802,802,802,802,800,800,800,802,798,798,798,798,803,802,802,807,807,805,805,802,802,803,803,803,803,807,807,809,807,805,803,803,803,802,802,802,798,798,803,803,803,803,803,803,803,803,803,802,800,800,802,802,800,800,817,807,805,805,807,809,809,809,809,809,809,809,809,809,811,813,811,811,813,815,813,811,811,813,815,815,815,817,819,819,817,817,817,817,817,813,813,813,813,813,813,813,813,813,815,819,815,813,813,819,821,821,823,823,825,825,827,827,829,831,833,835,837,839,841,843,845,845,847,851,854,854,860,862,862,891,896,901,906,906,906,913,918,918,920,920,920,925,928,928,930,933,935,935,935,938,938,940,943,951,954,956,956,0,0,0,0,0,1523,1523,1523,1523,1523,1516,1516,1516,1516,1516,1509,1509,1509,1503,1503,1496,1496,1496,1496,1496,1496,1489,1489,1489,1489,1489,1483,1483,1483,1477,1470,1470,1470,1464,1464,1464,1458,1458,1458,1458,1452,1452,1452,1452,1445,1445,1445,1439,1439,1433,1433,1433,1421,1421,1421,1421,1421,1415,1415,1415,1415,1415,1410,1410,1410,1404,1398,1398,1398,1398,1398,1392,1392,1392,1392,1387,1381,1381,1376,1376,1376,1376,1370,1370,1370,1370,1365,1365,1365,1365,1365,1359,1359,1354,1354,1349,1349,1349,1349,1343,1343,1343,1343,1338,1333,1333,1333,1333,1328,1328,1322,1322,1317,1317,1312,1312,1312,1312,1312,1307,1307,1307,1307,1302,1302,1302,1302,1297,1292,1292,1292,1292,1288,1288,1288,1288,1283,1283,1278,1278,1273,1273,1273,1268,1268,1268,1268,1268,1268,1264,1259,1259,1259,1255,1255,1255,1250,1250,1250,1250,1250,1245,1241,1241,1241,1236,1236,1236,1232,1232,1232,1232,1227,1227,1227,1227,1223,1223,1223,1223,1223,1214,1214,1214,1214,1214,1210,1210,1206,1206,1202,1202,1202,1202,1202,1197,1197,1197,1193,1189,1189,1189,1185,1185,1185,1185,1181,1181,0,0,0,0,0,0,0,0,0,0,0,0,0,0,0,0,0,0,0,0,0,0,0,0,0,0,0,0,0,0
0,0,0,0,0,0,0,0,0,0,0,0,0,1766,1766,1776,1776,1776,1776,1776,1776,1766,1766,1766,1766,1766,1766,1766,1766,1766,1766,1766,1766,1766,1766,1766,1766,1766,1766,1766,1766,1766,1757,1757,1757,1757,1757,1757,1757,1757,1757,1757,1757,1757,1757,1757,1757,1757,1757,1757,1757,1757,1757,1757,1757,1757,1748,1748,1748,1748,1757,1757,1757,1757,1757,0,0,0,0,0,0,0,0,0,0,0,891,889,887,887,882,880,880,880,878,875,875,875,875,873,871,869,869,867,864,864,862,860,860,817,817,811,811,809,807,807,805,803,803,802,802,796,794,794,792,790,789,789,787,785,783,781,781,780,780,780,781,781,781,781,783,783,781,781,781,781,781,781,781,774,774,776,778,778,780,785,785,783,783,783,783,783,781,781,781,781,781,781,781,783,783,792,790,789,785,783,781,781,783,783,783,783,781,781,780,780,780,778,778,781,781,790,790,789,783,781,781,789,787,787,787,796,794,792,792,794,796,798,798,798,798,800,800,798,796,796,798,798,798,798,794,794,796,794,794,794,796,796,796,796,796,796,796,800,796,796,800,800,800,800,800,800,796,792,792,792,792,798,798,798,798,798,798,796,796,796,796,802,802,802,802,802,802,802,802,803,803,805,807,803,803,803,802,802,798,798,798,798,798,802,802,802,802,803,803,802,802,800,798,798,800,798,798,798,798,798,802,802,802,803,805,807,807,807,805,803,803,803,805,805,805,805,807,807,805,805,807,807,807,807,811,813,813,813,809,809,807,807,807,807,807,807,807,811,811,811,811,811,813,813,813,813,813,815,817,819,817,817,823,825,825,827,829,831,833,835,837,839,839,843,845,845,847,854,856,887,887,889,889,891,894,901,906,906,908,913,915,920,920,923,923,928,928,930,933,933,935,935,935,938,938,940,946,951,956,956,956,0,0,0,0,0,1523,1523,1523,1523,1523,1523,1516,1516,1516,1516,1509,1509,1509,1503,1503,1496,1496,1496,1496,1496,1496,1489,1489,1489,1489,1489,1483,1483,1483,1477,1470,1470,1470,1464,1464,1464,1458,1458,1458,1458,1452,1452,1452,1452,1445,1445,1445,1439,1439,1439,1433,1433,1427,1421,1421,1421,1421,1415,1415,1415,1415,1415,1415,1410,1410,1404,1398,1398,1398,1398,1398,1392,1392,1392,1392,1392,1387,1381,1381,1376,1376,1376,1370,1370,1370,1370,1370,1365,1365,1365,1365,1365,1359,1354,1354,1349,1349,1349,1349,1343,1343,1343,1343,1338,1333,1333,1333,1333,1328,1328,1322,1322,1322,1322,1317,1317,1312,1312,1312,1312,1307,1307,1307,1307,1302,1302,1302,1292,1292,1292,1292,1292,1292,1288,1288,1288,1283,1283,1278,1278,1273,1273,1273,1268,1268,1268,1268,1268,1268,1264,1264,1259,1259,1255,1255,1255,1250,1250,1250,1250,1250,1250,1245,1241,1241,1236,1236,1236,1232,1232,1232,1232,1227,1227,1227,1227,1223,1223,1223,1223,1223,1219,1214,1214,1214,1214,1210,1210,1210,1206,1206,1202,1202,1202,1202,1202,1197,1197,1197,1193,1193,1189,1185,1185,1185,1185,1181,1181,0,0,0,0,0,0,0,0,0,0,0,0,0,0,0,0,0,0,0,0,0,0,0,0,0,0,0,0,0,0
0,0,0,0,0,0,0,0,0,0,0,0,0,1776,1776,1776,1776,1776,1776,1766,1766,1766,1766,1766,1766,1766,1766,1766,1766,1766,1766,1766,1766,1766,1766,1766,1766,1766,1766,1766,1766,1766,1766,1757,1757,1757,1757,1757,1757,1757,1757,1757,1757,1757,1766,1766,1757,1757,1757,1757,1757,1757,1757,1757,1757,1757,1757,1757,1757,1757,1757,1757,1757,1757,1757,0,0,0,0,0,0,0,0,0,0,0,0,891,889,889,885,882,882,880,880,878,878,875,875,873,871,869,869,867,864,862,862,860,860,858,817,811,811,809,807,807,805,803,803,803,802,802,796,794,792,790,789,789,787,785,783,780,780,780,780,780,780,780,780,780,781,781,780,778,778,780,780,780,774,774,774,774,776,776,776,778,781,781,781,781,781,781,781,781,780,780,780,781,780,780,780,781,781,780,780,780,780,780,780,780,780,780,780,780,780,780,778,778,778,778,780,780,780,780,780,780,780,781,783,783,783,783,792,790,790,794,794,796,796,796,796,796,796,796,794,794,794,794,792,792,792,790,790,792,792,792,792,792,792,792,792,790,789,789,790,789,789,789,789,794,789,789,790,789,789,789,789,790,794,794,794,796,796,796,794,792,792,792,792,798,802,802,802,802,802,802,802,803,803,803,802,802,800,800,796,796,796,796,798,798,798,800,800,802,802,802,800,798,798,798,798,796,796,796,796,798,798,798,798,798,798,800,800,800,800,798,798,798,800,800,800,802,802,803,802,802,803,803,803,803,803,803,803,803,805,803,803,803,803,805,805,803,803,809,809,809,809,809,811,811,811,811,811,813,813,815,817,817,821,823,825,827,829,831,833,835,837,837,839,843,845,845,878,878,880,880,887,889,889,891,894,903,906,908,908,913,915,920,920,923,923,928,928,930,933,935,935,935,935,938,938,943,948,954,956,956,956,0,0,0,0,0,1523,1523,1523,1523,1523,1523,1523,1516,1516,1516,1516,1509,1509,1503,1503,1503,1496,1496,1496,1496,1496,1489,1489,1489,1489,1489,1483,1483,1483,1477,1470,1470,1470,1470,1464,1464,1464,1464,1458,1458,1458,1458,1452,1452,1445,1445,1445,1439,1439,1439,1433,1433,1427,1427,1421,1421,1421,1421,1415,1415,1415,1415,1415,1410,1410,1410,1404,1398,1398,1398,1398,1398,1392,1392,1392,1392,1387,1387,1381,1376,1376,1376,1376,1370,1370,1370,1370,1365,1365,1365,1365,1365,1359,1354,1354,1349,1349,1349,1349,1343,1343,1343,1338,1338,1333,1333,1333,1333,1333,1328,1328,1328,1322,1322,1322,1317,1312,1312,1312,1312,1312,1307,1307,1307,1302,1302,1302,1292,1292,1292,1292,1292,1292,1292,1288,1288,1288,1283,1278,1278,1273,1273,1273,1273,1268,1268,1268,1268,1268,1264,1264,1259,1259,1255,1255,1255,1250,1250,1250,1250,1250,1250,1245,1241,1241,1241,1236,1236,1232,1232,1232,1232,1232,1227,1227,1227,1227,1223,1223,1223,1223,1219,1214,1214,1214,1214,1210,1210,1210,1206,1206,1202,1202,1202,1202,1202,1197,1197,1197,1193,1193,1189,1185,1185,1185,1185,1185,1185,0,0,0,0,0,0,0,0,0,0,0,0,0,0,0,0,0,0,0,0,0,0,0,0,0,0,0,0,0,0
0,0,0,0,0,0,0,0,0,0,0,0,0,1776,1776,1776,1776,1776,1776,1766,1766,1766,1766,1766,1766,1766,1766,1766,1766,1766,1766,1766,1766,1766,1766,1766,1766,1766,1766,1766,1766,1766,1766,1766,1766,1766,1766,1766,1766,1766,1766,1766,1766,1766,1766,1766,1766,1757,1757,1766,1757,1757,1757,1757,1757,1757,1757,1757,1757,1757,1757,1757,1757,1757,1757,1757,0,0,0,0,0,0,0,0,0,0,0,891,891,889,887,885,882,882,880,880,880,878,875,875,871,869,869,867,864,862,862,860,858,858,856,854,851,849,847,807,805,803,803,803,802,802,798,794,792,790,789,789,787,785,783,780,780,780,780,780,778,778,778,778,780,780,776,776,776,776,778,778,774,773,773,773,774,774,774,774,776,776,780,780,780,780,778,776,776,776,778,778,778,778,778,778,778,778,778,778,778,778,778,778,778,778,778,778,778,778,778,778,776,776,778,778,778,780,778,778,778,778,778,781,781,780,780,778,776,776,774,774,794,794,794,792,792,792,792,789,789,789,789,789,789,789,789,789,789,789,787,787,787,787,787,787,785,785,785,785,785,783,783,789,789,789,787,787,787,787,783,783,789,789,789,790,792,792,790,790,789,789,790,790,790,792,792,800,800,800,800,800,802,802,800,800,798,798,794,794,794,794,796,798,798,798,796,796,798,796,796,796,796,796,796,796,796,794,794,796,796,796,796,796,796,796,796,794,794,796,794,794,796,796,798,798,798,798,798,800,800,800,800,802,800,800,800,802,800,798,796,796,800,802,802,800,800,805,805,805,805,807,807,809,809,809,811,811,811,813,815,815,819,823,825,827,829,831,833,833,837,837,839,843,845,845,878,878,880,880,889,889,891,891,898,906,906,908,908,913,915,920,920,923,928,928,930,930,933,935,935,938,938,938,940,943,951,954,956,956,956,0,0,0,0,0,1523,1523,1523,1523,1523,1523,1523,1516,1516,1516,1516,1509,1509,1503,1503,1503,1496,1496,1496,1496,1496,1489,1489,1489,1489,1489,1489,1483,1483,1477,1470,1470,1470,1470,1464,1464,1464,1464,1464,1458,1458,1458,1452,1452,1445,1445,1445,1439,1439,1439,1433,1433,1433,1427,1427,1427,1421,1421,1421,1421,1415,1415,1415,1415,1415,1410,1404,1404,1398,1398,1398,1398,1392,1392,1392,1392,1387,1387,1381,1381,1376,1376,1376,1370,1370,1370,1370,1365,1365,1365,1365,1365,1359,1354,1354,1349,1349,1349,1349,1343,1343,1343,1338,1338,1333,1333,1333,1333,1333,1333,1328,1328,1328,1322,1322,1317,1317,1312,1312,1312,1312,1307,1307,1307,1307,1302,1302,1302,1297,1297,1292,1292,1292,1292,1288,1288,1288,1283,1283,1278,1278,1273,1273,1273,1273,1268,1268,1268,1268,1264,1264,1259,1259,1255,1255,1255,1255,1250,1250,1250,1250,1250,1250,1241,1241,1241,1236,1236,1236,1232,1232,1232,1232,1232,1232,1232,1227,1227,1223,1223,1223,1219,1219,1214,1214,1214,1214,1210,1210,1210,1206,1206,1206,1202,1202,1202,1197,1197,1197,1193,1193,1189,1185,1185,1185,1185,1185,1185,0,0,0,0,0,0,0,0,0,0,0,0,0,0,0,0,0,0,0,0,0,0,0,0,0,0,0,0,0,0
0,0,0,0,0,0,0,0,0,0,0,0,0,1776,1776,1776,1776,1776,1776,1766,1766,1766,1766,1766,1766,1766,1766,1766,1766,1766,1766,1766,1766,1766,1766,1766,1766,1766,1766,1766,1766,1766,1766,1766,1766,1766,1766,1766,1766,1766,1766,1766,1766,1766,1766,1766,1766,1766,1766,1766,1766,1757,1757,1757,1757,1757,1757,1757,1757,1757,1757,1757,1757,1757,1757,1757,0,0,0,0,0,0,0,0,0,0,0,896,891,891,887,885,882,882,882,880,880,878,878,875,873,871,869,867,864,864,862,860,858,858,854,854,851,849,847,847,805,803,803,803,802,802,798,794,792,790,789,789,787,785,781,780,780,778,778,778,776,776,776,776,776,776,776,774,774,774,774,776,773,771,771,771,771,773,773,773,773,771,771,771,773,769,769,773,773,773,773,773,773,773,773,773,774,774,774,774,774,776,778,774,774,773,773,774,774,774,774,774,774,774,774,774,774,774,774,774,774,774,776,776,776,776,778,778,776,776,774,774,776,781,781,781,792,790,789,783,783,783,787,787,787,787,787,787,787,783,783,785,785,785,785,785,785,783,783,783,783,783,783,785,787,787,787,787,787,787,783,781,781,785,785,787,787,789,789,787,787,787,785,785,783,783,787,785,783,783,783,790,790,798,794,794,794,794,792,792,792,792,794,796,796,796,796,796,796,794,794,794,794,792,792,792,792,792,792,794,796,796,794,794,794,792,792,792,792,794,792,792,794,796,796,794,794,794,796,796,798,796,796,800,798,796,796,796,796,794,794,794,794,796,796,796,800,802,800,800,802,802,805,805,807,809,809,809,811,811,815,815,817,821,823,827,829,831,833,833,835,837,837,843,875,875,878,878,880,880,889,889,891,891,898,906,906,908,908,913,915,920,920,923,928,928,930,933,935,935,938,938,940,940,946,948,954,954,956,956,956,0,0,0,0,0,1529,1529,1523,1523,1523,1523,1523,1516,1516,1516,1516,1509,1509,1509,1503,1503,1496,1496,1496,1496,1496,1489,1489,1489,1489,1489,1489,1483,1483,1477,1477,1470,1470,1470,1464,1464,1464,1464,1464,1458,1458,1458,1458,1452,1445,1445,1445,1445,1439,1439,1439,1433,1433,1427,1427,1427,1421,1421,1421,1421,1415,1415,1415,1415,1415,1410,1404,1404,1398,1398,1398,1398,1392,1392,1392,1392,1392,1387,1387,1381,1376,1376,1376,1370,1370,1370,1370,1370,1370,1365,1365,1365,1359,1354,1354,1349,1349,1349,1349,1343,1343,1343,1343,1338,1333,1333,1333,1333,1333,1333,1328,1328,1328,1322,1322,1317,1317,1312,1312,1312,1312,1307,1307,1307,1307,1307,1307,1302,1297,1297,1297,1292,1292,1292,1288,1288,1288,1283,1283,1283,1278,1273,1273,1273,1273,1268,1268,1268,1268,1264,1264,1259,1259,1255,1255,1255,1255,1250,1250,1250,1250,1250,1250,1245,1245,1241,1236,1236,1236,1232,1232,1232,1232,1232,1232,1232,1227,1227,1223,1223,1219,1219,1219,1214,1214,1214,1214,1210,1210,1210,1206,1206,1206,1206,1202,1202,1202,1197,1197,1197,1193,1189,1189,1185,1185,1185,1185,1185,0,0,0,0,0,0,0,0,0,0,0,0,0,0,0,0,0,0,0,0,0,0,0,0,0,0,0,0,0,0
0,0,0,0,0,0,0,0,0,0,0,0,0,1776,1776,1776,1776,1776,1776,1776,1766,1766,1766,1766,1766,1766,1766,1766,1766,1766,1766,1766,1766,1766,1766,1766,1766,1766,1766,1766,1766,1766,1766,1766,1766,1766,1766,1766,1766,1766,1766,1766,1766,1766,1766,1766,1766,1766,1766,1766,1766,1766,1766,1757,1757,1757,1757,1757,1757,1757,1757,1757,1757,1757,1757,1757,0,0,0,0,0,0,0,0,0,0,0,896,894,891,889,885,885,882,882,882,882,878,878,875,873,871,869,867,867,867,862,860,858,858,854,851,851,849,847,847,845,803,803,803,802,802,798,794,792,790,789,789,787,787,781,780,780,778,778,778,776,774,774,773,769,769,771,769,769,769,769,769,769,769,769,769,771,769,769,769,769,767,767,767,769,767,767,769,771,771,771,771,771,771,771,771,771,771,771,771,771,773,771,771,769,769,769,771,773,773,773,773,773,773,773,773,773,773,773,773,773,773,774,774,774,774,774,774,773,773,773,771,771,778,776,776,776,776,780,780,780,780,780,781,783,783,783,783,783,781,781,781,781,783,783,783,783,781,781,780,780,780,780,781,783,785,785,785,785,785,781,778,778,778,774,774,774,778,780,780,783,783,783,781,781,781,783,783,781,781,781,783,783,781,781,787,794,794,790,789,787,787,792,792,792,792,792,792,792,792,792,792,792,792,790,789,789,790,790,792,794,794,792,790,789,789,789,789,789,790,789,789,790,794,794,792,792,792,794,794,792,792,792,792,792,792,792,790,790,792,792,792,792,794,794,794,794,796,796,796,798,798,802,803,803,805,807,809,809,811,815,815,817,821,823,827,829,833,833,833,835,835,835,875,875,875,878,880,880,882,889,891,891,894,898,906,906,908,908,913,915,920,920,925,928,930,933,935,935,938,938,940,940,940,948,951,954,956,956,956,956,0,0,0,0,0,1529,1529,1529,1523,1523,1523,1523,1523,1516,1516,1516,1509,1509,1509,1503,1503,1496,1496,1496,1496,1496,1489,1489,1489,1489,1489,1489,1483,1483,1483,1477,1470,1470,1470,1464,1464,1464,1464,1464,1464,1458,1458,1458,1452,1452,1445,1445,1445,1439,1439,1439,1433,1433,1433,1427,1427,1427,1421,1421,1421,1421,1415,1415,1415,1415,1410,1404,1404,1404,1398,1398,1398,1398,1392,1392,1392,1392,1392,1387,1381,1376,1376,1376,1370,1370,1370,1370,1370,1370,1365,1365,1365,1359,1359,1354,1349,1349,1349,1349,1349,1349,1343,1343,1338,1338,1333,1333,1333,1333,1333,1328,1328,1328,1322,1322,1317,1317,1312,1312,1312,1312,1312,1307,1307,1307,1307,1307,1302,1297,1297,1297,1292,1292,1292,1288,1288,1288,1283,1283,1283,1278,1273,1273,1273,1273,1268,1268,1268,1268,1264,1264,1259,1259,1255,1255,1255,1255,1250,1250,1250,1250,1250,1250,1245,1245,1241,1236,1236,1236,1236,1232,1232,1232,1232,1232,1232,1227,1227,1223,1223,1219,1219,1219,1214,1214,1214,1214,1210,1210,1210,1210,1206,1206,1206,1202,1202,1202,1197,1197,1197,1193,1193,1189,1185,1185,1185,1185,1185,0,0,0,0,0,0,0,0,0,0,0,0,0,0,0,0,0,0,0,0,0,0,0,0,0,0,0,0,0,0
0,0,0,0,0,0,0,0,0,0,0,0,0,1785,1785,1785,1785,1776,1776,1776,1776,1776,1776,1776,1766,1766,1766,1766,1766,1766,1766,1766,1766,1766,1766,1766,1766,1766,1766,1766,1766,1766,1766,1766,1766,1766,1766,1766,1766,1766,1766,1766,1766,1766,1766,1766,1766,1766,1766,1766,1766,1766,1766,1766,1766,1766,1757,1757,1757,1757,1757,1757,1757,1757,1757,1757,1766,0,0,0,0,0,0,0,0,0,0,896,896,894,891,887,885,885,882,882,882,880,878,875,875,871,871,869,869,867,864,862,860,854,854,851,849,849,847,847,845,845,841,841,802,802,798,794,792,790,789,789,787,787,783,781,780,780,778,776,774,774,773,771,769,767,767,767,767,767,766,766,766,766,766,767,767,767,767,766,766,764,764,766,766,764,764,766,767,767,767,767,767,767,767,767,767,769,769,769,769,769,767,767,766,764,764,766,769,767,767,769,769,771,771,771,771,769,769,771,771,771,771,773,773,773,773,769,769,769,767,767,767,767,771,773,773,773,773,773,773,773,776,781,783,781,781,783,781,780,780,778,778,780,778,778,778,778,778,776,773,773,774,774,776,785,785,785,785,785,780,774,773,773,774,773,773,774,776,778,780,780,780,780,780,776,776,780,776,774,774,774,774,776,774,774,776,776,783,783,787,785,785,789,789,789,787,787,781,781,783,781,781,781,781,781,781,781,781,781,792,792,790,787,787,787,787,787,787,787,787,787,789,790,790,790,790,790,792,790,790,789,789,790,790,789,789,789,789,789,789,790,790,790,790,792,792,794,794,794,794,796,798,800,803,805,807,809,809,811,813,815,817,821,821,827,829,833,833,833,835,835,835,873,875,875,878,880,880,885,889,891,894,894,901,906,906,908,910,915,918,920,923,928,930,933,935,935,938,938,938,940,940,943,948,951,954,956,956,956,956,0,0,0,0,0,1536,1529,1529,1529,1523,1523,1523,1523,1523,1516,1516,1509,1509,1509,1503,1503,1496,1496,1496,1496,1496,1489,1489,1489,1489,1489,1489,1489,1483,1483,1477,1477,1470,1470,1470,1470,1464,1464,1464,1464,1464,1458,1458,1452,1452,1445,1445,1445,1439,1439,1439,1433,1433,1433,1433,1433,1427,1421,1421,1421,1421,1415,1415,1415,1415,1410,1404,1404,1404,1398,1398,1398,1398,1392,1392,1392,1392,1392,1392,1381,1381,1376,1376,1376,1376,1370,1370,1370,1370,1365,1365,1365,1359,1359,1354,1354,1349,1349,1349,1349,1349,1349,1343,1343,1338,1338,1333,1333,1333,1333,1333,1328,1328,1328,1322,1322,1317,1317,1312,1312,1312,1312,1312,1307,1307,1307,1307,1302,1302,1297,1297,1292,1292,1292,1288,1288,1288,1288,1283,1283,1278,1278,1273,1273,1273,1273,1268,1268,1268,1268,1264,1264,1259,1255,1255,1255,1255,1255,1250,1250,1250,1250,1250,1245,1245,1241,1236,1236,1236,1236,1236,1232,1232,1232,1232,1232,1232,1227,1227,1223,1223,1219,1219,1219,1214,1214,1214,1214,1210,1210,1210,1210,1206,1206,1202,1202,1202,1197,1197,1197,1197,1193,1193,1185,1185,1185,1185,1185,0,0,0,0,0,0,0,0,0,0,0,0,0,0,0,0,0,0,0,0,0,0,0,0,0,0,0,0,0,0
0,0,0,0,0,0,0,0,0,0,0,0,0,1785,1785,1785,1785,1776,1776,1776,1776,1776,1776,1776,1776,1766,1766,1766,1766,1766,1766,1766,1766,1766,1766,1766,1766,1766,1766,1766,1766,1766,1766,1766,1766,1766,1766,1766,1766,1766,1766,1766,1766,1766,1766,1766,1766,1766,1766,1766,1766,1766,1766,1766,1766,1766,1757,1757,1757,1757,1757,1757,1757,1757,1757,1757,1766,0,0,0,0,0,0,0,0,0,0,896,896,896,891,887,887,885,885,882,882,880,878,878,875,871,871,869,869,869,867,864,860,854,854,851,849,849,847,847,845,845,841,839,835,835,833,831,831,790,789,789,789,787,783,783,781,780,780,776,774,774,773,771,769,767,767,766,762,762,761,759,759,762,762,761,761,761,761,761,761,759,759,759,759,761,761,761,761,761,762,762,762,762,766,766,766,767,767,766,764,764,762,762,762,762,762,762,762,762,764,766,766,767,767,767,767,766,764,764,766,766,767,769,769,771,767,767,767,766,766,764,764,766,767,767,769,771,771,771,771,766,762,761,761,761,761,761,781,776,776,774,774,774,773,773,773,773,773,773,771,771,771,771,769,769,773,773,774,774,773,771,769,769,769,771,771,771,773,773,776,778,778,776,774,773,769,769,773,773,773,773,773,774,774,774,773,773,778,774,774,774,781,781,781,781,781,781,780,780,778,778,778,778,778,774,774,776,776,774,774,781,781,783,783,783,785,787,785,785,785,787,789,785,785,787,789,789,789,789,789,789,787,787,787,787,787,785,785,785,787,785,785,785,785,789,790,792,792,794,794,796,798,800,802,803,807,809,809,811,813,815,817,821,821,825,829,833,835,835,837,837,873,873,875,875,878,880,880,885,889,894,894,894,903,906,906,908,910,915,920,920,925,930,933,935,935,938,938,938,940,943,943,946,948,954,956,956,959,959,959,0,0,0,0,0,1536,1536,1529,1529,1529,1523,1523,1523,1523,1516,1516,1516,1509,1509,1503,1503,1503,1496,1496,1496,1496,1496,1489,1489,1489,1489,1489,1489,1483,1483,1477,1477,1470,1470,1470,1470,1464,1464,1464,1464,1464,1458,1458,1452,1452,1445,1445,1445,1439,1439,1439,1433,1433,1433,1433,1433,1427,1427,1421,1421,1421,1415,1415,1415,1415,1410,1410,1404,1404,1398,1398,1398,1398,1392,1392,1392,1392,1392,1392,1381,1381,1376,1376,1376,1376,1370,1370,1370,1370,1370,1365,1365,1365,1354,1354,1354,1354,1349,1349,1349,1349,1349,1343,1343,1338,1338,1333,1333,1333,1333,1333,1333,1328,1328,1322,1322,1317,1317,1312,1312,1312,1312,1312,1307,1307,1307,1307,1302,1302,1297,1292,1292,1292,1292,1292,1292,1288,1288,1283,1283,1283,1278,1278,1273,1273,1273,1268,1268,1268,1268,1264,1264,1259,1259,1255,1255,1255,1255,1250,1250,1250,1250,1250,1245,1245,1241,1236,1236,1236,1236,1236,1232,1232,1232,1232,1232,1232,1227,1227,1223,1223,1219,1219,1219,1214,1214,1214,1214,1214,1210,1210,1210,1206,1206,1202,1202,1202,1197,1197,1197,1197,1193,1193,1189,1185,1185,1185,1185,0,0,0,0,0,0,0,0,0,0,0,0,0,0,0,0,0,0,0,0,0,0,0,0,0,0,0,0,0,0
0,0,0,0,0,0,0,0,0,0,0,0,0,1794,1794,1794,1785,1785,1785,1776,1776,1776,1776,1776,1776,1776,1776,1776,1776,1766,1766,1766,1766,1766,1766,1766,1766,1766,1766,1766,1766,1766,1766,1766,1766,1766,1766,1766,1766,1766,1766,1766,1766,1766,1766,1766,1766,1766,1766,1766,1766,1766,1766,1766,1766,1766,1766,1757,1757,1757,1757,1757,1757,1757,1757,1757,1766,1766,0,0,0,0,0,0,0,0,896,896,896,894,891,889,887,885,885,885,885,882,880,878,875,873,873,871,869,869,867,864,862,856,854,851,851,849,847,847,845,841,839,837,835,835,833,831,831,794,790,790,790,785,785,783,781,780,780,776,774,774,773,771,769,767,766,766,762,761,761,759,759,757,755,754,754,754,755,754,754,755,755,755,755,755,755,757,757,757,757,759,757,757,761,759,759,764,764,761,759,759,761,761,761,761,759,759,759,759,755,755,757,757,759,761,764,762,761,761,761,761,761,761,761,761,761,761,761,762,762,761,759,759,767,767,769,769,769,766,766,764,762,761,761,759,759,761,761,761,761,773,771,771,771,771,769,769,769,769,769,769,769,769,769,769,769,769,769,769,769,767,767,767,767,767,767,766,766,767,769,773,769,769,769,769,769,769,769,769,769,769,769,773,773,771,769,769,773,773,771,771,769,769,769,771,778,776,776,776,776,776,776,776,776,774,774,774,774,774,774,776,780,780,781,781,783,785,783,783,783,787,787,783,783,785,787,787,787,785,785,787,787,785,785,785,783,781,780,780,781,783,783,783,785,789,789,790,792,792,792,796,798,800,802,803,807,807,807,809,813,815,819,821,821,825,829,833,835,867,867,869,873,873,875,875,878,880,880,885,891,894,894,896,903,906,906,908,913,915,920,920,925,933,935,935,935,938,938,940,940,943,943,946,948,954,956,956,959,959,959,0,0,0,0,0,1536,1536,1529,1529,1529,1523,1523,1523,1523,1523,1516,1516,1509,1509,1509,1509,1503,1503,1503,1496,1496,1496,1489,1489,1489,1489,1489,1489,1483,1483,1477,1477,1477,1470,1470,1470,1464,1464,1464,1464,1464,1458,1458,1452,1452,1445,1445,1445,1445,1439,1439,1439,1439,1439,1433,1433,1427,1427,1421,1421,1421,1415,1415,1415,1415,1410,1410,1404,1404,1398,1398,1398,1398,1398,1398,1392,1392,1392,1392,1387,1381,1376,1376,1376,1376,1370,1370,1370,1370,1370,1365,1365,1365,1354,1354,1354,1354,1349,1349,1349,1349,1349,1343,1343,1343,1343,1338,1333,1333,1333,1333,1333,1328,1328,1322,1322,1317,1317,1312,1312,1312,1312,1312,1307,1307,1307,1307,1302,1302,1297,1292,1292,1292,1292,1292,1292,1288,1288,1288,1283,1283,1278,1278,1278,1273,1273,1273,1268,1268,1268,1264,1264,1259,1259,1259,1255,1255,1255,1250,1250,1250,1250,1250,1245,1245,1241,1241,1236,1236,1236,1236,1232,1232,1232,1232,1232,1232,1232,1227,1223,1223,1219,1219,1219,1219,1214,1214,1214,1214,1214,1210,1210,1210,1206,1202,1202,1202,1202,1197,1197,1197,1197,1193,1189,1185,1185,1185,1185,0,0,0,0,0,0,0,0,0,0,0,0,0,0,0,0,0,0,0,0,0,0,0,0,0,0,0,0,0,0
0,0,0,0,0,0,0,0,0,0,0,0,0,1794,1794,1794,1785,1785,1785,1785,1785,1785,1785,1785,1776,1776,1776,1776,1776,1776,1776,1776,1776,1766,1766,1766,1766,1776,1766,1766,1766,1766,1766,1766,1766,1766,1766,1766,1766,1766,1766,1766,1766,1766,1766,1766,1766,1766,1766,1766,1766,1766,1766,1766,1766,1766,1766,1757,1757,1757,1757,1757,1757,1757,1757,1757,1766,1766,0,0,0,0,0,0,0,0,896,896,896,894,891,889,889,887,885,885,885,882,882,878,875,875,873,871,869,869,867,864,860,856,856,854,851,849,849,849,845,841,839,837,835,835,833,831,831,827,827,792,790,785,785,783,781,780,780,776,774,774,773,771,767,766,766,764,762,761,761,759,757,754,752,750,750,750,750,750,752,754,754,754,754,754,754,754,754,755,755,754,752,752,752,752,752,752,752,754,754,754,754,757,757,755,754,754,755,755,754,754,754,755,755,755,757,757,757,752,752,752,752,755,755,757,757,759,759,757,757,755,755,752,752,754,764,761,757,757,761,761,759,759,759,759,759,759,759,759,759,761,761,766,767,767,767,767,767,767,767,767,767,767,766,766,766,766,766,766,766,764,764,766,764,764,764,764,764,766,762,762,764,764,766,766,766,767,767,767,767,767,767,767,769,769,767,766,766,767,767,767,767,767,767,767,767,769,769,774,774,776,774,774,774,774,773,773,773,773,773,774,778,778,778,780,780,783,783,783,783,787,787,781,778,778,778,778,787,780,780,785,781,780,780,780,778,778,776,776,778,778,781,781,783,785,787,789,790,792,792,794,796,798,802,803,807,807,807,809,813,815,819,819,823,854,856,858,860,867,867,869,871,873,875,878,880,880,880,887,891,894,896,898,903,906,906,908,913,918,920,923,928,933,935,935,938,938,940,940,943,943,946,948,951,954,956,959,959,959,959,0,0,0,0,0,1536,1536,1529,1529,1529,1523,1523,1523,1523,1523,1523,1516,1516,1516,1509,1509,1509,1503,1503,1503,1496,1496,1489,1489,1489,1489,1489,1489,1483,1483,1477,1477,1477,1470,1470,1470,1464,1464,1464,1464,1464,1464,1458,1452,1452,1452,1445,1445,1445,1439,1439,1439,1439,1439,1433,1433,1427,1427,1421,1421,1421,1421,1415,1415,1415,1410,1410,1404,1404,1398,1398,1398,1398,1398,1398,1398,1392,1392,1392,1392,1381,1381,1376,1376,1376,1376,1370,1370,1370,1370,1365,1365,1365,1354,1354,1354,1354,1349,1349,1349,1349,1349,1343,1343,1343,1343,1338,1338,1333,1333,1333,1333,1328,1328,1322,1322,1317,1317,1317,1312,1312,1312,1312,1312,1307,1307,1307,1307,1302,1297,1292,1292,1292,1292,1292,1292,1292,1288,1288,1288,1283,1283,1278,1278,1273,1273,1273,1268,1268,1268,1264,1264,1259,1259,1259,1255,1255,1255,1255,1255,1250,1250,1250,1245,1245,1245,1241,1241,1241,1236,1236,1232,1232,1232,1232,1232,1232,1232,1227,1223,1223,1223,1219,1219,1219,1219,1219,1214,1214,1214,1210,1210,1210,1206,1206,1202,1202,1202,1197,1197,1197,1197,1193,1189,1185,1185,1185,1185,0,0,0,0,0,0,0,0,0,0,0,0,0,0,0,0,0,0,0,0,0,0,0,0,0,0,0,0,0,0
0,0,0,0,0,0,0,0,0,0,0,0,0,1794,1794,1794,1794,1794,1794,1785,1785,1785,1785,1785,1785,1785,1776,1776,1776,1776,1776,1776,1776,1766,1766,1766,1766,1776,1776,1776,1766,1766,1766,1766,1766,1766,1766,1766,1776,1776,1776,1776,1776,1776,1776,1766,1766,1766,1766,1766,1766,1766,1766,1766,1766,1766,1766,1757,1757,1757,1757,1757,1757,1757,1757,1757,1757,1757,0,0,0,0,0,0,0,0,898,898,896,896,894,891,889,887,887,885,885,885,885,882,878,875,873,871,869,869,867,864,860,858,856,854,851,851,849,849,845,841,839,837,835,835,833,831,831,829,827,827,825,789,783,781,781,780,780,776,774,774,773,771,767,766,766,764,762,761,761,759,755,754,750,750,749,749,749,747,747,749,747,747,752,752,750,750,750,750,750,749,749,749,749,747,747,749,749,749,752,752,752,752,754,754,752,752,752,752,752,752,752,752,752,752,749,749,750,749,749,749,750,749,749,750,750,755,754,754,754,754,752,750,750,750,754,754,755,755,757,759,757,757,757,757,757,757,757,759,759,759,759,761,761,762,764,764,764,766,766,766,766,766,764,764,764,764,762,762,761,761,761,762,762,762,762,762,762,764,761,761,762,764,766,766,766,766,766,767,766,766,766,766,766,766,766,764,764,764,764,766,764,764,766,764,764,764,764,767,767,771,771,773,773,771,771,771,771,771,771,771,773,773,773,767,767,767,767,766,766,767,767,769,773,773,771,769,767,767,767,767,771,769,769,771,774,774,774,774,776,776,780,781,783,785,787,789,790,792,792,794,796,798,802,803,805,807,807,811,813,819,819,819,854,854,856,858,860,862,867,867,871,873,875,878,880,880,882,887,894,894,896,901,903,906,906,908,918,920,920,925,930,935,935,938,938,940,940,943,943,946,946,948,951,954,956,959,959,959,962,0,0,0,0,0,1529,1529,1529,1529,1529,1523,1523,1523,1523,1523,1523,1516,1516,1516,1516,1516,1509,1509,1509,1503,1496,1496,1496,1489,1489,1489,1489,1489,1489,1483,1477,1477,1477,1470,1470,1470,1464,1464,1464,1464,1464,1464,1458,1458,1452,1452,1445,1445,1445,1439,1439,1439,1439,1439,1433,1433,1427,1427,1427,1421,1421,1421,1415,1415,1415,1410,1410,1410,1404,1404,1398,1398,1398,1398,1398,1398,1398,1392,1392,1392,1392,1387,1381,1381,1376,1376,1376,1370,1370,1370,1370,1365,1365,1354,1354,1354,1354,1354,1354,1354,1349,1349,1349,1349,1343,1343,1338,1338,1333,1333,1333,1333,1328,1328,1328,1322,1322,1317,1317,1317,1317,1312,1312,1312,1307,1307,1307,1307,1302,1297,1292,1292,1292,1292,1292,1292,1292,1288,1288,1288,1283,1283,1278,1278,1273,1273,1273,1268,1268,1268,1268,1264,1264,1264,1264,1259,1255,1255,1255,1255,1250,1250,1250,1245,1245,1245,1241,1241,1241,1236,1236,1232,1232,1232,1232,1232,1232,1232,1227,1227,1227,1223,1219,1219,1219,1219,1219,1214,1214,1214,1210,1210,1210,1206,1206,1202,1202,1202,1202,1197,1197,1197,1193,1193,1189,1185,1185,1185,0,0,0,0,0,0,0,0,0,0,0,0,0,0,0,0,0,0,0,0,0,0,0,0,0,0,0,0,0,0
0,0,0,0,0,0,0,0,0,0,0,0,0,1794,1794,1794,1785,1785,1785,1785,1785,1785,1785,1785,1785,1785,1785,1785,1785,1785,1785,1776,1776,1776,1776,1766,1766,1776,1776,1776,1776,1776,1776,1776,1776,1776,1766,1766,1776,1776,1776,1776,1776,1776,1776,1766,1766,1776,1766,1766,1766,1766,1766,1766,1766,1766,1766,1757,1757,1757,1757,1757,1757,1757,1757,1757,1757,1757,0,0,0,0,0,0,0,0,898,896,896,896,894,894,891,887,887,885,885,885,885,885,878,875,875,875,873,869,869,867,860,858,856,854,854,851,849,849,845,841,839,837,835,835,833,831,831,829,827,827,825,825,783,781,780,774,774,774,774,773,773,771,769,766,766,764,762,761,761,759,755,754,750,750,749,749,749,747,747,746,744,742,742,742,742,742,746,747,742,742,741,741,742,744,744,746,746,746,747,749,749,749,750,750,750,750,750,750,750,747,747,749,749,747,747,747,747,747,749,749,750,749,749,747,747,754,752,752,752,750,750,749,749,749,749,749,749,749,754,754,754,754,754,755,754,754,752,752,754,754,754,754,755,754,754,757,757,757,757,761,764,764,762,762,762,761,759,759,759,759,759,759,759,759,759,759,757,757,757,757,759,761,762,762,762,764,764,764,764,764,764,764,762,762,764,762,762,759,759,761,761,761,761,761,761,759,759,761,764,771,769,766,766,766,766,762,762,762,762,764,767,767,767,766,766,764,764,764,764,764,766,764,764,764,764,766,764,764,766,767,769,769,769,769,771,771,773,773,774,776,778,780,781,785,787,789,790,792,792,794,796,798,800,802,805,807,835,835,835,835,847,847,854,854,858,858,860,862,867,867,871,875,878,878,880,880,885,889,894,894,896,901,903,906,908,913,920,920,923,928,933,935,935,938,938,940,943,943,943,946,946,948,951,956,956,959,962,962,962,0,0,0,0,0,1529,1529,1529,1529,1529,1529,1529,1523,1523,1523,1523,1523,1516,1516,1516,1516,1509,1509,1509,1509,1503,1496,1496,1489,1489,1489,1489,1489,1489,1483,1483,1477,1477,1470,1470,1470,1470,1464,1464,1464,1464,1464,1464,1458,1458,1452,1445,1445,1445,1445,1439,1439,1439,1439,1433,1433,1427,1427,1427,1421,1421,1421,1421,1415,1415,1415,1410,1410,1404,1404,1398,1398,1398,1398,1398,1398,1398,1392,1392,1392,1392,1387,1387,1381,1381,1376,1376,1376,1370,1370,1370,1365,1365,1354,1354,1354,1354,1354,1354,1354,1354,1354,1349,1349,1349,1343,1343,1338,1333,1333,1333,1333,1328,1328,1328,1322,1322,1317,1317,1317,1317,1312,1312,1312,1312,1307,1307,1307,1302,1297,1292,1292,1292,1292,1292,1292,1292,1288,1288,1288,1288,1283,1283,1278,1273,1273,1273,1268,1268,1268,1268,1268,1264,1264,1264,1259,1255,1255,1255,1255,1250,1250,1250,1250,1245,1245,1245,1245,1241,1236,1236,1236,1232,1232,1232,1232,1232,1232,1227,1227,1227,1223,1219,1219,1219,1219,1219,1214,1214,1214,1214,1210,1210,1206,1206,1202,1202,1202,1202,1202,1197,1197,1197,1193,1189,1185,1185,1185,0,0,0,0,0,0,0,0,0,0,0,0,0,0,0,0,0,0,0,0,0,0,0,0,0,0,0,0,0,0
0,0,0,0,0,0,0,0,0,0,0,0,0,1794,1794,1794,1785,1785,1785,1785,1785,1785,1785,1785,1785,1785,1785,1785,1785,1785,1785,1785,1785,1776,1776,1776,1776,1776,1785,1785,1785,1785,1785,1776,1776,1776,1776,1776,1776,1776,1776,1776,1776,1776,1776,1776,1776,1776,1776,1776,1776,1766,1766,1766,1766,1766,1766,1757,1757,1757,1757,1757,1757,1757,1757,1757,1757,1757,0,0,0,0,0,0,0,898,896,896,896,896,896,894,891,889,887,887,887,885,885,885,880,878,875,875,873,873,869,867,862,860,858,856,854,851,851,849,847,841,839,837,835,835,833,831,831,829,827,827,825,821,821,817,780,774,774,774,773,773,771,769,769,766,766,764,762,761,761,759,757,755,750,750,749,749,749,747,746,744,742,742,741,741,741,741,741,741,742,741,741,741,741,741,742,742,742,742,744,746,747,747,747,747,747,747,747,747,747,746,746,747,747,746,746,746,746,746,746,747,747,747,746,746,747,750,749,749,749,747,747,747,746,744,744,744,746,742,742,750,752,752,752,752,749,749,747,747,749,749,749,749,749,749,750,754,752,752,752,755,757,755,754,754,741,741,752,752,754,755,755,757,755,755,755,755,754,754,754,754,755,759,759,759,761,761,761,761,761,761,761,761,759,759,759,759,755,754,754,755,757,757,755,755,755,757,755,755,755,755,769,759,759,766,762,759,757,757,757,764,764,764,764,764,762,759,759,759,759,759,759,759,761,761,762,762,762,762,764,764,767,767,767,769,769,771,771,771,773,774,776,778,781,785,787,789,789,790,790,792,794,796,798,802,831,833,835,837,839,839,845,847,851,856,858,860,862,864,867,867,871,875,878,880,880,880,885,889,894,894,898,901,906,906,908,915,923,923,925,928,933,935,935,938,938,940,943,943,943,946,948,951,954,956,959,962,962,962,964,0,0,0,0,0,1529,1529,1529,1529,1529,1529,1529,1523,1523,1523,1523,1523,1516,1516,1516,1516,1516,1509,1509,1509,1503,1496,1496,1496,1496,1489,1489,1489,1489,1483,1483,1483,1477,1470,1470,1470,1470,1464,1464,1464,1464,1464,1458,1458,1458,1452,1452,1445,1445,1445,1439,1439,1439,1439,1433,1433,1427,1427,1427,1421,1421,1421,1421,1415,1415,1415,1415,1410,1404,1404,1398,1398,1398,1398,1398,1398,1398,1392,1392,1392,1392,1392,1387,1381,1381,1376,1376,1376,1376,1370,1370,1370,1365,1365,1354,1354,1354,1354,1354,1354,1354,1354,1349,1349,1349,1349,1343,1343,1338,1333,1333,1333,1328,1328,1328,1328,1322,1322,1322,1317,1317,1317,1312,1312,1312,1312,1307,1307,1302,1297,1297,1292,1292,1292,1292,1292,1288,1288,1288,1288,1288,1283,1283,1283,1278,1273,1273,1268,1268,1268,1268,1268,1264,1264,1264,1264,1259,1259,1255,1255,1250,1250,1250,1250,1245,1245,1245,1245,1241,1236,1236,1236,1232,1232,1232,1232,1232,1232,1232,1227,1227,1223,1223,1219,1219,1219,1219,1214,1214,1214,1214,1210,1210,1206,1206,1202,1202,1202,1202,1202,1197,1197,1197,1193,1189,1185,1185,1185,0,0,0,0,0,0,0,0,0,0,0,0,0,0,0,0,0,0,0,0,0,0,0,0,0,0,0,0,0,0
