0,0,0,0,0,0,0,0,0,0,1550,1543,1543,1543,1543,1543,1543,1543,1543,1543,1543,1543,1543,1543,1543,1543,1543,1543,1543,1543,1543,1536,1536,1529,1529,1523,1523,1516,1516,1509,1509,1516,1516,1516,1004,1004,1004,1001,1001,1001,1001,1001,998,998,998,998,1001,1001,1001,1004,1007,1010,1010,1013,1013,1013,1013,1013,1013,1013,0,1016,0,1516,1516,1516,1516,1516,0,0,0,0,0,0,0,0,0,0,0,0,0,785,781,780,778,778,776,774,773,773,771,688,688,687,687,686,686,686,686,686,686,686,686,686,687,687,688,690,694,696,696,697,697,701,703,704,704,704,706,707,708,708,710,711,713,714,716,717,719,720,722,725,727,727,728,728,730,730,731,733,733,734,736,739,739,741,742,744,746,746,746,747,749,752,754,754,755,757,757,757,759,761,762,764,766,766,767,767,769,773,773,773,774,774,774,778,778,780,781,781,1210,1210,1210,1210,1210,1210,1210,1210,1210,1210,1210,1214,1214,1219,1219,1219,1219,1223,1227,1227,1227,1232,1232,1232,1232,1232,1232,1232,1236,1236,1241,1241,1245,1245,1245,1250,1250,1250,1250,1250,1255,1255,1255,1255,1264,1273,1278,1283,1283,1283,1283,1283,1283,1278,1278,1278,1283,1283,1283,1288,1288,1288,1292,1458,1458,1458,1458,1458,1452,1452,1458,1452,1452,1458,1458,1452,1452,1452,1452,1452,1452,1452,1452,1445,1445,1445,1445,1439,1439,1439,1439,1439,1439,1439,1439,1439,1439,1433,1433,1433,1433,1433,1433,1433,1433,1433,1433,1433,1433,1433,1427,1427,1427,1427,1427,1427,0,0,0,1025,1022,1022,1019,1019,1016,1013,1007,1007,1004,1004,1004,1004,1007,1007,1010,1013,1013,1016,1016,1019,1022,1022,1025,1025,1025,0,1421,1421,1421,1421,1421,1421,1415,1415,1415,1415,1415,1415,1415,1415,1415,1415,1415,1415,1415,1415,1415,1415,1415,1415,1415,1415,1415,1415,1410,1404,1404,1404,1404,1404,1404,1404,1404,1410,1415,1415,1410,1410,1410,1410,1410,1404,1404,1404,1404,1398,1398,1398,1398,1398,1398,1398,1398,1398,1398,1398,1398,1398,1398,1398,1398,1398,1398,1398,1398,1398,1398,1392,1392,1392,1392,1387,1387,1387,1387,1387,1387,1387,1387,1387,1387,1387,1387,1387,1387,1381,1376,1376,1376,1376,1376,1376,1381,1387,1387,1387,1387,1387,1387,1387,1387,1381,1381,1381,1376,1376,1376,1376,1376,1370,1370,1376,1370,1370,1370,1376,1370,1370,1370,1370,1370,1370,1370,1365,1365,1365,1359,1359,1359,1359,1359,1359,1359,1359,1359,1359,1354,1354,1354,1354,1354,1354,1354,1349,1349,1349,1343,1338,1338,1338,1333,1333,1333,1328,1328,1322,1322,1317,1317,1312,1312,1312,1307,1307,1307,1307,1307,1297,1292,1292,1292,1288,1288,1288,1288,1288,1288,1273,1273,1273,1273,1273,1268,1268,1268,1264,1255,1255,1250,1250,1250,1250,1245,1245,1236,1236,1236,1236,1236,1232,1232,1232,1232,1223,1219,1219,1219,1219,1219,1214,1214,1214,1214,1210,1210,1206,1206,1206,1202,1202,1054,1054,1050,1047,1044,1038,1034,1031,1028,1025,1022,1019,1016,1010,1007,1004,1001,1001,995,995,992,989,989,989,989,989,987,987,987,987,984,984,981,978,978,975,973,970,970,970,970,0,0,0,0,0,0,0,0,0,0,0,0,0,0,0,0,0,0,0,0,0,0,0,0,0,0,0,0,0,0,0,0,0,0,0,0,0,0,0
0,0,0,0,0,0,0,0,0,0,1543,1543,1536,1536,1536,1536,1536,1536,1536,1543,1543,1536,1536,1536,1536,1536,1536,1536,1536,1536,1536,1536,1529,1523,1523,1523,1523,1516,1516,1509,1509,1516,1516,1516,1004,1004,1004,1001,1001,1001,1001,1001,998,998,998,1001,1001,1001,1004,1004,1007,1010,1010,1013,1013,1013,1013,1013,1013,1013,1016,1016,0,1523,1523,1516,1516,1516,0,0,0,0,0,0,0,0,0,0,0,0,0,0,781,780,778,776,776,774,773,773,771,688,688,687,687,686,686,686,686,686,686,686,686,687,687,688,690,691,696,696,697,697,698,701,703,704,704,704,706,707,708,708,710,711,713,714,716,717,719,722,723,725,727,727,728,728,730,730,733,733,734,734,738,739,739,741,742,744,746,746,746,747,749,752,754,754,755,757,757,759,761,761,762,764,766,766,767,767,769,773,773,773,774,774,774,778,778,778,1202,1210,1210,1210,1210,1210,1210,1210,1210,1210,1210,1210,1210,1214,1214,1214,1214,1214,1219,1219,1223,1227,1227,1227,1232,1232,1232,1232,1232,1236,1236,1236,1241,1241,1245,1245,1245,1250,1250,1250,1250,1250,1250,1250,1255,1255,1264,1278,1283,1283,1283,1283,1283,1283,1283,1283,1283,1283,1283,1283,1288,1288,1288,1288,1292,1292,1458,1458,1452,1452,1452,1452,1452,1452,1452,1452,1452,1445,1445,1445,1445,1445,1445,1445,1445,1439,1439,1439,1439,1439,1439,1439,1439,1433,1433,1433,1433,1433,1433,1427,1427,1433,1433,1433,1433,1433,1433,1433,1433,1433,1433,1427,1421,1421,1421,1421,1421,1421,0,0,0,1025,1025,1022,1019,1019,1016,1016,1010,1010,1007,1007,1007,1007,1010,1010,1010,1013,1013,1016,1016,1019,1022,1025,1025,1025,1025,0,1421,1421,1421,1415,1415,1415,1415,1415,1415,1410,1410,1415,1415,1415,1415,1415,1415,1415,1415,1410,1410,1410,1410,1410,1410,1410,1410,1410,1404,1404,1398,1398,1398,1398,1398,1398,1398,1398,1398,1398,1398,1398,1398,1398,1398,1398,1398,1398,1398,1398,1398,1398,1398,1398,1398,1398,1392,1392,1392,1392,1392,1392,1392,1392,1392,1392,1392,1392,1392,1392,1392,1392,1392,1387,1387,1381,1381,1381,1381,1381,1381,1381,1381,1381,1381,1381,1381,1381,1381,1376,1376,1376,1376,1370,1370,1370,1370,1376,1376,1376,1381,1376,1376,1381,1381,1376,1376,1376,1376,1376,1376,1376,1376,1370,1370,1370,1365,1365,1365,1365,1370,1370,1370,1370,1370,1365,1365,1365,1359,1354,1354,1354,1354,1354,1354,1354,1354,1354,1354,1354,1354,1354,1354,1354,1354,1349,1349,1349,1343,1343,1343,1338,1338,1338,1333,1333,1333,1328,1328,1328,1322,1322,1317,1312,1312,1312,1307,1307,1307,1307,1307,1297,1292,1292,1292,1288,1288,1288,1288,1288,1288,1273,1273,1273,1273,1273,1268,1268,1264,1264,1255,1255,1250,1250,1250,1250,1250,1245,1236,1236,1236,1232,1232,1232,1232,1232,1232,1223,1223,1223,1219,1219,1219,1219,1214,1214,1214,1210,1210,1210,1206,1206,1210,1054,1054,1054,1050,1047,1041,1034,1031,1028,1025,1022,1019,1016,1013,1010,1004,1004,998,998,995,992,992,989,989,987,987,987,987,987,987,987,984,981,978,978,978,975,973,970,970,970,819,819,819,0,0,0,0,0,0,0,0,0,0,0,0,0,0,0,0,0,0,0,0,0,0,0,0,0,0,0,0,0,0,0,0,0,0,0,0,0
0,0,0,0,0,0,0,0,0,0,1536,1536,1529,1529,1536,1536,1536,1536,1536,1536,1536,1529,1529,1529,1529,1529,1536,1536,1536,1536,1536,1536,1523,1523,1516,1516,1516,1516,1516,1516,1509,1509,1516,1516,1509,1001,1001,1001,1001,1001,1001,1001,998,998,1001,1001,1001,1001,1004,1007,1010,1010,1010,1013,1013,1013,1013,1013,1016,1016,1016,1016,0,1516,0,1516,1516,1516,1516,0,0,0,0,0,0,0,0,0,0,0,0,0,0,780,778,776,774,774,773,771,769,764,764,687,686,686,686,686,686,684,684,686,687,687,688,691,693,694,696,697,697,698,698,701,703,704,704,706,707,708,708,708,710,711,713,714,716,717,719,722,723,725,727,727,728,730,730,731,733,733,734,736,739,739,739,741,742,744,746,746,747,749,750,752,754,754,755,757,757,759,759,761,761,764,764,766,767,767,771,773,773,774,774,774,1206,1206,1206,1206,1202,1202,1206,1210,1210,1206,1206,1210,1210,1210,1210,1210,1210,1210,1214,1214,1214,1214,1219,1219,1223,1223,1227,1227,1232,1232,1232,1232,1232,1236,1236,1241,1241,1241,1245,1245,1245,1250,1250,1250,1250,1250,1250,1250,1250,1250,1264,1283,1283,1283,1283,1283,1283,1283,1283,1283,1283,1283,1283,1283,1288,1288,1288,1288,1292,1292,1458,1445,1445,1445,1445,1445,1445,1445,1445,1445,1445,1445,1445,1445,1445,1439,1439,1439,1439,1439,1433,1433,1433,1433,1433,1433,1433,1433,1433,1433,1433,1427,1427,1427,1427,1427,1427,1427,1427,1427,1427,1427,1427,1427,1421,1421,1421,1415,1415,1415,1415,1415,0,0,0,1025,1025,1025,1022,1019,1016,1016,1013,1010,1007,1007,1007,1007,1010,1010,1013,1013,1016,1016,1016,1019,1022,1025,1025,1025,1025,1028,1415,1415,1415,1410,1410,1410,1410,1410,1404,1404,1404,1404,1410,1410,1410,1410,1410,1410,1410,1410,1404,1404,1404,1404,1404,1404,1404,1404,1398,1398,1398,1398,1392,1392,1398,1398,1398,1398,1398,1398,1398,1392,1392,1392,1398,1398,1398,1398,1398,1398,1398,1392,1392,1392,1392,1392,1392,1392,1392,1392,1392,1392,1392,1392,1392,1392,1387,1387,1381,1381,1381,1387,1381,1381,1381,1381,1381,1381,1381,1376,1376,1376,1376,1376,1376,1376,1376,1376,1376,1376,1370,1370,1370,1370,1370,1370,1370,1370,1370,1370,1370,1370,1370,1376,1376,1376,1376,1376,1370,1370,1370,1370,1370,1370,1370,1370,1359,1359,1359,1359,1359,1365,1365,1365,1365,1365,1365,1359,1354,1354,1354,1354,1354,1354,1354,1354,1354,1354,1354,1354,1354,1349,1349,1349,1349,1349,1349,1343,1343,1343,1338,1338,1338,1338,1333,1333,1333,1333,1333,1328,1328,1322,1317,1312,1312,1312,1307,1307,1307,1307,1307,1297,1292,1292,1292,1288,1288,1288,1288,1288,1288,1278,1273,1273,1273,1273,1268,1268,1264,1259,1255,1255,1250,1250,1250,1250,1250,1245,1245,1241,1241,1232,1232,1236,1232,1232,1232,1227,1223,1223,1223,1219,1219,1219,1214,1214,1214,1214,1214,1214,1214,1054,1054,1054,1054,1054,1050,1047,1038,1031,1028,1025,1022,1019,1016,1016,1010,1007,1004,1001,998,992,992,992,992,989,989,987,987,987,987,987,987,987,984,981,978,978,975,975,973,970,970,821,821,819,819,0,0,0,0,0,0,0,0,0,0,0,0,0,0,0,0,0,0,0,0,0,0,0,0,0,0,0,0,0,0,0,0,0,0,0,0,0
0,0,0,0,0,0,0,0,0,0,1536,1529,1529,1529,1529,1529,1529,1529,1529,1529,1529,1523,1523,1529,1529,1529,1529,1529,1529,1529,1529,1523,1523,1516,1516,1516,1516,1509,1509,1509,1509,1509,1509,1509,1509,1509,1004,1004,1004,1004,1004,1001,1001,1001,1001,1001,1004,1004,1007,1007,1010,1010,1010,1013,1013,1013,1016,1016,1016,1016,1016,1016,0,0,0,1516,1509,1503,1503,1503,0,0,0,0,0,0,0,0,0,0,0,0,0,0,778,774,774,773,771,771,769,764,764,764,686,686,686,686,686,684,684,686,687,687,688,694,696,696,696,697,697,698,700,701,703,704,704,707,707,708,708,710,711,711,713,714,716,717,719,720,722,725,727,728,728,730,730,731,733,734,736,738,741,741,741,742,744,744,746,747,747,749,750,752,754,754,755,757,757,757,759,761,761,764,764,766,767,767,773,773,773,1206,1206,1202,1202,1202,1206,1202,1202,1202,1206,1206,1206,1206,1206,1210,1210,1210,1210,1210,1210,1210,1210,1214,1214,1214,1214,1219,1223,1223,1227,1227,1227,1232,1232,1232,1232,1236,1236,1241,1241,1241,1245,1245,1245,1250,1250,1250,1250,1250,1250,1245,1236,1236,1268,1288,1288,1288,1288,1288,1283,1283,1283,1283,1283,1283,1283,1283,1288,1288,1288,1288,1292,1292,1297,1439,1439,1439,1439,1439,1439,1439,1439,1439,1439,1439,1439,1439,1439,1439,1433,1433,1433,1433,1433,1427,1427,1433,1433,1433,1433,1433,1427,1427,1427,1427,1421,1421,1421,1421,1421,1427,1421,1421,1421,1421,1421,1415,1415,1415,1415,1415,1415,1410,1410,1410,1410,0,1028,1028,1025,1025,1025,1022,1022,1016,1016,1013,1010,1010,1010,1010,1010,1010,1010,1013,1016,1016,1019,1022,1022,1025,1025,1025,1028,1028,1415,1415,1415,1410,1410,1404,1404,1404,1404,1404,1404,1404,1404,1404,1404,1404,1404,1404,1404,1404,1398,1398,1398,1398,1398,1398,1398,1398,1398,1398,1392,1392,1392,1392,1392,1392,1392,1392,1392,1392,1392,1392,1392,1392,1392,1392,1392,1392,1398,1392,1392,1392,1392,1392,1392,1392,1387,1387,1387,1387,1387,1387,1387,1387,1381,1381,1381,1381,1376,1376,1376,1376,1376,1376,1376,1376,1376,1376,1376,1376,1376,1376,1376,1376,1376,1370,1370,1370,1370,1370,1370,1370,1370,1370,1370,1370,1370,1370,1370,1365,1365,1365,1365,1365,1365,1365,1370,1370,1370,1370,1370,1365,1365,1359,1359,1359,1354,1354,1354,1354,1359,1359,1359,1359,1359,1359,1354,1354,1354,1354,1354,1354,1354,1349,1349,1349,1349,1349,1349,1349,1349,1349,1349,1343,1343,1343,1343,1343,1338,1338,1338,1338,1333,1333,1333,1333,1333,1333,1333,1328,1328,1322,1317,1317,1312,1312,1312,1307,1307,1307,1307,1297,1292,1292,1292,1288,1288,1288,1288,1288,1288,1283,1283,1278,1273,1273,1268,1268,1268,1259,1255,1255,1250,1250,1250,1250,1250,1250,1245,1236,1236,1236,1232,1232,1232,1232,1232,1227,1227,1223,1219,1219,1219,1219,1214,1214,1214,1214,1214,1214,1214,1054,1054,1054,1054,1054,1050,1034,1031,1028,1025,1025,1022,1019,1016,1010,1007,1004,1001,1001,998,992,992,992,989,989,989,989,987,987,987,987,987,987,984,981,978,978,829,827,823,823,823,821,821,819,819,0,0,0,0,0,0,0,0,0,0,0,0,0,0,0,0,0,0,0,0,0,0,0,0,0,0,0,0,0,0,0,0,0,0,0,0,0
0,0,0,0,0,0,0,0,0,0,1529,1523,1523,1523,1523,1523,1523,1516,1516,1523,1523,1516,1516,1516,1516,1523,1523,1523,1529,1529,1529,1516,1516,1516,1516,1509,1509,1509,1509,1509,1509,1509,1509,1509,1509,1509,1004,1004,1004,1007,1007,1004,1004,1004,1004,1004,1007,1007,1007,1007,1007,1010,1010,1013,1013,1013,1016,1016,1019,1016,1016,1016,1016,0,1516,1516,1503,1503,1496,1489,1483,1483,0,0,0,0,0,0,0,0,0,0,0,0,0,774,773,773,771,769,766,764,764,764,759,686,686,686,686,686,686,686,687,687,696,696,696,697,697,697,698,698,701,701,703,704,704,707,708,708,710,710,711,711,713,714,716,717,720,720,720,727,727,728,728,730,731,731,733,734,736,738,741,741,741,742,744,746,747,747,747,749,750,752,754,754,755,757,757,757,759,761,761,764,766,0,0,0,1193,1193,1193,1197,1197,1197,1197,1197,1197,1197,1202,1202,1202,1202,1206,1206,1206,1206,1210,1210,1210,1210,1210,1210,1210,1214,1214,1214,1214,1219,1223,1227,1227,1227,1227,1227,1232,1232,1232,1236,1236,1241,1241,1241,1245,1245,1245,1250,1250,1250,1250,1250,1250,1245,1232,1232,1288,1288,1288,1288,1288,1288,1283,1283,1283,1283,1283,1283,1283,1283,1288,1288,1288,1297,1297,1297,1297,1433,1433,1433,1433,1433,1433,1433,1433,1433,1433,1433,1433,1433,1433,1433,1433,1427,1427,1427,1427,1421,1421,1421,1427,1427,1427,1427,1421,1421,1421,1415,1415,1415,1415,1415,1415,1415,1415,1415,1415,1415,1415,1415,1415,1415,1410,1410,1410,1410,1410,1410,1410,0,0,1028,1028,1025,1025,1025,1022,1019,1016,1013,1010,1010,1010,1010,1010,1010,1010,1013,1016,1016,1019,1022,1025,1025,1028,1028,1028,1031,1031,1410,1410,1404,1404,1404,1404,1404,1404,1404,1398,1398,1404,1398,1398,1398,1398,1398,1398,1398,1398,1398,1398,1398,1398,1392,1392,1392,1392,1392,1392,1392,1387,1387,1392,1392,1392,1392,1392,1392,1392,1387,1387,1387,1387,1387,1387,1387,1387,1387,1387,1387,1392,1387,1387,1387,1387,1381,1381,1381,1381,1381,1381,1381,1376,1376,1376,1376,1376,1376,1376,1376,1376,1376,1376,1376,1376,1376,1370,1370,1370,1370,1370,1370,1370,1370,1370,1370,1370,1370,1370,1370,1370,1365,1365,1365,1365,1365,1365,1359,1359,1365,1359,1359,1359,1359,1359,1359,1359,1365,1365,1365,1359,1354,1354,1354,1354,1354,1354,1354,1354,1354,1359,1354,1354,1354,1354,1354,1354,1349,1349,1349,1349,1349,1349,1349,1349,1349,1349,1349,1349,1343,1343,1343,1343,1338,1333,1333,1333,1333,1333,1333,1333,1333,1333,1333,1333,1333,1333,1328,1328,1322,1317,1317,1312,1312,1312,1307,1307,1307,1307,1307,1292,1292,1292,1288,1288,1288,1288,1288,1288,1283,1273,1273,1268,1268,1268,1268,1268,1264,1255,1255,1250,1250,1250,1250,1250,1250,1250,1236,1236,1236,1232,1232,1232,1232,1232,1232,1227,1227,1219,1219,1219,1219,1214,1214,1214,1214,1214,1057,1057,1057,1054,1054,1054,1054,1047,1034,1031,1028,1025,1025,1019,1016,1016,1010,1004,1001,998,995,992,989,989,989,989,987,987,987,987,987,984,984,984,984,981,981,981,829,827,825,823,823,823,821,821,819,819,0,0,0,0,0,0,0,0,0,0,0,0,0,0,0,0,0,0,0,0,0,0,0,0,0,0,0,0,0,0,0,0,0,0,0,0,0
0,0,0,0,0,0,0,0,0,1523,1523,1516,1516,1516,1516,1516,1516,1516,1516,1516,1516,1516,1509,1509,1509,1516,1516,1516,1516,1516,1523,1516,1516,1516,1509,1509,1509,1509,1509,1503,1503,1503,1503,1503,1503,1503,1509,1007,1007,1007,1007,1007,1007,1004,1004,1007,1007,1007,1007,1007,1007,1010,1010,1013,1013,1013,1016,1016,1019,1016,1016,1016,1016,0,1509,1509,1503,1496,1496,1483,1483,1483,0,0,0,0,0,0,0,0,0,0,0,0,0,0,773,773,771,769,766,764,764,764,761,761,761,710,710,710,710,708,708,698,698,697,697,697,697,698,698,698,701,703,704,704,707,707,708,710,711,711,713,713,714,716,716,717,719,720,720,727,728,728,730,730,731,733,733,734,738,739,741,741,742,744,744,746,747,747,749,749,750,752,752,754,755,757,757,757,759,761,761,761,761,761,0,0,1193,1193,1193,1197,1193,1193,1193,1197,1197,1197,1197,1197,1202,1202,1202,1202,1206,1206,1206,1210,1210,1210,1210,1210,1210,1214,1214,1214,1219,1219,1223,1227,1227,1227,1227,1227,1232,1232,1232,1236,1236,1241,1241,1241,1245,1245,1245,1250,1255,1427,1433,1433,1433,1433,1232,1232,1292,1292,1288,1288,1288,1288,1288,1283,1283,1283,1283,1283,1283,1283,1288,1288,1288,1297,1297,1297,1297,1427,1427,1427,1427,1427,1427,1427,1433,1433,1433,1433,1433,1427,1427,1427,1427,1421,1421,1421,1421,1421,1421,1421,1421,1421,1421,1421,1415,1415,1415,1415,1415,1415,1410,1410,1415,1415,1410,1410,1410,1410,1410,1410,1410,1410,1410,1410,1410,1404,1404,1404,1404,0,0,1028,1028,1028,1025,1025,1025,1022,1016,1013,1013,1010,1010,1010,1010,1010,1010,1013,1016,1019,1019,1022,1025,1028,1028,1028,1028,1031,1031,1398,1398,1398,1398,1398,1398,1398,1398,1398,1398,1398,1398,1398,1398,1398,1392,1392,1392,1392,1392,1392,1392,1392,1392,1392,1392,1387,1387,1392,1387,1387,1387,1387,1387,1387,1387,1387,1387,1387,1387,1387,1387,1387,1381,1381,1387,1387,1387,1387,1387,1387,1381,1381,1387,1381,1381,1381,1376,1376,1376,1376,1376,1376,1376,1376,1376,1376,1376,1376,1376,1376,1370,1370,1370,1370,1370,1370,1370,1370,1370,1370,1370,1370,1365,1365,1365,1365,1365,1365,1365,1365,1365,1365,1365,1359,1359,1359,1359,1359,1359,1359,1359,1354,1354,1354,1354,1354,1354,1354,1354,1354,1354,1349,1349,1349,1349,1349,1349,1349,1354,1354,1354,1354,1349,1349,1349,1349,1349,1349,1349,1349,1349,1349,1349,1349,1349,1349,1349,1343,1343,1343,1343,1338,1338,1333,1333,1333,1333,1328,1328,1333,1333,1333,1333,1333,1333,1328,1328,1328,1322,1322,1317,1312,1312,1312,1312,1307,1307,1307,1307,1307,1297,1292,1292,1292,1288,1288,1288,1288,1288,1283,1273,1273,1268,1268,1268,1268,1268,1264,1259,1259,1255,1255,1255,1250,1250,1250,1250,1236,1236,1236,1232,1232,1232,1232,1232,1232,1232,1227,1223,1219,1219,1219,1214,1214,1214,1214,1214,1057,1057,1057,1054,1054,1054,1054,1044,1034,1031,1028,1025,1022,1016,1013,1013,1010,1004,1001,998,995,992,989,989,989,989,987,987,987,987,984,984,981,981,984,981,981,829,829,827,825,823,823,823,821,821,819,819,0,0,0,0,0,0,0,0,0,0,0,0,0,0,0,0,0,0,0,0,0,0,0,0,0,0,0,0,0,0,0,0,0,0,0,0,0
0,0,0,0,0,0,0,0,0,1516,1516,1516,1516,1516,1516,1516,1516,1516,1516,1516,1516,1509,1509,1503,1503,1509,1509,1509,1509,1509,1516,1516,1509,1509,1509,1509,1509,1503,1503,1503,1503,1503,1503,1496,1496,1509,0,1013,1013,1013,1013,1010,1007,1007,1007,1007,1007,1004,1004,1007,1007,1010,1010,1013,1013,1013,1016,1016,1019,1019,1016,1016,1016,0,1509,1509,1503,1496,1489,1483,1483,1477,1458,1458,0,0,0,0,0,0,0,0,0,0,0,0,0,773,769,769,766,764,764,764,761,761,761,757,710,710,710,708,704,700,698,698,698,698,698,698,698,700,701,703,704,704,707,708,708,710,711,711,713,714,714,716,716,717,719,720,720,727,728,728,731,731,733,733,734,736,738,739,741,741,742,744,744,746,747,747,749,749,749,750,752,754,754,757,757,757,759,761,761,761,0,0,0,0,1193,1193,1193,1193,1193,1193,1193,1193,1197,1197,1197,1197,1197,1197,1197,1202,1202,1202,1206,1206,1210,1210,1210,1210,1210,1214,1214,1214,1219,1219,1223,1227,1227,1227,1227,1227,1227,1232,1232,1236,1236,1241,1241,1245,1245,1427,1427,1427,1427,1427,1427,1427,1433,1427,1427,1427,1433,1292,1288,1288,1292,1288,1288,1288,1283,1283,1283,1283,1283,1283,1288,1288,1288,1292,1297,1297,1297,1421,1421,1421,1421,1421,1421,1421,1421,1421,1421,1427,1427,1421,1421,1421,1421,1421,1415,1415,1415,1415,1415,1415,1415,1415,1415,1415,1415,1415,1415,1415,1410,1410,1410,1410,1410,1410,1410,1410,1410,1410,1410,1410,1404,1404,1404,1404,1398,1398,1398,1398,1398,1392,1392,1028,1028,1028,1028,1025,1025,1022,1016,1016,1013,1013,1013,1010,1010,1010,1010,1013,1016,1019,1019,1025,1025,1028,1028,1028,1028,1031,1031,1392,1392,1392,1392,1392,1392,1392,1392,1398,1398,1398,1398,1392,1392,1392,1392,1392,1387,1387,1387,1387,1387,1392,1392,1387,1387,1387,1387,1387,1387,1381,1381,1381,1381,1381,1381,1381,1381,1381,1381,1381,1381,1381,1376,1376,1376,1376,1381,1381,1381,1381,1381,1376,1376,1376,1376,1376,1376,1376,1376,1376,1370,1370,1370,1370,1370,1376,1376,1370,1370,1370,1370,1370,1365,1365,1365,1365,1365,1365,1365,1365,1365,1365,1365,1365,1365,1359,1359,1365,1365,1365,1365,1359,1359,1359,1359,1354,1354,1354,1354,1359,1354,1354,1354,1354,1354,1354,1349,1349,1349,1349,1343,1343,1343,1349,1349,1349,1349,1349,1349,1349,1349,1349,1349,1349,1349,1349,1349,1343,1343,1343,1343,1343,1343,1338,1338,1338,1343,1338,1338,1338,1338,1333,1333,1333,1328,1328,1328,1328,1328,1328,1328,1328,1328,1328,1328,1328,1328,1328,1322,1317,1317,1312,1312,1312,1312,1312,1307,1307,1307,1307,1297,1292,1292,1292,1288,1288,1288,1288,1288,1288,1283,1283,1273,1273,1273,1273,1268,1264,1264,1259,1259,1255,1255,1255,1250,1250,1250,1245,1241,1236,1236,1236,1236,1232,1232,1232,1232,1232,1227,1223,1223,1219,1219,1214,1214,1214,1060,1060,1057,1057,1054,1054,1050,1050,1041,1028,1025,1025,1016,1016,1016,1013,1010,1007,1004,1001,998,995,992,989,989,989,989,987,987,987,987,984,984,981,981,981,984,829,829,829,827,825,823,823,823,821,821,819,819,0,0,0,0,0,0,0,0,0,0,0,0,0,0,0,0,0,0,0,0,0,0,0,0,0,0,0,0,0,0,0,0,0,0,0,0,0
0,0,0,0,0,0,0,0,0,1516,1509,1509,1509,1509,1516,1516,1516,1509,1509,1516,1509,1509,1503,1503,1503,1503,1503,1503,1509,1509,1509,1509,1509,1509,1503,1503,1503,1503,1503,1503,1496,1496,1496,1496,1496,1509,0,0,1013,1013,1013,1013,1010,1007,1007,1007,1007,1004,1004,1007,1010,1010,1013,1013,1013,1013,1016,1016,1019,1019,1016,1016,1016,1022,0,1503,1503,1496,1489,1483,1483,1477,1458,1458,1464,1464,0,0,0,0,0,0,0,0,0,0,0,0,769,767,766,764,764,764,762,757,757,757,757,708,708,708,704,700,698,698,698,698,698,700,700,701,703,703,704,704,707,708,710,710,713,713,714,714,714,716,716,717,719,720,720,727,728,730,731,733,733,734,734,736,739,739,741,742,742,744,744,746,747,747,749,749,749,750,752,754,754,755,757,757,759,759,759,1181,1181,1181,1181,1193,1193,1193,1193,1193,1193,1193,1193,1193,1193,1197,1197,1197,1197,1197,1197,1202,1202,1202,1206,1206,1210,1210,1210,1210,1210,1214,1214,1214,1219,1219,1223,1223,1227,1227,1227,1227,1227,1232,1232,1236,1236,1433,1427,1427,1427,1427,1427,1427,1427,1427,1427,1427,1427,1421,1421,1427,1427,1302,1292,1292,1292,1288,1288,1288,1283,1283,1283,1283,1283,1283,1288,1288,1288,1292,1297,1297,1297,1415,1415,1415,1415,1415,1415,1415,1415,1415,1415,1415,1415,1415,1415,1415,1415,1415,1410,1410,1410,1410,1415,1415,1415,1415,1415,1415,1410,1410,1410,1410,1410,1410,1410,1410,1410,1404,1404,1404,1410,1404,1404,1404,1398,1398,1398,1398,1398,1398,1392,1392,1392,1392,1392,1031,1031,1028,1028,1028,1028,1025,1019,1016,1013,1013,1013,1013,1013,1013,1013,1013,1016,1019,1022,1025,1028,1028,1028,1028,1028,1031,1031,1387,1387,1387,1387,1392,1392,1392,1392,1392,1392,1392,1392,1392,1392,1392,1387,1387,1381,1381,1381,1381,1381,1381,1381,1381,1381,1381,1381,1381,1381,1381,1381,1381,1376,1376,1376,1376,1376,1376,1376,1376,1376,1381,1376,1376,1376,1376,1376,1376,1376,1376,1376,1376,1376,1370,1370,1370,1370,1370,1370,1370,1370,1370,1370,1370,1370,1370,1370,1370,1365,1365,1365,1365,1365,1365,1365,1365,1365,1365,1365,1359,1359,1359,1359,1359,1359,1359,1359,1359,1354,1354,1354,1354,1354,1354,1354,1354,1354,1354,1354,1354,1354,1354,1354,1354,1349,1349,1349,1349,1343,1343,1338,1338,1338,1338,1338,1343,1343,1343,1343,1343,1343,1343,1343,1343,1343,1343,1343,1343,1338,1338,1338,1338,1338,1338,1333,1333,1333,1333,1333,1333,1333,1328,1328,1328,1328,1322,1322,1328,1328,1328,1328,1328,1328,1328,1328,1328,1328,1328,1322,1317,1317,1312,1312,1312,1312,1312,1307,1307,1302,1302,1292,1292,1292,1292,1292,1292,1288,1288,1288,1288,1283,1283,1278,1278,1273,1273,1268,1268,1264,1264,1259,1259,1255,1255,1255,1250,1250,1250,1241,1236,1236,1236,1236,1232,1232,1232,1232,1232,1227,1223,1223,1223,1219,1219,1219,1057,1057,1057,1054,1054,1054,1050,1050,1050,1041,1025,1019,1016,1016,1016,1013,1010,1007,1004,1001,998,998,992,992,992,989,989,989,989,989,989,984,984,981,981,981,981,831,829,829,829,827,825,825,823,823,823,821,821,821,0,0,0,0,0,0,0,0,0,0,0,0,0,0,0,0,0,0,0,0,0,0,0,0,0,0,0,0,0,0,0,0,0,0,0,0,0
0,0,0,0,0,0,0,0,0,1509,1509,1509,1509,1509,1509,1509,1509,1509,1509,1509,1509,1503,1503,1496,1496,1503,1503,1503,1503,1503,1503,1503,1503,1503,1503,1496,1496,1496,1496,1496,1489,1489,1489,1496,1496,1509,1509,0,1013,1013,1013,1013,1010,1010,1010,1007,1007,1004,1004,1007,1010,1010,1013,1013,1013,1013,1016,1019,1019,1022,1022,1022,1022,1022,0,1503,1503,1489,1483,1477,1477,1470,1470,1464,1464,1464,1464,0,0,0,0,0,0,0,0,0,0,0,769,767,766,766,764,764,761,757,757,757,754,754,708,708,708,700,698,698,698,698,698,700,701,701,703,704,704,706,707,708,710,710,713,713,714,714,716,716,716,717,720,720,722,727,728,730,731,733,733,734,736,738,739,739,741,742,742,742,744,746,747,747,749,749,749,750,752,754,754,755,757,757,757,1177,1177,1181,1181,1181,1181,0,1193,1193,1193,1193,1193,1193,1193,1193,1193,1193,1193,1197,1197,1197,1197,1197,1202,1202,1206,1206,1210,1210,1210,1214,1214,1214,1214,1219,1219,1219,1223,1223,1227,1223,1223,1223,1232,1232,1232,1427,1427,1427,1427,1427,1427,1427,1427,1427,1421,1421,1421,1427,1427,1421,1421,1421,1421,1302,1297,1297,1297,1292,1288,1288,1283,1283,1283,1283,1283,1288,1288,1288,1292,1292,1292,1292,1292,1415,1415,1415,1415,1415,1415,1410,1410,1410,1410,1410,1415,1415,1415,1415,1415,1410,1410,1410,1410,1410,1410,1410,1410,1410,1410,1410,1410,1404,1404,1404,1404,1404,1404,1404,1404,1398,1398,1398,1398,1398,1398,1398,1398,1398,1398,1392,1392,1392,1392,1392,1387,1387,1387,1031,1031,1031,1031,1028,1028,1025,1019,1019,1016,1013,1013,1013,1013,1013,1013,1013,1016,1019,1022,1025,1028,1028,1028,1028,1028,1031,1031,1381,1381,1381,1381,1387,1387,1387,1387,1387,1392,1392,1392,1392,1392,1387,1381,1381,1381,1376,1376,1376,1376,1376,1376,1376,1376,1381,1381,1381,1376,1376,1376,1376,1376,1376,1370,1370,1370,1370,1370,1376,1376,1376,1376,1370,1370,1370,1370,1370,1370,1370,1370,1370,1370,1370,1370,1370,1370,1365,1365,1365,1365,1365,1365,1365,1365,1365,1365,1365,1359,1359,1359,1359,1359,1359,1354,1354,1354,1354,1359,1354,1354,1354,1354,1354,1354,1354,1354,1354,1354,1354,1354,1349,1349,1349,1349,1349,1349,1349,1349,1349,1349,1349,1349,1349,1349,1349,1349,1349,1343,1343,1338,1338,1338,1338,1338,1333,1333,1333,1333,1338,1338,1338,1338,1338,1338,1338,1338,1338,1338,1333,1333,1333,1333,1333,1333,1333,1333,1333,1333,1328,1328,1328,1328,1322,1322,1322,1322,1322,1322,1328,1328,1328,1328,1328,1328,1322,1317,1317,1317,1317,1312,1312,1312,1312,1312,1307,1307,1307,1302,1302,1292,1292,1292,1292,1292,1292,1288,1288,1288,1288,1288,1283,1283,1278,1273,1273,1268,1268,1268,1264,1259,1259,1255,1255,1255,1250,1250,1250,1245,1241,1236,1236,1236,1236,1232,1232,1232,1232,1227,1227,1227,1223,1223,1219,1057,1057,1057,1057,1054,1054,1050,1050,1050,1050,1041,1022,1019,1016,1013,1013,1010,1007,1004,1004,1001,998,995,992,992,992,989,989,989,989,989,989,984,984,981,981,831,831,829,829,829,829,827,827,825,825,825,823,823,821,821,0,0,0,0,0,0,0,0,0,0,0,0,0,0,0,0,0,0,0,0,0,0,0,0,0,0,0,0,0,0,0,0,0,0,0,0,0
0,0,0,0,0,0,0,0,0,1503,1503,1503,1503,1503,1503,1509,1509,1503,1503,1503,1503,1503,1496,1496,1496,1496,1496,1496,1496,1496,1496,1496,1496,1496,1496,1489,1489,1489,1489,1489,1483,1483,1483,1489,1489,1516,1516,0,1013,1013,1013,1013,1010,1010,1010,1007,1007,1004,1004,1007,1010,1010,1013,1013,1013,1013,1016,1019,1019,1022,1022,1022,1022,1022,0,1489,1489,1483,1477,1470,1470,1470,1464,1464,1464,1464,1458,1458,0,0,0,0,0,0,0,0,0,0,0,0,766,764,764,764,759,755,754,754,754,754,754,0,700,700,698,698,700,700,700,700,701,701,703,704,704,706,708,710,711,713,714,714,714,714,716,716,716,719,720,720,723,727,728,730,733,733,734,734,736,738,739,739,741,742,742,742,744,746,746,747,749,749,749,750,752,754,754,754,1165,1177,1177,1177,1177,1177,1177,1181,1181,1181,1185,1189,1189,1189,1193,1193,1189,1189,1193,1193,1193,1193,1193,1197,1197,1197,1197,1202,1202,1206,1210,1210,1210,1214,1214,1214,1214,1219,1219,1219,1223,1223,1227,1223,1223,1223,1232,1232,1421,1421,1421,1427,1427,1421,1421,1427,1421,1421,1421,1421,1421,1421,1421,1415,1415,1415,1415,1302,1297,1297,1297,1292,1288,1288,1283,1283,1283,1283,1283,1288,1288,1292,1297,1292,1292,1292,1292,1415,1415,1415,1410,1410,1410,1410,1410,1410,1404,1404,1410,1410,1410,1410,1410,1410,1404,1404,1404,1404,1404,1404,1398,1398,1398,1398,1398,1398,1398,1398,1398,1398,1398,1404,1398,1398,1398,1398,1398,1398,1398,1398,1398,1398,1392,1392,1392,1392,1387,1387,1387,1387,1387,1376,1031,1031,1031,1028,1028,1025,1022,1019,1016,1016,1013,1013,1013,1013,1013,1013,1016,1022,1022,1025,1028,1028,1031,1028,1028,1031,1031,1370,1370,1370,1376,1376,1376,1376,1381,1381,1381,1381,1381,1387,1381,1381,1376,1376,1376,1376,1376,1376,1376,1376,1376,1376,1376,1376,1376,1376,1376,1376,1376,1370,1370,1370,1370,1370,1370,1370,1370,1370,1370,1370,1370,1365,1365,1365,1365,1365,1365,1365,1365,1370,1365,1365,1365,1365,1365,1365,1359,1359,1359,1359,1354,1354,1359,1359,1365,1359,1359,1354,1354,1354,1354,1354,1354,1354,1354,1354,1354,1354,1349,1349,1349,1354,1349,1349,1349,1349,1349,1349,1349,1349,1349,1343,1343,1343,1349,1343,1343,1343,1343,1343,1343,1343,1343,1343,1343,1343,1338,1338,1338,1338,1333,1333,1333,1333,1333,1333,1333,1333,1333,1333,1333,1333,1333,1333,1333,1333,1333,1333,1333,1333,1333,1328,1328,1328,1328,1328,1328,1328,1328,1328,1322,1322,1317,1317,1322,1317,1317,1317,1322,1322,1322,1322,1317,1317,1317,1317,1317,1312,1312,1312,1312,1312,1312,1307,1307,1307,1302,1302,1297,1292,1292,1292,1292,1292,1288,1288,1288,1288,1288,1283,1283,1278,1273,1273,1268,1268,1268,1264,1259,1259,1255,1255,1255,1250,1250,1250,1250,1241,1236,1236,1236,1236,1236,1232,1232,1232,1227,1227,1227,1227,1227,1057,1057,1057,1057,1054,1054,1054,1050,1050,1044,1025,1025,1019,1016,1016,1013,1013,1010,1007,1004,1001,1001,998,995,992,992,992,992,992,989,989,989,989,987,987,987,831,831,831,829,829,829,827,827,827,827,827,827,825,825,823,823,0,0,0,0,0,0,0,0,0,0,0,0,0,0,0,0,0,0,0,0,0,0,0,0,0,0,0,0,0,0,0,0,0,0,0,0,0
0,0,0,0,0,0,0,0,0,1503,1503,1503,1496,1496,1503,1503,1503,1503,1496,1496,1496,1489,1489,1489,1489,1489,1489,1489,1496,1489,1489,1489,1489,1489,1489,1489,1489,1483,1483,1483,1483,1483,1483,1489,1489,1489,1489,0,1013,1013,1013,1010,1010,1010,1010,1007,1007,1004,1004,1007,1010,1010,1013,1013,1016,1016,1019,1019,1019,1022,1022,1022,1025,1025,0,1489,1489,1477,1470,1470,1470,1464,1464,1464,1464,1458,1458,1458,1458,0,0,0,0,0,0,0,0,0,0,0,766,764,764,764,759,755,754,752,752,752,0,0,0,700,698,698,700,700,700,700,701,701,703,704,704,706,708,710,711,713,714,714,716,716,716,717,717,719,720,720,723,727,728,731,733,733,734,734,736,738,739,739,741,741,742,742,744,746,746,747,747,749,749,750,750,1165,1165,1165,1165,1169,1173,1177,1177,1177,1177,1181,1181,1181,1181,1185,1185,1185,1189,1189,1189,1189,1189,1193,1193,1193,1193,1197,1197,1197,1197,1202,1202,1206,1210,1210,1210,1214,1214,1214,1214,1219,1219,1223,1223,1227,1227,1227,1223,1223,1415,1415,1415,1415,1421,1421,1421,1421,1421,1421,1421,1421,1421,1415,1415,1415,1415,1415,1415,1415,1415,1415,1302,1302,1302,1297,1288,1288,1288,1283,1283,1283,1288,1288,1288,1292,1297,1297,1297,1292,1292,1415,1415,1410,1410,1410,1410,1410,1404,1404,1404,1404,1404,1404,1404,1404,1404,1404,1398,1398,1398,1392,1392,1392,1392,1392,1392,1392,1392,1392,1392,1392,1398,1398,1398,1398,1398,1392,1392,1398,1398,1398,1392,1392,1398,1398,1392,1392,1387,1387,1387,1387,1381,1376,1376,1376,1038,1031,1031,1028,1028,1025,1022,1019,1016,1016,1013,1013,1013,1013,1013,1016,1016,1022,1025,1025,1028,1028,1028,1031,1031,1034,1365,1365,1365,1370,1370,1370,1370,1370,1370,1370,1370,1376,1376,1381,1376,1376,1376,1376,1370,1370,1370,1370,1370,1370,1370,1370,1370,1370,1370,1370,1370,1370,1370,1370,1370,1365,1365,1359,1359,1359,1365,1365,1365,1365,1365,1359,1359,1359,1359,1359,1359,1359,1359,1365,1365,1359,1359,1359,1359,1359,1359,1359,1354,1354,1354,1354,1354,1349,1349,1354,1354,1354,1354,1354,1354,1354,1349,1349,1349,1349,1349,1349,1349,1349,1349,1349,1349,1349,1349,1349,1349,1349,1343,1343,1343,1343,1343,1343,1343,1343,1338,1338,1338,1338,1343,1338,1338,1343,1343,1343,1338,1338,1333,1333,1333,1333,1333,1328,1328,1328,1328,1328,1328,1328,1328,1328,1328,1328,1328,1328,1328,1328,1328,1328,1328,1328,1328,1328,1328,1328,1328,1328,1328,1322,1322,1317,1312,1312,1312,1312,1312,1312,1312,1312,1317,1317,1312,1312,1312,1312,1312,1312,1312,1312,1312,1312,1307,1307,1307,1302,1302,1297,1292,1292,1292,1292,1288,1288,1288,1288,1288,1288,1283,1283,1278,1278,1273,1273,1268,1268,1268,1264,1264,1259,1255,1255,1255,1250,1250,1250,1250,1245,1241,1236,1236,1236,1236,1236,1232,1232,1232,1227,1227,1063,1063,1057,1057,1057,1057,1054,1054,1054,1050,1041,1031,1025,1019,1016,1016,1013,1013,1010,1010,1004,1004,1001,1001,998,995,992,992,992,992,992,989,989,989,987,987,987,987,831,831,831,829,829,829,827,827,829,827,827,827,827,825,825,825,0,0,0,0,0,0,0,0,0,0,0,0,0,0,0,0,0,0,0,0,0,0,0,0,0,0,0,0,0,0,0,0,0,0,0,0,0
0,0,0,0,0,0,0,0,0,1503,1496,1496,1496,1496,1496,1496,1496,1496,1489,1489,1489,1489,1489,1489,1489,1489,1489,1489,1489,1489,1489,1483,1483,1483,1483,1483,1483,1483,1483,1483,1477,1477,1483,1483,1489,1489,0,0,0,1013,1010,1010,1010,1010,1010,1007,1007,1004,1004,1007,1010,1013,1013,1013,1016,1019,1019,1019,1019,1022,1022,1025,1025,0,0,0,1470,1470,1470,1464,1464,1458,1458,1458,1458,1458,1458,1458,1458,0,0,0,0,0,0,0,0,0,0,0,0,0,0,0,0,0,754,752,752,752,714,714,700,700,700,700,700,700,700,700,701,703,703,704,706,706,708,710,711,713,714,714,716,716,716,717,717,719,722,722,723,727,728,731,733,734,734,736,738,738,739,739,741,741,742,742,742,744,746,747,747,747,747,1165,1165,1165,1165,1165,1165,1169,1173,1177,1177,1177,1177,1181,1177,1177,1181,1181,1185,1185,1189,1189,1189,1189,1189,1193,1193,1193,1193,1197,1197,1197,1197,1202,1202,1206,1210,1210,1210,1210,1210,1210,1214,1214,1214,1219,1219,1227,1227,1227,1227,1410,1415,1415,1415,1415,1415,1415,1415,1415,1415,1415,1415,1415,1415,1415,1415,1415,1415,1415,1415,1415,1415,1415,1302,1302,1302,1297,1292,1288,1288,1288,1288,1288,1288,1288,1292,1292,1297,1297,1297,1297,1415,1415,1410,1410,1410,1410,1410,1404,1404,1404,1398,1398,1398,1398,1398,1398,1398,1398,1392,1392,1392,1392,1392,1392,1392,1392,1392,1392,1387,1387,1387,1387,1387,1387,1387,1392,1392,1392,1392,1392,1392,1392,1392,1392,1392,1392,1392,1387,1387,1387,1381,1381,1381,1376,1365,1365,1038,1038,1038,1031,1031,1025,1025,1022,1019,1016,1016,1016,1016,1016,1016,1016,1019,1022,1025,1025,1028,1028,1028,1028,1031,1031,1365,1365,1365,1370,1370,1370,1370,1370,1370,1370,1370,1370,1370,1370,1370,1370,1370,1370,1370,1370,1370,1365,1365,1365,1370,1370,1370,1370,1370,1370,1370,1370,1370,1365,1365,1359,1359,1359,1359,1359,1359,1359,1359,1359,1359,1354,1354,1354,1354,1354,1354,1354,1354,1354,1354,1354,1354,1354,1354,1354,1354,1354,1354,1354,1349,1349,1349,1349,1349,1349,1349,1349,1349,1349,1349,1349,1349,1349,1349,1349,1349,1349,1343,1343,1349,1349,1349,1343,1343,1343,1343,1343,1343,1338,1338,1338,1338,1338,1338,1338,1338,1338,1333,1333,1338,1333,1333,1338,1338,1338,1333,1333,1333,1333,1328,1328,1328,1328,1328,1328,1328,1328,1328,1328,1322,1322,1322,1322,1328,1328,1328,1328,1328,1328,1322,1322,1322,1322,1322,1322,1322,1322,1322,1317,1317,1312,1312,1312,1312,1312,1312,1312,1312,1312,1312,1312,1312,1312,1312,1312,1312,1312,1307,1307,1307,1307,1307,1307,1307,1302,1302,1292,1292,1292,1292,1288,1288,1288,1288,1288,1288,1288,1283,1283,1278,1278,1273,1273,1268,1268,1268,1268,1264,1259,1259,1255,1255,1255,1250,1250,1250,1245,1241,1236,1236,1236,1236,1236,1232,1232,1232,1227,1227,1063,1063,1060,1057,1057,1057,1054,1054,1041,1034,1031,1028,1019,1019,1016,1016,1013,1010,1010,1010,1004,1004,1001,1001,998,995,992,992,992,992,992,989,989,987,987,987,831,831,831,831,831,831,831,831,831,831,829,829,829,829,827,827,825,825,0,0,0,0,0,0,0,0,0,0,0,0,0,0,0,0,0,0,0,0,0,0,0,0,0,0,0,0,0,0,0,0,0,0,0,0,0
0,0,0,0,0,0,0,0,0,1489,1489,1496,1489,1489,1489,1496,1496,1496,1489,1489,1489,1489,1489,1489,1483,1483,1483,1483,1483,1483,1483,1483,1483,1483,1483,1483,1483,1477,1477,1477,1470,1470,1470,1470,1477,1477,1477,0,0,1010,1010,1010,1010,1010,1010,1010,1007,1007,1007,1010,1013,1013,1013,1013,1016,1019,1019,1022,1022,1022,1025,1025,1025,1025,1031,0,1458,1458,1458,1458,1458,1452,1452,1452,1458,1452,1452,1452,1452,1452,0,0,0,0,0,0,0,0,0,0,0,0,0,0,0,0,0,0,714,714,714,714,704,704,700,700,700,700,700,701,701,703,703,704,704,706,708,710,711,713,714,714,716,716,716,717,719,719,720,722,723,725,728,731,733,734,734,736,738,738,738,739,739,741,742,742,742,744,746,746,746,1169,0,1169,1165,1165,1165,1165,1165,1173,1173,1177,1177,1177,1177,1177,1177,1177,1177,1181,1181,1181,1189,1189,1189,1189,1189,1193,1193,1193,1193,1197,1197,1197,1197,1202,1202,1206,1206,1210,1210,1210,1210,1210,1214,1214,1214,1219,1219,1404,1404,1404,1410,1410,1410,1415,1415,1415,1415,1415,1415,1415,1410,1410,1410,1410,1410,1410,1410,1410,1410,1410,1410,1410,1410,1410,1410,1307,1302,1297,1292,1292,1288,1288,1288,1288,1288,1288,1292,1297,1297,1297,1297,1297,1410,1410,1410,1410,1404,1404,1404,1398,1398,1398,1392,1392,1392,1392,1392,1392,1392,1392,1392,1387,1387,1387,1387,1387,1387,1387,1387,1387,1387,1387,1387,1387,1387,1387,1387,1387,1387,1387,1387,1387,1392,1392,1387,1387,1387,1387,1387,1387,1381,1381,1381,1381,1376,1370,1365,1359,1359,1038,1038,1031,1031,1025,1025,1022,1019,1016,1016,1016,1016,1016,1016,1016,1019,1022,1025,1025,1028,1028,1028,1028,1031,1034,1381,1381,1376,1376,1370,1370,1370,1365,1365,1365,1365,1365,1365,1365,1365,1365,1365,1370,1365,1365,1365,1365,1365,1365,1365,1365,1365,1365,1365,1365,1365,1365,1359,1359,1359,1359,1354,1354,1354,1354,1354,1354,1354,1354,1354,1354,1354,1354,1354,1354,1354,1354,1354,1354,1354,1349,1349,1349,1349,1349,1349,1349,1349,1349,1349,1343,1343,1343,1343,1343,1343,1343,1343,1343,1343,1343,1343,1343,1343,1343,1343,1343,1343,1343,1343,1343,1343,1343,1343,1343,1338,1338,1338,1338,1333,1333,1333,1333,1333,1333,1333,1333,1333,1333,1328,1328,1333,1333,1333,1333,1328,1328,1328,1328,1328,1322,1322,1322,1322,1322,1322,1322,1322,1322,1317,1317,1322,1322,1322,1322,1322,1322,1322,1322,1322,1322,1322,1322,1317,1317,1317,1317,1322,1317,1317,1312,1312,1312,1307,1307,1307,1307,1307,1307,1307,1307,1307,1307,1307,1307,1307,1307,1307,1307,1307,1307,1307,1307,1302,1302,1302,1292,1292,1292,1292,1288,1288,1288,1288,1288,1288,1288,1283,1283,1278,1278,1273,1273,1268,1268,1268,1268,1264,1264,1259,1255,1255,1255,1255,1255,1250,1250,1245,1241,1241,1236,1236,1236,1232,1232,1232,1227,1227,1063,1060,1060,1057,1054,1054,1047,1047,1041,1031,1028,1025,1019,1016,1016,1016,1013,1010,1010,1007,1004,1004,1001,1001,998,995,992,992,992,992,992,989,987,987,987,987,831,831,831,831,831,831,831,831,831,831,831,831,829,829,829,827,825,825,0,0,0,0,0,0,0,0,0,0,0,0,0,0,0,0,0,0,0,0,0,0,0,0,0,0,0,0,0,0,0,0,0,0,0,0,0
0,0,0,0,0,0,0,0,0,1483,1483,1483,1483,1483,1483,1483,1489,1483,1483,1483,1483,1483,1483,1483,1483,1483,1483,1483,1477,1477,1477,1477,1477,1477,1477,1477,1470,1470,1470,1470,1464,1464,1464,1464,1464,1464,0,1464,0,1010,1010,1010,1010,1010,1010,1010,1010,1010,1010,1010,1013,1013,1013,1016,1016,1019,1019,1022,1022,1022,1025,1025,1028,1031,1031,0,1452,1452,1452,1452,1452,1452,1452,1452,1452,1452,1445,1445,1445,1445,1439,1439,0,0,0,0,0,0,0,0,0,0,0,0,0,0,0,0,717,714,714,714,719,700,700,700,700,700,700,701,703,703,704,704,704,706,708,711,713,714,714,714,714,716,716,717,719,719,720,722,723,725,728,731,733,734,734,736,738,738,738,739,739,741,742,742,744,744,746,746,1169,1169,1169,1169,1169,1165,1165,1165,1169,1173,1177,1177,1177,1177,1177,1177,1177,1177,1177,1177,1181,1181,1185,1189,1189,1189,1189,1193,1193,1193,1193,1197,1197,1197,1202,1202,1202,1206,1206,1210,1210,1210,1210,1210,1214,1214,1214,1410,1410,1404,1404,1404,1410,1410,1410,1410,1410,1410,1410,1410,1410,1410,1410,1410,1404,1404,1404,1404,1404,1404,1404,1404,1404,1404,1410,1410,1410,1302,1302,1297,1297,1292,1292,1288,1288,1288,1288,1292,1292,1297,1297,1297,1297,1297,1410,1410,1410,1404,1404,1404,1398,1398,1392,1392,1392,1387,1387,1387,1387,1387,1387,1387,1387,1381,1381,1381,1381,1381,1381,1381,1387,1387,1381,1381,1381,1381,1381,1381,1376,1376,1381,1381,1376,1376,1376,1376,1381,1381,1381,1381,1381,1381,1376,1376,1376,1376,1370,1370,1365,1354,1354,1038,1038,1034,1034,1028,1025,1022,1019,1019,1016,1016,1016,1016,1016,1016,1019,1022,1025,1025,1028,1028,1028,1028,1031,1031,1031,1376,1376,1376,1370,1370,1365,1365,1365,1365,1365,1365,1365,1365,1365,1359,1359,1359,1359,1359,1365,1359,1359,1359,1359,1359,1354,1354,1359,1359,1359,1359,1359,1354,1354,1354,1354,1349,1349,1349,1349,1349,1349,1349,1349,1349,1349,1349,1349,1349,1349,1349,1349,1349,1349,1349,1349,1349,1349,1349,1349,1349,1349,1343,1343,1338,1338,1338,1338,1338,1338,1338,1338,1338,1338,1338,1338,1338,1338,1338,1338,1343,1338,1338,1338,1338,1338,1338,1338,1338,1333,1333,1333,1333,1333,1333,1328,1328,1333,1328,1328,1328,1328,1328,1328,1328,1328,1328,1328,1328,1328,1328,1328,1322,1322,1322,1322,1317,1317,1317,1317,1317,1317,1317,1312,1312,1312,1312,1312,1312,1312,1317,1317,1312,1312,1317,1317,1317,1317,1312,1312,1317,1317,1312,1312,1307,1307,1307,1307,1307,1307,1307,1307,1307,1307,1302,1302,1302,1302,1302,1302,1302,1302,1302,1302,1302,1302,1302,1302,1302,1297,1292,1292,1292,1292,1288,1288,1288,1288,1288,1288,1288,1283,1283,1278,1278,1278,1273,1273,1268,1268,1268,1268,1264,1259,1259,1259,1255,1255,1255,1250,1250,1245,1241,1241,1236,1236,1236,1236,1232,1232,1227,1073,1063,1060,1060,1057,1054,1054,1047,1047,1038,1028,1025,1022,1019,1016,1016,1016,1016,1016,1010,1007,1004,1004,1004,1001,998,995,992,992,995,992,992,989,987,987,987,831,831,831,831,831,831,831,831,833,833,833,833,831,831,831,829,827,827,827,0,0,0,0,0,0,0,0,0,0,0,0,0,0,0,0,0,0,0,0,0,0,0,0,0,0,0,0,0,0,0,0,0,0,0,0,0
0,0,0,0,0,0,0,0,0,1483,1483,1483,1477,1477,1477,1470,1470,1470,1477,1477,1477,1477,1477,1477,1477,1477,1470,1470,1470,1477,1477,1470,1470,1470,1470,1470,1470,1464,1464,1464,1464,1464,1464,1464,1464,1464,1464,1464,1464,1010,1010,1010,1010,1010,1010,1010,1010,1010,1010,1013,1013,1013,1013,1016,1019,1019,1019,1022,1022,1022,1025,1025,1028,1031,1031,0,1452,1452,1452,1445,1445,1445,1445,1445,1452,1452,1445,1445,1439,1439,1439,1439,1439,1439,0,0,0,0,0,0,0,0,0,0,0,0,0,0,717,717,719,719,719,714,701,701,701,701,701,701,703,703,704,704,704,706,708,711,713,714,714,714,714,716,716,717,719,720,720,722,723,727,728,731,734,734,734,736,738,738,738,739,739,741,742,742,744,746,746,1165,1169,1169,1169,1169,1169,1165,1165,1169,1169,1173,1177,1177,1177,1177,1177,1177,1177,1177,1177,1177,1181,1181,1185,1189,1189,1189,1189,1193,1193,1193,1193,1197,1197,1197,1202,1202,1202,1206,1206,1210,1210,1210,1210,1210,1214,1214,1404,1410,1410,1404,1404,1404,1404,1404,1404,1410,1410,1410,1410,1410,1410,1410,1404,1404,1398,1398,1398,1398,1398,1398,1398,1398,1398,1398,1398,1398,1404,1302,1302,1297,1297,1292,1292,1292,1292,1292,1292,1292,1292,1297,1297,1297,1297,1297,1297,1297,1404,1398,1398,1398,1392,1392,1392,1392,1381,1381,1381,1376,1376,1381,1376,1376,1381,1381,1381,1381,1381,1381,1381,1381,1381,1381,1381,1381,1376,1376,1376,1376,1376,1370,1370,1370,1370,1370,1370,1370,1370,1370,1370,1376,1376,1376,1376,1376,1370,1370,1370,1365,1365,1354,1354,1038,1038,1034,1034,1028,1028,1025,1022,1019,1019,1016,1016,1016,1016,1019,1019,1022,1025,1025,1028,1028,1028,1028,1031,1031,1031,1376,1376,1370,1365,1365,1365,1359,1359,1359,1359,1359,1359,1359,1359,1354,1354,1354,1354,1354,1354,1349,1349,1349,1354,1354,1354,1354,1354,1354,1354,1354,1354,1354,1354,1354,1349,1349,1349,1349,1349,1349,1349,1349,1349,1349,1349,1349,1349,1349,1349,1349,1349,1349,1343,1343,1343,1343,1343,1343,1343,1343,1343,1343,1338,1338,1338,1338,1338,1338,1338,1333,1333,1333,1333,1333,1333,1333,1333,1333,1333,1333,1333,1333,1333,1333,1333,1333,1333,1333,1328,1328,1328,1328,1328,1328,1328,1328,1328,1328,1328,1322,1322,1322,1322,1322,1322,1322,1322,1322,1322,1322,1322,1317,1317,1317,1317,1317,1317,1317,1312,1312,1312,1312,1312,1312,1312,1312,1312,1312,1312,1312,1312,1307,1307,1307,1307,1312,1312,1312,1312,1312,1312,1307,1307,1302,1302,1302,1302,1302,1302,1302,1302,1302,1302,1297,1297,1297,1297,1292,1292,1297,1297,1297,1297,1297,1292,1292,1297,1297,1292,1292,1292,1288,1288,1288,1288,1288,1288,1288,1283,1283,1278,1278,1273,1273,1273,1273,1268,1268,1268,1268,1268,1264,1259,1259,1259,1255,1255,1255,1250,1250,1250,1241,1241,1241,1236,1236,1236,1232,1232,1227,1073,1067,1063,1057,1057,1054,1054,1047,1044,1031,1028,1025,1022,1019,1019,1019,1019,1016,1016,1013,1007,1004,1004,1004,1001,998,995,992,992,992,992,989,989,987,987,987,831,831,831,833,833,833,833,833,833,833,833,833,833,833,831,831,829,829,829,0,0,0,0,0,0,0,0,0,0,0,0,0,0,0,0,0,0,0,0,0,0,0,0,0,0,0,0,0,0,0,0,0,0,0,0,0
0,0,0,0,0,0,0,0,0,1477,1477,1477,1477,1477,1470,1470,1470,1470,1470,1464,1464,1464,1464,1470,1470,1470,1470,1470,1470,1470,1477,1470,1470,1470,1470,1470,1464,1464,1464,1464,1458,1458,1458,1458,1464,1458,1458,1464,1464,1013,1013,1013,1010,1010,1010,1010,1010,1010,1010,1013,1013,1013,1016,1019,1019,1022,1022,1022,1022,1022,1025,1025,1028,1034,1034,1031,1445,1445,1445,1445,1445,1445,1439,1439,1445,1445,1439,1439,1439,1439,1439,1439,1439,1439,0,0,0,0,0,0,0,0,0,0,0,0,0,0,719,719,719,719,717,714,714,704,703,703,703,703,703,704,704,704,706,707,708,711,713,714,714,714,716,716,717,717,719,720,720,722,723,727,728,733,734,734,736,736,738,738,738,739,739,741,742,742,742,0,1149,1165,1165,1165,1165,1165,1165,1165,1165,1165,1165,1169,1173,1173,1173,1173,1177,1177,1177,1177,1177,1177,1181,1181,1185,1189,1189,1189,1189,1193,1193,1193,1193,1197,1197,1197,1202,1202,1202,1202,1206,1206,1210,1210,1210,1210,1404,1404,1404,1404,1404,1404,1404,1404,1398,1398,1398,1398,1404,1404,1404,1404,1404,1404,1398,1398,1398,1398,1392,1392,1392,1392,1392,1392,1392,1392,1398,1398,1398,1398,1302,1302,1297,1297,1292,1292,1292,1292,1292,1292,1297,1297,1297,1302,1297,1297,1297,1297,1404,1392,1392,1392,1387,1387,1387,1381,1376,1376,1376,1370,1370,1376,1376,1376,1376,1376,1376,1376,1376,1376,1376,1376,1376,1376,1376,1376,1376,1376,1370,1370,1370,1370,1370,1365,1365,1365,1365,1365,1365,1365,1365,1365,1365,1370,1370,1370,1370,1370,1365,1365,1354,1354,1359,1038,1038,1038,1034,1034,1028,1025,1025,1022,1019,1019,1019,1019,1019,1019,1022,1025,1025,1025,1028,1028,1028,1028,1031,1031,1031,1376,1376,1365,1359,1359,1359,1354,1354,1354,1354,1354,1354,1354,1354,1354,1349,1349,1349,1349,1349,1349,1349,1349,1349,1349,1349,1349,1349,1354,1354,1349,1349,1349,1349,1349,1349,1349,1343,1343,1349,1349,1343,1343,1343,1343,1343,1343,1343,1343,1343,1343,1343,1343,1338,1338,1338,1338,1338,1338,1343,1343,1338,1338,1338,1338,1333,1333,1333,1333,1333,1333,1333,1333,1333,1333,1333,1333,1333,1333,1333,1333,1333,1333,1328,1328,1328,1328,1328,1328,1328,1328,1322,1322,1322,1322,1322,1322,1322,1322,1322,1322,1322,1322,1322,1322,1317,1317,1317,1317,1317,1317,1317,1317,1317,1312,1312,1312,1312,1312,1312,1312,1312,1307,1307,1307,1307,1307,1307,1307,1307,1307,1307,1307,1307,1302,1297,1297,1297,1302,1307,1307,1307,1302,1302,1302,1297,1297,1297,1297,1297,1302,1297,1297,1292,1292,1292,1297,1297,1292,1292,1292,1292,1292,1292,1292,1292,1292,1292,1292,1288,1288,1288,1288,1288,1283,1283,1283,1283,1283,1283,1283,1278,1278,1273,1273,1273,1273,1268,1268,1268,1268,1268,1264,1264,1259,1259,1255,1255,1255,1250,1250,1250,1245,1241,1241,1236,1236,1236,1232,1232,1227,1073,1067,1060,1057,1054,1054,1050,1044,1041,1031,1028,1025,1022,1019,1019,1019,1019,1016,1016,1013,1010,1004,1004,1004,1001,998,995,992,992,992,992,989,989,989,989,837,837,835,835,835,833,833,835,835,835,835,835,835,833,833,833,831,829,829,829,0,0,0,0,0,0,0,0,0,0,0,0,0,0,0,0,0,0,0,0,0,0,0,0,0,0,0,0,0,0,0,0,0,0,0,0,0
0,0,0,0,0,0,0,0,0,1470,1470,1470,1470,1470,1470,1464,1464,1464,1464,1464,1464,1464,1464,1464,1464,1464,1464,1464,1464,1470,1470,1464,1464,1464,1464,1464,1464,1458,1458,1458,1458,1458,1458,1458,1458,1458,1458,1458,1458,1458,0,1013,1010,1010,1010,1010,1010,1010,1010,1013,1013,1013,1016,1019,1019,1022,1022,1022,1022,1025,1025,1025,1028,1031,1031,1031,0,1433,1433,1433,1439,1439,1439,1439,1439,1439,1439,1439,1433,1433,1433,1433,1433,1433,1439,0,0,0,0,0,0,0,0,0,0,0,0,0,719,719,719,717,716,714,713,706,703,703,703,703,704,704,704,706,706,707,708,711,713,714,714,714,714,716,716,717,719,719,720,722,723,727,730,733,734,734,734,736,738,738,738,739,741,741,741,741,0,1149,1149,1149,1149,1161,1161,1161,1161,1161,1161,1161,1161,1165,1165,1165,1165,1173,1173,1173,1177,1177,1177,1181,1181,1181,1185,1189,1193,1193,1193,1193,1193,1193,1197,1197,1197,1202,1202,1202,1202,1202,1206,1206,1210,1398,1398,1404,1404,1404,1404,1404,1404,1398,1398,1398,1392,1392,1392,1392,1392,1398,1392,1392,1398,1398,1392,1392,1392,1392,1392,1392,1392,1392,1392,1392,1392,1392,1392,1392,1392,1392,1302,1302,1302,1297,1297,1297,1292,1292,1292,1292,1297,1297,1297,1302,1302,1302,1302,1302,1302,1387,1387,1387,1381,1381,1381,1376,1370,1370,1376,1370,1370,1370,1370,1370,1370,1370,1370,1370,1376,1376,1370,1370,1370,1370,1370,1370,1370,1370,1370,1370,1365,1365,1365,1365,1365,1365,1365,1365,1365,1365,1365,1365,1365,1365,1365,1365,1365,1365,1365,1365,1354,1354,1359,1041,1038,1038,1038,1034,1034,1028,1025,1022,1019,1019,1019,1019,1019,1019,1022,1025,1025,1025,1028,1028,1028,1031,1031,1031,1031,1031,1359,1359,1354,1354,1354,1354,1354,1354,1354,1354,1354,1354,1354,1349,1349,1349,1343,1343,1343,1343,1343,1343,1343,1349,1349,1349,1349,1349,1349,1343,1343,1343,1343,1343,1343,1343,1343,1343,1343,1343,1343,1343,1338,1338,1338,1343,1343,1343,1338,1338,1338,1338,1333,1333,1333,1333,1333,1338,1338,1338,1338,1338,1333,1333,1333,1333,1333,1333,1328,1328,1328,1328,1328,1328,1328,1328,1328,1333,1333,1328,1328,1328,1322,1317,1317,1322,1322,1322,1322,1317,1317,1317,1317,1317,1317,1317,1317,1317,1317,1317,1317,1317,1317,1317,1312,1312,1312,1312,1312,1312,1312,1312,1312,1312,1312,1312,1312,1312,1312,1307,1307,1307,1307,1307,1307,1307,1307,1307,1307,1307,1302,1302,1297,1297,1292,1292,1292,1292,1292,1292,1302,1302,1302,1297,1292,1292,1297,1297,1297,1292,1292,1292,1292,1292,1292,1292,1292,1288,1288,1292,1292,1292,1292,1292,1292,1292,1288,1288,1288,1288,1288,1283,1283,1283,1283,1278,1278,1278,1278,1278,1278,1278,1273,1273,1273,1273,1268,1268,1268,1268,1268,1268,1264,1264,1259,1255,1255,1255,1250,1250,1250,1245,1245,1241,1241,1236,1232,1232,1232,1227,1073,1073,1060,1054,1050,1047,1047,1041,1038,1031,1028,1025,1022,1019,1019,1022,1022,1016,1016,1016,1010,1004,1004,1004,0,0,995,995,0,0,0,841,0,0,0,837,837,837,835,835,835,835,835,835,835,835,835,835,835,835,833,833,831,829,829,0,0,0,0,0,0,0,0,0,0,0,0,0,0,0,0,0,0,0,0,0,0,0,0,0,0,0,0,0,0,0,0,0,0,0,0,0
0,0,0,0,0,0,0,0,0,1464,1464,1464,1464,1470,1464,1464,1464,1464,1464,1458,1458,1458,1458,1458,1458,1458,1458,1458,1458,1458,1464,1464,1464,1458,1458,1458,1458,1458,1458,1452,1452,1452,1452,1452,1458,1452,1452,1452,1458,1458,0,1013,1013,1013,1010,1010,1010,1010,1010,1013,1013,1013,1016,1019,1019,1022,1022,1022,1022,1025,1025,1025,1028,1031,1031,1031,0,1433,1433,1433,1433,1439,1433,1433,1433,1433,1433,1433,1433,1433,1433,1433,1433,1433,1433,0,0,0,0,0,0,0,0,0,0,0,0,0,719,719,719,717,716,714,713,707,706,704,703,703,704,704,704,706,706,707,708,711,713,714,714,714,714,716,716,717,719,719,720,722,723,727,730,731,733,734,734,734,736,738,738,739,0,739,1149,1149,1149,1149,1149,1149,1149,1157,1157,1157,1161,1161,1161,1161,1161,1161,1161,1161,1161,1165,1165,1169,1173,1177,1177,1181,1181,1181,1185,1189,1193,1193,1193,1193,1193,1193,1197,1197,1202,1202,1202,1202,1202,1202,1206,1206,1398,1398,1398,1398,1398,1398,1398,1398,1392,1392,1392,1387,1387,1392,1392,1387,1387,1392,1387,1387,1392,1392,1387,1387,1392,1392,1387,1387,1387,1387,1387,1387,1387,1387,1387,1387,1387,1387,1307,1302,1302,1302,1297,1297,1297,1297,1297,1297,1297,1297,1297,1302,1302,1302,1302,1302,1302,1387,1381,1381,1376,1376,1376,1370,1370,1370,1370,1370,1370,1370,1370,1370,1370,1370,1370,1370,1370,1370,1370,1370,1370,1370,1370,1365,1365,1365,1365,1365,1365,1365,1365,1365,1365,1365,1359,1359,1359,1359,1359,1359,1359,1359,1359,1359,1359,1359,1359,1359,1359,1359,1359,1359,1038,1038,1038,1038,1034,1034,1028,1025,1022,1022,1019,1019,1019,1022,1022,1025,1025,1028,1028,1028,1028,1031,1031,1031,1031,1031,1354,1354,1354,1349,1349,1349,1349,1349,1349,1349,1349,1349,1349,1349,1343,1343,1343,1338,1338,1338,1338,1338,1343,1343,1343,1343,1343,1343,1343,1338,1338,1343,1338,1338,1338,1338,1338,1338,1338,1338,1338,1338,1338,1338,1338,1338,1338,1338,1338,1333,1333,1333,1333,1333,1333,1333,1333,1333,1333,1333,1333,1333,1333,1333,1333,1328,1328,1328,1328,1328,1328,1322,1322,1328,1322,1322,1322,1322,1322,1322,1322,1322,1317,1317,1317,1317,1317,1317,1317,1317,1317,1317,1317,1312,1312,1312,1312,1312,1312,1312,1312,1312,1312,1312,1312,1312,1312,1307,1307,1312,1312,1312,1312,1312,1312,1307,1307,1307,1307,1307,1302,1302,1302,1302,1297,1297,1297,1297,1297,1297,1297,1297,1292,1292,1292,1292,1292,1292,1292,1292,1292,1292,1292,1292,1292,1292,1292,1292,1292,1292,1292,1292,1292,1292,1288,1288,1288,1288,1288,1288,1288,1288,1288,1288,1288,1288,1288,1288,1283,1283,1283,1283,1283,1278,1278,1278,1278,1278,1278,1278,1278,1278,1273,1273,1273,1268,1268,1268,1268,1268,1268,1264,1264,1264,1259,1255,1255,1255,1250,1250,1250,1245,1245,1241,1241,1236,1232,1232,1232,1227,1077,1077,1060,1054,1047,1041,1041,1038,1038,1031,1028,1025,1022,1019,1019,1022,1022,1016,1016,1016,1013,1007,1007,1007,0,0,0,0,0,0,0,0,0,0,837,837,837,837,837,837,835,835,835,835,835,835,835,835,835,835,835,835,833,833,833,0,0,0,0,0,0,0,0,0,0,0,0,0,0,0,0,0,0,0,0,0,0,0,0,0,0,0,0,0,0,0,0,0,0,0,0,0
0,0,0,0,0,0,0,0,0,1464,1464,1464,1464,1464,1464,1458,1458,1458,1458,1452,1452,1452,1458,1458,1458,1458,1458,1458,1452,1452,1452,1452,1445,1439,1439,1452,1452,1452,1452,1452,1452,1452,1452,1452,1452,1445,1445,1445,1452,1452,1445,1013,1013,1013,1013,1013,1010,1010,1010,1013,1013,1013,1016,1019,1019,1022,1022,1022,1025,1025,1028,1028,1028,1028,1031,1031,0,1433,1433,1433,1433,1433,1433,1433,1433,1433,1433,1433,1433,1433,1433,1427,1427,1427,1427,1427,0,0,0,0,0,0,0,0,0,0,0,0,0,720,719,719,717,716,713,710,706,704,704,704,704,704,704,706,706,707,708,711,713,713,714,714,714,716,716,717,719,719,720,722,723,727,728,731,733,734,734,734,734,738,738,738,0,1149,1149,1149,1149,1149,1149,1149,1153,1153,1157,1157,1157,1157,1157,1157,1157,1157,1157,1157,1157,1161,1161,1165,1173,1177,1177,1181,1181,1185,1189,1189,1193,1193,1193,1193,1193,1193,1197,1197,1202,1202,1202,1202,1202,1202,1387,1392,1392,1392,1392,1392,1392,1392,1392,1392,1392,1387,1387,1387,1387,1387,1387,1387,1387,1387,1387,1387,1387,1387,1387,1387,1387,1387,1381,1381,1381,1381,1381,1381,1381,1381,1381,1381,1381,1381,1381,1307,1307,1302,1302,1302,1297,1297,1297,1297,1297,1297,1297,1302,1302,1302,1307,1307,1307,1307,1376,1376,1370,1370,1370,1365,1365,1365,1365,1365,1365,1365,1365,1365,1365,1365,1365,1365,1365,1365,1365,1365,1365,1365,1365,1365,1365,1365,1365,1365,1365,1365,1359,1359,1359,1359,1359,1359,1359,1359,1354,1354,1354,1354,1354,1354,1354,1359,1359,1354,1349,1349,1359,1359,1038,1038,1038,1038,1038,1034,1028,1028,1025,1022,1022,1022,1022,1022,1022,1025,1025,1028,1028,1028,1031,1031,1031,1031,1031,1031,1349,1349,1349,1349,1343,1343,1349,1349,1349,1349,1349,1349,1349,1343,1343,1338,1338,1338,1338,1338,1338,1338,1338,1338,1338,1338,1338,1338,1338,1333,1333,1333,1333,1333,1333,1333,1333,1333,1333,1333,1333,1333,1333,1333,1333,1333,1333,1333,1333,1333,1333,1333,1328,1328,1328,1328,1328,1328,1328,1328,1328,1328,1328,1328,1328,1328,1328,1328,1328,1322,1322,1317,1317,1317,1317,1317,1317,1317,1317,1317,1317,1317,1317,1312,1312,1312,1312,1312,1312,1312,1312,1317,1312,1312,1312,1312,1312,1312,1312,1312,1312,1312,1307,1307,1307,1307,1307,1307,1307,1307,1307,1307,1307,1307,1307,1302,1302,1307,1307,1302,1297,1297,1297,1297,1297,1297,1297,1297,1292,1292,1288,1288,1292,1288,1288,1288,1288,1288,1288,1288,1288,1292,1292,1292,1292,1292,1292,1292,1288,1288,1288,1288,1288,1288,1288,1288,1288,1283,1283,1283,1283,1283,1288,1288,1288,1288,1283,1283,1278,1278,1283,1278,1278,1273,1273,1278,1278,1273,1273,1273,1273,1273,1273,1268,1268,1268,1268,1268,1264,1264,1264,1264,1259,1259,1259,1255,1255,1255,1250,1250,1250,1250,1245,1241,1241,1236,1232,1232,1232,1227,1223,1223,1041,1041,1041,1041,1041,1038,1038,1031,1028,1025,1025,1022,1022,1022,1022,1016,1016,1016,1013,1010,1010,1010,0,0,0,0,0,0,0,0,0,0,837,837,837,837,837,837,837,837,837,837,837,835,835,835,835,835,835,835,833,833,833,0,0,0,0,0,0,0,0,0,0,0,0,0,0,0,0,0,0,0,0,0,0,0,0,0,0,0,0,0,0,0,0,0,0,0,0,0
0,0,0,0,0,0,0,0,0,1458,1458,1458,1458,1464,1458,1458,1452,1452,1452,1452,1452,1452,1452,1452,1452,1452,1452,1452,1452,1445,1445,1439,1439,1433,1433,1439,1439,1439,1439,1445,1452,1452,1445,1445,1445,1445,1439,1439,1439,1445,1445,1016,1016,1013,1013,1013,1010,1010,1013,1013,1013,1013,1016,1019,1019,1022,1022,1025,1025,1025,1028,1028,1028,1028,1031,1034,0,1433,1433,1427,1427,1427,1427,1427,1427,1427,1427,1427,1433,1433,1427,1427,1427,1427,1421,1421,0,0,0,0,0,0,0,0,0,0,0,0,0,720,719,717,716,716,714,713,708,706,704,704,704,704,704,706,706,707,708,711,713,713,714,714,716,716,716,717,719,720,720,722,723,727,727,731,733,734,734,734,734,0,0,0,1149,0,1149,1149,1149,1149,1149,1149,1149,1153,1153,1157,1157,1157,1157,1157,1153,1153,1153,1153,1153,1157,1157,1157,1165,1173,1177,1181,1181,1185,1189,1189,1189,1193,1193,1193,1193,1197,1197,1202,1206,1206,1210,1381,1381,1381,1387,1387,1387,1387,1392,1392,1392,1392,1387,1387,1387,1387,1387,1387,1387,1387,1387,1387,1387,1381,1381,1381,1376,1376,1381,1381,1381,1381,1381,1381,1381,1381,1381,1381,1381,1381,1376,1376,1376,1376,1376,1376,1307,1307,1302,1302,1302,1302,1297,1297,1297,1297,1302,1302,1302,1307,1307,1307,1307,1307,1376,1370,1370,1365,1365,1365,1365,1365,1365,1365,1365,1365,1365,1365,1365,1365,1365,1365,1365,1365,1359,1359,1359,1359,1359,1359,1359,1359,1359,1359,1359,1359,1359,1359,1359,1359,1359,1354,1354,1354,1349,1349,1349,1349,1349,1349,1349,1349,1349,1349,1349,1349,1359,1359,1041,1038,1038,1038,1038,1034,1031,1028,1028,1025,1025,1022,1022,1025,1025,1025,1025,1028,1028,1031,1031,1031,1031,1031,1034,1034,1349,1349,1343,1343,1338,1338,1343,1343,1343,1343,1343,1343,1343,1338,1338,1333,1333,1333,1333,1333,1333,1333,1333,1333,1333,1333,1338,1333,1333,1333,1333,1333,1333,1328,1328,1328,1328,1333,1333,1333,1333,1333,1333,1328,1328,1333,1333,1328,1328,1328,1328,1328,1322,1322,1322,1322,1322,1328,1328,1328,1328,1322,1322,1328,1328,1322,1322,1322,1322,1322,1317,1312,1312,1312,1312,1312,1312,1312,1312,1312,1312,1312,1312,1312,1312,1312,1312,1312,1312,1312,1312,1312,1312,1312,1312,1312,1312,1312,1312,1312,1307,1307,1302,1302,1302,1302,1302,1302,1302,1302,1302,1302,1302,1302,1302,1297,1297,1297,1297,1297,1292,1292,1292,1297,1292,1292,1292,1292,1292,1292,1288,1288,1288,1288,1288,1288,1288,1288,1283,1283,1283,1288,1288,1288,1288,1288,1288,1288,1288,1288,1288,1288,1288,1288,1283,1283,1283,1283,1283,1278,1278,1273,1273,1273,1273,1278,1278,1278,1278,1278,1278,1273,1273,1273,1273,1273,1273,1273,1273,1273,1273,1268,1268,1268,1264,1264,1264,1264,1264,1259,1259,1259,1259,1259,1259,1255,1255,1255,1250,1250,1250,1250,1250,1245,1241,1236,1236,1236,1232,1232,1227,1227,1041,1041,1041,1041,1041,1038,1038,1034,1031,1028,1025,1025,1025,1022,1019,1016,1016,1016,1013,1010,1010,0,0,0,0,0,0,0,0,0,0,841,839,837,837,837,839,837,837,837,837,837,837,837,837,837,835,835,835,835,835,835,835,0,0,0,0,0,0,0,0,0,0,0,0,0,0,0,0,0,0,0,0,0,0,0,0,0,0,0,0,0,0,0,0,0,0,0,0,0
0,0,0,0,0,0,0,0,0,1458,1458,1458,1458,1458,1452,1452,1452,1445,1445,1445,1445,1445,1445,1452,1452,1452,1452,1445,1445,1439,1439,1439,1433,1433,1433,1433,1439,1439,1439,1439,1439,1439,1439,1439,1439,1439,1439,1439,1439,1445,1445,1019,1019,1019,1016,1013,1013,1013,1013,1013,1013,1016,1019,1019,1019,1022,1022,1025,1025,1025,1028,1028,1028,1028,1031,1034,1034,1421,1421,1421,1421,1421,1421,1421,1421,1421,1421,1421,1421,1421,1421,1421,1421,1415,1415,1415,1415,0,0,0,0,0,0,0,0,0,0,0,0,0,719,717,716,716,714,713,710,707,706,704,704,704,706,706,707,708,710,711,713,713,714,714,716,716,717,719,720,720,722,722,723,727,727,730,733,733,734,734,0,0,0,0,0,1149,1149,1149,1149,1149,1149,1149,1149,1153,1153,1157,1157,1157,1157,1153,1153,1153,1153,1149,1149,1149,1153,1153,1149,1149,1173,1181,1181,1185,1189,1189,1189,1193,1193,1193,1197,1197,1381,1381,1381,1381,1381,1381,1381,1381,1381,1381,1387,1387,1387,1387,1387,1387,1381,1381,1381,1381,1381,1381,1381,1381,1381,1381,1381,1376,1376,1376,1370,1370,1370,1370,1376,1376,1376,1376,1376,1376,1376,1376,1376,1376,1376,1370,1370,1370,1365,1333,1312,1307,1302,1302,1302,1302,1302,1302,1297,1297,1302,1302,1307,1307,1307,1307,1307,1307,1370,1370,1365,1365,1365,1365,1359,1359,1359,1359,1359,1359,1359,1359,1359,1359,1359,1365,1365,1359,1359,1359,1359,1354,1354,1359,1354,1354,1354,1354,1354,1354,1354,1354,1354,1354,1354,1354,1354,1349,1349,1349,1349,1349,1349,1349,1349,1343,1343,1343,1343,1343,1343,1041,1041,1041,1041,1041,1038,1034,1034,1031,1028,1028,1025,1025,1025,1025,1025,1025,1028,1028,1028,1031,1031,1031,1031,1031,1034,1034,1338,1338,1338,1338,1338,1338,1338,1338,1338,1338,1338,1338,1338,1333,1333,1333,1333,1333,1333,1333,1328,1328,1328,1333,1333,1333,1333,1333,1333,1333,1328,1328,1328,1322,1322,1322,1322,1322,1322,1328,1328,1328,1328,1328,1328,1328,1328,1328,1322,1322,1322,1322,1317,1317,1317,1317,1317,1322,1322,1322,1322,1322,1322,1322,1322,1322,1322,1317,1317,1317,1312,1312,1312,1312,1312,1312,1307,1307,1307,1307,1307,1307,1307,1307,1307,1307,1307,1312,1307,1307,1307,1307,1307,1307,1307,1307,1307,1307,1307,1307,1307,1302,1297,1297,1297,1297,1297,1297,1297,1297,1297,1297,1297,1297,1297,1292,1292,1292,1292,1292,1292,1292,1292,1292,1292,1288,1288,1292,1292,1288,1288,1288,1288,1288,1283,1283,1283,1283,1283,1283,1283,1288,1288,1288,1288,1288,1283,1283,1283,1283,1283,1283,1283,1283,1283,1278,1278,1278,1278,1273,1273,1273,1268,1268,1273,1273,1273,1278,1273,1273,1273,1273,1273,1273,1273,1273,1273,1268,1268,1273,1268,1268,1264,1264,1264,1259,1259,1259,1259,1259,1259,1259,1259,1255,1255,1255,1255,1255,1250,1250,1250,1250,1250,1245,1241,1236,1236,1236,1232,1232,1232,1041,1041,1041,1041,1041,1038,1038,1038,1034,1031,1028,1025,1025,1022,1019,1016,1016,1016,1016,1013,1013,1013,0,0,0,0,0,0,0,0,843,841,841,839,839,839,839,839,839,839,837,837,837,837,837,837,837,837,837,835,835,835,835,835,0,0,0,0,0,0,0,0,0,0,0,0,0,0,0,0,0,0,0,0,0,0,0,0,0,0,0,0,0,0,0,0,0,0,0,0,0
0,0,0,0,0,0,0,0,0,1452,1452,1452,1452,1452,1452,1445,1445,1445,1445,1439,1439,1439,1439,1445,1445,1445,1439,1439,1439,1433,1433,1433,1433,1433,1427,1427,1427,1427,1427,1427,1427,1427,1427,1427,1427,1433,1433,1433,1433,1439,1439,1439,1019,1019,1016,1016,1013,1013,1013,1013,1013,1013,1016,1016,1019,1022,1022,1025,1025,1025,1025,1025,1028,1028,1031,1034,1034,0,1415,1415,1415,1421,1415,1415,1415,1415,1415,1415,1415,1415,1415,1410,1410,1410,1410,1404,1404,0,0,0,0,0,0,0,0,0,0,0,0,0,0,719,717,716,714,714,711,708,706,706,706,706,706,706,707,708,710,711,711,713,714,714,716,717,717,717,719,720,722,722,723,727,727,728,730,733,734,0,0,0,0,0,1149,1149,1149,1149,1149,1149,1149,1149,1153,1153,1153,1157,1157,1157,1153,1153,1149,1149,1149,1149,1149,1149,1149,1149,1149,1149,1149,1149,1141,1141,1189,1189,1189,1193,1193,1193,1376,1376,1381,1381,1381,1381,1381,1381,1381,1381,1381,1381,1381,1381,1381,1381,1381,1381,1376,1376,1376,1376,1376,1376,1376,1381,1376,1376,1376,1370,1370,1370,1370,1370,1370,1370,1370,1370,1370,1370,1370,1370,1370,1370,1370,1370,1370,1370,1370,1365,1354,1333,1317,1307,1307,1307,1302,1302,1302,1302,1302,1302,1302,1307,1307,1307,1307,1307,1307,1307,1365,1365,1365,1365,1365,1359,1359,1359,1359,1359,1359,1359,1359,1359,1354,1354,1354,1354,1354,1354,1354,1354,1354,1354,1354,1349,1349,1349,1349,1349,1349,1349,1349,1349,1349,1349,1349,1349,1349,1349,1343,1343,1343,1343,1343,1343,1343,1338,1338,1333,1328,1328,1333,1333,1044,1044,1041,1041,1041,1038,1034,1031,1028,1028,1028,1025,1025,1025,1025,1028,1028,1028,1028,1031,1031,1031,1031,1034,1034,1034,1038,1338,1338,1333,1333,1333,1333,1333,1333,1333,1333,1333,1333,1333,1333,1328,1328,1328,1328,1328,1328,1328,1328,1328,1328,1328,1328,1328,1328,1328,1328,1322,1322,1322,1322,1317,1317,1317,1317,1317,1317,1322,1322,1322,1322,1322,1322,1322,1317,1317,1317,1317,1317,1312,1312,1312,1317,1317,1312,1312,1317,1312,1312,1317,1317,1312,1312,1312,1312,1312,1312,1312,1307,1307,1307,1307,1307,1307,1307,1307,1307,1307,1307,1307,1307,1307,1307,1307,1307,1307,1307,1307,1302,1302,1302,1302,1302,1297,1297,1302,1302,1297,1297,1292,1292,1292,1292,1292,1292,1297,1292,1292,1292,1292,1292,1288,1288,1288,1288,1288,1288,1288,1288,1288,1288,1288,1288,1288,1288,1288,1283,1283,1283,1283,1278,1278,1283,1278,1278,1288,1288,1283,1283,1283,1283,1283,1283,1278,1278,1278,1273,1273,1273,1273,1278,1273,1273,1273,1273,1273,1268,1268,1268,1268,1268,1268,1273,1273,1273,1273,1268,1268,1268,1268,1268,1268,1268,1268,1268,1268,1268,1264,1264,1264,1264,1259,1259,1259,1259,1255,1255,1255,1255,1255,1255,1255,1255,1250,1250,1250,1250,1250,1245,1241,1241,1236,1236,1236,1232,1232,1232,1044,1041,1041,1041,1041,1038,1038,1038,1034,1031,1031,1028,1025,1022,1019,1016,1016,1016,1016,1013,1013,0,0,0,0,0,0,0,0,845,843,841,841,841,841,839,839,839,839,839,839,839,837,837,837,837,837,837,837,837,837,837,835,835,0,0,0,0,0,0,0,0,0,0,0,0,0,0,0,0,0,0,0,0,0,0,0,0,0,0,0,0,0,0,0,0,0,0,0,0,0
0,0,0,0,0,0,0,0,1452,1452,1445,1445,1452,1445,1445,1439,1439,1439,1439,1439,1439,1439,1433,1433,1439,1439,1439,1439,1439,1433,1433,1433,1433,1427,1427,1421,1415,1415,1421,1421,1421,1421,1421,1421,1421,1427,1427,1427,1427,1427,1439,0,1019,1019,1016,1016,1016,1016,1016,1016,1013,1013,1016,1016,1019,1022,1022,1025,1025,1025,1025,1025,1028,1028,1028,1034,1034,0,1415,1415,1415,1415,1415,1415,1415,1415,1415,1415,1415,1415,1410,1410,1410,1410,1410,1404,1404,0,0,0,0,0,0,0,0,0,0,0,0,0,0,0,717,716,714,714,713,710,708,707,706,706,706,707,707,708,710,711,711,713,714,716,716,717,717,717,719,720,722,723,723,725,725,727,728,733,0,0,0,0,0,1149,1149,1149,1149,1149,1149,1149,1149,1149,1153,1153,1153,1157,1157,1157,1153,1153,1149,1149,1149,1145,1145,1145,1145,1145,1145,1145,1145,1145,1138,1134,1134,1130,1130,1130,1376,1376,1376,1376,1381,1381,1381,1381,1381,1381,1376,1376,1376,1376,1376,1376,1376,1376,1376,1376,1376,1376,1376,1376,1376,1376,1376,1376,1376,1376,1370,1370,1370,1370,1370,1370,1365,1365,1365,1365,1365,1365,1370,1370,1370,1370,1370,1370,1370,1365,1365,1354,1349,1343,1328,1312,1307,1307,1302,1302,1302,1302,1302,1302,1302,1307,1307,1307,1307,1312,1312,1312,1359,1359,1359,1359,1359,1359,1354,1354,1354,1354,1354,1354,1354,1354,1349,1349,1354,1354,1354,1354,1349,1349,1349,1349,1349,1349,1349,1349,1349,1349,1349,1349,1349,1349,1349,1343,1343,1343,1343,1343,1343,1343,1343,1343,1343,1338,1333,1333,1328,1328,1328,1328,1328,1328,1328,1047,1047,1044,1041,1038,1038,1034,1031,1031,1028,1028,1028,1028,1028,1028,1028,1028,1031,1031,1031,1031,1034,1034,1038,1038,1038,1338,1338,1333,1333,1333,1333,1333,1333,1333,1333,1328,1328,1328,1328,1328,1328,1322,1322,1322,1322,1322,1322,1322,1322,1322,1322,1322,1322,1328,1322,1322,1317,1317,1317,1312,1312,1312,1312,1312,1317,1317,1317,1312,1312,1312,1317,1317,1317,1312,1312,1312,1312,1312,1312,1312,1312,1312,1312,1312,1312,1307,1307,1312,1307,1307,1307,1312,1307,1307,1307,1307,1307,1307,1307,1302,1302,1302,1302,1302,1302,1302,1302,1302,1302,1302,1302,1302,1302,1302,1302,1302,1302,1297,1297,1297,1297,1297,1297,1292,1292,1292,1292,1292,1292,1292,1292,1292,1292,1292,1292,1292,1288,1288,1288,1288,1288,1288,1283,1283,1283,1283,1288,1288,1283,1283,1283,1283,1283,1283,1278,1278,1278,1278,1278,1278,1278,1278,1278,1278,1278,1278,1278,1278,1273,1273,1273,1273,1273,1273,1273,1268,1268,1273,1273,1268,1268,1268,1268,1268,1268,1264,1264,1264,1264,1264,1268,1268,1268,1268,1264,1264,1264,1264,1264,1264,1264,1264,1264,1264,1264,1264,1259,1259,1259,1259,1255,1255,1255,1255,1255,1255,1255,1250,1250,1250,1250,1250,1250,1250,1250,1250,1241,1241,1241,1236,1236,1236,1232,1232,1044,1044,1044,1041,1041,1041,1038,1038,1038,1034,1031,1031,1028,1025,1025,1022,1016,1016,1016,1016,0,0,0,0,0,0,0,0,0,0,845,845,843,843,843,843,841,841,841,841,841,841,839,839,839,837,837,837,837,837,837,837,837,837,837,0,0,0,0,0,0,0,0,0,0,0,0,0,0,0,0,0,0,0,0,0,0,0,0,0,0,0,0,0,0,0,0,0,0,0,0,0
0,0,0,0,0,0,0,0,1445,1445,1445,1445,1445,1445,1439,1439,1439,1439,1439,1439,1433,1433,1433,1433,1433,1427,1427,1433,1433,1433,1433,1427,1427,1427,1421,1415,1410,1410,1415,1415,1415,1415,1415,1415,1415,1421,1421,1421,1421,1421,1439,1439,1019,1019,1016,1016,1016,1016,1016,1016,1016,1016,1016,1019,1019,1022,1022,1025,1025,1025,1025,1025,1028,1028,1028,1028,1028,1415,1410,1410,1410,1410,1410,1410,1415,1410,1410,1410,1410,1410,1410,1410,1404,1404,1404,1398,1398,0,0,0,0,0,0,0,0,0,0,0,0,0,0,0,0,716,716,714,713,710,708,707,707,707,707,707,708,708,710,711,713,713,714,716,716,717,717,719,720,720,722,723,725,725,725,725,727,0,0,0,0,0,0,1149,1149,1149,1149,1149,1149,1149,1149,1149,1153,1153,1157,1157,1157,1157,1153,1149,1149,1145,1145,1145,1145,1145,1145,1141,1141,1141,1141,1141,1134,1134,1134,1130,1126,1126,1376,1376,1376,1376,1376,1376,1376,1376,1376,1376,1370,1370,1370,1370,1370,1370,1370,1370,1370,1370,1370,1370,1370,1370,1370,1370,1370,1370,1370,1370,1370,1370,1370,1370,1365,1365,1365,1365,1359,1359,1359,1359,1365,1365,1365,1365,1370,1370,1365,1365,1359,1354,1349,1343,1333,1317,1312,1307,1307,1302,1302,1302,1302,1302,1302,1307,1307,1307,1307,1312,1317,1328,1349,1349,1354,1354,1354,1349,1349,1349,1354,1354,1354,1349,1349,1349,1349,1349,1349,1349,1349,1349,1349,1349,1349,1343,1343,1343,1343,1343,1343,1343,1343,1343,1343,1343,1343,1343,1343,1343,1343,1343,1343,1338,1338,1338,1338,1338,1333,1333,1328,1328,1328,1328,1328,1328,1328,1333,1044,1044,1041,1041,1038,1038,1034,1031,1028,1028,1028,1028,1028,1028,1028,1028,1031,1031,1031,1031,1034,1038,1038,1038,1038,1322,1328,1328,1328,1328,1328,1328,1328,1328,1328,1328,1328,1328,1322,1322,1322,1317,1317,1317,1317,1317,1317,1317,1317,1317,1317,1317,1317,1317,1317,1317,1317,1312,1312,1312,1312,1312,1312,1312,1312,1312,1312,1312,1312,1312,1312,1312,1312,1312,1312,1312,1312,1312,1312,1307,1307,1307,1307,1302,1302,1302,1302,1307,1302,1302,1302,1307,1307,1307,1307,1307,1302,1302,1302,1302,1302,1297,1297,1297,1297,1297,1297,1297,1297,1297,1297,1297,1297,1297,1297,1297,1297,1297,1292,1292,1292,1292,1292,1292,1288,1288,1288,1288,1288,1288,1288,1288,1288,1292,1288,1288,1288,1283,1283,1283,1288,1288,1283,1283,1283,1283,1283,1283,1283,1278,1278,1283,1278,1278,1273,1273,1273,1273,1273,1268,1268,1273,1273,1273,1273,1273,1273,1273,1273,1273,1273,1273,1273,1273,1268,1268,1268,1268,1268,1268,1268,1268,1268,1268,1268,1264,1264,1259,1259,1259,1264,1264,1264,1264,1264,1259,1259,1259,1259,1259,1264,1264,1264,1264,1259,1259,1259,1259,1255,1255,1255,1255,1255,1255,1255,1255,1250,1250,1250,1250,1250,1250,1250,1250,1250,1250,1241,1241,1236,1236,1236,1232,1232,1050,1050,1044,1044,1044,1041,1041,1041,1038,1038,1038,1031,1031,1028,1028,1028,1028,0,0,0,0,0,0,0,0,0,0,0,0,0,845,845,845,845,843,843,843,843,843,843,843,843,841,841,841,839,839,839,837,837,837,837,837,837,837,837,0,0,0,0,0,0,0,0,0,0,0,0,0,0,0,0,0,0,0,0,0,0,0,0,0,0,0,0,0,0,0,0,0,0,0,0,0
0,0,0,0,0,0,0,0,1439,1439,1439,1439,1439,1439,1439,1439,1439,1439,1439,1433,1433,1433,1433,1427,1427,1421,1421,1427,1427,1427,1427,1427,1427,1421,1421,1415,1410,1410,1415,1415,1410,1410,1415,1415,1415,1415,1415,1421,1421,1421,1421,0,0,1022,1019,1016,1016,1019,1019,1016,1016,1016,1019,1019,1019,1022,1022,1025,1025,1025,1025,1025,1028,1028,1028,1028,1028,1415,1415,1410,1410,1410,1410,1410,1410,1410,1410,1410,1410,1410,1404,1404,1404,1404,1398,1398,1398,0,0,0,0,0,0,0,0,0,0,0,0,0,0,0,0,0,716,714,713,710,708,707,707,707,707,708,708,710,711,713,713,714,714,716,717,717,719,719,720,720,722,723,725,725,725,725,727,0,0,0,0,0,1145,1145,1149,1149,1149,1149,1149,1149,1149,1149,1153,1157,1157,1157,1157,1157,1157,1149,1149,1145,1145,1145,1145,1141,1141,1138,1138,1138,1138,1138,1134,1134,1134,1130,1126,1126,1376,1376,1376,1376,1376,1376,1370,1370,1370,1370,1370,1370,1370,1370,1370,1370,1370,1365,1365,1370,1370,1370,1370,1370,1370,1370,1370,1370,1365,1365,1365,1365,1365,1365,1365,1365,1365,1359,1359,1359,1359,1359,1359,1359,1359,1365,1365,1365,1365,1354,1354,1349,1349,1343,1338,1328,1312,1307,1307,1307,1302,1302,1302,1302,1307,1307,1307,1307,1312,1312,1317,1322,1333,1343,1349,1349,1349,1349,1349,1349,1349,1349,1343,1343,1349,1349,1349,1349,1349,1349,1349,1349,1349,1349,1343,1343,1343,1343,1343,1343,1343,1343,1338,1338,1343,1343,1343,1343,1338,1338,1338,1343,1338,1338,1338,1338,1338,1333,1333,1328,1328,1328,1322,1322,1328,1328,1333,1333,1047,1047,1041,1041,1038,1038,1034,1034,1031,1031,1028,1028,1028,1028,1028,1031,1031,1034,1034,1034,1038,1038,1041,1041,1041,1322,1322,1322,1317,1317,1322,1322,1322,1322,1322,1322,1322,1322,1322,1317,1317,1312,1312,1312,1312,1312,1312,1317,1312,1312,1312,1312,1312,1312,1312,1312,1312,1312,1312,1307,1307,1307,1307,1307,1307,1307,1307,1307,1307,1307,1307,1307,1307,1307,1307,1307,1307,1307,1307,1307,1307,1302,1302,1297,1297,1302,1302,1302,1297,1297,1297,1302,1302,1302,1302,1302,1302,1302,1297,1297,1297,1297,1297,1292,1292,1292,1292,1292,1292,1292,1292,1292,1297,1297,1292,1292,1292,1292,1292,1292,1292,1288,1288,1288,1288,1288,1288,1283,1283,1283,1283,1288,1288,1288,1288,1288,1283,1283,1283,1278,1278,1278,1288,1283,1283,1283,1283,1283,1278,1278,1278,1278,1273,1273,1273,1273,1268,1268,1268,1268,1268,1268,1268,1268,1268,1268,1268,1268,1268,1268,1268,1268,1268,1268,1264,1264,1264,1264,1264,1264,1264,1264,1264,1264,1264,1264,1264,1259,1259,1255,1255,1255,1259,1259,1259,1259,1259,1255,1255,1255,1259,1259,1255,1255,1255,1259,1255,1255,1255,1255,1255,1255,1255,1255,1250,1250,1250,1250,1250,1250,1250,1250,1245,1245,1245,1241,1241,1241,1236,1236,1236,1232,1232,1054,1050,1047,1047,1044,1044,1041,1041,1038,1038,1038,1034,1031,1031,1031,1031,1031,0,0,0,0,0,0,0,0,0,0,0,845,845,845,845,845,845,843,843,843,845,843,843,843,843,843,841,841,839,839,839,839,837,837,837,837,837,837,837,0,0,0,0,0,0,0,0,0,0,0,0,0,0,0,0,0,0,0,0,0,0,0,0,0,0,0,0,0,0,0,0,0,0,0,0,0
0,0,0,0,0,0,0,0,1439,1439,1433,1433,1433,1439,1439,1433,1433,1433,1433,1433,1433,1427,1427,1421,1415,1415,1421,1421,1421,1421,1421,1421,1421,1421,1415,1415,1410,1410,1410,1410,1410,1410,1410,1415,1415,1415,1415,1415,1415,1415,0,0,0,1022,1022,1019,1019,1019,1019,1019,1016,1016,1019,1019,1022,1022,1025,1025,1025,1028,1028,1028,1028,1028,1028,1028,1415,1415,1415,1415,1415,1410,1410,1404,1404,1404,1404,1404,1404,1404,1404,1398,1398,1398,1392,1392,1392,1398,0,0,0,0,0,0,0,0,0,0,0,0,0,0,0,0,717,716,714,713,710,708,708,708,708,708,708,710,711,713,713,714,714,716,717,717,719,719,720,722,722,723,725,725,725,725,0,0,0,0,0,0,1145,1145,1149,1149,1149,1149,1149,1149,1149,1149,1153,1157,1157,1161,1161,1157,1157,1149,1149,1145,1145,1145,1141,1141,1138,1138,1134,1134,1134,1134,1134,1130,1130,1130,1126,1126,1376,1376,1376,1376,1370,1370,1370,1370,1365,1365,1365,1365,1365,1365,1365,1365,1370,1365,1365,1365,1365,1365,1365,1365,1365,1365,1365,1365,1359,1359,1359,1359,1359,1365,1365,1365,1359,1359,1359,1354,1354,1354,1354,1354,1359,1359,1359,1359,1359,1354,1349,1349,1343,1343,1338,1328,1317,1312,1307,1307,1307,1302,1302,1302,1307,1307,1307,1307,1312,1317,1322,1322,1333,1338,1343,1343,1343,1343,1343,1343,1343,1343,1343,1338,1338,1338,1338,1343,1343,1343,1343,1343,1343,1343,1343,1343,1338,1338,1338,1338,1333,1333,1333,1333,1333,1338,1338,1338,1333,1333,1333,1338,1333,1333,1333,1333,1333,1328,1328,1328,1322,1322,1322,1322,1328,1328,1328,1328,1050,1050,1044,1041,1041,1038,1038,1034,1031,1031,1028,1028,1028,1031,1031,1031,1034,1034,1034,1034,1038,1041,1041,1041,1041,1317,1317,1317,1317,1317,1317,1322,1322,1322,1317,1317,1317,1317,1317,1312,1312,1312,1312,1312,1312,1312,1312,1312,1312,1312,1312,1312,1312,1307,1307,1307,1307,1307,1307,1307,1307,1307,1307,1307,1302,1302,1302,1302,1302,1302,1302,1302,1302,1302,1302,1302,1307,1302,1302,1302,1302,1302,1297,1297,1297,1297,1297,1297,1297,1297,1297,1297,1297,1297,1297,1297,1297,1297,1297,1292,1292,1292,1292,1292,1292,1292,1292,1292,1292,1292,1292,1292,1292,1292,1292,1292,1292,1292,1292,1288,1288,1288,1283,1283,1283,1283,1283,1283,1278,1278,1278,1278,1283,1283,1283,1283,1283,1283,1278,1278,1278,1278,1278,1283,1278,1278,1278,1278,1278,1273,1273,1273,1273,1273,1268,1268,1268,1268,1264,1264,1264,1268,1268,1268,1264,1264,1268,1268,1268,1268,1264,1264,1264,1268,1264,1259,1259,1259,1259,1259,1259,1259,1259,1259,1255,1255,1259,1259,1255,1255,1255,1255,1255,1255,1255,1255,1255,1255,1255,1255,1255,1255,1255,1255,1255,1255,1255,1250,1250,1250,1250,1250,1250,1250,1250,1250,1250,1245,1245,1245,1245,1245,1241,1241,1241,1241,1241,1236,1236,1073,1070,1067,1054,1054,1050,1047,1047,1044,1044,1041,1041,1038,1038,1038,1034,1028,1028,1028,1028,1028,0,0,0,0,0,0,0,0,0,0,0,845,845,845,845,845,845,845,845,845,845,845,845,843,843,843,843,841,841,841,841,839,839,837,837,839,839,837,837,0,0,0,0,0,0,0,0,0,0,0,0,0,0,0,0,0,0,0,0,0,0,0,0,0,0,0,0,0,0,0,0,0,0,0,0,0
0,0,0,0,0,0,0,0,1433,1433,1433,1433,1433,1433,1433,1433,1433,1433,1433,1433,1427,1427,1415,1415,1415,1415,1415,1415,1415,1415,1415,1421,1421,1415,1415,1410,1410,1410,1410,1410,1410,1410,1410,1410,1410,1415,1415,1415,1415,1415,1415,0,1025,1025,1025,1022,1022,1022,1019,1019,1016,1016,1016,1019,1022,1022,1022,1025,1025,1025,1028,1028,1028,1028,1031,1031,1038,1415,1415,1410,1410,1404,1404,1398,1398,1398,1398,1398,1398,1398,1398,1398,1398,1398,1392,1392,1392,1392,0,0,0,0,0,0,0,0,0,0,0,0,0,0,0,0,0,717,716,713,711,710,710,710,710,710,710,710,711,713,713,714,716,717,719,719,719,719,720,722,722,723,725,725,725,725,727,0,0,0,0,0,1145,1145,1149,1149,1149,1149,1149,1149,1149,1153,1153,1157,1161,1161,1161,1157,1153,1153,1149,1145,1145,1145,1141,1138,1138,1134,1134,1134,1134,1134,1130,1126,1126,1123,1123,1123,1119,1119,1376,1376,1370,1370,1370,1370,1365,1365,1365,1365,1365,1365,1365,1365,1365,1365,1365,1359,1359,1359,1359,1354,1354,1359,1359,1354,1354,1354,1354,1354,1354,1359,1359,1359,1359,1354,1354,1349,1349,1349,1349,1349,1349,1349,1354,1354,1354,1349,1349,1343,1343,1338,1338,1333,1322,1312,1312,1307,1307,1302,1302,1302,1307,1307,1307,1307,1312,1317,1322,1328,1328,1338,1338,1338,1343,1343,1343,1338,1338,1338,1338,1333,1333,1333,1333,1333,1333,1333,1338,1333,1333,1333,1333,1338,1338,1333,1333,1333,1333,1333,1328,1328,1328,1333,1333,1333,1333,1333,1333,1333,1333,1328,1328,1328,1328,1322,1322,1322,1322,1322,1322,1322,1328,1328,1328,1328,1047,1047,1044,1044,1044,1041,1038,1034,1034,1031,1031,1028,1028,1031,1031,1031,1034,1034,1034,1038,1041,1041,1041,1041,1041,1312,1312,1312,1312,1312,1317,1317,1317,1317,1317,1312,1312,1312,1312,1312,1312,1312,1307,1307,1307,1307,1307,1307,1307,1307,1307,1307,1307,1307,1307,1307,1307,1307,1302,1302,1302,1302,1302,1302,1297,1297,1302,1302,1302,1297,1297,1297,1297,1302,1302,1302,1302,1297,1297,1297,1292,1292,1292,1292,1292,1292,1292,1297,1297,1292,1292,1297,1297,1297,1297,1292,1292,1292,1292,1292,1292,1292,1288,1288,1288,1292,1292,1292,1288,1288,1288,1288,1288,1288,1288,1288,1288,1288,1288,1288,1288,1283,1278,1278,1278,1278,1278,1278,1278,1278,1273,1273,1278,1273,1273,1273,1273,1278,1278,1278,1273,1273,1278,1278,1278,1278,1278,1278,1273,1273,1273,1273,1268,1268,1268,1268,1268,1264,1264,1264,1264,1264,1264,1264,1264,1264,1264,1264,1264,1264,1264,1259,1259,1259,1259,1259,1259,1259,1259,1255,1255,1255,1255,1259,1250,1250,1255,1255,1250,1250,1250,1250,1255,1255,1255,1255,1255,1255,1255,1255,1255,1250,1250,1250,1250,1250,1250,1250,1250,1250,1250,1250,1250,1250,1245,1245,1245,1241,1241,1241,1241,1241,1241,1236,1236,1236,1236,1236,1236,1073,1070,1063,1054,1054,1054,1050,1050,1047,1047,1044,1041,1038,1038,1034,1028,1028,1028,1028,1025,1025,0,0,0,0,0,0,0,0,0,851,849,847,847,847,845,845,845,845,845,845,845,845,845,843,843,843,843,843,843,843,843,841,839,839,839,839,839,837,837,0,0,0,0,0,0,0,0,0,0,0,0,0,0,0,0,0,0,0,0,0,0,0,0,0,0,0,0,0,0,0,0,0,0,0,0,0
0,0,0,0,0,0,0,0,1433,1433,1427,1427,1427,1427,1427,1427,1427,1433,1433,1427,1427,1421,1415,1415,1410,1410,1415,1415,1415,1415,1415,1415,1415,1415,1410,1404,1404,1404,1404,1410,1404,1404,1404,1410,1410,1410,1410,1410,1410,1415,0,0,0,1392,0,0,1025,1025,1019,1019,1016,1016,1016,1016,1019,1022,1022,1025,1025,1025,1028,1028,1028,1031,1031,1034,1038,1415,1415,1410,1404,1398,1398,1392,1392,1392,1392,1398,1398,1398,1392,1392,1392,1392,1387,1387,1387,1387,0,0,0,0,0,0,0,0,0,0,0,0,0,0,0,0,722,717,716,713,711,711,710,710,710,710,710,711,713,713,713,714,716,717,717,719,720,720,720,722,723,725,727,727,725,725,727,0,0,0,0,0,0,1149,1149,1149,1149,1149,1149,1149,1153,1153,1157,1157,1161,1161,1161,1161,1153,1153,1149,1145,1145,1141,1141,1138,1138,1134,1134,1130,1130,1126,1126,1123,1123,1123,1123,1119,1119,1119,1119,1119,1376,1376,1370,1370,1365,1365,1359,1359,1359,1365,1359,1359,1365,1359,1359,1354,1354,1354,1354,1349,1349,1349,1349,1349,1349,1349,1349,1349,1349,1354,1354,1354,1349,1349,1349,1349,1343,1343,1343,1343,1343,1343,1343,1349,1343,1343,1343,1343,1343,1338,1338,1333,1322,1317,1312,1307,1307,1307,1302,1302,1307,1307,1307,1307,1312,1317,1322,1322,1328,1328,1333,1333,1333,1333,1333,1333,1333,1333,1333,1328,1328,1328,1328,1328,1328,1328,1328,1328,1328,1328,1328,1333,1333,1333,1328,1328,1328,1328,1328,1328,1328,1328,1328,1328,1328,1328,1328,1328,1328,1322,1322,1322,1317,1317,1317,1317,1317,1317,1317,1317,1322,1322,1328,1328,1047,1047,1047,1047,1044,1044,1041,1038,1034,1034,1031,1028,1028,1031,1031,1031,1034,1038,1038,1038,1041,1044,1044,1044,1047,1312,1312,1312,1312,1312,1312,1312,1312,1312,1312,1312,1312,1312,1312,1307,1307,1307,1307,1307,1307,1307,1307,1307,1307,1307,1307,1307,1302,1302,1302,1302,1297,1297,1297,1297,1297,1297,1297,1297,1297,1297,1297,1297,1297,1297,1297,1292,1292,1292,1297,1297,1292,1292,1292,1292,1292,1292,1288,1288,1288,1292,1292,1292,1292,1292,1292,1292,1292,1292,1292,1292,1292,1288,1288,1288,1288,1288,1288,1288,1288,1288,1288,1288,1288,1288,1288,1288,1288,1288,1288,1288,1288,1283,1283,1283,1278,1278,1273,1273,1273,1273,1273,1273,1273,1273,1268,1268,1268,1268,1268,1268,1268,1273,1268,1268,1273,1273,1273,1273,1273,1278,1278,1273,1273,1268,1268,1268,1268,1268,1264,1264,1264,1264,1259,1259,1259,1255,1255,1259,1259,1259,1264,1259,1259,1259,1259,1255,1255,1255,1255,1255,1255,1255,1255,1255,1250,1250,1250,1255,1250,1245,1245,1250,1250,1250,1245,1245,1245,1245,1255,1250,1250,1250,1250,1250,1250,1250,1250,1245,1245,1245,1245,1241,1241,1245,1245,1245,1245,1245,1245,1245,1241,1236,1236,1236,1236,1236,1236,1236,1236,1236,1236,1236,1236,1073,1070,1063,1054,1054,1054,1054,1054,1050,1047,1044,1041,1038,1038,1034,1028,1028,1028,1028,1025,1025,0,0,0,0,0,0,0,851,851,851,849,847,847,847,845,845,845,845,845,845,845,845,845,843,843,843,843,843,843,843,843,841,841,841,841,841,841,839,839,0,0,0,0,0,0,0,0,0,0,0,0,0,0,0,0,0,0,0,0,0,0,0,0,0,0,0,0,0,0,0,0,0,0,0,0,0
0,0,0,0,0,0,0,0,1427,1427,1427,1421,1421,1421,1421,1421,1421,1421,1421,1421,1421,1415,1415,1415,1410,1410,1410,1410,1415,1410,1410,1404,1404,1404,1404,1398,1398,1398,1398,1404,1404,1404,1404,1404,1404,1404,1404,1404,1404,1404,0,0,0,0,0,0,1031,1025,1022,1022,1019,1019,1016,1016,1019,1022,1022,1025,1025,1028,1028,1028,1028,1031,1034,1034,1038,1038,1038,1398,1398,1392,1392,1392,1392,1392,1392,1392,1392,1392,1392,1392,1392,1392,1381,1381,1376,1376,0,0,0,0,0,0,0,0,0,0,0,0,0,0,0,728,722,719,717,714,714,711,711,711,711,710,710,711,713,714,714,716,716,717,717,719,720,720,720,722,723,727,727,727,725,725,727,0,0,0,0,0,0,1149,1149,1149,1149,1149,1149,1149,1153,1153,1157,1157,1161,1161,1161,1161,1153,1153,1149,1145,1145,1141,1138,1138,1134,1134,1134,1130,1126,1123,1123,1119,1119,1119,1119,1119,1119,1115,1115,1115,1115,1376,1370,1365,1359,1359,1359,1359,1359,1359,1354,1354,1354,1354,1354,1349,1349,1349,1349,1349,1349,1349,1343,1343,1343,1343,1343,1343,1349,1349,1349,1349,1349,1349,1343,1343,1343,1343,1338,1338,1338,1338,1338,1338,1338,1338,1343,1343,1343,1338,1338,1333,1328,1322,1317,1312,1307,1307,1307,1307,1307,1307,1307,1307,1307,1312,1317,1322,1328,1328,1328,1328,1328,1328,1328,1328,1328,1328,1328,1328,1328,1328,1328,1328,1322,1322,1322,1322,1322,1322,1322,1322,1322,1328,1328,1328,1328,1328,1322,1322,1328,1328,1322,1322,1322,1322,1322,1322,1317,1317,1312,1312,1317,1317,1317,1317,1317,1317,1317,1317,1317,1317,1317,1328,1328,1050,1050,1047,1047,1044,1041,1041,1038,1034,1031,1031,1031,1031,1031,1034,1038,1038,1038,1041,1041,1044,1044,1047,1047,1050,1302,1302,1302,1302,1307,1312,1312,1307,1307,1307,1307,1312,1307,1307,1307,1307,1302,1302,1302,1302,1302,1302,1302,1302,1302,1302,1297,1297,1297,1292,1292,1292,1292,1292,1292,1292,1292,1292,1292,1292,1292,1292,1292,1292,1292,1292,1292,1292,1292,1292,1292,1288,1288,1292,1288,1288,1288,1288,1288,1288,1288,1288,1292,1292,1292,1292,1292,1292,1292,1288,1288,1288,1288,1283,1283,1283,1283,1278,1278,1283,1283,1283,1283,1283,1283,1283,1283,1283,1283,1283,1283,1278,1278,1278,1273,1273,1273,1273,1273,1268,1268,1268,1268,1268,1268,1264,1264,1264,1264,1264,1264,1268,1268,1268,1264,1264,1264,1273,1273,1273,1273,1273,1268,1268,1268,1268,1268,1264,1264,1264,1264,1259,1259,1259,1259,1255,1255,1255,1255,1255,1255,1255,1255,1255,1255,1255,1255,1255,1255,1250,1250,1250,1250,1250,1250,1250,1245,1245,1250,1245,1241,1241,1250,1250,1245,1245,1241,1241,1245,1245,1245,1245,1250,1250,1245,1245,1241,1241,1241,1241,1241,1241,1241,1241,1245,1241,1241,1241,1241,1241,1241,1236,1236,1236,1236,1236,1236,1232,1232,1232,1232,1232,1077,1073,1070,1067,1063,1054,1054,1054,1054,1054,1047,1044,1041,1038,1038,1034,1034,1034,1031,1031,1031,1031,0,0,0,0,0,0,851,849,849,851,849,849,849,847,847,847,845,845,845,845,845,845,845,845,845,843,843,843,843,843,843,843,843,843,843,843,841,841,841,0,0,0,0,0,0,0,0,0,0,0,0,0,0,0,0,0,0,0,0,0,0,0,0,0,0,0,0,0,0,0,0,0,0,0,0,0
0,0,0,0,0,0,0,0,1421,1421,1421,1421,1421,1421,1415,1415,1415,1421,1415,1415,1415,1415,1410,1410,1410,1410,1410,1410,1410,1404,1404,1398,1398,1398,1398,1392,1392,1392,1392,1392,1392,1392,1392,1392,1392,1398,1398,1398,1398,1392,1392,1392,0,0,0,0,1034,1028,1025,1022,1019,1019,1019,1019,1022,1022,1022,1025,1025,1028,1031,1031,1031,1031,1034,1034,1038,1038,1038,1387,1387,1387,1387,1387,1387,1387,1387,1387,1387,1387,1387,1387,1381,1381,1376,1376,1370,1370,0,0,0,0,0,0,0,0,0,0,0,0,0,0,0,727,723,722,720,717,716,713,711,711,711,711,711,711,713,714,716,716,717,717,719,719,720,722,722,723,723,727,727,727,727,727,727,727,0,0,0,0,0,1149,1149,1149,1149,1149,1149,1149,1153,1153,1157,1157,1161,1161,1161,1161,1161,1161,1145,1145,1145,1141,1138,1138,1134,1134,1134,1130,1123,1123,1119,1119,1119,1119,1119,1119,1115,1115,1115,1115,1115,1370,1370,1365,1359,1359,1354,1354,1354,1349,1349,1349,1343,1343,1349,1343,1343,1343,1343,1343,1343,1343,1343,1343,1343,1343,1343,1338,1338,1338,1338,1338,1343,1343,1338,1338,1338,1338,1333,1333,1333,1333,1333,1333,1333,1333,1338,1338,1338,1333,1333,1328,1328,1322,1322,1317,1312,1307,1307,1307,1307,1307,1307,1307,1307,1312,1317,1322,1322,1322,1328,1328,1328,1328,1328,1328,1328,1328,1328,1328,1322,1322,1322,1322,1322,1322,1322,1322,1322,1317,1317,1317,1317,1317,1317,1317,1322,1322,1322,1322,1322,1322,1322,1322,1322,1317,1312,1312,1312,1312,1307,1307,1312,1312,1312,1312,1312,1312,1312,1312,1317,1317,1317,1317,1317,1050,1050,1050,1047,1047,1044,1041,1038,1034,1034,1031,1031,1034,1034,1034,1038,1038,1041,1041,1041,1047,1050,1050,1050,1050,1302,1302,1297,1297,1297,1302,1302,1307,1307,1307,1307,1307,1307,1302,1302,1297,1297,1297,1297,1297,1297,1297,1297,1297,1297,1297,1297,1292,1292,1292,1292,1292,1292,1292,1292,1292,1292,1292,1292,1292,1292,1292,1292,1292,1292,1288,1288,1288,1288,1288,1288,1288,1288,1288,1288,1288,1283,1283,1283,1288,1288,1283,1283,1288,1288,1288,1288,1288,1288,1288,1283,1283,1283,1283,1278,1278,1278,1278,1278,1278,1278,1278,1278,1278,1278,1273,1273,1273,1278,1278,1273,1273,1273,1273,1273,1268,1268,1268,1268,1268,1268,1268,1268,1264,1264,1259,1259,1259,1264,1259,1259,1264,1264,1264,1264,1264,1259,1259,1259,1268,1268,1268,1268,1264,1264,1264,1264,1264,1259,1259,1259,1259,1255,1255,1255,1255,1255,1255,1255,1255,1255,1255,1255,1255,1250,1250,1250,1250,1250,1250,1250,1250,1250,1245,1245,1241,1241,1241,1241,1241,1241,1241,1236,1236,1241,1241,1241,1241,1241,1241,1236,1236,1241,1241,1241,1241,1241,1241,1236,1236,1236,1236,1236,1236,1241,1236,1236,1236,1241,1241,1236,1236,1236,1236,1236,1236,1236,1232,1232,1227,1227,1227,1073,1073,1070,1067,1063,1063,1063,1057,1054,1054,1047,1044,1041,1038,1038,1034,1034,1034,1034,1034,1038,1038,1044,1044,1044,1044,0,0,849,849,849,849,849,849,849,847,847,847,847,845,845,845,845,845,845,845,845,845,843,843,843,843,843,843,843,843,843,843,843,843,843,0,0,0,0,0,0,0,0,0,0,0,0,0,0,0,0,0,0,0,0,0,0,0,0,0,0,0,0,0,0,0,0,0,0,0,0,0
0,0,0,0,0,0,0,0,1415,1415,1415,1415,1415,1415,1415,1415,1415,1415,1415,1415,1410,1410,1410,1410,1410,1410,1404,1404,1404,1404,1398,1392,1392,1392,1392,1392,1392,1392,1392,1392,1392,1387,1387,1387,1387,1392,1392,1392,1392,1392,1392,1392,0,1387,0,0,1034,1028,1025,1022,1019,1019,1019,1019,1022,1022,1025,1028,1028,1031,1034,1031,1031,1034,1034,1034,1038,1038,1041,1381,1381,1376,1376,1381,1381,1381,1381,1381,1381,1381,1376,1376,1376,1376,1376,1370,1370,1370,1376,0,0,0,0,0,0,0,0,0,0,0,0,0,0,727,723,722,722,717,717,716,714,711,711,711,711,711,713,714,716,716,717,719,719,720,720,722,723,725,725,727,727,727,727,727,727,727,0,0,0,0,0,0,1153,1149,1149,1149,1149,1153,1153,1157,1157,1157,1161,1161,1161,1161,1161,1161,1349,1145,1145,1145,1141,1138,1134,1134,1130,1123,1123,1119,1119,1115,1115,1115,1115,1115,1115,1112,1112,1112,1108,1108,1365,1365,1359,1354,1354,1349,1343,1343,1343,1343,1338,1338,1343,1343,1343,1343,1343,1343,1343,1343,1338,1338,1343,1338,1338,1333,1333,1333,1333,1333,1333,1333,1333,1333,1333,1333,1333,1333,1333,1333,1333,1333,1333,1333,1333,1333,1333,1328,1328,1328,1322,1322,1322,1317,1317,1307,1307,1307,1307,1307,1307,1307,1307,1312,1317,1322,1322,1322,1322,1322,1322,1322,1322,1322,1328,1328,1322,1322,1322,1322,1322,1322,1322,1317,1317,1317,1317,1317,1312,1312,1312,1312,1312,1312,1317,1317,1317,1317,1317,1317,1317,1317,1317,1312,1307,1307,1307,1307,1307,1307,1307,1307,1307,1307,1307,1312,1312,1312,1312,1312,1312,1317,1317,1050,1050,1050,1050,1047,1047,1044,1041,1038,1034,1031,1031,1034,1034,1034,1038,1038,1041,1041,1041,1047,1050,1050,1050,1054,1054,1297,1297,1297,1297,1297,1297,1297,1297,1297,1302,1302,1302,1297,1297,1292,1292,1292,1292,1292,1292,1292,1292,1292,1292,1292,1292,1292,1292,1288,1288,1288,1288,1288,1288,1288,1288,1288,1288,1288,1288,1288,1288,1288,1288,1288,1288,1288,1288,1288,1283,1283,1283,1283,1283,1283,1278,1278,1278,1283,1283,1278,1278,1278,1278,1278,1278,1283,1283,1283,1283,1278,1278,1278,1278,1278,1273,1273,1273,1273,1273,1273,1273,1273,1273,1273,1273,1273,1273,1273,1273,1273,1268,1268,1268,1268,1268,1268,1264,1264,1264,1264,1264,1259,1259,1259,1259,1259,1259,1259,1259,1259,1259,1259,1259,1259,1255,1255,1255,1255,1255,1259,1264,1264,1259,1259,1259,1259,1255,1255,1255,1255,1255,1255,1255,1250,1250,1255,1255,1255,1255,1250,1250,1250,1250,1250,1250,1250,1250,1250,1245,1241,1241,1245,1241,1241,1236,1236,1236,1236,1236,1236,1236,1236,1236,1236,1236,1232,1232,1236,1232,1232,1236,1236,1236,1236,1236,1236,1236,1236,1236,1232,1232,1232,1236,1236,1236,1236,1236,1236,1236,1232,1232,1232,1232,1232,1232,1232,1227,1227,1227,1227,1070,1070,1067,1067,1063,1063,1063,1060,1057,1054,1047,1041,1041,1038,1038,1038,1034,1034,1038,1038,1038,1038,1044,1044,1044,1044,0,849,849,849,849,849,849,849,849,847,847,847,847,847,847,847,845,845,845,845,845,845,845,845,845,845,845,843,843,843,843,843,843,843,843,0,0,0,0,0,0,0,0,0,0,0,0,0,0,0,0,0,0,0,0,0,0,0,0,0,0,0,0,0,0,0,0,0,0,0,0,0
0,0,0,0,0,0,0,0,1415,1415,1415,1415,1415,1410,1410,1410,1410,1410,1410,1410,1404,1404,1404,1404,1404,1404,1404,1404,1404,1398,1392,1392,1392,1392,1392,1387,1387,1387,1387,1387,1387,1387,1387,1387,1387,1387,1387,1381,1381,1381,1381,1387,1387,0,0,0,0,1025,1022,1022,1019,1019,1019,1019,1022,1022,1025,1028,1028,1031,1034,1034,1034,1034,1038,1038,1038,1038,1038,1381,1381,1370,1370,1370,1370,1370,1370,1376,1376,1376,1376,1376,1376,1376,1370,1370,1370,1370,1370,0,0,0,0,0,0,0,0,0,0,0,0,0,0,727,723,722,722,717,717,716,714,713,711,711,711,711,713,714,716,716,717,719,719,720,722,722,723,725,725,727,728,728,728,728,728,728,0,0,0,0,0,0,1153,1149,1149,1153,1153,1153,1153,1157,1157,1157,1161,1161,1161,1161,1161,1343,1343,1343,1349,1141,1141,1138,1134,1134,1130,1123,1123,1119,1119,1115,1115,1115,1115,1115,1112,1112,1108,1108,1105,1105,1370,1370,1365,1354,1349,1349,1343,1343,1338,1338,1338,1338,1338,1338,1338,1338,1338,1338,1338,1338,1338,1338,1338,1338,1333,1333,1333,1333,1328,1328,1328,1328,1328,1328,1328,1328,1328,1328,1328,1328,1328,1328,1328,1328,1328,1328,1328,1328,1328,1328,1322,1322,1322,1317,1312,1307,1307,1307,1307,1307,1307,1307,1312,1312,1317,1317,1317,1317,1317,1322,1322,1322,1317,1317,1322,1322,1322,1322,1322,1322,1322,1317,1317,1312,1312,1312,1312,1312,1312,1312,1312,1307,1307,1307,1312,1312,1312,1312,1312,1312,1312,1312,1312,1307,1307,1307,1307,1302,1302,1302,1307,1307,1307,1307,1307,1307,1307,1307,1312,1312,1312,1312,1312,1054,1054,1050,1050,1050,1047,1047,1041,1038,1038,1034,1034,1034,1034,1034,1038,1038,1041,1044,1047,1047,1050,1050,1054,1057,1057,1292,1292,1292,1292,1297,1297,1297,1297,1297,1297,1297,1297,1292,1292,1292,1292,1292,1292,1292,1292,1292,1292,1292,1292,1292,1292,1288,1288,1288,1288,1288,1288,1283,1283,1283,1283,1283,1283,1288,1288,1288,1288,1288,1288,1283,1283,1283,1283,1283,1278,1278,1278,1278,1278,1278,1278,1273,1273,1278,1278,1273,1273,1273,1273,1273,1273,1273,1273,1273,1278,1278,1278,1278,1273,1273,1273,1273,1273,1273,1273,1268,1268,1268,1268,1268,1268,1268,1268,1268,1268,1268,1268,1264,1264,1264,1264,1259,1259,1259,1259,1259,1259,1255,1255,1255,1255,1255,1255,1255,1255,1255,1255,1255,1255,1255,1250,1250,1250,1250,1250,1255,1255,1255,1255,1255,1255,1255,1255,1255,1255,1255,1250,1250,1250,1250,1245,1245,1250,1250,1250,1250,1245,1245,1245,1245,1245,1245,1241,1241,1241,1236,1236,1241,1241,1236,1236,1236,1236,1236,1236,1232,1232,1232,1232,1232,1232,1227,1227,1232,1232,1232,1232,1232,1232,1232,1232,1232,1232,1232,1232,1232,1232,1232,1232,1232,1232,1232,1232,1232,1232,1232,1232,1232,1232,1232,1232,1232,1227,1227,1227,1227,1070,1070,1067,1067,1063,1063,1063,1060,1054,1047,1044,1041,1041,1038,1038,1038,1038,1038,1041,1041,1041,1041,1044,1044,1044,1044,851,851,849,849,849,851,849,849,849,849,849,849,847,847,847,847,845,845,845,845,845,845,845,845,845,845,845,845,845,845,845,845,845,845,845,0,0,0,0,0,0,0,0,0,0,0,0,0,0,0,0,0,0,0,0,0,0,0,0,0,0,0,0,0,0,0,0,0,0,0,0,0
