0,0,0,0,0,0,0,0,0,0,0,0,1804,1804,1804,1804,1804,1804,1804,0,0,0,0,0,0,0,0,0,0,0,0,802,802,802,802,802,803,803,803,803,803,803,805,805,803,803,803,803,803,803,803,803,805,807,807,802,802,805,807,807,807,807,807,807,807,807,803,803,803,803,803,803,803,803,805,805,805,805,807,809,807,805,805,807,807,805,803,803,803,807,803,802,802,802,807,807,807,807,798,798,802,800,798,798,800,800,803,803,805,807,805,805,803,803,803,803,803,802,802,803,803,803,807,807,805,805,803,803,805,805,805,805,805,805,805,803,802,802,802,800,798,798,803,805,807,809,809,805,805,803,803,803,803,803,803,803,803,803,803,802,802,802,803,803,803,805,805,807,807,803,803,803,803,803,803,802,802,803,803,803,803,803,803,803,802,802,802,803,807,807,805,805,803,803,803,807,807,805,805,807,807,807,805,803,803,803,803,803,803,803,802,802,803,803,803,803,803,803,803,803,805,803,803,803,803,803,803,803,803,803,803,805,803,803,805,805,805,805,805,805,805,803,803,803,803,803,802,802,803,803,803,803,803,805,805,805,807,807,809,809,809,811,811,813,813,815,815,817,817,819,819,819,819,821,823,825,825,827,829,833,833,835,835,837,837,839,841,841,841,843,856,858,858,858,860,860,862,864,867,869,869,869,869,869,869,869,871,871,873,878,878,880,880,880,882,885,887,887,887,889,889,889,889,889,889,0,0,0,0,0,0,0,1766,1748,1748,1739,1739,1739,1739,1731,1731,1713,1705,1705,1696,1696,1696,1688,1688,1680,1680,1671,1671,1671,1663,1655,1647,1639,1639,1639,1632,1632,1624,1624,1616,1609,1609,1601,1601,1594,1594,1586,1586,1579,1579,1579,1572,1564,1557,1557,1550,1550,1550,1543,1543,1536,1536,1529,1523,1516,1516,1516,1509,1509,1509,1503,1503,1496,1489,1489,1483,1477,1470,1470,1470,1464,1464,1464,1458,1458,1458,1452,1445,1445,1439,1439,1433,1427,1421,1421,1421,1415,1415,1415,1410,1404,1404,1404,1398,1398,1392,1387,1381,1376,1376,1370,1370,1370,1370,1370,1365,1354,1354,1349,1349,1349,1343,1338,1338,1333,1333,1333,1328,1322,1322,1317,1312,1312,1312,1307,1307,1302,1302,1297,1292,1292,1292,1288,1283,1283,1278,1273,1273,1268,1268,1264,1264,1259,1255,1255,1255,1255,1245,1241,1241,1236,1236,1236,1232,1232,1227,1227,1223,1214,1214,1214,1210,1210,1206,1206,1202,1202,1197,1197,1193,1189,1189,1185,1185,1181,1181,1177,1177,1173,1169,1169,1165,1165,1165,1161,1157,1157,1153,1149,1149,1149,1145,1145,1141,1138,1138,1138,1134,1130,1126,1123,1123,1123,1119,1119,1115,1112,1112,1108,1108,1105,1105,1101,1101,1097,1094,1094,1090,1090,1087,1087,1084,1080,1080,1077,1077,1077,1073,1070,1070,1067,1067,1063,1063,1060,1060,1057,1054,1054,1054,1050,1047,1044,1044,1041,1041,1038,1038,1038,1034,1031,1031,1028,1028,1028,1025,1025,1025,1022,1019,1016,1013,1013,1013,1010,1010,1007,1004,1004,1004,1001,1001,0,0,0,0,0,0,0,0,0,0,0,0,0,0,0,0,0,0,0,0,0,0,0,0,0,0,0,0,0,0,0,0,0
0,0,0,0,0,0,0,0,0,0,0,0,1794,1794,1794,1785,1785,1785,1785,0,0,0,0,0,0,0,0,0,0,0,0,800,800,800,800,800,800,802,802,802,802,802,802,802,802,800,800,802,802,802,802,802,802,796,796,798,798,798,800,802,805,805,803,803,803,803,802,802,800,800,802,802,802,802,802,802,803,802,802,802,802,802,800,800,803,802,802,800,800,800,800,798,798,798,798,802,798,796,796,796,796,796,796,796,796,796,796,796,796,798,800,798,798,798,798,798,800,798,796,796,796,800,796,796,796,802,802,802,802,802,802,802,802,802,802,802,798,798,796,796,796,796,798,800,802,802,803,802,802,800,800,800,798,798,800,800,800,800,800,802,800,800,802,802,802,802,800,800,803,802,800,800,800,800,802,800,800,800,802,802,802,800,800,800,800,798,798,798,798,798,798,800,802,802,802,802,803,803,803,803,803,803,803,802,802,800,800,802,802,802,800,800,800,802,802,802,802,802,802,802,803,802,802,802,802,802,802,802,802,802,802,802,800,800,800,800,800,802,800,800,802,802,802,800,800,800,800,800,800,802,802,802,802,803,803,803,805,807,807,807,809,809,809,811,813,815,815,817,819,819,819,819,819,823,823,825,827,829,831,833,835,835,837,837,839,843,843,843,856,858,858,858,858,860,862,862,864,867,869,869,869,871,871,871,871,871,873,873,873,878,880,880,880,882,885,887,887,889,889,889,889,889,891,891,891,0,0,0,0,0,0,0,1748,1748,1739,1739,1739,1739,1739,1731,1731,1713,1713,1705,1705,1696,1696,1688,1688,1680,1680,1680,1680,1671,1663,1655,1647,1639,1639,1639,1632,1632,1624,1624,1616,1609,1609,1601,1601,1601,1594,1594,1586,1586,1579,1579,1572,1564,1557,1557,1550,1550,1550,1543,1543,1536,1536,1529,1523,1516,1516,1516,1516,1509,1509,1503,1503,1496,1489,1489,1483,1477,1470,1470,1470,1470,1464,1464,1464,1458,1458,1452,1445,1445,1439,1439,1433,1427,1421,1421,1421,1415,1415,1415,1410,1404,1404,1404,1398,1398,1392,1387,1381,1376,1376,1376,1370,1370,1370,1370,1365,1365,1354,1349,1349,1349,1343,1338,1333,1333,1333,1333,1328,1322,1322,1317,1317,1312,1312,1307,1307,1307,1302,1302,1297,1292,1292,1288,1283,1283,1278,1273,1273,1268,1268,1264,1264,1259,1259,1255,1255,1255,1245,1241,1241,1236,1236,1236,1232,1232,1227,1227,1223,1214,1214,1214,1214,1210,1210,1206,1202,1202,1197,1197,1193,1193,1185,1185,1185,1181,1181,1177,1177,1173,1169,1169,1165,1165,1165,1161,1157,1157,1153,1153,1149,1149,1145,1145,1141,1138,1138,1138,1134,1130,1126,1123,1123,1123,1119,1119,1115,1112,1112,1108,1108,1105,1105,1105,1101,1097,1097,1094,1090,1090,1090,1087,1084,1084,1080,1080,1077,1077,1073,1070,1070,1067,1067,1063,1063,1060,1060,1057,1057,1054,1054,1050,1047,1044,1044,1041,1041,1038,1038,1038,1034,1031,1031,1028,1028,1028,1025,1025,1025,1025,1019,1016,1013,1013,1013,1010,1010,1007,1004,1004,1001,1001,1001,0,0,0,0,0,0,0,0,0,0,0,0,0,0,0,0,0,0,0,0,0,0,0,0,0,0,0,0,0,0,0,0,0
0,0,0,0,0,0,0,0,0,0,0,0,1794,1794,1794,1785,1785,1776,1776,1785,0,0,0,0,0,0,0,0,0,0,0,800,800,800,798,798,798,800,800,798,796,796,798,800,798,798,798,798,800,800,800,800,796,794,794,794,794,794,796,796,796,802,802,800,798,798,798,796,796,796,798,800,800,800,800,800,802,802,800,798,798,798,798,798,800,800,800,798,798,798,800,798,796,794,794,796,796,794,792,792,794,794,794,794,794,794,794,794,796,796,796,796,796,796,796,796,794,794,794,794,794,796,796,796,796,796,796,796,796,800,800,800,798,798,798,796,794,794,794,794,794,794,794,796,798,798,800,800,800,798,798,796,796,796,796,796,798,798,798,798,798,798,798,800,798,798,796,796,798,798,796,796,796,800,798,798,798,798,800,800,798,798,798,798,798,796,796,796,796,796,798,798,798,796,796,800,800,800,800,800,800,802,800,800,800,798,798,798,798,798,798,798,798,798,798,798,798,798,800,800,800,798,798,800,798,798,798,798,798,798,798,798,798,798,798,796,796,798,798,798,798,800,798,798,798,798,798,798,798,800,800,802,802,802,802,803,803,803,805,807,809,809,809,811,813,813,815,817,819,819,819,819,821,823,825,827,827,829,833,835,837,837,841,843,847,849,856,856,858,858,858,860,860,862,864,864,867,869,869,869,869,871,871,871,871,871,873,873,875,880,880,880,880,885,885,887,889,889,889,889,889,891,891,891,891,0,0,0,0,0,0,1739,1739,1739,1739,1739,1739,1739,1731,1731,1731,1713,1713,1705,1705,1696,1696,1696,1688,1688,1680,1680,1680,1671,1663,1655,1647,1647,1639,1639,1632,1632,1632,1624,1624,1609,1609,1601,1601,1601,1601,1594,1586,1586,1579,1579,1572,1564,1557,1557,1550,1550,1550,1543,1543,1536,1536,1529,1523,1516,1516,1516,1516,1509,1509,1503,1503,1503,1496,1489,1489,1483,1477,1470,1470,1470,1464,1464,1464,1464,1458,1458,1452,1445,1445,1439,1433,1433,1427,1421,1421,1415,1415,1415,1410,1410,1410,1404,1404,1398,1392,1392,1381,1376,1376,1376,1370,1370,1370,1370,1365,1365,1354,1354,1349,1349,1343,1338,1333,1333,1333,1333,1328,1328,1322,1322,1317,1312,1312,1307,1307,1307,1302,1302,1297,1297,1292,1288,1283,1283,1278,1278,1273,1273,1268,1268,1264,1264,1259,1255,1255,1250,1245,1245,1241,1236,1236,1236,1232,1232,1232,1227,1223,1214,1214,1214,1214,1214,1210,1206,1206,1202,1202,1197,1197,1193,1185,1185,1185,1181,1181,1177,1173,1173,1169,1169,1165,1165,1165,1161,1161,1153,1153,1153,1149,1149,1149,1145,1141,1141,1138,1138,1134,1130,1130,1123,1123,1123,1119,1119,1119,1115,1112,1108,1108,1105,1105,1105,1101,1097,1097,1094,1094,1090,1090,1087,1084,1084,1080,1080,1077,1077,1073,1073,1070,1067,1067,1063,1063,1063,1060,1057,1057,1054,1054,1050,1047,1047,1044,1041,1041,1038,1038,1038,1034,1031,1031,1031,1028,1028,1025,1025,1025,1022,1019,1016,1013,1013,1013,1010,1010,1007,1004,1004,1001,1001,1001,0,0,0,0,0,0,0,0,0,0,0,0,0,0,0,0,0,0,0,0,0,0,0,0,0,0,0,0,0,0,0,0,0
0,0,0,0,0,0,0,0,0,0,0,0,1794,1785,1785,1785,1776,1776,1776,1766,1766,0,0,0,0,0,0,0,0,0,798,798,800,796,796,794,794,794,794,794,792,792,794,796,796,796,796,798,796,796,794,794,792,790,790,790,790,790,790,792,794,794,794,794,794,794,794,794,794,794,794,796,796,796,796,796,796,796,794,794,794,794,794,796,796,796,794,794,794,794,796,794,794,792,792,794,794,792,790,790,790,792,792,792,790,790,790,790,792,794,794,794,794,794,794,794,792,792,790,790,790,792,792,792,794,794,794,794,794,792,790,790,790,794,792,792,792,794,794,792,792,792,792,792,792,792,796,796,798,796,796,792,792,792,792,792,794,796,796,796,796,796,796,798,796,796,794,794,796,794,794,794,794,796,796,796,794,794,796,796,796,796,796,796,794,794,794,794,794,794,796,796,796,794,794,792,792,792,792,796,796,798,798,798,796,796,796,796,796,796,796,796,796,796,796,798,796,796,796,796,796,796,796,796,796,796,796,796,796,796,796,798,796,796,796,796,796,796,796,796,796,794,794,796,796,796,798,798,798,800,800,802,802,802,802,803,803,803,805,807,809,809,811,811,813,813,815,817,819,819,819,819,823,823,825,829,831,837,839,839,841,843,845,847,849,851,856,856,858,858,860,860,860,862,864,864,867,869,869,871,871,871,871,871,873,873,873,875,875,880,880,880,880,885,887,887,889,889,889,891,891,891,891,891,891,0,0,0,0,0,0,1731,1731,1739,1739,1739,1731,1731,1731,1731,1722,1713,1713,1705,1705,1705,1696,1696,1688,1688,1680,1680,1680,1671,1663,1663,1655,1647,1647,1639,1639,1632,1632,1624,1624,1609,1609,1609,1601,1601,1601,1594,1586,1586,1579,1579,1572,1564,1557,1550,1550,1550,1550,1543,1543,1543,1536,1529,1523,1523,1516,1516,1516,1509,1509,1503,1503,1503,1496,1496,1489,1489,1477,1477,1470,1470,1464,1464,1464,1464,1458,1458,1452,1445,1445,1439,1439,1433,1427,1421,1421,1415,1415,1415,1410,1410,1410,1404,1404,1398,1392,1392,1381,1376,1376,1376,1376,1370,1370,1370,1365,1365,1354,1354,1349,1349,1343,1343,1338,1333,1333,1333,1328,1328,1322,1322,1317,1317,1312,1312,1307,1307,1302,1302,1297,1297,1292,1288,1283,1283,1278,1278,1273,1273,1268,1268,1264,1264,1259,1255,1255,1250,1250,1245,1245,1241,1236,1236,1236,1232,1232,1227,1223,1219,1214,1214,1214,1214,1210,1206,1206,1202,1202,1197,1197,1193,1189,1185,1185,1181,1181,1177,1173,1173,1169,1169,1165,1165,1165,1161,1161,1153,1153,1153,1149,1149,1149,1145,1141,1141,1138,1138,1134,1134,1130,1123,1123,1123,1119,1119,1119,1115,1112,1108,1108,1105,1105,1105,1105,1101,1097,1094,1094,1090,1090,1090,1087,1084,1080,1080,1077,1077,1073,1073,1070,1070,1067,1067,1063,1063,1060,1057,1057,1054,1054,1050,1047,1047,1044,1041,1041,1038,1038,1038,1038,1034,1031,1031,1028,1028,1028,1025,1025,1019,1019,1016,1016,1013,1013,1013,1010,1007,1004,1004,1001,1001,1001,0,0,0,0,0,0,0,0,0,0,0,0,0,0,0,0,0,0,0,0,0,0,0,0,0,0,0,0,0,0,0,0,0
0,0,0,0,0,0,0,0,0,0,0,0,1785,1776,1776,1776,1776,1776,1776,1766,1766,0,0,0,0,0,0,0,0,0,798,798,798,794,794,792,792,790,790,790,790,790,790,790,790,792,792,792,790,790,790,790,790,790,789,789,789,789,789,789,789,790,792,792,790,790,790,790,790,790,790,790,792,792,792,789,789,790,789,789,790,792,790,790,792,792,790,790,790,790,792,792,790,790,790,792,790,789,789,789,789,790,790,789,789,787,787,787,787,787,789,789,792,792,792,792,789,789,789,789,789,789,789,789,789,789,789,789,789,789,787,787,787,789,787,787,792,792,792,792,792,792,790,790,790,790,790,790,790,790,790,790,790,790,790,790,792,792,792,794,794,794,794,796,796,794,792,792,794,792,792,790,790,792,792,792,790,790,792,792,794,794,790,790,792,792,790,790,790,790,792,790,790,790,790,789,789,789,789,790,790,790,790,796,796,794,794,794,794,794,794,794,794,794,794,794,794,794,792,792,792,792,792,794,794,794,794,794,796,796,794,794,794,794,794,794,794,794,794,792,792,792,792,792,792,794,796,796,796,798,800,800,802,802,802,803,803,803,805,807,809,809,811,811,813,813,815,817,819,819,819,821,825,827,829,839,839,841,843,843,843,847,847,849,851,854,856,858,858,860,860,860,862,862,864,864,867,869,871,871,871,873,873,873,873,873,875,875,878,880,880,880,882,885,887,887,889,889,889,891,891,891,894,894,0,0,0,0,0,0,0,1731,1731,1739,1739,1731,1731,1731,1731,1722,1722,1713,1713,1705,1705,1705,1696,1696,1688,1688,1688,1680,1680,1671,1663,1663,1655,1647,1647,1639,1639,1632,1632,1624,1624,1609,1609,1609,1601,1601,1601,1594,1586,1586,1579,1579,1572,1564,1557,1550,1550,1550,1550,1550,1543,1543,1536,1536,1523,1523,1516,1516,1516,1509,1509,1503,1503,1503,1496,1496,1489,1489,1483,1477,1470,1470,1470,1464,1464,1464,1458,1458,1452,1445,1445,1439,1439,1433,1427,1421,1421,1415,1415,1415,1415,1410,1410,1404,1404,1398,1392,1392,1387,1381,1376,1376,1376,1370,1370,1370,1365,1365,1354,1354,1349,1349,1343,1343,1338,1333,1333,1333,1328,1328,1322,1322,1317,1312,1312,1312,1307,1307,1302,1302,1297,1297,1292,1288,1288,1283,1278,1278,1273,1273,1268,1268,1264,1264,1259,1255,1255,1250,1250,1245,1245,1241,1236,1236,1236,1232,1232,1227,1227,1219,1214,1214,1214,1214,1210,1206,1206,1202,1202,1197,1197,1193,1189,1185,1185,1181,1181,1181,1177,1173,1173,1169,1165,1165,1165,1161,1161,1153,1153,1153,1149,1149,1149,1145,1145,1141,1138,1138,1134,1134,1130,1123,1123,1123,1119,1119,1119,1115,1112,1112,1108,1108,1105,1105,1105,1101,1097,1094,1094,1094,1090,1090,1087,1087,1084,1080,1077,1077,1077,1073,1070,1070,1070,1067,1063,1063,1060,1057,1057,1054,1054,1050,1047,1047,1044,1041,1041,1038,1038,1038,1038,1034,1031,1031,1028,1028,1028,1025,1025,1019,1019,1016,1016,1013,1013,1013,1010,1007,1004,1004,1001,1001,1001,0,0,0,0,0,0,0,0,0,0,0,0,0,0,0,0,0,0,0,0,0,0,0,0,0,0,0,0,0,0,0,0,0
0,0,0,0,0,0,0,0,0,0,0,0,1766,1766,1766,1766,1766,1766,1766,1766,1766,0,0,0,0,0,0,0,0,0,796,796,794,792,792,790,790,789,789,789,789,787,787,787,787,787,789,789,789,789,789,789,789,789,789,789,787,787,787,787,787,789,789,789,789,789,789,787,787,787,787,787,787,789,789,787,787,789,787,787,789,789,789,789,789,789,789,789,789,789,790,789,789,789,789,789,789,789,789,789,789,789,789,789,787,785,783,783,783,783,785,785,787,787,787,787,785,785,787,787,787,787,787,787,787,785,785,787,785,785,785,785,785,785,785,785,787,789,790,790,790,790,790,790,789,789,789,789,789,789,789,789,789,789,787,787,789,789,789,789,790,790,790,792,792,792,789,789,789,789,790,789,789,789,789,789,789,789,787,787,789,790,787,787,787,787,787,787,787,787,789,789,789,789,787,787,787,787,787,787,787,787,787,787,789,789,792,792,792,792,792,792,792,792,790,790,790,790,790,790,790,789,789,789,789,789,789,789,790,790,790,790,790,790,792,792,792,792,790,790,790,790,790,792,792,792,794,796,796,798,798,800,802,802,803,803,803,805,805,809,809,809,811,813,813,813,815,819,819,819,821,823,827,831,831,839,843,843,843,845,845,847,849,851,854,854,856,858,858,860,860,860,862,862,864,864,867,869,871,873,873,873,873,873,873,873,875,875,878,880,880,882,885,887,887,887,889,889,889,891,891,891,894,894,0,0,0,0,0,0,0,1731,1731,1739,1731,1731,1731,1722,1722,1722,1713,1713,1713,1705,1705,1705,1696,1696,1696,1688,1688,1680,1680,1671,1663,1663,1655,1655,1647,1639,1639,1639,1632,1624,1624,1609,1609,1609,1609,1601,1601,1594,1586,1579,1579,1579,1572,1572,1564,1557,1550,1550,1550,1550,1543,1543,1543,1536,1523,1523,1516,1516,1516,1516,1509,1503,1503,1503,1496,1496,1489,1489,1483,1477,1477,1470,1470,1470,1464,1464,1458,1458,1452,1445,1445,1439,1439,1433,1427,1421,1421,1415,1415,1415,1415,1415,1410,1404,1404,1398,1392,1392,1387,1381,1381,1376,1376,1370,1370,1370,1365,1365,1354,1354,1354,1349,1349,1343,1338,1338,1333,1333,1333,1328,1328,1322,1317,1312,1312,1312,1307,1307,1307,1302,1297,1297,1292,1292,1288,1283,1278,1278,1273,1273,1268,1268,1264,1264,1259,1255,1255,1250,1250,1245,1245,1241,1241,1236,1236,1232,1232,1227,1227,1223,1219,1219,1214,1214,1210,1210,1206,1202,1202,1197,1197,1193,1189,1185,1185,1185,1181,1181,1177,1177,1173,1169,1165,1165,1165,1161,1157,1153,1153,1153,1153,1149,1149,1145,1145,1141,1141,1138,1134,1134,1130,1123,1123,1123,1119,1119,1119,1115,1115,1112,1108,1108,1105,1105,1105,1101,1097,1094,1094,1094,1090,1090,1087,1087,1084,1080,1077,1077,1077,1073,1070,1070,1070,1067,1067,1063,1060,1060,1057,1057,1054,1054,1047,1047,1044,1041,1041,1041,1038,1038,1038,1034,1034,1031,1031,1028,1028,1028,1025,1022,1019,1016,1016,1016,1013,1013,1010,1007,1007,1004,1004,1001,1001,0,0,0,0,0,0,0,0,0,0,0,0,0,0,0,0,0,0,0,0,0,0,0,0,0,0,0,0,0,0,0,0,0
0,0,0,0,0,0,0,0,0,0,0,0,1766,1766,1757,1757,1766,1766,1766,1766,1766,0,0,0,0,0,0,0,0,0,796,796,794,792,790,789,789,789,787,787,787,785,783,783,783,783,787,785,785,785,787,787,787,785,785,785,785,785,783,783,785,783,783,785,787,787,787,785,785,785,785,785,785,783,783,785,787,785,785,787,787,787,785,785,785,785,787,785,785,787,787,787,787,785,785,783,783,787,787,787,787,787,783,783,783,783,781,781,781,781,783,783,785,787,787,787,783,783,785,785,781,781,783,783,783,783,783,783,783,783,783,783,783,781,781,781,783,785,787,787,785,785,785,785,787,787,787,787,787,787,787,785,785,787,787,787,787,785,785,787,787,785,785,785,785,785,785,785,785,789,789,787,787,787,787,787,787,787,787,787,787,787,785,785,785,785,785,785,783,783,783,787,787,787,785,785,785,785,783,783,781,781,781,781,781,781,783,783,783,783,789,789,789,787,787,787,787,787,787,787,787,787,787,787,785,785,785,785,783,781,781,783,785,785,785,787,787,789,789,789,789,790,790,792,792,792,794,794,796,796,798,800,802,802,803,803,803,805,807,809,811,811,811,813,815,817,819,819,819,823,825,827,833,833,839,839,843,843,845,847,847,849,851,851,854,856,858,858,858,860,860,860,862,862,867,867,869,871,873,873,873,873,873,873,873,873,875,875,878,880,880,882,885,887,887,889,889,889,889,891,891,891,894,894,0,0,0,0,0,0,0,1731,1731,1731,1731,1731,1722,1722,1722,1713,1705,1705,1705,1705,1705,1705,1705,1696,1696,1696,1688,1680,1680,1671,1663,1663,1663,1655,1647,1647,1639,1639,1632,1624,1624,1616,1609,1609,1609,1601,1601,1594,1586,1579,1579,1579,1572,1572,1564,1557,1557,1550,1550,1550,1543,1543,1543,1536,1523,1523,1516,1516,1516,1516,1516,1509,1509,1503,1496,1496,1496,1483,1483,1483,1477,1470,1470,1464,1464,1464,1458,1458,1452,1445,1445,1439,1439,1433,1427,1421,1421,1415,1415,1415,1415,1415,1410,1410,1398,1398,1392,1392,1387,1381,1381,1376,1376,1376,1370,1370,1365,1365,1354,1354,1354,1349,1349,1343,1338,1338,1333,1333,1333,1328,1328,1322,1322,1317,1312,1312,1312,1307,1307,1302,1297,1292,1292,1292,1288,1283,1283,1278,1273,1273,1268,1268,1264,1264,1259,1255,1255,1250,1250,1250,1245,1245,1241,1236,1236,1236,1232,1227,1227,1223,1219,1219,1214,1214,1214,1210,1210,1206,1202,1197,1197,1197,1189,1189,1185,1185,1181,1181,1177,1177,1173,1169,1169,1169,1165,1165,1157,1153,1153,1153,1153,1149,1149,1145,1145,1141,1141,1138,1134,1134,1130,1126,1123,1123,1123,1119,1119,1115,1115,1112,1108,1108,1105,1105,1105,1101,1097,1094,1094,1094,1090,1090,1090,1087,1087,1080,1080,1077,1077,1073,1073,1070,1070,1067,1067,1063,1060,1060,1060,1057,1054,1054,1050,1047,1044,1044,1044,1041,1041,1038,1038,1038,1034,1031,1031,1028,1028,1028,1025,1022,1019,1016,1016,1016,1013,1013,1010,1010,1007,1004,1004,1001,1001,0,0,0,0,0,0,0,0,0,0,0,0,0,0,0,0,0,0,0,0,0,0,0,0,0,0,0,0,0,0,0,0,0
0,0,0,0,0,0,0,0,0,0,0,0,1757,1757,1757,1757,1757,1748,1748,1739,1739,1757,0,0,0,0,0,0,0,0,0,0,794,790,789,789,787,785,785,785,783,783,781,781,781,781,783,783,783,785,785,787,787,785,785,783,783,783,781,781,781,781,781,783,785,785,783,783,781,781,781,781,781,781,781,781,781,781,781,781,785,783,783,783,783,783,783,783,783,783,783,783,783,781,781,781,781,781,783,783,783,781,781,781,781,781,780,780,780,780,780,780,780,780,778,778,780,780,780,780,780,780,780,780,780,780,780,781,781,780,780,781,780,780,778,778,780,780,778,776,776,776,776,776,776,776,776,780,781,783,783,783,783,785,785,783,783,783,781,781,781,780,780,776,776,780,781,778,776,776,785,785,785,785,785,785,785,783,783,781,781,785,783,783,783,783,783,783,781,781,781,781,781,781,781,783,781,781,780,780,780,778,778,778,778,778,778,778,778,780,778,778,781,781,785,783,783,785,785,785,785,785,787,785,783,781,781,781,781,781,781,781,781,783,783,785,787,787,787,787,789,789,790,790,792,792,794,794,796,796,798,800,802,802,803,803,803,805,807,809,811,811,813,815,817,819,821,821,825,827,829,833,833,839,841,841,843,843,845,847,847,849,851,851,854,856,858,858,858,860,860,860,862,864,867,867,869,871,873,873,873,873,873,873,875,875,875,878,878,882,882,882,887,887,887,889,889,889,889,891,891,891,894,894,0,0,0,0,0,0,0,1731,1731,1731,1722,1722,1722,1713,1713,1705,1705,1705,1705,1705,1705,1705,1705,1696,1696,1696,1688,1680,1680,1671,1671,1663,1663,1663,1655,1647,1639,1639,1632,1632,1624,1616,1616,1609,1609,1601,1601,1594,1586,1579,1579,1579,1579,1572,1572,1564,1557,1557,1550,1550,1550,1543,1543,1536,1536,1523,1523,1516,1516,1516,1516,1509,1509,1503,1496,1496,1496,1483,1483,1483,1477,1470,1470,1464,1464,1464,1458,1458,1452,1445,1439,1439,1439,1433,1427,1421,1421,1421,1415,1415,1415,1415,1415,1410,1398,1398,1392,1392,1387,1387,1381,1376,1376,1376,1370,1370,1365,1365,1354,1354,1354,1349,1349,1343,1338,1338,1333,1333,1333,1328,1328,1322,1322,1317,1312,1312,1312,1307,1307,1302,1297,1292,1292,1292,1288,1283,1283,1278,1273,1273,1273,1268,1268,1264,1259,1259,1255,1250,1250,1250,1245,1245,1241,1236,1236,1236,1232,1232,1227,1223,1219,1219,1214,1214,1214,1210,1210,1206,1202,1197,1197,1197,1189,1189,1185,1185,1181,1181,1177,1177,1173,1169,1169,1169,1165,1165,1161,1157,1153,1153,1153,1149,1149,1145,1145,1141,1141,1138,1134,1134,1130,1126,1123,1123,1123,1123,1119,1119,1115,1112,1112,1108,1105,1105,1105,1101,1097,1094,1094,1094,1094,1090,1090,1087,1087,1080,1077,1077,1077,1073,1073,1070,1070,1067,1067,1063,1060,1060,1060,1057,1054,1054,1050,1047,1047,1044,1044,1041,1041,1038,1038,1038,1034,1031,1031,1031,1028,1028,1025,1022,1019,1016,1016,1016,1013,1013,1013,1010,1007,1004,1004,1001,1001,0,0,0,0,0,0,0,0,0,0,0,0,0,0,0,0,0,0,0,0,0,0,0,0,0,0,0,0,0,0,0,0,0
0,0,0,0,0,0,0,0,0,0,0,0,1757,1748,1748,1748,1748,1748,1748,1739,1739,1731,1731,1731,0,0,0,0,0,0,0,0,0,790,787,787,781,781,780,780,781,781,781,781,781,781,781,781,783,783,785,785,785,785,783,781,781,781,780,780,780,780,780,780,781,781,781,780,778,778,776,776,776,776,776,776,778,778,778,780,780,780,780,780,780,781,781,780,780,780,780,780,780,780,778,778,778,778,780,780,781,781,781,781,781,780,780,780,780,780,778,776,776,776,774,774,774,774,778,778,778,778,778,776,776,778,778,778,778,778,778,778,778,776,774,774,774,776,776,774,774,774,774,774,774,774,774,774,773,773,773,778,778,781,780,778,776,776,776,776,776,776,776,776,776,776,776,776,776,776,781,783,783,781,781,783,781,781,780,776,776,776,776,778,780,780,780,780,780,778,778,778,776,776,778,778,778,778,778,778,778,776,776,776,774,774,774,774,774,776,776,776,778,778,778,776,776,780,774,774,774,778,778,780,780,780,780,780,780,780,780,780,781,781,781,785,785,787,787,787,789,789,789,790,790,792,794,794,796,796,798,800,802,802,803,803,805,805,807,811,811,813,813,819,823,825,825,827,831,831,831,835,839,841,841,843,843,843,845,847,849,849,851,851,854,856,858,858,860,860,860,862,862,864,867,867,869,871,873,873,873,873,875,875,875,875,875,878,878,882,882,885,887,887,889,889,889,889,891,891,894,894,894,894,0,0,0,0,0,0,0,1722,1722,1722,1713,1713,1713,1705,1705,1705,1705,1705,1705,1705,1705,1705,1696,1696,1696,1696,1688,1680,1671,1671,1671,1663,1663,1663,1655,1647,1647,1639,1639,1632,1624,1624,1616,1616,1609,1609,1601,1594,1586,1579,1579,1579,1579,1572,1572,1564,1564,1557,1550,1550,1550,1543,1543,1543,1536,1529,1523,1523,1516,1516,1516,1509,1509,1503,1496,1496,1489,1483,1483,1483,1477,1477,1470,1464,1464,1464,1458,1458,1452,1445,1439,1439,1439,1433,1427,1421,1421,1421,1421,1415,1415,1415,1415,1410,1398,1398,1398,1392,1392,1387,1381,1381,1376,1376,1370,1370,1370,1365,1359,1354,1354,1354,1349,1349,1343,1338,1333,1333,1333,1328,1328,1322,1322,1317,1317,1312,1312,1312,1307,1302,1302,1292,1292,1292,1288,1288,1283,1278,1278,1273,1273,1268,1268,1268,1259,1259,1255,1255,1250,1250,1250,1245,1245,1241,1241,1236,1232,1232,1227,1223,1219,1219,1219,1214,1214,1210,1210,1206,1202,1197,1197,1197,1189,1189,1185,1185,1181,1181,1177,1177,1173,1169,1169,1169,1165,1165,1161,1157,1157,1153,1153,1149,1149,1149,1145,1141,1141,1138,1134,1134,1130,1126,1123,1123,1123,1123,1119,1119,1115,1112,1112,1108,1105,1105,1105,1101,1097,1097,1094,1094,1090,1090,1090,1087,1087,1080,1077,1077,1077,1073,1073,1073,1073,1070,1067,1067,1063,1063,1060,1060,1057,1054,1054,1050,1047,1047,1044,1041,1041,1038,1038,1038,1034,1034,1031,1031,1028,1028,1025,1022,1019,1019,1016,1016,1016,1013,1013,1010,1007,1004,1004,1001,1001,0,0,0,0,0,0,0,0,0,0,0,0,0,0,0,0,0,0,0,0,0,0,0,0,0,0,0,0,0,0,0,0,0
0,0,0,0,0,0,0,0,0,0,0,0,1748,1748,1748,1739,1739,1739,1739,1731,1731,1731,1722,1722,0,0,0,0,0,0,0,0,0,0,781,781,780,780,780,778,778,780,780,780,780,780,780,780,780,778,778,780,780,780,780,778,778,778,778,776,776,776,776,778,778,776,776,776,776,774,774,774,774,774,774,774,776,776,776,776,778,778,778,778,778,776,776,776,776,776,776,776,776,776,776,776,776,776,776,776,778,778,780,780,780,778,778,778,776,774,774,774,774,774,773,773,773,771,771,773,773,773,774,773,773,774,776,776,776,774,774,774,773,771,771,771,771,771,771,771,771,773,773,774,773,773,773,773,771,769,769,769,771,773,773,773,774,774,774,774,774,774,774,774,774,774,774,774,774,774,776,776,778,778,778,778,780,778,776,774,774,774,774,774,774,774,774,776,778,776,774,774,774,773,773,776,776,776,776,776,776,774,774,773,773,771,771,773,773,773,774,774,774,774,774,774,774,773,773,773,773,774,774,774,776,776,778,778,780,780,780,780,780,781,781,783,783,785,787,787,789,789,789,790,790,792,794,794,796,796,800,802,802,802,803,805,805,807,809,813,813,815,819,823,827,827,829,831,833,833,835,839,839,841,843,843,845,845,847,849,849,849,851,854,854,856,858,858,860,860,862,862,864,867,869,869,871,873,873,875,875,875,875,875,875,875,875,878,878,882,882,885,887,887,889,889,889,889,891,891,894,894,894,894,896,0,0,0,0,0,0,1722,1713,1713,1705,1705,1705,1705,1705,1705,1696,1696,1705,1705,1705,1705,1696,1696,1688,1688,1680,1680,1671,1671,1671,1663,1663,1663,1655,1655,1647,1639,1639,1632,1632,1624,1616,1616,1609,1609,1601,1601,1586,1579,1579,1579,1579,1572,1572,1564,1564,1557,1550,1550,1550,1543,1543,1543,1536,1536,1523,1523,1516,1516,1516,1509,1503,1503,1496,1496,1489,1483,1483,1483,1477,1470,1470,1470,1464,1464,1458,1458,1452,1445,1439,1439,1439,1433,1427,1427,1421,1421,1421,1415,1415,1415,1415,1410,1404,1398,1398,1392,1392,1387,1387,1381,1376,1376,1376,1370,1370,1365,1359,1354,1354,1354,1349,1349,1343,1338,1338,1333,1333,1333,1328,1322,1322,1317,1317,1312,1312,1312,1307,1307,1302,1292,1292,1292,1288,1288,1288,1283,1278,1273,1273,1268,1268,1268,1264,1259,1255,1255,1255,1250,1250,1250,1245,1241,1241,1236,1232,1232,1227,1227,1219,1219,1219,1214,1214,1210,1210,1206,1202,1202,1202,1197,1189,1189,1185,1185,1181,1181,1177,1177,1173,1169,1169,1169,1165,1165,1161,1161,1157,1153,1153,1149,1149,1149,1145,1141,1141,1138,1138,1134,1134,1130,1123,1123,1123,1123,1119,1119,1115,1115,1112,1108,1105,1105,1105,1101,1097,1097,1094,1094,1090,1090,1090,1087,1087,1080,1080,1077,1077,1073,1073,1073,1073,1070,1067,1067,1063,1063,1060,1060,1057,1057,1054,1050,1047,1047,1044,1041,1041,1038,1038,1038,1038,1034,1034,1031,1031,1025,1025,1025,1022,1019,1019,1016,1016,1013,1013,1010,1010,1007,1004,1004,1004,0,0,0,0,0,0,0,0,0,0,0,0,0,0,0,0,0,0,0,0,0,0,0,0,0,0,0,0,0,0,0,0,0
0,0,0,0,0,0,0,0,0,0,0,0,1739,1739,1731,1731,1739,1731,1731,1722,1722,1722,1722,1722,0,0,0,0,0,0,0,0,0,0,780,780,778,776,776,774,774,774,774,774,774,769,769,773,773,771,769,769,773,769,769,773,773,774,774,773,773,773,773,774,769,769,771,773,774,773,773,773,773,773,773,773,774,774,774,774,774,774,774,773,773,773,773,773,773,773,773,774,774,774,774,774,774,774,774,773,773,774,774,776,776,776,776,776,774,774,773,773,771,771,769,769,769,767,767,767,767,769,769,771,771,773,773,773,773,771,771,769,769,769,769,769,769,769,769,769,769,771,771,771,771,771,769,769,769,767,767,766,766,766,769,769,769,769,769,769,774,773,773,773,773,773,773,773,773,773,771,771,773,774,774,774,774,774,774,773,773,773,773,773,773,773,771,771,771,771,771,771,769,769,769,771,773,773,773,773,773,771,771,769,769,769,769,771,771,771,773,773,773,773,771,771,771,771,771,771,771,771,773,773,773,774,774,778,778,778,778,780,780,780,780,781,783,785,787,787,789,789,790,790,792,792,794,796,796,796,800,802,802,802,803,805,807,809,811,817,821,823,825,827,829,831,831,833,835,835,835,839,841,841,843,845,845,847,847,849,849,851,851,854,856,856,858,858,860,860,862,864,867,867,869,869,871,873,875,875,875,875,875,875,875,875,878,878,878,880,882,885,887,887,889,889,889,891,891,894,894,894,896,896,896,0,0,0,0,0,0,0,1705,1705,1696,1696,1696,1696,1696,1696,1696,1696,1696,1696,1696,1696,1696,1688,1688,1688,1680,1680,1671,1671,1671,1663,1663,1663,1655,1647,1647,1639,1639,1632,1632,1624,1616,1616,1616,1609,1601,1601,1586,1579,1579,1579,1579,1572,1572,1572,1564,1557,1550,1550,1550,1543,1543,1543,1536,1536,1523,1523,1523,1516,1516,1509,1503,1503,1496,1496,1489,1483,1483,1483,1477,1470,1470,1470,1464,1464,1458,1458,1452,1445,1445,1439,1439,1433,1427,1427,1421,1421,1421,1415,1415,1415,1415,1410,1404,1398,1398,1392,1392,1387,1387,1381,1376,1376,1376,1370,1370,1365,1359,1354,1354,1354,1354,1349,1349,1343,1338,1333,1333,1333,1328,1328,1322,1322,1317,1317,1312,1312,1307,1307,1302,1292,1292,1292,1288,1288,1288,1283,1278,1278,1273,1273,1268,1268,1264,1259,1255,1255,1255,1250,1250,1250,1245,1245,1241,1236,1232,1232,1227,1227,1219,1219,1219,1219,1214,1210,1210,1206,1202,1202,1202,1197,1197,1189,1185,1185,1181,1181,1181,1177,1173,1169,1169,1169,1169,1165,1165,1161,1157,1157,1153,1153,1149,1149,1145,1141,1141,1138,1138,1134,1134,1130,1126,1123,1123,1123,1119,1119,1115,1115,1112,1108,1105,1105,1105,1101,1097,1094,1094,1094,1090,1090,1090,1090,1087,1084,1080,1080,1077,1077,1077,1073,1073,1070,1067,1067,1063,1063,1060,1060,1060,1057,1054,1050,1050,1047,1047,1041,1041,1041,1038,1038,1038,1034,1034,1031,1028,1025,1025,1025,1022,1022,1019,1016,1016,1013,1013,1010,1010,1007,1004,1004,1004,0,0,0,0,0,0,0,0,0,0,0,0,0,0,0,0,0,0,0,0,0,0,0,0,0,0,0,0,0,0,0,0,0
0,0,0,0,0,0,0,0,0,0,0,0,1731,1731,1731,1731,1731,1731,1731,1722,1722,1713,1713,1713,1713,0,0,0,0,0,0,0,0,0,780,774,774,773,773,771,769,769,769,769,767,767,767,769,769,769,767,767,769,767,767,766,766,773,771,769,769,769,769,769,769,769,769,769,771,771,771,771,771,771,771,771,773,773,773,767,767,767,771,767,767,771,771,771,769,769,769,771,769,769,771,773,773,773,771,769,769,769,769,771,773,773,773,773,773,773,771,771,769,767,767,767,766,764,764,764,766,766,767,767,769,769,771,769,769,767,767,767,767,767,767,767,767,767,767,767,767,769,769,769,769,769,769,767,767,766,766,766,766,766,766,767,767,767,767,767,769,769,769,773,773,773,771,771,767,767,767,767,767,767,769,769,771,773,773,771,771,771,771,771,771,771,769,767,767,769,769,769,767,767,767,767,767,769,767,767,767,767,767,767,767,767,767,767,767,767,769,769,769,769,769,769,769,769,769,769,769,769,771,771,773,773,773,774,776,778,778,778,780,780,780,781,783,785,787,787,787,789,789,790,792,792,794,796,796,798,800,802,803,803,805,809,811,813,815,821,825,825,827,829,831,831,831,833,835,835,837,839,841,841,843,845,845,847,847,849,851,851,854,854,856,858,858,860,860,862,864,864,867,869,869,869,871,873,875,875,875,875,875,875,875,875,878,878,880,880,885,887,887,887,889,889,891,891,894,894,896,896,896,896,896,0,0,0,0,0,0,0,1705,1705,1688,1688,1688,1688,1688,1688,1688,1688,1696,1696,1696,1696,1696,1688,1680,1680,1680,1671,1671,1671,1663,1663,1663,1655,1655,1647,1647,1639,1639,1632,1632,1624,1624,1616,1616,1609,1601,1601,1586,1586,1579,1579,1579,1579,1572,1572,1564,1564,1557,1550,1550,1543,1543,1543,1536,1536,1523,1523,1523,1516,1516,1509,1509,1503,1496,1496,1489,1489,1483,1483,1477,1470,1470,1470,1464,1464,1464,1458,1458,1445,1445,1439,1439,1433,1427,1427,1421,1421,1421,1415,1415,1415,1415,1410,1404,1404,1398,1398,1392,1392,1381,1381,1376,1376,1376,1370,1370,1365,1359,1359,1354,1354,1354,1349,1349,1343,1338,1333,1333,1333,1333,1328,1328,1322,1317,1317,1312,1312,1307,1307,1302,1302,1292,1292,1288,1288,1288,1283,1283,1278,1273,1273,1268,1268,1264,1259,1255,1255,1255,1250,1250,1250,1245,1245,1241,1236,1236,1232,1232,1227,1219,1219,1219,1219,1214,1214,1210,1206,1202,1202,1202,1197,1197,1189,1185,1185,1181,1181,1181,1177,1173,1169,1169,1169,1169,1165,1165,1161,1161,1157,1153,1153,1149,1149,1145,1141,1141,1138,1138,1134,1134,1130,1126,1123,1123,1123,1119,1119,1115,1115,1112,1108,1105,1105,1105,1101,1097,1094,1094,1094,1090,1090,1090,1090,1087,1084,1080,1080,1077,1077,1077,1073,1073,1070,1067,1067,1063,1063,1063,1060,1060,1057,1054,1054,1050,1047,1047,1044,1041,1041,1038,1038,1038,1034,1034,1031,1028,1028,1025,1025,1025,1022,1019,1016,1016,1013,1013,1010,1010,1007,1007,1004,1004,0,0,0,0,0,0,0,0,0,0,0,0,0,0,0,0,0,0,0,0,0,0,0,0,0,0,0,0,0,0,0,0,0
0,0,0,0,0,0,0,0,0,0,0,0,1731,1722,1722,1722,1722,1722,1722,1713,1713,1713,1713,1713,1713,0,0,0,0,0,0,0,0,0,780,774,774,771,771,769,767,767,767,766,766,766,767,767,767,767,767,767,766,766,766,766,766,769,769,767,767,767,767,767,767,767,767,767,767,769,769,769,769,769,771,771,771,769,766,766,766,766,766,766,766,767,767,767,766,764,764,766,766,766,766,767,767,761,761,762,766,764,761,761,771,771,771,769,769,771,769,769,767,767,766,766,764,761,761,761,762,762,762,762,766,766,766,766,766,766,766,766,766,766,766,766,766,766,766,766,766,766,766,767,767,769,767,766,766,766,764,761,761,762,764,766,766,766,766,766,766,766,766,766,764,764,764,767,766,766,764,762,762,764,764,764,767,771,771,769,769,769,767,767,767,767,766,766,766,766,766,764,764,766,766,764,764,767,764,764,764,764,764,764,764,764,764,766,766,766,766,766,766,767,767,767,767,767,767,769,769,769,769,771,771,773,773,774,776,778,778,778,780,780,781,783,783,785,787,787,787,789,789,790,792,792,794,796,796,798,802,803,803,815,815,815,815,815,821,823,825,827,829,831,831,833,833,835,837,837,839,841,841,843,843,845,845,847,847,849,851,851,854,854,856,858,860,860,862,864,864,867,867,869,869,871,873,875,875,875,875,875,875,875,875,878,878,880,880,880,887,887,887,889,889,891,891,894,894,896,896,896,896,896,896,0,0,0,0,0,0,0,1705,1696,1688,1688,1688,1688,1688,1688,1688,1688,1688,1688,1688,1688,1688,1680,1680,1671,1671,1671,1671,1663,1663,1663,1663,1655,1655,1647,1647,1639,1639,1632,1632,1632,1624,1616,1616,1609,1601,1601,1594,1586,1586,1579,1579,1579,1572,1572,1564,1564,1557,1550,1550,1543,1543,1543,1536,1536,1523,1523,1523,1523,1516,1516,1509,1509,1503,1496,1489,1489,1483,1483,1477,1470,1470,1470,1464,1464,1464,1458,1458,1452,1445,1439,1439,1439,1433,1427,1421,1421,1421,1415,1415,1415,1415,1410,1410,1404,1398,1398,1392,1392,1381,1381,1376,1376,1376,1370,1370,1365,1359,1359,1354,1354,1354,1349,1349,1343,1338,1333,1333,1333,1333,1328,1328,1322,1322,1317,1312,1312,1307,1307,1302,1302,1292,1292,1288,1288,1288,1288,1283,1278,1278,1273,1273,1268,1268,1264,1259,1255,1255,1250,1250,1250,1245,1245,1241,1236,1236,1232,1232,1223,1223,1219,1219,1219,1214,1214,1210,1206,1206,1202,1202,1197,1197,1193,1189,1185,1185,1181,1181,1177,1177,1173,1169,1169,1169,1165,1165,1165,1161,1157,1157,1153,1149,1149,1145,1141,1141,1138,1138,1134,1134,1130,1130,1126,1123,1123,1119,1119,1115,1115,1112,1108,1105,1105,1105,1101,1097,1097,1094,1094,1090,1090,1090,1090,1087,1084,1080,1080,1077,1077,1077,1073,1073,1070,1067,1067,1063,1063,1063,1060,1060,1057,1054,1054,1050,1050,1047,1044,1041,1041,1038,1038,1038,1038,1034,1031,1028,1028,1025,1025,1025,1022,1022,1019,1016,1013,1013,1013,1010,1007,1007,1004,1004,0,0,0,0,0,0,0,0,0,0,0,0,0,0,0,0,0,0,0,0,0,0,0,0,0,0,0,0,0,0,0,0,0
0,0,0,0,0,0,0,0,0,0,0,0,1722,1722,1722,1722,1722,1722,1722,1713,1713,1713,1713,1713,1713,0,0,0,0,0,0,0,0,0,0,0,0,771,767,767,766,766,764,764,764,764,766,766,767,767,766,766,766,764,764,762,762,762,762,762,766,766,766,766,766,766,766,766,767,769,769,769,769,769,769,766,766,767,766,764,762,762,764,764,764,764,764,762,762,762,762,762,761,761,761,759,757,757,757,757,761,761,761,761,761,766,766,764,764,766,766,767,766,766,764,764,762,761,761,761,761,761,761,761,762,762,762,762,762,761,761,761,761,762,764,764,762,762,764,764,761,761,761,766,766,764,764,764,764,764,762,761,759,759,762,764,764,762,762,764,762,761,761,759,759,761,761,761,759,759,761,761,761,762,762,762,764,764,766,766,764,759,759,759,762,764,762,762,762,762,762,761,761,762,762,761,761,761,761,761,761,761,762,762,762,762,762,762,762,762,762,762,762,764,766,766,766,767,767,767,767,767,769,771,771,773,773,774,776,778,778,778,780,780,781,783,783,785,787,787,789,789,790,792,792,794,796,796,796,815,817,817,817,817,817,817,817,819,823,825,827,829,831,831,833,833,833,835,837,837,839,841,841,843,843,845,847,847,849,851,851,854,854,858,858,858,860,860,862,864,867,867,869,871,871,871,873,875,875,875,875,878,878,878,878,878,878,880,880,882,887,887,889,889,889,891,894,894,896,896,898,898,898,898,898,0,0,0,0,0,0,0,1705,1688,1680,1680,1680,1680,1680,1680,1680,1680,1680,1680,1680,1680,1680,1680,1671,1671,1671,1663,1663,1663,1663,1663,1655,1655,1655,1647,1647,1639,1639,1639,1632,1632,1624,1616,1616,1609,1601,1601,1594,1594,1586,1579,1579,1579,1572,1572,1572,1564,1557,1550,1550,1550,1543,1543,1543,1536,1536,1523,1523,1516,1516,1516,1509,1509,1503,1496,1489,1489,1489,1483,1477,1477,1470,1470,1464,1464,1464,1458,1458,1452,1445,1445,1439,1439,1433,1427,1421,1421,1421,1421,1421,1415,1415,1410,1410,1410,1404,1398,1398,1392,1381,1381,1376,1376,1376,1376,1370,1370,1365,1359,1354,1354,1354,1349,1349,1343,1338,1333,1333,1333,1333,1328,1328,1322,1322,1317,1312,1312,1307,1307,1302,1302,1292,1292,1292,1288,1288,1288,1283,1278,1278,1273,1273,1273,1268,1264,1264,1255,1255,1250,1250,1250,1245,1245,1241,1236,1236,1232,1232,1223,1223,1219,1219,1219,1214,1214,1210,1206,1206,1202,1202,1202,1197,1197,1189,1185,1185,1181,1181,1177,1177,1173,1169,1169,1169,1165,1165,1161,1161,1157,1157,1153,1153,1149,1145,1145,1141,1138,1138,1138,1134,1134,1130,1126,1123,1123,1123,1119,1119,1115,1112,1108,1108,1105,1105,1101,1101,1097,1097,1094,1094,1090,1090,1090,1087,1084,1084,1080,1077,1077,1077,1073,1073,1070,1067,1067,1063,1063,1063,1060,1060,1057,1054,1054,1050,1050,1047,1044,1041,1041,1038,1038,1038,1038,1034,1031,1028,1028,1025,1025,1025,1022,1022,1019,1016,1013,1013,1013,1010,1007,1007,1004,1004,0,0,0,0,0,0,0,0,0,0,0,0,0,0,0,0,0,0,0,0,0,0,0,0,0,0,0,0,0,0,0,0,0
0,0,0,0,0,0,0,0,0,0,0,0,1722,1713,1713,1713,1713,1713,1713,1705,1705,1705,1705,1713,1713,1713,0,0,0,0,0,0,0,0,0,0,0,0,766,764,762,762,762,762,762,762,764,764,764,764,764,764,762,762,762,761,761,761,761,762,764,764,762,762,762,762,764,764,766,766,766,766,767,766,766,764,764,762,762,762,761,761,761,761,761,761,761,761,761,761,759,759,759,759,755,754,754,755,755,757,759,759,759,759,759,759,761,761,761,761,764,766,764,761,759,759,761,761,761,759,759,759,759,759,759,761,761,761,761,759,759,759,759,761,761,761,761,761,761,759,759,757,757,759,761,759,759,759,759,761,761,759,759,759,759,759,761,759,757,757,757,757,757,757,757,757,757,755,755,757,757,757,757,759,761,761,759,759,761,762,761,759,759,759,761,761,761,761,759,759,759,759,759,759,759,759,759,759,759,759,759,759,759,759,759,759,761,761,761,761,761,761,761,762,764,766,766,766,766,767,767,767,769,771,771,773,773,774,776,778,778,780,780,781,781,783,783,785,787,787,789,789,790,792,794,796,802,805,817,817,817,817,817,819,819,819,819,821,825,825,827,829,831,831,833,833,835,835,837,839,841,841,843,843,845,845,847,847,849,851,854,854,854,858,858,860,860,862,864,867,867,869,869,871,871,873,875,875,878,878,878,878,878,878,878,880,880,880,880,882,887,887,889,889,891,894,896,896,896,896,898,898,898,898,898,0,0,0,0,0,0,0,1696,1680,1671,1671,1671,1671,1671,1671,1671,1671,1680,1671,1671,1671,1671,1671,1671,1671,1663,1663,1663,1663,1663,1655,1655,1655,1647,1647,1639,1639,1639,1632,1632,1632,1624,1624,1616,1609,1609,1601,1601,1594,1586,1579,1579,1579,1572,1572,1572,1564,1557,1550,1550,1550,1543,1543,1543,1543,1529,1523,1523,1516,1516,1516,1509,1509,1503,1496,1489,1489,1489,1483,1477,1477,1470,1470,1464,1464,1464,1458,1452,1452,1445,1445,1439,1439,1433,1427,1421,1421,1421,1421,1421,1415,1415,1410,1410,1410,1404,1398,1398,1392,1381,1381,1376,1376,1376,1376,1370,1370,1365,1359,1359,1354,1354,1349,1349,1343,1343,1338,1333,1333,1328,1328,1328,1322,1322,1317,1312,1312,1307,1307,1302,1302,1292,1292,1292,1288,1288,1288,1283,1278,1278,1273,1273,1273,1268,1264,1264,1255,1255,1250,1250,1245,1245,1245,1241,1236,1236,1236,1232,1227,1223,1223,1219,1219,1214,1214,1210,1206,1206,1202,1202,1202,1197,1197,1189,1189,1185,1181,1181,1177,1177,1173,1169,1169,1169,1165,1165,1161,1161,1157,1157,1153,1153,1149,1149,1145,1141,1141,1138,1138,1134,1134,1130,1130,1126,1126,1123,1123,1119,1115,1115,1112,1108,1105,1105,1105,1101,1097,1097,1094,1094,1090,1090,1090,1087,1087,1084,1080,1077,1077,1077,1073,1073,1070,1067,1067,1067,1063,1063,1060,1060,1057,1054,1054,1050,1050,1047,1044,1041,1041,1038,1038,1038,1038,1034,1031,1028,1028,1025,1025,1025,1022,1022,1019,1016,1016,1013,1013,1013,1010,1007,1004,1004,0,0,0,0,0,0,0,0,0,0,0,0,0,0,0,0,0,0,0,0,0,0,0,0,0,0,0,0,0,0,0,0,0
0,0,0,0,0,0,0,0,0,0,0,0,1713,1713,1705,1705,1705,1705,1705,1705,1705,1705,1705,1705,1705,1713,0,0,0,0,0,0,0,0,0,0,0,0,759,759,759,759,761,761,761,761,762,762,764,764,762,761,761,761,761,761,759,759,759,761,761,761,761,761,759,757,757,754,754,757,757,759,762,762,761,761,761,759,759,759,759,757,757,759,759,757,757,759,759,759,757,757,755,755,754,752,752,752,754,754,755,754,754,757,757,759,759,759,757,757,759,761,761,757,757,757,757,759,759,759,759,759,759,757,757,757,759,759,759,755,755,755,754,754,754,754,754,757,755,755,757,757,755,755,757,755,755,755,755,757,757,757,757,759,759,759,759,755,755,755,755,755,755,755,755,755,755,755,755,755,755,755,755,755,757,757,755,755,755,757,757,757,757,757,757,757,759,759,759,759,757,757,757,757,757,757,757,757,757,757,757,757,757,755,755,757,757,759,759,759,759,761,761,761,762,764,766,766,766,767,767,767,769,771,771,773,773,774,776,778,780,780,781,781,783,785,785,787,789,789,789,789,790,794,796,809,809,813,815,817,817,817,819,819,819,821,821,825,825,827,829,829,831,831,833,833,835,837,839,841,841,841,843,843,845,845,847,849,851,851,854,854,856,858,858,860,862,864,867,867,869,869,871,871,873,875,875,875,878,878,878,880,878,878,878,880,880,880,882,882,887,887,889,889,891,894,896,896,896,898,898,898,898,898,898,901,0,0,0,0,0,0,1696,1680,1671,1671,1671,1671,1671,1671,1671,1671,1671,1671,1671,1671,1671,1671,1671,1663,1663,1663,1663,1663,1663,1655,1655,1655,1647,1647,1639,1639,1639,1632,1632,1632,1624,1624,1624,1616,1609,1609,1601,1601,1594,1586,1586,1579,1572,1572,1572,1564,1557,1550,1550,1550,1550,1543,1543,1543,1529,1529,1523,1523,1516,1516,1509,1509,1503,1503,1496,1489,1489,1483,1483,1477,1470,1470,1464,1464,1464,1458,1452,1452,1445,1445,1439,1439,1433,1427,1421,1421,1421,1421,1421,1415,1415,1415,1410,1410,1404,1398,1398,1392,1381,1381,1376,1376,1376,1376,1370,1370,1365,1359,1359,1354,1354,1349,1349,1349,1343,1338,1333,1333,1328,1328,1328,1322,1322,1317,1312,1312,1307,1307,1307,1302,1292,1292,1292,1288,1288,1288,1283,1283,1278,1273,1273,1273,1268,1268,1264,1255,1255,1250,1250,1245,1245,1245,1241,1236,1236,1236,1232,1227,1227,1223,1219,1219,1214,1214,1214,1210,1206,1206,1202,1202,1197,1197,1193,1189,1185,1185,1181,1181,1177,1173,1173,1169,1169,1165,1165,1165,1161,1161,1157,1153,1153,1149,1149,1145,1141,1141,1138,1134,1134,1134,1130,1130,1130,1126,1123,1123,1119,1119,1115,1112,1108,1108,1105,1105,1101,1097,1097,1094,1094,1090,1090,1090,1090,1087,1084,1080,1080,1077,1077,1077,1073,1070,1067,1067,1067,1063,1063,1060,1060,1057,1054,1054,1050,1050,1047,1044,1041,1041,1038,1038,1038,1034,1034,1031,1028,1028,1025,1025,1025,1022,1022,1019,1016,1016,1013,1013,1013,1010,1010,1007,1007,0,0,0,0,0,0,0,0,0,0,0,0,0,0,0,0,0,0,0,0,0,0,0,0,0,0,0,0,0,0,0,0,0
0,0,0,0,0,0,0,0,0,0,0,0,1705,1705,1705,1696,1696,1696,1696,1696,1696,1696,1696,1705,1705,1705,0,0,0,0,0,0,0,0,0,0,0,755,755,757,755,755,757,755,755,757,757,757,759,761,759,759,759,761,761,759,759,757,757,759,759,759,759,759,757,755,754,752,752,752,752,754,754,757,757,755,755,757,757,755,755,754,754,755,755,755,755,755,759,757,755,754,754,754,752,752,752,752,752,754,754,754,754,754,754,754,757,754,752,752,752,752,754,754,755,755,757,757,759,757,757,755,755,755,754,754,755,752,752,752,752,752,752,752,754,754,754,754,754,754,754,755,754,754,754,752,752,754,754,755,755,755,755,755,757,754,752,752,752,754,754,754,754,754,754,754,755,754,754,754,755,754,754,754,755,755,754,752,752,752,752,752,754,754,755,755,755,755,755,755,755,755,755,755,754,754,754,754,755,755,755,755,755,755,755,755,755,757,757,757,759,759,761,761,761,762,764,766,766,767,767,769,769,771,773,773,773,774,776,778,780,781,781,783,785,787,787,787,790,790,789,789,798,798,805,809,809,813,815,817,817,817,819,819,819,821,821,825,825,827,829,831,831,833,833,835,835,837,839,841,841,841,843,843,845,845,847,849,851,851,854,854,856,858,860,862,862,864,867,867,869,869,871,871,873,875,875,878,878,878,880,880,880,880,882,880,880,880,882,885,887,887,889,891,894,896,896,896,898,898,898,898,898,898,901,901,0,0,0,0,0,0,0,1671,1671,1671,1671,1671,1671,1671,1663,1663,1663,1663,1663,1663,1663,1663,1663,1663,1663,1655,1655,1655,1655,1655,1655,1647,1647,1647,1639,1639,1632,1632,1632,1632,1624,1624,1624,1616,1609,1609,1609,1601,1601,1594,1586,1579,1579,1572,1572,1564,1557,1557,1550,1550,1550,1543,1543,1543,1529,1529,1523,1523,1516,1516,1509,1509,1503,1503,1496,1496,1489,1489,1483,1477,1470,1470,1464,1464,1458,1458,1452,1445,1445,1439,1439,1439,1433,1427,1427,1427,1421,1421,1421,1415,1415,1415,1410,1410,1404,1404,1398,1392,1387,1381,1376,1376,1376,1370,1370,1370,1365,1359,1359,1354,1354,1349,1349,1349,1343,1338,1338,1333,1328,1328,1328,1322,1322,1317,1312,1312,1307,1307,1307,1302,1292,1292,1292,1288,1288,1288,1288,1283,1278,1273,1273,1273,1268,1268,1264,1255,1255,1250,1250,1245,1245,1245,1241,1236,1236,1236,1232,1227,1227,1223,1219,1219,1214,1214,1214,1210,1206,1206,1202,1202,1197,1197,1193,1193,1189,1185,1185,1181,1177,1173,1173,1169,1169,1165,1165,1165,1161,1161,1157,1157,1153,1149,1149,1145,1145,1141,1138,1134,1134,1134,1130,1130,1130,1126,1123,1123,1123,1119,1115,1112,1112,1108,1105,1105,1101,1097,1097,1094,1094,1094,1090,1090,1090,1087,1084,1080,1080,1077,1077,1077,1073,1070,1067,1067,1067,1063,1063,1063,1060,1057,1057,1054,1050,1050,1047,1044,1041,1041,1041,1038,1038,1034,1034,1031,1028,1028,1025,1025,1025,1022,1022,1019,1016,1016,1016,1013,1013,1010,1010,1007,1007,0,0,0,0,0,0,0,0,0,0,0,0,0,0,0,0,0,0,0,0,0,0,0,0,0,0,0,0,0,0,0,0,0
0,0,0,0,0,0,0,0,0,0,0,0,1696,1696,1696,1696,1688,1688,1696,1688,1688,1696,1696,1696,1696,1688,1688,0,0,0,0,0,0,0,0,0,0,754,754,754,754,754,754,754,752,752,750,747,747,754,754,754,755,757,757,757,755,755,755,755,757,757,757,754,752,752,749,749,749,749,749,750,750,752,752,752,752,752,752,754,754,752,752,752,752,752,752,752,757,757,755,754,752,752,752,750,750,750,750,750,750,750,752,752,750,749,749,754,752,752,749,749,750,749,749,750,749,749,754,754,754,754,754,752,752,752,750,749,749,749,750,750,750,750,750,750,750,750,750,750,750,750,749,747,747,747,749,750,750,750,750,750,752,752,754,750,750,752,752,752,752,752,752,752,752,752,752,750,750,752,752,750,750,750,750,750,750,750,749,749,749,749,749,750,750,754,754,754,754,754,754,754,754,752,752,752,752,752,754,754,754,754,754,754,754,754,755,755,757,757,759,759,759,761,761,762,764,766,766,767,767,769,771,773,773,773,774,774,778,780,781,781,783,787,787,789,790,800,800,800,802,802,805,809,809,809,811,813,815,817,817,817,819,819,819,821,823,825,827,829,829,831,831,833,835,835,837,839,839,841,841,841,843,843,845,847,847,849,851,854,854,856,858,860,860,862,864,864,867,869,869,869,871,871,873,875,875,878,878,878,880,880,882,882,882,882,882,885,885,887,887,889,889,894,894,896,896,898,898,898,898,898,898,898,901,901,0,0,0,0,0,0,1663,1663,1663,1663,1663,1663,1663,1663,1663,1663,1655,1655,1655,1655,1655,1663,1663,1663,1655,1655,1655,1655,1647,1647,1647,1647,1639,1639,1639,1639,1632,1632,1632,1632,1624,1624,1624,1616,1616,1609,1609,1601,1601,1594,1586,1586,1579,1572,1572,1564,1564,1557,1550,1550,1550,1543,1543,1543,1529,1529,1523,1523,1516,1516,1516,1509,1509,1503,1496,1496,1496,1489,1483,1477,1470,1470,1464,1464,1458,1458,1452,1445,1445,1439,1439,1439,1433,1427,1427,1427,1421,1421,1421,1415,1415,1415,1410,1410,1404,1404,1398,1392,1387,1381,1381,1376,1376,1370,1370,1370,1365,1365,1359,1354,1354,1349,1349,1349,1343,1338,1338,1333,1328,1328,1328,1322,1317,1317,1312,1312,1307,1307,1307,1302,1297,1292,1292,1292,1288,1288,1288,1283,1283,1278,1273,1273,1268,1268,1264,1259,1255,1250,1250,1250,1245,1245,1241,1236,1236,1236,1232,1232,1227,1227,1223,1219,1219,1214,1214,1210,1210,1206,1202,1202,1202,1197,1193,1193,1189,1185,1185,1181,1181,1177,1177,1169,1169,1169,1165,1165,1161,1161,1157,1157,1153,1149,1149,1145,1145,1141,1141,1138,1134,1134,1134,1130,1130,1130,1126,1123,1123,1119,1115,1112,1112,1108,1105,1105,1105,1101,1101,1097,1094,1094,1090,1090,1090,1087,1084,1080,1080,1080,1077,1077,1073,1073,1070,1067,1067,1067,1063,1063,1060,1057,1054,1054,1050,1050,1050,1047,1044,1041,1041,1041,1038,1038,1034,1031,1028,1028,1025,1025,1025,1022,1022,1019,1016,1016,1016,1013,1013,1010,1010,1007,1007,0,0,0,0,0,0,0,0,0,0,0,0,0,0,0,0,0,0,0,0,0,0,0,0,0,0,0,0,0,0,0,0,0
0,0,0,0,0,0,0,0,0,0,0,1696,1688,1688,1688,1688,1688,1688,1688,1688,1688,1688,1688,1688,1688,1688,1680,1680,0,0,0,0,0,0,0,0,0,754,752,752,752,752,750,749,747,747,747,747,747,746,746,747,747,757,757,755,754,754,752,749,749,749,749,749,749,749,747,747,747,747,747,747,747,747,747,749,749,749,749,749,750,749,749,749,749,747,747,746,746,752,750,750,749,749,750,749,747,747,749,749,747,747,747,747,747,746,746,747,747,749,747,747,747,747,747,746,744,744,744,746,747,749,749,749,749,749,747,746,746,746,747,749,749,747,747,749,749,747,747,746,746,747,746,746,746,746,747,747,749,747,747,747,746,746,746,744,744,744,746,746,746,746,746,749,749,749,750,749,749,747,747,747,747,747,746,746,747,746,746,746,746,746,747,747,749,749,749,750,750,752,752,750,750,750,750,750,750,750,752,752,752,754,752,752,754,754,754,755,755,757,759,759,759,761,761,762,764,766,766,767,767,769,771,773,773,773,774,774,778,783,785,785,787,789,790,792,800,800,802,802,802,803,807,809,809,811,813,813,815,817,817,817,819,819,821,821,823,825,827,829,831,833,833,833,835,835,837,839,841,841,841,843,843,845,847,847,849,851,851,854,854,856,860,860,860,862,864,867,867,869,869,869,871,871,873,875,875,878,878,880,880,882,882,885,885,885,885,885,885,889,889,891,891,894,894,896,896,898,898,898,901,901,901,901,903,903,0,0,0,0,0,0,1663,1663,1663,1663,1663,1663,1663,1655,1655,1655,1655,1647,1647,1647,1647,1655,1655,1647,1647,1647,1647,1639,1639,1639,1639,1639,1639,1639,1639,1639,1632,1632,1632,1632,1624,1624,1624,1616,1616,1609,1609,1601,1601,1594,1586,1586,1579,1579,1572,1572,1564,1557,1550,1550,1550,1550,1543,1543,1536,1529,1523,1523,1523,1516,1516,1509,1509,1503,1496,1496,1496,1489,1489,1483,1477,1470,1464,1464,1464,1452,1452,1445,1445,1439,1439,1439,1439,1433,1427,1427,1421,1421,1421,1415,1415,1415,1410,1410,1404,1404,1398,1398,1392,1387,1381,1381,1376,1376,1370,1370,1370,1365,1359,1354,1354,1349,1349,1349,1343,1338,1338,1333,1333,1328,1328,1322,1317,1317,1312,1312,1307,1307,1307,1302,1302,1292,1292,1292,1288,1288,1288,1283,1283,1278,1273,1273,1268,1268,1264,1259,1255,1250,1250,1250,1250,1245,1245,1241,1236,1236,1232,1232,1227,1227,1223,1223,1219,1214,1214,1210,1210,1206,1206,1202,1202,1197,1193,1193,1189,1185,1185,1185,1181,1181,1177,1173,1169,1165,1165,1165,1161,1161,1157,1157,1153,1149,1149,1145,1145,1141,1141,1138,1138,1134,1134,1134,1130,1130,1126,1123,1123,1119,1115,1112,1112,1108,1108,1105,1105,1105,1101,1101,1097,1094,1094,1090,1090,1087,1084,1080,1080,1080,1077,1077,1077,1073,1070,1067,1067,1067,1063,1063,1060,1057,1054,1054,1050,1050,1050,1047,1044,1044,1041,1041,1038,1038,1034,1034,1028,1028,1025,1025,1025,1022,1022,1019,1016,1016,1016,1016,1013,1013,1010,1010,1010,0,0,0,0,0,0,0,0,0,0,0,0,0,0,0,0,0,0,0,0,0,0,0,0,0,0,0,0,0,0,0,0,0
0,0,0,0,0,0,0,0,0,0,0,1688,1688,1688,1688,1688,1680,1680,1688,1688,1688,1688,1688,1680,1680,1680,1671,1671,0,0,0,0,0,0,0,0,0,0,750,750,750,750,749,747,747,746,746,744,744,744,744,744,747,747,747,747,747,749,749,747,746,746,747,747,747,747,746,746,746,746,744,744,744,744,747,747,746,746,746,746,747,746,746,746,746,746,746,742,741,741,742,746,746,747,747,747,746,746,746,746,746,744,744,746,746,744,744,744,746,746,746,746,746,744,744,744,742,741,741,742,744,746,744,744,746,747,746,744,744,744,744,744,746,746,746,747,747,746,746,744,744,742,742,742,742,742,744,746,746,746,746,744,744,742,742,742,742,742,742,744,744,744,746,746,746,746,746,746,746,742,742,742,742,742,742,742,742,742,742,742,742,742,742,744,746,744,742,742,742,742,742,742,742,747,747,747,749,749,750,750,750,752,752,752,752,752,754,755,755,757,759,759,759,761,761,762,764,766,767,767,767,769,771,773,773,774,774,776,781,787,787,789,790,790,796,800,800,802,802,802,803,803,807,809,809,809,813,813,815,817,817,819,819,819,821,823,825,825,827,829,831,833,833,833,835,835,837,839,841,841,841,843,843,845,847,849,849,854,854,854,856,858,860,860,862,862,864,867,869,869,869,869,871,873,873,875,875,878,880,882,882,885,885,885,885,885,885,885,887,889,889,891,891,894,896,896,898,898,898,901,901,901,903,903,903,903,0,0,0,0,0,0,1647,1647,1647,1655,1655,1655,1647,1647,1647,1647,1647,1647,1647,1647,1647,1647,1647,1647,1639,1639,1639,1639,1639,1639,1639,1639,1639,1639,1639,1632,1632,1632,1632,1632,1624,1624,1624,1616,1616,1609,1609,1601,1601,1594,1586,1586,1579,1579,1572,1572,1572,1564,1557,1550,1550,1550,1543,1543,1536,1529,1523,1523,1523,1516,1516,1516,1509,1503,1503,1496,1496,1489,1489,1483,1477,1470,1470,1464,1464,1452,1452,1445,1445,1439,1439,1439,1439,1433,1427,1427,1427,1421,1421,1415,1415,1415,1410,1410,1404,1398,1398,1398,1392,1387,1387,1381,1381,1376,1376,1370,1370,1365,1359,1354,1354,1349,1349,1349,1343,1343,1338,1333,1333,1328,1322,1317,1317,1317,1312,1312,1307,1307,1307,1307,1302,1297,1292,1292,1288,1288,1288,1288,1283,1278,1273,1273,1268,1268,1264,1259,1255,1250,1250,1250,1250,1245,1245,1241,1236,1236,1232,1232,1232,1227,1227,1223,1219,1219,1214,1214,1210,1206,1206,1202,1202,1197,1197,1193,1189,1189,1185,1185,1181,1181,1177,1177,1169,1165,1165,1165,1165,1161,1161,1157,1153,1153,1149,1149,1145,1145,1138,1138,1138,1134,1134,1134,1130,1130,1126,1123,1123,1119,1115,1115,1112,1108,1108,1105,1105,1105,1101,1101,1097,1094,1094,1090,1090,1090,1084,1084,1080,1080,1077,1077,1077,1073,1070,1070,1067,1067,1063,1063,1060,1057,1054,1054,1050,1050,1050,1047,1044,1044,1041,1041,1038,1038,1038,1034,1034,1028,1028,1025,1025,1025,1022,1019,1019,1016,1016,1016,1013,1013,1013,1010,1010,0,0,0,0,0,0,0,0,0,0,0,0,0,0,0,0,0,0,0,0,0,0,0,0,0,0,0,0,0,0,0,0,0
0,0,0,0,0,0,0,0,0,0,0,1680,1671,1671,1671,1671,1671,1671,1680,1680,1680,1680,1680,1680,1680,1671,1671,1671,0,0,0,0,0,0,0,0,0,0,750,750,749,749,746,746,744,744,744,742,742,742,741,741,741,741,741,742,742,742,742,741,741,744,744,746,746,746,744,744,742,742,742,741,741,741,744,744,744,744,744,744,744,744,744,742,742,742,742,741,741,741,741,742,742,742,742,744,744,744,744,744,744,742,742,741,741,741,741,741,742,744,744,744,744,742,742,742,741,739,739,739,739,739,739,739,739,739,739,741,741,741,741,741,741,742,742,744,746,744,744,742,741,739,739,741,741,741,741,744,744,742,742,741,741,741,739,739,739,739,741,741,741,741,741,741,742,741,741,742,742,741,741,741,741,741,741,741,741,741,741,739,739,739,739,741,741,741,741,741,741,741,741,741,741,742,744,746,747,749,749,750,750,752,752,752,752,752,754,755,757,757,759,759,761,761,762,762,764,766,767,767,769,771,773,773,774,776,778,781,785,789,790,792,792,796,800,800,802,802,802,803,803,805,807,809,809,809,813,815,815,817,817,819,821,821,823,825,825,827,827,829,831,833,833,833,835,835,839,839,841,841,843,843,845,847,849,849,851,854,854,854,856,858,860,860,862,864,867,867,869,869,871,871,871,873,873,875,878,878,882,882,885,885,885,885,885,885,885,885,887,889,889,891,891,894,896,896,898,898,901,903,903,903,903,903,903,906,0,0,0,0,0,1639,1639,1639,1639,1639,1639,1639,1639,1639,1639,1639,1639,1639,1639,1639,1639,1639,1639,1639,1639,1639,1639,1639,1639,1639,1639,1639,1639,1639,1632,1632,1632,1632,1632,1624,1624,1624,1616,1616,1609,1609,1609,1601,1601,1594,1586,1586,1579,1579,1572,1572,1572,1564,1557,1557,1550,1550,1543,1543,1536,1529,1523,1523,1523,1516,1516,1516,1509,1503,1503,1496,1496,1489,1489,1483,1483,1470,1470,1464,1464,1464,1452,1452,1445,1445,1439,1439,1439,1433,1433,1427,1427,1421,1421,1415,1415,1415,1410,1410,1404,1398,1398,1398,1392,1392,1387,1381,1381,1376,1376,1370,1370,1365,1365,1359,1354,1354,1349,1349,1349,1343,1343,1333,1333,1328,1322,1317,1317,1317,1312,1312,1307,1307,1307,1307,1302,1297,1297,1292,1292,1292,1288,1288,1283,1278,1273,1273,1268,1268,1264,1259,1255,1250,1250,1250,1250,1245,1245,1241,1236,1236,1232,1232,1232,1227,1227,1223,1219,1219,1214,1214,1214,1210,1206,1206,1202,1197,1197,1193,1193,1189,1185,1185,1181,1181,1181,1177,1169,1169,1165,1165,1165,1161,1161,1157,1153,1153,1149,1149,1145,1145,1138,1138,1138,1134,1134,1134,1130,1130,1126,1123,1123,1119,1119,1115,1112,1108,1108,1105,1105,1105,1101,1101,1097,1094,1094,1094,1090,1090,1087,1084,1084,1080,1080,1077,1077,1077,1073,1070,1067,1067,1067,1063,1060,1057,1054,1054,1050,1050,1050,1050,1047,1044,1044,1041,1038,1038,1038,1034,1034,1031,1028,1028,1025,1025,1022,1019,1019,1016,1016,1016,1013,1013,1013,1010,1010,0,0,0,0,0,0,0,0,0,0,0,0,0,0,0,0,0,0,0,0,0,0,0,0,0,0,0,0,0,0,0,0,0
0,0,0,0,0,0,0,0,0,0,0,1671,1663,1663,1663,1663,1663,1663,1671,1671,1671,1671,1671,1671,1671,1671,1663,1663,0,0,0,0,0,0,0,0,0,0,0,747,746,744,742,742,742,741,741,741,741,741,739,739,739,738,738,739,739,739,739,739,739,739,739,739,741,741,741,741,741,741,741,741,741,741,741,742,741,741,741,741,741,741,741,741,741,741,741,741,739,739,741,741,741,741,741,741,742,741,741,739,739,739,738,738,738,739,738,738,739,741,741,741,741,739,739,739,739,738,734,734,739,739,739,738,738,738,739,739,738,738,739,738,738,741,741,742,742,741,741,741,739,738,736,736,738,738,738,738,738,736,736,738,736,736,738,738,738,739,739,739,739,739,739,739,739,739,738,738,738,739,739,739,739,739,739,739,739,739,738,738,739,738,738,739,739,739,739,739,739,739,741,741,741,741,742,744,747,747,747,749,750,752,752,752,752,754,754,755,757,759,759,759,761,761,762,762,766,766,769,769,769,773,774,774,776,778,783,787,789,790,792,794,796,798,800,802,802,802,802,803,803,805,807,809,809,811,813,815,815,817,819,819,821,823,823,825,827,827,829,831,831,833,833,833,835,837,839,841,841,843,843,843,845,847,849,849,851,854,854,854,856,858,860,860,862,864,867,867,869,869,871,871,871,873,873,875,878,880,885,885,887,887,887,887,887,885,885,887,887,889,889,891,894,894,896,896,898,898,901,903,903,903,906,906,906,906,0,0,0,0,0,1639,1632,1632,1632,1632,1632,1632,1632,1639,1639,1639,1639,1639,1639,1639,1639,1639,1639,1639,1639,1632,1632,1632,1632,1632,1632,1632,1632,1632,1632,1632,1624,1624,1624,1624,1624,1616,1616,1616,1609,1609,1609,1601,1601,1594,1586,1579,1579,1579,1579,1572,1572,1564,1557,1557,1550,1550,1543,1543,1536,1529,1529,1523,1523,1523,1516,1516,1509,1509,1503,1496,1496,1489,1489,1489,1483,1477,1470,1464,1464,1464,1458,1452,1445,1445,1445,1439,1439,1433,1433,1427,1427,1421,1421,1415,1415,1415,1410,1410,1404,1398,1398,1392,1392,1392,1387,1381,1381,1376,1376,1370,1370,1365,1365,1359,1354,1354,1354,1349,1349,1349,1338,1338,1333,1328,1322,1317,1317,1317,1312,1312,1312,1307,1307,1307,1307,1297,1297,1297,1292,1292,1288,1288,1283,1283,1278,1273,1268,1268,1264,1259,1255,1255,1250,1250,1250,1250,1245,1241,1241,1236,1236,1232,1232,1227,1227,1223,1219,1219,1214,1214,1214,1210,1206,1206,1202,1197,1197,1193,1193,1189,1189,1185,1181,1181,1181,1177,1169,1169,1165,1165,1165,1161,1161,1157,1157,1153,1149,1149,1145,1145,1138,1138,1138,1134,1134,1134,1130,1130,1126,1123,1123,1119,1119,1115,1112,1108,1108,1105,1105,1105,1105,1101,1097,1094,1094,1094,1090,1090,1090,1087,1084,1080,1080,1080,1077,1077,1073,1070,1070,1067,1067,1063,1060,1057,1054,1054,1050,1050,1050,1050,1047,1047,1044,1041,1041,1038,1038,1038,1034,1031,1028,1028,1025,1025,1022,1019,1019,1016,1016,1016,1016,1013,1013,1010,1010,0,0,0,0,0,0,0,0,0,0,0,0,0,0,0,0,0,0,0,0,0,0,0,0,0,0,0,0,0,0,0,0,0
0,0,0,0,0,0,0,0,0,0,0,1663,1663,1655,1655,1663,1663,1663,1663,1663,1663,1663,1663,1663,1663,1655,1655,1655,1655,0,0,0,0,0,0,0,0,0,0,747,742,742,741,741,741,739,739,739,739,738,736,734,734,733,733,734,734,736,736,736,738,736,736,736,738,738,738,738,739,739,739,738,738,738,738,739,739,739,738,738,738,738,739,739,739,739,741,739,739,739,739,739,739,739,739,741,741,738,738,736,736,736,736,736,736,736,736,736,736,736,738,738,738,738,738,738,738,736,734,734,736,736,736,734,734,736,736,736,736,736,736,736,736,734,734,734,734,738,738,738,738,736,734,734,734,734,734,734,734,734,734,736,734,734,734,734,734,736,736,736,738,736,736,736,738,734,734,734,734,736,738,738,738,738,738,738,736,736,736,736,736,736,736,736,736,738,738,739,739,739,741,741,741,741,742,744,747,747,747,749,750,752,752,752,754,754,754,755,757,759,759,761,761,762,762,762,766,767,771,773,773,774,774,776,780,787,789,790,792,794,794,796,796,798,800,802,802,802,803,803,803,807,807,809,809,811,813,815,817,817,819,819,821,823,825,825,827,829,831,831,833,833,835,835,837,837,839,841,841,843,843,845,847,847,849,849,851,854,854,856,856,858,860,860,862,864,867,869,869,871,871,871,873,873,873,875,880,889,889,887,887,887,887,887,887,887,887,887,887,889,891,894,894,896,896,898,898,901,903,903,906,906,906,906,906,0,0,0,0,0,0,1632,1632,1632,1624,1624,1624,1624,1624,1632,1632,1632,1632,1632,1632,1632,1632,1632,1632,1632,1632,1632,1632,1632,1632,1632,1632,1632,1632,1632,1632,1632,1624,1624,1624,1624,1616,1616,1616,1609,1609,1609,1609,1601,1601,1594,1586,1579,1579,1579,1579,1572,1572,1564,1564,1557,1550,1550,1543,1543,1536,1529,1529,1523,1523,1523,1516,1516,1509,1509,1503,1496,1496,1489,1489,1489,1483,1477,1470,1470,1464,1464,1464,1452,1445,1445,1445,1439,1439,1439,1433,1433,1427,1421,1421,1415,1415,1415,1410,1410,1404,1398,1398,1392,1392,1392,1387,1387,1381,1376,1376,1370,1370,1370,1365,1359,1354,1354,1354,1349,1349,1349,1338,1338,1333,1328,1328,1322,1322,1317,1317,1312,1312,1312,1312,1307,1307,1302,1302,1297,1292,1292,1288,1288,1283,1283,1278,1273,1268,1268,1264,1259,1259,1255,1250,1250,1250,1250,1245,1245,1241,1236,1236,1232,1232,1227,1227,1223,1219,1219,1214,1214,1214,1210,1210,1206,1202,1197,1197,1197,1193,1189,1189,1185,1181,1181,1181,1177,1177,1169,1169,1165,1165,1165,1161,1161,1157,1153,1149,1149,1145,1145,1141,1138,1138,1134,1134,1134,1130,1130,1126,1123,1123,1119,1119,1115,1112,1108,1108,1105,1105,1105,1105,1101,1097,1097,1094,1094,1090,1090,1090,1087,1084,1080,1080,1080,1077,1077,1073,1073,1070,1067,1067,1063,1060,1057,1054,1054,1050,1050,1050,1050,1047,1047,1044,1044,1041,1041,1038,1038,1038,1034,1028,1028,1025,1025,1025,1019,1019,1016,1016,1016,1016,1013,1013,1010,1010,0,0,0,0,0,0,0,0,0,0,0,0,0,0,0,0,0,0,0,0,0,0,0,0,0,0,0,0,0,0,0,0,0
0,0,0,0,0,0,0,0,0,0,0,1663,1663,1655,1655,1655,1655,1655,1655,1655,1655,1655,1655,1655,1663,1655,1655,1655,1655,0,0,0,0,0,0,0,0,0,0,0,741,739,739,738,738,738,738,738,738,736,734,733,733,731,731,731,733,733,734,734,734,734,734,734,734,736,734,734,734,734,734,734,736,736,736,738,736,736,736,736,736,736,736,738,738,738,738,738,736,736,738,738,736,736,736,739,738,734,734,734,734,734,734,734,734,734,734,733,733,733,734,734,734,734,734,734,734,734,733,733,733,733,733,733,733,733,733,734,734,733,733,733,728,728,730,730,730,733,731,731,733,736,733,733,733,733,733,733,733,733,733,734,734,733,733,733,733,733,733,733,734,734,734,734,734,734,734,734,734,734,736,736,736,736,734,734,734,734,734,734,734,734,734,736,736,738,738,738,739,739,739,741,741,742,744,746,747,747,747,749,750,752,752,752,754,754,755,755,759,759,761,761,761,762,764,766,769,774,776,776,776,778,780,781,787,789,790,792,794,794,796,796,798,800,802,802,802,803,803,803,805,807,809,809,811,813,813,815,817,817,819,819,821,823,825,827,827,829,831,833,833,833,835,837,839,839,841,841,843,843,843,845,847,849,849,851,854,854,856,856,858,858,860,860,862,862,864,867,869,871,871,873,873,873,875,878,880,891,891,889,889,889,889,887,887,887,887,887,887,891,891,894,894,896,896,898,901,901,903,903,906,906,906,906,906,0,0,0,0,0,0,1624,1624,1624,1624,1624,1624,1624,1624,1624,1624,1624,1624,1624,1624,1624,1624,1624,1624,1624,1632,1624,1624,1624,1624,1624,1624,1624,1624,1624,1624,1624,1616,1616,1616,1616,1616,1616,1609,1609,1609,1609,1601,1601,1594,1594,1586,1586,1579,1579,1579,1572,1572,1564,1557,1557,1550,1550,1543,1543,1536,1529,1529,1523,1523,1523,1523,1516,1516,1509,1503,1496,1496,1489,1489,1489,1483,1477,1470,1470,1470,1464,1464,1458,1452,1445,1445,1445,1439,1439,1439,1433,1427,1427,1421,1415,1415,1415,1410,1410,1404,1398,1398,1392,1392,1392,1387,1387,1381,1376,1376,1376,1370,1370,1365,1359,1359,1354,1354,1354,1349,1349,1343,1338,1333,1333,1328,1322,1322,1317,1317,1317,1312,1312,1312,1307,1307,1302,1302,1297,1292,1292,1288,1288,1283,1278,1278,1273,1268,1268,1264,1264,1259,1255,1255,1250,1250,1250,1245,1245,1241,1236,1236,1232,1232,1227,1227,1223,1223,1219,1219,1214,1214,1210,1210,1202,1202,1197,1197,1197,1193,1193,1189,1185,1185,1181,1181,1177,1177,1169,1169,1165,1165,1165,1161,1161,1157,1153,1149,1149,1149,1145,1141,1138,1138,1134,1134,1134,1130,1130,1126,1123,1123,1119,1119,1115,1115,1108,1108,1108,1105,1105,1105,1101,1097,1097,1094,1094,1090,1090,1090,1090,1084,1084,1080,1080,1077,1077,1077,1073,1073,1070,1067,1063,1063,1057,1054,1054,1054,1050,1050,1050,1050,1047,1047,1044,1041,1041,1041,1038,1038,1034,1028,1028,1025,1025,1025,1022,1019,1019,1016,1016,1016,1013,1013,1013,1013,0,0,0,0,0,0,0,0,0,0,0,0,0,0,0,0,0,0,0,0,0,0,0,0,0,0,0,0,0,0,0,0,0
0,0,0,0,0,0,0,0,0,0,0,1655,1655,1647,1647,1647,1647,1655,1647,1647,1647,1655,1655,1655,1655,1647,1647,1647,1647,0,0,0,0,0,0,0,0,0,0,0,741,736,736,736,736,736,734,734,733,731,731,731,730,730,728,728,730,730,731,731,731,731,731,731,731,731,731,733,733,733,733,733,733,733,733,733,734,734,734,734,733,733,734,734,734,734,734,734,733,733,734,733,731,731,733,736,734,733,731,731,731,731,731,731,731,733,731,730,730,730,728,728,728,730,730,730,733,733,733,733,731,731,731,731,731,731,731,731,731,731,728,727,727,727,728,728,728,728,728,728,728,730,727,727,728,730,730,731,731,731,731,733,733,733,733,733,731,731,731,730,730,731,731,731,733,731,731,733,733,733,734,733,730,730,733,733,733,733,733,733,733,734,734,736,736,736,738,738,738,739,739,741,741,742,744,746,747,747,749,749,750,752,754,754,754,754,755,757,759,761,761,762,762,764,767,774,774,778,778,780,780,781,783,785,789,790,792,792,794,796,796,798,800,800,802,802,802,803,803,803,807,809,809,809,811,813,813,815,817,817,819,821,821,825,825,827,827,829,831,833,833,835,835,837,839,839,841,843,843,843,845,847,849,849,851,851,854,854,856,856,858,858,860,860,862,862,864,867,869,871,871,873,873,873,875,894,894,894,891,891,889,889,889,887,887,887,887,887,887,891,891,894,894,896,898,898,901,903,903,906,906,906,906,908,906,906,0,0,0,0,0,1624,1624,1624,1624,1616,1616,1616,1616,1624,1624,1624,1624,1616,1616,1616,1609,1609,1609,1624,1624,1624,1624,1624,1624,1624,1624,1616,1616,1616,1616,1616,1616,1609,1609,1609,1609,1609,1609,1609,1609,1601,1601,1601,1594,1594,1586,1586,1579,1579,1579,1572,1572,1564,1557,1557,1550,1550,1543,1543,1536,1529,1523,1523,1523,1523,1523,1516,1516,1509,1503,1496,1496,1489,1489,1489,1483,1477,1470,1470,1470,1464,1464,1458,1452,1445,1445,1445,1439,1439,1439,1433,1433,1427,1421,1415,1415,1415,1410,1410,1404,1398,1398,1392,1392,1392,1387,1387,1381,1376,1376,1376,1370,1370,1370,1365,1359,1354,1354,1354,1349,1349,1343,1338,1333,1333,1328,1328,1328,1322,1317,1317,1312,1312,1312,1312,1307,1302,1302,1297,1292,1292,1288,1288,1283,1278,1278,1273,1268,1268,1268,1264,1259,1255,1255,1250,1250,1250,1250,1245,1241,1236,1236,1232,1232,1232,1227,1223,1223,1219,1219,1214,1214,1210,1210,1202,1202,1197,1197,1197,1197,1193,1189,1185,1185,1181,1181,1177,1177,1169,1169,1165,1165,1165,1161,1161,1157,1153,1153,1149,1149,1145,1141,1138,1138,1138,1134,1134,1130,1130,1126,1123,1123,1119,1119,1119,1115,1108,1108,1108,1105,1105,1105,1101,1097,1097,1094,1094,1094,1094,1090,1090,1084,1084,1080,1080,1077,1077,1077,1073,1073,1070,1067,1067,1063,1057,1054,1054,1054,1050,1050,1050,1050,1047,1047,1044,1041,1041,1041,1038,1038,1034,1028,1028,1025,1025,1025,1022,1019,1019,1016,1016,1016,1013,1013,1013,1013,0,0,0,0,0,0,0,0,0,0,0,0,0,0,0,0,0,0,0,0,0,0,0,0,0,0,0,0,0,0,0,0,0
0,0,0,0,0,0,0,0,0,0,0,1655,1647,1639,1639,1639,1639,1639,1639,1639,1639,1639,1639,1647,1639,1639,1639,1639,1639,0,0,0,0,0,0,0,0,0,0,0,0,736,733,733,733,733,733,731,730,730,730,730,730,728,728,728,730,730,731,731,731,730,730,730,730,730,730,730,730,731,731,730,730,730,731,730,730,730,730,730,731,731,733,733,733,734,733,733,731,731,731,731,730,728,727,727,727,727,730,730,730,730,730,730,730,730,730,727,727,728,727,727,727,727,728,730,731,733,731,731,731,730,730,728,728,728,727,727,727,727,727,727,727,727,727,727,727,727,727,727,727,727,727,725,725,725,725,727,727,730,728,728,731,728,728,728,730,730,728,728,728,728,730,728,728,728,728,728,728,728,731,728,728,728,728,730,731,731,731,731,733,733,734,736,736,736,738,738,738,739,739,741,741,742,744,747,747,747,749,750,752,752,754,754,755,757,759,761,761,761,762,764,767,773,778,778,778,780,780,781,783,783,785,787,789,790,792,792,794,796,796,798,800,802,802,802,802,803,803,803,807,809,809,811,811,815,815,817,817,819,821,823,823,825,827,827,829,831,833,833,833,835,835,837,839,839,841,843,843,843,845,847,849,849,849,851,854,854,856,858,858,860,860,860,862,862,864,867,869,871,873,873,873,903,903,896,896,896,894,891,891,889,889,889,887,887,887,887,889,891,891,894,896,896,898,898,901,903,903,906,906,906,908,908,906,906,0,0,0,0,0,0,1624,1624,1616,1616,1616,1616,1616,1616,1616,1609,1609,1609,1609,1609,1609,1609,1609,1609,1609,1609,1609,1616,1616,1616,1609,1609,1609,1609,1609,1609,1609,1609,1609,1609,1609,1609,1609,1601,1601,1601,1601,1594,1586,1586,1586,1586,1579,1579,1579,1572,1572,1564,1564,1557,1550,1550,1543,1543,1536,1529,1523,1523,1523,1523,1523,1516,1516,1509,1509,1496,1496,1489,1489,1489,1483,1477,1477,1470,1470,1470,1464,1464,1452,1452,1445,1445,1445,1439,1439,1433,1433,1427,1421,1421,1415,1415,1415,1410,1404,1398,1398,1392,1392,1392,1387,1381,1376,1376,1376,1376,1370,1370,1370,1365,1359,1359,1354,1354,1349,1349,1343,1338,1338,1333,1328,1328,1328,1328,1322,1322,1317,1317,1312,1312,1307,1307,1302,1297,1297,1292,1288,1288,1283,1278,1278,1273,1273,1268,1268,1264,1259,1255,1255,1255,1250,1250,1250,1250,1241,1236,1236,1236,1232,1232,1227,1223,1223,1219,1219,1214,1214,1214,1210,1202,1202,1202,1197,1197,1197,1197,1193,1189,1185,1181,1181,1181,1177,1173,1169,1169,1165,1165,1161,1161,1157,1153,1153,1149,1149,1145,1141,1138,1138,1138,1134,1134,1134,1130,1130,1126,1123,1119,1119,1119,1115,1112,1108,1108,1108,1105,1105,1101,1101,1097,1094,1094,1094,1094,1090,1090,1084,1084,1080,1080,1077,1077,1077,1073,1073,1070,1070,1067,1063,1060,1057,1054,1054,1054,1050,1050,1047,1047,1047,1044,1041,1041,1041,1041,1038,1034,1031,1028,1028,1025,1025,1022,1019,1019,1019,1016,1016,1016,1013,1013,1013,0,0,0,0,0,0,0,0,0,0,0,0,0,0,0,0,0,0,0,0,0,0,0,0,0,0,0,0,0,0,0,0,0
0,0,0,0,0,0,0,0,0,0,0,1639,1639,1639,1639,1632,1632,1632,1632,1632,1632,1632,1632,1639,1639,1632,1632,1632,1632,1632,0,0,0,0,0,0,0,0,0,0,0,0,731,730,730,730,728,727,727,727,727,727,727,727,727,727,727,727,728,728,728,728,728,728,728,727,727,727,727,727,728,728,728,728,730,728,727,727,727,728,727,727,728,731,733,733,731,731,730,728,728,728,728,727,725,723,723,727,727,727,727,727,727,728,728,728,727,727,727,727,725,725,725,725,727,727,728,730,730,728,728,728,727,725,723,723,723,723,723,723,723,723,725,725,725,725,725,727,727,725,725,725,723,723,723,723,723,723,723,725,725,727,727,727,727,727,727,727,727,727,727,727,727,727,725,723,723,723,723,722,722,727,727,727,727,728,730,730,730,730,731,733,733,734,734,736,738,738,739,739,739,741,741,744,746,747,747,747,749,750,752,754,754,755,759,761,762,766,767,769,771,773,773,774,778,780,780,780,781,783,783,785,787,787,789,790,792,792,796,796,798,798,800,800,802,802,803,803,805,805,809,809,811,811,813,815,815,817,819,819,821,823,823,825,827,827,829,831,833,833,833,835,835,837,839,839,841,843,843,845,847,849,849,849,849,851,854,854,856,858,858,860,860,860,860,862,864,869,871,873,875,875,875,903,903,898,898,896,896,894,894,891,889,889,889,887,887,889,889,891,894,894,896,896,898,898,903,903,906,906,906,908,908,908,908,908,908,908,0,0,0,0,1624,1624,1616,1609,1609,1609,1609,1609,1609,1609,1609,1609,1609,1601,1601,1601,1601,1601,1601,1601,1601,1609,1601,1601,1601,1609,1609,1601,1601,1601,1601,1601,1601,1601,1601,1601,1601,1601,1601,1601,1601,1594,1586,1586,1586,1586,1579,1579,1579,1572,1572,1572,1564,1557,1557,1550,1543,1543,1536,1529,1529,1523,1523,1523,1523,1516,1516,1516,1509,1496,1496,1496,1489,1489,1483,1477,1477,1477,1470,1470,1464,1464,1458,1452,1445,1445,1445,1439,1439,1433,1433,1427,1421,1421,1415,1415,1415,1410,1404,1398,1398,1392,1392,1392,1387,1381,1376,1376,1376,1376,1376,1370,1370,1365,1359,1359,1354,1354,1349,1349,1343,1338,1338,1333,1333,1328,1328,1328,1322,1322,1317,1317,1312,1312,1307,1307,1302,1302,1297,1292,1288,1288,1283,1278,1278,1273,1273,1268,1268,1268,1264,1259,1255,1255,1250,1250,1250,1250,1241,1241,1236,1236,1232,1232,1227,1223,1223,1219,1219,1214,1214,1214,1210,1202,1202,1202,1197,1197,1197,1197,1193,1189,1185,1185,1181,1181,1177,1177,1169,1169,1169,1165,1161,1161,1157,1153,1153,1153,1149,1149,1145,1141,1138,1138,1134,1134,1134,1134,1130,1126,1123,1123,1123,1119,1119,1112,1108,1108,1108,1105,1105,1101,1101,1097,1094,1094,1094,1094,1090,1090,1090,1084,1080,1080,1080,1077,1077,1077,1073,1073,1070,1067,1063,1060,1057,1054,1054,1054,1050,1050,1047,1047,1047,1044,1041,1041,1041,1041,1038,1038,1034,1028,1028,1028,1025,1022,1022,1019,1019,1019,1016,1016,1016,1013,1013,0,0,0,0,0,0,0,0,0,0,0,0,0,0,0,0,0,0,0,0,0,0,0,0,0,0,0,0,0,0,0,0,0
0,0,0,0,0,0,0,0,0,0,0,1639,1639,1632,1632,1632,1632,1632,1632,1632,1632,1632,1632,1632,1632,1632,1632,1632,1632,1632,0,0,0,0,0,0,0,0,0,0,0,0,730,730,728,728,727,725,723,723,723,723,723,723,723,725,725,725,727,727,727,727,727,727,725,725,723,723,723,723,723,723,725,725,727,725,723,723,723,723,723,723,722,720,720,727,725,725,728,725,725,725,725,723,722,722,722,722,722,722,723,723,725,727,727,725,725,725,725,723,723,723,723,723,723,725,727,727,727,727,725,725,723,723,722,722,722,722,722,722,722,722,723,723,723,723,723,723,723,723,723,723,720,720,720,720,720,720,720,722,723,723,723,723,723,725,723,723,725,725,725,725,725,723,723,722,722,722,722,722,722,725,725,727,727,728,728,730,730,730,731,731,733,734,734,736,738,738,739,739,741,741,742,744,747,747,747,749,750,752,754,754,755,757,764,764,766,767,769,771,773,774,776,778,780,781,781,781,783,783,785,785,787,787,789,790,792,794,796,796,798,798,800,800,802,802,803,805,805,809,809,809,811,811,815,817,817,819,819,821,823,823,825,825,827,827,829,831,833,833,835,835,837,837,839,841,841,843,843,845,847,849,849,851,851,854,854,856,858,858,858,860,860,860,860,860,1579,1579,1572,0,1572,1572,903,903,903,901,901,901,898,896,894,891,891,889,889,889,889,889,889,894,894,896,896,896,898,901,903,903,906,906,908,908,908,908,908,908,908,908,0,0,0,0,0,0,1609,1609,1609,1609,1601,1601,1601,1601,1601,1601,1601,1601,1601,1601,1601,1601,1601,1601,1601,1601,1601,1601,1594,1594,1601,1601,1601,1601,1601,1601,1601,1594,1594,1601,1601,1594,1594,1594,1594,1594,1586,1586,1586,1579,1579,1579,1579,1579,1572,1572,1564,1564,1557,1550,1543,1543,1543,1536,1529,1523,1523,1523,1523,1516,1516,1516,1509,1503,1496,1496,1489,1489,1483,1483,1477,1477,1470,1470,1464,1464,1458,1452,1452,1445,1445,1445,1439,1439,1433,1427,1427,1421,1415,1415,1415,1410,1410,1404,1398,1392,1392,1392,1387,1381,1381,1376,1376,1376,1376,1370,1370,1365,1359,1359,1354,1354,1349,1349,1343,1338,1338,1333,1333,1328,1328,1328,1322,1322,1317,1317,1312,1312,1307,1307,1302,1302,1297,1292,1288,1288,1283,1278,1278,1278,1273,1273,1268,1268,1264,1259,1255,1255,1255,1250,1250,1250,1245,1241,1236,1236,1232,1232,1227,1227,1223,1219,1219,1219,1214,1214,1206,1202,1202,1202,1197,1197,1197,1197,1193,1189,1185,1185,1181,1181,1181,1177,1173,1169,1169,1165,1165,1161,1157,1157,1153,1153,1149,1149,1145,1141,1138,1138,1138,1134,1134,1134,1130,1126,1126,1123,1123,1119,1119,1112,1108,1108,1108,1105,1105,1101,1101,1097,1094,1094,1094,1094,1090,1090,1090,1084,1080,1080,1080,1080,1077,1077,1073,1073,1070,1067,1063,1063,1057,1054,1054,1054,1050,1050,1047,1047,1047,1044,1044,1041,1041,1041,1038,1038,1034,1031,1028,1028,1025,1025,1022,1022,1019,1019,1016,1016,1016,1013,1013,0,0,0,0,0,0,0,0,0,0,0,0,0,0,0,0,0,0,0,0,0,0,0,0,0,0,0,0,0,0,0,0,0
0,0,0,0,0,0,0,0,0,0,0,1632,1632,1632,1632,1632,1624,1624,1624,1624,1624,1624,1632,1632,1632,1632,1632,1632,1632,1632,1624,1624,0,0,0,0,0,0,0,0,0,0,730,728,728,727,723,723,723,722,722,722,722,722,722,722,722,722,725,725,725,725,725,722,720,720,720,720,720,720,720,720,723,722,720,720,722,722,720,720,720,719,719,717,716,716,716,716,716,719,720,720,722,722,720,720,720,720,720,720,722,722,723,725,725,723,723,722,722,720,720,722,722,722,720,720,720,722,722,722,720,720,722,720,720,720,720,720,720,720,720,722,722,722,722,720,720,720,720,720,722,720,717,717,719,719,717,717,717,719,720,722,722,722,722,722,720,720,719,719,723,723,723,722,722,722,722,722,722,722,722,723,725,727,727,727,728,730,730,730,731,731,733,734,736,738,738,738,739,739,741,742,744,746,747,747,749,750,752,755,757,757,757,764,767,767,767,769,771,773,774,774,776,778,780,781,781,783,785,785,785,787,787,789,789,790,792,794,796,796,798,798,800,800,802,802,803,805,807,809,809,811,811,813,815,817,817,819,819,821,823,825,825,827,827,829,831,833,833,833,835,835,837,837,839,841,841,843,843,845,847,849,849,851,851,854,854,856,858,860,860,860,860,860,1579,1579,1579,1579,1572,0,1572,0,0,903,903,903,903,901,898,896,896,894,891,891,889,889,889,889,891,894,894,896,896,898,898,901,903,906,906,906,908,908,908,910,910,908,908,910,0,0,0,0,0,0,1609,1609,1601,1601,1601,1594,1594,1594,1601,1601,1594,1594,1601,1594,1594,1594,1594,1594,1594,1594,1594,1594,1594,1594,1594,1586,1586,1586,1586,1594,1594,1586,1586,1586,1586,1586,1594,1594,1594,1586,1586,1586,1579,1579,1579,1579,1572,1572,1572,1572,1564,1564,1557,1550,1543,1543,1543,1536,1529,1529,1523,1523,1523,1516,1516,1516,1509,1503,1496,1496,1496,1489,1483,1483,1477,1477,1470,1470,1470,1464,1458,1452,1452,1445,1445,1445,1439,1439,1433,1433,1427,1421,1415,1415,1415,1410,1410,1404,1398,1398,1392,1392,1387,1381,1381,1376,1376,1376,1370,1370,1370,1365,1359,1359,1354,1354,1349,1349,1343,1338,1338,1333,1333,1333,1328,1328,1328,1322,1317,1317,1312,1312,1307,1307,1302,1302,1297,1292,1288,1288,1283,1278,1278,1278,1273,1273,1273,1268,1264,1259,1259,1255,1255,1250,1250,1250,1245,1241,1236,1236,1232,1232,1227,1227,1223,1219,1219,1219,1214,1214,1206,1202,1202,1202,1197,1197,1197,1197,1193,1189,1185,1185,1181,1181,1181,1177,1173,1169,1169,1165,1165,1165,1161,1157,1153,1153,1149,1149,1145,1141,1141,1138,1138,1138,1134,1134,1130,1126,1126,1123,1123,1119,1119,1115,1112,1108,1108,1108,1105,1105,1101,1097,1097,1094,1094,1094,1090,1090,1090,1084,1080,1080,1080,1080,1077,1077,1073,1073,1070,1067,1063,1063,1060,1057,1054,1054,1050,1050,1050,1050,1050,1047,1044,1041,1041,1041,1038,1038,1034,1031,1028,1028,1025,1025,1022,1022,1022,1019,1016,1016,1016,1013,1013,0,0,0,0,0,0,0,0,0,0,0,0,0,0,0,0,0,0,0,0,0,0,0,0,0,0,0,0,0,0,0,0,0
0,0,0,0,0,0,0,0,0,0,0,1624,1624,1624,1624,1624,1624,1624,1624,1624,1624,1624,1624,1624,1624,1624,1624,1624,1624,1624,1624,1624,0,0,0,0,0,0,0,0,0,0,730,728,727,725,722,722,722,722,720,720,719,719,719,719,717,717,717,717,717,717,717,719,719,717,717,717,717,717,717,719,720,720,719,719,720,719,719,717,717,716,716,716,716,714,714,716,716,716,717,717,717,719,719,719,719,719,720,720,720,720,722,722,722,719,719,717,717,717,719,719,720,720,719,717,717,717,717,717,717,717,717,717,717,719,719,719,719,719,719,720,720,719,719,717,717,717,716,716,717,717,716,716,716,717,716,716,716,716,717,719,720,720,720,719,717,717,716,716,716,716,717,720,720,720,720,720,720,722,722,723,725,727,727,727,728,730,730,730,731,731,733,736,736,738,738,739,739,741,741,742,744,746,747,749,749,750,755,759,759,761,762,767,767,767,769,771,773,774,774,776,778,780,780,781,783,783,785,785,787,787,789,789,789,790,792,794,796,796,798,798,800,800,802,802,803,805,807,809,809,811,811,815,817,817,817,819,821,821,823,825,825,827,827,829,831,831,833,833,835,835,837,837,839,841,841,843,843,845,847,849,849,851,854,854,856,858,858,860,862,1579,1579,1572,1572,1579,1579,1579,1572,1572,1572,0,0,0,903,903,903,903,901,898,896,894,891,891,891,891,891,891,891,896,896,896,898,898,901,901,906,906,906,908,908,908,908,910,910,910,910,913,0,0,0,0,0,0,1601,1601,1601,1594,1594,1594,1594,1594,1594,1594,1586,1586,1594,1594,1594,1586,1586,1586,1586,1586,1586,1586,1586,1586,1586,1586,1586,1586,1579,1579,1579,1579,1579,1586,1586,1586,1586,1586,1586,1579,1579,1579,1579,1579,1579,1572,1572,1572,1572,1572,1564,1564,1557,1550,1543,1543,1543,1536,1529,1529,1523,1523,1523,1516,1516,1516,1509,1503,1496,1496,1496,1489,1483,1483,1483,1477,1477,1470,1470,1464,1464,1458,1452,1452,1445,1445,1445,1439,1439,1433,1433,1427,1415,1415,1415,1410,1410,1404,1398,1398,1392,1392,1392,1381,1381,1376,1376,1376,1370,1370,1370,1365,1359,1359,1354,1354,1349,1349,1343,1343,1338,1333,1333,1333,1328,1328,1328,1322,1322,1317,1312,1312,1307,1307,1302,1302,1297,1292,1288,1288,1288,1283,1278,1278,1273,1273,1273,1268,1268,1264,1259,1255,1255,1255,1250,1250,1245,1241,1236,1236,1232,1232,1227,1227,1223,1219,1219,1219,1214,1214,1210,1206,1202,1202,1202,1197,1197,1197,1193,1189,1189,1185,1185,1181,1181,1177,1173,1173,1169,1169,1165,1165,1161,1161,1157,1153,1153,1149,1145,1141,1141,1138,1138,1138,1134,1134,1130,1126,1126,1123,1123,1119,1119,1115,1112,1108,1108,1108,1105,1105,1101,1097,1097,1094,1094,1094,1094,1090,1090,1084,1080,1080,1080,1080,1077,1077,1077,1073,1070,1067,1063,1063,1060,1057,1054,1054,1050,1050,1050,1050,1050,1047,1047,1044,1041,1041,1038,1038,1034,1031,1031,1028,1028,1025,1025,1022,1022,1019,1019,1016,1016,1016,1016,0,0,0,0,0,0,0,0,0,0,0,0,0,0,0,0,0,0,0,0,0,0,0,0,0,0,0,0,0,0,0,0,0
0,0,0,0,0,0,0,0,0,0,0,1616,1616,1616,1624,1624,1624,1624,1624,1624,1624,1624,1624,1624,1624,1624,1624,1624,1624,1624,1624,1624,1624,0,0,0,0,0,0,0,0,0,0,727,725,722,720,720,720,719,719,719,717,717,716,716,716,716,716,714,714,714,714,714,716,716,716,716,716,714,714,716,716,716,716,716,717,719,717,716,716,714,714,714,714,713,713,713,713,713,714,714,714,716,716,714,714,716,716,717,717,717,717,717,717,716,716,716,714,714,714,714,714,716,716,714,714,716,716,716,714,714,714,714,716,716,717,717,717,717,717,717,717,716,716,716,716,716,716,714,714,714,714,714,714,714,714,713,713,713,714,716,713,713,714,714,714,714,714,714,714,714,716,716,719,719,719,719,720,720,722,723,725,727,727,727,728,730,730,730,731,733,734,736,738,738,739,739,739,741,741,742,746,747,747,749,752,754,759,759,761,762,764,767,767,769,769,773,773,774,776,776,778,780,781,781,783,785,787,787,787,787,789,789,790,790,794,794,796,796,798,798,800,800,802,803,805,807,809,809,811,811,813,815,817,817,819,819,821,821,823,825,825,827,827,829,831,831,833,833,835,835,837,837,839,841,841,843,843,845,847,849,849,851,851,1579,1579,1572,1572,1579,1579,1579,1579,1572,1572,1579,1572,1572,1572,1572,1572,1564,0,906,906,906,906,903,901,898,896,896,894,891,891,891,891,891,891,894,896,896,898,898,901,901,906,906,908,908,908,908,910,910,913,913,913,913,915,0,0,0,0,0,1601,1586,1586,1586,1579,1579,1579,1579,1579,1586,1586,1586,1586,1586,1586,1579,1579,1579,1579,1579,1579,1579,1579,1579,1579,1579,1579,1579,1579,1572,1572,1572,1572,1572,1572,1572,1579,1579,1579,1579,1579,1579,1579,1579,1572,1572,1572,1572,1572,1572,1564,1564,1557,1550,1550,1543,1543,1543,1536,1529,1529,1523,1523,1523,1516,1516,1509,1503,1496,1496,1496,1489,1489,1483,1483,1477,1477,1470,1470,1464,1464,1458,1452,1452,1452,1445,1445,1439,1439,1433,1433,1427,1421,1415,1415,1415,1410,1404,1404,1398,1392,1392,1392,1381,1381,1376,1376,1376,1370,1370,1370,1365,1359,1359,1354,1354,1349,1349,1349,1343,1338,1338,1333,1333,1328,1328,1328,1322,1322,1317,1312,1307,1307,1307,1307,1302,1297,1292,1292,1288,1288,1283,1283,1278,1278,1273,1273,1268,1268,1264,1264,1259,1255,1255,1250,1250,1250,1241,1241,1236,1232,1232,1232,1227,1223,1223,1219,1219,1219,1214,1210,1206,1202,1202,1202,1197,1197,1197,1193,1189,1189,1185,1185,1185,1181,1177,1177,1173,1169,1169,1165,1165,1161,1161,1157,1153,1153,1153,1145,1145,1141,1138,1138,1138,1134,1134,1130,1126,1126,1123,1123,1119,1119,1115,1112,1108,1108,1108,1105,1105,1105,1097,1097,1097,1094,1094,1094,1090,1087,1084,1080,1080,1080,1080,1077,1077,1077,1073,1070,1067,1063,1063,1060,1060,1057,1054,1050,1050,1050,1050,1050,1047,1047,1044,1041,1041,1041,1038,1034,1031,1031,1028,1028,1025,1025,1025,1022,1019,1019,1016,1016,1016,1016,0,0,0,0,0,0,0,0,0,0,0,0,0,0,0,0,0,0,0,0,0,0,0,0,0,0,0,0,0,0,0,0,0
0,0,0,0,0,0,0,0,0,0,0,1609,1609,1616,1616,1616,1616,1616,1616,1616,1616,1616,1616,1616,1624,1624,1616,1616,1616,1616,1616,1616,1616,0,0,0,0,0,0,0,0,0,0,727,725,722,720,719,717,717,717,717,716,716,714,714,714,714,713,713,711,711,711,711,713,714,714,714,714,713,713,713,713,713,713,713,713,714,714,713,713,713,713,711,711,711,711,711,710,710,711,711,711,711,711,713,713,713,713,713,711,711,714,714,714,713,713,713,713,711,711,710,710,711,711,711,710,710,711,713,713,713,713,713,714,714,714,714,714,714,713,713,713,711,711,713,713,711,711,711,713,711,711,713,713,713,713,711,711,710,710,710,710,710,710,711,711,713,714,714,714,714,716,716,717,717,719,719,720,720,722,723,725,727,727,727,728,730,730,730,733,733,734,738,738,739,739,739,741,741,742,746,747,749,749,749,759,761,762,762,764,764,767,767,769,769,771,773,774,774,776,776,778,780,781,783,783,785,787,787,787,789,789,790,790,790,794,794,796,796,798,800,800,800,802,803,807,807,809,811,811,813,813,817,817,819,819,819,821,821,823,825,827,827,827,829,831,833,833,835,835,837,837,839,839,841,843,843,845,847,849,849,849,849,1572,1579,1579,1572,1572,1572,1572,1572,1572,1572,1572,1572,1572,1572,1564,1564,1564,0,0,0,908,906,906,906,903,901,898,896,894,891,891,891,891,894,894,894,896,898,898,898,901,903,906,906,908,908,908,908,910,910,913,913,913,915,915,0,0,0,0,0,0,1579,1579,1579,1579,1572,1572,1572,1579,1579,1579,1579,1579,1586,1586,1579,1579,1579,1579,1579,1579,1579,1579,1579,1572,1572,1572,1572,1572,1572,1572,1572,1572,1572,1572,1572,1572,1572,1572,1572,1572,1572,1572,1572,1572,1572,1572,1572,1572,1564,1564,1564,1550,1550,1550,1550,1543,1543,1536,1529,1529,1523,1523,1523,1516,1516,1509,1503,1496,1496,1496,1489,1489,1489,1483,1477,1477,1477,1470,1464,1464,1464,1452,1452,1452,1445,1445,1439,1439,1439,1433,1427,1421,1415,1415,1415,1410,1410,1404,1398,1398,1392,1392,1381,1381,1381,1376,1376,1370,1370,1370,1365,1359,1359,1354,1354,1349,1349,1349,1343,1338,1338,1333,1333,1333,1328,1328,1322,1322,1317,1312,1307,1307,1307,1307,1302,1297,1292,1292,1288,1288,1288,1283,1278,1278,1273,1273,1273,1268,1268,1264,1264,1255,1255,1255,1250,1250,1245,1241,1236,1236,1232,1232,1227,1223,1223,1219,1219,1219,1214,1210,1206,1202,1202,1202,1197,1197,1197,1193,1189,1189,1189,1185,1185,1185,1181,1177,1173,1169,1169,1165,1165,1165,1161,1157,1153,1153,1153,1145,1145,1141,1138,1138,1138,1134,1134,1130,1130,1126,1123,1123,1123,1119,1115,1112,1108,1108,1108,1105,1105,1105,1101,1101,1097,1094,1094,1094,1090,1087,1084,1080,1080,1080,1077,1077,1077,1077,1073,1070,1067,1063,1063,1060,1060,1057,1054,1054,1050,1050,1050,1050,1050,1047,1044,1044,1041,1041,1038,1034,1034,1031,1028,1028,1025,1025,1025,1022,1019,1019,1016,1016,1016,1016,0,0,0,0,0,0,0,0,0,0,0,0,0,0,0,0,0,0,0,0,0,0,0,0,0,0,0,0,0,0,0,0,0
0,0,0,0,0,0,0,0,0,0,0,1609,1609,1609,1609,1609,1609,1616,1616,1616,1616,1616,1609,1609,1616,1616,1616,1616,1616,1616,1616,1616,1616,1616,0,0,0,0,0,0,0,0,0,0,0,720,719,717,716,714,714,716,714,714,714,713,713,713,711,710,710,710,710,710,711,711,713,713,713,711,711,710,710,710,710,710,710,711,711,711,711,711,711,711,711,711,711,710,708,707,707,707,707,708,708,708,710,711,711,711,710,710,710,710,710,710,711,711,711,710,710,710,708,708,710,710,708,708,708,711,710,710,711,713,713,713,711,711,713,711,710,710,710,710,710,710,710,708,708,708,708,708,708,708,708,708,708,708,708,708,708,708,708,710,710,710,711,713,713,713,714,714,716,716,717,717,719,719,720,720,722,723,725,727,727,728,728,730,731,731,733,733,736,739,739,741,741,741,741,742,746,747,749,755,759,759,761,762,764,764,766,766,767,767,769,771,773,773,774,774,776,778,780,780,781,783,785,785,787,787,789,789,790,790,792,792,794,796,796,796,798,800,800,800,802,803,807,807,809,811,811,813,813,817,817,819,819,819,821,821,823,825,827,827,827,829,831,833,833,835,835,837,837,839,839,841,843,845,847,847,1572,1572,1572,1572,1572,1572,1572,1572,1572,1572,1572,1572,1572,1572,1572,1572,1564,1564,1564,1564,1564,0,0,0,910,908,908,906,906,903,901,898,896,894,894,894,894,894,894,894,896,898,898,901,901,903,906,906,908,908,908,908,910,910,913,913,913,915,915,0,0,0,0,0,0,1572,1572,1572,1572,1572,1572,1572,1572,1579,1579,1579,1579,1579,1579,1579,1579,1579,1572,1572,1572,1572,1572,1572,1572,1572,1572,1564,1564,1564,1564,1564,1564,1564,1564,1564,1564,1564,1564,1564,1557,1557,1564,1564,1564,1564,1564,1564,1564,1557,1557,1557,1550,1550,1543,1543,1543,1543,1536,1536,1529,1523,1523,1523,1516,1516,1509,1509,1503,1496,1496,1496,1489,1489,1483,1477,1477,1477,1470,1470,1464,1464,1452,1452,1452,1445,1445,1439,1439,1439,1433,1427,1421,1421,1415,1415,1415,1410,1404,1398,1398,1392,1392,1387,1381,1381,1376,1376,1376,1370,1370,1365,1359,1359,1354,1354,1349,1349,1349,1349,1338,1338,1333,1333,1333,1328,1328,1322,1322,1312,1312,1307,1307,1307,1307,1302,1297,1292,1292,1288,1288,1288,1283,1283,1278,1273,1273,1273,1268,1268,1268,1264,1259,1255,1255,1250,1250,1245,1241,1236,1236,1232,1232,1227,1223,1223,1219,1219,1219,1214,1210,1206,1202,1202,1202,1197,1197,1197,1193,1193,1189,1189,1185,1185,1185,1181,1177,1173,1169,1169,1165,1165,1165,1161,1161,1153,1153,1153,1149,1145,1141,1138,1138,1138,1134,1134,1134,1130,1126,1123,1123,1123,1119,1115,1112,1112,1108,1108,1105,1105,1105,1101,1101,1097,1094,1094,1094,1090,1087,1084,1080,1080,1080,1077,1077,1077,1077,1073,1073,1067,1067,1063,1060,1060,1057,1054,1054,1054,1050,1050,1050,1050,1047,1044,1044,1041,1041,1038,1034,1034,1031,1031,1028,1028,1025,1025,1022,1022,1019,1016,1016,1016,1016,0,0,0,0,0,0,0,0,0,0,0,0,0,0,0,0,0,0,0,0,0,0,0,0,0,0,0,0,0,0,0,0,0
0,0,0,0,0,0,0,0,0,0,0,1594,1594,1601,1601,1601,1601,1601,1601,1609,1609,1601,1601,1601,1601,1609,1609,1601,1601,1609,1616,1616,1616,1616,0,0,0,0,0,0,0,0,0,0,0,720,716,716,714,713,713,714,713,713,713,713,711,711,711,710,710,710,708,708,710,710,710,710,710,710,710,708,708,708,708,708,708,708,708,708,708,710,710,710,710,710,710,708,707,706,706,706,706,706,706,706,707,708,708,708,708,708,708,708,708,708,708,708,707,707,708,707,707,707,707,707,707,707,707,708,707,707,707,710,711,710,710,710,710,710,708,707,707,707,707,707,707,707,707,707,707,706,706,706,707,708,708,707,707,708,708,708,708,708,710,710,711,713,713,713,714,714,716,716,717,719,719,720,720,722,722,723,725,727,727,728,728,731,731,733,734,736,738,741,741,742,742,742,744,749,749,754,757,757,759,759,762,764,766,766,766,767,767,769,771,773,773,774,774,774,778,778,780,781,781,783,785,787,787,787,789,789,790,792,792,794,796,796,796,798,798,802,802,802,803,805,807,809,811,811,811,813,815,817,817,819,819,821,821,823,823,825,827,827,829,829,831,833,833,835,835,837,839,839,841,841,841,1572,1572,1564,1572,1572,1572,1572,1572,1572,1572,1572,1572,1572,1572,1572,1572,1572,1572,1572,1564,1564,1557,1557,1557,1557,1557,910,910,910,908,908,906,906,903,901,898,896,894,894,894,894,894,896,898,898,898,901,903,903,906,906,908,908,908,908,910,913,913,913,915,915,915,0,0,0,0,0,0,1564,1564,1572,1564,1564,1564,1564,1564,1572,1572,1572,1572,1572,1572,1572,1572,1572,1572,1564,1564,1564,1564,1564,1564,1564,1564,1564,1564,1557,1557,1557,1557,1557,1557,1557,1557,1557,1557,1557,1550,1550,1557,1550,1550,1557,1557,1557,1557,1557,1550,1550,1550,1543,1543,1543,1543,1543,1536,1536,1529,1523,1523,1523,1516,1516,1509,1509,1503,1496,1496,1496,1489,1489,1483,1483,1477,1477,1470,1470,1464,1464,1452,1452,1452,1445,1445,1439,1439,1439,1433,1433,1421,1421,1421,1415,1415,1410,1404,1398,1398,1392,1392,1387,1387,1381,1381,1376,1376,1370,1370,1365,1359,1359,1354,1354,1349,1349,1349,1349,1338,1338,1333,1333,1333,1328,1328,1322,1322,1312,1312,1307,1307,1307,1302,1302,1297,1292,1292,1292,1292,1288,1288,1283,1278,1273,1273,1273,1268,1268,1268,1264,1259,1255,1255,1250,1250,1250,1241,1236,1236,1232,1232,1227,1227,1223,1223,1219,1219,1214,1210,1206,1202,1202,1202,1197,1197,1197,1193,1193,1189,1189,1185,1185,1181,1181,1177,1173,1169,1169,1169,1165,1165,1161,1157,1153,1153,1153,1149,1145,1145,1141,1138,1138,1134,1134,1134,1130,1126,1126,1123,1123,1119,1119,1115,1112,1108,1108,1108,1105,1105,1105,1105,1097,1097,1094,1094,1090,1087,1084,1084,1080,1080,1077,1077,1077,1077,1077,1073,1070,1067,1063,1063,1060,1060,1057,1054,1054,1054,1054,1050,1050,1047,1047,1044,1041,1038,1038,1034,1034,1031,1031,1028,1028,1025,1025,1022,1022,1019,1016,1016,1016,1016,0,0,0,0,0,0,0,0,0,0,0,0,0,0,0,0,0,0,0,0,0,0,0,0,0,0,0,0,0,0,0,0,0
