0,0,0,0,0,0,0,0,0,0,0,0,1776,1776,1776,1776,1776,1776,1785,1785,1785,1785,1785,1785,1785,1785,1785,1785,1785,1785,1785,1785,1776,1776,1785,1785,1785,1785,1785,1785,1794,1794,1794,1794,1794,1794,1794,1794,1785,1785,1785,1794,1794,1794,1794,1794,1794,1794,1794,1785,1785,1785,1785,1785,1785,1794,1785,1785,1794,1794,1794,1785,1776,1776,1785,1785,1776,1776,1776,1776,0,0,0,0,0,0,0,0,0,0,0,0,906,906,903,901,898,894,891,889,889,887,887,887,887,885,885,878,875,875,875,873,873,871,864,860,858,856,854,851,849,847,845,843,841,839,837,835,833,831,831,827,827,825,825,825,825,825,776,774,774,774,773,773,773,767,767,766,764,761,759,759,759,755,754,754,752,752,752,750,750,749,749,750,750,752,750,750,752,750,750,752,752,752,752,752,752,752,752,747,747,761,742,742,742,754,754,754,754,754,755,757,755,755,757,761,762,764,764,762,762,761,757,757,761,764,764,764,764,764,764,762,761,761,761,761,761,761,761,762,764,764,764,764,762,762,764,766,766,767,769,769,769,764,764,773,773,773,773,774,774,773,773,773,773,771,771,773,773,773,771,771,780,778,774,774,773,773,773,771,771,771,773,773,773,771,769,769,787,787,787,781,780,776,776,776,774,774,776,776,780,778,778,781,781,781,781,780,780,780,780,780,780,780,780,780,781,781,781,785,785,787,785,785,785,785,787,789,790,790,790,792,790,790,790,789,789,789,789,789,789,789,789,790,790,790,790,790,790,798,790,790,792,792,792,790,790,790,792,792,794,794,796,798,798,800,800,802,803,807,809,811,811,813,813,815,817,823,825,827,829,831,831,835,837,839,869,869,871,873,880,880,885,887,889,891,894,898,898,901,906,908,913,915,920,923,925,928,933,933,933,935,935,935,938,938,943,946,948,948,951,954,954,956,0,0,0,0,1529,1529,1529,1529,1523,1523,1523,1516,1516,1516,1516,1516,1509,1509,1509,1503,1496,1496,1496,1489,1489,1489,1489,1489,1483,1483,1477,1477,1470,1470,1470,1464,1464,1464,1464,1458,1458,1458,1452,1445,1445,1445,1439,1439,1439,1439,1439,1439,1439,1433,1433,1427,1427,1421,1421,1415,1415,1415,1415,1415,1410,1404,1398,1398,1398,1398,1398,1392,1392,1392,1392,1392,1387,1381,1381,1376,1376,1376,1376,1370,1370,1370,1370,1370,1365,1365,1359,1359,1354,1354,1354,1354,1354,1349,1349,1343,1343,1338,1338,1333,1333,1333,1328,1328,1328,1328,1328,1328,1322,1322,1317,1317,1312,1312,1307,1307,1307,1307,1302,1297,1297,1297,1292,1292,1292,1292,1292,1288,1288,1288,1283,1278,1273,1273,1273,1273,1268,1268,1268,1268,1268,1268,1264,1264,1259,1259,1255,1255,1255,1255,1250,1250,1250,1250,1245,1245,1241,1241,1241,1236,1236,1236,1236,1232,1232,1232,1232,1227,1223,1223,1219,1219,1219,1219,1214,1214,1214,1214,1214,1210,1210,1206,1206,1206,1202,1202,1202,1197,1197,1197,1197,1193,1193,1193,1193,1189,1185,1185,1185,1181,1181,0,0,0,0,0,0,0,0,0,0,0,0,0,0,0,0,0,0,0,0,0,0,0,0,0,0,0,0,0,0,0
0,0,0,0,0,0,0,0,0,0,0,0,1766,1766,1766,1766,1766,1766,1776,1785,1776,1776,1766,1766,1785,1776,1776,1776,1776,1776,1776,1776,1776,1776,1776,1785,1776,1776,1776,1776,1776,1776,1776,1776,1794,1794,1794,1785,1785,1785,1785,1785,1785,1785,1794,1794,1794,1794,1794,1794,1785,1785,1785,1785,1794,1794,1794,1794,1794,1794,1794,1785,1785,1785,1785,1785,1785,1785,1785,1785,0,0,0,0,0,0,0,0,0,0,0,0,906,906,903,901,901,896,894,891,891,889,889,887,887,885,885,878,875,875,875,873,873,873,869,867,860,858,854,851,849,847,845,843,843,839,837,835,833,831,831,827,827,823,823,823,821,821,776,774,774,774,773,773,773,767,767,766,762,761,759,759,759,755,754,754,752,752,752,750,749,747,747,746,746,747,744,744,744,747,747,747,749,749,749,749,749,749,747,746,744,742,741,741,741,741,747,749,749,750,750,754,754,754,754,754,759,764,759,759,755,755,755,755,754,754,752,752,754,764,762,761,759,759,759,759,759,759,759,759,761,761,761,761,759,755,755,755,757,755,755,755,755,755,755,757,757,761,771,771,773,771,771,771,771,767,764,764,769,769,767,767,767,769,771,771,769,769,769,769,769,769,771,771,771,769,769,769,769,769,767,767,767,771,771,774,773,773,773,774,778,774,774,776,778,778,778,776,776,778,778,778,778,776,776,774,773,773,780,781,783,783,783,783,783,783,783,785,785,787,787,789,789,789,789,789,787,787,787,787,787,785,785,785,785,785,785,785,783,783,783,789,790,790,790,789,789,789,790,790,792,792,794,796,796,798,798,800,802,805,809,811,811,813,813,815,817,823,825,827,829,831,831,867,869,869,869,869,871,873,878,880,885,887,889,891,894,898,898,901,906,908,913,915,920,923,925,930,933,933,933,935,935,935,938,938,946,948,948,948,954,954,954,0,0,0,0,1536,1529,1529,1529,1529,1523,1523,1523,1516,1516,1516,1516,1516,1509,1509,1509,1503,1503,1496,1496,1489,1489,1489,1489,1489,1483,1483,1477,1477,1470,1470,1470,1464,1464,1464,1464,1458,1458,1458,1445,1445,1445,1445,1439,1439,1439,1439,1439,1439,1439,1433,1433,1427,1427,1421,1421,1415,1415,1415,1415,1410,1410,1404,1398,1398,1398,1398,1398,1398,1392,1392,1392,1392,1387,1387,1381,1376,1376,1376,1376,1370,1370,1370,1370,1370,1365,1365,1359,1359,1354,1354,1354,1354,1354,1349,1349,1343,1343,1338,1338,1333,1333,1333,1333,1328,1328,1328,1328,1328,1328,1322,1317,1317,1312,1312,1307,1307,1307,1307,1302,1302,1297,1297,1292,1292,1292,1292,1292,1288,1288,1288,1283,1283,1278,1273,1273,1273,1273,1268,1268,1268,1268,1268,1268,1264,1259,1259,1255,1255,1255,1255,1250,1250,1250,1250,1245,1245,1241,1241,1241,1236,1236,1236,1236,1232,1232,1232,1232,1232,1227,1227,1219,1219,1219,1219,1219,1219,1214,1214,1214,1214,1210,1210,1210,1206,1202,1202,1202,1202,1197,1197,1197,1197,1193,1193,1193,1189,1185,1185,1185,1181,1181,0,0,0,0,0,0,0,0,0,0,0,0,0,0,0,0,0,0,0,0,0,0,0,0,0,0,0,0,0,0,0
0,0,0,0,0,0,0,0,0,0,0,0,1766,1766,1757,1757,1766,1766,1757,1757,1757,1757,1757,1766,1766,1757,1757,1766,1766,1766,1776,1776,1766,1766,1776,1776,1776,1766,1766,1776,1776,1776,1776,1776,1776,1776,1776,1776,1776,1776,1776,1776,1776,1776,1785,1794,1794,1794,1785,1785,1785,1785,1785,1785,1794,1794,1794,1794,1794,1785,1785,1776,1776,1785,1785,1785,1785,1785,1785,1794,0,0,0,0,0,0,0,0,0,0,0,0,0,903,903,903,901,898,894,894,891,889,889,887,887,887,885,882,878,875,875,875,873,871,869,869,864,858,854,851,849,847,845,843,843,841,839,835,835,833,831,827,827,823,823,823,821,821,817,817,774,774,773,773,773,771,769,766,762,761,759,759,759,755,754,754,752,752,750,749,747,746,746,742,741,741,741,741,741,741,742,736,734,734,744,747,746,746,746,744,744,742,741,741,741,741,744,746,747,747,747,749,749,750,746,746,746,750,752,752,752,752,754,752,752,750,749,749,749,747,747,759,757,755,755,757,757,755,755,755,755,757,759,757,755,755,754,754,754,754,752,752,752,754,752,752,754,757,757,757,759,764,764,771,762,762,762,762,762,761,761,761,761,761,764,764,766,766,767,767,767,767,767,767,767,766,766,766,766,766,766,766,767,767,769,771,771,771,771,771,771,771,769,769,769,771,773,773,773,774,774,774,774,774,773,771,769,767,767,767,767,771,774,778,778,778,778,778,778,776,776,776,783,781,781,783,783,783,783,783,783,783,781,781,781,781,783,783,783,783,783,783,785,787,785,785,787,787,789,789,790,790,792,794,796,796,798,800,802,805,809,809,811,813,813,813,817,825,827,856,856,858,862,864,867,869,869,871,871,873,878,880,885,887,889,891,896,898,901,901,908,908,913,915,920,923,928,930,933,935,935,935,935,935,938,940,946,948,948,948,954,954,0,0,0,0,0,1536,1529,1529,1529,1529,1529,1523,1523,1516,1516,1516,1516,1516,1509,1509,1509,1503,1503,1496,1496,1496,1496,1489,1489,1489,1483,1483,1477,1477,1470,1470,1470,1470,1464,1464,1464,1458,1458,1458,1445,1445,1445,1445,1445,1439,1439,1439,1439,1439,1439,1433,1433,1433,1427,1421,1421,1415,1415,1415,1415,1410,1410,1404,1398,1398,1398,1398,1398,1398,1398,1392,1392,1392,1387,1387,1381,1381,1376,1376,1376,1370,1370,1370,1370,1370,1365,1365,1359,1359,1354,1354,1354,1354,1349,1349,1349,1343,1343,1338,1338,1333,1333,1333,1333,1328,1328,1328,1328,1328,1328,1322,1317,1317,1312,1312,1307,1307,1307,1307,1302,1302,1302,1297,1297,1292,1292,1292,1292,1288,1288,1288,1288,1283,1278,1273,1273,1273,1273,1273,1273,1268,1268,1268,1268,1268,1259,1259,1255,1255,1255,1255,1250,1250,1250,1250,1245,1245,1241,1241,1241,1236,1236,1236,1236,1236,1232,1232,1232,1227,1227,1227,1227,1223,1223,1219,1219,1219,1214,1214,1214,1214,1210,1210,1206,1206,1202,1202,1202,1197,1197,1197,1197,1197,1193,1193,1189,1189,1185,1185,1185,1181,1181,0,0,0,0,0,0,0,0,0,0,0,0,0,0,0,0,0,0,0,0,0,0,0,0,0,0,0,0,0,0,0
0,0,0,0,0,0,0,0,0,0,0,0,1757,1757,1757,1748,1748,1757,1757,1757,1748,1748,1748,1757,1757,1748,1748,1757,1766,1766,1766,1766,1766,1766,1766,1766,1766,1766,1766,1766,1766,1766,1766,1766,1766,1766,1766,1766,1766,1766,1757,1757,1766,1776,1776,1785,1785,1785,1785,1785,1785,1785,1785,1785,1794,1794,1785,1785,1785,1785,1785,1776,1776,1776,1785,1776,1776,1776,1776,1776,0,0,0,0,0,0,0,0,0,0,0,0,0,903,903,903,901,898,896,894,891,891,891,889,887,887,885,882,878,875,875,875,873,871,871,869,864,860,856,854,851,849,847,845,843,841,839,837,835,833,831,827,827,823,823,823,821,817,815,811,811,773,773,773,773,771,769,764,764,762,761,761,757,755,754,754,752,750,750,749,747,746,744,742,741,741,741,739,739,741,736,734,733,731,731,739,739,739,739,742,742,742,741,741,741,741,741,744,746,746,746,746,747,746,746,744,744,747,747,747,747,749,750,750,749,749,749,749,747,747,747,747,747,750,750,750,754,750,747,747,750,750,757,754,752,752,749,749,750,750,750,749,749,750,749,747,747,747,749,747,747,749,757,757,757,759,759,759,755,755,755,755,757,757,759,759,764,764,764,764,764,764,764,766,766,766,766,766,766,764,764,764,764,764,764,766,766,767,767,766,766,767,767,766,764,764,767,769,771,771,773,773,773,771,771,769,769,767,767,767,767,769,767,767,771,771,771,771,773,776,776,776,778,778,778,780,780,780,780,780,780,780,780,780,780,780,781,781,781,781,781,781,783,785,783,783,785,785,787,789,789,790,792,794,796,796,798,800,802,805,809,809,811,811,813,813,858,854,854,854,854,856,858,862,867,869,869,871,873,875,880,880,885,887,889,891,896,898,901,903,908,908,913,915,920,923,928,933,935,935,935,935,935,935,938,943,946,948,948,948,954,954,0,0,0,0,0,1536,1529,1529,1529,1529,1529,1523,1523,1523,1516,1516,1516,1516,1516,1509,1509,1503,1503,1496,1496,1496,1496,1489,1489,1489,1483,1483,1477,1477,1470,1470,1470,1470,1464,1464,1464,1458,1458,1452,1445,1445,1445,1445,1445,1439,1439,1439,1439,1439,1439,1433,1433,1433,1427,1421,1421,1415,1415,1415,1410,1410,1410,1404,1404,1404,1404,1398,1398,1398,1398,1392,1392,1392,1387,1387,1387,1381,1376,1376,1376,1376,1376,1370,1370,1370,1365,1365,1359,1359,1354,1354,1354,1354,1349,1349,1349,1343,1343,1338,1338,1333,1333,1333,1333,1328,1328,1328,1328,1328,1328,1322,1317,1317,1312,1312,1312,1307,1307,1307,1302,1302,1302,1297,1297,1292,1292,1292,1292,1292,1288,1288,1288,1283,1283,1278,1278,1273,1273,1273,1273,1268,1268,1268,1268,1268,1264,1264,1255,1255,1255,1255,1250,1250,1250,1245,1245,1241,1241,1241,1241,1241,1236,1236,1236,1236,1232,1232,1232,1227,1227,1227,1227,1223,1223,1219,1219,1219,1214,1214,1214,1214,1210,1210,1206,1206,1202,1202,1202,1197,1197,1197,1197,1197,1193,1193,1189,1189,1185,1185,1185,1181,1181,0,0,0,0,0,0,0,0,0,0,0,0,0,0,0,0,0,0,0,0,0,0,0,0,0,0,0,0,0,0,0
0,0,0,0,0,0,0,0,0,0,0,1748,1748,1748,1748,1739,1739,1739,1739,1739,1731,1731,1739,1739,1739,1739,1739,1739,1757,1757,1757,1757,1757,1757,1757,1757,1757,1757,1757,1766,1766,1766,1766,1766,1757,1757,1757,1757,1757,1757,1757,1757,1757,1757,1766,1766,1776,1776,1776,1776,1776,1766,1766,1776,1785,1785,1785,1785,1785,1776,1776,1766,1766,1776,1776,1776,1766,1766,1766,1766,0,0,0,0,0,0,0,0,0,0,0,0,0,903,903,903,901,898,896,894,894,891,891,889,889,889,887,885,878,878,875,875,873,871,871,869,867,862,858,854,851,849,847,845,845,841,839,837,835,833,831,827,827,823,823,823,821,817,815,811,811,809,805,805,805,805,764,764,764,761,759,759,757,755,754,754,752,750,750,749,746,744,744,741,739,739,739,739,736,734,734,733,731,730,730,730,736,736,736,736,738,738,739,739,739,739,741,739,739,744,742,742,744,744,742,741,741,744,744,744,744,746,746,749,747,747,747,747,747,746,746,747,747,747,747,747,747,747,747,747,746,746,746,747,747,749,747,747,749,750,749,749,749,749,749,747,747,747,749,747,747,747,752,754,754,754,754,754,754,754,754,754,754,754,755,755,755,759,761,759,759,761,761,761,761,762,762,764,764,764,764,762,762,762,762,762,762,764,762,761,761,761,762,761,761,761,761,762,766,767,767,767,767,767,767,767,767,767,767,766,766,766,764,762,762,764,766,769,767,767,769,769,773,774,774,776,776,778,778,778,778,778,778,778,778,778,780,780,780,780,778,778,780,781,781,781,783,783,785,787,789,789,790,792,794,796,798,802,803,805,809,809,811,811,813,813,851,851,851,854,854,856,858,860,864,869,869,871,873,878,880,882,885,887,889,894,896,901,901,903,908,910,913,915,920,925,928,933,935,935,935,935,935,935,938,943,946,948,948,951,956,956,0,0,0,0,1543,1536,1529,1529,1529,1529,1523,1523,1523,1523,1516,1516,1516,1516,1516,1509,1509,1503,1503,1496,1496,1496,1496,1496,1489,1489,1483,1477,1477,1470,1470,1470,1470,1470,1464,1464,1464,1458,1458,1452,1445,1445,1445,1445,1445,1439,1439,1439,1439,1439,1439,1433,1433,1427,1427,1421,1421,1415,1415,1415,1410,1410,1410,1404,1404,1404,1404,1404,1398,1398,1398,1398,1392,1392,1387,1387,1381,1381,1376,1376,1376,1376,1376,1370,1370,1370,1365,1365,1359,1359,1354,1354,1354,1354,1349,1349,1349,1343,1343,1338,1338,1333,1333,1333,1333,1328,1328,1328,1328,1328,1322,1322,1317,1317,1312,1312,1312,1307,1307,1307,1302,1302,1302,1297,1297,1292,1292,1292,1292,1292,1288,1288,1288,1288,1283,1278,1278,1273,1273,1273,1273,1268,1268,1268,1268,1268,1264,1264,1255,1255,1255,1255,1250,1250,1250,1245,1245,1241,1241,1241,1241,1241,1241,1236,1236,1236,1232,1232,1232,1227,1227,1227,1227,1223,1223,1219,1219,1219,1214,1214,1214,1214,1210,1210,1206,1206,1202,1202,1202,1197,1197,1197,1197,1197,1197,1193,1193,1189,1189,1185,1185,1185,1185,0,0,0,0,0,0,0,0,0,0,0,0,0,0,0,0,0,0,0,0,0,0,0,0,0,0,0,0,0,0,0
0,0,0,0,0,0,0,0,0,0,0,1739,1739,1739,1739,1731,1731,1731,1731,1731,1731,1731,1731,1731,1731,1739,1739,1739,1739,1739,1739,1739,1739,1739,1739,1739,1748,1748,1748,1757,1757,1757,1748,1748,1748,1748,1748,1748,1748,1748,1757,1757,1757,1757,1757,1757,1757,1757,1757,1757,1766,1766,1757,1757,1766,1766,1766,1766,1766,1766,1766,1766,1766,1766,1766,1766,1766,1766,1766,1766,0,0,0,0,0,0,0,0,0,0,0,0,0,903,903,903,901,898,896,896,894,894,891,891,889,889,889,887,880,878,875,875,873,871,869,869,869,862,858,856,851,851,849,847,845,843,841,837,835,833,831,829,827,825,825,823,821,817,815,813,811,809,805,805,803,803,802,802,761,761,759,759,757,755,754,754,752,752,750,749,746,744,744,741,739,739,739,736,734,733,733,731,730,730,730,730,733,733,733,733,734,736,736,736,736,736,736,739,739,741,739,739,739,739,741,741,741,741,741,741,741,742,742,742,744,744,746,746,746,744,744,744,746,746,746,746,746,746,746,744,742,741,741,742,744,746,746,747,747,747,749,747,747,747,747,747,747,747,747,747,747,747,749,750,750,749,749,750,749,749,750,750,754,754,754,754,755,755,757,757,757,757,757,759,759,759,759,761,761,761,761,761,761,761,761,761,761,761,759,759,759,757,757,759,759,759,759,761,761,761,762,761,761,762,764,766,766,764,764,764,764,762,761,761,761,761,762,766,766,766,766,766,766,766,766,766,771,771,773,773,773,774,774,774,776,776,778,778,776,776,776,776,778,778,780,780,781,783,783,785,787,789,790,792,792,796,798,802,803,805,807,809,811,811,813,813,849,851,851,851,854,856,858,860,864,869,871,871,873,878,882,885,887,889,889,894,898,901,903,906,910,910,915,918,920,925,930,933,935,935,935,935,935,938,938,943,946,948,948,954,954,0,0,0,0,0,1543,1536,1536,1529,1529,1529,1523,1523,1523,1523,1516,1516,1516,1516,1516,1509,1509,1503,1503,1496,1496,1496,1496,1496,1489,1489,1483,1477,1477,1470,1470,1470,1470,1470,1470,1464,1464,1464,1458,1452,1445,1445,1445,1445,1445,1439,1439,1439,1439,1439,1439,1433,1427,1427,1427,1421,1421,1415,1415,1415,1415,1410,1410,1410,1404,1404,1404,1404,1398,1398,1398,1398,1392,1392,1387,1387,1381,1381,1376,1376,1376,1376,1376,1376,1370,1370,1365,1365,1359,1359,1354,1354,1354,1354,1354,1349,1349,1349,1343,1338,1338,1333,1333,1333,1333,1328,1328,1328,1328,1328,1322,1322,1317,1317,1312,1312,1312,1307,1307,1307,1302,1302,1302,1297,1297,1292,1292,1292,1288,1288,1288,1288,1288,1288,1283,1278,1278,1273,1273,1273,1273,1268,1268,1268,1268,1268,1264,1264,1259,1259,1255,1255,1250,1250,1250,1250,1245,1245,1245,1241,1241,1241,1241,1236,1236,1236,1232,1232,1232,1227,1227,1227,1227,1223,1223,1219,1219,1219,1214,1214,1214,1214,1210,1210,1206,1206,1202,1202,1202,1197,1197,1197,1197,1197,1197,1193,1193,1189,1189,1185,1185,1185,1185,0,0,0,0,0,0,0,0,0,0,0,0,0,0,0,0,0,0,0,0,0,0,0,0,0,0,0,0,0,0,0
0,0,0,0,0,0,0,0,0,0,0,1731,1731,1731,1731,1731,1722,1722,1722,1722,1722,1722,1731,1731,1731,1731,1731,1731,1722,1722,1731,1731,1731,1731,1731,1731,1731,1739,1739,1739,1739,1748,1748,1748,1739,1739,1739,1739,1739,1739,1748,1748,1748,1748,1748,1748,1757,1757,1748,1748,1748,1748,1739,1739,1748,1757,1757,1766,1766,1766,1766,1766,1766,1766,1766,1766,1766,1766,1766,1757,1757,0,0,0,0,0,0,0,0,0,0,0,0,903,903,901,901,898,896,896,894,894,894,894,891,891,891,891,885,880,878,875,873,871,869,869,869,862,860,856,854,851,849,847,845,843,841,839,837,835,831,829,827,825,825,823,821,817,817,813,811,809,805,805,803,803,802,802,802,762,761,761,757,757,754,754,752,752,750,749,746,746,744,741,739,739,739,736,733,733,731,730,730,728,728,728,731,731,731,733,733,734,734,734,734,734,734,734,733,733,734,734,733,733,734,738,738,739,741,739,739,739,739,741,741,741,742,744,744,741,738,738,739,744,744,742,741,741,742,741,741,739,739,739,741,741,741,744,746,747,747,746,746,746,747,746,746,744,744,744,746,746,746,746,744,744,747,747,747,747,747,747,749,750,750,750,752,752,754,754,754,755,755,755,755,755,755,747,747,747,747,759,759,759,757,757,757,757,757,755,755,755,755,757,757,757,757,757,759,759,759,759,759,759,759,761,764,762,762,762,761,761,759,759,759,761,761,762,764,764,762,762,762,762,761,761,762,764,764,767,769,771,771,771,771,769,769,769,771,771,773,773,774,776,780,780,781,781,783,785,787,789,789,790,792,794,798,802,803,805,807,809,809,811,847,847,849,849,851,851,854,856,858,860,867,869,871,873,875,878,882,885,887,889,889,894,898,901,903,906,913,913,918,920,923,925,930,933,935,935,935,935,935,938,940,946,946,948,948,954,954,0,0,0,0,0,1543,1536,1536,1529,1529,1529,1523,1523,1523,1523,1516,1516,1516,1516,1516,1509,1509,1503,1503,1496,1496,1496,1496,1496,1489,1489,1483,1483,1477,1470,1470,1470,1470,1470,1470,1464,1464,1464,1458,1452,1452,1445,1445,1445,1445,1445,1439,1439,1439,1439,1439,1433,1427,1427,1427,1421,1421,1415,1415,1415,1415,1415,1410,1410,1410,1404,1404,1404,1398,1398,1398,1392,1392,1392,1387,1387,1381,1381,1381,1376,1376,1376,1376,1376,1370,1370,1365,1365,1365,1359,1359,1354,1354,1354,1354,1349,1349,1349,1343,1343,1338,1338,1333,1333,1333,1328,1328,1328,1328,1328,1322,1322,1317,1317,1317,1312,1312,1307,1307,1307,1302,1302,1302,1297,1297,1292,1292,1292,1288,1288,1288,1288,1288,1288,1283,1283,1278,1278,1273,1273,1273,1273,1268,1268,1268,1268,1264,1264,1259,1259,1255,1255,1250,1250,1250,1250,1245,1245,1245,1245,1241,1241,1241,1236,1236,1236,1236,1232,1232,1227,1227,1227,1227,1227,1227,1219,1219,1219,1214,1214,1214,1214,1214,1210,1206,1202,1202,1202,1202,1202,1197,1197,1197,1197,1197,1193,1193,1189,1189,1185,1185,1185,1185,0,0,0,0,0,0,0,0,0,0,0,0,0,0,0,0,0,0,0,0,0,0,0,0,0,0,0,0,0,0,0
0,0,0,0,0,0,0,0,0,0,0,1731,1731,1731,1722,1722,1722,1722,1713,1713,1722,1722,1722,1722,1722,1731,1731,1731,1722,1722,1731,1731,1731,1731,1731,1731,1731,1731,1731,1731,1731,1731,1739,1739,1731,1731,1731,1731,1731,1731,1739,1739,1739,1739,1739,1739,1748,1748,1748,1748,1748,1748,1739,1739,1739,1739,1739,1748,1757,1757,1757,1757,1757,1757,1757,1757,1757,1757,1757,1748,1748,0,0,0,0,0,0,0,0,0,0,0,0,903,903,901,901,898,896,896,894,894,894,894,891,891,894,891,889,885,878,875,873,871,869,869,869,862,860,858,856,851,849,847,845,843,841,839,837,835,833,829,829,825,825,823,823,817,815,813,811,809,807,805,803,803,802,802,798,798,761,761,757,757,754,754,752,752,750,749,747,746,744,741,739,739,738,734,733,731,730,730,728,728,727,727,727,727,725,725,725,725,731,731,733,733,733,731,731,728,728,728,728,728,728,728,731,731,738,739,739,738,736,736,736,736,736,734,734,734,734,734,734,734,734,734,738,738,739,739,738,736,736,738,736,736,734,734,734,744,744,744,742,742,744,744,742,742,742,742,742,741,741,741,741,741,741,741,742,742,742,742,744,746,746,744,744,744,744,744,750,752,750,750,752,752,750,747,746,746,747,747,747,757,755,755,754,754,755,754,754,755,755,755,755,755,755,755,755,755,755,755,755,754,754,754,754,754,755,755,757,757,757,757,757,759,759,761,761,761,762,761,759,759,757,757,761,761,759,759,762,766,766,767,767,766,766,767,769,769,771,771,773,774,776,778,780,781,783,785,787,789,789,790,792,794,798,802,803,807,809,809,809,843,845,847,847,849,851,851,854,856,858,860,867,871,871,873,878,880,882,885,887,889,891,894,898,903,906,908,913,915,918,920,923,925,928,933,935,935,935,935,935,938,940,946,946,948,948,954,954,0,0,0,0,0,1536,1536,1536,1529,1529,1523,1523,1523,1523,1523,1516,1516,1516,1516,1516,1509,1509,1509,1503,1503,1496,1496,1496,1496,1489,1489,1483,1483,1477,1470,1470,1470,1470,1470,1470,1464,1464,1464,1458,1452,1452,1452,1445,1445,1445,1445,1439,1439,1439,1439,1439,1433,1427,1427,1427,1421,1421,1415,1415,1415,1415,1415,1410,1410,1410,1404,1404,1404,1398,1398,1398,1392,1392,1392,1387,1387,1387,1381,1381,1376,1376,1376,1376,1376,1370,1370,1365,1365,1365,1359,1359,1354,1354,1354,1354,1349,1349,1349,1343,1338,1338,1338,1333,1333,1333,1328,1328,1328,1328,1328,1322,1322,1317,1317,1312,1312,1312,1307,1307,1307,1302,1302,1302,1302,1297,1292,1292,1292,1292,1292,1288,1288,1288,1288,1283,1278,1278,1278,1273,1273,1273,1273,1268,1268,1268,1268,1264,1259,1259,1259,1255,1255,1250,1250,1250,1250,1245,1245,1245,1245,1245,1245,1241,1236,1236,1236,1236,1232,1232,1227,1227,1227,1227,1223,1223,1219,1219,1219,1214,1214,1214,1214,1214,1210,1206,1202,1202,1202,1202,1202,1197,1197,1197,1197,1193,1193,1189,1189,1189,1189,1185,1185,1185,0,0,0,0,0,0,0,0,0,0,0,0,0,0,0,0,0,0,0,0,0,0,0,0,0,0,0,0,0,0,0
0,0,0,0,0,0,0,0,0,0,0,1722,1722,1722,1722,1722,1713,1713,1713,1713,1713,1713,1713,1713,1722,1722,1722,1722,1713,1713,1722,1722,1722,1722,1722,1722,1722,1722,1722,1722,1722,1722,1722,1722,1731,1731,1731,1731,1731,1731,1731,1731,1731,1731,1731,1731,1731,1739,1739,1739,1739,1739,1739,1739,1739,1739,1731,1731,1739,1739,1739,1739,1748,1748,1757,1757,1757,1748,1748,1739,1731,1731,1731,0,0,0,0,0,0,0,0,0,0,903,903,901,898,898,896,896,894,894,894,891,891,891,894,891,891,891,882,880,875,871,869,869,869,862,860,858,856,854,851,849,847,843,841,839,839,835,835,831,829,825,825,823,823,817,815,813,811,809,807,805,803,803,802,800,798,796,796,761,759,757,755,754,752,750,749,749,747,746,744,742,739,739,738,734,731,730,730,728,728,727,727,727,725,723,723,722,722,723,723,727,728,728,728,728,728,727,727,727,727,727,727,727,727,727,728,736,736,734,734,734,733,733,733,733,733,734,734,734,734,733,733,734,734,734,738,736,736,734,734,734,734,734,734,734,734,734,738,734,734,734,734,739,741,739,739,739,738,736,736,738,739,739,739,739,739,741,739,739,741,741,741,738,738,739,738,736,736,736,736,741,741,741,741,744,744,744,744,746,746,747,747,749,750,750,752,752,752,752,752,754,752,752,754,754,754,754,754,754,754,752,752,752,752,752,754,754,755,755,755,755,755,757,757,759,759,759,759,757,757,757,755,755,757,757,757,755,755,755,755,755,757,759,764,766,767,769,769,771,773,774,774,778,780,781,783,785,787,787,789,790,792,794,798,802,805,807,809,843,843,843,845,847,847,849,851,851,854,856,858,860,867,871,873,878,878,880,882,885,887,889,894,894,898,903,908,910,915,918,920,923,923,925,928,933,933,935,935,935,935,938,943,946,946,948,948,954,956,0,0,0,0,0,1536,1536,1536,1529,1529,1523,1523,1523,1523,1523,1516,1516,1516,1516,1516,1516,1509,1509,1503,1503,1496,1496,1496,1496,1489,1489,1483,1483,1477,1470,1470,1470,1470,1470,1470,1464,1464,1464,1458,1458,1452,1452,1445,1445,1445,1439,1439,1439,1439,1439,1433,1433,1427,1427,1427,1421,1421,1415,1415,1415,1415,1415,1410,1410,1410,1410,1404,1404,1398,1398,1398,1392,1392,1392,1387,1387,1387,1381,1381,1376,1376,1376,1376,1376,1370,1370,1370,1365,1365,1365,1359,1359,1354,1354,1354,1349,1349,1349,1343,1338,1338,1338,1333,1333,1333,1333,1333,1328,1328,1322,1322,1317,1317,1312,1312,1312,1312,1307,1307,1307,1302,1302,1302,1302,1297,1297,1292,1292,1292,1292,1288,1288,1288,1288,1283,1278,1278,1278,1273,1273,1273,1273,1268,1268,1268,1268,1264,1259,1259,1259,1255,1255,1255,1255,1250,1250,1245,1245,1245,1245,1245,1245,1241,1236,1236,1236,1236,1232,1232,1232,1232,1227,1227,1223,1223,1219,1219,1219,1214,1214,1214,1214,1214,1210,1206,1202,1202,1202,1202,1202,1197,1197,1197,1197,1193,1193,1189,1189,1189,1189,1185,1185,1185,0,0,0,0,0,0,0,0,0,0,0,0,0,0,0,0,0,0,0,0,0,0,0,0,0,0,0,0,0,0,0
0,0,0,0,0,0,0,0,0,0,0,1713,1705,1705,1713,1713,1705,1705,1713,1713,1713,1713,1713,1713,1713,1713,1713,1713,1705,1705,1713,1713,1713,1722,1722,1722,1722,1722,1722,1722,1713,1713,1713,1722,1722,1722,1722,1722,1722,1722,1722,1722,1722,1722,1722,1722,1722,1722,1731,1731,1731,1731,1731,1731,1731,1731,1731,1731,1731,1731,1731,1731,1731,1731,1739,1739,1748,1739,1739,1739,1731,1731,1722,1722,0,0,0,0,0,0,0,0,906,906,903,903,898,898,896,896,894,894,894,891,891,894,894,894,894,896,896,894,878,873,871,869,869,862,860,858,856,854,851,851,849,845,841,839,839,837,835,831,829,827,825,825,823,821,817,815,811,809,807,805,803,803,802,800,798,796,796,798,794,790,755,752,750,750,749,747,747,746,744,741,739,739,736,734,731,730,728,728,727,727,727,725,723,722,722,722,722,722,722,722,722,722,725,723,723,727,725,725,725,725,723,723,723,722,722,727,727,731,730,728,728,728,727,727,730,731,733,731,731,731,731,731,731,731,731,733,733,733,733,731,731,731,731,731,731,730,728,728,731,730,728,728,728,728,728,728,733,733,733,734,734,738,736,736,738,738,738,738,738,736,736,736,736,736,736,734,734,736,736,736,738,738,738,739,741,742,742,741,741,742,744,746,747,747,749,749,749,750,750,750,750,750,750,750,750,750,750,750,752,750,750,750,750,750,752,752,752,752,752,754,754,754,754,757,757,757,759,757,755,755,755,755,755,755,755,755,755,755,755,755,755,757,757,761,764,767,769,771,771,773,774,776,778,781,783,785,787,787,789,790,790,792,798,803,829,829,833,833,839,841,843,845,847,849,851,851,854,856,858,862,869,873,875,878,878,880,882,885,887,889,894,894,898,903,908,910,918,920,923,923,925,928,928,933,933,935,935,935,935,938,943,946,946,948,951,954,956,0,0,0,0,0,1543,1536,1536,1529,1529,1523,1523,1523,1523,1523,1523,1516,1516,1516,1516,1516,1509,1509,1503,1503,1496,1496,1496,1496,1489,1489,1483,1483,1477,1470,1470,1470,1470,1470,1470,1464,1464,1464,1458,1458,1452,1452,1452,1445,1445,1439,1439,1439,1439,1433,1433,1433,1427,1427,1427,1427,1421,1415,1415,1415,1415,1415,1415,1415,1410,1410,1410,1404,1398,1398,1398,1392,1392,1392,1387,1387,1387,1387,1381,1381,1376,1376,1376,1376,1370,1370,1370,1365,1365,1365,1359,1359,1354,1354,1354,1349,1349,1349,1343,1343,1338,1338,1333,1333,1333,1333,1328,1328,1328,1322,1322,1317,1317,1312,1312,1312,1312,1307,1307,1307,1302,1302,1302,1302,1297,1297,1292,1292,1292,1292,1288,1288,1288,1283,1283,1278,1278,1278,1278,1273,1273,1273,1268,1268,1268,1268,1264,1264,1259,1259,1259,1255,1255,1255,1250,1250,1250,1250,1250,1245,1245,1241,1241,1236,1236,1236,1236,1232,1232,1232,1232,1227,1227,1227,1223,1219,1219,1219,1214,1214,1214,1214,1210,1210,1206,1202,1202,1202,1202,1202,1202,1202,1197,1197,1193,1193,1193,1189,1189,1189,1189,1185,1185,0,0,0,0,0,0,0,0,0,0,0,0,0,0,0,0,0,0,0,0,0,0,0,0,0,0,0,0,0,0,0
0,0,0,0,0,0,0,0,0,0,0,1705,1705,1705,1705,1705,1705,1705,1705,1705,1705,1705,1705,1705,1705,1705,1713,1705,1705,1705,1705,1705,1713,1713,1713,1713,1713,1713,1713,1713,1713,1705,1705,1705,1713,1713,1713,1713,1713,1713,1713,1713,1713,1713,1713,1713,1713,1713,1722,1722,1731,1731,1731,1731,1731,1731,1731,1731,1731,1731,1731,1731,1731,1731,1731,1731,1731,1731,1731,1731,1731,1722,1722,1705,1705,0,0,0,0,0,0,0,906,906,903,903,901,901,896,896,896,894,894,894,894,894,894,894,896,896,896,896,896,901,871,871,869,862,860,858,854,854,851,851,849,847,843,841,839,837,835,833,829,827,825,825,823,821,817,815,813,811,809,809,807,803,802,800,798,796,796,796,790,789,787,752,750,750,749,747,746,746,742,741,739,739,734,733,731,730,728,728,727,727,725,723,722,722,722,720,720,720,719,717,716,716,716,717,717,722,723,723,723,723,722,722,720,720,720,717,717,717,717,719,719,722,722,723,723,725,728,728,728,728,728,728,727,727,727,731,730,730,730,728,728,728,728,728,728,727,727,727,728,728,728,728,728,728,728,728,730,730,730,731,731,734,734,733,733,734,734,733,733,733,733,734,734,734,734,734,734,734,734,736,736,736,736,736,738,738,741,739,739,741,741,742,746,733,733,746,747,744,742,742,747,746,746,746,746,746,746,746,746,749,749,749,749,749,747,747,747,750,750,752,750,750,750,754,755,755,755,755,754,754,754,754,754,754,754,754,754,754,755,755,755,757,757,761,762,766,769,771,771,773,774,776,778,781,783,787,789,789,789,790,790,792,829,829,829,829,831,833,837,841,843,845,847,849,851,851,854,856,858,862,871,873,875,878,878,880,882,887,887,891,894,896,901,906,908,910,918,920,923,925,925,928,930,933,935,938,938,938,938,940,943,946,946,948,954,956,956,0,0,0,0,0,1543,1536,1536,1536,1529,1529,1523,1523,1523,1523,1523,1523,1523,1516,1516,1516,1509,1509,1503,1503,1496,1496,1496,1489,1489,1489,1483,1483,1477,1470,1470,1470,1470,1470,1470,1464,1464,1464,1464,1464,1458,1452,1452,1445,1445,1445,1439,1439,1439,1433,1433,1433,1433,1427,1427,1427,1427,1421,1421,1415,1415,1415,1415,1415,1415,1410,1404,1404,1398,1398,1398,1392,1392,1392,1392,1387,1387,1387,1381,1381,1376,1376,1376,1376,1370,1370,1370,1365,1365,1365,1359,1359,1354,1354,1354,1349,1349,1349,1343,1343,1343,1333,1333,1333,1333,1333,1328,1328,1328,1328,1322,1322,1317,1317,1312,1312,1312,1312,1307,1307,1302,1302,1302,1302,1297,1297,1292,1292,1292,1292,1288,1288,1283,1283,1283,1278,1278,1278,1278,1273,1273,1273,1268,1268,1268,1268,1264,1264,1259,1255,1255,1255,1255,1250,1250,1250,1250,1250,1250,1245,1245,1241,1241,1236,1236,1236,1236,1232,1232,1232,1232,1227,1227,1227,1223,1219,1219,1219,1214,1214,1214,1214,1210,1210,1206,1202,1202,1202,1202,1202,1202,1202,1197,1197,1197,1193,1193,1189,1189,1189,1189,1185,1185,0,0,0,0,0,0,0,0,0,0,0,0,0,0,0,0,0,0,0,0,0,0,0,0,0,0,0,0,0,0,0
0,0,0,0,0,0,0,0,0,0,0,1696,1696,1696,1696,1705,1696,1696,1696,1696,1705,1696,1696,1705,1705,1705,1705,1705,1696,1696,1705,1705,1705,1705,1705,1713,1713,1713,1713,1713,1705,1705,1705,1705,1705,1705,1713,1705,1705,1713,1713,1705,1705,1705,1705,1705,1713,1713,1713,1713,1722,1722,1722,1722,1722,1722,1722,1722,1722,1722,1722,1722,1722,1722,1722,1731,1731,1722,1722,1722,1722,1722,1705,1705,1705,1705,0,0,0,0,0,0,0,908,903,903,901,901,896,896,894,894,894,894,894,894,894,896,896,896,896,896,896,901,903,903,906,862,860,856,854,854,851,851,847,845,841,841,839,837,837,835,833,829,827,825,825,821,817,817,815,811,811,809,809,805,802,800,798,796,796,794,790,789,787,787,785,785,747,746,746,744,742,741,739,738,734,733,731,730,728,728,727,727,725,722,722,722,720,720,719,717,717,716,716,716,716,716,716,716,717,720,719,717,717,717,717,716,716,716,716,716,716,716,717,717,717,719,720,723,725,727,725,725,725,725,725,723,723,723,727,727,728,727,727,727,727,727,727,725,725,725,727,728,728,728,728,728,728,728,728,727,727,728,728,731,731,730,730,731,731,730,730,731,731,733,733,734,733,733,733,733,733,734,734,734,734,734,734,734,736,734,734,736,736,734,730,730,728,728,730,730,739,739,742,742,742,742,742,742,742,741,741,741,741,739,739,739,742,741,741,741,741,739,739,739,738,738,739,739,754,754,754,754,750,750,750,752,752,754,754,754,755,755,755,757,757,761,762,766,769,771,771,773,774,776,776,780,785,787,789,789,790,790,790,827,827,829,829,831,831,833,837,841,843,847,849,849,851,851,854,856,860,864,871,873,875,878,880,882,885,887,889,891,894,898,901,906,910,913,918,920,920,925,925,928,930,935,938,938,938,938,938,943,946,946,948,948,954,956,956,962,0,0,0,0,1543,1536,1536,1536,1529,1529,1523,1523,1523,1523,1523,1523,1523,1516,1516,1516,1509,1509,1503,1503,1496,1496,1496,1489,1489,1489,1489,1483,1477,1470,1470,1470,1470,1470,1470,1464,1464,1464,1464,1458,1458,1452,1452,1452,1445,1445,1445,1439,1439,1439,1439,1439,1433,1433,1427,1427,1421,1421,1421,1415,1415,1415,1415,1415,1415,1410,1404,1404,1398,1398,1398,1392,1392,1392,1392,1392,1387,1387,1387,1381,1376,1376,1376,1376,1370,1370,1370,1370,1365,1365,1359,1359,1354,1354,1354,1349,1349,1349,1349,1343,1343,1333,1333,1333,1333,1333,1328,1328,1328,1328,1322,1322,1317,1317,1312,1312,1312,1307,1307,1307,1307,1307,1302,1302,1297,1297,1292,1292,1292,1292,1288,1288,1283,1283,1283,1278,1278,1278,1278,1273,1273,1273,1268,1268,1268,1268,1268,1264,1264,1255,1255,1255,1255,1250,1250,1250,1250,1250,1250,1245,1245,1241,1241,1236,1236,1236,1236,1232,1232,1232,1232,1227,1227,1227,1223,1223,1219,1219,1214,1214,1214,1214,1210,1210,1206,1206,1206,1202,1202,1202,1202,1202,1197,1197,1197,1193,1193,1189,1189,1189,1189,1185,1185,0,0,0,0,0,0,0,0,0,0,0,0,0,0,0,0,0,0,0,0,0,0,0,0,0,0,0,0,0,0,0
0,0,0,0,0,0,0,0,0,0,0,1688,1688,1688,1696,1696,1696,1696,1696,1696,1696,1696,1696,1696,1696,1696,1696,1696,1696,1696,1696,1696,1696,1705,1705,1705,1705,1713,1705,1705,1705,1705,1705,1705,1705,1705,1705,1705,1705,1705,1705,1705,1705,1705,1696,1696,1705,1705,1705,1705,1713,1713,1722,1722,1722,1722,1722,1713,1713,1713,1713,1713,1713,1713,1713,1722,1722,1722,1722,1722,1722,1713,1696,1696,1696,1696,1696,0,0,0,0,0,910,908,908,906,901,901,896,896,894,894,894,894,894,894,894,896,896,896,896,896,898,903,903,903,906,906,856,856,856,851,849,849,847,843,841,839,839,837,835,833,833,829,827,825,823,821,819,817,815,811,811,809,809,805,802,802,800,796,796,792,790,789,787,785,785,783,747,744,744,742,741,739,738,738,734,733,731,731,730,728,727,727,725,722,722,720,719,719,717,716,716,714,714,714,714,714,713,713,713,713,714,714,714,714,716,714,714,714,714,714,714,714,716,716,716,716,716,716,717,719,723,723,722,722,722,720,717,717,719,719,722,722,722,722,722,722,722,723,723,723,725,725,725,727,727,727,725,725,727,725,725,725,725,727,725,725,725,725,727,727,727,728,731,731,731,731,731,730,730,731,730,730,730,730,731,733,731,731,733,733,733,731,730,730,730,728,728,728,728,728,730,730,730,741,741,739,739,741,738,738,736,736,736,736,736,736,738,739,739,739,738,738,738,738,736,736,738,738,739,739,754,754,747,747,747,749,749,752,752,754,754,755,755,757,757,761,762,766,769,771,773,773,774,776,776,780,785,789,789,789,790,790,790,823,827,829,831,831,831,835,837,839,843,847,849,849,851,854,856,856,860,864,871,873,875,878,880,882,887,887,889,894,894,898,901,906,908,908,915,918,920,925,928,930,933,938,938,940,940,940,940,943,946,946,948,951,954,956,959,962,0,0,0,0,0,1536,1536,1536,1529,1529,1529,1523,1523,1523,1523,1523,1523,1516,1516,1516,1516,1509,1503,1503,1496,1496,1496,1489,1489,1489,1483,1483,1477,1477,1470,1470,1470,1470,1470,1464,1464,1464,1464,1458,1458,1452,1452,1452,1445,1445,1445,1445,1439,1439,1439,1439,1439,1433,1433,1427,1421,1421,1421,1421,1415,1415,1415,1415,1415,1410,1404,1404,1398,1398,1398,1392,1392,1392,1392,1392,1387,1387,1387,1381,1376,1376,1376,1376,1376,1370,1370,1370,1365,1365,1359,1359,1354,1354,1349,1349,1349,1349,1349,1343,1343,1338,1338,1333,1333,1333,1328,1328,1328,1328,1322,1322,1317,1317,1317,1312,1312,1307,1307,1307,1307,1307,1302,1302,1297,1297,1297,1292,1292,1292,1288,1288,1288,1283,1283,1278,1278,1278,1278,1273,1273,1273,1268,1268,1268,1268,1264,1264,1264,1255,1255,1255,1255,1250,1250,1250,1250,1250,1250,1245,1245,1241,1241,1236,1236,1236,1236,1232,1232,1232,1232,1227,1227,1223,1223,1219,1219,1219,1214,1214,1214,1214,1210,1210,1206,1206,1206,1206,1202,1202,1202,1202,1197,1197,1197,1193,1193,1189,1189,1189,1189,1185,1185,0,0,0,0,0,0,0,0,0,0,0,0,0,0,0,0,0,0,0,0,0,0,0,0,0,0,0,0,0,0,0
0,0,0,0,0,0,0,0,0,0,0,1680,1680,1680,1688,1688,1680,1680,1688,1688,1688,1688,1688,1688,1688,1688,1680,1680,1688,1688,1688,1688,1688,1696,1696,1696,1696,1705,1705,1696,1696,1696,1696,1696,1696,1696,1696,1696,1696,1696,1696,1696,1696,1696,1696,1696,1696,1696,1696,1705,1705,1705,1713,1713,1713,1713,1713,1705,1705,1705,1705,1705,1705,1705,1705,1705,1713,1722,1722,1722,1713,1713,1696,1696,1696,1696,1696,0,0,0,0,0,910,910,910,908,901,901,898,896,894,894,894,894,894,894,894,896,896,896,898,898,898,903,906,906,906,906,910,910,851,851,849,849,847,843,841,839,839,835,835,833,833,831,827,825,823,823,819,817,815,813,811,809,809,805,803,802,800,796,796,792,792,789,789,785,783,781,781,744,744,739,738,738,738,736,734,733,731,731,728,727,727,725,725,722,722,720,719,719,717,716,716,714,713,713,711,711,710,710,710,710,711,711,713,713,713,711,711,711,711,713,711,711,713,714,713,711,711,713,713,714,714,716,716,717,719,717,717,717,717,717,717,717,717,717,719,720,720,720,720,720,722,722,723,725,725,725,725,723,723,723,723,723,723,723,723,723,723,725,725,723,723,723,727,727,730,728,728,727,727,727,727,725,725,725,725,730,730,730,730,731,731,730,728,728,728,728,727,727,728,728,728,728,728,730,730,730,730,734,734,734,734,734,734,734,734,734,736,736,738,738,736,736,736,736,736,736,736,736,738,739,741,741,744,744,746,746,746,747,752,752,754,754,755,757,757,761,764,766,769,769,771,771,773,776,776,781,790,790,789,789,817,819,821,821,825,827,829,831,831,833,837,839,843,847,849,849,851,854,856,860,862,864,871,875,878,880,880,885,887,887,889,894,896,898,901,903,906,906,913,918,920,925,928,940,940,940,940,940,940,940,940,943,946,948,948,956,959,962,962,962,0,0,0,0,0,1536,1536,1536,1529,1529,1529,1523,1523,1523,1523,1523,1516,1516,1516,1516,1516,1509,1509,1503,1496,1496,1496,1489,1489,1483,1483,1483,1477,1477,1470,1470,1470,1470,1464,1464,1464,1464,1464,1458,1452,1452,1452,1452,1445,1445,1445,1445,1445,1439,1439,1439,1439,1439,1433,1433,1427,1421,1421,1421,1415,1415,1415,1415,1415,1410,1404,1404,1398,1398,1398,1392,1392,1392,1392,1392,1387,1387,1387,1381,1376,1376,1376,1376,1376,1370,1370,1370,1365,1365,1365,1354,1354,1354,1349,1349,1349,1349,1349,1343,1343,1338,1338,1333,1333,1333,1328,1328,1328,1322,1322,1322,1317,1317,1312,1312,1312,1312,1307,1307,1307,1307,1302,1302,1302,1297,1297,1297,1292,1292,1288,1288,1288,1283,1283,1278,1278,1278,1278,1278,1273,1273,1268,1268,1268,1268,1264,1264,1264,1259,1259,1255,1255,1250,1250,1250,1250,1250,1250,1245,1245,1241,1241,1236,1236,1236,1236,1232,1232,1232,1232,1227,1227,1223,1223,1219,1219,1219,1214,1214,1214,1214,1210,1210,1206,1206,1206,1206,1202,1202,1202,1202,1197,1197,1197,1193,1193,1189,1189,1189,1189,1185,1185,0,0,0,0,0,0,0,0,0,0,0,0,0,0,0,0,0,0,0,0,0,0,0,0,0,0,0,0,0,0,0
0,0,0,0,0,0,0,0,0,0,0,1680,1680,1680,1680,1680,1671,1671,1671,1680,1680,1680,1680,1680,1671,1671,1671,1671,1671,1680,1680,1680,1680,1680,1688,1688,1688,1688,1696,1696,1696,1696,1696,1696,1696,1696,1696,1688,1688,1696,1696,1696,1696,1696,1688,1688,1696,1696,1696,1696,1696,1696,1696,1696,1696,1705,1705,1696,1696,1696,1696,1696,1696,1696,1696,1696,1705,1705,1713,1713,1713,1713,1696,1696,1696,1696,0,0,0,0,0,0,910,910,910,906,903,903,898,896,896,894,894,894,894,894,894,896,896,896,898,901,901,906,906,906,906,908,910,910,913,913,849,849,847,845,841,839,839,835,835,833,833,831,827,825,823,823,821,819,817,815,813,811,807,805,803,802,800,798,796,796,794,790,789,785,783,781,780,780,778,739,738,738,736,734,734,733,731,730,728,727,727,725,723,722,722,720,719,719,717,716,716,713,711,711,710,710,708,708,708,708,708,710,710,710,711,710,710,710,710,711,710,710,711,711,711,710,710,711,713,711,711,711,714,714,714,714,716,716,716,716,716,716,716,716,716,717,717,717,719,719,720,719,719,720,722,722,720,720,719,719,720,720,720,720,720,720,720,722,722,722,722,720,720,720,722,722,723,723,722,722,723,722,722,720,720,722,727,725,725,728,728,727,727,727,727,727,727,727,727,727,727,727,727,727,725,723,723,727,731,733,733,733,733,733,733,733,733,733,734,734,733,733,734,734,734,734,734,734,736,738,739,741,742,742,744,746,746,747,750,752,754,754,755,757,757,762,764,767,769,769,771,771,773,800,802,803,803,805,811,813,817,819,821,821,823,827,829,831,831,833,837,839,843,847,849,851,854,854,858,860,864,867,871,875,878,880,880,885,887,887,889,894,896,898,901,903,906,906,913,920,925,930,946,943,940,940,943,943,943,943,943,946,948,948,948,956,959,962,962,964,0,0,0,0,1543,1543,1536,1536,1536,1529,1529,1529,1523,1523,1523,1523,1516,1516,1516,1516,1516,1509,1509,1503,1503,1496,1496,1489,1489,1483,1483,1483,1477,1477,1470,1470,1470,1470,1464,1464,1464,1464,1458,1458,1452,1452,1452,1452,1445,1445,1445,1445,1445,1445,1439,1439,1439,1439,1433,1433,1427,1421,1421,1421,1415,1415,1415,1415,1415,1410,1404,1404,1398,1398,1398,1392,1392,1392,1392,1392,1387,1387,1387,1381,1381,1376,1376,1376,1376,1370,1370,1370,1370,1365,1365,1354,1354,1354,1349,1349,1349,1349,1349,1343,1343,1338,1338,1333,1333,1328,1328,1328,1322,1322,1322,1317,1317,1317,1312,1312,1312,1312,1307,1307,1307,1307,1302,1302,1302,1297,1297,1297,1292,1292,1292,1288,1288,1283,1283,1278,1278,1278,1273,1273,1273,1273,1268,1268,1268,1268,1264,1264,1259,1259,1259,1255,1255,1250,1250,1250,1250,1250,1250,1245,1245,1241,1241,1236,1236,1236,1236,1232,1232,1232,1232,1227,1227,1223,1223,1219,1219,1219,1214,1214,1214,1214,1210,1210,1210,1206,1206,1206,1206,1206,1202,1202,1197,1197,1197,1193,1193,1189,1189,1189,1189,1185,1185,0,0,0,0,0,0,0,0,0,0,0,0,0,0,0,0,0,0,0,0,0,0,0,0,0,0,0,0,0,0,0
0,0,0,0,0,0,0,0,0,0,0,1671,1671,1671,1671,1671,1663,1663,1663,1671,1671,1663,1663,1663,1663,1663,1671,1671,1671,1671,1671,1671,1671,1671,1671,1680,1680,1680,1680,1688,1688,1688,1696,1696,1696,1696,1688,1688,1688,1688,1688,1688,1688,1688,1688,1688,1688,1688,1688,1688,1696,1696,1696,1688,1688,1696,1696,1696,1688,1688,1688,1688,1688,1688,1696,1696,1696,1696,1705,1705,1705,1705,1696,1696,1696,1696,0,0,0,0,0,0,0,910,910,906,903,903,901,898,896,894,894,894,894,894,894,896,896,896,898,901,903,906,906,908,908,910,910,910,913,913,851,851,849,847,841,839,837,835,835,835,833,831,829,827,823,823,821,819,817,815,813,811,807,805,803,802,800,800,798,796,794,792,789,785,783,781,780,780,778,776,774,774,736,733,733,733,730,728,728,727,727,725,723,722,722,720,719,719,716,716,716,713,711,711,708,708,708,707,707,706,706,707,707,708,708,707,707,708,708,708,708,708,708,710,710,708,707,707,708,708,708,708,710,714,713,713,714,714,714,713,713,713,714,714,714,714,714,714,713,713,714,714,713,713,719,719,719,719,716,716,719,716,714,714,713,713,719,722,717,717,717,717,717,717,717,717,719,720,720,720,722,719,717,717,717,717,722,720,720,722,725,725,723,723,727,727,727,727,725,725,723,723,723,723,723,723,723,725,722,722,725,731,731,731,731,731,731,731,731,731,731,731,731,731,731,733,733,733,734,736,738,739,742,742,744,744,746,747,749,752,754,754,755,757,757,761,762,766,769,769,771,796,798,800,802,803,803,811,811,813,817,819,821,821,823,827,829,831,831,833,837,841,843,847,849,851,854,854,858,862,867,869,871,873,875,878,882,885,887,887,889,894,896,898,898,903,906,906,954,951,948,948,946,946,943,943,943,943,943,943,943,946,948,948,948,956,959,962,962,964,0,0,0,0,1543,1536,1536,1536,1536,1536,1529,1529,1523,1523,1523,1523,1516,1516,1516,1516,1516,1509,1503,1503,1496,1496,1496,1489,1489,1489,1489,1483,1477,1477,1470,1470,1470,1470,1464,1464,1464,1464,1458,1458,1452,1452,1452,1452,1452,1452,1452,1445,1445,1445,1445,1439,1439,1439,1433,1427,1427,1421,1421,1421,1415,1415,1415,1415,1415,1410,1410,1404,1404,1398,1398,1392,1392,1392,1392,1392,1387,1387,1387,1387,1381,1376,1376,1376,1376,1370,1370,1370,1365,1365,1359,1359,1354,1354,1349,1349,1349,1349,1349,1349,1343,1343,1338,1338,1333,1328,1328,1328,1322,1322,1322,1317,1317,1317,1317,1312,1312,1312,1312,1312,1307,1307,1302,1302,1302,1297,1297,1297,1292,1292,1292,1292,1288,1283,1283,1278,1278,1278,1273,1273,1273,1273,1268,1268,1268,1268,1268,1268,1259,1259,1259,1259,1255,1255,1250,1250,1250,1250,1250,1250,1245,1241,1241,1236,1236,1236,1236,1232,1232,1232,1232,1227,1227,1227,1227,1223,1219,1219,1219,1214,1214,1214,1214,1210,1210,1210,1206,1206,1206,1206,1202,1202,1197,1197,1197,1193,1193,1193,1193,1189,1189,1189,1189,0,0,0,0,0,0,0,0,0,0,0,0,0,0,0,0,0,0,0,0,0,0,0,0,0,0,0,0,0,0,0
0,0,0,0,0,0,0,0,0,0,0,1655,1655,1663,1663,1663,1663,1663,1663,1663,1663,1663,1663,1663,1663,1663,1663,1655,1655,1655,1663,1663,1663,1663,1663,1663,1663,1663,1671,1680,1688,1688,1688,1688,1688,1688,1688,1688,1680,1680,1680,1680,1680,1680,1680,1680,1680,1688,1688,1688,1688,1688,1688,1688,1688,1688,1688,1688,1680,1680,1680,1680,1688,1688,1688,1688,1688,1696,1696,1696,1696,1696,1696,1696,1696,1696,0,0,0,0,0,0,0,910,910,906,903,903,901,898,896,896,896,896,896,896,896,896,896,898,901,901,903,906,906,908,910,913,913,913,913,913,913,0,841,0,841,839,837,835,835,835,833,833,829,825,825,823,823,821,819,817,815,813,811,807,805,803,802,800,798,796,794,792,790,785,785,781,780,778,776,776,774,773,773,733,733,730,728,728,727,727,727,727,725,722,722,720,719,719,716,716,714,713,711,710,707,707,707,706,706,704,704,704,706,706,706,706,706,706,706,707,707,706,706,708,708,707,697,697,697,708,704,703,703,703,710,708,708,707,707,708,708,707,707,708,711,711,710,710,710,710,710,710,710,710,711,713,716,716,714,714,714,713,711,711,711,711,711,711,711,713,713,714,714,714,713,713,716,717,717,717,717,717,716,716,716,716,719,717,717,720,722,722,722,717,717,725,725,725,725,723,722,722,722,722,722,720,720,722,722,722,722,722,722,722,723,722,722,723,722,722,723,727,728,730,730,730,731,733,733,733,736,738,741,742,744,744,746,747,749,750,752,754,755,757,757,761,761,764,767,769,794,796,798,800,802,803,805,811,811,813,817,819,821,823,825,827,829,831,831,833,837,841,843,847,849,851,854,856,860,864,867,869,871,873,875,878,882,887,889,889,891,894,896,898,898,906,906,959,954,951,948,948,948,946,946,946,946,946,943,943,946,948,948,951,951,956,959,962,962,964,0,0,0,0,0,1536,1536,1536,1536,1536,1529,1529,1523,1523,1523,1523,1516,1516,1516,1516,1509,1503,1503,1503,1496,1496,1496,1489,1489,1489,1489,1483,1483,1477,1477,1470,1470,1470,1470,1464,1464,1464,1464,1458,1452,1452,1452,1452,1452,1452,1452,1445,1445,1445,1445,1439,1439,1439,1433,1427,1427,1421,1421,1421,1415,1415,1415,1415,1415,1410,1410,1410,1404,1398,1398,1398,1392,1392,1392,1392,1392,1392,1387,1387,1381,1376,1376,1376,1376,1370,1370,1370,1365,1365,1359,1359,1354,1354,1349,1349,1349,1349,1349,1349,1343,1343,1338,1338,1333,1328,1328,1328,1328,1322,1322,1322,1317,1317,1317,1312,1312,1312,1312,1312,1307,1307,1307,1307,1307,1297,1297,1297,1297,1292,1292,1288,1288,1288,1288,1283,1278,1278,1273,1273,1273,1273,1268,1268,1268,1268,1264,1264,1259,1259,1259,1259,1255,1255,1250,1250,1250,1250,1250,1245,1245,1241,1241,1236,1236,1236,1236,1232,1232,1232,1232,1232,1232,1227,1227,1223,1223,1219,1219,1219,1214,1214,1214,1210,1210,1210,1210,1206,1206,1206,1202,1202,1202,1197,1197,1197,1197,1193,1193,1193,1189,1189,1189,0,0,0,0,0,0,0,0,0,0,0,0,0,0,0,0,0,0,0,0,0,0,0,0,0,0,0,0,0,0,0
0,0,0,0,0,0,0,0,0,0,0,1655,1655,1655,1655,1655,1655,1655,1655,1655,1663,1663,1663,1655,1655,1655,1655,1655,1647,1647,1647,1647,1655,1655,1663,1663,1663,1663,1663,1663,1671,1680,1680,1680,1680,1680,1680,1680,1680,1680,1671,1671,1680,1680,1680,1680,1680,1680,1680,1680,1680,1680,1680,1680,1680,1671,1671,1671,1671,1671,1680,1680,1680,1680,1680,1688,1688,1688,1688,1688,1688,1688,1696,0,0,0,0,0,0,0,0,0,0,0,910,906,906,903,901,898,896,896,896,896,896,896,896,896,896,898,901,901,906,906,906,910,910,913,913,913,913,913,0,0,0,0,0,0,835,835,835,835,833,831,829,825,825,823,821,819,819,817,815,813,811,807,805,803,802,800,798,796,796,792,792,789,787,781,780,778,776,776,774,773,773,771,769,730,728,728,727,727,727,727,725,723,722,720,719,719,717,714,714,711,710,708,707,706,706,706,704,703,703,703,701,700,700,700,703,698,698,704,703,701,698,698,693,693,697,696,694,694,698,698,698,698,700,703,703,704,704,706,706,706,706,706,706,704,704,706,707,707,707,707,710,708,708,710,710,711,710,710,711,711,711,710,710,710,710,711,711,711,711,711,711,710,710,710,713,713,713,714,716,716,716,716,716,716,717,716,716,716,717,719,710,710,710,710,710,725,725,722,722,720,720,720,720,720,720,720,720,719,719,719,719,719,720,720,720,720,722,722,722,722,723,727,730,730,730,731,731,733,734,736,739,741,742,746,746,747,749,749,750,752,754,755,755,759,761,764,767,792,794,796,798,800,803,803,805,809,811,813,817,819,821,823,825,827,831,831,833,835,837,843,843,847,849,851,854,856,860,864,869,869,871,873,878,880,882,887,889,889,894,894,896,898,901,959,959,959,956,954,951,948,948,946,946,946,946,946,946,946,946,948,948,954,954,959,959,962,962,964,0,0,0,0,0,1536,1536,1536,1536,1536,1529,1529,1529,1523,1523,1523,1516,1516,1516,1516,1509,1503,1503,1503,1496,1496,1496,1496,1489,1489,1489,1483,1483,1477,1477,1470,1470,1470,1470,1464,1464,1464,1464,1458,1452,1452,1452,1452,1452,1445,1445,1445,1445,1445,1445,1439,1439,1439,1433,1427,1427,1421,1421,1421,1415,1415,1415,1415,1415,1410,1410,1410,1404,1398,1398,1398,1398,1392,1392,1392,1392,1392,1387,1387,1381,1376,1376,1376,1370,1370,1370,1370,1365,1365,1359,1359,1354,1354,1349,1349,1349,1349,1349,1349,1343,1343,1338,1333,1333,1333,1328,1328,1328,1328,1322,1322,1317,1317,1317,1312,1312,1312,1307,1307,1307,1307,1302,1302,1302,1297,1297,1297,1297,1297,1292,1288,1288,1288,1288,1283,1278,1278,1273,1273,1273,1273,1268,1268,1268,1268,1264,1264,1259,1259,1255,1255,1255,1255,1255,1250,1250,1250,1250,1245,1245,1245,1241,1236,1236,1236,1236,1236,1232,1232,1232,1232,1232,1227,1227,1223,1223,1219,1219,1219,1214,1214,1214,1210,1210,1210,1210,1206,1206,1206,1202,1202,1202,1197,1197,1197,1197,1197,1193,1193,1189,1189,1189,0,0,0,0,0,0,0,0,0,0,0,0,0,0,0,0,0,0,0,0,0,0,0,0,0,0,0,0,0,0,0
0,0,0,0,0,0,0,0,0,0,1647,1647,1647,1647,1647,1647,1655,1655,1655,1655,1655,1655,1655,1655,1655,1655,1647,1647,1647,1647,1647,1647,1647,1647,1647,1647,1647,1647,1655,1655,1655,1655,1663,1663,1663,1663,1663,1671,1671,1671,1671,1671,1671,1671,1671,1671,1671,1671,1671,1671,1671,1671,1671,1671,1671,1671,1671,1671,1671,1671,1671,1671,1671,1671,1680,1671,1671,1671,1671,1680,1680,1688,0,0,0,0,0,0,0,0,0,0,0,0,906,906,906,903,903,898,896,896,896,896,896,896,896,896,896,898,901,903,906,906,906,908,913,913,913,913,913,908,908,0,0,0,0,0,835,835,835,835,833,831,829,825,825,823,821,819,819,817,815,813,811,807,805,803,802,800,798,796,796,794,792,789,787,783,781,778,778,776,774,774,773,769,769,767,767,766,766,762,727,727,723,722,722,720,719,719,717,714,714,711,710,708,707,706,704,704,704,703,703,701,700,698,698,694,694,696,696,694,694,696,694,693,691,691,694,693,693,693,696,697,697,697,697,698,698,701,703,703,703,703,703,703,703,701,701,701,701,701,701,701,708,708,708,707,707,707,706,706,706,707,707,707,708,707,707,708,708,708,708,707,707,707,706,706,706,706,713,713,714,714,714,714,714,714,716,714,713,713,713,713,710,710,710,710,710,710,710,710,711,711,719,719,719,719,719,719,719,719,719,719,717,717,719,719,719,720,720,720,720,722,722,725,728,728,730,730,731,733,734,736,739,741,742,744,746,747,749,749,750,752,752,754,754,759,790,789,789,790,794,794,798,800,803,805,805,809,813,815,817,819,821,823,825,827,831,831,831,835,837,843,845,849,849,851,854,858,862,867,869,871,871,873,878,880,882,885,887,889,894,894,896,898,901,959,959,956,956,954,951,951,948,948,946,946,946,946,946,946,946,948,948,954,954,959,959,962,962,964,0,0,0,0,0,1536,1536,1536,1536,1536,1536,1529,1529,1523,1523,1523,1516,1516,1516,1516,1509,1503,1503,1503,1496,1496,1496,1496,1496,1489,1489,1483,1483,1477,1477,1470,1470,1470,1470,1470,1464,1464,1464,1464,1452,1452,1452,1452,1452,1445,1445,1445,1445,1445,1445,1439,1439,1439,1433,1427,1421,1421,1421,1415,1415,1415,1415,1415,1410,1410,1410,1410,1404,1404,1398,1398,1398,1392,1392,1392,1392,1387,1387,1387,1381,1376,1376,1376,1370,1370,1370,1370,1365,1365,1365,1359,1354,1354,1349,1349,1349,1349,1349,1349,1343,1343,1338,1333,1333,1333,1328,1328,1328,1328,1322,1322,1317,1317,1317,1312,1312,1312,1307,1307,1307,1307,1302,1302,1302,1297,1297,1297,1297,1297,1292,1288,1288,1288,1288,1283,1278,1278,1273,1273,1273,1273,1268,1268,1268,1264,1264,1259,1259,1259,1255,1255,1255,1255,1255,1255,1250,1250,1250,1245,1245,1245,1245,1241,1236,1236,1236,1236,1236,1232,1232,1232,1232,1227,1227,1223,1223,1219,1219,1219,1214,1214,1214,1210,1210,1210,1210,1206,1206,1206,1202,1202,1202,1197,1197,1197,1197,1197,1193,1193,1189,1189,1189,0,0,0,0,0,0,0,0,0,0,0,0,0,0,0,0,0,0,0,0,0,0,0,0,0,0,0,0,0,0,0
0,0,0,0,0,0,0,0,0,0,1647,1647,1647,1647,1647,1647,1647,1647,1647,1647,1647,1647,1647,1655,1655,1655,1647,1647,1639,1639,1639,1639,1639,1639,1647,1647,1647,1647,1639,1639,1639,1639,1647,1655,1663,1663,1663,1663,1663,1663,1663,1663,1663,1671,1663,1663,1663,1663,1663,1663,1663,1663,1663,1671,1663,1663,1663,1663,1663,1663,1663,1663,1663,1671,1671,1671,1663,1663,1663,1663,1663,1663,0,0,0,0,0,0,0,0,0,0,0,0,903,903,906,903,903,901,898,896,896,896,896,896,896,896,898,898,901,903,906,906,906,908,913,913,913,913,913,908,908,0,0,0,0,0,0,835,835,835,833,831,827,825,825,823,821,819,819,817,815,813,811,809,805,803,802,800,798,796,796,794,794,789,787,785,781,780,778,776,774,774,771,769,769,767,766,766,764,759,759,757,723,722,722,720,720,719,717,714,714,711,710,708,706,706,704,704,703,701,701,700,698,697,697,694,694,694,694,693,693,693,691,691,691,691,693,693,693,693,694,696,696,696,696,697,697,698,700,700,700,700,700,700,700,698,698,700,700,700,700,698,698,703,703,704,704,706,704,704,704,704,704,704,706,706,706,704,703,703,703,703,703,704,703,703,704,704,704,706,706,713,713,713,713,713,714,713,711,707,707,708,710,710,710,710,710,710,710,710,710,710,710,711,713,719,719,719,717,716,716,716,714,714,714,716,716,716,716,719,719,720,720,722,727,727,728,730,731,731,733,734,739,741,742,744,746,747,749,749,750,750,752,754,754,789,789,789,789,790,792,794,798,800,803,805,807,809,813,813,817,819,821,823,825,827,831,831,831,835,839,843,847,849,851,854,856,860,862,867,869,871,871,873,875,880,880,885,887,887,894,894,896,898,959,959,956,956,956,954,951,951,948,948,946,946,946,946,946,946,948,948,951,954,956,959,962,962,962,964,0,0,0,0,0,1536,1536,1543,1536,1536,1536,1536,1529,1529,1523,1523,1516,1516,1516,1516,1509,1503,1503,1503,1496,1496,1496,1496,1496,1489,1489,1483,1483,1483,1477,1477,1470,1470,1470,1470,1464,1464,1464,1464,1458,1458,1452,1452,1452,1445,1445,1445,1445,1445,1445,1439,1439,1439,1427,1427,1421,1421,1421,1415,1415,1415,1415,1415,1410,1410,1410,1410,1404,1404,1398,1398,1398,1392,1392,1392,1392,1387,1387,1381,1381,1376,1376,1376,1370,1370,1370,1370,1365,1365,1365,1359,1359,1354,1354,1354,1349,1349,1349,1349,1343,1343,1338,1333,1333,1333,1328,1328,1328,1328,1322,1322,1317,1317,1317,1312,1312,1312,1307,1307,1307,1307,1307,1302,1302,1307,1307,1297,1297,1297,1292,1288,1288,1288,1283,1283,1278,1278,1273,1273,1273,1273,1268,1268,1268,1264,1264,1259,1259,1259,1255,1255,1255,1255,1255,1255,1250,1250,1250,1250,1245,1245,1245,1241,1236,1236,1236,1236,1236,1236,1232,1232,1232,1232,1227,1227,1223,1219,1219,1219,1219,1214,1214,1214,1210,1210,1210,1206,1206,1206,1206,1202,1202,1197,1197,1197,1197,1197,1197,1193,1189,1189,1189,0,0,0,0,0,0,0,0,0,0,0,0,0,0,0,0,0,0,0,0,0,0,0,0,0,0,0,0,0,0,0
0,0,0,0,0,0,0,0,0,0,1632,1632,1639,1639,1639,1639,1639,1647,1647,1647,1647,1647,1647,1647,1647,1647,1639,1639,1639,1639,1639,1639,1639,1639,1639,1639,1639,1639,1639,1639,1639,1639,1639,1647,1655,1655,1663,1663,1663,1663,1663,1663,1663,1663,1663,1663,1663,1663,1655,1655,1655,1655,1663,1663,1663,1663,1663,1663,1663,1663,1663,1663,1663,1663,1663,1663,1663,1663,1663,1663,1663,1663,0,0,0,0,0,0,0,0,0,0,0,0,903,903,903,903,903,901,898,898,896,896,896,896,896,896,898,901,903,906,906,906,908,910,913,913,913,913,913,910,910,0,0,0,0,0,0,0,0,835,833,831,827,825,825,823,821,819,817,817,815,813,811,809,807,805,802,800,798,796,796,794,792,790,787,785,783,781,780,776,774,774,771,769,769,767,766,766,764,759,757,755,755,722,720,720,720,719,717,714,714,711,710,708,706,706,704,704,703,701,701,700,698,697,694,693,693,693,691,691,691,690,690,690,690,690,691,693,691,691,694,694,693,693,694,694,696,696,697,697,697,696,696,697,697,697,697,697,698,698,698,698,698,698,697,697,698,701,701,703,703,703,703,703,703,703,703,701,700,700,700,700,700,701,700,700,703,703,701,701,697,697,703,704,706,703,703,704,704,704,704,704,707,708,708,708,708,708,708,708,708,708,708,710,710,710,710,710,710,711,711,711,710,710,711,713,713,714,714,716,716,717,719,722,725,727,728,730,731,731,733,734,738,739,742,744,746,747,747,749,750,750,783,785,787,787,789,789,789,789,790,794,798,802,805,807,809,811,813,813,815,819,821,823,825,827,831,831,833,837,843,847,849,851,851,854,856,860,864,867,869,871,871,873,875,880,880,882,887,887,887,959,959,959,959,959,956,956,956,954,954,951,951,948,948,948,948,948,948,948,948,948,951,954,956,959,962,962,964,964,0,0,0,0,0,1543,1543,1543,1543,1543,1536,1536,1536,1529,1523,1523,1516,1516,1516,1516,1509,1503,1503,1503,1496,1496,1496,1496,1496,1489,1489,1489,1489,1483,1477,1477,1477,1470,1470,1470,1470,1464,1464,1464,1458,1458,1452,1452,1452,1445,1445,1445,1445,1445,1439,1439,1439,1439,1427,1427,1421,1421,1421,1415,1415,1415,1415,1415,1415,1410,1410,1410,1410,1404,1404,1398,1398,1392,1392,1392,1392,1387,1387,1381,1381,1376,1376,1376,1370,1370,1370,1370,1365,1365,1365,1359,1359,1354,1354,1354,1349,1349,1349,1349,1343,1343,1338,1333,1333,1333,1328,1328,1328,1328,1322,1322,1322,1322,1317,1317,1312,1312,1307,1307,1307,1307,1307,1302,1302,1307,1307,1297,1297,1297,1292,1288,1288,1288,1283,1283,1278,1278,1278,1273,1273,1273,1268,1268,1268,1264,1264,1259,1259,1259,1259,1259,1255,1255,1255,1255,1250,1250,1250,1250,1245,1245,1245,1241,1236,1236,1236,1236,1236,1236,1232,1232,1232,1232,1227,1227,1223,1223,1219,1219,1219,1214,1214,1214,1210,1210,1210,1206,1206,1206,1206,1202,1202,1197,1197,1197,1197,1197,1197,1193,1189,1189,0,0,0,0,0,0,0,0,0,0,0,0,0,0,0,0,0,0,0,0,0,0,0,0,0,0,0,0,0,0,0,0
0,0,0,0,0,0,0,0,0,0,1624,1624,1632,1632,1632,1632,1639,1639,1639,1639,1639,1639,1639,1639,1639,1639,1639,1639,1639,1632,1632,1632,1632,1632,1639,1632,1632,1632,1632,1632,1632,1632,1632,1639,1647,1647,1647,1655,1647,1647,1655,1655,1655,1655,1655,1655,1655,1655,1655,1655,1655,1655,1655,1655,1655,1655,1655,1655,1655,1655,1655,1655,1655,1663,1663,1663,1655,1655,1663,1663,1655,1655,0,0,0,0,0,0,0,0,0,0,0,0,903,903,903,903,903,901,898,898,896,896,896,896,896,898,898,901,903,906,906,906,908,910,913,913,913,913,913,910,910,0,0,0,0,0,0,0,0,0,833,831,827,825,823,821,821,819,817,817,815,813,811,811,807,807,803,802,798,796,796,794,792,790,789,787,783,781,780,776,774,774,771,769,769,767,767,766,764,759,757,755,755,752,720,720,720,719,716,713,713,711,710,708,707,706,704,704,703,701,700,698,697,694,694,693,691,691,691,690,688,688,688,688,688,688,688,690,691,691,693,693,693,693,693,693,693,688,688,696,696,690,690,691,691,694,694,696,696,696,696,694,694,694,694,691,691,691,697,697,697,697,698,701,701,701,701,700,698,698,698,698,698,698,698,698,700,698,698,698,697,697,697,698,698,698,700,700,701,700,700,700,700,700,700,700,700,707,707,707,707,707,707,707,707,707,708,708,708,708,708,708,708,708,710,711,711,713,713,714,716,717,719,720,723,725,728,730,731,733,734,736,738,739,742,746,746,747,747,749,774,776,780,783,785,787,789,789,789,789,790,802,802,803,807,807,809,811,813,813,815,819,821,825,827,829,831,833,835,837,843,847,849,851,851,854,856,860,862,867,869,871,871,875,878,880,880,880,885,887,0,0,0,956,956,959,959,959,956,956,954,951,951,948,948,948,948,948,948,948,948,948,951,956,956,959,962,962,964,967,0,0,0,0,0,1536,1536,1543,1543,1543,1543,1536,1536,1529,1523,1523,1523,1516,1516,1516,1509,1503,1503,1503,1496,1496,1496,1496,1496,1489,1489,1489,1489,1483,1483,1477,1477,1470,1470,1470,1470,1464,1464,1464,1464,1458,1458,1452,1452,1445,1445,1445,1445,1445,1439,1439,1439,1439,1427,1427,1421,1421,1421,1421,1415,1415,1415,1415,1415,1415,1410,1410,1404,1404,1404,1398,1398,1398,1392,1392,1392,1387,1381,1381,1376,1376,1376,1376,1370,1370,1370,1370,1365,1365,1359,1359,1359,1354,1354,1354,1354,1349,1349,1349,1343,1343,1338,1338,1333,1333,1333,1328,1328,1328,1322,1322,1322,1322,1317,1317,1312,1312,1307,1307,1307,1307,1307,1307,1302,1302,1307,1297,1297,1297,1292,1288,1288,1288,1288,1288,1283,1278,1278,1273,1273,1273,1273,1268,1268,1268,1264,1259,1259,1259,1259,1259,1255,1255,1255,1255,1250,1250,1250,1250,1250,1245,1245,1245,1236,1236,1236,1236,1236,1232,1232,1232,1232,1232,1227,1227,1223,1223,1219,1219,1219,1214,1214,1214,1214,1210,1210,1210,1206,1206,1206,1202,1202,1197,1197,1197,1197,1197,1197,1193,1189,1189,0,0,0,0,0,0,0,0,0,0,0,0,0,0,0,0,0,0,0,0,0,0,0,0,0,0,0,0,0,0,0,0
0,0,0,0,0,0,0,0,0,0,1616,1616,1624,1624,1632,1632,1632,1632,1632,1632,1632,1632,1632,1632,1632,1632,1632,1632,1632,1632,1632,1632,1632,1632,1632,1632,1632,1632,1632,1632,1632,1632,1632,1639,1647,1647,1647,1647,1647,1647,1639,1639,1639,1639,1639,1647,1647,1647,1647,1647,1647,1647,1647,1647,1647,1647,1655,1655,1655,1655,1655,1655,1655,1655,1655,1655,1655,1655,1655,1655,1647,1647,0,0,0,0,0,0,0,0,0,0,0,0,906,906,906,903,903,901,901,898,898,896,896,898,898,898,901,903,906,906,906,906,908,913,913,913,913,913,913,913,0,0,0,0,0,0,0,0,0,0,0,0,0,825,823,821,819,819,817,817,815,813,811,811,809,807,803,802,798,796,796,794,794,790,789,787,785,781,780,778,776,774,771,769,769,767,767,766,764,761,757,755,755,752,752,750,750,750,714,711,711,711,710,708,706,706,704,704,703,701,700,698,697,694,694,693,691,691,691,690,688,688,688,687,687,687,687,688,687,687,688,688,688,688,690,690,690,687,687,687,687,687,687,687,687,687,691,693,694,693,693,691,688,688,688,688,688,687,687,693,694,693,693,693,693,693,694,696,696,696,697,697,697,697,697,697,697,696,696,696,694,694,697,697,697,697,697,698,700,698,698,698,700,698,698,697,697,697,698,700,703,704,706,706,704,704,707,706,706,706,706,706,707,707,708,710,711,713,713,714,716,716,719,720,723,725,725,728,730,733,734,736,738,741,741,746,747,747,747,773,774,776,780,781,783,787,787,789,789,789,790,802,802,805,809,809,809,811,813,815,819,819,821,825,827,831,831,835,835,839,843,847,849,851,854,856,858,860,862,867,869,871,871,875,878,878,880,880,885,0,0,0,0,956,956,959,959,959,956,956,954,954,951,951,948,948,948,948,948,948,948,951,954,956,959,959,962,964,967,970,970,0,0,0,0,1536,1536,1543,1543,1543,1543,1536,1529,1529,1523,1523,1516,1516,1516,1516,1509,1503,1503,1503,1496,1496,1496,1496,1496,1496,1489,1489,1489,1483,1483,1477,1477,1470,1470,1470,1470,1470,1464,1464,1464,1458,1458,1452,1452,1445,1445,1445,1445,1439,1439,1439,1439,1439,1427,1427,1421,1421,1421,1421,1415,1415,1415,1415,1415,1415,1410,1410,1404,1404,1404,1398,1398,1398,1392,1392,1392,1387,1381,1381,1376,1376,1376,1376,1370,1370,1370,1370,1365,1365,1359,1359,1359,1354,1354,1354,1354,1349,1349,1349,1343,1343,1338,1338,1338,1333,1333,1333,1328,1328,1328,1328,1328,1322,1317,1317,1312,1312,1312,1312,1307,1307,1307,1307,1302,1302,1307,1297,1297,1292,1292,1288,1288,1288,1283,1283,1283,1283,1278,1278,1273,1273,1273,1268,1268,1268,1264,1264,1259,1259,1259,1255,1255,1255,1255,1255,1255,1250,1250,1250,1250,1245,1245,1241,1236,1236,1236,1236,1232,1232,1232,1232,1232,1232,1227,1227,1223,1223,1219,1219,1219,1214,1214,1214,1214,1210,1210,1210,1206,1206,1206,1202,1202,1197,1197,1197,1197,1197,1193,1193,1189,1189,0,0,0,0,0,0,0,0,0,0,0,0,0,0,0,0,0,0,0,0,0,0,0,0,0,0,0,0,0,0,0,0
0,0,0,0,0,0,0,0,0,0,1609,1609,1616,1616,1624,1624,1624,1624,1624,1624,1624,1624,1624,1624,1624,1624,1624,1624,1624,1624,1624,1624,1624,1624,1632,1632,1624,1624,1624,1632,1632,1632,1632,1632,1647,1647,1647,1639,1639,1639,1632,1632,1632,1632,1632,1632,1632,1632,1639,1639,1639,1639,1639,1639,1639,1639,1647,1647,1647,1647,1647,1647,1647,1647,1647,1639,1639,1639,1639,1639,1639,1639,1639,0,0,0,0,0,0,0,0,0,0,0,906,906,906,906,903,903,901,901,898,898,898,898,898,901,901,903,906,906,906,906,910,913,913,913,913,913,913,913,0,0,0,0,0,0,0,0,0,0,0,0,0,0,0,0,819,819,817,815,815,813,811,811,809,807,805,802,800,796,796,794,794,790,790,789,787,785,781,780,776,774,773,771,769,767,767,766,764,762,761,755,755,754,752,752,749,749,714,710,710,710,710,708,706,706,704,704,703,701,700,698,697,694,693,691,691,691,690,690,688,687,687,686,686,686,684,684,683,683,683,684,684,684,683,683,686,684,684,684,684,684,683,683,683,684,690,690,691,691,691,690,687,687,687,687,686,686,686,687,687,688,688,690,690,690,690,691,691,694,696,696,696,696,696,694,694,693,693,693,693,693,693,694,694,694,696,696,698,697,697,697,697,697,697,696,696,696,698,698,698,700,703,703,703,703,703,703,703,704,704,704,706,706,707,708,710,711,713,714,716,716,719,720,723,725,725,727,730,733,734,736,738,741,741,766,767,769,769,773,774,776,780,781,783,785,787,789,789,789,790,802,802,805,809,809,811,811,813,815,819,819,821,825,827,831,831,835,837,841,845,847,849,851,854,856,858,860,862,867,869,871,871,875,878,878,0,0,0,0,0,0,0,959,959,959,959,959,956,956,954,954,951,951,951,948,948,948,948,948,951,951,954,956,959,959,962,964,967,970,970,0,0,0,0,0,1550,1543,1543,1543,1536,1536,1529,1529,1523,1523,1516,1516,1516,1516,1509,1509,1503,1503,1496,1496,1496,1496,1496,1496,1489,1489,1489,1489,1483,1477,1477,1470,1470,1470,1470,1470,1470,1464,1464,1464,1458,1452,1452,1445,1445,1445,1445,1439,1439,1439,1439,1433,1427,1427,1421,1421,1421,1421,1415,1415,1415,1415,1415,1415,1410,1410,1404,1404,1404,1398,1398,1398,1392,1392,1392,1387,1381,1381,1381,1376,1376,1376,1376,1370,1370,1370,1365,1365,1365,1359,1359,1354,1354,1354,1354,1349,1349,1349,1343,1343,1338,1338,1338,1333,1333,1333,1333,1328,1328,1328,1328,1322,1317,1317,1312,1312,1312,1312,1307,1307,1307,1307,1302,1302,1302,1297,1297,1292,1292,1288,1288,1288,1283,1283,1283,1283,1278,1278,1278,1278,1273,1273,1268,1268,1264,1264,1259,1259,1259,1255,1255,1255,1255,1255,1255,1255,1250,1250,1250,1245,1245,1241,1236,1236,1236,1236,1232,1232,1232,1232,1232,1232,1227,1227,1223,1223,1223,1219,1219,1214,1214,1214,1214,1214,1210,1210,1206,1206,1206,1206,1202,1202,1202,1202,1197,1197,1193,1189,1189,1189,0,0,0,0,0,0,0,0,0,0,0,0,0,0,0,0,0,0,0,0,0,0,0,0,0,0,0,0,0,0,0,0
0,0,0,0,0,0,0,0,0,0,1609,1609,1616,1616,1616,1616,1624,1616,1616,1616,1616,1616,1616,1616,1616,1616,1616,1616,1616,1616,1624,1624,1624,1624,1624,1624,1624,1624,1624,1624,1624,1624,1624,1632,1639,1639,1632,1632,1632,1632,1624,1624,1624,1624,1624,1624,1624,1624,1624,1624,1624,1624,1632,1632,1632,1632,1639,1647,1647,1647,1647,1639,1639,1639,1639,1639,1632,1632,1639,1639,1639,1632,1632,0,0,0,0,0,0,0,0,0,0,0,908,908,906,906,903,903,903,901,901,901,901,901,901,901,903,903,906,906,906,906,910,913,913,913,913,913,913,915,0,0,0,0,0,0,0,0,0,0,0,0,0,0,0,0,0,0,817,815,813,813,811,811,809,807,805,802,800,798,796,796,794,792,790,789,787,785,783,780,778,774,773,771,769,767,767,766,764,761,761,759,755,754,754,752,749,749,747,710,710,710,710,708,707,706,704,704,701,701,698,698,697,694,693,691,691,690,690,688,687,687,686,684,684,682,682,680,680,680,680,682,683,683,682,682,680,680,683,683,682,682,682,682,682,679,679,679,680,682,682,683,683,684,684,684,684,684,684,687,687,687,687,687,688,687,687,688,688,690,690,690,693,694,693,693,693,691,691,691,691,691,693,693,693,693,694,694,694,694,694,694,694,694,694,694,694,694,696,697,697,697,698,698,698,698,698,701,701,703,703,703,704,704,706,708,710,711,713,714,716,716,717,720,723,723,725,727,730,733,734,736,739,761,764,766,767,769,769,773,774,780,780,781,783,785,787,789,789,790,790,802,802,803,809,811,811,811,813,815,819,821,823,825,827,831,831,837,839,843,845,847,849,851,854,856,858,860,862,867,867,869,873,875,0,0,0,0,0,0,0,0,0,959,959,959,959,959,959,956,956,954,954,951,951,948,948,948,948,948,951,951,954,956,959,959,962,964,967,970,970,0,0,0,0,0,1550,1550,1543,1543,1536,1536,1529,1529,1523,1523,1523,1516,1516,1516,1516,1509,1509,1503,1503,1496,1496,1496,1496,1496,1489,1489,1489,1489,1483,1477,1477,1470,1470,1470,1470,1470,1470,1464,1464,1458,1458,1452,1452,1445,1445,1445,1445,1439,1439,1439,1439,1433,1427,1427,1421,1421,1421,1421,1415,1415,1415,1415,1415,1415,1410,1410,1404,1404,1404,1398,1398,1398,1398,1392,1392,1387,1381,1381,1376,1376,1376,1376,1376,1370,1370,1370,1370,1365,1365,1359,1359,1354,1354,1354,1354,1349,1349,1349,1343,1343,1338,1338,1338,1333,1333,1333,1333,1328,1328,1328,1328,1322,1322,1317,1317,1312,1312,1312,1307,1307,1307,1307,1302,1302,1302,1297,1297,1292,1292,1288,1288,1288,1283,1283,1283,1283,1278,1278,1278,1278,1273,1273,1273,1273,1268,1264,1264,1259,1259,1259,1255,1255,1255,1255,1255,1250,1250,1250,1250,1245,1245,1241,1236,1236,1236,1236,1232,1232,1232,1232,1232,1227,1227,1227,1223,1223,1223,1219,1219,1219,1214,1214,1214,1214,1210,1210,1210,1206,1206,1206,1202,1202,1202,1202,1197,1197,1193,1189,1189,1189,0,0,0,0,0,0,0,0,0,0,0,0,0,0,0,0,0,0,0,0,0,0,0,0,0,0,0,0,0,0,0,0
0,0,0,0,0,0,0,0,0,0,1609,1609,1609,1609,1609,1609,1609,1609,1609,1609,1609,1609,1616,1609,1609,1609,1609,1609,1609,1616,1616,1616,1616,1616,1624,1624,1624,1624,1624,1616,1616,1624,1624,1624,1632,1632,1624,1624,1624,1624,1616,1616,1616,1616,1616,1616,1616,1616,1616,1616,1616,1609,1609,1616,1616,1616,1632,1639,1639,1639,1639,1639,1639,1632,1632,1632,1632,1632,1632,1632,1632,1632,1632,1632,0,0,0,0,0,0,0,0,0,0,910,908,906,906,906,903,903,901,901,901,901,901,901,901,903,906,906,906,906,908,910,913,913,913,915,915,915,0,0,0,0,0,0,0,0,0,0,0,0,0,0,0,0,0,0,0,0,815,813,811,811,809,809,807,805,802,800,798,796,796,794,792,790,789,787,787,783,781,780,776,774,773,769,769,767,766,766,761,761,759,755,754,752,752,749,749,747,746,744,744,710,708,707,704,703,703,701,700,698,698,697,694,694,693,691,690,690,688,687,686,684,684,683,682,682,680,680,680,680,680,680,679,678,676,676,678,679,679,679,680,680,680,679,678,678,678,678,678,678,680,682,683,683,683,683,683,683,684,684,686,684,684,684,683,683,683,682,682,682,682,686,686,684,684,688,690,690,690,690,691,691,691,691,693,693,693,693,693,691,691,691,691,691,693,693,693,696,696,696,696,697,697,697,697,697,698,700,701,701,703,704,704,706,707,708,711,713,714,716,716,717,720,722,722,722,755,755,755,755,757,757,761,764,766,767,769,769,771,773,780,780,781,783,785,787,787,789,790,794,798,802,803,807,811,811,813,815,815,819,821,825,827,831,831,833,837,841,843,845,847,849,851,854,856,858,858,862,867,867,869,0,0,0,0,0,0,0,0,0,0,0,0,962,962,962,959,959,956,956,954,954,951,951,948,948,948,948,948,951,951,954,956,959,962,962,964,967,970,973,0,0,0,0,0,1550,1550,1543,1543,1536,1536,1529,1529,1523,1523,1523,1516,1516,1516,1516,1509,1509,1509,1503,1496,1496,1496,1496,1496,1489,1489,1489,1489,1483,1477,1477,1470,1470,1470,1470,1470,1464,1464,1464,1458,1458,1452,1452,1445,1445,1445,1445,1439,1439,1439,1439,1433,1427,1427,1421,1421,1421,1421,1415,1415,1415,1415,1415,1415,1410,1404,1404,1404,1398,1398,1398,1398,1398,1392,1392,1387,1381,1381,1376,1376,1376,1376,1376,1370,1370,1370,1370,1365,1365,1359,1359,1354,1354,1354,1354,1349,1349,1349,1343,1343,1338,1338,1338,1333,1333,1333,1333,1328,1328,1328,1328,1322,1322,1322,1317,1317,1312,1312,1312,1307,1307,1307,1307,1302,1302,1302,1297,1292,1292,1288,1288,1288,1288,1283,1283,1283,1278,1278,1278,1278,1278,1273,1273,1273,1268,1268,1268,1264,1259,1259,1255,1255,1255,1255,1255,1250,1250,1250,1250,1245,1245,1241,1241,1236,1236,1236,1232,1232,1232,1232,1232,1227,1227,1227,1223,1223,1223,1219,1219,1219,1214,1214,1214,1214,1214,1214,1210,1210,1206,1206,1202,1202,1202,1202,1197,1197,1189,1189,1189,1189,0,0,0,0,0,0,0,0,0,0,0,0,0,0,0,0,0,0,0,0,0,0,0,0,0,0,0,0,0,0,0,0
0,0,0,0,0,0,0,0,0,0,1601,1601,1609,1601,1601,1601,1601,1594,1594,1594,1594,1594,1601,1601,1609,1609,1601,1601,1601,1609,1609,1609,1609,1609,1616,1624,1616,1616,1616,1616,1616,1616,1616,1616,1624,1624,1616,1616,1616,1616,1609,1609,1609,1609,1609,1609,1609,1609,1609,1609,1609,1609,1609,1609,1609,1609,1616,1616,1624,1632,1632,1632,1632,1632,1632,1632,1632,1632,1632,1632,1632,1624,1624,1624,0,0,0,0,0,0,0,0,0,915,910,910,908,906,906,903,903,903,901,901,901,901,901,903,903,906,906,906,908,908,913,913,915,915,915,915,918,923,923,0,0,0,0,0,0,0,0,0,0,0,0,0,0,0,0,0,0,0,0,811,811,809,809,807,805,803,800,798,796,796,794,792,792,790,789,787,783,781,780,780,776,773,771,769,767,766,766,764,761,759,755,754,752,752,750,749,747,746,744,742,739,739,736,704,701,700,700,698,697,697,694,694,693,693,691,691,690,688,687,686,684,683,682,682,680,680,679,679,679,678,678,678,676,676,676,676,678,678,678,679,679,679,678,676,676,676,676,676,676,679,680,682,682,682,682,680,680,680,682,682,682,682,682,682,682,680,680,680,680,680,680,682,682,682,686,686,684,684,687,690,690,691,691,691,691,691,691,690,687,687,688,688,690,690,691,691,691,693,693,691,691,693,696,696,696,697,698,700,701,703,704,704,706,707,708,711,713,714,716,717,719,720,722,722,722,752,752,754,755,757,757,761,764,766,767,769,769,771,773,778,780,781,783,787,787,787,789,790,798,798,802,803,807,809,811,813,815,819,819,823,825,827,831,831,833,837,839,843,845,847,851,851,854,856,858,858,864,0,0,0,0,0,0,0,0,0,0,0,0,0,0,0,0,962,962,962,959,959,956,956,954,954,951,948,948,948,948,948,951,954,956,956,959,962,962,964,967,970,975,981,0,0,0,0,1543,1543,1543,1543,1536,1536,1529,1529,1523,1523,1523,1516,1516,1516,1516,1509,1509,1509,1503,1503,1496,1496,1496,1496,1489,1489,1489,1483,1483,1477,1477,1470,1470,1470,1470,1470,1464,1464,1464,1458,1458,1452,1452,1445,1445,1445,1439,1439,1439,1439,1439,1433,1427,1427,1421,1421,1421,1421,1415,1415,1415,1415,1415,1415,1410,1404,1404,1404,1398,1398,1398,1398,1398,1392,1392,1387,1381,1381,1376,1376,1376,1376,1370,1370,1370,1370,1370,1365,1365,1359,1359,1354,1354,1354,1354,1349,1349,1349,1343,1343,1343,1338,1338,1338,1333,1333,1333,1328,1328,1328,1328,1322,1322,1322,1317,1317,1312,1312,1312,1307,1307,1307,1302,1302,1302,1302,1297,1292,1292,1288,1288,1288,1288,1283,1283,1283,1278,1278,1278,1278,1273,1273,1273,1273,1268,1268,1268,1264,1264,1259,1255,1255,1255,1255,1255,1250,1250,1250,1250,1245,1245,1241,1241,1236,1236,1236,1236,1236,1232,1232,1232,1232,1227,1227,1223,1223,1223,1219,1219,1219,1214,1214,1214,1214,1214,1214,1210,1210,1206,1206,1202,1202,1202,1202,1197,1197,1189,1189,1189,1189,0,0,0,0,0,0,0,0,0,0,0,0,0,0,0,0,0,0,0,0,0,0,0,0,0,0,0,0,0,0,0,0
0,0,0,0,0,0,0,0,0,0,1601,1601,1601,1601,1601,1594,1594,1594,1594,1594,1594,1594,1594,1594,1594,1601,1594,1594,1601,1601,1601,1601,1609,1609,1609,1616,1609,1609,1609,1609,1609,1616,1616,1616,1616,1616,1609,1609,1609,1609,1601,1601,1609,1609,1609,1609,1609,1609,1609,1609,1609,1609,1609,1609,1609,1609,1609,1616,1616,1616,1616,1624,1624,1632,1624,1624,1624,1624,1624,1624,1624,1624,1624,1624,0,0,0,0,0,0,0,0,0,915,913,913,910,908,906,906,903,903,901,901,901,901,903,903,903,906,906,906,908,910,913,915,915,915,915,918,920,923,923,0,0,0,0,0,0,0,0,0,0,0,0,0,0,0,0,0,0,0,0,0,811,809,809,807,805,803,802,800,798,796,794,792,792,790,789,787,783,781,781,780,776,773,771,769,767,767,766,764,761,759,755,755,754,754,749,747,747,746,744,742,741,739,736,734,701,694,694,694,694,694,694,693,693,693,691,691,690,688,687,686,682,682,680,680,679,679,679,678,676,676,676,676,675,675,675,675,675,676,676,678,678,678,676,675,675,675,675,675,675,676,676,679,679,680,679,676,676,678,676,676,676,679,679,679,679,679,679,679,678,678,679,679,679,679,683,683,682,682,682,682,682,691,691,691,690,687,686,686,686,686,686,686,687,687,687,688,688,688,690,690,690,691,693,694,696,696,697,698,700,703,704,704,706,707,708,711,713,716,716,717,719,720,720,722,752,752,752,754,755,757,759,761,762,766,767,767,769,773,778,778,780,781,783,787,787,787,789,790,800,800,802,803,807,809,811,813,817,819,821,823,825,827,831,833,835,837,839,843,845,847,849,851,854,854,858,858,0,0,0,0,0,0,0,0,0,0,0,0,0,0,0,0,967,967,964,962,962,959,959,956,956,954,951,951,951,951,951,951,951,954,956,956,959,962,964,967,967,970,981,981,0,0,0,0,1543,1543,1543,1536,1536,1529,1529,1523,1523,1523,1516,1516,1516,1516,1516,1509,1509,1509,1509,1503,1496,1496,1496,1496,1489,1489,1489,1483,1483,1477,1477,1477,1470,1470,1470,1470,1464,1464,1464,1458,1458,1452,1452,1445,1445,1445,1439,1439,1439,1439,1439,1433,1433,1427,1421,1421,1421,1421,1415,1415,1415,1415,1415,1415,1410,1404,1404,1404,1404,1404,1398,1398,1398,1392,1392,1392,1387,1381,1381,1376,1376,1376,1370,1370,1370,1370,1370,1365,1365,1359,1359,1359,1354,1354,1354,1349,1349,1349,1343,1343,1343,1343,1338,1338,1333,1333,1333,1333,1328,1328,1328,1322,1322,1322,1322,1317,1312,1312,1312,1307,1307,1307,1302,1302,1302,1302,1297,1292,1292,1288,1288,1288,1288,1283,1283,1283,1278,1278,1278,1278,1273,1273,1273,1273,1268,1268,1268,1264,1264,1259,1255,1255,1255,1255,1255,1255,1250,1250,1250,1250,1245,1245,1245,1236,1236,1236,1232,1232,1232,1227,1227,1227,1227,1227,1223,1223,1223,1219,1219,1219,1214,1214,1214,1214,1214,1214,1210,1210,1206,1206,1206,1202,1202,1202,1193,1193,1189,1189,1189,1189,0,0,0,0,0,0,0,0,0,0,0,0,0,0,0,0,0,0,0,0,0,0,0,0,0,0,0,0,0,0,0,0
0,0,0,0,0,0,0,0,0,0,1594,1594,1601,1594,1594,1586,1586,1586,1586,1586,1586,1586,1586,1594,1594,1594,1594,1594,1594,1601,1601,1601,1601,1601,1601,1609,1601,1601,1601,1601,1609,1609,1609,1609,1609,1609,1601,1601,1601,1601,1601,1601,1601,1601,1609,1609,1609,1609,1609,1609,1609,1609,1609,1609,1601,1601,1601,1609,1609,1609,1609,1616,1616,1616,1616,1616,1616,1616,1624,1624,1624,1616,1616,1616,1616,1624,0,0,0,0,0,0,0,915,913,913,910,908,908,906,906,903,903,901,901,901,903,903,903,906,906,906,908,910,913,915,915,915,915,918,920,923,925,0,0,0,0,0,1616,1616,1616,1616,0,0,0,0,0,0,0,0,0,0,0,0,0,809,809,805,805,803,802,800,798,796,794,792,792,790,789,787,785,783,781,781,776,774,771,769,767,767,766,766,762,761,759,755,755,754,749,747,747,746,744,742,741,739,736,736,734,694,694,693,693,693,693,693,691,691,691,691,690,688,687,686,682,682,680,680,679,678,678,676,676,675,674,674,674,672,672,672,672,672,674,675,675,675,675,674,674,674,674,674,674,674,674,674,678,679,678,672,672,674,674,674,674,674,674,675,675,675,676,676,675,675,676,676,676,676,679,682,680,680,680,680,679,679,679,679,682,684,683,683,684,684,684,684,684,684,684,684,687,687,687,688,690,691,691,693,694,696,697,698,700,701,704,704,706,707,708,710,713,716,717,719,719,720,720,749,750,752,752,754,755,757,757,761,762,766,767,767,769,773,780,780,781,783,783,787,787,789,790,790,798,800,802,803,809,809,811,815,819,821,821,823,827,829,831,833,835,837,843,843,845,847,849,851,854,854,0,0,0,0,0,0,0,0,0,0,0,0,0,0,0,0,0,0,967,967,964,962,962,962,959,959,956,956,954,954,951,951,951,951,954,954,956,959,959,962,964,967,967,973,981,0,0,0,0,0,1543,1543,1543,1536,1536,1529,1529,1523,1523,1523,1516,1516,1516,1516,1516,1509,1509,1509,1509,1503,1496,1496,1496,1496,1489,1489,1489,1489,1483,1477,1477,1477,1470,1470,1470,1470,1464,1464,1464,1458,1458,1452,1452,1445,1445,1445,1439,1439,1439,1439,1439,1433,1433,1433,1427,1427,1421,1421,1415,1415,1415,1415,1415,1415,1410,1404,1404,1404,1398,1398,1398,1398,1398,1392,1392,1392,1387,1381,1381,1376,1376,1376,1376,1370,1370,1370,1370,1370,1365,1359,1359,1359,1354,1354,1354,1349,1349,1349,1343,1343,1343,1343,1338,1338,1338,1333,1333,1328,1328,1328,1328,1322,1322,1322,1322,1317,1312,1312,1307,1307,1307,1302,1302,1302,1302,1302,1292,1292,1292,1292,1288,1288,1288,1288,1283,1283,1278,1278,1278,1278,1273,1273,1273,1273,1273,1268,1268,1268,1264,1259,1255,1255,1255,1255,1255,1255,1250,1250,1250,1250,1245,1245,1245,1236,1236,1236,1232,1232,1232,1227,1227,1227,1227,1227,1227,1223,1223,1223,1219,1214,1214,1214,1214,1214,1214,1210,1210,1210,1206,1206,1206,1202,1202,1202,1193,1193,1193,1193,1189,1189,0,0,0,0,0,0,0,0,0,0,0,0,0,0,0,0,0,0,0,0,0,0,0,0,0,0,0,0,0,0,0,0
0,0,0,0,0,0,0,0,0,0,1594,1594,1594,1586,1586,1579,1579,1579,1586,1586,1586,1586,1586,1586,1586,1586,1586,1594,1594,1594,1594,1594,1594,1594,1601,1601,1601,1601,1594,1594,1601,1601,1601,1609,1601,1601,1601,1601,1601,1601,1601,1601,1601,1601,1601,1609,1609,1601,1601,1601,1601,1601,1601,1601,1601,1601,1601,1601,1609,1601,1601,1609,1616,1616,1609,1609,1609,1609,1609,1601,1601,1601,1616,1616,1616,1624,0,0,0,0,0,0,0,915,913,913,910,910,910,908,906,903,903,903,903,903,903,903,903,906,906,906,908,910,913,915,915,915,915,918,920,923,0,0,0,0,0,0,1609,1601,1601,1601,1601,1601,1601,0,0,0,0,0,0,0,0,0,0,0,809,805,805,803,802,800,798,796,794,794,792,790,789,787,785,783,781,781,780,774,773,769,769,767,767,766,764,761,759,755,755,754,752,747,747,746,744,742,741,739,736,736,734,734,734,691,691,691,691,691,690,690,691,690,688,687,686,684,683,682,680,680,679,678,678,676,675,674,672,671,671,671,671,670,670,670,670,670,670,671,672,674,674,672,671,671,671,671,671,672,671,671,674,671,671,671,671,671,671,671,671,672,674,674,674,674,674,674,674,674,674,674,675,676,678,679,679,679,678,676,676,676,678,682,682,682,683,683,683,683,683,683,683,683,684,684,686,687,687,690,691,693,694,696,697,698,700,701,704,704,706,707,708,710,710,717,720,720,720,720,744,747,749,750,752,754,755,757,757,761,762,766,767,769,771,773,780,780,781,783,785,787,787,789,792,796,798,800,802,803,811,811,813,817,819,821,823,823,827,831,831,833,835,837,843,843,845,847,854,854,854,0,854,0,0,0,0,1639,1639,1647,1647,0,0,0,0,0,0,0,0,0,970,967,967,964,962,962,959,959,956,956,954,954,951,951,951,951,954,956,956,959,959,964,967,967,970,973,981,0,0,0,0,1543,1543,1543,1543,1536,1536,1529,1529,1523,1523,1523,1516,1516,1516,1516,1516,1509,1509,1509,1509,1503,1503,1496,1496,1489,1489,1489,1489,1483,1483,1477,1477,1477,1477,1470,1470,1470,1464,1464,1464,1464,1458,1458,1452,1445,1445,1445,1445,1439,1439,1439,1439,1433,1433,1433,1427,1427,1421,1421,1415,1415,1415,1415,1415,1415,1410,1404,1404,1404,1398,1398,1398,1398,1398,1392,1392,1392,1387,1387,1381,1376,1376,1376,1376,1370,1370,1370,1370,1370,1365,1365,1359,1359,1354,1354,1354,1354,1349,1349,1343,1343,1343,1343,1338,1338,1338,1333,1333,1328,1328,1328,1328,1322,1322,1322,1322,1317,1312,1312,1307,1307,1307,1302,1302,1302,1307,1307,1292,1292,1292,1292,1288,1288,1288,1288,1283,1283,1283,1278,1278,1278,1273,1273,1273,1273,1273,1268,1268,1264,1264,1264,1255,1255,1255,1255,1255,1255,1250,1250,1250,1250,1245,1245,1245,1241,1236,1236,1236,1236,1232,1232,1232,1227,1227,1227,1223,1223,1223,1223,1219,1214,1214,1214,1214,1214,1214,1210,1210,1210,1206,1206,1206,1202,1202,1202,1197,1197,1193,1193,1189,1189,0,0,0,0,0,0,0,0,0,0,0,0,0,0,0,0,0,0,0,0,0,0,0,0,0,0,0,0,0,0,0,0
0,0,0,0,0,0,0,0,0,0,1586,1586,1586,1579,1579,1579,1579,1579,1579,1586,1586,1586,1586,1586,1586,1586,1586,1586,1586,1586,1586,1586,1586,1594,1594,1594,1594,1594,1594,1594,1594,1594,1594,1601,1601,1601,1594,1594,1594,1594,1594,1594,1594,1594,1601,1601,1601,1601,1601,1601,1601,1594,1594,1594,1594,1594,1594,1594,1601,1601,1601,1601,1609,1609,1609,1601,1601,1601,1601,1601,1594,1594,1601,1601,1616,0,0,0,0,0,0,0,0,915,913,913,910,910,910,906,906,903,903,903,903,903,903,903,906,906,906,908,910,910,913,915,915,915,915,918,923,925,0,0,0,1572,1572,1586,1594,1601,1601,1601,1601,1601,1601,1594,1594,0,0,0,0,0,0,0,0,0,0,805,803,803,802,800,798,796,794,792,790,789,789,787,783,783,781,781,780,774,773,771,769,767,767,766,764,762,759,757,755,754,750,747,747,746,744,741,741,739,738,736,734,734,733,691,691,688,688,688,687,687,691,690,687,687,686,683,683,682,682,680,679,678,676,676,675,671,671,670,670,670,668,667,667,667,666,666,666,667,668,668,671,671,671,671,670,670,670,670,670,670,670,670,668,668,668,668,667,667,667,668,671,671,671,672,672,672,672,672,671,671,670,670,671,675,675,675,675,675,675,675,672,672,678,680,679,679,679,682,682,682,682,682,683,684,684,686,687,688,690,691,694,696,697,698,700,701,704,706,707,708,710,710,710,722,722,720,720,742,744,747,747,749,750,754,757,757,759,761,762,767,767,769,771,773,778,778,781,783,785,787,787,790,792,798,798,802,803,803,811,811,813,817,819,821,823,825,827,831,831,833,835,835,841,843,845,851,854,854,0,0,0,0,0,0,1639,1639,1639,1639,1639,0,0,0,0,0,0,0,0,0,970,967,967,964,964,962,962,959,959,956,956,954,954,951,951,951,954,956,956,959,962,964,967,970,970,975,0,0,0,0,0,1543,1543,1543,1543,1536,1536,1529,1529,1523,1523,1523,1516,1516,1516,1516,1516,1516,1509,1509,1509,1503,1503,1496,1496,1489,1489,1489,1489,1483,1483,1477,1477,1477,1477,1470,1470,1470,1464,1464,1464,1464,1458,1458,1452,1452,1445,1445,1445,1445,1439,1439,1439,1439,1433,1433,1427,1427,1421,1421,1415,1415,1415,1415,1415,1415,1410,1410,1404,1404,1404,1398,1398,1398,1398,1392,1392,1392,1387,1387,1381,1376,1376,1376,1376,1370,1370,1370,1370,1370,1365,1365,1365,1359,1354,1354,1354,1354,1349,1349,1343,1343,1343,1343,1338,1338,1338,1333,1333,1328,1328,1328,1328,1322,1322,1322,1322,1317,1312,1312,1312,1307,1307,1302,1302,1302,1302,1302,1292,1292,1292,1292,1288,1288,1288,1288,1283,1283,1283,1278,1278,1278,1273,1273,1273,1273,1273,1268,1268,1264,1264,1264,1255,1255,1255,1255,1255,1255,1250,1250,1250,1250,1245,1245,1245,1241,1236,1236,1236,1236,1232,1232,1227,1227,1227,1227,1223,1223,1223,1223,1219,1219,1214,1214,1214,1214,1214,1214,1214,1210,1210,1206,1206,1206,1202,1202,1197,1197,1197,1193,1189,1189,0,0,0,0,0,0,0,0,0,0,0,0,0,0,0,0,0,0,0,0,0,0,0,0,0,0,0,0,0,0,0,0
0,0,0,0,0,0,0,0,0,0,1572,1572,1572,1572,1572,1572,1572,1572,1579,1579,1579,1579,1579,1586,1579,1579,1579,1579,1586,1579,1579,1579,1579,1586,1586,1586,1586,1579,1579,1579,1586,1572,1572,1586,1586,1586,1586,1586,1586,1586,1586,1586,1594,1594,1594,1594,1594,1594,1594,1594,1594,1586,1586,1586,1586,1579,1579,1579,1594,1594,1594,1594,1594,1594,1594,1594,1594,1594,1594,1594,1586,1586,1594,1601,0,0,0,0,0,0,0,0,0,915,913,913,913,910,910,906,906,903,903,903,903,903,903,903,906,906,906,908,910,910,913,915,915,915,915,915,0,0,0,0,0,1572,1572,1586,1594,1601,1601,1601,1601,1601,1601,1594,1594,1601,1601,0,0,0,0,0,0,0,0,0,803,803,802,800,798,794,794,792,790,789,789,787,783,781,781,780,780,774,774,771,771,769,767,766,764,762,759,757,754,752,750,749,747,747,744,741,741,739,738,736,734,734,733,733,731,688,688,688,687,687,722,722,687,687,684,683,683,682,680,680,679,678,676,676,674,671,671,670,670,668,667,667,666,666,666,664,662,662,663,666,666,668,670,668,668,668,668,667,667,667,666,666,666,666,666,666,666,666,666,666,668,668,670,671,671,670,670,671,670,668,668,667,666,666,666,666,666,674,674,670,670,671,674,674,675,676,676,676,678,678,679,682,683,684,684,686,687,688,690,691,694,696,697,698,700,703,704,706,707,708,710,710,710,728,731,738,741,741,742,747,747,749,750,754,757,757,759,761,762,767,767,769,771,776,778,778,781,783,785,787,789,790,794,798,800,802,803,807,811,811,815,817,819,821,823,823,827,831,831,833,835,835,841,851,851,854,856,856,856,1655,0,0,0,1647,1639,1639,1647,1639,1639,1647,0,0,0,0,0,0,0,0,970,967,967,967,964,962,962,959,959,956,956,954,954,954,954,954,954,956,959,959,964,964,970,970,973,975,0,0,0,0,0,1543,1543,1543,1543,1536,1536,1529,1529,1523,1523,1523,1523,1516,1516,1516,1516,1516,1516,1509,1509,1503,1503,1496,1496,1496,1489,1489,1489,1483,1483,1477,1477,1477,1477,1470,1470,1470,1464,1464,1464,1464,1458,1458,1452,1452,1445,1445,1445,1445,1439,1439,1439,1439,1433,1433,1427,1427,1421,1421,1421,1421,1415,1415,1415,1415,1410,1410,1404,1404,1398,1398,1398,1398,1398,1392,1392,1392,1387,1387,1381,1376,1376,1376,1376,1370,1370,1370,1370,1370,1365,1365,1365,1359,1359,1354,1354,1349,1349,1349,1343,1343,1343,1338,1338,1338,1338,1333,1333,1328,1328,1328,1328,1322,1322,1322,1322,1322,1317,1312,1312,1307,1307,1307,1307,1302,1302,1302,1297,1297,1292,1292,1292,1288,1288,1288,1288,1288,1283,1278,1278,1278,1273,1273,1273,1273,1273,1268,1268,1268,1264,1264,1259,1255,1255,1255,1255,1255,1250,1250,1250,1250,1245,1245,1245,1241,1241,1236,1236,1236,1236,1232,1227,1227,1227,1227,1227,1223,1223,1223,1219,1219,1214,1214,1214,1214,1214,1214,1214,1210,1210,1210,1206,1206,1202,1202,1197,1197,1197,1193,1189,1189,1193,0,0,0,0,0,0,0,0,0,0,0,0,0,0,0,0,0,0,0,0,0,0,0,0,0,0,0,0,0,0,0
0,0,0,0,0,0,0,0,0,0,1564,1564,1564,1564,1564,1564,1564,1572,1572,1572,1572,1572,1579,1579,1572,1572,1572,1579,1579,1579,1572,1572,1572,1579,1579,1579,1579,1572,1572,1564,1564,1564,1564,1564,1564,1572,1579,1579,1579,1579,1579,1579,1579,1586,1586,1586,1586,1586,1586,1586,1586,1579,1579,1579,1579,1572,1572,1572,1579,1586,1579,1579,1586,1586,1586,1586,1586,1586,1586,1579,1579,1579,1579,1586,0,0,0,0,0,0,0,0,0,915,915,913,913,910,910,908,906,903,903,903,903,903,903,903,906,906,906,908,910,910,913,915,915,915,915,918,0,0,0,0,0,1594,1594,1594,1601,1594,1594,1594,1594,1594,1594,1594,1594,1601,1601,1601,1601,0,0,0,0,0,0,0,0,0,803,802,796,794,792,790,790,789,789,787,783,781,781,780,780,776,774,773,771,769,767,767,766,762,759,757,754,752,752,750,749,747,744,742,741,739,738,738,736,734,733,733,731,728,727,725,723,722,720,720,720,682,682,683,683,682,680,680,679,678,678,676,674,671,671,670,668,667,667,666,666,664,664,663,661,659,659,659,657,657,657,666,666,666,664,664,664,664,663,663,664,664,663,663,663,663,664,664,666,666,666,667,668,668,668,668,668,667,667,666,666,666,666,664,664,667,667,667,667,668,670,670,672,674,675,675,676,676,678,679,682,683,684,686,687,688,690,691,694,696,696,697,698,700,706,707,708,710,707,707,731,731,734,738,741,741,742,747,747,749,750,754,757,759,761,761,764,767,767,769,771,776,780,780,781,783,787,787,789,792,798,798,800,803,805,807,809,811,813,817,819,821,823,823,827,829,831,831,833,837,841,854,854,854,854,1655,0,1655,1655,1655,1647,1647,1647,1647,1647,1639,1639,1647,0,0,0,0,0,0,0,0,970,967,967,967,967,964,962,959,959,956,956,956,954,954,954,954,956,956,959,962,964,970,973,973,973,975,0,0,0,0,0,1543,1543,1543,1543,1536,1536,1529,1529,1523,1523,1523,1523,1516,1516,1516,1516,1516,1509,1509,1509,1503,1503,1496,1496,1496,1489,1489,1489,1483,1483,1477,1477,1477,1477,1470,1470,1470,1464,1464,1464,1464,1458,1458,1452,1452,1445,1445,1445,1445,1445,1439,1439,1439,1439,1433,1427,1427,1427,1421,1421,1421,1415,1415,1415,1415,1410,1410,1404,1404,1398,1398,1398,1398,1398,1392,1392,1392,1387,1387,1381,1376,1376,1376,1376,1370,1370,1370,1370,1370,1370,1365,1365,1365,1365,1354,1354,1349,1349,1349,1343,1343,1343,1338,1338,1338,1333,1333,1333,1328,1328,1328,1328,1322,1322,1322,1322,1317,1317,1312,1312,1307,1307,1307,1302,1302,1302,1302,1297,1297,1292,1292,1292,1288,1288,1288,1288,1288,1283,1278,1278,1278,1273,1273,1273,1273,1273,1268,1268,1264,1264,1264,1259,1255,1255,1255,1255,1255,1255,1250,1250,1250,1245,1245,1245,1245,1241,1236,1236,1236,1236,1232,1232,1232,1227,1227,1227,1223,1223,1223,1219,1219,1214,1214,1214,1214,1214,1210,1210,1210,1210,1210,1206,1206,1202,1202,1197,1197,1197,1193,1193,1193,1193,0,0,0,0,0,0,0,0,0,0,0,0,0,0,0,0,0,0,0,0,0,0,0,0,0,0,0,0,0,0,0
