0,0,0,0,0,0,0,0,0,0,0,0,0,0,1572,1572,1572,1572,1564,1564,1564,1564,1564,1557,1557,1550,1550,1550,1550,1543,1543,1543,1543,1543,1543,1543,1543,1543,1543,1543,1543,1543,1543,1543,1543,1536,1536,1543,1543,1536,1536,1543,1543,1536,1536,1543,1543,1543,1543,1536,1536,1536,1543,1543,1543,1543,1543,1543,1536,1536,1529,1529,1529,1529,1536,1536,1536,1536,1536,1536,1536,1536,1536,1536,1536,1536,1536,1543,1543,1543,1557,1564,1572,1572,1572,1632,1632,1632,1632,1632,1632,1624,1624,1624,1624,1624,1616,1616,1616,1616,1616,1616,1609,1609,1601,1594,1586,1579,1572,1564,1564,1557,1557,1550,1550,1550,1550,1550,1557,1557,1564,1564,1564,1572,1572,1572,1572,1579,1579,1586,1594,1594,1594,1601,1601,1601,1601,1601,1609,1616,1616,1624,1624,1632,1632,1639,1639,1639,1639,1647,1647,1655,1655,1655,1655,1655,1663,1663,1663,1663,1671,1671,1680,1688,1688,1696,1696,1696,1696,1705,1705,1713,1722,1722,1722,1722,1731,1731,1731,1731,1739,1739,1739,1739,1748,1748,1757,1757,1757,1757,1766,1766,1776,1776,1785,1794,1794,1794,1804,1804,1804,1804,1804,1813,0,0,0,0,0,0,0,1067,1060,1057,1054,1054,1054,1050,1050,1047,1047,1047,1047,1047,1047,1047,1050,1054,1057,1057,1057,1060,1060,1063,1063,1063,1063,1067,1070,1070,0,1696,1696,1688,1680,1671,1671,1671,1671,1671,1663,1663,1663,1663,1655,1655,1647,1647,1647,1639,1639,1632,1632,1632,1632,1632,1632,1632,1632,1624,1624,1616,1616,1616,1616,1616,1609,1609,1609,1601,1601,1601,1594,1594,1594,1586,1586,1586,1579,1579,1572,1572,1572,1572,1572,1572,1564,1564,1564,1564,1550,1550,1550,1543,1543,1543,1543,1543,1543,1550,1543,1543,1543,1543,1543,1543,1536,1536,1529,1529,1523,1523,1516,1516,1516,1516,1516,1509,1509,1509,1503,1503,1496,1496,1496,1496,1496,0,0,0,0,0,0,887,887,889,889,887,887,887,887,887,885,885,882,882,880,880,878,878,878,878,880,880,880,882,885,887,889,891,894,894,894,0,0,0,0,0,1415,1415,1415,1410,1410,1410,1410,1410,1404,1404,1404,1404,1398,1398,1392,1392,1392,1392,1387,1387,1387,1387,1381,1376,1376,1376,1376,1370,1370,1370,1370,1370,1365,1365,1365,1359,1359,1354,1354,1354,1354,1349,1349,1349,1343,1343,1343,1338,1338,1338,1338,1333,1333,1333,1333,1333,1328,1328,1328,1322,1322,1317,1317,1312,1312,1312,1307,1307,1302,1297,1297,1297,1297,1292,1292,1292,1292,1292,1292,1292,1288,1288,1288,1283,1283,1283,1278,1278,1273,1273,1268,1268,1268,1268,1268,1268,1268,1264,1264,1259,1259,1259,1255,1255,1255,1255,1250,1250,1250,1245,1241,1241,1241,1236,1236,1236,1236,1236,1232,1232,1232,1227,1227,1227,1227,1223,1219,1219,1219,1219,1214,1214,1214,1210,1210,1210,1210,1210,1210,1210,1206,1206,1206,1206,1206,1202,1197,1197,1197,1197,1193,1193,1193,1189,1189,1185,1185,1185,1185,1181,1181,1181,1181,1181,1181,1177,1173,1173,1173,1169,1169,1169,1169,1165,1165,1165,1165,1165,1161,1157,1157,1157,1157,1157,1157,1153,1153,1153,1153,1153,1149,1149,1149,1145,1145,1141,1138,1138,1138,1138,1138,1134,1134,1130,1130,1130,1130,1130,1130,1130,1126,1123,1123,1123,1119,1119,1119,1115,1115,1115,1115,1115,1112,1112,0,0,0,0,0,0,0,0,0,0,0,0,0,0,0,0,0,0,0,0,0,0,0,0,0,0,0,0
0,0,0,0,0,0,0,0,0,0,0,0,0,0,1572,1572,1572,1572,1564,1564,1564,1564,1564,1557,1557,1550,1550,1550,1550,1550,1543,1543,1543,1550,1550,1550,1543,1543,1550,1550,1543,1543,1550,1550,1543,1536,1536,1543,1543,1536,1536,1543,1543,1543,1543,1543,1543,1543,1543,1543,1543,1543,1543,1543,1543,1550,1543,1543,1543,1543,1536,1536,1529,1529,1536,1536,1536,1536,1536,1536,1536,1536,1536,1536,1536,1536,1536,1543,1543,1543,1564,1564,1572,1579,1579,1609,1624,1624,1624,1624,1624,1624,1616,1616,1616,1616,1616,1609,1609,1609,1609,1609,1601,1601,1601,1594,1586,1579,1572,1572,1564,1557,1557,1550,1550,1557,1550,1550,1557,1557,1564,1564,1572,1572,1572,1572,1572,1579,1579,1586,1594,1594,1601,1601,1601,1601,1601,1601,1609,1616,1624,1624,1624,1632,1632,1639,1639,1639,1639,1647,1647,1655,1655,1655,1663,1663,1663,1663,1671,1671,1671,1671,1680,1688,1688,1696,1696,1696,1696,1705,1705,1713,1722,1722,1722,1722,1731,1731,1731,1731,1739,1739,1739,1739,1748,1757,1757,1757,1757,1766,1766,1766,1766,1776,1785,1794,1794,1794,1794,1794,1804,1804,1804,1804,0,0,0,0,0,0,0,1067,1060,1060,1057,1054,1054,1054,1050,1050,1047,1047,1047,1047,1047,1047,1050,1054,1057,1057,1060,1060,1063,1063,1063,1063,1063,1067,0,1067,0,1696,1696,1688,1688,1680,1680,1671,1671,1671,1671,1663,1663,1663,1663,1655,1655,1655,1647,1647,1639,1639,1639,1639,1639,1639,1632,1632,1632,1624,1624,1624,1624,1624,1616,1616,1609,1609,1609,1601,1601,1601,1601,1594,1594,1594,1586,1586,1579,1579,1572,1572,1572,1572,1572,1572,1572,1572,1564,1564,1557,1557,1550,1550,1543,1543,1543,1543,1543,1550,1550,1543,1543,1543,1543,1543,1536,1536,1529,1529,1529,1523,1523,1523,1516,1516,1516,1516,1509,1509,1509,1509,1503,1503,1503,1503,1503,0,0,0,0,0,0,887,887,887,889,887,887,887,887,887,885,885,885,882,880,880,880,878,878,880,880,880,880,882,887,889,891,894,894,894,894,0,0,0,0,0,1421,1415,1415,1410,1410,1410,1410,1410,1404,1404,1404,1404,1398,1398,1392,1392,1392,1392,1387,1387,1387,1387,1387,1376,1376,1376,1376,1370,1370,1370,1370,1370,1370,1365,1365,1365,1365,1359,1359,1354,1354,1354,1349,1349,1349,1343,1343,1343,1338,1338,1338,1333,1333,1333,1333,1333,1328,1328,1328,1322,1322,1317,1317,1317,1312,1312,1312,1307,1307,1302,1302,1297,1297,1297,1292,1292,1292,1292,1292,1292,1288,1288,1288,1288,1283,1283,1283,1278,1273,1273,1273,1273,1268,1268,1268,1268,1268,1264,1264,1264,1259,1259,1259,1255,1255,1255,1250,1250,1250,1245,1245,1245,1236,1236,1236,1236,1236,1236,1232,1232,1232,1232,1232,1227,1227,1223,1223,1219,1219,1219,1219,1214,1214,1214,1210,1210,1210,1210,1210,1210,1206,1206,1206,1206,1206,1202,1202,1202,1197,1197,1197,1193,1193,1189,1189,1185,1185,1185,1185,1181,1181,1181,1181,1181,1177,1177,1173,1173,1173,1173,1169,1169,1169,1165,1165,1165,1165,1165,1161,1161,1161,1161,1157,1157,1157,1153,1153,1153,1153,1153,1149,1149,1149,1145,1145,1145,1141,1141,1141,1138,1138,1138,1134,1134,1134,1130,1130,1130,1130,1130,1130,1123,1123,1123,1119,1119,1119,1119,1115,1115,1115,1115,1112,1112,0,0,0,0,0,0,0,0,0,0,0,0,0,0,0,0,0,0,0,0,0,0,0,0,0,0,0,0
0,0,0,0,0,0,0,0,0,0,0,0,0,0,1572,1572,1572,1572,1564,1564,1564,1564,1564,1557,1557,1550,1550,1550,1550,1550,1543,1543,1550,1550,1550,1550,1550,1550,1550,1550,1550,1550,1550,1550,1543,1536,1536,1543,1543,1536,1536,1543,1543,1543,1543,1543,1543,1543,1543,1543,1543,1543,1543,1543,1543,1536,1536,1543,1536,1536,1536,1536,1536,1536,1536,1536,1536,1536,1536,1536,1536,1536,1536,1536,1536,1536,1536,1543,1543,1543,1550,1564,1564,1572,1579,1609,1624,1624,1624,1624,1624,1624,1616,1616,1616,1616,1609,1609,1609,1609,1609,1601,1601,1601,1601,1594,1594,1586,1572,1572,1564,1557,1557,1550,1550,1557,1557,1557,1557,1564,1564,1564,1572,1572,1572,1572,1579,1579,1579,1586,1594,1594,1601,1601,1601,1601,1601,1601,1609,1616,1624,1624,1624,1632,1632,1639,1639,1639,1639,1647,1647,1655,1655,1663,1663,1663,1663,1663,1671,1671,1671,1671,1680,1688,1688,1696,1696,1705,1705,1705,1705,1713,1722,1722,1722,1722,1731,1731,1731,1739,1739,1739,1739,1739,1748,1757,1757,1757,1757,1766,1766,1766,1766,1776,1785,1794,1794,1794,1794,1794,1804,1804,1804,1804,0,0,0,0,0,0,0,1067,1063,1060,1057,1057,1054,1054,1054,1050,1050,1050,1047,1047,1047,1050,1050,1050,1057,1060,1060,1060,1063,1063,1063,1063,1063,1067,0,0,0,0,1705,1705,1688,1680,1680,1680,1680,1680,1671,1671,1663,1663,1663,1655,1655,1655,1647,1647,1647,1639,1639,1639,1639,1639,1632,1632,1632,1632,1624,1624,1624,1624,1624,1616,1609,1609,1609,1601,1601,1601,1601,1601,1594,1594,1594,1586,1586,1586,1579,1579,1579,1572,1572,1572,1572,1572,1564,1564,1557,1557,1550,1550,1550,1543,1543,1543,1543,1550,1550,1543,1543,1543,1543,1543,1536,1536,1536,1529,1529,1523,1523,1523,1523,1523,1516,1516,1516,1516,1509,1509,1503,1503,1503,1503,0,0,0,0,0,0,0,0,887,887,887,887,887,887,887,887,887,885,885,882,880,880,880,878,878,880,880,880,880,882,887,889,894,894,894,896,896,0,0,0,0,0,1421,1415,1415,1410,1410,1415,1410,1410,1410,1410,1404,1404,1398,1398,1392,1392,1392,1392,1387,1387,1387,1387,1387,1381,1376,1376,1376,1370,1370,1370,1370,1370,1370,1370,1370,1365,1365,1359,1359,1354,1354,1354,1354,1349,1349,1349,1343,1343,1343,1338,1338,1338,1338,1333,1333,1333,1333,1328,1328,1322,1322,1317,1317,1317,1312,1312,1312,1307,1307,1302,1302,1302,1302,1297,1297,1297,1297,1292,1292,1292,1288,1288,1288,1288,1288,1283,1283,1278,1278,1273,1273,1273,1273,1273,1268,1268,1268,1268,1264,1264,1264,1264,1259,1255,1255,1255,1250,1250,1250,1250,1245,1245,1236,1236,1236,1236,1236,1236,1232,1232,1232,1232,1232,1232,1227,1223,1223,1223,1219,1219,1219,1214,1214,1214,1214,1214,1210,1210,1210,1206,1206,1210,1206,1206,1206,1202,1202,1202,1197,1197,1197,1193,1193,1193,1189,1189,1185,1185,1185,1185,1185,1181,1181,1181,1177,1177,1173,1173,1173,1173,1169,1169,1169,1165,1165,1165,1165,1165,1165,1161,1161,1161,1161,1161,1157,1153,1153,1153,1153,1153,1149,1149,1149,1145,1145,1145,1141,1141,1141,1141,1138,1138,1134,1134,1134,1134,1134,1134,1130,1130,1130,1126,1123,1123,1119,1119,1119,1119,1115,1115,1115,1115,1112,1112,0,0,0,0,0,0,0,0,0,0,0,0,0,0,0,0,0,0,0,0,0,0,0,0,0,0,0,0
0,0,0,0,0,0,0,0,0,0,0,0,0,0,1572,1572,1572,1572,1572,1572,1572,1572,1564,1564,1557,1557,1550,1550,1550,1550,1550,1550,1550,1550,1550,1550,1550,1550,1550,1550,1550,1550,1550,1543,1543,1543,1543,1543,1543,1543,1543,1543,1543,1543,1543,1543,1543,1543,1543,1543,1543,1543,1543,1543,1543,1536,1536,1550,1536,1536,1536,1536,1536,1536,1536,1543,1543,1543,1536,1536,1536,1536,1536,1536,1536,1536,1536,1543,1543,1543,1550,1564,1564,1572,1579,1609,1616,1624,1616,1616,1616,1624,1616,1616,1616,1616,1609,1601,1601,1601,1601,1601,1601,1601,1594,1594,1586,1579,1572,1564,1564,1557,1557,1557,1557,1557,1557,1557,1557,1564,1564,1572,1572,1572,1572,1572,1579,1586,1586,1586,1594,1594,1601,1601,1601,1601,1601,1609,1609,1616,1624,1624,1624,1632,1632,1639,1639,1639,1639,1639,1647,1647,1655,1655,1663,1663,1663,1663,1671,1671,1671,1671,1680,1688,1688,1696,1696,1705,1705,1705,1705,1713,1722,1722,1731,1731,1731,1731,1731,1739,1739,1739,1748,1748,1748,1757,1757,1757,1757,1766,1766,1766,1776,1776,1785,1785,1794,1794,1794,1794,1794,1794,1794,0,0,0,0,0,0,0,0,1067,1063,1060,1057,1057,1054,1054,1054,1050,1050,1050,1047,1047,1050,1050,1050,1050,1057,1060,1060,1063,1063,1063,1063,1063,1063,1070,0,0,0,0,1705,1696,1696,1688,1688,1680,1680,1680,1680,1671,1671,1663,1663,1663,1655,1655,1655,1655,1647,1647,1647,1639,1639,1639,1632,1632,1632,1632,1624,1624,1624,1624,1624,1624,1616,1616,1609,1609,1601,1601,1601,1601,1594,1594,1594,1586,1586,1586,1579,1579,1579,1572,1572,1572,1572,1572,1564,1564,1564,1557,1557,1557,1550,1543,1543,1543,1543,1550,1550,1550,1543,1543,1543,1543,1543,1536,1536,1536,1529,1523,1523,1523,1523,1523,1516,1516,1516,1516,1516,1509,1509,1509,1509,1509,0,0,0,0,0,0,0,0,887,887,887,887,887,889,887,887,887,887,885,882,880,880,880,878,878,880,880,880,880,882,887,889,894,894,896,896,0,0,0,0,0,0,1421,1421,1415,1415,1415,1415,1410,1410,1410,1410,1404,1404,1398,1398,1392,1392,1392,1392,1392,1387,1387,1387,1387,1381,1381,1376,1376,1370,1370,1370,1370,1370,1370,1370,1370,1370,1365,1365,1359,1359,1354,1354,1354,1354,1349,1349,1343,1343,1343,1338,1338,1338,1338,1333,1333,1333,1333,1328,1328,1322,1322,1317,1317,1317,1312,1312,1312,1312,1307,1307,1307,1302,1302,1297,1297,1297,1297,1292,1292,1292,1288,1288,1288,1288,1288,1288,1288,1288,1283,1283,1278,1273,1273,1273,1273,1268,1268,1268,1264,1264,1264,1264,1264,1259,1255,1255,1255,1250,1250,1250,1250,1250,1245,1241,1241,1236,1236,1236,1236,1236,1232,1232,1232,1232,1227,1223,1223,1223,1223,1219,1219,1219,1214,1214,1214,1214,1210,1210,1210,1206,1206,1210,1206,1206,1206,1202,1202,1202,1197,1197,1197,1193,1193,1193,1193,1189,1185,1185,1185,1185,1185,1181,1181,1181,1181,1177,1177,1177,1173,1173,1173,1169,1169,1169,1169,1165,1165,1165,1165,1165,1165,1161,1161,1161,1161,1157,1157,1157,1153,1153,1149,1149,1149,1149,1149,1149,1145,1145,1145,1141,1141,1138,1138,1138,1138,1134,1134,1134,1134,1134,1130,1126,1123,1123,1123,1119,1119,1119,1119,1119,1115,1115,1112,1112,0,0,0,0,0,0,0,0,0,0,0,0,0,0,0,0,0,0,0,0,0,0,0,0,0,0,0,0
0,0,0,0,0,0,0,0,0,0,0,0,0,0,1572,1572,1572,1572,1572,1572,1572,1572,1564,1564,1564,1564,1557,1557,1557,1557,1557,1557,1557,1557,1557,1557,1557,1557,1557,1550,1550,1550,1550,1543,1543,1543,1543,1543,1543,1543,1543,1543,1543,1543,1543,1543,1543,1543,1543,1543,1543,1543,1543,1543,1543,1543,1543,1543,1536,1536,1536,1536,1536,1536,1536,1543,1543,1543,1543,1543,1536,1536,1536,1536,1536,1536,1536,1543,1543,1550,1557,1564,1564,1579,1579,1609,1616,1616,1616,1616,1616,1624,1616,1616,1616,1616,1609,1601,1601,1601,1601,1601,1601,1594,1594,1594,1586,1579,1572,1564,1564,1557,1557,1557,1557,1557,1557,1557,1564,1564,1572,1572,1572,1572,1579,1579,1579,1586,1586,1586,1594,1594,1601,1601,1601,1601,1609,1609,1609,1616,1624,1632,1632,1632,1632,1639,1639,1639,1639,1639,1647,1647,1655,1655,1663,1663,1663,1663,1671,1671,1671,1671,1688,1688,1688,1696,1696,1705,1705,1705,1705,1713,1722,1722,1722,1731,1731,1731,1731,1739,1739,1739,1748,1748,1757,1757,1757,1757,1757,1766,1766,1766,1776,1776,1785,1785,1794,1794,1794,1794,1794,1794,1794,0,0,0,0,0,0,0,0,1067,1063,1060,1060,1057,1057,1054,1054,1050,1050,1050,1047,1047,1050,1050,1050,1050,1060,1060,1063,1063,1063,1067,1067,1067,1067,1070,1070,0,0,0,1705,1696,1696,1688,1688,1688,1688,1680,1680,1680,1671,1671,1663,1663,1663,1655,1655,1655,1655,1647,1647,1647,1647,1647,1639,1639,1632,1632,1632,1632,1624,1624,1624,1624,1616,1616,1609,1609,1601,1601,1601,1601,1594,1594,1594,1586,1586,1586,1579,1579,1579,1579,1579,1579,1572,1572,1572,1564,1564,1564,1564,1557,1557,1550,1550,1550,1550,1550,1550,1550,1550,1543,1543,1543,1543,1536,1536,1536,1536,1523,1523,1523,1523,1523,1523,1523,1516,1516,1516,1509,1509,1509,1509,1509,0,0,0,0,0,0,0,0,887,887,887,887,889,889,889,887,887,887,885,885,882,880,880,878,878,880,880,880,880,885,889,894,894,896,896,898,0,0,0,0,0,0,1427,1427,1421,1415,1415,1415,1415,1415,1410,1410,1404,1404,1398,1398,1398,1392,1392,1392,1392,1387,1387,1387,1387,1381,1381,1376,1376,1376,1376,1370,1370,1370,1370,1370,1370,1370,1370,1365,1365,1359,1359,1354,1354,1354,1349,1349,1349,1343,1343,1343,1343,1338,1338,1333,1333,1333,1333,1328,1328,1322,1322,1322,1322,1317,1317,1312,1312,1312,1312,1307,1307,1307,1302,1302,1302,1297,1297,1292,1292,1292,1292,1288,1288,1288,1288,1288,1288,1288,1288,1283,1283,1278,1273,1273,1273,1268,1268,1268,1268,1268,1264,1264,1264,1259,1255,1255,1255,1250,1250,1250,1250,1250,1245,1241,1241,1236,1236,1236,1236,1236,1232,1232,1232,1232,1232,1227,1227,1227,1223,1223,1219,1219,1219,1219,1214,1214,1214,1214,1210,1210,1210,1210,1210,1206,1206,1202,1202,1202,1197,1197,1197,1197,1197,1193,1193,1189,1189,1185,1185,1185,1185,1181,1181,1181,1181,1181,1177,1177,1173,1173,1173,1169,1169,1169,1169,1169,1165,1165,1165,1165,1165,1165,1161,1161,1161,1157,1157,1157,1153,1153,1153,1153,1149,1149,1149,1149,1145,1145,1145,1141,1141,1138,1138,1138,1138,1134,1134,1134,1134,1134,1130,1130,1126,1123,1123,1123,1123,1119,1119,1119,1115,1115,1112,1112,0,0,0,0,0,0,0,0,0,0,0,0,0,0,0,0,0,0,0,0,0,0,0,0,0,0,0,0
0,0,0,0,0,0,0,0,0,0,0,0,0,0,1572,1572,1572,1572,1572,1572,1572,1572,1572,1564,1564,1564,1564,1564,1564,1564,1557,1557,1557,1557,1557,1557,1557,1557,1557,1557,1557,1557,1550,1550,1543,1543,1543,1543,1543,1543,1543,1543,1543,1543,1543,1543,1550,1550,1550,1543,1543,1543,1543,1543,1543,1543,1543,1543,1543,1543,1543,1543,1543,1543,1543,1543,1543,1543,1543,1543,1536,1536,1536,1536,1543,1543,1543,1543,1543,1550,1557,1564,1564,1579,1586,1601,1616,1616,1616,1616,1624,1624,1616,1616,1616,1609,1601,1601,1594,1594,1594,1594,1594,1594,1594,1594,1594,1579,1572,1572,1564,1557,1557,1557,1557,1557,1564,1564,1564,1564,1572,1572,1572,1572,1579,1579,1586,1586,1586,1594,1594,1594,1601,1601,1601,1601,1601,1609,1609,1616,1624,1624,1632,1632,1632,1632,1639,1639,1639,1639,1647,1647,1647,1655,1663,1663,1663,1663,1671,1671,1671,1671,1680,1680,1688,1696,1696,1696,1705,1705,1713,1713,1722,1722,1722,1731,1731,1731,1731,1739,1739,1739,1748,1757,1757,1757,1757,1757,1766,1766,1766,1766,1776,1776,1785,1785,1794,1794,1794,1794,1794,1794,1794,0,0,0,0,0,0,0,0,0,1063,1063,1060,1060,1057,1057,1054,1054,1054,1050,1050,1050,1050,1050,1050,1050,1057,1060,1063,1063,1063,1067,1067,1067,1070,1070,0,0,0,0,1696,1696,1688,1688,1688,1688,1688,1680,1680,1680,1671,1663,1663,1663,1663,1663,1655,1655,1655,1655,1655,1647,1647,1647,1639,1639,1639,1632,1632,1632,1632,1632,1624,1624,1624,1616,1616,1609,1609,1609,1601,1601,1601,1594,1594,1594,1586,1586,1586,1586,1579,1579,1579,1579,1572,1572,1572,1572,1564,1564,1564,1564,1557,1550,1550,1550,1550,1550,1550,1550,1550,1543,1543,1543,1543,1543,1536,1536,1536,1536,1523,1523,1523,1523,1523,1523,1523,1516,1516,1516,1509,1509,1509,1509,0,0,0,0,0,0,0,0,0,889,889,889,889,889,889,887,887,887,885,885,882,880,880,880,880,880,880,880,882,887,889,894,894,896,898,898,0,0,0,0,0,0,1433,1427,1421,1421,1421,1415,1415,1415,1415,1415,1410,1404,1404,1398,1398,1392,1392,1392,1392,1392,1392,1392,1387,1387,1381,1381,1376,1376,1376,1376,1376,1376,1370,1370,1370,1370,1370,1365,1365,1359,1359,1354,1354,1354,1349,1349,1349,1349,1343,1343,1343,1338,1338,1338,1333,1333,1333,1328,1328,1328,1322,1322,1322,1317,1317,1317,1312,1312,1312,1307,1307,1307,1302,1302,1302,1302,1297,1292,1292,1292,1292,1288,1288,1288,1288,1288,1288,1288,1288,1288,1288,1283,1273,1273,1273,1273,1268,1268,1268,1268,1264,1264,1264,1259,1255,1255,1255,1250,1250,1250,1250,1250,1245,1245,1241,1241,1236,1236,1236,1236,1232,1232,1232,1232,1232,1227,1227,1227,1223,1223,1219,1219,1219,1219,1214,1214,1214,1214,1210,1210,1210,1210,1210,1206,1206,1206,1202,1202,1202,1202,1197,1197,1197,1193,1189,1189,1185,1185,1185,1185,1185,1181,1181,1181,1181,1181,1181,1181,1177,1177,1177,1169,1169,1169,1169,1169,1169,1169,1169,1165,1165,1165,1165,1161,1161,1157,1157,1157,1157,1153,1153,1153,1153,1153,1149,1149,1149,1149,1145,1141,1141,1141,1138,1138,1138,1134,1134,1134,1134,1134,1134,1130,1126,1126,1123,1123,1123,1119,1119,1119,1115,1115,1112,1112,0,0,0,0,0,0,0,0,0,0,0,0,0,0,0,0,0,0,0,0,0,0,0,0,0,0,0,0
0,0,0,0,0,0,0,0,0,0,0,0,0,0,1572,1572,1572,1572,1572,1572,1572,1572,1572,1564,1564,1564,1564,1564,1564,1564,1564,1564,1564,1564,1564,1564,1564,1564,1557,1557,1557,1557,1550,1550,1550,1543,1543,1543,1543,1543,1543,1543,1550,1550,1543,1543,1550,1550,1550,1543,1543,1543,1543,1543,1543,1543,1543,1543,1543,1543,1543,1543,1543,1543,1543,1543,1543,1543,1543,1543,1543,1543,1543,1543,1543,1543,1543,1543,1543,1550,1557,1564,1564,1579,1586,1601,1609,1624,1616,1616,1624,1616,1616,1616,1616,1609,1601,1601,1594,1594,1594,1594,1594,1594,1594,1594,1594,1579,1572,1572,1564,1564,1564,1557,1557,1557,1564,1564,1564,1564,1572,1572,1572,1572,1579,1579,1586,1594,1594,1594,1594,1601,1601,1601,1601,1601,1601,1609,1609,1616,1624,1624,1632,1632,1632,1632,1639,1639,1639,1639,1639,1647,1647,1655,1663,1663,1663,1663,1671,1671,1671,1680,1680,1680,1688,1696,1696,1696,1705,1705,1713,1713,1722,1722,1722,1722,1722,1731,1731,1731,1739,1739,1748,1757,1757,1757,1757,1757,1766,1766,1766,1766,1776,1776,1785,1785,1794,1794,1794,1794,1794,1794,1794,0,0,0,0,0,0,0,0,0,0,1063,1063,1060,1060,1057,1054,1054,1054,1050,1050,1050,1050,1050,1050,1050,1057,1060,1063,1063,1063,1067,1067,1067,1070,1070,0,0,0,0,1696,1696,1688,1688,1688,1688,1688,1688,1680,1680,1671,1663,1663,1663,1663,1663,1655,1655,1655,1655,1655,1647,1647,1647,1639,1639,1639,1632,1632,1632,1632,1632,1624,1624,1624,1616,1616,1609,1609,1609,1601,1601,1601,1594,1594,1594,1594,1594,1586,1586,1586,1579,1579,1579,1572,1572,1572,1572,1564,1564,1564,1564,1557,1557,1557,1557,1557,1557,1557,1550,1550,1550,1543,1543,1543,1543,1536,1536,1536,1536,1523,1523,1523,1523,1523,1523,1523,1523,1516,1516,1509,1509,1509,1516,0,0,0,0,0,0,0,0,0,889,889,889,889,889,889,887,887,887,885,885,882,880,880,880,880,880,880,880,882,887,889,894,894,896,898,898,0,0,0,0,0,0,1433,1427,1421,1421,1421,1415,1415,1415,1415,1415,1410,1410,1404,1398,1398,1398,1398,1392,1392,1392,1392,1392,1392,1387,1381,1381,1381,1376,1376,1376,1376,1376,1376,1370,1370,1370,1370,1365,1365,1365,1359,1354,1354,1354,1349,1349,1349,1349,1349,1343,1343,1338,1338,1338,1333,1333,1333,1328,1328,1328,1328,1322,1322,1322,1317,1317,1317,1312,1312,1312,1307,1307,1307,1307,1302,1302,1297,1297,1292,1292,1292,1292,1288,1288,1288,1288,1288,1288,1288,1288,1283,1278,1278,1273,1273,1273,1268,1268,1268,1268,1268,1264,1264,1264,1259,1255,1255,1255,1250,1250,1250,1250,1245,1245,1245,1245,1241,1241,1236,1236,1236,1236,1232,1232,1232,1227,1227,1227,1227,1223,1223,1223,1219,1219,1219,1214,1214,1214,1210,1210,1210,1210,1210,1206,1206,1206,1202,1202,1202,1202,1197,1197,1197,1193,1189,1189,1185,1185,1185,1185,1185,1185,1185,1185,1181,1181,1181,1181,1177,1177,1177,1173,1169,1169,1169,1169,1169,1169,1169,1165,1165,1165,1165,1165,1161,1161,1157,1157,1157,1157,1153,1153,1153,1153,1149,1149,1149,1149,1145,1145,1141,1141,1138,1138,1138,1134,1134,1134,1134,1134,1134,1130,1126,1126,1123,1123,1123,1119,1119,1119,1115,1115,1112,1112,0,0,0,0,0,0,0,0,0,0,0,0,0,0,0,0,0,0,0,0,0,0,0,0,0,0,0,0
0,0,0,0,0,0,0,0,0,0,0,0,0,0,1572,1572,1572,1579,1572,1572,1572,1572,1572,1564,1564,1564,1564,1564,1564,1564,1564,1564,1564,1564,1564,1564,1564,1564,1564,1557,1557,1557,1557,1550,1550,1543,1543,1543,1543,1543,1543,1550,1550,1550,1550,1550,1550,1550,1550,1543,1543,1543,1543,1543,1543,1543,1543,1543,1543,1543,1543,1543,1543,1543,1543,1543,1543,1543,1543,1543,1543,1543,1543,1543,1543,1543,1543,1550,1550,1557,1564,1564,1572,1579,1586,1601,1609,1624,1624,1624,1624,1616,1616,1616,1616,1609,1601,1601,1601,1594,1594,1594,1594,1594,1594,1594,1586,1572,1572,1572,1564,1564,1564,1557,1557,1557,1564,1564,1564,1572,1572,1572,1572,1579,1579,1586,1586,1594,1594,1594,1594,1601,1601,1601,1601,1601,1609,1609,1616,1616,1624,1632,1632,1632,1632,1632,1639,1639,1639,1639,1639,1647,1647,1655,1663,1663,1663,1663,1671,1671,1680,1680,1688,1688,1688,1696,1696,1696,1705,1705,1713,1713,1713,1722,1722,1722,1722,1731,1731,1731,1731,1739,1748,1757,1757,1757,1757,1766,1766,1766,1766,1776,1776,1785,1785,1785,1794,1794,1794,1794,1794,1794,0,0,0,0,0,0,0,0,0,0,1067,1063,1063,1060,1060,1060,1057,1054,1050,1050,1050,1050,1050,1050,1050,1054,1057,1060,1063,1063,1063,1067,1067,1067,1070,1070,0,0,0,0,1696,1696,1688,1688,1688,1688,1688,1688,1680,1680,1671,1671,1663,1663,1663,1663,1655,1655,1655,1655,1655,1647,1647,1647,1639,1639,1639,1632,1632,1632,1632,1632,1624,1624,1624,1624,1616,1609,1609,1609,1609,1601,1601,1601,1594,1594,1594,1594,1586,1586,1586,1586,1586,1579,1572,1572,1572,1572,1564,1564,1564,1564,1557,1557,1557,1557,1557,1557,1557,1557,1557,1550,1550,1550,1543,1543,1543,1543,1536,1536,1523,1523,1523,1523,1523,1523,1523,1523,1516,1516,1516,1516,1509,1509,0,0,0,0,0,0,0,0,0,891,889,889,889,889,889,887,887,887,885,885,882,880,880,880,880,880,880,880,882,887,894,894,894,896,898,901,0,0,0,0,0,0,1433,1433,1421,1421,1421,1421,1415,1415,1415,1415,1415,1410,1404,1404,1404,1398,1398,1398,1398,1392,1392,1392,1392,1387,1387,1387,1381,1381,1381,1376,1376,1376,1376,1376,1370,1370,1370,1365,1365,1365,1359,1354,1354,1354,1354,1349,1349,1349,1349,1349,1343,1343,1338,1338,1338,1333,1333,1333,1328,1328,1328,1328,1328,1322,1322,1317,1317,1312,1312,1312,1312,1307,1307,1307,1307,1302,1302,1297,1297,1292,1292,1292,1288,1288,1288,1288,1288,1288,1288,1288,1283,1278,1278,1273,1273,1273,1273,1268,1268,1268,1268,1268,1264,1264,1259,1259,1255,1255,1255,1250,1250,1250,1245,1245,1245,1245,1241,1241,1236,1236,1236,1236,1236,1232,1232,1232,1227,1227,1227,1223,1223,1223,1223,1223,1219,1219,1219,1214,1214,1210,1210,1210,1210,1206,1206,1206,1206,1202,1202,1202,1197,1197,1197,1197,1197,1193,1189,1185,1185,1185,1185,1185,1185,1185,1185,1181,1181,1181,1181,1181,1177,1177,1173,1169,1169,1169,1169,1169,1169,1165,1165,1165,1165,1165,1165,1161,1161,1161,1157,1157,1153,1153,1153,1153,1153,1153,1149,1149,1145,1145,1145,1141,1138,1138,1138,1138,1134,1134,1134,1134,1134,1130,1130,1126,1126,1123,1123,1123,1119,1119,1115,1115,1112,1112,0,0,0,0,0,0,0,0,0,0,0,0,0,0,0,0,0,0,0,0,0,0,0,0,0,0,0,0
0,0,0,0,0,0,0,0,0,0,0,0,0,0,1579,1579,1579,1579,1572,1572,1572,1572,1572,1572,1564,1564,1564,1564,1564,1564,1564,1564,1572,1564,1564,1564,1564,1564,1564,1557,1557,1557,1557,1550,1550,1550,1550,1550,1543,1543,1543,1550,1550,1550,1550,1550,1550,1550,1550,1550,1543,1543,1543,1543,1543,1543,1550,1550,1550,1550,1550,1550,1550,1543,1543,1543,1543,1543,1543,1543,1543,1543,1543,1543,1543,1543,1543,1550,1550,1557,1564,1564,1572,1579,1579,1594,1609,1624,1624,1624,1624,1624,1616,1616,1616,1609,1609,1601,1601,1594,1594,1594,1594,1594,1594,1594,1586,1572,1572,1572,1572,1564,1564,1557,1557,1557,1564,1564,1564,1572,1572,1572,1572,1579,1579,1586,1586,1594,1594,1594,1594,1601,1601,1601,1601,1609,1609,1609,1624,1624,1624,1624,1632,1632,1632,1639,1639,1639,1639,1639,1647,1647,1647,1655,1663,1663,1663,1663,1671,1671,1680,1688,1688,1688,1688,1696,1696,1696,1705,1705,1713,1713,1713,1722,1722,1722,1722,1731,1731,1731,1731,1739,1748,1757,1757,1757,1757,1766,1766,1766,1776,1776,1776,1785,1785,1785,1794,1794,1794,1794,1794,1794,0,0,0,0,0,0,0,0,0,0,1067,1063,1063,1063,1060,1060,1057,1057,1050,1050,1050,1050,1050,1050,1054,1054,1057,1060,1063,1063,1067,1067,1070,1070,1070,1073,0,0,0,0,1696,1696,1688,1688,1688,1688,1688,1688,1688,1680,1671,1671,1663,1663,1663,1663,1655,1655,1655,1655,1655,1647,1647,1647,1639,1639,1639,1632,1632,1632,1632,1632,1632,1624,1624,1624,1616,1616,1609,1609,1609,1601,1601,1601,1594,1594,1594,1594,1594,1586,1586,1586,1586,1579,1579,1572,1572,1572,1572,1564,1564,1564,1564,1564,1564,1564,1564,1564,1557,1557,1557,1550,1550,1550,1543,1543,1543,1543,1543,1536,1529,1529,1529,1529,1523,1523,1523,1523,1516,1516,1516,1516,1509,1509,0,0,0,0,0,0,0,0,0,894,891,891,889,889,889,887,887,887,885,885,882,880,880,880,880,880,880,880,882,889,894,896,896,896,898,901,906,913,0,0,0,0,1433,1427,1421,1421,1421,1421,1415,1415,1415,1415,1415,1410,1410,1410,1404,1398,1398,1398,1398,1392,1392,1392,1392,1392,1392,1392,1387,1381,1381,1376,1376,1376,1376,1376,1370,1370,1370,1370,1370,1365,1365,1359,1359,1354,1354,1354,1349,1349,1349,1349,1343,1343,1338,1338,1338,1333,1333,1333,1333,1328,1328,1328,1328,1322,1322,1322,1317,1317,1312,1312,1312,1312,1307,1307,1307,1307,1302,1297,1297,1297,1292,1292,1292,1292,1292,1288,1288,1288,1288,1288,1283,1278,1278,1273,1273,1273,1273,1273,1268,1268,1268,1268,1264,1264,1264,1259,1259,1255,1255,1255,1250,1250,1250,1250,1245,1245,1245,1245,1241,1236,1236,1236,1236,1236,1232,1232,1227,1227,1227,1227,1223,1223,1223,1223,1219,1219,1219,1214,1214,1210,1210,1214,1210,1206,1206,1206,1206,1206,1202,1202,1202,1197,1197,1197,1197,1197,1197,1189,1189,1189,1189,1185,1185,1185,1185,1185,1181,1181,1181,1181,1177,1177,1173,1173,1173,1169,1169,1169,1169,1169,1165,1165,1165,1165,1165,1161,1161,1161,1161,1161,1157,1157,1153,1153,1153,1153,1149,1149,1149,1145,1145,1145,1141,1141,1138,1138,1138,1138,1134,1134,1134,1134,1130,1130,1126,1126,1126,1123,1123,1119,1119,1119,1115,1115,0,0,0,0,0,0,0,0,0,0,0,0,0,0,0,0,0,0,0,0,0,0,0,0,0,0,0,0
0,0,0,0,0,0,0,0,0,0,0,0,0,0,1579,1579,1579,1579,1579,1572,1572,1572,1572,1572,1564,1564,1564,1564,1564,1564,1572,1572,1572,1564,1564,1564,1564,1564,1564,1564,1557,1557,1557,1550,1550,1550,1550,1550,1550,1550,1550,1550,1550,1550,1550,1550,1550,1550,1550,1550,1543,1543,1543,1543,1543,1543,1550,1550,1550,1550,1550,1550,1550,1550,1543,1543,1550,1550,1543,1543,1550,1550,1550,1543,1543,1550,1550,1557,1557,1557,1564,1564,1572,1579,1579,1594,1609,1624,1624,1632,1632,1624,1624,1624,1616,1616,1609,1609,1601,1594,1594,1601,1594,1594,1594,1594,1594,1586,1579,1572,1572,1564,1564,1564,1557,1557,1564,1564,1572,1572,1572,1572,1572,1579,1586,1586,1586,1594,1594,1594,1594,1601,1601,1609,1609,1609,1616,1616,1624,1624,1624,1624,1632,1632,1632,1639,1639,1639,1639,1647,1647,1655,1655,1655,1663,1663,1663,1671,1671,1680,1680,1688,1688,1688,1688,1696,1696,1696,1696,1705,1713,1713,1722,1722,1722,1722,1722,1731,1731,1731,1731,1739,1748,1757,1757,1757,1766,1766,1766,1766,1776,1776,1785,1785,1785,1785,1794,1794,1794,1794,1794,1794,1804,0,0,0,0,0,0,0,0,0,1063,1063,1063,1063,1060,1060,1057,1057,1054,1050,1050,1050,1050,1050,1054,1054,1057,1060,1063,1063,1067,1067,1070,1070,1073,1073,0,0,0,0,1696,1696,1688,1688,1688,1688,1688,1688,1688,1680,1680,1671,1671,1663,1663,1663,1663,1663,1655,1655,1655,1647,1647,1647,1647,1639,1639,1632,1632,1632,1632,1632,1632,1632,1624,1624,1624,1616,1616,1616,1609,1601,1601,1601,1601,1594,1594,1594,1594,1594,1594,1586,1586,1586,1579,1579,1572,1572,1572,1564,1564,1564,1564,1564,1564,1564,1564,1564,1564,1564,1557,1550,1550,1550,1550,1543,1543,1543,1543,1536,1536,1523,1523,1529,1523,1523,1523,1523,1516,1516,1516,1516,1509,1509,0,0,0,0,0,0,0,0,896,896,894,891,891,889,889,887,887,887,885,885,882,880,880,880,880,880,880,882,882,889,896,896,896,898,901,906,906,913,0,0,0,0,1433,1427,1427,1421,1421,1421,1415,1415,1415,1415,1415,1415,1415,1410,1410,1404,1404,1398,1398,1398,1392,1392,1392,1392,1392,1392,1387,1387,1387,1381,1376,1376,1376,1376,1370,1370,1370,1370,1370,1370,1365,1359,1359,1354,1354,1354,1349,1349,1349,1349,1343,1343,1338,1338,1338,1333,1333,1333,1333,1333,1328,1328,1328,1328,1322,1322,1317,1317,1317,1317,1312,1312,1307,1307,1307,1307,1302,1302,1297,1297,1297,1292,1292,1292,1292,1292,1288,1288,1288,1288,1283,1283,1278,1278,1273,1273,1273,1273,1273,1268,1268,1268,1268,1268,1264,1264,1259,1255,1255,1255,1255,1250,1250,1250,1250,1250,1250,1245,1241,1241,1236,1236,1236,1236,1236,1232,1232,1232,1227,1227,1227,1223,1223,1223,1223,1223,1219,1219,1219,1210,1210,1214,1210,1210,1210,1210,1206,1206,1202,1202,1202,1197,1197,1197,1197,1197,1197,1189,1189,1189,1189,1189,1185,1185,1185,1185,1185,1181,1181,1181,1177,1177,1173,1173,1173,1169,1169,1169,1169,1169,1169,1165,1165,1165,1165,1165,1161,1161,1161,1161,1157,1157,1153,1153,1153,1153,1149,1149,1149,1145,1145,1145,1141,1141,1138,1138,1138,1138,1134,1134,1134,1134,1134,1130,1126,1126,1126,1126,1123,1123,1119,1119,1119,1119,0,0,0,0,0,0,0,0,0,0,0,0,0,0,0,0,0,0,0,0,0,0,0,0,0,0,0,0
0,0,0,0,0,0,0,0,0,0,0,0,0,0,1586,1579,1579,1579,1579,1572,1572,1572,1572,1572,1564,1564,1564,1564,1564,1564,1572,1572,1572,1572,1572,1572,1572,1564,1564,1564,1564,1564,1557,1557,1557,1557,1550,1550,1550,1550,1550,1550,1550,1550,1557,1557,1557,1557,1550,1550,1543,1543,1543,1543,1543,1543,1550,1550,1550,1550,1550,1550,1550,1550,1543,1543,1550,1550,1543,1543,1550,1550,1550,1550,1550,1557,1557,1557,1557,1557,1564,1564,1572,1572,1572,1594,1601,1616,1624,1632,1632,1632,1624,1624,1624,1624,1616,1609,1601,1601,1601,1601,1594,1594,1594,1586,1586,1586,1579,1579,1572,1564,1564,1564,1564,1564,1564,1564,1572,1572,1572,1572,1572,1572,1579,1586,1586,1586,1594,1594,1601,1601,1601,1609,1609,1609,1616,1616,1624,1624,1632,1632,1632,1632,1632,1639,1639,1647,1647,1647,1647,1655,1655,1655,1663,1663,1663,1671,1671,1680,1680,1688,1688,1688,1688,1696,1696,1696,1696,1705,1713,1722,1722,1722,1722,1722,1722,1731,1731,1731,1731,1739,1757,1757,1757,1766,1766,1766,1766,1766,1776,1776,1785,1785,1785,1785,1794,1794,1794,1794,1804,1804,1804,0,0,0,0,0,0,0,0,0,1063,1063,1063,1063,1060,1060,1060,1060,1054,1054,1054,1050,1050,1050,1054,1054,1057,1060,1063,1063,1067,1067,1070,1073,1073,1077,1077,0,0,0,1696,1696,1688,1688,1688,1688,1688,1688,1688,1680,1680,1671,1671,1663,1663,1663,1663,1663,1663,1655,1655,1655,1655,1647,1647,1639,1639,1632,1632,1632,1632,1632,1632,1632,1632,1624,1624,1624,1616,1616,1609,1601,1601,1601,1601,1594,1594,1594,1594,1594,1594,1586,1586,1586,1579,1579,1572,1572,1572,1572,1564,1564,1564,1564,1564,1564,1564,1572,1564,1564,1564,1550,1550,1550,1550,1550,1543,1543,1543,1536,1529,1523,1523,1529,1523,1523,1523,1523,1516,1516,1516,1516,1509,1509,0,0,0,0,0,0,0,0,896,896,894,894,891,889,889,887,887,887,885,885,882,882,880,880,880,882,882,882,885,891,896,896,898,898,903,906,906,0,0,0,0,0,1433,1433,1427,1427,1421,1421,1421,1421,1421,1421,1415,1415,1415,1415,1415,1410,1404,1404,1404,1398,1398,1392,1392,1392,1392,1392,1392,1387,1387,1387,1381,1381,1376,1376,1370,1370,1370,1370,1370,1370,1370,1365,1359,1354,1354,1354,1349,1349,1349,1349,1343,1343,1338,1338,1338,1333,1333,1333,1333,1333,1328,1328,1328,1328,1322,1322,1322,1317,1317,1317,1312,1312,1312,1312,1307,1307,1307,1302,1302,1302,1297,1297,1292,1292,1292,1292,1288,1288,1288,1288,1283,1283,1283,1283,1278,1278,1273,1273,1273,1273,1268,1268,1268,1268,1264,1264,1259,1255,1255,1255,1255,1250,1250,1250,1250,1250,1250,1250,1245,1245,1236,1236,1236,1236,1236,1232,1232,1232,1232,1227,1227,1227,1227,1227,1223,1223,1223,1219,1219,1214,1214,1214,1214,1210,1210,1210,1210,1206,1206,1206,1202,1202,1202,1202,1197,1197,1197,1193,1189,1189,1189,1189,1189,1185,1185,1185,1185,1185,1185,1181,1181,1177,1177,1173,1173,1173,1169,1169,1169,1169,1169,1165,1165,1165,1165,1165,1165,1165,1161,1161,1157,1157,1153,1153,1153,1153,1149,1149,1149,1149,1145,1145,1141,1141,1138,1138,1138,1138,1138,1134,1134,1134,1134,1130,1130,1126,1126,1126,1123,1123,1119,1119,1119,1119,0,0,0,0,0,0,0,0,0,0,0,0,0,0,0,0,0,0,0,0,0,0,0,0,0,0,0,0
0,0,0,0,0,0,0,0,0,0,0,0,0,0,1586,1586,1586,1579,1579,1579,1579,1572,1572,1572,1564,1564,1564,1564,1564,1572,1572,1572,1572,1572,1572,1572,1572,1572,1572,1564,1564,1564,1564,1564,1564,1557,1557,1550,1550,1550,1550,1550,1557,1557,1557,1557,1557,1557,1557,1550,1550,1550,1550,1550,1550,1550,1550,1550,1550,1550,1550,1550,1550,1550,1550,1550,1550,1550,1550,1550,1550,1557,1557,1550,1550,1557,1557,1557,1557,1557,1564,1564,1572,1572,1572,1586,1594,1601,1624,1632,1632,1632,1624,1624,1624,1624,1624,1609,1609,1601,1601,1601,1594,1594,1594,1586,1586,1586,1579,1579,1572,1572,1572,1564,1564,1564,1564,1564,1572,1572,1572,1572,1572,1572,1579,1586,1586,1586,1594,1594,1601,1601,1601,1609,1616,1616,1616,1616,1624,1624,1632,1632,1632,1632,1639,1639,1639,1647,1647,1647,1655,1655,1655,1663,1663,1663,1663,1671,1671,1680,1680,1688,1688,1688,1688,1688,1696,1696,1696,1705,1713,1722,1722,1722,1722,1722,1731,1731,1731,1731,1731,1739,1757,1757,1757,1766,1766,1766,1766,1766,1776,1785,1785,1785,1785,1794,1794,1794,1794,1794,1804,1804,1804,0,0,0,0,0,0,0,0,0,1067,1067,1063,1063,1063,1063,1060,1060,1057,1054,1054,1050,1050,1054,1054,1054,1060,1060,1063,1063,1063,1067,1073,1073,1077,1077,0,0,0,0,1696,1696,1688,1688,1688,1688,1688,1688,1688,1688,1680,1680,1671,1671,1671,1663,1663,1663,1663,1655,1655,1655,1655,1655,1647,1639,1639,1639,1632,1632,1632,1632,1632,1632,1632,1624,1624,1624,1624,1616,1616,1609,1601,1601,1601,1601,1601,1601,1594,1594,1594,1586,1586,1586,1579,1579,1572,1572,1572,1572,1564,1564,1564,1564,1564,1564,1564,1572,1572,1564,1564,1550,1550,1550,1550,1550,1550,1550,1543,1536,1529,1529,1529,1529,1523,1523,1523,1523,1516,1516,1516,1516,1509,1509,0,0,0,0,0,0,0,896,896,896,896,896,891,891,889,887,887,887,887,885,882,882,882,882,882,882,882,885,889,894,896,896,898,901,901,906,906,0,0,0,0,1439,1433,1433,1427,1427,1427,1421,1421,1421,1421,1421,1421,1415,1415,1415,1415,1410,1410,1404,1404,1398,1398,1398,1392,1392,1392,1392,1392,1392,1392,1387,1387,1381,1376,1376,1376,1370,1370,1370,1370,1370,1370,1365,1365,1359,1354,1354,1349,1349,1349,1349,1349,1343,1343,1343,1338,1338,1333,1333,1333,1333,1333,1328,1328,1328,1328,1328,1322,1322,1317,1317,1317,1312,1312,1312,1307,1307,1307,1302,1302,1302,1302,1297,1292,1292,1292,1292,1292,1292,1288,1288,1288,1288,1283,1283,1283,1278,1278,1273,1273,1273,1273,1268,1268,1268,1268,1264,1264,1259,1255,1255,1255,1255,1255,1255,1250,1250,1250,1250,1250,1250,1236,1236,1236,1236,1236,1236,1232,1232,1232,1227,1227,1227,1227,1227,1227,1227,1227,1223,1223,1214,1214,1214,1214,1210,1210,1210,1210,1206,1206,1206,1202,1202,1202,1202,1202,1202,1197,1197,1193,1193,1193,1193,1189,1189,1185,1185,1185,1185,1185,1181,1181,1181,1177,1177,1173,1173,1173,1169,1169,1169,1169,1169,1169,1169,1165,1165,1165,1165,1161,1161,1157,1153,1153,1153,1153,1153,1153,1153,1149,1149,1149,1145,1145,1141,1141,1138,1138,1138,1138,1134,1134,1134,1134,1130,1130,1126,1126,1126,1123,1123,1119,1119,1119,1119,0,0,0,0,0,0,0,0,0,0,0,0,0,0,0,0,0,0,0,0,0,0,0,0,0,0,0,0
0,0,0,0,0,0,0,0,0,0,0,0,0,0,1594,1586,1586,1579,1579,1579,1579,1572,1572,1572,1572,1572,1564,1564,1572,1572,1572,1572,1572,1572,1572,1572,1572,1572,1572,1564,1564,1564,1564,1564,1564,1564,1564,1557,1557,1557,1557,1557,1557,1557,1557,1557,1557,1557,1557,1557,1550,1550,1550,1550,1550,1543,1543,1550,1550,1550,1550,1550,1550,1550,1543,1543,1550,1550,1550,1550,1557,1557,1557,1550,1550,1557,1557,1557,1557,1557,1564,1564,1572,1572,1572,1579,1586,1601,1993,1981,1981,1970,1970,1959,1624,1624,1624,1616,1609,1601,1586,1586,1594,1586,1586,1586,1586,1586,1586,1579,1579,1579,1572,1572,1564,1564,1564,1564,1572,1572,1572,1572,1572,1572,1579,1586,1586,1586,1594,1594,1601,1601,1601,1616,1616,1616,1616,1624,1624,1624,1632,1632,1632,1632,1639,1639,1647,1647,1647,1655,1655,1655,1655,1663,1663,1663,1663,1671,1671,1680,1680,1688,1688,1688,1688,1688,1696,1696,1705,1705,1713,1722,1722,1722,1722,1722,1731,1731,1731,1731,1731,1748,1757,1757,1757,1766,1766,1766,1776,1776,1776,1785,1785,1785,1785,1794,1794,1794,1804,1804,1804,1804,1813,1813,0,0,0,0,0,0,0,0,1067,1067,1063,1063,1063,1063,1063,1057,1057,1054,1054,1050,1050,1054,1054,1057,1060,1060,1063,1063,1063,1067,1073,1073,1077,1077,0,0,0,0,1696,1696,1696,1696,1696,1696,1688,1688,1688,1688,1688,1680,1680,1671,1671,1671,1663,1663,1663,1663,1655,1655,1655,1655,1655,1647,1639,1639,1639,1632,1632,1632,1632,1632,1632,1624,1624,1624,1624,1624,1616,1609,1609,1609,1601,1601,1601,1601,1594,1594,1594,1586,1586,1586,1586,1579,1572,1572,1572,1572,1572,1572,1572,1572,1564,1564,1564,1572,1572,1564,1564,1564,1564,1557,1550,1550,1550,1550,1543,1536,1529,1529,1529,1529,1523,1523,1523,1523,1523,1516,1516,1516,1509,1509,0,0,0,0,0,0,0,896,896,896,896,896,896,891,889,887,887,887,887,885,885,882,882,882,882,885,885,887,889,894,896,898,898,901,901,0,0,0,0,0,0,1433,1433,1433,1433,1427,1427,1421,1421,1421,1421,1421,1421,1415,1415,1415,1415,1410,1410,1404,1404,1398,1398,1398,1392,1392,1392,1392,1392,1392,1392,1387,1387,1381,1381,1376,1376,1376,1376,1370,1370,1370,1370,1370,1365,1365,1354,1354,1354,1354,1354,1349,1349,1349,1343,1343,1338,1338,1333,1333,1333,1333,1333,1328,1328,1328,1328,1328,1322,1322,1322,1317,1317,1317,1312,1312,1307,1307,1307,1307,1302,1302,1302,1302,1297,1297,1292,1292,1292,1292,1288,1288,1288,1288,1283,1283,1283,1283,1278,1278,1273,1273,1273,1268,1268,1268,1268,1264,1264,1259,1259,1255,1255,1255,1255,1255,1250,1250,1255,1250,1250,1250,1236,1236,1236,1236,1236,1236,1232,1232,1232,1227,1227,1227,1227,1227,1227,1227,1227,1227,1223,1223,1219,1219,1214,1214,1214,1214,1210,1210,1206,1206,1202,1202,1202,1202,1202,1202,1202,1197,1193,1193,1193,1189,1189,1189,1189,1185,1185,1185,1185,1181,1181,1181,1177,1177,1173,1173,1173,1169,1169,1169,1169,1169,1169,1169,1165,1165,1165,1165,1165,1161,1161,1153,1153,1153,1153,1153,1153,1153,1149,1149,1149,1149,1145,1145,1141,1138,1138,1138,1138,1134,1134,1134,1134,1130,1130,1130,1126,1126,1123,1123,1123,1119,1119,1119,0,0,0,0,0,0,0,0,0,0,0,0,0,0,0,0,0,0,0,0,0,0,0,0,0,0,0,0
0,0,0,0,0,0,0,0,0,0,0,0,0,0,1594,1586,1586,1579,1579,1579,1579,1579,1572,1572,1572,1572,1572,1572,1572,1572,1572,1572,1572,1572,1572,1572,1572,1572,1572,1564,1564,1564,1564,1564,1564,1564,1564,1564,1557,1557,1557,1557,1557,1557,1557,1557,1564,1564,1564,1557,1550,1550,1550,1550,1550,1543,1543,1550,1550,1550,1550,1550,1550,1550,1543,1543,1557,1557,1557,1557,1557,1557,1557,1550,1550,1557,1557,1557,1557,1557,1557,1564,1564,1572,1572,1572,1579,1981,1981,1970,1970,1970,1970,1959,1959,1936,1624,1624,1609,1601,1586,1586,1594,1586,1586,1572,1572,1586,1586,1579,1579,1579,1572,1572,1564,1564,1572,1572,1572,1572,1572,1572,1572,1572,1579,1586,1586,1586,1594,1594,1601,1601,1609,1616,1616,1616,1624,1624,1624,1632,1632,1632,1632,1639,1639,1639,1647,1647,1655,1655,1655,1655,1655,1663,1663,1663,1663,1671,1680,1680,1680,1688,1688,1688,1688,1696,1696,1705,1705,1713,1713,1713,1722,1722,1722,1722,1731,1731,1731,1731,1731,1748,1757,1757,1757,1757,1766,1766,1776,1776,1785,1785,1785,1794,1794,1794,1794,1804,1804,1804,1804,1804,1813,1813,0,0,0,0,0,0,0,0,1067,1067,1063,1063,1063,1063,1063,1057,1057,1054,1054,1054,1054,1054,1054,1057,1060,1060,1063,1063,1063,1070,1073,1077,1077,1077,0,0,0,0,1696,1696,1696,1696,1696,1696,1696,1696,1696,1688,1688,1688,1680,1680,1671,1671,1663,1663,1663,1663,1655,1655,1655,1655,1655,1647,1647,1639,1639,1639,1632,1632,1632,1632,1632,1624,1624,1624,1624,1624,1616,1609,1609,1609,1601,1601,1601,1601,1601,1594,1594,1586,1586,1594,1586,1586,1586,1579,1579,1572,1572,1572,1572,1572,1564,1564,1564,1572,1572,1572,1572,1564,1564,1564,1557,1557,1550,1550,1543,1543,1536,1536,1529,1529,1529,1523,1523,1523,1523,1516,1516,1509,1509,1509,0,0,0,0,0,0,0,898,898,898,896,896,896,891,889,889,887,887,887,885,885,882,882,882,885,885,887,887,894,894,896,898,898,901,901,0,0,0,0,0,0,1433,1433,1433,1433,1427,1427,1427,1421,1421,1421,1421,1421,1415,1415,1415,1415,1415,1410,1410,1404,1404,1398,1398,1392,1392,1392,1392,1392,1392,1392,1392,1387,1381,1381,1376,1376,1376,1376,1376,1370,1370,1370,1370,1370,1365,1365,1359,1354,1354,1354,1349,1349,1349,1349,1343,1343,1338,1338,1338,1333,1333,1333,1333,1333,1328,1328,1328,1328,1328,1322,1322,1317,1317,1312,1312,1312,1312,1307,1307,1307,1307,1302,1302,1297,1297,1297,1297,1292,1292,1292,1288,1288,1288,1288,1283,1283,1283,1283,1278,1273,1273,1273,1268,1268,1268,1268,1264,1264,1264,1259,1255,1255,1255,1255,1255,1250,1250,1255,1250,1250,1250,1250,1241,1236,1236,1236,1236,1232,1232,1232,1232,1232,1227,1227,1227,1227,1227,1227,1227,1227,1223,1219,1219,1214,1214,1214,1214,1210,1210,1210,1206,1202,1202,1202,1202,1202,1202,1202,1197,1193,1193,1193,1189,1189,1189,1189,1185,1185,1185,1185,1181,1181,1181,1181,1177,1177,1173,1173,1173,1173,1169,1169,1169,1169,1169,1169,1169,1165,1165,1165,1161,1161,1153,1153,1153,1153,1153,1153,1153,1149,1149,1149,1149,1149,1145,1141,1141,1138,1138,1138,1138,1134,1134,1134,1134,1134,1130,1130,1130,1126,1126,1123,1123,1119,1119,0,0,0,0,0,0,0,0,0,0,0,0,0,0,0,0,0,0,0,0,0,0,0,0,0,0,0,0
0,0,0,0,0,0,0,0,0,0,0,0,0,0,1594,1586,1586,1579,1579,1579,1579,1579,1572,1572,1572,1572,1572,1572,1572,1572,1572,1572,1572,1572,1572,1572,1572,1572,1564,1564,1564,1564,1564,1564,1564,1564,1564,1564,1557,1557,1557,1557,1557,1557,1557,1564,1564,1564,1564,1557,1557,1550,1550,1550,1550,1543,1543,1550,1550,1550,1550,1550,1550,1550,1550,1550,1557,1557,1557,1557,1557,1557,1557,1550,1550,1550,1557,1557,1557,1557,1557,1564,1564,1572,1572,1572,1572,1572,1981,1970,1970,1970,1959,1947,1947,1926,1655,1647,1616,1616,1647,1647,1647,1915,1904,1572,1572,1586,1594,1586,1579,1579,1579,1572,1572,1572,1572,1572,1572,1572,1572,1572,1572,1572,1586,1586,1586,1594,1594,1594,1601,1601,1609,1616,1616,1616,1624,1624,1624,1632,1632,1632,1632,1639,1639,1647,1647,1655,1655,1655,1655,1663,1663,1663,1663,1663,1663,1671,1680,1680,1688,1688,1688,1688,1688,1696,1696,1705,1705,1713,1713,1713,1722,1722,1722,1722,1731,1731,1731,1731,1731,1739,1757,1757,1757,1757,1766,1766,1776,1776,1785,1785,1785,1785,1794,1794,1794,1804,1804,1804,1804,1804,1813,1813,0,0,0,0,0,0,0,0,1067,1067,1063,1063,1063,1063,1063,1060,1057,1057,1054,1054,1054,1054,1057,1057,1060,1060,1063,1063,1063,1070,1073,1077,1077,1077,1077,0,0,0,1705,1705,1696,1696,1696,1696,1696,1696,1696,1688,1688,1688,1680,1680,1680,1671,1671,1663,1663,1663,1663,1663,1655,1655,1655,1647,1647,1647,1639,1639,1632,1632,1632,1632,1632,1624,1624,1624,1624,1624,1616,1609,1609,1609,1609,1601,1601,1601,1601,1594,1594,1594,1594,1594,1594,1586,1586,1579,1579,1572,1572,1572,1572,1572,1572,1564,1564,1572,1572,1572,1572,1564,1564,1564,1557,1557,1550,1550,1543,1543,1543,1536,1536,1536,1529,1529,1529,1523,1523,1523,1516,1509,1509,1509,0,0,0,0,0,0,0,898,898,898,898,896,896,894,889,889,887,887,887,887,885,885,885,885,885,887,887,889,894,894,896,898,901,901,903,0,0,0,0,0,0,1439,1433,1433,1433,1433,1433,1427,1427,1421,1421,1421,1421,1415,1415,1415,1415,1415,1415,1410,1410,1404,1398,1398,1398,1392,1392,1392,1392,1392,1392,1392,1387,1381,1381,1376,1376,1376,1376,1376,1370,1370,1370,1370,1370,1370,1365,1359,1354,1354,1354,1354,1354,1349,1349,1349,1343,1343,1338,1338,1338,1338,1333,1333,1333,1333,1328,1328,1328,1328,1328,1322,1322,1322,1317,1317,1312,1312,1312,1307,1307,1307,1307,1302,1302,1297,1297,1297,1297,1292,1292,1292,1288,1288,1288,1283,1283,1283,1283,1278,1273,1273,1273,1268,1268,1268,1268,1264,1264,1264,1259,1255,1255,1255,1255,1255,1255,1255,1255,1250,1250,1250,1250,1250,1241,1241,1236,1236,1236,1236,1232,1232,1232,1227,1227,1227,1227,1227,1227,1227,1227,1223,1219,1219,1219,1214,1214,1214,1210,1206,1206,1206,1202,1202,1202,1202,1202,1202,1197,1197,1197,1193,1193,1189,1189,1189,1189,1185,1185,1185,1185,1181,1181,1181,1181,1177,1177,1173,1173,1173,1173,1173,1169,1169,1169,1169,1169,1169,1165,1165,1165,1161,1161,1157,1153,1153,1153,1153,1153,1153,1153,1149,1149,1149,1149,1149,1145,1141,1141,1141,1138,1138,1138,1134,1134,1134,1134,1134,1130,1130,1126,1126,1123,1123,1123,1123,0,0,0,0,0,0,0,0,0,0,0,0,0,0,0,0,0,0,0,0,0,0,0,0,0,0,0,0
0,0,0,0,0,0,0,0,0,0,0,0,0,0,1594,1594,1594,1586,1586,1586,1586,1579,1572,1572,1572,1572,1572,1572,1572,1572,1572,1572,1572,1572,1572,1572,1572,1572,1564,1564,1564,1564,1564,1564,1564,1572,1572,1564,1564,1564,1557,1557,1564,1564,1564,1564,1564,1564,1564,1557,1557,1557,1557,1557,1557,1550,1550,1557,1550,1550,1550,1550,1550,1550,1550,1550,1557,1557,1557,1557,1557,1557,1557,1550,1550,1550,1557,1557,1557,1557,1564,1564,1564,1572,1572,1572,1572,1572,1970,1970,1959,1959,1959,1936,1926,1915,1655,1655,1894,1894,1647,1647,1647,1894,1894,1894,1586,1586,1594,1594,1586,1579,1579,1572,1572,1572,1572,1572,1572,1572,1572,1572,1572,1572,1586,1586,1594,1594,1601,1601,1601,1601,1609,1616,1616,1616,1624,1624,1624,1632,1632,1632,1632,1639,1639,1647,1647,1655,1655,1655,1655,1663,1663,1663,1663,1671,1680,1680,1680,1680,1688,1688,1688,1696,1696,1696,1705,1705,1713,1713,1722,1731,1731,1731,1731,1731,1731,1731,1731,1731,1731,1739,1757,1757,1757,1757,1766,1766,1776,1776,1785,1785,1785,1785,1794,1794,1794,1804,1804,1804,1804,1813,1813,1813,0,0,0,0,0,0,0,0,1070,1067,1063,1063,1063,1063,1063,1060,1057,1057,1057,1054,1054,1057,1057,1057,1060,1063,1063,1063,1063,1073,1077,1077,1077,1077,1077,0,0,0,0,1705,1705,1696,1696,1696,1696,1696,1696,1696,1688,1688,1688,1680,1680,1680,1671,1671,1671,1663,1663,1663,1663,1655,1655,1655,1647,1647,1647,1647,1639,1632,1632,1632,1632,1632,1632,1624,1624,1624,1616,1616,1616,1609,1609,1609,1609,1601,1601,1601,1594,1594,1594,1594,1594,1586,1586,1579,1579,1572,1572,1572,1572,1572,1572,1572,1572,1572,1572,1572,1572,1564,1564,1564,1557,1557,1550,1550,1550,1543,1543,1536,1536,1536,1536,1529,1529,1529,1523,1523,1523,1516,1509,1509,0,0,0,0,0,0,0,898,898,898,898,898,894,894,891,889,887,887,887,887,887,885,885,885,887,887,887,889,894,894,896,898,901,901,903,0,0,0,0,0,1427,1427,1433,1433,1439,1439,1433,1433,1427,1427,1421,1421,1421,1415,1415,1415,1415,1415,1415,1410,1410,1410,1404,1398,1398,1392,1392,1392,1392,1392,1392,1392,1392,1387,1381,1376,1376,1376,1376,1376,1376,1376,1370,1370,1370,1370,1365,1359,1354,1354,1354,1354,1354,1354,1354,1349,1349,1343,1343,1338,1338,1338,1333,1333,1333,1333,1333,1328,1328,1328,1328,1328,1322,1322,1322,1322,1317,1312,1312,1312,1307,1307,1307,1307,1302,1297,1297,1297,1297,1292,1292,1292,1292,1288,1288,1288,1283,1283,1283,1283,1273,1273,1273,1268,1268,1268,1268,1268,1264,1264,1259,1259,1259,1255,1255,1255,1255,1255,1255,1250,1250,1250,1250,1250,1241,1241,1241,1236,1236,1236,1232,1232,1232,1232,1232,1232,1232,1232,1232,1232,1227,1223,1223,1219,1219,1214,1214,1214,1210,1206,1206,1206,1202,1202,1202,1202,1202,1202,1197,1197,1197,1193,1193,1193,1193,1189,1189,1189,1185,1185,1185,1181,1181,1181,1181,1177,1177,1177,1177,1173,1173,1173,1173,1173,1169,1169,1169,1169,1165,1165,1165,1161,1161,1157,1153,1153,1153,1153,1153,1153,1153,1149,1149,1149,1149,1149,1145,1145,1141,1138,1138,1138,1138,1138,1138,1134,1134,1134,1130,1130,1126,1126,1126,1123,1123,1123,0,0,0,0,0,0,0,0,0,0,0,0,0,0,0,0,0,0,0,0,0,0,0,0,0,0,0,0
0,0,0,0,0,0,0,0,0,0,0,0,0,0,1594,1594,1594,1586,1586,1586,1586,1579,1579,1572,1572,1572,1572,1572,1572,1579,1572,1572,1579,1572,1572,1572,1572,1572,1572,1564,1564,1572,1572,1572,1572,1572,1572,1564,1564,1564,1564,1564,1564,1564,1564,1564,1572,1564,1564,1564,1564,1564,1557,1557,1557,1557,1557,1557,1557,1557,1550,1550,1550,1550,1557,1557,1557,1557,1557,1557,1557,1557,1557,1557,1557,1557,1557,1564,1564,1564,1564,1564,1572,1572,1572,1572,1572,1579,1586,1586,1959,1947,1947,1915,1904,1894,1894,1894,1883,1883,1883,1883,1883,1894,1894,1894,1904,1601,1601,1601,1594,1586,1579,1579,1572,1572,1572,1572,1572,1572,1572,1572,1572,1579,1586,1586,1594,1594,1601,1601,1601,1609,1609,1616,1616,1616,1624,1624,1624,1632,1632,1632,1639,1639,1639,1647,1647,1647,1655,1655,1655,1663,1663,1663,1671,1671,1680,1680,1688,1688,1688,1688,1696,1696,1696,1696,1705,1713,1713,1713,1722,1722,1722,1731,1731,1731,1731,1731,1731,1739,1739,1748,1757,1757,1757,1757,1766,1766,1776,1776,1785,1785,1785,1794,1794,1794,1794,1804,1804,1813,1813,1813,1823,0,0,0,0,0,0,0,0,0,1073,1070,1067,1067,1063,1063,1063,1060,1060,1057,1057,1057,1057,1057,1057,1057,1060,1063,1063,1063,1070,1073,1077,1077,1077,1077,1077,0,0,0,0,1705,1705,1705,1705,1696,1696,1696,1696,1696,1688,1688,1688,1688,1688,1680,1671,1671,1671,1671,1671,1663,1663,1663,1655,1655,1655,1647,1647,1647,1639,1632,1632,1632,1632,1632,1632,1624,1624,1624,1624,1616,1616,1616,1616,1616,1609,1601,1601,1601,1601,1594,1594,1594,1594,1586,1586,1579,1579,1579,1572,1572,1572,1572,1572,1572,1572,1572,1572,1572,1572,1572,1572,1564,1564,1564,1557,1550,1550,1543,1543,1543,1536,1536,1536,1536,1529,1529,1523,1523,1523,1516,1516,1516,0,0,0,0,0,0,898,898,898,898,898,898,894,894,891,889,889,887,887,887,887,885,885,885,887,887,887,889,894,894,896,898,901,903,0,0,0,0,0,0,1427,1427,1433,1433,1439,1439,1439,1433,1427,1427,1427,1421,1421,1415,1415,1415,1415,1415,1415,1410,1410,1410,1404,1398,1398,1398,1392,1392,1392,1392,1392,1392,1392,1387,1381,1376,1376,1376,1376,1376,1376,1376,1370,1370,1370,1370,1365,1359,1359,1359,1354,1354,1354,1354,1354,1354,1349,1349,1343,1343,1343,1338,1333,1333,1333,1333,1333,1328,1328,1328,1328,1328,1322,1322,1322,1322,1317,1312,1312,1312,1307,1307,1307,1307,1302,1302,1297,1297,1297,1292,1292,1292,1292,1288,1288,1288,1283,1283,1283,1283,1278,1273,1273,1273,1273,1268,1268,1268,1268,1264,1264,1259,1259,1255,1255,1255,1255,1255,1255,1250,1250,1250,1250,1250,1250,1241,1241,1241,1236,1236,1232,1232,1232,1232,1232,1232,1232,1227,1227,1227,1227,1223,1223,1219,1219,1214,1214,1214,1214,1210,1210,1206,1202,1202,1202,1202,1202,1202,1197,1197,1197,1197,1193,1193,1193,1189,1189,1189,1185,1185,1185,1185,1181,1181,1181,1181,1177,1177,1177,1177,1177,1173,1173,1173,1169,1169,1169,1169,1165,1165,1165,1161,1161,1157,1153,1153,1153,1153,1153,1153,1153,1153,1153,1149,1149,1149,1149,1145,1145,1138,1138,1138,1138,1138,1138,1138,1134,1134,1134,1130,1130,1130,1126,1126,1123,1123,0,0,0,0,0,0,0,0,0,0,0,0,0,0,0,0,0,0,0,0,0,0,0,0,0,0,0,0
0,0,0,0,0,0,0,0,0,0,0,0,0,0,1594,1594,1594,1586,1586,1586,1586,1579,1579,1579,1572,1572,1572,1572,1572,1579,1572,1572,1579,1579,1572,1572,1572,1572,1572,1564,1564,1572,1572,1572,1572,1572,1572,1564,1564,1564,1564,1564,1564,1564,1564,1564,1572,1564,1564,1564,1564,1564,1564,1564,1557,1557,1557,1564,1564,1557,1557,1557,1550,1550,1557,1557,1557,1564,1564,1564,1564,1557,1557,1557,1557,1557,1557,1564,1564,1564,1564,1564,1572,1572,1572,1572,1572,1579,1586,1586,1947,1936,1926,1915,1894,1894,1894,1883,1883,1883,1873,1873,1883,1894,1894,1904,1915,1915,1915,1926,1594,1586,1586,1579,1572,1572,1572,1572,1572,1572,1572,1572,1579,1579,1586,1594,1594,1594,1601,1601,1601,1609,1616,1616,1616,1616,1624,1624,1632,1632,1632,1632,1639,1639,1639,1647,1647,1647,1655,1655,1655,1663,1663,1663,1671,1680,1680,1680,1688,1688,1688,1696,1696,1696,1696,1696,1705,1713,1713,1713,1722,1722,1722,1731,1731,1731,1731,1739,1739,1739,1739,1748,1757,1757,1757,1757,1766,1776,1776,1785,1785,1794,1794,1794,1794,1794,1804,1804,1813,1813,1813,1813,1823,0,0,0,0,0,0,0,0,0,1073,1070,1070,1067,1067,1063,1063,1060,1060,1060,1057,1057,1057,1057,1057,1057,1060,1063,1067,1070,1070,1073,1077,1077,1077,1077,1077,0,0,0,0,1713,1705,1705,1705,1705,1696,1696,1696,1696,1696,1688,1688,1688,1688,1688,1680,1680,1671,1671,1671,1663,1663,1663,1655,1655,1655,1647,1647,1647,1639,1632,1632,1632,1632,1632,1632,1624,1624,1624,1624,1624,1624,1624,1616,1616,1616,1609,1609,1601,1601,1601,1594,1594,1594,1586,1586,1579,1579,1579,1579,1572,1572,1572,1572,1572,1572,1572,1572,1572,1572,1572,1572,1564,1564,1564,1557,1550,1550,1550,1543,1543,1543,1536,1536,1536,1536,1529,1523,1523,1523,1516,1516,1516,0,0,0,0,0,0,898,898,898,898,898,898,894,894,891,891,889,889,887,887,887,885,885,885,887,887,889,891,894,894,896,898,901,901,0,0,0,0,0,0,1427,1427,1433,1433,1439,1439,1439,1433,1433,1427,1427,1421,1421,1421,1415,1415,1415,1415,1415,1410,1410,1410,1404,1398,1398,1398,1398,1392,1392,1392,1392,1392,1392,1387,1387,1381,1381,1381,1376,1376,1376,1376,1376,1370,1370,1370,1370,1365,1359,1359,1359,1354,1354,1354,1354,1354,1354,1349,1349,1343,1343,1338,1338,1333,1333,1333,1333,1328,1328,1328,1328,1328,1322,1322,1322,1322,1317,1312,1312,1312,1307,1307,1307,1307,1302,1302,1302,1297,1297,1292,1292,1292,1292,1288,1288,1288,1288,1283,1283,1278,1278,1273,1273,1273,1268,1268,1268,1268,1268,1264,1264,1259,1259,1259,1255,1255,1255,1255,1255,1255,1250,1250,1250,1250,1250,1245,1241,1241,1236,1236,1236,1232,1232,1232,1232,1232,1232,1227,1227,1227,1227,1223,1223,1219,1219,1219,1214,1214,1214,1210,1210,1206,1206,1206,1206,1206,1202,1202,1197,1197,1197,1197,1193,1193,1193,1189,1189,1189,1189,1185,1185,1185,1181,1181,1181,1181,1181,1177,1177,1177,1177,1173,1173,1173,1173,1173,1169,1169,1169,1165,1165,1161,1161,1157,1153,1153,1153,1153,1153,1153,1153,1153,1153,1149,1149,1149,1149,1145,1145,1141,1138,1138,1138,1138,1138,1138,1138,1134,1134,1134,1134,1130,1130,1126,1126,1126,0,0,0,0,0,0,0,0,0,0,0,0,0,0,0,0,0,0,0,0,0,0,0,0,0,0,0,0
0,0,0,0,0,0,0,0,0,0,0,0,0,0,1594,1594,1594,1594,1586,1586,1586,1586,1586,1579,1579,1579,1579,1579,1579,1579,1579,1579,1586,1579,1572,1572,1572,1572,1572,1564,1564,1572,1572,1572,1572,1572,1572,1564,1564,1564,1564,1564,1564,1572,1564,1564,1564,1564,1564,1564,1564,1564,1564,1564,1564,1557,1557,1564,1564,1557,1557,1557,1557,1557,1564,1564,1564,1564,1564,1564,1564,1564,1564,1564,1557,1557,1557,1564,1564,1564,1564,1564,1572,1572,1572,1572,1572,1572,1586,1586,1586,1915,1904,1894,1883,1883,1883,1873,1873,1873,1863,1863,1873,1873,1883,1904,1904,1915,1688,1688,1696,1594,1594,1586,1579,1579,1572,1572,1572,1572,1572,1572,1579,1586,1586,1594,1594,1594,1601,1601,1601,1609,1616,1616,1616,1624,1624,1632,1632,1632,1632,1639,1639,1639,1647,1647,1647,1647,1655,1655,1655,1663,1663,1663,1671,1680,1680,1680,1688,1688,1688,1696,1696,1696,1696,1705,1705,1713,1713,1713,1722,1722,1731,1731,1731,1731,1731,1739,1739,1739,1739,1748,1757,1757,1757,1757,1766,1776,1776,1785,1785,1794,1794,1794,1794,1794,1804,1804,1804,1813,1813,1813,1823,0,0,0,0,0,0,0,0,0,1073,1073,1073,1067,1067,1063,1063,1060,1060,1060,1060,1057,1057,1057,1060,1060,1060,1063,1067,1070,1073,1073,1077,1077,1077,1077,1077,1077,0,1722,1722,1722,1713,1713,1713,1713,1705,1705,1696,1696,1696,1696,1688,1688,1688,1688,1680,1680,1680,1671,1663,1663,1663,1663,1663,1655,1655,1655,1655,1647,1647,1639,1632,1632,1632,1632,1632,1632,1624,1624,1624,1624,1624,1624,1616,1616,1616,1616,1609,1609,1601,1601,1594,1594,1594,1586,1586,1579,1579,1579,1579,1579,1579,1572,1572,1572,1572,1579,1579,1572,1572,1572,1572,1564,1564,1564,1557,1557,1557,1550,1550,1543,1543,1543,1543,1543,1536,1536,1529,1529,1523,1516,1516,0,0,0,0,0,0,0,898,898,898,898,898,896,894,894,891,891,889,889,889,887,887,887,887,887,887,887,889,894,894,896,896,898,901,901,0,0,0,0,0,0,1427,1427,1433,1433,1439,1439,1439,1433,1433,1427,1427,1421,1421,1421,1415,1415,1415,1415,1415,1410,1410,1410,1410,1404,1404,1398,1398,1398,1398,1398,1392,1392,1387,1387,1387,1381,1381,1381,1381,1376,1376,1376,1376,1370,1370,1370,1370,1365,1359,1359,1359,1354,1354,1354,1354,1354,1354,1349,1349,1349,1343,1343,1338,1338,1333,1333,1333,1333,1328,1328,1328,1328,1328,1322,1322,1322,1317,1317,1312,1312,1312,1312,1307,1307,1307,1302,1302,1302,1297,1292,1292,1292,1292,1288,1288,1288,1288,1283,1283,1278,1278,1273,1273,1273,1268,1268,1268,1268,1268,1264,1264,1264,1259,1259,1255,1255,1255,1255,1255,1255,1250,1250,1250,1250,1250,1245,1245,1245,1241,1236,1236,1232,1232,1232,1232,1232,1227,1227,1227,1227,1227,1223,1223,1219,1219,1219,1219,1214,1214,1214,1210,1210,1210,1210,1206,1206,1202,1202,1197,1197,1197,1197,1197,1193,1193,1193,1193,1189,1189,1185,1185,1185,1181,1181,1181,1181,1181,1177,1177,1177,1177,1177,1177,1173,1173,1173,1169,1169,1169,1165,1165,1161,1161,1157,1153,1153,1153,1153,1153,1153,1153,1153,1153,1153,1149,1149,1149,1145,1145,1141,1141,1141,1138,1138,1138,1138,1138,1134,1134,1134,1134,1134,1130,1126,1126,1126,0,0,0,0,0,0,0,0,0,0,0,0,0,0,0,0,0,0,0,0,0,0,0,0,0,0,0,0
0,0,0,0,0,0,0,0,0,0,0,0,0,0,1594,1594,1594,1594,1594,1594,1594,1594,1594,1586,1579,1579,1579,1579,1579,1579,1579,1579,1579,1579,1572,1572,1572,1572,1564,1564,1564,1572,1572,1572,1572,1572,1572,1572,1572,1572,1572,1572,1572,1572,1564,1564,1564,1564,1564,1564,1564,1564,1564,1564,1564,1564,1564,1564,1564,1564,1564,1557,1557,1557,1564,1564,1564,1564,1564,1564,1564,1564,1564,1557,1557,1557,1557,1564,1564,1564,1564,1564,1572,1572,1572,1572,1572,1572,1586,1586,1586,1894,1883,1883,1873,1873,1873,1863,1863,1853,1853,1863,1655,1655,1883,1904,1904,1696,1688,1688,1696,1601,1601,1586,1579,1579,1579,1572,1572,1572,1572,1579,1586,1586,1594,1594,1601,1601,1601,1601,1601,1609,1616,1616,1616,1624,1624,1632,1632,1632,1632,1639,1639,1639,1647,1647,1647,1647,1655,1655,1655,1663,1663,1663,1671,1680,1680,1680,1688,1688,1688,1696,1696,1696,1696,1705,1705,1713,1722,1722,1722,1731,1731,1731,1731,1731,1731,1739,1739,1739,1739,1748,1757,1757,1757,1757,1766,1776,1785,1785,1785,1794,1794,1794,1794,1794,1804,1804,1804,1813,1813,1813,1823,0,0,0,0,0,0,0,0,0,1073,1073,1073,1067,1067,1063,1063,1063,1060,1060,1060,1060,1060,1060,1060,1060,1060,1063,1067,1070,1073,1073,1077,1077,1077,1077,1077,1077,0,1722,1722,1722,1722,1722,1713,1713,1713,1705,1705,1696,1696,1696,1696,1688,1688,1688,1680,1680,1680,1671,1663,1663,1663,1663,1663,1663,1655,1655,1655,1647,1647,1639,1639,1632,1632,1632,1632,1632,1632,1624,1624,1624,1624,1624,1624,1624,1624,1616,1609,1609,1609,1601,1601,1594,1594,1594,1586,1586,1586,1579,1579,1579,1579,1572,1572,1572,1572,1579,1579,1572,1572,1572,1572,1572,1572,1564,1557,1550,1550,1550,1550,1550,1543,1543,1543,1543,1536,1536,1529,1529,1523,1516,1516,0,0,0,0,0,0,0,901,901,898,898,898,896,896,894,891,891,889,889,889,889,887,887,887,887,887,889,889,894,896,896,898,901,903,903,906,906,0,0,0,0,1427,1427,1433,1439,1439,1439,1439,1433,1433,1427,1427,1427,1421,1421,1415,1415,1415,1415,1415,1415,1415,1415,1410,1404,1404,1398,1398,1398,1398,1398,1398,1392,1387,1387,1387,1387,1381,1381,1381,1381,1376,1376,1376,1370,1370,1370,1370,1365,1359,1359,1359,1359,1359,1354,1354,1354,1354,1354,1349,1349,1349,1343,1338,1338,1338,1338,1333,1333,1328,1328,1328,1328,1328,1328,1328,1322,1322,1317,1317,1312,1312,1312,1312,1307,1307,1307,1302,1302,1297,1292,1292,1292,1292,1288,1288,1288,1288,1283,1283,1278,1278,1278,1278,1278,1273,1273,1268,1268,1268,1268,1268,1264,1264,1264,1255,1255,1255,1255,1255,1255,1255,1255,1250,1250,1250,1245,1245,1245,1241,1241,1236,1236,1232,1232,1232,1232,1227,1227,1227,1227,1227,1223,1223,1219,1219,1219,1219,1214,1214,1214,1210,1210,1210,1210,1210,1206,1202,1202,1197,1197,1197,1197,1197,1197,1193,1193,1193,1193,1189,1189,1185,1185,1181,1181,1181,1181,1181,1181,1181,1177,1177,1177,1177,1173,1173,1173,1169,1169,1169,1169,1165,1161,1161,1161,1157,1157,1157,1153,1153,1153,1153,1153,1153,1153,1149,1149,1149,1145,1145,1141,1141,1141,1138,1138,1138,1138,1138,1134,1134,1134,1134,1134,1134,1130,1126,1126,0,0,0,0,0,0,0,0,0,0,0,0,0,0,0,0,0,0,0,0,0,0,0,0,0,0,0,0
0,0,0,0,0,0,0,0,0,0,0,0,0,0,1594,1594,1594,1594,1594,1594,1594,1594,1594,1594,1579,1579,1579,1579,1579,1579,1579,1579,1579,1579,1572,1572,1572,1572,1564,1564,1564,1572,1572,1572,1572,1572,1572,1572,1572,1564,1564,1564,1564,1564,1572,1572,1564,1564,1564,1564,1564,1564,1564,1564,1564,1564,1564,1564,1564,1564,1564,1564,1564,1564,1564,1564,1572,1572,1572,1572,1564,1564,1564,1557,1557,1557,1557,1564,1564,1564,1564,1564,1572,1572,1572,1572,1579,1579,1586,1586,1586,1594,1853,1853,1853,1853,1853,1843,1843,1843,1843,1843,1655,1655,1705,1705,1705,1696,1696,1696,1688,1601,1601,1594,1586,1579,1579,1579,1579,1579,1579,1579,1586,1594,1594,1594,1601,1601,1601,1601,1609,1609,1616,1616,1624,1624,1624,1632,1632,1632,1632,1639,1639,1639,1647,1647,1647,1655,1655,1655,1655,1663,1663,1663,1671,1671,1680,1680,1688,1688,1688,1696,1696,1696,1696,1705,1705,1713,1713,1713,1722,1731,1731,1731,1731,1731,1731,1739,1739,1739,1748,1748,1757,1757,1757,1757,1776,1776,1785,1785,1785,1794,1794,1794,1794,1804,1804,1804,1804,1813,1813,1813,1823,0,0,0,0,0,0,0,0,1073,1073,1070,1070,1070,1067,1063,1063,1063,1060,1060,1060,1060,1060,1060,1060,1060,1060,1063,1067,1070,1073,1073,1073,1073,1073,1073,1073,0,0,1722,1722,1722,1722,1722,1713,1713,1713,1705,1705,1696,1696,1696,1696,1696,1688,1688,1688,1688,1680,1680,1671,1671,1671,1671,1663,1663,1663,1655,1655,1655,1647,1639,1639,1639,1639,1632,1632,1632,1632,1632,1624,1624,1624,1624,1624,1624,1624,1616,1609,1609,1609,1601,1601,1601,1594,1594,1594,1594,1586,1586,1579,1579,1579,1572,1572,1572,1572,1572,1572,1572,1572,1572,1572,1572,1572,1572,1564,1550,1550,1550,1550,1550,1550,1550,1543,1543,1543,1543,1536,1536,1529,1529,1529,0,0,0,0,0,0,0,0,901,901,898,898,896,896,896,894,891,891,889,889,889,889,887,887,887,887,889,894,894,896,898,901,903,903,903,906,906,0,0,0,0,1427,1427,1439,1439,1439,1439,1439,1439,1439,1433,1433,1427,1427,1421,1415,1415,1415,1415,1415,1415,1415,1415,1410,1410,1410,1404,1398,1398,1398,1398,1398,1398,1392,1392,1387,1387,1381,1381,1381,1381,1376,1376,1376,1370,1370,1370,1370,1370,1365,1359,1359,1359,1359,1359,1354,1354,1354,1354,1354,1349,1349,1349,1343,1343,1343,1338,1333,1333,1328,1328,1328,1328,1328,1328,1328,1322,1322,1317,1317,1312,1312,1312,1312,1307,1307,1307,1307,1302,1302,1297,1292,1292,1292,1292,1288,1288,1288,1288,1288,1283,1278,1278,1278,1278,1273,1273,1273,1268,1268,1268,1268,1264,1264,1264,1259,1259,1259,1259,1255,1255,1255,1255,1250,1250,1250,1250,1245,1245,1241,1241,1236,1236,1236,1232,1232,1232,1232,1227,1227,1227,1227,1223,1223,1219,1219,1219,1219,1219,1214,1214,1214,1214,1214,1210,1210,1210,1202,1202,1202,1202,1202,1197,1197,1197,1197,1197,1193,1193,1193,1189,1185,1185,1185,1181,1181,1181,1181,1181,1181,1181,1177,1177,1177,1177,1173,1173,1169,1169,1169,1165,1165,1165,1161,1161,1161,1161,1157,1157,1157,1153,1153,1153,1153,1153,1149,1149,1149,1149,1145,1145,1141,1141,1138,1138,1138,1138,1138,1134,1134,1134,1134,1134,1134,1130,1130,1130,0,0,0,0,0,0,0,0,0,0,0,0,0,0,0,0,0,0,0,0,0,0,0,0,0,0,0,0
0,0,0,0,0,0,0,0,0,0,0,0,0,0,1594,1594,1594,1594,1594,1594,1594,1594,1594,1594,1579,1579,1579,1579,1586,1579,1579,1579,1579,1579,1572,1572,1572,1572,1572,1564,1564,1572,1572,1572,1572,1572,1572,1572,1572,1564,1564,1564,1564,1564,1572,1572,1564,1564,1564,1564,1564,1564,1564,1564,1564,1564,1564,1564,1564,1564,1572,1572,1564,1564,1564,1564,1572,1572,1572,1572,1564,1564,1564,1564,1564,1557,1557,1564,1564,1564,1564,1572,1572,1572,1572,1579,1579,1579,1586,1594,1594,1594,1833,1833,1833,1833,1833,1823,1813,1813,1823,1833,1863,1713,1705,1705,1696,1696,1696,1696,1688,1609,1601,1594,1586,1586,1586,1579,1579,1579,1579,1586,1586,1594,1594,1594,1601,1601,1601,1601,1609,1609,1616,1616,1624,1624,1624,1632,1632,1632,1632,1639,1639,1639,1647,1647,1655,1655,1655,1655,1655,1663,1663,1663,1671,1671,1680,1680,1688,1688,1688,1696,1696,1696,1696,1705,1705,1713,1713,1713,1722,1731,1731,1731,1731,1739,1739,1739,1739,1748,1748,1757,1757,1757,1757,1766,1776,1785,1785,1785,1794,1794,1794,1794,1794,1804,1804,1804,1804,1804,1804,1804,1823,0,0,0,0,0,0,0,0,1073,1073,1070,1070,1070,1067,1063,1063,1063,1063,1063,1060,1060,1060,1060,1060,1060,1060,1060,1063,1067,1070,1070,1073,1073,1073,1073,1073,1063,1063,1722,1722,1722,1722,1722,1722,1722,1713,1705,1705,1696,1696,1696,1696,1696,1688,1688,1688,1688,1688,1680,1671,1671,1671,1671,1663,1663,1663,1655,1655,1655,1647,1647,1639,1639,1639,1639,1632,1632,1632,1632,1632,1632,1624,1624,1624,1624,1624,1616,1616,1609,1609,1601,1601,1601,1601,1594,1594,1594,1594,1594,1586,1586,1586,1572,1572,1572,1572,1572,1572,1572,1572,1572,1572,1572,1572,1572,1564,1550,1550,1550,1550,1550,1550,1550,1543,1543,1543,1543,1543,1543,1543,1543,1543,0,0,0,0,0,0,0,0,901,901,898,898,896,896,896,894,894,891,891,889,889,889,889,889,889,889,889,894,894,896,898,901,903,906,906,906,906,0,0,0,1445,1439,1439,1439,1439,1439,1439,1439,1439,1439,1433,1433,1433,1427,1421,1421,1415,1415,1415,1415,1415,1415,1415,1415,1410,1410,1404,1404,1404,1404,1398,1398,1398,1392,1392,1387,1387,1381,1381,1381,1381,1381,1376,1376,1376,1376,1370,1370,1370,1365,1365,1365,1365,1365,1359,1359,1359,1354,1354,1354,1349,1349,1349,1343,1343,1343,1343,1338,1333,1333,1328,1328,1328,1328,1328,1328,1322,1322,1317,1317,1312,1312,1312,1312,1312,1307,1307,1307,1302,1302,1297,1292,1292,1292,1292,1288,1288,1288,1288,1288,1283,1278,1278,1283,1278,1273,1273,1273,1273,1268,1268,1268,1264,1264,1264,1264,1259,1259,1259,1255,1255,1255,1255,1250,1250,1250,1250,1250,1245,1245,1245,1241,1236,1236,1236,1232,1232,1232,1232,1232,1227,1227,1223,1223,1223,1223,1219,1219,1219,1214,1214,1214,1214,1214,1210,1210,1210,1202,1202,1202,1202,1202,1197,1197,1197,1197,1197,1197,1193,1193,1189,1189,1185,1185,1185,1181,1181,1181,1181,1181,1181,1181,1177,1177,1177,1177,1173,1169,1169,1169,1165,1165,1165,1161,1161,1161,1161,1157,1157,1157,1153,1153,1153,1153,1153,1149,1149,1149,1149,1149,1145,1145,1141,1138,1138,1138,1138,1138,1134,1134,1134,1134,1134,1134,1130,1130,1130,0,0,0,0,0,0,0,0,0,0,0,0,0,0,0,0,0,0,0,0,0,0,0,0,0,0,0,0
0,0,0,0,0,0,0,0,0,0,0,0,0,0,1594,1594,1594,1594,1594,1601,1601,1601,1594,1594,1586,1586,1586,1586,1586,1579,1579,1579,1579,1579,1572,1572,1572,1572,1572,1572,1572,1572,1572,1572,1572,1572,1572,1572,1572,1572,1572,1572,1572,1572,1572,1572,1564,1564,1564,1564,1564,1564,1564,1564,1564,1564,1572,1572,1572,1572,1572,1572,1572,1572,1572,1572,1572,1572,1572,1572,1564,1564,1564,1564,1564,1564,1564,1564,1564,1564,1564,1572,1572,1572,1572,1579,1579,1586,1586,1594,1594,1594,1813,1813,1813,1813,1813,1804,1794,1794,1804,1833,1731,1713,1705,1705,1696,1696,1696,1696,1688,1688,1601,1594,1586,1586,1586,1586,1586,1586,1586,1586,1594,1594,1594,1594,1601,1601,1601,1601,1609,1609,1616,1616,1624,1632,1632,1632,1632,1632,1632,1639,1639,1647,1647,1655,1655,1655,1655,1655,1655,1663,1663,1663,1671,1671,1680,1680,1688,1688,1688,1696,1696,1696,1696,1696,1705,1713,1713,1713,1722,1731,1731,1731,1731,1739,1739,1739,1748,1748,1757,1757,1757,1757,1757,1766,1776,1785,1785,1794,1794,1794,1794,1794,1794,1804,1804,1804,1804,1804,1804,1804,0,0,0,0,0,0,0,0,1070,1070,1073,1070,1070,1070,1067,1063,1063,1063,1063,1060,1060,1060,1060,1060,1060,1060,1060,1060,1063,1063,1067,1067,1067,1067,1070,1063,1063,1063,1063,1060,1060,1063,1063,1722,1722,1722,1722,1705,1705,1696,1696,1696,1696,1696,1688,1688,1688,1688,1688,1680,1680,1671,1671,1671,1663,1663,1663,1663,1655,1655,1655,1647,1647,1647,1647,1639,1639,1632,1632,1632,1632,1632,1632,1632,1624,1624,1624,1624,1624,1616,1616,1609,1609,1601,1601,1601,1601,1594,1594,1594,1586,1586,1586,1579,1579,1572,1572,1579,1579,1572,1572,1572,1572,1572,1572,1564,1564,1550,1550,1550,1550,1550,1550,1550,1550,1543,1543,1543,1543,1543,1536,1536,0,0,0,0,0,0,0,0,0,903,901,901,898,898,896,896,894,894,891,891,889,889,889,889,889,889,889,889,894,894,898,898,901,903,906,906,906,0,0,0,0,1445,1445,1445,1445,1445,1445,1439,1439,1439,1439,1439,1433,1433,1427,1427,1421,1421,1415,1415,1415,1415,1415,1415,1415,1410,1410,1404,1404,1398,1398,1404,1398,1398,1392,1392,1392,1387,1387,1387,1387,1381,1381,1381,1376,1376,1376,1370,1370,1370,1365,1365,1365,1365,1365,1359,1359,1359,1354,1354,1354,1349,1349,1349,1343,1343,1343,1343,1338,1338,1333,1333,1333,1328,1328,1328,1328,1328,1322,1317,1317,1312,1312,1312,1312,1312,1312,1307,1307,1307,1302,1302,1292,1292,1292,1292,1292,1292,1288,1288,1288,1283,1283,1283,1283,1278,1278,1278,1273,1273,1273,1268,1268,1268,1264,1264,1264,1264,1264,1264,1259,1255,1255,1255,1250,1250,1250,1250,1250,1245,1245,1245,1241,1236,1236,1236,1232,1232,1232,1232,1232,1227,1227,1227,1227,1223,1223,1219,1219,1219,1214,1214,1214,1214,1214,1214,1214,1206,1202,1202,1202,1202,1202,1197,1197,1197,1197,1197,1197,1193,1193,1193,1189,1185,1185,1185,1185,1185,1181,1181,1181,1181,1181,1181,1181,1177,1177,1173,1173,1169,1169,1169,1165,1165,1165,1165,1161,1161,1161,1157,1157,1157,1153,1153,1153,1153,1153,1153,1149,1149,1149,1149,1145,1141,1138,1138,1138,1138,1138,1138,1138,1138,1134,1134,1134,1130,1130,1130,0,0,0,0,0,0,0,0,0,0,0,0,0,0,0,0,0,0,0,0,0,0,0,0,0,0,0,0
0,0,0,0,0,0,0,0,0,0,0,0,0,0,1594,1594,1594,1594,1594,1601,1601,1601,1601,1594,1586,1586,1586,1586,1586,1586,1579,1579,1579,1579,1579,1579,1579,1572,1572,1572,1572,1572,1572,1572,1572,1572,1572,1572,1572,1572,1572,1572,1572,1572,1572,1572,1564,1564,1564,1564,1564,1564,1564,1572,1564,1564,1572,1572,1572,1572,1572,1572,1572,1572,1572,1572,1572,1572,1572,1572,1572,1564,1564,1564,1564,1564,1564,1564,1564,1572,1572,1572,1572,1572,1579,1579,1586,1586,1586,1594,1594,1594,1794,1794,1804,1804,1804,1804,1794,1794,1757,1731,1722,1722,1705,1705,1705,1696,1696,1696,1696,1688,1601,1594,1594,1586,1586,1586,1586,1586,1586,1586,1594,1594,1594,1594,1601,1601,1601,1601,1609,1609,1616,1616,1624,1632,1632,1632,1632,1632,1639,1639,1639,1647,1647,1655,1655,1655,1655,1655,1663,1663,1663,1663,1671,1671,1680,1680,1688,1688,1688,1688,1696,1696,1696,1696,1705,1713,1713,1722,1722,1731,1731,1731,1731,1739,1739,1748,1748,1748,1757,1757,1757,1766,1766,1766,1776,1785,1785,1794,1794,1794,1794,1794,1804,1804,1804,1804,1804,1804,1794,1794,0,0,0,0,0,0,1060,1060,1063,1063,1070,1070,1070,1070,1067,1067,1063,1063,1060,1060,1060,1060,1060,1060,1060,1060,1060,1060,1060,1060,1060,1060,1063,1063,1063,1060,1060,1060,1060,1060,1060,1060,1057,1054,1054,1722,1722,1705,1705,1696,1696,1696,1696,1696,1688,1688,1688,1688,1688,1680,1680,1680,1680,1671,1663,1663,1663,1663,1655,1655,1655,1647,1647,1647,1647,1639,1639,1639,1639,1632,1632,1632,1632,1632,1632,1632,1624,1624,1624,1616,1616,1616,1609,1601,1601,1601,1601,1594,1594,1594,1594,1594,1586,1579,1579,1579,1579,1579,1579,1579,1579,1572,1572,1572,1572,1564,1564,1550,1550,1550,1550,1550,1550,1550,1543,1543,1543,1543,1543,1543,1536,1536,0,0,0,0,0,0,0,0,0,903,901,901,898,898,896,896,896,894,894,891,891,889,889,889,889,889,889,889,894,894,898,901,903,903,906,906,906,0,0,0,0,0,1445,1445,1445,1445,1445,1445,1439,1439,1439,1439,1439,1433,1433,1427,1427,1421,1421,1421,1415,1415,1415,1415,1415,1410,1410,1404,1404,1398,1398,1398,1398,1398,1392,1392,1392,1392,1387,1387,1387,1381,1381,1381,1376,1376,1376,1370,1370,1370,1370,1365,1365,1365,1365,1365,1359,1359,1359,1359,1354,1354,1354,1349,1349,1349,1349,1349,1343,1338,1333,1333,1333,1333,1328,1328,1328,1328,1322,1322,1317,1317,1312,1312,1312,1312,1312,1307,1307,1307,1307,1302,1292,1292,1292,1292,1292,1292,1292,1292,1288,1288,1288,1288,1288,1283,1283,1278,1273,1273,1273,1268,1268,1268,1268,1268,1264,1264,1264,1264,1259,1259,1255,1255,1250,1250,1250,1250,1250,1245,1245,1245,1241,1241,1236,1236,1236,1232,1232,1232,1232,1227,1227,1227,1227,1223,1223,1219,1219,1219,1214,1214,1214,1214,1214,1214,1214,1206,1206,1202,1202,1202,1202,1202,1202,1197,1197,1197,1197,1197,1193,1193,1193,1189,1185,1185,1185,1185,1181,1181,1181,1181,1181,1181,1181,1177,1177,1177,1173,1173,1169,1169,1165,1165,1165,1165,1165,1161,1161,1161,1157,1157,1157,1153,1153,1153,1153,1153,1153,1149,1149,1149,1145,1141,1138,1138,1138,1138,1138,1138,1138,1138,1134,1134,1134,1130,1130,1130,0,0,0,0,0,0,0,0,0,0,0,0,0,0,0,0,0,0,0,0,0,0,0,0,0,0,0,0
0,0,0,0,0,0,0,0,0,0,0,0,0,0,1601,1594,1594,1594,1594,1601,1601,1601,1601,1594,1594,1594,1594,1586,1586,1586,1579,1579,1579,1579,1579,1579,1579,1572,1572,1572,1572,1579,1579,1572,1572,1579,1579,1572,1572,1579,1572,1572,1572,1572,1572,1572,1572,1572,1564,1564,1564,1572,1572,1572,1572,1572,1572,1572,1572,1572,1572,1572,1572,1572,1572,1572,1572,1572,1572,1572,1572,1564,1564,1564,1564,1564,1564,1564,1564,1572,1572,1572,1572,1572,1579,1586,1586,1586,1594,1594,1594,1594,1785,1785,1794,1794,1794,1794,1785,1766,1757,1731,1722,1722,1705,1705,1705,1696,1696,1696,1696,1696,1594,1594,1594,1594,1594,1594,1586,1586,1586,1594,1594,1594,1594,1594,1601,1601,1601,1601,1609,1609,1616,1624,1624,1624,1624,1632,1632,1632,1632,1639,1639,1647,1647,1655,1655,1655,1663,1663,1663,1663,1663,1663,1671,1671,1680,1688,1688,1688,1688,1688,1696,1696,1696,1696,1705,1713,1713,1722,1722,1731,1731,1731,1739,1739,1748,1748,1748,1748,1757,1757,1757,1766,1766,1776,1785,1785,1785,1785,1794,1794,1794,1794,1794,1804,1804,1804,1804,1804,1794,1794,0,0,0,0,0,1057,1057,1060,1063,1063,1067,1070,1070,1070,1067,1067,1063,1063,1060,1060,1060,1060,1060,1060,1057,1057,1057,1057,1057,1057,1054,1054,1054,1060,1060,1060,1054,1054,1054,1054,1054,1054,1050,1050,1044,1044,1044,1705,1705,1696,1696,1688,1688,1688,1688,1688,1688,1688,1688,1688,1680,1680,1680,1680,1663,1663,1671,1663,1663,1663,1655,1655,1647,1647,1647,1639,1639,1639,1639,1639,1639,1632,1632,1632,1632,1632,1632,1624,1624,1616,1616,1616,1609,1601,1601,1601,1601,1601,1594,1594,1594,1594,1586,1579,1579,1579,1579,1579,1579,1579,1579,1579,1579,1572,1572,1564,1564,1557,1557,1550,1550,1550,1550,1550,1543,1543,1543,1543,1543,1543,1536,1536,0,0,0,0,0,0,0,0,0,0,901,901,898,898,898,896,896,894,894,891,891,889,889,889,889,889,889,891,894,894,898,901,906,906,906,906,906,0,0,0,0,0,1452,1452,1445,1445,1445,1445,1439,1439,1439,1439,1439,1433,1433,1433,1427,1427,1421,1421,1421,1415,1415,1415,1415,1415,1410,1410,1404,1398,1398,1398,1398,1398,1398,1392,1392,1392,1392,1387,1387,1387,1387,1381,1376,1376,1376,1370,1370,1370,1370,1370,1370,1365,1365,1365,1359,1359,1359,1359,1354,1354,1354,1349,1349,1349,1349,1343,1343,1338,1333,1333,1333,1333,1333,1328,1328,1328,1328,1322,1322,1317,1312,1312,1312,1312,1312,1312,1312,1307,1307,1307,1297,1297,1297,1292,1292,1292,1292,1292,1288,1288,1288,1288,1288,1283,1283,1278,1278,1278,1273,1273,1268,1268,1268,1268,1268,1268,1264,1264,1264,1259,1259,1255,1255,1250,1250,1250,1250,1250,1245,1245,1245,1241,1241,1236,1236,1236,1232,1232,1232,1232,1227,1227,1227,1227,1227,1223,1223,1219,1219,1219,1214,1214,1214,1214,1210,1210,1206,1206,1206,1206,1202,1202,1202,1202,1197,1197,1197,1197,1193,1193,1189,1189,1189,1185,1185,1185,1181,1181,1181,1181,1181,1181,1181,1177,1177,1177,1173,1173,1169,1169,1169,1165,1165,1165,1165,1161,1161,1161,1161,1157,1157,1157,1153,1153,1153,1153,1153,1153,1149,1149,1145,1145,1141,1141,1141,1138,1138,1138,1138,1138,1134,1134,1134,1134,1130,1130,0,0,0,0,0,0,0,0,0,0,0,0,0,0,0,0,0,0,0,0,0,0,0,0,0,0,0,0
0,0,0,0,0,0,0,0,0,0,0,0,0,0,1609,1601,1601,1594,1594,1601,1594,1594,1594,1594,1594,1594,1594,1594,1586,1586,1579,1579,1579,1579,1579,1594,1579,1572,1572,1572,1572,1579,1579,1572,1572,1579,1579,1579,1579,1579,1572,1572,1579,1572,1572,1572,1572,1572,1572,1572,1572,1572,1572,1572,1572,1572,1572,1572,1572,1572,1572,1572,1572,1579,1579,1579,1579,1572,1572,1572,1572,1572,1564,1564,1564,1564,1564,1564,1572,1572,1572,1572,1572,1579,1579,1586,1586,1594,1594,1594,1601,1785,1785,1785,1794,1794,1794,1794,1766,1757,1757,1739,1731,1722,1705,1705,1705,1696,1696,1696,1696,1696,1594,1594,1594,1594,1594,1594,1594,1586,1586,1594,1594,1594,1594,1594,1601,1601,1601,1601,1609,1609,1616,1616,1624,1624,1624,1632,1632,1632,1632,1632,1639,1639,1647,1655,1655,1655,1663,1663,1663,1663,1663,1671,1671,1680,1680,1688,1688,1688,1688,1696,1696,1696,1705,1705,1713,1713,1722,1722,1722,1731,1731,1731,1739,1739,1748,1748,1748,1757,1757,1766,1766,1766,1776,1776,1776,1785,1785,1785,1785,1794,1794,1794,1794,1804,1804,1804,1804,1804,1804,1804,1038,1054,1054,1054,1054,1057,1057,1060,1060,1060,1063,1067,1067,1067,1067,1063,1063,1060,1060,1060,1060,1060,1060,1060,1057,1057,1057,1057,1054,1054,1054,1054,1054,1054,1054,1050,1050,1050,1050,1050,1050,1050,1047,1047,1044,1044,1044,1044,1044,1044,1688,1688,1688,1688,1688,1696,1696,1696,1688,1688,1688,1688,1688,1680,1663,1663,1663,1663,1655,1655,1655,1655,1647,1647,1647,1639,1639,1639,1639,1639,1639,1632,1632,1632,1632,1632,1632,1624,1624,1616,1616,1616,1616,1609,1609,1609,1609,1601,1601,1601,1594,1594,1586,1586,1579,1579,1579,1579,1579,1579,1579,1579,1579,1579,1572,1572,1572,1564,1564,1550,1550,1550,1550,1550,1543,1543,1543,1543,1543,1543,1536,1536,0,0,0,0,0,0,0,0,0,0,903,901,898,898,898,896,896,896,894,894,891,889,889,889,889,889,889,891,894,894,898,903,906,906,906,906,908,0,0,0,0,0,0,1452,1452,1452,1445,1445,1445,1439,1439,1439,1439,1439,1433,1433,1433,1427,1427,1421,1421,1415,1415,1415,1415,1415,1410,1410,1404,1398,1398,1398,1398,1398,1398,1398,1398,1392,1392,1392,1387,1387,1387,1381,1381,1376,1376,1376,1370,1370,1370,1370,1370,1370,1370,1365,1365,1359,1359,1359,1354,1354,1354,1349,1349,1349,1349,1343,1343,1338,1333,1333,1333,1333,1333,1328,1328,1328,1328,1322,1322,1317,1317,1317,1317,1312,1312,1312,1312,1307,1307,1307,1302,1297,1297,1297,1292,1292,1292,1292,1288,1288,1288,1288,1288,1288,1283,1278,1278,1278,1273,1273,1273,1268,1268,1268,1268,1268,1268,1268,1264,1264,1259,1255,1255,1255,1250,1250,1250,1250,1245,1245,1245,1241,1241,1241,1236,1236,1236,1232,1232,1232,1232,1232,1232,1227,1227,1223,1223,1219,1219,1219,1214,1214,1214,1214,1210,1210,1210,1206,1206,1206,1206,1202,1202,1202,1202,1202,1197,1197,1193,1193,1189,1189,1189,1189,1185,1185,1185,1185,1185,1181,1181,1181,1181,1177,1177,1177,1177,1173,1169,1169,1169,1169,1169,1165,1165,1165,1165,1161,1161,1161,1161,1157,1153,1153,1153,1153,1153,1153,1149,1149,1149,1145,1141,1141,1141,1138,1138,1138,1138,1138,1134,1134,1134,1134,1130,1130,0,0,0,0,0,0,0,0,0,0,0,0,0,0,0,0,0,0,0,0,0,0,0,0,0,0,0,0
0,0,0,0,0,0,0,0,0,0,0,0,0,0,1609,1601,1601,1594,1594,1601,1594,1594,1594,1594,1594,1594,1594,1594,1594,1594,1586,1586,1579,1579,1579,1586,1579,1579,1579,1579,1579,1579,1579,1579,1579,1579,1579,1579,1579,1579,1579,1579,1579,1572,1572,1572,1572,1572,1572,1572,1572,1572,1572,1572,1572,1572,1572,1572,1572,1572,1579,1579,1579,1579,1586,1586,1579,1579,1579,1579,1572,1572,1564,1564,1564,1564,1564,1564,1572,1572,1572,1572,1572,1572,1579,1586,1586,1594,1594,1601,1794,1785,1776,1776,1785,1785,1785,1776,1757,1757,1748,1739,1731,1722,1713,1705,1705,1696,1696,1696,1696,1696,1594,1594,1594,1594,1594,1594,1594,1594,1594,1594,1594,1594,1594,1594,1594,1601,1601,1601,1601,1601,1616,1616,1624,1624,1632,1632,1632,1632,1632,1632,1639,1639,1647,1655,1655,1655,1663,1663,1663,1663,1663,1671,1671,1680,1680,1688,1688,1688,1688,1696,1696,1696,1705,1705,1713,1713,1722,1722,1722,1731,1731,1731,1739,1748,1748,1748,1748,1757,1757,1766,1766,1766,1776,1776,1776,1776,1776,1785,1785,1794,1794,1794,1794,1041,1038,1038,1038,1038,1038,1038,1038,1050,1050,1050,1050,1057,1060,1060,1060,1060,1063,1067,1067,1067,1063,1063,1063,1060,1060,1060,1060,1057,1057,1057,1054,1054,1054,1054,1054,1054,1050,1050,1050,1050,1050,1047,1047,1047,1047,1044,1044,1044,1047,1044,1041,1041,1041,1041,1041,1041,1038,1038,1038,1034,1034,1034,1034,1696,1688,1688,1028,1028,1028,1028,1671,1025,1022,1022,1022,1655,1655,1655,1647,1647,1647,1639,1639,1632,1632,1632,1632,1632,1632,1632,1632,1632,1632,1624,1624,1624,1616,1616,1616,1609,1609,1609,1609,1609,1601,1601,1601,1601,1594,1586,1586,1586,1586,1579,1579,1579,1579,1579,1579,1579,1572,1572,1572,1564,1564,1557,1550,1550,1550,1550,1550,1550,1543,1543,1543,1543,1543,1543,1543,0,0,0,0,0,0,0,0,0,903,901,901,898,898,898,896,896,896,894,894,891,891,889,889,889,891,894,894,896,898,906,906,906,906,908,908,0,0,0,0,0,0,1452,1452,1452,1445,1445,1445,1445,1439,1439,1439,1439,1439,1433,1433,1427,1427,1427,1421,1421,1421,1415,1415,1415,1410,1410,1410,1404,1404,1404,1398,1398,1398,1398,1392,1392,1392,1392,1387,1387,1387,1387,1381,1376,1376,1376,1370,1370,1370,1370,1370,1370,1370,1365,1365,1359,1359,1359,1359,1354,1354,1354,1349,1349,1349,1343,1343,1338,1338,1333,1333,1333,1333,1328,1328,1328,1328,1322,1322,1322,1317,1317,1317,1312,1312,1312,1312,1312,1307,1307,1302,1302,1302,1297,1292,1292,1292,1292,1292,1292,1288,1288,1288,1288,1283,1283,1278,1278,1273,1273,1273,1273,1268,1268,1268,1268,1268,1268,1264,1264,1264,1259,1255,1255,1255,1250,1250,1250,1245,1245,1245,1245,1241,1241,1236,1236,1236,1232,1232,1232,1232,1232,1232,1232,1227,1227,1223,1219,1219,1219,1214,1214,1214,1214,1214,1214,1210,1210,1210,1210,1206,1206,1202,1202,1202,1202,1197,1197,1197,1197,1193,1193,1189,1189,1189,1185,1185,1185,1185,1181,1181,1181,1181,1177,1177,1177,1177,1177,1169,1169,1169,1169,1169,1169,1165,1165,1165,1165,1161,1161,1161,1157,1157,1153,1153,1153,1153,1153,1149,1149,1149,1145,1145,1141,1141,1141,1138,1138,1138,1138,1138,1134,1134,1134,1134,1134,0,0,0,0,0,0,0,0,0,0,0,0,0,0,0,0,0,0,0,0,0,0,0,0,0,0,0,0
0,0,0,0,0,0,0,0,0,0,0,0,0,0,1609,1601,1601,1594,1594,1594,1594,1594,1594,1594,1594,1594,1594,1594,1594,1594,1594,1594,1586,1586,1586,1586,1579,1579,1579,1579,1579,1579,1579,1579,1579,1579,1579,1579,1579,1579,1579,1579,1579,1579,1579,1572,1572,1572,1572,1572,1572,1572,1572,1572,1579,1579,1579,1579,1572,1572,1579,1572,1572,1579,1579,1579,1579,1579,1579,1579,1579,1572,1564,1564,1572,1572,1572,1572,1572,1572,1572,1572,1572,1572,1579,1586,1586,1594,1594,1601,1601,1601,1776,1776,1776,1776,1776,1776,1757,1757,1748,1739,1731,1722,1713,1705,1705,1696,1696,1696,1696,1696,1688,1594,1594,1594,1594,1594,1594,1594,1594,1594,1594,1594,1594,1594,1594,1601,1601,1601,1601,1601,1616,1616,1624,1632,1632,1632,1632,1632,1632,1632,1639,1639,1647,1655,1655,1655,1663,1663,1663,1663,1671,1671,1671,1680,1680,1688,1688,1688,1688,1696,1696,1696,1705,1705,1713,1713,1722,1722,1722,1731,1731,1739,1748,1748,1748,1748,1748,1757,1757,1766,1766,1766,1776,1776,1776,1776,1766,1766,1776,1031,1031,1031,1031,1034,1034,1034,1034,1034,1034,1034,1038,1038,1038,1041,1044,1047,1057,1057,1060,1060,1067,1067,1067,1063,1063,1063,1060,1060,1060,1060,1057,1057,1057,1057,1054,1054,1050,1050,1050,1050,1047,1047,1047,1047,1047,1044,1041,1041,1041,1041,1038,1038,1041,1041,1038,1038,1041,1038,1038,1038,1038,1038,1034,1031,1031,1031,1028,1025,1025,1025,1025,1025,1025,1022,1022,1022,1019,1019,1013,1013,1010,1010,1647,1647,1647,1639,1639,1632,1632,1016,1016,1632,1632,1632,1632,1632,1632,1632,1624,1624,1616,1616,1616,1616,1609,1609,1609,1609,1609,1601,1601,1601,1594,1594,1586,1586,1586,1586,1579,1579,1579,1579,1579,1579,1579,1572,1572,1564,1564,1564,1557,1557,1550,1550,1550,1550,1550,1543,1543,1543,1543,1543,1543,0,0,0,0,0,0,0,0,906,903,903,901,901,898,898,896,896,896,894,894,891,891,891,889,889,891,894,894,896,898,906,906,906,908,908,908,0,0,0,0,0,0,1464,1464,1452,1452,1445,1445,1445,1445,1439,1439,1439,1439,1433,1433,1433,1427,1427,1421,1421,1421,1415,1415,1415,1415,1415,1410,1410,1404,1404,1398,1398,1398,1392,1392,1392,1392,1392,1392,1392,1392,1387,1387,1381,1376,1376,1376,1376,1370,1370,1370,1370,1370,1365,1365,1365,1359,1359,1359,1354,1354,1354,1349,1349,1349,1349,1343,1343,1338,1333,1333,1333,1333,1328,1328,1328,1328,1328,1322,1322,1322,1322,1317,1317,1317,1312,1312,1312,1307,1307,1302,1302,1302,1297,1292,1292,1292,1292,1292,1292,1288,1288,1288,1288,1288,1288,1283,1283,1273,1273,1273,1273,1268,1268,1268,1268,1268,1268,1268,1264,1259,1259,1259,1259,1255,1255,1255,1250,1250,1245,1245,1245,1245,1241,1241,1236,1236,1232,1232,1232,1232,1232,1232,1232,1227,1227,1227,1223,1223,1219,1214,1214,1214,1214,1214,1214,1214,1210,1210,1210,1206,1206,1202,1202,1202,1202,1197,1197,1197,1197,1193,1193,1193,1193,1189,1189,1185,1185,1185,1185,1181,1181,1181,1181,1181,1181,1181,1177,1169,1169,1169,1169,1169,1169,1165,1165,1165,1165,1161,1161,1161,1161,1161,1157,1157,1153,1153,1153,1153,1153,1149,1149,1145,1145,1141,1141,1138,1138,1138,1138,1138,1138,1134,1134,1134,1134,0,0,0,0,0,0,0,0,0,0,0,0,0,0,0,0,0,0,0,0,0,0,0,0,0,0,0,0
0,0,0,0,0,0,0,0,0,0,0,0,0,0,1609,1601,1601,1594,1594,1594,1594,1594,1594,1594,1594,1594,1594,1594,1594,1594,1594,1594,1586,1586,1586,1586,1586,1586,1579,1579,1579,1579,1579,1579,1586,1586,1586,1586,1586,1579,1579,1579,1579,1579,1579,1579,1572,1572,1572,1572,1572,1572,1572,1572,1579,1579,1579,1579,1572,1572,1572,1572,1572,1579,1579,1579,1579,1579,1579,1579,1579,1572,1572,1572,1572,1572,1579,1572,1572,1572,1572,1572,1572,1579,1579,1586,1586,1594,1601,1601,1601,1601,1776,1776,1776,1776,1776,1766,1757,1757,1748,1739,1731,1731,1722,1705,1705,1705,1705,1705,1705,1705,1688,1594,1594,1594,1594,1601,1594,1594,1594,1594,1594,1594,1594,1601,1601,1601,1601,1601,1609,1609,1616,1616,1632,1632,1632,1632,1632,1632,1632,1639,1639,1647,1647,1655,1655,1663,1663,1663,1663,1671,1671,1680,1680,1680,1688,1688,1688,1688,1688,1696,1696,1696,1705,1705,1713,1722,1722,1722,1731,1731,1731,1739,1748,1748,1748,1748,1748,1757,1757,1766,1766,1776,1776,1776,1776,1766,1034,1031,1031,1028,1028,1028,1028,1031,1031,1034,1034,1031,1031,1034,1034,1034,1034,1038,1038,1038,1057,1057,1060,1060,1067,1067,1063,1060,1060,1060,1060,1060,1060,1060,1057,1047,1047,1047,1050,1050,1047,1047,1047,1047,1044,1044,1044,1044,1044,1038,1038,1038,1034,1034,1034,1034,1034,1034,1038,1038,1038,1038,1034,1034,1034,1034,1031,1025,1025,1028,1022,1022,1022,1022,1022,1019,1019,1019,1019,1019,1016,1016,1013,1010,1010,1010,1010,1013,1013,1013,1013,1013,1013,1013,1013,1013,1632,1632,1632,1632,1632,1632,1624,1624,1624,1616,1616,1616,1616,1609,1609,1609,1609,1609,1601,1601,1594,1594,1594,1594,1594,1594,1586,1586,1579,1579,1579,1579,1579,1579,1572,1564,1564,1564,1557,1557,1550,1550,1550,1550,1550,1543,1543,1550,1543,1543,1550,0,0,0,0,0,0,0,0,906,906,903,901,901,898,898,896,896,896,896,894,894,891,891,891,891,891,894,894,896,898,906,906,908,908,908,908,0,0,0,0,0,1470,1464,1464,1458,1452,1452,1445,1445,1445,1445,1439,1439,1439,1439,1433,1433,1427,1427,1427,1421,1421,1421,1415,1415,1415,1415,1415,1410,1410,1404,1398,1398,1398,1392,1392,1392,1392,1392,1392,1392,1392,1392,1387,1381,1381,1376,1376,1376,1376,1370,1370,1370,1370,1370,1365,1365,1359,1359,1359,1354,1354,1354,1349,1349,1349,1349,1343,1343,1338,1338,1333,1333,1333,1333,1328,1328,1328,1328,1328,1328,1328,1322,1322,1317,1317,1317,1312,1312,1312,1307,1307,1302,1302,1297,1297,1292,1292,1292,1292,1292,1288,1288,1288,1288,1288,1288,1283,1283,1278,1278,1278,1273,1273,1273,1268,1268,1268,1268,1268,1264,1259,1259,1259,1259,1255,1255,1255,1250,1250,1245,1245,1245,1245,1241,1241,1236,1236,1236,1236,1236,1232,1232,1232,1232,1232,1227,1227,1227,1223,1219,1219,1219,1214,1214,1214,1214,1214,1214,1214,1210,1206,1206,1202,1202,1202,1202,1197,1197,1197,1197,1197,1193,1193,1193,1193,1189,1189,1189,1185,1185,1185,1185,1181,1181,1181,1181,1181,1181,1181,1173,1173,1173,1169,1169,1169,1165,1165,1165,1165,1161,1161,1161,1161,1157,1157,1157,1157,1153,1153,1153,1149,1149,1149,1145,1145,1141,1141,1138,1138,1138,1138,1138,1138,1138,1134,1134,0,0,0,0,0,0,0,0,0,0,0,0,0,0,0,0,0,0,0,0,0,0,0,0,0,0,0,0
0,0,0,0,0,0,0,0,0,0,0,0,0,0,1609,1601,1601,1594,1594,1594,1594,1594,1594,1594,1594,1594,1594,1594,1594,1594,1594,1594,1594,1594,1594,1586,1586,1586,1586,1586,1586,1586,1586,1586,1586,1586,1586,1586,1586,1586,1579,1579,1579,1579,1579,1579,1579,1579,1579,1579,1579,1579,1579,1579,1579,1579,1579,1579,1579,1579,1572,1572,1572,1579,1579,1579,1579,1579,1579,1579,1572,1572,1572,1572,1572,1572,1579,1572,1572,1579,1579,1579,1579,1579,1586,1586,1586,1594,1601,1601,1601,1601,1624,1776,1776,1766,1766,1766,1757,1748,1748,1739,1739,1731,1722,1713,1705,1705,1705,1705,1705,1705,1696,1696,1594,1594,1601,1601,1601,1594,1594,1594,1594,1594,1594,1601,1601,1601,1601,1609,1609,1616,1616,1624,1632,1632,1632,1632,1632,1632,1639,1639,1639,1647,1647,1655,1655,1655,1663,1663,1671,1671,1671,1680,1680,1680,1688,1688,1688,1688,1688,1696,1696,1696,1705,1713,1713,1722,1731,1731,1731,1731,1739,1739,1748,1748,1748,1748,1748,1757,1757,1766,1766,1776,1785,1776,1776,1757,1028,1028,1028,1025,1025,1025,1025,1028,1028,1031,1031,1031,1031,1028,1028,1028,1028,1031,1028,1028,1028,1028,1067,1067,1067,1067,1063,1060,1060,1060,1060,1060,1060,1047,1047,1047,1019,1019,1047,1044,1044,1044,1044,1044,1044,1041,1041,1038,1034,1034,1034,1031,1025,1022,1022,1022,1022,1022,1028,1031,1028,1028,1028,1028,1028,1013,1013,1001,998,998,1001,1001,1019,1019,1019,1016,1013,1010,1010,1010,1010,1010,1010,1010,1010,1010,1010,1013,1013,1013,1010,1010,1010,1013,1010,1010,1010,1001,1001,1632,1632,1632,1624,1624,1624,1624,1624,992,992,1616,1616,1616,1616,1609,1609,1601,1601,1594,1594,1594,1594,1594,1586,1586,1586,1579,1579,1579,1579,1579,1572,1572,1572,1572,1564,1557,1557,1550,1550,1550,1550,1550,1550,1550,1543,1543,1550,0,0,0,0,0,0,0,0,906,906,903,903,901,901,898,898,896,896,896,894,894,894,891,891,891,894,894,894,896,898,908,908,908,908,910,0,0,0,0,0,0,1470,1464,1464,1458,1452,1452,1445,1445,1445,1445,1445,1439,1439,1439,1439,1433,1433,1427,1427,1421,1421,1421,1415,1415,1415,1415,1415,1415,1410,1410,1404,1404,1398,1398,1398,1398,1392,1392,1392,1392,1392,1392,1387,1387,1381,1376,1376,1376,1376,1370,1370,1370,1370,1370,1365,1365,1365,1359,1359,1359,1354,1354,1354,1349,1349,1349,1343,1343,1343,1338,1338,1333,1333,1333,1328,1328,1328,1328,1328,1328,1328,1328,1322,1322,1317,1317,1317,1312,1312,1312,1307,1307,1302,1302,1297,1297,1297,1297,1292,1292,1292,1288,1288,1288,1288,1288,1283,1283,1278,1278,1278,1278,1278,1273,1273,1268,1268,1268,1268,1264,1264,1264,1259,1259,1259,1255,1255,1255,1250,1245,1245,1245,1245,1245,1241,1241,1236,1236,1236,1236,1236,1232,1232,1232,1232,1227,1227,1227,1223,1223,1219,1219,1219,1219,1219,1214,1214,1214,1214,1214,1210,1210,1206,1202,1202,1202,1197,1197,1197,1197,1197,1197,1193,1193,1193,1189,1189,1189,1185,1185,1185,1185,1181,1181,1181,1181,1181,1181,1181,1173,1173,1173,1173,1169,1169,1169,1165,1165,1165,1165,1161,1161,1161,1157,1157,1157,1157,1153,1153,1153,1149,1149,1149,1145,1145,1141,1141,1141,1141,1138,1138,1138,1138,1138,1134,1134,0,0,0,0,0,0,0,0,0,0,0,0,0,0,0,0,0,0,0,0,0,0,0,0,0,0,0,0
0,0,0,0,0,0,0,0,0,0,0,0,0,0,1609,1601,1601,1594,1594,1594,1594,1594,1594,1594,1594,1594,1594,1594,1594,1594,1594,1594,1594,1594,1594,1594,1594,1594,1586,1586,1586,1586,1586,1586,1586,1586,1586,1586,1586,1586,1586,1579,1579,1586,1586,1579,1579,1579,1579,1579,1579,1579,1579,1586,1579,1579,1579,1579,1579,1579,1579,1579,1579,1579,1586,1586,1586,1579,1579,1579,1572,1572,1572,1572,1572,1572,1579,1572,1572,1579,1579,1579,1579,1579,1579,1586,1594,1594,1601,1601,1609,1609,1624,1632,1766,1757,1757,1757,1748,1739,1739,1739,1739,1731,1722,1713,1713,1705,1705,1705,1705,1713,1705,1705,1601,1601,1601,1601,1601,1594,1594,1594,1594,1594,1594,1601,1601,1601,1609,1609,1609,1616,1616,1624,1632,1632,1632,1639,1639,1639,1639,1639,1647,1647,1647,1655,1655,1655,1663,1663,1671,1671,1671,1680,1680,1688,1688,1688,1688,1688,1688,1696,1696,1696,1705,1713,1713,1722,1731,1731,1739,1739,1748,1748,1748,1748,1748,1004,1004,1757,1757,1766,1776,1785,1785,1776,1776,1757,1025,1025,1025,1022,1022,1025,1025,1025,1028,1028,1028,1025,1025,1025,1025,1025,1025,1025,1025,1025,1025,1025,1022,1022,1022,1022,1016,1016,1016,1016,1013,1013,1013,1013,1013,1013,1013,1013,1047,1022,1022,1022,1025,1025,1031,1031,1031,1025,1025,1025,1025,1022,1013,1013,1016,1016,1016,1016,1022,1022,1025,1019,1019,1019,1016,1004,1001,1001,998,998,998,998,1001,1004,1004,1010,1007,1007,1004,1004,1001,1001,1001,1001,1004,995,995,1016,1016,1013,1010,1010,1010,1010,1007,1001,1001,1001,1001,0,1632,1632,1632,1632,1632,1624,1624,989,989,1616,987,987,987,1616,1609,1601,1601,1601,1601,1601,1601,1601,1594,1594,1586,1579,1579,1579,1579,1579,1572,1572,1572,1572,1564,1564,1557,1557,1550,959,959,1550,1550,1550,1550,1550,1550,0,0,0,0,0,0,0,0,906,906,903,903,903,901,898,898,896,896,896,896,894,894,894,894,894,894,896,896,898,903,908,908,908,908,913,0,0,0,0,0,0,1470,1470,1464,1458,1458,1452,1452,1445,1445,1445,1445,1445,1439,1439,1439,1433,1433,1433,1427,1427,1421,1421,1421,1421,1415,1415,1415,1415,1415,1410,1410,1404,1404,1398,1398,1398,1398,1398,1392,1392,1392,1392,1387,1387,1381,1376,1376,1376,1376,1376,1370,1370,1370,1370,1370,1365,1365,1359,1359,1359,1354,1354,1354,1349,1349,1349,1349,1343,1343,1343,1338,1338,1333,1333,1333,1333,1328,1328,1328,1328,1328,1328,1328,1322,1322,1317,1317,1312,1312,1312,1307,1307,1302,1302,1297,1297,1297,1297,1297,1292,1292,1292,1288,1288,1288,1288,1283,1283,1278,1278,1278,1278,1278,1273,1273,1268,1268,1268,1268,1268,1264,1264,1264,1259,1259,1255,1255,1255,1250,1250,1245,1245,1245,1245,1245,1241,1236,1236,1236,1236,1236,1232,1232,1232,1232,1232,1232,1227,1227,1227,1219,1219,1219,1219,1219,1219,1214,1214,1214,1214,1210,1210,1206,1206,1202,1202,1202,1197,1197,1197,1197,1193,1193,1189,1189,1189,1189,1189,1185,1185,1185,1185,1185,1181,1181,1181,1181,1181,1181,1177,1177,1173,1173,1169,1169,1169,1169,1165,1165,1165,1165,1161,1161,1161,1157,1157,1157,1153,1153,1153,1149,1149,1149,1149,1145,1145,1141,1141,1141,1138,1138,1138,1138,1138,1134,1134,0,0,0,0,0,0,0,0,0,0,0,0,0,0,0,0,0,0,0,0,0,0,0,0,0,0,0,0
0,0,0,0,0,0,0,0,0,0,0,0,0,0,1609,1601,1601,1594,1594,1594,1594,1594,1594,1594,1594,1594,1594,1594,1594,1594,1594,1594,1594,1594,1594,1594,1594,1594,1594,1594,1594,1594,1594,1594,1594,1586,1586,1586,1594,1594,1586,1586,1586,1586,1586,1579,1579,1579,1579,1594,1586,1579,1579,1594,1579,1579,1579,1579,1579,1579,1579,1579,1579,1579,1586,1586,1586,1586,1586,1586,1579,1579,1579,1579,1579,1579,1579,1579,1579,1579,1579,1579,1579,1579,1579,1586,1594,1601,1601,1609,1616,1616,1624,1632,1731,1731,1731,1731,1739,1739,1739,1739,1739,1739,1722,1722,1722,1705,1705,1722,1713,1713,1713,1713,1601,1601,1601,1601,1601,1594,1594,1594,1594,1594,1594,1601,1601,1601,1609,1609,1609,1616,1616,1624,1632,1632,1632,1639,1639,1639,1639,1647,1647,1647,1655,1655,1655,1663,1663,1663,1671,1680,1680,1680,1680,1688,1688,1688,1696,1696,1696,1696,1696,1696,1705,1713,1713,1722,1731,1731,1739,1739,1748,1010,1010,1013,1013,1004,1004,1013,1010,1010,1776,1016,1016,1022,1022,1025,1022,1022,1019,1019,1019,1019,1022,1022,1025,1025,1025,1025,1022,1022,1022,1022,1022,1022,1019,1019,1019,1019,1019,1019,1016,1016,1016,1016,1016,1016,1013,1013,1013,1013,1013,1010,1010,1010,1007,1007,1019,1019,1019,1019,1025,1025,1022,1001,1001,1004,1004,1013,1010,1010,1010,1010,1007,1001,1001,1001,1001,1001,1013,1010,1010,1001,1001,1001,998,995,995,995,998,1001,1001,1001,1001,1001,1001,1001,998,998,989,987,987,984,978,978,978,978,978,978,981,981,1007,992,992,1001,1001,0,0,1632,1632,1632,1632,987,987,987,984,984,984,984,981,981,981,1609,1601,1601,1601,1601,1601,1601,1601,1601,1594,1586,975,975,975,975,973,973,1572,1572,1564,1564,1557,959,959,956,956,959,959,1550,1550,1550,1550,0,0,0,0,0,0,0,0,906,906,906,903,903,901,898,898,898,896,896,896,896,896,894,894,894,894,896,896,898,903,906,908,908,910,913,915,0,0,0,0,0,1470,1464,1464,1458,1458,1458,1452,1445,1445,1445,1445,1445,1439,1439,1439,1439,1433,1433,1427,1427,1421,1421,1421,1421,1415,1415,1415,1415,1415,1410,1410,1404,1404,1398,1398,1398,1398,1398,1398,1392,1392,1392,1392,1387,1381,1376,1376,1376,1376,1376,1370,1370,1370,1370,1370,1370,1365,1365,1365,1359,1354,1354,1354,1354,1349,1349,1349,1343,1343,1343,1343,1338,1333,1333,1333,1333,1333,1328,1328,1328,1328,1328,1328,1322,1322,1317,1317,1312,1312,1312,1307,1307,1307,1307,1302,1302,1302,1297,1297,1292,1292,1292,1292,1288,1288,1288,1283,1283,1288,1283,1283,1278,1278,1273,1273,1273,1273,1273,1268,1268,1268,1264,1264,1259,1259,1255,1255,1255,1255,1250,1245,1245,1250,1245,1245,1245,1241,1241,1236,1236,1236,1236,1232,1232,1232,1232,1232,1232,1227,1227,1223,1223,1219,1219,1219,1219,1214,1214,1214,1214,1210,1210,1206,1206,1206,1206,1202,1202,1197,1197,1197,1193,1193,1189,1189,1189,1189,1189,1185,1185,1185,1185,1185,1185,1185,1181,1181,1181,1181,1177,1177,1173,1173,1169,1169,1169,1169,1169,1165,1165,1165,1161,1161,1161,1157,1157,1157,1153,1153,1153,1153,1153,1149,1149,1145,1145,1145,1141,1141,1141,1138,1138,1138,1138,1138,1138,0,0,0,0,0,0,0,0,0,0,0,0,0,0,0,0,0,0,0,0,0,0,0,0,0,0,0,0
