0,0,0,0,0,0,0,0,0,0,0,1624,1624,1624,1624,1624,1624,1616,1616,1616,1616,1609,1609,1616,1616,1616,1609,1609,1609,1601,1601,1601,1601,1601,1609,1616,1616,1616,1616,1616,1616,1616,1616,1616,1616,1616,1616,1609,1609,1609,1609,1616,1616,1616,1616,1616,1624,1616,1616,1616,1616,1616,1624,1616,1616,1624,1616,1616,1616,1616,1624,1624,1616,1616,1616,1601,1601,1594,1586,1586,0,0,0,0,0,0,0,0,0,0,0,703,701,698,697,697,696,693,690,688,687,687,687,687,686,686,686,686,684,684,686,686,686,686,690,687,686,686,686,691,690,690,688,688,687,686,686,683,683,684,682,682,683,683,684,684,683,683,686,686,687,687,688,688,688,690,690,691,691,693,693,693,694,696,696,696,697,698,698,700,700,701,703,703,704,706,707,708,708,710,710,710,711,711,711,713,714,716,717,719,720,722,722,723,727,728,730,731,731,733,734,734,736,739,739,739,742,744,746,746,747,747,749,749,750,752,752,754,754,755,755,757,759,759,759,761,762,762,764,766,766,767,767,769,771,771,773,773,774,776,778,778,778,780,781,781,781,783,785,787,787,787,789,789,790,792,794,794,796,798,798,800,800,802,802,802,803,803,805,805,809,809,811,811,813,815,815,817,817,819,819,819,819,819,821,825,825,827,827,827,827,827,827,1219,1219,1219,0,1586,1586,1586,1586,1586,1586,1586,1586,1586,1579,1579,1579,1579,1579,1579,1572,1572,1572,1579,1579,1579,1579,1579,1579,1579,1572,1572,1579,1572,1572,1579,1579,1579,1579,1579,1579,1579,1579,1579,918,918,918,918,918,918,918,915,913,910,908,906,906,903,903,903,903,903,903,906,906,906,906,908,908,910,913,913,915,915,915,918,918,920,0,0,0,0,0,0,1572,1572,1572,1572,1572,1572,1572,1572,1572,1572,1572,1572,1572,1572,1572,1572,1572,1572,1572,1572,1572,1572,1572,1572,1572,1572,1572,1572,1572,1564,1564,1564,1564,1564,1572,1564,1564,1564,1564,1564,1564,1564,1557,1557,1557,1557,1550,1550,1550,1550,1550,1543,1543,1543,1543,1543,1536,1536,1523,1523,1523,1516,1516,1516,1516,1509,1503,1496,1496,1489,1477,1470,1470,1470,1470,1464,1464,1464,1458,1458,1452,1445,1445,1445,1439,1433,1427,1421,1421,1421,1415,1415,1415,1410,1404,1398,1398,1398,1392,1387,1381,1381,1376,1376,1376,1370,1370,1365,1365,1354,1354,1354,1349,1349,1343,1338,1333,1333,1333,1328,1328,1328,1317,1317,1312,1312,1312,1307,1302,1302,1297,1292,1292,1292,1288,1288,1283,1278,1273,1273,1268,1268,1268,1264,1259,1255,1255,1255,1250,1250,1245,1241,1236,1236,1232,1232,1232,1232,1227,1223,1219,1219,1214,1214,1210,1206,1202,1202,1202,1197,1197,1197,1193,1193,1185,1185,1181,1181,1177,1169,1169,1169,1165,1165,1165,1161,1157,1153,1153,1153,1149,1149,1145,1145,1141,1141,1138,1138,1134,1134,1130,1126,1126,1123,1123,1123,1119,1115,1115,1112,1108,1105,1105,1105,1101,1097,1097,1094,1094,1090,1090,1090,1084,1080,1080,1077,1077,1077,1077,1073,1070,1070,1067,1067,1067,1063,1060,1057,1054,1054,1054,0,0,0,0,0,0,0,0,0,0,0,0,0,0,0,0,0,0,0,0,0,0,0,0,0,0,0,0,0,0,0,0,0
0,0,0,0,0,0,0,0,0,0,0,1616,1616,1616,1616,1616,1609,1609,1609,1609,1609,1601,1601,1609,1609,1609,1601,1601,1601,1601,1594,1594,1594,1594,1601,1609,1616,1616,1616,1616,1616,1616,1616,1616,1616,1616,1609,1609,1609,1609,1609,1609,1609,1609,1609,1609,1609,1609,1609,1609,1609,1616,1616,1616,1616,1616,1616,1616,1616,1616,1616,1616,1616,1609,1609,1601,1601,1594,1579,1579,0,0,0,0,0,0,0,0,0,0,0,0,698,698,697,690,690,690,687,687,686,686,684,684,683,683,683,683,683,683,683,683,682,680,680,682,684,683,682,682,684,684,684,683,683,683,683,682,682,682,682,682,682,682,682,683,683,683,684,686,686,687,688,688,688,690,690,691,691,693,693,693,694,696,696,697,697,698,700,700,701,703,703,704,704,706,707,708,708,710,710,711,711,714,716,717,717,717,719,720,722,723,725,727,730,731,731,733,733,734,734,736,738,739,739,741,742,744,746,746,747,747,749,749,750,752,752,754,754,755,757,757,759,759,759,761,762,762,764,766,766,767,769,771,771,773,773,773,776,776,778,778,780,780,781,781,783,785,785,787,789,789,789,790,790,792,794,796,796,798,798,800,800,802,802,802,803,803,805,809,809,811,811,811,815,815,817,817,817,817,819,819,819,819,823,825,827,827,829,827,827,827,1219,1219,1219,1219,1223,1586,1586,1579,1579,1579,1579,1579,1579,1579,1572,1572,1572,1572,1572,1572,1572,1572,1572,1572,1572,1572,1572,1572,1572,1572,1572,1572,1572,1564,1564,1572,1572,1572,1572,1572,1572,1572,1572,1572,920,920,920,918,918,918,918,918,913,910,908,908,906,906,903,903,903,903,903,906,906,906,906,908,910,913,913,915,915,915,918,918,918,920,923,0,0,0,0,0,1572,1564,1564,1564,1564,1564,1564,1564,1564,1564,1564,1564,1564,1564,1564,1564,1564,1564,1557,1557,1564,1564,1564,1564,1564,1564,1564,1564,1564,1564,1564,1564,1564,1564,1564,1564,1557,1557,1557,1557,1557,1550,1550,1550,1550,1550,1550,1550,1543,1543,1543,1543,1543,1543,1543,1543,1536,1536,1523,1523,1523,1516,1516,1516,1516,1509,1503,1496,1496,1483,1477,1470,1470,1470,1464,1464,1464,1464,1458,1458,1452,1445,1445,1445,1439,1433,1427,1421,1421,1421,1415,1415,1410,1410,1404,1398,1398,1398,1392,1387,1381,1381,1376,1376,1376,1370,1370,1370,1365,1354,1354,1354,1349,1349,1343,1343,1338,1333,1333,1328,1328,1328,1322,1317,1317,1312,1312,1307,1307,1302,1302,1297,1292,1292,1288,1288,1283,1278,1273,1273,1268,1268,1268,1264,1259,1259,1255,1255,1250,1250,1250,1241,1236,1236,1232,1232,1232,1232,1227,1227,1223,1219,1214,1214,1210,1206,1202,1202,1202,1197,1197,1197,1197,1193,1189,1185,1185,1181,1177,1173,1169,1169,1165,1165,1165,1161,1161,1157,1153,1153,1153,1149,1149,1145,1145,1141,1138,1138,1134,1134,1134,1130,1126,1123,1123,1123,1119,1115,1112,1108,1108,1105,1105,1105,1101,1101,1097,1094,1094,1094,1090,1090,1084,1084,1080,1077,1077,1077,1077,1073,1070,1070,1070,1067,1067,1063,1060,1057,1057,1054,1054,0,0,0,0,0,0,0,0,0,0,0,0,0,0,0,0,0,0,0,0,0,0,0,0,0,0,0,0,0,0,0,0,0
0,0,0,0,0,0,0,0,0,0,0,1609,1609,1609,1609,1609,1601,1601,1609,1609,1601,1601,1601,1601,1601,1601,1601,1601,1594,1594,1594,1586,1586,1586,1594,1601,1601,1601,1609,1609,1609,1609,1609,1609,1609,1609,1601,1601,1601,1601,1601,1601,1601,1601,1601,1601,1601,1601,1601,1601,1601,1609,1609,1609,1609,1609,1609,1609,1609,1609,1609,1609,1601,1601,1601,1601,1601,1594,1579,1579,1579,0,0,0,0,0,0,0,0,0,0,1019,1022,687,688,688,688,688,687,686,684,684,683,682,682,682,682,682,675,675,682,682,680,679,679,679,679,679,678,678,679,679,682,682,682,682,682,682,682,682,682,682,682,682,682,682,683,683,684,686,686,687,687,687,687,688,688,691,691,693,693,694,696,696,696,697,697,698,700,701,703,704,704,706,706,707,708,710,710,711,711,713,714,716,719,720,720,723,725,725,727,727,728,730,731,733,733,734,734,736,738,738,739,739,741,741,742,746,746,747,747,747,749,750,750,752,754,754,755,755,757,757,759,759,759,761,762,762,766,766,767,767,769,771,771,773,773,774,776,776,778,780,780,781,783,783,785,787,787,787,789,789,789,790,792,794,794,796,796,798,798,800,800,802,802,803,803,805,805,809,809,811,811,813,815,815,817,817,817,817,819,819,819,819,819,1214,1214,1214,829,829,829,1214,1219,1219,1219,1223,1223,1223,1586,1579,1579,1579,1579,1579,1579,1572,1572,1572,1564,1564,1564,1564,1564,1564,1564,1572,1564,1564,1572,1572,1564,1564,1564,1564,1564,1564,1564,1572,1572,1572,1572,1572,1564,1564,1572,1572,923,923,923,920,920,920,918,918,915,913,910,908,906,906,906,903,903,906,906,906,906,906,908,908,910,913,915,915,918,918,918,918,920,920,923,0,0,0,0,0,0,1564,1557,1557,1557,1557,1557,1557,1557,1557,1557,1557,1557,1557,1550,1550,1550,1550,1550,1550,1550,1550,1550,1557,1557,1557,1557,1557,1557,1557,1557,1557,1557,1557,1557,1557,1550,1550,1550,1550,1550,1550,1550,1550,1550,1550,1550,1543,1543,1543,1543,1543,1543,1543,1543,1543,1543,1536,1536,1523,1523,1523,1523,1516,1516,1509,1509,1503,1496,1483,1477,1470,1470,1470,1464,1464,1464,1464,1458,1458,1452,1445,1445,1445,1439,1433,1427,1421,1421,1415,1415,1415,1410,1404,1404,1398,1398,1392,1392,1387,1387,1381,1376,1376,1376,1370,1370,1370,1365,1359,1354,1354,1349,1349,1343,1343,1338,1333,1333,1328,1328,1328,1322,1317,1317,1312,1312,1307,1307,1307,1302,1297,1297,1292,1292,1288,1283,1278,1273,1273,1273,1268,1268,1264,1259,1259,1255,1255,1255,1250,1250,1245,1236,1236,1236,1232,1232,1232,1227,1227,1223,1219,1214,1214,1210,1206,1206,1202,1202,1197,1197,1197,1197,1193,1189,1185,1185,1181,1177,1173,1169,1169,1165,1165,1165,1165,1161,1161,1157,1153,1153,1153,1149,1145,1145,1141,1138,1138,1134,1134,1134,1130,1126,1123,1123,1123,1119,1115,1112,1108,1108,1105,1105,1105,1101,1101,1097,1094,1094,1094,1090,1090,1087,1084,1080,1077,1077,1077,1077,1073,1070,1070,1070,1067,1067,1063,1063,1060,1057,1054,1054,0,0,0,0,0,0,0,0,0,0,0,0,0,0,0,0,0,0,0,0,0,0,0,0,0,0,0,0,0,0,0,0,0
0,0,0,0,0,0,0,0,0,0,0,1601,1601,1601,1601,1601,1601,1601,1601,1601,1601,1601,1601,1601,1601,1601,1594,1594,1594,1594,1586,1586,1586,1586,1586,1586,1586,1594,1601,1601,1601,1601,1601,1601,1601,1601,1601,1601,1594,1594,1601,1594,1594,1594,1594,1594,1594,1601,1601,1594,1594,1601,1601,1601,1601,1601,1601,1601,1601,1601,1601,1601,1601,1601,1594,1594,1594,1594,1579,1572,1572,0,0,0,0,0,0,0,1019,1019,1019,1019,1022,687,687,687,687,687,686,684,683,683,682,680,680,680,679,679,674,674,679,680,678,676,676,676,676,676,676,676,676,676,676,678,679,679,680,680,682,682,680,680,680,682,682,682,682,682,683,684,686,687,687,687,687,688,688,691,691,693,693,696,696,696,697,697,698,700,701,703,704,706,706,707,707,708,710,711,713,713,714,716,717,719,720,723,725,727,727,727,728,730,731,731,733,733,734,734,734,736,738,739,739,739,741,741,742,746,746,747,747,749,750,750,752,752,754,754,755,755,757,757,759,759,759,761,762,764,766,766,767,767,769,771,771,773,773,774,776,778,778,780,781,781,783,785,785,787,787,787,789,789,789,790,794,794,794,796,796,798,798,800,800,802,802,803,803,805,807,809,809,811,811,813,815,815,817,817,817,817,819,819,819,1219,1214,1214,1214,1214,1214,1214,1214,1219,1219,1219,1223,1223,1223,1223,1579,1579,1579,1579,1572,1572,1572,1572,1564,1564,1564,1564,1564,1564,1564,1564,1564,1564,1564,1564,1564,1564,1564,1564,1564,1557,1557,1557,1557,1564,1564,1564,1564,1564,1557,1550,1550,1550,0,923,923,920,920,920,920,918,915,913,910,908,908,906,906,906,906,906,906,906,908,908,908,910,913,915,915,918,918,918,918,918,920,923,923,0,0,0,0,0,0,1550,1550,1557,1550,1550,1550,1550,1550,1550,1550,1550,1550,1550,1550,1550,1550,1550,1550,1550,1550,1550,1550,1550,1550,1550,1550,1550,1557,1550,1550,1550,1550,1550,1550,1550,1550,1550,1543,1543,1543,1543,1543,1543,1543,1543,1543,1543,1543,1543,1543,1543,1543,1543,1543,1543,1536,1536,1523,1523,1523,1523,1523,1516,1516,1509,1503,1503,1496,1483,1477,1470,1470,1470,1470,1464,1464,1464,1458,1458,1452,1445,1445,1445,1439,1439,1427,1427,1421,1415,1415,1415,1410,1404,1404,1398,1398,1392,1392,1392,1387,1387,1381,1376,1376,1376,1370,1370,1365,1359,1354,1354,1349,1349,1343,1343,1338,1333,1333,1328,1328,1328,1322,1317,1317,1312,1312,1312,1307,1307,1302,1302,1297,1292,1292,1288,1283,1278,1273,1273,1273,1268,1268,1264,1264,1259,1259,1255,1255,1250,1250,1250,1236,1236,1236,1232,1232,1232,1232,1227,1223,1219,1214,1214,1210,1206,1206,1202,1202,1197,1197,1197,1197,1193,1189,1185,1185,1181,1177,1173,1169,1169,1165,1165,1165,1165,1161,1161,1157,1153,1153,1153,1149,1145,1145,1141,1138,1138,1134,1134,1134,1130,1126,1126,1123,1123,1119,1115,1112,1112,1108,1105,1105,1105,1101,1101,1097,1097,1094,1094,1090,1090,1090,1084,1080,1080,1077,1077,1077,1077,1073,1070,1067,1067,1067,1063,1063,1060,1057,1057,1057,0,0,0,0,0,0,0,0,0,0,0,0,0,0,0,0,0,0,0,0,0,0,0,0,0,0,0,0,0,0,0,0,0
0,0,0,0,0,0,0,0,0,0,0,1594,1594,1594,1594,1594,1601,1601,1601,1601,1601,1594,1594,1594,1594,1594,1594,1594,1594,1586,1586,1579,1579,1579,1579,1579,1579,1586,1594,1594,1594,1594,1594,1594,1594,1594,1594,1594,1594,1594,1594,1594,1594,1586,1586,1594,1594,1594,1594,1594,1594,1594,1594,1594,1594,1594,1594,1594,1594,1594,1586,1586,1594,1594,1594,1594,1594,1586,1572,1564,1564,0,0,0,0,1022,1022,1022,1019,1019,1019,1019,1019,684,684,686,686,686,686,684,682,682,680,678,678,676,675,674,672,672,674,674,675,675,675,675,675,675,675,675,675,675,675,676,676,678,678,680,680,680,680,680,680,682,682,682,682,682,683,684,686,687,687,687,688,688,688,691,691,693,694,696,696,697,697,698,700,703,704,704,706,707,707,707,708,710,711,714,714,716,717,719,720,723,723,725,725,727,727,728,728,731,731,733,733,734,734,736,738,738,739,739,739,741,741,742,744,746,747,747,747,750,750,752,752,752,754,754,755,757,757,759,759,759,761,761,762,764,766,766,767,769,769,771,773,773,774,776,778,778,778,780,781,783,785,785,787,787,787,789,789,789,790,792,794,794,796,796,798,798,800,802,802,802,803,803,803,805,807,809,809,809,811,811,815,815,817,817,819,819,819,819,1219,1219,1214,1214,1214,1214,1219,1219,1219,1219,1219,1223,1223,1223,1223,1223,1572,1572,1572,1572,1564,1564,1564,1564,1564,1557,1557,1557,1557,1557,1557,1557,1557,1557,1564,1557,1557,1557,1557,1557,1557,1557,1550,1550,1557,1564,1564,1557,1557,1550,1550,1543,1543,1543,1529,925,925,923,923,920,920,918,915,913,913,910,908,908,906,906,906,906,908,908,908,910,910,910,913,915,915,918,918,918,918,920,920,925,925,0,0,0,0,0,0,1543,1543,1550,1550,1550,1550,1550,1550,1543,1543,1543,1543,1543,1543,1543,1543,1543,1543,1543,1543,1543,1543,1543,1543,1543,1543,1543,1543,1543,1550,1550,1550,1543,1543,1543,1543,1543,1536,1536,1543,1543,1543,1543,1543,1543,1543,1543,1536,1536,1536,1536,1536,1536,1536,1536,1536,1529,1523,1523,1523,1523,1516,1516,1516,1509,1503,1503,1496,1489,1483,1477,1470,1470,1470,1464,1464,1464,1458,1458,1452,1452,1445,1445,1439,1439,1433,1427,1421,1415,1415,1415,1410,1410,1404,1398,1398,1398,1392,1392,1387,1387,1381,1376,1376,1376,1370,1370,1370,1365,1359,1354,1349,1349,1343,1343,1338,1333,1333,1328,1328,1328,1322,1322,1317,1312,1312,1307,1307,1307,1302,1302,1297,1292,1292,1288,1283,1278,1278,1273,1273,1268,1268,1268,1264,1264,1259,1255,1255,1250,1250,1245,1236,1236,1236,1232,1232,1232,1232,1227,1227,1219,1214,1214,1210,1210,1206,1206,1202,1202,1197,1197,1197,1193,1189,1185,1185,1181,1177,1173,1169,1169,1165,1165,1165,1165,1161,1161,1157,1157,1153,1153,1153,1149,1145,1145,1141,1138,1138,1138,1134,1134,1130,1126,1123,1123,1119,1115,1115,1112,1108,1108,1105,1105,1105,1101,1101,1097,1097,1094,1094,1090,1090,1084,1084,1080,1080,1077,1077,1073,1070,1070,1067,1067,1067,1063,1063,1060,1060,1057,1057,0,0,0,0,0,0,0,0,0,0,0,0,0,0,0,0,0,0,0,0,0,0,0,0,0,0,0,0,0,0,0,0,0
0,0,0,0,0,0,0,0,0,0,0,1594,1594,1586,1586,1594,1594,1594,1594,1594,1594,1594,1594,1586,1586,1594,1594,1586,1586,1586,1579,1579,1579,1579,1579,1579,1579,1586,1594,1594,1586,1586,1586,1586,1586,1594,1586,1586,1586,1586,1586,1586,1586,1579,1579,1586,1594,1594,1594,1586,1586,1586,1586,1586,1586,1586,1586,1594,1586,1586,1586,1586,1586,1586,1586,1586,1586,1586,1572,1564,1564,0,0,0,0,1022,1022,1022,1022,1019,1019,1022,1019,684,684,686,686,686,684,683,682,680,678,675,675,674,672,671,671,671,671,671,671,672,672,672,672,672,674,674,674,674,675,676,676,676,678,679,680,680,680,680,680,682,682,682,682,683,683,684,686,687,687,687,688,688,690,691,693,694,694,696,697,698,698,700,701,704,704,704,707,708,710,710,710,711,713,716,716,717,719,720,723,725,725,727,727,727,728,728,728,731,731,733,733,734,734,736,738,738,739,739,741,741,742,742,744,746,747,747,747,750,752,752,752,752,754,755,757,757,759,759,759,761,761,761,764,766,767,767,767,769,771,773,773,774,774,776,778,778,780,780,783,783,785,787,787,787,787,789,789,789,790,792,794,794,796,796,798,798,800,802,802,802,803,803,803,805,807,807,809,809,811,811,815,817,817,817,1227,1227,1223,1219,1219,1219,1214,1214,1214,1214,1219,1219,1219,1219,1223,1223,1223,1223,1223,1223,1564,1564,1564,1564,1557,1557,1557,1557,1557,1557,1557,1550,1550,1550,1550,1550,1550,1550,1557,1557,1557,1550,1550,1550,1557,1550,1550,1550,1550,1557,1557,1550,1550,1550,1543,1536,1529,1529,1529,925,925,925,925,923,923,918,918,915,913,910,910,908,906,906,906,906,908,908,908,910,910,910,915,915,918,918,918,918,920,920,923,925,925,0,0,0,0,0,0,1543,1543,1543,1543,1543,1543,1543,1543,1543,1543,1543,1543,1543,1536,1536,1536,1536,1536,1536,1536,1536,1536,1536,1543,1543,1536,1536,1536,1529,1529,1536,1536,1536,1543,1543,1543,1536,1536,1536,1536,1536,1536,1536,1536,1536,1536,1536,1529,1529,1529,1529,1536,1529,1529,1529,1529,1523,1523,1523,1523,1516,1516,1516,1509,1509,1503,1496,1496,1489,1483,1477,1470,1470,1470,1470,1464,1464,1458,1458,1452,1452,1445,1445,1439,1439,1433,1427,1421,1415,1415,1415,1410,1410,1404,1404,1398,1398,1392,1392,1392,1387,1381,1381,1376,1376,1376,1370,1370,1365,1359,1354,1349,1349,1343,1343,1338,1333,1333,1328,1328,1328,1322,1322,1317,1312,1312,1307,1307,1307,1302,1302,1297,1292,1292,1288,1283,1278,1278,1273,1273,1273,1268,1268,1264,1264,1259,1255,1255,1250,1250,1245,1241,1236,1236,1236,1232,1232,1232,1227,1227,1219,1219,1219,1214,1210,1206,1206,1202,1202,1197,1197,1197,1193,1189,1185,1185,1181,1177,1177,1173,1169,1169,1165,1165,1165,1161,1161,1157,1157,1153,1153,1153,1149,1149,1145,1141,1141,1138,1138,1134,1134,1130,1126,1126,1123,1119,1119,1115,1112,1108,1108,1108,1105,1105,1105,1101,1101,1097,1094,1094,1090,1090,1084,1084,1080,1080,1077,1077,1073,1070,1070,1067,1067,1067,1063,1063,1060,1060,1057,1057,0,0,0,0,0,0,0,0,0,0,0,0,0,0,0,0,0,0,0,0,0,0,0,0,0,0,0,0,0,0,0,0,0
0,0,0,0,0,0,0,0,0,0,0,1586,1586,1586,1586,1586,1586,1586,1594,1594,1594,1586,1586,1586,1586,1586,1586,1586,1579,1579,1579,1572,1572,1572,1572,1579,1579,1586,1586,1586,1586,1579,1579,1579,1579,1579,1586,1586,1579,1579,1579,1579,1579,1579,1579,1579,1586,1586,1586,1579,1579,1579,1579,1579,1579,1579,1579,1586,1579,1579,1579,1579,1579,1579,1579,1579,1572,1564,1564,1572,0,1550,0,0,0,1025,1022,1022,1022,1019,1019,1022,1019,682,682,686,684,684,684,682,679,678,674,674,672,671,671,671,671,671,671,671,671,671,671,671,671,671,672,674,674,674,674,676,676,676,678,679,680,680,680,680,680,682,682,682,682,683,684,686,686,687,687,688,688,690,691,691,693,694,696,697,698,698,700,701,704,704,706,707,708,710,710,710,711,713,716,717,717,719,720,722,723,725,727,727,727,728,728,728,730,731,731,733,734,734,736,736,738,739,739,739,741,742,744,744,746,747,747,747,750,750,752,752,752,754,754,755,757,757,759,759,761,761,761,762,764,766,767,767,769,769,771,773,773,774,774,776,778,780,780,781,783,785,785,787,787,787,787,789,789,789,790,792,794,794,796,796,798,798,800,800,800,802,802,803,805,805,807,807,809,809,811,811,817,817,817,1227,1227,1227,1223,1219,1219,1219,1214,1214,1214,1214,1219,1219,1219,1223,1223,1223,1223,1223,1227,1227,1550,1550,1550,1550,1550,1550,1550,1550,1550,1550,1550,1550,1550,1550,1543,1543,1543,1543,1550,1550,1550,1550,1550,1550,1550,1543,1543,1543,1543,1550,1550,1550,1543,1543,1536,1536,1523,1516,1516,928,928,925,925,925,923,920,918,915,913,913,910,908,908,908,908,908,908,908,910,910,910,913,915,918,918,918,920,920,920,920,923,925,925,0,0,0,0,0,0,1543,1543,1543,1536,1536,1536,1529,1529,1529,1529,1536,1536,1536,1529,1529,1529,1529,1529,1529,1529,1529,1529,1529,1536,1536,1529,1529,1529,1529,1529,1529,1529,1529,1529,1529,1536,1536,1536,1536,1536,1536,1529,1529,1529,1529,1529,1529,1529,1523,1523,1529,1529,1523,1523,1523,1523,1523,1523,1516,1516,1516,1516,1516,1509,1509,1503,1496,1496,1489,1483,1483,1477,1470,1470,1470,1464,1464,1464,1458,1458,1452,1445,1445,1439,1439,1433,1427,1421,1415,1415,1415,1410,1410,1410,1404,1398,1398,1398,1392,1392,1392,1387,1381,1376,1376,1376,1370,1370,1365,1359,1354,1349,1349,1343,1343,1338,1333,1333,1328,1328,1328,1322,1322,1317,1317,1312,1307,1307,1307,1302,1302,1297,1292,1292,1288,1288,1283,1278,1273,1273,1273,1268,1268,1268,1264,1259,1255,1255,1250,1250,1245,1241,1236,1236,1236,1232,1232,1232,1227,1227,1219,1219,1219,1214,1210,1210,1206,1202,1202,1197,1197,1197,1193,1189,1185,1185,1181,1177,1177,1173,1169,1169,1169,1165,1165,1165,1161,1161,1157,1157,1153,1153,1149,1149,1145,1141,1141,1138,1138,1138,1134,1134,1126,1126,1123,1119,1119,1115,1112,1108,1108,1108,1108,1105,1105,1101,1101,1097,1094,1094,1094,1090,1087,1084,1080,1080,1077,1077,1077,1073,1070,1070,1067,1067,1063,1063,1060,1060,1057,1057,0,0,0,0,0,0,0,0,0,0,0,0,0,0,0,0,0,0,0,0,0,0,0,0,0,0,0,0,0,0,0,0,0
0,0,0,0,0,0,0,0,0,0,0,1579,1579,1579,1579,1579,1586,1586,1586,1579,1579,1579,1579,1579,1579,1586,1579,1579,1579,1579,1572,1572,1572,1572,1572,1572,1579,1579,1579,1579,1579,1579,1572,1572,1572,1572,1579,1579,1579,1572,1572,1579,1579,1572,1572,1572,1579,1579,1579,1579,1579,1572,1572,1572,1572,1579,1579,1579,1579,1579,1572,1572,1572,1572,1572,1572,1572,1564,1564,1557,1550,1550,1550,1536,1025,1025,1025,1022,1022,1022,1022,1022,1022,682,682,680,680,680,680,680,676,675,672,672,671,671,670,670,670,670,670,670,670,670,670,671,671,671,672,674,674,674,674,676,676,676,678,679,679,680,680,680,682,682,682,682,683,683,684,686,687,687,688,688,690,690,691,693,694,696,697,698,700,701,703,704,704,706,707,708,710,711,711,713,713,716,717,719,719,720,722,723,725,727,727,727,727,728,728,728,730,731,733,733,734,734,736,738,739,739,741,741,741,742,744,746,746,747,747,749,750,750,752,752,754,754,755,755,757,759,759,759,761,761,762,764,766,767,767,769,769,771,771,773,774,774,776,778,778,780,780,783,785,785,787,787,787,787,789,789,789,790,790,792,794,794,796,796,796,798,798,800,800,802,802,803,805,805,807,809,809,809,809,1536,1523,1523,1227,1227,1227,1227,1223,1219,1219,1219,1214,1214,1214,1214,1219,1219,1223,1223,1223,1227,1227,1227,1227,1227,1543,1543,1543,1543,1543,1543,1543,1543,1543,1543,1543,1543,1543,1543,1543,1543,1543,1543,1543,1550,1543,1543,1543,1543,1543,1543,1536,1536,1536,1543,1543,1543,1543,1536,1529,1529,1523,1516,1516,1523,928,928,925,925,925,923,918,915,913,913,910,908,908,908,908,908,908,910,910,910,913,913,915,918,918,920,920,920,920,923,923,925,925,0,0,0,0,0,0,1536,1536,1536,1529,1529,1529,1529,1523,1523,1529,1529,1529,1529,1523,1523,1523,1523,1523,1523,1523,1523,1523,1523,1529,1523,1523,1523,1523,1523,1523,1523,1523,1523,1523,1523,1523,1523,1523,1523,1529,1529,1529,1529,1529,1529,1523,1523,1523,1523,1523,1523,1523,1523,1523,1523,1523,1516,1516,1516,1516,1516,1516,1509,1509,1503,1503,1496,1496,1489,1483,1483,1477,1470,1470,1470,1470,1464,1464,1458,1458,1452,1445,1445,1439,1439,1433,1433,1427,1421,1415,1415,1415,1410,1410,1410,1398,1398,1398,1398,1392,1392,1387,1381,1376,1376,1370,1370,1370,1365,1359,1354,1354,1349,1349,1343,1338,1333,1333,1328,1328,1328,1322,1322,1317,1317,1312,1307,1307,1307,1302,1302,1297,1292,1292,1288,1288,1283,1278,1278,1273,1273,1273,1268,1268,1264,1259,1259,1255,1255,1250,1245,1241,1241,1236,1236,1236,1232,1232,1227,1227,1219,1219,1219,1214,1210,1210,1206,1206,1202,1202,1197,1197,1197,1193,1189,1185,1181,1181,1177,1177,1173,1169,1169,1169,1165,1165,1161,1161,1157,1157,1153,1153,1149,1149,1145,1141,1141,1138,1138,1138,1134,1134,1130,1130,1123,1119,1119,1115,1112,1108,1108,1108,1108,1105,1105,1105,1101,1101,1097,1094,1094,1090,1087,1084,1080,1080,1080,1077,1077,1073,1070,1070,1067,1067,1063,1063,1063,1060,1057,1057,0,0,0,0,0,0,0,0,0,0,0,0,0,0,0,0,0,0,0,0,0,0,0,0,0,0,0,0,0,0,0,0,0
0,0,0,0,0,0,0,0,0,0,0,1572,1572,1572,1572,1572,1579,1579,1579,1579,1579,1572,1572,1572,1572,1579,1572,1572,1572,1572,1572,1564,1564,1564,1572,1572,1572,1572,1572,1572,1572,1572,1572,1572,1572,1572,1572,1572,1572,1572,1572,1572,1572,1572,1572,1572,1572,1572,1572,1572,1572,1572,1572,1572,1572,1572,1572,1572,1572,1572,1572,1572,1572,1572,1564,1564,1564,1564,1557,1550,1543,1536,1536,1536,1025,1025,1022,1022,1022,1022,1022,1022,1022,1022,1022,680,680,680,679,676,674,674,671,671,670,670,670,670,668,668,668,668,668,668,670,670,670,671,672,674,674,674,675,676,676,676,678,679,679,680,682,682,682,683,684,684,684,684,686,687,687,688,688,690,690,691,693,693,697,697,698,701,701,703,704,704,706,708,708,710,711,713,713,713,716,717,719,719,720,720,722,723,725,727,727,727,728,728,730,730,730,731,733,734,734,736,738,738,739,739,741,741,741,744,744,746,747,747,749,749,750,752,754,754,754,754,755,757,757,759,759,759,761,762,764,766,767,767,769,769,769,771,771,773,774,774,778,778,778,780,781,783,785,785,787,787,787,787,789,789,789,790,792,792,794,794,796,796,796,798,798,800,800,802,802,803,805,805,807,1536,1536,1536,1543,1536,1523,1523,1523,1232,1227,1227,1223,1223,1219,1219,1219,1214,1214,1219,1219,1219,1223,1223,1223,1227,1227,1227,1227,1232,1543,1543,1543,1543,1543,1543,1536,1536,1543,1543,1543,1543,1543,1543,1536,1536,1536,1536,1536,1543,1543,1543,1543,1536,1536,1536,1536,1536,1536,1536,1536,1536,1536,1529,1529,1529,1523,1523,1523,1523,1523,928,928,925,925,925,918,918,915,913,910,908,908,908,908,908,908,910,910,913,913,915,915,918,918,920,920,920,920,923,923,925,925,0,0,0,0,0,0,1536,1536,1536,1529,1523,1523,1523,1523,1523,1523,1523,1523,1523,1523,1523,1523,1523,1523,1523,1523,1523,1523,1523,1523,1523,1516,1516,1516,1516,1516,1516,1516,1516,1516,1516,1516,1516,1516,1516,1516,1516,1516,1516,1523,1523,1523,1523,1523,1516,1516,1516,1523,1523,1516,1516,1516,1516,1516,1509,1509,1509,1509,1509,1503,1503,1503,1496,1496,1489,1489,1483,1477,1477,1470,1470,1470,1470,1464,1464,1458,1452,1445,1445,1439,1439,1439,1433,1427,1421,1421,1415,1415,1415,1415,1410,1404,1398,1398,1398,1392,1392,1387,1381,1376,1376,1370,1370,1365,1365,1359,1354,1354,1349,1349,1343,1338,1333,1333,1333,1328,1328,1322,1322,1317,1317,1312,1312,1307,1307,1302,1302,1297,1292,1292,1288,1288,1283,1283,1278,1278,1273,1273,1273,1268,1268,1264,1259,1255,1255,1250,1245,1241,1241,1236,1236,1236,1232,1232,1232,1227,1223,1219,1219,1214,1214,1210,1206,1206,1202,1202,1197,1197,1197,1193,1189,1185,1181,1181,1177,1177,1173,1169,1169,1169,1165,1165,1161,1161,1157,1157,1153,1153,1149,1149,1145,1145,1141,1138,1138,1138,1134,1134,1130,1130,1123,1123,1119,1119,1112,1112,1108,1108,1108,1105,1105,1105,1105,1101,1097,1097,1094,1090,1087,1084,1084,1080,1080,1077,1077,1073,1073,1070,1067,1067,1063,1063,1063,1060,1060,1060,0,0,0,0,0,0,0,0,0,0,0,0,0,0,0,0,0,0,0,0,0,0,0,0,0,0,0,0,0,0,0,0,0
0,0,0,0,0,0,0,0,0,0,0,1572,1572,1564,1564,1564,1564,1564,1564,1572,1572,1572,1564,1564,1572,1572,1564,1564,1564,1564,1564,1564,1564,1564,1564,1564,1564,1572,1572,1572,1572,1572,1572,1572,1572,1564,1564,1564,1564,1564,1564,1572,1564,1564,1572,1572,1572,1564,1564,1564,1564,1564,1564,1564,1564,1564,1572,1564,1564,1564,1564,1564,1564,1564,1557,1557,1557,1557,1550,1543,1543,1536,1536,1536,1025,1025,1022,1022,1022,1022,1022,1025,1025,1022,1022,1022,680,680,675,674,671,671,670,670,670,668,668,668,668,668,668,668,668,668,670,670,670,671,672,672,674,674,675,676,676,676,678,679,680,680,682,682,682,684,684,686,686,687,687,687,687,690,690,690,691,693,696,696,698,698,700,703,703,704,706,706,707,708,708,711,713,713,714,716,717,719,720,720,720,722,722,723,725,727,727,727,728,728,730,730,731,731,733,734,734,736,738,738,739,739,741,741,741,744,746,747,747,747,749,750,752,752,754,754,754,755,757,759,759,759,759,761,761,762,766,766,767,769,769,771,771,771,773,773,774,774,778,778,778,780,781,783,785,787,787,787,787,789,789,789,790,790,792,794,794,794,796,796,796,796,798,798,802,802,802,802,1536,1536,1536,1536,1536,1536,1536,1529,1523,1523,1523,1232,1232,1227,1223,1223,1219,1219,1219,1219,1219,1219,1223,1223,1223,1227,1227,1227,1227,1227,1227,1232,1543,1543,1536,1536,1536,1536,1536,1536,1536,1536,1536,1536,1536,1536,1536,1536,1536,1536,1536,1536,1536,1536,1536,1529,1529,1529,1529,1529,1529,1536,1536,1536,1529,1529,1523,1523,1523,1523,1523,1523,1523,928,928,925,925,925,923,918,915,913,913,910,910,908,908,908,908,910,913,913,913,915,915,918,918,920,920,920,923,923,925,925,925,0,0,0,0,0,0,1536,1529,1523,1523,1523,1523,1523,1516,1516,1523,1523,1523,1523,1516,1516,1516,1516,1516,1516,1516,1516,1516,1516,1516,1516,1516,1516,1516,1516,1509,1509,1509,1509,1509,1509,1516,1516,1516,1516,1516,1516,1516,1516,1516,1516,1516,1516,1516,1516,1516,1516,1516,1516,1516,1516,1516,1516,1509,1509,1509,1503,1503,1503,1503,1496,1496,1496,1489,1489,1489,1483,1477,1477,1470,1470,1470,1470,1464,1464,1458,1452,1445,1445,1439,1439,1439,1433,1427,1421,1421,1421,1415,1415,1415,1410,1404,1404,1398,1398,1398,1392,1387,1381,1376,1376,1370,1370,1365,1365,1359,1354,1354,1349,1349,1343,1338,1333,1333,1333,1328,1328,1322,1322,1317,1317,1312,1312,1307,1307,1302,1297,1297,1292,1292,1288,1288,1283,1283,1278,1278,1273,1273,1273,1268,1268,1264,1259,1255,1255,1250,1250,1245,1241,1241,1236,1236,1232,1232,1232,1227,1223,1219,1219,1214,1214,1210,1206,1206,1202,1202,1197,1197,1197,1193,1189,1185,1185,1181,1181,1177,1173,1169,1169,1169,1169,1165,1165,1161,1161,1161,1157,1153,1149,1149,1145,1145,1141,1138,1138,1138,1134,1134,1130,1130,1123,1123,1119,1119,1115,1112,1112,1108,1108,1105,1105,1105,1105,1101,1097,1097,1094,1090,1087,1084,1084,1080,1080,1077,1077,1073,1073,1070,1070,1067,1067,1063,1063,1063,1060,1060,0,0,0,0,0,0,0,0,0,0,0,0,0,0,0,0,0,0,0,0,0,0,0,0,0,0,0,0,0,0,0,0,0
0,0,0,0,0,0,0,0,0,0,1564,1564,1564,1564,1564,1550,1550,1550,1550,1550,1557,1550,1550,1564,1564,1564,1564,1564,1564,1564,1564,1564,1564,1564,1564,1564,1564,1564,1564,1564,1564,1564,1564,1564,1564,1564,1564,1564,1564,1564,1564,1564,1564,1564,1564,1564,1564,1564,1564,1557,1557,1564,1557,1557,1557,1557,1564,1557,1557,1557,1557,1557,1557,1557,1557,1557,1550,1550,1543,1543,1543,1536,1536,1536,1025,1025,1025,1025,1025,1025,1025,1025,1025,1025,1025,671,671,671,672,671,671,670,670,668,668,668,668,668,668,668,668,668,668,668,668,670,670,671,672,672,674,674,675,676,676,676,679,679,680,680,682,682,684,684,686,686,687,687,687,688,690,691,693,693,693,696,698,698,700,700,701,703,704,706,707,707,708,708,710,711,713,713,714,716,717,719,720,720,720,722,722,723,725,727,727,728,728,730,730,730,731,733,733,736,736,738,739,739,739,739,741,741,742,744,746,747,747,749,749,750,752,752,754,755,755,757,759,759,761,761,761,761,761,764,766,767,769,769,771,771,771,773,773,773,774,774,778,778,780,781,783,785,785,787,787,787,789,789,789,789,790,792,792,792,794,794,796,796,796,796,796,796,1529,1529,1529,1536,1536,1536,1536,1536,1536,1536,1536,1529,1523,1523,1523,1232,1232,1227,1223,1223,1219,1219,1219,1219,1219,1219,1223,1223,1227,1227,1227,1227,1227,1232,1232,1232,1536,1536,1536,1529,1529,1529,1536,1536,1536,1536,1536,1536,1536,1536,1529,1529,1529,1529,1529,1529,1529,1529,1529,1523,1523,1523,1523,1523,1529,1529,1529,1529,1529,1523,1523,1516,1516,1516,1516,1516,1516,928,928,928,928,925,925,923,918,915,913,910,910,908,908,908,908,910,910,913,915,915,915,918,918,920,920,920,923,923,925,925,925,0,0,0,0,0,0,1523,1523,1523,1523,1516,1516,1516,1516,1516,1516,1516,1516,1516,1516,1516,1516,1516,1516,1516,1509,1509,1509,1509,1509,1509,1509,1509,1509,1509,1509,1503,1503,1503,1503,1509,1509,1509,1509,1509,1509,1509,1509,1509,1509,1509,1509,1509,1509,1503,1503,1509,1509,1516,1516,1516,1509,1509,1509,1503,1503,1496,1496,1496,1496,1496,1496,1496,1489,1489,1483,1483,1477,1477,1470,1470,1470,1470,1464,1464,1464,1452,1445,1445,1439,1439,1439,1433,1427,1427,1421,1421,1415,1415,1415,1410,1404,1404,1398,1398,1398,1392,1387,1381,1376,1376,1370,1370,1370,1365,1359,1354,1354,1349,1349,1343,1338,1333,1333,1333,1328,1328,1322,1322,1317,1317,1312,1312,1307,1307,1302,1297,1297,1292,1292,1288,1288,1283,1283,1278,1278,1273,1273,1273,1268,1268,1264,1259,1255,1255,1250,1250,1245,1245,1241,1241,1236,1236,1232,1232,1227,1223,1219,1219,1214,1214,1210,1206,1206,1202,1202,1202,1197,1197,1193,1189,1185,1185,1181,1181,1177,1177,1169,1169,1169,1169,1165,1165,1161,1161,1161,1157,1153,1153,1149,1149,1145,1141,1141,1138,1138,1134,1134,1134,1130,1130,1123,1123,1119,1115,1112,1112,1108,1108,1105,1105,1105,1105,1101,1097,1097,1094,1090,1090,1087,1084,1080,1080,1080,1077,1077,1073,1073,1070,1070,1067,1063,1063,1063,1060,1060,0,0,0,0,0,0,0,0,0,0,0,0,0,0,0,0,0,0,0,0,0,0,0,0,0,0,0,0,0,0,0,0,0
0,0,0,0,0,0,0,0,0,0,1557,1557,1564,1564,1557,1550,1550,1550,1550,1550,1550,1550,1550,1550,1557,1557,1557,1557,1557,1557,1557,1557,1557,1557,1557,1557,1557,1557,1557,1557,1557,1557,1564,1557,1557,1557,1557,1557,1557,1557,1557,1557,1564,1557,1557,1557,1557,1557,1557,1550,1550,1557,1550,1550,1550,1550,1550,1550,1550,1550,1550,1550,1550,1557,1550,1550,1543,1543,1543,1536,1536,1536,1529,1529,1025,1025,1025,1025,1025,1025,1025,1025,1025,1025,1025,671,671,671,671,670,670,670,668,668,668,668,668,668,668,668,668,668,668,668,668,670,671,672,672,672,674,675,675,676,676,678,679,680,680,682,682,682,684,686,686,686,687,687,688,690,691,693,694,697,698,698,700,701,701,701,703,704,706,707,708,708,708,710,711,711,713,714,714,717,719,720,720,720,722,722,723,723,725,727,727,728,728,730,730,730,731,733,734,736,736,738,739,739,739,741,741,742,742,746,747,747,747,749,749,750,752,754,754,755,757,757,759,761,761,761,762,762,764,766,767,769,769,771,771,771,773,773,773,773,774,774,778,778,780,781,783,783,785,787,787,787,789,789,789,790,790,790,790,792,794,794,796,796,796,796,1516,0,1516,1529,1529,1529,1536,1536,1536,1536,1536,1536,1523,1523,1523,1516,1516,1523,1232,1227,1223,1223,1223,1219,1219,1219,1219,1219,1223,1223,1227,1227,1227,1227,1227,1232,1232,1232,1529,1529,1529,1529,1529,1529,1523,1523,1523,1529,1529,1529,1529,1523,1523,1523,1523,1523,1523,1523,1523,1523,1523,1523,1523,1523,1523,1523,1529,1523,1523,1523,1523,1523,1516,1516,1516,1516,1516,1516,1516,928,928,928,928,928,925,925,920,918,915,913,910,910,908,908,910,910,910,913,915,915,918,918,920,920,920,923,925,925,925,925,925,0,0,0,0,0,0,1523,1523,1516,1516,1516,1516,1516,1516,1516,1516,1516,1516,1516,1509,1509,1509,1509,1509,1509,1509,1509,1509,1509,1509,1509,1509,1509,1509,1509,1503,1503,1503,1503,1503,1503,1503,1503,1503,1503,1503,1503,1503,1503,1503,1503,1503,1503,1503,1503,1503,1503,1503,1503,1509,1509,1509,1503,1503,1496,1496,1496,1496,1496,1496,1496,1496,1496,1489,1489,1483,1483,1477,1477,1470,1470,1470,1470,1464,1464,1464,1452,1452,1445,1445,1439,1439,1433,1433,1427,1421,1421,1421,1415,1415,1410,1404,1404,1398,1398,1392,1392,1387,1381,1376,1376,1370,1370,1365,1359,1359,1354,1354,1354,1349,1349,1338,1338,1333,1333,1328,1328,1328,1322,1317,1317,1312,1312,1307,1307,1302,1302,1297,1292,1292,1288,1288,1283,1283,1278,1278,1273,1273,1273,1268,1268,1264,1259,1259,1255,1255,1250,1250,1245,1241,1241,1236,1236,1232,1232,1227,1227,1219,1219,1219,1214,1210,1206,1206,1206,1202,1202,1197,1197,1193,1189,1185,1185,1181,1181,1177,1177,1173,1169,1169,1169,1165,1165,1161,1161,1161,1157,1153,1153,1149,1145,1145,1141,1138,1138,1138,1134,1134,1134,1130,1123,1123,1123,1119,1119,1115,1112,1108,1108,1105,1105,1105,1105,1101,1097,1097,1094,1090,1090,1087,1087,1084,1080,1080,1080,1077,1073,1073,1070,1070,1067,1063,1063,1063,1060,1060,0,0,0,0,0,0,0,0,0,0,0,0,0,0,0,0,0,0,0,0,0,0,0,0,0,0,0,0,0,0,0,0,0
0,0,0,0,0,0,0,0,0,0,1550,1550,1550,1557,1557,1550,1550,1550,1543,1543,1550,1543,1543,1543,1550,1550,1550,1550,1550,1550,1550,1550,1550,1550,1550,1550,1550,1550,1550,1550,1550,1550,1550,1550,1550,1550,1550,1550,1550,1550,1550,1550,1557,1550,1550,1550,1550,1550,1550,1550,1550,1550,1543,1543,1543,1543,1543,1543,1543,1550,1550,1550,1550,1550,1543,1543,1543,1543,1536,1536,1536,1529,1529,1529,1529,1025,1025,1025,1025,1025,1025,1025,1025,1028,1028,671,671,671,671,670,670,668,668,668,667,667,667,667,667,667,668,668,668,668,668,670,671,672,672,672,674,675,676,676,678,678,680,680,680,682,682,684,686,686,686,687,687,688,688,691,693,694,697,697,698,700,701,701,703,703,703,704,706,707,708,710,710,710,711,713,713,714,716,717,719,720,720,720,722,722,723,723,725,727,728,728,730,731,731,731,731,733,734,736,738,738,739,739,739,741,741,744,744,746,747,747,749,749,750,752,752,754,754,755,757,759,759,761,761,761,762,764,764,766,767,769,769,771,771,773,773,773,773,774,774,776,778,778,780,781,783,783,785,787,787,787,789,789,789,790,790,790,790,792,792,794,794,794,1516,1516,1516,1516,1516,1516,1516,1529,1536,1536,1536,1529,1529,1529,1523,1523,1516,1516,1516,1236,1232,1227,1227,1223,1223,1223,1223,1219,1219,1223,1223,1227,1227,1227,1227,1227,1232,1232,1232,1232,1232,1529,1529,1523,1523,1523,1523,1516,1516,1516,1516,1516,1516,1516,1516,1516,1516,1516,1516,1516,1516,1516,1516,1516,1516,1516,1516,1516,1523,1523,1523,1523,1523,1516,1516,1509,1509,1509,1509,1509,1509,1509,930,928,928,928,925,925,923,918,915,913,913,910,910,910,910,913,913,913,915,915,918,918,920,920,920,923,925,925,925,925,925,0,0,0,0,0,1523,1523,1516,1516,1516,1509,1509,1509,1509,1509,1509,1509,1509,1509,1503,1503,1503,1509,1509,1509,1503,1503,1503,1503,1503,1503,1503,1503,1503,1503,1496,1496,1496,1496,1496,1496,1496,1496,1503,1496,1496,1496,1496,1496,1496,1496,1496,1496,1496,1496,1496,1496,1496,1496,1496,1496,1496,1496,1496,1496,1496,1496,1496,1496,1496,1496,1489,1489,1489,1489,1483,1483,1477,1477,1470,1470,1470,1470,1464,1464,1464,1452,1452,1445,1445,1439,1439,1439,1433,1433,1427,1421,1421,1415,1415,1410,1404,1404,1398,1398,1392,1392,1387,1381,1376,1376,1370,1370,1365,1359,1359,1354,1354,1354,1349,1349,1338,1338,1333,1333,1333,1328,1328,1322,1317,1317,1312,1312,1307,1307,1302,1302,1297,1297,1292,1288,1288,1283,1283,1278,1278,1273,1273,1273,1268,1268,1264,1259,1259,1255,1255,1250,1250,1245,1241,1241,1236,1236,1232,1232,1227,1227,1219,1219,1219,1214,1210,1210,1210,1206,1202,1202,1197,1197,1193,1185,1185,1185,1185,1181,1181,1177,1173,1173,1169,1169,1165,1165,1161,1161,1161,1157,1153,1149,1149,1145,1145,1141,1138,1138,1138,1138,1134,1134,1130,1123,1123,1123,1119,1119,1115,1112,1112,1108,1105,1105,1105,1105,1105,1101,1097,1094,1090,1090,1087,1087,1084,1084,1080,1080,1077,1077,1073,1073,1070,1067,1067,1063,1063,1063,1063,0,0,0,0,0,0,0,0,0,0,0,0,0,0,0,0,0,0,0,0,0,0,0,0,0,0,0,0,0,0,0,0,0
0,0,0,0,0,0,0,0,0,0,1550,1550,1543,1543,1550,1543,1543,1543,1543,1543,1543,1543,1543,1543,1543,1543,1543,1543,1543,1543,1543,1543,1543,1543,1543,1543,1550,1543,1543,1543,1543,1543,1550,1543,1543,1550,1550,1550,1550,1550,1550,1550,1550,1550,1550,1543,1543,1550,1550,1543,1543,1543,1543,1543,1543,1543,1536,1536,1543,1543,1543,1543,1543,1543,1543,1543,1536,1536,1536,1529,1529,1529,1523,1523,1025,1025,1022,1022,1025,1025,1025,1025,1025,1028,1028,671,671,671,670,670,668,668,668,668,667,667,667,667,667,667,668,668,668,668,668,670,672,672,672,674,675,676,676,676,678,679,680,680,682,682,684,686,686,687,687,687,688,688,690,693,694,696,697,698,700,701,703,703,703,703,704,706,708,708,710,710,710,711,713,713,713,714,717,719,720,720,720,720,722,722,723,723,725,727,728,728,730,731,731,731,733,733,734,738,738,739,739,739,741,741,742,744,746,746,747,747,749,750,752,752,754,754,755,757,757,759,759,761,761,762,764,764,766,766,767,769,769,771,773,773,773,773,773,774,774,776,780,780,780,781,783,783,785,787,787,787,789,789,789,790,790,790,790,792,792,792,1516,1516,1516,1516,1516,1516,1516,1516,1516,1523,1529,1529,1529,1523,1523,1523,1516,1516,1516,1516,1241,1236,1232,1227,1227,1227,1223,1223,1223,1223,1223,1223,1227,1227,1227,1227,1232,1232,1232,1232,1232,1232,1232,1523,1523,1516,1516,1516,1516,1516,1509,1509,1509,1509,1509,1509,1509,1509,1516,1516,1516,1509,1509,1509,1509,1509,1509,1509,1509,1516,1523,1516,1516,1516,1516,1509,1509,1503,1503,1503,1503,1503,1503,1503,930,930,928,928,928,925,923,920,918,915,913,910,910,910,910,913,913,915,915,918,918,920,920,920,920,925,925,925,925,925,925,928,0,0,0,0,1523,1516,1509,1509,1509,1509,1503,1503,1503,1503,1509,1503,1503,1503,1503,1496,1496,1503,1503,1503,1503,1503,1503,1503,1503,1496,1496,1496,1496,1496,1496,1496,1496,1496,1496,1496,1496,1496,1496,1489,1489,1496,1489,1489,1496,1496,1496,1496,1496,1496,1496,1496,1496,1496,1489,1489,1489,1489,1489,1489,1489,1489,1489,1489,1489,1489,1483,1483,1483,1483,1477,1477,1477,1477,1470,1470,1470,1470,1464,1464,1464,1452,1452,1445,1445,1445,1439,1439,1439,1433,1427,1421,1421,1421,1415,1410,1410,1404,1398,1398,1398,1392,1392,1381,1376,1376,1370,1370,1370,1365,1359,1359,1354,1354,1349,1349,1343,1338,1333,1333,1333,1333,1328,1322,1322,1317,1312,1312,1307,1307,1302,1302,1297,1297,1292,1288,1288,1283,1283,1278,1273,1273,1273,1273,1268,1268,1268,1264,1259,1255,1255,1250,1250,1250,1245,1241,1241,1236,1236,1232,1232,1227,1223,1219,1219,1214,1210,1210,1210,1206,1202,1202,1197,1197,1193,1185,1185,1185,1185,1181,1181,1177,1173,1173,1169,1169,1169,1165,1165,1161,1161,1157,1153,1149,1149,1145,1145,1141,1138,1138,1138,1138,1134,1134,1130,1130,1123,1123,1119,1119,1115,1112,1112,1108,1105,1105,1105,1105,1105,1101,1097,1097,1094,1090,1087,1087,1084,1084,1080,1080,1077,1077,1077,1073,1070,1070,1067,1067,1063,1063,1063,0,0,0,0,0,0,0,0,0,0,0,0,0,0,0,0,0,0,0,0,0,0,0,0,0,0,0,0,0,0,0,0,0
0,0,0,0,0,0,0,0,0,0,1550,1543,1543,1543,1543,1543,1543,1543,1536,1536,1543,1543,1543,1543,1543,1543,1536,1536,1536,1536,1536,1536,1536,1536,1536,1536,1536,1536,1536,1543,1543,1543,1543,1543,1543,1543,1543,1543,1543,1543,1543,1543,1543,1543,1543,1543,1543,1543,1543,1543,1543,1543,1536,1536,1536,1536,1536,1536,1536,1536,1543,1543,1536,1536,1543,1536,1536,1536,1529,1529,1523,1523,1523,1523,1022,1022,1022,1022,1025,1025,1025,1028,1028,1031,1031,671,671,670,670,668,668,667,667,667,667,667,667,667,668,668,668,668,668,668,670,670,672,672,674,675,676,676,676,678,679,679,680,680,682,683,686,686,686,687,687,688,688,690,691,696,697,697,698,700,701,703,703,704,704,704,704,706,708,710,710,711,711,713,713,714,714,716,717,719,720,720,720,720,722,722,723,725,727,727,728,728,730,731,733,733,733,734,736,738,738,739,739,739,741,741,742,744,746,747,747,749,750,750,754,754,754,755,755,757,757,759,759,761,761,762,764,766,766,766,767,767,769,771,773,773,773,773,773,774,774,776,780,780,780,781,783,785,787,787,789,789,790,792,792,792,792,1516,1509,1509,1509,1516,1516,1516,1509,1509,1516,1516,1516,1516,1516,1516,1523,1523,1523,1523,1516,1516,1516,1516,1516,1241,1241,1236,1232,1232,1227,1227,1227,1227,1223,1223,1223,1227,1227,1227,1227,1227,1232,1232,1232,1232,1232,1232,1232,1516,1516,1509,1509,1509,1509,1503,1503,1503,1503,1503,1503,1503,1503,1503,1509,1509,1503,1503,1503,1503,1503,1503,1503,1503,1509,1509,1516,1509,1509,1509,1509,1503,1503,1503,1496,1496,1503,1503,1496,1496,930,930,930,928,928,928,925,923,918,918,915,913,913,913,913,913,915,915,915,918,918,920,920,923,923,925,925,925,925,925,925,928,0,0,0,0,0,1503,1503,1503,1503,1503,1496,1496,1503,1503,1503,1503,1496,1496,1496,1496,1496,1496,1496,1496,1496,1496,1496,1496,1496,1496,1496,1489,1489,1496,1489,1489,1489,1489,1496,1496,1496,1489,1489,1489,1489,1489,1489,1489,1489,1489,1489,1489,1489,1489,1489,1489,1489,1489,1489,1489,1489,1483,1483,1483,1489,1483,1483,1489,1489,1489,1483,1477,1477,1477,1477,1477,1477,1470,1470,1470,1470,1470,1464,1464,1464,1458,1452,1452,1445,1445,1439,1439,1439,1433,1427,1421,1421,1421,1415,1410,1410,1404,1398,1398,1398,1392,1392,1387,1381,1376,1370,1370,1370,1365,1359,1359,1354,1354,1354,1349,1349,1343,1338,1333,1333,1333,1328,1328,1322,1317,1312,1312,1307,1307,1302,1302,1297,1292,1292,1288,1288,1283,1283,1278,1273,1273,1273,1273,1268,1268,1268,1264,1259,1255,1255,1255,1250,1250,1245,1245,1241,1236,1236,1232,1232,1227,1223,1219,1219,1214,1210,1210,1206,1206,1202,1202,1197,1197,1193,1185,1185,1185,1185,1181,1181,1181,1173,1173,1173,1169,1169,1165,1165,1165,1161,1157,1153,1149,1149,1145,1141,1141,1138,1138,1138,1138,1134,1134,1134,1130,1123,1123,1119,1119,1115,1115,1112,1108,1105,1105,1105,1105,1105,1101,1097,1097,1094,1090,1090,1087,1084,1084,1080,1080,1080,1077,1077,1073,1073,1070,1067,1067,1063,1063,1063,0,0,0,0,0,0,0,0,0,0,0,0,0,0,0,0,0,0,0,0,0,0,0,0,0,0,0,0,0,0,0,0,0
0,0,0,0,0,0,0,0,0,0,1536,1536,1536,1536,1536,1536,1536,1536,1536,1536,1536,1536,1536,1536,1536,1536,1536,1536,1536,1536,1536,1536,1536,1536,1536,1536,1536,1536,1536,1536,1536,1536,1536,1543,1543,1543,1543,1543,1543,1543,1543,1536,1536,1536,1536,1536,1536,1536,1536,1536,1536,1536,1536,1536,1529,1529,1529,1536,1536,1536,1536,1536,1529,1529,1536,1536,1529,1529,1529,1523,1516,1516,1516,1516,1516,1022,1022,1022,1025,1025,1028,1028,1028,1031,1031,671,670,670,670,668,668,667,667,667,667,667,667,667,668,668,668,670,670,670,670,671,672,674,675,676,676,678,678,678,679,680,682,682,683,684,686,687,687,687,688,688,690,691,694,697,697,698,700,701,703,703,704,704,704,704,704,707,708,710,710,711,711,713,713,714,714,716,717,719,720,720,720,720,722,722,725,725,727,728,728,730,731,731,733,733,734,734,736,739,739,739,741,741,741,742,742,744,746,747,747,749,750,752,754,754,755,755,755,757,759,759,759,761,761,762,764,766,766,766,767,767,769,771,773,773,773,773,774,774,776,776,780,780,781,783,783,785,787,787,789,790,790,792,1496,1496,1496,1496,1509,1509,1509,1509,1516,1516,1509,1509,1516,1516,1516,1516,1516,1516,1516,1516,1516,1516,1516,1516,1516,1516,1236,1236,1236,1232,1232,1232,1232,1227,1227,1227,1227,1227,1227,1227,1227,1227,1227,1232,1232,1232,1232,1232,1232,1232,1232,1516,1516,1509,1503,1503,1503,1503,1503,1496,1496,1496,1496,1496,1496,1496,1503,1503,1496,1496,1496,1496,1496,1496,1503,1503,1503,1503,1509,1503,1503,1503,1496,1496,1496,1496,1496,1496,1496,1496,1496,1496,933,933,930,930,930,928,925,923,920,918,915,915,915,915,915,915,915,915,918,918,920,920,923,923,923,925,928,928,928,925,925,928,0,0,0,0,0,1503,1496,1496,1496,1496,1496,1496,1496,1496,1496,1489,1489,1496,1496,1496,1496,1496,1496,1496,1496,1496,1489,1489,1489,1489,1489,1489,1489,1489,1489,1489,1489,1489,1489,1489,1489,1489,1489,1489,1489,1483,1483,1483,1483,1483,1489,1489,1489,1489,1489,1489,1483,1483,1483,1483,1483,1477,1477,1477,1483,1483,1483,1483,1477,1477,1477,1477,1477,1477,1470,1470,1470,1470,1470,1470,1470,1470,1464,1464,1464,1458,1452,1445,1445,1445,1439,1439,1439,1433,1427,1427,1421,1421,1415,1410,1404,1404,1398,1398,1398,1392,1392,1387,1381,1376,1376,1370,1370,1365,1365,1359,1359,1354,1354,1354,1349,1343,1338,1338,1333,1333,1328,1328,1322,1322,1317,1312,1312,1307,1307,1302,1297,1292,1292,1288,1288,1283,1283,1278,1273,1273,1273,1268,1268,1268,1268,1264,1259,1255,1255,1255,1250,1250,1245,1245,1241,1236,1236,1232,1232,1227,1223,1219,1219,1214,1210,1210,1206,1206,1202,1202,1197,1197,1193,1189,1185,1185,1185,1181,1181,1181,1177,1173,1173,1169,1169,1165,1165,1165,1161,1157,1153,1149,1149,1145,1141,1141,1141,1138,1138,1138,1134,1134,1134,1130,1123,1123,1119,1119,1119,1119,1112,1108,1108,1108,1108,1105,1105,1101,1097,1097,1094,1094,1090,1090,1087,1084,1084,1080,1080,1077,1077,1073,1073,1070,1067,1067,1063,1063,1063,0,0,0,0,0,0,0,0,0,0,0,0,0,0,0,0,0,0,0,0,0,0,0,0,0,0,0,0,0,0,0,0,0
0,0,0,0,0,0,0,0,0,0,1529,1529,1529,1529,1529,1536,1529,1529,1529,1529,1536,1536,1523,1523,1523,1523,1529,1529,1529,1529,1529,1529,1536,1536,1536,1536,1536,1536,1536,1536,1536,1536,1536,1536,1536,1536,1536,1536,1536,1536,1536,1536,1529,1529,1529,1529,1529,1529,1529,1536,1529,1529,1529,1529,1529,1529,1529,1529,1529,1529,1529,1529,1523,1523,1523,1523,1523,1523,1523,1516,1516,1516,1516,1516,1516,1022,1022,1022,1025,1028,1028,1031,1031,1034,1034,671,670,670,670,670,668,668,667,667,667,667,668,668,668,668,670,670,670,670,670,672,672,674,675,676,678,678,678,679,680,682,682,683,686,686,687,687,688,688,688,690,691,693,696,697,698,698,701,701,703,703,704,704,706,706,706,707,708,710,711,713,713,714,714,714,714,717,717,719,720,720,720,720,722,723,725,727,728,728,728,730,731,731,733,733,734,734,736,739,739,739,741,741,741,742,744,746,746,747,747,749,750,752,754,754,755,755,755,757,759,759,761,761,761,762,764,766,766,767,767,769,771,771,773,773,773,774,774,774,776,776,781,781,781,783,783,1489,1489,1483,1483,1483,1489,1496,1496,1496,1496,1496,1509,1509,1509,1509,1509,1509,1509,1509,1509,1509,1509,1509,1509,1509,1509,1516,1516,1516,1516,1516,1232,1232,1232,1232,1232,1232,1232,1232,1232,1227,1227,1227,1227,1227,1227,1227,1227,1227,1227,1232,1232,1232,1232,1232,1232,1232,1232,1232,1509,1509,1503,1496,1496,1496,1496,1496,1496,1496,1496,1496,1496,1496,1496,1489,1489,1489,1489,1489,1489,1489,1489,1489,1489,1496,1503,1503,1496,1496,1496,1496,1496,1496,1489,1489,1489,1489,1489,1489,935,935,933,933,930,928,928,925,923,920,918,915,915,915,915,915,915,918,918,920,920,920,923,923,925,928,928,928,928,928,928,928,0,0,0,0,0,1496,1496,1496,1496,1489,1489,1483,1483,1483,1483,1489,1489,1489,1489,1489,1489,1489,1489,1489,1489,1489,1489,1489,1489,1489,1483,1483,1483,1483,1483,1483,1483,1483,1489,1483,1483,1483,1483,1483,1483,1477,1477,1477,1477,1477,1477,1483,1483,1483,1483,1483,1483,1477,1477,1477,1477,1477,1477,1477,1477,1477,1477,1477,1477,1470,1470,1470,1470,1470,1470,1470,1470,1470,1470,1470,1464,1464,1464,1458,1458,1452,1452,1445,1445,1445,1439,1439,1439,1433,1433,1427,1421,1421,1415,1410,1404,1398,1398,1398,1392,1392,1392,1387,1381,1376,1376,1376,1370,1365,1365,1359,1359,1354,1354,1354,1349,1349,1343,1338,1333,1333,1328,1328,1328,1322,1317,1317,1312,1307,1307,1302,1302,1292,1292,1292,1288,1283,1283,1278,1273,1273,1273,1268,1268,1268,1268,1264,1259,1259,1255,1255,1250,1250,1245,1245,1241,1236,1236,1232,1232,1227,1223,1219,1219,1214,1214,1210,1210,1206,1206,1202,1202,1197,1193,1189,1185,1185,1185,1185,1181,1181,1177,1173,1173,1169,1169,1165,1165,1165,1161,1157,1153,1149,1149,1145,1141,1141,1141,1138,1138,1138,1134,1134,1134,1130,1123,1123,1119,1119,1119,1115,1115,1108,1108,1108,1108,1105,1105,1101,1097,1097,1094,1090,1090,1090,1087,1084,1084,1080,1080,1077,1077,1073,1073,1070,1067,1067,1063,1063,1063,0,0,0,0,0,0,0,0,0,0,0,0,0,0,0,0,0,0,0,0,0,0,0,0,0,0,0,0,0,0,0,0,0
0,0,0,0,0,0,0,0,0,0,1529,1529,1523,1523,1523,1523,1523,1523,1523,1516,1516,1523,1516,1516,1516,1523,1523,1523,1523,1529,1529,1529,1529,1536,1529,1529,1529,1529,1536,1536,1536,1536,1536,1536,1536,1536,1529,1529,1529,1529,1529,1529,1523,1523,1523,1523,1523,1523,1529,1529,1529,1529,1529,1523,1523,1529,1529,1529,1529,1523,1523,1529,1523,1523,1516,1516,1516,1516,1516,1509,1509,1509,1509,1509,1509,1025,1025,1025,1028,1028,1031,1031,1031,1034,1034,1034,1034,671,670,670,668,667,667,668,668,668,668,668,668,670,670,670,670,670,671,672,674,675,676,676,678,679,679,680,682,683,684,684,686,687,687,688,690,690,691,691,693,694,697,698,698,700,701,703,703,704,704,704,706,706,707,708,710,711,713,713,714,714,716,716,716,717,719,719,720,720,722,722,722,723,725,727,728,728,728,730,731,733,733,733,734,736,738,739,739,741,741,741,741,744,746,746,747,747,747,750,750,754,754,754,755,755,757,757,759,759,761,761,761,762,764,766,767,767,767,769,771,771,773,773,773,774,776,778,781,781,781,781,1489,1489,1489,1489,1489,1489,1483,1483,1489,1496,1496,1496,1496,1496,1503,1503,1509,1509,1509,1509,1509,1509,1509,1509,1509,1509,1509,1509,1509,1509,1516,1516,1232,1232,1227,1227,1227,1232,1232,1232,1227,1227,1232,1232,1227,1227,1227,1227,1227,1227,1227,1227,1227,1232,1232,1232,1232,1232,1232,1232,1232,1232,1503,1503,1496,1496,1489,1489,1489,1489,1489,1489,1489,1489,1489,1489,1489,1489,1489,1489,1483,1483,1483,1483,1483,1483,1483,1483,1489,1489,1496,1489,1489,1489,1489,1489,1489,1489,1489,1489,1489,1489,938,935,935,933,930,930,928,925,925,920,918,918,915,915,915,915,918,918,918,920,920,923,923,925,928,928,928,928,928,928,928,930,0,0,0,0,0,1489,1489,1489,1489,1483,1483,1477,1477,1477,1477,1477,1477,1483,1483,1483,1483,1483,1483,1483,1483,1483,1483,1483,1483,1483,1483,1477,1477,1477,1477,1477,1477,1477,1477,1477,1477,1477,1477,1477,1477,1477,1470,1470,1470,1470,1470,1470,1470,1470,1470,1477,1477,1470,1470,1470,1470,1470,1470,1470,1470,1470,1470,1470,1470,1470,1470,1464,1464,1464,1464,1464,1464,1470,1464,1464,1464,1464,1458,1458,1458,1452,1452,1445,1445,1445,1439,1439,1439,1433,1433,1427,1421,1421,1415,1410,1404,1398,1398,1398,1392,1392,1392,1387,1381,1376,1376,1376,1370,1370,1365,1359,1359,1354,1354,1354,1349,1349,1343,1338,1338,1333,1333,1328,1328,1322,1317,1312,1312,1307,1307,1307,1302,1292,1292,1292,1288,1283,1283,1278,1273,1273,1273,1268,1268,1268,1268,1264,1259,1259,1255,1255,1250,1250,1245,1245,1241,1236,1236,1232,1232,1227,1223,1219,1219,1214,1214,1214,1210,1206,1206,1202,1202,1197,1197,1189,1189,1185,1185,1185,1181,1181,1177,1177,1173,1169,1169,1169,1169,1165,1161,1157,1153,1153,1149,1149,1145,1141,1141,1138,1138,1138,1134,1134,1134,1130,1123,1123,1119,1119,1119,1115,1115,1112,1108,1108,1108,1108,1105,1101,1101,1097,1094,1090,1090,1090,1087,1084,1084,1080,1080,1077,1077,1073,1073,1070,1070,1067,1063,1063,1063,0,0,0,0,0,0,0,0,0,0,0,0,0,0,0,0,0,0,0,0,0,0,0,0,0,0,0,0,0,0,0,0,0
0,0,0,0,0,0,0,0,0,0,1523,1523,1516,1516,1516,1523,1516,1516,1516,1516,1516,1516,1509,1509,1509,1509,1516,1516,1516,1523,1523,1523,1523,1529,1523,1523,1523,1523,1529,1529,1529,1529,1529,1529,1529,1529,1523,1523,1523,1523,1523,1516,1516,1516,1516,1516,1523,1523,1523,1523,1523,1523,1523,1516,1516,1523,1523,1523,1523,1523,1523,1523,1516,1516,1516,1516,1516,1509,1509,1509,1503,1503,1503,1496,1496,1025,1025,1025,1028,1028,1031,1034,1034,1034,1034,1034,1034,671,670,670,668,667,667,668,668,668,668,668,668,670,670,670,670,671,671,672,674,675,676,679,679,680,680,680,683,684,684,686,687,687,688,690,690,691,691,693,693,694,697,698,698,700,701,703,703,704,704,706,707,707,708,710,711,711,713,714,714,716,716,716,716,717,719,719,720,720,722,722,723,725,727,727,728,728,728,730,731,733,733,733,734,736,738,739,739,741,741,741,741,746,746,747,747,747,749,750,752,754,754,754,755,755,757,759,759,761,761,761,761,762,764,766,767,767,767,769,771,771,773,773,774,774,774,774,774,1483,1489,1489,1489,1489,1489,1489,1489,1489,1489,1489,1489,1496,1496,1496,1496,1503,1503,1503,1509,1509,1509,1509,1509,1509,1509,1509,1509,1227,1223,1223,1503,1227,1227,1227,1232,1227,1227,1227,1227,1227,1227,1227,1227,1227,1232,1232,1227,1227,1227,1227,1232,1232,1232,1232,1232,1232,1232,1232,1232,1232,1232,1236,1236,1236,1489,1489,1489,1489,1489,1489,1489,1489,1489,1489,1489,1483,1483,1483,1483,1483,1483,1483,1483,1483,1483,1477,1477,1477,1483,1483,1489,1489,1489,1489,1489,1489,1489,1489,1489,1483,1483,1483,1489,1496,938,935,935,933,930,930,928,928,925,923,920,918,918,918,918,918,918,918,918,920,923,923,925,925,928,928,928,930,930,930,930,930,0,0,0,0,0,1477,1477,1477,1477,1477,1477,1477,1477,1470,1470,1470,1470,1470,1470,1477,1477,1477,1477,1477,1477,1477,1477,1477,1477,1477,1477,1477,1470,1470,1470,1470,1470,1470,1477,1470,1470,1470,1470,1470,1470,1470,1470,1470,1470,1464,1464,1464,1464,1464,1464,1470,1470,1470,1470,1470,1470,1470,1470,1464,1464,1470,1470,1464,1464,1464,1464,1464,1464,1464,1464,1464,1464,1464,1464,1464,1464,1464,1458,1458,1452,1452,1445,1445,1445,1445,1439,1439,1433,1433,1433,1427,1421,1421,1415,1410,1410,1404,1398,1398,1392,1392,1392,1387,1381,1381,1376,1376,1370,1370,1365,1359,1359,1354,1354,1354,1349,1349,1343,1343,1338,1333,1333,1328,1328,1322,1317,1312,1312,1307,1307,1307,1302,1297,1292,1292,1292,1288,1283,1278,1273,1273,1273,1268,1268,1268,1264,1264,1259,1255,1255,1255,1250,1250,1245,1245,1241,1236,1236,1232,1232,1227,1223,1219,1219,1214,1214,1214,1210,1210,1206,1202,1202,1202,1197,1189,1189,1185,1185,1185,1181,1181,1181,1177,1173,1173,1169,1169,1169,1165,1165,1157,1153,1153,1149,1149,1145,1141,1141,1138,1138,1138,1134,1134,1134,1130,1123,1123,1123,1119,1119,1115,1115,1112,1112,1108,1108,1108,1105,1101,1101,1097,1094,1094,1090,1090,1087,1084,1084,1080,1080,1077,1077,1077,1073,1070,1070,1067,1063,1063,1063,0,0,0,0,0,0,0,0,0,0,0,0,0,0,0,0,0,0,0,0,0,0,0,0,0,0,0,0,0,0,0,0,0
0,0,0,0,0,0,0,0,0,0,1516,1516,1516,1516,1516,1516,1516,1516,1516,1509,1509,1509,1509,1509,1509,1509,1516,1516,1516,1516,1516,1516,1516,1516,1516,1516,1516,1516,1516,1516,1516,1509,1509,1509,1509,1516,1509,1509,1509,1509,1509,1516,1516,1516,1509,1509,1509,1516,1516,1516,1516,1516,1516,1516,1516,1516,1516,1516,1516,1516,1516,1516,1516,1509,1509,1509,1509,1509,1509,1509,1503,1503,1503,1496,1496,1025,1025,1025,1028,1031,1031,1034,1034,1034,1034,1034,1034,1038,670,670,668,668,668,668,668,668,668,668,668,670,670,670,670,671,672,672,675,676,678,679,680,680,682,682,684,686,686,687,687,688,690,690,691,691,693,693,694,696,697,698,700,701,703,703,704,704,706,707,707,708,708,710,711,711,713,714,714,716,716,716,717,719,720,720,720,720,722,722,723,725,727,728,728,730,730,731,733,733,734,734,736,736,738,739,741,741,742,744,744,746,747,747,747,747,749,750,752,754,755,755,757,757,757,759,759,761,761,761,762,762,764,766,767,767,769,769,771,771,773,773,774,774,774,0,0,0,1483,1489,1489,1489,1489,1489,1489,1489,1489,1489,1489,1489,1489,1496,1496,1496,1503,1503,1503,1509,1509,1509,1509,1509,1509,1509,1219,1219,1223,1223,1223,1223,1223,1223,1227,1227,1227,1227,1227,1227,1227,1227,1227,1227,1232,1232,1227,1227,1232,1232,1232,1232,1232,1232,1232,1232,1232,1232,1232,1232,1232,1236,1236,1489,1489,1489,1483,1483,1483,1483,1483,1483,1483,1483,1483,1477,1477,1477,1477,1477,1477,1470,1470,1470,1470,1470,1470,1470,1470,1470,1483,1483,1483,1483,1483,1483,1477,1477,1477,1477,1477,1477,1489,1496,1496,935,935,935,933,930,930,928,925,925,920,920,918,918,918,918,918,918,920,923,923,923,925,925,928,928,928,930,930,933,933,933,0,0,0,0,1464,1464,1470,1470,1470,1470,1470,1470,1470,1470,1470,1470,1470,1470,1470,1470,1470,1470,1470,1470,1470,1470,1470,1470,1470,1470,1470,1470,1470,1470,1470,1470,1470,1470,1470,1470,1470,1470,1470,1470,1470,1470,1470,1464,1464,1464,1464,1464,1464,1464,1464,1464,1464,1464,1464,1464,1464,1464,1464,1464,1464,1464,1464,1464,1464,1464,1464,1464,1458,1458,1458,1458,1458,1458,1458,1458,1452,1452,1452,1452,1452,1445,1445,1445,1445,1445,1439,1439,1433,1433,1427,1427,1421,1421,1415,1410,1410,1404,1398,1398,1392,1392,1392,1387,1387,1381,1381,1376,1370,1370,1365,1359,1359,1354,1354,1354,1349,1349,1349,1343,1338,1333,1333,1328,1328,1322,1317,1312,1312,1307,1307,1307,1302,1297,1292,1292,1292,1288,1288,1283,1273,1273,1273,1268,1268,1268,1264,1259,1259,1255,1255,1255,1250,1250,1245,1245,1241,1236,1236,1232,1232,1227,1223,1219,1219,1214,1214,1214,1210,1210,1206,1202,1202,1202,1197,1189,1189,1189,1185,1185,1181,1181,1181,1177,1173,1173,1169,1169,1169,1165,1161,1161,1157,1153,1153,1149,1145,1145,1141,1138,1138,1138,1134,1134,1134,1130,1130,1123,1123,1119,1119,1115,1115,1115,1112,1112,1108,1108,1105,1105,1101,1097,1094,1094,1090,1090,1087,1087,1084,1084,1080,1080,1077,1077,1073,1073,1070,1067,1063,1063,1063,0,0,0,0,0,0,0,0,0,0,0,0,0,0,0,0,0,0,0,0,0,0,0,0,0,0,0,0,0,0,0,0,0
0,0,0,0,0,0,0,0,0,0,1516,1516,1516,1516,1516,1509,1509,1509,1509,1503,1503,1503,1509,1509,1509,1509,1509,1509,1509,1516,1516,1509,1509,1516,1509,1509,1509,1509,1509,1509,1509,1509,1503,1503,1503,1503,1503,1503,1503,1503,1509,1509,1509,1509,1509,1509,1509,1509,1509,1509,1509,1509,1509,1509,1509,1509,1509,1509,1509,1509,1509,1509,1509,1509,1509,1503,1503,1503,1503,1503,1503,1503,1503,1496,1496,1496,1025,1025,1031,1031,1031,1034,1034,1034,1034,1034,1034,1038,1038,670,668,668,668,668,668,670,670,670,670,671,671,671,671,672,672,675,676,678,679,680,680,682,682,683,686,686,687,687,687,688,690,690,691,691,693,693,694,696,697,700,701,703,703,704,704,704,704,707,708,708,710,710,711,711,713,714,714,716,716,717,719,719,720,720,720,722,723,723,723,725,727,728,728,730,730,731,733,734,734,734,736,738,738,739,741,741,742,744,744,746,747,747,747,747,749,750,752,754,755,755,757,757,757,759,759,761,761,762,762,764,764,766,767,767,769,769,771,771,773,773,773,1489,1489,1483,1483,1483,1483,1483,1483,1489,1489,1489,1489,1489,1489,1489,1489,1489,1489,1489,1489,1496,1496,1496,1503,1210,1210,1210,1214,1214,1219,1219,1219,1219,1219,1219,1219,1219,1219,1219,1223,1223,1223,1223,1227,1227,1227,1227,1227,1227,1232,1232,1232,1232,1232,1232,1232,1232,1232,1232,1232,1232,1232,1232,1232,1232,1232,1236,1236,1489,1489,1483,1483,1483,1483,1483,1483,1477,1477,1477,1477,1470,1470,1470,1470,1470,1470,1470,1470,1470,1470,1470,1470,1470,1470,1470,1477,1477,1477,1477,1477,1477,1477,1477,1470,1470,1470,1470,1470,1489,1489,938,938,935,935,933,930,928,925,925,923,920,920,918,918,918,918,920,920,923,923,925,925,928,928,928,930,930,930,933,933,0,0,0,0,0,1458,1458,1464,1464,1464,1464,1464,1464,1464,1464,1464,1464,1464,1464,1464,1464,1464,1464,1464,1458,1458,1458,1458,1464,1464,1464,1464,1464,1464,1464,1464,1464,1464,1464,1464,1464,1464,1464,1464,1464,1464,1464,1464,1464,1464,1458,1458,1458,1458,1452,1452,1452,1458,1464,1464,1464,1464,1464,1464,1458,1458,1458,1458,1458,1458,1458,1458,1458,1458,1458,1458,1458,1452,1452,1452,1452,1452,1452,1445,1445,1445,1445,1445,1445,1445,1445,1439,1439,1433,1433,1427,1427,1421,1421,1415,1415,1410,1404,1404,1398,1392,1392,1392,1392,1387,1381,1381,1376,1370,1370,1365,1359,1359,1354,1354,1354,1349,1349,1349,1343,1338,1338,1333,1328,1328,1322,1317,1317,1312,1312,1307,1307,1307,1302,1297,1292,1292,1288,1288,1283,1278,1273,1273,1273,1268,1268,1268,1259,1259,1255,1255,1255,1250,1250,1245,1245,1241,1236,1236,1232,1232,1227,1223,1223,1219,1219,1214,1214,1210,1210,1206,1202,1202,1197,1197,1197,1189,1189,1189,1185,1181,1181,1181,1181,1173,1173,1173,1169,1169,1165,1161,1161,1157,1153,1153,1149,1149,1145,1145,1141,1141,1138,1138,1134,1134,1134,1130,1126,1123,1123,1119,1119,1115,1115,1112,1112,1108,1108,1105,1105,1101,1097,1094,1094,1090,1090,1087,1087,1084,1084,1080,1080,1077,1077,1073,1073,1070,1067,1063,1063,1063,0,0,0,0,0,0,0,0,0,0,0,0,0,0,0,0,0,0,0,0,0,0,0,0,0,0,0,0,0,0,0,0,0
0,0,0,0,0,0,0,0,0,0,1509,1509,1509,1509,1509,1509,1503,1503,1503,1503,1503,1503,1503,1503,1503,1509,1509,1509,1509,1509,1509,1509,1509,1509,1509,1503,1503,1503,1496,1496,1503,1496,1496,1496,1496,1496,1496,1496,1496,1496,1503,1503,1503,1503,1503,1503,1503,1503,1503,1503,1503,1503,1509,1509,1509,1509,1509,1509,1509,1509,1509,1503,1503,1503,1503,1496,1496,1496,1496,1496,1496,1496,1496,1489,1489,1483,1028,1028,1031,1031,1031,1031,1031,1034,1034,1034,1038,1038,1038,671,668,668,670,670,670,670,670,670,670,671,671,671,672,674,675,678,679,679,680,680,680,682,683,684,686,687,687,687,688,690,690,691,691,691,693,694,694,696,697,700,701,703,703,704,704,704,704,707,708,708,710,711,711,711,713,714,716,716,716,717,719,720,720,720,722,722,723,723,723,725,727,728,730,730,730,733,733,734,734,734,736,738,739,739,741,742,744,744,746,746,747,747,747,749,749,750,752,754,755,755,757,757,757,759,759,761,761,762,762,764,764,766,767,767,769,771,771,771,773,773,1483,1489,1489,1483,1483,1483,1483,1483,1483,1483,1483,1483,1489,1489,1489,1489,1489,1489,1489,1489,1214,1210,1210,1210,1210,1210,1210,1210,1210,1210,1214,1214,1219,1219,1219,1219,1219,1219,1219,1219,1219,1223,1223,1223,1223,1227,1227,1227,1227,1227,1227,1232,1232,1232,1232,1232,1232,1232,1232,1232,1232,1232,1232,1232,1232,1232,1236,1241,1241,1241,1489,1483,1483,1483,1477,1477,1477,1477,1477,1470,1470,1464,1464,1464,1464,1464,1464,1464,1464,1464,1464,1464,1464,1464,1464,1464,1470,1470,1470,1470,1470,1470,1470,1470,1470,1464,1464,1464,1464,1489,1489,938,938,935,935,933,930,928,928,925,923,920,920,920,920,920,920,920,920,923,925,925,925,928,928,930,930,933,933,933,935,0,0,0,0,0,1458,1458,1464,1464,1464,1464,1458,1458,1458,1464,1464,1464,1464,1464,1458,1458,1458,1458,1458,1452,1452,1452,1452,1458,1458,1458,1458,1458,1464,1464,1458,1458,1458,1458,1458,1458,1458,1458,1464,1464,1464,1464,1464,1464,1452,1452,1452,1452,1452,1452,1452,1452,1452,1458,1458,1458,1458,1458,1458,1452,1452,1452,1452,1452,1452,1452,1452,1452,1452,1452,1452,1452,1445,1445,1445,1445,1445,1445,1445,1445,1445,1445,1439,1439,1439,1439,1439,1439,1433,1433,1427,1427,1421,1421,1415,1415,1410,1404,1404,1398,1392,1392,1392,1392,1387,1387,1381,1376,1370,1370,1365,1365,1359,1359,1354,1354,1349,1349,1349,1343,1338,1338,1333,1328,1328,1322,1317,1317,1312,1312,1307,1307,1307,1302,1302,1292,1292,1288,1288,1283,1278,1278,1273,1273,1268,1268,1268,1259,1259,1259,1255,1255,1250,1250,1245,1245,1241,1236,1236,1232,1227,1227,1219,1219,1219,1219,1214,1214,1210,1210,1210,1202,1202,1197,1197,1197,1189,1189,1189,1185,1181,1181,1181,1181,1177,1177,1173,1173,1169,1165,1161,1161,1157,1157,1153,1149,1149,1145,1145,1141,1141,1138,1138,1134,1134,1134,1130,1126,1123,1123,1119,1119,1115,1115,1112,1112,1112,1108,1105,1105,1101,1097,1094,1094,1090,1090,1087,1087,1087,1084,1080,1080,1077,1077,1077,1073,1070,1067,1063,1063,1063,0,0,0,0,0,0,0,0,0,0,0,0,0,0,0,0,0,0,0,0,0,0,0,0,0,0,0,0,0,0,0,0,0
0,0,0,0,0,0,0,0,0,0,1509,1503,1503,1503,1503,1503,1503,1496,1496,1496,1496,1496,1503,1503,1503,1503,1503,1509,1509,1509,1503,1503,1503,1503,1503,1503,1496,1496,1496,1496,1496,1489,1489,1489,1489,1489,1496,1496,1496,1496,1503,1503,1496,1496,1496,1496,1496,1496,1496,1496,1496,1496,1503,1503,1503,1503,1503,1503,1496,1489,1489,1496,1496,1496,1489,1489,1489,1489,1489,1489,1489,1489,1489,1489,1483,1483,1483,1031,1031,1031,1031,1031,1031,1034,1034,1034,1038,1038,1038,671,670,670,670,670,670,670,670,670,670,671,671,671,672,676,678,679,679,680,680,680,682,683,683,686,686,687,687,687,688,690,690,691,691,693,693,694,694,696,698,701,703,703,703,704,704,704,704,707,708,708,710,711,711,713,714,714,716,716,717,719,720,720,720,720,723,723,725,725,725,727,728,728,730,731,731,733,734,734,736,736,738,738,739,741,741,742,746,746,746,747,747,747,747,749,749,752,752,754,755,755,757,757,757,759,759,761,761,762,762,764,766,766,767,767,767,1483,1483,1483,1483,1483,1483,1483,1483,1483,1483,1483,1483,1483,1483,1483,1483,1483,1489,1489,1489,1489,1489,1489,1489,1214,1210,1210,1210,1210,1206,1206,1206,1210,1210,1210,1214,1214,1214,1214,1214,1214,1214,1214,1214,1214,1219,1219,1223,1223,1223,1223,1227,1227,1227,1227,1227,1232,1232,1232,1232,1232,1232,1232,1232,1232,1232,1232,1232,1232,1236,1236,1241,1241,1241,1241,1477,1477,1477,1477,1470,1470,1470,1470,1464,1464,1464,1464,1464,1464,1464,1464,1458,1458,1458,1458,1464,1464,1464,1464,1464,1464,1470,1470,1470,1470,1470,1470,1470,1470,1464,1464,1458,1458,1458,1458,938,938,938,935,935,933,933,930,928,925,923,923,920,920,920,920,920,920,920,925,925,925,925,928,928,930,930,933,933,935,935,0,0,0,0,0,1458,1458,1458,1458,1458,1458,1458,1458,1458,1458,1458,1458,1458,1458,1458,1452,1452,1452,1452,1452,1452,1452,1452,1452,1458,1458,1458,1458,1458,1458,1458,1452,1452,1452,1452,1452,1452,1458,1458,1458,1458,1458,1458,1458,1452,1445,1445,1445,1445,1445,1445,1445,1452,1452,1452,1452,1452,1452,1452,1452,1452,1452,1445,1445,1445,1445,1445,1445,1445,1445,1445,1445,1445,1445,1445,1445,1445,1445,1439,1439,1445,1439,1439,1439,1439,1433,1433,1433,1427,1427,1427,1421,1421,1421,1415,1415,1410,1404,1404,1398,1392,1392,1392,1392,1387,1387,1381,1376,1370,1370,1365,1365,1359,1359,1354,1354,1349,1349,1349,1343,1343,1338,1333,1333,1328,1322,1317,1317,1312,1312,1312,1307,1307,1302,1302,1292,1292,1288,1288,1283,1278,1278,1273,1273,1268,1268,1268,1264,1259,1255,1255,1255,1250,1250,1245,1245,1241,1236,1236,1232,1227,1227,1219,1219,1219,1219,1219,1214,1214,1210,1210,1206,1202,1202,1197,1197,1193,1189,1189,1185,1181,1181,1181,1181,1177,1177,1177,1173,1169,1165,1161,1161,1161,1157,1153,1149,1149,1145,1145,1145,1141,1138,1138,1134,1134,1134,1130,1126,1123,1123,1119,1119,1119,1115,1115,1115,1112,1108,1108,1105,1101,1101,1094,1094,1090,1090,1087,1087,1087,1084,1080,1080,1077,1077,1077,1073,1070,1067,1063,1063,1063,0,0,0,0,0,0,0,0,0,0,0,0,0,0,0,0,0,0,0,0,0,0,0,0,0,0,0,0,0,0,0,0,0
0,0,0,0,0,0,0,0,0,0,1496,1496,1496,1496,1496,1496,1496,1496,1496,1496,1496,1496,1496,1496,1496,1496,1503,1503,1503,1496,1496,1496,1496,1496,1496,1496,1489,1489,1489,1489,1489,1489,1489,1483,1483,1489,1489,1489,1489,1496,1496,1496,1496,1489,1489,1489,1489,1489,1489,1489,1489,1489,1496,1496,1496,1496,1496,1496,1496,1489,1489,1489,1489,1489,1489,1489,1489,1489,1489,1483,1483,1483,1483,1477,1477,1477,1477,1034,1034,1034,1034,1034,1034,1034,1034,1034,1038,1038,1038,1038,1038,670,670,670,670,670,670,668,668,671,672,674,678,679,679,679,680,680,680,682,682,683,684,686,686,687,687,688,688,688,690,691,691,693,693,694,694,696,698,700,703,703,704,706,706,707,707,708,708,710,711,713,713,713,714,716,716,716,717,719,720,720,720,722,723,725,725,725,727,727,728,730,730,731,731,733,734,734,736,736,738,739,739,741,742,742,746,746,746,747,747,747,749,749,750,752,754,755,755,757,757,757,757,759,761,761,762,764,764,764,1470,1470,1470,1470,1470,1470,1470,1477,1477,1483,1483,1483,1483,1483,1483,1483,1483,1483,1483,1483,1483,1483,1489,1489,1489,1489,1210,1210,1210,1210,1210,1210,1206,1206,1206,1206,1206,1210,1210,1210,1210,1214,1214,1214,1214,1214,1214,1214,1214,1214,1214,1219,1219,1223,1223,1223,1227,1227,1227,1227,1227,1232,1232,1232,1232,1232,1232,1232,1232,1232,1232,1232,1232,1236,1236,1236,1241,1245,1241,1241,1245,1477,1470,1470,1464,1464,1464,1464,1458,1458,1458,1458,1458,1458,1458,1458,1458,1458,1458,1458,1458,1458,1458,1458,1458,1458,1464,1464,1464,1464,1464,1464,1464,1464,1458,1458,1452,1452,1445,1445,1445,938,938,938,935,935,933,933,928,928,925,923,923,923,923,920,920,920,923,925,925,925,928,928,928,930,930,933,933,935,935,938,0,0,0,0,1458,1458,1458,1452,1452,1452,1452,1452,1452,1452,1452,1452,1452,1452,1452,1452,1445,1445,1452,1445,1445,1445,1445,1452,1452,1452,1452,1452,1452,1452,1445,1445,1445,1445,1452,1445,1445,1452,1452,1452,1452,1452,1452,1452,1445,1445,1445,1445,1445,1445,1445,1445,1445,1445,1452,1452,1445,1445,1445,1445,1445,1445,1445,1445,1439,1439,1439,1439,1439,1439,1439,1439,1439,1439,1439,1439,1439,1439,1439,1439,1439,1439,1439,1439,1433,1433,1433,1427,1421,1421,1421,1421,1421,1421,1415,1415,1410,1410,1404,1398,1398,1392,1392,1392,1392,1387,1381,1376,1370,1370,1365,1365,1359,1359,1354,1354,1354,1349,1349,1343,1343,1338,1333,1333,1328,1322,1322,1317,1312,1312,1312,1312,1307,1307,1302,1292,1292,1292,1288,1288,1283,1283,1273,1273,1268,1268,1268,1264,1259,1255,1255,1255,1250,1250,1245,1245,1241,1236,1236,1232,1232,1227,1223,1223,1223,1219,1219,1214,1214,1214,1210,1206,1202,1202,1197,1197,1193,1193,1189,1185,1185,1181,1181,1181,1177,1177,1177,1173,1169,1165,1165,1165,1161,1157,1153,1153,1149,1149,1145,1145,1145,1141,1138,1138,1134,1134,1130,1126,1123,1123,1123,1119,1119,1119,1115,1115,1112,1108,1108,1105,1101,1101,1094,1094,1094,1090,1087,1087,1087,1084,1080,1080,1080,1077,1077,1073,1070,1067,1067,1063,1063,0,0,0,0,0,0,0,0,0,0,0,0,0,0,0,0,0,0,0,0,0,0,0,0,0,0,0,0,0,0,0,0,0
0,0,0,0,0,0,0,0,0,0,1496,1496,1496,1489,1489,1489,1489,1489,1489,1489,1489,1489,1496,1489,1489,1496,1496,1496,1496,1489,1489,1489,1489,1489,1489,1489,1489,1489,1489,1489,1489,1483,1483,1483,1483,1483,1483,1489,1489,1489,1489,1489,1489,1489,1489,1489,1489,1489,1489,1483,1483,1489,1489,1489,1489,1489,1489,1489,1489,1489,1489,1489,1489,1489,1483,1483,1483,1483,1483,1483,1483,1483,1483,1477,1477,1470,1464,1034,1034,1034,1034,1034,1034,1034,1034,1038,1038,1038,1038,1038,1041,671,668,668,668,668,668,668,668,672,674,676,679,679,680,680,680,680,682,682,682,683,686,686,686,687,687,688,688,688,690,691,691,693,694,696,696,696,697,700,703,703,704,706,707,707,708,708,708,710,711,713,713,714,714,716,716,717,719,720,720,720,722,722,723,725,727,727,727,728,730,730,731,731,733,733,736,736,738,738,739,739,741,741,742,744,746,746,746,747,747,747,747,749,749,754,754,757,757,757,757,757,759,759,759,759,759,1452,1452,0,1464,1470,1470,1470,1470,1470,1470,1470,1477,1477,1483,1483,1483,1483,1483,1483,1483,1483,1477,1477,1197,1197,1197,1483,1206,1206,1206,1206,1206,1206,1206,1206,1206,1206,1206,1206,1206,1206,1210,1210,1210,1210,1210,1214,1214,1214,1214,1214,1214,1214,1214,1219,1219,1223,1223,1223,1227,1227,1227,1227,1227,1232,1232,1232,1232,1232,1232,1232,1232,1232,1232,1232,1236,1236,1236,1241,1245,1245,1245,1245,1245,1464,1464,1464,1464,1458,1458,1458,1458,1458,1458,1458,1458,1458,1458,1458,1452,1452,1452,1452,1458,1458,1458,1458,1458,1458,1464,1458,1458,1464,1464,1458,1458,1458,1458,1452,1445,1445,1439,1439,1439,948,938,938,938,938,935,933,930,928,925,923,923,923,923,923,923,923,923,925,925,928,928,928,930,930,933,935,935,935,938,938,0,0,0,0,0,1452,1452,1452,1452,1452,1452,1452,1452,1452,1445,1445,1445,1445,1445,1445,1445,1445,1445,1445,1445,1445,1445,1445,1445,1445,1445,1445,1445,1445,1445,1445,1445,1439,1439,1439,1439,1445,1445,1445,1445,1445,1445,1445,1445,1439,1439,1439,1439,1439,1439,1439,1439,1439,1445,1445,1445,1439,1439,1439,1439,1439,1439,1439,1439,1439,1439,1433,1433,1433,1433,1433,1433,1427,1427,1433,1433,1433,1433,1433,1433,1433,1433,1433,1427,1427,1427,1427,1421,1421,1421,1421,1421,1421,1415,1415,1415,1410,1410,1404,1398,1398,1392,1392,1392,1387,1381,1376,1376,1370,1370,1365,1365,1359,1354,1354,1354,1349,1349,1349,1343,1338,1333,1333,1328,1322,1322,1317,1312,1312,1312,1312,1307,1307,1302,1297,1292,1292,1288,1288,1288,1283,1278,1273,1273,1268,1268,1264,1259,1255,1255,1250,1250,1250,1245,1245,1241,1236,1236,1232,1232,1232,1223,1223,1223,1219,1219,1214,1214,1214,1210,1206,1202,1202,1197,1197,1197,1193,1189,1189,1185,1181,1181,1181,1177,1177,1177,1173,1169,1165,1165,1165,1161,1157,1153,1153,1149,1149,1149,1149,1145,1141,1138,1138,1134,1134,1130,1126,1126,1123,1123,1119,1119,1119,1115,1115,1112,1108,1108,1105,1101,1101,1094,1094,1094,1090,1090,1090,1087,1087,1084,1080,1080,1077,1077,1073,1070,1067,1067,1063,1063,0,0,0,0,0,0,0,0,0,0,0,0,0,0,0,0,0,0,0,0,0,0,0,0,0,0,0,0,0,0,0,0,0
0,0,0,0,0,0,0,0,0,0,1489,1489,1489,1489,1489,1489,1489,1489,1489,1489,1489,1489,1489,1489,1489,1489,1489,1489,1489,1489,1489,1489,1483,1483,1489,1489,1489,1489,1489,1489,1483,1483,1483,1483,1483,1483,1483,1483,1483,1483,1483,1489,1483,1483,1483,1483,1483,1483,1483,1483,1483,1483,1489,1489,1489,1489,1489,1489,1489,1489,1483,1483,1483,1483,1483,1477,1477,1477,1477,1477,1477,1477,1477,1477,1470,1470,1464,1034,1034,1034,1034,1034,1034,1034,1034,1038,1038,1038,1038,1038,1041,1041,668,668,668,668,668,668,668,680,680,680,680,680,680,680,682,682,682,682,682,683,686,686,686,687,687,688,688,690,690,691,693,693,694,696,696,696,697,700,703,703,704,707,707,708,708,708,708,710,713,714,714,714,716,716,716,717,719,720,720,722,722,722,723,725,727,727,728,728,730,731,731,733,733,734,736,736,738,739,739,739,741,742,742,744,746,746,746,747,747,747,747,749,749,754,754,757,757,757,757,757,759,759,759,759,1445,1452,1452,1452,1464,1464,1464,1464,1464,1464,1464,1470,1470,1477,1477,1477,1477,1477,1477,1477,1193,1193,1193,1193,1193,1193,1193,1197,1197,1197,1202,1202,1202,1202,1202,1206,1206,1206,1206,1206,1206,1206,1206,1206,1210,1210,1210,1210,1210,1210,1214,1214,1214,1214,1219,1219,1223,1223,1223,1227,1227,1227,1227,1227,1227,1232,1232,1232,1232,1232,1232,1232,1232,1232,1232,1236,1236,1241,1241,1245,1245,1245,1245,1245,1245,1458,1458,1458,1458,1458,1452,1452,1452,1452,1452,1452,1452,1452,1452,1452,1452,1452,1452,1452,1452,1452,1452,1452,1452,1452,1458,1458,1458,1458,1452,1452,1452,1452,1452,1445,1445,1439,1439,1421,1421,948,948,940,938,938,935,933,930,928,925,925,925,925,925,925,923,923,925,925,928,928,928,928,930,933,933,935,935,938,938,940,0,0,0,0,0,1445,1445,1445,1445,1445,1445,1445,1445,1445,1445,1445,1445,1445,1445,1445,1439,1439,1445,1445,1439,1439,1439,1445,1445,1445,1445,1445,1445,1439,1439,1439,1439,1439,1439,1433,1433,1433,1433,1433,1433,1439,1445,1439,1439,1439,1439,1439,1439,1439,1439,1439,1439,1439,1439,1439,1439,1439,1439,1439,1439,1439,1433,1433,1433,1433,1433,1433,1433,1433,1433,1433,1427,1427,1427,1427,1427,1427,1427,1427,1427,1433,1427,1427,1421,1421,1421,1421,1421,1421,1421,1421,1421,1421,1415,1415,1415,1410,1410,1404,1398,1398,1398,1392,1392,1387,1381,1376,1376,1370,1370,1365,1365,1359,1354,1354,1354,1349,1349,1349,1343,1338,1333,1333,1328,1328,1322,1317,1317,1312,1312,1312,1307,1307,1302,1302,1292,1292,1288,1288,1288,1283,1278,1273,1273,1268,1268,1264,1259,1255,1255,1250,1250,1250,1245,1245,1241,1236,1236,1232,1232,1227,1223,1223,1223,1219,1219,1219,1214,1210,1210,1206,1202,1202,1197,1197,1197,1193,1189,1189,1185,1181,1181,1181,1177,1177,1177,1173,1169,1165,1165,1165,1161,1161,1157,1153,1149,1149,1149,1149,1149,1145,1141,1138,1134,1134,1130,1126,1126,1123,1123,1119,1119,1119,1115,1115,1112,1112,1108,1105,1101,1101,1097,1094,1094,1090,1090,1090,1087,1087,1084,1084,1080,1080,1077,1073,1070,1070,1067,1063,1063,0,0,0,0,0,0,0,0,0,0,0,0,0,0,0,0,0,0,0,0,0,0,0,0,0,0,0,0,0,0,0,0,0
0,0,0,0,0,0,0,0,0,0,1477,1477,1483,1483,1483,1483,1483,1483,1483,1483,1483,1483,1483,1483,1483,1489,1489,1483,1483,1483,1483,1483,1483,1483,1483,1483,1483,1483,1483,1483,1483,1483,1483,1483,1483,1483,1483,1483,1483,1483,1477,1477,1477,1477,1477,1477,1483,1483,1483,1483,1483,1483,1483,1483,1483,1483,1483,1483,1483,1483,1483,1483,1477,1477,1477,1477,1477,1477,1477,1470,1470,1470,1470,1464,1464,1464,1034,1034,1034,1034,1034,1034,1034,1034,1034,1038,1038,1038,1038,1038,1038,1041,668,668,668,668,668,668,668,0,680,680,680,680,682,682,682,682,682,682,683,683,686,686,686,687,687,688,688,690,690,691,693,693,694,696,696,696,697,700,703,704,706,707,707,708,708,710,710,711,713,714,714,714,716,716,717,719,720,720,720,722,722,723,723,725,727,727,728,730,731,731,733,733,733,734,736,738,738,739,739,739,741,742,744,744,746,746,747,747,747,747,749,749,749,754,754,757,757,757,757,757,757,1439,1439,1439,1445,1452,1452,1452,1458,1458,1464,1464,1464,1464,1464,1464,1464,1470,1470,1470,1470,1470,1193,1193,1193,1193,1193,1193,1193,1193,1193,1197,1197,1197,1197,1197,1202,1202,1202,1202,1206,1206,1206,1202,1202,1206,1206,1206,1206,1210,1210,1210,1210,1210,1214,1214,1214,1214,1219,1219,1223,1223,1223,1227,1227,1227,1227,1227,1227,1232,1232,1232,1232,1232,1236,1236,1236,1236,1236,1236,1241,1241,1245,1245,1245,1245,1245,1245,1245,1458,1458,1458,1458,1458,1452,1452,1452,1452,1452,1452,1452,1452,1452,1452,1452,1452,1452,1445,1445,1445,1445,1445,1445,1452,1452,1452,1452,1452,1452,1445,1445,1445,1445,1439,1439,1433,1433,1421,1421,948,948,946,943,940,938,935,933,930,928,925,925,925,925,925,925,925,925,925,928,928,928,930,930,933,935,935,935,938,938,940,0,0,0,0,0,1439,1439,1439,1439,1445,1445,1439,1439,1439,1439,1439,1439,1439,1439,1439,1439,1439,1439,1439,1439,1439,1439,1439,1439,1439,1439,1439,1439,1439,1433,1433,1433,1433,1433,1433,1433,1427,1427,1427,1427,1427,1433,1433,1433,1433,1433,1433,1433,1433,1433,1433,1433,1433,1433,1433,1433,1433,1433,1433,1427,1427,1427,1427,1427,1427,1427,1427,1427,1427,1427,1427,1427,1421,1421,1421,1421,1421,1421,1421,1421,1421,1421,1421,1421,1421,1421,1421,1415,1415,1415,1415,1415,1415,1415,1415,1415,1410,1404,1404,1398,1398,1398,1392,1392,1387,1381,1376,1376,1370,1370,1370,1365,1359,1354,1354,1354,1349,1349,1349,1338,1338,1333,1333,1328,1328,1328,1322,1317,1317,1312,1312,1312,1307,1307,1297,1292,1292,1288,1288,1288,1283,1278,1273,1273,1268,1268,1264,1259,1255,1255,1255,1250,1250,1250,1245,1241,1236,1236,1232,1232,1227,1223,1223,1223,1219,1219,1219,1214,1210,1210,1206,1206,1202,1202,1197,1197,1193,1193,1189,1185,1185,1181,1181,1177,1177,1177,1173,1169,1165,1165,1165,1161,1161,1157,1153,1149,1149,1149,1149,1149,1145,1145,1138,1134,1134,1130,1130,1126,1126,1123,1123,1119,1119,1119,1115,1112,1112,1108,1105,1101,1101,1097,1094,1094,1090,1090,1090,1090,1087,1087,1084,1080,1080,1080,1077,1073,1070,1067,1067,1067,0,0,0,0,0,0,0,0,0,0,0,0,0,0,0,0,0,0,0,0,0,0,0,0,0,0,0,0,0,0,0,0,0
0,0,0,0,0,0,0,0,0,0,1477,1477,1477,1477,1477,1477,1483,1483,1477,1477,1483,1483,1483,1477,1477,1483,1483,1477,1477,1477,1477,1483,1477,1477,1483,1483,1483,1483,1483,1483,1483,1483,1483,1477,1477,1477,1477,1477,1477,1470,1470,1470,1470,1470,1470,1470,1477,1477,1477,1477,1477,1477,1477,1477,1477,1477,1477,1477,1477,1477,1470,1470,1470,1470,1470,1470,1470,1470,1470,1470,1470,1464,1464,1464,1464,1458,1034,1034,1034,1034,1034,1034,1034,1034,1038,1038,1038,1038,1038,1038,1038,1041,1038,1038,1038,1044,0,1047,1047,0,682,680,680,680,682,682,682,682,682,683,683,684,686,686,686,687,688,690,690,691,691,691,693,693,694,696,696,696,697,700,703,704,706,707,707,708,708,710,711,713,714,714,714,716,716,716,717,719,720,720,722,722,722,725,727,727,727,727,728,730,731,731,733,733,733,734,736,738,738,739,739,741,741,742,744,744,744,746,746,747,747,747,747,749,752,0,752,1157,1157,1439,1439,1439,1439,1439,1439,1439,1445,1452,1452,1452,1458,1458,1458,1458,1464,1464,1464,1464,1464,1464,1464,1189,1189,1189,1189,1189,1189,1193,1193,1193,1193,1193,1193,1197,1197,1197,1197,1197,1197,1197,1197,1197,1202,1202,1202,1202,1202,1202,1206,1206,1206,1210,1210,1210,1210,1210,1214,1214,1214,1214,1219,1219,1223,1227,1227,1227,1227,1227,1227,1227,1232,1232,1232,1232,1232,1232,1236,1236,1236,1236,1241,1241,1241,1241,1245,1245,1245,1245,1245,1245,1245,1245,1458,1458,1458,1452,1445,1445,1445,1445,1445,1445,1445,1445,1445,1445,1439,1439,1439,1439,1439,1439,1439,1439,1439,1445,1445,1445,1445,1445,1445,1439,1439,1439,1439,1439,1433,1433,1427,1421,1421,1421,948,946,943,940,938,938,935,933,930,928,928,925,925,925,925,925,925,925,928,928,928,930,930,935,935,935,938,938,940,940,943,0,0,0,0,1439,1433,1433,1439,1439,1439,1439,1439,1439,1433,1433,1433,1433,1433,1433,1433,1433,1433,1433,1433,1433,1433,1433,1439,1439,1439,1439,1439,1433,1433,1433,1433,1433,1433,1427,1427,1427,1427,1427,1427,1427,1427,1427,1427,1427,1427,1427,1427,1427,1427,1433,1427,1427,1427,1427,1427,1427,1427,1427,1427,1421,1421,1421,1421,1421,1421,1421,1421,1421,1421,1421,1421,1421,1421,1415,1415,1415,1415,1415,1415,1421,1421,1421,1421,1415,1415,1415,1415,1415,1415,1415,1415,1415,1415,1415,1410,1410,1404,1404,1398,1398,1398,1392,1392,1387,1381,1376,1376,1370,1370,1370,1365,1359,1354,1354,1354,1354,1349,1349,1338,1338,1333,1333,1328,1328,1328,1322,1322,1317,1317,1312,1312,1307,1302,1297,1292,1292,1288,1288,1288,1283,1283,1278,1273,1268,1268,1268,1259,1255,1255,1255,1250,1250,1250,1245,1245,1236,1236,1232,1232,1232,1223,1223,1219,1219,1219,1219,1214,1214,1210,1210,1206,1202,1202,1197,1197,1193,1193,1189,1185,1185,1181,1181,1177,1177,1177,1173,1169,1165,1165,1165,1165,1161,1157,1153,1153,1153,1149,1149,1149,1145,1145,1138,1138,1134,1130,1130,1126,1126,1123,1123,1119,1119,1119,1115,1115,1112,1108,1105,1101,1101,1097,1097,1094,1090,1090,1090,1090,1087,1087,1084,1084,1080,1077,1077,1073,1070,1067,1067,1067,0,0,0,0,0,0,0,0,0,0,0,0,0,0,0,0,0,0,0,0,0,0,0,0,0,0,0,0,0,0,0,0,0
0,0,0,0,0,0,0,0,0,0,1470,1470,1470,1470,1470,1470,1470,1470,1464,1464,1470,1477,1477,1477,1477,1477,1477,1470,1470,1470,1470,1477,1477,1477,1477,1477,1477,1477,1477,1477,1477,1477,1477,1477,1477,1477,1477,1470,1470,1470,1464,1464,1464,1464,1464,1464,1470,1470,1470,1470,1470,1470,1470,1470,1470,1470,1470,1470,1470,1470,1470,1464,1464,1464,1464,1464,1464,1464,1464,1464,1464,1464,1464,1464,1458,1458,1034,1034,1034,1034,1038,1038,1038,1038,1038,1038,1038,1041,1041,1041,1041,1044,1044,1044,1044,1044,1047,1047,0,0,682,682,682,682,682,682,682,683,683,684,684,684,686,686,687,687,688,690,690,691,691,691,693,694,696,696,696,697,698,700,703,706,706,708,708,708,710,710,711,713,714,714,716,716,717,717,719,720,720,722,722,723,723,727,727,727,728,728,728,728,731,731,733,733,734,734,736,738,738,739,739,741,741,742,744,744,744,746,746,747,747,747,747,749,749,749,1157,1157,1157,1433,1439,1439,1439,1439,1445,1445,1445,1452,1452,1452,1458,1458,1458,1458,1177,1177,1464,1464,1181,1181,1181,1181,1181,1189,1189,1189,1189,1189,1193,1189,1189,1193,1193,1197,1197,1197,1197,1197,1197,1197,1197,1197,1197,1202,1202,1202,1202,1202,1206,1206,1206,1210,1210,1210,1210,1210,1214,1214,1214,1219,1219,1223,1227,1227,1227,1227,1227,1227,1227,1227,1232,1232,1232,1232,1232,1236,1236,1236,1236,1236,1241,1241,1245,1245,1245,1245,1245,1245,1245,1245,1245,1245,1445,1445,1445,1445,1439,1439,1439,1439,1439,1439,1439,1439,1439,1439,1439,1439,1439,1439,1439,1433,1433,1439,1439,1439,1439,1439,1439,1439,1439,1439,1439,1439,1439,1433,1433,1427,1427,1415,1415,1421,951,948,946,943,940,938,938,935,935,933,930,925,925,925,925,925,925,925,928,930,930,930,933,935,935,938,938,940,940,943,943,946,0,0,0,0,1433,1433,1433,1433,1433,1433,1433,1433,1433,1427,1427,1433,1433,1433,1427,1427,1427,1427,1427,1427,1427,1427,1427,1433,1433,1433,1433,1433,1427,1427,1427,1427,1427,1421,1421,1421,1421,1421,1421,1421,1421,1421,1421,1421,1421,1421,1421,1421,1427,1427,1427,1427,1427,1427,1427,1421,1421,1421,1421,1421,1421,1421,1421,1421,1421,1421,1421,1415,1415,1415,1415,1415,1415,1415,1415,1415,1415,1415,1415,1415,1415,1415,1415,1415,1415,1415,1410,1410,1410,1410,1410,1410,1410,1410,1410,1410,1404,1404,1398,1398,1398,1392,1392,1387,1381,1376,1376,1370,1370,1370,1365,1359,1354,1354,1354,1354,1349,1349,1343,1338,1333,1333,1333,1328,1328,1322,1322,1317,1317,1312,1312,1307,1302,1297,1292,1292,1288,1288,1288,1283,1283,1278,1273,1268,1268,1264,1259,1255,1255,1255,1250,1250,1250,1245,1245,1236,1236,1232,1232,1232,1223,1219,1219,1219,1219,1219,1214,1214,1210,1210,1210,1206,1202,1202,1197,1193,1193,1189,1185,1185,1181,1181,1181,1181,1177,1169,1169,1165,1165,1165,1165,1161,1157,1153,1153,1153,1149,1149,1149,1145,1145,1138,1134,1134,1134,1130,1130,1126,1123,1123,1119,1119,1119,1119,1115,1112,1108,1105,1101,1101,1097,1097,1094,1094,1090,1090,1090,1087,1087,1084,1084,1080,1077,1077,1073,1070,1070,1067,1067,0,0,0,0,0,0,0,0,0,0,0,0,0,0,0,0,0,0,0,0,0,0,0,0,0,0,0,0,0,0,0,0,0
0,0,0,0,0,0,0,0,0,0,1464,1464,1464,1464,1464,1464,1464,1464,1458,1458,1464,1464,1464,1464,1464,1470,1470,1464,1464,1464,1464,1464,1470,1470,1470,1470,1470,1470,1470,1470,1470,1470,1470,1470,1470,1470,1470,1470,1470,1464,1464,1464,1464,1464,1464,1464,1464,1464,1464,1464,1464,1464,1464,1464,1464,1464,1464,1464,1464,1464,1464,1464,1464,1458,1458,1458,1458,1458,1458,1458,1464,1464,1464,1458,1458,1458,1452,1034,1034,1034,1038,1038,1038,1038,1038,1038,1041,1041,1041,1041,1044,1044,1044,1044,1044,1044,1047,1047,1047,0,0,682,682,682,682,682,682,683,683,684,686,686,686,687,687,688,688,690,691,691,693,693,694,696,697,697,697,697,698,700,703,706,707,708,708,710,710,711,713,713,714,714,716,716,717,717,719,720,722,722,723,723,725,727,727,727,728,728,728,728,731,731,733,733,734,734,736,738,738,739,739,741,741,742,744,744,744,746,746,747,747,747,747,747,747,0,1157,1157,1157,1433,1433,1433,1439,1439,1445,1445,1452,1452,1173,1173,1173,1169,1169,1173,1173,1177,1177,1177,1181,1181,1181,1181,1181,1185,1189,1189,1189,1189,1189,1189,1189,1193,1193,1193,1193,1197,1197,1197,1197,1197,1197,1197,1197,1197,1197,1197,1197,1202,1206,1206,1206,1210,1210,1210,1214,1214,1214,1214,1214,1219,1219,1223,1227,1227,1227,1227,1227,1232,1232,1232,1232,1232,1236,1236,1236,1236,1241,1241,1241,1241,1241,1241,1245,1245,1245,1245,1245,1245,1245,1245,1245,1245,1433,1433,1433,1439,1439,1439,1439,1439,1439,1433,1433,1433,1433,1433,1433,1433,1433,1433,1433,1433,1433,1433,1433,1433,1439,1439,1433,1433,1439,1433,1433,1433,1433,1433,1427,1427,1415,1415,1415,948,948,948,946,946,940,940,938,938,935,933,930,928,928,928,925,925,925,925,928,930,930,933,933,935,938,938,940,940,943,943,943,946,0,0,0,0,1427,1427,1427,1427,1427,1427,1427,1427,1421,1421,1421,1427,1427,1427,1427,1427,1427,1427,1421,1421,1421,1421,1427,1427,1427,1427,1427,1427,1427,1427,1421,1421,1421,1421,1421,1421,1421,1421,1421,1421,1421,1421,1421,1421,1421,1415,1415,1415,1415,1415,1415,1421,1421,1421,1421,1421,1421,1415,1415,1415,1415,1415,1415,1415,1415,1415,1415,1415,1415,1415,1415,1415,1415,1415,1415,1415,1410,1410,1410,1415,1415,1415,1415,1415,1415,1410,1410,1410,1404,1404,1404,1404,1404,1404,1404,1404,1398,1398,1398,1398,1398,1392,1392,1392,1381,1381,1376,1376,1370,1370,1365,1359,1354,1354,1354,1354,1354,1349,1343,1338,1333,1333,1333,1328,1328,1322,1322,1317,1317,1312,1312,1307,1302,1297,1292,1292,1288,1288,1288,1283,1283,1278,1273,1268,1268,1264,1259,1255,1255,1255,1250,1250,1250,1245,1245,1241,1236,1236,1232,1232,1223,1219,1219,1219,1219,1219,1214,1214,1210,1210,1210,1206,1202,1202,1197,1193,1193,1189,1185,1185,1181,1181,1181,1181,1177,1169,1169,1165,1165,1165,1165,1161,1157,1153,1153,1153,1149,1149,1149,1145,1141,1138,1134,1134,1134,1130,1130,1126,1123,1123,1123,1119,1119,1119,1115,1115,1112,1105,1105,1101,1101,1097,1094,1094,1090,1090,1090,1087,1087,1084,1084,1080,1077,1077,1073,1073,1070,1067,1067,0,0,0,0,0,0,0,0,0,0,0,0,0,0,0,0,0,0,0,0,0,0,0,0,0,0,0,0,0,0,0,0,0
0,0,0,0,0,0,0,0,0,0,1458,1458,1458,1458,1458,1458,1458,1458,1458,1458,1458,1464,1464,1464,1464,1458,1458,1458,1458,1464,1464,1464,1464,1464,1464,1464,1464,1464,1464,1464,1464,1464,1464,1464,1464,1464,1464,1464,1464,1464,1458,1458,1458,1458,1458,1458,1458,1458,1458,1458,1458,1458,1458,1464,1464,1464,1464,1464,1464,1458,1458,1458,1458,1452,1452,1452,1452,1458,1458,1458,1458,1458,1458,1458,1452,1452,1439,1034,1034,1038,1038,1038,1038,1038,1038,1038,1041,1044,1044,1044,1044,1044,1044,1044,1044,1044,1047,1047,1047,0,683,683,683,683,683,683,683,683,684,684,686,686,687,687,687,688,690,690,691,691,693,693,694,696,697,697,697,697,698,700,703,706,708,708,708,710,710,711,713,714,714,714,716,716,717,717,720,720,722,722,723,725,725,727,727,727,728,728,728,728,728,731,733,733,734,736,736,738,739,739,739,741,742,742,744,744,744,746,746,746,747,747,747,1165,1165,1165,1157,1157,1157,1161,1433,1433,1439,1439,1177,1177,1173,1173,1173,1173,1173,1169,1169,1173,1173,1177,1177,1177,1181,1181,1181,1181,1181,1185,1185,1185,1189,1189,1189,1189,1189,1189,1193,1193,1193,1193,1197,1197,1197,1197,1197,1197,1197,1197,1197,1197,1197,1202,1206,1206,1210,1210,1210,1214,1214,1214,1214,1214,1219,1219,1223,1223,1227,1227,1227,1227,1227,1232,1232,1232,1232,1232,1236,1236,1236,1241,1241,1241,1241,1241,1241,1241,1245,1245,1245,1245,1245,1245,1245,1245,1245,1245,1415,1415,1427,1427,1427,1433,1433,1433,1433,1433,1433,1427,1421,1421,1421,1427,1427,1427,1427,1427,1427,1427,1427,1427,1433,1433,1433,1433,1433,1433,1427,1427,1427,1427,1421,1415,1415,1410,1404,1404,948,948,948,943,943,940,938,938,935,933,930,928,928,928,928,928,928,928,928,930,933,933,935,935,938,938,940,943,943,943,943,0,0,0,0,0,1421,1421,1421,1421,1421,1421,1421,1421,1421,1421,1421,1421,1421,1421,1421,1421,1421,1421,1421,1421,1421,1421,1421,1421,1421,1421,1421,1421,1421,1421,1421,1415,1415,1415,1415,1415,1415,1415,1415,1415,1415,1415,1415,1415,1415,1415,1415,1415,1415,1415,1410,1410,1410,1410,1415,1415,1415,1415,1415,1415,1415,1415,1415,1415,1415,1415,1410,1410,1410,1410,1410,1410,1410,1410,1410,1410,1410,1404,1404,1410,1410,1410,1410,1410,1410,1410,1410,1404,1404,1398,1398,1398,1398,1398,1398,1398,1398,1398,1392,1392,1392,1392,1392,1387,1387,1381,1376,1376,1376,1370,1370,1365,1359,1359,1354,1354,1354,1349,1343,1338,1333,1333,1333,1328,1328,1322,1322,1317,1317,1312,1312,1307,1302,1297,1292,1292,1292,1292,1288,1288,1283,1278,1278,1268,1268,1264,1259,1255,1255,1255,1250,1250,1250,1245,1245,1241,1236,1236,1236,1232,1227,1223,1219,1219,1219,1219,1214,1214,1210,1210,1210,1206,1202,1202,1197,1197,1197,1189,1189,1185,1181,1181,1181,1181,1177,1169,1169,1165,1165,1165,1165,1161,1157,1157,1153,1153,1149,1149,1149,1145,1141,1138,1134,1134,1134,1130,1130,1130,1126,1123,1123,1123,1119,1119,1115,1115,1112,1105,1105,1101,1101,1097,1094,1094,1094,1090,1090,1090,1087,1087,1084,1080,1077,1077,1077,1073,1073,1067,1067,0,0,0,0,0,0,0,0,0,0,0,0,0,0,0,0,0,0,0,0,0,0,0,0,0,0,0,0,0,0,0,0,0
0,0,0,0,0,0,0,0,0,0,1458,1458,1458,1458,1458,1452,1452,1452,1458,1452,1452,1458,1458,1458,1458,1458,1458,1452,1452,1445,1445,1445,1458,1458,1458,1458,1458,1458,1458,1458,1458,1452,1452,1458,1458,1464,1458,1458,1458,1458,1458,1458,1452,1452,1452,1452,1452,1452,1452,1452,1452,1452,1452,1458,1458,1458,1458,1458,1452,1452,1452,1452,1452,1445,1445,1445,1445,1452,1452,1452,1452,1452,1458,1452,1445,1445,1433,1041,1038,1038,1038,1038,1038,1038,1038,1038,1041,1044,1044,1044,1047,1047,1047,1047,1047,1047,1047,1047,1047,0,0,684,684,684,683,683,683,684,684,684,686,687,687,687,688,690,690,691,691,693,693,694,694,696,697,697,697,698,698,701,703,706,708,708,710,710,711,713,714,714,714,716,716,716,717,719,720,722,722,722,723,725,727,727,727,727,728,728,728,728,728,731,733,734,734,736,736,738,739,741,741,742,742,742,744,744,744,744,746,746,746,1165,1165,1165,1165,1165,1165,1157,1157,1161,1173,1173,1177,1173,1173,1173,1173,1173,1173,1173,1173,1169,1169,1173,1173,1177,1177,1177,1177,1181,1181,1181,1185,1185,1185,1185,1185,1189,1189,1189,1189,1189,1193,1193,1193,1193,1193,1193,1197,1197,1197,1197,1197,1197,1197,1197,1202,1206,1206,1210,1210,1210,1214,1214,1214,1214,1214,1214,1219,1219,1223,1227,1227,1227,1227,1227,1232,1232,1232,1232,1236,1236,1241,1241,1241,1241,1241,1241,1241,1241,1241,1245,1245,1245,1245,1245,1245,1245,1245,1250,1245,1245,1415,1415,1415,1421,1421,1421,1427,1427,1427,1421,1421,1421,1421,1421,1421,1421,1421,1421,1421,1421,1427,1427,1421,1421,1427,1427,1427,1427,1427,1427,1427,1421,1421,1421,1421,1415,1410,1410,1404,1404,948,948,948,943,943,940,940,938,935,933,930,930,928,928,928,928,928,928,930,933,933,935,935,938,938,938,940,943,943,943,943,0,0,0,0,0,1421,1421,1415,1415,1421,1421,1415,1415,1415,1415,1415,1415,1421,1415,1415,1415,1415,1415,1415,1415,1415,1415,1415,1415,1415,1415,1415,1415,1415,1415,1415,1415,1415,1415,1415,1410,1410,1410,1410,1410,1410,1410,1410,1410,1410,1410,1410,1410,1410,1404,1404,1404,1404,1404,1404,1404,1404,1410,1410,1410,1410,1410,1410,1410,1410,1410,1404,1404,1404,1404,1404,1404,1404,1404,1404,1404,1404,1404,1404,1404,1404,1410,1410,1404,1404,1404,1404,1404,1398,1398,1398,1398,1398,1398,1398,1392,1392,1392,1392,1392,1392,1387,1387,1387,1381,1381,1376,1376,1376,1370,1370,1365,1359,1359,1354,1354,1354,1349,1343,1338,1333,1333,1333,1328,1328,1328,1322,1317,1317,1312,1312,1307,1302,1297,1292,1292,1292,1292,1288,1288,1283,1278,1278,1273,1268,1264,1264,1259,1255,1255,1255,1250,1250,1245,1245,1241,1236,1236,1232,1232,1227,1223,1219,1219,1219,1219,1214,1214,1214,1210,1210,1206,1202,1202,1197,1197,1197,1189,1189,1185,1181,1181,1181,1177,1177,1169,1169,1169,1165,1165,1165,1161,1161,1157,1153,1153,1149,1149,1149,1145,1145,1141,1138,1134,1134,1134,1134,1130,1126,1126,1123,1123,1119,1119,1119,1115,1112,1105,1105,1101,1101,1097,1094,1094,1094,1090,1090,1090,1087,1087,1084,1080,1077,1077,1077,1073,1073,1070,1070,0,0,0,0,0,0,0,0,0,0,0,0,0,0,0,0,0,0,0,0,0,0,0,0,0,0,0,0,0,0,0,0,0
0,0,0,0,0,0,0,0,0,1452,1452,1452,1452,1452,1452,1452,1452,1452,1452,1452,1452,1452,1452,1452,1452,1452,1452,1452,1445,1445,1445,1445,1439,1439,1433,1433,1445,1452,1452,1452,1445,1445,1445,1445,1452,1452,1452,1445,1445,1452,1452,1445,1445,1445,1445,1445,1445,1445,1445,1445,1445,1445,1445,1452,1452,1452,1452,1452,1452,1452,1445,1445,1445,1445,1445,1445,1445,1445,1445,1445,1445,1445,1452,1445,1439,1439,1433,1041,1038,1038,1041,1041,1041,1041,1041,1041,1041,1044,1044,1044,1047,1047,1047,1047,1047,1047,1050,1050,1050,1063,686,686,684,684,684,684,684,684,686,686,687,687,687,688,690,690,691,691,691,693,693,694,696,696,697,697,697,698,698,701,703,706,708,710,710,710,711,713,714,714,714,716,716,716,717,719,720,722,722,722,723,725,727,727,727,728,728,728,728,728,730,731,733,734,734,736,736,738,739,741,741,742,744,744,744,744,744,744,744,1165,1165,1165,1165,1165,1165,1165,1165,1165,1169,1169,1169,1173,1173,1173,1169,1169,1173,1173,1173,1173,1173,1173,1173,1173,1173,1173,1173,1173,1177,1177,1181,1181,1181,1185,1185,1185,1185,1189,1189,1189,1189,1189,1193,1193,1193,1193,1193,1193,1197,1197,1197,1197,1197,1197,1197,1202,1202,1206,1210,1210,1210,1210,1214,1214,1214,1214,1214,1214,1219,1219,1223,1227,1227,1227,1227,1227,1232,1232,1236,1236,1236,1236,1241,1241,1241,1241,1241,1245,1245,1245,1245,1245,1245,1245,1245,1245,1245,1245,1250,1250,1250,1250,1410,1410,1410,1410,1415,1415,1421,1421,1421,1415,1415,1415,1415,1415,1415,1415,1415,1415,1415,1421,1421,1421,1421,1421,1427,1427,1427,1427,1427,1427,1427,1421,1421,1421,1415,1410,1410,1404,1398,1398,948,948,948,946,943,943,940,938,938,935,933,930,928,928,928,928,928,930,933,935,935,935,935,938,940,940,943,943,943,943,943,0,0,0,0,1415,1415,1415,1415,1415,1415,1415,1415,1415,1415,1415,1415,1415,1415,1415,1415,1415,1415,1415,1415,1415,1410,1410,1410,1410,1404,1404,1404,1410,1410,1410,1410,1410,1410,1410,1410,1410,1410,1410,1404,1404,1404,1404,1404,1404,1404,1404,1404,1404,1404,1404,1404,1398,1398,1398,1398,1398,1404,1398,1398,1398,1398,1404,1404,1404,1404,1404,1398,1398,1398,1398,1398,1398,1398,1398,1398,1398,1404,1398,1398,1404,1404,1404,1404,1398,1398,1398,1404,1398,1398,1398,1398,1398,1392,1392,1392,1392,1392,1392,1387,1387,1392,1387,1387,1387,1381,1381,1376,1376,1376,1370,1370,1365,1359,1359,1354,1354,1354,1349,1343,1338,1333,1333,1333,1328,1328,1328,1322,1317,1312,1312,1312,1307,1302,1297,1292,1292,1292,1292,1288,1288,1283,1278,1278,1273,1268,1268,1264,1259,1259,1255,1255,1250,1250,1245,1245,1241,1236,1232,1232,1232,1227,1223,1223,1219,1219,1219,1219,1214,1214,1214,1210,1206,1206,1202,1197,1197,1197,1189,1189,1185,1181,1181,1181,1177,1177,1169,1169,1169,1165,1165,1165,1161,1161,1157,1153,1153,1153,1149,1149,1145,1145,1138,1138,1134,1134,1134,1134,1130,1126,1126,1123,1123,1123,1119,1119,1115,1112,1108,1105,1105,1101,1097,1097,1094,1094,1094,1090,1090,1087,1087,1084,1080,1077,1077,1077,1073,1073,1070,1070,0,0,0,0,0,0,0,0,0,0,0,0,0,0,0,0,0,0,0,0,0,0,0,0,0,0,0,0,0,0,0,0,0
