0,889,889,887,887,885,885,882,882,882,882,882,882,878,878,878,875,875,875,875,875,875,875,875,875,875,875,875,875,875,875,875,875,873,873,871,871,871,871,871,871,869,869,869,869,869,869,867,867,867,867,869,869,869,869,867,867,869,869,869,869,869,869,869,869,869,869,869,869,869,869,869,869,869,869,869,869,867,867,867,867,867,867,867,867,867,867,867,867,867,867,867,867,867,867,867,867,867,867,869,869,869,867,867,869,869,867,867,867,867,867,867,867,867,867,864,864,864,864,864,864,862,862,862,862,862,862,862,862,862,862,862,862,862,862,862,864,864,862,862,862,862,862,860,860,860,862,862,862,862,862,862,862,862,862,862,862,862,862,860,860,860,860,860,860,860,860,858,858,858,858,858,858,858,858,858,858,858,858,856,856,856,856,856,856,856,856,858,858,858,858,858,856,856,854,854,854,854,854,854,854,854,854,851,851,851,851,856,856,856,856,856,856,854,854,851,851,851,851,851,851,854,854,854,854,854,854,854,851,851,851,851,851,851,851,849,849,849,849,849,849,849,849,849,849,849,849,849,849,849,849,849,849,849,849,849,849,849,847,847,847,847,847,847,847,847,847,847,847,847,847,847,849,849,849,849,847,847,847,845,845,845,845,845,845,845,845,845,845,845,845,845,845,845,845,843,843,843,843,841,841,841,841,841,841,841,841,843,843,843,843,843,843,843,843,843,843,843,841,841,841,841,841,841,841,841,841,841,841,841,841,841,843,843,843,843,843,843,843,843,841,841,841,841,843,841,841,841,841,841,841,841,841,841,841,841,841,841,841,841,841,841,839,839,839,837,837,837,837,837,837,837,837,837,837,837,837,837,837,837,835,835,835,835,833,833,833,833,835,837,837,837,837,837,837,837,837,837,837,837,837,835,835,835,835,835,835,835,835,835,833,833,833,833,833,833,833,833,833,833,833,833,831,831,833,833,833,833,833,833,833,831,831,831,831,831,831,831,831,831,831,831,831,831,831,831,831,831,831,831,831,831,831,831,831,831,831,829,829,829,829,829,829,827,827,827,827,827,827,827,827,827,827,827,825,825,825,825,825,825,823,823,825,825,825,825,825,825,825,825,825,825,825,825,827,827,827,827,827,825,825,823,823,823,823,823,823,823,823,823,823,823,821,821,821,817,817,815,813,813,813,811,811,811,811,811,813,813,813,815,815,815,817,817,817,819,819,819,821,821,821,821,821,821,823,823,823,823,823,821,821,821,821,821,821,821,821,821,821,821,821,819,819,819,819,819,817,817,819,819,819,817,815,815,815,815,815,815,815,815,815,815,815,815,815,813,813,815,815,815,817,817,817,817,817,813,813,813,811,811,811,811,0,0,0,0,0,0,0,0,0,0,0,0,0,0,0,0,0,0,0,0,0,0,0,0,0,0,0,0,0,0,0,0,0,0,0,0,0,0
0,887,887,885,885,885,882,880,880,880,880,878,878,875,875,875,875,875,873,873,873,873,873,873,873,873,873,875,875,873,873,869,869,869,871,869,869,869,869,869,869,869,869,867,867,867,869,867,867,867,867,867,867,867,867,867,867,867,867,864,864,864,867,867,867,867,869,867,867,867,867,867,867,867,867,867,867,864,864,864,864,864,864,864,864,864,864,864,864,864,864,864,864,864,864,864,864,864,867,867,867,867,867,867,867,867,867,867,864,864,864,864,864,864,864,862,862,862,862,862,862,862,862,860,860,860,860,860,862,862,860,860,862,860,860,860,860,860,860,860,860,860,860,858,858,858,858,860,860,860,860,860,862,862,862,862,862,860,860,860,860,860,860,858,858,858,858,858,858,858,858,858,858,858,858,858,856,856,856,856,856,856,854,854,854,854,856,856,856,856,856,856,856,854,851,851,854,851,851,851,851,854,851,851,851,851,851,851,851,851,854,854,851,851,851,851,851,851,851,849,849,851,851,851,851,851,851,851,851,851,851,851,851,849,849,849,849,847,847,847,847,845,845,845,847,847,845,845,847,847,847,847,847,847,847,847,847,847,845,845,845,845,845,845,845,845,845,845,845,843,843,845,845,845,845,847,847,847,847,843,843,843,843,843,843,843,843,845,845,845,845,845,843,843,843,841,841,841,841,841,841,841,841,841,841,839,839,841,841,841,841,841,841,841,841,841,841,841,839,839,839,839,839,839,839,839,839,839,839,839,839,839,841,841,841,843,841,841,841,841,839,839,839,839,839,839,839,841,839,839,839,839,839,839,839,839,839,841,841,841,839,839,839,837,837,837,837,837,837,837,837,837,837,837,837,837,837,837,835,835,835,835,835,833,833,833,833,833,833,833,833,835,835,835,835,835,835,835,835,835,835,833,833,833,833,833,833,833,833,831,831,831,831,829,829,831,831,831,831,831,831,831,831,831,831,831,831,831,831,831,831,831,831,829,829,829,829,829,829,829,829,829,827,827,827,829,829,829,829,829,829,829,829,829,829,829,829,829,827,827,827,827,825,825,825,825,825,825,825,825,825,825,825,825,823,823,823,823,823,823,823,823,823,823,825,825,825,825,825,825,825,823,823,823,823,823,825,825,825,823,823,821,821,821,821,821,823,823,821,821,821,821,821,821,821,819,817,817,815,813,813,811,811,811,811,811,813,813,813,813,813,813,815,815,815,815,815,815,817,819,819,819,819,819,819,821,821,821,819,819,819,819,819,819,819,819,819,819,819,819,817,817,817,817,817,817,817,817,817,817,817,815,815,815,813,813,813,813,813,813,813,813,813,813,813,813,813,813,813,813,813,813,813,813,813,813,813,811,811,811,811,811,0,0,0,0,0,0,0,0,0,0,0,0,0,0,0,0,0,0,0,0,0,0,0,0,0,0,0,0,0,0,0,0,0,0,0,0,0,0
0,887,887,885,885,882,878,878,878,878,878,878,875,875,875,875,873,873,873,873,873,871,871,871,871,871,871,875,873,873,869,869,869,869,869,867,867,867,867,867,867,867,867,867,867,867,867,867,864,864,864,864,864,864,864,864,864,864,864,864,862,862,862,862,862,862,867,867,864,864,864,864,864,864,862,862,862,862,862,864,864,864,864,864,864,862,862,862,862,862,862,862,862,862,864,864,862,862,864,864,864,864,864,864,864,864,864,864,864,864,862,862,862,862,862,860,860,860,860,860,860,860,860,860,860,860,860,860,860,860,860,860,860,860,860,860,860,860,860,860,858,858,858,858,856,856,856,858,858,858,858,858,860,860,860,860,860,860,860,860,858,858,858,858,858,858,858,858,858,856,856,856,856,856,856,854,854,854,854,854,854,854,851,851,851,851,854,854,854,854,854,854,851,851,851,851,851,851,851,849,849,851,851,849,849,849,849,849,849,849,849,849,849,851,851,849,849,849,849,849,849,849,849,849,849,849,849,849,849,849,849,849,849,849,849,847,847,845,845,845,845,845,845,845,845,845,845,845,845,845,845,845,845,845,845,845,845,845,843,843,843,843,845,845,843,843,843,843,843,843,841,841,841,843,843,843,843,843,843,843,843,843,843,843,843,843,843,843,843,843,843,843,841,841,841,841,841,841,841,841,839,839,839,839,839,837,837,839,839,839,839,839,839,839,839,839,839,839,839,839,839,837,837,839,839,839,839,839,839,837,837,839,839,839,839,839,839,839,839,839,837,837,837,837,837,837,837,839,837,837,837,837,837,837,837,837,837,837,839,837,837,837,837,837,837,837,837,835,835,835,835,835,835,835,835,835,835,835,835,835,833,833,831,831,831,831,831,831,831,831,831,831,831,831,833,833,833,833,833,833,831,831,831,829,829,831,831,831,829,829,829,829,829,829,829,829,829,829,829,829,829,829,829,829,829,829,829,829,829,829,829,829,829,829,829,829,829,827,827,827,827,827,827,827,825,825,825,825,827,827,827,827,827,829,827,827,827,827,827,827,827,825,825,823,823,823,823,823,823,823,823,823,823,823,821,821,821,821,821,821,821,821,821,821,823,823,823,823,823,823,823,823,821,821,823,823,823,823,823,821,821,821,821,821,821,821,821,821,821,821,819,819,819,819,819,819,819,817,817,815,813,813,811,811,811,811,813,811,811,813,813,813,813,813,813,813,813,813,815,815,815,815,815,815,815,815,815,817,817,817,817,817,817,817,817,817,817,817,817,817,815,815,815,815,817,815,815,815,817,817,815,813,813,813,813,813,813,813,813,813,811,811,811,811,811,811,811,811,811,811,811,811,809,809,809,811,811,811,811,811,811,811,0,0,0,0,0,0,0,0,0,0,0,0,0,0,0,0,0,0,0,0,0,0,0,0,0,0,0,0,0,0,0,0,0,0,0,0,0,0
0,885,885,882,882,878,878,878,878,878,878,875,875,873,873,873,873,873,873,873,873,871,869,869,869,869,869,869,869,869,869,867,867,869,867,867,867,867,864,864,864,864,864,864,864,864,860,860,862,862,862,862,862,862,862,862,862,862,862,862,862,860,860,860,860,860,860,860,860,862,862,862,862,862,860,860,860,862,862,862,862,862,862,862,862,862,860,860,860,860,860,860,860,860,860,860,860,860,862,862,862,862,862,862,862,860,860,862,862,862,860,860,860,860,860,860,860,860,860,860,858,858,858,860,860,860,858,858,860,858,858,858,858,858,858,858,858,858,858,858,856,856,856,854,854,854,854,856,856,856,856,856,856,856,856,858,858,858,858,858,858,856,856,856,856,856,856,856,856,856,856,856,854,854,854,854,851,851,851,851,851,851,851,851,851,851,851,851,854,851,851,851,851,849,849,849,849,849,849,847,847,849,849,849,847,847,847,847,847,847,847,847,847,847,847,847,849,849,849,847,847,847,847,847,847,845,845,847,847,847,847,847,847,847,847,847,845,845,843,843,843,843,843,843,843,843,843,843,843,843,843,843,843,843,843,843,843,841,841,841,841,843,843,843,843,843,843,841,841,841,841,841,841,841,841,841,841,841,841,841,843,841,841,841,841,841,841,841,841,841,841,841,839,839,841,839,839,839,839,839,837,837,837,837,837,835,835,837,837,837,837,837,839,837,837,839,837,837,837,837,837,837,837,837,837,837,837,837,837,837,837,835,835,835,835,837,837,837,837,837,837,837,837,837,837,837,837,837,837,837,837,837,837,835,835,835,835,835,835,835,835,835,835,835,835,835,835,835,835,835,835,833,833,833,833,833,833,833,833,833,831,829,829,829,829,829,829,829,829,829,829,829,829,829,829,829,831,831,831,831,831,829,829,829,829,829,829,829,829,829,829,829,829,829,829,829,829,829,829,829,829,827,827,827,827,827,827,827,827,827,827,827,827,827,827,827,827,827,825,825,825,825,825,825,823,823,823,823,823,823,825,825,825,825,825,827,827,825,825,825,825,823,823,823,823,823,823,823,823,823,823,821,821,821,821,821,821,821,821,821,821,821,821,821,821,821,821,821,821,821,821,821,821,821,821,821,821,821,821,821,821,821,821,819,819,819,819,819,819,819,819,819,819,819,819,819,817,817,817,815,813,813,813,811,811,811,813,811,811,811,811,811,811,811,811,813,813,813,813,813,813,813,813,813,813,813,813,813,813,813,815,815,815,815,815,815,815,815,815,815,813,813,813,813,815,815,815,815,815,815,815,813,813,813,811,811,811,811,811,811,811,811,811,809,809,809,809,811,811,809,809,807,807,807,805,805,805,807,807,805,805,807,0,0,0,0,0,0,0,0,0,0,0,0,0,0,0,0,0,0,0,0,0,0,0,0,0,0,0,0,0,0,0,0,0,0,0,0,0,0
0,885,882,878,878,878,878,875,875,875,873,873,873,873,871,871,871,871,871,871,871,869,869,869,867,867,867,867,867,867,867,867,867,867,867,867,864,864,862,862,862,862,862,862,862,860,858,858,858,860,860,860,860,860,860,860,860,862,862,860,860,860,860,860,860,858,858,858,858,858,858,858,858,860,860,860,860,860,860,860,860,862,862,860,860,860,860,860,860,860,860,860,858,858,858,858,858,858,860,860,860,860,860,860,860,860,860,860,860,860,858,858,858,858,858,858,858,858,858,858,858,858,858,858,858,858,858,858,858,858,856,856,856,856,856,856,856,856,856,856,854,854,854,854,851,851,851,851,851,854,854,854,854,854,854,854,856,856,856,856,854,854,854,854,854,856,854,854,856,854,854,854,854,851,851,851,851,851,851,851,849,849,851,851,849,849,849,849,851,849,849,849,849,849,849,847,847,847,847,847,847,847,847,847,847,847,847,847,847,845,845,845,845,845,845,845,845,845,845,845,847,847,845,845,845,843,843,845,845,845,845,845,845,845,845,845,845,843,843,843,843,841,841,841,841,843,841,841,843,841,841,843,841,841,841,841,839,839,839,839,841,841,841,841,841,841,841,841,839,839,839,837,837,837,837,839,839,839,839,839,841,839,839,839,841,841,841,839,839,839,839,839,837,837,839,839,837,837,837,837,837,835,835,835,835,835,835,837,835,835,837,837,837,837,837,837,837,837,837,837,837,835,835,837,837,835,835,835,835,835,835,835,833,833,833,833,835,835,835,835,835,835,835,835,835,835,835,835,835,835,835,835,835,835,835,835,835,833,833,835,833,833,833,833,833,833,833,833,833,833,833,831,831,831,831,831,831,831,831,831,831,829,829,829,829,827,827,827,827,827,827,827,827,827,829,829,829,829,829,831,829,829,829,829,829,829,829,829,829,827,827,827,827,827,827,827,827,827,827,827,827,827,827,827,827,827,827,827,827,825,825,825,825,825,825,825,825,825,825,823,821,821,821,823,821,821,821,821,821,821,821,821,823,823,823,823,823,823,823,823,823,821,821,821,821,821,821,821,821,821,821,821,821,821,819,819,819,819,819,819,819,819,819,819,819,819,819,819,819,819,819,819,819,819,819,821,821,819,819,819,819,819,819,819,819,819,817,817,817,817,815,815,817,817,817,817,817,817,817,815,815,813,813,811,811,811,811,811,811,811,811,811,811,811,811,811,811,811,811,811,811,811,811,811,811,811,811,811,811,811,811,811,813,813,813,813,813,813,813,813,811,811,811,811,813,813,813,813,813,813,813,811,811,811,811,811,811,811,811,809,809,809,809,809,809,809,809,809,809,807,807,805,805,803,803,803,803,803,803,803,803,805,0,0,0,0,0,0,0,0,0,0,0,0,0,0,0,0,0,0,0,0,0,0,0,0,0,0,0,0,0,0,0,0,0,0,0,0,0,0
0,882,880,878,878,878,878,875,875,875,873,873,871,871,871,871,869,869,869,867,867,867,867,867,867,867,867,867,867,867,867,867,867,864,864,864,864,864,860,860,860,860,860,860,858,858,856,856,856,858,858,858,858,858,858,858,858,858,858,860,860,858,858,858,858,858,856,856,856,856,856,856,856,856,856,858,858,858,858,860,860,860,860,860,860,860,860,858,858,858,858,858,858,856,856,856,856,856,856,856,856,856,858,858,858,858,858,858,856,856,856,856,856,858,856,856,856,856,856,856,854,854,854,856,856,856,856,856,856,856,854,854,854,854,854,854,854,854,854,854,851,851,851,851,851,851,851,851,851,851,851,851,851,851,851,851,851,851,851,851,851,851,851,851,851,851,851,851,851,851,851,851,851,851,851,851,851,851,851,849,849,849,849,849,849,849,847,847,847,847,847,847,847,847,847,845,845,845,845,845,845,845,845,845,845,845,845,845,845,843,843,845,843,843,843,845,843,843,843,843,843,843,843,843,843,843,843,843,843,843,843,845,845,845,845,845,843,843,843,843,841,841,841,841,841,841,841,841,841,841,841,841,841,839,839,837,837,839,837,837,837,839,839,839,839,839,839,839,839,837,837,837,835,835,835,837,837,837,837,839,839,839,839,839,839,837,837,837,837,837,837,837,837,837,837,837,835,835,835,835,835,835,835,833,833,833,833,835,835,835,835,835,835,835,835,835,835,837,837,837,835,835,835,835,835,835,835,833,833,833,833,833,831,831,831,831,833,833,833,833,835,835,835,835,835,835,835,835,835,835,835,835,835,835,835,835,833,831,831,833,831,831,831,831,831,831,831,831,831,831,831,831,829,829,829,829,829,829,829,829,829,829,827,827,827,827,827,827,827,827,827,827,827,827,827,827,827,827,827,827,827,829,829,827,827,829,827,827,827,827,827,827,827,827,827,827,827,827,827,827,827,827,825,825,825,825,825,825,825,825,825,825,825,825,825,823,823,823,823,821,821,821,821,821,821,821,821,821,821,821,821,821,821,821,821,821,821,823,823,821,821,821,821,821,821,821,821,821,821,821,819,819,819,819,819,819,819,819,819,819,819,819,819,819,817,817,817,817,817,817,817,817,819,819,819,819,819,819,817,817,817,815,815,815,815,815,815,815,815,815,815,815,815,815,815,817,815,815,815,815,813,813,811,811,811,811,811,811,809,809,809,811,809,809,809,809,809,809,809,809,809,811,811,811,811,811,811,811,809,809,811,811,809,809,811,811,811,811,811,811,811,811,811,811,811,811,811,811,811,811,811,811,811,809,809,811,811,811,809,809,807,807,807,807,807,807,807,805,805,805,803,803,802,802,803,803,803,803,803,803,803,803,0,0,0,0,0,0,0,0,0,0,0,0,0,0,0,0,0,0,0,0,0,0,0,0,0,0,0,0,0,0,0,0,0,0,0,0,0,0
0,878,878,878,878,875,875,875,873,873,871,871,869,869,869,869,867,867,867,864,864,867,867,867,867,867,867,867,867,867,867,867,867,862,862,862,860,860,860,860,858,858,858,858,858,858,856,856,856,856,856,858,858,856,856,856,856,856,856,856,858,858,858,856,856,856,854,854,854,854,854,854,854,854,854,856,856,856,856,856,856,858,860,860,860,860,858,858,858,858,856,856,856,854,854,854,854,854,854,854,854,854,856,856,856,856,856,856,854,854,854,856,856,856,856,854,854,854,854,854,851,851,851,854,854,854,854,854,854,854,854,854,854,854,854,851,851,851,851,851,849,849,849,851,849,849,851,851,851,851,851,849,849,849,849,849,849,849,849,849,849,849,849,849,849,849,849,849,849,851,851,851,851,851,851,849,849,849,849,849,849,847,847,849,847,847,847,847,845,845,845,845,845,845,845,845,845,845,845,843,843,843,843,843,843,843,843,843,843,843,843,843,843,843,843,843,843,843,843,843,843,841,841,841,841,841,841,841,841,841,843,843,843,843,843,843,843,841,841,841,841,841,839,839,839,841,839,839,839,839,839,839,839,839,837,837,837,837,837,837,837,837,837,839,837,837,837,837,837,837,835,835,835,835,835,835,835,835,835,837,837,837,835,835,835,835,833,833,833,833,835,835,835,835,835,835,835,835,835,835,833,833,833,833,833,833,833,835,835,835,835,835,835,835,835,835,835,835,835,835,835,835,835,835,833,833,833,831,831,831,831,831,831,831,831,831,831,831,831,831,833,833,833,833,831,831,831,831,833,833,833,833,833,833,833,833,831,831,831,831,831,829,829,829,829,829,829,829,829,829,829,829,829,829,829,829,827,827,827,827,827,827,827,825,825,825,825,825,825,825,825,825,825,825,825,825,825,825,825,825,825,825,825,825,827,827,827,827,827,827,825,825,825,825,825,825,825,825,825,825,825,825,823,823,823,823,823,823,823,823,823,823,823,823,823,821,821,821,821,821,821,821,821,819,819,819,819,819,819,819,819,819,819,819,819,819,819,821,821,821,821,819,819,821,819,819,819,819,819,819,819,819,819,817,817,819,819,819,817,817,817,817,817,817,815,815,815,815,815,815,815,815,817,817,817,817,817,817,815,815,815,813,813,813,813,813,813,813,813,813,813,813,813,813,813,815,815,815,815,813,813,811,811,811,811,811,809,809,809,807,807,809,807,807,807,807,807,807,807,807,807,809,809,809,809,807,807,809,809,809,809,809,809,809,809,809,811,809,809,809,807,807,807,809,809,809,811,809,809,809,809,809,809,809,809,809,809,807,807,807,807,805,805,805,805,805,805,803,803,803,802,802,800,800,803,803,803,802,802,802,802,802,0,0,0,0,0,0,0,0,0,0,0,0,0,0,0,0,0,0,0,0,0,0,0,0,0,0,0,0,0,0,0,0,0,0,0,0,0,0
0,878,878,875,875,873,873,873,873,871,871,871,869,869,867,867,867,864,862,862,862,862,862,864,864,864,864,867,867,867,864,864,862,862,860,860,860,860,858,858,858,858,858,856,856,856,854,854,856,856,856,856,856,854,854,854,854,854,854,854,854,854,856,856,854,854,851,851,851,851,851,851,851,851,854,854,854,854,856,856,856,856,856,858,858,858,858,856,856,856,854,854,854,851,851,851,851,851,851,851,851,854,854,854,854,854,854,854,854,854,854,854,854,856,854,854,851,851,851,851,851,851,851,851,851,851,851,849,849,851,851,849,849,849,849,849,849,849,849,849,849,849,849,849,849,849,849,849,849,849,849,849,849,847,847,847,847,847,847,847,849,849,849,849,849,849,849,849,849,849,849,847,847,849,849,849,847,847,847,847,845,845,845,845,845,845,845,845,845,845,845,845,845,843,843,843,843,843,843,843,843,843,843,843,843,843,843,843,841,841,841,841,841,841,841,841,841,841,841,841,841,841,841,841,839,839,839,839,839,841,841,841,841,841,841,841,841,841,841,841,841,839,839,839,839,839,837,837,837,837,837,837,837,837,837,835,835,837,835,835,835,835,835,835,835,835,835,835,835,835,835,835,835,835,835,833,833,835,835,835,835,835,833,833,833,831,831,831,831,831,831,833,833,835,835,835,833,833,833,833,833,833,833,831,831,833,833,833,833,833,833,833,833,833,833,833,833,833,833,833,833,833,833,833,833,831,831,831,831,831,829,829,829,829,829,829,829,829,829,829,829,829,831,829,829,829,829,829,829,831,831,831,831,831,831,831,829,829,829,829,829,829,829,829,829,827,827,827,827,827,827,829,829,827,827,827,827,827,825,825,825,825,825,823,823,823,823,823,823,823,823,823,823,823,823,823,823,823,823,823,823,823,823,825,825,825,825,825,825,825,825,825,825,823,823,823,823,823,823,823,823,821,821,821,823,823,823,823,821,821,821,821,821,821,821,821,821,821,821,821,821,821,821,819,819,819,819,817,817,819,817,817,817,817,817,817,815,815,815,819,819,819,819,819,819,819,819,819,817,817,817,817,817,817,817,817,817,817,817,817,815,815,815,813,813,813,813,813,813,813,813,813,815,815,815,815,815,815,813,813,813,811,811,811,811,811,811,811,811,811,811,811,811,811,811,813,813,813,813,813,811,811,811,809,809,809,809,809,807,807,807,807,805,805,805,805,805,807,805,805,807,807,807,807,807,807,807,807,807,807,807,807,807,807,809,807,807,807,807,807,805,805,805,807,807,807,809,809,809,809,807,807,807,807,807,807,807,807,805,805,805,805,805,805,805,805,803,803,802,800,800,800,800,800,800,800,800,798,798,800,800,800,0,0,0,0,0,0,0,0,0,0,0,0,0,0,0,0,0,0,0,0,0,0,0,0,0,0,0,0,0,0,0,0,0,0,0,0,0,0
0,875,875,875,873,871,871,869,869,869,869,869,869,869,867,864,864,862,860,860,860,860,860,860,860,862,862,864,864,864,862,862,860,860,860,858,856,856,856,856,856,856,856,854,854,854,854,854,854,854,854,854,854,854,854,854,854,851,851,854,854,854,854,854,854,851,851,851,851,851,851,851,851,851,851,851,851,851,851,854,854,854,854,856,856,856,854,854,854,854,851,851,851,851,851,851,851,851,851,851,851,854,851,851,851,851,851,851,851,851,851,851,851,854,851,851,851,851,851,849,849,849,849,849,849,849,849,849,849,849,849,849,849,849,849,847,847,847,847,849,847,847,847,847,849,849,849,849,849,849,849,847,847,847,847,847,845,845,845,845,845,845,845,845,847,847,847,847,847,847,847,845,845,847,847,847,847,845,845,845,845,843,843,843,843,843,843,843,843,843,843,841,841,841,841,841,841,841,841,841,841,841,841,841,841,841,841,841,841,841,841,841,841,841,841,839,839,839,841,839,839,839,839,839,837,837,837,839,839,839,837,837,839,839,837,837,837,837,837,837,837,837,837,837,837,837,837,837,837,837,837,837,837,837,835,835,835,835,835,835,833,833,835,835,835,835,835,835,835,835,835,835,833,833,833,833,833,833,833,833,833,833,831,831,829,829,829,829,829,829,829,829,831,831,831,833,833,833,833,833,833,833,831,831,831,831,831,833,833,833,831,831,831,831,833,831,831,831,831,833,833,831,831,831,831,831,829,829,829,829,829,829,829,829,829,829,829,829,829,829,829,829,829,829,829,829,829,829,829,829,829,829,827,827,829,829,827,827,827,829,829,827,827,827,827,825,825,825,825,825,825,825,827,825,825,825,825,825,823,823,823,823,823,823,821,821,821,821,823,823,821,821,821,823,821,821,821,821,821,821,821,821,823,823,823,825,823,823,823,825,823,823,821,821,821,821,821,821,821,821,821,821,821,821,821,821,821,821,819,819,819,819,819,819,819,819,819,819,819,819,819,819,819,819,817,817,817,817,817,817,815,815,815,815,815,815,813,813,813,813,815,815,817,817,817,817,817,817,815,815,815,815,815,815,813,813,815,815,813,813,813,813,813,811,811,811,811,811,811,813,813,813,813,813,813,813,813,811,811,811,811,811,811,811,811,811,809,809,809,809,809,809,809,809,809,811,811,811,811,811,811,809,809,809,809,809,807,807,807,807,805,805,805,805,805,805,805,805,805,805,805,805,805,805,805,803,803,805,805,805,805,805,805,805,805,805,803,803,803,803,803,803,803,805,805,805,805,805,807,805,805,803,803,805,805,805,805,805,805,805,805,805,803,803,803,803,803,802,800,800,798,798,798,798,798,798,798,798,798,800,798,798,0,0,0,0,0,0,0,0,0,0,0,0,0,0,0,0,0,0,0,0,0,0,0,0,0,0,0,0,0,0,0,0,0,0,0,0,0,0
0,871,871,871,869,869,869,867,867,867,867,867,867,867,862,862,862,860,860,858,858,858,858,860,860,860,862,862,862,862,862,862,860,858,856,854,851,851,851,851,851,851,851,851,851,851,851,851,851,851,851,851,851,851,851,851,851,851,851,851,851,851,851,854,851,851,851,851,851,851,851,849,849,849,849,849,849,851,851,851,851,851,851,854,854,854,851,851,851,851,851,851,851,849,849,849,849,849,849,849,851,851,851,851,851,849,849,849,849,849,849,851,851,851,851,851,851,849,849,849,849,847,847,847,847,847,847,845,845,847,847,847,847,849,847,845,845,845,845,845,845,845,845,845,847,847,847,845,845,847,847,845,845,845,845,845,845,845,843,843,843,843,843,843,843,843,843,845,845,845,845,843,843,845,845,845,845,843,843,843,843,843,843,843,843,843,843,841,841,841,841,841,841,841,839,839,841,841,841,841,841,841,839,839,839,837,837,839,839,839,839,839,839,839,839,839,839,839,839,839,837,837,837,837,835,835,835,837,837,835,835,835,835,835,833,833,835,835,835,835,835,835,835,835,835,835,835,835,835,835,835,835,835,835,835,835,835,835,833,833,833,833,833,833,833,833,833,833,833,833,833,833,833,833,833,831,831,831,831,831,831,829,829,829,827,827,827,827,827,827,827,827,827,829,829,829,829,829,829,829,831,831,829,829,829,829,829,829,829,829,829,829,829,829,831,829,829,829,829,829,831,829,829,829,829,829,829,827,827,827,827,827,827,827,827,827,827,827,827,827,827,827,827,827,827,827,827,827,827,827,827,827,827,827,827,827,827,827,827,827,827,827,827,825,825,825,825,823,823,823,823,823,825,823,823,821,821,821,821,821,821,821,821,821,821,821,821,821,821,821,821,821,821,821,821,821,821,821,821,821,821,821,821,821,821,821,821,821,821,821,821,821,819,819,819,819,819,819,819,819,819,819,819,819,819,819,819,819,819,817,817,817,817,817,817,817,819,819,819,819,817,817,819,817,817,817,815,815,815,815,815,813,813,813,813,813,813,813,813,813,813,813,811,811,815,815,815,815,815,815,813,813,813,813,811,811,811,813,811,811,811,811,811,811,811,809,809,811,811,811,811,811,811,811,811,811,809,809,809,807,807,807,807,809,809,809,809,809,809,809,807,807,807,807,807,809,809,809,809,809,809,809,807,807,807,807,807,807,807,805,805,805,803,803,803,803,803,805,805,805,805,805,805,805,803,803,803,803,803,803,803,803,803,803,803,802,802,802,802,802,802,802,803,803,803,803,803,803,803,802,802,800,800,803,803,805,805,805,805,805,803,803,803,803,803,802,802,800,800,798,798,798,798,798,798,798,798,798,798,798,798,798,0,0,0,0,0,0,0,0,0,0,0,0,0,0,0,0,0,0,0,0,0,0,0,0,0,0,0,0,0,0,0,0,0,0,0,0,0,0
0,871,871,869,867,867,864,864,864,864,867,864,864,860,860,860,860,860,858,858,858,858,858,858,858,858,860,860,860,860,860,860,858,854,851,851,851,851,851,851,851,851,851,849,849,849,849,849,849,849,849,851,851,851,851,851,851,849,849,851,851,851,851,851,851,851,851,851,849,849,849,849,849,849,849,849,849,849,849,849,849,849,849,849,849,851,851,849,849,849,849,849,849,847,847,847,849,849,849,849,849,849,849,849,849,849,847,847,847,847,849,849,849,849,849,849,849,849,849,849,849,847,847,845,845,845,845,845,845,845,845,845,845,845,845,845,845,843,843,845,843,843,843,843,845,843,843,843,843,843,843,843,843,843,843,843,843,843,843,843,843,843,843,843,841,841,841,841,841,841,843,843,843,843,843,843,843,841,841,841,841,841,841,841,841,841,841,839,839,841,841,839,839,839,839,839,841,841,841,839,839,839,837,837,837,835,835,835,835,835,837,837,837,837,837,837,837,837,837,837,835,835,835,835,835,835,835,835,835,835,835,833,833,833,833,831,831,831,833,833,833,835,835,833,833,835,835,833,833,833,833,835,833,833,833,833,833,833,833,833,831,831,831,831,831,831,831,831,831,833,833,833,831,831,831,829,829,829,829,829,829,827,827,827,827,827,827,827,827,827,827,827,827,825,825,827,827,827,825,825,827,829,827,827,827,827,829,827,827,827,827,827,827,827,829,829,827,827,829,829,829,829,829,829,827,827,827,827,827,827,827,827,827,827,827,825,825,825,825,825,825,825,825,825,825,825,825,825,825,825,825,825,825,825,825,825,825,825,823,823,825,825,825,823,823,821,821,821,821,821,821,821,821,821,821,819,819,819,819,819,819,819,819,821,821,821,821,821,821,821,819,819,819,819,819,819,821,821,821,819,819,819,819,819,819,819,819,819,821,821,819,817,815,815,817,817,817,817,817,817,817,819,817,817,817,817,815,815,817,817,817,817,817,817,817,817,817,817,817,817,815,815,815,815,815,815,813,813,813,813,813,813,811,811,813,813,811,811,811,811,811,811,811,811,811,811,811,813,813,813,813,811,811,811,811,811,811,811,811,811,809,809,811,809,809,809,809,809,809,809,809,809,809,809,809,809,807,807,807,805,805,807,807,807,807,807,807,805,805,805,805,805,805,805,805,805,807,807,807,807,807,807,807,807,807,807,805,805,805,805,805,803,803,803,803,803,803,803,803,803,805,805,803,803,803,802,802,802,802,802,802,802,802,800,800,800,800,800,800,800,802,802,802,802,803,803,802,802,802,800,800,798,798,800,802,803,803,803,805,803,803,803,803,802,802,800,800,798,798,798,798,798,798,798,798,798,796,796,798,796,796,798,0,0,0,0,0,0,0,0,0,0,0,0,0,0,0,0,0,0,0,0,0,0,0,0,0,0,0,0,0,0,0,0,0,0,0,0,0,0
0,869,869,867,864,864,864,862,862,862,862,860,860,858,858,858,858,858,858,858,858,856,856,856,854,854,856,856,856,856,856,856,856,851,851,849,849,849,849,849,849,849,849,849,849,849,849,849,849,849,849,849,849,849,849,849,849,849,849,849,849,849,849,849,849,849,849,849,849,849,847,847,847,847,847,847,847,847,847,847,847,847,847,847,847,849,849,849,849,849,849,849,847,847,845,845,845,845,845,847,849,847,847,847,847,847,847,847,847,847,847,847,847,847,847,847,849,849,847,847,847,847,845,845,845,845,843,843,843,843,843,843,843,843,845,843,843,843,843,843,843,843,843,843,843,843,841,841,843,843,843,843,843,843,843,843,843,843,841,841,843,841,841,841,841,841,841,839,839,839,839,839,837,837,839,839,839,839,839,839,841,841,839,839,839,839,839,837,837,839,839,839,837,837,837,837,839,839,839,837,837,837,835,835,835,835,835,835,835,835,835,835,835,835,835,835,835,835,835,835,835,833,833,833,833,833,833,833,833,833,833,833,833,833,831,831,831,831,831,831,831,833,833,833,833,833,833,833,831,831,831,833,831,831,833,833,833,833,831,831,829,829,829,829,829,829,829,829,831,831,831,831,829,829,829,827,827,827,827,827,827,827,827,827,825,825,825,825,825,825,825,825,825,825,825,825,825,825,823,823,825,825,825,825,825,825,827,827,827,827,827,827,827,827,827,827,827,827,827,827,827,827,827,827,827,827,827,827,827,827,827,827,825,825,825,825,823,823,823,823,823,823,823,823,823,823,823,823,823,823,823,823,823,823,823,823,823,823,823,823,821,821,823,821,821,821,821,819,819,819,819,819,817,817,819,819,819,819,819,819,819,819,819,819,819,819,819,819,819,819,819,819,819,819,819,819,819,819,819,817,815,815,817,817,817,819,819,819,819,819,817,817,815,815,815,815,815,815,815,815,815,815,815,815,813,813,813,813,813,815,815,815,815,815,815,815,815,815,815,815,813,813,813,813,813,813,813,813,813,813,813,811,811,811,811,811,811,811,811,811,811,811,809,809,809,809,809,809,811,811,811,811,811,809,809,809,809,809,809,809,809,809,809,809,809,809,809,809,807,807,807,807,807,807,807,807,805,805,805,805,805,805,805,805,805,805,805,805,805,805,805,805,805,803,803,803,803,803,805,805,805,805,805,805,805,805,805,805,805,805,803,803,803,803,803,803,803,803,803,803,803,803,803,802,802,802,802,800,800,800,800,800,798,798,798,798,798,798,798,798,798,800,800,800,800,800,800,800,800,798,798,798,798,800,800,800,800,802,803,803,803,803,802,802,802,800,798,798,798,798,796,796,796,796,796,796,796,796,796,796,796,0,0,0,0,0,0,0,0,0,0,0,0,0,0,0,0,0,0,0,0,0,0,0,0,0,0,0,0,0,0,0,0,0,0,0,0,0,0,0
0,869,864,864,864,862,862,860,860,858,858,858,858,858,858,858,856,856,858,858,856,856,856,856,851,851,854,854,854,851,851,854,854,849,849,847,847,849,849,849,849,849,849,849,847,847,847,847,849,847,847,849,849,849,849,849,849,849,847,847,849,849,849,849,849,849,849,849,847,847,847,847,845,845,845,845,845,845,845,845,845,845,845,845,845,847,847,847,847,847,847,847,845,845,843,843,843,843,843,843,845,843,843,847,845,845,845,845,845,845,845,843,843,845,845,845,847,847,845,845,845,845,845,845,843,843,843,843,843,843,843,843,843,843,843,843,843,843,843,843,843,843,841,841,841,841,841,841,841,841,841,841,841,841,841,841,841,841,839,839,841,841,841,841,841,841,839,837,837,837,837,837,835,835,835,835,835,837,837,837,837,839,839,839,837,837,837,837,837,837,837,837,837,837,835,835,837,835,835,835,835,835,835,835,835,835,833,833,833,833,833,833,833,833,833,833,833,833,833,833,833,833,831,831,831,831,831,833,833,833,831,831,831,831,829,829,829,831,831,829,829,829,829,829,829,831,831,831,829,829,829,829,829,831,831,831,831,831,829,829,827,827,827,827,827,827,827,827,827,829,829,827,827,827,827,825,825,825,825,825,825,825,825,825,825,825,825,825,823,823,823,823,823,823,823,823,823,823,821,821,821,821,821,821,821,821,825,825,825,823,823,825,825,823,823,823,825,825,825,825,825,825,827,827,827,827,827,827,827,827,825,825,825,823,823,823,823,821,821,821,821,821,821,821,821,821,821,821,821,821,821,821,821,821,821,821,821,821,821,821,821,821,821,821,821,819,819,819,819,817,817,815,815,815,815,815,815,815,815,817,817,817,817,817,817,819,819,819,819,819,817,817,817,817,817,819,817,817,817,817,815,815,815,815,815,817,817,817,819,817,817,815,813,813,813,813,813,813,813,813,813,813,813,813,813,811,811,811,811,813,813,813,813,813,813,813,813,813,813,813,811,811,811,813,813,813,811,811,811,811,811,811,811,811,811,811,809,809,809,809,809,809,807,807,807,807,809,809,809,809,809,809,809,809,807,807,807,807,807,807,807,807,807,807,807,807,807,807,807,807,807,805,805,805,805,805,805,805,805,805,805,805,805,805,803,803,803,803,803,803,803,803,803,803,803,802,802,802,802,802,803,803,803,803,805,805,805,805,803,803,803,803,803,803,802,802,802,802,802,802,802,802,800,800,800,800,800,800,800,798,798,798,796,796,796,796,796,796,796,796,796,798,798,798,798,798,796,796,798,798,798,798,798,798,798,798,798,798,802,802,802,802,802,800,800,798,798,798,798,796,796,796,796,796,794,794,792,792,792,792,792,0,0,0,0,0,0,0,0,0,0,0,0,0,0,0,0,0,0,0,0,0,0,0,0,0,0,0,0,0,0,0,0,0,0,0,0,0,0,0
0,864,862,862,862,860,860,858,858,858,858,856,856,856,856,851,851,854,854,851,851,851,851,851,851,851,851,851,851,849,849,849,849,847,847,845,845,845,845,845,847,847,847,845,845,845,847,847,847,847,847,847,847,847,847,845,845,845,845,845,847,847,847,847,847,847,847,847,845,845,845,845,845,843,843,843,845,845,845,845,845,845,843,843,843,843,843,843,845,845,845,845,843,843,843,843,843,841,841,843,843,843,843,843,843,843,843,843,843,843,843,843,843,843,843,843,843,845,845,845,845,845,843,843,843,843,843,843,843,843,841,841,841,841,841,841,841,841,841,841,841,841,841,841,841,841,839,839,839,839,839,839,839,839,839,839,839,837,837,837,839,839,839,839,839,839,837,835,835,835,835,835,835,835,835,835,835,835,835,835,835,837,837,837,837,837,835,835,835,835,837,837,837,835,835,835,835,835,835,835,835,835,835,833,833,833,833,833,831,831,831,831,831,831,831,831,831,833,831,831,831,831,831,829,829,829,829,829,831,831,829,829,829,829,829,829,829,829,829,829,827,827,827,827,827,827,827,827,827,827,827,827,827,829,829,829,829,829,827,827,827,825,825,825,825,825,825,825,827,827,827,825,825,825,825,825,823,823,825,825,825,825,825,825,825,825,823,823,823,823,821,821,821,821,821,821,821,821,819,819,819,821,819,819,819,819,823,821,821,821,821,823,823,823,821,821,821,823,823,823,823,823,825,825,825,825,825,825,825,825,825,823,823,821,821,821,821,821,821,821,821,821,821,819,819,819,819,819,819,819,819,819,821,821,821,821,821,821,821,821,819,819,819,819,819,817,817,817,817,815,815,815,815,815,815,815,815,815,815,815,815,815,815,817,817,817,817,817,817,817,815,815,815,815,815,815,813,813,815,813,813,813,813,813,813,815,815,815,815,815,815,813,813,813,813,811,811,813,813,811,811,811,811,811,811,811,811,811,811,811,811,813,813,813,813,813,813,811,811,811,811,811,811,811,811,811,811,809,809,811,809,809,809,809,809,809,809,809,807,807,807,807,807,805,805,805,807,807,807,807,807,807,807,807,807,805,805,805,805,805,805,805,805,807,807,807,805,805,805,805,805,805,803,803,803,803,805,805,805,803,803,803,803,803,803,803,803,803,803,803,802,802,802,802,802,802,800,800,802,802,802,802,802,803,803,803,803,803,803,803,803,803,802,802,800,800,800,800,800,800,800,800,800,800,798,798,800,798,798,798,798,796,796,796,794,794,794,794,794,794,794,796,796,796,796,796,796,796,794,794,796,796,796,796,796,796,796,796,790,790,790,796,796,798,798,798,798,796,796,796,796,794,794,794,792,790,790,790,790,790,790,0,0,0,0,0,0,0,0,0,0,0,0,0,0,0,0,0,0,0,0,0,0,0,0,0,0,0,0,0,0,0,0,0,0,0,0,0,0,0
862,862,862,862,860,860,860,858,858,858,854,854,854,854,854,851,851,851,851,849,849,849,847,847,849,849,851,851,849,843,843,843,845,845,843,843,843,843,843,843,845,845,845,843,843,845,845,845,845,845,845,845,845,845,845,845,845,845,845,845,845,845,845,845,845,845,845,843,843,843,843,843,843,843,843,843,843,843,843,845,843,843,843,843,841,841,841,841,841,841,843,843,843,843,841,841,841,841,841,841,841,841,841,841,841,841,843,843,843,843,843,843,841,841,843,843,843,843,843,843,843,843,843,843,843,843,841,841,841,841,841,839,839,839,839,839,839,839,839,839,839,839,841,839,839,839,839,839,839,839,839,839,839,837,837,837,837,835,835,835,835,837,837,837,835,835,835,835,835,835,835,833,833,833,833,833,833,833,833,833,833,833,833,835,835,835,835,835,835,835,835,835,835,835,833,833,833,833,833,833,833,833,833,833,833,833,831,831,831,829,829,829,829,829,829,829,829,831,829,829,829,829,829,827,827,827,827,827,827,827,827,827,827,827,827,827,827,827,827,827,827,827,827,827,827,827,827,827,825,825,827,827,827,827,827,827,827,827,825,825,825,825,823,823,825,825,825,825,825,825,825,823,823,823,823,823,823,823,823,823,823,823,823,823,823,823,823,823,821,821,821,821,821,819,819,819,819,819,819,819,819,819,819,819,819,819,821,821,819,819,819,821,821,821,821,821,821,821,821,821,821,821,821,821,823,823,823,823,823,823,823,821,821,819,819,819,819,819,819,819,819,819,819,819,819,817,817,819,819,819,817,817,819,819,819,819,819,819,819,819,819,819,817,817,817,815,815,815,815,815,815,815,815,813,813,813,813,813,813,813,813,813,813,815,815,815,815,815,815,815,813,813,813,813,813,813,811,811,813,813,811,811,811,813,813,813,813,813,813,813,813,811,811,811,811,811,811,811,811,811,809,809,809,809,811,811,809,809,811,811,811,811,811,811,811,811,811,811,809,809,809,809,809,809,809,809,809,809,809,809,809,807,807,807,807,807,807,805,805,805,805,807,805,805,805,805,805,805,805,805,805,805,805,805,805,805,805,805,805,805,805,805,805,805,805,805,805,805,805,803,803,803,803,803,803,803,803,803,803,803,803,803,803,803,802,802,802,802,802,802,802,802,802,800,800,800,800,800,800,800,800,800,800,800,800,802,802,803,802,802,802,802,802,800,800,800,800,800,800,798,798,798,798,798,798,798,798,798,796,796,796,796,796,794,794,794,794,794,794,792,792,794,792,792,792,792,792,794,792,792,792,794,794,792,792,792,792,790,790,790,789,789,790,790,792,792,796,796,794,794,794,792,792,792,790,790,790,790,790,790,790,0,0,0,0,0,0,0,0,0,0,0,0,0,0,0,0,0,0,0,0,0,0,0,0,0,0,0,0,0,0,0,0,0,0,0,0,0,0,0
862,862,860,860,860,860,858,858,858,858,851,851,851,851,851,851,849,849,851,849,849,849,847,847,849,849,849,849,843,843,843,843,843,843,843,843,843,843,843,843,843,843,845,843,843,845,845,845,843,843,843,843,841,841,843,843,843,843,843,843,843,843,843,843,843,843,843,843,841,841,841,841,841,841,841,841,841,843,843,843,843,843,841,841,839,839,839,839,839,839,841,841,841,841,841,841,841,841,839,839,841,841,839,839,841,841,841,841,841,841,841,841,841,841,841,841,841,841,841,841,841,841,841,841,841,841,841,841,841,839,839,837,837,837,837,837,837,837,837,837,837,837,837,837,835,835,837,837,837,837,837,837,837,837,835,835,835,835,833,833,833,835,835,835,833,833,833,833,833,833,833,833,833,833,833,831,831,833,831,831,831,831,831,831,833,833,833,835,835,835,835,835,835,833,833,833,833,831,831,831,831,831,833,831,831,831,831,829,829,829,827,827,827,827,827,827,827,827,827,827,827,827,827,827,827,825,825,825,825,825,825,825,825,825,825,825,825,827,827,827,827,827,825,825,825,825,825,825,825,825,825,825,825,825,825,825,825,825,825,825,823,823,823,823,823,823,823,823,823,823,823,821,821,821,821,821,821,821,821,821,821,821,821,821,821,821,821,821,821,819,819,819,819,819,819,819,819,819,817,817,819,819,819,819,819,819,821,819,819,819,819,819,819,819,819,819,819,819,819,819,819,819,819,819,821,821,821,821,819,819,819,819,819,817,817,817,817,817,817,817,817,817,817,817,817,815,815,817,817,817,817,817,817,817,817,817,817,817,817,817,817,817,817,815,815,815,815,815,813,813,813,813,813,813,813,813,813,813,813,813,813,811,811,813,813,813,813,813,813,813,813,813,813,811,811,811,811,811,811,811,811,811,811,811,811,811,811,809,809,809,809,809,809,809,809,809,809,809,809,807,807,807,807,807,807,807,809,809,809,809,809,809,809,809,809,809,809,809,807,807,807,807,807,807,805,805,807,807,807,807,805,805,805,805,805,805,805,805,805,805,805,805,805,803,803,803,803,803,803,803,803,803,803,805,803,803,803,803,803,803,803,803,805,805,805,803,803,803,802,802,802,802,802,802,802,802,802,802,803,802,802,802,802,802,802,800,800,802,802,800,800,800,800,800,798,798,798,798,798,798,798,798,798,798,798,798,798,802,802,802,800,800,802,800,798,798,798,800,800,798,798,798,798,798,798,798,796,796,796,796,794,794,794,794,794,792,792,792,792,790,790,792,792,792,792,792,792,792,792,790,790,790,790,792,792,790,790,789,787,787,787,787,787,787,789,789,794,792,792,790,790,790,790,790,790,789,789,789,789,789,789,0,0,0,0,0,0,0,0,0,0,0,0,0,0,0,0,0,0,0,0,0,0,0,0,0,0,0,0,0,0,0,0,0,0,0,0,0,0,0
860,860,860,860,860,858,858,858,856,856,851,851,851,849,849,849,849,849,849,847,847,843,843,843,847,847,847,843,843,843,843,843,841,841,841,841,841,841,841,841,843,843,845,845,843,843,843,843,843,841,841,841,841,841,841,841,841,841,841,841,841,841,841,841,841,839,839,839,839,839,837,837,839,839,839,839,839,841,841,839,839,839,839,839,837,837,837,837,837,837,837,839,839,839,839,839,839,839,839,839,839,839,837,837,837,837,839,839,839,839,839,839,837,837,837,837,837,837,837,837,837,839,839,839,839,839,839,839,839,837,837,837,837,837,837,837,837,837,835,835,835,835,835,835,833,833,835,835,835,837,835,835,835,835,835,833,833,833,831,831,831,831,833,833,833,833,833,833,831,831,831,831,831,831,831,831,831,831,831,829,829,829,829,829,831,831,831,831,831,831,833,833,833,831,829,829,829,829,829,829,829,829,829,829,829,829,829,827,827,827,827,827,827,827,825,825,825,825,827,825,825,825,825,825,825,825,823,823,823,823,823,823,823,823,825,825,825,825,825,825,825,825,825,825,825,825,825,825,823,823,823,823,823,821,821,823,823,823,823,823,821,821,821,821,821,821,821,821,821,821,821,819,819,819,819,819,819,819,819,819,819,819,819,819,819,819,819,819,819,819,817,817,819,819,819,819,817,817,817,817,817,817,817,817,817,817,819,819,819,819,819,817,817,817,817,815,815,817,819,819,819,817,817,819,819,819,817,817,815,815,817,817,817,815,815,815,815,815,815,815,815,815,815,815,815,815,815,815,817,815,815,815,815,815,815,815,815,815,815,815,815,815,815,815,813,813,813,813,813,811,811,811,811,811,813,813,813,811,811,811,811,811,811,811,811,813,813,813,813,813,813,811,811,811,809,809,809,809,809,809,811,811,811,811,811,811,807,807,807,807,807,807,807,807,807,807,807,809,807,807,805,805,805,805,805,805,805,805,807,807,805,805,805,805,805,805,807,807,807,807,807,807,807,805,805,805,805,805,805,805,805,805,803,803,803,803,803,803,803,803,803,803,803,802,802,802,802,802,802,802,802,802,803,803,802,802,802,802,803,803,803,803,803,803,802,802,800,800,800,800,800,800,800,800,800,800,800,800,800,800,800,800,800,800,800,800,800,800,800,798,798,798,798,798,798,796,796,796,796,796,796,798,798,798,798,798,798,798,798,798,798,798,798,798,798,798,798,798,798,798,798,798,798,798,798,796,796,796,796,794,794,794,794,792,792,790,790,790,790,790,790,790,790,790,790,790,790,790,790,789,789,789,789,789,789,789,789,787,785,785,785,785,785,785,785,785,785,787,787,789,789,789,789,789,789,789,789,789,789,787,787,0,0,0,0,0,0,0,0,0,0,0,0,0,0,0,0,0,0,0,0,0,0,0,0,0,0,0,0,0,0,0,0,0,0,0,0,0,0,0
860,860,858,858,858,858,858,851,851,851,849,849,849,849,849,845,845,843,843,843,843,843,843,843,843,847,843,843,841,841,841,841,841,841,841,841,841,841,841,841,841,843,843,845,841,841,841,841,841,841,841,841,841,841,839,839,839,839,839,841,839,839,839,839,837,837,835,835,837,837,837,837,837,837,837,837,837,837,837,837,837,837,837,837,837,835,835,837,837,837,837,837,837,837,837,837,837,837,837,837,837,837,837,837,835,835,835,835,835,835,837,837,835,835,835,835,835,835,835,835,835,837,837,837,837,837,837,837,837,835,835,835,835,835,835,835,835,835,835,835,835,833,833,833,831,831,833,833,833,833,833,835,833,833,833,831,831,831,829,829,829,829,829,829,829,831,831,831,829,829,829,829,829,829,829,829,829,829,829,829,827,827,827,827,827,827,829,829,829,827,827,827,827,827,829,827,827,827,827,827,827,827,827,827,827,827,827,825,825,827,825,825,825,825,825,825,825,825,825,825,825,825,825,823,823,823,821,821,821,821,821,821,821,821,823,823,823,823,823,823,823,823,823,821,821,821,823,823,823,823,821,821,821,821,821,819,819,819,819,819,821,821,821,821,821,819,819,819,819,819,819,817,817,817,817,819,817,817,817,817,817,817,817,817,817,817,817,817,817,817,817,817,817,817,817,817,817,817,817,817,817,817,817,817,817,817,819,817,817,817,817,817,815,815,815,813,813,813,813,813,817,815,815,815,815,815,815,813,813,813,815,815,815,813,813,813,813,813,813,813,813,813,813,813,813,813,813,813,813,813,813,813,813,815,813,813,813,813,813,813,813,813,813,813,813,811,811,811,811,811,811,811,811,811,811,811,811,811,811,811,811,811,811,811,811,811,811,811,813,811,811,809,809,809,807,807,807,807,807,809,809,809,809,807,807,807,805,805,805,805,805,805,805,805,805,805,805,805,805,805,805,805,805,805,805,803,803,803,803,802,802,803,803,803,803,803,803,803,805,805,805,805,805,805,805,805,805,805,803,803,803,803,803,802,802,802,802,802,802,802,802,802,802,800,800,800,800,800,800,800,800,800,800,800,800,800,800,800,802,800,800,800,802,800,800,800,800,800,800,798,798,798,798,800,800,798,798,798,798,798,798,798,798,798,798,798,798,798,798,798,798,798,798,798,796,796,796,796,796,796,796,796,796,796,796,796,796,794,794,794,796,796,796,796,796,796,796,796,796,796,796,796,796,796,794,794,794,794,794,794,792,792,792,792,792,790,790,790,790,789,789,790,790,790,790,790,789,789,789,787,787,787,787,787,787,787,787,785,783,783,783,783,783,783,783,783,783,781,781,783,783,783,787,787,787,789,789,787,787,785,785,0,0,0,0,0,0,0,0,0,0,0,0,0,0,0,0,0,0,0,0,0,0,0,0,0,0,0,0,0,0,0,0,0,0,0,0,0,0,0
860,858,858,858,858,858,858,851,851,849,849,849,847,847,845,843,843,843,843,843,843,843,843,843,841,841,843,843,841,841,841,841,841,841,841,841,841,841,841,841,841,841,841,841,839,839,841,841,839,839,839,841,839,839,837,837,837,837,837,839,839,837,837,837,837,835,835,835,835,835,835,835,835,835,835,835,835,835,835,835,835,835,835,835,835,835,835,835,835,835,835,835,835,835,835,835,835,835,835,835,837,837,835,835,835,835,833,833,833,835,835,835,833,833,835,835,835,835,833,833,835,835,833,833,835,833,833,833,833,835,835,835,835,835,835,835,835,833,833,833,833,831,831,829,829,831,831,831,833,831,831,833,831,831,831,829,829,829,827,827,827,827,827,827,829,829,829,829,829,829,829,829,829,827,827,827,827,827,827,827,827,827,827,827,827,827,827,827,827,827,827,827,827,825,825,827,827,825,825,825,827,825,825,825,825,825,825,825,825,825,825,825,825,823,823,823,821,821,823,823,823,823,823,823,823,821,819,819,819,819,819,819,819,819,821,821,821,821,821,821,821,821,821,819,819,819,819,819,821,821,821,821,819,819,819,819,819,819,819,819,819,819,819,819,819,819,817,817,817,817,817,817,817,817,817,817,817,817,817,817,817,817,817,817,817,815,815,815,815,815,815,817,817,815,815,815,815,815,815,815,815,815,815,815,815,815,817,817,815,815,815,815,813,813,813,813,811,811,813,813,813,813,813,813,813,813,813,811,811,811,813,813,813,813,813,813,811,811,811,811,811,811,811,811,811,811,811,811,811,811,811,811,811,811,811,811,811,811,811,811,811,811,811,811,809,809,807,807,807,807,807,807,807,807,809,809,809,809,809,809,809,809,809,809,809,809,809,811,811,809,809,809,809,807,807,805,805,807,807,807,809,807,807,807,807,805,805,803,803,803,803,803,805,803,803,803,803,803,803,803,803,803,803,803,803,803,802,802,802,800,800,800,800,800,800,802,802,802,802,802,802,802,803,803,803,803,803,803,803,803,802,802,802,802,802,802,802,802,802,800,800,800,800,798,798,798,798,798,798,798,798,798,798,798,798,798,798,798,798,798,798,798,798,798,798,798,798,798,798,798,798,798,798,798,798,796,796,796,796,796,796,796,796,798,796,796,796,796,796,796,796,796,796,796,794,794,794,794,794,794,794,794,794,794,792,792,792,790,790,792,792,792,792,794,794,794,794,792,792,794,794,794,794,794,792,792,792,792,792,792,792,792,792,792,792,790,790,790,790,789,789,789,789,789,789,789,787,787,787,787,785,785,785,785,785,785,783,783,783,783,783,781,781,781,781,781,781,780,780,781,780,780,783,785,787,785,785,785,783,781,781,0,0,0,0,0,0,0,0,0,0,0,0,0,0,0,0,0,0,0,0,0,0,0,0,0,0,0,0,0,0,0,0,0,0,0,0,0,0,0
858,858,858,856,856,856,856,851,849,849,849,847,845,843,843,843,841,841,841,841,841,841,841,841,841,841,841,841,841,841,841,841,839,839,839,839,839,839,839,839,839,837,837,837,835,835,837,837,837,837,837,837,837,837,837,837,835,835,835,837,837,837,837,835,835,835,835,835,833,833,833,833,833,833,833,833,833,831,831,833,833,833,833,833,833,833,833,833,835,835,833,833,833,833,833,833,833,833,833,835,835,835,835,835,833,833,833,833,833,833,833,833,833,833,833,833,833,833,833,833,833,833,833,833,831,831,831,833,833,833,833,833,833,833,833,833,833,833,831,831,829,829,829,827,827,829,829,829,831,829,829,831,831,829,829,829,827,827,827,827,827,827,827,827,827,827,827,827,827,827,827,827,827,827,827,827,827,827,827,827,825,825,825,825,825,825,825,825,825,825,825,825,825,825,825,825,823,823,823,823,825,825,823,823,823,823,823,823,823,823,823,823,821,821,821,821,819,819,821,821,821,821,821,821,821,819,819,819,819,819,819,819,819,819,819,819,821,821,821,819,819,819,819,819,819,819,819,819,819,819,819,819,819,819,819,817,817,817,817,817,817,817,817,817,817,817,817,817,817,817,815,815,815,815,815,815,815,815,815,815,815,815,813,813,813,813,813,813,813,813,813,813,813,813,813,813,813,813,813,813,813,815,815,815,813,813,815,815,815,815,813,813,813,811,811,811,811,811,811,811,811,811,811,809,809,809,811,811,811,811,811,811,811,811,811,811,809,809,809,809,809,809,809,809,809,809,809,809,809,809,807,807,807,809,809,809,809,809,809,809,807,807,807,807,805,805,805,805,805,805,805,805,805,805,805,807,805,805,807,805,805,805,807,807,807,807,809,809,809,807,807,807,807,805,805,805,805,805,805,805,805,805,805,805,805,803,803,803,803,803,803,803,803,803,802,802,802,802,802,802,802,802,802,802,803,802,800,800,800,800,798,798,798,798,798,798,800,800,800,800,800,802,802,802,803,802,802,802,802,802,802,802,802,802,802,802,800,800,800,800,800,798,798,798,798,798,798,798,798,798,798,796,796,796,796,796,796,796,796,796,798,798,796,796,796,796,798,798,798,796,796,796,796,796,796,796,794,794,794,794,794,794,796,796,796,794,794,794,796,794,794,794,794,794,794,792,792,792,792,792,792,792,792,792,792,790,790,790,790,790,790,790,790,790,790,794,792,792,792,792,792,792,792,792,790,790,790,790,790,790,790,790,790,790,790,790,790,790,790,789,789,789,789,789,789,785,785,785,787,785,785,783,783,783,783,783,781,781,781,781,781,781,781,781,780,780,780,778,778,778,778,778,778,778,780,781,780,778,778,778,778,0,0,0,0,0,0,0,0,0,0,0,0,0,0,0,0,0,0,0,0,0,0,0,0,0,0,0,0,0,0,0,0,0,0,0,0,0,0,0
856,856,856,854,854,854,854,851,849,849,849,845,845,843,843,841,841,841,841,841,841,841,841,841,841,841,841,841,839,839,839,839,839,839,839,839,839,839,837,837,837,837,837,837,835,835,835,835,835,835,835,835,835,835,835,835,835,833,833,835,835,835,835,835,835,835,833,833,831,831,831,831,831,831,833,833,831,831,831,833,831,831,831,833,833,833,833,833,833,833,833,833,833,831,831,833,831,831,831,833,833,833,833,833,833,833,831,831,831,833,831,831,831,831,833,833,833,831,831,831,831,831,831,831,829,829,829,829,829,827,827,831,831,833,831,831,833,831,831,829,829,829,827,827,827,827,827,827,829,827,827,829,827,827,827,827,827,827,827,827,825,825,827,827,827,827,827,827,827,827,825,825,825,825,825,825,825,825,825,825,825,825,825,823,823,823,823,823,823,823,823,823,825,825,825,823,823,821,821,821,823,823,823,821,821,823,823,821,821,821,821,821,821,821,821,819,819,819,819,819,819,819,819,819,819,819,819,819,819,819,819,819,819,819,819,819,819,819,819,819,817,817,817,815,815,815,815,815,817,817,817,817,817,817,817,817,817,817,815,815,815,817,817,817,815,815,815,815,815,815,813,813,813,813,813,813,813,813,813,813,813,813,813,813,811,811,811,811,811,811,811,811,811,811,811,811,809,809,811,811,811,811,811,811,811,811,813,813,811,811,811,811,811,809,809,809,809,809,809,809,807,807,807,807,807,807,807,807,807,809,809,809,809,809,809,809,807,807,807,807,807,807,807,807,807,807,807,807,807,807,805,805,807,807,807,807,807,807,807,807,805,805,805,805,805,805,805,805,805,805,805,805,805,805,805,805,805,805,805,805,805,805,805,803,803,805,805,807,807,805,805,805,805,805,805,803,803,803,803,803,803,803,803,803,803,803,803,803,803,802,802,802,802,802,800,800,800,800,800,802,802,802,802,802,802,800,800,798,798,800,798,798,798,798,798,798,798,798,798,798,798,798,800,800,800,800,800,800,800,800,800,800,800,800,800,800,800,800,798,798,798,798,798,798,798,798,798,798,798,798,796,796,794,794,792,792,794,794,794,796,796,796,796,796,796,796,796,796,796,796,796,796,796,796,796,794,792,792,792,792,792,792,794,794,792,792,792,792,792,792,792,792,792,792,792,790,790,790,790,790,790,790,790,790,790,790,790,789,789,789,789,789,789,790,790,790,790,790,790,790,790,790,790,790,790,789,789,789,790,790,790,790,790,790,790,789,789,789,789,789,789,789,789,789,787,785,785,785,785,785,783,783,783,781,781,781,781,781,780,780,780,780,780,780,780,780,778,778,778,778,778,778,778,778,778,778,776,776,776,776,776,0,0,0,0,0,0,0,0,0,0,0,0,0,0,0,0,0,0,0,0,0,0,0,0,0,0,0,0,0,0,0,0,0,0,0,0,0,0,0
854,854,854,851,851,851,851,854,851,849,849,845,843,843,843,841,841,841,841,841,841,839,839,839,839,839,839,839,837,837,837,837,839,839,839,839,839,837,837,837,837,835,835,835,835,835,833,833,835,833,833,833,833,833,833,833,833,833,831,831,833,833,833,833,833,833,831,831,829,829,829,829,829,829,831,831,831,829,829,831,831,831,831,831,831,833,833,833,833,833,833,833,831,829,829,829,829,829,829,829,829,833,833,833,833,831,831,829,829,831,831,831,829,829,831,831,831,831,829,829,829,829,829,829,829,827,827,827,827,827,827,825,825,825,827,829,829,829,829,827,827,827,827,827,827,827,827,827,827,827,827,827,825,825,825,825,825,825,825,825,825,825,825,827,825,825,825,825,825,825,825,823,823,825,825,825,825,825,825,825,825,823,823,823,823,821,821,821,821,821,821,821,823,823,823,823,821,821,821,821,821,821,819,819,819,819,821,819,819,819,819,819,819,819,819,819,819,819,819,819,819,819,817,817,817,817,817,817,817,817,817,817,817,817,817,817,817,817,817,817,817,815,815,813,813,813,813,813,813,813,815,817,815,815,815,815,815,815,813,813,813,813,813,815,813,813,813,811,811,811,811,811,811,811,811,813,811,811,811,813,811,811,811,811,811,811,809,809,809,809,809,809,809,809,809,807,807,809,809,809,809,811,809,809,809,809,811,811,811,811,811,811,809,807,807,807,807,807,805,805,805,805,805,805,805,805,805,805,805,807,807,809,809,807,807,807,807,805,805,805,805,805,805,805,805,805,805,805,805,805,805,805,805,805,805,805,805,805,805,805,803,803,803,803,803,803,803,803,803,803,803,803,803,803,803,803,803,803,803,803,803,803,803,803,803,803,803,805,805,805,805,805,805,803,803,803,803,803,803,802,802,803,802,802,802,802,802,802,802,800,800,800,800,800,798,798,798,798,800,800,800,800,800,800,800,798,798,798,798,798,798,798,798,798,798,798,796,796,798,798,798,798,800,800,800,800,800,798,798,798,798,798,798,798,798,798,798,798,798,796,796,796,796,796,796,796,796,796,796,796,796,794,794,792,792,792,792,792,792,792,794,794,794,794,794,794,794,794,794,794,796,796,794,794,794,792,792,792,792,790,790,792,792,792,792,790,790,790,792,790,790,790,790,790,790,790,790,790,790,790,790,790,790,790,790,789,789,789,789,789,789,789,789,789,789,789,789,789,789,789,789,789,789,789,789,789,789,789,789,789,789,789,789,789,789,789,789,789,789,787,787,787,785,785,783,783,783,783,783,783,783,781,781,781,781,781,781,781,780,780,778,776,776,776,778,776,776,776,776,776,776,776,776,776,776,774,774,774,774,773,773,0,0,0,0,0,0,0,0,0,0,0,0,0,0,0,0,0,0,0,0,0,0,0,0,0,0,0,0,0,0,0,0,0,0,0,0,0,0,0
851,851,851,851,851,851,851,851,849,849,847,843,843,841,841,841,841,841,841,841,841,839,837,837,839,839,835,835,835,835,835,835,837,837,837,837,837,837,837,835,835,835,835,835,835,833,833,833,833,833,831,829,829,829,829,829,829,831,831,831,831,833,833,833,831,831,831,829,829,829,827,827,827,827,829,829,829,827,827,829,827,827,827,829,831,831,831,831,831,831,831,831,829,827,827,827,827,827,827,827,827,831,831,831,831,829,829,827,827,829,829,829,829,829,829,829,829,829,829,827,827,827,827,827,827,827,827,827,825,825,825,825,825,825,825,825,825,825,827,827,827,827,825,825,825,825,825,825,825,825,825,825,825,825,825,825,825,825,825,825,825,825,825,825,825,825,825,825,825,825,823,823,823,823,823,823,823,823,823,823,823,823,821,821,821,821,819,819,819,819,819,819,819,821,821,821,819,819,819,819,819,819,819,819,819,819,819,819,819,819,819,819,819,819,819,819,819,817,817,817,817,817,817,817,817,817,817,817,817,817,817,817,817,817,817,817,817,815,815,815,815,813,813,813,813,813,811,811,811,811,811,813,813,813,813,813,813,813,813,811,811,811,811,811,811,811,811,811,811,811,809,809,809,811,811,811,811,811,811,811,811,811,811,811,811,809,809,809,809,809,809,807,807,807,807,805,805,807,807,809,809,809,809,809,807,807,809,809,809,809,809,807,807,807,805,805,805,805,805,805,805,803,803,803,803,803,803,803,803,805,805,805,805,805,805,805,805,805,805,805,805,805,805,805,805,805,805,805,805,805,805,805,805,803,803,805,805,805,805,803,803,803,802,802,803,803,803,803,803,803,803,803,803,803,803,803,803,802,802,802,802,802,802,802,802,802,802,800,800,803,803,802,802,802,802,802,802,802,800,800,800,802,800,800,800,800,800,800,800,798,798,798,798,798,798,798,798,798,798,798,798,798,798,798,798,796,796,796,796,796,796,796,796,796,796,796,796,796,796,796,796,796,798,798,798,798,798,798,798,798,798,798,798,798,798,798,796,796,796,796,794,794,794,796,794,794,794,794,794,794,794,794,792,792,790,790,792,790,790,790,792,792,792,792,792,792,794,794,794,792,792,792,792,792,792,790,790,790,790,790,790,790,790,790,790,790,790,790,790,790,790,790,790,790,790,790,790,789,789,790,790,790,789,789,789,789,789,787,787,787,787,789,787,787,789,787,787,789,787,787,787,789,789,789,787,787,787,787,789,789,789,789,787,787,789,787,787,787,787,787,787,785,785,783,783,783,783,781,781,781,781,781,781,781,781,781,780,780,780,778,776,776,776,774,774,776,776,776,776,776,776,776,774,774,774,773,773,773,773,771,771,0,0,0,0,0,0,0,0,0,0,0,0,0,0,0,0,0,0,0,0,0,0,0,0,0,0,0,0,0,0,0,0,0,0,0,0,0,0,0
851,849,849,849,849,849,849,849,849,847,845,843,843,841,841,841,841,841,839,839,839,837,835,835,835,835,835,833,833,835,833,833,835,835,835,835,835,835,835,835,833,833,833,833,833,833,831,829,829,829,829,827,827,827,827,829,829,829,829,827,827,831,831,831,831,831,829,829,827,827,827,827,827,827,827,827,827,827,827,827,827,827,825,825,827,827,827,827,829,829,829,829,827,827,827,827,825,825,825,825,827,827,827,829,829,829,827,827,827,827,827,827,825,825,827,827,827,827,827,827,827,825,825,827,827,827,825,825,825,825,825,823,823,823,823,823,823,823,823,823,825,825,825,825,825,825,825,825,825,825,825,825,823,823,823,823,823,823,823,825,825,825,825,825,825,825,825,823,823,823,821,821,821,821,821,821,821,821,821,821,821,821,821,819,819,819,819,819,819,819,819,819,819,819,819,819,817,817,817,817,817,817,817,817,817,817,817,817,817,817,817,817,817,817,817,817,817,817,817,817,817,817,815,815,815,815,815,815,815,815,815,815,815,815,815,815,815,813,813,813,813,811,811,811,811,811,811,811,811,811,811,811,811,809,809,811,811,811,811,809,809,809,809,809,809,809,809,809,809,809,809,809,809,809,809,809,809,811,811,811,811,811,809,809,809,809,809,809,809,807,807,807,807,805,805,805,805,805,805,807,807,807,807,807,805,805,807,807,807,807,807,807,807,805,805,805,805,805,805,803,803,803,803,803,803,803,803,803,803,803,803,803,803,803,803,803,805,803,803,803,803,803,803,803,803,803,803,803,803,803,803,803,803,803,803,803,803,803,803,803,802,802,802,802,802,802,803,803,803,803,803,803,803,802,802,802,802,802,802,800,800,800,800,800,800,800,800,800,800,800,798,798,800,800,800,800,800,800,798,798,798,800,800,800,798,798,798,798,798,798,798,798,798,798,798,798,798,798,798,798,798,798,798,798,796,796,796,794,794,796,794,794,794,794,794,794,794,794,796,794,794,796,794,794,796,796,796,796,796,796,796,796,796,796,796,796,796,796,796,796,794,794,794,794,794,794,794,794,794,794,794,792,792,790,790,790,790,790,790,790,790,790,790,790,790,790,790,790,790,790,790,790,790,790,790,790,790,790,789,789,789,789,789,789,789,789,789,789,789,789,789,789,789,789,789,789,789,789,789,789,789,789,787,787,789,787,787,787,787,787,787,787,787,787,787,787,787,787,787,787,787,787,787,787,787,787,787,787,787,787,787,787,785,785,787,785,785,785,785,785,785,785,783,783,783,781,781,781,781,781,781,781,780,780,780,780,780,780,780,778,776,776,776,774,774,774,774,774,774,774,774,774,774,774,773,773,773,773,771,771,771,0,0,0,0,0,0,0,0,0,0,0,0,0,0,0,0,0,0,0,0,0,0,0,0,0,0,0,0,0,0,0,0,0,0,0,0,0,0,0
849,849,849,847,847,847,847,845,845,843,839,837,837,837,841,841,835,835,839,839,835,835,835,835,835,833,833,833,833,831,831,831,833,831,831,833,833,833,833,833,833,833,833,833,833,831,829,827,827,827,827,825,825,825,825,825,827,827,827,827,825,825,827,829,829,829,827,827,827,825,825,825,825,825,825,825,825,825,825,827,825,825,823,823,825,825,825,825,825,825,827,827,825,825,825,825,825,825,825,825,825,825,827,827,827,827,827,827,827,825,825,825,825,825,825,823,823,825,825,825,825,825,825,825,825,825,825,825,825,825,823,823,823,823,823,823,821,821,823,823,821,821,821,821,823,823,823,823,823,823,823,823,821,821,821,821,821,821,821,823,825,825,825,825,825,823,823,821,821,821,819,819,819,819,819,819,819,819,819,819,819,819,819,819,819,819,817,817,817,817,817,817,817,817,817,817,817,817,817,817,817,815,815,815,815,815,817,817,817,817,817,817,815,815,815,817,815,815,815,815,815,815,815,813,813,813,813,813,813,813,813,813,813,813,813,813,811,811,809,809,811,809,809,809,809,811,809,809,809,809,809,809,809,809,809,809,809,809,807,807,807,807,807,807,807,807,807,809,809,809,809,809,807,807,807,807,807,807,807,809,809,809,809,809,809,807,807,807,807,807,805,805,805,803,803,803,803,803,803,803,803,805,805,805,805,805,805,807,807,807,807,805,805,805,805,803,803,803,803,803,803,802,802,802,803,802,802,802,802,803,803,803,803,803,803,803,803,802,802,803,803,803,803,803,803,803,803,803,803,803,803,803,803,802,802,802,802,800,800,802,802,802,800,800,802,802,802,802,803,803,803,803,802,802,802,800,800,800,800,800,800,800,798,798,798,798,798,798,798,798,798,796,796,796,796,798,798,798,798,798,798,798,798,798,798,798,798,796,796,796,796,796,796,796,796,796,796,796,796,796,796,796,796,796,794,794,794,794,794,794,794,792,792,794,792,792,792,792,794,792,792,792,792,792,794,794,794,796,794,794,794,794,794,794,792,792,794,794,794,794,792,792,792,792,790,790,790,790,792,792,792,792,790,790,790,790,789,789,789,789,789,789,789,789,789,789,789,789,789,790,789,789,789,789,789,789,789,789,789,789,789,789,789,789,789,789,789,789,787,787,787,787,787,787,789,789,789,789,789,789,787,787,785,785,785,787,787,785,785,785,785,785,785,785,785,785,785,787,785,785,785,785,785,785,785,785,785,785,785,785,785,785,785,785,785,785,783,783,785,785,785,783,783,783,781,781,781,781,781,781,780,780,778,778,778,778,778,778,778,778,776,776,776,776,774,774,774,773,773,773,773,773,773,773,771,771,771,771,769,769,769,0,0,0,0,0,0,0,0,0,0,0,0,0,0,0,0,0,0,0,0,0,0,0,0,0,0,0,0,0,0,0,0,0,0,0,0,0,0,0
849,849,849,847,845,845,845,841,841,841,835,835,837,837,841,839,835,835,837,835,835,835,835,833,833,833,833,833,833,831,831,831,831,831,831,831,831,831,833,833,833,833,833,833,833,829,827,825,825,825,825,823,823,823,823,823,825,825,825,825,825,825,825,825,825,825,825,825,825,825,823,823,825,823,823,823,823,823,823,825,825,823,821,821,825,823,823,823,823,825,825,825,823,823,823,823,823,823,823,823,823,823,825,825,825,825,825,825,825,825,823,821,821,821,821,821,821,821,823,823,823,821,821,825,823,823,823,823,823,823,821,821,821,821,821,821,819,819,819,821,819,819,819,819,819,819,819,819,821,821,821,821,819,819,819,819,819,819,819,821,823,823,823,823,821,819,819,819,819,819,817,817,817,817,819,817,817,817,817,817,817,817,817,817,817,817,817,817,815,815,815,815,815,815,817,817,817,815,815,815,815,813,813,813,813,813,815,815,815,815,815,813,813,813,813,811,811,811,813,813,813,813,813,811,811,811,811,811,811,811,811,811,811,811,811,811,809,807,807,809,809,809,809,809,809,809,809,809,809,807,807,807,807,807,807,807,807,807,807,807,807,805,805,805,805,805,805,807,807,807,807,807,807,805,805,805,805,805,805,807,807,807,809,807,807,805,805,805,805,805,803,803,803,803,803,802,802,803,802,802,802,803,803,803,803,803,805,805,805,805,805,805,805,805,803,803,803,803,803,802,802,802,802,802,802,802,800,800,800,800,802,802,802,800,800,802,802,800,800,802,802,802,802,802,802,802,802,802,802,802,802,802,802,800,800,800,800,800,800,800,800,800,800,800,800,802,802,802,802,802,802,802,800,800,800,800,800,798,798,798,798,798,798,798,796,796,798,796,796,796,796,794,794,794,794,794,794,796,796,796,796,796,798,798,798,796,796,796,796,796,796,796,794,794,796,796,796,794,794,794,794,794,794,794,792,792,792,792,792,792,792,792,792,792,792,790,790,790,790,789,789,789,789,790,790,790,792,792,792,792,792,792,790,790,790,790,790,792,790,790,790,790,790,790,790,790,789,789,790,790,790,790,789,789,789,789,789,789,787,787,789,789,787,787,789,789,789,789,789,789,789,789,789,789,787,787,785,785,787,787,787,787,787,787,787,787,787,787,787,787,787,787,787,787,787,789,789,789,789,787,787,785,785,785,785,785,785,785,785,785,785,785,783,783,783,783,783,783,785,785,783,783,783,783,781,781,783,783,783,783,783,783,783,783,783,783,783,783,783,783,781,781,781,781,781,780,780,780,780,780,778,778,778,778,778,778,778,778,778,778,776,776,776,774,774,773,773,773,771,771,771,771,773,773,771,771,769,769,769,769,769,0,0,0,0,0,0,0,0,0,0,0,0,0,0,0,0,0,0,0,0,0,0,0,0,0,0,0,0,0,0,0,0,0,0,0,0,0,0,0
849,847,847,847,845,843,841,839,839,837,835,835,835,835,839,839,835,835,835,835,835,835,833,831,831,831,831,831,831,831,831,831,829,829,829,829,829,829,829,827,827,831,831,831,829,827,825,823,823,821,821,821,821,821,819,819,821,823,823,821,821,823,823,823,823,823,823,823,821,821,819,819,821,821,821,821,821,821,821,821,821,821,821,821,823,823,823,821,821,823,823,823,823,823,821,821,821,821,821,821,821,821,823,823,823,823,825,823,823,823,821,821,819,819,819,819,819,819,821,821,821,819,819,821,821,823,821,821,821,821,821,819,819,819,819,819,819,819,819,819,819,819,819,819,819,819,817,817,817,817,817,817,817,817,817,817,817,817,817,817,819,819,819,819,819,819,817,817,817,817,817,817,817,817,817,817,815,815,815,815,815,815,815,815,815,815,815,815,813,813,813,813,815,815,815,815,815,815,813,813,813,813,811,811,811,811,813,813,813,813,813,811,811,811,809,809,809,807,807,809,809,809,811,811,811,811,811,811,811,811,811,809,809,809,809,807,807,807,807,807,807,807,807,807,809,809,809,807,807,807,807,805,805,805,805,805,805,805,805,805,805,805,805,803,803,803,803,805,805,805,805,805,805,805,803,803,803,803,803,803,805,805,805,803,803,805,805,805,803,803,803,803,803,802,802,802,802,802,802,802,802,802,802,802,802,802,803,803,805,805,805,805,803,803,803,803,802,802,802,802,802,802,800,800,800,800,800,800,798,798,800,800,800,800,800,800,800,798,798,800,800,800,800,800,802,802,802,800,800,800,800,798,798,798,798,798,798,798,798,798,798,798,798,798,798,798,798,798,800,800,800,800,798,798,798,798,798,796,796,796,796,796,796,796,794,794,796,796,796,796,796,792,792,792,792,792,792,792,794,796,796,796,796,796,796,796,794,792,792,794,794,794,794,794,794,794,794,792,792,792,792,792,792,792,790,790,790,790,790,790,790,790,790,790,790,790,789,789,789,789,789,787,787,789,789,790,790,790,790,790,790,790,790,790,789,789,789,789,789,789,789,789,789,789,789,789,787,787,787,787,787,787,787,787,787,787,787,785,785,785,785,787,785,785,787,787,787,787,785,785,787,785,785,785,785,785,785,783,783,783,785,785,785,785,785,787,787,785,785,785,785,785,785,785,785,787,787,787,787,787,787,785,785,785,785,785,785,783,783,783,783,783,783,781,781,781,781,783,783,783,783,781,781,781,781,780,780,780,781,781,781,781,781,781,781,783,781,781,781,781,780,780,780,780,780,780,778,778,778,778,778,778,776,776,776,776,776,776,776,776,776,776,776,774,773,773,771,771,771,769,769,769,771,771,769,769,769,769,767,767,767,0,0,0,0,0,0,0,0,0,0,0,0,0,0,0,0,0,0,0,0,0,0,0,0,0,0,0,0,0,0,0,0,0,0,0,0,0,0,0
849,847,847,845,845,843,841,839,839,837,835,835,833,833,835,835,835,833,833,833,835,833,833,829,829,829,829,829,829,829,829,829,827,827,827,829,827,827,827,827,827,827,827,827,827,825,823,821,821,819,819,819,819,819,819,819,819,819,819,819,819,821,819,819,821,821,821,821,821,821,819,819,819,819,819,819,819,819,819,819,819,819,819,819,821,821,821,821,821,821,823,821,821,821,821,821,821,821,819,819,819,819,819,819,821,821,821,821,821,821,821,819,819,819,819,819,819,819,819,819,819,819,819,819,819,819,819,819,819,819,819,819,817,817,819,819,817,817,817,817,817,817,817,817,817,817,817,815,815,815,815,813,813,813,815,815,815,815,815,815,815,815,817,817,817,817,815,815,815,815,815,815,813,813,815,815,813,813,813,813,811,811,811,811,811,811,811,813,813,811,811,813,813,813,813,813,813,813,813,811,811,811,811,809,809,809,809,809,809,811,811,809,809,809,807,807,807,805,805,805,807,807,807,807,809,809,809,809,809,809,809,807,807,807,807,805,805,805,805,805,805,805,805,805,807,807,807,807,807,805,805,805,803,803,803,803,805,805,803,803,803,803,803,803,803,802,802,803,803,803,803,803,803,803,802,802,802,802,802,803,803,803,803,802,802,802,802,802,803,802,802,802,802,802,802,800,800,800,800,800,800,800,800,800,800,800,803,803,803,803,803,803,803,802,802,802,800,800,802,800,800,800,800,800,800,800,798,798,798,798,798,798,798,798,798,798,798,798,798,798,798,798,798,798,798,798,798,798,796,796,796,796,796,796,796,796,796,796,796,798,798,796,796,798,798,798,796,796,796,796,798,798,796,796,798,796,796,796,794,794,796,794,794,794,794,794,794,794,794,794,794,792,792,792,792,792,790,790,792,792,792,794,794,794,792,792,792,792,792,792,792,792,792,792,792,792,792,790,790,790,790,790,790,790,789,789,789,789,789,790,790,789,789,789,789,789,787,787,787,787,787,785,785,787,789,789,789,790,790,790,789,789,787,787,789,789,787,787,787,787,787,787,787,787,787,787,787,787,785,785,785,785,785,785,785,785,785,785,785,783,783,785,785,785,785,785,785,785,785,785,785,783,783,783,783,783,783,783,781,781,781,781,781,783,783,783,785,783,783,783,783,783,783,783,783,787,785,785,785,785,785,783,783,783,783,783,783,783,781,781,781,781,781,781,781,781,781,781,781,781,781,781,780,780,780,778,778,778,778,778,781,781,781,781,781,781,781,781,780,780,778,778,778,778,778,778,778,778,778,778,776,776,776,776,774,774,774,774,776,774,774,774,774,774,773,771,771,771,769,769,767,767,767,767,767,769,767,767,766,766,767,0,0,0,0,0,0,0,0,0,0,0,0,0,0,0,0,0,0,0,0,0,0,0,0,0,0,0,0,0,0,0,0,0,0,0,0,0,0,0
845,845,845,845,843,843,841,839,839,835,835,835,833,833,833,833,833,833,833,833,833,833,833,829,827,827,827,827,827,827,827,827,827,827,827,827,825,825,825,825,825,825,823,823,823,823,821,819,819,819,819,819,817,817,817,819,819,817,817,817,819,817,817,817,819,819,819,819,819,819,819,819,819,819,819,817,817,817,817,819,819,817,817,817,819,819,819,819,819,821,821,821,819,819,819,819,819,819,819,819,819,819,819,819,819,819,819,819,819,819,817,817,817,817,817,817,817,817,817,817,817,817,817,817,817,817,817,817,817,817,817,817,815,815,817,817,817,817,817,817,817,817,815,815,815,815,815,813,813,813,813,811,811,811,813,813,811,811,813,813,813,813,813,813,813,813,813,813,813,813,813,813,811,811,813,813,811,811,811,811,811,811,811,811,811,811,811,811,811,811,811,811,811,811,813,811,811,811,811,809,809,809,809,809,807,807,807,807,807,807,809,807,805,805,805,805,805,803,803,805,805,805,805,805,805,805,805,807,807,807,807,805,805,805,805,803,803,803,803,803,803,803,803,803,805,805,805,805,805,803,803,803,803,803,803,803,803,803,803,803,803,803,802,802,802,802,802,802,802,802,802,802,802,802,802,800,800,802,802,802,802,802,802,800,800,798,798,798,800,800,802,802,802,800,800,800,800,800,800,798,798,800,800,800,800,800,802,802,802,802,802,802,800,800,800,800,800,800,800,800,800,800,798,798,798,798,798,798,798,798,798,798,796,796,796,796,796,796,796,796,796,796,796,796,796,796,794,794,794,794,794,792,792,794,794,796,796,796,796,796,796,796,796,796,796,796,794,794,794,794,794,794,794,794,796,794,794,794,794,794,792,792,792,792,792,792,792,792,792,792,792,790,790,790,790,790,790,790,790,790,790,790,790,790,790,790,790,790,790,790,790,790,790,790,790,790,790,790,790,789,789,789,789,789,789,789,789,789,789,789,789,789,789,789,789,787,785,785,785,785,785,785,785,785,787,789,789,789,789,789,789,785,785,785,785,787,787,787,785,785,785,785,785,785,785,785,785,785,785,785,783,783,783,783,783,783,783,783,783,783,783,785,785,785,785,785,785,785,783,783,783,781,781,781,781,781,781,781,781,781,781,781,780,780,780,781,783,781,781,781,783,783,783,783,783,785,783,783,783,783,783,783,783,781,781,781,781,781,781,781,781,781,781,780,780,780,780,780,780,780,780,778,778,778,778,776,776,776,776,778,778,778,780,780,781,781,780,780,778,776,776,776,776,776,776,776,776,776,776,776,776,776,774,774,774,774,774,774,774,774,774,774,773,773,771,771,769,769,769,767,767,766,766,766,766,764,764,766,764,764,0,0,0,0,0,0,0,0,0,0,0,0,0,0,0,0,0,0,0,0,0,0,0,0,0,0,0,0,0,0,0,0,0,0,0,0,0,0,0,0
843,843,843,841,841,841,839,839,837,835,835,835,831,831,833,833,833,833,831,831,833,833,827,827,827,827,827,827,827,825,825,825,825,825,825,823,823,823,819,819,823,819,819,819,819,819,819,817,817,817,817,817,817,817,817,817,817,817,815,815,817,815,815,815,815,817,817,817,817,817,817,817,817,817,817,817,817,817,817,817,815,815,815,817,817,817,817,817,817,819,819,819,819,817,817,817,817,817,817,817,817,817,817,817,817,817,817,817,817,817,817,817,817,817,817,817,817,817,815,815,815,815,813,813,813,813,813,813,815,815,815,815,813,813,813,813,815,815,815,815,815,815,815,815,815,813,813,813,811,811,811,811,811,811,811,811,811,811,811,811,811,811,811,811,811,811,813,811,811,811,811,811,811,811,811,811,811,811,811,811,809,809,809,809,809,809,809,809,809,809,809,811,811,811,811,811,811,811,811,809,809,807,807,807,805,805,805,805,805,805,805,805,805,805,805,805,803,803,803,803,803,803,803,803,803,803,803,803,803,803,805,803,803,803,803,803,802,802,803,803,803,803,803,803,803,803,803,803,803,803,803,802,802,802,802,802,802,802,802,802,802,802,802,802,802,800,800,800,800,800,800,798,798,800,800,800,800,800,800,800,800,800,800,798,796,796,798,798,798,798,798,800,800,800,800,798,798,798,798,798,798,798,798,798,800,800,802,802,802,802,800,800,798,798,798,798,798,798,798,798,798,798,798,798,798,798,798,798,798,798,798,796,796,796,796,794,794,794,794,794,794,794,796,796,796,794,792,792,792,792,792,792,792,792,792,794,794,794,794,794,794,794,794,792,792,794,792,792,792,792,792,792,792,792,792,792,792,792,790,790,790,790,790,790,790,790,790,790,790,790,790,790,790,790,790,790,790,790,790,789,789,789,789,789,789,789,790,790,790,790,790,790,790,790,790,789,789,789,789,789,787,787,787,789,789,789,789,789,789,789,787,787,787,787,787,785,785,785,785,785,785,783,783,783,785,785,785,785,785,785,785,785,785,783,783,785,785,785,785,783,783,783,783,783,783,783,783,783,783,783,783,783,783,783,783,783,783,783,781,781,783,783,783,783,783,783,783,783,783,783,781,781,781,780,780,780,781,781,780,780,780,780,780,778,778,778,780,781,781,781,781,781,781,781,781,781,781,781,781,781,781,781,781,781,781,781,781,780,780,780,778,778,780,778,778,778,778,778,778,778,778,776,776,776,776,776,776,776,776,776,776,776,776,776,780,780,778,776,776,776,774,774,774,774,774,774,774,776,776,776,774,774,774,774,773,773,773,774,773,773,773,773,773,773,771,769,769,769,769,767,766,764,762,762,764,764,762,761,761,762,0,0,0,0,0,0,0,0,0,0,0,0,0,0,0,0,0,0,0,0,0,0,0,0,0,0,0,0,0,0,0,0,0,0,0,0,0,0,0,0
843,843,841,841,839,839,839,837,837,835,833,833,831,831,831,831,831,829,827,827,827,827,827,827,825,825,825,825,825,823,823,825,821,821,821,819,817,817,817,817,819,817,815,815,817,817,817,817,817,817,815,815,815,815,815,815,815,815,811,811,811,813,813,815,815,815,815,817,817,817,817,817,815,815,815,815,815,815,815,815,815,815,815,815,815,815,815,817,817,817,819,819,817,817,817,817,817,817,817,817,817,817,817,817,815,815,815,815,815,815,815,815,815,815,815,815,815,815,813,813,813,813,811,811,811,811,811,811,811,811,811,811,811,811,811,811,811,811,813,813,813,813,813,813,813,811,811,811,809,809,809,809,809,809,809,811,811,811,811,811,811,811,811,809,809,811,811,811,811,811,811,811,809,809,809,809,809,809,809,809,809,809,807,807,807,807,807,807,809,809,809,809,809,809,809,809,809,809,807,807,807,807,805,805,805,805,805,803,803,803,803,803,803,803,803,803,803,803,803,803,803,803,803,803,803,803,803,803,803,803,802,802,802,802,802,802,802,802,802,802,802,802,802,802,802,803,802,802,802,802,802,802,802,802,802,802,802,802,802,802,802,802,802,800,800,800,800,798,798,800,798,798,798,798,798,798,798,798,798,798,798,798,796,796,796,796,796,796,796,796,796,798,798,798,796,796,796,796,798,796,796,798,798,798,798,798,798,798,798,798,798,798,798,798,796,796,796,796,796,796,796,798,796,796,796,796,796,796,796,796,796,796,796,794,794,792,792,792,792,792,792,792,792,792,794,794,792,792,792,790,790,790,790,790,790,792,792,792,792,792,792,792,792,792,792,792,790,790,790,790,790,790,792,792,792,792,790,790,790,790,789,789,789,789,789,789,789,789,789,789,789,789,789,789,789,789,789,789,789,787,787,787,787,787,787,787,787,787,787,789,789,789,789,789,789,789,787,787,787,787,787,787,787,787,787,787,787,787,787,787,785,785,785,785,785,785,785,785,785,783,783,783,783,783,783,783,783,783,783,783,783,783,783,783,783,783,783,783,783,783,783,783,783,783,783,783,783,783,783,783,781,781,781,781,781,781,781,781,781,781,781,781,781,781,783,783,783,783,781,781,781,780,780,780,780,780,780,780,780,780,780,778,778,776,776,776,778,778,778,780,780,780,780,780,780,780,780,780,780,780,780,780,780,780,780,780,780,778,778,778,778,778,778,776,776,776,776,776,776,776,776,776,774,774,776,774,774,774,774,776,776,776,776,776,776,776,776,774,774,774,774,774,773,773,773,774,774,774,774,774,774,774,773,773,771,771,771,771,771,771,771,771,771,771,769,767,767,767,767,766,764,762,762,762,762,762,761,761,761,761,0,0,0,0,0,0,0,0,0,0,0,0,0,0,0,0,0,0,0,0,0,0,0,0,0,0,0,0,0,0,0,0,0,0,0,0,0,0,0,0
839,839,841,839,837,837,837,837,835,835,833,833,831,831,831,827,827,829,827,827,827,827,827,827,825,825,825,825,825,823,823,823,821,819,819,817,815,815,815,813,813,813,813,813,813,815,815,815,815,815,813,813,813,815,815,813,813,811,811,811,811,813,813,813,813,813,813,815,815,815,815,815,813,813,815,815,815,815,815,815,813,813,813,813,813,813,815,815,815,815,815,815,815,815,815,815,815,815,815,815,815,815,815,815,813,813,815,813,813,813,813,813,813,813,813,813,813,813,813,811,811,811,811,811,811,811,811,811,811,811,811,811,809,809,809,809,809,809,811,811,811,811,811,811,811,811,811,811,809,809,809,809,809,809,809,811,809,809,809,809,809,809,809,809,809,809,809,809,809,809,809,809,809,809,809,809,809,809,809,809,807,807,807,807,805,805,805,807,807,807,807,807,807,807,807,805,805,807,805,805,807,805,805,805,805,803,803,803,803,803,803,803,803,803,803,803,803,802,802,802,802,802,802,802,802,802,802,802,802,802,800,800,800,800,798,798,800,800,800,800,800,800,800,798,798,800,798,798,800,800,800,800,800,800,800,800,800,800,800,800,798,798,800,798,798,798,798,798,798,798,796,796,796,796,796,796,796,798,796,796,796,796,794,794,794,794,794,794,794,796,796,796,796,796,794,794,794,794,794,796,796,796,796,796,796,796,796,796,796,796,796,796,796,796,796,796,794,794,796,796,796,796,796,796,796,796,796,796,796,796,796,794,794,794,792,792,792,790,790,790,790,790,792,792,792,792,790,790,790,790,790,790,790,789,789,790,790,790,790,790,790,790,790,790,790,790,790,790,790,790,790,790,790,790,790,790,790,790,789,789,789,789,789,789,789,789,787,787,787,787,787,787,787,787,787,789,789,787,787,785,785,785,785,785,785,785,785,785,785,785,785,787,787,787,787,787,787,785,785,785,785,785,785,787,787,787,785,785,785,785,785,783,783,783,783,783,783,783,783,783,783,781,781,781,781,783,781,781,781,781,783,783,783,783,783,783,783,783,783,781,781,781,781,781,781,781,781,781,781,781,781,780,780,780,780,781,780,780,781,781,781,781,781,781,781,781,781,781,781,780,780,778,778,778,778,778,778,778,778,778,778,778,776,776,776,776,776,776,776,776,778,778,778,776,776,776,776,776,776,776,776,776,778,778,778,778,778,778,778,776,776,776,776,776,776,774,774,774,774,774,774,774,774,774,774,774,774,774,774,774,774,774,774,774,774,774,774,774,774,773,773,773,773,773,773,773,773,773,773,773,773,773,773,771,771,771,769,769,771,769,769,771,769,769,767,767,767,766,766,764,762,762,761,761,761,761,761,759,759,759,0,0,0,0,0,0,0,0,0,0,0,0,0,0,0,0,0,0,0,0,0,0,0,0,0,0,0,0,0,0,0,0,0,0,0,0,0,0,0,0
839,839,839,837,837,837,837,835,835,833,833,833,831,829,829,825,825,825,825,825,827,827,827,825,825,825,823,823,823,823,823,823,819,817,817,815,813,813,813,811,811,811,811,811,813,813,813,813,813,813,813,813,811,811,811,813,813,811,811,811,811,811,811,811,813,813,813,813,813,813,813,813,813,813,813,813,813,813,813,813,813,813,813,813,813,813,813,813,815,813,813,813,813,813,813,813,813,813,813,813,813,813,813,813,813,813,813,813,811,811,811,811,811,811,811,811,811,813,811,811,811,811,811,811,809,809,809,811,809,809,809,809,809,809,807,807,807,807,809,809,809,809,809,809,809,809,809,809,809,807,807,809,809,809,809,809,809,809,809,809,807,807,807,807,807,807,807,807,807,807,807,809,807,807,807,807,807,807,807,807,807,807,805,805,805,805,805,805,805,805,805,805,805,805,805,803,803,803,803,803,803,803,803,803,803,803,803,802,802,802,802,802,802,802,802,802,802,800,800,802,802,802,802,802,802,802,802,802,802,802,800,800,800,798,796,796,796,796,798,798,798,798,798,798,798,798,798,798,798,798,798,798,798,798,796,796,796,796,798,796,796,798,798,798,798,796,796,796,796,796,796,796,796,796,796,796,796,796,794,794,794,794,794,794,794,794,794,794,794,794,794,794,794,794,794,792,792,792,794,794,794,794,796,794,794,794,794,794,794,794,794,794,794,794,794,794,792,792,794,794,794,794,794,794,794,794,794,794,794,794,794,792,792,792,790,790,790,790,790,790,790,790,790,790,790,790,790,789,789,789,789,789,789,789,789,789,789,789,789,789,789,790,790,790,790,790,790,790,790,790,789,789,789,789,789,789,789,789,789,789,789,787,787,787,787,787,785,785,785,785,785,785,785,785,787,787,787,787,785,785,785,785,785,785,785,785,785,783,783,783,783,783,783,785,783,783,783,781,781,781,781,783,783,783,785,785,783,783,783,783,783,783,783,783,783,783,783,783,783,781,781,781,780,780,780,780,780,780,780,780,781,781,781,781,781,781,781,781,781,781,780,780,780,780,781,781,781,781,781,780,780,778,778,778,778,780,780,780,780,780,780,780,778,778,780,780,780,780,780,778,778,776,776,776,776,778,778,776,776,776,776,776,776,776,776,776,776,776,776,776,776,776,776,776,774,774,774,774,774,774,774,774,776,776,776,776,776,776,776,776,776,776,776,774,774,774,774,774,774,774,773,773,773,773,773,773,773,774,774,774,774,773,773,773,773,773,773,773,773,773,773,773,773,773,773,773,773,773,771,771,769,769,769,769,769,769,767,767,769,769,769,769,769,767,767,766,766,764,764,762,762,762,761,761,761,761,759,759,757,757,0,0,0,0,0,0,0,0,0,0,0,0,0,0,0,0,0,0,0,0,0,0,0,0,0,0,0,0,0,0,0,0,0,0,0,0,0,0,0,0
0,839,839,837,837,837,837,835,835,833,833,833,831,829,829,825,825,825,825,825,827,827,827,825,825,825,823,823,823,823,823,823,819,817,817,815,813,813,813,811,811,811,811,811,813,813,813,813,813,813,813,813,811,811,811,813,813,811,811,811,811,811,811,811,813,813,813,813,813,813,813,813,813,813,813,813,813,813,813,813,813,813,813,813,813,813,813,813,815,813,813,813,813,811,811,811,811,811,811,811,811,811,813,811,811,811,811,811,811,811,809,809,811,811,811,811,811,811,811,809,809,809,809,809,809,809,809,809,809,809,809,809,809,809,807,807,807,807,805,805,807,807,807,807,807,807,807,807,807,805,805,807,807,807,807,807,809,807,807,807,805,805,805,805,805,805,805,805,805,805,805,803,803,805,805,805,805,805,805,805,805,805,805,805,805,803,803,803,803,803,803,803,803,803,803,803,803,803,802,802,802,802,802,802,802,802,802,802,802,800,800,800,800,798,798,798,800,798,798,800,800,800,800,800,800,800,800,800,800,800,798,798,796,796,796,796,794,794,796,796,796,796,796,796,796,796,796,796,796,796,796,796,796,796,796,796,794,794,796,796,796,796,796,796,796,796,796,796,794,794,794,794,794,794,794,794,794,794,792,792,790,790,792,792,792,792,792,792,792,792,792,792,792,792,792,790,790,790,792,792,790,790,790,792,792,792,792,792,792,792,792,792,792,792,792,792,790,790,792,792,792,792,794,794,794,792,792,792,792,792,792,790,790,790,790,789,789,789,789,789,789,789,790,790,790,790,789,789,789,787,787,787,787,787,787,787,787,787,787,787,787,789,789,789,789,789,790,789,789,789,789,789,787,787,787,785,785,785,785,787,787,785,785,785,785,785,783,783,783,783,783,783,785,785,785,785,785,785,785,783,783,783,783,783,783,783,783,783,783,783,783,781,781,781,781,781,781,781,781,780,780,781,781,781,783,783,783,783,783,781,781,781,781,781,781,781,781,781,781,781,781,780,780,778,778,778,778,778,778,778,780,781,780,780,781,781,781,781,780,780,780,778,778,778,776,776,780,780,780,778,778,776,776,776,776,776,778,778,778,778,778,778,778,778,778,778,776,776,778,776,776,776,776,776,776,776,776,776,776,776,776,776,774,774,774,774,774,774,774,774,774,774,774,774,774,774,774,774,774,774,774,774,774,774,774,774,774,774,776,774,774,774,774,774,774,774,774,774,773,773,773,773,771,771,771,771,771,771,771,773,773,771,771,771,769,769,769,769,769,769,769,771,771,771,771,771,771,771,769,769,769,769,769,767,767,767,767,767,767,767,767,767,767,767,766,764,762,761,761,762,761,761,759,759,759,761,759,757,757,757,0,0,0,0,0,0,0,0,0,0,0,0,0,0,0,0,0,0,0,0,0,0,0,0,0,0,0,0,0,0,0,0,0,0,0,0,0,0,0,0
0,0,0,0,0,0,0,0,0,0,0,0,0,0,0,0,0,0,0,0,0,0,0,0,0,0,0,0,0,0,0,0,0,0,0,0,0,0,0,0,0,0,0,0,0,0,0,0,0,0,0,0,0,0,0,0,0,0,0,0,0,0,0,0,0,0,0,0,0,0,0,0,0,0,0,0,0,0,0,0,0,0,0,0,0,0,0,0,0,0,0,0,0,811,811,811,811,811,811,811,811,811,813,811,811,811,811,811,811,811,809,809,811,811,811,811,811,811,811,809,809,809,809,809,809,809,809,809,809,809,809,809,809,809,807,807,807,807,805,805,807,807,807,807,807,807,807,807,807,805,805,807,807,807,807,807,809,807,807,807,805,805,805,805,805,805,805,805,805,805,805,803,803,803,803,803,803,803,803,803,803,803,803,803,803,803,803,803,802,802,802,802,802,802,802,802,802,802,802,802,802,802,802,802,802,802,802,800,800,800,798,798,798,798,798,798,798,796,796,798,798,798,798,798,798,798,798,798,798,796,796,796,796,794,794,794,794,794,794,794,794,794,794,794,794,794,794,794,796,796,796,796,796,796,794,794,794,794,794,796,796,796,796,796,794,794,794,794,794,792,792,794,794,794,792,792,792,792,790,790,790,790,790,790,790,790,790,790,790,790,790,790,790,790,790,790,789,789,789,790,789,789,789,789,789,790,790,790,790,790,790,790,790,792,790,790,790,790,790,790,790,790,790,790,790,790,790,790,790,790,790,789,789,789,789,789,789,789,789,789,789,789,789,789,789,789,787,787,787,785,785,785,785,785,785,785,787,787,785,785,787,787,787,787,789,789,789,789,789,789,789,787,785,785,785,785,785,785,785,785,785,785,783,783,783,783,783,783,783,783,783,783,783,783,785,785,783,783,783,783,783,783,783,783,783,783,781,781,781,781,781,781,780,780,780,778,778,780,780,780,780,780,780,780,780,780,780,780,781,781,781,781,781,781,781,781,781,781,780,780,780,780,778,776,776,778,778,778,778,778,778,780,780,780,780,780,780,780,778,778,778,776,776,776,776,776,776,776,776,774,774,774,774,774,774,774,776,776,776,776,776,776,776,774,774,774,776,776,776,776,776,776,774,774,774,776,776,774,774,774,774,774,774,774,773,773,773,773,773,773,773,773,773,773,771,771,773,773,773,773,773,773,773,774,774,774,774,774,774,773,773,773,773,773,773,773,773,773,773,773,771,771,769,769,769,769,769,769,769,771,771,769,769,769,769,767,767,767,767,767,767,767,767,769,767,767,767,767,767,767,767,767,767,767,766,766,767,767,767,767,767,767,767,764,762,762,762,761,761,761,761,761,759,759,759,759,757,757,755,755,0,0,0,0,0,0,0,0,0,0,0,0,0,0,0,0,0,0,0,0,0,0,0,0,0,0,0,0,0,0,0,0,0,0,0,0,0,0,0,0
