0,0,0,0,0,0,0,0,1273,1273,1273,1273,1268,1268,1268,1264,1264,1264,1264,1264,1264,1264,1264,1264,1264,1264,1264,1264,1259,1259,1264,1264,1264,1264,1264,1264,1264,1259,1259,1259,1259,1259,1259,1255,1255,1255,1255,1250,1250,1250,1250,1250,1255,1255,1255,1255,1255,1255,1255,1255,1255,1250,1250,1250,1250,1250,1250,1250,1250,1250,1250,1250,1250,1250,1245,1245,1245,1245,1245,1245,1245,1245,1245,1245,1245,1241,1241,1245,1245,1245,1245,1245,1245,1245,1241,1241,1236,1227,1227,1119,1115,1115,1115,1115,1115,1115,1115,1115,1115,1119,1119,1123,1126,1126,1126,1126,1130,1134,1232,1232,1232,1232,1232,1232,1232,1232,0,0,0,0,0,0,0,0,0,0,773,769,766,764,761,761,761,761,761,761,761,762,762,764,766,767,767,767,769,771,771,773,773,773,773,771,771,0,0,0,0,0,0,1214,1214,1214,1214,1214,1214,1214,1214,1214,1214,1214,1214,1214,1210,1210,1210,1210,1210,1210,1210,1210,1210,1210,1210,1210,1210,1210,1210,1206,1206,1210,1210,1210,1210,1210,1206,1206,1206,1206,1206,1206,1206,1206,1206,1206,1206,1206,1206,1202,1202,1202,1202,1202,1202,1202,1202,1202,1197,1197,1197,1197,1197,1197,1197,1197,1197,1197,1197,1193,1193,1193,1010,1007,1007,1007,1004,1001,995,989,987,981,978,978,975,975,973,970,967,967,964,962,962,964,964,962,959,959,956,956,954,954,954,954,954,954,956,956,956,954,954,956,956,956,956,956,956,956,956,959,962,962,964,964,964,964,967,967,967,970,973,975,975,978,978,981,984,984,984,989,989,989,989,1173,1173,1173,1173,1173,1169,1169,1169,1169,1169,1169,1169,1169,1169,1169,1173,1173,1173,1173,1173,1173,1173,1173,1169,1169,1169,1165,1165,1165,1165,1169,1169,1077,1077,1077,1077,1073,1073,1070,1070,1070,1070,1073,1073,1073,1077,1077,1080,1080,1077,1077,1080,1080,1161,1157,1157,1157,1153,1153,1153,1153,1153,1153,1153,1153,1153,1153,1149,1149,1149,1149,1149,1149,1149,1149,1153,1153,1149,1149,1149,1149,1149,1149,1149,1149,1149,1149,1149,1145,1145,1141,1141,1141,1141,1141,1141,1141,1141,1141,1141,1145,1141,1141,1141,1141,1141,1141,1138,1138,1138,1138,1138,1138,1134,1134,1134,1134,1134,1134,1134,1134,1134,1134,1134,1134,1134,1134,1134,1134,1134,1134,1134,1134,1134,1134,1134,1130,1130,1130,1134,1130,1130,1126,1126,1130,1130,1126,1126,1130,1130,1126,1126,1126,1126,1126,1126,1123,1123,1123,1123,1123,1123,1123,1123,1123,1119,1119,1119,1115,1115,1115,1115,1115,1115,1112,1112,1115,1119,1115,1115,1115,1115,1115,1112,1112,1115,1115,1115,1115,1115,1115,1112,1112,1112,1112,1112,1112,1112,1112,1108,1108,1108,1108,1108,1108,1108,1108,1108,1108,1108,1108,1108,1105,1105,1105,1105,1105,1105,1101,1101,1105,1105,1105,1105,1105,1105,1105,1105,1054,1054,1054,1105,1105,1105,1108,1105,1105,1105,1105,1101,1097,1097,1097,1094,1094,1090,1090,1090,1090,1090,1090,1090,1087,1087,0,0,0,0,815,811,811,811,811,811,811,811,811,811,811,809,809,809,807,807,807,805,805,807,805,805,805,805,805,805,805,805,805,805,805,805,805,0,0,0,0,0,0,0,0,0,0,0,0,0,0,0,0,0,0,0,0,0,0,0,0,0,0,0,0,0,0,0,0,0,0,0,0,0,0
0,0,0,0,0,0,0,1268,1268,1268,1268,1268,1264,1264,1264,1264,1259,1259,1259,1255,1255,1259,1255,1255,1259,1255,1255,1255,1250,1250,1255,1255,1255,1255,1259,1259,1259,1259,1255,1255,1255,1255,1255,1255,1250,1250,1250,1250,1250,1250,1250,1250,1250,1250,1250,1250,1250,1250,1245,1245,1250,1250,1250,1245,1245,1245,1245,1245,1245,1245,1245,1245,1245,1245,1245,1245,1245,1245,1241,1241,1241,1241,1241,1236,1236,1236,1236,1241,1241,1241,1241,1245,1245,1241,1236,1236,1232,1227,1227,1119,1115,1115,1115,1115,1115,1115,1115,1115,1115,1119,1119,1123,1123,1126,1126,1126,1130,1134,1232,1232,1227,1227,1227,1227,1227,1227,0,0,0,0,0,0,0,0,0,0,773,773,766,764,762,761,761,761,761,761,761,762,762,764,767,767,769,769,771,771,773,773,773,774,773,773,773,0,0,0,0,0,0,1214,1210,1210,1210,1210,1210,1210,1210,1210,1210,1210,1210,1210,1210,1210,1210,1210,1210,1210,1210,1210,1210,1210,1206,1206,1206,1206,1206,1206,1206,1206,1206,1206,1206,1206,1206,1206,1202,1202,1202,1202,1202,1202,1202,1197,1197,1197,1197,1193,1193,1197,1197,1197,1197,1197,1197,1197,1197,1197,1193,1193,1193,1193,1193,1193,1193,1193,1193,1193,1189,1189,1010,1007,1004,1004,1001,1001,995,992,989,984,978,978,975,975,970,967,967,964,962,962,962,962,959,959,959,956,956,954,954,954,954,954,954,954,954,954,954,954,954,954,954,954,954,956,956,956,956,959,962,962,964,964,964,964,967,967,970,970,973,975,975,978,978,981,984,984,984,989,987,987,987,1173,1173,1173,1169,1169,1169,1169,1165,1165,1165,1165,1165,1169,1169,1169,1169,1169,1169,1169,1169,1169,1169,1169,1165,1165,1165,1165,1165,1165,1165,1165,1165,1077,1077,1077,1077,1073,1073,1073,1070,1070,1070,1073,1073,1077,1077,1080,1080,1080,1080,1080,1080,1080,1153,1153,1153,1153,1153,1153,1153,1153,1153,1153,1149,1149,1149,1149,1149,1149,1149,1149,1149,1149,1145,1145,1145,1145,1149,1149,1149,1149,1149,1149,1149,1145,1145,1145,1145,1141,1141,1141,1141,1138,1138,1138,1138,1141,1141,1138,1138,1141,1138,1138,1138,1138,1138,1138,1138,1138,1138,1138,1134,1134,1134,1134,1134,1134,1134,1134,1134,1134,1134,1130,1130,1130,1130,1130,1130,1130,1130,1130,1130,1126,1126,1130,1130,1126,1126,1126,1126,1126,1126,1126,1126,1126,1123,1123,1126,1126,1126,1123,1123,1123,1123,1123,1123,1123,1123,1123,1119,1119,1119,1119,1119,1119,1119,1119,1115,1115,1115,1115,1112,1112,1112,1108,1108,1108,1112,1108,1108,1108,1108,1108,1108,1108,1108,1108,1108,1108,1112,1112,1112,1108,1108,1108,1108,1108,1108,1105,1105,1108,1105,1105,1105,1105,1105,1105,1105,1105,1105,1105,1105,1105,1105,1105,1105,1101,1101,1101,1101,1105,1105,1105,1105,1105,1054,1050,1050,1050,1050,1050,1050,1050,1050,1050,1050,1108,1108,1105,1101,1097,1097,1094,1094,1090,1090,1090,1090,1090,1090,1090,1090,1087,1087,0,0,0,815,815,811,811,811,811,811,811,811,811,811,811,809,809,809,807,807,807,805,805,807,805,805,805,805,805,805,805,805,805,805,805,805,805,0,0,0,0,0,0,0,0,0,0,0,0,0,0,0,0,0,0,0,0,0,0,0,0,0,0,0,0,0,0,0,0,0,0,0,0,0,0
0,0,0,0,0,0,0,1268,1264,1264,1264,1264,1264,1264,1259,1259,1259,1259,1255,1255,1255,1255,1255,1255,1255,1250,1250,1250,1245,1245,1245,1245,1250,1250,1250,1255,1255,1255,1255,1255,1255,1255,1250,1250,1250,1250,1245,1245,1245,1245,1245,1250,1250,1250,1250,1245,1245,1245,1245,1245,1245,1241,1241,1241,1241,1245,1241,1241,1241,1241,1241,1241,1241,1241,1241,1241,1241,1241,1241,1241,1236,1236,1236,1232,1232,1232,1232,1236,1236,1241,1241,1241,1241,1241,1236,1232,1232,1227,1227,1119,1115,1115,1115,1115,1115,1115,1115,1115,1119,1119,1119,1123,1123,1126,1126,1126,1130,1134,1141,1227,1227,1227,1227,1227,1227,1227,1227,0,0,0,0,0,0,0,0,0,774,773,769,766,762,762,762,761,761,762,762,762,764,766,767,767,769,769,771,773,773,774,774,774,773,773,773,0,0,0,0,0,0,1210,1206,1206,1206,1206,1210,1210,1210,1210,1210,1210,1210,1210,1206,1206,1206,1206,1206,1206,1206,1206,1206,1206,1206,1202,1202,1202,1202,1202,1202,1202,1202,1197,1197,1197,1197,1202,1202,1202,1197,1197,1197,1197,1197,1193,1193,1193,1193,1193,1189,1189,1193,1193,1193,1193,1193,1193,1193,1193,1193,1189,1189,1189,1189,1189,1189,1189,1189,1189,1189,1185,1185,1004,1001,1001,1001,998,995,992,989,987,981,978,975,973,970,967,964,964,962,959,959,956,956,956,954,954,954,954,954,954,951,951,951,954,954,954,954,951,951,954,954,954,954,954,956,956,956,959,959,962,964,964,964,964,967,967,970,970,973,975,975,978,978,981,984,984,984,987,987,987,1169,1169,1169,1169,1165,1165,1165,1165,1165,1165,1165,1165,1165,1165,1165,1165,1165,1165,1165,1165,1165,1165,1165,1165,1165,1165,1165,1161,1161,1161,1161,1165,1165,1077,1077,1077,1077,1077,1073,1073,1073,1073,1073,1073,1077,1077,1077,1080,1080,1080,1080,1080,1080,1080,1153,1153,1153,1149,1149,1149,1149,1149,1149,1149,1149,1149,1145,1145,1145,1145,1145,1145,1145,1145,1141,1141,1141,1141,1141,1141,1141,1145,1145,1145,1145,1145,1145,1145,1141,1138,1138,1138,1138,1138,1138,1138,1138,1138,1138,1138,1138,1138,1134,1134,1134,1134,1134,1134,1134,1134,1134,1134,1134,1134,1130,1130,1130,1130,1130,1130,1130,1130,1130,1130,1130,1130,1130,1126,1126,1130,1130,1126,1126,1126,1126,1123,1123,1123,1123,1123,1123,1123,1123,1123,1123,1123,1123,1123,1123,1123,1119,1119,1119,1119,1119,1119,1119,1119,1119,1119,1119,1119,1115,1115,1112,1112,1112,1112,1112,1108,1108,1108,1108,1108,1105,1105,1101,1101,1101,1097,1097,1105,1108,1108,1108,1108,1108,1108,1108,1105,1105,1101,1101,1105,1105,1105,1108,1105,1105,1105,1105,1105,1105,1101,1101,1101,1101,1101,1101,1094,1090,1090,1105,1094,1094,1101,1101,1101,1101,1101,1101,1105,1054,1054,1054,1054,1054,1050,1050,1050,1050,1050,1050,1050,1050,1050,1050,1050,1050,1050,1054,1094,1090,1090,1090,1090,1090,1090,1090,1090,1087,1087,1087,1090,1090,0,0,0,813,811,811,811,811,811,811,811,811,811,811,811,811,811,809,809,807,807,807,807,807,807,805,805,805,807,807,805,805,805,805,805,805,805,0,0,0,0,0,0,0,0,0,0,0,0,0,0,0,0,0,0,0,0,0,0,0,0,0,0,0,0,0,0,0,0,0,0,0,0,0,0
0,0,0,0,0,0,0,1264,1264,1264,1264,1264,1259,1259,1259,1255,1255,1255,1255,1250,1250,1255,1250,1250,1250,1250,1245,1245,1245,1241,1241,1245,1245,1250,1250,1255,1255,1255,1250,1250,1250,1250,1250,1245,1245,1245,1245,1245,1245,1245,1245,1245,1245,1245,1245,1245,1245,1241,1241,1241,1241,1241,1241,1236,1236,1232,1232,1236,1236,1236,1236,1241,1241,1241,1241,1241,1236,1236,1236,1236,1236,1232,1232,1232,1232,1232,1232,1232,1232,1236,1236,1241,1236,1236,1232,1232,1227,1227,1227,1123,1119,1115,1115,1115,1115,1115,1115,1115,1119,1119,1123,1123,1123,1126,1126,1130,1130,1134,1138,1138,1223,1223,1219,1219,1223,1223,1214,1214,0,0,0,0,0,0,0,0,778,774,769,766,762,762,762,762,762,762,762,762,764,766,767,769,771,771,773,773,773,774,774,774,774,774,774,0,0,0,0,0,0,1210,1206,1206,1202,1202,1206,1206,1206,1206,1206,1206,1206,1206,1202,1202,1202,1202,1202,1202,1202,1202,1202,1202,1202,1202,1202,1202,1197,1197,1197,1197,1197,1197,1197,1197,1197,1197,1193,1193,1193,1197,1197,1197,1193,1193,1189,1189,1189,1185,1185,1185,1189,1189,1189,1189,1189,1189,1189,1189,1189,1189,1185,1185,1185,1185,1185,1185,1185,1185,1185,1185,1185,1004,1001,1001,998,998,995,992,989,987,984,978,975,970,967,964,964,962,959,956,956,956,954,954,951,951,951,948,948,948,948,948,948,951,951,951,951,951,951,951,954,954,954,954,956,956,956,959,959,962,964,964,964,967,967,967,970,973,973,975,975,978,978,981,981,981,984,987,987,987,1165,1165,1165,1165,1161,1161,1161,1161,1161,1161,1161,1161,1161,1165,1165,1165,1165,1165,1165,1165,1161,1161,1157,1157,1157,1161,1161,1161,1157,1157,1157,1161,1165,1080,1080,1080,1080,1077,1073,1073,1073,1073,1073,1077,1077,1077,1080,1080,1080,1080,1080,1080,1080,1153,1149,1149,1149,1149,1149,1149,1149,1145,1145,1145,1145,1145,1141,1141,1141,1141,1141,1141,1141,1141,1141,1141,1138,1138,1141,1141,1141,1141,1141,1141,1141,1141,1141,1141,1138,1138,1134,1134,1134,1134,1134,1134,1134,1138,1138,1134,1134,1134,1134,1134,1130,1130,1130,1130,1130,1134,1134,1134,1130,1130,1130,1126,1126,1126,1126,1126,1126,1126,1126,1126,1126,1126,1126,1126,1126,1126,1126,1123,1123,1123,1123,1123,1123,1119,1119,1119,1123,1123,1119,1119,1119,1119,1119,1119,1119,1119,1115,1115,1115,1115,1115,1115,1115,1115,1115,1115,1115,1112,1112,1108,1108,1108,1108,1108,1108,1108,1108,1105,1105,1105,1101,1097,1097,1094,1094,1094,1094,1097,1108,1108,1108,1108,1108,1105,1105,1101,1097,1097,1097,1094,1094,1094,1105,1105,1101,1094,1094,1101,1094,1084,1084,1084,1084,1080,1073,1070,1070,1067,1067,1067,1067,1067,1067,1063,1063,1060,1060,1057,1054,1054,1054,1054,1054,1050,1050,1050,1050,1047,1047,1050,1050,1050,1050,1050,1050,1050,1050,1050,1054,1087,1087,1090,1090,1090,1090,1087,1087,1084,1084,0,0,0,0,0,813,811,811,811,811,811,811,811,811,811,811,811,811,811,809,809,807,807,807,807,807,807,807,807,807,807,807,807,805,805,807,807,807,807,0,0,0,0,0,0,0,0,0,0,0,0,0,0,0,0,0,0,0,0,0,0,0,0,0,0,0,0,0,0,0,0,0,0,0,0,0,0
0,0,0,0,0,0,0,1264,1259,1259,1259,1259,1255,1255,1255,1255,1250,1250,1255,1250,1250,1250,1250,1250,1250,1245,1245,1245,1245,1241,1241,1245,1245,1245,1245,1250,1250,1250,1250,1250,1250,1250,1245,1245,1245,1245,1241,1241,1241,1241,1241,1241,1241,1241,1236,1236,1236,1236,1236,1236,1236,1236,1236,1232,1232,1232,1232,1232,1232,1232,1232,1232,1236,1236,1236,1236,1236,1236,1232,1232,1232,1232,1232,1232,1232,1227,1227,1227,1227,1232,1232,1232,1232,1232,1227,1227,1227,1227,1227,1130,1119,1119,1115,1115,1115,1115,1119,1119,1119,1119,1123,1123,1123,1126,1126,1130,1130,1134,1138,1138,1223,1219,1219,1219,1219,1219,1214,1214,0,0,0,0,0,0,0,0,0,774,769,764,762,762,762,762,762,762,762,764,766,767,767,769,771,771,773,773,773,774,774,774,774,776,776,776,0,0,0,0,0,1210,1202,1202,1202,1202,1202,1197,1197,1202,1202,1202,1202,1202,1202,1197,1197,1197,1197,1197,1197,1197,1197,1197,1197,1197,1197,1197,1197,1197,1197,1197,1197,1197,1197,1193,1193,1193,1193,1193,1193,1193,1193,1193,1189,1189,1189,1189,1185,1185,1185,1185,1185,1185,1185,1185,1185,1185,1185,1185,1185,1185,1181,1181,1185,1181,1181,1181,1181,1181,1181,1181,1181,1181,1177,1001,998,995,995,992,989,989,987,978,975,970,967,964,964,962,959,956,954,954,951,951,951,948,948,948,946,946,946,946,946,946,948,948,948,948,948,951,951,954,954,954,956,956,956,959,962,962,964,964,964,967,967,970,970,973,975,975,975,978,978,981,981,981,987,987,987,1161,1161,1161,1161,1161,1157,1157,1157,1157,1157,1157,1157,1157,1157,1157,1161,1161,1161,1161,1161,1161,1157,1157,1157,1153,1153,1153,1157,1153,1153,1157,1157,1157,1165,1087,1087,1084,1080,1080,1077,1077,1077,1077,1077,1077,1077,1080,1080,1080,1084,1084,1084,1084,1084,1153,1145,1145,1145,1141,1141,1145,1145,1145,1141,1141,1141,1141,1138,1138,1138,1138,1138,1138,1138,1138,1138,1138,1138,1138,1138,1138,1138,1138,1138,1138,1138,1134,1134,1134,1138,1134,1134,1134,1134,1134,1134,1134,1134,1134,1134,1134,1130,1130,1130,1130,1126,1126,1126,1126,1126,1130,1130,1130,1126,1126,1126,1126,1123,1123,1123,1123,1123,1123,1123,1123,1123,1123,1123,1123,1123,1123,1123,1123,1123,1123,1119,1119,1119,1119,1119,1119,1119,1119,1119,1119,1115,1115,1115,1112,1112,1112,1112,1112,1112,1112,1112,1112,1112,1112,1112,1108,1105,1101,1101,1101,1101,1101,1101,1101,1105,1105,1101,1101,1101,1101,1097,1094,1094,1094,1094,1094,1094,1094,1097,1101,1101,1101,1101,1101,1097,1094,1094,1094,1094,1090,1090,1090,1090,1094,1094,1087,1087,1101,1094,1084,1080,1080,1080,1073,1070,1070,1070,1067,1067,1067,1067,1063,1063,1060,1060,1060,1057,1054,1054,1054,1054,1054,1054,1050,1050,1050,1050,1047,1047,1050,1050,1050,1050,1050,1050,1050,1050,1050,1054,1067,1070,1077,1084,1087,1087,1087,1084,1084,1084,0,0,0,813,813,813,811,811,811,811,811,811,811,811,811,811,811,811,811,809,809,809,809,807,807,807,807,807,807,807,807,807,807,805,805,807,807,807,807,0,0,0,0,0,0,0,0,0,0,0,0,0,0,0,0,0,0,0,0,0,0,0,0,0,0,0,0,0,0,0,0,0,0,0,0,0,0
0,0,0,0,0,0,0,1259,1255,1255,1255,1255,1255,1250,1250,1250,1250,1250,1250,1250,1250,1250,1250,1250,1245,1245,1245,1245,1245,1245,1245,1245,1245,1245,1245,1245,1245,1245,1245,1245,1245,1241,1241,1241,1241,1241,1241,1241,1241,1236,1236,1236,1236,1232,1232,1232,1232,1232,1232,1232,1232,1232,1232,1232,1232,1232,1227,1227,1227,1227,1227,1227,1227,1227,1227,1232,1232,1232,1232,1232,1232,1227,1227,1227,1227,1227,1227,1227,1227,1227,1223,1223,1223,1223,1223,1223,1223,1223,1223,1223,1119,1119,1115,1115,1115,1115,1119,1119,1119,1119,1123,1123,1123,1126,1126,1130,1130,1134,1134,1134,1219,1219,1214,1214,1214,1214,1214,1214,1214,0,0,0,0,0,0,0,0,0,767,764,762,762,762,762,762,762,762,764,766,767,769,769,771,771,773,773,773,774,776,776,776,776,776,776,0,0,0,0,0,0,1202,1202,1197,1197,1197,1197,1197,1197,1197,1197,1197,1197,1197,1197,1197,1197,1197,1197,1197,1197,1193,1193,1193,1193,1193,1193,1193,1193,1193,1193,1193,1193,1193,1193,1193,1193,1189,1189,1189,1189,1189,1189,1185,1185,1185,1185,1185,1181,1181,1181,1181,1185,1181,1181,1181,1181,1181,1185,1181,1181,1181,1181,1181,1181,1181,1181,1181,1177,1177,1177,1177,1177,1173,1169,998,995,989,989,989,989,987,984,978,973,970,967,962,962,954,954,951,948,948,948,946,946,946,946,943,943,943,943,943,943,943,943,946,948,948,948,951,954,954,954,956,956,956,959,962,962,964,964,964,967,967,970,973,975,975,975,975,978,978,981,981,981,987,989,1153,1161,1157,1157,1157,1157,1157,1153,1153,1153,1153,1153,1153,1153,1153,1153,1153,1157,1157,1157,1157,1157,1153,1153,1153,1153,1149,1149,1153,1149,1149,1149,1149,1149,1161,1087,1087,1087,1084,1080,1077,1077,1077,1077,1077,1077,1080,1080,1080,1080,1084,1084,1084,1084,1084,1145,1145,1141,1141,1141,1141,1141,1141,1141,1141,1141,1138,1138,1138,1138,1138,1138,1138,1138,1134,1134,1134,1134,1134,1138,1134,1134,1134,1134,1134,1134,1134,1134,1130,1130,1130,1130,1134,1134,1134,1134,1134,1130,1130,1130,1130,1130,1126,1126,1126,1126,1126,1123,1123,1123,1126,1126,1126,1126,1123,1123,1123,1123,1123,1123,1123,1123,1123,1123,1119,1119,1119,1119,1119,1119,1119,1119,1119,1119,1119,1119,1119,1119,1119,1119,1119,1119,1119,1115,1115,1115,1112,1108,1108,1108,1108,1108,1108,1108,1108,1108,1108,1112,1108,1105,1101,1097,1094,1094,1094,1094,1094,1097,1097,1097,1101,1097,1097,1097,1097,1097,1097,1094,1094,1094,1094,1090,1090,1090,1094,1094,1094,1094,1094,1094,1090,1087,1087,1087,1090,1087,1087,1084,1084,1084,1084,1080,1080,1090,1080,1080,1077,1077,1077,1070,1070,1067,1067,1063,1063,1067,1067,1063,1060,1060,1060,1060,1057,1054,1054,1054,1054,1054,1054,1050,1050,1050,1047,1047,1047,1050,1050,1050,1050,1050,1050,1050,1050,1050,1054,1063,1067,1070,1080,1080,1080,1080,1084,1084,0,0,0,813,813,813,811,811,811,811,811,811,811,811,811,811,811,811,811,811,809,809,809,809,807,807,807,807,807,807,807,807,807,807,807,807,807,807,807,807,0,0,0,0,0,0,0,0,0,0,0,0,0,0,0,0,0,0,0,0,0,0,0,0,0,0,0,0,0,0,0,0,0,0,0,0,0,0
0,0,0,0,0,0,0,1255,1255,1255,1255,1255,1250,1250,1250,1250,1250,1250,1250,1250,1250,1250,1245,1245,1245,1241,1241,1241,1241,1241,1241,1241,1241,1241,1241,1241,1241,1241,1241,1241,1241,1236,1236,1236,1236,1236,1236,1236,1236,1236,1232,1232,1232,1232,1227,1227,1227,1232,1232,1232,1232,1232,1232,1232,1227,1227,1227,1227,1227,1227,1227,1227,1223,1223,1223,1227,1227,1227,1227,1227,1227,1227,1227,1227,1227,1227,1227,1223,1223,1223,1219,1219,1219,1219,1219,1223,1223,1223,1223,1223,1223,1119,1115,1115,1115,1115,1119,1119,1119,1119,1123,1123,1123,1126,1130,1130,1130,1134,1134,1134,1214,1214,1214,1214,1214,1214,1214,1214,1214,0,0,0,0,0,0,0,0,785,767,764,762,762,762,762,762,762,762,764,767,767,769,771,771,773,773,773,773,774,776,776,778,778,778,778,0,0,0,0,0,0,1197,1197,1197,1197,1197,1197,1193,1193,1197,1197,1197,1197,1197,1197,1193,1193,1193,1193,1193,1193,1193,1193,1193,1193,1189,1189,1189,1189,1189,1189,1189,1189,1189,1189,1189,1189,1189,1185,1185,1185,1185,1181,1181,1181,1181,1181,1181,1181,1181,1181,1181,1181,1181,1181,1181,1181,1181,1181,1181,1181,1181,1181,1181,1181,1177,1177,1177,1177,1177,1177,1177,1173,1169,1169,1165,1165,989,989,989,989,987,984,978,973,970,964,962,948,946,946,946,946,946,946,946,946,943,943,943,943,943,943,943,943,943,943,946,946,948,948,951,951,951,954,956,956,956,959,962,962,964,964,964,967,967,970,973,975,978,978,978,978,978,981,981,1149,1149,1149,1149,1157,1157,1157,1153,1153,1153,1153,1153,1153,1153,1153,1153,1149,1149,1153,1153,1153,1153,1153,1153,1153,1149,1149,1149,1149,1149,1149,1149,1149,1149,1149,1149,1145,1145,1090,1090,1087,1087,1084,1080,1080,1080,1080,1080,1080,1080,1080,1084,1084,1087,1087,1087,1087,1087,1090,1141,1138,1138,1138,1138,1138,1138,1138,1138,1138,1138,1138,1134,1134,1134,1134,1134,1134,1130,1130,1134,1134,1134,1134,1134,1134,1130,1130,1130,1130,1130,1130,1126,1126,1126,1126,1126,1126,1126,1130,1130,1126,1126,1126,1126,1126,1123,1123,1123,1123,1123,1123,1123,1123,1123,1123,1123,1123,1123,1123,1123,1123,1119,1119,1119,1119,1119,1119,1119,1119,1119,1119,1119,1119,1119,1115,1115,1115,1115,1115,1115,1115,1115,1115,1115,1115,1115,1115,1112,1112,1108,1108,1108,1105,1105,1105,1108,1108,1108,1108,1108,1105,1105,1097,1097,1094,1094,1094,1094,1094,1094,1094,1094,1094,1097,1094,1094,1094,1094,1094,1094,1090,1090,1090,1090,1090,1090,1090,1090,1090,1090,1090,1087,1087,1090,1084,1084,1084,1084,1084,1084,1080,1080,1080,1080,1080,1077,1077,1077,1077,1077,1077,1073,1070,1070,1067,1067,1063,1063,1067,1063,1063,1060,1060,1060,1060,1057,1054,1054,1054,1054,1054,1054,1050,1050,1050,1047,1047,1047,1050,1050,1050,1050,1050,1050,1050,1054,1054,1054,1060,1063,1067,1067,1077,1080,1080,1080,0,0,0,813,813,813,811,811,811,811,811,811,811,811,811,811,811,811,811,811,811,809,809,809,809,809,807,807,807,807,807,807,807,807,809,807,807,807,807,807,809,0,0,0,0,0,0,0,0,0,0,0,0,0,0,0,0,0,0,0,0,0,0,0,0,0,0,0,0,0,0,0,0,0,0,0,0,0,0
0,0,0,0,0,0,0,1250,1250,1250,1250,1250,1250,1250,1250,1250,1250,1245,1245,1245,1245,1241,1241,1241,1241,1241,1236,1236,1236,1236,1236,1236,1236,1236,1236,1236,1236,1236,1236,1236,1236,1232,1232,1232,1232,1232,1232,1232,1232,1232,1227,1227,1227,1227,1227,1227,1227,1227,1227,1227,1227,1227,1227,1227,1227,1227,1227,1227,1223,1223,1223,1223,1223,1219,1219,1223,1223,1223,1223,1223,1223,1223,1223,1223,1223,1223,1223,1223,1223,1219,1219,1219,1219,1219,1219,1219,1219,1219,1219,1219,1219,1119,1115,1115,1115,1119,1119,1119,1119,1123,1123,1123,1123,1126,1130,1130,1130,1130,1130,1130,1130,1214,1210,1210,1210,1210,1210,1210,1214,0,0,0,0,0,0,0,787,785,785,785,762,762,764,764,764,764,764,766,767,769,769,771,773,773,773,773,773,774,776,776,778,778,778,778,780,0,0,0,0,0,1197,1197,1197,1197,1197,1193,1193,1193,1193,1193,1193,1193,1193,1193,1193,1193,1193,1193,1193,1193,1193,1189,1189,1189,1185,1185,1185,1185,1185,1185,1185,1185,1185,1185,1185,1185,1181,1181,1181,1181,1181,1181,1181,1181,1181,1181,1181,1181,1181,1181,1181,1177,1177,1181,1177,1177,1177,1177,1177,1177,1181,1181,1181,1181,1177,1177,1177,1177,1173,1173,1173,1173,1169,1169,1165,1165,1165,1165,1161,989,989,987,933,933,935,935,935,935,938,940,943,943,943,943,943,943,943,943,943,940,940,940,943,943,943,943,946,946,948,948,951,951,951,954,956,956,956,959,962,964,964,964,964,967,967,970,973,975,978,978,978,978,978,1149,1149,1149,1149,1149,1149,1153,1153,1153,1153,1153,1153,1153,1153,1153,1153,1149,1149,1149,1149,1149,1149,1149,1149,1149,1149,1145,1145,1145,1145,1145,1145,1145,1145,1145,1145,1149,1145,1145,1097,1090,1090,1090,1090,1084,1084,1080,1080,1080,1080,1080,1080,1084,1084,1087,1087,1090,1090,1090,1090,1090,1138,1134,1134,1134,1134,1134,1134,1134,1134,1134,1134,1134,1134,1130,1130,1130,1126,1126,1126,1126,1130,1130,1130,1130,1130,1126,1126,1126,1126,1126,1126,1123,1123,1123,1123,1126,1126,1123,1123,1123,1123,1123,1123,1123,1123,1123,1123,1119,1119,1123,1123,1119,1119,1119,1119,1119,1119,1119,1119,1119,1119,1119,1119,1119,1119,1119,1119,1115,1115,1115,1115,1115,1115,1115,1112,1112,1112,1112,1112,1112,1112,1112,1112,1112,1112,1112,1112,1112,1108,1108,1105,1105,1105,1105,1101,1101,1101,1101,1101,1105,1105,1101,1101,1097,1097,1094,1094,1094,1094,1094,1094,1094,1094,1094,1094,1094,1094,1094,1094,1094,1090,1090,1090,1090,1090,1087,1087,1087,1090,1087,1087,1087,1084,1084,1084,1084,1080,1080,1080,1080,1080,1080,1080,1080,1080,1077,1077,1077,1077,1073,1073,1073,1070,1070,1070,1067,1067,1067,1067,1063,1063,1063,1063,1060,1060,1060,1057,1057,1054,1054,1054,1054,1054,1050,1050,1050,1050,1050,1050,1050,1050,1050,1050,1050,1054,1054,1054,1054,1057,1060,1063,1063,1067,1067,1067,1080,1080,0,0,0,811,811,811,811,811,811,811,811,811,811,811,811,811,811,811,811,811,811,809,809,809,809,809,807,807,807,807,807,807,807,809,809,807,807,807,807,809,809,0,0,0,0,0,0,0,0,0,0,0,0,0,0,0,0,0,0,0,0,0,0,0,0,0,0,0,0,0,0,0,0,0,0,0,0,0,0
0,0,0,0,0,0,0,1245,1245,1245,1245,1245,1245,1245,1245,1245,1245,1245,1241,1241,1241,1236,1236,1236,1236,1236,1236,1236,1236,1236,1236,1236,1236,1236,1236,1232,1232,1232,1232,1232,1232,1232,1232,1232,1227,1227,1227,1227,1223,1223,1223,1223,1223,1223,1223,1223,1223,1223,1227,1223,1223,1227,1223,1223,1227,1223,1223,1223,1223,1223,1219,1214,1214,1214,1219,1219,1219,1223,1219,1219,1223,1219,1219,1214,1214,1214,1214,1219,1219,1214,1214,1214,1214,1214,1214,1214,1214,1214,1214,1214,1214,1219,1119,1119,1119,1119,1123,1119,1119,1123,1123,1123,1123,1126,1130,1130,1130,1130,1130,1130,1130,1210,1210,1210,1210,1206,1206,1210,0,0,0,0,0,0,0,0,787,785,785,785,781,767,767,766,766,766,766,767,769,769,771,771,773,773,773,773,774,774,776,778,778,780,780,780,780,781,0,0,0,0,0,1197,1193,1193,1193,1189,1189,1189,1189,1189,1189,1189,1193,1193,1189,1189,1189,1189,1189,1189,1189,1185,1185,1185,1181,1181,1185,1181,1181,1181,1181,1181,1181,1181,1181,1181,1181,1177,1177,1177,1177,1177,1177,1177,1177,1177,1177,1177,1177,1177,1177,1177,1177,1177,1173,1173,1173,1177,1173,1173,1177,1177,1177,1177,1177,1177,1177,1173,1173,1169,1169,1169,1169,1165,1165,1165,1165,1165,1161,1161,1161,933,933,933,933,935,935,935,935,938,938,940,940,940,940,940,940,940,940,938,938,938,940,940,940,943,946,946,948,948,951,951,954,954,956,956,959,959,962,964,964,964,964,967,967,970,973,975,978,978,978,978,1141,1141,1145,1145,1145,1145,1145,1153,1153,1153,1149,1149,1149,1149,1149,1149,1149,1149,1149,1145,1145,1145,1145,1145,1145,1141,1141,1141,1141,1141,1141,1141,1141,1141,1145,1145,1145,1145,1145,1108,1097,1094,1094,1094,1090,1087,1084,1084,1080,1080,1080,1080,1084,1084,1084,1087,1087,1090,1090,1090,1090,1090,1130,1130,1130,1130,1130,1130,1134,1134,1130,1130,1130,1130,1130,1126,1123,1123,1123,1123,1123,1123,1123,1126,1126,1126,1126,1126,1123,1123,1123,1123,1123,1123,1123,1123,1123,1123,1123,1123,1123,1123,1119,1119,1119,1119,1119,1119,1119,1119,1119,1119,1119,1119,1119,1119,1119,1115,1115,1115,1115,1115,1115,1115,1115,1115,1115,1115,1115,1115,1115,1112,1112,1112,1112,1112,1108,1108,1108,1108,1108,1108,1108,1108,1108,1108,1108,1108,1108,1108,1108,1105,1105,1105,1101,1101,1101,1101,1097,1097,1097,1097,1097,1097,1097,1097,1094,1094,1094,1094,1094,1094,1094,1090,1090,1094,1094,1090,1090,1090,1090,1090,1090,1090,1090,1090,1090,1087,1087,1087,1087,1087,1087,1084,1084,1084,1080,1080,1080,1080,1080,1080,1080,1080,1080,1080,1077,1077,1077,1077,1077,1073,1073,1073,1070,1070,1067,1067,1067,1067,1067,1063,1063,1063,1063,1060,1060,1060,1057,1057,1054,1054,1054,1054,1054,1050,1050,1050,1050,1050,1050,1054,1054,1054,1054,1054,1054,1054,1057,1057,1060,1060,1063,1063,1063,1067,1067,1067,1067,0,0,811,811,811,811,811,811,811,811,811,811,811,811,811,811,811,811,811,811,811,811,811,811,811,809,809,809,809,809,809,809,809,809,809,811,809,809,809,809,809,0,0,0,0,0,0,0,0,0,0,0,0,0,0,0,0,0,0,0,0,0,0,0,0,0,0,0,0,0,0,0,0,0,0,0,0,0,0
0,0,0,0,0,0,0,1241,1241,1241,1236,1236,1236,1236,1241,1236,1236,1236,1236,1236,1236,1232,1232,1232,1232,1232,1232,1232,1232,1232,1232,1232,1232,1232,1232,1232,1232,1232,1232,1227,1227,1227,1227,1227,1223,1223,1223,1223,1219,1219,1219,1219,1219,1219,1219,1219,1219,1219,1223,1223,1223,1223,1223,1223,1223,1223,1223,1223,1219,1219,1219,1214,1214,1214,1214,1214,1219,1219,1214,1214,1219,1214,1214,1214,1214,1214,1210,1210,1210,1210,1210,1210,1210,1210,1210,1210,1210,1210,1210,1210,1210,1214,1123,1123,1123,1123,1123,1123,1123,1123,1126,1126,1126,1126,1130,1130,1130,1130,1130,1130,1130,1210,1206,1206,1206,1202,1197,1197,0,0,0,0,0,0,0,0,787,785,785,783,783,774,769,767,767,767,767,769,769,769,771,771,773,773,773,773,774,778,778,778,780,781,781,781,781,781,0,0,0,0,0,0,1193,1189,1189,1185,1185,1185,1185,1185,1185,1185,1185,1189,1189,1185,1185,1185,1185,1185,1185,1181,1181,1181,1181,1181,1181,1181,1181,1181,1181,1181,1181,1177,1177,1177,1177,1177,1177,1177,1177,1177,1177,1177,1177,1173,1173,1177,1177,1177,1177,1173,1173,1173,1169,1169,1169,1169,1169,1169,1173,1173,1173,1173,1173,1173,1173,1169,1169,1169,1165,1165,1165,1165,1165,1165,1165,1165,1165,1165,930,930,930,933,933,933,933,933,935,935,938,938,940,940,940,940,940,940,940,938,938,938,940,940,940,943,943,946,948,948,954,954,954,954,956,956,959,959,962,964,964,964,964,967,967,970,970,978,981,1138,1138,1138,1138,1138,1141,1145,1145,1145,1145,1149,1149,1149,1149,1149,1149,1149,1149,1145,1145,1145,1145,1145,1145,1145,1141,1141,1141,1138,1138,1138,1138,1138,1138,1138,1138,1138,1141,1141,1141,1141,1141,1108,1101,1097,1097,1097,1094,1090,1090,1084,1084,1084,1084,1084,1084,1084,1087,1087,1090,1090,1090,1090,1094,1094,1115,1123,1126,1126,1126,1130,1130,1130,1126,1126,1126,1126,1123,1123,1123,1123,1123,1123,1123,1123,1123,1123,1123,1123,1123,1123,1123,1123,1123,1123,1123,1119,1119,1119,1119,1123,1123,1119,1119,1119,1119,1119,1115,1115,1115,1115,1115,1112,1112,1115,1119,1115,1115,1115,1115,1115,1115,1115,1115,1115,1115,1115,1115,1115,1115,1115,1112,1112,1108,1108,1108,1108,1108,1108,1105,1105,1105,1108,1105,1105,1105,1105,1105,1105,1105,1105,1105,1105,1105,1101,1101,1101,1101,1101,1097,1097,1097,1097,1094,1094,1094,1094,1094,1094,1094,1090,1090,1090,1090,1090,1090,1090,1090,1090,1090,1090,1090,1090,1090,1090,1087,1087,1087,1087,1087,1087,1087,1087,1087,1087,1084,1084,1080,1080,1080,1080,1080,1080,1080,1077,1077,1077,1077,1077,1077,1077,1077,1077,1073,1073,1073,1070,1070,1070,1067,1067,1067,1067,1067,1063,1063,1063,1063,1060,1060,1060,1057,1057,1057,1057,1057,1054,1054,1054,1054,1054,1054,1054,1054,1054,1054,1057,1057,1057,1057,1057,1060,1060,1060,1063,1063,1063,1063,1067,1067,1067,1067,0,0,811,811,811,811,811,811,811,811,811,811,811,811,811,811,811,811,811,811,811,811,811,811,811,809,809,809,809,809,809,809,809,809,811,811,809,809,809,809,809,0,0,0,0,0,0,0,0,0,0,0,0,0,0,0,0,0,0,0,0,0,0,0,0,0,0,0,0,0,0,0,0,0,0,0,0,0,0
0,0,0,0,0,0,0,1241,1241,1236,1236,1236,1232,1232,1232,1232,1232,1232,1232,1232,1232,1227,1227,1232,1232,1227,1227,1232,1232,1232,1227,1227,1227,1232,1232,1227,1227,1227,1227,1227,1223,1223,1223,1223,1219,1219,1219,1219,1219,1219,1219,1219,1214,1214,1214,1219,1214,1214,1219,1219,1219,1219,1219,1219,1219,1219,1219,1219,1219,1219,1214,1214,1214,1214,1210,1210,1214,1214,1210,1210,1214,1210,1210,1210,1210,1210,1210,1210,1210,1210,1210,1206,1206,1206,1210,1210,1210,1210,1210,1206,1206,1210,1130,1126,1126,1126,1123,1123,1123,1123,1126,1126,1126,1126,1130,1130,1130,1130,1130,1130,1130,1206,1206,1202,1202,1197,1193,1193,0,0,0,0,0,0,0,0,787,783,783,783,781,778,771,769,767,767,767,769,769,769,771,773,773,773,773,774,776,778,778,780,780,781,781,781,781,783,783,0,0,0,0,0,1193,1185,1185,1181,1181,1181,1181,1181,1181,1181,1181,1181,1181,1181,1181,1181,1181,1181,1181,1181,1181,1181,1181,1181,1181,1177,1177,1177,1177,1177,1177,1177,1177,1173,1173,1173,1173,1173,1173,1173,1173,1173,1173,1173,1173,1173,1173,1173,1173,1173,1169,1169,1169,1165,1165,1165,1165,1165,1165,1165,1165,1165,1169,1169,1169,1165,1165,1165,1165,1165,1165,1165,1165,1165,1161,1161,1165,928,928,928,928,930,933,933,933,933,933,935,935,935,938,938,938,938,938,938,938,935,935,938,938,938,938,940,943,946,946,948,954,954,954,954,956,956,956,959,962,964,964,964,964,967,967,970,970,1138,1138,1138,1138,1138,1134,1134,1138,1138,1138,1141,1141,1145,1145,1145,1145,1145,1145,1145,1145,1141,1141,1141,1141,1141,1141,1141,1138,1138,1138,1138,1138,1134,1134,1134,1134,1134,1134,1134,1138,1138,1138,1138,1138,1134,1108,1105,1105,1097,1097,1094,1090,1090,1084,1084,1084,1084,1087,1087,1087,1087,1090,1090,1090,1094,1094,1094,1112,1123,1123,1123,1126,1126,1126,1123,1123,1123,1123,1123,1123,1123,1123,1119,1119,1119,1119,1119,1119,1119,1119,1123,1123,1123,1123,1119,1119,1119,1119,1119,1119,1119,1119,1119,1119,1119,1119,1119,1119,1115,1115,1115,1112,1112,1112,1112,1108,1108,1112,1112,1112,1112,1112,1112,1112,1112,1112,1112,1108,1108,1108,1108,1108,1108,1108,1108,1108,1105,1105,1105,1105,1105,1105,1105,1105,1105,1105,1105,1105,1105,1105,1101,1101,1101,1101,1101,1101,1097,1097,1097,1097,1097,1097,1094,1094,1094,1094,1094,1094,1090,1090,1090,1090,1090,1090,1090,1090,1090,1090,1087,1087,1090,1090,1090,1087,1087,1087,1087,1084,1084,1084,1084,1084,1084,1084,1084,1084,1084,1080,1080,1080,1080,1077,1077,1077,1077,1077,1077,1077,1077,1077,1077,1077,1073,1073,1073,1073,1073,1070,1070,1070,1070,1067,1067,1067,1067,1067,1063,1063,1063,1063,1060,1060,1060,1060,1057,1057,1057,1057,1057,1057,1054,1054,1057,1057,1054,1054,1057,1057,1057,1057,1057,1057,1060,1060,1063,1063,1063,1063,1063,1067,1067,1067,1067,1067,1057,0,811,811,811,811,811,811,811,811,811,811,811,811,811,811,811,811,811,811,809,809,811,811,811,809,809,809,809,809,809,809,809,811,811,811,809,809,811,809,809,0,0,0,0,0,0,0,0,0,0,0,0,0,0,0,0,0,0,0,0,0,0,0,0,0,0,0,0,0,0,0,0,0,0,0,0,0,0
0,0,0,0,0,0,0,1236,1236,1236,1232,1232,1232,1232,1227,1227,1227,1227,1223,1223,1223,1227,1227,1227,1227,1227,1227,1227,1227,1227,1227,1227,1227,1227,1227,1227,1223,1223,1223,1223,1219,1219,1219,1219,1219,1219,1214,1214,1214,1214,1214,1214,1214,1214,1214,1214,1214,1214,1214,1214,1214,1219,1214,1214,1214,1214,1214,1214,1214,1214,1214,1214,1210,1210,1210,1210,1210,1210,1210,1210,1210,1210,1210,1210,1210,1210,1206,1206,1206,1206,1206,1202,1202,1202,1206,1202,1202,1202,1202,1202,1202,1202,1202,1130,1126,1126,1126,1126,1126,1126,1126,1126,1126,1130,1130,1130,1130,1134,1130,1130,1130,1206,1202,1197,1189,1189,1189,1189,0,0,0,0,0,0,0,0,0,783,783,781,781,778,774,771,769,769,769,769,771,771,773,773,774,774,774,774,778,778,780,781,781,781,781,781,785,783,783,0,0,0,0,0,0,1181,1181,1181,1181,1181,1181,1181,1177,1177,1177,1177,1177,1177,1177,1177,1177,1177,1177,1177,1177,1177,1177,1177,1177,1177,1177,1177,1177,1177,1177,1173,1173,1169,1169,1169,1169,1169,1169,1169,1169,1169,1169,1169,1169,1169,1169,1169,1169,1165,1165,1165,1165,1165,1165,1165,1165,1165,1161,1161,1161,1161,1161,1161,1165,1165,1165,1165,1165,1165,1161,1161,1165,1165,1161,1161,925,925,928,928,928,930,930,930,930,930,933,933,933,933,935,935,935,935,935,935,935,935,935,935,938,938,938,940,943,946,946,951,954,954,954,954,956,956,956,959,962,964,964,964,964,967,970,970,1134,1134,1134,1134,1134,1138,1134,1134,1138,1138,1138,1138,1141,1141,1141,1141,1141,1141,1141,1141,1141,1141,1141,1141,1141,1138,1138,1138,1138,1138,1138,1134,1134,1134,1134,1134,1134,1134,1134,1134,1134,1138,1134,1134,1134,1130,1115,1112,1105,1101,1097,1094,1094,1090,1090,1087,1084,1084,1087,1087,1087,1090,1090,1090,1090,1094,1094,1094,1112,1119,1119,1123,1123,1123,1123,1123,1123,1123,1123,1123,1119,1119,1119,1119,1119,1119,1119,1119,1119,1119,1119,1119,1119,1119,1119,1119,1119,1119,1119,1115,1115,1119,1119,1119,1119,1115,1115,1115,1115,1112,1112,1112,1112,1112,1108,1108,1108,1108,1108,1108,1108,1108,1108,1108,1108,1108,1108,1108,1108,1108,1108,1108,1108,1105,1105,1105,1105,1105,1101,1101,1101,1101,1101,1101,1101,1101,1101,1101,1101,1101,1101,1097,1097,1097,1097,1097,1097,1094,1094,1094,1094,1094,1094,1094,1094,1094,1094,1090,1090,1090,1090,1090,1090,1090,1087,1087,1087,1087,1087,1087,1087,1087,1087,1087,1087,1087,1087,1087,1084,1084,1084,1084,1084,1084,1084,1084,1084,1080,1080,1080,1080,1077,1077,1077,1077,1077,1077,1077,1077,1077,1077,1077,1077,1073,1073,1073,1073,1073,1070,1070,1070,1070,1067,1067,1067,1067,1067,1063,1063,1063,1063,1063,1060,1060,1060,1060,1060,1060,1060,1060,1060,1057,1057,1057,1060,1057,1057,1060,1060,1060,1060,1060,1060,1063,1063,1063,1063,1063,1063,1063,1067,1067,1067,1057,1057,1057,813,811,811,811,811,813,811,811,811,811,811,811,811,811,811,811,811,811,811,809,809,811,811,811,809,809,809,811,811,811,811,811,811,811,811,811,811,811,809,809,0,0,0,0,0,0,0,0,0,0,0,0,0,0,0,0,0,0,0,0,0,0,0,0,0,0,0,0,0,0,0,0,0,0,0,0,0,0
0,0,0,0,0,0,0,1232,1232,1232,1227,1227,1227,1227,1227,1227,1227,1223,1223,1223,1223,1223,1223,1223,1223,1223,1223,1223,1223,1223,1223,1223,1223,1223,1227,1223,1223,1223,1223,1219,1219,1219,1214,1214,1214,1214,1214,1214,1214,1214,1214,1214,1214,1214,1214,1214,1214,1214,1214,1214,1214,1214,1214,1214,1210,1210,1210,1214,1210,1210,1210,1210,1210,1210,1206,1206,1206,1210,1210,1206,1206,1206,1206,1206,1206,1206,1202,1202,1202,1202,1202,1197,1197,1197,1202,1202,1202,1197,1197,1197,1197,1193,1138,1134,1130,1130,1130,1126,1126,1126,1126,1126,1126,1130,1130,1134,1134,1134,1134,1134,1138,1206,1197,1189,1185,1185,1189,1189,0,0,0,0,0,0,0,0,0,783,783,781,781,778,774,773,769,769,769,769,771,771,773,773,774,774,774,776,778,780,780,781,781,783,783,783,785,785,785,0,0,0,0,0,0,1177,1177,1177,1177,1177,1177,1177,1177,1177,1173,1173,1177,1173,1173,1173,1177,1173,1173,1173,1173,1173,1173,1173,1173,1173,1173,1173,1173,1173,1173,1173,1173,1169,1169,1169,1169,1165,1165,1165,1165,1165,1165,1165,1165,1165,1165,1161,1161,1161,1161,1161,1161,1161,1161,1161,1161,1161,1161,1161,1161,1161,1161,1161,1161,1161,1161,1161,1161,1161,1161,1161,1161,1161,1161,925,925,925,925,925,925,928,928,928,928,928,930,930,930,930,930,930,933,933,935,935,935,935,935,935,935,938,938,940,943,946,946,948,951,954,954,954,956,956,959,959,962,964,964,964,967,1134,1134,1134,1134,1134,1134,1134,1134,1134,1134,1134,1138,1134,1134,1134,1138,1138,1138,1138,1138,1138,1138,1138,1138,1138,1138,1138,1138,1138,1138,1138,1134,1134,1134,1130,1130,1126,1126,1126,1130,1130,1126,1126,1130,1134,1130,1130,1130,1126,1123,1115,1108,1105,1101,1097,1094,1094,1090,1090,1090,1090,1090,1090,1090,1090,1090,1094,1094,1094,1094,1097,1108,1115,1119,1119,1119,1119,1119,1119,1119,1119,1119,1119,1119,1119,1119,1119,1119,1119,1119,1119,1119,1119,1119,1119,1119,1115,1115,1115,1115,1115,1115,1115,1115,1115,1115,1115,1115,1115,1115,1115,1112,1112,1108,1108,1108,1108,1108,1105,1105,1105,1105,1105,1105,1105,1105,1105,1105,1108,1108,1108,1105,1105,1105,1105,1105,1105,1105,1101,1101,1101,1097,1097,1097,1097,1097,1097,1097,1097,1097,1097,1097,1097,1097,1097,1094,1094,1094,1094,1094,1094,1094,1094,1094,1094,1094,1094,1090,1090,1090,1090,1090,1090,1090,1090,1087,1087,1087,1087,1084,1084,1084,1084,1084,1084,1084,1084,1080,1080,1084,1084,1084,1080,1080,1080,1080,1080,1080,1080,1080,1080,1080,1080,1077,1077,1077,1077,1077,1077,1077,1073,1073,1073,1073,1073,1073,1073,1073,1073,1073,1070,1070,1070,1070,1067,1067,1067,1067,1067,1067,1063,1063,1063,1063,1063,1063,1060,1060,1060,1063,1063,1063,1063,1060,1060,1060,1060,1060,1060,1060,1060,1063,1060,1060,1060,1063,1063,1063,1063,1063,1063,1063,1063,1067,1067,1067,1057,1057,1057,813,813,811,811,811,813,811,811,811,811,811,811,811,811,811,811,811,811,811,811,811,811,811,811,811,811,811,811,811,811,811,811,811,811,811,811,811,811,811,811,0,0,0,0,0,0,0,0,0,0,0,0,0,0,0,0,0,0,0,0,0,0,0,0,0,0,0,0,0,0,0,0,0,0,0,0,0,0
0,0,0,0,0,0,0,1232,1227,1227,1227,1227,1227,1223,1223,1223,1223,1223,1219,1219,1219,1219,1219,1214,1214,1214,1214,1214,1214,1214,1219,1219,1219,1219,1223,1219,1219,1219,1219,1219,1214,1214,1214,1214,1214,1214,1214,1214,1214,1210,1210,1210,1210,1210,1210,1210,1210,1210,1210,1210,1210,1210,1210,1210,1206,1206,1206,1210,1206,1206,1210,1210,1210,1210,1206,1206,1206,1206,1206,1206,1206,1202,1202,1206,1206,1202,1197,1197,1197,1197,1197,1197,1197,1197,1197,1197,1197,1197,1197,1193,1193,1189,1138,1134,1130,1130,1130,1130,1126,1126,1126,1126,1130,1130,1130,1134,1134,1134,1138,1138,1141,1145,1185,1185,1185,1185,1185,1185,1185,0,0,0,0,0,0,0,0,783,783,781,780,778,774,774,771,771,771,771,771,773,773,774,774,774,774,776,778,780,780,781,781,785,785,785,787,787,787,787,0,0,0,0,0,1173,1173,1173,1173,1177,1177,1173,1173,1173,1169,1169,1173,1173,1169,1169,1169,1169,1169,1169,1169,1173,1169,1169,1169,1169,1169,1169,1169,1169,1169,1169,1169,1165,1165,1165,1165,1165,1165,1161,1161,1161,1161,1161,1161,1161,1161,1161,1161,1157,1157,1157,1157,1157,1157,1157,1161,1157,1157,1157,1157,1157,1153,1153,1153,1153,1157,1157,1157,1157,1161,1161,1161,1161,925,925,925,925,925,925,925,925,925,925,925,925,928,928,928,928,928,928,930,930,933,935,935,935,935,935,935,938,940,943,943,946,946,948,951,954,954,954,956,956,956,959,962,964,964,964,1134,1134,1134,1134,1134,1134,1134,1134,1134,1134,1130,1130,1134,1130,1130,1130,1134,1134,1134,1134,1134,1134,1134,1134,1134,1134,1134,1134,1134,1134,1134,1134,1130,1130,1130,1126,1126,1126,1126,1126,1126,1126,1123,1123,1123,1126,1123,1123,1123,1123,1119,1119,1112,1108,1105,1101,1097,1094,1090,1090,1090,1090,1090,1090,1090,1090,1090,1094,1094,1094,1097,1097,1105,1112,1112,1119,1119,1119,1119,1119,1119,1119,1119,1119,1119,1115,1115,1115,1115,1115,1115,1115,1115,1115,1115,1115,1115,1115,1115,1112,1112,1112,1112,1112,1112,1112,1112,1112,1112,1112,1112,1112,1112,1108,1108,1108,1108,1108,1105,1105,1105,1105,1101,1101,1105,1101,1101,1101,1097,1097,1101,1101,1105,1101,1101,1101,1101,1101,1101,1097,1097,1097,1097,1097,1097,1097,1097,1097,1097,1097,1097,1094,1094,1094,1094,1094,1094,1094,1090,1090,1094,1094,1094,1094,1094,1090,1090,1090,1090,1090,1090,1087,1087,1087,1084,1084,1084,1084,1084,1084,1080,1080,1080,1080,1080,1080,1080,1080,1080,1080,1080,1080,1080,1080,1080,1080,1080,1080,1080,1080,1080,1080,1077,1077,1077,1077,1073,1073,1073,1073,1073,1073,1073,1073,1073,1073,1070,1070,1070,1070,1070,1070,1070,1067,1067,1067,1067,1067,1067,1067,1063,1063,1063,1063,1063,1063,1063,1063,1063,1063,1063,1063,1063,1063,1063,1063,1063,1063,1063,1060,1060,1063,1063,1063,1063,1063,1063,1063,1063,1063,1063,1063,1063,1067,1067,1067,1067,1067,1067,813,813,813,811,811,811,813,813,813,813,813,811,811,811,811,811,811,811,811,811,811,811,811,811,811,811,811,811,811,811,811,811,811,811,811,811,811,811,811,811,811,0,0,0,0,0,0,0,0,0,0,0,0,0,0,0,0,0,0,0,0,0,0,0,0,0,0,0,0,0,0,0,0,0,0,0,0,0,0
0,0,0,0,0,0,0,1227,1227,1227,1223,1223,1223,1219,1219,1219,1219,1219,1214,1214,1214,1214,1214,1210,1210,1210,1210,1210,1210,1210,1214,1214,1214,1219,1219,1219,1214,1214,1214,1214,1214,1214,1214,1214,1214,1210,1210,1210,1210,1210,1210,1210,1210,1206,1206,1206,1206,1206,1206,1206,1206,1206,1206,1206,1202,1202,1202,1206,1206,1206,1206,1206,1206,1206,1202,1202,1202,1206,1206,1202,1202,1202,1202,1197,1197,1197,1193,1193,1197,1197,1197,1197,1197,1197,1197,1197,1197,1193,1193,1193,1189,1185,1138,1134,1130,1130,1130,1130,1126,1126,1126,1126,1130,1130,1134,1134,1134,1138,1141,1141,1145,1145,1169,1177,1181,1181,1185,1185,1185,0,0,0,0,0,0,0,0,0,0,781,780,778,778,776,773,773,771,771,771,773,773,774,774,774,776,776,778,780,780,781,783,785,785,787,787,787,787,787,0,0,0,0,0,1169,1169,1173,1169,1169,1169,1169,1169,1169,1169,1169,1169,1169,1169,1169,1165,1165,1165,1165,1165,1169,1165,1165,1165,1165,1165,1165,1165,1165,1165,1165,1165,1165,1165,1161,1161,1161,1161,1161,1161,1161,1161,1157,1157,1161,1157,1157,1157,1153,1153,1153,1153,1153,1153,1157,1157,1153,1153,1153,1153,1153,1153,1153,1153,1153,1153,915,913,913,913,913,920,920,923,925,925,925,925,925,925,925,925,925,925,925,925,925,925,925,925,925,928,930,933,933,935,935,935,935,938,938,940,943,943,946,948,951,951,954,954,954,954,956,956,959,1134,1134,1134,1134,1130,1130,1130,1130,1130,1130,1134,1130,1130,1130,1130,1130,1130,1130,1126,1126,1134,1134,1134,1134,1130,1130,1130,1130,1130,1130,1130,1130,1130,1130,1130,1130,1130,1126,1126,1126,1126,1123,1123,1123,1123,1123,1123,1123,1123,1123,1123,1123,1123,1119,1119,1119,1112,1108,1105,1105,1101,1097,1094,1094,1090,1090,1090,1090,1090,1090,1090,1094,1094,1097,1097,1097,1105,1108,1112,1115,1115,1119,1119,1119,1119,1115,1115,1115,1115,1115,1112,1112,1115,1115,1115,1112,1112,1112,1112,1115,1115,1112,1112,1112,1108,1108,1108,1108,1108,1108,1108,1108,1108,1108,1108,1108,1108,1105,1105,1105,1105,1105,1105,1105,1101,1101,1101,1101,1101,1097,1097,1097,1094,1094,1097,1097,1097,1097,1101,1101,1097,1097,1097,1094,1094,1094,1094,1094,1094,1094,1094,1094,1094,1094,1094,1090,1090,1090,1090,1090,1090,1090,1090,1090,1090,1090,1090,1090,1090,1087,1087,1090,1090,1087,1084,1084,1084,1084,1084,1084,1080,1080,1080,1080,1080,1080,1080,1080,1077,1077,1077,1077,1077,1080,1080,1080,1080,1077,1077,1077,1080,1077,1077,1077,1077,1077,1077,1077,1077,1073,1073,1073,1073,1073,1070,1070,1070,1070,1070,1067,1067,1067,1067,1070,1070,1070,1070,1067,1067,1067,1067,1063,1063,1063,1063,1063,1063,1063,1063,1063,1063,1063,1063,1063,1063,1063,1063,1063,1063,1063,1063,1063,1063,1060,1060,1063,1063,1063,1063,1060,1060,1063,1063,1063,1063,1063,1063,1063,1063,1063,1063,1063,811,811,811,813,811,811,813,813,813,813,811,811,811,811,811,811,811,811,811,811,811,811,811,811,811,811,811,811,811,811,811,811,811,811,811,811,811,811,811,813,811,811,0,0,0,0,0,0,0,0,0,0,0,0,0,0,0,0,0,0,0,0,0,0,0,0,0,0,0,0,0,0,0,0,0,0,0,0,0,0
0,0,0,0,0,0,0,1223,1223,1223,1219,1219,1219,1214,1214,1214,1214,1214,1214,1214,1210,1210,1210,1210,1210,1210,1210,1210,1210,1210,1210,1210,1210,1210,1210,1210,1210,1210,1210,1210,1210,1210,1210,1210,1210,1210,1210,1210,1210,1206,1206,1206,1202,1202,1202,1202,1202,1202,1202,1202,1202,1202,1202,1202,1202,1202,1202,1202,1202,1202,1202,1202,1206,1202,1202,1202,1202,1202,1202,1197,1197,1197,1197,1193,1193,1193,1193,1193,1193,1193,1193,1197,1197,1193,1193,1193,1193,1193,1193,1189,1185,1181,1181,1177,1130,1130,1130,1130,1126,1126,1126,1126,1130,1134,1134,1134,1138,1138,1141,1145,1145,1145,1149,1173,1181,1181,1181,1185,1185,0,0,0,0,0,0,0,0,0,0,781,780,778,778,776,774,773,771,771,771,773,773,774,774,774,776,778,780,780,781,781,783,785,787,787,787,789,789,789,0,0,0,0,0,1165,1165,1165,1165,1165,1165,1165,1165,1165,1165,1165,1165,1165,1165,1165,1165,1165,1165,1165,1165,1165,1165,1165,1165,1161,1161,1161,1161,1161,1161,1161,1161,1161,1161,1161,1161,1157,1157,1157,1157,1157,1157,1157,1157,1157,1157,1157,1153,1153,1153,1149,1149,1149,1149,1153,1153,1153,1149,1149,1153,1153,1153,1149,1149,1153,915,915,913,913,913,913,915,915,918,920,923,923,923,923,923,923,923,923,923,925,925,925,925,925,925,925,928,928,933,933,935,935,935,935,938,938,940,943,946,946,948,951,951,954,954,954,954,956,956,1134,1130,1130,1130,1130,1130,1130,1130,1130,1130,1130,1130,1130,1130,1130,1126,1126,1126,1126,1126,1126,1130,1130,1126,1126,1126,1126,1126,1126,1126,1126,1126,1126,1126,1126,1126,1126,1126,1126,1123,1123,1123,1123,1123,1123,1123,1123,1119,1119,1119,1123,1123,1119,1119,1119,1119,1115,1112,1108,1108,1105,1101,1097,1094,1094,1090,1090,1090,1090,1090,1094,1094,1094,1094,1097,1097,1101,1105,1108,1108,1112,1115,1115,1115,1115,1115,1115,1115,1115,1112,1112,1112,1112,1112,1112,1112,1112,1112,1108,1108,1108,1108,1108,1108,1108,1108,1108,1108,1108,1108,1108,1105,1105,1105,1105,1105,1105,1105,1105,1105,1101,1101,1101,1101,1101,1097,1097,1097,1097,1097,1094,1094,1094,1094,1094,1094,1094,1094,1094,1094,1094,1094,1094,1094,1094,1094,1094,1094,1094,1094,1094,1094,1094,1094,1094,1094,1090,1090,1090,1090,1090,1087,1087,1087,1087,1087,1087,1084,1084,1084,1084,1084,1087,1087,1084,1080,1080,1084,1080,1080,1080,1080,1080,1080,1080,1077,1077,1077,1077,1077,1077,1077,1077,1077,1077,1077,1077,1077,1077,1077,1077,1077,1077,1077,1077,1077,1077,1077,1077,1077,1073,1070,1070,1070,1070,1067,1067,1067,1067,1067,1067,1067,1067,1067,1067,1067,1067,1067,1067,1067,1067,1063,1063,1063,1063,1063,1060,1060,1060,1060,1060,1060,1060,1060,1063,1063,1063,1063,1060,1060,1063,1063,1063,1060,1060,1060,1060,1060,1060,1057,1057,1057,1057,1060,1057,1057,1057,1057,1057,1057,1063,1063,811,811,811,811,813,813,813,813,813,813,813,811,811,811,811,811,811,811,811,811,811,811,811,811,811,811,811,811,811,811,811,811,811,811,811,811,811,811,811,811,813,813,813,0,0,0,0,0,0,0,0,0,0,0,0,0,0,0,0,0,0,0,0,0,0,0,0,0,0,0,0,0,0,0,0,0,0,0,0,0,0
0,0,0,0,0,0,0,1219,1219,1214,1214,1214,1214,1210,1210,1210,1210,1210,1210,1210,1210,1206,1206,1206,1206,1210,1210,1210,1210,1210,1210,1210,1206,1206,1206,1206,1206,1206,1206,1206,1206,1206,1210,1210,1210,1210,1210,1206,1206,1206,1202,1202,1197,1197,1197,1197,1197,1197,1197,1197,1197,1197,1197,1197,1197,1197,1197,1197,1197,1197,1197,1197,1202,1197,1197,1197,1197,1197,1197,1193,1193,1189,1189,1189,1189,1189,1189,1189,1189,1189,1189,1189,1193,1189,1189,1189,1189,1189,1185,1185,1181,1181,1177,1177,1134,1134,1130,1130,1130,1126,1126,1130,1130,1134,1134,1134,1138,1138,1141,1145,1145,1145,1145,1149,1177,1181,1181,1181,1181,1181,0,0,0,0,0,0,0,0,0,0,780,778,778,776,774,773,773,773,773,773,774,774,774,776,776,778,780,780,781,781,785,787,787,787,789,789,789,789,0,0,0,0,0,1161,1161,1161,1165,1165,1165,1165,1165,1165,1165,1161,1161,1161,1157,1157,1161,1161,1161,1161,1161,1161,1161,1161,1161,1161,1161,1161,1161,1161,1161,1161,1161,1157,1157,1157,1157,1157,1153,1153,1153,1153,1153,1153,1153,1153,1153,1153,1153,1149,1149,1145,1145,1145,1145,1149,1149,1149,1149,1149,1149,1149,1149,1149,1149,915,915,915,913,913,915,915,915,915,918,920,920,920,920,923,923,923,923,923,923,923,925,925,925,925,925,925,928,928,933,933,935,935,935,935,938,938,943,943,946,948,948,951,951,954,954,954,956,1130,1130,1130,1126,1126,1126,1130,1126,1126,1126,1126,1126,1130,1130,1126,1126,1123,1123,1126,1126,1126,1123,1123,1126,1130,1126,1126,1123,1123,1123,1123,1123,1126,1126,1126,1126,1126,1126,1123,1123,1123,1123,1123,1123,1119,1119,1119,1119,1119,1119,1119,1119,1119,1119,1119,1119,1119,1119,1115,1115,1112,1108,1108,1105,1097,1097,1094,1094,1094,1094,1094,1094,1094,1094,1094,1094,1097,1097,1097,1101,1105,1108,1108,1112,1112,1112,1112,1108,1108,1108,1112,1112,1112,1108,1108,1108,1108,1108,1108,1108,1108,1108,1108,1108,1108,1105,1105,1105,1105,1105,1105,1105,1105,1105,1105,1101,1101,1101,1101,1101,1101,1101,1101,1097,1097,1097,1097,1097,1094,1094,1094,1094,1094,1094,1094,1094,1094,1094,1094,1094,1094,1094,1094,1094,1094,1090,1090,1094,1094,1094,1094,1090,1090,1090,1090,1090,1090,1090,1087,1087,1087,1087,1087,1084,1084,1084,1084,1084,1084,1080,1080,1080,1080,1080,1080,1080,1080,1080,1080,1080,1080,1080,1080,1080,1080,1077,1077,1077,1077,1077,1077,1077,1077,1073,1073,1073,1073,1073,1073,1073,1073,1073,1077,1073,1073,1073,1073,1073,1073,1073,1073,1077,1070,1067,1067,1067,1067,1063,1063,1063,1063,1063,1063,1063,1063,1067,1067,1067,1067,1067,1067,1067,1063,1063,1063,1063,1063,1063,1060,1060,1060,1060,1057,1057,1057,1057,1057,1057,1060,1057,1057,1060,1060,1060,1060,1060,1057,1057,1057,1057,1057,1057,1054,1054,1054,1057,1057,1057,1054,1054,1054,1054,1063,813,813,811,811,813,813,813,813,813,813,813,811,811,811,811,811,811,811,811,811,811,811,811,811,811,811,811,811,811,811,811,811,811,811,811,811,811,811,811,811,813,813,813,813,0,0,0,0,0,0,0,0,0,0,0,0,0,0,0,0,0,0,0,0,0,0,0,0,0,0,0,0,0,0,0,0,0,0,0,0,0,0
0,0,0,0,0,0,0,1219,1214,1214,1210,1210,1210,1210,1210,1210,1206,1206,1206,1206,1206,1202,1202,1202,1202,1206,1206,1206,1206,1206,1206,1206,1206,1206,1202,1202,1202,1202,1202,1197,1197,1197,1202,1202,1202,1202,1206,1206,1206,1202,1197,1197,1197,1197,1197,1193,1193,1193,1193,1197,1197,1197,1197,1197,1197,1193,1193,1193,1193,1193,1193,1193,1193,1193,1193,1193,1193,1193,1193,1189,1189,1189,1185,1185,1185,1185,1185,1185,1185,1185,1185,1185,1185,1185,1185,1185,1185,1185,1181,1181,1181,1181,1177,1177,1177,1134,1134,1130,1130,1130,1130,1134,1134,1134,1134,1138,1138,1141,1141,1145,1145,1145,1145,1149,1173,1173,1177,1177,1177,1177,1177,0,0,0,0,0,0,0,0,0,780,778,778,776,774,773,773,773,773,773,774,774,776,776,778,778,780,780,781,783,785,787,787,787,789,789,789,789,0,0,0,0,0,1157,1157,1157,1161,1161,1161,1161,1161,1161,1161,1161,1157,1157,1153,1153,1153,1153,1153,1157,1157,1161,1161,1161,1157,1157,1157,1157,1157,1157,1153,1153,1157,1153,1153,1153,1153,1153,1149,1149,1149,1149,1149,1149,1149,1153,1149,1149,1149,1149,1149,1145,1145,1145,1145,1145,1145,1145,1145,1145,1145,1149,1149,1149,1149,915,915,915,913,913,915,915,915,915,915,918,918,918,918,918,920,920,920,920,920,923,923,925,925,925,925,925,928,930,930,933,935,935,935,935,938,940,943,946,946,948,948,951,951,951,954,954,1126,1126,1126,1126,1123,1123,1123,1126,1123,1123,1123,1123,1123,1123,1123,1123,1123,1119,1119,1123,1123,1123,1123,1123,1123,1123,1123,1123,1119,1119,1119,1119,1123,1123,1123,1123,1123,1123,1123,1123,1119,1119,1119,1119,1119,1119,1119,1119,1119,1119,1115,1115,1115,1115,1119,1115,1115,1115,1115,1112,1112,1112,1108,1108,1105,1101,1097,1094,1094,1094,1094,1094,1094,1094,1094,1094,1094,1097,1097,1097,1101,1105,1105,1108,1108,1108,1108,1108,1108,1105,1105,1105,1105,1105,1105,1105,1105,1105,1108,1108,1108,1105,1105,1105,1105,1105,1105,1101,1101,1101,1101,1101,1101,1101,1101,1097,1097,1097,1097,1097,1097,1097,1097,1094,1094,1094,1094,1094,1094,1094,1094,1094,1094,1094,1094,1090,1090,1090,1090,1090,1090,1090,1090,1090,1090,1090,1090,1090,1087,1087,1087,1090,1090,1090,1090,1090,1087,1087,1087,1087,1084,1084,1084,1084,1084,1084,1080,1080,1080,1080,1080,1080,1080,1077,1077,1080,1077,1077,1077,1077,1077,1077,1077,1077,1077,1077,1077,1077,1077,1073,1073,1073,1073,1073,1073,1073,1073,1073,1073,1070,1070,1073,1070,1070,1070,1070,1073,1073,1070,1070,1067,1067,1067,1067,1067,1067,1067,1063,1063,1063,1063,1060,1060,1060,1060,1063,1063,1063,1063,1063,1063,1063,1063,1063,1063,1063,1063,1063,1057,1057,1057,1057,1057,1057,1057,1057,1057,1057,1057,1057,1057,1054,1054,1057,1057,1057,1054,1054,1057,1054,1054,1054,1054,1054,1054,1054,1054,1054,1054,1050,1050,1050,1054,811,811,811,813,813,813,813,813,813,813,813,813,811,811,811,811,811,811,811,811,811,811,811,811,811,811,811,811,811,811,811,811,811,811,811,811,811,811,811,811,811,813,813,813,813,0,0,0,0,0,0,0,0,0,0,0,0,0,0,0,0,0,0,0,0,0,0,0,0,0,0,0,0,0,0,0,0,0,0,0,0,0,0
0,0,0,0,0,0,1214,1214,1214,1210,1210,1210,1210,1210,1206,1206,1206,1206,1206,1202,1202,1202,1202,1197,1197,1197,1197,1202,1202,1206,1206,1206,1202,1202,1197,1197,1197,1197,1197,1193,1193,1193,1197,1197,1197,1197,1197,1197,1197,1197,1193,1193,1193,1193,1193,1193,1193,1193,1193,1197,1193,1193,1193,1193,1193,1193,1193,1193,1193,1189,1189,1189,1189,1189,1189,1189,1189,1189,1189,1185,1185,1185,1181,1181,1181,1181,1185,1181,1181,1185,1185,1181,1181,1181,1181,1181,1181,1181,1181,1181,1181,1177,1177,1177,1177,1134,1134,1134,1134,1130,1130,1134,1134,1134,1138,1138,1138,1141,1141,1145,1145,1145,1145,1149,1149,1173,1173,1177,1177,1173,1173,0,0,0,0,0,0,0,0,0,0,778,778,776,774,774,774,773,773,774,774,776,776,778,778,780,780,781,781,783,785,787,787,787,789,789,789,789,0,0,0,0,0,1153,1153,1153,1161,1161,1161,1157,1157,1157,1157,1157,1153,1149,1149,1153,1153,1153,1153,1153,1153,1157,1157,1157,1157,1153,1153,1153,1153,1153,1149,1149,1149,1149,1149,1149,1149,1149,1149,1149,1149,1149,1149,1149,1149,1149,1149,1149,1145,1145,1145,1145,1145,1141,1141,1141,1141,1141,1141,1141,1145,1145,913,913,913,913,913,913,915,915,915,915,915,915,915,915,915,915,915,918,918,918,920,920,920,920,923,925,925,925,925,925,928,930,930,933,935,935,935,938,940,943,943,946,946,948,948,951,951,951,954,1123,1123,1123,1123,1123,1123,1123,1123,1123,1123,1119,1119,1119,1119,1119,1119,1119,1119,1119,1119,1119,1119,1119,1119,1119,1119,1119,1119,1119,1119,1119,1119,1119,1119,1119,1119,1119,1119,1119,1119,1119,1119,1119,1119,1119,1119,1119,1115,1115,1115,1115,1115,1112,1112,1112,1112,1112,1112,1112,1112,1112,1112,1108,1108,1108,1105,1101,1097,1097,1094,1094,1094,1094,1094,1094,1094,1094,1097,1097,1097,1097,1101,1101,1105,1105,1105,1105,1105,1105,1105,1105,1105,1101,1101,1101,1101,1097,1097,1097,1101,1105,1105,1101,1101,1101,1101,1101,1101,1101,1101,1101,1101,1101,1097,1097,1097,1097,1094,1094,1094,1094,1094,1094,1094,1094,1094,1094,1090,1090,1090,1090,1090,1090,1090,1090,1090,1090,1090,1090,1090,1090,1090,1087,1087,1087,1087,1087,1087,1087,1087,1087,1087,1084,1084,1084,1084,1087,1084,1084,1084,1084,1084,1084,1084,1084,1080,1080,1080,1080,1080,1080,1077,1077,1077,1077,1077,1077,1077,1077,1077,1077,1077,1073,1073,1073,1073,1073,1073,1073,1073,1073,1073,1070,1070,1070,1070,1070,1070,1070,1070,1067,1067,1070,1067,1067,1067,1067,1067,1067,1067,1063,1063,1063,1063,1063,1063,1063,1063,1063,1063,1060,1060,1060,1060,1060,1060,1060,1057,1057,1057,1060,1060,1060,1060,1060,1060,1060,1060,1060,1057,1057,1057,1054,1054,1054,1054,1054,1054,1054,1054,1054,1054,1054,1054,1054,1054,1054,1054,1054,1050,1050,1050,1050,1050,1050,1050,1050,1054,1054,1054,1050,1050,1050,811,811,811,811,811,813,813,813,813,813,813,813,813,811,811,811,811,811,811,811,811,811,811,811,811,811,811,811,811,811,811,811,811,811,811,811,811,811,811,811,811,813,813,813,813,815,0,0,0,0,0,0,0,0,0,0,0,0,0,0,0,0,0,0,0,0,0,0,0,0,0,0,0,0,0,0,0,0,0,0,0,0,0,0
0,0,0,0,0,0,1214,1210,1210,1210,1206,1206,1210,1206,1206,1206,1206,1206,1202,1202,1197,1197,1197,1197,1197,1197,1197,1197,1197,1197,1202,1197,1197,1197,1197,1197,1197,1193,1193,1193,1193,1193,1193,1193,1193,1193,1193,1193,1193,1193,1193,1189,1189,1189,1193,1193,1189,1189,1189,1193,1193,1189,1189,1193,1193,1189,1189,1189,1189,1189,1185,1185,1181,1181,1185,1185,1185,1185,1181,1181,1181,1181,1181,1181,1181,1181,1181,1181,1181,1181,1181,1181,1181,1181,1181,1177,1177,1177,1177,1177,1177,1177,1177,1177,1177,1134,1134,1134,1134,1134,1134,1134,1138,1138,1138,1138,1141,1145,1145,1145,1145,1145,1145,1149,1149,1157,1165,1169,1169,1169,1169,0,0,0,0,0,0,0,0,0,0,780,778,776,776,774,774,774,774,774,774,776,778,778,780,780,780,781,781,783,785,787,787,787,789,789,789,789,0,0,0,0,0,1149,1149,1149,1157,1157,1157,1157,1153,1153,1153,1153,1153,1149,1149,1149,1149,1149,1149,1149,1149,1153,1153,1153,1153,1149,1149,1149,1149,1149,1149,1149,1149,1149,1149,1149,1149,1149,1149,1149,1149,1149,1149,1149,1149,1145,1145,1145,1145,1145,1145,1141,1141,1141,1141,1138,1138,1138,1138,1141,1141,1141,910,910,910,910,913,913,913,913,915,913,913,913,913,913,913,913,915,915,918,918,920,920,920,920,923,925,925,925,925,928,928,930,930,933,935,935,935,938,940,943,943,946,946,948,948,951,1123,1123,1123,1123,1123,1123,1123,1123,1119,1119,1119,1119,1119,1119,1119,1119,1119,1119,1119,1119,1119,1119,1115,1115,1115,1115,1115,1115,1119,1119,1119,1119,1115,1115,1119,1119,1119,1119,1115,1115,1115,1115,1115,1112,1112,1112,1115,1115,1115,1115,1115,1115,1112,1112,1112,1108,1108,1108,1112,1112,1108,1108,1108,1108,1108,1108,1108,1108,1105,1101,1097,1097,1094,1094,1094,1094,1094,1094,1094,1094,1097,1097,1097,1097,1101,1101,1101,1101,1101,1101,1101,1105,1101,1101,1101,1101,1101,1101,1097,1097,1097,1097,1097,1097,1097,1097,1097,1097,1097,1097,1097,1097,1097,1097,1094,1094,1097,1094,1094,1094,1094,1094,1094,1094,1094,1094,1090,1090,1090,1090,1090,1090,1090,1090,1090,1090,1090,1090,1090,1087,1087,1087,1087,1084,1084,1084,1084,1084,1084,1084,1087,1084,1084,1084,1084,1084,1080,1080,1080,1080,1080,1080,1080,1080,1080,1080,1080,1080,1080,1080,1080,1080,1080,1077,1077,1077,1073,1073,1073,1073,1073,1073,1073,1073,1073,1073,1070,1070,1070,1070,1070,1070,1070,1067,1067,1067,1067,1067,1067,1067,1067,1067,1067,1067,1067,1067,1067,1063,1063,1063,1063,1063,1060,1060,1063,1063,1063,1063,1063,1063,1063,1063,1060,1060,1057,1057,1057,1057,1057,1057,1057,1057,1057,1057,1057,1057,1057,1057,1060,1060,1057,1054,1054,1054,1054,1054,1054,1054,1054,1054,1054,1054,1054,1054,1054,1054,1054,1054,1054,1054,1050,1050,1050,1050,1050,1050,1050,1050,1050,1050,1050,1050,1050,1050,1050,1050,809,809,811,811,811,813,813,813,813,813,813,813,813,811,811,811,811,811,811,811,811,811,811,811,811,811,809,809,811,811,811,811,811,811,811,811,811,811,811,811,811,813,813,813,813,815,0,0,0,0,0,0,0,0,0,0,0,0,0,0,0,0,0,0,0,0,0,0,0,0,0,0,0,0,0,0,0,0,0,0,0,0,0,0
0,0,0,0,0,0,1210,1210,1210,1206,1206,1206,1206,1206,1206,1206,1202,1202,1202,1197,1197,1197,1197,1197,1197,1197,1197,1197,1197,1197,1197,1197,1197,1193,1193,1193,1193,1193,1193,1189,1189,1189,1189,1189,1189,1189,1189,1189,1189,1193,1189,1189,1189,1189,1189,1189,1185,1185,1189,1193,1189,1189,1189,1189,1189,1189,1185,1185,1185,1185,1181,1181,1181,1181,1181,1181,1181,1181,1181,1181,1181,1181,1181,1181,1177,1177,1181,1177,1177,1181,1181,1177,1177,1177,1177,1177,1177,1177,1177,1177,1173,1173,1173,1173,1169,1165,1138,1138,1134,1134,1134,1134,1138,1138,1138,1138,1141,1145,1145,1145,1145,1145,1145,1149,1149,1157,1161,1165,1169,1169,1169,0,0,0,0,0,0,0,0,0,0,780,780,778,776,776,774,774,774,774,774,776,778,778,780,780,781,781,781,785,785,787,787,789,789,789,789,789,0,0,0,0,0,1149,1149,1149,1153,1153,1153,1153,1153,1153,1153,1153,1149,1149,1149,1149,1149,1149,1149,1149,1149,1149,1149,1149,1149,1149,1145,1145,1145,1145,1149,1149,1149,1149,1145,1145,1145,1145,1145,1145,1145,1145,1145,1145,1145,1145,1141,1141,1141,1141,1141,1141,1141,1138,1138,1138,1138,1138,1138,1138,1141,908,908,908,908,910,910,910,913,913,913,913,913,913,913,913,913,913,913,915,918,918,918,920,920,920,923,925,925,925,925,928,928,930,933,933,935,938,938,938,943,943,943,946,946,948,951,1119,1119,1119,1119,1119,1119,1119,1119,1119,1119,1119,1119,1119,1115,1115,1115,1119,1119,1119,1115,1115,1115,1115,1115,1115,1115,1115,1115,1115,1115,1115,1115,1112,1112,1112,1112,1115,1115,1115,1115,1115,1112,1112,1112,1108,1108,1108,1108,1108,1108,1112,1112,1112,1108,1108,1108,1108,1108,1108,1108,1108,1108,1108,1108,1108,1108,1108,1105,1105,1105,1105,1101,1101,1097,1097,1097,1097,1094,1094,1094,1094,1094,1097,1097,1097,1097,1097,1097,1097,1097,1097,1097,1097,1097,1094,1094,1097,1094,1094,1094,1094,1094,1094,1094,1094,1094,1090,1090,1094,1094,1094,1094,1094,1094,1094,1094,1094,1094,1094,1090,1090,1090,1090,1090,1090,1090,1090,1090,1090,1090,1090,1090,1090,1090,1087,1087,1087,1087,1087,1087,1084,1084,1084,1084,1084,1084,1080,1080,1080,1080,1080,1084,1084,1084,1084,1080,1080,1080,1080,1077,1077,1077,1077,1077,1080,1080,1080,1080,1080,1080,1077,1077,1077,1077,1077,1077,1077,1073,1073,1073,1070,1070,1070,1070,1070,1070,1070,1067,1067,1067,1067,1067,1067,1067,1067,1067,1063,1063,1063,1063,1063,1063,1063,1063,1063,1063,1063,1063,1063,1063,1063,1063,1063,1060,1060,1060,1060,1060,1063,1063,1060,1060,1063,1060,1060,1057,1057,1057,1054,1054,1054,1054,1054,1054,1054,1057,1054,1054,1054,1054,1054,1054,1054,1054,1054,1054,1054,1054,1054,1054,1054,1054,1054,1054,1054,1050,1050,1050,1050,1050,1050,1050,1050,1050,1050,1047,1047,1047,1047,1047,1047,1050,1047,1047,1044,1044,809,809,809,811,811,813,813,813,813,813,813,813,813,813,811,811,811,811,811,811,811,811,811,811,811,811,811,809,809,811,811,811,811,811,811,811,811,811,811,811,811,811,813,813,813,815,815,0,0,0,0,0,0,0,0,0,0,0,0,0,0,0,0,0,0,0,0,0,0,0,0,0,0,0,0,0,0,0,0,0,0,0,0,0,0
0,0,0,0,0,0,1202,1202,1202,1202,1202,1202,1202,1202,1202,1202,1202,1202,1202,1197,1197,1197,1197,1197,1197,1193,1193,1193,1193,1193,1193,1193,1193,1193,1193,1189,1189,1189,1189,1189,1189,1189,1189,1185,1185,1189,1189,1189,1189,1189,1189,1189,1189,1189,1189,1185,1185,1181,1181,1185,1185,1185,1185,1189,1185,1185,1181,1181,1181,1181,1181,1177,1177,1177,1181,1181,1181,1181,1181,1181,1181,1181,1181,1181,1177,1177,1181,1177,1177,1177,1177,1177,1177,1177,1177,1177,1173,1173,1173,1173,1169,1169,1169,1169,1165,1165,1157,1138,1138,1134,1134,1134,1138,1138,1138,1138,1141,1145,1145,1145,1145,1145,1145,1149,1149,1153,1161,1165,1165,1165,1169,1169,0,0,0,0,0,0,0,0,0,0,780,776,776,776,776,774,774,774,776,776,778,778,780,781,781,781,783,785,787,787,787,789,789,790,790,790,0,0,0,0,0,1149,1149,1149,1149,1149,1149,1149,1149,1149,1149,1149,1145,1145,1145,1145,1145,1145,1145,1145,1145,1145,1145,1145,1145,1145,1145,1145,1145,1145,1145,1145,1145,1145,1145,1145,1145,1145,1145,1145,1141,1141,1141,1141,1141,1138,1138,1138,1138,1138,1138,1138,1138,1138,1138,1138,1138,1138,1138,908,908,908,908,906,906,908,908,908,910,910,913,910,910,910,910,913,913,913,913,913,915,915,918,918,918,920,923,923,925,925,925,928,930,930,933,935,935,938,938,940,943,943,946,946,946,948,1115,1115,1115,1115,1115,1119,1119,1119,1119,1115,1115,1115,1115,1115,1115,1115,1115,1115,1115,1115,1115,1115,1115,1112,1112,1112,1112,1112,1108,1108,1112,1112,1112,1108,1108,1108,1108,1112,1112,1112,1112,1112,1112,1108,1108,1108,1108,1108,1108,1108,1108,1105,1105,1105,1105,1105,1105,1105,1105,1105,1105,1105,1105,1105,1105,1105,1105,1105,1105,1105,1105,1101,1101,1101,1097,1097,1097,1097,1094,1094,1094,1094,1094,1094,1094,1094,1094,1094,1097,1097,1097,1094,1094,1094,1094,1094,1094,1094,1094,1094,1090,1090,1090,1090,1090,1090,1090,1090,1090,1090,1090,1090,1090,1090,1090,1090,1090,1090,1090,1090,1090,1090,1090,1087,1087,1087,1087,1090,1087,1087,1087,1087,1087,1087,1087,1084,1084,1084,1084,1084,1084,1080,1080,1080,1080,1080,1080,1080,1080,1080,1080,1080,1080,1080,1080,1080,1080,1080,1077,1077,1077,1077,1073,1073,1077,1077,1077,1077,1077,1077,1077,1077,1077,1077,1077,1077,1073,1073,1073,1073,1070,1070,1070,1070,1070,1070,1070,1067,1067,1067,1067,1067,1063,1063,1063,1063,1063,1063,1060,1060,1060,1060,1063,1060,1060,1060,1060,1060,1060,1060,1060,1060,1060,1060,1057,1057,1057,1057,1057,1057,1057,1057,1060,1060,1060,1060,1057,1057,1054,1054,1054,1054,1054,1054,1054,1054,1054,1054,1054,1054,1054,1054,1054,1050,1050,1050,1050,1050,1050,1054,1050,1050,1054,1050,1050,1050,1047,1047,1047,1047,1050,1047,1047,1047,1047,1047,1047,1044,1044,1044,1047,1047,1047,1047,1044,1038,1038,813,811,811,811,813,813,813,813,813,813,813,813,811,811,811,811,811,811,811,811,811,811,811,811,811,811,811,809,809,809,811,811,811,811,811,811,811,811,811,811,811,813,813,813,813,815,817,0,0,0,0,0,0,0,0,0,0,0,0,0,0,0,0,0,0,0,0,0,0,0,0,0,0,0,0,0,0,0,0,0,0,0,0,0,0
0,0,0,0,0,0,1202,1202,1202,1197,1197,1197,1197,1197,1197,1197,1197,1197,1197,1193,1193,1197,1193,1193,1193,1193,1189,1189,1189,1189,1189,1189,1189,1189,1189,1189,1189,1189,1189,1185,1185,1185,1185,1185,1185,1185,1185,1185,1185,1185,1185,1185,1185,1185,1185,1185,1181,1181,1181,1181,1181,1181,1181,1181,1181,1181,1181,1181,1181,1181,1181,1177,1177,1177,1177,1181,1181,1181,1177,1177,1177,1177,1177,1177,1177,1177,1177,1177,1177,1177,1177,1177,1177,1177,1177,1173,1173,1169,1169,1169,1169,1165,1165,1165,1165,1161,1161,1141,1138,1138,1138,1138,1138,1138,1138,1141,1141,1145,1145,1145,1145,1145,1145,1149,1149,1153,1157,1161,1161,1161,1161,1161,0,0,0,0,0,0,0,0,0,0,780,776,776,776,776,776,776,776,776,778,778,780,780,781,781,781,783,785,787,787,787,790,790,790,790,790,0,0,0,0,0,1145,1145,1145,1149,1149,1149,1149,1145,1145,1145,1145,1145,1145,1145,1141,1141,1141,1145,1145,1145,1145,1145,1145,1145,1141,1141,1141,1141,1141,1141,1141,1141,1145,1145,1141,1141,1141,1141,1141,1141,1138,1138,1134,1134,1134,1134,1134,1134,1134,1134,1134,1138,1138,1134,1134,1134,1134,908,908,908,906,906,906,906,906,906,906,906,906,908,910,910,910,910,910,913,913,913,913,915,915,918,918,918,920,923,923,925,925,928,930,930,933,933,935,935,935,938,940,943,943,946,946,946,1112,1112,1112,1112,1115,1115,1115,1115,1115,1115,1115,1115,1112,1112,1112,1112,1112,1112,1112,1112,1112,1115,1112,1112,1108,1108,1108,1108,1108,1105,1105,1108,1108,1108,1108,1108,1108,1108,1108,1108,1108,1108,1108,1108,1108,1105,1105,1105,1105,1105,1105,1105,1105,1105,1101,1101,1101,1101,1101,1101,1101,1101,1101,1101,1101,1101,1101,1105,1105,1105,1105,1101,1101,1101,1097,1097,1097,1097,1094,1094,1094,1094,1094,1094,1094,1094,1094,1094,1094,1094,1094,1094,1094,1094,1094,1090,1090,1090,1090,1090,1090,1090,1090,1090,1090,1090,1090,1090,1090,1087,1087,1087,1087,1087,1087,1087,1087,1090,1090,1090,1090,1087,1087,1087,1087,1084,1084,1087,1087,1087,1087,1087,1087,1087,1084,1084,1084,1084,1080,1080,1080,1080,1080,1080,1077,1077,1080,1080,1077,1077,1077,1077,1077,1077,1077,1077,1077,1077,1077,1077,1073,1073,1073,1073,1073,1073,1070,1070,1070,1070,1070,1070,1073,1073,1073,1073,1073,1070,1070,1070,1070,1070,1070,1070,1070,1070,1067,1067,1067,1067,1067,1063,1063,1063,1063,1063,1063,1060,1060,1057,1057,1057,1057,1057,1057,1057,1057,1057,1060,1060,1060,1057,1057,1057,1057,1054,1054,1054,1054,1054,1054,1054,1054,1054,1057,1057,1057,1054,1054,1054,1054,1050,1050,1050,1050,1050,1050,1050,1050,1050,1050,1050,1050,1050,1047,1047,1047,1047,1050,1050,1050,1050,1050,1050,1050,1047,1047,1047,1047,1044,1044,1047,1047,1044,1044,1044,1044,1044,1044,1044,1044,1044,1044,1044,1044,1041,1038,1038,813,811,811,813,813,813,813,813,813,813,813,813,811,811,811,811,811,811,811,811,811,811,811,811,811,811,809,809,809,809,811,811,811,811,811,811,811,811,811,811,811,813,813,813,815,815,817,0,0,0,0,0,0,0,0,0,0,0,0,0,0,0,0,0,0,0,0,0,0,0,0,0,0,0,0,0,0,0,0,0,0,0,0,0,0
0,0,0,0,0,0,1197,1197,1197,1197,1197,1197,1197,1193,1193,1193,1193,1193,1193,1193,1193,1193,1193,1193,1189,1189,1189,1189,1185,1185,1185,1185,1189,1185,1185,1185,1185,1185,1185,1181,1181,1181,1181,1181,1181,1181,1181,1181,1181,1181,1181,1181,1181,1181,1185,1181,1177,1177,1177,1177,1177,1177,1177,1177,1181,1181,1177,1177,1177,1181,1177,1177,1173,1173,1177,1177,1177,1177,1177,1177,1177,1173,1173,1173,1173,1173,1173,1173,1173,1173,1173,1177,1177,1173,1169,1169,1169,1169,1169,1165,1165,1165,1165,1165,1161,1161,1157,1145,1141,1141,1141,1141,1141,1141,1141,1141,1145,1145,1145,1145,1145,1145,1145,1149,1149,1153,1157,1161,1161,1161,1153,1149,1149,0,0,0,0,0,0,0,0,0,792,776,776,776,776,776,776,776,778,778,780,780,780,781,781,781,783,785,787,787,790,790,790,790,792,792,0,0,0,0,0,1145,1145,1145,1145,1145,1145,1141,1141,1141,1141,1141,1141,1141,1141,1141,1141,1141,1141,1141,1138,1138,1138,1138,1141,1138,1138,1138,1138,1141,1141,1141,1141,1141,1141,1141,1138,1134,1134,1134,1134,1138,1134,1134,1134,1134,1134,1134,1134,1134,1134,1134,1134,1134,1134,1134,903,903,906,906,906,906,906,903,903,903,903,903,906,906,906,908,908,908,908,910,910,913,913,913,915,918,918,920,920,920,923,923,925,925,928,930,930,933,933,935,935,935,938,940,943,943,1108,1108,1108,1108,1108,1108,1112,1112,1112,1115,1115,1115,1112,1112,1112,1112,1108,1108,1108,1108,1108,1112,1108,1108,1108,1108,1108,1105,1105,1105,1105,1105,1105,1105,1108,1108,1108,1108,1108,1108,1108,1108,1108,1108,1108,1108,1105,1105,1105,1105,1105,1105,1101,1101,1101,1101,1101,1101,1097,1097,1097,1097,1097,1097,1097,1097,1101,1101,1101,1101,1101,1101,1101,1097,1097,1097,1097,1097,1094,1094,1094,1094,1094,1094,1094,1094,1090,1090,1094,1094,1094,1094,1094,1094,1090,1090,1090,1090,1090,1087,1087,1087,1087,1087,1087,1087,1090,1090,1090,1087,1087,1087,1087,1084,1084,1084,1084,1087,1087,1087,1084,1084,1084,1087,1084,1084,1084,1084,1084,1084,1084,1084,1084,1084,1084,1084,1084,1080,1080,1080,1080,1080,1080,1077,1077,1077,1077,1077,1077,1077,1077,1077,1077,1077,1077,1077,1077,1077,1077,1077,1077,1077,1073,1070,1070,1070,1070,1070,1070,1070,1070,1070,1070,1067,1067,1067,1067,1067,1070,1070,1070,1067,1067,1067,1067,1067,1067,1067,1067,1067,1067,1063,1063,1063,1063,1063,1063,1060,1060,1060,1057,1057,1057,1054,1054,1054,1054,1057,1057,1057,1057,1057,1057,1057,1054,1054,1054,1054,1054,1050,1050,1050,1050,1050,1050,1050,1050,1050,1050,1050,1047,1047,1050,1050,1050,1050,1050,1050,1050,1050,1050,1050,1050,1050,1047,1047,1047,1047,1044,1044,1044,1047,1044,1044,1047,1050,1047,1047,1044,1044,1044,1041,1041,1041,1041,1041,1041,1041,1041,1041,1041,1041,1041,1041,1041,1041,1041,1041,1041,1041,813,813,813,813,813,813,813,813,813,813,813,811,811,811,811,811,811,811,811,811,811,811,811,811,811,811,811,809,809,809,809,811,811,811,811,811,811,811,811,811,813,813,813,813,813,815,815,817,819,0,0,0,0,0,0,0,0,0,0,0,0,0,0,0,0,0,0,0,0,0,0,0,0,0,0,0,0,0,0,0,0,0,0,0,0,0
0,0,0,0,0,0,1197,1197,1193,1193,1193,1193,1193,1193,1193,1193,1189,1189,1189,1189,1189,1189,1189,1189,1185,1185,1185,1185,1181,1181,1181,1181,1181,1181,1181,1177,1177,1177,1177,1177,1177,1177,1177,1177,1177,1177,1177,1177,1177,1177,1177,1177,1177,1177,1177,1177,1177,1173,1173,1173,1173,1173,1173,1173,1177,1177,1177,1177,1173,1173,1173,1173,1169,1169,1173,1177,1177,1177,1177,1177,1173,1169,1169,1169,1169,1169,1173,1169,1169,1173,1173,1169,1169,1169,1169,1169,1169,1165,1165,1165,1165,1165,1161,1161,1161,1161,1157,1153,1145,1145,1141,1141,1141,1145,1145,1145,1145,1145,1145,1145,1145,1145,1149,1149,1149,1153,1153,1153,1153,1149,1149,1149,1149,0,0,0,0,0,0,0,0,0,790,787,776,776,778,778,778,778,778,778,780,780,781,781,781,783,785,785,787,787,790,792,792,792,792,792,792,0,0,0,0,1145,1141,1141,1141,1141,1141,1141,1138,1138,1138,1138,1138,1138,1138,1138,1138,1138,1138,1138,1138,1138,1134,1134,1138,1134,1134,1134,1134,1134,1138,1138,1138,1138,1138,1138,1134,1130,1130,1130,1130,1130,1130,1130,1130,1130,1130,1130,1130,1130,1134,1134,1134,1134,901,901,903,903,903,903,903,903,903,903,901,901,903,903,903,906,906,906,908,908,908,910,910,913,913,913,915,918,918,920,920,923,923,923,925,925,928,930,933,933,933,935,935,935,935,943,943,1108,1108,1108,1105,1105,1105,1105,1108,1108,1108,1108,1112,1112,1108,1108,1108,1108,1108,1108,1105,1105,1105,1105,1105,1108,1105,1105,1105,1101,1101,1101,1101,1101,1101,1101,1105,1105,1108,1105,1105,1105,1105,1105,1105,1105,1105,1105,1101,1101,1101,1101,1097,1097,1097,1097,1097,1097,1097,1097,1097,1094,1094,1094,1094,1094,1094,1094,1094,1094,1097,1097,1097,1097,1097,1097,1097,1097,1094,1094,1094,1094,1094,1094,1094,1094,1090,1090,1090,1090,1090,1090,1090,1090,1090,1090,1090,1090,1090,1087,1087,1087,1084,1084,1084,1084,1084,1084,1087,1087,1084,1084,1084,1084,1084,1084,1084,1080,1080,1084,1084,1084,1080,1080,1080,1080,1080,1080,1080,1080,1080,1080,1080,1080,1080,1080,1080,1080,1080,1080,1080,1080,1080,1077,1077,1077,1077,1073,1073,1073,1073,1073,1073,1073,1073,1073,1073,1070,1070,1070,1073,1073,1070,1070,1070,1067,1067,1067,1067,1067,1067,1067,1067,1067,1067,1063,1063,1063,1063,1063,1063,1063,1067,1067,1067,1067,1063,1063,1063,1063,1063,1063,1063,1063,1060,1060,1060,1060,1060,1060,1060,1060,1057,1057,1057,1054,1054,1054,1054,1054,1054,1054,1054,1054,1054,1054,1050,1050,1050,1050,1050,1050,1050,1047,1047,1047,1047,1047,1047,1047,1047,1047,1047,1047,1047,1047,1047,1047,1047,1047,1047,1047,1047,1050,1047,1047,1047,1044,1044,1044,1041,1041,1041,1041,1041,1041,1041,1044,1047,1047,1044,1044,1044,1041,1041,1041,1041,1038,1038,1038,1034,1034,1034,1034,1038,1038,1038,1041,1041,1041,811,811,813,813,813,813,813,813,813,813,811,811,811,811,811,811,811,811,811,811,811,811,811,811,811,811,811,811,811,811,809,809,809,811,811,811,811,811,811,811,811,811,813,813,815,815,815,817,817,819,819,0,0,0,0,0,0,0,0,0,0,0,0,0,0,0,0,0,0,0,0,0,0,0,0,0,0,0,0,0,0,0,0,0,0,0,0,0
0,0,0,0,0,0,1193,1193,1193,1189,1189,1189,1189,1189,1189,1189,1185,1185,1185,1185,1185,1185,1185,1185,1185,1181,1181,1185,1181,1181,1181,1181,1181,1177,1177,1173,1173,1173,1173,1173,1173,1173,1173,1173,1173,1169,1169,1173,1173,1173,1169,1169,1173,1173,1169,1169,1169,1169,1169,1169,1169,1169,1169,1169,1169,1173,1173,1173,1169,1169,1169,1169,1165,1165,1169,1169,1169,1173,1173,1173,1169,1169,1165,1165,1165,1165,1169,1165,1165,1165,1165,1165,1165,1165,1165,1165,1165,1161,1161,1161,1161,1161,1161,1161,1161,1157,1153,1153,1145,1145,1145,1141,1141,1145,1145,1145,1145,1145,1145,1145,1149,1149,1149,1149,1149,1149,1153,1149,1149,1149,1149,1149,1145,1145,0,0,0,0,0,0,0,794,790,787,780,780,780,778,778,778,778,780,780,780,781,781,783,785,785,787,787,789,792,792,792,792,792,792,792,0,0,0,0,0,1141,1141,1141,1141,1138,1138,1138,1134,1134,1134,1138,1138,1138,1134,1134,1134,1134,1134,1134,1134,1134,1134,1134,1130,1130,1130,1130,1130,1130,1130,1130,1130,1130,1130,1130,1130,1130,1130,1130,1130,1126,1126,1126,1126,1130,1130,1130,1130,1130,1130,898,898,898,898,901,901,901,901,901,901,901,901,898,898,901,903,903,903,903,906,906,906,908,908,910,913,913,913,915,918,918,920,920,923,923,925,925,925,928,930,930,933,933,935,935,935,935,1105,1105,1105,1105,1105,1105,1105,1105,1105,1105,1105,1105,1105,1108,1108,1105,1105,1105,1105,1105,1105,1105,1105,1105,1105,1105,1105,1101,1101,1101,1101,1094,1094,1097,1097,1101,1101,1105,1105,1105,1105,1105,1105,1105,1105,1105,1101,1101,1097,1097,1097,1097,1097,1094,1094,1094,1094,1094,1094,1094,1094,1094,1094,1094,1094,1094,1094,1094,1094,1094,1094,1090,1090,1094,1094,1094,1094,1094,1094,1094,1094,1094,1090,1090,1090,1090,1090,1090,1090,1090,1090,1090,1090,1090,1090,1090,1087,1087,1087,1087,1084,1084,1084,1084,1084,1084,1084,1080,1080,1084,1084,1080,1080,1080,1080,1080,1080,1080,1080,1080,1080,1080,1080,1080,1080,1077,1077,1077,1077,1077,1077,1077,1077,1080,1080,1080,1080,1077,1077,1077,1077,1077,1077,1077,1077,1073,1073,1073,1073,1073,1070,1070,1070,1070,1070,1070,1070,1070,1067,1067,1067,1067,1067,1067,1067,1067,1067,1063,1063,1067,1067,1067,1063,1063,1067,1063,1063,1063,1060,1060,1060,1060,1060,1060,1057,1057,1063,1060,1060,1060,1060,1060,1060,1060,1060,1060,1060,1060,1060,1057,1057,1057,1057,1057,1054,1054,1054,1054,1054,1054,1054,1054,1054,1050,1050,1050,1050,1047,1047,1047,1047,1047,1047,1044,1044,1044,1044,1044,1044,1044,1041,1041,1044,1044,1044,1041,1041,1044,1044,1044,1044,1047,1044,1044,1047,1047,1044,1044,1044,1044,1041,1041,1038,1038,1038,1041,1041,1041,1041,1044,1044,1044,1044,1041,1041,1041,1038,1038,1034,1034,1034,1031,1031,1034,1034,1034,1038,1038,1038,1041,811,811,811,813,813,813,813,813,813,813,813,811,811,811,811,811,811,811,811,811,811,811,811,811,811,811,811,811,811,811,811,811,811,811,811,811,811,811,811,813,813,813,813,813,813,815,817,817,819,819,819,821,0,0,0,0,0,0,0,0,0,0,0,0,0,0,0,0,0,0,0,0,0,0,0,0,0,0,0,0,0,0,0,0,0,0,0,0,0
0,0,0,0,0,0,1189,1189,1189,1185,1185,1185,1185,1185,1185,1185,1185,1181,1181,1181,1181,1181,1181,1181,1181,1181,1181,1181,1177,1177,1177,1177,1177,1177,1169,1169,1169,1169,1169,1169,1165,1165,1165,1165,1169,1165,1165,1169,1169,1169,1165,1165,1165,1169,1165,1165,1165,1165,1165,1165,1165,1165,1165,1165,1165,1169,1169,1165,1165,1165,1165,1165,1161,1161,1161,1161,1161,1161,1161,1161,1161,1165,1165,1165,1161,1161,1165,1165,1165,1161,1161,1161,1161,1157,1157,1157,1157,1157,1157,1161,1161,1161,1161,1161,1157,1157,1153,1153,1145,1145,1141,1141,1141,1141,1145,1145,1145,1145,1145,1145,1145,1145,1149,1149,1149,1149,1149,1149,1149,1145,1145,1145,1145,1145,0,0,0,0,0,796,796,794,792,789,783,781,780,780,780,780,780,780,780,781,781,783,783,785,787,787,787,789,792,794,794,794,794,794,794,796,0,0,0,0,1141,1141,1138,1138,1134,1134,1134,1134,1134,1134,1134,1134,1134,1134,1134,1134,1134,1134,1134,1134,1130,1130,1130,1130,1130,1126,1126,1126,1126,1126,1123,1123,1123,1126,1126,1126,1126,1126,1126,1126,1126,1126,1126,1126,1130,1130,1130,1130,898,898,898,898,898,898,898,898,898,898,898,898,898,898,898,898,898,901,901,903,903,906,906,906,908,908,910,913,913,915,915,918,918,920,920,923,923,925,925,925,928,930,930,933,933,935,935,1105,1105,1105,1105,1105,1105,1105,1105,1105,1105,1101,1101,1101,1101,1101,1101,1105,1105,1105,1105,1105,1105,1105,1105,1101,1101,1101,1101,1101,1101,1097,1097,1097,1094,1094,1097,1097,1097,1097,1097,1097,1101,1101,1101,1101,1101,1101,1101,1101,1097,1097,1097,1097,1094,1094,1094,1094,1094,1090,1090,1090,1090,1090,1090,1090,1090,1090,1090,1090,1090,1090,1090,1090,1090,1090,1090,1090,1087,1087,1090,1090,1090,1090,1090,1090,1090,1090,1090,1087,1087,1087,1087,1087,1087,1087,1087,1087,1087,1087,1084,1084,1084,1080,1080,1080,1080,1080,1080,1080,1077,1077,1080,1080,1080,1080,1080,1080,1080,1080,1077,1077,1077,1077,1077,1077,1077,1077,1077,1077,1073,1073,1073,1073,1073,1070,1070,1073,1073,1077,1077,1073,1073,1077,1077,1077,1077,1073,1073,1073,1070,1070,1070,1067,1067,1067,1067,1067,1067,1067,1067,1067,1063,1063,1067,1063,1063,1063,1063,1063,1063,1063,1063,1063,1063,1063,1063,1063,1060,1060,1060,1057,1057,1057,1057,1057,1057,1057,1057,1057,1057,1057,1057,1057,1057,1057,1057,1057,1057,1057,1057,1057,1054,1054,1054,1054,1054,1054,1054,1050,1050,1050,1050,1050,1050,1050,1050,1050,1050,1047,1047,1044,1044,1044,1044,1044,1041,1041,1041,1041,1041,1041,1041,1041,1041,1044,1041,1041,1041,1041,1041,1041,1041,1038,1038,1041,1041,1041,1041,1041,1041,1041,1041,1041,1038,1038,1038,1038,1038,1038,1038,1038,1041,1041,1038,1038,1038,1038,1038,1034,1031,1031,1031,1031,1028,1028,1031,1031,1034,1034,1034,1038,811,811,811,813,813,813,813,813,813,813,813,813,811,811,811,811,811,811,811,811,811,811,811,811,811,811,811,811,811,811,811,811,811,811,811,811,811,811,811,813,813,813,813,813,815,815,817,817,819,819,819,821,821,0,0,0,0,0,0,0,0,0,0,0,0,0,0,0,0,0,0,0,0,0,0,0,0,0,0,0,0,0,0,0,0,0,0,0,0,0
0,0,0,0,0,0,1185,1185,1185,1185,1185,1185,1185,1185,1181,1181,1181,1181,1181,1181,1177,1177,1177,1177,1177,1177,1177,1177,1177,1177,1177,1177,1173,1169,1169,1169,1169,1169,1165,1165,1165,1165,1165,1165,1165,1165,1165,1165,1165,1165,1165,1165,1165,1165,1165,1165,1165,1165,1165,1165,1165,1161,1161,1161,1161,1161,1161,1161,1157,1157,1161,1161,1157,1153,1153,1153,1157,1153,1153,1153,1153,1157,1161,1161,1161,1161,1161,1161,1161,1161,1161,1157,1157,1157,1157,1157,1157,1157,1157,1157,1157,1157,1157,1157,1157,1153,1149,1149,1145,1145,1141,1141,1141,1141,1145,1145,1145,1145,1145,1145,1145,1145,1145,1145,1145,1145,1145,1145,1145,1145,1145,1145,1141,1141,1145,0,0,0,0,796,796,796,796,794,794,783,781,780,780,780,780,780,780,781,781,783,785,787,787,787,789,790,792,794,794,794,794,794,794,796,0,0,0,0,0,1134,1134,1134,1130,1130,1130,1130,1130,1134,1134,1134,1134,1130,1130,1130,1130,1130,1130,1130,1130,1130,1130,1126,1126,1123,1123,1123,1123,1123,1123,1123,1123,1123,1123,1123,1123,1123,1126,1126,1126,1126,1126,889,889,889,891,894,894,896,896,898,898,898,898,898,898,898,898,896,896,898,898,898,898,901,901,903,903,903,906,906,906,908,910,913,913,915,915,918,918,920,920,923,925,925,925,928,928,930,930,933,933,1105,1105,1105,1101,1101,1105,1105,1101,1101,1101,1101,1101,1101,1101,1101,1101,1101,1101,1101,1101,1101,1101,1101,1101,1101,1101,1101,1101,1101,1097,1097,1097,1094,1094,1094,1090,1090,1094,1094,1094,1094,1097,1097,1097,1097,1097,1097,1097,1097,1097,1097,1094,1094,1094,1094,1094,1094,1090,1090,1090,1090,1090,1090,1090,1090,1090,1090,1090,1087,1087,1087,1087,1087,1087,1087,1087,1087,1087,1084,1084,1084,1084,1084,1087,1087,1087,1087,1087,1087,1087,1084,1084,1084,1084,1084,1084,1084,1084,1084,1084,1084,1080,1080,1080,1080,1080,1080,1080,1077,1077,1077,1077,1077,1077,1077,1077,1077,1077,1080,1077,1077,1077,1077,1077,1077,1073,1073,1073,1073,1073,1073,1070,1070,1070,1070,1070,1070,1070,1067,1067,1070,1073,1073,1070,1070,1073,1073,1073,1073,1073,1070,1070,1067,1067,1067,1067,1067,1067,1067,1063,1063,1063,1063,1063,1063,1063,1063,1063,1063,1060,1060,1060,1060,1060,1060,1060,1057,1057,1057,1057,1057,1057,1054,1054,1054,1054,1057,1054,1054,1054,1054,1054,1054,1050,1050,1050,1057,1057,1054,1054,1054,1054,1054,1054,1050,1050,1050,1050,1050,1050,1050,1050,1050,1050,1047,1047,1047,1047,1047,1047,1047,1044,1044,1044,1044,1044,1044,1041,1041,1041,1041,1041,1041,1041,1041,1041,1041,1041,1038,1038,1041,1041,1038,1038,1038,1038,1038,1038,1038,1038,1038,1038,1038,1038,1038,1038,1034,1034,1034,1034,1034,1034,1034,1034,1034,1028,1028,1034,1034,1034,1031,1031,1031,1031,1028,1028,1028,1028,1031,1031,1034,1034,1034,813,813,813,813,813,813,813,813,813,813,813,813,811,811,811,811,811,809,809,811,811,811,811,811,811,811,811,811,811,811,811,811,811,811,811,811,811,811,813,813,813,813,813,815,817,817,817,819,819,819,821,821,831,0,0,0,0,0,0,0,0,0,0,0,0,0,0,0,0,0,0,0,0,0,0,0,0,0,0,0,0,0,0,0,0,0,0,0,0,0
0,0,0,0,0,0,1181,1181,1181,1181,1181,1181,1181,1181,1181,1181,1181,1181,1177,1177,1177,1173,1173,1173,1173,1173,1173,1173,1173,1173,1169,1169,1169,1169,1165,1165,1165,1165,1165,1165,1165,1165,1165,1165,1165,1165,1165,1161,1161,1161,1161,1161,1161,1161,1161,1165,1165,1165,1161,1161,1161,1161,1161,1161,1161,1161,1161,1161,1157,1157,1157,1157,1153,1153,1153,1153,1153,1153,1153,1153,1153,1153,1157,1157,1157,1157,1157,1157,1157,1153,1153,1153,1153,1153,1153,1153,1153,1153,1153,1153,1153,1153,1153,1153,1153,1149,1149,1149,1145,1145,1141,1141,1141,1141,1145,1145,1145,1145,1145,1145,1145,1145,1145,1145,1145,1145,1145,1145,1141,1141,1141,1141,1138,1138,1138,0,0,0,0,794,794,794,796,794,794,783,781,781,780,780,780,781,781,781,783,783,787,787,787,789,789,790,792,794,794,794,794,794,794,796,796,796,0,0,0,1134,1126,1126,1126,1126,1126,1130,1130,1130,1130,1130,1130,1130,1130,1130,1126,1126,1130,1130,1130,1126,1126,1126,1123,1123,1123,1123,1119,1119,1119,1119,1119,1119,1119,1119,1119,1123,1123,1123,1123,1123,891,889,889,889,891,891,894,894,894,894,896,896,896,896,896,896,896,896,896,896,896,896,898,898,901,903,903,903,906,906,906,908,910,913,913,915,915,918,918,920,920,923,925,925,925,928,928,930,933,1101,1101,1101,1101,1101,1101,1101,1101,1105,1101,1101,1101,1101,1101,1097,1097,1097,1097,1097,1097,1097,1097,1097,1097,1097,1097,1097,1097,1097,1097,1097,1094,1094,1094,1094,1094,1090,1090,1090,1090,1094,1094,1094,1094,1094,1097,1097,1097,1094,1094,1094,1094,1094,1094,1094,1094,1094,1094,1090,1090,1090,1090,1090,1090,1090,1087,1087,1090,1087,1087,1084,1084,1084,1084,1084,1080,1080,1080,1084,1084,1080,1080,1080,1080,1080,1084,1084,1084,1084,1087,1087,1084,1084,1084,1080,1080,1080,1080,1080,1080,1080,1080,1080,1077,1077,1077,1077,1077,1077,1077,1077,1077,1077,1073,1073,1073,1073,1073,1077,1077,1077,1077,1077,1077,1077,1073,1073,1070,1070,1070,1070,1070,1070,1070,1070,1070,1070,1070,1067,1067,1067,1067,1067,1067,1067,1067,1070,1070,1070,1070,1070,1070,1070,1067,1067,1067,1067,1063,1063,1063,1063,1063,1060,1060,1060,1060,1060,1060,1060,1060,1060,1057,1057,1057,1057,1057,1057,1057,1057,1057,1054,1054,1054,1054,1054,1054,1054,1054,1054,1054,1050,1050,1050,1050,1050,1047,1047,1047,1047,1047,1050,1054,1054,1050,1050,1050,1050,1050,1050,1047,1047,1050,1047,1047,1047,1047,1044,1044,1044,1044,1044,1044,1044,1044,1044,1041,1041,1041,1041,1041,1038,1038,1038,1038,1038,1038,1038,1038,1038,1041,1034,1034,1038,1038,1038,1034,1034,1034,1034,1034,1034,1034,1034,1038,1038,1034,1034,1034,1034,1031,1028,1028,1031,1028,1028,1028,1028,1028,1028,1028,1028,1028,1028,1028,1028,1028,1028,1025,1025,1025,1031,1031,1034,1034,1034,813,813,813,813,813,813,813,813,813,813,813,811,811,811,811,811,811,809,809,809,809,809,811,811,811,811,811,811,811,811,811,811,811,811,811,811,811,811,813,813,813,813,813,815,817,817,819,819,819,819,821,823,831,0,0,0,0,0,0,0,0,0,0,0,0,0,0,0,0,0,0,0,0,0,0,0,0,0,0,0,0,0,0,0,0,0,0,0,0,0
0,0,0,0,0,0,1181,1181,1181,1181,1181,1181,1181,1181,1181,1181,1181,1177,1177,1177,1177,1173,1173,1169,1169,1169,1169,1169,1169,1169,1169,1169,1169,1165,1165,1165,1165,1165,1161,1161,1161,1161,1161,1165,1165,1161,1161,1161,1161,1161,1161,1161,1161,1161,1161,1161,1161,1161,1161,1161,1161,1157,1157,1157,1157,1157,1157,1157,1153,1153,1153,1153,1153,1149,1149,1149,1153,1149,1149,1149,1149,1149,1153,1153,1153,1153,1153,1153,1153,1149,1149,1149,1149,1149,1149,1149,1149,1149,1149,1149,1149,1149,1149,1149,1149,1145,1145,1145,1145,1145,1141,1141,1141,1141,1145,1141,1141,1145,1145,1145,1145,1145,1145,1145,1145,1145,1141,1141,1141,1141,1141,1138,1138,1138,1134,1134,0,0,0,794,794,794,796,794,794,787,783,781,781,781,781,781,781,783,783,785,787,787,787,789,789,790,792,794,794,794,794,794,794,796,796,0,0,0,0,0,1126,1126,1126,1126,1126,1126,1126,1126,1126,1126,1126,1126,1126,1123,1123,1123,1126,1126,1123,1123,1123,1123,1119,1119,1119,1119,1119,1119,1119,1119,1115,1115,1119,1119,1119,1119,1119,1123,887,887,887,889,889,889,891,891,891,894,891,891,894,894,894,894,896,896,896,896,896,896,896,896,896,898,901,903,903,903,906,906,906,908,910,913,913,915,915,918,918,920,920,923,925,925,928,928,930,933,1101,1101,1101,1101,1101,1101,1101,1101,1101,1101,1097,1097,1097,1097,1097,1097,1097,1097,1097,1097,1097,1097,1097,1097,1094,1094,1094,1094,1094,1090,1090,1090,1094,1094,1090,1090,1090,1090,1090,1090,1090,1090,1090,1090,1094,1094,1094,1094,1094,1094,1090,1090,1090,1090,1090,1090,1090,1090,1090,1090,1087,1087,1087,1087,1087,1087,1087,1087,1087,1084,1084,1080,1080,1080,1080,1080,1080,1080,1080,1080,1080,1080,1080,1080,1080,1080,1080,1080,1080,1080,1080,1080,1080,1080,1080,1080,1080,1080,1077,1077,1077,1077,1077,1077,1077,1077,1077,1077,1077,1077,1077,1073,1073,1073,1070,1070,1070,1070,1070,1070,1070,1073,1073,1073,1073,1073,1070,1070,1067,1067,1067,1067,1067,1067,1067,1067,1067,1067,1067,1067,1067,1067,1063,1063,1063,1063,1063,1063,1063,1067,1067,1067,1067,1067,1067,1067,1063,1063,1063,1063,1060,1060,1060,1057,1057,1060,1057,1057,1057,1057,1057,1057,1057,1057,1054,1054,1054,1054,1054,1054,1054,1054,1054,1054,1054,1050,1050,1050,1050,1050,1050,1050,1047,1047,1047,1047,1047,1047,1047,1047,1047,1047,1047,1050,1050,1050,1047,1047,1047,1047,1044,1044,1047,1044,1044,1044,1044,1041,1041,1041,1041,1041,1041,1041,1041,1041,1041,1041,1041,1038,1038,1038,1038,1038,1038,1038,1038,1038,1034,1034,1031,1031,1031,1031,1031,1031,1031,1031,1031,1034,1031,1031,1031,1034,1034,1034,1034,1034,1034,1031,1031,1028,1028,1028,1025,1025,1025,1025,1025,1025,1028,1028,1028,1028,1028,1028,1028,1025,1025,1025,1025,1028,1028,1034,1034,813,813,813,813,813,813,813,813,813,813,813,813,811,811,811,811,811,811,809,809,809,809,809,811,811,811,811,811,811,811,811,811,811,811,811,811,811,811,813,813,813,813,813,815,815,817,817,819,819,819,821,821,823,831,0,0,0,0,0,0,0,0,0,0,0,0,0,0,0,0,0,0,0,0,0,0,0,0,0,0,0,0,0,0,0,0,0,0,0,0,0
0,0,0,0,0,0,1181,1181,1177,1177,1177,1177,1177,1177,1177,1177,1177,1177,1177,1177,1173,1173,1169,1169,1169,1165,1165,1165,1165,1169,1169,1169,1169,1165,1165,1165,1165,1165,1161,1161,1161,1161,1161,1161,1161,1161,1161,1161,1161,1161,1161,1161,1161,1161,1161,1161,1161,1161,1161,1157,1157,1157,1157,1157,1153,1153,1153,1153,1149,1149,1153,1149,1149,1149,1149,1149,1149,1149,1149,1149,1149,1149,1149,1149,1149,1149,1149,1149,1145,1145,1145,1145,1145,1145,1145,1149,1149,1145,1145,1145,1145,1145,1145,1145,1145,1145,1145,1145,1145,1141,1141,1138,1138,1141,1141,1141,1141,1141,1145,1145,1145,1145,1141,1141,1141,1141,1138,1138,1141,1138,1138,1138,1134,1134,1134,1134,0,0,0,0,0,796,796,798,798,792,787,783,783,781,781,783,783,785,785,787,787,787,789,789,790,792,794,794,794,796,796,796,796,796,796,0,0,0,0,1123,1123,1123,1123,1119,1119,1123,1126,1126,1123,1123,1123,1123,1123,1123,1119,1119,1123,1123,1119,1119,1119,1119,1119,1119,1115,1115,1115,1115,1115,1115,1115,1115,1115,1115,1119,1119,1119,887,887,887,887,889,889,889,891,889,889,891,889,889,889,889,889,891,891,894,894,894,896,896,896,896,896,898,901,903,903,903,906,906,906,908,910,913,913,915,915,918,918,920,920,923,923,925,928,928,930,1101,1101,1101,1101,1101,1101,1101,1097,1097,1101,1097,1097,1097,1097,1097,1094,1094,1094,1094,1094,1094,1094,1094,1094,1094,1090,1090,1090,1090,1090,1090,1090,1090,1087,1087,1087,1087,1090,1090,1087,1087,1087,1087,1087,1087,1090,1090,1090,1090,1090,1090,1090,1090,1087,1087,1087,1087,1084,1084,1084,1084,1084,1084,1084,1084,1084,1084,1084,1084,1084,1084,1080,1080,1080,1077,1077,1077,1077,1077,1077,1077,1077,1077,1077,1077,1077,1077,1077,1077,1077,1077,1077,1077,1077,1077,1077,1077,1077,1077,1077,1077,1077,1077,1073,1073,1073,1073,1073,1073,1073,1073,1073,1073,1073,1070,1070,1070,1070,1067,1067,1067,1067,1070,1070,1067,1067,1070,1067,1063,1063,1063,1063,1063,1063,1063,1067,1067,1063,1063,1063,1063,1063,1063,1060,1060,1060,1063,1060,1060,1063,1063,1063,1063,1063,1063,1063,1063,1063,1060,1060,1060,1060,1060,1057,1057,1057,1057,1057,1057,1054,1054,1054,1054,1054,1054,1054,1054,1054,1054,1054,1054,1050,1050,1050,1050,1050,1050,1050,1050,1050,1050,1050,1047,1044,1044,1044,1044,1044,1044,1044,1044,1044,1044,1044,1044,1044,1044,1044,1044,1044,1044,1044,1044,1044,1041,1041,1041,1041,1038,1038,1038,1038,1038,1041,1041,1041,1041,1041,1041,1038,1038,1038,1034,1034,1034,1034,1034,1034,1034,1034,1034,1031,1028,1028,1028,1028,1028,1028,1028,1028,1028,1028,1028,1028,1028,1028,1028,1028,1028,1031,1028,1028,1025,1025,1025,1025,1025,1022,1022,1025,1025,1025,1025,1025,1025,1025,1025,1025,1025,1022,1022,1022,1025,1028,1028,813,813,813,813,813,813,813,813,813,813,813,813,813,811,811,811,811,811,811,811,811,811,811,811,811,811,811,811,811,811,811,811,811,811,811,811,811,811,813,813,813,813,813,813,815,815,817,819,819,819,819,821,823,823,833,0,0,0,0,0,0,0,0,0,0,0,0,0,0,0,0,0,0,0,0,0,0,0,0,0,0,0,0,0,0,0,0,0,0,0,0,0
0,0,0,0,0,0,1181,1177,1177,1177,1177,1177,1177,1177,1177,1177,1177,1173,1173,1169,1169,1169,1169,1165,1165,1165,1165,1165,1165,1165,1165,1165,1165,1165,1161,1161,1161,1161,1161,1161,1161,1161,1161,1161,1161,1161,1157,1157,1157,1157,1157,1157,1161,1161,1161,1161,1157,1157,1157,1157,1157,1153,1153,1153,1153,1153,1149,1149,1149,1149,1149,1149,1145,1145,1145,1145,1145,1145,1149,1149,1149,1149,1149,1145,1145,1145,1145,1145,1145,1145,1145,1145,1145,1145,1145,1145,1145,1145,1145,1145,1145,1145,1141,1141,1141,1141,1141,1141,1141,1138,1138,1134,1134,1138,1138,1138,1138,1141,1141,1141,1138,1138,1138,1138,1138,1138,1138,1138,1138,1138,1134,1134,1134,1134,1134,1130,1130,0,0,0,0,0,0,798,798,796,792,787,783,783,783,783,783,785,785,787,787,787,789,789,790,792,794,794,794,796,796,796,796,796,796,0,0,0,0,1119,1119,1119,1119,1119,1119,1119,1119,1123,1119,1119,1119,1119,1119,1119,1119,1119,1119,1119,1119,1119,1119,1119,1119,1115,1115,1115,1115,1115,1115,1115,1115,1115,1115,1115,1119,1119,1119,887,887,887,887,889,889,889,889,889,889,889,887,887,887,889,889,889,889,891,891,894,894,894,896,896,896,898,901,903,903,903,906,906,906,908,910,913,913,915,915,918,918,920,920,923,923,925,925,928,1097,1094,1094,1097,1097,1097,1097,1097,1094,1094,1097,1094,1090,1090,1090,1090,1094,1090,1090,1094,1094,1090,1090,1090,1090,1090,1090,1090,1090,1090,1087,1087,1087,1087,1087,1084,1084,1084,1084,1087,1087,1087,1087,1087,1087,1087,1087,1087,1087,1087,1087,1087,1087,1084,1084,1084,1084,1084,1080,1080,1080,1080,1080,1080,1080,1080,1080,1080,1080,1080,1080,1080,1080,1080,1077,1077,1077,1077,1077,1077,1077,1077,1077,1077,1077,1077,1077,1077,1077,1077,1077,1077,1077,1077,1077,1073,1073,1073,1073,1073,1073,1073,1073,1073,1073,1073,1073,1073,1073,1073,1073,1070,1070,1070,1070,1067,1067,1067,1067,1067,1067,1067,1067,1067,1067,1063,1063,1067,1063,1063,1063,1063,1063,1063,1063,1063,1063,1063,1063,1063,1060,1060,1060,1060,1057,1057,1057,1060,1060,1060,1060,1060,1060,1060,1057,1057,1057,1063,1060,1060,1057,1057,1057,1057,1057,1054,1054,1054,1054,1054,1054,1054,1054,1054,1054,1054,1050,1050,1050,1054,1054,1050,1050,1050,1050,1050,1050,1050,1050,1047,1047,1047,1047,1044,1044,1044,1041,1041,1041,1041,1041,1041,1041,1041,1041,1041,1041,1041,1041,1041,1041,1041,1041,1041,1041,1041,1038,1038,1038,1038,1038,1034,1034,1038,1038,1038,1038,1038,1038,1038,1038,1034,1034,1034,1034,1034,1031,1031,1031,1028,1028,1028,1028,1028,1028,1028,1028,1028,1028,1025,1025,1028,1028,1025,1025,1025,1025,1028,1028,1028,1028,1025,1025,1025,1022,1022,1022,1022,1022,1022,1022,1022,1022,1022,1022,1022,1022,1022,1022,1025,1022,1022,1022,1025,1028,1031,813,813,813,813,813,813,813,813,813,813,813,813,813,811,811,811,811,811,811,811,811,811,811,811,811,811,811,811,811,811,811,811,811,811,811,811,811,813,813,813,813,813,815,815,815,815,817,819,819,819,821,821,823,831,831,0,0,0,0,0,0,0,0,0,0,0,0,0,0,0,0,0,0,0,0,0,0,0,0,0,0,0,0,0,0,0,0,0,0,0,0,0
