0,0,0,0,0,0,0,0,0,0,0,0,0,0,2156,2156,2156,2143,2143,2129,2129,2129,2129,2116,2116,2116,2116,2103,2103,2103,2103,2103,2090,2090,2090,2090,2090,2090,2090,2090,2090,2078,2078,2078,2078,2078,2065,2065,2065,2065,2065,2065,2065,2053,2053,2053,2053,2053,2040,2040,2040,2040,2028,2028,2028,2028,2028,2028,2028,2028,2016,2016,2016,2016,2016,2005,2005,2005,2005,2005,2005,2005,1993,1993,1993,1993,1981,1981,1981,1970,1970,1970,1970,1970,1959,1959,1947,1947,1947,1947,1947,1947,1947,1936,1936,1947,1936,1936,1926,1926,1926,1915,1915,1915,1915,1025,1025,1025,1025,1025,1025,1025,1025,1025,1025,1025,1025,1025,1025,1025,1034,1034,1034,1034,1034,1034,1034,1034,1028,1028,1028,1028,1028,1028,1031,1031,1034,1034,1034,1038,1038,1038,1034,1034,1034,1034,1034,1034,1034,1034,1038,1038,1038,1038,1038,1038,1041,1038,1038,1041,1041,1038,1038,1038,1038,1038,1038,1034,1034,1034,1038,1038,1031,1028,1028,1031,1031,1028,1028,1031,1034,1034,1038,1041,1038,1038,1038,1038,1038,1031,1028,1028,1038,1034,1034,1034,1034,1038,1038,1034,1031,1031,1034,1034,1034,1031,1031,1031,1031,1031,1031,1031,1031,1034,1034,1034,1034,1034,1038,1038,1044,1041,1041,1044,1041,1041,1038,1038,1038,1038,1038,1038,1038,1038,1038,1038,1038,1034,1034,1038,1038,1038,1038,1038,1038,1038,1038,1038,1038,1038,1038,1034,1031,1028,1028,1028,1025,1936,1936,1926,1926,1926,1926,1926,1936,1947,1947,1947,1959,1959,1959,1959,1959,1959,1970,1959,1959,1959,1959,1970,1970,0,0,0,0,0,0,0,0,0,862,860,860,860,858,858,858,856,854,854,854,851,849,847,847,847,849,849,851,851,854,854,854,856,856,858,858,860,860,860,862,862,862,862,862,0,0,0,0,0,0,0,1671,1671,1671,1671,1663,1663,1655,1647,1639,1639,1632,1632,1624,1624,1616,1609,1609,1609,1609,1601,1594,1594,1586,1586,1579,1579,1572,1572,1564,1564,1557,1550,1543,1543,1536,1536,1536,1529,1523,1523,1523,1516,1516,1516,1509,1496,1496,1489,1489,1489,1483,1477,1470,1470,1470,1464,1464,1464,1452,1452,1445,1445,1439,1439,1433,1433,1427,1427,1421,1421,1415,1415,1410,1404,1404,1398,1398,1398,1392,1392,1392,1387,1381,1376,1376,1370,1370,1365,1359,1359,1354,1354,1354,1349,1349,1343,1338,1338,1333,1333,1328,1328,1328,1322,1322,1317,1312,1307,1302,1302,1297,1297,1292,1292,1292,1292,1288,1288,1283,1278,1278,1273,1268,1268,1264,1259,1259,1255,1255,1250,1250,1250,1241,1241,1236,1236,1236,1232,1232,1232,1227,1227,1223,1219,1219,1214,1210,1206,1206,1202,1202,1197,1197,1193,1193,1185,1185,1185,1181,1181,1181,1177,1177,1173,1169,1169,1165,1165,1161,1161,1157,1153,1153,1153,1145,1145,1141,1138,1138,1134,1134,1134,1130,1130,1126,1123,1123,1119,1119,1119,1115,1112,1108,1105,1105,1101,1101,1101,1097,1094,1094,1094,1090,1087,1087,1084,1084,1080,1080,1077,1077,1077,1073,1070,1067,1063,1063,1063,1063,1060,1057,1054,1054,1050,1050,1047,1047,1044,1044,1041,1041,1038,1038,1034,1031,1028,1028,1028,1028,1028,1025,1025,1022,1019,1016,1016,1016,1013,1010,1010,1007,1004,1004,1004,1001,1001,998,998,995,992,992,989,989,987,987,0,0,0,0,0,0,0,0,0,0,0,0,0,0,0,0,0,0,0,0,0,0,0,0,0,0,0,0,0,0,0,0,0
0,0,0,0,0,0,0,0,0,0,0,0,0,0,2156,2156,2143,2143,2143,2129,2129,2129,2129,2116,2116,2116,2116,2116,2116,2103,2103,2103,2103,2103,2103,2090,2090,2103,2103,2103,2090,2090,2090,2078,2078,2078,2078,2078,2065,2065,2065,2065,2065,2065,2053,2053,2053,2053,2053,2053,2040,2040,2040,2028,2028,2028,2028,2028,2028,2028,2016,2016,2016,2016,2005,2005,2005,2005,2005,2005,2005,2005,2005,2005,1993,1993,1981,1981,1981,1970,1970,1970,1970,1970,1959,1959,1947,1013,1013,1010,1010,1007,1007,1010,1010,1013,1013,1013,1016,1926,1926,1019,1019,1019,1022,1022,1019,1019,1022,1022,1025,1025,1025,1025,1022,1022,1022,1025,1025,1025,1025,1034,1034,1034,1034,1031,1028,1028,1025,1025,1025,1025,1025,1025,1028,1028,1028,1028,1028,1028,1031,1031,1028,1028,1028,1028,1028,1028,1028,1028,1031,1031,1031,1031,1028,1028,1034,1034,1034,1038,1038,1034,1034,1034,1031,1031,1031,1028,1028,1028,1028,1034,1028,1025,1025,1025,1025,1025,1025,1028,1028,1028,1025,1025,1031,1028,1028,1031,1028,1028,1025,1025,1028,1028,1028,1028,1028,1031,1031,1031,1031,1031,1031,1031,1028,1025,1025,1028,1025,1025,1028,1028,1028,1028,1028,1028,1028,1028,1028,1028,1025,1025,1031,1031,1038,1038,1034,1034,1034,1034,1034,1034,1034,1034,1031,1031,1031,1028,1028,1031,1031,1031,1031,1034,1034,1034,1034,1034,1034,1034,1034,1031,1028,1025,1025,1025,1025,1016,1016,1016,1926,1926,1926,1926,1936,1947,1947,1947,1959,1959,1959,1959,1970,1970,1970,1970,1959,1959,1959,1970,1981,0,0,0,0,0,0,0,0,864,862,862,860,860,860,858,858,856,854,854,854,851,851,849,849,849,849,851,851,851,854,854,854,856,856,858,860,860,860,862,862,862,862,862,862,862,0,0,0,0,0,0,1671,1671,1671,1671,1663,1663,1663,1647,1647,1639,1639,1632,1632,1632,1624,1616,1616,1616,1609,1601,1601,1594,1586,1586,1579,1579,1572,1572,1572,1564,1557,1550,1550,1543,1543,1543,1536,1536,1529,1523,1523,1523,1516,1516,1509,1496,1496,1489,1489,1489,1483,1483,1477,1470,1470,1464,1464,1464,1452,1452,1445,1445,1439,1439,1433,1433,1433,1427,1421,1421,1415,1415,1415,1410,1404,1398,1398,1398,1392,1392,1392,1387,1381,1376,1376,1370,1370,1365,1359,1359,1354,1354,1354,1349,1349,1343,1338,1338,1333,1333,1333,1328,1328,1328,1322,1317,1312,1312,1307,1302,1302,1297,1297,1292,1292,1292,1288,1283,1283,1278,1278,1273,1268,1268,1268,1264,1259,1255,1255,1255,1250,1250,1245,1241,1236,1236,1236,1236,1232,1232,1232,1227,1223,1219,1219,1214,1210,1210,1206,1202,1202,1197,1197,1193,1193,1185,1185,1185,1181,1181,1181,1177,1177,1173,1169,1169,1169,1165,1165,1161,1157,1153,1153,1153,1145,1141,1141,1138,1138,1138,1134,1134,1134,1130,1126,1123,1123,1119,1119,1119,1115,1112,1108,1105,1105,1101,1101,1101,1097,1094,1094,1094,1090,1090,1087,1087,1084,1080,1080,1080,1077,1077,1073,1070,1067,1063,1063,1063,1063,1060,1057,1054,1054,1054,1050,1050,1050,1047,1044,1041,1041,1038,1038,1034,1031,1028,1028,1028,1028,1028,1025,1025,1022,1019,1016,1016,1016,1013,1010,1010,1007,1007,1004,1004,1001,1001,998,998,992,992,992,989,989,989,989,0,0,0,0,0,0,0,0,0,0,0,0,0,0,0,0,0,0,0,0,0,0,0,0,0,0,0,0,0,0,0,0,0
0,0,0,0,0,0,0,0,0,0,0,0,0,0,2156,2156,2143,2143,2129,2129,2129,2129,2116,2116,2116,2116,2116,2116,2116,2116,2116,2116,2103,2103,2103,2103,2103,2103,2103,2103,2103,2103,2090,2090,2078,2078,2078,2078,2078,2065,2065,2065,2065,2065,2065,2053,2053,2053,2053,2053,2040,2040,2040,2028,2028,2028,2028,2028,2028,2028,2016,2016,2016,2016,2005,2005,2005,2005,2005,2005,2005,2005,2005,2005,1993,1993,1981,1981,1981,1970,1970,1970,1004,1004,1959,1959,1947,1013,1013,1010,1010,1007,1007,1007,1007,1007,1010,1010,1013,1013,1013,1013,1019,1019,1022,1022,1019,1019,1022,1022,1022,1022,1022,1022,1022,1022,1022,1022,1022,1022,1025,1022,1022,1025,1025,1025,1025,1025,1025,1025,1022,1022,1022,1022,1025,1025,1025,1025,1025,1025,1025,1025,1025,1025,1025,1025,1025,1028,1028,1025,1019,1019,1022,1025,1025,1025,1025,1028,1028,1025,1025,1025,1025,1028,1028,1028,1028,1025,1025,1025,1025,1022,1022,1022,1022,1022,1022,1022,1022,1022,1025,1025,1022,1022,1025,1025,1025,1025,1022,1022,1022,1022,1022,1022,1022,1022,1022,1025,1025,1025,1025,1025,1022,1019,1019,1016,1016,1019,1022,1022,1022,1022,1022,1022,1025,1022,1022,1019,1019,1019,1019,1016,1016,1016,1016,1019,1019,1031,1031,1031,1031,1028,1028,1028,1025,1025,1025,1025,1025,1025,1025,1028,1028,1031,1031,1031,1031,1031,1031,1031,1028,1025,1022,1022,1019,1019,1019,1016,1016,1016,1926,1926,1926,1926,1936,1947,1947,1959,1959,1959,1970,1970,989,989,989,1970,1970,1970,1970,1970,0,0,0,0,0,0,0,0,0,864,864,862,862,860,860,858,858,856,854,854,854,851,849,849,849,849,851,851,851,851,854,854,854,856,856,858,860,860,862,862,862,862,862,862,862,862,0,0,0,0,0,0,0,1671,1671,1671,1671,1663,1663,1647,1647,1639,1639,1632,1632,1632,1624,1616,1616,1616,1609,1609,1601,1594,1586,1586,1579,1579,1572,1572,1572,1564,1557,1550,1550,1543,1543,1543,1536,1536,1529,1523,1523,1523,1516,1516,1509,1503,1496,1496,1489,1489,1483,1483,1477,1470,1470,1464,1464,1464,1452,1452,1445,1445,1439,1439,1433,1433,1433,1427,1421,1421,1415,1415,1415,1410,1404,1404,1398,1398,1398,1392,1392,1392,1381,1381,1376,1370,1370,1365,1359,1359,1354,1354,1354,1349,1349,1343,1343,1338,1333,1333,1333,1328,1328,1322,1322,1317,1312,1312,1307,1307,1302,1302,1297,1292,1292,1292,1288,1283,1283,1278,1278,1273,1268,1268,1268,1264,1264,1259,1255,1255,1250,1250,1245,1241,1236,1236,1236,1236,1232,1232,1232,1227,1223,1223,1219,1214,1214,1210,1210,1206,1202,1202,1197,1193,1193,1185,1185,1185,1185,1181,1181,1177,1177,1173,1173,1169,1169,1165,1165,1161,1161,1157,1153,1153,1145,1141,1141,1138,1138,1138,1134,1134,1134,1130,1130,1126,1123,1119,1119,1119,1115,1112,1108,1108,1105,1105,1101,1101,1097,1094,1094,1094,1090,1090,1090,1087,1087,1084,1080,1080,1077,1077,1073,1070,1070,1067,1063,1063,1063,1060,1060,1057,1054,1054,1050,1050,1050,1047,1044,1041,1041,1038,1038,1034,1031,1031,1028,1028,1028,1028,1025,1025,1022,1019,1019,1016,1016,1013,1013,1010,1007,1007,1004,1004,1001,1001,998,998,992,992,992,989,989,989,989,0,0,0,0,0,0,0,0,0,0,0,0,0,0,0,0,0,0,0,0,0,0,0,0,0,0,0,0,0,0,0,0,0
0,0,0,0,0,0,0,0,0,0,0,0,0,0,2156,2156,2143,2143,2129,2129,2129,2129,2116,2116,2116,2116,2116,2116,2116,2116,2116,2116,2116,2116,2116,2103,2103,2103,2103,2103,2103,2103,2103,2090,2090,2078,2078,2078,2065,2065,2065,2065,2065,2065,2065,2053,2053,2053,2053,2053,2053,2053,2040,2040,2040,2040,2040,2040,2040,2028,2028,2028,2016,2016,2005,2005,2005,2005,2005,2005,2005,2005,2005,2005,1993,1993,1981,1001,998,998,998,998,1001,1004,1004,1004,1010,1010,1013,1013,1010,1007,1007,1007,1007,1007,1010,1010,1010,1010,1013,1013,1016,1019,1022,1019,1019,1019,1019,1019,1019,1016,1016,1016,1019,1019,1019,1022,1019,1019,1025,1022,1022,1025,1025,1022,1022,1019,1019,1019,1019,1019,1019,1022,1022,1022,1022,1022,1022,1022,1022,1022,1022,1022,1022,1022,1022,1022,1022,1013,1013,1016,1022,1019,1019,1019,1019,1022,1022,1022,1022,1022,1022,1022,1022,1022,1022,1022,1022,1022,1019,1019,1016,1016,1016,1019,1019,1019,1019,1019,1019,1019,1019,1019,1019,1022,1019,1019,1019,1019,1016,1016,1016,1016,1016,1016,1016,1013,1013,1016,1016,1016,1013,1013,1013,1013,1013,1013,1016,1013,1013,1013,1016,1016,1019,1016,1016,1013,1013,1013,1013,1016,1016,1016,1016,1016,1016,1019,1022,1019,1019,1025,1025,1025,1022,1022,1022,1022,1022,1019,1019,1022,1022,1016,1016,1019,1019,1019,1016,1016,1019,1019,1019,1019,1019,1016,1016,1013,1013,1013,1013,1013,1013,1936,1936,1959,1959,1959,1959,1970,992,992,989,989,989,989,1959,1959,1959,1970,0,0,0,0,0,0,0,0,0,864,864,862,862,860,860,858,858,856,854,854,854,851,849,849,849,849,851,851,851,854,854,854,856,856,858,860,860,860,862,862,862,862,862,862,862,862,0,0,0,0,0,0,1688,1680,1671,1671,1671,1663,1663,1655,1647,1639,1639,1639,1632,1632,1624,1624,1616,1616,1609,1609,1601,1601,1594,1586,1586,1579,1579,1572,1572,1564,1564,1550,1550,1543,1543,1543,1543,1536,1536,1529,1523,1523,1523,1516,1509,1503,1496,1496,1489,1489,1483,1483,1477,1477,1470,1464,1464,1464,1452,1452,1445,1445,1445,1439,1439,1433,1433,1427,1427,1421,1421,1415,1415,1410,1410,1404,1398,1398,1398,1398,1392,1392,1381,1381,1376,1376,1370,1365,1365,1359,1359,1354,1354,1349,1349,1343,1343,1338,1333,1333,1333,1328,1328,1322,1322,1317,1312,1307,1307,1307,1302,1302,1297,1292,1292,1292,1288,1288,1283,1283,1278,1273,1273,1268,1268,1264,1264,1259,1255,1255,1250,1250,1245,1241,1241,1236,1236,1236,1232,1232,1232,1227,1223,1223,1219,1214,1214,1210,1210,1206,1206,1202,1197,1193,1193,1185,1185,1185,1185,1181,1181,1177,1177,1173,1173,1169,1169,1165,1165,1161,1161,1157,1153,1153,1149,1145,1141,1141,1138,1138,1134,1134,1134,1130,1130,1123,1123,1119,1119,1119,1119,1112,1108,1108,1105,1105,1101,1101,1101,1097,1094,1094,1090,1090,1090,1087,1084,1080,1080,1080,1077,1077,1073,1070,1070,1067,1063,1063,1063,1060,1060,1057,1054,1054,1054,1050,1050,1047,1044,1041,1041,1038,1038,1034,1031,1031,1028,1028,1028,1028,1025,1025,1025,1022,1019,1016,1016,1013,1013,1010,1010,1007,1004,1004,1001,1001,1001,998,995,992,992,992,989,989,989,0,0,0,0,0,0,0,0,0,0,0,0,0,0,0,0,0,0,0,0,0,0,0,0,0,0,0,0,0,0,0,0,0
0,0,0,0,0,0,0,0,0,0,0,0,0,0,2156,2156,2143,2143,2143,2129,2129,2129,2129,2116,2116,2116,2116,2116,2116,2116,2116,2116,2116,2116,2116,2116,2116,2116,2103,2103,2103,2103,2103,2090,2090,2078,2078,2078,2065,2065,2065,2065,2065,2065,2065,2053,2053,2053,2053,2053,2053,2053,2053,2053,2053,2053,2053,2040,2040,2040,2028,2028,2016,2016,2005,2005,2005,2005,1993,1993,1993,1993,1993,1993,1993,1993,992,992,998,995,995,998,1001,1001,1001,1001,1007,1007,1010,1010,1010,1010,1010,1007,1007,1010,1010,1010,1010,1010,1010,1010,1013,1013,1016,1016,1019,1019,1019,1019,1016,1013,1013,1013,1013,1016,1016,1016,1016,1016,1016,1013,1013,1013,1013,1013,1016,1016,1013,1013,1013,1016,1016,1013,1013,1013,1013,1016,1016,1016,1016,1016,1019,1019,1019,1016,1016,1019,1019,1013,1013,1013,1013,1016,1013,1013,1013,1013,1013,1013,1010,1010,1010,1019,1019,1019,1019,1013,1013,1016,1016,1013,1013,1013,1013,1016,1016,1016,1016,1016,1016,1016,1013,1013,1013,1013,1013,1013,1013,1016,1016,1016,1013,1013,1013,1016,1016,1013,1013,1013,1010,1010,1010,1007,1007,1010,1010,1007,1007,1010,1010,1010,1007,1007,1010,1010,1010,1010,1010,1010,1010,1010,1010,1010,1013,1013,1013,1013,1013,1013,1013,1013,1013,1019,1019,1019,1019,1019,1019,1016,1016,1016,1016,1013,1013,1013,1013,1016,1013,1013,1013,1016,1016,1016,1013,1013,1013,1010,1010,1010,1010,1010,1007,1007,1001,1001,998,998,992,992,992,989,989,989,987,987,989,1959,1959,0,0,0,0,0,0,0,0,0,867,864,864,862,862,860,860,858,858,856,854,854,854,851,851,849,849,851,851,851,851,854,854,854,856,858,858,860,860,862,862,862,862,862,862,862,862,0,0,0,0,0,0,0,1688,1680,1680,1671,1671,1671,1663,1663,1647,1639,1639,1639,1632,1632,1624,1624,1616,1609,1609,1609,1601,1601,1594,1586,1586,1579,1579,1572,1572,1564,1564,1550,1550,1550,1543,1543,1543,1543,1536,1529,1523,1523,1523,1516,1509,1509,1503,1496,1489,1489,1483,1483,1477,1477,1470,1470,1464,1464,1458,1452,1452,1445,1445,1439,1439,1433,1433,1433,1427,1421,1421,1415,1415,1410,1410,1404,1398,1398,1398,1398,1392,1392,1381,1381,1376,1376,1370,1370,1365,1365,1359,1354,1354,1349,1349,1343,1343,1338,1333,1333,1333,1328,1328,1328,1322,1317,1312,1307,1307,1307,1302,1302,1297,1297,1292,1292,1288,1288,1283,1283,1278,1273,1273,1268,1268,1268,1264,1259,1259,1255,1250,1250,1245,1245,1241,1236,1236,1236,1232,1232,1232,1227,1227,1223,1219,1214,1214,1214,1210,1206,1206,1202,1197,1197,1193,1189,1185,1185,1185,1181,1181,1177,1177,1177,1173,1169,1169,1169,1165,1165,1161,1157,1157,1153,1149,1145,1145,1141,1138,1138,1134,1134,1134,1130,1130,1123,1123,1119,1119,1119,1119,1115,1112,1108,1108,1105,1105,1105,1101,1097,1097,1094,1090,1090,1090,1087,1084,1080,1080,1080,1077,1077,1073,1070,1070,1067,1063,1063,1063,1063,1060,1057,1057,1054,1054,1050,1050,1047,1044,1041,1041,1041,1038,1038,1034,1034,1031,1031,1028,1028,1025,1025,1025,1022,1019,1016,1016,1013,1013,1013,1010,1007,1007,1004,1004,1001,1001,998,998,992,992,992,989,989,989,0,0,0,0,0,0,0,0,0,0,0,0,0,0,0,0,0,0,0,0,0,0,0,0,0,0,0,0,0,0,0,0,0
0,0,0,0,0,0,0,0,0,0,0,0,0,0,2156,2156,2156,2143,2143,2129,2129,2129,2129,2116,2116,2116,2129,2129,2116,2116,2116,2116,2116,2116,2116,2116,2116,2116,2103,2103,2103,2103,2103,2090,2090,2078,2078,2078,2065,2065,2065,2065,2065,2065,2065,2053,2053,2053,2053,2053,2053,2040,2040,2053,2053,2053,2053,2040,2040,2040,2028,2028,2028,2016,2005,2005,2005,2005,1993,1993,1993,1993,1004,1004,1993,1993,992,992,995,995,995,998,998,998,998,998,1001,1004,1007,1007,1007,1010,1007,1007,1010,1007,1004,1004,1004,1007,1007,1007,1007,1007,1010,1013,1013,1013,1013,1013,1013,1010,1010,1010,1010,1010,1010,1010,1010,1013,1013,1010,1010,1010,1010,1010,1010,1010,1010,1010,1010,1010,1010,1010,1010,1010,1010,1010,1013,1013,1013,1013,1016,1016,1016,1013,1010,1010,1010,1010,1010,1010,1010,1007,1007,1007,1007,1007,1007,1007,1004,1004,1004,1010,1010,1007,1007,1007,1007,1010,1007,1007,1007,1007,1013,1013,1013,1013,1013,1010,1010,1007,1004,1004,1004,1010,1007,1007,1010,1010,1010,1010,1010,1010,1010,1013,1010,1010,1010,1010,1010,1007,1007,1004,1004,1004,1004,1004,1004,1004,1004,1004,1004,1004,1007,1007,1004,1004,1004,1004,1004,1004,1004,1007,1007,1007,1007,1007,1007,1010,1010,1010,1010,1013,1010,1010,1007,1007,1013,1007,1007,1010,1007,1007,1007,1007,1007,1010,1007,1007,1010,1010,1010,1010,1007,1007,1007,1007,1007,1007,1007,1007,1004,1001,1001,1001,998,992,989,989,989,989,989,987,987,987,987,987,0,0,0,0,0,0,0,0,0,0,864,864,864,864,862,862,860,858,858,856,854,854,854,851,851,849,849,851,851,851,854,854,854,856,856,858,858,860,860,862,862,862,862,862,862,862,864,0,0,0,0,0,0,0,1688,1680,1680,1671,1671,1671,1663,1663,1647,1647,1639,1639,1639,1632,1632,1624,1616,1609,1609,1609,1601,1601,1594,1586,1579,1579,1579,1572,1572,1572,1564,1557,1550,1550,1543,1543,1543,1543,1536,1529,1523,1523,1523,1516,1509,1509,1503,1496,1496,1489,1489,1483,1483,1477,1470,1470,1464,1464,1458,1458,1452,1445,1445,1445,1439,1439,1433,1433,1427,1427,1421,1415,1415,1410,1410,1404,1398,1398,1398,1398,1392,1392,1381,1381,1376,1376,1370,1370,1365,1365,1359,1354,1354,1349,1349,1343,1343,1338,1333,1333,1333,1333,1328,1328,1322,1317,1317,1307,1307,1307,1302,1302,1297,1297,1297,1292,1288,1288,1288,1283,1278,1273,1273,1268,1268,1268,1264,1259,1259,1255,1250,1250,1250,1245,1241,1236,1236,1232,1232,1232,1232,1227,1227,1223,1219,1214,1214,1214,1210,1206,1206,1202,1197,1197,1193,1189,1185,1185,1185,1181,1181,1177,1177,1177,1173,1169,1169,1169,1165,1161,1161,1157,1157,1153,1153,1149,1145,1141,1141,1138,1138,1134,1134,1130,1130,1123,1123,1123,1119,1119,1119,1115,1112,1108,1108,1105,1105,1105,1101,1097,1097,1094,1090,1090,1090,1087,1084,1084,1080,1080,1077,1077,1077,1073,1070,1070,1067,1067,1063,1063,1060,1057,1057,1057,1054,1050,1050,1047,1044,1041,1041,1041,1038,1038,1034,1034,1031,1031,1028,1028,1028,1025,1025,1022,1019,1016,1016,1013,1013,1013,1010,1007,1007,1004,1004,1001,1001,1001,998,995,992,992,992,989,989,0,0,0,0,0,0,0,0,0,0,0,0,0,0,0,0,0,0,0,0,0,0,0,0,0,0,0,0,0,0,0,0,0
0,0,0,0,0,0,0,0,0,0,0,0,0,0,2170,2170,2156,2156,2143,2143,2143,2143,2129,2129,2129,2129,2129,2129,2129,2129,2129,2116,2116,2116,2116,2116,2116,2116,2116,2103,2103,2103,2103,2090,2090,2090,2078,2078,2078,2078,2065,2065,2065,2065,2065,2065,2065,2053,2053,2053,2053,2040,2040,2053,2053,2053,2053,2040,2040,2040,989,989,989,2016,2005,989,989,992,992,995,995,998,998,998,998,998,995,995,995,995,995,998,998,998,998,998,998,998,998,1001,1001,1001,1001,1004,1004,1004,1001,1001,1001,1004,1004,1004,1004,1004,1007,1010,1010,1007,1004,1004,1001,1001,1001,1004,1004,1007,1007,1004,1004,1004,1004,1004,1004,1001,1001,1004,1004,1004,1004,1004,1007,1004,1004,1004,1001,1001,1001,1001,1007,1010,1010,1010,1010,1007,1007,1004,1004,1004,1007,1007,1007,1007,1007,1004,1004,1001,1001,1004,998,998,1001,998,998,1004,1004,1001,1001,1001,1001,1001,1001,1001,1001,1001,1001,1001,1001,1001,1004,1004,1004,1004,1004,1001,1001,1004,1004,1004,1004,1004,1007,1007,1007,1007,1007,1007,1010,1010,1007,1007,1004,1004,1001,1001,1001,1001,1001,1001,1001,1001,1001,1001,1001,1001,1001,1001,1001,1001,1001,1001,1001,998,998,1001,1001,1004,1004,1004,1004,1004,1004,1001,1001,998,998,1001,1001,1001,1001,1001,998,998,1001,1001,1004,1001,1001,1001,1001,1001,1001,1001,1001,1004,1001,1001,1001,1004,1004,1004,1004,1004,1001,1001,998,998,998,992,989,989,989,989,989,987,984,984,984,0,0,0,0,0,0,0,0,0,0,0,864,864,864,864,862,862,860,858,858,856,854,854,854,851,851,851,851,851,851,851,854,854,854,856,856,858,860,860,862,862,862,862,862,862,864,864,864,0,0,0,0,0,0,0,1688,1680,1680,1671,1671,1671,1663,1663,1655,1647,1639,1639,1639,1632,1632,1624,1616,1609,1609,1609,1601,1601,1594,1586,1579,1579,1579,1572,1572,1572,1564,1557,1550,1550,1550,1550,1543,1543,1536,1529,1529,1523,1523,1516,1509,1509,1503,1496,1496,1489,1489,1489,1483,1477,1470,1470,1464,1464,1458,1458,1452,1445,1445,1445,1439,1439,1439,1433,1433,1427,1421,1415,1415,1415,1410,1404,1404,1398,1398,1398,1392,1392,1381,1381,1376,1376,1370,1370,1365,1365,1359,1354,1354,1349,1349,1349,1349,1343,1338,1338,1333,1333,1328,1328,1322,1317,1312,1307,1307,1307,1307,1302,1302,1297,1297,1292,1292,1288,1288,1283,1283,1273,1273,1268,1268,1268,1264,1264,1259,1255,1255,1250,1250,1250,1241,1236,1236,1232,1232,1232,1232,1232,1227,1223,1223,1219,1214,1214,1210,1210,1206,1202,1197,1197,1193,1189,1189,1185,1185,1181,1181,1181,1177,1177,1173,1173,1169,1169,1165,1161,1161,1157,1157,1153,1153,1149,1145,1145,1141,1138,1138,1134,1134,1134,1130,1123,1123,1123,1119,1119,1119,1115,1112,1108,1108,1108,1105,1105,1101,1101,1097,1094,1090,1090,1090,1087,1087,1084,1080,1080,1077,1077,1077,1073,1070,1070,1067,1067,1063,1063,1060,1057,1057,1057,1054,1050,1050,1047,1044,1044,1041,1041,1038,1038,1038,1038,1034,1034,1031,1028,1028,1025,1022,1022,1019,1016,1016,1013,1013,1013,1013,1007,1007,1004,1004,1001,1001,998,998,995,995,992,992,989,989,0,0,0,0,0,0,0,0,0,0,0,0,0,0,0,0,0,0,0,0,0,0,0,0,0,0,0,0,0,0,0,0,0
0,0,0,0,0,0,0,0,0,0,0,0,0,0,2170,2170,2156,2156,2156,2156,2156,2143,2143,2129,2129,2143,2129,2129,2129,2129,2129,2116,2116,2116,2116,2116,2116,2103,2103,2103,2103,2103,2103,2103,2090,2090,2078,2078,2078,2078,2078,2065,2065,2065,2065,2065,2065,2065,2053,2053,2053,2053,2053,2053,2053,989,987,987,989,987,987,987,987,989,989,987,987,989,989,992,992,995,995,998,992,992,995,992,992,995,995,995,995,998,998,998,995,995,995,995,995,998,998,998,1001,1001,998,998,998,998,1001,1001,1001,1001,1001,1001,998,995,995,998,998,998,998,995,995,995,995,1001,1001,1001,1001,1001,1001,998,998,1001,1001,1001,1001,1001,1001,1001,1001,1001,998,998,998,998,998,998,998,998,1001,1001,1001,1001,1001,1001,1001,1001,1001,1001,998,998,998,995,995,992,992,992,995,995,995,998,998,995,995,995,995,998,998,998,998,998,995,995,995,995,995,995,995,1001,1001,1001,1001,1001,1001,1001,1001,1001,1004,1001,1001,1001,1001,1001,1001,1001,1001,1001,1001,998,998,998,998,998,998,998,998,998,998,998,998,998,998,1001,998,998,998,998,998,995,995,998,998,1001,1001,1001,1001,998,998,992,992,992,992,992,992,992,995,995,995,995,995,995,995,995,995,995,998,995,995,998,998,998,998,998,998,1001,1001,1001,1004,1001,1001,998,998,995,992,989,989,989,987,987,987,984,984,981,981,981,0,0,0,0,0,0,0,0,0,0,864,864,864,864,862,862,860,858,858,856,854,854,854,851,851,851,851,851,851,854,854,854,856,856,858,860,860,862,862,862,862,862,862,862,864,864,864,0,0,0,0,0,0,0,1688,1680,1680,1671,1671,1671,1663,1663,1655,1647,1647,1639,1639,1632,1632,1624,1616,1609,1609,1609,1601,1601,1594,1586,1579,1579,1579,1572,1572,1572,1564,1557,1550,1550,1550,1550,1543,1543,1536,1536,1529,1523,1523,1516,1516,1509,1503,1503,1496,1496,1489,1489,1483,1477,1470,1470,1464,1464,1464,1458,1452,1452,1445,1445,1439,1439,1439,1439,1433,1427,1421,1421,1415,1415,1410,1410,1404,1398,1398,1398,1392,1392,1381,1381,1376,1376,1370,1370,1370,1365,1359,1359,1354,1354,1349,1349,1349,1343,1343,1338,1333,1333,1333,1328,1322,1322,1312,1312,1307,1307,1307,1307,1302,1297,1297,1292,1292,1288,1288,1288,1283,1273,1273,1273,1268,1268,1268,1264,1259,1255,1255,1250,1250,1250,1245,1236,1236,1232,1232,1232,1232,1232,1227,1227,1223,1219,1214,1214,1214,1210,1206,1202,1197,1197,1193,1193,1189,1189,1185,1185,1181,1181,1181,1177,1177,1173,1169,1169,1165,1165,1161,1157,1157,1153,1153,1149,1149,1145,1141,1141,1138,1134,1134,1134,1130,1126,1123,1123,1119,1119,1119,1115,1112,1112,1108,1108,1105,1105,1105,1101,1097,1094,1094,1090,1090,1087,1087,1084,1080,1080,1080,1077,1077,1073,1073,1070,1067,1067,1067,1063,1060,1057,1057,1057,1054,1054,1050,1047,1047,1044,1044,1041,1041,1038,1038,1038,1034,1034,1031,1028,1028,1025,1022,1022,1019,1016,1016,1013,1013,1013,1010,1010,1007,1004,1004,1001,1001,998,998,995,995,992,992,992,992,0,0,0,0,0,0,0,0,0,0,0,0,0,0,0,0,0,0,0,0,0,0,0,0,0,0,0,0,0,0,0,0,0
0,0,0,0,0,0,0,0,0,0,0,0,0,0,2170,2170,2170,2170,2170,2156,2156,2156,2156,2143,2143,2156,2143,2143,2143,2129,2129,2116,2116,2116,2116,2116,2116,2103,2103,2103,2103,2103,2103,2103,2103,2090,2090,2090,2078,2078,2078,2065,2065,2065,2065,2065,2065,987,987,984,984,2053,2053,981,981,984,984,984,987,987,987,987,987,987,987,987,987,987,989,989,992,992,992,995,992,992,989,989,989,992,992,995,995,995,995,995,992,992,989,989,989,989,989,992,995,995,995,998,995,995,998,998,998,987,987,989,989,989,992,995,995,995,995,992,992,992,989,989,989,992,992,998,998,998,998,998,998,998,998,998,998,998,998,998,998,995,995,995,995,992,987,987,987,987,992,998,998,998,998,998,998,998,992,992,989,989,989,989,989,989,989,989,989,992,992,992,992,992,992,992,992,992,992,989,989,992,992,992,992,992,992,992,995,995,995,998,998,998,998,998,995,992,992,992,992,992,995,992,992,992,992,992,992,992,992,992,992,992,992,992,995,992,992,995,995,998,995,995,995,995,992,992,992,992,989,989,989,989,989,992,989,989,987,987,987,989,989,989,989,989,992,992,992,992,992,992,992,992,992,992,992,992,992,992,995,992,992,992,995,995,998,995,992,989,989,989,987,987,987,987,987,987,984,984,978,978,975,973,973,0,0,0,0,0,0,0,0,0,864,864,864,864,862,862,860,858,858,856,854,854,854,851,851,851,851,851,854,854,854,854,856,856,858,860,860,862,862,862,864,864,864,864,864,864,864,0,0,0,0,0,0,1688,1688,1688,1680,1680,1671,1671,1671,1663,1655,1647,1647,1639,1639,1632,1632,1624,1616,1609,1609,1609,1601,1601,1594,1586,1586,1579,1579,1572,1572,1572,1564,1557,1550,1550,1550,1550,1543,1543,1536,1536,1529,1523,1523,1516,1516,1516,1509,1503,1496,1496,1489,1489,1483,1477,1470,1470,1464,1464,1464,1458,1452,1452,1445,1445,1439,1439,1439,1439,1433,1427,1421,1421,1421,1415,1415,1410,1404,1404,1398,1398,1392,1392,1392,1381,1376,1376,1370,1370,1370,1365,1365,1359,1354,1354,1354,1349,1349,1349,1343,1343,1333,1333,1333,1328,1328,1322,1312,1312,1312,1307,1307,1307,1302,1297,1297,1292,1292,1292,1288,1288,1283,1278,1273,1273,1268,1268,1268,1264,1259,1259,1255,1255,1250,1250,1245,1236,1236,1236,1236,1232,1232,1232,1227,1227,1223,1219,1214,1214,1214,1210,1206,1202,1202,1197,1197,1193,1193,1189,1185,1185,1181,1181,1181,1177,1177,1173,1169,1169,1165,1165,1161,1161,1157,1153,1153,1149,1149,1145,1141,1141,1138,1138,1134,1134,1130,1130,1123,1123,1119,1119,1119,1115,1112,1112,1108,1108,1108,1105,1105,1101,1097,1094,1094,1090,1090,1087,1087,1084,1080,1080,1080,1077,1077,1073,1073,1073,1067,1067,1067,1063,1063,1060,1057,1057,1054,1054,1050,1050,1047,1044,1044,1041,1041,1038,1038,1038,1034,1034,1031,1028,1028,1025,1025,1022,1019,1016,1016,1013,1013,1013,1010,1010,1007,1004,1004,1001,1001,998,998,995,995,992,992,992,992,0,0,0,0,0,0,0,0,0,0,0,0,0,0,0,0,0,0,0,0,0,0,0,0,0,0,0,0,0,0,0,0,0
0,0,0,0,0,0,0,0,0,0,0,0,0,0,2184,2184,2170,2170,2170,2170,2170,2170,2156,2156,2156,2156,2143,2143,2143,2129,2116,2116,2116,2116,2116,2116,2103,2103,2103,2103,2103,2103,2103,2103,2103,2090,2090,2090,2078,2078,2078,2078,978,978,978,978,978,978,981,981,978,978,981,981,981,984,984,981,981,981,981,984,987,984,984,984,984,984,987,989,989,989,989,992,989,989,989,989,989,992,992,992,992,992,992,989,989,989,987,987,987,989,989,989,989,992,992,995,995,995,995,989,984,984,984,981,981,984,987,989,989,987,984,984,987,987,984,984,987,987,987,987,987,987,992,992,992,992,995,992,992,992,992,992,992,992,989,989,984,984,981,981,981,984,989,992,992,992,992,992,992,992,987,987,984,984,981,981,984,984,984,984,987,987,987,987,987,987,987,987,987,987,987,987,987,987,987,989,989,989,989,989,992,992,992,989,989,989,989,992,992,992,989,989,989,989,989,989,989,989,989,989,989,989,989,989,989,989,989,987,987,987,987,987,987,989,989,992,989,989,987,987,989,989,987,987,987,987,987,987,987,984,984,984,984,984,984,984,984,984,987,987,987,987,989,987,987,987,987,987,987,987,987,987,989,989,989,989,989,989,989,987,987,984,984,984,984,984,984,984,984,981,981,978,978,975,973,970,970,970,967,967,0,0,0,0,0,0,864,864,864,864,862,862,860,860,858,856,856,856,854,854,854,851,851,854,854,854,854,856,856,858,858,860,862,862,862,864,864,864,864,864,864,864,0,0,0,0,0,0,0,1688,1688,1688,1688,1680,1671,1671,1671,1663,1655,1647,1647,1639,1639,1632,1632,1624,1616,1609,1609,1609,1601,1601,1594,1594,1586,1579,1579,1572,1572,1572,1564,1557,1557,1550,1550,1550,1543,1543,1543,1536,1529,1529,1523,1516,1516,1516,1509,1503,1496,1496,1496,1489,1483,1483,1477,1470,1464,1464,1464,1458,1452,1452,1445,1445,1445,1439,1439,1439,1433,1427,1421,1421,1421,1415,1415,1410,1410,1404,1398,1398,1392,1392,1392,1381,1376,1376,1370,1370,1370,1365,1365,1359,1354,1354,1354,1349,1349,1349,1349,1343,1338,1333,1333,1333,1328,1322,1317,1312,1312,1307,1307,1307,1302,1302,1297,1292,1292,1292,1288,1288,1283,1278,1278,1273,1273,1268,1268,1264,1259,1259,1255,1255,1250,1250,1245,1241,1236,1236,1236,1236,1232,1232,1227,1227,1223,1219,1214,1214,1214,1210,1206,1202,1202,1197,1197,1197,1193,1193,1185,1185,1181,1181,1181,1177,1177,1173,1173,1169,1165,1165,1161,1161,1157,1153,1153,1149,1149,1145,1141,1141,1138,1138,1134,1134,1134,1130,1123,1123,1119,1119,1119,1115,1112,1112,1108,1108,1108,1105,1105,1101,1101,1097,1094,1094,1090,1090,1087,1087,1084,1080,1080,1077,1077,1077,1073,1073,1070,1067,1067,1063,1063,1060,1060,1057,1054,1054,1054,1050,1047,1047,1044,1044,1041,1041,1038,1038,1038,1034,1031,1028,1025,1025,1025,1022,1019,1016,1016,1016,1013,1013,1013,1010,1007,1004,1004,1001,1001,998,998,995,995,992,992,992,992,0,0,0,0,0,0,0,0,0,0,0,0,0,0,0,0,0,0,0,0,0,0,0,0,0,0,0,0,0,0,0,0,0
0,0,0,0,0,0,0,0,0,0,0,0,0,0,2184,2184,2184,2170,2170,2170,2170,2156,2156,2156,2156,2156,2143,2143,2143,2129,2116,2116,2103,2103,2103,975,975,975,2103,2103,2103,2103,2103,2103,2103,2103,2103,2103,2078,2078,2078,2078,975,975,975,978,978,978,981,981,978,978,978,978,978,981,981,981,981,981,981,981,981,981,984,984,984,984,987,989,987,987,987,989,989,987,987,987,987,987,987,987,987,987,987,987,987,987,984,984,984,984,984,987,987,987,987,989,989,989,984,984,981,981,978,978,978,981,981,981,981,981,981,981,981,981,981,981,984,981,981,984,984,984,981,981,984,984,989,989,989,989,987,987,987,987,987,981,981,981,981,981,981,981,984,987,984,984,984,984,981,981,984,981,981,981,978,978,978,978,981,981,981,981,981,984,984,984,981,981,981,981,981,981,981,984,984,987,987,987,987,987,987,984,984,987,984,984,984,984,984,984,987,987,987,987,987,987,987,987,984,984,987,987,987,987,987,987,984,984,984,981,981,981,981,981,981,984,984,984,984,984,984,984,984,984,984,984,984,981,981,981,981,981,981,981,981,981,981,981,984,984,984,984,984,984,984,984,984,984,984,984,984,981,981,981,984,984,984,984,981,981,981,981,981,981,978,978,978,978,978,978,978,975,975,973,973,970,967,967,964,964,964,964,0,0,0,0,864,864,864,864,864,862,860,860,858,856,856,856,854,854,854,854,854,854,854,854,856,858,858,860,860,860,862,862,864,864,864,867,867,867,867,867,0,0,0,0,0,0,0,1688,1688,1688,1688,1680,1680,1671,1671,1671,1655,1655,1647,1639,1639,1639,1632,1632,1624,1616,1609,1609,1601,1601,1594,1594,1586,1579,1579,1579,1579,1572,1572,1564,1557,1557,1550,1550,1543,1543,1543,1536,1529,1529,1523,1516,1516,1516,1509,1509,1503,1496,1496,1489,1489,1483,1477,1470,1470,1464,1464,1458,1452,1452,1445,1445,1445,1439,1439,1439,1433,1427,1421,1421,1421,1415,1415,1410,1410,1404,1404,1398,1398,1392,1387,1381,1376,1376,1376,1370,1370,1370,1365,1365,1354,1354,1354,1349,1349,1349,1349,1343,1338,1338,1333,1333,1328,1322,1317,1312,1312,1312,1307,1307,1307,1302,1297,1297,1292,1292,1292,1288,1283,1278,1278,1273,1273,1268,1268,1264,1259,1259,1255,1255,1255,1250,1245,1241,1241,1236,1236,1236,1232,1232,1227,1227,1223,1219,1219,1214,1214,1210,1210,1206,1202,1202,1197,1197,1193,1193,1185,1185,1185,1181,1181,1181,1177,1173,1173,1169,1169,1165,1165,1161,1157,1153,1153,1153,1149,1149,1145,1141,1138,1138,1134,1134,1134,1130,1123,1123,1119,1119,1119,1115,1112,1112,1108,1108,1108,1105,1105,1101,1097,1097,1094,1094,1090,1090,1087,1087,1084,1080,1080,1077,1077,1077,1077,1073,1070,1067,1067,1063,1063,1060,1060,1057,1054,1054,1054,1050,1050,1047,1044,1044,1041,1041,1038,1038,1038,1034,1031,1028,1025,1025,1025,1019,1019,1016,1016,1016,1013,1013,1013,1010,1007,1007,1004,1004,1001,1001,998,995,995,992,992,992,992,0,0,0,0,0,0,0,0,0,0,0,0,0,0,0,0,0,0,0,0,0,0,0,0,0,0,0,0,0,0,0,0,0
0,0,0,0,0,0,0,0,0,0,0,0,0,0,2184,2184,2184,2170,2170,2170,2170,2156,2156,2156,2143,2143,2129,2129,2129,2129,2116,2116,2103,2103,2103,975,975,975,2090,2103,2103,2103,2103,2103,2103,2103,2103,2103,2103,973,973,973,973,973,975,975,975,975,975,975,975,975,975,975,975,978,978,978,978,978,978,978,978,978,981,981,981,984,984,987,984,981,978,978,981,981,984,981,981,981,984,984,984,984,984,981,981,984,984,984,984,981,981,984,984,984,984,984,984,978,978,978,978,975,975,975,975,975,975,975,975,975,978,978,978,978,981,981,978,978,978,978,975,975,975,975,975,975,975,975,975,978,984,984,984,978,978,978,978,978,978,978,978,978,981,981,978,978,978,978,975,975,978,978,978,975,975,975,975,975,975,975,975,975,975,978,981,981,978,975,975,978,978,975,975,978,981,984,984,984,981,981,978,975,975,975,975,975,975,975,975,978,978,978,978,978,984,984,981,981,978,978,981,981,984,984,981,981,978,978,975,975,975,975,975,975,978,978,978,978,981,981,981,981,981,981,978,978,981,978,978,978,978,978,981,978,978,978,978,978,978,978,978,981,981,981,978,978,981,978,978,981,978,978,978,978,978,975,975,975,975,978,978,978,978,978,975,975,975,975,975,975,973,973,970,970,970,967,964,964,964,964,962,962,959,959,959,0,864,864,867,864,864,862,860,860,858,856,856,856,856,854,854,854,854,854,854,856,856,858,858,860,860,860,862,864,864,864,867,867,867,867,867,867,869,0,0,0,0,0,0,1688,1688,1688,1688,1680,1680,1671,1671,1663,1663,1655,1647,1639,1639,1639,1632,1632,1624,1616,1609,1609,1601,1601,1601,1594,1586,1579,1579,1579,1579,1572,1572,1564,1557,1557,1550,1550,1543,1543,1543,1536,1529,1529,1523,1516,1516,1516,1509,1509,1503,1496,1496,1489,1489,1489,1483,1477,1470,1464,1464,1458,1452,1452,1445,1445,1445,1445,1439,1439,1439,1427,1427,1421,1421,1415,1415,1415,1410,1410,1404,1398,1398,1392,1387,1387,1381,1376,1376,1376,1370,1370,1370,1365,1354,1354,1354,1349,1349,1349,1349,1343,1338,1338,1333,1333,1328,1322,1317,1317,1312,1312,1307,1307,1307,1302,1302,1297,1292,1292,1292,1288,1288,1283,1278,1273,1273,1268,1268,1264,1259,1259,1255,1255,1255,1250,1245,1245,1241,1236,1236,1236,1236,1232,1232,1227,1223,1219,1219,1214,1214,1210,1210,1206,1202,1202,1202,1197,1197,1193,1185,1185,1185,1181,1181,1181,1177,1177,1173,1169,1169,1165,1165,1161,1157,1153,1153,1153,1149,1149,1145,1145,1141,1138,1138,1134,1134,1134,1130,1123,1123,1119,1119,1119,1115,1112,1108,1108,1108,1105,1105,1101,1097,1097,1094,1094,1090,1090,1087,1087,1084,1084,1080,1080,1077,1077,1077,1073,1070,1070,1067,1067,1063,1063,1060,1060,1054,1054,1054,1054,1050,1047,1047,1044,1044,1041,1038,1038,1038,1034,1031,1028,1025,1025,1025,1019,1019,1019,1016,1016,1013,1013,1013,1010,1010,1007,1004,1004,1001,1001,998,995,995,992,992,992,992,0,0,0,0,0,0,0,0,0,0,0,0,0,0,0,0,0,0,0,0,0,0,0,0,0,0,0,0,0,0,0,0,0
0,0,0,0,0,0,0,0,0,0,0,0,0,0,2184,2184,2184,2184,2184,2170,2170,2156,2156,2143,2143,2143,2129,2129,2129,2129,2116,2116,2103,2103,2103,975,973,973,2090,2103,2103,2103,970,967,967,967,970,967,967,967,970,973,973,973,973,975,973,970,970,973,973,973,973,973,975,975,975,978,978,978,978,975,975,975,978,978,975,975,973,973,975,975,975,975,975,978,981,978,978,978,981,981,981,981,981,981,981,981,981,981,981,978,978,981,984,981,981,981,975,975,975,975,975,973,973,975,973,973,970,970,970,973,975,975,978,978,978,978,973,973,973,973,970,970,970,970,970,970,970,967,967,973,970,970,970,973,973,973,975,975,975,975,975,978,978,978,975,975,975,975,973,973,973,973,973,973,970,970,973,973,973,973,973,973,973,973,973,978,975,973,973,975,975,973,973,973,973,975,975,975,973,973,973,970,967,967,967,967,970,970,970,970,970,973,973,973,970,970,970,970,973,975,975,978,978,978,975,975,975,973,973,973,973,973,973,973,973,973,973,975,975,975,975,978,975,975,975,975,975,975,975,975,975,975,975,975,975,975,975,975,975,973,973,975,964,964,964,970,975,975,975,975,975,975,975,973,973,973,973,973,973,970,970,970,970,973,973,973,973,973,970,970,970,967,967,967,967,964,962,962,959,959,959,959,956,956,956,956,956,867,867,867,864,862,860,860,858,856,856,856,856,854,854,854,854,854,856,856,856,858,860,860,860,862,862,864,864,867,869,869,869,869,869,869,869,0,0,0,0,0,0,0,1688,1688,1688,1680,1680,1671,1671,1663,1663,1655,1655,1647,1639,1639,1632,1632,1624,1616,1609,1609,1609,1601,1601,1594,1586,1579,1579,1579,1579,1572,1572,1564,1557,1557,1550,1550,1550,1543,1543,1536,1529,1529,1523,1516,1516,1516,1509,1509,1503,1496,1496,1489,1489,1489,1483,1477,1477,1470,1464,1458,1458,1452,1445,1445,1445,1445,1439,1439,1439,1427,1427,1421,1421,1415,1415,1415,1415,1410,1404,1404,1398,1398,1392,1387,1381,1381,1376,1376,1370,1370,1370,1365,1354,1354,1354,1354,1349,1349,1349,1343,1338,1338,1333,1333,1328,1322,1322,1317,1312,1312,1307,1307,1307,1302,1302,1297,1297,1292,1292,1288,1288,1283,1278,1273,1273,1268,1268,1264,1264,1259,1259,1255,1255,1250,1250,1245,1241,1236,1236,1236,1236,1232,1232,1227,1223,1219,1219,1214,1214,1210,1210,1206,1202,1202,1202,1197,1197,1193,1185,1185,1185,1181,1181,1181,1181,1177,1173,1169,1169,1165,1165,1161,1157,1153,1153,1153,1149,1149,1145,1145,1141,1138,1138,1138,1134,1134,1130,1123,1123,1123,1119,1119,1115,1112,1112,1108,1108,1105,1105,1101,1097,1097,1094,1094,1094,1090,1090,1087,1087,1084,1084,1080,1077,1077,1077,1073,1070,1070,1067,1067,1063,1063,1060,1060,1057,1054,1054,1054,1050,1050,1047,1044,1044,1041,1038,1038,1038,1034,1031,1028,1028,1025,1025,1022,1019,1019,1019,1016,1016,1016,1013,1013,1010,1007,1007,1004,1004,1001,1001,998,995,992,992,992,992,0,0,0,0,0,0,0,0,0,0,0,0,0,0,0,0,0,0,0,0,0,0,0,0,0,0,0,0,0,0,0,0,0
0,0,0,0,0,0,0,0,0,0,0,0,0,0,2170,2170,2170,2170,2170,2170,2170,2170,2156,2143,2129,2116,2116,2129,2129,2129,2116,2116,2103,2103,967,967,964,964,964,964,964,964,964,967,967,967,967,967,964,964,967,967,964,964,964,964,964,964,967,967,967,970,970,970,970,973,973,973,975,973,973,973,973,973,973,973,973,967,967,964,962,962,962,959,959,975,975,975,975,975,978,978,978,978,978,978,978,978,975,975,967,967,975,975,978,978,970,967,967,967,967,967,970,970,970,973,970,970,970,967,967,967,973,973,975,975,973,973,967,967,967,967,967,964,964,967,967,967,967,967,967,964,964,967,967,967,967,967,967,970,970,970,970,970,973,973,970,970,970,973,967,967,970,970,970,970,970,970,970,970,970,970,970,967,967,967,967,967,967,967,967,970,970,967,967,967,967,964,964,964,964,964,964,964,964,964,967,967,967,967,967,967,967,967,967,964,964,964,964,964,962,962,962,964,975,973,973,973,973,970,970,970,970,970,970,970,970,970,970,970,970,970,973,973,973,973,973,970,970,973,973,973,973,970,970,973,970,967,967,967,967,970,970,964,964,962,962,962,964,967,967,967,967,970,967,959,959,959,959,959,956,956,964,964,967,964,964,964,964,967,967,967,964,964,962,962,962,959,956,956,956,956,956,956,954,954,954,954,954,867,867,867,864,862,860,860,858,858,856,856,856,854,854,854,854,854,856,858,858,860,860,860,862,862,862,864,867,869,869,869,869,869,869,869,869,0,0,0,0,0,0,0,1688,1688,1688,1680,1680,1671,1671,1663,1663,1655,1655,1647,1647,1639,1632,1632,1632,1624,1624,1609,1609,1601,1601,1601,1594,1586,1579,1579,1579,1579,1572,1564,1557,1557,1550,1550,1550,1543,1543,1536,1536,1529,1523,1516,1516,1516,1509,1509,1503,1503,1496,1496,1489,1489,1489,1483,1477,1470,1470,1464,1458,1458,1452,1445,1445,1445,1439,1439,1439,1433,1427,1421,1421,1421,1415,1415,1415,1410,1404,1404,1398,1398,1392,1387,1387,1381,1376,1376,1376,1370,1370,1370,1365,1354,1354,1354,1354,1349,1349,1343,1343,1338,1333,1333,1328,1328,1322,1317,1312,1312,1307,1307,1307,1307,1302,1302,1297,1292,1292,1288,1288,1283,1278,1278,1273,1273,1268,1268,1264,1264,1259,1255,1255,1250,1250,1245,1241,1241,1236,1236,1236,1232,1232,1227,1223,1223,1219,1214,1214,1210,1210,1206,1206,1202,1202,1202,1197,1197,1189,1185,1185,1185,1181,1181,1181,1177,1173,1173,1169,1169,1165,1165,1157,1153,1153,1153,1149,1149,1149,1145,1141,1138,1138,1138,1134,1134,1130,1123,1123,1123,1119,1119,1115,1115,1112,1108,1108,1108,1105,1101,1101,1097,1094,1094,1094,1090,1090,1090,1087,1087,1084,1080,1077,1077,1077,1073,1070,1070,1070,1067,1063,1063,1063,1060,1057,1054,1054,1054,1054,1050,1047,1044,1044,1041,1038,1038,1038,1034,1031,1028,1028,1025,1022,1022,1022,1019,1019,1016,1016,1016,1016,1013,1013,1010,1007,1004,1004,1001,1001,998,998,995,992,992,992,0,0,0,0,0,0,0,0,0,0,0,0,0,0,0,0,0,0,0,0,0,0,0,0,0,0,0,0,0,0,0,0,0
0,0,0,0,0,0,0,0,0,0,0,0,0,0,2170,2170,2170,2170,2170,2170,2170,2156,2143,2129,2116,2116,2116,2129,2129,2129,2129,964,964,964,964,964,964,964,964,964,964,964,964,967,967,967,967,964,964,962,962,964,964,962,962,962,962,962,964,964,964,967,967,967,967,967,964,964,967,967,967,967,967,967,967,962,962,962,959,959,956,956,956,956,956,956,956,959,964,964,964,967,967,967,967,967,964,964,964,964,964,962,962,970,970,970,964,964,959,959,959,959,959,959,959,964,964,964,964,964,964,964,967,967,967,967,964,964,964,964,964,964,962,962,962,962,962,962,964,964,964,962,962,964,964,964,964,964,962,962,962,962,962,967,967,967,967,967,967,970,964,964,964,964,964,964,964,964,967,967,967,964,964,962,962,959,959,959,962,962,962,962,964,964,964,964,964,959,959,959,959,959,959,959,962,964,964,964,964,964,964,964,964,964,962,962,962,959,959,959,959,956,956,959,959,959,959,959,964,964,964,964,964,964,964,962,962,964,964,964,964,967,964,964,967,967,964,962,962,964,964,967,962,959,959,959,959,959,956,956,962,964,964,962,962,962,962,962,962,962,962,962,962,962,959,956,956,956,956,956,956,956,959,962,962,959,959,959,956,956,956,959,962,959,959,956,956,956,954,954,954,954,954,954,951,951,951,864,864,867,867,867,864,862,860,860,858,858,856,856,856,854,854,854,854,854,856,858,858,860,860,860,862,862,862,864,867,869,869,871,871,871,871,871,871,0,0,0,0,0,0,1696,1696,1696,1696,1688,1688,1680,1680,1671,1663,1663,1655,1647,1647,1639,1639,1632,1632,1624,1624,1609,1609,1609,1601,1601,1594,1586,1586,1579,1579,1579,1579,1572,1564,1564,1557,1550,1550,1543,1543,1543,1536,1529,1523,1516,1516,1516,1509,1509,1503,1503,1496,1496,1489,1489,1489,1483,1477,1470,1470,1464,1464,1458,1452,1452,1445,1445,1439,1439,1439,1433,1427,1421,1421,1421,1415,1415,1415,1415,1410,1404,1398,1392,1392,1387,1387,1381,1381,1376,1376,1376,1370,1370,1365,1359,1354,1354,1354,1349,1349,1343,1343,1338,1333,1333,1328,1328,1322,1322,1317,1312,1312,1307,1307,1307,1302,1302,1297,1292,1292,1288,1288,1288,1283,1278,1273,1273,1268,1268,1268,1264,1264,1259,1255,1250,1250,1245,1245,1241,1236,1236,1236,1232,1232,1227,1223,1223,1219,1214,1214,1214,1210,1206,1206,1202,1202,1202,1197,1197,1189,1185,1185,1185,1181,1181,1181,1177,1173,1173,1173,1169,1169,1165,1157,1153,1153,1153,1153,1149,1149,1145,1145,1141,1138,1138,1134,1134,1130,1126,1123,1123,1123,1119,1119,1115,1112,1112,1108,1108,1105,1101,1101,1097,1097,1094,1094,1094,1090,1090,1090,1087,1084,1080,1080,1077,1077,1073,1073,1070,1070,1067,1067,1063,1063,1060,1057,1057,1054,1054,1054,1050,1047,1047,1044,1041,1041,1038,1038,1034,1031,1028,1028,1025,1022,1022,1022,1022,1019,1016,1016,1016,1016,1013,1013,1010,1010,1007,1004,1004,1001,998,998,995,992,992,992,0,0,0,0,0,0,0,0,0,0,0,0,0,0,0,0,0,0,0,0,0,0,0,0,0,0,0,0,0,0,0,0,0
0,0,0,0,0,0,0,0,0,0,0,0,0,0,2170,2170,2170,2170,2170,2170,2170,2156,2143,2129,2116,2116,2116,943,943,943,964,964,964,962,962,964,962,962,959,959,962,962,962,964,964,964,964,964,962,959,959,959,959,959,959,959,959,962,964,964,964,964,964,964,962,959,959,959,959,959,962,962,959,959,962,956,956,956,956,956,956,956,956,954,954,954,956,956,956,959,962,964,964,964,964,964,962,959,959,959,959,959,956,956,964,964,962,962,956,956,956,956,956,954,954,956,956,956,959,959,959,959,959,964,962,962,959,959,959,959,959,959,959,956,956,956,956,956,954,954,956,956,959,959,959,959,959,959,959,959,956,956,956,956,954,954,959,962,964,962,956,956,962,962,962,962,962,962,962,964,959,959,962,959,959,959,956,956,959,959,959,959,962,962,962,962,962,959,959,959,959,956,956,956,956,959,959,959,962,959,959,962,956,956,959,956,956,956,956,956,956,954,954,956,956,956,956,954,954,954,954,954,956,956,956,956,959,959,959,959,959,959,959,959,962,959,959,959,956,956,956,956,956,956,956,956,956,956,956,956,959,962,962,962,959,959,959,956,956,956,956,956,956,956,956,954,954,954,954,954,954,954,954,956,956,956,956,956,954,954,954,954,951,951,951,951,951,954,951,951,951,951,951,951,951,951,948,864,864,867,867,867,867,862,860,860,860,858,856,856,856,856,854,854,856,856,858,858,858,860,860,862,862,862,864,867,867,869,869,871,871,871,871,871,0,0,0,0,0,0,0,1696,1696,1696,1696,1696,1696,1688,1680,1671,1663,1663,1655,1647,1647,1639,1639,1639,1632,1632,1624,1616,1609,1609,1609,1601,1594,1594,1586,1586,1579,1579,1579,1572,1564,1564,1557,1550,1550,1550,1543,1543,1536,1529,1523,1523,1516,1516,1509,1509,1503,1503,1496,1496,1489,1489,1489,1483,1477,1470,1470,1464,1464,1464,1458,1452,1452,1445,1445,1439,1439,1433,1427,1421,1421,1421,1421,1415,1415,1415,1410,1404,1398,1392,1392,1387,1387,1381,1381,1376,1376,1376,1370,1370,1365,1365,1359,1354,1354,1349,1349,1343,1343,1338,1333,1333,1328,1328,1322,1322,1317,1312,1312,1312,1307,1307,1302,1302,1297,1292,1292,1292,1288,1288,1283,1278,1273,1273,1273,1268,1268,1264,1264,1259,1255,1250,1250,1250,1245,1241,1241,1236,1236,1236,1232,1227,1227,1223,1219,1214,1214,1214,1210,1206,1206,1202,1202,1202,1202,1197,1197,1189,1185,1185,1181,1181,1181,1177,1177,1173,1173,1169,1169,1165,1157,1153,1153,1153,1153,1149,1149,1149,1145,1141,1141,1138,1138,1134,1130,1126,1123,1123,1123,1123,1119,1119,1115,1112,1112,1105,1105,1101,1101,1097,1097,1094,1094,1094,1090,1090,1090,1087,1084,1080,1080,1080,1077,1073,1073,1070,1070,1067,1067,1063,1063,1060,1060,1057,1057,1054,1054,1050,1047,1047,1044,1041,1041,1038,1038,1038,1034,1031,1028,1028,1025,1025,1022,1022,1022,1019,1016,1016,1016,1013,1013,1010,1010,1007,1004,1004,1001,1001,998,995,995,992,992,0,0,0,0,0,0,0,0,0,0,0,0,0,0,0,0,0,0,0,0,0,0,0,0,0,0,0,0,0,0,0,0,0
0,0,0,0,0,0,0,0,0,0,0,0,0,0,2143,2143,2156,2156,2170,2170,0,0,0,943,943,943,943,943,943,943,948,959,959,956,956,956,956,956,956,956,956,956,959,962,956,956,956,956,959,956,956,956,956,956,956,956,956,956,959,962,962,962,962,962,956,956,954,954,954,954,956,956,956,956,956,956,956,954,954,954,951,951,951,954,954,954,954,956,956,956,956,962,959,956,951,951,956,954,954,954,954,956,956,956,959,962,959,959,954,954,954,954,954,951,951,948,948,951,954,954,956,954,954,956,954,954,954,954,954,951,951,954,956,954,954,954,954,954,951,951,948,948,954,956,954,954,954,954,954,951,951,951,948,948,948,948,951,948,948,948,954,954,948,948,951,951,956,956,956,956,956,954,954,956,956,956,956,956,956,956,956,956,956,956,959,959,956,956,956,956,956,956,956,956,956,956,956,956,956,956,956,956,954,954,951,951,954,954,954,954,954,951,951,954,954,954,954,951,948,948,951,948,948,948,948,948,951,954,954,954,954,954,954,954,954,954,954,951,948,948,951,948,948,951,954,954,951,951,951,951,951,954,954,954,956,956,954,951,951,948,948,951,951,948,948,951,951,951,948,948,948,948,948,951,954,954,951,951,951,948,948,948,948,948,948,948,948,946,946,946,948,948,948,948,948,946,946,867,867,867,867,867,867,864,862,860,860,858,856,856,856,856,856,856,856,858,858,858,860,860,860,862,862,862,864,867,869,869,871,871,871,871,871,873,0,0,0,0,0,0,0,1696,1696,1696,1696,1696,1696,1688,1680,1671,1671,1663,1663,1655,1647,1647,1639,1639,1632,1632,1624,1616,1609,1609,1609,1601,1601,1594,1586,1586,1579,1579,1579,1572,1564,1564,1557,1550,1550,1550,1543,1543,1536,1529,1523,1523,1516,1516,1516,1509,1503,1503,1496,1496,1496,1489,1489,1483,1483,1477,1470,1464,1464,1464,1458,1458,1452,1452,1445,1439,1439,1433,1427,1421,1421,1421,1421,1415,1415,1415,1410,1404,1398,1392,1392,1387,1387,1387,1381,1376,1376,1376,1376,1370,1370,1365,1365,1354,1354,1354,1349,1343,1343,1338,1333,1333,1333,1328,1328,1322,1317,1317,1312,1312,1307,1307,1302,1302,1297,1292,1292,1292,1288,1288,1283,1283,1278,1273,1273,1268,1268,1264,1259,1259,1255,1255,1255,1250,1250,1241,1241,1236,1236,1236,1232,1227,1227,1223,1219,1219,1214,1214,1210,1206,1206,1202,1202,1202,1202,1197,1197,1189,1185,1185,1181,1181,1181,1181,1177,1177,1173,1169,1169,1165,1161,1157,1153,1153,1153,1153,1149,1149,1149,1145,1141,1138,1138,1134,1130,1126,1126,1123,1123,1123,1119,1119,1115,1115,1112,1105,1105,1101,1101,1097,1097,1094,1094,1094,1090,1090,1090,1087,1084,1080,1080,1080,1077,1073,1073,1070,1070,1067,1063,1063,1063,1060,1060,1057,1057,1054,1054,1050,1047,1047,1044,1041,1041,1038,1038,1038,1034,1031,1028,1028,1025,1025,1025,1022,1022,1019,1019,1016,1016,1016,1013,1010,1010,1010,1004,1004,1001,1001,998,998,995,992,992,0,0,0,0,0,0,0,0,0,0,0,0,0,0,0,0,0,0,0,0,0,0,0,0,0,0,0,0,0,0,0,0,0
0,0,0,0,0,0,0,0,0,0,0,0,0,0,2116,2116,2156,2156,0,0,2156,0,0,0,943,943,943,943,943,943,948,951,951,951,951,951,951,951,951,954,951,951,954,959,956,956,956,956,956,956,956,956,956,954,954,954,956,956,956,959,959,959,959,954,948,948,946,943,943,946,940,940,951,951,954,951,951,951,948,948,948,948,948,951,951,948,948,954,951,951,951,951,948,948,946,946,946,946,946,948,948,951,951,948,948,948,948,954,948,948,951,951,948,948,946,946,948,948,948,951,951,951,951,948,948,948,948,948,948,948,948,948,951,951,951,951,951,951,948,948,948,948,948,951,951,951,951,951,951,948,946,946,946,943,943,946,946,946,946,946,946,946,946,946,946,946,948,946,946,951,951,948,948,954,954,954,954,954,954,954,954,954,951,951,951,951,951,951,951,954,954,954,954,951,951,951,948,948,948,948,948,948,951,948,948,948,948,948,951,951,951,948,948,948,951,951,951,948,948,948,946,946,946,946,946,946,946,946,946,948,948,948,948,948,948,948,948,948,948,948,946,946,946,948,948,948,946,946,946,946,946,946,946,946,946,948,946,946,946,946,946,948,948,946,946,948,948,948,948,948,948,946,946,946,946,946,946,946,946,946,946,946,943,943,943,943,943,943,940,940,943,943,943,946,943,943,943,867,867,869,867,867,867,864,862,862,860,858,858,858,858,856,856,856,856,858,858,858,860,860,860,862,862,864,867,869,869,871,871,871,871,871,873,873,0,0,0,0,0,0,0,1696,1696,1696,1696,1696,1696,1688,1680,1671,1671,1663,1663,1655,1655,1647,1639,1639,1632,1632,1632,1616,1616,1609,1609,1601,1601,1601,1594,1586,1586,1579,1579,1572,1564,1564,1557,1550,1550,1550,1543,1543,1536,1536,1523,1523,1516,1516,1516,1509,1503,1503,1496,1496,1496,1489,1489,1483,1483,1477,1470,1470,1464,1464,1464,1458,1458,1452,1445,1439,1439,1433,1427,1427,1421,1421,1421,1415,1415,1415,1410,1410,1404,1398,1392,1387,1387,1387,1381,1381,1376,1376,1376,1370,1370,1370,1365,1359,1354,1354,1349,1349,1343,1343,1338,1333,1333,1333,1328,1322,1317,1317,1312,1312,1312,1307,1307,1302,1297,1292,1292,1292,1292,1288,1288,1283,1278,1273,1273,1268,1268,1268,1259,1259,1255,1255,1255,1250,1250,1245,1241,1236,1236,1236,1232,1227,1227,1223,1219,1219,1214,1214,1210,1210,1206,1206,1202,1202,1202,1197,1197,1189,1185,1185,1185,1181,1181,1181,1177,1177,1173,1173,1169,1165,1161,1157,1153,1153,1153,1153,1149,1149,1149,1145,1141,1138,1138,1134,1134,1130,1126,1123,1123,1123,1119,1119,1115,1115,1112,1112,1105,1105,1101,1101,1101,1097,1094,1094,1090,1090,1090,1087,1084,1080,1080,1077,1077,1073,1073,1073,1070,1067,1063,1063,1063,1063,1060,1057,1057,1054,1054,1050,1047,1047,1044,1041,1041,1038,1038,1038,1034,1031,1028,1028,1025,1025,1025,1025,1022,1019,1019,1016,1016,1016,1013,1013,1010,1010,1007,1004,1004,1001,998,998,995,992,992,0,0,0,0,0,0,0,0,0,0,0,0,0,0,0,0,0,0,0,0,0,0,0,0,0,0,0,0,0,0,0,0,0
0,0,0,0,0,0,0,0,0,0,0,0,0,0,2090,2090,2103,0,0,0,0,0,0,943,943,943,943,943,943,946,946,946,948,948,948,946,946,946,946,948,948,948,948,948,951,951,951,951,951,954,954,954,954,954,954,954,954,954,954,956,956,948,946,946,943,943,943,940,940,938,938,938,938,946,948,948,946,946,946,946,946,946,946,946,948,946,946,948,948,946,946,943,938,938,943,943,943,943,943,943,943,946,946,946,943,943,943,943,946,946,943,943,943,946,946,946,946,946,948,948,948,948,946,946,946,946,946,946,946,946,946,946,943,943,943,946,946,946,943,943,943,943,946,946,946,946,946,948,948,943,943,943,943,943,943,943,943,943,940,940,943,943,943,943,940,940,938,938,938,943,943,943,943,948,951,951,951,951,951,948,948,946,946,946,946,946,946,946,946,948,948,948,948,943,943,946,943,943,940,940,940,940,943,943,943,943,943,946,946,946,946,946,946,946,946,946,946,946,943,943,943,943,943,943,943,943,943,943,943,943,943,943,943,946,946,946,946,946,946,946,943,943,943,943,943,943,940,940,940,940,940,940,940,940,943,943,943,943,943,943,943,943,943,943,943,943,946,946,946,943,943,940,938,938,938,938,938,938,938,940,940,940,940,940,938,938,938,938,935,935,938,938,938,938,935,935,935,867,867,869,869,867,867,864,862,862,860,860,858,858,858,856,856,858,858,858,860,860,860,860,862,862,862,867,869,869,869,871,871,871,873,873,873,875,0,0,0,0,0,0,0,1696,1696,1696,1696,1696,1696,1688,1680,1680,1671,1671,1663,1663,1655,1647,1647,1639,1639,1632,1632,1624,1616,1616,1609,1609,1601,1601,1594,1586,1586,1579,1579,1572,1564,1564,1557,1550,1550,1550,1543,1543,1536,1536,1523,1523,1523,1516,1516,1509,1503,1503,1503,1496,1496,1489,1489,1483,1483,1477,1477,1470,1470,1464,1464,1464,1458,1452,1452,1439,1439,1433,1427,1427,1421,1421,1415,1415,1415,1415,1410,1410,1404,1398,1392,1387,1387,1387,1381,1381,1376,1376,1376,1376,1370,1370,1365,1359,1354,1354,1349,1349,1343,1343,1338,1333,1333,1333,1333,1328,1322,1317,1312,1312,1312,1307,1307,1302,1302,1292,1292,1292,1292,1288,1288,1283,1283,1278,1273,1268,1268,1268,1264,1259,1255,1255,1255,1250,1250,1250,1245,1241,1236,1236,1232,1232,1227,1223,1219,1219,1219,1214,1214,1210,1206,1206,1206,1202,1202,1202,1197,1193,1189,1185,1185,1185,1181,1181,1181,1177,1173,1173,1169,1165,1161,1157,1157,1153,1153,1153,1149,1149,1149,1145,1145,1141,1138,1134,1130,1130,1126,1123,1123,1123,1119,1119,1115,1115,1112,1112,1105,1105,1105,1101,1101,1097,1094,1094,1094,1090,1090,1087,1084,1080,1080,1077,1077,1073,1073,1073,1070,1067,1067,1063,1063,1063,1060,1057,1057,1054,1054,1050,1047,1047,1044,1041,1041,1038,1038,1038,1034,1031,1028,1028,1025,1025,1025,1025,1022,1019,1019,1016,1016,1016,1013,1013,1010,1010,1007,1004,1004,1001,998,995,995,992,992,0,0,0,0,0,0,0,0,0,0,0,0,0,0,0,0,0,0,0,0,0,0,0,0,0,0,0,0,0,0,0,0,0
0,0,0,0,0,0,0,0,0,0,0,0,0,0,2090,2090,2090,0,0,0,0,0,0,943,943,943,943,943,943,943,943,943,935,935,935,943,943,943,943,946,946,946,946,948,948,948,948,948,948,948,951,951,951,951,951,951,951,951,951,948,946,946,946,946,940,940,940,938,938,935,935,935,935,935,935,935,940,940,940,940,940,940,943,943,943,943,943,943,940,940,938,938,935,935,938,940,943,943,943,943,943,943,943,938,938,935,935,940,940,940,940,940,943,943,943,943,943,943,943,943,943,943,943,943,943,943,943,943,943,943,943,943,940,940,940,940,940,938,938,938,938,940,940,940,940,940,943,943,943,940,940,940,940,940,938,938,938,940,938,938,940,940,940,940,938,938,935,935,935,935,935,935,943,946,946,946,948,948,948,943,943,943,943,943,943,943,943,943,943,943,943,940,940,940,938,938,935,935,938,935,935,935,935,935,935,935,935,935,940,940,943,940,940,943,943,940,938,938,940,940,940,940,940,940,940,940,940,940,940,938,938,938,940,940,940,940,943,943,943,943,940,938,938,938,938,938,938,938,938,938,935,935,935,935,935,938,938,938,938,940,938,938,940,938,938,940,943,943,943,943,943,938,935,935,935,935,935,935,935,938,938,938,938,938,935,935,933,933,933,933,933,933,933,933,930,930,928,867,867,869,869,867,867,864,864,862,860,860,858,858,858,858,858,858,858,858,860,860,860,862,862,862,864,867,869,869,869,871,871,871,873,873,873,875,0,0,0,0,0,0,0,1705,1705,1705,1696,1696,1696,1688,1688,1680,1671,1671,1671,1663,1663,1655,1647,1639,1639,1639,1632,1632,1624,1616,1609,1609,1601,1601,1601,1594,1586,1579,1579,1572,1564,1564,1557,1550,1550,1550,1543,1543,1536,1536,1529,1523,1523,1516,1516,1509,1503,1503,1503,1496,1496,1489,1489,1483,1483,1477,1470,1470,1470,1470,1464,1464,1458,1458,1452,1445,1439,1439,1427,1427,1421,1421,1415,1415,1415,1415,1415,1410,1404,1398,1392,1392,1387,1387,1381,1381,1376,1376,1376,1376,1370,1370,1365,1359,1359,1354,1354,1349,1349,1343,1338,1338,1333,1333,1333,1328,1328,1322,1317,1312,1312,1307,1307,1302,1302,1297,1292,1292,1292,1288,1288,1288,1283,1278,1273,1273,1268,1268,1264,1259,1255,1255,1255,1250,1250,1250,1245,1241,1241,1236,1236,1232,1232,1227,1223,1219,1219,1219,1214,1210,1206,1206,1206,1202,1202,1202,1197,1193,1189,1189,1185,1185,1185,1181,1181,1177,1177,1173,1169,1165,1161,1157,1157,1153,1153,1153,1153,1149,1149,1145,1145,1141,1138,1138,1130,1130,1126,1126,1123,1123,1123,1119,1119,1115,1115,1112,1112,1108,1105,1105,1101,1097,1097,1094,1094,1090,1090,1087,1084,1080,1080,1077,1077,1077,1073,1073,1070,1070,1067,1063,1063,1063,1060,1057,1057,1054,1054,1050,1050,1047,1044,1044,1041,1041,1038,1038,1034,1034,1031,1028,1028,1025,1025,1025,1025,1022,1019,1016,1016,1016,1013,1013,1010,1010,1007,1004,1001,1001,998,995,995,992,992,0,0,0,0,0,0,0,0,0,0,0,0,0,0,0,0,0,0,0,0,0,0,0,0,0,0,0,0,0,0,0,0,0
0,0,0,0,0,0,0,0,0,0,0,0,0,0,2090,2090,2090,0,0,0,0,0,0,943,938,938,938,938,940,938,935,935,933,933,933,935,935,938,938,943,943,943,943,943,943,946,946,943,943,943,946,951,948,943,943,943,943,943,943,943,943,943,943,940,938,938,938,935,935,933,933,933,933,933,933,933,933,935,935,935,935,938,938,938,938,935,935,935,935,933,933,930,930,930,933,935,935,935,938,943,935,933,933,935,935,935,933,933,933,935,935,938,938,938,940,940,940,940,940,940,938,938,938,938,938,940,940,940,940,940,938,938,935,933,933,933,933,933,933,933,933,933,935,935,935,938,938,940,938,938,938,935,935,935,933,933,933,938,935,935,938,938,938,938,933,933,933,933,933,930,930,930,933,933,933,933,935,935,935,935,935,935,935,935,935,935,938,940,940,935,935,938,935,935,935,933,933,935,935,933,933,935,935,935,935,935,935,935,935,930,930,933,935,935,933,933,933,935,935,935,938,938,938,938,938,938,935,935,935,935,935,935,933,933,935,935,935,935,935,935,938,935,935,935,935,935,935,935,935,933,933,933,933,930,930,933,935,935,935,935,935,935,935,935,935,935,938,938,940,940,938,935,935,935,933,933,933,933,935,935,935,935,935,933,933,930,930,930,930,930,930,930,928,928,928,925,925,869,869,869,869,867,867,867,864,862,860,860,858,858,858,858,858,858,858,858,860,860,860,862,862,864,864,869,869,869,871,871,871,871,873,873,875,878,0,0,0,0,0,0,1705,1705,1705,1705,1696,1696,1696,1696,1688,1680,1671,1671,1671,1663,1663,1655,1655,1647,1639,1639,1632,1632,1624,1624,1616,1609,1609,1601,1601,1594,1594,1586,1579,1572,1564,1564,1557,1557,1550,1550,1543,1543,1543,1536,1529,1523,1523,1516,1516,1509,1503,1503,1503,1496,1496,1489,1489,1483,1483,1477,1470,1470,1470,1470,1464,1464,1458,1458,1452,1445,1439,1439,1433,1427,1421,1421,1421,1415,1415,1415,1415,1410,1404,1398,1392,1392,1392,1387,1387,1381,1376,1376,1376,1376,1370,1370,1365,1359,1359,1354,1354,1349,1349,1343,1343,1338,1333,1333,1333,1328,1328,1322,1317,1312,1312,1312,1307,1307,1302,1302,1292,1292,1292,1288,1288,1288,1283,1278,1278,1273,1268,1268,1268,1259,1255,1255,1255,1255,1250,1250,1245,1241,1241,1236,1236,1232,1232,1227,1223,1223,1219,1219,1214,1214,1210,1206,1206,1202,1202,1202,1202,1197,1193,1189,1185,1185,1185,1181,1181,1181,1177,1173,1169,1165,1161,1161,1157,1153,1153,1153,1153,1149,1149,1149,1145,1141,1138,1138,1130,1130,1130,1126,1123,1123,1123,1119,1119,1115,1115,1112,1112,1108,1105,1105,1105,1101,1097,1094,1094,1090,1090,1087,1087,1084,1080,1080,1077,1077,1077,1073,1073,1070,1067,1067,1063,1063,1060,1060,1057,1057,1054,1050,1050,1050,1047,1044,1041,1041,1038,1038,1034,1034,1031,1028,1028,1025,1025,1025,1025,1022,1019,1016,1016,1016,1013,1013,1010,1010,1007,1004,1001,1001,998,995,995,995,995,0,0,0,0,0,0,0,0,0,0,0,0,0,0,0,0,0,0,0,0,0,0,0,0,0,0,0,0,0,0,0,0,0
0,0,0,0,0,0,0,0,0,0,0,0,0,0,2090,2090,2090,2090,0,0,0,0,0,0,938,938,938,935,935,933,933,933,928,928,930,930,933,933,933,933,933,940,940,940,940,940,935,935,935,938,938,938,938,935,935,935,935,935,935,935,930,925,925,925,935,935,935,933,930,930,933,930,928,928,928,928,928,928,930,933,933,933,933,933,933,933,928,928,928,925,925,928,928,928,928,930,930,933,933,933,933,930,930,933,933,933,933,933,933,933,933,933,933,933,935,940,935,935,935,935,935,933,933,935,935,935,935,935,935,935,935,935,930,928,928,928,928,928,928,928,928,928,928,928,928,930,930,930,933,933,930,930,930,930,930,928,928,933,933,933,933,933,935,930,930,930,928,928,928,928,925,925,928,928,928,928,928,928,928,928,933,933,933,933,933,933,933,933,935,935,935,935,935,935,933,933,933,933,933,933,933,933,933,930,930,930,930,933,930,930,928,928,928,930,928,928,928,928,928,928,928,928,930,933,933,933,930,930,930,930,930,928,928,928,928,928,928,928,930,930,933,933,930,930,933,933,933,933,930,928,928,928,928,928,928,930,930,930,933,933,933,933,930,930,928,928,925,925,925,928,930,930,930,930,930,930,933,930,930,933,933,933,930,930,930,928,925,925,925,928,925,925,925,923,923,923,923,869,869,869,869,867,867,867,864,862,860,860,858,858,858,858,858,860,860,860,860,860,862,862,862,864,867,869,869,869,871,871,871,873,873,873,875,0,0,0,0,0,0,0,1705,1705,1705,1705,1696,1696,1696,1696,1688,1680,1680,1671,1671,1663,1663,1655,1655,1647,1639,1639,1632,1632,1632,1624,1616,1616,1609,1609,1601,1601,1594,1586,1586,1572,1572,1564,1564,1557,1557,1550,1550,1543,1543,1536,1529,1523,1523,1523,1516,1509,1509,1503,1503,1496,1489,1489,1489,1489,1483,1477,1470,1470,1470,1470,1464,1464,1464,1458,1452,1445,1439,1439,1433,1427,1427,1421,1421,1415,1415,1415,1415,1410,1404,1398,1398,1392,1392,1387,1387,1381,1376,1376,1376,1376,1370,1370,1365,1359,1359,1354,1354,1349,1349,1343,1343,1338,1333,1333,1333,1328,1328,1322,1317,1317,1312,1312,1307,1307,1302,1302,1292,1292,1292,1292,1288,1288,1283,1283,1278,1273,1268,1268,1268,1259,1259,1255,1255,1255,1250,1250,1250,1245,1245,1241,1236,1236,1232,1227,1227,1227,1223,1219,1214,1214,1210,1210,1210,1206,1202,1202,1202,1197,1193,1189,1189,1185,1185,1181,1181,1181,1177,1173,1169,1165,1165,1161,1157,1157,1153,1153,1153,1149,1149,1149,1145,1145,1141,1134,1134,1130,1130,1126,1126,1123,1123,1119,1119,1115,1115,1112,1112,1108,1105,1105,1105,1101,1097,1094,1094,1090,1090,1090,1087,1084,1080,1080,1077,1077,1077,1073,1073,1070,1067,1067,1067,1063,1063,1060,1057,1057,1054,1054,1050,1050,1047,1044,1044,1041,1041,1038,1038,1034,1031,1028,1028,1028,1025,1025,1025,1022,1022,1019,1019,1016,1013,1013,1013,1010,1007,1004,1001,1001,1001,998,995,995,995,0,0,0,0,0,0,0,0,0,0,0,0,0,0,0,0,0,0,0,0,0,0,0,0,0,0,0,0,0,0,0,0,0
0,0,0,0,0,0,0,0,0,0,0,0,0,0,2090,2090,2090,2090,0,0,0,0,0,0,935,935,935,935,935,930,930,928,925,925,925,928,928,928,928,930,930,930,930,930,928,928,925,925,928,925,925,925,925,930,933,933,933,933,925,925,925,925,925,925,925,925,933,933,930,930,930,930,928,928,925,925,925,928,928,930,930,930,930,930,928,925,925,925,925,925,925,928,925,925,925,928,928,930,930,930,930,930,930,930,930,930,928,928,930,930,930,930,930,930,930,930,930,930,933,933,930,930,933,933,930,930,930,930,930,928,928,928,928,925,925,925,925,925,925,925,925,925,925,925,925,925,923,923,925,925,925,925,925,925,925,925,925,928,928,930,928,928,930,928,925,925,925,925,925,925,923,923,925,923,923,925,923,923,925,925,925,925,925,928,928,930,928,928,925,925,925,933,933,933,933,933,933,930,930,930,930,930,930,928,925,925,925,925,925,925,925,925,925,925,925,925,925,923,923,925,925,925,925,928,928,928,925,925,925,928,925,925,925,925,923,923,920,920,923,923,923,925,928,928,928,925,925,928,928,928,925,925,925,925,925,925,925,925,925,925,925,928,925,925,925,925,923,923,923,923,925,925,925,928,928,928,928,928,928,930,930,928,925,923,920,920,918,918,920,920,920,923,920,920,920,920,920,920,869,869,869,869,867,867,864,862,860,860,858,858,858,858,860,860,860,860,860,862,862,862,864,867,867,869,869,871,871,871,873,873,873,873,875,0,0,0,0,0,0,0,1705,1705,1705,1705,1705,1696,1696,1696,1688,1688,1680,1671,1671,1663,1663,1663,1655,1647,1639,1639,1632,1632,1632,1624,1624,1616,1609,1609,1601,1601,1594,1594,1586,1579,1572,1564,1564,1557,1557,1550,1550,1550,1543,1543,1536,1536,1523,1523,1516,1516,1509,1503,1503,1496,1489,1489,1489,1489,1483,1477,1477,1470,1470,1470,1464,1464,1464,1464,1452,1452,1445,1439,1433,1433,1427,1421,1421,1421,1415,1415,1415,1410,1404,1404,1398,1392,1392,1392,1387,1381,1381,1376,1376,1376,1370,1370,1365,1359,1359,1354,1354,1349,1349,1349,1343,1338,1333,1333,1333,1328,1328,1322,1322,1317,1312,1312,1312,1307,1307,1307,1302,1292,1292,1292,1288,1288,1283,1283,1278,1273,1273,1268,1264,1264,1259,1255,1255,1255,1255,1250,1250,1245,1245,1241,1236,1236,1236,1227,1227,1227,1223,1219,1219,1214,1214,1210,1210,1206,1206,1202,1202,1197,1193,1193,1189,1185,1185,1181,1181,1181,1177,1173,1169,1165,1165,1161,1161,1157,1153,1153,1153,1149,1149,1149,1145,1145,1141,1134,1134,1134,1130,1130,1126,1123,1123,1119,1119,1119,1115,1115,1112,1108,1108,1105,1105,1101,1097,1094,1094,1094,1090,1090,1087,1080,1080,1080,1077,1077,1077,1077,1073,1073,1070,1067,1067,1063,1063,1060,1060,1057,1054,1054,1050,1050,1047,1044,1044,1041,1041,1038,1038,1038,1034,1031,1028,1028,1028,1025,1025,1022,1022,1019,1019,1016,1013,1013,1013,1010,1007,1004,1001,1001,1001,998,995,995,995,0,0,0,0,0,0,0,0,0,0,0,0,0,0,0,0,0,0,0,0,0,0,0,0,0,0,0,0,0,0,0,0,0
0,0,0,0,0,0,0,0,0,0,0,0,0,0,2090,2078,2078,2078,0,0,0,0,0,0,935,933,933,933,933,928,925,925,923,923,923,923,923,923,920,920,920,920,920,920,920,920,925,925,923,923,923,923,923,923,923,923,930,930,923,923,923,923,923,923,923,923,930,930,930,930,928,928,925,925,925,925,925,925,925,925,925,928,925,925,925,923,923,923,923,923,923,925,925,923,923,923,923,925,925,925,928,925,925,925,925,925,925,925,925,925,925,928,925,923,918,918,918,918,920,920,920,920,930,930,928,925,925,925,925,925,923,923,923,923,923,923,923,923,923,923,923,923,923,920,920,920,920,920,923,923,923,923,923,923,925,923,920,920,920,920,923,920,920,923,923,923,923,923,923,923,923,923,923,923,918,918,923,918,918,918,918,920,920,920,918,918,920,923,923,923,923,923,930,928,928,930,930,928,928,928,928,928,928,925,923,923,923,923,920,920,920,920,920,920,920,923,923,920,920,920,920,920,923,923,923,923,923,923,923,923,920,920,920,920,918,915,915,915,915,915,915,915,918,920,923,923,923,920,920,920,920,923,923,923,923,923,923,920,920,918,918,920,920,920,920,920,920,920,920,920,920,920,920,923,925,925,925,925,925,925,925,920,918,918,918,915,915,915,915,915,915,918,918,918,915,915,915,915,869,869,869,869,869,867,864,862,860,860,858,858,860,860,860,860,860,860,860,862,862,864,864,867,869,869,869,871,871,871,873,873,873,875,875,0,0,0,0,0,0,0,1705,1705,1705,1705,1705,1696,1696,1696,1688,1688,1680,1671,1671,1671,1663,1663,1663,1655,1639,1639,1632,1632,1632,1632,1624,1616,1609,1609,1601,1601,1594,1594,1586,1579,1572,1572,1572,1564,1557,1557,1550,1550,1543,1543,1536,1529,1523,1523,1516,1516,1509,1509,1503,1496,1496,1496,1489,1489,1483,1477,1477,1470,1470,1470,1464,1464,1464,1464,1458,1452,1445,1445,1439,1433,1433,1421,1421,1421,1415,1415,1415,1410,1410,1404,1398,1398,1392,1392,1387,1387,1381,1376,1376,1376,1370,1370,1365,1359,1359,1354,1354,1349,1349,1349,1343,1338,1333,1333,1333,1328,1328,1328,1322,1317,1312,1312,1312,1307,1307,1307,1302,1292,1292,1292,1288,1288,1283,1283,1278,1273,1273,1268,1264,1264,1259,1259,1255,1255,1255,1250,1250,1250,1245,1241,1241,1236,1232,1232,1227,1227,1223,1219,1219,1214,1214,1210,1210,1210,1206,1202,1202,1197,1193,1193,1189,1189,1185,1185,1181,1181,1177,1173,1169,1169,1165,1165,1161,1157,1157,1153,1153,1153,1149,1149,1145,1145,1141,1138,1134,1134,1130,1130,1126,1123,1123,1123,1119,1119,1115,1115,1112,1108,1108,1108,1105,1105,1101,1097,1094,1094,1090,1090,1087,1080,1080,1080,1077,1077,1077,1077,1073,1073,1070,1070,1067,1067,1063,1060,1060,1057,1054,1054,1050,1050,1050,1047,1044,1044,1041,1041,1038,1038,1034,1031,1028,1028,1028,1025,1025,1022,1022,1019,1019,1016,1016,1013,1013,1010,1010,1004,1004,1001,1001,998,995,995,995,0,0,0,0,0,0,0,0,0,0,0,0,0,0,0,0,0,0,0,0,0,0,0,0,0,0,0,0,0,0,0,0,0
0,0,0,0,0,0,0,0,0,0,0,0,0,0,2065,2065,2065,2065,0,0,0,0,0,0,0,933,928,928,925,925,923,923,920,918,918,918,918,918,915,915,915,915,915,915,918,918,918,920,923,920,920,920,920,920,918,918,918,920,915,915,920,920,918,918,920,920,928,928,928,928,925,923,923,923,923,923,923,923,920,920,923,923,923,923,923,923,923,923,923,920,920,923,920,918,918,918,918,918,920,923,923,920,920,920,920,920,918,918,915,915,915,915,915,915,913,913,913,915,915,915,915,913,913,913,913,920,920,918,918,920,920,920,920,920,920,920,920,920,920,920,920,918,918,918,918,918,915,915,918,918,920,918,918,920,923,920,918,918,918,918,918,918,918,920,920,920,920,920,920,920,920,918,918,915,913,913,913,913,910,908,908,908,910,910,910,910,913,913,913,913,913,923,925,925,925,925,928,925,925,925,925,923,923,923,918,918,918,915,915,915,915,918,918,918,918,918,918,918,918,918,915,915,920,920,920,920,920,920,920,915,915,918,918,915,913,910,910,910,910,910,910,913,915,915,915,918,915,915,915,915,915,915,913,913,915,918,918,915,915,913,913,913,915,918,918,920,918,918,915,915,915,915,915,915,920,920,920,920,920,918,915,915,915,913,913,913,913,913,913,913,913,913,915,913,913,910,910,913,869,869,869,869,869,867,864,862,860,860,860,860,860,860,860,860,860,860,860,862,862,864,864,867,869,869,869,871,871,871,873,873,875,875,875,0,0,0,0,0,0,1713,1705,1705,1705,1705,1705,1696,1696,1696,1688,1688,1680,1671,1671,1671,1663,1663,1663,1655,1647,1639,1632,1632,1632,1624,1624,1616,1609,1609,1601,1601,1594,1594,1586,1579,1572,1572,1572,1572,1564,1564,1557,1550,1550,1543,1543,1529,1523,1523,1523,1516,1516,1509,1503,1503,1496,1496,1489,1489,1483,1483,1477,1477,1470,1470,1464,1464,1464,1464,1464,1452,1445,1445,1439,1439,1433,1427,1421,1421,1421,1415,1415,1410,1410,1404,1398,1398,1392,1392,1392,1387,1387,1381,1376,1376,1370,1370,1365,1359,1359,1354,1354,1354,1349,1349,1349,1343,1338,1333,1333,1333,1328,1328,1322,1317,1312,1312,1312,1307,1307,1307,1302,1292,1292,1292,1288,1288,1283,1283,1278,1273,1273,1273,1268,1264,1264,1259,1255,1255,1255,1250,1250,1250,1245,1245,1241,1236,1232,1232,1227,1227,1223,1219,1219,1214,1214,1214,1210,1210,1206,1202,1202,1197,1197,1193,1193,1189,1185,1185,1185,1181,1177,1173,1169,1169,1169,1165,1165,1161,1157,1157,1153,1153,1149,1149,1149,1145,1141,1138,1134,1134,1130,1130,1126,1123,1123,1123,1119,1119,1115,1115,1115,1112,1108,1108,1105,1105,1101,1097,1094,1094,1094,1090,1090,1084,1080,1080,1077,1077,1077,1077,1077,1073,1070,1070,1067,1067,1063,1063,1060,1060,1054,1054,1050,1050,1050,1047,1044,1044,1041,1041,1038,1038,1038,1034,1031,1028,1028,1025,1025,1022,1022,1019,1019,1016,1016,1016,1013,1010,1010,1004,1004,1001,1001,998,998,995,995,0,0,0,0,0,0,0,0,0,0,0,0,0,0,0,0,0,0,0,0,0,0,0,0,0,0,0,0,0,0,0,0,0
0,0,0,0,0,0,0,0,0,0,0,0,0,0,2053,2053,2053,2053,0,0,0,0,0,0,0,0,925,925,923,923,920,918,918,915,915,915,915,915,913,913,913,913,915,915,915,915,915,915,918,918,918,918,918,915,913,913,913,915,915,915,913,913,913,913,915,915,918,923,920,920,920,920,920,920,920,920,918,918,918,918,920,918,918,918,920,920,923,923,920,918,918,915,913,913,913,913,913,913,913,913,915,915,915,915,915,913,913,913,910,908,908,908,906,906,908,908,908,910,910,913,913,908,908,908,908,910,910,910,913,915,915,915,915,915,915,918,918,920,918,918,918,915,915,915,915,915,913,913,915,915,918,915,915,915,920,918,915,915,915,915,915,915,915,915,915,918,918,918,915,915,915,915,913,910,910,908,908,908,908,908,906,906,908,908,908,908,908,908,908,908,906,906,906,906,910,908,908,908,908,915,908,908,913,915,913,913,913,913,913,915,915,915,915,915,915,915,915,915,915,913,913,913,915,915,915,915,915,918,918,915,915,915,913,913,908,908,908,908,908,908,908,908,910,913,913,915,913,913,910,910,913,913,913,910,910,910,910,910,910,908,908,908,908,908,908,913,913,913,913,910,910,910,908,908,906,906,906,906,906,908,910,910,910,910,910,910,910,910,910,910,910,910,910,910,908,908,908,908,869,869,869,869,869,867,864,862,860,860,860,860,860,860,860,860,860,860,862,862,862,864,864,867,869,869,871,871,871,871,873,875,875,875,0,0,0,0,0,0,0,1713,1705,1705,1705,1705,1705,1696,1696,1696,1688,1688,1680,1671,1671,1671,1663,1663,1663,1655,1647,1639,1632,1632,1632,1624,1624,1616,1609,1609,1601,1601,1594,1594,1586,1579,1579,1579,1572,1572,1564,1564,1557,1550,1550,1543,1543,1529,1523,1523,1523,1516,1516,1516,1509,1503,1503,1496,1489,1489,1483,1483,1483,1477,1470,1470,1464,1464,1464,1464,1464,1452,1445,1445,1439,1439,1439,1427,1421,1421,1421,1415,1415,1415,1410,1404,1398,1398,1398,1392,1392,1387,1387,1381,1376,1376,1370,1370,1370,1365,1359,1354,1354,1354,1349,1349,1349,1343,1338,1338,1333,1333,1328,1328,1328,1322,1317,1312,1312,1307,1307,1307,1302,1292,1292,1292,1288,1288,1288,1283,1278,1273,1273,1273,1268,1268,1264,1259,1255,1255,1255,1250,1250,1250,1245,1245,1241,1236,1232,1232,1227,1227,1223,1219,1219,1214,1214,1214,1210,1210,1206,1202,1202,1197,1197,1197,1193,1189,1185,1185,1185,1181,1181,1177,1169,1169,1169,1165,1165,1161,1161,1157,1153,1153,1153,1149,1149,1145,1141,1138,1134,1134,1134,1130,1126,1123,1123,1123,1119,1119,1119,1115,1115,1112,1108,1108,1105,1105,1105,1101,1097,1094,1094,1094,1090,1084,1080,1080,1080,1080,1077,1077,1077,1073,1070,1070,1067,1067,1063,1063,1063,1057,1054,1054,1050,1050,1050,1047,1047,1044,1044,1041,1041,1038,1038,1034,1028,1028,1028,1025,1025,1025,1022,1019,1019,1016,1016,1016,1013,1013,1010,1007,1004,1001,1001,998,998,995,995,0,0,0,0,0,0,0,0,0,0,0,0,0,0,0,0,0,0,0,0,0,0,0,0,0,0,0,0,0,0,0,0,0
0,0,0,0,0,0,0,0,0,0,0,0,0,0,2040,2040,2028,2028,0,0,0,0,0,0,0,0,925,918,915,915,918,918,915,913,913,913,913,913,910,910,910,910,913,913,913,913,915,915,915,915,915,915,913,913,913,910,910,910,910,910,910,910,910,908,908,908,913,915,915,915,915,915,913,913,915,915,913,913,913,913,915,915,915,915,915,915,918,918,915,913,913,910,908,908,910,910,913,913,910,910,910,910,913,913,913,913,910,910,908,908,906,903,903,903,903,903,903,906,906,906,906,906,906,906,906,908,908,908,908,908,908,906,906,910,910,910,913,913,913,913,915,913,913,913,910,910,910,910,913,913,915,915,913,913,915,913,913,910,910,910,910,910,908,908,910,913,913,913,913,913,913,913,913,906,906,906,906,908,906,906,906,906,906,906,906,906,906,906,906,906,903,903,903,903,903,903,903,903,906,908,908,908,908,908,910,910,910,910,910,913,913,910,910,910,910,910,910,913,913,910,910,910,910,910,913,910,910,913,913,913,913,913,910,908,906,906,906,906,906,906,906,906,908,908,908,910,910,908,908,908,908,910,910,908,906,906,908,908,906,903,903,903,906,906,906,906,906,906,906,906,906,906,901,901,903,903,906,906,906,906,906,906,908,908,908,908,908,908,908,908,908,908,908,908,906,906,906,906,871,871,871,869,869,867,864,862,860,860,860,860,860,860,860,862,862,862,862,862,862,864,867,869,869,869,871,871,871,873,873,875,875,875,875,0,0,0,0,0,0,1713,1705,1705,1705,1705,1705,1696,1696,1696,1688,1688,1680,1671,1671,1671,1663,1663,1663,1655,1647,1639,1639,1632,1632,1624,1624,1616,1609,1609,1601,1601,1601,1594,1586,1579,1579,1579,1572,1572,1564,1564,1557,1550,1550,1550,1543,1529,1529,1523,1523,1516,1516,1516,1509,1503,1503,1496,1496,1489,1489,1483,1483,1477,1470,1470,1464,1464,1464,1464,1464,1452,1445,1445,1445,1439,1439,1433,1427,1421,1421,1421,1415,1415,1410,1404,1404,1398,1398,1392,1392,1392,1387,1387,1381,1376,1370,1370,1370,1365,1359,1359,1354,1354,1349,1349,1349,1343,1338,1338,1333,1333,1328,1328,1328,1322,1317,1312,1312,1307,1307,1307,1302,1297,1292,1292,1292,1288,1288,1283,1278,1273,1273,1273,1268,1268,1264,1259,1259,1255,1255,1255,1250,1250,1250,1245,1245,1241,1236,1232,1232,1227,1223,1219,1219,1214,1214,1214,1210,1210,1206,1202,1202,1197,1197,1197,1193,1189,1185,1185,1185,1181,1181,1177,1177,1169,1169,1165,1165,1165,1161,1157,1153,1153,1153,1149,1149,1149,1141,1138,1134,1134,1134,1130,1126,1126,1123,1123,1123,1119,1119,1119,1115,1112,1108,1108,1105,1105,1105,1101,1097,1094,1094,1094,1090,1084,1080,1080,1080,1080,1080,1077,1077,1073,1073,1070,1067,1067,1063,1063,1063,1057,1054,1054,1050,1050,1050,1050,1047,1044,1044,1041,1041,1038,1038,1034,1028,1028,1028,1025,1025,1025,1022,1019,1019,1016,1016,1016,1013,1013,1010,1007,1004,1001,1001,1001,998,998,998,0,0,0,0,0,0,0,0,0,0,0,0,0,0,0,0,0,0,0,0,0,0,0,0,0,0,0,0,0,0,0,0,0
0,0,0,0,0,0,0,0,0,0,0,0,0,0,2040,2040,2028,2028,0,0,0,0,0,0,0,0,915,915,915,915,913,913,913,910,910,908,908,910,908,908,906,906,908,908,910,910,910,910,913,913,913,913,910,910,910,908,908,908,908,908,908,906,906,903,903,903,901,901,903,906,906,910,908,908,908,908,906,906,906,910,910,908,908,908,908,910,910,910,910,908,906,906,906,906,906,906,906,908,906,906,906,906,906,906,906,906,906,906,906,906,906,903,903,903,901,901,901,901,901,903,906,906,906,906,906,906,906,906,906,906,906,906,903,903,901,901,906,908,908,908,910,910,910,910,908,908,910,910,908,908,910,913,913,913,913,910,906,906,903,903,901,901,903,903,906,906,906,908,908,908,908,910,908,903,903,903,903,906,903,903,903,903,903,903,903,901,901,901,903,903,901,901,903,903,901,901,903,903,903,903,903,903,906,906,906,906,906,908,908,910,910,906,906,908,908,908,908,908,908,908,908,908,906,903,903,903,906,910,910,908,908,910,908,906,903,901,901,901,901,903,903,906,906,906,906,906,906,906,903,903,903,906,906,903,903,903,903,903,903,901,901,898,898,898,896,896,898,898,898,901,901,898,898,898,898,898,898,901,901,903,903,903,903,903,903,903,903,906,903,903,906,903,903,903,901,901,901,885,873,873,871,871,869,867,864,862,860,860,860,860,862,862,862,862,862,862,862,864,864,867,867,869,869,869,871,871,873,873,875,875,875,875,875,0,0,0,0,0,0,0,1705,1705,1705,1705,1705,1696,1696,1696,1688,1688,1680,1671,1671,1671,1663,1663,1663,1655,1647,1639,1639,1632,1632,1632,1624,1616,1609,1609,1609,1601,1601,1594,1586,1579,1579,1579,1572,1572,1572,1564,1557,1557,1550,1550,1543,1536,1529,1523,1523,1523,1516,1516,1516,1509,1503,1496,1496,1489,1489,1489,1483,1483,1477,1470,1470,1470,1464,1464,1464,1464,1445,1445,1445,1439,1439,1433,1433,1427,1421,1421,1415,1415,1410,1410,1404,1398,1398,1398,1392,1392,1387,1387,1381,1376,1370,1370,1370,1365,1365,1359,1354,1354,1349,1349,1349,1343,1338,1333,1333,1333,1328,1328,1328,1322,1317,1312,1312,1307,1307,1307,1302,1302,1292,1292,1292,1288,1288,1283,1278,1278,1273,1273,1268,1268,1264,1264,1259,1255,1255,1255,1250,1250,1250,1245,1245,1241,1236,1232,1232,1227,1223,1223,1219,1219,1214,1214,1210,1210,1206,1202,1202,1202,1197,1197,1193,1189,1189,1185,1185,1181,1181,1177,1177,1169,1169,1169,1165,1165,1161,1157,1153,1153,1153,1149,1149,1149,1141,1138,1134,1134,1134,1130,1130,1126,1123,1123,1123,1119,1119,1119,1115,1112,1108,1108,1105,1105,1105,1101,1097,1094,1094,1094,1090,1084,1084,1080,1080,1080,1080,1077,1077,1077,1073,1070,1067,1067,1063,1063,1063,1057,1057,1054,1054,1050,1050,1050,1050,1047,1044,1044,1041,1038,1038,1034,1034,1028,1028,1025,1025,1025,1022,1022,1022,1019,1016,1016,1016,1013,1010,1007,1004,1001,1001,1001,998,998,998,0,0,0,0,0,0,0,0,0,0,0,0,0,0,0,0,0,0,0,0,0,0,0,0,0,0,0,0,0,0,0,0,0
0,0,0,0,0,0,0,0,0,0,0,0,0,0,2016,2016,2016,2016,2016,0,0,0,0,0,0,0,915,913,913,913,913,908,908,906,906,906,906,906,908,906,906,906,906,906,906,906,906,906,908,910,910,908,908,908,908,906,906,906,906,906,906,906,906,903,903,898,898,898,898,901,898,896,896,896,898,906,903,903,903,906,903,903,903,906,906,906,903,903,903,903,906,906,903,903,903,903,903,903,903,901,901,901,906,906,906,901,901,906,903,903,903,901,898,898,898,898,898,898,898,898,898,898,901,901,901,903,903,906,906,906,903,901,901,898,898,898,898,898,898,898,906,906,906,906,906,906,906,906,906,906,906,908,908,906,901,901,903,903,901,901,898,898,896,896,896,896,898,898,901,901,903,901,901,898,898,898,901,901,901,901,901,901,901,901,901,898,898,898,898,898,898,898,898,898,898,898,898,901,901,898,898,901,898,896,896,901,903,903,906,906,906,903,903,903,903,903,903,903,903,903,901,896,896,896,896,898,896,896,901,906,906,906,903,901,901,898,898,896,896,898,901,901,901,901,901,901,903,903,901,901,901,901,903,898,898,898,898,898,898,896,896,896,894,894,894,894,894,894,894,894,898,898,896,896,896,896,894,894,889,889,889,896,896,898,898,898,901,901,901,901,901,901,901,901,898,896,889,885,875,875,873,871,869,867,864,862,860,860,860,860,862,862,862,862,862,862,862,864,864,867,869,869,869,871,871,873,873,875,875,875,878,878,878,878,0,0,0,0,0,0,1713,1705,1705,1705,1705,1696,1696,1696,1688,1688,1680,1680,1671,1671,1663,1663,1663,1663,1647,1647,1639,1639,1632,1632,1624,1616,1609,1609,1609,1601,1601,1594,1586,1579,1579,1579,1572,1572,1572,1564,1557,1557,1550,1550,1543,1536,1529,1529,1523,1523,1523,1516,1516,1516,1509,1503,1496,1489,1489,1489,1483,1483,1477,1470,1470,1470,1464,1464,1464,1464,1452,1452,1445,1439,1439,1433,1433,1427,1421,1421,1415,1415,1415,1410,1404,1404,1398,1398,1392,1392,1392,1387,1381,1376,1376,1370,1370,1365,1365,1359,1359,1354,1354,1349,1349,1349,1343,1333,1333,1333,1333,1328,1328,1322,1322,1317,1312,1312,1307,1307,1302,1302,1297,1292,1292,1288,1288,1283,1278,1278,1273,1273,1268,1268,1268,1264,1259,1255,1255,1255,1250,1250,1250,1250,1245,1241,1236,1236,1232,1227,1223,1219,1219,1219,1214,1214,1214,1210,1206,1202,1202,1202,1197,1197,1193,1189,1189,1185,1185,1181,1181,1177,1177,1173,1169,1169,1165,1165,1161,1157,1157,1153,1153,1149,1149,1145,1141,1138,1138,1134,1134,1130,1130,1126,1123,1123,1123,1123,1119,1119,1119,1112,1108,1108,1105,1105,1105,1105,1101,1097,1094,1094,1090,1084,1084,1080,1080,1080,1080,1077,1077,1077,1073,1070,1067,1067,1067,1063,1060,1057,1057,1054,1054,1054,1054,1050,1050,1047,1047,1044,1041,1038,1038,1034,1034,1028,1028,1025,1025,1025,1025,1022,1022,1019,1016,1016,1016,1013,1010,1007,1004,1004,1001,1001,1001,998,998,0,0,0,0,0,0,0,0,0,0,0,0,0,0,0,0,0,0,0,0,0,0,0,0,0,0,0,0,0,0,0,0,0
0,0,0,0,0,0,0,0,0,0,0,0,0,0,2016,2016,2005,2005,2005,1993,1993,0,0,0,0,0,915,913,910,908,908,906,906,903,903,901,901,903,903,901,898,898,898,901,901,901,901,901,903,906,906,903,903,903,903,903,903,903,903,903,903,903,903,901,894,894,894,896,896,898,896,896,896,896,896,901,898,896,896,901,901,901,901,901,901,898,896,896,898,898,898,901,901,901,901,901,901,901,901,898,898,898,901,903,903,898,898,903,903,898,896,896,894,894,894,894,894,894,894,896,896,896,896,896,896,901,901,901,901,896,896,896,896,894,894,894,894,891,891,891,887,887,887,889,901,903,903,903,903,903,901,901,901,901,898,898,898,898,896,896,896,896,894,894,894,894,896,896,896,896,894,894,894,894,894,896,896,896,896,896,896,898,898,898,896,896,896,896,894,894,894,894,896,896,898,898,898,898,898,898,898,896,894,894,894,894,896,894,894,901,901,898,898,896,896,896,896,896,896,896,896,894,894,894,894,894,894,894,896,896,898,898,898,898,896,896,896,894,894,894,894,894,896,896,898,898,901,898,898,898,896,896,896,894,894,894,891,891,894,894,894,894,891,891,891,891,891,889,889,891,891,894,894,894,894,891,889,889,887,887,887,889,889,891,894,894,894,896,896,889,887,887,887,889,891,887,885,882,878,875,873,871,869,867,867,864,862,860,860,860,862,862,862,862,862,864,864,867,867,869,869,871,871,871,873,875,875,878,878,878,878,878,878,878,0,0,0,0,0,0,1731,1713,1705,1705,1705,1705,1696,1696,1688,1688,1680,1680,1671,1671,1671,1663,1663,1663,1647,1647,1639,1639,1632,1632,1624,1616,1609,1609,1609,1601,1601,1594,1586,1586,1579,1579,1572,1572,1572,1564,1557,1550,1550,1550,1543,1536,1529,1529,1523,1523,1523,1516,1516,1509,1509,1503,1496,1496,1489,1489,1483,1483,1477,1470,1470,1470,1464,1464,1464,1464,1452,1445,1445,1439,1439,1433,1433,1427,1421,1421,1415,1415,1415,1410,1410,1404,1398,1398,1392,1392,1392,1387,1381,1376,1376,1370,1370,1365,1365,1365,1359,1354,1354,1354,1349,1349,1343,1333,1333,1333,1333,1328,1328,1322,1322,1317,1317,1312,1312,1307,1307,1302,1297,1292,1292,1288,1288,1283,1278,1278,1273,1273,1268,1268,1268,1264,1259,1255,1255,1255,1255,1250,1250,1250,1245,1241,1236,1236,1232,1227,1223,1219,1219,1219,1214,1214,1214,1210,1206,1202,1202,1202,1197,1197,1193,1193,1189,1185,1185,1181,1181,1181,1177,1173,1169,1169,1165,1165,1161,1157,1157,1153,1153,1149,1149,1145,1145,1138,1138,1134,1134,1130,1130,1126,1123,1123,1123,1123,1119,1119,1119,1112,1108,1108,1105,1105,1105,1105,1101,1097,1094,1094,1094,1090,1087,1084,1080,1080,1080,1080,1077,1077,1073,1070,1067,1067,1067,1063,1060,1057,1057,1054,1054,1054,1054,1050,1050,1047,1047,1044,1041,1041,1038,1034,1034,1031,1028,1028,1025,1025,1025,1022,1022,1019,1019,1016,1016,1013,1010,1010,1004,1004,1001,1001,1001,998,998,0,0,0,0,0,0,0,0,0,0,0,0,0,0,0,0,0,0,0,0,0,0,0,0,0,0,0,0,0,0,0,0,0
0,0,0,0,0,0,0,0,0,0,0,0,0,2016,2005,2005,2005,2005,1993,1993,1993,0,0,0,0,0,0,913,910,908,906,903,903,903,901,898,898,901,901,898,896,896,896,896,896,896,896,896,896,898,898,898,896,896,898,901,901,901,901,894,894,894,894,894,891,891,891,891,894,894,896,896,896,896,896,896,896,896,896,896,896,896,896,898,896,894,894,894,894,894,894,894,896,896,898,898,898,901,898,896,896,896,896,896,894,894,894,894,894,894,894,891,891,891,891,891,891,891,891,894,894,894,894,891,891,896,896,891,891,891,891,894,894,894,891,889,889,889,887,887,887,887,887,887,887,887,889,896,896,896,896,894,894,894,894,891,891,894,894,894,894,894,894,894,894,894,894,891,891,889,889,889,889,889,891,891,891,891,891,891,894,894,894,896,894,894,891,891,891,889,889,891,891,894,896,896,896,896,896,896,896,894,894,894,894,894,891,891,891,889,889,889,891,894,894,891,891,891,891,891,891,889,889,889,889,889,891,889,889,891,894,894,896,894,894,894,891,891,891,891,889,889,891,891,891,891,891,894,894,894,891,887,887,889,889,889,887,887,889,889,891,891,889,889,889,889,889,889,889,889,889,889,889,889,887,887,887,887,887,887,887,887,887,889,889,889,889,889,889,887,887,887,885,885,885,885,882,880,878,875,873,871,869,867,867,864,862,862,860,860,862,862,862,862,862,864,864,867,867,869,869,871,871,873,875,875,878,878,878,878,878,878,878,0,0,0,0,0,0,0,1731,1713,1705,1705,1705,1705,1696,1696,1696,1688,1688,1680,1680,1671,1671,1663,1663,1655,1647,1639,1639,1639,1632,1632,1624,1616,1609,1609,1609,1601,1601,1594,1586,1586,1579,1579,1572,1572,1572,1564,1557,1550,1550,1543,1543,1536,1536,1529,1529,1523,1523,1516,1516,1509,1509,1503,1496,1496,1496,1489,1489,1483,1477,1477,1470,1470,1464,1464,1464,1464,1452,1445,1445,1445,1439,1439,1433,1427,1421,1421,1415,1415,1415,1410,1410,1404,1404,1398,1398,1392,1392,1387,1381,1376,1376,1370,1370,1365,1365,1365,1359,1354,1354,1354,1349,1349,1349,1338,1333,1333,1333,1328,1328,1322,1322,1317,1312,1312,1312,1307,1307,1307,1302,1297,1292,1292,1288,1283,1283,1278,1278,1273,1268,1268,1268,1264,1259,1259,1255,1255,1255,1250,1250,1250,1250,1241,1236,1236,1232,1227,1223,1223,1219,1219,1214,1214,1214,1210,1206,1202,1202,1202,1197,1197,1197,1193,1189,1185,1185,1185,1181,1181,1181,1177,1169,1169,1165,1165,1161,1157,1157,1153,1153,1153,1149,1149,1145,1138,1138,1134,1134,1134,1130,1126,1123,1123,1123,1123,1119,1119,1119,1112,1108,1108,1105,1105,1105,1105,1101,1097,1094,1094,1094,1090,1087,1087,1084,1080,1080,1080,1077,1077,1073,1073,1070,1067,1067,1063,1060,1057,1057,1054,1054,1054,1054,1050,1050,1047,1047,1044,1041,1041,1038,1038,1034,1031,1031,1028,1028,1028,1025,1025,1022,1019,1019,1016,1016,1013,1010,1010,1007,1004,1004,1001,1001,998,998,0,0,0,0,0,0,0,0,0,0,0,0,0,0,0,0,0,0,0,0,0,0,0,0,0,0,0,0,0,0,0,0,0
0,0,0,0,0,0,0,0,0,0,0,0,0,2005,2005,1993,1993,1993,1993,1993,1993,0,0,0,0,0,0,0,0,903,901,901,898,898,896,896,896,896,896,896,894,894,894,894,894,894,891,889,889,887,887,889,889,889,889,894,894,894,894,891,891,891,891,891,889,889,889,891,891,891,891,891,891,889,889,891,891,891,891,891,887,887,887,887,887,887,889,889,889,889,889,889,889,891,894,894,894,894,896,894,894,894,891,891,891,891,889,889,891,891,891,889,889,889,889,891,889,889,889,891,889,889,889,887,887,889,887,885,885,887,889,887,887,887,887,887,887,887,885,885,882,882,882,885,885,885,887,887,887,887,887,889,889,889,889,889,889,891,891,891,891,891,891,891,891,891,889,889,889,887,887,887,887,887,887,889,889,887,887,889,889,889,891,889,889,889,889,889,889,889,889,889,889,889,894,891,891,889,889,891,887,887,887,889,889,889,889,887,887,885,885,887,887,887,887,887,889,887,887,887,887,887,887,887,887,887,887,887,887,887,891,891,891,891,891,891,889,889,889,887,887,887,887,887,887,885,885,885,885,887,885,882,882,885,885,885,885,885,885,885,887,887,887,887,887,887,887,887,887,885,885,887,885,885,885,885,885,885,885,885,885,885,885,887,885,885,885,885,887,885,885,885,885,885,885,882,880,878,875,875,873,871,869,867,867,864,862,862,860,860,862,862,862,862,864,864,867,867,869,869,871,871,871,873,875,875,878,878,878,878,878,878,878,0,0,0,0,0,0,0,1731,1722,1713,1713,1713,1705,1696,1696,1688,1688,1680,1671,1671,1671,1671,1663,1663,1655,1647,1639,1639,1639,1632,1632,1624,1616,1609,1609,1609,1601,1601,1594,1594,1586,1579,1579,1572,1572,1572,1564,1557,1557,1550,1543,1543,1543,1536,1529,1529,1523,1523,1516,1516,1516,1509,1503,1496,1496,1496,1489,1489,1483,1483,1477,1470,1470,1470,1464,1464,1464,1452,1452,1445,1439,1439,1439,1433,1427,1427,1421,1421,1415,1415,1415,1410,1410,1404,1398,1398,1392,1392,1387,1381,1376,1376,1370,1370,1365,1365,1365,1359,1354,1354,1354,1349,1349,1343,1338,1333,1333,1333,1328,1328,1322,1322,1317,1312,1312,1312,1307,1307,1307,1302,1302,1292,1292,1288,1288,1283,1278,1278,1273,1268,1268,1268,1264,1264,1259,1255,1255,1255,1255,1250,1250,1250,1241,1236,1236,1232,1227,1227,1223,1219,1219,1214,1214,1214,1210,1206,1202,1202,1202,1202,1197,1197,1193,1193,1189,1185,1185,1181,1181,1181,1177,1173,1169,1165,1165,1161,1157,1157,1153,1153,1153,1149,1149,1145,1141,1138,1138,1138,1134,1130,1130,1126,1123,1123,1123,1123,1119,1115,1112,1108,1108,1105,1105,1105,1105,1101,1097,1097,1094,1094,1090,1090,1087,1084,1080,1080,1080,1077,1077,1073,1073,1070,1070,1067,1063,1060,1060,1057,1057,1054,1054,1054,1050,1050,1047,1047,1044,1041,1041,1038,1038,1034,1031,1031,1028,1028,1028,1025,1025,1025,1022,1019,1016,1016,1016,1013,1010,1007,1004,1004,1001,1001,998,998,0,0,0,0,0,0,0,0,0,0,0,0,0,0,0,0,0,0,0,0,0,0,0,0,0,0,0,0,0,0,0,0,0
0,0,0,0,0,0,0,0,0,0,0,0,0,2005,1993,1993,1993,1993,1993,1993,1993,1993,0,0,0,0,0,0,0,903,901,896,896,896,891,891,891,891,891,894,891,891,891,889,889,891,889,887,887,887,887,887,887,887,887,889,891,891,891,889,889,889,887,887,885,885,889,889,889,889,889,889,887,887,885,885,887,887,887,887,887,885,885,885,887,885,885,885,882,882,887,885,885,887,887,889,889,887,887,887,891,885,885,882,882,887,885,885,885,885,887,887,887,887,889,887,887,887,885,885,887,887,887,887,887,887,882,882,882,885,885,882,882,882,885,885,882,882,882,882,880,880,880,880,880,882,885,885,885,885,885,885,885,885,882,882,887,887,889,889,889,889,889,889,891,891,889,889,887,887,885,885,885,885,885,885,885,885,885,887,887,887,887,887,887,887,887,887,887,887,887,887,887,887,891,887,887,882,880,880,885,882,882,885,887,887,887,885,885,882,882,882,882,882,882,882,882,882,882,882,885,885,885,885,885,882,882,882,882,882,885,885,885,887,887,887,887,887,887,885,885,885,885,882,882,880,878,878,878,878,880,880,880,882,882,882,882,882,882,882,882,885,885,885,885,885,885,882,882,880,880,880,880,880,880,880,880,880,880,880,880,880,880,880,880,880,880,880,880,880,880,880,880,880,880,880,878,878,875,873,871,869,867,867,864,862,862,860,860,860,862,862,862,862,864,864,867,869,869,869,871,871,873,873,875,875,878,878,878,878,878,878,878,0,0,0,0,0,0,0,1739,1731,1722,1713,1713,1705,1696,1696,1688,1680,1680,1671,1671,1671,1671,1663,1663,1655,1647,1639,1639,1639,1632,1632,1624,1616,1616,1609,1609,1609,1601,1601,1594,1586,1579,1579,1572,1572,1572,1564,1557,1557,1550,1550,1543,1543,1536,1536,1529,1523,1523,1516,1516,1516,1509,1503,1496,1496,1496,1489,1489,1483,1483,1477,1470,1470,1470,1464,1464,1464,1452,1452,1445,1439,1439,1439,1433,1433,1427,1427,1427,1421,1415,1415,1415,1410,1404,1398,1398,1392,1392,1387,1387,1376,1376,1370,1370,1365,1365,1365,1359,1359,1354,1354,1349,1349,1343,1343,1338,1333,1333,1328,1328,1328,1322,1322,1317,1312,1312,1312,1307,1307,1302,1302,1297,1292,1288,1288,1283,1283,1278,1273,1268,1268,1268,1264,1264,1259,1255,1255,1255,1255,1250,1250,1250,1241,1241,1236,1232,1232,1227,1223,1223,1219,1219,1214,1214,1210,1206,1202,1202,1202,1202,1197,1197,1193,1193,1189,1189,1185,1181,1181,1181,1177,1173,1169,1165,1165,1161,1157,1157,1153,1153,1153,1149,1149,1145,1141,1141,1138,1138,1134,1134,1130,1126,1123,1123,1123,1119,1119,1115,1112,1112,1108,1105,1105,1105,1105,1101,1097,1097,1094,1094,1090,1090,1090,1087,1084,1080,1080,1077,1077,1077,1073,1070,1070,1067,1063,1063,1060,1057,1057,1054,1054,1054,1050,1050,1047,1047,1044,1044,1041,1038,1038,1034,1034,1031,1028,1028,1028,1025,1025,1025,1022,1019,1019,1016,1016,1013,1010,1010,1007,1004,1004,1001,1001,1001,0,0,0,0,0,0,0,0,0,0,0,0,0,0,0,0,0,0,0,0,0,0,0,0,0,0,0,0,0,0,0,0,0
0,0,0,0,0,0,0,0,0,0,0,0,0,1993,1981,1981,1981,1981,1981,1981,1981,1981,0,0,0,0,0,0,0,0,0,891,889,889,889,889,887,887,887,887,887,887,887,882,882,887,887,885,882,882,882,882,882,882,882,885,885,887,885,885,885,885,885,885,882,882,885,887,885,885,885,885,882,882,880,880,880,880,882,882,882,885,885,885,885,882,882,880,880,878,878,878,878,880,880,887,885,882,882,882,882,880,880,880,880,885,882,880,880,880,880,885,885,885,885,885,885,885,882,882,882,882,882,882,885,885,880,878,878,880,880,878,878,878,880,880,878,878,878,878,878,878,878,878,878,878,878,878,882,882,882,882,880,880,882,882,882,882,882,882,885,885,882,882,880,880,882,885,885,885,882,882,882,882,882,882,882,880,880,882,882,882,882,882,882,885,885,885,885,885,885,885,875,875,875,875,878,875,875,878,880,878,878,878,880,882,882,880,880,878,878,878,878,878,878,878,880,880,880,880,880,880,880,880,882,882,882,882,882,882,878,878,880,880,880,882,885,885,885,882,880,880,880,878,878,878,875,875,875,875,875,875,875,878,878,878,878,878,878,878,878,878,878,880,880,880,880,880,878,878,878,875,875,875,873,873,873,873,875,875,875,875,875,875,873,873,873,873,878,878,878,878,878,878,878,878,875,875,873,871,871,869,867,867,864,862,862,860,860,860,862,862,862,864,864,867,867,869,869,871,871,871,873,875,875,878,878,878,878,878,878,878,878,880,0,0,0,0,0,0,0,1731,1722,1713,1713,1705,1696,1696,1688,1680,1680,1680,1671,1671,1663,1663,1663,1655,1647,1639,1639,1639,1632,1632,1624,1616,1616,1609,1609,1609,1601,1601,1594,1586,1579,1579,1572,1572,1572,1564,1564,1557,1550,1550,1543,1543,1543,1536,1529,1529,1523,1516,1516,1516,1509,1509,1496,1496,1496,1489,1489,1483,1483,1477,1470,1470,1470,1464,1464,1464,1458,1452,1445,1445,1439,1439,1433,1433,1427,1427,1427,1421,1415,1415,1415,1415,1410,1404,1398,1392,1392,1392,1387,1381,1376,1376,1370,1370,1370,1365,1365,1359,1354,1354,1354,1349,1349,1343,1338,1338,1333,1328,1328,1328,1322,1322,1317,1312,1312,1312,1307,1307,1302,1302,1297,1292,1288,1288,1288,1283,1278,1278,1273,1268,1268,1268,1264,1259,1259,1255,1255,1255,1250,1250,1250,1245,1241,1236,1232,1232,1227,1227,1223,1219,1219,1219,1214,1214,1210,1202,1202,1202,1202,1197,1197,1197,1193,1189,1189,1185,1181,1181,1181,1177,1173,1169,1165,1165,1165,1161,1157,1157,1153,1153,1153,1149,1145,1141,1141,1138,1138,1138,1134,1130,1126,1123,1123,1123,1119,1119,1115,1112,1112,1108,1108,1105,1105,1105,1101,1097,1097,1097,1094,1094,1090,1090,1087,1084,1080,1080,1080,1077,1077,1073,1073,1070,1067,1063,1063,1060,1060,1057,1054,1054,1054,1050,1050,1050,1047,1047,1044,1041,1038,1038,1034,1034,1034,1031,1028,1028,1028,1025,1025,1022,1019,1019,1016,1016,1013,1010,1010,1007,1004,1004,1001,1001,1001,0,0,0,0,0,0,0,0,0,0,0,0,0,0,0,0,0,0,0,0,0,0,0,0,0,0,0,0,0,0,0,0,0
