0,0,0,0,0,1138,1138,1138,1141,1141,1141,1141,1138,1138,1134,1134,1134,1130,1130,1130,1130,1134,1134,1134,1130,1130,1130,1130,1130,1126,1126,1126,1126,1126,1126,1126,1123,1123,1126,1126,1119,1119,1119,1119,1119,1119,1119,1123,1123,1123,1123,1123,1126,1126,1126,1126,1126,1126,1126,1123,1123,1123,1123,1123,1123,1123,1123,1126,1126,1126,1126,1130,1130,1130,1130,1130,1134,1134,1134,1134,1134,1134,1134,1130,1130,1130,1130,1130,1130,1130,1130,1130,1130,1130,1134,1134,1134,1130,1130,1123,1123,978,978,978,978,978,975,975,975,973,973,970,970,970,970,970,973,973,975,975,978,978,981,981,981,984,987,1141,1141,1141,1141,1145,1141,1141,1145,1145,1141,1141,1141,1141,1141,1141,1141,1141,1141,1141,1138,1138,1138,1138,1138,1138,1141,1145,1145,1145,1145,1149,1149,1149,1149,1149,1149,1149,1149,1149,1149,1149,1149,1149,1149,1149,1149,1149,1149,1149,1149,1149,1145,1145,1145,1149,1149,1145,1145,1149,1149,1149,1149,1149,1149,1149,1149,1149,1149,1149,1149,1149,1149,1149,1149,1149,1153,1153,1153,1153,1153,1153,1149,1149,1153,1153,1153,1153,1153,1153,1153,1153,1157,1161,1161,0,0,0,0,0,0,0,0,0,710,710,708,707,706,706,704,704,703,703,701,698,697,696,694,693,693,693,693,694,696,696,697,698,700,703,703,706,707,708,710,710,710,710,710,710,0,0,0,0,984,978,978,978,978,978,975,975,973,970,967,967,964,962,959,956,956,954,954,954,954,951,951,948,948,948,948,948,946,946,948,946,946,946,943,943,943,1181,1181,1177,1177,1177,1177,1177,1177,1177,1177,1177,1177,1177,1177,1173,1173,1173,1173,1173,1173,1173,1177,1177,1177,1181,1181,1181,1181,1181,1181,948,943,943,943,946,946,948,948,948,951,954,959,959,959,959,959,959,959,962,962,964,964,967,970,973,973,975,978,981,987,989,992,995,995,998,998,998,1070,1067,1063,1063,1063,1057,1057,1054,1054,1050,1050,1050,1050,1050,1054,1054,1057,1057,1060,1063,1181,1181,1181,1181,1181,1181,1181,1181,1181,1185,1185,1185,1185,1185,1185,1185,1193,1189,1189,1189,1189,1189,1189,1189,1185,1185,1185,1189,1185,1185,1185,1185,1185,1185,1185,1185,1185,1185,1185,1185,1185,1185,1185,1185,1185,1185,1185,1185,1189,1189,1189,1185,1185,1189,1189,1189,1193,1189,1189,1189,1189,1189,1189,1189,1189,1189,1193,1193,1193,1193,1193,1193,1193,1193,1189,1189,1189,1189,1193,1193,1193,1193,1193,1193,1189,1189,1189,1189,1189,1189,1189,1193,1193,1193,1193,1193,1193,1193,1193,1189,1189,1189,1189,1193,1193,1193,1193,1193,1189,1189,1193,1193,1193,1193,1193,1193,1193,1197,1193,1193,1193,1193,1193,1193,1193,1197,1197,1202,1202,1202,1202,1202,1202,1202,1193,1193,1197,1197,1197,1197,1202,1197,1197,1197,1197,1197,1197,1197,1197,1197,1197,1197,1197,1197,1197,1197,1197,1197,1202,1202,1202,1202,1202,1197,1197,1197,1197,1197,1189,1189,1189,1189,1189,1185,1185,1185,1185,1185,1185,1185,1189,1193,1193,1197,1197,1197,1197,1197,1197,1202,1202,1090,1090,1084,1080,1080,1077,1077,1073,1070,1067,1063,1057,1057,1054,1054,1050,1050,1044,1044,1041,1041,0,0,0,0,0,0,0,0,0,0,0,0,0,0,0,0,0,0,0,0,0,0,0,0,0,0,0,0,0,0,0,0,0,0
0,0,0,0,0,1138,1134,1134,1138,1134,1134,1134,1134,1134,1134,1130,1130,1130,1130,1130,1130,1130,1130,1130,1130,1130,1130,1130,1130,1126,1126,1123,1123,1123,1123,1123,1123,1123,1123,1123,1119,1119,1119,1119,1119,1119,1119,1119,1119,1119,1119,1119,1123,1123,1123,1123,1123,1123,1123,1119,1119,1119,1119,1119,1119,1119,1119,1123,1123,1126,1126,1126,1126,1126,1126,1126,1134,1130,1130,1130,1130,1126,1126,1123,1123,1126,1123,1123,1123,1126,1126,1126,1126,1130,1130,1130,1130,1130,1126,1123,1123,964,964,975,978,978,978,975,975,973,973,970,970,970,970,970,973,973,975,975,978,981,981,981,981,984,987,1134,1134,1134,1134,1141,1138,1138,1141,1141,1141,1141,1138,1138,1141,1141,1141,1141,1141,1138,1138,1138,1138,1138,1138,1138,1138,1141,1141,1141,1145,1145,1145,1141,1141,1141,1145,1145,1145,1145,1149,1149,1149,1149,1149,1149,1145,1145,1145,1145,1145,1145,1145,1145,1145,1145,1145,1145,1145,1145,1149,1149,1149,1149,1149,1149,1149,1149,1149,1149,1145,1145,1149,1149,1149,1149,1149,1149,1149,1149,1149,1149,1149,1149,1149,1149,1149,1149,1149,1149,1149,1149,1153,1157,1161,0,0,0,0,0,0,0,0,0,711,710,708,707,706,706,704,704,703,703,701,700,697,696,694,694,693,693,693,694,696,697,698,698,701,703,704,706,707,708,710,711,711,710,710,710,0,0,0,0,0,978,978,978,978,978,978,975,975,970,970,967,964,962,959,956,956,954,954,951,951,948,948,946,946,946,946,946,946,946,946,946,946,943,943,943,943,943,943,1177,943,943,1177,1177,1177,1177,1177,1173,1173,1173,1173,1173,1173,1169,1169,1169,1169,1173,1173,1173,1177,1177,1177,1177,1181,1181,940,940,943,943,946,946,946,946,946,948,948,951,951,954,954,956,956,956,959,959,959,962,964,967,970,970,973,975,978,981,984,989,992,995,995,998,998,998,1070,1067,1063,1063,1063,1060,1057,1054,1054,1050,1050,1050,1050,1054,1054,1054,1057,1060,1060,1063,1181,1181,1181,1181,1181,1181,1181,1181,1181,1181,1181,1181,1181,1181,1181,1181,1189,1185,1185,1185,1185,1185,1185,1185,1185,1185,1185,1185,1181,1181,1185,1185,1185,1185,1185,1185,1185,1185,1185,1185,1181,1181,1185,1185,1185,1185,1185,1185,1185,1185,1185,1185,1181,1181,1185,1185,1189,1185,1185,1185,1185,1185,1185,1185,1185,1185,1185,1185,1185,1185,1185,1185,1185,1185,1185,1185,1185,1189,1189,1189,1189,1189,1189,1189,1185,1185,1185,1189,1189,1189,1189,1189,1189,1193,1193,1189,1189,1189,1185,1185,1185,1189,1189,1189,1189,1189,1189,1189,1185,1185,1185,1185,1189,1189,1189,1189,1189,1189,1189,1189,1189,1189,1189,1189,1189,1189,1189,1197,1197,1197,1197,1197,1197,1197,1193,1193,1193,1197,1197,1197,1197,1197,1197,1197,1197,1197,1197,1197,1197,1197,1197,1197,1197,1197,1197,1197,1197,1197,1197,1197,1197,1197,1202,1197,1197,1197,1197,1193,1189,1189,1189,1185,1185,1185,1185,1185,1185,1185,1185,1185,1185,1189,1193,1197,1197,1197,1197,1197,1197,1197,1197,1090,1090,1084,1080,1080,1077,1077,1070,1070,1067,1060,1057,1057,1054,1050,1050,1047,1041,1031,1028,1028,0,0,0,0,0,0,0,0,0,0,0,0,0,0,0,0,0,0,0,0,0,0,0,0,0,0,0,0,0,0,0,0,0,0
0,0,0,0,0,1134,1134,1134,1134,1130,1130,1130,1126,1126,1126,1126,1130,1130,1130,1130,1130,1130,1130,1130,1130,1130,1126,1126,1126,1126,1126,1123,1123,1123,1123,1123,1119,1119,1119,1123,1119,1119,1119,1119,1119,1119,1119,1119,1119,1119,1115,1115,1119,1119,1119,1119,1119,1123,1119,1119,1119,1119,1115,1115,1115,1115,1119,1119,1123,1123,1123,1123,1123,1123,1123,1123,1130,1130,1130,1126,1126,1123,1123,1123,1123,1119,1119,1119,1119,1123,1123,1123,1123,1123,1126,1126,1126,1126,1126,1123,967,964,964,975,978,978,978,975,975,973,973,970,970,970,970,970,973,975,975,978,978,981,981,981,981,987,987,987,1130,1130,1134,1134,1134,1134,1134,1138,1138,1138,1138,1138,1138,1138,1138,1138,1138,1138,1138,1134,1134,1138,1138,1138,1138,1138,1138,1138,1141,1138,1138,1138,1138,1138,1138,1141,1141,1145,1145,1145,1145,1145,1145,1145,1145,1141,1141,1141,1141,1141,1141,1141,1141,1141,1141,1141,1141,1145,1145,1145,1145,1145,1145,1145,1145,1145,1145,1145,1145,1145,1145,1145,1145,1145,1145,1149,1145,1145,1145,1145,1145,1145,1145,1145,1149,1145,1145,1145,1145,1141,1141,1149,0,0,0,0,0,0,0,0,0,0,0,710,708,707,706,706,706,704,704,703,701,700,697,696,694,694,693,693,693,694,696,697,698,700,701,703,704,706,708,708,710,711,711,710,710,0,0,0,0,0,0,978,978,978,978,978,975,975,973,970,970,967,964,962,959,956,956,954,954,951,948,948,946,946,946,946,946,946,943,943,943,943,943,943,943,943,943,940,938,938,940,943,943,1177,1177,1177,1173,1173,1173,1173,1169,1169,1169,1169,1169,1169,1169,1169,1169,1169,1173,1173,1173,1173,1173,1177,938,938,940,943,946,946,946,946,946,946,948,948,948,951,951,951,951,951,956,959,959,962,964,967,970,970,973,975,978,981,984,989,992,995,995,998,995,995,1067,1067,1067,1063,1063,1060,1057,1057,1054,1054,1050,1050,1050,1054,1054,1057,1060,1060,1060,1063,1181,1177,1177,1181,1181,1181,1181,1181,1177,1177,1181,1181,1181,1181,1177,1177,1177,1177,1177,1181,1181,1185,1181,1181,1181,1177,1177,1177,1177,1177,1177,1181,1181,1181,1185,1181,1181,1181,1185,1181,1181,1181,1181,1181,1181,1181,1181,1181,1181,1181,1181,1177,1177,1181,1181,1181,1181,1181,1181,1185,1185,1181,1181,1181,1181,1181,1181,1181,1181,1181,1181,1185,1185,1185,1185,1185,1185,1185,1185,1185,1185,1185,1185,1185,1185,1185,1185,1185,1185,1185,1185,1185,1185,1189,1189,1185,1185,1185,1185,1185,1185,1185,1185,1185,1185,1185,1185,1185,1185,1185,1185,1185,1185,1185,1185,1185,1185,1185,1185,1185,1185,1185,1185,1185,1185,1185,1185,1189,1189,1189,1189,1185,1185,1185,1189,1189,1193,1193,1193,1193,1197,1193,1193,1193,1193,1193,1197,1197,1197,1197,1197,1197,1197,1197,1193,1193,1193,1193,1193,1197,1197,1197,1197,1197,1197,1197,1185,1185,1185,1185,1185,1185,1185,1185,1185,1185,1185,1185,1185,1185,1185,1189,1193,1193,1193,1193,1193,1193,1193,1193,1193,1193,1193,1087,1080,1080,1077,1067,1067,1067,1063,1060,1057,1054,1054,1050,1047,1047,1034,1028,1025,1025,0,0,0,0,0,0,0,0,0,0,0,0,0,0,0,0,0,0,0,0,0,0,0,0,0,0,0,0,0,0,0,0,0,0
0,0,0,0,0,1134,1130,1130,1130,1130,1130,1126,1123,1123,1123,1123,1126,1126,1126,1126,1126,1126,1126,1126,1126,1126,1123,1123,1123,1123,1123,1123,1119,1119,1119,1119,1119,1115,1115,1115,1115,1119,1115,1115,1119,1119,1115,1115,1115,1115,1115,1115,1115,1115,1115,1115,1119,1119,1119,1115,1115,1115,1115,1115,1115,1115,1115,1119,1119,1119,1119,1119,1119,1119,1119,1119,1126,1126,1126,1123,1123,1123,1123,1119,1119,1119,1119,1119,1119,1119,1119,1119,1119,1123,1126,1123,1123,1123,1123,1119,964,964,964,975,978,978,978,975,975,973,973,970,970,970,970,973,975,975,975,978,978,981,981,984,984,987,987,987,1130,1130,1130,1130,1130,1130,1134,1134,1134,1134,1134,1134,1134,1134,1134,1138,1134,1134,1134,1134,1134,1134,1134,1134,1134,1138,1134,1134,1138,1134,1134,1134,1134,1134,1134,1138,1138,1138,1141,1145,1145,1145,1145,1145,1141,1138,1138,1138,1138,1138,1138,1138,1138,1138,1138,1138,1138,1141,1141,1141,1145,1145,1145,1145,1145,1141,1141,1141,1141,1141,1141,1141,1145,1145,1145,1145,1145,1145,1145,1141,1141,1141,1145,1145,1145,1141,1141,1141,1138,1138,1138,1134,1134,0,0,0,0,0,0,0,0,0,716,711,710,708,708,708,707,706,704,703,701,700,697,696,696,694,694,694,694,694,696,697,698,700,701,703,704,706,708,710,710,711,711,711,711,0,0,0,0,0,0,978,978,978,978,978,975,975,973,970,970,967,967,962,959,956,956,954,954,951,948,948,946,946,943,943,943,943,943,943,943,943,943,940,940,940,940,938,938,938,940,938,938,938,1177,1177,1173,1169,1169,1169,1169,1165,1165,1165,1165,1165,1165,1165,1165,1169,1169,1169,1169,1169,935,935,935,938,938,940,940,940,943,943,946,946,946,946,946,948,948,948,948,951,954,956,959,962,964,967,970,970,973,973,975,978,984,989,992,992,995,998,995,995,1067,1067,1067,1063,1063,1060,1060,1057,1054,1054,1054,1054,1054,1054,1054,1057,1060,1060,1063,1063,1177,1173,1173,1177,1177,1177,1177,1177,1173,1173,1173,1173,1173,1173,1173,1173,1173,1173,1173,1173,1177,1181,1181,1177,1177,1177,1173,1173,1173,1173,1173,1177,1177,1177,1181,1181,1181,1181,1181,1181,1181,1181,1181,1181,1181,1181,1177,1177,1177,1177,1177,1173,1173,1173,1173,1173,1173,1177,1177,1181,1181,1181,1181,1181,1181,1181,1177,1177,1177,1177,1173,1173,1173,1173,1181,1181,1181,1185,1181,1181,1181,1181,1181,1181,1181,1181,1181,1185,1185,1185,1185,1185,1185,1185,1185,1181,1181,1181,1181,1181,1181,1181,1181,1181,1181,1181,1185,1181,1181,1181,1181,1181,1185,1185,1185,1185,1185,1185,1185,1181,1181,1181,1181,1185,1185,1185,1185,1185,1185,1185,1185,1185,1185,1185,1185,1185,1189,1189,1189,1189,1189,1189,1189,1193,1193,1193,1197,1197,1197,1197,1193,1193,1193,1193,1193,1193,1189,1189,1189,1193,1197,1197,1197,1197,1197,1197,1185,1185,1185,1185,1185,1185,1185,1185,1185,1181,1181,1181,1181,1181,1185,1185,1189,1193,1193,1193,1193,1193,1193,1193,1193,1189,1189,1185,1080,1080,1067,1067,1067,1067,1063,1057,1054,1054,1050,1050,1041,1041,1031,1025,1022,1022,0,0,0,0,0,0,0,0,0,0,0,0,0,0,0,0,0,0,0,0,0,0,0,0,0,0,0,0,0,0,0,0,0,0
0,0,0,0,0,1130,1126,1126,1123,1123,1126,1123,1119,1119,1119,1119,1123,1119,1119,1119,1123,1123,1123,1126,1126,1123,1119,1119,1119,1119,1119,1119,1119,1115,1115,1115,1112,1112,1112,1112,1112,1112,1112,1112,1115,1115,1115,1115,1115,1115,1115,1115,1115,1115,1115,1115,1115,1115,1115,1115,1115,1115,1115,1115,1112,1112,1112,1115,1115,1115,1115,1115,1115,1115,1115,1115,1115,1119,1123,1123,1123,1123,1119,1119,1119,1115,1115,1115,1115,1115,1115,1115,1115,1119,1119,1119,1119,1119,1119,1115,962,962,964,975,978,978,978,978,975,975,973,970,970,973,973,973,975,975,978,978,981,984,987,987,987,987,989,989,1130,1126,1126,1130,1130,1130,1130,1130,1130,1130,1130,1130,1130,1130,1130,1130,1130,1130,1130,1130,1130,1130,1130,1130,1134,1134,1130,1130,1134,1134,1134,1130,1130,1130,1130,1134,1134,1134,1134,1138,1138,1138,1134,1134,1141,1138,1134,1134,1134,1134,1134,1134,1134,1134,1134,1134,1134,1138,1138,1138,1141,1141,1141,1141,1141,1141,1141,1138,1138,1138,1138,1138,1138,1141,1141,1141,1141,1141,1141,1141,1141,1141,1141,1141,1141,1138,1138,1138,1134,1134,1134,1134,1134,0,0,0,0,0,0,0,0,0,716,714,710,710,708,708,707,707,706,704,701,700,697,697,696,696,694,694,694,696,696,697,700,700,701,703,704,706,708,710,711,713,713,713,713,0,0,0,0,0,0,1149,1145,978,978,978,975,973,970,967,967,967,964,962,959,956,954,954,954,951,948,946,946,943,943,943,943,940,940,940,940,940,940,938,938,938,938,935,935,935,938,938,938,938,1169,1173,1173,1169,1169,1169,1165,1165,1165,1165,1165,1165,1165,1165,1165,1165,1165,1165,1169,1169,935,935,935,935,938,938,938,938,940,940,943,943,946,946,946,946,946,948,948,948,954,956,959,962,964,967,967,970,970,973,973,975,984,987,989,992,992,995,995,995,1070,1067,1067,1067,1063,1063,1060,1057,1057,1054,1054,1054,1054,1054,1057,1057,1060,1063,1063,1063,1177,1169,1169,1173,1173,1173,1169,1169,1169,1169,1169,1169,1169,1169,1169,1169,1169,1169,1169,1169,1169,1169,1173,1173,1173,1169,1169,1169,1169,1169,1173,1173,1177,1177,1177,1177,1177,1177,1177,1177,1177,1177,1177,1177,1177,1177,1177,1173,1173,1173,1173,1169,1169,1169,1173,1173,1173,1173,1173,1177,1177,1177,1177,1177,1177,1173,1173,1173,1173,1173,1173,1173,1173,1173,1173,1173,1181,1177,1177,1177,1177,1177,1177,1181,1181,1181,1181,1181,1181,1181,1181,1181,1181,1181,1181,1181,1181,1177,1177,1177,1177,1177,1177,1177,1177,1181,1181,1181,1181,1181,1181,1181,1181,1181,1181,1181,1181,1185,1181,1181,1181,1181,1181,1181,1181,1181,1185,1185,1181,1181,1185,1185,1181,1181,1185,1185,1185,1189,1189,1189,1189,1189,1189,1189,1189,1193,1193,1193,1193,1193,1193,1193,1189,1189,1189,1189,1189,1189,1189,1193,1193,1197,1197,1197,1197,1185,1185,1185,1185,1185,1185,1181,1181,1181,1181,1181,1181,1181,1181,1181,1181,1185,1185,1189,1193,1189,1189,1193,1193,1193,1189,1185,1185,1185,1181,1181,1067,1067,1067,1063,1060,1054,1054,1050,1044,1041,1038,1031,1025,1022,1019,1019,0,0,0,0,0,0,0,0,0,0,0,0,0,0,0,0,0,0,0,0,0,0,0,0,0,0,0,0,0,0,0,0,0,0
0,0,0,0,0,1130,1123,1123,1119,1119,1119,1119,1119,1119,1119,1119,1119,1119,1115,1115,1119,1119,1119,1119,1119,1119,1119,1119,1119,1119,1115,1115,1115,1115,1112,1112,1108,1108,1108,1108,1108,1108,1112,1112,1112,1112,1112,1112,1112,1112,1112,1112,1112,1112,1112,1115,1115,1115,1115,1115,1115,1115,1115,1112,1112,1112,1112,1112,1112,1112,1112,1112,1112,1112,1112,1112,1112,1112,1115,1119,1119,1119,1119,1119,1115,1115,1115,1115,1115,1115,1115,1115,1115,1115,1115,1115,1115,1115,1115,962,962,962,975,975,978,978,978,978,975,975,973,973,973,973,973,975,975,978,978,981,981,984,987,987,987,987,989,989,1123,1123,1123,1126,1126,1126,1126,1126,1126,1130,1126,1126,1126,1126,1126,1126,1126,1126,1126,1130,1130,1130,1130,1130,1130,1130,1130,1130,1130,1130,1130,1130,1126,1126,1130,1126,1126,1123,1123,1126,1130,1126,1126,1130,1130,1130,1130,1134,1134,1134,1134,1134,1134,1134,1134,1134,1134,1134,1134,1138,1138,1141,1141,1141,1138,1138,1138,1138,1134,1134,1134,1134,1134,1134,1134,1138,1138,1138,1138,1138,1138,1138,1138,1138,1138,1134,1134,1134,1134,1130,1130,1130,1134,0,0,0,0,0,0,0,0,0,716,714,710,710,708,708,707,707,706,704,701,700,697,697,697,696,696,694,694,696,696,698,700,701,703,704,704,706,708,710,711,713,713,714,0,0,0,0,0,0,0,1149,1145,1145,1141,1141,975,973,970,967,967,964,964,962,959,956,954,954,954,951,948,946,946,943,943,943,943,940,938,938,935,935,935,935,935,935,935,933,933,935,935,935,935,935,1169,1169,1169,1169,1169,1169,1165,1165,1165,1165,1161,1161,1161,1161,1161,1161,1161,1165,1165,935,933,933,935,935,935,935,938,938,938,938,940,940,943,943,946,946,946,946,948,948,954,956,959,962,964,967,967,967,970,970,973,973,987,987,989,992,992,995,995,995,1070,1070,1067,1067,1067,1063,1063,1057,1057,1054,1054,1054,1054,1054,1057,1060,1063,1063,1063,1063,1169,1169,1169,1169,1169,1173,1169,1169,1169,1165,1165,1169,1165,1165,1165,1165,1165,1165,1165,1165,1165,1165,1169,1165,1165,1169,1169,1169,1169,1169,1169,1173,1173,1173,1173,1173,1173,1173,1173,1173,1173,1173,1173,1173,1173,1173,1173,1169,1169,1169,1169,1169,1165,1165,1169,1169,1173,1169,1169,1173,1173,1173,1173,1173,1173,1173,1173,1169,1169,1169,1169,1169,1169,1169,1169,1169,1169,1169,1173,1173,1173,1173,1177,1177,1177,1181,1181,1181,1181,1181,1181,1177,1177,1177,1177,1177,1177,1177,1173,1173,1173,1177,1177,1173,1173,1177,1177,1177,1177,1177,1177,1177,1181,1181,1177,1177,1181,1181,1181,1181,1177,1177,1177,1177,1177,1177,1181,1181,1181,1181,1181,1181,1181,1181,1181,1181,1185,1185,1185,1185,1185,1185,1185,1185,1185,1189,1189,1193,1193,1193,1193,1189,1189,1189,1185,1185,1185,1185,1189,1189,1193,1193,1189,1189,1189,1185,1185,1181,1181,1185,1185,1181,1181,1181,1181,1181,1181,1181,1181,1181,1181,1181,1185,1189,1189,1189,1189,1189,1193,1189,1189,1185,1185,1185,1181,1177,1165,1067,1063,1063,1057,1054,1050,1047,1041,1041,1038,1028,1025,1022,1019,1019,0,0,0,0,0,0,0,0,0,0,0,0,0,0,0,0,0,0,0,0,0,0,0,0,0,0,0,0,0,0,0,0,0,0
0,0,0,0,0,1123,1123,1123,1119,1119,1119,1119,1115,1115,1115,1115,1115,1115,1112,1112,1112,1112,1115,1115,1115,1119,1119,1115,1115,1115,1115,1115,1115,1112,1108,1108,1108,1108,1108,1108,1108,1108,1108,1108,1108,1108,1112,1112,1112,1112,1112,1108,1108,1108,1108,1112,1112,1112,1112,1112,1112,1112,1112,1112,1108,1108,1108,1108,1108,1108,1108,1108,1108,1108,1108,1108,1108,1108,1112,1115,1115,1115,1115,1115,1112,1112,1112,1112,1108,1108,1108,1108,1108,1112,1112,1112,1115,1115,1115,962,962,962,1112,984,981,981,978,978,975,975,973,973,973,973,973,975,978,978,981,984,984,987,987,987,987,987,989,989,1123,1119,1119,1123,1123,1123,1123,1123,1123,1126,1123,1123,1123,1123,1123,1123,1123,1123,1126,1126,1126,1126,1126,1126,1130,1130,1130,1130,1130,1130,1130,1126,1126,1126,1126,1123,1123,1123,1123,1123,1123,1123,1123,1123,1126,1130,1130,1130,1130,1130,1130,1134,1130,1130,1134,1134,1134,1134,1134,1134,1134,1138,1138,1134,1134,1134,1134,1134,1134,1134,1130,1130,1130,1130,1130,1134,1134,1134,1134,1134,1134,1134,1134,1134,1134,1134,1134,1134,1130,1130,1130,1130,0,0,0,0,0,0,0,0,0,0,0,714,711,710,710,708,707,707,706,704,703,698,698,697,697,697,696,696,696,697,697,698,701,701,703,704,704,706,708,710,711,713,713,714,0,0,0,0,0,0,0,1149,1145,1141,1141,1138,1138,1138,1138,967,964,964,962,959,959,956,956,954,954,951,948,948,946,943,943,940,940,940,938,935,935,935,935,933,933,933,933,933,933,935,933,933,933,933,1169,1169,1169,1169,1169,1169,1165,1165,1165,1165,1161,1157,1157,1161,1161,1161,1161,1165,930,930,933,933,933,935,935,935,935,935,938,938,938,938,940,940,943,946,946,946,948,948,954,956,959,962,964,967,967,967,970,970,970,970,970,1161,1161,992,992,1153,1153,1153,1073,1073,1070,1067,1067,1067,1063,1060,1057,1057,1054,1054,1054,1054,1057,1060,1063,1063,1067,1067,1161,1161,1161,1165,1169,1169,1169,1169,1165,1165,1165,1165,1165,1165,1165,1165,1165,1165,1165,1165,1161,1161,1165,1161,1161,1165,1165,1165,1169,1169,1169,1169,1169,1169,1169,1169,1169,1169,1169,1169,1169,1169,1169,1169,1169,1169,1169,1169,1169,1165,1165,1169,1165,1165,1169,1169,1169,1169,1169,1169,1169,1169,1169,1169,1173,1173,1173,1169,1169,1169,1169,1165,1165,1165,1165,1165,1165,1169,1169,1169,1173,1173,1173,1173,1177,1177,1177,1177,1177,1177,1177,1177,1177,1177,1177,1177,1177,1177,1173,1173,1173,1173,1173,1169,1169,1173,1173,1177,1173,1173,1173,1177,1177,1177,1177,1177,1177,1177,1177,1177,1177,1177,1177,1173,1173,1173,1177,1177,1177,1177,1181,1181,1181,1181,1181,1181,1185,1185,1185,1185,1185,1185,1185,1185,1185,1181,1181,1185,1185,1185,1185,1185,1185,1185,1185,1185,1185,1185,1185,1185,1189,1189,1189,1189,1185,1185,1185,1181,1181,1185,1181,1181,1177,1177,1177,1177,1177,1177,1181,1181,1181,1181,1185,1185,1185,1189,1189,1189,1189,1189,1185,1185,1185,1185,1181,1177,1165,1165,1063,1063,1050,1050,1047,1041,1041,1041,1031,1028,1025,1022,1019,1019,0,0,0,0,0,0,0,0,0,0,0,0,0,0,0,0,0,0,0,0,0,0,0,0,0,0,0,0,0,0,0,0,0,0
0,0,0,0,1119,1119,1119,1119,1115,1115,1115,1119,1115,1115,1115,1112,1112,1112,1112,1112,1108,1108,1108,1112,1112,1115,1115,1115,1115,1112,1112,1112,1112,1108,1105,1105,1105,1105,1105,1105,1105,1105,1105,1105,1108,1108,1108,1105,1105,1108,1108,1105,1105,1105,1108,1108,1105,1105,1108,1108,1108,1108,1108,1105,1105,1105,1105,1105,1105,1105,1105,1105,1105,1105,1105,1105,1105,1105,1108,1112,1112,1112,1115,1115,1112,1112,1108,1108,1108,1108,1108,1108,1108,1108,1108,1108,1112,1112,1112,1112,1112,1112,1112,984,981,981,981,981,978,975,973,973,973,973,973,975,978,978,981,984,984,987,987,987,989,989,989,989,1119,1119,1119,1119,1119,1123,1123,1119,1119,1119,1119,1119,1119,1119,1119,1119,1119,1119,1123,1123,1123,1123,1123,1123,1126,1126,1126,1126,1126,1130,1130,1123,1123,1123,1123,1123,1119,1119,1123,1123,1123,1123,1123,1123,1126,1126,1126,1126,1126,1126,1130,1130,1130,1130,1130,1130,1130,1130,1130,1130,1134,1134,1134,1134,1134,1134,1134,1130,1130,1130,1130,1130,1130,1130,1130,1130,1130,1134,1134,1134,1134,1134,1134,1130,1130,1130,1130,1130,1130,1126,1126,1130,0,0,0,0,0,0,0,0,0,0,0,713,711,710,710,708,708,707,706,704,703,698,698,697,697,697,697,697,697,697,698,700,701,703,703,704,706,706,708,710,713,714,714,714,0,0,0,0,0,0,0,1145,1141,1141,1141,1138,1138,1138,1134,1134,964,962,962,959,959,956,956,954,954,951,948,946,946,943,943,940,940,940,938,935,935,935,933,933,933,928,928,928,930,933,930,930,933,933,933,933,1169,1169,1169,1169,1165,1165,1165,1161,1157,1157,1157,1157,928,928,928,928,928,930,930,930,930,933,933,933,933,933,935,935,935,935,938,938,943,943,946,946,948,948,951,956,959,962,964,967,967,967,967,967,970,970,1153,1153,1157,1157,1153,1153,1153,1141,1073,1073,1070,1070,1067,1067,1063,1060,1057,1057,1057,1057,1057,1057,1060,1060,1063,1067,1067,1067,1161,1161,1161,1161,1165,1165,1165,1165,1165,1165,1165,1165,1165,1165,1165,1161,1161,1161,1161,1161,1161,1161,1157,1157,1161,1161,1161,1165,1165,1165,1165,1169,1165,1165,1165,1165,1165,1165,1169,1169,1169,1169,1169,1169,1169,1169,1169,1165,1165,1165,1165,1165,1165,1165,1165,1165,1165,1169,1165,1165,1165,1165,1165,1165,1169,1169,1169,1165,1165,1165,1165,1165,1165,1161,1161,1165,1165,1169,1169,1169,1173,1173,1173,1173,1173,1173,1173,1173,1173,1173,1173,1173,1173,1173,1173,1173,1173,1173,1169,1169,1169,1169,1169,1169,1169,1169,1169,1169,1173,1169,1169,1173,1173,1173,1173,1173,1173,1173,1173,1173,1173,1173,1173,1173,1173,1173,1173,1173,1173,1173,1173,1173,1177,1177,1177,1181,1181,1181,1181,1181,1185,1185,1185,1181,1181,1181,1181,1177,1177,1177,1177,1181,1181,1181,1181,1181,1181,1181,1185,1185,1185,1185,1185,1185,1185,1185,1185,1181,1181,1181,1181,1181,1177,1173,1173,1173,1173,1173,1173,1173,1181,1181,1185,1185,1185,1185,1185,1185,1185,1185,1185,1181,1181,1181,1177,1177,1181,1181,1050,1050,1050,1044,1044,1041,1038,1038,1031,1025,1022,1022,1019,1019,0,0,0,0,0,0,0,0,0,0,0,0,0,0,0,0,0,0,0,0,0,0,0,0,0,0,0,0,0,0,0,0,0,0
0,0,0,0,1115,1115,1115,1115,1115,1112,1112,1115,1112,1112,1112,1108,1108,1108,1108,1105,1105,1105,1105,1105,1108,1108,1112,1108,1108,1108,1108,1108,1108,1105,1105,1105,1101,1101,1101,1105,1105,1101,1101,1105,1105,1105,1105,1105,1105,1105,1105,1101,1101,1101,1101,1101,1101,1101,1105,1105,1105,1105,1105,1105,1105,1105,1105,1105,1105,1105,1105,1105,1105,1105,1105,1105,1105,1105,1105,1108,1108,1108,1112,1112,1108,1108,1108,1105,1105,1105,1105,1105,1105,1105,1105,1108,1108,1108,1108,1108,1108,1108,1108,1108,987,984,984,981,978,975,975,973,973,975,975,975,978,978,981,984,984,987,987,989,989,989,992,992,1115,1115,1115,1115,1119,1119,1119,1119,1119,1119,1119,1119,1119,1119,1119,1119,1119,1119,1119,1119,1119,1119,1119,1119,1123,1123,1123,1123,1126,1126,1123,1119,1119,1119,1119,1119,1119,1119,1119,1119,1119,1119,1119,1119,1123,1123,1123,1123,1123,1126,1126,1126,1126,1126,1126,1130,1130,1130,1130,1130,1130,1130,1130,1130,1130,1130,1130,1130,1130,1130,1130,1126,1126,1126,1126,1130,1130,1130,1130,1130,1130,1130,1130,1130,1130,1130,1130,1126,1126,1126,1126,1126,0,0,0,0,0,0,0,0,0,0,714,713,711,710,710,710,708,707,706,704,703,700,698,698,697,697,697,697,697,697,698,701,703,703,704,704,706,707,708,710,713,714,714,714,0,0,0,0,0,0,0,1145,1141,1141,1138,1138,1138,1134,1134,1134,1134,962,962,959,959,956,954,954,954,951,951,946,946,943,943,943,940,940,938,935,935,933,933,933,928,928,928,925,925,928,928,928,930,930,930,930,930,928,928,928,928,1165,1165,1161,1157,1157,925,925,925,925,925,925,928,928,928,930,930,933,933,933,930,930,930,933,933,933,935,935,940,943,943,946,948,948,951,956,959,962,964,967,967,967,967,967,1153,1153,1153,1153,1153,1153,1149,1149,1153,1141,1073,1073,1073,1070,1067,1067,1063,1063,1060,1060,1057,1057,1057,1057,1060,1063,1067,1070,1070,1070,1073,1157,1157,1157,1157,1161,1161,1161,1161,1161,1161,1161,1161,1161,1161,1161,1161,1157,1157,1157,1157,1157,1157,1157,1157,1157,1161,1161,1161,1161,1161,1161,1161,1165,1161,1161,1161,1161,1161,1165,1165,1165,1165,1165,1165,1165,1165,1165,1165,1165,1165,1165,1165,1165,1165,1165,1165,1165,1165,1165,1165,1165,1161,1161,1165,1165,1165,1165,1165,1165,1161,1161,1161,1157,1157,1161,1161,1165,1165,1169,1169,1169,1169,1169,1169,1169,1169,1169,1165,1165,1165,1169,1169,1169,1169,1173,1173,1169,1169,1165,1165,1165,1169,1169,1169,1169,1169,1169,1169,1169,1169,1173,1169,1169,1169,1169,1169,1169,1169,1169,1169,1169,1169,1169,1169,1169,1169,1173,1173,1169,1169,1169,1169,1169,1169,1173,1173,1181,1181,1181,1181,1181,1181,1177,1177,1177,1177,1173,1173,1173,1173,1181,1181,1181,1181,1181,1181,1181,1181,1181,1185,1185,1185,1185,1185,1185,1185,1181,1181,1181,1177,1177,1173,1169,1169,1169,1169,1169,1169,1169,1169,1173,1181,1181,1185,1185,1181,1181,1181,1181,1181,1181,1181,1181,1177,1177,1177,1047,1047,1047,1044,1041,1038,1038,1034,1031,1028,1025,1022,1019,1019,1019,0,0,0,0,0,0,0,0,0,0,0,0,0,0,0,0,0,0,0,0,0,0,0,0,0,0,0,0,0,0,0,0,0,0
0,0,0,0,1115,1115,1115,1115,1112,1112,1112,1112,1108,1108,1108,1105,1105,1105,1105,1105,1105,1105,1105,1105,1105,1105,1105,1105,1105,1105,1105,1105,1105,1105,1105,1101,1101,1101,1101,1101,1101,1101,1101,1101,1101,1101,1101,1101,1101,1101,1101,1101,1101,1101,1101,1101,1101,1101,1101,1101,1101,1101,1101,1101,1101,1101,1101,1101,1101,1101,1105,1105,1105,1105,1105,1101,1101,1101,1101,1101,1101,1105,1105,1105,1105,1105,1105,1105,1105,1105,1105,1105,1105,1105,1105,1105,1108,1108,1105,1105,1105,1105,1105,1101,989,987,984,984,978,978,975,975,975,975,975,978,978,981,984,984,984,987,987,989,989,989,992,992,1108,1108,1108,1108,1112,1115,1115,1115,1115,1115,1115,1115,1115,1115,1115,1115,1115,1115,1115,1115,1115,1115,1115,1115,1115,1119,1119,1119,1119,1119,1119,1119,1115,1115,1115,1115,1115,1115,1119,1119,1119,1119,1119,1119,1119,1119,1119,1119,1119,1119,1123,1123,1123,1126,1126,1126,1126,1123,1123,1123,1126,1126,1126,1126,1126,1126,1130,1130,1130,1126,1126,1126,1126,1126,1126,1126,1126,1126,1126,1126,1130,1130,1130,1126,1126,1126,1126,1123,1123,1119,1119,1123,0,0,0,0,0,0,0,0,0,0,714,714,713,711,710,710,708,707,706,704,703,700,698,698,698,697,697,697,697,698,700,701,703,704,704,706,706,707,710,711,713,714,716,716,0,0,0,0,0,0,0,1141,1138,1138,1138,1134,1134,1134,1134,1134,1134,1130,1130,1126,959,956,954,954,954,951,951,946,946,946,943,943,940,940,938,935,935,933,933,933,928,928,925,925,925,928,928,928,928,928,928,928,928,928,925,925,925,925,925,925,1157,1157,925,925,925,923,923,925,925,925,928,928,930,930,930,930,930,930,930,930,933,933,935,935,938,940,943,946,948,948,954,956,959,962,964,967,967,967,967,1149,1149,1149,1149,1149,1149,1149,1149,1149,1149,1145,1073,1073,1073,1073,1070,1070,1067,1063,1060,1060,1060,1060,1060,1060,1063,1067,1067,1070,1070,1070,1073,1157,1157,1153,1153,1157,1157,1157,1157,1157,1161,1157,1157,1157,1157,1153,1153,1153,1153,1153,1153,1153,1153,1153,1153,1157,1157,1153,1153,1157,1157,1157,1157,1157,1157,1157,1161,1161,1161,1161,1161,1161,1161,1161,1161,1161,1165,1161,1161,1161,1161,1161,1161,1161,1161,1161,1165,1165,1161,1161,1157,1157,1157,1161,1161,1161,1161,1161,1161,1161,1161,1157,1157,1157,1157,1157,1157,1157,1161,1165,1165,1165,1165,1165,1165,1165,1165,1165,1165,1161,1161,1165,1165,1165,1165,1165,1165,1169,1165,1165,1165,1165,1165,1165,1165,1165,1165,1165,1169,1169,1169,1169,1169,1169,1165,1165,1165,1165,1165,1165,1165,1165,1169,1165,1165,1169,1169,1169,1169,1169,1169,1169,1169,1169,1169,1169,1169,1177,1177,1177,1181,1181,1177,1173,1173,1177,1177,1173,1173,1173,1173,1181,1181,1138,1138,1138,1181,1181,1177,1177,1189,1189,1185,1185,1185,1185,1181,1181,1177,1177,1177,1173,1169,1169,1169,1169,1165,1165,1169,1169,1169,1169,1169,1173,1181,1181,1181,1181,1181,1181,1181,1177,1177,1177,1177,1181,1181,1044,1044,1044,1041,1041,1038,1034,1031,1028,1028,1022,1022,1019,1019,1019,0,0,0,0,0,0,0,0,0,0,0,0,0,0,0,0,0,0,0,0,0,0,0,0,0,0,0,0,0,0,0,0,0,0
0,0,0,0,1115,1115,1115,1115,1108,1108,1108,1108,1108,1105,1105,1105,1105,1105,1105,1105,1101,1101,1101,1101,1101,1101,1101,1101,1101,1101,1097,1097,1097,1101,1105,1101,1101,1101,1101,1101,1101,1097,1097,1101,1101,1097,1097,1097,1097,1097,1097,1097,1094,1094,1094,1094,1097,1097,1097,1097,1097,1097,1097,1097,1097,1097,1097,1097,1097,1097,1101,1101,1101,1101,1101,1101,1101,1097,1097,1097,1097,1101,1101,1101,1101,1101,1101,1101,1105,1105,1105,1105,1105,1105,1105,1105,1105,1105,1105,1105,1101,1101,1101,1097,989,987,987,984,981,978,978,975,975,975,975,978,978,981,984,984,984,987,987,989,989,989,992,992,1105,1105,1105,1105,1108,1108,1112,1112,1112,1112,1112,1115,1115,1115,1115,1115,1115,1115,1115,1115,1112,1112,1112,1108,1108,1115,1115,1115,1115,1119,1115,1115,1115,1115,1115,1115,1115,1115,1115,1115,1115,1115,1115,1115,1115,1119,1119,1115,1115,1115,1119,1119,1119,1123,1123,1123,1123,1119,1119,1119,1119,1119,1119,1119,1123,1123,1123,1123,1123,1123,1123,1123,1123,1123,1123,1123,1123,1123,1123,1123,1123,1123,1123,1123,1123,1123,1123,1119,1119,1119,1119,1115,1115,0,0,0,0,0,0,0,0,0,714,714,713,713,711,710,708,707,706,704,703,701,700,698,698,698,698,698,698,698,700,701,703,704,706,706,707,708,710,711,714,716,716,716,717,0,0,0,0,0,0,1138,1138,1134,1134,1134,1134,1134,1134,1134,1134,1130,1130,1126,959,956,956,954,954,954,951,951,946,946,943,943,940,940,938,935,935,933,933,933,928,928,925,925,925,925,925,925,925,925,925,925,925,925,925,925,923,923,923,923,923,923,923,923,920,920,920,920,923,923,925,925,925,928,928,928,928,928,928,930,930,933,933,935,938,938,940,943,946,951,954,956,959,962,964,967,967,967,1145,1145,1149,1149,1149,1149,1149,1149,1145,1145,1145,1145,1073,1073,1073,1073,1070,1070,1067,1063,1063,1063,1060,1060,1063,1063,1063,1067,1070,1073,1073,1073,1077,1153,1153,1153,1153,1153,1153,1153,1153,1153,1153,1153,1153,1153,1153,1149,1149,1149,1149,1149,1153,1153,1149,1149,1153,1153,1149,1149,1149,1149,1153,1153,1153,1153,1153,1153,1153,1157,1157,1157,1157,1153,1153,1153,1157,1157,1161,1157,1157,1157,1157,1157,1161,1161,1153,1153,1157,1161,1153,1153,1153,1153,1153,1157,1157,1157,1157,1157,1157,1157,1153,1153,1153,1153,1153,1153,1153,1157,1157,1153,1153,1157,1153,1153,1153,1153,1153,1157,1157,1157,1157,1161,1161,1161,1165,1161,1161,1165,1165,1165,1165,1165,1165,1165,1165,1165,1165,1165,1165,1165,1165,1165,1165,1165,1165,1165,1165,1165,1165,1165,1165,1165,1165,1165,1165,1165,1165,1165,1169,1169,1169,1169,1169,1169,1165,1157,1157,1161,1169,1177,1177,1177,1177,1173,1173,1173,1173,1169,1157,1138,1134,1130,1130,1134,1134,1130,1130,1134,1134,1134,1134,1181,1177,1177,1181,1181,1181,1181,1173,1173,1173,1169,1165,1165,1165,1165,1165,1165,1165,1165,1165,1165,1165,1169,1173,1173,1177,1177,1177,1177,1177,1177,1177,1177,1177,1177,1054,1044,1044,1044,1041,1041,1038,1034,1031,1028,1025,1022,1019,1019,1016,1016,0,0,0,0,0,0,0,0,0,0,0,0,0,0,0,0,0,0,0,0,0,0,0,0,0,0,0,0,0,0,0,0,0,0
0,0,0,0,1112,1112,1112,1108,1108,1105,1105,1105,1105,1105,1101,1101,1101,1101,1101,1101,1101,1101,1101,1101,1101,1097,1097,1097,1097,1097,1097,1094,1094,1097,1097,1094,1094,1094,1094,1097,1097,1094,1094,1097,1097,1094,1094,1094,1094,1094,1094,1094,1090,1090,1090,1090,1094,1094,1090,1090,1094,1094,1094,1094,1094,1094,1094,1094,1094,1094,1097,1097,1097,1097,1097,1097,1097,1094,1094,1094,1094,1094,1094,1097,1097,1101,1101,1101,1101,1101,1101,1101,1101,1105,1101,1101,1101,1101,1101,1101,1101,1101,1101,989,987,987,987,984,981,981,978,975,975,975,975,978,981,984,984,984,987,987,987,989,989,992,992,1101,1101,1105,1105,1105,1105,1105,1108,1108,1108,1108,1108,1112,1112,1112,1112,1112,1112,1112,1112,1112,1108,1108,1108,1108,1108,1108,1112,1112,1112,1115,1115,1112,1112,1112,1112,1112,1112,1112,1112,1112,1112,1115,1115,1115,1115,1115,1115,1115,1115,1115,1119,1115,1115,1119,1119,1119,1119,1115,1115,1119,1119,1115,1115,1115,1115,1115,1115,1119,1119,1119,1119,1119,1119,1119,1119,1119,1119,1119,1119,1119,1119,1119,1119,1119,1119,1119,1119,1119,1119,1115,1115,1112,1112,0,0,0,0,0,0,0,0,0,714,714,713,713,711,711,710,708,707,706,703,703,700,698,698,698,698,698,698,698,700,701,704,706,706,707,708,708,710,711,714,716,716,717,717,0,0,0,0,0,0,1134,1134,1134,1130,1130,1134,1130,1130,1130,1130,1130,1130,1126,1123,956,956,956,954,954,954,951,946,946,943,943,943,940,940,938,935,935,933,933,928,928,925,925,925,925,925,925,925,923,923,923,923,923,920,920,923,923,923,923,918,918,920,920,920,920,920,920,920,920,923,923,925,925,925,928,928,928,928,928,930,930,933,935,938,938,940,943,946,951,954,956,959,962,964,967,1145,1145,1145,1145,1149,1149,1149,1149,1149,1145,1145,1145,1145,1149,1073,1073,1073,1073,1070,1070,1067,1063,1063,1063,1063,1063,1063,1063,1063,1067,1070,1073,1077,1077,1153,1153,1153,1149,1149,1149,1149,1153,1149,1149,1149,1149,1153,1149,1149,1149,1149,1149,1149,1149,1149,1149,1149,1149,1149,1149,1149,1149,1149,1149,1149,1149,1149,1149,1149,1149,1149,1153,1153,1153,1153,1153,1153,1153,1153,1153,1153,1153,1153,1153,1153,1153,1153,1153,1153,1153,1153,1153,1153,1149,1149,1149,1149,1153,1153,1153,1153,1153,1153,1153,1153,1153,1153,1153,1153,1153,1153,1153,1153,1149,1149,1149,1149,1149,1149,1153,1153,1153,1153,1153,1153,1153,1157,1157,1157,1161,1161,1161,1161,1161,1161,1161,1161,1161,1161,1161,1161,1161,1165,1165,1165,1165,1165,1165,1161,1161,1161,1161,1157,1157,1157,1161,1161,1157,1157,1157,1161,1161,1161,1165,1161,1161,1165,1165,1161,1153,1153,1153,1153,1153,1173,1173,1173,1169,1165,1165,1138,1138,1138,1138,1134,1130,1130,1134,1134,1130,1130,1134,1134,1134,1134,1138,1141,1177,1181,1181,1177,1153,1153,1165,1165,1161,1157,1157,1161,1161,1161,1161,1157,1157,1161,1161,1161,1161,1169,1169,1173,1173,1173,1177,1177,1177,1173,1173,1173,1054,1054,1047,1044,1044,1041,1038,1034,1034,1031,1025,1025,1022,1019,1019,1016,1016,0,0,0,0,0,0,0,0,0,0,0,0,0,0,0,0,0,0,0,0,0,0,0,0,0,0,0,0,0,0,0,0,0,0
0,0,0,0,1112,1108,1108,1108,1105,1105,1105,1105,1105,1105,1101,1101,1101,1101,1101,1101,1101,1097,1097,1097,1097,1094,1094,1094,1094,1094,1094,1090,1090,1090,1090,1090,1090,1090,1090,1090,1090,1090,1090,1090,1090,1090,1090,1090,1090,1090,1090,1090,1090,1090,1090,1090,1090,1090,1090,1090,1090,1090,1090,1090,1090,1090,1090,1094,1090,1090,1094,1094,1094,1094,1094,1094,1094,1094,1094,1094,1094,1094,1094,1094,1094,1097,1097,1097,1097,1097,1101,1101,1101,1101,1101,1097,1097,1097,1097,1094,1094,1097,1097,987,987,987,987,984,984,981,978,978,978,978,978,978,981,984,984,984,987,987,987,989,989,992,1094,1094,1101,1101,1105,1105,1105,1105,1105,1105,1105,1105,1105,1108,1108,1108,1108,1108,1108,1108,1108,1108,1105,1105,1105,1105,1105,1105,1105,1105,1108,1108,1108,1108,1108,1108,1108,1108,1108,1108,1108,1112,1112,1112,1112,1112,1112,1112,1112,1112,1112,1112,1115,1112,1112,1115,1115,1115,1115,1115,1115,1115,1115,1112,1112,1112,1115,1115,1115,1115,1115,1115,1115,1115,1119,1119,1119,1119,1119,1119,1115,1115,1115,1115,1115,1119,1119,1119,1115,1115,1115,1112,1112,1108,1105,1105,0,0,0,0,0,0,0,0,714,714,714,713,711,711,710,708,708,706,704,703,701,700,700,698,698,698,698,700,700,703,704,706,707,707,708,708,710,711,714,716,716,717,717,0,0,0,0,0,0,1126,1126,1130,1130,1130,1130,1130,1130,1130,1130,1126,1126,1126,1123,1123,1119,956,954,954,954,951,948,946,943,943,943,943,940,938,935,935,933,928,928,925,925,925,925,925,925,925,923,923,920,920,920,920,918,918,918,920,920,918,918,918,918,918,918,918,918,918,918,918,920,920,920,923,923,925,925,925,925,928,930,930,933,935,938,938,940,943,946,951,954,956,959,962,962,1141,1141,1141,1141,1141,1145,1145,1145,1145,1141,1141,1141,1141,1141,1145,1077,1077,1073,1073,1070,1070,1067,1063,1063,1063,1063,1063,1063,1063,1063,1067,1073,1077,1077,1149,1149,1149,1149,1145,1145,1145,1145,1145,1145,1145,1145,1145,1145,1145,1145,1145,1145,1145,1145,1145,1145,1145,1145,1145,1145,1145,1145,1145,1141,1141,1145,1145,1141,1141,1145,1149,1149,1149,1149,1149,1149,1149,1149,1153,1153,1153,1149,1149,1149,1149,1149,1149,1149,1149,1153,1149,1145,1145,1149,1149,1149,1149,1149,1149,1149,1149,1149,1149,1149,1149,1149,1149,1149,1149,1149,1149,1149,1149,1149,1145,1145,1141,1141,1145,1145,1145,1149,1149,1149,1149,1149,1149,1149,1153,1153,1149,1149,1153,1157,1157,1157,1157,1157,1157,1161,1161,1161,1161,1161,1161,1161,1153,1153,1161,1157,1157,1157,1157,1157,1157,1157,1157,1157,1153,1153,1153,1153,1153,1153,1157,1157,1157,1157,1149,1149,1149,1149,1145,1141,1141,1138,1138,1173,1138,1138,1134,1134,1134,1134,1134,1130,1130,1130,1130,1130,1130,1130,1130,1130,1130,1134,1134,1138,1141,1141,1141,1145,1153,1153,1157,1157,1157,1157,1157,1157,1161,1161,1157,1157,1157,1157,1157,1157,1157,1165,1165,1169,1165,1165,1173,1173,1173,1173,1173,1173,1050,1050,1044,1044,1041,1041,1038,1034,1031,1028,1025,1025,1022,1019,1019,1016,1016,0,0,0,0,0,0,0,0,0,0,0,0,0,0,0,0,0,0,0,0,0,0,0,0,0,0,0,0,0,0,0,0,0,0
0,0,0,0,1108,1105,1105,1105,1101,1101,1101,1101,1101,1101,1101,1101,1101,1101,1101,1101,1097,1097,1097,1094,1094,1090,1090,1090,1090,1090,1090,1090,1090,1090,1090,1087,1087,1087,1087,1087,1087,1090,1090,1087,1087,1090,1087,1087,1090,1090,1087,1087,1090,1090,1090,1090,1090,1087,1087,1087,1090,1090,1090,1090,1090,1090,1090,1090,1090,1090,1090,1090,1090,1090,1090,1090,1090,1090,1090,1090,1090,1090,1090,1090,1094,1094,1094,1094,1094,1094,1097,1097,1097,1101,1097,1097,1097,1097,1094,1090,1090,1090,1094,987,987,987,987,987,984,984,981,978,978,978,978,978,981,984,984,984,987,987,987,989,992,995,995,1094,1101,1101,1101,1101,1101,1101,1101,1101,1101,1101,1105,1105,1105,1105,1105,1105,1105,1105,1105,1105,1105,1105,1105,1105,1101,1101,1101,1101,1105,1105,1105,1105,1105,1105,1105,1105,1105,1108,1108,1108,1108,1108,1108,1108,1108,1108,1108,1108,1108,1108,1108,1108,1108,1112,1112,1112,1112,1112,1112,1112,1108,1108,1108,1112,1112,1112,1112,1108,1108,1112,1108,1108,1112,1115,1115,1115,1115,1115,1115,1115,1112,1112,1112,1115,1115,1115,1115,1115,1115,1112,1112,1108,1105,1105,0,0,0,0,0,0,0,0,714,714,714,713,713,711,710,710,708,707,706,703,701,700,700,698,698,698,700,700,701,703,704,706,707,707,708,710,710,711,714,716,717,717,717,0,0,0,0,0,1119,1119,1123,1123,1123,1126,1126,1126,1126,1126,1126,1126,1126,1123,1123,1123,1119,1119,1119,1119,954,951,948,946,946,943,943,943,940,940,935,935,933,928,925,925,925,923,923,925,925,923,923,920,920,920,918,918,918,915,915,915,915,915,915,915,915,915,915,915,915,915,915,915,918,918,918,920,920,923,925,925,925,928,928,930,930,933,935,938,940,946,948,951,956,956,959,962,1138,1138,1138,1138,1138,1138,1141,1141,1141,1141,1138,1138,1138,1138,1138,1077,1077,1077,1077,1073,1073,1070,1067,1063,1063,1063,1063,1063,1063,1063,1067,1067,1070,1073,1077,1149,1145,1145,1145,1145,1145,1141,1141,1141,1145,1141,1141,1141,1145,1141,1141,1141,1141,1141,1141,1141,1141,1145,1141,1141,1141,1141,1138,1138,1141,1141,1141,1141,1141,1141,1141,1145,1145,1149,1149,1149,1149,1149,1149,1149,1149,1149,1149,1149,1149,1149,1149,1149,1149,1149,1149,1145,1141,1141,1145,1145,1145,1145,1145,1145,1145,1141,1141,1145,1145,1141,1141,1145,1145,1145,1145,1145,1145,1145,1145,1141,1141,1141,1141,1141,1141,1141,1149,1149,1149,1149,1145,1145,1141,1141,1141,1141,1141,1145,1145,1149,1149,1153,1149,1149,1153,1153,1153,1153,1157,1153,1153,1149,1149,1149,1149,1153,1153,1153,1153,1153,1153,1149,1149,1145,1145,1141,1141,1141,1149,1149,1149,1149,1149,1145,1145,1145,1145,1141,1141,1141,1138,1138,1138,1134,1134,1134,1134,1134,1134,1134,1130,1130,1130,1130,1130,1130,1130,1130,1130,1130,1134,1134,1138,1138,1138,1138,1141,1145,1149,1149,1153,1153,1153,1153,1153,1157,1157,1157,1153,1153,1153,1157,1157,1157,1161,1165,1165,1161,1161,1165,1165,1173,1165,1165,1165,1047,1047,1044,1044,1041,1038,1038,1034,1031,1028,1022,1022,1019,1019,1016,1013,1013,0,0,0,0,0,0,0,0,0,0,0,0,0,0,0,0,0,0,0,0,0,0,0,0,0,0,0,0,0,0,0,0,0,0
0,0,0,0,1105,1105,1105,1105,1101,1101,1101,1097,1097,1101,1097,1097,1097,1097,1097,1097,1097,1097,1094,1094,1094,1090,1090,1090,1090,1090,1090,1090,1087,1087,1087,1084,1084,1084,1084,1087,1087,1087,1087,1087,1087,1087,1087,1087,1084,1084,1087,1087,1090,1090,1090,1090,1087,1087,1087,1087,1087,1087,1087,1087,1087,1087,1087,1090,1087,1087,1087,1087,1090,1087,1087,1087,1087,1087,1087,1087,1087,1090,1090,1090,1090,1090,1090,1090,1090,1090,1090,1090,1094,1094,1094,1094,1094,1094,1090,1090,1090,1090,1090,989,989,989,987,984,984,984,981,978,978,978,978,978,981,984,984,987,987,989,989,989,992,995,995,1097,1097,1101,1101,1101,1101,1101,1101,1101,1097,1097,1101,1101,1101,1101,1101,1101,1101,1101,1101,1101,1101,1101,1101,1101,1101,1101,1101,1101,1101,1101,1101,1105,1105,1105,1105,1101,1101,1105,1105,1105,1105,1105,1105,1105,1108,1108,1105,1105,1105,1108,1108,1105,1105,1108,1108,1108,1108,1108,1108,1108,1108,1108,1108,1108,1108,1108,1108,1108,1108,1108,1108,1108,1108,1108,1108,1108,1108,1112,1112,1112,1108,1108,1108,1112,1112,1112,1112,1112,1115,1112,1112,1108,1105,1105,0,0,0,0,0,0,0,0,714,714,714,714,713,711,710,710,708,707,707,706,703,700,700,698,698,698,700,700,701,703,704,706,707,708,710,710,711,713,714,716,717,717,0,0,0,0,0,0,1119,1119,1119,1119,1119,1119,1123,1123,1123,1123,1123,1123,1123,1123,1119,1119,1119,1115,1115,1119,1119,951,951,946,946,943,943,943,940,940,935,935,933,928,925,925,925,923,923,925,925,923,923,920,920,918,918,918,915,915,915,915,915,913,910,910,910,910,913,913,913,913,913,913,915,915,915,918,918,920,920,923,923,925,928,928,930,933,935,938,940,946,951,954,956,956,959,1134,1134,1134,1134,1134,1134,1134,1138,1138,1138,1138,1138,1138,1138,1138,1138,1077,1077,1077,1077,1077,1073,1073,1070,1063,1063,1063,1063,1063,1063,1063,1067,1067,1070,1073,1077,1149,1145,1145,1145,1141,1141,1141,1138,1138,1141,1138,1138,1141,1141,1141,1141,1141,1141,1141,1141,1141,1141,1141,1138,1138,1138,1138,1138,1138,1138,1138,1138,1138,1138,1138,1138,1138,1138,1138,1145,1145,1145,1145,1145,1141,1141,1141,1145,1145,1145,1145,1145,1149,1145,1145,1145,1141,1141,1141,1141,1141,1141,1141,1141,1141,1141,1141,1141,1141,1141,1141,1141,1141,1141,1141,1145,1145,1141,1141,1141,1141,1141,1141,1141,1141,1141,1141,1141,1145,1145,1141,1138,1138,1141,1138,1138,1138,1138,1138,1138,1141,1141,1145,1145,1145,1145,1145,1145,1149,1145,1145,1141,1141,1141,1141,1149,1149,1149,1149,1149,1149,1149,1141,1138,1138,1138,1138,1138,1138,1141,1141,1141,1141,1141,1141,1141,1138,1138,1138,1138,1138,1138,1134,1134,1134,1134,1134,1134,1134,1134,1134,1130,1130,1130,1130,1130,1130,1130,1130,1134,1134,1134,1134,1138,1138,1138,1138,1141,1141,1145,1149,1149,1149,1149,1149,1153,1153,1153,1153,1153,1153,1153,1153,1153,1153,1157,1161,1165,1161,1161,1161,1161,1161,1161,1161,1161,1047,1044,1044,1041,1041,1038,1038,1034,1031,1025,1022,1019,1016,1016,1010,1010,1013,0,0,0,0,0,0,0,0,0,0,0,0,0,0,0,0,0,0,0,0,0,0,0,0,0,0,0,0,0,0,0,0,0,0
0,0,0,0,1105,1101,1101,1101,1097,1097,1097,1097,1097,1097,1094,1094,1094,1097,1097,1094,1094,1094,1094,1090,1090,1090,1090,1090,1087,1087,1087,1084,1084,1084,1084,1084,1084,1084,1084,1084,1087,1087,1087,1084,1084,1084,1084,1084,1084,1084,1080,1080,1084,1087,1087,1087,1087,1087,1087,1087,1084,1084,1084,1084,1084,1084,1087,1087,1087,1087,1087,1087,1087,1084,1084,1087,1087,1087,1087,1087,1087,1087,1087,1087,1087,1087,1087,1087,1087,1087,1087,1087,1087,1090,1090,1090,1090,1090,1087,1087,1087,1087,1087,989,989,989,987,984,984,984,981,978,978,978,978,981,981,984,984,987,987,989,989,989,995,995,995,995,1097,1101,1101,1101,1097,1097,1097,1097,1097,1097,1097,1097,1097,1097,1097,1101,1101,1101,1101,1101,1101,1101,1101,1101,1097,1097,1097,1101,1101,1101,1101,1101,1101,1101,1101,1101,1101,1101,1101,1105,1105,1105,1105,1105,1105,1105,1105,1105,1105,1105,1105,1105,1105,1105,1105,1105,1105,1105,1105,1108,1105,1105,1105,1105,1105,1105,1105,1105,1105,1108,1105,1105,1105,1105,1105,1105,1108,1105,1105,1108,1108,1108,1108,1108,1108,1108,1108,1108,1112,1108,1108,1105,1101,1101,0,0,0,0,0,0,0,0,716,716,714,714,714,713,711,710,708,708,707,706,703,700,700,698,698,698,700,700,701,703,704,706,707,708,710,711,713,714,716,717,717,719,720,0,0,0,0,0,1119,1115,1115,1115,1115,1115,1119,1115,1115,1119,1119,1119,1119,1119,1119,1115,1115,1115,1115,1115,1115,1115,1115,946,943,943,943,943,943,940,938,935,933,928,928,928,925,925,925,925,925,923,923,920,918,918,918,915,915,913,910,910,913,910,910,910,908,908,908,908,908,910,910,910,910,913,913,915,918,918,920,923,923,925,928,928,930,933,935,938,943,946,948,954,956,956,956,1134,1134,1130,1130,1130,1134,1134,1134,1134,1134,1134,1134,1134,1134,1134,1134,1077,1077,1077,1077,1077,1073,1073,1070,1067,1063,1063,1063,1063,1063,1063,1067,1067,1070,1073,1077,1149,1145,1145,1141,1138,1138,1138,1138,1138,1138,1138,1138,1138,1138,1138,1138,1138,1141,1138,1138,1138,1138,1138,1138,1138,1134,1134,1138,1138,1138,1138,1138,1138,1138,1138,1138,1138,1138,1138,1145,1145,1145,1145,1141,1138,1138,1138,1138,1138,1138,1145,1145,1145,1145,1145,1141,1141,1138,1138,1138,1138,1141,1141,1141,1141,1141,1141,1138,1138,1138,1138,1138,1138,1138,1138,1141,1141,1141,1141,1141,1138,1138,1138,1141,1138,1138,1138,1138,1141,1141,1141,1138,1138,1138,1138,1138,1134,1134,1134,1134,1138,1138,1138,1138,1138,1138,1138,1138,1141,1141,1141,1141,1138,1138,1141,1141,1141,1141,1145,1138,1138,1138,1138,1138,1138,1138,1138,1138,1138,1138,1141,1138,1138,1138,1138,1138,1138,1138,1138,1138,1138,1134,1134,1134,1134,1134,1134,1134,1134,1134,1134,1130,1130,1130,1130,1130,1130,1130,1130,1134,1134,1134,1134,1138,1138,1138,1138,1141,1141,1145,1145,1145,1149,1149,1149,1149,1149,1149,1153,1149,1149,1153,1153,1153,1153,1153,1157,1157,1157,1157,1157,1157,1157,1054,1054,1057,1041,1041,1041,1041,1041,1038,1034,1031,1028,1022,1019,1016,1013,1007,1004,1004,0,0,0,0,0,0,0,0,0,0,0,0,0,0,0,0,0,0,0,0,0,0,0,0,0,0,0,0,0,0,0,0,0,0,0
0,0,0,0,1101,1101,1101,1101,1097,1094,1094,1094,1094,1094,1090,1090,1090,1090,1090,1090,1090,1090,1087,1087,1087,1087,1087,1087,1084,1084,1084,1084,1084,1084,1080,1080,1084,1084,1084,1084,1084,1084,1084,1084,1080,1080,1080,1080,1080,1080,1077,1077,1077,1084,1084,1084,1084,1084,1084,1080,1080,1080,1080,1080,1080,1084,1084,1087,1084,1084,1084,1084,1084,1084,1084,1084,1087,1087,1084,1084,1084,1087,1087,1087,1087,1087,1084,1084,1084,1077,1077,1080,1080,1084,1090,1090,1090,1087,1087,1087,1084,1084,1084,989,989,989,987,987,984,984,981,981,978,978,978,981,981,984,984,987,987,989,989,989,995,995,995,995,1097,1097,1097,1097,1094,1094,1094,1094,1094,1094,1094,1094,1094,1094,1094,1097,1097,1097,1097,1097,1097,1101,1101,1097,1097,1097,1097,1097,1097,1097,1097,1097,1101,1101,1097,1097,1097,1101,1101,1101,1101,1101,1101,1105,1101,1101,1101,1101,1101,1105,1101,1101,1101,1101,1101,1105,1105,1105,1105,1105,1105,1101,1101,1105,1105,1105,1105,1105,1105,1105,1105,1105,1105,1105,1105,1105,1105,1105,1105,1105,1105,1105,1108,1108,1108,1105,1105,1105,1108,1108,1105,1101,1101,1101,0,0,0,0,0,0,0,0,716,716,714,714,714,713,711,710,710,708,707,706,703,701,700,700,700,700,700,700,701,703,704,706,707,708,710,711,713,716,717,717,719,719,719,0,0,0,0,0,0,1115,1112,1112,1112,1112,1115,1115,1115,1115,1115,1115,1115,1112,1112,1112,1112,1112,1112,1115,1115,1115,1115,1115,943,943,943,943,943,940,938,935,935,930,930,928,928,925,925,925,925,923,923,920,918,918,915,913,910,908,908,906,906,908,908,908,908,908,908,908,908,908,908,908,908,910,913,915,915,918,920,920,920,925,928,928,930,933,935,938,943,946,948,954,954,956,1130,1130,1130,1126,1126,1130,1130,1130,1130,1130,1130,1130,1130,1130,1130,1130,1130,1080,1080,1080,1080,1077,1077,1073,1070,1070,1067,1063,1063,1063,1063,1063,1067,1067,1070,1073,1077,1149,1145,1138,1138,1138,1134,1134,1134,1134,1134,1134,1134,1134,1134,1134,1134,1134,1138,1138,1138,1138,1138,1138,1134,1134,1134,1134,1138,1138,1138,1138,1138,1138,1138,1138,1138,1138,1138,1138,1138,1138,1138,1138,1138,1138,1138,1138,1138,1138,1138,1138,1138,1138,1138,1138,1138,1138,1138,1138,1138,1138,1138,1138,1138,1138,1138,1138,1138,1134,1134,1134,1138,1138,1138,1138,1138,1138,1138,1138,1138,1134,1134,1134,1134,1138,1138,1138,1138,1138,1138,1138,1134,1134,1138,1134,1134,1134,1134,1134,1134,1134,1134,1134,1138,1138,1138,1138,1138,1138,1138,1138,1138,1138,1138,1138,1138,1138,1138,1141,1138,1138,1138,1138,1134,1134,1134,1134,1134,1134,1134,1134,1138,1138,1138,1138,1138,1138,1138,1138,1138,1138,1134,1134,1134,1134,1134,1134,1134,1134,1134,1134,1130,1130,1130,1130,1130,1130,1130,1130,1134,1134,1134,1134,1138,1138,1138,1138,1138,1141,1141,1141,1141,1149,1149,1149,1149,1149,1149,1149,1149,1149,1149,1149,1149,1149,1149,1153,1153,1153,1153,1153,1153,1153,1050,1047,1044,1041,1041,1041,1041,1038,1034,1034,1028,1025,1022,1016,1016,1010,1007,1004,1004,0,0,0,0,0,0,0,0,0,0,0,0,0,0,0,0,0,0,0,0,0,0,0,0,0,0,0,0,0,0,0,0,0,0,0
0,0,0,0,1097,1097,1097,1097,1097,1094,1094,1094,1094,1094,1087,1087,1087,1087,1087,1087,1087,1087,1084,1084,1084,1087,1084,1084,1084,1080,1080,1080,1080,1080,1080,1080,1080,1080,1080,1080,1080,1084,1084,1080,1077,1077,1077,1077,1077,1077,1077,1077,1077,1077,1084,1084,1080,1080,1080,1080,1080,1077,1077,1077,1077,1080,1080,1084,1080,1080,1084,1084,1080,1080,1080,1080,1084,1084,1080,1080,1084,1084,1084,1084,1084,1084,1080,1080,1080,1077,1077,1077,1080,1080,1080,1087,1087,1087,1087,1084,1084,1084,1084,989,989,989,987,987,987,984,981,981,981,981,981,981,984,984,984,987,987,989,989,989,995,995,995,995,1097,1090,1090,1094,1090,1090,1090,1090,1090,1090,1090,1090,1090,1090,1094,1094,1094,1094,1094,1094,1097,1097,1097,1097,1097,1094,1094,1097,1097,1097,1097,1097,1097,1097,1097,1097,1097,1097,1097,1097,1097,1097,1097,1101,1101,1101,1101,1101,1101,1101,1101,1097,1097,1101,1101,1101,1101,1101,1101,1101,1101,1101,1101,1101,1101,1101,1101,1101,1101,1105,1105,1101,1101,1101,1101,1101,1101,1101,1101,1101,1101,1105,1105,1105,1101,1101,1105,1105,1105,1105,1105,1101,1097,1094,1094,0,0,0,0,0,0,0,716,716,714,714,714,713,711,710,710,708,707,707,703,701,700,700,700,700,700,701,701,704,706,706,707,708,710,713,714,716,717,719,719,719,719,0,0,0,0,0,1115,1112,1112,1108,1108,1112,1112,1112,1112,1112,1112,1112,1112,1112,1112,1112,1108,1108,1108,1112,1112,1112,1112,1112,1112,943,943,940,940,940,938,938,935,933,933,930,928,925,925,925,925,923,923,920,918,915,913,910,908,906,906,903,903,903,903,903,903,906,906,906,906,906,906,906,906,906,910,913,915,915,918,918,920,925,928,928,930,935,938,938,943,946,948,954,954,1123,1123,1126,1126,1126,1126,1126,1126,1126,1126,1126,1126,1130,1130,1126,1126,1123,1119,1084,1080,1080,1080,1077,1077,1073,1073,1070,1067,1063,1063,1063,1063,1067,1067,1070,1073,1077,1077,1080,1141,1134,1134,1134,1130,1130,1130,1130,1130,1134,1134,1134,1134,1134,1134,1134,1134,1134,1134,1134,1134,1134,1134,1134,1134,1134,1134,1134,1134,1134,1134,1134,1134,1134,1134,1134,1134,1134,1134,1134,1134,1134,1134,1134,1134,1134,1134,1134,1134,1134,1134,1134,1134,1138,1138,1138,1134,1134,1134,1134,1138,1138,1138,1138,1138,1138,1134,1134,1134,1134,1134,1134,1134,1134,1134,1134,1134,1134,1134,1134,1134,1134,1134,1138,1138,1138,1138,1138,1138,1134,1134,1134,1134,1134,1134,1134,1130,1130,1130,1134,1134,1134,1134,1134,1134,1134,1134,1134,1134,1134,1134,1134,1134,1134,1134,1138,1138,1134,1134,1134,1138,1134,1134,1134,1134,1134,1134,1134,1134,1134,1134,1134,1134,1134,1138,1134,1134,1134,1134,1134,1134,1134,1134,1134,1134,1134,1134,1134,1134,1130,1130,1130,1130,1130,1130,1130,1130,1134,1134,1134,1134,1138,1138,1138,1138,1138,1138,1141,1141,1141,1141,1145,1145,1145,1145,1149,1149,1149,1149,1149,1149,1149,1149,1149,1149,1149,1149,1149,1149,1050,1050,1050,1050,1047,1038,1038,1038,1041,1038,1038,1034,1031,1025,1022,1019,1016,1010,1007,1004,1001,1001,0,0,0,0,0,0,0,0,0,0,0,0,0,0,0,0,0,0,0,0,0,0,0,0,0,0,0,0,0,0,0,0,0,0,0
0,0,0,0,1094,1094,1094,1094,1094,1090,1090,1090,1090,1090,1087,1084,1084,1084,1084,1084,1084,1084,1080,1080,1080,1084,1080,1080,1080,1077,1077,1077,1077,1077,1077,1077,1077,1080,1080,1080,1080,1080,1080,1077,1077,1073,1073,1077,1077,1077,1077,1073,1073,1073,1080,1080,1080,1077,1077,1077,1077,1073,1073,1073,1073,1077,1080,1080,1080,1080,1080,1080,1077,1077,1077,1077,1077,1077,1077,1077,1077,1080,1080,1080,1080,1080,1077,1077,1077,1077,1077,1077,1077,1077,1080,1084,1084,1087,1084,1084,1084,1084,1080,1080,989,989,989,987,987,987,981,981,981,981,981,981,984,984,984,987,989,989,989,995,995,998,998,998,1090,1090,1090,1090,1087,1087,1087,1087,1090,1087,1087,1087,1087,1087,1090,1090,1090,1090,1090,1094,1094,1094,1094,1094,1094,1094,1094,1094,1094,1094,1094,1094,1094,1097,1097,1094,1094,1097,1097,1094,1094,1094,1094,1097,1097,1097,1097,1097,1097,1097,1097,1097,1097,1097,1097,1097,1097,1097,1097,1097,1097,1097,1097,1097,1097,1101,1101,1101,1101,1101,1101,1101,1101,1101,1101,1101,1101,1101,1101,1101,1101,1101,1101,1101,1101,1097,1097,1097,1097,1101,1101,1097,1094,1090,1090,0,0,0,0,0,0,0,0,716,716,714,714,713,711,710,710,708,708,707,703,701,700,700,700,700,700,701,703,704,706,706,707,708,710,713,714,716,717,719,719,719,0,0,0,0,0,0,1112,1108,1108,1108,1108,1108,1108,1108,1108,1108,1108,1108,1108,1108,1108,1108,1105,1105,1108,1108,1108,1112,1108,1108,1112,1105,1105,940,940,940,938,935,935,933,933,930,928,925,925,925,925,923,923,920,918,913,913,908,906,906,903,901,901,901,901,901,901,903,903,903,903,903,903,903,906,906,908,910,913,915,918,918,920,925,928,928,930,935,935,938,943,946,948,1123,1123,1123,1123,1123,1126,1126,1126,1126,1126,1126,1126,1126,1126,1126,1126,1126,1123,1119,1115,1087,1084,1080,1080,1077,1077,1077,1073,1073,1070,1067,1067,1067,1067,1067,1070,1073,1073,1077,1077,1080,1134,1130,1126,1126,1130,1130,1130,1130,1130,1130,1130,1130,1130,1130,1130,1130,1130,1130,1130,1130,1130,1130,1130,1130,1130,1134,1134,1134,1134,1130,1130,1130,1134,1134,1134,1134,1134,1134,1134,1134,1130,1130,1134,1134,1130,1130,1130,1130,1130,1130,1126,1126,1130,1134,1130,1130,1134,1134,1134,1134,1134,1134,1134,1134,1134,1134,1134,1134,1134,1130,1130,1130,1130,1130,1130,1126,1126,1130,1130,1130,1130,1130,1134,1134,1138,1134,1134,1138,1134,1134,1134,1134,1134,1134,1130,1130,1130,1130,1130,1134,1134,1134,1134,1134,1134,1134,1134,1134,1130,1130,1134,1134,1134,1134,1134,1134,1134,1134,1134,1134,1134,1134,1134,1134,1134,1134,1134,1134,1134,1134,1134,1134,1134,1134,1134,1134,1134,1134,1134,1134,1134,1134,1134,1134,1134,1134,1134,1130,1130,1130,1130,1130,1130,1130,1130,1130,1130,1134,1134,1134,1134,1138,1138,1138,1138,1138,1138,1138,1138,1141,1141,1141,1145,1145,1145,1145,1145,1145,1145,1145,1145,1145,1145,1145,1145,1145,1145,1145,1145,1050,1050,1050,1047,1044,1038,1031,1031,1034,1034,1034,1028,1025,1022,1019,1016,1010,1007,1004,1001,998,998,0,0,0,0,0,0,0,0,0,0,0,0,0,0,0,0,0,0,0,0,0,0,0,0,0,0,0,0,0,0,0,0,0,0,0
0,0,0,0,1090,1090,1090,1090,1090,1087,1087,1087,1087,1087,1084,1084,1080,1080,1080,1080,1080,1080,1077,1077,1077,1077,1077,1077,1077,1073,1073,1077,1077,1077,1077,1077,1077,1077,1077,1077,1077,1077,1077,1077,1073,1070,1070,1073,1073,1073,1073,1073,1073,1073,1077,1077,1077,1077,1077,1073,1073,1073,1073,1070,1070,1070,1070,1070,1070,1073,1073,1077,1073,1073,1073,1073,1073,1077,1073,1073,1073,1077,1077,1077,1077,1077,1077,1077,1077,1077,1073,1073,1077,1077,1077,1080,1080,1084,1084,1080,1080,1080,1080,1080,989,989,989,989,987,987,984,984,981,981,981,984,984,984,984,987,989,989,992,995,998,998,998,998,998,1090,1090,1087,1084,1084,1084,1084,1087,1087,1087,1084,1084,1087,1087,1090,1087,1087,1087,1087,1090,1090,1090,1090,1094,1094,1094,1094,1094,1090,1090,1090,1090,1094,1094,1090,1090,1094,1094,1094,1090,1090,1090,1094,1094,1094,1094,1094,1094,1097,1094,1094,1094,1094,1094,1094,1094,1094,1094,1094,1094,1094,1094,1094,1094,1094,1094,1094,1094,1097,1101,1101,1101,1097,1097,1101,1101,1097,1097,1097,1097,1097,1097,1097,1097,1094,1094,1094,1094,1094,1094,1094,1090,1090,1090,0,0,0,0,0,0,0,0,717,716,716,714,714,713,711,710,708,708,707,703,701,700,700,700,700,700,701,703,704,706,707,708,710,711,713,714,717,717,719,719,719,0,0,0,0,0,0,1108,1105,1105,1105,1105,1105,1105,1105,1105,1105,1105,1105,1105,1105,1105,1105,1105,1105,1105,1105,1105,1105,1105,1105,1108,1105,1105,1105,1105,938,935,935,935,933,933,933,930,928,928,928,925,925,925,920,918,913,910,906,903,903,901,898,898,898,898,898,898,898,898,898,901,903,903,903,906,906,908,910,913,915,918,918,920,925,928,928,930,935,935,938,943,943,1115,1115,1115,1119,1119,1123,1123,1123,1123,1123,1123,1126,1126,1123,1123,1123,1126,1123,1123,1119,1115,1105,1087,1080,1080,1080,1077,1077,1073,1073,1070,1067,1067,1067,1067,1070,1073,1077,1077,1077,1080,1084,1123,1123,1123,1123,1123,1123,1126,1126,1123,1123,1130,1130,1130,1130,1130,1126,1126,1130,1130,1130,1130,1130,1126,1126,1126,1130,1130,1130,1130,1126,1126,1126,1130,1130,1130,1130,1126,1126,1130,1130,1126,1126,1130,1130,1126,1126,1126,1126,1123,1123,1123,1123,1123,1126,1126,1126,1126,1126,1126,1130,1130,1130,1130,1134,1134,1134,1130,1130,1130,1130,1126,1126,1126,1126,1126,1126,1126,1126,1126,1126,1126,1126,1126,1130,1134,1134,1134,1134,1134,1134,1130,1130,1130,1130,1126,1126,1126,1126,1126,1130,1130,1130,1130,1130,1130,1130,1130,1130,1130,1130,1130,1130,1130,1134,1134,1134,1134,1130,1130,1130,1134,1134,1130,1130,1130,1130,1130,1130,1130,1130,1134,1134,1134,1134,1134,1134,1134,1134,1134,1134,1134,1130,1130,1130,1130,1130,1130,1130,1130,1130,1130,1130,1130,1130,1130,1134,1134,1134,1134,1138,1138,1138,1138,1138,1138,1138,1138,1138,1138,1138,1138,1138,1141,1141,1141,1141,1141,1141,1141,1141,1141,1141,1141,1141,1141,1141,1141,1141,1141,1141,1141,1145,1047,1044,1041,1031,1031,1031,1028,1025,1025,1022,1019,1016,1010,1007,1004,1001,998,995,995,0,0,0,0,0,0,0,0,0,0,0,0,0,0,0,0,0,0,0,0,0,0,0,0,0,0,0,0,0,0,0,0,0,0,0
0,0,0,0,1087,1087,1087,1087,1087,1084,1084,1084,1084,1084,1084,1080,1080,1077,1077,1080,1077,1077,1077,1073,1073,1073,1073,1073,1073,1073,1073,1073,1073,1077,1077,1077,1077,1077,1077,1077,1077,1073,1073,1073,1070,1067,1067,1067,1067,1070,1070,1070,1073,1073,1073,1073,1073,1073,1073,1073,1073,1070,1070,1067,1067,1070,1070,1067,1067,1067,1067,1070,1073,1073,1073,1070,1070,1073,1073,1073,1073,1073,1073,1073,1073,1073,1073,1073,1073,1073,1073,1073,1073,1073,1077,1077,1077,1080,1080,1080,1080,1080,1077,1077,1077,989,989,989,989,987,987,984,984,984,984,984,984,984,984,987,989,992,992,995,998,998,998,998,998,1084,1084,1084,1080,1080,1080,1080,1084,1084,1084,1080,1080,1084,1084,1087,1084,1084,1084,1084,1080,1080,1080,1080,1090,1090,1090,1090,1090,1087,1087,1087,1087,1090,1090,1087,1087,1090,1090,1090,1090,1090,1090,1090,1090,1090,1094,1094,1094,1094,1094,1094,1094,1090,1090,1090,1094,1090,1090,1094,1094,1090,1090,1090,1090,1090,1090,1090,1090,1090,1094,1097,1097,1094,1094,1094,1094,1094,1094,1094,1094,1090,1090,1094,1094,1090,1090,1090,1090,1090,1090,1090,1090,1087,1087,0,0,0,0,0,0,0,0,717,717,716,716,714,713,711,711,708,708,707,703,701,700,700,700,700,700,701,703,704,707,707,708,710,711,714,716,717,717,719,719,719,0,0,0,0,0,0,1105,1105,1105,1105,1105,1105,1105,1105,1105,1105,1105,1105,1101,1101,1101,1101,1101,1101,1101,1101,1101,1101,1101,1105,1105,1105,1105,1105,1105,938,935,935,935,933,933,933,930,928,928,928,925,925,925,920,918,910,908,906,901,901,898,898,898,896,896,896,896,896,898,898,898,901,901,901,903,906,908,910,913,915,918,918,920,925,928,930,933,935,935,938,1115,1115,1115,1115,1115,1119,1119,1119,1119,1123,1123,1123,1123,1123,1123,1123,1123,1123,1123,1119,1119,1115,1115,1105,1090,1084,1080,1080,1077,1077,1077,1073,1070,1067,1067,1067,1067,1070,1073,1077,1077,1077,1080,1084,1115,1119,1119,1123,1123,1123,1123,1123,1123,1123,1123,1126,1123,1123,1126,1123,1123,1126,1126,1126,1126,1126,1126,1123,1123,1126,1123,1123,1123,1123,1123,1123,1126,1123,1123,1126,1123,1123,1123,1123,1123,1126,1126,1126,1126,1126,1126,1123,1123,1119,1119,1119,1119,1123,1123,1123,1123,1123,1123,1126,1126,1126,1126,1126,1130,1130,1130,1130,1130,1126,1126,1126,1126,1126,1126,1123,1123,1123,1123,1123,1123,1123,1126,1126,1126,1130,1130,1130,1130,1126,1126,1126,1126,1126,1126,1126,1126,1126,1126,1126,1126,1126,1130,1130,1130,1126,1126,1130,1130,1130,1130,1130,1130,1134,1130,1130,1130,1130,1130,1130,1130,1134,1130,1130,1130,1130,1130,1130,1126,1126,1130,1130,1134,1134,1134,1134,1134,1134,1134,1130,1130,1130,1130,1130,1126,1126,1130,1130,1130,1130,1130,1130,1130,1130,1130,1134,1134,1138,1138,1138,1138,1138,1138,1138,1138,1138,1134,1134,1138,1138,1138,1138,1138,1141,1141,1141,1141,1141,1141,1138,1138,1141,1141,1141,1138,1138,1141,1141,1141,1141,1141,1141,1047,1047,1145,1028,1028,1028,1025,1022,1019,1016,1016,1013,1007,1007,1004,1001,998,995,995,0,0,0,0,0,0,0,0,0,0,0,0,0,0,0,0,0,0,0,0,0,0,0,0,0,0,0,0,0,0,0,0,0,0,0
0,0,0,0,1084,1084,1084,1087,1084,1080,1080,1084,1084,1084,1080,1080,1077,1077,1077,1077,1077,1077,1073,1073,1070,1070,1070,1070,1070,1070,1070,1073,1073,1073,1073,1073,1073,1073,1073,1073,1070,1070,1070,1070,1063,1063,1063,1063,1067,1067,1067,1067,1067,1067,1067,1067,1070,1070,1067,1067,1070,1067,1067,1063,1063,1067,1067,1067,1067,1067,1067,1067,1067,1067,1067,1067,1067,1070,1070,1070,1070,1070,1070,1073,1073,1073,1073,1073,1073,1073,1073,1073,1073,1073,1073,1073,1073,1077,1077,1077,1077,1077,1077,1077,1073,989,989,989,989,987,987,984,984,984,981,981,984,984,984,987,989,992,995,998,998,998,998,998,998,1084,1084,1080,1080,1080,1077,1077,1080,1080,1080,1080,1080,1080,1080,1080,1080,1080,1080,1080,1077,1077,1077,1077,1077,1080,1080,1080,1087,1087,1087,1084,1084,1087,1087,1087,1087,1087,1087,1090,1087,1087,1087,1090,1090,1090,1090,1090,1090,1090,1090,1090,1090,1087,1087,1090,1090,1090,1090,1090,1090,1090,1090,1090,1090,1087,1087,1087,1087,1087,1087,1087,1087,1090,1090,1090,1090,1090,1090,1090,1090,1087,1087,1087,1087,1087,1087,1087,1087,1090,1090,1090,1087,1084,1084,0,0,0,0,0,0,0,0,0,717,717,716,714,714,713,711,710,708,707,704,701,701,700,700,700,700,701,703,704,707,707,710,710,711,714,716,717,717,719,719,719,0,0,0,0,0,0,1105,1101,1101,1101,1101,1101,1101,1101,1101,1101,1101,1101,1101,1101,1097,1097,1097,1097,1097,1097,1101,1101,1101,1101,1101,1101,1101,1101,1101,1105,1105,935,935,933,933,933,930,928,928,928,925,925,925,920,915,908,906,901,898,896,896,896,894,894,894,894,894,894,896,896,898,898,898,898,901,906,908,910,913,915,918,918,920,925,928,930,933,935,935,935,1112,1112,1112,1115,1115,1115,1119,1119,1119,1119,1119,1119,1119,1119,1119,1119,1119,1119,1119,1119,1115,1115,1108,1101,1090,1084,1080,1080,1080,1077,1077,1077,1070,1070,1067,1067,1070,1070,1073,1077,1077,1080,1080,1084,1105,1115,1115,1119,1119,1119,1119,1119,1119,1119,1119,1119,1123,1123,1123,1123,1123,1123,1123,1123,1123,1123,1123,1123,1123,1123,1123,1123,1123,1123,1123,1123,1123,1123,1123,1123,1119,1119,1119,1119,1119,1123,1126,1126,1123,1123,1123,1123,1119,1119,1119,1119,1119,1119,1119,1119,1119,1119,1123,1123,1123,1123,1123,1123,1123,1123,1126,1126,1126,1123,1123,1123,1123,1123,1123,1123,1123,1123,1123,1123,1123,1123,1123,1123,1123,1123,1123,1130,1126,1126,1126,1126,1126,1123,1123,1123,1123,1123,1123,1123,1123,1126,1126,1123,1123,1123,1123,1123,1126,1123,1123,1130,1134,1134,1130,1130,1130,1130,1130,1130,1130,1130,1130,1130,1130,1130,1126,1126,1123,1123,1126,1126,1130,1130,1130,1130,1134,1130,1130,1130,1130,1126,1126,1126,1126,1126,1130,1126,1126,1126,1130,1130,1130,1130,1130,1130,1134,1134,1130,1130,1138,1138,1138,1138,1138,1134,1134,1134,1134,1134,1134,1134,1134,1138,1138,1138,1138,1138,1141,1138,1138,1138,1138,1138,1138,1138,1141,1141,1141,1138,1138,1138,1138,1138,1145,1028,1028,1028,1022,1019,1016,1013,1007,1007,1004,1004,1001,998,995,992,992,0,0,0,0,0,0,0,0,0,0,0,0,0,0,0,0,0,0,0,0,0,0,0,0,0,0,0,0,0,0,0,0,0,0,0
0,0,0,0,1084,1080,1080,1077,1077,1077,1077,1077,1077,1080,1080,1077,1077,1073,1073,1073,1073,1073,1073,1070,1070,1070,1067,1067,1070,1070,1070,1073,1073,1073,1073,1073,1073,1073,1070,1070,1067,1067,1067,1063,1063,1063,1060,1060,1063,1063,1063,1063,1063,1063,1063,1063,1063,1063,1063,1063,1063,1063,1063,1063,1063,1063,1063,1063,1063,1063,1063,1063,1063,1063,1063,1063,1063,1063,1063,1063,1067,1067,1067,1070,1070,1070,1070,1070,1070,1070,1070,1070,1070,1070,1070,1070,1070,1070,1073,1073,1073,1073,1073,1073,1070,992,989,989,989,987,987,987,984,984,981,981,981,981,981,987,989,992,995,998,998,998,998,998,998,1080,1080,1077,1077,1077,1077,1077,1077,1077,1077,1077,1077,1077,1077,1077,1077,1077,1077,1077,1077,1077,1077,1077,1077,1077,1077,1077,1077,1080,1080,1084,1084,1084,1084,1084,1084,1084,1087,1087,1087,1087,1087,1087,1087,1087,1087,1087,1087,1087,1087,1087,1087,1087,1087,1087,1087,1090,1090,1090,1090,1087,1087,1087,1087,1087,1084,1084,1084,1084,1084,1087,1087,1087,1087,1090,1087,1087,1084,1084,1084,1084,1084,1084,1084,1087,1087,1087,1087,1087,1087,1087,1084,1080,1077,1077,0,0,0,0,0,0,0,0,719,717,717,716,714,713,711,710,708,707,704,703,703,701,701,701,701,703,703,706,707,708,710,710,711,714,716,716,717,717,719,719,0,0,0,0,0,0,1105,1097,1097,1097,1097,1097,1097,1097,1097,1097,1097,1097,1097,1097,1097,1094,1094,1094,1094,1097,1097,1097,1097,1097,1097,1097,1097,1097,1101,1101,1101,935,935,935,933,933,930,928,928,928,928,925,925,923,915,908,901,898,896,896,894,894,894,894,891,891,894,894,894,896,896,898,898,898,901,903,908,913,915,918,918,920,923,925,928,930,933,935,938,1105,1105,1108,1108,1112,1112,1112,1115,1115,1115,1115,1115,1119,1115,1115,1115,1115,1115,1115,1115,1115,1112,1112,1108,1101,1094,1084,1084,1080,1080,1077,1077,1077,1070,1070,1067,1067,1070,1073,1073,1077,1080,1080,1084,1090,1097,1108,1112,1119,1119,1119,1119,1119,1115,1115,1115,1115,1119,1119,1119,1119,1119,1119,1119,1119,1119,1119,1119,1123,1123,1123,1123,1123,1123,1123,1123,1123,1123,1119,1119,1119,1119,1115,1115,1119,1119,1123,1123,1123,1123,1123,1123,1123,1119,1119,1115,1115,1115,1115,1115,1115,1115,1115,1119,1119,1119,1119,1119,1119,1119,1123,1123,1123,1123,1123,1123,1123,1123,1119,1119,1119,1119,1119,1119,1119,1119,1123,1123,1123,1119,1119,1123,1123,1123,1119,1119,1123,1123,1123,1123,1123,1123,1123,1123,1123,1123,1123,1123,1123,1123,1123,1123,1123,1123,1123,1123,1123,1123,1123,1130,1130,1130,1130,1130,1126,1126,1130,1126,1126,1126,1123,1123,1123,1123,1123,1123,1123,1126,1126,1130,1130,1130,1126,1126,1126,1126,1126,1123,1123,1123,1126,1123,1123,1126,1126,1130,1130,1130,1126,1126,1130,1130,1130,1126,1126,1130,1134,1138,1138,1138,1134,1134,1134,1134,1134,1134,1134,1134,1138,1138,1138,1138,1138,1138,1138,1138,1138,1138,1138,1134,1134,1134,1134,1134,1134,1138,1134,1134,1134,1028,1028,1025,1025,1019,1016,1013,1010,1007,1004,1004,1001,1001,995,992,989,989,0,0,0,0,0,0,0,0,0,0,0,0,0,0,0,0,0,0,0,0,0,0,0,0,0,0,0,0,0,0,0,0,0,0,0
0,0,0,0,1080,1077,1073,1073,1077,1077,1077,1077,1077,1077,1077,1073,1073,1073,1073,1073,1073,1073,1070,1070,1070,1067,1067,1067,1067,1067,1067,1070,1070,1070,1070,1070,1070,1067,1067,1067,1063,1063,1063,1063,1060,1060,1057,1057,1060,1060,1060,1060,1060,1060,1060,1060,1060,1060,1060,1060,1060,1060,1060,1060,1060,1060,1063,1063,1063,1063,1063,1063,1063,1063,1060,1060,1060,1060,1060,1060,1063,1063,1063,1063,1067,1067,1067,1067,1067,1070,1067,1067,1067,1067,1067,1067,1067,1067,1067,1070,1070,1070,1070,1070,987,987,992,989,989,989,987,987,984,984,981,981,981,981,981,987,989,992,995,998,998,998,998,998,998,1080,1077,1077,1077,1073,1073,1073,1073,1073,1073,1073,1073,1073,1073,1073,1073,1073,1073,1077,1073,1073,1073,1073,1073,1073,1073,1073,1077,1077,1077,1077,1077,1077,1077,1080,1080,1080,1084,1084,1084,1084,1084,1084,1084,1084,1084,1084,1084,1084,1084,1084,1084,1084,1084,1087,1087,1087,1087,1087,1087,1087,1087,1084,1084,1084,1084,1084,1084,1080,1080,1084,1084,1084,1087,1084,1084,1084,1084,1084,1084,1080,1080,1080,1084,1084,1084,1084,1084,1084,1084,1084,1084,1080,1077,1077,1080,0,0,0,0,0,0,0,719,717,717,716,714,713,711,710,708,706,704,704,704,703,703,703,703,703,704,707,708,708,710,711,713,714,716,716,717,717,719,719,0,0,0,0,0,0,1101,1094,1094,1094,1094,1094,1094,1094,1094,1097,1094,1094,1094,1097,1094,1094,1094,1094,1094,1094,1094,1094,1094,1094,1094,1097,1097,1097,1097,1097,1097,1097,1094,935,933,933,930,928,928,928,928,925,925,923,915,891,891,891,894,891,891,891,891,891,891,891,891,891,894,896,896,896,898,898,898,903,908,913,913,918,920,920,923,925,928,930,933,935,938,1097,1097,1101,1105,1105,1108,1112,1108,1108,1108,1108,1108,1112,1112,1112,1112,1112,1112,1112,1112,1112,1108,1105,1105,1097,1094,1087,1084,1080,1080,1080,1077,1073,1073,1070,1070,1070,1073,1073,1077,1080,1080,1084,1084,1090,1097,1105,1112,1115,1115,1119,1115,1115,1115,1115,1115,1112,1112,1112,1108,1108,1108,1108,1108,1108,1108,1112,1112,1119,1119,1119,1119,1119,1119,1119,1119,1119,1119,1115,1115,1115,1115,1112,1112,1115,1115,1119,1119,1119,1119,1119,1123,1119,1119,1115,1115,1115,1115,1115,1112,1112,1112,1112,1112,1115,1115,1115,1115,1115,1119,1119,1119,1119,1123,1119,1119,1119,1119,1119,1119,1119,1119,1119,1119,1119,1119,1123,1123,1123,1119,1119,1123,1119,1119,1119,1119,1119,1119,1119,1119,1119,1119,1119,1119,1119,1119,1123,1123,1123,1123,1123,1123,1123,1119,1119,1119,1123,1123,1123,1123,1126,1126,1126,1126,1126,1126,1126,1123,1123,1123,1123,1123,1123,1123,1123,1123,1123,1123,1123,1123,1123,1126,1123,1123,1126,1126,1123,1123,1123,1123,1123,1123,1123,1123,1126,1130,1130,1126,1126,1126,1126,1126,1126,1123,1123,1130,1130,1130,1134,1134,1134,1134,1134,1134,1130,1130,1130,1134,1134,1134,1134,1134,1134,1134,1134,1134,1134,1134,1134,1134,1130,1130,1130,1130,1134,1134,1130,1130,1130,1025,1025,1022,1022,1016,1013,1013,1007,1004,1004,1001,1001,998,992,989,987,987,0,0,0,0,0,0,0,0,0,0,0,0,0,0,0,0,0,0,0,0,0,0,0,0,0,0,0,0,0,0,0,0,0,0,0
0,0,0,0,1077,1073,1070,1070,1073,1073,1073,1070,1070,1073,1073,1073,1073,1070,1070,1070,1070,1070,1067,1067,1063,1063,1063,1063,1063,1063,1063,1063,1063,1067,1063,1063,1063,1063,1063,1063,1063,1060,1060,1060,1060,1057,1054,1054,1057,1057,1057,1057,1057,1057,1057,1057,1057,1057,1060,1060,1060,1060,1057,1057,1057,1057,1057,1057,1060,1060,1060,1060,1060,1060,1060,1060,1057,1057,1060,1060,1060,1060,1060,1063,1063,1063,1063,1067,1067,1067,1063,1063,1067,1063,1063,1063,1063,1063,1063,1063,1063,1063,1063,1063,987,987,992,989,989,989,987,987,984,984,981,981,981,984,984,989,989,995,995,998,998,998,998,998,998,1080,1077,1077,1073,1073,1073,1073,1073,1073,1073,1073,1070,1070,1070,1070,1070,1070,1070,1073,1073,1073,1073,1073,1073,1073,1073,1073,1073,1073,1073,1073,1073,1073,1077,1077,1077,1077,1077,1080,1080,1080,1080,1080,1080,1084,1080,1080,1080,1080,1080,1080,1080,1080,1080,1084,1084,1084,1084,1084,1084,1084,1084,1084,1084,1080,1080,1080,1080,1080,1080,1080,1080,1080,1084,1080,1080,1080,1080,1080,1080,1080,1080,1080,1080,1080,1080,1080,1080,1080,1080,1080,1080,1077,1077,1077,1077,0,0,0,0,0,0,0,719,719,717,716,714,713,711,710,708,706,704,704,704,703,703,703,703,703,704,707,708,708,711,713,713,714,716,716,717,717,720,720,0,0,0,0,0,1087,1087,1090,1094,1090,1090,1090,1090,1090,1094,1094,1094,1094,1094,1094,1094,1094,1090,1090,1090,1094,1094,1094,1094,1094,1094,1094,1094,1094,1094,1094,1094,1097,1094,1094,1090,933,930,928,928,928,928,925,925,923,887,887,889,889,891,889,889,889,889,889,889,891,891,891,894,896,896,896,898,898,898,903,908,913,913,918,920,923,923,925,928,930,1097,1097,1097,1097,1097,1101,1101,1105,1105,1105,1105,1108,1105,1105,1108,1108,1108,1108,1108,1108,1108,1108,1108,1108,1108,1105,1101,1097,1094,1087,1084,1080,1080,1080,1077,1073,1073,1070,1070,1070,1073,1073,1077,1080,1080,1084,1084,1090,1097,1105,1108,1108,1112,1112,1112,1112,1112,1112,1112,1108,1108,1108,1105,1105,1105,1108,1108,1108,1108,1108,1108,1115,1119,1119,1115,1115,1115,1115,1115,1115,1115,1112,1112,1112,1112,1108,1108,1112,1112,1115,1115,1115,1119,1119,1119,1115,1115,1115,1115,1112,1112,1112,1112,1112,1112,1108,1108,1112,1115,1115,1115,1115,1115,1115,1115,1115,1115,1119,1119,1119,1115,1115,1115,1115,1115,1119,1119,1119,1119,1123,1119,1119,1119,1119,1119,1115,1115,1112,1112,1115,1115,1119,1115,1115,1119,1119,1119,1115,1115,1119,1119,1119,1119,1119,1119,1119,1119,1119,1119,1123,1123,1123,1123,1123,1123,1123,1123,1123,1123,1123,1123,1123,1123,1119,1119,1119,1119,1119,1119,1119,1119,1119,1119,1119,1123,1123,1123,1123,1123,1123,1123,1119,1119,1123,1119,1119,1119,1123,1123,1126,1123,1123,1123,1126,1126,1123,1123,1123,1123,1126,1126,1123,1123,1126,1130,1130,1130,1130,1130,1130,1126,1126,1134,1134,1134,1134,1134,1134,1134,1130,1130,1134,1130,1126,1126,1126,1126,1130,1130,1130,1130,1130,1025,1022,1022,1016,1013,1013,1010,1007,1004,1004,1001,998,995,992,989,987,987,0,0,0,0,0,0,0,0,0,0,0,0,0,0,0,0,0,0,0,0,0,0,0,0,0,0,0,0,0,0,0,0,0,0,0
0,0,0,0,1073,1070,1067,1067,1070,1073,1070,1070,1070,1073,1073,1070,1070,1067,1067,1067,1067,1063,1063,1063,1063,1063,1063,1063,1063,1063,1060,1060,1060,1063,1060,1060,1060,1060,1060,1060,1060,1057,1057,1057,1057,1054,1054,1054,1054,1057,1057,1057,1057,1057,1057,1057,1057,1057,1057,1057,1057,1057,1054,1054,1054,1054,1057,1057,1057,1057,1057,1057,1057,1057,1057,1057,1057,1057,1057,1057,1060,1060,1060,1060,1060,1060,1060,1060,1060,1060,1060,1063,1063,1063,1063,1060,1060,1063,1063,1060,1060,1060,1060,1060,1060,992,992,992,989,989,987,987,984,984,981,981,981,984,987,989,992,995,995,998,998,998,998,998,998,1080,1077,1073,1073,1073,1070,1070,1070,1070,1070,1070,1067,1067,1067,1067,1067,1067,1067,1070,1070,1070,1070,1070,1073,1073,1073,1073,1073,1073,1073,1073,1073,1073,1073,1073,1073,1073,1073,1073,1073,1077,1080,1077,1077,1080,1077,1077,1077,1077,1077,1077,1077,1077,1077,1077,1077,1077,1080,1080,1080,1080,1080,1080,1080,1080,1077,1077,1077,1077,1077,1077,1077,1080,1080,1080,1080,1080,1080,1080,1080,1080,1080,1080,1080,1080,1080,1080,1077,1077,1080,1077,1077,1077,1077,1077,1077,0,0,0,0,0,0,722,720,719,717,716,716,714,713,710,708,707,706,704,704,704,704,703,703,704,706,707,708,710,711,713,713,714,716,717,717,719,720,0,0,0,0,0,0,1087,1084,1084,1087,1087,1087,1087,1087,1087,1087,1090,1090,1090,1090,1090,1090,1090,1090,1090,1090,1090,1090,1090,1090,1090,1090,1090,1090,1090,1090,1090,1090,1094,1094,1090,1090,1087,1084,928,928,928,928,928,880,880,880,882,885,887,887,889,889,889,889,889,889,889,889,891,894,896,896,896,898,898,898,903,908,913,915,918,920,923,923,925,928,928,1094,1094,1094,1094,1097,1097,1097,1101,1101,1101,1101,1101,1101,1101,1105,1105,1105,1105,1105,1108,1108,1105,1105,1105,1105,1101,1101,1094,1090,1087,1084,1080,1080,1080,1080,1077,1073,1070,1070,1073,1073,1077,1077,1080,1080,1084,1087,1094,1097,1101,1105,1105,1108,1108,1108,1108,1108,1108,1108,1105,1105,1105,1105,1105,1105,1105,1105,1105,1108,1108,1108,1115,1115,1115,1115,1115,1108,1108,1112,1108,1108,1112,1112,1108,1108,1108,1108,1108,1108,1112,1112,1112,1115,1115,1115,1115,1115,1115,1115,1112,1112,1112,1108,1108,1108,1108,1108,1108,1112,1112,1112,1112,1112,1112,1112,1112,1112,1108,1108,1115,1115,1112,1112,1112,1115,1115,1119,1119,1119,1119,1119,1119,1115,1115,1112,1112,1112,1112,1112,1112,1112,1115,1115,1115,1115,1115,1115,1112,1112,1112,1115,1119,1115,1115,1119,1119,1119,1119,1119,1119,1119,1119,1119,1119,1115,1115,1115,1115,1115,1123,1119,1119,1119,1119,1119,1119,1119,1115,1115,1115,1119,1119,1119,1119,1119,1119,1119,1119,1123,1119,1119,1119,1119,1119,1119,1119,1119,1119,1123,1123,1123,1123,1123,1123,1123,1123,1123,1123,1123,1126,1126,1123,1123,1123,1126,1126,1130,1126,1126,1126,1126,1126,1130,1130,1130,1130,1134,1130,1130,1130,1130,1126,1126,1123,1123,1123,1123,1123,1123,1123,1123,1022,1022,1022,1019,1016,1013,1013,1010,1007,1004,1004,1001,998,995,989,987,984,984,0,0,0,0,0,0,0,0,0,0,0,0,0,0,0,0,0,0,0,0,0,0,0,0,0,0,0,0,0,0,0,0,0,0,0
0,0,0,0,1070,1063,1063,1063,1070,1073,1070,1067,1067,1070,1073,1070,1067,1067,1067,1063,1063,1063,1063,1063,1063,1060,1060,1060,1060,1060,1060,1060,1057,1057,1057,1057,1057,1057,1057,1057,1057,1054,1054,1054,1054,1054,1054,1054,1054,1054,1054,1054,1054,1054,1054,1054,1057,1057,1054,1054,1057,1054,1054,1054,1050,1050,1054,1054,1054,1057,1057,1054,1054,1057,1057,1057,1057,1057,1057,1057,1060,1057,1057,1057,1057,1057,1057,1057,1057,1057,1057,1057,1060,1057,1057,1060,1060,1060,1060,1060,1060,1060,1060,1060,1057,992,992,992,992,989,989,987,987,984,981,981,984,987,987,989,992,995,995,998,998,998,998,998,998,1077,1073,1073,1070,1070,1070,1070,1070,1070,1067,1067,1067,1067,1067,1067,1067,1067,1067,1070,1070,1070,1070,1070,1070,1073,1070,1070,1070,1070,1073,1073,1070,1070,1073,1073,1070,1070,1070,1070,1070,1070,1070,1073,1077,1077,1077,1077,1073,1073,1073,1073,1073,1073,1073,1073,1073,1073,1077,1077,1077,1077,1077,1077,1077,1077,1077,1077,1077,1077,1077,1077,1077,1077,1077,1077,1077,1077,1077,1077,1077,1077,1077,1077,1077,1077,1077,1077,1077,1077,1077,1077,1073,1073,1073,1073,1077,0,0,0,0,0,0,722,720,719,717,716,716,713,713,711,708,707,707,706,706,704,704,704,704,704,706,708,708,711,713,714,714,714,716,717,717,717,720,0,0,0,0,0,0,1084,1080,1080,1084,1084,1084,1084,1084,1084,1084,1084,1087,1087,1087,1087,1090,1090,1090,1087,1087,1090,1090,1087,1087,1090,1090,1087,1087,1087,1087,1087,1087,1087,1090,1090,1090,1090,1087,1077,930,930,875,875,878,878,878,880,880,882,885,885,887,887,887,887,889,889,889,889,891,894,896,896,898,898,901,903,908,913,915,918,920,923,923,925,928,1094,1094,1094,1094,1094,1094,1094,1094,1097,1097,1097,1101,1101,1101,1101,1101,1101,1101,1105,1105,1105,1105,1105,1105,1105,1101,1097,1097,1094,1090,1087,1084,1084,1080,1080,1080,1077,1077,1073,1073,1073,1073,1077,1077,1080,1084,1084,1087,1090,1094,1097,1101,1105,1105,1105,1105,1105,1105,1101,1101,1101,1101,1101,1101,1101,1101,1101,1105,1105,1105,1105,1105,1108,1108,1108,1108,1108,1108,1108,1108,1108,1108,1108,1108,1108,1108,1108,1108,1108,1108,1108,1108,1108,1112,1112,1115,1115,1115,1115,1112,1112,1108,1108,1108,1108,1108,1108,1108,1108,1108,1108,1108,1108,1108,1108,1108,1108,1108,1108,1108,1108,1108,1108,1108,1108,1108,1108,1112,1112,1115,1115,1115,1115,1115,1112,1112,1112,1112,1108,1108,1108,1112,1112,1112,1112,1112,1112,1112,1108,1108,1108,1108,1112,1112,1112,1108,1108,1108,1108,1108,1108,1108,1108,1108,1108,1108,1112,1112,1112,1112,1115,1119,1119,1119,1119,1119,1119,1119,1115,1115,1115,1115,1115,1115,1115,1115,1115,1119,1119,1119,1119,1119,1119,1119,1119,1119,1115,1115,1119,1119,1119,1123,1123,1123,1123,1123,1123,1119,1119,1119,1123,1123,1123,1123,1123,1123,1123,1123,1126,1126,1123,1123,1130,1123,1123,1123,1123,1123,1130,1126,1126,1126,1126,1123,1123,1119,1119,1119,1119,1119,1119,1123,1019,1019,1019,1016,1013,1013,1010,1010,1004,1004,1001,998,995,992,987,984,981,981,0,0,0,0,0,0,0,0,0,0,0,0,0,0,0,0,0,0,0,0,0,0,0,0,0,0,0,0,0,0,0,0,0,0,0
0,0,0,0,1070,1063,1063,1063,1073,1070,1067,1063,1063,1067,1070,1067,1067,1063,1063,1063,1063,1060,1060,1060,1060,1060,1060,1060,1060,1057,1057,1057,1054,1054,1054,1054,1054,1054,1054,1054,1054,1050,1050,1050,1050,1050,1050,1050,1050,1054,1054,1054,1054,1054,1054,1054,1054,1054,1054,1054,1054,1054,1050,1050,1050,1050,1050,1050,1054,1054,1054,1054,1054,1054,1054,1054,1054,1054,1054,1057,1057,1057,1057,1057,1057,1057,1054,1054,1054,1054,1057,1057,1057,1057,1057,1057,1057,1060,1060,1057,1057,1057,1060,1060,1057,992,992,992,992,989,989,987,987,987,984,984,984,987,987,989,995,995,995,998,998,998,998,995,995,1077,1073,1070,1067,1067,1067,1067,1067,1067,1063,1063,1067,1063,1063,1063,1063,1063,1063,1067,1070,1070,1070,1070,1070,1070,1070,1067,1067,1070,1070,1070,1070,1070,1070,1067,1067,1067,1067,1067,1067,1067,1067,1067,1070,1070,1070,1073,1073,1073,1073,1073,1073,1070,1070,1070,1070,1070,1073,1073,1073,1073,1073,1073,1073,1073,1073,1073,1073,1077,1073,1073,1073,1073,1073,1073,1073,1073,1073,1073,1073,1073,1073,1073,1073,1073,1073,1073,1073,1073,1077,1073,1073,1073,1073,1073,1077,0,0,0,0,0,0,722,720,719,719,717,716,713,713,711,708,708,707,706,706,706,706,704,704,706,707,708,710,711,713,714,714,714,716,717,717,717,720,0,0,0,0,0,0,1077,1077,1077,1080,1080,1080,1080,1080,1080,1080,1080,1084,1084,1084,1084,1087,1087,1087,1087,1087,1087,1087,1087,1087,1087,1087,1087,1084,1084,1087,1087,1087,1087,1087,1087,1087,1087,1084,1077,1070,1070,875,875,878,878,878,880,880,880,880,882,882,885,885,887,887,887,887,889,891,891,894,896,898,898,901,906,908,910,913,918,920,923,923,925,1090,1090,1090,1090,1094,1090,1090,1094,1094,1094,1094,1094,1097,1097,1097,1097,1097,1097,1097,1094,1094,1097,1101,1101,1101,1101,1101,1097,1094,1094,1090,1087,1084,1084,1080,1080,1080,1077,1077,1073,1073,1073,1077,1077,1077,1080,1084,1087,1090,1090,1094,1094,1097,1101,1101,1101,1101,1101,1101,1097,1097,1097,1097,1097,1097,1097,1097,1101,1101,1101,1101,1101,1101,1101,1101,1105,1105,1105,1108,1108,1105,1105,1105,1105,1105,1105,1105,1105,1105,1105,1105,1105,1105,1108,1105,1105,1108,1108,1108,1108,1112,1108,1108,1108,1108,1108,1105,1105,1105,1105,1105,1105,1105,1105,1105,1105,1105,1105,1105,1105,1105,1105,1108,1108,1108,1108,1108,1108,1108,1108,1112,1112,1112,1112,1112,1108,1108,1108,1108,1108,1108,1108,1108,1108,1108,1108,1108,1108,1108,1108,1108,1108,1108,1112,1108,1108,1108,1108,1108,1108,1108,1108,1108,1105,1105,1108,1108,1108,1108,1108,1112,1112,1112,1115,1115,1115,1115,1115,1115,1115,1115,1115,1115,1115,1115,1115,1115,1115,1115,1115,1119,1115,1115,1115,1115,1119,1115,1115,1115,1115,1119,1119,1119,1119,1119,1119,1119,1119,1119,1115,1115,1119,1119,1119,1119,1119,1119,1119,1119,1119,1119,1123,1123,1123,1119,1119,1119,1119,1119,1119,1123,1123,1123,1123,1123,1119,1119,1119,1119,1119,1115,1115,1115,1013,1013,1013,1013,1013,1010,1010,1007,1004,1001,1001,998,995,989,987,984,981,981,0,0,0,0,0,0,0,0,0,0,0,0,0,0,0,0,0,0,0,0,0,0,0,0,0,0,0,0,0,0,0,0,0,0,0
0,0,0,0,0,1073,1073,1073,1073,1070,1067,1063,1063,1067,1070,1067,1067,1063,1063,1063,1063,1060,1060,1060,1060,1060,1060,1060,1060,1057,1057,1057,1054,1054,1054,1054,1054,1054,1054,1054,1054,1050,1050,1050,1050,1050,1050,1050,1050,1054,1054,1054,1054,1054,1054,1054,1054,1054,1054,1054,1054,1054,1050,1050,1050,1050,1050,1050,1054,1054,1054,1054,1054,1054,1054,1054,1054,1054,1054,1057,1057,1057,1057,1057,1057,1057,1054,1054,1054,1054,1057,1057,1057,1057,1057,1057,1057,1060,1060,1057,1057,1057,1057,1057,1057,1057,992,992,992,989,989,987,987,987,984,984,984,987,987,989,995,995,995,998,998,998,998,995,995,1073,1067,1067,1063,1063,1063,1063,1063,1063,1063,1063,1063,1063,1063,1063,1063,1063,1063,1063,1063,1063,1067,1067,1067,1067,1067,1067,1067,1063,1063,1067,1063,1063,1067,1063,1063,1063,1063,1067,1063,1063,1067,1067,1067,1067,1067,1070,1070,1070,1070,1073,1070,1070,1067,1067,1067,1067,1067,1067,1067,1067,1070,1067,1067,1070,1070,1073,1073,1073,1073,1073,1073,1070,1070,1070,1070,1070,1070,1070,1070,1070,1070,1070,1070,1070,1070,1073,1073,1073,1073,1073,1073,1073,1073,1073,0,0,0,0,0,0,0,722,720,720,719,719,717,714,713,711,708,708,707,707,706,706,706,706,706,706,707,708,710,711,713,714,714,716,717,717,719,719,720,0,0,0,0,0,0,1073,1073,1073,1077,1077,1077,1077,1077,1077,1077,1077,1080,1080,1080,1080,1084,1084,1084,1084,1084,1087,1084,1084,1087,1087,1084,1084,1080,1080,1084,1084,1084,1084,864,864,864,864,867,869,871,871,873,875,878,875,875,878,878,880,880,880,882,885,885,885,887,887,887,889,891,891,894,896,898,901,903,906,908,910,913,915,915,918,923,1090,1090,1090,1090,1090,1094,1090,1090,1094,1094,1094,1094,1094,1094,1094,1094,1094,1094,1094,1094,1094,1090,1090,1094,1094,1097,1097,1097,1094,1094,1094,1090,1087,1084,1084,1080,1080,1080,1080,1077,1077,1077,1077,1077,1077,1080,1084,1084,1087,1090,1090,1094,1094,1094,1097,1094,1094,1097,1097,1097,1094,1094,1094,1094,1094,1094,1097,1097,1097,1097,1101,1097,1097,1097,1097,1101,1101,1101,1101,1101,1105,1105,1105,1101,1101,1101,1105,1105,1105,1105,1101,1101,1101,1101,1101,1101,1101,1101,1105,1105,1101,1101,1105,1105,1105,1105,1105,1105,1101,1101,1101,1101,1101,1101,1101,1101,1101,1101,1101,1101,1105,1101,1101,1105,1105,1105,1105,1105,1105,1108,1108,1108,1108,1108,1108,1108,1108,1108,1108,1108,1108,1108,1108,1108,1108,1105,1105,1105,1105,1105,1105,1105,1105,1105,1105,1105,1105,1105,1105,1105,1105,1105,1105,1105,1105,1105,1108,1108,1108,1108,1108,1108,1108,1108,1108,1108,1108,1112,1112,1112,1112,1112,1112,1112,1112,1112,1112,1112,1112,1112,1112,1115,1115,1112,1112,1115,1115,1112,1112,1112,1112,1112,1112,1112,1112,1115,1115,1115,1115,1115,1112,1112,1115,1115,1115,1115,1115,1115,1115,1115,1115,1115,1115,1115,1123,1119,1119,1119,1119,1119,1119,1119,1119,1115,1115,1119,1119,1119,1119,1119,1115,1115,1115,1115,1013,1013,1013,1013,1013,1010,1010,1007,1001,1001,1001,995,992,989,984,981,978,978,0,0,0,0,0,0,0,0,0,0,0,0,0,0,0,0,0,0,0,0,0,0,0,0,0,0,0,0,0,0,0,0,0,0,0
0,0,0,0,0,0,0,0,0,0,0,0,0,0,0,0,0,0,0,0,0,0,0,0,0,0,0,0,0,0,0,0,0,0,0,0,0,0,0,0,0,0,0,0,0,0,0,0,0,0,0,0,0,0,0,0,0,0,0,0,0,0,0,0,0,0,0,0,0,0,0,0,0,0,0,0,0,0,0,0,0,0,0,0,0,0,0,0,0,0,0,0,0,0,0,0,0,0,1060,1057,1057,1057,1057,1057,1057,1057,995,992,992,992,989,987,987,987,987,987,987,987,989,989,995,995,995,998,998,998,998,995,995,1073,1067,1067,1063,1063,1063,1063,1063,1063,1063,1063,1063,1063,1063,1063,1063,1063,1063,1063,1063,1063,1067,1067,1067,1067,1067,1067,1067,1063,1063,1067,1063,1063,1067,1063,1063,1063,1063,1067,1063,1063,1067,1067,1067,1067,1067,1070,1070,1070,1070,1070,1070,1067,1067,1067,1067,1067,1063,1063,1063,1067,1067,1067,1067,1067,1067,1070,1070,1070,1070,1070,1070,1070,1070,1067,1067,1067,1067,1067,1067,1067,1067,1067,1067,1067,1067,1070,1070,1070,1070,1070,1070,1070,1070,1073,0,0,0,0,0,0,0,722,720,720,719,719,717,716,714,711,708,708,707,707,706,706,706,706,706,706,707,708,710,711,713,714,716,717,719,719,720,720,722,0,0,0,0,0,0,1073,1073,1073,1073,1073,1077,1077,1077,1077,1077,1077,1077,1077,1077,1077,1080,1080,1084,1080,1080,1084,1080,1080,1084,1080,1080,1080,1080,1080,1080,1080,1080,1084,864,864,864,864,867,867,871,871,871,873,875,873,873,875,878,878,878,880,880,880,882,885,885,887,887,889,891,894,896,898,901,903,906,908,908,910,913,913,913,915,915,1087,1087,1087,1090,1090,1090,1090,1090,1090,1090,1090,1090,1094,1094,1094,1094,1094,1094,1094,1094,1090,1090,1090,1090,1090,1090,1094,1094,1094,1094,1090,1090,1087,1084,1084,1080,1080,1080,1080,1077,1077,1077,1077,1080,1080,1080,1084,1087,1090,1090,1090,1094,1094,1094,1094,1094,1094,1094,1094,1094,1094,1090,1090,1094,1094,1094,1094,1094,1097,1097,1097,1097,1094,1094,1094,1097,1097,1097,1097,1097,1101,1101,1101,1101,1101,1101,1101,1101,1101,1101,1097,1097,1097,1097,1097,1097,1097,1097,1097,1101,1101,1101,1101,1101,1105,1105,1101,1101,1101,1101,1101,1101,1101,1101,1101,1101,1101,1101,1101,1101,1101,1101,1101,1101,1101,1101,1101,1101,1105,1105,1105,1105,1105,1105,1105,1105,1105,1105,1105,1105,1105,1105,1105,1105,1108,1105,1105,1105,1105,1105,1101,1101,1101,1105,1105,1105,1101,1101,1101,1101,1105,1101,1101,1105,1105,1105,1105,1105,1108,1108,1108,1108,1108,1108,1108,1108,1108,1108,1108,1108,1108,1108,1108,1108,1108,1108,1108,1108,1108,1108,1108,1112,1112,1112,1112,1112,1112,1112,1108,1108,1108,1108,1108,1108,1108,1108,1112,1112,1112,1112,1112,1112,1112,1112,1112,1112,1112,1112,1112,1112,1115,1112,1112,1112,1112,1115,1119,1119,1115,1115,1119,1115,1115,1115,1115,1115,1115,1115,1115,1115,1115,1112,1112,1112,1112,1013,1013,1010,1010,1010,1007,1004,1001,1001,998,995,992,987,984,981,978,978,0,0,0,0,0,0,0,0,0,0,0,0,0,0,0,0,0,0,0,0,0,0,0,0,0,0,0,0,0,0,0,0,0,0,0
0,0,0,0,0,0,0,0,0,0,0,0,0,0,0,0,0,0,0,0,0,0,0,0,0,0,0,0,0,0,0,0,0,0,0,0,0,0,0,0,0,0,0,0,0,0,0,0,0,0,0,0,0,0,0,0,0,0,0,0,0,0,0,0,0,0,0,0,0,0,0,0,0,0,0,0,0,0,0,0,0,0,0,0,0,0,0,0,0,0,0,0,0,0,0,0,0,0,0,0,0,0,0,0,0,0,0,0,0,0,0,0,0,0,0,0,0,0,0,0,0,0,0,0,0,0,0,0,0,0,0,0,0,0,0,0,0,0,0,0,0,0,0,0,0,0,0,0,0,0,0,0,0,0,0,0,0,0,0,0,0,0,0,0,0,0,0,0,0,0,0,0,0,0,0,0,0,0,1070,1070,1070,1067,1067,1067,1067,1067,1063,1063,1063,1067,1067,1067,1067,1067,1067,1070,1070,1070,1070,1070,1070,1070,1070,1067,1067,1067,1067,1067,1067,1067,1067,1067,1067,1067,1067,1070,1070,1070,1070,1070,1070,1070,1070,0,0,0,0,0,0,0,0,722,722,720,720,719,717,716,714,711,710,708,708,707,707,706,706,706,706,706,707,708,710,711,713,714,716,719,719,720,720,720,722,0,0,0,0,0,0,1070,1070,1073,1073,1073,1073,1073,1073,1073,1073,1073,1077,1077,1077,1077,1077,1077,1080,1077,1077,1080,1077,1077,1080,1077,1077,1077,1077,1077,1080,1080,1080,864,864,862,862,862,864,864,869,869,869,871,873,873,873,873,875,875,878,878,880,880,880,882,885,885,887,889,891,894,896,898,903,903,906,908,910,910,913,913,913,913,913,1087,1087,1087,1087,1087,1087,1087,1087,1090,1090,1090,1090,1090,1090,1090,1090,1090,1090,1090,1090,1090,1087,1087,1087,1087,1090,1090,1090,1090,1090,1090,1087,1087,1084,1084,1080,1080,1080,1080,1080,1080,1080,1080,1080,1080,1080,1084,1087,1090,1090,1090,1090,1090,1090,1094,1090,1090,1094,1094,1090,1090,1090,1090,1090,1090,1090,1094,1094,1094,1094,1094,1094,1090,1090,1094,1094,1094,1094,1094,1094,1094,1094,1097,1094,1094,1094,1097,1097,1097,1094,1094,1094,1094,1097,1097,1097,1097,1097,1097,1097,1094,1094,1094,1097,1097,1097,1097,1097,1094,1094,1097,1097,1097,1097,1097,1097,1097,1097,1097,1097,1097,1097,1097,1101,1101,1097,1094,1094,1094,1097,1097,1097,1097,1105,1105,1105,1105,1105,1105,1105,1105,1105,1105,1105,1101,1101,1101,1101,1101,1101,1101,1101,1101,1101,1101,1097,1097,1097,1097,1097,1101,1101,1101,1101,1101,1101,1105,1105,1105,1105,1105,1105,1105,1105,1105,1105,1105,1105,1108,1105,1105,1108,1105,1105,1105,1105,1105,1108,1108,1108,1108,1108,1108,1108,1108,1108,1108,1108,1108,1108,1108,1108,1108,1108,1108,1108,1108,1108,1108,1108,1108,1108,1108,1108,1108,1108,1108,1108,1108,1112,1112,1112,1112,1108,1108,1108,1112,1112,1115,1115,1119,1115,1115,1115,1112,1112,1115,1112,1112,1112,1112,1112,1112,1112,1112,1013,1013,1010,1010,1010,1007,1001,998,998,995,992,989,984,981,978,975,975,0,0,0,0,0,0,0,0,0,0,0,0,0,0,0,0,0,0,0,0,0,0,0,0,0,0,0,0,0,0,0,0,0,0,0
0,0,0,0,0,0,0,0,0,0,0,0,0,0,0,0,0,0,0,0,0,0,0,0,0,0,0,0,0,0,0,0,0,0,0,0,0,0,0,0,0,0,0,0,0,0,0,0,0,0,0,0,0,0,0,0,0,0,0,0,0,0,0,0,0,0,0,0,0,0,0,0,0,0,0,0,0,0,0,0,0,0,0,0,0,0,0,0,0,0,0,0,0,0,0,0,0,0,0,0,0,0,0,0,0,0,0,0,0,0,0,0,0,0,0,0,0,0,0,0,0,0,0,0,0,0,0,0,0,0,0,0,0,0,0,0,0,0,0,0,0,0,0,0,0,0,0,0,0,0,0,0,0,0,0,0,0,0,0,0,0,0,0,0,0,0,0,0,0,0,0,0,0,0,0,0,0,0,0,0,0,0,0,0,0,0,0,0,0,0,0,0,0,0,0,0,0,0,0,0,0,0,0,0,0,0,0,0,0,0,0,0,0,0,0,0,0,0,0,0,0,0,0,0,0,0,0,0,0,0,0,0,0,0,0,0,0,0,0,0,0,710,708,708,707,707,706,706,706,707,707,708,710,713,714,716,717,719,720,720,722,722,723,0,0,0,0,0,0,1070,1070,1073,1073,1073,1073,1073,1073,1073,1073,1073,1077,1077,1077,1077,1077,1077,1080,1077,1077,1080,1077,1077,1080,1077,1077,1077,1077,1077,1080,1080,1080,864,864,862,862,862,864,864,869,869,869,871,871,871,871,871,873,873,875,875,878,878,880,880,882,885,887,889,891,894,896,898,903,906,906,908,910,910,913,913,913,913,0,1084,1084,1084,1087,1087,1087,1084,1084,1087,1087,1087,1087,1087,1090,1090,1090,1090,1087,1087,1087,1087,1084,1084,1087,1087,1087,1087,1087,1084,1084,1087,1087,1084,1084,1080,1080,1080,1080,1080,1080,1080,1080,1080,1080,1080,1080,1084,1087,1090,1090,1090,1090,1090,1090,1090,1090,1090,1090,1090,1090,1090,1090,1090,1090,1090,1090,1090,1090,1090,1094,1094,1094,1090,1090,1090,1090,1090,1090,1094,1094,1094,1094,1094,1094,1094,1094,1094,1094,1094,1094,1090,1090,1090,1094,1094,1094,1094,1094,1094,1094,1094,1094,1094,1094,1094,1094,1094,1094,1094,1094,1094,1094,1094,1094,1094,1094,1097,1094,1094,1094,1094,1094,1094,1097,1097,1094,1094,1094,1094,1094,1094,1094,1094,1097,1097,1101,1105,1105,1101,1101,1101,1101,1101,1101,1097,1097,1097,1101,1097,1097,1097,1097,1097,1097,1097,1097,1094,1094,1094,1094,1094,1097,1097,1101,1101,1101,1101,1101,1101,1101,1105,1105,1105,1101,1101,1105,1105,1105,1105,1101,1101,1101,1101,1105,1105,1105,1105,1105,1105,1108,1108,1108,1108,1108,1108,1108,1108,1108,1105,1105,1105,1105,1105,1105,1105,1105,1105,1108,1108,1105,1105,1105,1108,1108,1105,1105,1105,1105,1108,1108,1108,1108,1108,1108,1108,1108,1108,1105,1105,1105,1115,1112,1112,1115,1112,1112,1112,1112,1108,1108,1108,1108,1108,1108,1013,1013,1013,1010,1010,1007,1004,1001,995,995,992,989,987,981,981,978,975,975,0,0,0,0,0,0,0,0,0,0,0,0,0,0,0,0,0,0,0,0,0,0,0,0,0,0,0,0,0,0,0,0,0,0,0
0,0,0,0,0,0,0,0,0,0,0,0,0,0,0,0,0,0,0,0,0,0,0,0,0,0,0,0,0,0,0,0,0,0,0,0,0,0,0,0,0,0,0,0,0,0,0,0,0,0,0,0,0,0,0,0,0,0,0,0,0,0,0,0,0,0,0,0,0,0,0,0,0,0,0,0,0,0,0,0,0,0,0,0,0,0,0,0,0,0,0,0,0,0,0,0,0,0,0,0,0,0,0,0,0,0,0,0,0,0,0,0,0,0,0,0,0,0,0,0,0,0,0,0,0,0,0,0,0,0,0,0,0,0,0,0,0,0,0,0,0,0,0,0,0,0,0,0,0,0,0,0,0,0,0,0,0,0,0,0,0,0,0,0,0,0,0,0,0,0,0,0,0,0,0,0,0,0,0,0,0,0,0,0,0,0,0,0,0,0,0,0,0,0,0,0,0,0,0,0,0,0,0,0,0,0,0,0,0,0,0,0,0,0,0,0,0,0,0,0,0,0,0,0,0,0,0,0,0,0,0,0,0,0,0,0,0,0,0,0,0,0,0,0,0,0,0,0,0,0,0,0,0,0,0,0,0,0,0,0,0,0,0,0,0,0,0,0,0,0,0,0,0,0,0,0,0,0,0,0,0,0,0,0,0,0,0,0,0,0,0,0,0,0,0,0,0,0,0,0,0,0,0,0,0,0,0,0,0,0,871,871,871,871,871,871,873,873,875,875,878,878,880,880,882,885,887,889,891,894,896,901,903,906,908,908,910,910,913,915,915,0,0,1084,1084,1084,1087,1087,1087,1084,1084,1087,1087,1087,1087,1087,1090,1090,1090,1090,1087,1087,1087,1087,1084,1084,1087,1087,1087,1087,1087,1084,1084,1084,1084,1080,1080,1080,1080,1080,1080,1080,1080,1080,1080,1080,1080,1080,1080,1084,1084,1087,1087,1087,1087,1090,1090,1090,1090,1090,1090,1090,1090,1090,1090,1090,1090,1090,1090,1090,1090,1090,1090,1090,1090,1090,1090,1090,1090,1090,1090,1094,1094,1090,1090,1090,1090,1090,1090,1090,1090,1090,1090,1090,1090,1090,1090,1090,1090,1090,1090,1090,1090,1090,1090,1094,1094,1094,1094,1090,1090,1090,1090,1090,1090,1090,1090,1090,1094,1094,1094,1094,1094,1094,1094,1094,1094,1094,1094,1090,1090,1090,1090,1090,1090,1094,1094,1094,1094,1094,1101,1101,1097,1097,1097,1097,1097,1097,1094,1094,1097,1097,1094,1094,1094,1094,1094,1094,1094,1094,1094,1094,1094,1094,1094,1094,1097,1097,1097,1101,1101,1101,1101,1101,1101,1101,1101,1101,1101,1101,1101,1101,1101,1101,1101,1097,1097,1097,1101,1101,1105,1105,1105,1105,1105,1105,1105,1105,1105,1105,1105,1105,1101,1101,1101,1105,1105,1101,1101,1101,1105,1105,1105,1105,1105,1105,1105,1105,1101,1101,1105,1105,1101,1101,1101,1101,1105,1105,1105,1101,1101,1101,1101,1105,1112,1112,1112,1108,1108,1112,1108,1108,1108,1108,1108,1108,1108,1108,1013,1013,1010,1010,1007,1004,998,992,992,989,987,984,981,978,975,975,975,0,0,0,0,0,0,0,0,0,0,0,0,0,0,0,0,0,0,0,0,0,0,0,0,0,0,0,0,0,0,0,0,0,0,0
