0,0,0,0,0,0,0,0,0,0,0,0,1915,1915,1904,1904,1904,1904,1904,1904,1904,1904,1904,1904,0,0,0,0,0,0,0,0,0,970,967,967,967,964,964,964,964,964,873,867,864,862,862,860,860,858,856,854,851,851,851,849,849,849,849,847,847,847,845,843,843,845,845,843,843,843,843,843,841,841,841,841,841,841,841,841,841,841,841,841,841,839,839,837,837,839,837,837,835,835,835,835,837,837,837,839,839,837,837,837,837,835,835,835,835,833,833,829,829,827,825,825,827,827,827,827,831,831,831,831,831,831,831,829,829,829,827,825,825,823,823,825,825,825,825,825,825,825,823,823,821,819,819,819,819,819,819,819,819,817,817,817,817,819,819,821,819,819,819,819,819,819,819,819,819,819,821,821,821,821,821,821,821,817,817,817,817,817,817,817,817,819,819,817,813,811,811,813,813,815,813,813,813,813,813,811,811,809,809,809,809,807,807,809,809,809,809,809,809,809,809,809,809,807,805,805,805,805,807,807,807,811,811,811,811,811,811,813,815,817,817,819,819,821,821,823,825,827,827,829,831,831,833,833,837,843,843,847,854,856,858,860,864,867,867,869,869,871,873,873,875,875,878,878,880,882,887,887,889,891,894,894,896,896,898,898,901,906,906,906,908,910,915,915,918,918,920,923,925,925,930,930,933,933,933,935,935,938,938,951,954,954,954,956,956,956,956,956,956,956,956,959,959,962,962,964,964,970,973,975,975,973,970,970,0,0,0,0,0,0,1731,1722,1722,1713,1713,1705,1705,1705,1705,1705,1705,1705,1696,1696,1696,1696,1688,1680,1671,1663,1663,1663,1663,1663,1655,1655,1655,1647,1639,1639,1632,1632,1624,1624,1616,1616,1609,1609,1609,1601,1601,1601,1594,1594,1586,1586,1579,1579,1579,1572,1572,1564,1564,1557,1557,1550,1550,1543,1543,1543,1536,1536,1536,1529,1529,1523,1523,1516,1516,1516,1509,1503,1496,1496,1496,1496,1489,1489,1483,1483,1477,1477,1477,1470,1470,1470,1470,1470,1464,1464,1464,1458,1458,1452,1445,1445,1445,1445,1439,1439,1433,1427,1427,1421,1421,1421,1421,1415,1415,1415,1410,1410,1404,1398,1398,1398,1392,1392,1392,1387,1381,1381,1381,1376,1376,1376,1376,1370,1365,1365,1365,1359,1354,1354,1354,1349,1349,1343,1343,1338,1338,1333,1333,1328,1328,1328,1322,1322,1317,1317,1317,1312,1312,1312,1312,1307,1297,1297,1292,1292,1292,1292,1292,1288,1288,1288,1283,1278,1273,1273,1268,1268,1264,1264,1259,1259,1255,1255,1250,1250,1250,1250,1245,1241,1241,1236,1236,1236,1232,1232,1227,1227,1223,1223,1219,1219,1214,1214,1210,1210,1206,1206,1202,1202,1202,1202,1197,1197,1197,1193,1193,1189,1185,1185,1185,1181,1181,1181,1177,1177,1173,1173,1169,1169,1165,1165,1161,1161,1161,1157,1157,1157,1153,1153,1153,1149,1149,1149,1145,1145,1141,1138,1138,1138,1138,1134,1130,1130,1126,1126,1123,1123,1123,1123,1119,1119,1115,1112,1112,1108,1108,1108,1105,1105,1105,1101,1101,1097,1097,1094,1094,1090,1090,1090,0,0,0,0,0,0,0,0,0,0,0,0,0,0,0,0,0,0,0,0,0,0,0,0,0,0,0,0,0,0,0,0
0,0,0,0,0,0,0,0,0,0,0,0,1904,1904,1894,1894,1894,1894,1894,1894,1894,1894,1894,1904,0,0,0,0,0,0,0,0,0,970,967,964,964,964,964,964,964,964,964,867,862,860,860,860,858,858,854,851,847,847,847,847,845,845,843,841,841,839,837,837,841,841,841,839,839,839,839,839,839,837,837,837,837,837,837,837,839,839,837,837,837,835,835,833,833,835,833,833,833,833,833,833,833,833,833,833,835,835,835,835,835,835,833,833,833,831,827,827,827,825,823,823,823,823,825,825,827,827,827,827,827,827,827,825,825,823,823,821,821,821,821,821,823,823,823,823,823,819,819,819,817,817,815,815,813,813,813,815,815,815,815,815,815,815,817,817,817,817,817,817,817,817,815,815,811,811,815,817,817,817,817,817,817,815,813,813,815,815,815,815,815,815,815,813,811,809,807,807,809,809,809,811,809,809,809,809,809,807,807,807,807,807,807,807,807,807,807,807,807,807,807,807,807,805,803,803,803,803,803,803,803,805,809,809,811,811,811,813,813,815,817,817,819,821,821,823,825,827,827,829,831,833,833,833,839,847,851,854,856,858,860,860,864,867,867,869,869,871,873,875,875,875,880,880,882,882,887,889,889,891,894,894,896,896,898,901,903,906,906,908,910,913,915,915,918,920,920,923,925,925,928,930,933,933,933,935,935,938,943,956,956,956,956,956,956,956,956,956,956,956,956,959,962,964,964,964,967,970,975,975,975,975,973,973,0,0,0,0,0,0,1731,1722,1722,1713,1713,1705,1705,1705,1705,1705,1705,1705,1696,1696,1696,1696,1688,1680,1671,1671,1663,1663,1663,1663,1655,1655,1647,1647,1639,1639,1632,1632,1624,1624,1624,1616,1609,1609,1609,1601,1601,1601,1601,1601,1586,1586,1579,1579,1579,1572,1572,1564,1564,1557,1557,1550,1550,1550,1543,1543,1536,1536,1536,1529,1529,1523,1523,1523,1516,1516,1516,1503,1503,1496,1496,1496,1496,1489,1489,1489,1483,1477,1477,1477,1470,1470,1470,1470,1464,1464,1464,1458,1452,1452,1452,1445,1445,1445,1439,1439,1433,1433,1427,1421,1421,1421,1421,1415,1415,1415,1415,1410,1404,1398,1398,1398,1392,1392,1392,1392,1387,1381,1381,1381,1376,1376,1370,1370,1370,1365,1365,1359,1354,1354,1354,1349,1349,1349,1349,1343,1343,1333,1333,1333,1333,1328,1328,1322,1322,1317,1317,1312,1312,1312,1312,1307,1302,1297,1292,1292,1292,1292,1292,1288,1288,1288,1283,1278,1278,1273,1268,1268,1268,1264,1259,1259,1255,1255,1250,1250,1250,1250,1250,1245,1241,1241,1236,1236,1232,1232,1227,1227,1223,1223,1223,1219,1214,1214,1210,1210,1206,1206,1202,1202,1202,1197,1197,1197,1197,1193,1193,1189,1185,1185,1181,1181,1181,1181,1177,1177,1173,1173,1169,1169,1165,1165,1165,1161,1161,1157,1157,1157,1157,1153,1153,1153,1149,1149,1149,1145,1141,1138,1138,1138,1138,1134,1130,1130,1126,1126,1123,1123,1123,1123,1119,1119,1115,1115,1112,1112,1112,1108,1105,1105,1105,1101,1101,1097,1097,1094,1094,1094,1090,1090,0,0,0,0,0,0,0,0,0,0,0,0,0,0,0,0,0,0,0,0,0,0,0,0,0,0,0,0,0,0,0,0
0,0,0,0,0,0,0,0,0,0,0,0,1894,1894,1894,1894,1894,1894,1883,1883,1894,1894,1894,1894,0,0,0,0,0,0,0,0,0,970,964,964,964,964,964,964,964,964,964,964,862,860,858,858,856,851,849,847,843,843,843,843,839,837,837,837,837,835,835,835,837,837,839,837,835,835,837,837,835,835,835,835,835,835,833,833,835,835,835,833,833,833,831,831,831,831,829,829,829,829,829,829,829,829,829,829,831,831,833,833,833,833,833,831,831,829,825,825,825,823,821,821,819,819,821,823,823,823,823,825,825,825,825,821,821,821,821,819,819,819,819,819,819,819,819,821,819,819,819,817,817,815,815,813,811,811,811,811,809,809,811,811,813,813,815,815,813,813,813,813,813,813,813,811,811,811,811,811,811,811,813,813,813,811,811,811,811,811,811,811,809,809,809,809,809,805,805,807,807,807,807,807,805,805,805,805,805,805,805,805,805,805,805,805,805,805,805,805,805,803,803,803,803,803,803,802,802,803,803,803,803,805,807,809,809,809,811,813,813,815,817,817,819,821,821,823,825,827,829,829,833,833,835,835,847,851,854,856,858,858,860,860,864,867,867,869,869,871,873,875,875,878,880,880,882,885,887,887,889,891,894,894,896,896,898,901,906,906,908,908,910,915,915,918,918,920,923,923,923,925,925,928,933,933,933,935,935,938,962,962,962,959,959,959,959,956,956,956,956,956,959,959,962,964,964,967,967,973,975,975,978,975,973,973,0,0,0,0,0,0,1722,1722,1713,1713,1705,1705,1705,1705,1705,1705,1705,1705,1696,1696,1696,1696,1688,1680,1671,1671,1671,1663,1663,1663,1655,1655,1647,1647,1639,1639,1632,1632,1632,1624,1624,1616,1609,1609,1609,1609,1601,1601,1601,1601,1594,1586,1579,1579,1579,1572,1572,1564,1564,1557,1557,1550,1550,1550,1543,1543,1543,1536,1536,1529,1529,1523,1523,1523,1516,1516,1516,1509,1503,1503,1496,1496,1496,1489,1489,1489,1483,1483,1483,1477,1470,1470,1470,1470,1464,1464,1464,1458,1452,1452,1452,1445,1445,1445,1439,1439,1439,1433,1427,1427,1421,1421,1421,1421,1415,1415,1415,1415,1404,1404,1398,1398,1398,1392,1392,1392,1387,1387,1381,1381,1376,1376,1370,1370,1370,1365,1365,1359,1354,1354,1354,1354,1349,1349,1349,1349,1343,1338,1333,1333,1333,1328,1328,1328,1322,1317,1317,1312,1312,1312,1312,1307,1302,1302,1292,1292,1292,1292,1292,1288,1288,1288,1283,1278,1278,1278,1273,1268,1268,1264,1264,1259,1255,1255,1250,1250,1250,1250,1250,1245,1245,1241,1241,1236,1236,1232,1232,1227,1227,1223,1223,1219,1214,1214,1214,1210,1206,1206,1202,1202,1202,1197,1197,1197,1197,1193,1193,1189,1185,1185,1181,1181,1181,1181,1181,1177,1177,1173,1173,1169,1165,1165,1165,1165,1161,1161,1161,1157,1153,1153,1153,1149,1149,1149,1145,1145,1141,1138,1138,1138,1138,1134,1130,1130,1126,1126,1126,1126,1123,1123,1123,1119,1119,1115,1115,1112,1112,1108,1105,1105,1105,1105,1101,1097,1097,1094,1094,1094,1094,1094,0,0,0,0,0,0,0,0,0,0,0,0,0,0,0,0,0,0,0,0,0,0,0,0,0,0,0,0,0,0,0,0
0,0,0,0,0,0,0,0,0,0,0,0,1894,1883,1883,1883,1883,1883,1883,1883,1883,1883,1883,1883,0,0,0,0,0,0,0,0,0,0,964,964,964,964,964,964,964,964,964,964,964,860,858,851,851,849,847,845,841,841,841,839,835,835,835,835,835,835,835,835,835,835,837,835,835,835,835,835,835,833,833,833,827,827,827,827,829,829,831,831,831,829,827,825,825,825,823,823,823,825,823,821,821,821,819,819,819,819,825,831,831,831,831,831,829,827,825,823,823,821,817,817,817,817,817,817,817,817,817,819,819,819,819,819,819,819,819,817,817,817,817,817,817,817,817,817,817,817,817,817,815,815,815,813,811,811,811,809,809,809,811,811,811,811,811,811,811,809,809,809,807,807,807,807,807,807,805,805,807,807,809,811,811,811,811,809,807,807,807,807,807,805,805,805,805,803,803,803,803,803,803,803,803,803,802,802,802,802,802,802,802,802,802,803,802,802,802,802,802,802,802,800,800,802,802,802,802,802,802,802,803,803,807,809,809,809,811,813,813,815,817,817,819,819,821,821,825,829,831,833,835,835,835,847,856,856,856,858,858,858,860,860,862,867,869,869,871,873,873,875,875,878,880,880,882,885,887,887,889,891,894,894,896,898,898,901,906,906,908,908,910,913,915,918,918,920,923,923,923,925,925,928,930,933,933,935,935,964,964,962,962,959,959,959,959,959,959,959,959,959,959,959,964,964,964,967,970,973,975,975,978,975,973,973,0,0,0,0,0,0,1722,1713,1713,1713,1705,1705,1705,1705,1705,1705,1705,1696,1696,1696,1696,1696,1688,1680,1671,1671,1671,1663,1663,1663,1663,1655,1647,1647,1639,1639,1632,1632,1632,1624,1624,1616,1609,1609,1609,1609,1601,1601,1601,1601,1594,1586,1586,1579,1579,1572,1572,1572,1564,1557,1557,1550,1550,1550,1543,1543,1543,1543,1536,1536,1529,1529,1523,1523,1523,1516,1516,1509,1503,1503,1496,1496,1496,1489,1489,1489,1489,1483,1483,1477,1470,1470,1470,1470,1464,1464,1464,1458,1458,1452,1452,1452,1445,1445,1439,1439,1439,1433,1427,1427,1427,1421,1421,1421,1415,1415,1415,1415,1410,1404,1398,1398,1392,1392,1392,1392,1387,1387,1381,1381,1376,1376,1370,1370,1370,1370,1365,1365,1359,1354,1354,1354,1349,1349,1349,1349,1343,1338,1333,1333,1333,1333,1328,1328,1322,1317,1317,1317,1312,1312,1312,1307,1307,1302,1297,1292,1292,1292,1292,1288,1288,1288,1283,1278,1278,1278,1273,1268,1268,1264,1264,1259,1255,1255,1250,1250,1250,1250,1250,1245,1245,1241,1241,1236,1236,1232,1232,1227,1227,1223,1223,1219,1214,1214,1214,1214,1210,1210,1206,1206,1202,1202,1197,1197,1197,1193,1193,1189,1185,1185,1185,1181,1181,1181,1181,1177,1177,1173,1173,1169,1169,1165,1165,1165,1165,1161,1161,1157,1153,1153,1153,1149,1149,1149,1145,1145,1141,1141,1138,1138,1138,1134,1130,1130,1126,1126,1126,1126,1123,1123,1123,1119,1119,1115,1115,1112,1112,1108,1108,1105,1105,1105,1101,1101,1097,1094,1094,1094,1094,1094,0,0,0,0,0,0,0,0,0,0,0,0,0,0,0,0,0,0,0,0,0,0,0,0,0,0,0,0,0,0,0,0
0,0,0,0,0,0,0,0,0,0,0,0,1883,1883,1883,1883,1883,1883,1873,1873,1873,1873,1873,1873,1873,0,0,0,0,0,0,0,0,0,964,964,964,964,964,964,964,964,964,964,964,964,851,851,849,847,845,843,841,839,839,837,835,833,833,833,833,831,831,831,831,831,833,833,833,833,833,833,833,833,831,829,827,827,827,827,827,827,827,825,823,823,823,821,821,821,819,819,819,821,819,817,817,819,819,817,817,817,817,819,819,823,825,827,827,825,823,821,819,817,815,815,815,813,813,813,813,813,813,813,813,813,813,817,811,811,811,815,815,815,813,813,813,813,813,811,811,813,813,813,811,811,811,811,809,809,809,807,807,807,809,807,807,809,809,807,807,805,805,805,805,803,803,803,803,803,802,802,805,805,807,807,807,807,807,805,803,803,803,803,803,803,802,802,802,800,798,798,800,802,802,802,800,800,800,798,798,798,798,798,798,798,798,800,798,798,798,798,798,798,798,798,798,798,800,800,800,802,802,802,802,803,807,809,809,811,811,813,815,817,817,817,819,819,821,821,825,835,837,839,841,847,849,851,854,856,858,858,858,858,860,860,862,867,869,869,873,873,875,875,875,878,880,880,882,885,887,887,889,891,894,894,896,898,901,903,906,906,908,908,913,913,915,915,918,920,920,923,923,923,923,923,930,933,933,970,970,967,967,964,964,962,962,962,959,959,959,959,959,959,959,962,964,964,967,970,970,973,975,978,978,975,975,973,973,0,0,0,0,0,1722,1713,1705,1705,1705,1705,1696,1696,1705,1705,1696,1696,1696,1696,1696,1688,1688,1680,1671,1671,1671,1671,1663,1663,1663,1655,1647,1647,1639,1639,1632,1632,1632,1624,1624,1616,1609,1609,1609,1609,1601,1601,1601,1594,1594,1594,1586,1579,1579,1572,1572,1572,1564,1564,1557,1557,1550,1550,1550,1543,1543,1543,1536,1536,1536,1529,1529,1523,1523,1516,1516,1509,1509,1503,1496,1496,1496,1489,1489,1489,1489,1483,1483,1483,1470,1470,1470,1470,1464,1464,1464,1464,1458,1458,1452,1452,1445,1445,1445,1439,1439,1433,1427,1427,1421,1421,1421,1421,1421,1415,1415,1415,1410,1404,1398,1398,1392,1392,1392,1392,1387,1387,1381,1381,1376,1376,1370,1370,1370,1370,1365,1365,1359,1354,1354,1354,1354,1349,1349,1349,1343,1338,1338,1333,1333,1333,1328,1328,1322,1322,1317,1317,1312,1312,1312,1307,1307,1302,1297,1292,1292,1292,1292,1288,1288,1288,1283,1283,1283,1278,1273,1273,1268,1268,1264,1264,1255,1255,1255,1250,1250,1250,1250,1250,1245,1241,1241,1236,1236,1236,1232,1232,1227,1227,1223,1219,1219,1214,1214,1214,1214,1210,1210,1210,1206,1202,1202,1202,1197,1193,1193,1189,1185,1185,1185,1185,1181,1181,1181,1177,1177,1177,1173,1169,1169,1169,1165,1165,1165,1161,1161,1157,1153,1153,1153,1149,1149,1149,1145,1145,1141,1141,1138,1138,1138,1134,1134,1130,1126,1126,1126,1123,1123,1123,1123,1119,1119,1115,1115,1115,1112,1108,1108,1105,1105,1105,1101,1101,1097,1094,1094,1094,1094,1094,0,0,0,0,0,0,0,0,0,0,0,0,0,0,0,0,0,0,0,0,0,0,0,0,0,0,0,0,0,0,0,0
0,0,0,0,0,0,0,0,0,0,0,0,1883,1883,1873,1873,1873,1873,1873,1873,1873,1873,1873,1873,1873,0,0,0,0,0,0,0,0,0,0,964,964,967,967,964,964,964,964,964,964,964,851,851,849,845,843,841,839,839,835,833,831,831,831,831,831,829,829,829,829,829,827,827,829,829,831,831,829,829,827,827,825,825,823,823,823,821,821,819,819,819,819,819,819,817,817,817,815,815,815,815,815,815,817,817,817,817,817,817,817,815,815,817,823,817,817,817,815,815,815,813,813,813,811,811,811,811,811,811,811,813,811,811,809,809,809,809,811,811,811,809,809,809,807,807,803,803,807,807,807,807,807,809,807,807,805,803,803,803,803,803,802,802,803,803,802,802,802,802,803,802,800,800,802,800,800,800,800,800,802,802,802,803,803,800,800,800,802,802,800,800,798,798,796,796,796,796,798,798,798,798,798,796,796,796,796,796,796,796,796,796,796,794,794,796,796,796,796,796,796,796,796,798,798,800,800,802,802,802,802,805,807,809,809,811,813,813,815,817,817,817,819,821,821,823,827,839,841,843,847,849,851,854,854,856,858,858,858,860,860,862,864,867,869,871,873,873,875,875,878,878,882,882,885,885,887,887,889,891,894,894,896,898,901,903,906,906,908,908,913,913,915,915,915,920,920,920,920,923,923,923,0,0,0,970,970,967,967,967,964,964,964,962,962,959,959,959,959,959,962,964,964,964,967,970,973,973,975,978,978,975,975,973,973,0,0,0,0,0,0,1705,1705,1705,1696,1696,1696,1696,1696,1696,1696,1696,1696,1696,1688,1688,1680,1671,1671,1671,1671,1671,1663,1663,1663,1655,1655,1647,1647,1639,1639,1632,1632,1632,1624,1624,1616,1609,1609,1609,1601,1601,1601,1594,1594,1594,1586,1579,1579,1579,1572,1572,1572,1564,1564,1557,1557,1550,1550,1550,1543,1543,1543,1543,1536,1536,1529,1529,1523,1523,1516,1509,1509,1503,1503,1496,1496,1489,1489,1489,1489,1489,1483,1477,1470,1470,1470,1470,1464,1464,1464,1464,1464,1458,1452,1452,1452,1445,1445,1439,1439,1433,1427,1427,1421,1421,1421,1421,1421,1415,1415,1415,1410,1404,1404,1398,1398,1398,1392,1392,1392,1387,1387,1381,1376,1376,1370,1370,1370,1370,1365,1365,1359,1354,1354,1354,1354,1349,1349,1349,1343,1338,1338,1333,1333,1333,1328,1328,1322,1317,1317,1317,1312,1312,1307,1307,1307,1307,1302,1297,1297,1292,1292,1288,1288,1288,1283,1283,1283,1278,1273,1273,1268,1268,1268,1264,1259,1255,1255,1255,1250,1250,1250,1250,1245,1245,1241,1236,1236,1236,1232,1232,1232,1227,1223,1219,1219,1219,1214,1214,1214,1214,1210,1210,1210,1206,1202,1202,1197,1197,1197,1189,1185,1185,1185,1185,1181,1181,1181,1181,1177,1177,1173,1173,1169,1169,1165,1165,1165,1161,1161,1157,1153,1153,1153,1149,1149,1149,1145,1145,1141,1141,1138,1138,1138,1134,1134,1130,1126,1126,1123,1123,1123,1123,1119,1119,1119,1115,1115,1112,1112,1108,1108,1105,1105,1105,1105,1101,1101,1097,1094,1094,1094,1094,0,0,0,0,0,0,0,0,0,0,0,0,0,0,0,0,0,0,0,0,0,0,0,0,0,0,0,0,0,0,0,0
0,0,0,0,0,0,0,0,0,0,0,0,1873,1873,1873,1863,1863,1873,1873,1873,1873,1873,1873,1873,1873,0,0,0,0,0,0,0,0,0,0,975,970,967,967,964,964,964,964,964,962,962,962,847,847,845,843,841,839,837,835,833,829,829,829,829,827,827,825,823,823,821,821,821,821,821,823,823,823,823,823,823,821,821,819,819,817,817,817,815,815,817,817,817,815,815,813,813,811,811,811,811,811,813,815,813,813,815,815,815,815,813,813,811,811,811,809,809,811,811,811,811,811,811,811,809,809,809,809,809,809,809,805,805,807,807,807,805,805,807,807,807,807,807,805,803,802,802,802,803,803,803,803,805,805,805,803,802,802,802,802,798,798,798,798,800,800,800,800,800,800,800,798,798,800,798,798,798,798,800,796,796,796,796,796,798,798,798,798,798,798,798,796,796,796,796,794,794,796,796,796,794,794,794,794,794,794,792,792,794,794,792,792,790,790,792,792,792,792,794,794,796,796,796,798,798,800,800,802,802,803,803,805,807,809,811,815,815,817,819,819,819,821,821,821,825,829,841,843,843,847,849,851,854,856,856,858,858,860,860,860,862,864,867,869,871,873,873,875,875,878,880,882,885,885,887,887,887,889,891,894,896,896,898,901,906,906,908,908,908,913,913,913,915,915,918,918,918,918,923,0,0,923,0,0,0,973,973,973,967,964,964,964,964,962,962,959,959,959,962,962,964,964,967,967,970,973,973,975,978,978,975,975,975,978,0,0,0,0,0,0,1705,1705,1705,1696,1696,1696,1696,1696,1696,1696,1696,1696,1688,1688,1688,1680,1671,1671,1671,1671,1671,1663,1663,1663,1655,1655,1647,1647,1639,1639,1632,1632,1632,1632,1624,1616,1616,1609,1609,1609,1601,1601,1601,1594,1594,1586,1579,1579,1579,1572,1572,1572,1572,1564,1564,1557,1550,1550,1550,1543,1543,1543,1543,1536,1536,1529,1529,1523,1523,1516,1509,1509,1503,1503,1496,1496,1496,1496,1489,1489,1489,1483,1477,1470,1470,1470,1470,1464,1464,1464,1464,1464,1458,1458,1458,1452,1445,1445,1439,1439,1433,1427,1427,1421,1421,1421,1421,1421,1415,1415,1415,1410,1404,1404,1398,1398,1398,1392,1392,1392,1387,1387,1381,1381,1376,1370,1370,1370,1370,1370,1365,1359,1359,1354,1354,1354,1354,1349,1349,1343,1343,1338,1338,1333,1333,1328,1328,1322,1317,1317,1317,1312,1312,1307,1307,1307,1307,1302,1297,1297,1292,1292,1292,1288,1288,1283,1283,1283,1278,1273,1273,1268,1268,1268,1264,1259,1255,1255,1255,1250,1250,1250,1250,1245,1245,1241,1241,1236,1236,1236,1232,1232,1227,1227,1223,1219,1219,1214,1214,1214,1214,1210,1210,1210,1206,1206,1202,1202,1197,1197,1189,1185,1185,1185,1185,1181,1181,1181,1181,1177,1177,1173,1173,1169,1169,1169,1169,1165,1161,1161,1161,1157,1153,1153,1153,1149,1149,1145,1145,1145,1141,1138,1138,1138,1134,1134,1130,1126,1126,1123,1123,1123,1123,1119,1119,1119,1115,1115,1112,1112,1112,1108,1108,1105,1105,1105,1101,1101,1097,1097,1094,1094,1094,0,0,0,0,0,0,0,0,0,0,0,0,0,0,0,0,0,0,0,0,0,0,0,0,0,0,0,0,0,0,0,0
0,0,0,0,0,0,0,0,0,0,0,0,1873,1863,1863,1863,1863,1863,1863,1863,1863,1863,1873,1843,1843,0,0,0,0,0,0,0,0,0,0,978,970,970,970,967,967,964,964,964,962,962,962,847,847,845,843,841,839,837,835,829,829,829,827,827,825,825,823,819,819,817,817,819,817,817,815,815,815,811,811,811,813,815,815,813,813,813,813,813,813,813,815,815,813,813,811,811,809,809,807,807,809,809,811,811,811,813,811,811,811,809,807,807,807,807,807,807,805,805,805,807,809,809,807,807,807,807,807,807,807,803,803,803,803,803,803,802,802,803,803,803,802,802,802,802,800,800,800,798,798,798,798,800,800,800,800,800,800,796,796,794,794,794,794,796,796,796,796,798,798,798,796,796,796,794,794,796,796,796,794,794,792,792,792,792,792,792,792,796,796,794,794,794,794,794,792,792,792,792,792,792,792,792,792,792,792,790,790,792,792,790,790,789,789,790,790,790,790,790,792,794,794,796,796,798,800,800,802,802,802,803,805,807,809,811,815,817,819,819,821,821,831,831,835,839,841,841,843,845,847,849,851,851,856,856,858,858,860,860,860,862,867,867,869,871,873,873,875,878,878,880,882,885,887,887,887,887,889,894,894,896,898,898,901,906,906,908,908,908,910,913,913,913,913,918,918,918,918,0,0,0,0,0,0,975,975,975,975,973,970,967,967,964,964,962,962,962,962,962,962,964,964,967,967,970,973,975,975,978,978,978,978,978,978,0,0,0,0,0,0,1705,1705,1696,1696,1696,1696,1696,1696,1696,1696,1696,1696,1688,1688,1688,1671,1671,1671,1671,1671,1671,1671,1663,1663,1655,1655,1647,1647,1639,1639,1639,1632,1632,1632,1624,1624,1616,1616,1609,1609,1601,1601,1601,1594,1594,1586,1579,1579,1579,1579,1572,1572,1572,1564,1564,1557,1557,1550,1550,1550,1543,1543,1543,1536,1536,1529,1529,1523,1523,1516,1509,1509,1503,1503,1496,1496,1496,1489,1489,1489,1489,1483,1477,1477,1470,1470,1470,1464,1464,1464,1464,1464,1458,1458,1458,1452,1445,1445,1439,1439,1433,1427,1427,1421,1421,1421,1421,1421,1421,1415,1415,1410,1404,1404,1398,1398,1398,1392,1392,1392,1387,1387,1381,1381,1376,1370,1370,1370,1370,1365,1365,1359,1359,1354,1354,1354,1354,1349,1349,1343,1343,1338,1338,1333,1333,1328,1328,1322,1317,1317,1317,1312,1312,1312,1312,1307,1307,1302,1302,1297,1297,1292,1292,1288,1288,1288,1283,1283,1278,1273,1273,1273,1268,1268,1264,1264,1259,1255,1255,1255,1255,1250,1250,1250,1245,1241,1241,1236,1236,1236,1232,1232,1232,1227,1223,1223,1219,1214,1214,1214,1214,1214,1210,1210,1206,1206,1202,1202,1197,1197,1189,1189,1185,1185,1185,1185,1181,1181,1181,1181,1177,1177,1173,1173,1169,1169,1165,1165,1161,1161,1161,1157,1153,1153,1153,1149,1149,1149,1145,1145,1141,1141,1138,1138,1134,1134,1130,1130,1126,1123,1123,1123,1123,1119,1119,1119,1115,1115,1115,1112,1112,1108,1108,1105,1105,1105,1105,1101,1097,1097,1094,1094,1094,0,0,0,0,0,0,0,0,0,0,0,0,0,0,0,0,0,0,0,0,0,0,0,0,0,0,0,0,0,0,0,0
0,0,0,0,0,0,0,0,0,0,0,0,1863,1863,1853,1853,1853,1853,1853,1853,1853,1853,1843,1833,1833,1833,0,0,0,0,0,0,0,0,0,978,978,975,975,973,970,970,967,964,964,964,964,847,847,845,843,841,839,837,835,829,829,829,827,827,825,821,817,815,815,815,815,815,813,813,813,813,813,811,811,811,811,813,811,811,809,809,811,809,809,811,813,813,811,809,809,809,807,805,805,805,807,807,807,807,807,807,805,805,809,807,805,805,805,805,805,803,803,803,803,803,803,803,805,805,805,803,803,803,802,800,800,800,800,800,802,800,800,800,802,798,798,798,800,796,796,796,796,796,796,796,796,796,796,796,796,796,796,794,794,794,794,792,792,794,794,794,794,794,794,792,792,792,792,792,790,790,790,790,790,790,789,789,787,787,787,789,789,787,787,789,792,790,790,790,790,790,789,789,789,789,789,789,789,789,789,787,787,787,787,789,789,789,789,789,789,789,789,789,790,792,794,796,796,798,800,800,802,802,802,803,805,809,809,813,819,819,819,821,827,831,833,835,839,841,841,843,843,845,847,849,851,851,856,856,858,858,860,860,860,864,867,867,869,873,873,873,875,878,880,882,885,885,887,887,887,889,891,894,894,896,898,901,901,906,906,908,908,910,910,910,913,913,913,918,918,918,918,0,0,0,0,0,0,975,975,975,975,975,973,970,970,970,967,967,964,962,962,964,964,964,964,967,967,970,973,975,975,978,978,978,978,981,981,0,0,0,0,0,0,1696,1696,1696,1696,1696,1688,1688,1688,1688,1688,1688,1688,1688,1688,1680,1671,1671,1671,1671,1663,1663,1663,1663,1663,1655,1655,1647,1647,1639,1639,1639,1639,1632,1632,1632,1624,1616,1616,1616,1609,1609,1601,1601,1601,1594,1586,1579,1579,1579,1579,1572,1572,1572,1572,1564,1557,1557,1550,1550,1550,1543,1543,1543,1536,1536,1536,1529,1523,1523,1516,1516,1509,1503,1503,1503,1496,1496,1489,1489,1489,1483,1483,1477,1477,1470,1470,1470,1464,1464,1464,1464,1464,1458,1458,1458,1452,1445,1445,1439,1439,1433,1427,1427,1421,1421,1421,1421,1421,1421,1415,1415,1410,1404,1404,1398,1398,1398,1392,1392,1392,1387,1387,1381,1381,1376,1370,1370,1370,1370,1365,1365,1359,1359,1354,1354,1354,1354,1349,1349,1349,1343,1338,1338,1338,1333,1328,1328,1322,1317,1317,1317,1312,1312,1312,1312,1307,1307,1307,1302,1297,1297,1292,1292,1288,1288,1288,1283,1283,1278,1273,1273,1273,1268,1268,1268,1264,1259,1255,1255,1255,1255,1250,1250,1245,1245,1241,1241,1236,1236,1236,1232,1232,1232,1227,1227,1223,1219,1219,1214,1214,1214,1214,1214,1210,1206,1206,1202,1202,1197,1197,1189,1189,1185,1185,1185,1185,1185,1181,1181,1181,1181,1177,1173,1173,1169,1169,1165,1165,1165,1161,1161,1157,1157,1153,1153,1149,1149,1149,1145,1145,1141,1141,1138,1138,1138,1134,1130,1130,1126,1126,1123,1123,1123,1119,1119,1119,1115,1115,1115,1112,1112,1108,1108,1108,1105,1105,1105,1101,1101,1097,1097,1094,1094,0,0,0,0,0,0,0,0,0,0,0,0,0,0,0,0,0,0,0,0,0,0,0,0,0,0,0,0,0,0,0,0
0,0,0,0,0,0,0,0,0,0,0,0,1853,1853,1843,1843,1843,1853,1853,1843,1843,1843,1843,1833,1833,1823,1823,0,0,0,0,0,0,0,0,981,978,975,975,973,970,970,967,964,964,964,964,845,845,845,843,841,837,835,835,829,829,827,827,825,821,817,813,813,811,811,811,811,809,809,807,807,809,809,809,809,809,809,809,807,807,807,807,807,805,805,805,807,807,805,805,807,805,805,803,803,803,803,803,803,803,803,802,802,803,805,803,803,803,803,803,802,802,800,796,796,798,798,800,798,798,798,798,800,798,796,796,796,796,796,796,796,796,796,794,794,794,792,792,794,794,794,794,794,794,794,794,794,794,792,790,790,789,789,789,789,790,790,790,789,789,789,790,790,790,790,790,789,789,789,789,789,787,785,783,783,785,783,783,783,783,783,783,783,783,783,785,785,785,785,787,787,787,787,785,785,785,785,785,785,785,785,783,783,783,785,787,787,787,787,789,789,789,789,789,790,792,794,796,798,800,800,802,802,802,803,805,809,811,819,823,823,823,827,831,831,833,835,839,841,843,843,843,847,849,849,851,854,854,856,858,858,860,860,862,864,867,869,871,873,875,875,878,878,880,882,885,885,887,887,889,889,891,894,896,898,898,898,901,906,906,908,908,910,910,910,910,910,1688,1688,0,1696,0,0,0,0,0,0,0,975,975,978,978,975,973,970,970,970,970,967,967,964,964,964,964,964,967,967,967,970,973,975,978,978,978,978,978,981,981,0,0,0,0,0,1696,1696,1696,1688,1688,1688,1688,1688,1688,1688,1688,1688,1680,1680,1680,1680,1671,1671,1671,1663,1663,1663,1663,1655,1655,1655,1655,1655,1647,1639,1639,1639,1639,1639,1632,1632,1624,1624,1616,1616,1609,1609,1601,1601,1601,1594,1586,1586,1579,1579,1579,1579,1572,1572,1572,1564,1564,1557,1550,1550,1550,1543,1543,1543,1543,1536,1536,1529,1523,1523,1516,1516,1509,1509,1503,1503,1496,1496,1489,1489,1489,1483,1483,1477,1477,1470,1470,1470,1470,1470,1464,1464,1464,1464,1458,1458,1445,1445,1445,1439,1439,1433,1433,1427,1421,1421,1421,1421,1421,1421,1415,1415,1410,1404,1404,1398,1398,1398,1392,1392,1392,1387,1387,1381,1376,1376,1376,1370,1370,1370,1370,1365,1359,1359,1354,1354,1354,1354,1354,1349,1349,1343,1343,1338,1338,1333,1328,1328,1322,1317,1317,1317,1312,1312,1312,1312,1307,1307,1307,1302,1302,1297,1297,1292,1292,1288,1288,1288,1283,1278,1273,1273,1273,1268,1268,1268,1264,1259,1259,1255,1255,1255,1250,1250,1245,1241,1241,1241,1236,1236,1236,1236,1232,1232,1227,1227,1223,1223,1219,1219,1214,1214,1214,1214,1210,1206,1206,1202,1202,1197,1197,1193,1189,1185,1185,1185,1185,1185,1181,1181,1181,1181,1181,1177,1173,1169,1169,1165,1165,1165,1165,1161,1157,1157,1153,1153,1153,1149,1149,1145,1145,1141,1141,1138,1138,1138,1134,1134,1130,1130,1126,1123,1123,1123,1119,1119,1119,1115,1115,1115,1112,1112,1108,1108,1108,1105,1105,1105,1101,1101,1097,1097,1094,1094,0,0,0,0,0,0,0,0,0,0,0,0,0,0,0,0,0,0,0,0,0,0,0,0,0,0,0,0,0,0,0,0
0,0,0,0,0,0,0,0,0,0,0,0,1843,1843,1843,1843,1843,1843,1843,1843,1843,1843,1833,1833,1823,1823,1823,1823,0,0,0,0,0,0,0,984,981,978,975,975,975,973,970,964,964,964,964,0,933,933,841,841,835,835,829,827,827,827,825,823,817,815,813,811,809,809,807,807,805,805,805,805,807,805,805,805,805,807,807,805,805,805,803,803,802,802,802,802,802,803,803,803,803,803,802,802,802,802,800,800,800,800,798,798,798,798,802,802,800,800,802,800,800,796,792,792,794,794,796,794,794,794,796,794,794,792,792,794,794,794,794,794,794,794,792,792,792,790,790,790,790,789,789,789,789,789,792,790,789,785,785,785,785,785,785,785,787,789,789,787,787,789,789,789,787,787,787,783,783,781,781,783,781,781,781,781,781,780,780,780,780,781,781,781,781,781,781,781,781,780,780,780,781,781,783,783,783,781,781,781,781,781,781,781,781,783,785,785,787,787,787,787,789,789,789,790,792,794,796,798,800,800,802,802,803,805,809,809,821,821,823,825,827,831,833,833,835,835,839,841,843,843,845,847,849,849,851,854,854,856,858,858,860,860,862,864,867,869,871,873,875,875,878,878,880,882,885,885,887,887,889,891,894,894,896,898,898,898,903,906,906,908,908,910,910,910,910,1680,1688,1688,1688,1696,1713,1705,1705,0,0,0,0,0,978,978,978,978,975,975,975,973,970,970,967,967,967,967,967,967,967,967,970,973,973,975,978,978,981,981,981,981,984,0,0,0,0,0,1688,1688,1688,1680,1680,1680,1680,1680,1680,1680,1680,1680,1671,1671,1671,1671,1663,1663,1663,1663,1663,1663,1663,1655,1655,1655,1647,1647,1647,1647,1639,1639,1639,1639,1632,1632,1624,1624,1624,1616,1609,1609,1601,1601,1601,1594,1586,1586,1586,1579,1579,1579,1572,1572,1572,1564,1564,1557,1550,1550,1550,1550,1543,1543,1543,1536,1536,1529,1523,1523,1516,1516,1516,1509,1503,1503,1496,1496,1496,1489,1489,1489,1483,1483,1477,1470,1470,1470,1470,1470,1470,1464,1464,1464,1458,1458,1445,1445,1445,1439,1439,1433,1433,1427,1421,1421,1421,1421,1421,1421,1415,1415,1410,1404,1404,1398,1398,1398,1392,1392,1392,1387,1381,1381,1376,1376,1376,1370,1370,1370,1370,1365,1365,1359,1359,1354,1354,1354,1354,1349,1349,1343,1343,1338,1338,1333,1328,1328,1322,1317,1317,1317,1312,1312,1312,1312,1307,1307,1307,1307,1302,1297,1297,1292,1292,1288,1288,1288,1283,1278,1273,1273,1273,1268,1268,1268,1264,1264,1259,1255,1255,1255,1255,1250,1245,1241,1241,1241,1241,1236,1236,1236,1232,1232,1232,1227,1227,1223,1219,1219,1219,1214,1214,1214,1210,1206,1206,1202,1202,1202,1197,1197,1189,1185,1185,1185,1185,1185,1185,1181,1181,1181,1181,1177,1177,1173,1169,1169,1165,1165,1165,1165,1161,1157,1153,1153,1153,1149,1149,1149,1145,1145,1141,1141,1138,1138,1134,1134,1130,1130,1126,1126,1123,1123,1123,1119,1119,1119,1119,1115,1115,1112,1108,1108,1108,1108,1105,1105,1105,1105,1101,1097,1097,1097,0,0,0,0,0,0,0,0,0,0,0,0,0,0,0,0,0,0,0,0,0,0,0,0,0,0,0,0,0,0,0,0
0,0,0,0,0,0,0,0,0,0,0,0,1833,1833,1843,1833,1833,1843,1843,1843,1843,1833,1833,1823,1823,1823,1813,1813,1813,0,0,0,0,0,0,987,981,978,978,975,975,973,970,967,964,964,964,0,0,933,933,933,835,833,829,827,827,827,825,823,813,811,811,807,807,805,803,803,802,802,802,802,803,803,803,803,803,803,803,803,802,802,800,800,800,796,796,796,798,800,800,798,798,800,800,800,800,800,798,798,796,796,796,796,796,796,798,800,798,798,800,800,794,792,790,789,789,789,790,790,790,790,792,792,792,790,790,789,789,789,789,790,790,790,790,789,789,789,789,789,787,787,789,789,789,789,790,787,785,783,783,783,783,783,783,783,783,785,785,783,783,783,785,783,783,781,781,781,781,781,781,781,780,780,780,780,778,778,778,778,778,780,780,780,780,780,778,778,776,776,776,776,776,776,776,778,778,780,780,780,780,780,780,780,780,781,783,785,785,787,787,787,789,789,789,790,792,796,796,798,800,800,802,803,805,815,815,819,823,823,825,827,829,833,833,833,835,837,839,841,843,843,845,847,849,851,851,854,856,856,858,860,860,862,864,867,869,869,871,873,875,875,878,880,880,885,885,887,887,889,889,891,894,894,896,898,898,898,901,903,906,908,908,913,913,913,1671,1680,1680,1680,1680,1688,1688,1688,1688,0,0,0,0,0,978,978,978,978,975,975,975,975,973,970,970,967,967,967,967,967,967,970,970,973,973,975,978,978,981,981,981,981,984,989,0,0,0,0,1688,1671,1671,1671,1671,1671,1671,1671,1671,1671,1671,1671,1671,1671,1671,1663,1663,1663,1663,1663,1663,1655,1655,1647,1647,1647,1647,1647,1639,1639,1639,1639,1639,1632,1632,1632,1632,1624,1624,1616,1616,1609,1609,1601,1601,1594,1594,1586,1586,1579,1579,1579,1579,1572,1572,1564,1564,1557,1557,1550,1550,1550,1550,1543,1543,1536,1536,1529,1523,1523,1523,1516,1516,1509,1509,1503,1503,1496,1496,1496,1489,1489,1483,1483,1477,1477,1470,1470,1470,1470,1470,1464,1464,1464,1458,1458,1445,1445,1445,1439,1439,1433,1433,1427,1427,1421,1421,1421,1421,1421,1415,1415,1410,1404,1404,1398,1398,1398,1392,1392,1392,1387,1381,1381,1376,1376,1376,1370,1370,1370,1370,1370,1365,1365,1359,1359,1354,1354,1354,1349,1349,1349,1343,1338,1338,1333,1328,1328,1322,1322,1317,1317,1317,1312,1312,1312,1307,1307,1307,1302,1302,1297,1297,1297,1292,1288,1288,1288,1283,1278,1278,1273,1273,1268,1268,1268,1268,1264,1264,1259,1255,1255,1255,1250,1245,1245,1241,1241,1241,1236,1236,1236,1236,1232,1232,1232,1227,1223,1219,1219,1219,1214,1214,1214,1210,1210,1206,1202,1202,1202,1197,1193,1189,1189,1185,1185,1185,1185,1185,1181,1181,1181,1181,1177,1177,1173,1169,1169,1169,1165,1165,1165,1161,1161,1157,1153,1153,1153,1149,1149,1149,1145,1145,1141,1141,1138,1138,1134,1134,1130,1126,1126,1123,1123,1123,1123,1119,1119,1119,1119,1115,1112,1108,1108,1108,1108,1105,1105,1105,1105,1101,1101,1097,1097,0,0,0,0,0,0,0,0,0,0,0,0,0,0,0,0,0,0,0,0,0,0,0,0,0,0,0,0,0,0,0,0
0,0,0,0,0,0,0,0,0,0,0,0,1833,1833,1833,1833,1833,1833,1833,1843,1833,1833,1833,1823,1823,1813,1813,1804,1804,0,0,0,0,0,0,987,981,978,978,975,975,973,970,967,967,967,967,970,970,933,933,930,928,833,829,827,827,827,825,821,813,811,807,805,803,803,802,802,802,802,802,802,802,802,802,802,802,800,800,800,798,798,798,798,798,796,794,794,796,796,796,796,796,796,796,796,796,796,796,796,794,792,792,794,792,792,792,794,794,794,794,789,789,789,787,787,785,785,787,787,789,789,789,787,787,789,789,787,787,785,785,785,785,785,787,787,787,787,787,787,783,783,783,781,781,781,783,783,781,781,780,780,780,780,780,780,781,781,783,781,780,780,781,780,778,778,778,780,780,778,778,778,778,776,774,774,776,776,776,776,776,778,778,778,778,778,776,776,774,774,774,774,774,774,774,774,774,774,774,776,776,778,778,780,780,780,781,783,785,785,787,787,789,789,789,790,794,796,796,798,800,802,803,803,807,817,817,823,825,825,827,829,831,833,833,835,835,839,839,841,843,843,845,847,849,851,851,854,856,858,860,860,862,864,867,867,869,871,873,873,875,875,878,880,880,882,885,887,887,889,891,894,894,894,896,896,896,896,901,903,908,908,908,1671,1671,1671,1671,1680,1680,1680,1680,1680,1680,1671,1671,0,0,0,0,0,0,978,978,978,975,975,975,975,973,970,970,970,967,967,967,967,967,970,970,973,975,978,978,981,981,981,981,984,987,989,0,0,0,0,0,1663,1663,1663,1663,1671,1671,1671,1671,1663,1663,1663,1663,1663,1663,1663,1655,1655,1655,1655,1655,1655,1647,1647,1647,1647,1647,1647,1639,1639,1639,1639,1639,1632,1632,1632,1632,1624,1624,1616,1616,1609,1609,1601,1601,1594,1594,1586,1586,1579,1579,1579,1579,1579,1572,1572,1564,1557,1557,1550,1550,1550,1550,1543,1543,1536,1536,1529,1523,1523,1523,1516,1516,1516,1509,1509,1503,1503,1496,1496,1489,1489,1483,1483,1483,1477,1477,1470,1470,1470,1470,1464,1464,1464,1458,1452,1445,1445,1445,1439,1439,1433,1433,1427,1427,1427,1421,1421,1421,1421,1415,1415,1410,1404,1404,1398,1398,1398,1398,1392,1392,1392,1381,1381,1376,1376,1376,1376,1376,1370,1370,1370,1370,1365,1365,1359,1354,1354,1354,1349,1349,1349,1343,1338,1338,1333,1333,1328,1328,1322,1322,1317,1317,1312,1312,1312,1307,1307,1307,1302,1302,1297,1297,1297,1292,1292,1288,1288,1283,1278,1278,1273,1273,1273,1273,1268,1268,1264,1264,1259,1255,1255,1255,1250,1245,1245,1241,1241,1241,1236,1236,1236,1236,1232,1232,1232,1227,1223,1219,1219,1219,1214,1214,1214,1210,1210,1206,1202,1202,1202,1197,1189,1189,1185,1185,1185,1185,1185,1185,1181,1181,1181,1181,1181,1177,1177,1169,1169,1169,1169,1165,1165,1161,1161,1157,1157,1153,1153,1149,1149,1149,1145,1145,1141,1141,1138,1138,1134,1134,1134,1130,1126,1126,1126,1123,1123,1123,1119,1119,1119,1115,1112,1108,1108,1108,1108,1108,1105,1105,1105,1101,1101,1097,1097,0,0,0,0,0,0,0,0,0,0,0,0,0,0,0,0,0,0,0,0,0,0,0,0,0,0,0,0,0,0,0,0
0,0,0,0,0,0,0,0,0,0,0,0,1823,1823,1833,1833,1833,1833,1833,1833,1833,1813,1813,1813,1813,1813,1804,1804,1804,0,0,0,0,0,0,987,984,978,978,978,978,975,973,970,970,970,970,970,970,930,930,928,928,928,829,827,827,827,823,821,815,813,803,803,802,800,800,798,798,798,798,798,800,800,798,796,796,796,796,796,796,794,794,796,796,794,794,794,794,794,794,794,794,796,794,794,792,792,792,790,790,790,790,790,790,789,789,789,790,789,787,785,785,787,787,787,783,783,785,785,787,783,783,785,785,785,785,785,783,783,781,781,781,780,780,781,781,781,783,785,781,781,781,781,781,781,780,780,780,778,778,778,778,778,778,778,778,778,780,778,776,776,778,776,776,774,774,776,776,776,776,776,776,774,774,774,774,773,773,773,773,774,774,774,773,773,771,771,773,773,773,773,773,773,773,773,774,774,774,774,774,776,776,778,780,780,781,783,785,785,787,787,789,789,789,790,794,796,798,800,802,803,805,809,819,821,821,825,825,827,827,829,831,833,833,835,837,839,841,841,843,843,847,849,849,851,851,856,856,858,860,860,862,864,867,867,869,871,873,875,875,878,878,880,880,882,885,887,887,889,891,891,894,894,896,896,896,896,896,896,1663,1663,1688,1671,1671,1671,1671,1680,1680,1680,1680,1680,1671,1671,1671,0,0,0,0,0,0,0,978,978,978,975,975,975,973,973,970,970,970,967,967,967,970,970,973,973,975,978,978,981,981,984,984,987,989,989,0,0,0,0,0,1663,1663,1663,1663,1655,1655,1655,1655,1663,1655,1655,1647,1647,1647,1647,1647,1647,1647,1647,1647,1647,1647,1639,1639,1639,1639,1639,1639,1632,1632,1639,1632,1632,1632,1632,1624,1624,1624,1616,1609,1609,1609,1601,1601,1594,1594,1586,1586,1586,1579,1579,1579,1579,1572,1572,1564,1564,1557,1557,1550,1550,1550,1543,1543,1536,1536,1529,1523,1523,1523,1523,1516,1516,1509,1509,1509,1503,1496,1496,1489,1489,1489,1489,1483,1483,1477,1470,1470,1470,1470,1464,1464,1464,1458,1452,1445,1445,1445,1439,1439,1439,1433,1433,1427,1427,1421,1421,1421,1421,1415,1415,1410,1404,1404,1398,1398,1398,1398,1392,1392,1392,1387,1381,1381,1376,1376,1376,1376,1376,1370,1370,1370,1370,1365,1359,1359,1354,1354,1349,1349,1349,1343,1338,1338,1333,1333,1328,1328,1322,1322,1322,1317,1312,1312,1312,1312,1307,1307,1307,1302,1302,1297,1297,1292,1292,1288,1288,1283,1278,1278,1273,1273,1273,1273,1268,1268,1268,1264,1259,1259,1255,1255,1250,1250,1245,1241,1241,1241,1241,1236,1236,1236,1232,1232,1232,1227,1223,1219,1219,1219,1214,1214,1214,1214,1210,1206,1202,1202,1202,1197,1189,1189,1185,1185,1185,1185,1185,1185,1181,1181,1181,1181,1181,1177,1177,1173,1169,1169,1169,1165,1165,1165,1161,1161,1157,1153,1153,1149,1149,1149,1145,1145,1141,1141,1141,1138,1138,1138,1134,1134,1130,1130,1126,1126,1123,1123,1119,1119,1119,1115,1112,1112,1108,1108,1108,1108,1105,1105,1105,1105,1101,1097,1097,0,0,0,0,0,0,0,0,0,0,0,0,0,0,0,0,0,0,0,0,0,0,0,0,0,0,0,0,0,0,0,0
0,0,0,0,0,0,0,0,0,0,0,0,1813,1813,1813,1823,1823,1823,1823,1823,1813,1813,1813,1804,1804,1804,1804,1804,1804,1813,0,0,0,0,0,987,984,981,978,978,978,975,973,973,973,970,970,970,975,930,930,928,928,928,829,829,827,825,823,821,817,805,803,802,802,800,798,796,796,796,796,796,794,794,794,792,792,790,790,792,792,792,794,794,792,792,790,790,792,792,790,790,792,792,789,789,789,789,789,787,787,787,787,789,789,785,785,787,787,785,785,783,783,785,785,785,783,783,781,781,781,780,780,780,780,780,780,780,780,776,774,774,776,776,776,778,778,778,778,778,776,776,780,780,780,780,778,778,778,776,776,776,776,776,776,774,774,774,776,776,774,774,776,774,774,774,774,774,774,774,774,774,774,774,773,773,771,771,771,769,769,767,767,767,767,767,767,767,769,771,771,771,771,771,773,773,773,773,773,774,774,776,776,778,780,780,781,781,783,785,787,787,789,789,789,792,794,798,800,802,805,807,811,817,819,821,823,825,825,827,827,829,831,833,833,835,837,839,841,841,843,845,847,849,851,851,854,856,858,858,860,860,864,867,867,869,869,873,873,875,875,878,878,880,882,882,885,885,887,887,889,891,894,894,894,894,896,896,896,0,1663,1663,1688,1688,1671,1671,1688,1671,1671,1671,1671,1671,1671,1663,1663,1663,0,0,0,0,0,0,981,978,978,975,975,978,975,973,973,970,970,970,967,967,970,970,973,973,975,978,981,981,984,987,987,987,989,989,0,0,0,0,0,1655,1655,1655,1655,1655,1655,1647,1647,1647,1639,1639,1639,1639,1639,1647,1647,1647,1647,1639,1639,1639,1639,1639,1639,1639,1639,1639,1632,1632,1632,1632,1632,1632,1632,1624,1624,1624,1624,1616,1609,1609,1609,1601,1601,1594,1594,1594,1586,1586,1579,1579,1579,1579,1572,1572,1564,1564,1557,1557,1550,1550,1550,1543,1543,1543,1536,1536,1529,1523,1523,1523,1516,1516,1516,1509,1509,1503,1503,1496,1496,1489,1489,1489,1483,1483,1477,1477,1470,1470,1470,1470,1464,1464,1458,1452,1445,1445,1445,1439,1439,1439,1433,1433,1427,1427,1421,1421,1421,1421,1415,1415,1415,1410,1404,1404,1398,1398,1398,1398,1392,1392,1387,1381,1381,1376,1376,1376,1376,1376,1370,1370,1370,1370,1365,1365,1359,1354,1354,1349,1349,1349,1343,1343,1338,1333,1333,1328,1328,1328,1322,1322,1317,1317,1312,1312,1312,1307,1307,1307,1302,1302,1297,1297,1292,1292,1292,1288,1283,1283,1278,1273,1273,1273,1273,1273,1268,1268,1264,1264,1259,1255,1255,1250,1250,1245,1245,1245,1241,1241,1236,1236,1236,1232,1232,1232,1232,1227,1223,1219,1219,1214,1214,1214,1214,1210,1206,1202,1202,1202,1197,1193,1189,1189,1189,1185,1185,1185,1185,1185,1181,1181,1181,1181,1177,1177,1169,1169,1169,1169,1165,1165,1165,1161,1161,1161,1157,1153,1153,1149,1149,1145,1145,1141,1141,1141,1138,1138,1138,1134,1134,1134,1134,1130,1126,1126,1123,1123,1119,1119,1115,1112,1112,1108,1108,1108,1108,1105,1105,1105,1105,1101,1101,1101,0,0,0,0,0,0,0,0,0,0,0,0,0,0,0,0,0,0,0,0,0,0,0,0,0,0,0,0,0,0,0,0
0,0,0,0,0,0,0,0,0,0,0,0,1804,1794,1794,1804,1804,1813,1804,1804,1804,1804,1804,1804,1804,1804,1804,1804,1804,1804,0,0,0,0,0,0,0,978,978,978,978,975,975,973,973,973,973,973,975,984,984,989,925,925,925,829,827,823,821,819,819,805,803,802,800,798,798,796,794,794,794,792,790,789,789,789,789,789,789,789,789,790,790,790,789,789,787,787,789,787,787,787,787,789,783,783,783,785,783,783,783,783,783,785,785,783,783,781,781,781,781,781,781,781,783,783,781,781,781,781,780,780,778,778,778,776,776,774,773,773,773,773,773,773,773,773,773,773,774,776,774,773,773,774,773,773,774,774,776,774,774,774,774,774,773,773,771,771,773,773,773,771,771,771,771,771,771,771,773,773,773,773,773,773,771,769,767,767,767,767,766,766,766,766,766,766,766,767,767,769,769,769,771,771,771,771,773,773,773,774,774,774,776,776,780,780,781,781,783,785,787,787,789,789,790,794,796,802,803,805,809,811,815,819,821,823,823,825,825,827,827,831,831,833,835,835,837,839,841,843,843,845,847,849,851,851,854,856,858,860,860,862,864,867,867,869,869,873,873,875,875,878,878,878,880,882,885,885,887,887,889,891,894,894,894,894,896,896,1663,1663,1663,1663,1663,1663,1663,1663,1663,1663,1663,1663,1663,1663,1663,1663,1655,1655,0,0,0,0,0,0,981,978,978,978,978,978,975,973,973,970,970,970,970,970,970,973,973,975,978,978,981,981,984,987,987,987,989,989,992,0,0,0,0,1655,1655,1655,1647,1647,1647,1647,1647,1639,1632,1632,1632,1632,1632,1639,1639,1639,1639,1639,1639,1639,1639,1632,1632,1632,1632,1632,1632,1632,1624,1624,1632,1632,1624,1624,1624,1624,1616,1616,1609,1609,1609,1601,1601,1594,1594,1594,1586,1586,1579,1579,1579,1579,1572,1572,1564,1564,1557,1557,1557,1550,1550,1543,1543,1543,1536,1536,1529,1523,1523,1523,1523,1516,1516,1509,1509,1509,1503,1496,1496,1489,1489,1489,1489,1483,1483,1477,1477,1470,1470,1470,1464,1464,1464,1452,1445,1445,1445,1439,1439,1439,1439,1433,1433,1427,1427,1421,1421,1421,1415,1415,1415,1410,1410,1404,1404,1398,1398,1398,1392,1392,1387,1381,1381,1381,1376,1376,1376,1376,1370,1370,1370,1370,1365,1365,1359,1354,1354,1349,1349,1349,1343,1343,1338,1333,1333,1333,1328,1328,1328,1328,1317,1317,1312,1312,1312,1307,1307,1307,1307,1302,1297,1297,1297,1292,1292,1288,1288,1283,1278,1278,1278,1273,1273,1273,1273,1268,1268,1264,1259,1255,1255,1255,1250,1245,1245,1245,1241,1241,1236,1236,1236,1232,1232,1232,1232,1227,1223,1219,1219,1219,1214,1214,1214,1210,1206,1202,1202,1202,1197,1193,1189,1189,1189,1189,1185,1185,1185,1185,1185,1181,1181,1181,1181,1177,1169,1169,1169,1169,1165,1165,1165,1161,1161,1161,1157,1153,1153,1149,1149,1149,1145,1145,1141,1141,1138,1138,1138,1138,1134,1134,1134,1130,1126,1126,1123,1123,1119,1119,1115,1115,1112,1112,1112,1108,1108,1108,1105,1105,1105,1105,1101,1101,0,0,0,0,0,0,0,0,0,0,0,0,0,0,0,0,0,0,0,0,0,0,0,0,0,0,0,0,0,0,0,0
0,0,0,0,0,0,0,0,0,0,0,0,1794,1794,1794,1794,1794,1794,1785,1785,1794,1794,1794,1794,1794,1794,1794,1794,1794,1794,0,0,0,0,0,0,0,978,978,978,978,975,975,975,975,975,975,975,975,984,984,925,925,925,923,923,920,823,819,819,819,805,803,802,800,798,796,794,794,792,792,790,787,785,785,785,785,785,785,785,785,787,789,789,787,785,785,785,785,783,783,783,783,781,781,781,781,781,781,781,781,781,781,781,781,780,780,780,776,776,778,778,778,780,780,781,780,780,778,776,776,776,776,774,774,774,773,773,773,773,771,771,771,771,771,771,771,771,771,773,773,769,769,769,769,769,769,769,769,769,773,773,773,773,771,771,769,769,769,769,769,769,769,767,767,769,769,769,769,773,771,771,771,771,767,766,764,764,764,764,764,764,764,764,764,764,764,764,766,766,767,767,769,769,771,771,771,773,773,774,774,774,776,776,780,780,781,783,785,785,787,787,790,792,794,798,807,807,809,809,813,815,817,819,819,821,823,825,827,827,829,831,833,833,835,835,839,839,841,843,843,845,847,849,851,851,854,856,858,860,860,862,864,867,867,869,871,873,873,875,875,878,878,878,880,882,882,885,885,887,889,891,894,894,894,894,1655,1655,1663,1663,1663,1663,1663,1663,1655,1655,1663,1655,1655,1655,1655,1655,1655,1655,1647,1647,0,0,0,0,0,0,981,981,978,978,978,978,975,975,973,973,970,970,970,970,970,973,973,975,978,978,981,984,984,987,987,989,989,989,992,0,0,0,0,0,1639,1639,1639,1639,1639,1639,1632,1632,1624,1624,1624,1624,1624,1624,1632,1632,1632,1632,1632,1632,1632,1632,1632,1624,1624,1624,1624,1616,1616,1624,1624,1624,1624,1624,1616,1616,1616,1609,1609,1609,1609,1601,1601,1601,1594,1594,1586,1586,1579,1579,1579,1579,1572,1572,1564,1564,1557,1557,1557,1550,1550,1550,1543,1543,1543,1536,1529,1523,1523,1523,1523,1516,1516,1516,1516,1509,1503,1503,1496,1496,1489,1489,1489,1489,1483,1483,1477,1470,1470,1470,1464,1464,1464,1458,1452,1445,1445,1439,1439,1439,1439,1433,1433,1427,1427,1421,1421,1421,1415,1415,1415,1410,1410,1404,1404,1398,1398,1398,1392,1392,1392,1387,1381,1381,1381,1381,1381,1376,1376,1370,1370,1370,1365,1365,1359,1354,1354,1349,1349,1349,1343,1343,1338,1338,1333,1333,1333,1328,1328,1328,1322,1317,1312,1312,1312,1307,1307,1307,1307,1302,1297,1297,1297,1292,1292,1288,1288,1283,1283,1278,1278,1278,1273,1273,1273,1268,1268,1264,1259,1259,1255,1255,1250,1250,1250,1245,1241,1241,1241,1236,1236,1232,1232,1232,1232,1227,1223,1219,1219,1219,1219,1214,1214,1214,1210,1206,1206,1202,1202,1197,1197,1193,1193,1193,1189,1185,1185,1185,1185,1181,1181,1181,1181,1177,1177,1169,1169,1169,1165,1165,1165,1165,1161,1161,1157,1153,1153,1153,1149,1149,1145,1145,1141,1141,1138,1138,1138,1138,1134,1134,1134,1134,1130,1126,1123,1123,1123,1119,1119,1115,1112,1112,1112,1108,1108,1108,1108,1105,1105,1105,1101,1101,0,0,0,0,0,0,0,0,0,0,0,0,0,0,0,0,0,0,0,0,0,0,0,0,0,0,0,0,0,0,0,0
0,0,0,0,0,0,0,0,0,0,0,0,1785,1785,1785,1776,1776,1776,1785,1785,1785,1785,1785,1785,1785,1776,1776,1776,1766,1766,0,0,0,0,0,0,0,0,978,978,978,975,975,975,975,975,975,975,975,981,981,923,923,923,923,920,918,918,819,817,817,805,802,800,798,796,796,794,792,790,790,789,785,783,783,783,783,783,781,781,781,781,781,781,781,783,781,781,781,781,780,780,778,778,778,778,778,778,778,778,780,780,780,780,778,778,776,776,774,774,774,776,776,776,776,778,776,776,774,773,773,773,773,771,769,769,769,769,769,769,769,769,769,769,769,771,769,769,769,769,769,767,766,766,767,767,767,767,767,767,767,767,767,767,767,767,767,767,766,766,766,766,766,764,764,766,766,761,761,771,766,766,761,761,761,761,761,761,761,761,761,762,762,762,762,762,762,762,762,766,766,766,767,767,769,771,771,773,773,774,774,776,778,778,780,781,783,785,787,789,792,792,796,796,802,807,807,809,809,811,813,815,817,819,819,821,823,825,827,829,829,831,833,833,835,837,839,841,841,843,843,847,847,849,851,854,856,858,858,860,860,862,864,867,867,869,869,871,873,875,875,878,878,878,880,882,882,885,885,887,889,891,891,891,1655,1655,1655,1655,1663,1655,1655,1655,1655,1655,1655,1655,1655,1655,1655,1647,1647,1647,1647,1647,1639,1639,0,0,0,0,0,0,981,981,981,978,978,978,978,975,975,973,970,970,970,970,970,973,975,975,978,978,981,984,984,987,989,989,989,992,992,992,0,0,0,0,1639,1632,1632,1632,1632,1632,1632,1624,1624,1616,1616,1616,1616,1616,1624,1624,1624,1624,1616,1616,1616,1616,1616,1616,1616,1616,1616,1616,1616,1616,1616,1624,1616,1616,1616,1609,1609,1609,1601,1601,1601,1601,1601,1601,1601,1594,1586,1586,1579,1579,1579,1579,1572,1572,1564,1564,1557,1557,1557,1550,1550,1550,1543,1543,1543,1543,1536,1536,1529,1523,1523,1523,1516,1516,1516,1509,1509,1503,1496,1496,1496,1489,1489,1489,1483,1483,1477,1470,1470,1470,1464,1464,1464,1464,1452,1445,1445,1445,1439,1439,1439,1433,1433,1427,1427,1421,1421,1421,1415,1415,1415,1410,1410,1404,1404,1398,1398,1398,1392,1392,1392,1392,1387,1387,1381,1381,1381,1376,1376,1376,1376,1370,1370,1365,1354,1354,1354,1349,1349,1349,1343,1343,1338,1338,1333,1333,1333,1328,1328,1328,1322,1317,1317,1312,1312,1312,1307,1307,1307,1302,1297,1297,1297,1292,1292,1288,1288,1283,1283,1278,1278,1278,1273,1273,1273,1273,1268,1268,1264,1259,1255,1255,1250,1250,1250,1245,1245,1241,1241,1236,1236,1236,1232,1232,1232,1227,1223,1219,1219,1219,1219,1219,1214,1214,1210,1206,1206,1206,1202,1197,1197,1193,1193,1193,1189,1185,1185,1185,1185,1181,1181,1181,1181,1177,1177,1169,1169,1169,1169,1165,1165,1165,1165,1161,1157,1157,1153,1153,1149,1149,1145,1145,1141,1141,1138,1138,1138,1138,1134,1134,1134,1134,1130,1130,1126,1123,1123,1119,1119,1115,1115,1112,1112,1112,1108,1108,1108,1108,1105,1105,1105,1105,0,0,0,0,0,0,0,0,0,0,0,0,0,0,0,0,0,0,0,0,0,0,0,0,0,0,0,0,0,0,0,0
0,0,0,0,0,0,0,0,0,0,0,0,1785,1785,1776,1776,1776,1776,1776,1776,1776,1785,1785,1776,1776,1766,1766,1766,1757,1757,0,0,0,0,0,0,0,0,0,978,978,975,975,978,978,978,978,978,978,981,981,923,923,920,920,920,915,915,915,817,817,805,802,800,798,796,796,794,792,789,785,783,781,781,781,780,780,780,780,780,776,776,778,778,778,778,778,778,778,780,778,776,776,774,774,776,776,776,776,776,778,778,778,776,776,774,774,773,773,773,773,773,773,773,773,774,774,773,773,771,771,769,769,769,767,767,767,767,767,767,767,767,767,767,767,767,767,767,767,767,767,767,766,766,766,762,762,764,766,766,766,766,766,764,762,762,762,766,764,764,764,764,762,761,761,762,762,761,761,761,761,761,761,761,759,759,759,759,759,761,761,761,761,761,761,761,761,762,762,764,766,766,767,767,769,771,771,773,773,774,774,776,778,780,781,781,783,789,790,792,796,800,802,803,807,807,809,809,811,811,813,815,817,819,821,823,823,827,827,829,829,831,833,833,835,837,841,841,843,843,845,847,849,849,854,854,856,858,858,860,862,862,864,867,867,869,869,871,873,875,875,878,878,878,880,882,882,882,885,885,885,1655,1655,1655,1655,1655,1655,1655,1655,1655,1655,1655,1655,1655,1647,1647,1647,1647,1647,1647,1647,1639,1639,1639,1639,1639,1632,1632,0,0,0,0,984,984,981,981,981,978,978,975,975,973,973,970,970,970,970,973,975,975,978,981,981,984,987,989,989,989,992,992,992,992,0,0,0,0,0,1632,1632,1632,1632,1632,1624,1624,1616,1616,1616,1616,1616,1616,1616,1616,1616,1616,1609,1609,1601,1601,1609,1609,1609,1609,1609,1609,1609,1616,1616,1616,1616,1609,1609,1609,1609,1609,1601,1601,1601,1601,1601,1601,1594,1594,1586,1586,1579,1579,1579,1579,1572,1572,1572,1564,1564,1557,1557,1550,1550,1550,1543,1543,1543,1543,1543,1536,1529,1523,1523,1523,1516,1516,1516,1516,1509,1503,1496,1496,1496,1496,1489,1489,1483,1483,1477,1477,1470,1470,1464,1464,1464,1464,1452,1452,1445,1445,1445,1439,1439,1439,1433,1433,1427,1427,1421,1421,1415,1415,1415,1410,1410,1410,1404,1404,1398,1398,1398,1392,1392,1392,1387,1387,1381,1381,1381,1376,1376,1376,1370,1370,1370,1365,1354,1354,1354,1349,1349,1349,1349,1343,1343,1338,1338,1333,1333,1333,1328,1328,1322,1322,1317,1317,1312,1312,1312,1307,1307,1307,1302,1297,1297,1297,1292,1288,1288,1288,1283,1278,1278,1278,1273,1273,1273,1273,1268,1268,1264,1259,1255,1255,1255,1250,1250,1250,1245,1245,1241,1236,1236,1236,1232,1232,1232,1227,1223,1223,1219,1219,1219,1219,1214,1214,1210,1206,1206,1202,1202,1197,1197,1193,1193,1193,1189,1185,1185,1185,1185,1181,1181,1181,1181,1177,1177,1169,1169,1169,1169,1169,1165,1165,1165,1161,1157,1157,1153,1153,1153,1149,1145,1145,1145,1141,1141,1141,1138,1138,1138,1134,1134,1134,1130,1130,1126,1123,1123,1119,1119,1119,1115,1115,1115,1112,1108,1108,1108,1108,1105,1105,1105,1105,0,0,0,0,0,0,0,0,0,0,0,0,0,0,0,0,0,0,0,0,0,0,0,0,0,0,0,0,0,0,0,0
0,0,0,0,0,0,0,0,0,0,0,0,1776,1776,1766,1766,1766,1766,1776,1766,1766,1776,1776,1776,1766,1766,1757,1757,1748,1748,1757,0,0,0,0,0,0,0,0,978,978,978,978,978,978,978,978,978,978,981,981,984,984,920,918,918,915,915,913,910,910,807,802,800,800,796,796,794,792,789,785,781,781,780,778,778,778,778,776,776,771,767,767,767,767,767,769,769,774,774,773,773,773,774,774,774,774,774,774,774,776,776,774,774,773,773,771,771,769,769,769,771,771,769,769,771,771,769,769,769,769,767,767,767,767,767,766,766,766,767,767,766,766,766,766,766,766,766,766,764,759,759,761,761,761,761,761,761,762,764,764,764,764,762,761,761,759,759,759,759,759,761,761,761,761,761,761,759,759,759,759,759,759,757,757,757,757,757,757,757,759,759,759,759,759,761,761,761,762,762,764,766,766,767,769,771,771,773,773,774,774,776,780,781,783,783,789,792,792,796,798,802,802,803,807,809,809,811,811,813,815,815,817,819,819,823,825,825,827,829,829,831,833,833,835,839,841,841,843,843,845,847,849,851,854,854,858,858,858,860,860,862,864,867,867,869,871,871,873,875,875,878,878,878,880,882,882,882,882,882,1632,1655,1655,1655,1655,1647,1647,1647,1647,1647,1647,1647,1647,1647,1639,1639,1639,1639,1639,1639,1639,1639,1639,1639,1632,1632,1632,1632,0,0,0,984,984,987,984,981,981,981,978,978,975,975,973,973,973,973,973,975,978,978,978,981,984,984,987,989,989,989,992,992,992,992,0,0,0,0,0,1624,1624,1624,1624,1624,1616,1616,1609,1609,1609,1609,1609,1609,1609,1609,1609,1609,1609,1609,1601,1601,1601,1601,1601,1601,1601,1609,1609,1609,1609,1609,1609,1609,1601,1601,1601,1601,1601,1601,1601,1601,1601,1594,1594,1594,1586,1586,1579,1579,1579,1579,1572,1572,1572,1564,1564,1557,1557,1550,1550,1550,1550,1550,1543,1543,1543,1543,1536,1523,1523,1523,1516,1516,1516,1516,1509,1503,1503,1496,1496,1496,1489,1489,1489,1483,1483,1477,1470,1470,1464,1464,1464,1464,1458,1452,1445,1445,1445,1439,1439,1439,1439,1433,1427,1427,1427,1421,1415,1415,1415,1410,1410,1410,1404,1404,1398,1398,1398,1398,1392,1392,1392,1387,1387,1381,1381,1376,1376,1376,1370,1370,1370,1365,1354,1354,1354,1349,1349,1349,1349,1343,1343,1338,1338,1333,1333,1333,1328,1328,1328,1322,1317,1317,1312,1312,1312,1307,1307,1307,1302,1297,1297,1297,1292,1292,1288,1288,1283,1283,1278,1278,1273,1273,1273,1273,1268,1268,1264,1259,1259,1255,1255,1255,1250,1250,1245,1245,1241,1236,1236,1236,1232,1232,1232,1227,1223,1223,1223,1219,1219,1219,1214,1214,1210,1206,1206,1202,1202,1197,1197,1197,1193,1193,1193,1189,1185,1185,1185,1185,1181,1181,1181,1177,1173,1169,1169,1169,1169,1169,1165,1165,1165,1161,1161,1157,1153,1153,1153,1149,1149,1149,1145,1141,1141,1141,1138,1138,1138,1138,1134,1134,1134,1130,1126,1126,1123,1123,1119,1119,1119,1115,1115,1115,1112,1108,1108,1108,1108,1105,1105,1105,0,0,0,0,0,0,0,0,0,0,0,0,0,0,0,0,0,0,0,0,0,0,0,0,0,0,0,0,0,0,0,0
0,0,0,0,0,0,0,0,0,0,0,0,1776,1766,1766,1766,1766,1766,1766,1766,1766,1766,1766,1766,1766,1757,1757,1757,1748,1739,1739,0,0,0,0,0,0,0,0,0,978,978,978,978,978,978,978,978,981,981,981,984,984,918,918,915,913,913,908,903,901,898,800,800,800,798,796,794,792,785,783,780,780,778,776,776,774,774,774,773,769,767,767,767,767,767,767,769,771,771,771,771,771,771,771,771,771,773,773,773,773,773,771,771,769,769,769,767,767,766,766,767,767,767,767,767,767,767,767,767,767,767,767,767,766,766,766,766,766,766,766,764,764,764,762,761,761,761,762,761,757,757,759,759,759,757,757,757,757,761,761,761,761,761,759,757,755,755,757,757,757,755,755,755,759,757,757,755,755,754,754,755,755,755,755,755,755,755,755,755,755,757,757,757,759,759,759,761,761,762,764,766,766,767,769,769,771,773,773,774,774,776,781,785,787,790,792,794,796,800,802,803,805,807,809,809,811,811,813,813,815,817,817,819,819,823,825,825,827,827,829,831,831,833,835,839,841,843,843,843,845,847,849,851,854,854,858,858,858,860,860,862,864,864,867,869,869,871,873,875,875,875,878,878,880,880,880,1663,1647,1647,1632,1632,1632,1639,1639,1639,1639,1639,1639,1639,1639,1639,1639,1639,1639,1639,1639,1639,1632,1632,1632,1632,1624,1624,1624,1624,1616,1616,1616,0,0,984,984,987,987,984,984,981,981,978,978,978,975,975,973,973,975,975,978,978,978,981,984,987,987,989,989,992,992,992,992,992,992,0,0,0,0,1624,1624,1616,1616,1609,1609,1609,1609,1609,1609,1609,1609,1609,1601,1601,1601,1601,1601,1601,1594,1594,1601,1601,1601,1594,1594,1601,1601,1601,1601,1601,1601,1601,1601,1601,1601,1601,1601,1601,1594,1594,1594,1586,1586,1586,1586,1579,1579,1579,1579,1579,1572,1572,1572,1564,1564,1557,1557,1550,1550,1550,1550,1550,1543,1543,1543,1543,1536,1529,1523,1523,1516,1516,1516,1516,1509,1503,1503,1503,1496,1496,1496,1489,1489,1489,1483,1483,1477,1470,1470,1464,1464,1464,1464,1452,1452,1445,1445,1445,1439,1439,1439,1433,1427,1427,1427,1421,1421,1415,1415,1415,1410,1410,1410,1404,1404,1398,1398,1398,1392,1392,1392,1392,1387,1387,1381,1376,1376,1376,1376,1370,1370,1365,1354,1354,1354,1349,1349,1349,1349,1349,1343,1343,1338,1333,1333,1333,1328,1328,1328,1322,1317,1317,1317,1312,1312,1307,1307,1307,1302,1297,1297,1297,1292,1292,1288,1288,1283,1283,1278,1278,1273,1273,1273,1273,1268,1268,1264,1259,1259,1255,1255,1255,1250,1250,1250,1245,1245,1241,1241,1236,1236,1232,1232,1227,1227,1223,1223,1219,1219,1219,1214,1214,1210,1206,1206,1206,1202,1202,1197,1197,1197,1193,1193,1189,1189,1185,1185,1185,1185,1181,1181,1177,1173,1169,1169,1169,1169,1169,1165,1165,1165,1161,1161,1157,1153,1153,1153,1153,1149,1149,1145,1145,1141,1141,1141,1138,1138,1138,1134,1134,1134,1130,1126,1126,1123,1123,1119,1119,1119,1119,1119,1115,1115,1112,1112,1108,1108,1108,1108,1108,0,0,0,0,0,0,0,0,0,0,0,0,0,0,0,0,0,0,0,0,0,0,0,0,0,0,0,0,0,0,0,0
0,0,0,0,0,0,0,0,0,0,0,0,1766,1766,1766,1766,1766,1766,1766,1766,1766,1766,1766,1757,1757,1748,1748,1748,1748,1739,1739,0,0,0,0,0,0,0,0,0,981,981,981,978,978,978,978,978,981,981,981,984,981,981,915,915,913,903,903,898,896,896,800,800,798,796,796,794,792,785,783,780,778,776,776,774,774,773,771,769,767,766,766,766,766,766,766,766,767,767,767,767,767,767,767,767,766,764,764,764,769,767,766,766,766,766,766,764,764,764,764,766,766,764,764,764,764,764,764,764,764,764,766,766,764,764,764,764,764,764,762,762,762,761,759,759,759,757,757,757,755,755,755,754,754,754,754,754,755,757,757,757,757,757,757,755,754,754,754,754,754,752,752,752,752,752,750,750,752,752,752,752,752,752,754,754,754,754,754,754,755,755,757,757,757,759,759,761,761,762,764,766,766,766,767,769,771,774,774,774,776,778,783,789,790,792,794,796,796,800,802,803,805,807,809,809,811,813,813,815,815,817,819,819,819,823,825,825,827,827,831,831,831,833,835,839,841,843,843,845,847,849,849,851,854,854,856,858,858,860,860,862,864,864,867,869,869,871,873,875,875,875,878,878,878,878,1663,1663,1647,1647,1639,1632,1632,1639,1639,1639,1639,1639,1639,1632,1632,1639,1639,1632,1632,1632,1632,1632,1632,1632,1632,1624,1624,1616,1616,1616,1609,1609,1609,0,0,987,987,987,987,987,987,984,984,981,981,978,978,978,975,975,975,975,978,978,978,981,984,984,987,989,992,992,992,992,992,992,992,0,0,0,0,1609,1609,1609,1601,1601,1609,1609,1601,1601,1601,1601,1601,1601,1601,1601,1594,1594,1594,1594,1594,1594,1594,1594,1594,1594,1594,1594,1594,1594,1594,1594,1586,1586,1594,1594,1594,1594,1594,1594,1594,1594,1594,1586,1586,1586,1579,1579,1579,1579,1579,1572,1572,1572,1572,1564,1564,1557,1557,1550,1550,1550,1550,1550,1543,1543,1543,1543,1529,1529,1523,1523,1516,1516,1516,1516,1509,1503,1503,1503,1496,1496,1496,1496,1489,1489,1489,1483,1477,1470,1470,1464,1464,1464,1464,1458,1452,1445,1445,1445,1439,1439,1439,1433,1427,1427,1427,1421,1421,1415,1415,1415,1415,1410,1410,1404,1404,1398,1398,1398,1392,1392,1392,1392,1387,1381,1381,1376,1376,1376,1370,1370,1370,1365,1354,1354,1354,1349,1349,1349,1349,1349,1343,1343,1338,1338,1333,1333,1333,1328,1328,1322,1322,1317,1317,1312,1312,1312,1307,1307,1302,1302,1302,1297,1292,1292,1288,1288,1288,1283,1278,1278,1273,1273,1273,1273,1268,1268,1268,1259,1259,1259,1255,1255,1255,1250,1250,1245,1245,1241,1241,1236,1236,1232,1232,1223,1223,1223,1223,1219,1219,1219,1214,1214,1210,1206,1206,1206,1202,1202,1202,1197,1197,1197,1197,1189,1189,1189,1185,1185,1185,1185,1181,1181,1177,1169,1169,1169,1169,1169,1169,1165,1165,1165,1161,1157,1153,1153,1153,1153,1149,1149,1149,1149,1145,1141,1141,1138,1138,1138,1134,1134,1134,1130,1130,1126,1123,1123,1123,1119,1119,1119,1119,1115,1115,1112,1112,1108,973,973,1108,1108,0,0,0,0,0,0,0,0,0,0,0,0,0,0,0,0,0,0,0,0,0,0,0,0,0,0,0,0,0,0,0,0
0,0,0,0,0,0,0,0,0,0,0,0,1757,1757,1757,1757,1757,1757,1766,1757,1757,1757,1757,1757,1757,1748,1748,1748,1739,1739,1739,1739,1748,0,0,0,0,0,0,0,0,981,981,981,978,978,981,981,981,981,981,984,981,981,981,981,903,903,898,898,896,894,891,800,798,796,796,794,792,789,785,781,778,774,774,773,771,769,767,766,766,764,764,764,764,764,762,762,764,764,764,764,764,764,764,762,762,762,762,761,761,761,761,761,762,762,762,761,761,761,761,761,759,759,759,761,761,761,761,761,761,761,761,762,761,761,761,761,759,759,757,757,757,755,755,755,755,754,754,754,752,752,754,752,752,752,752,752,754,752,750,750,752,752,752,752,750,747,747,749,749,749,749,747,747,749,749,749,749,749,749,749,750,750,750,752,752,752,752,754,754,755,755,757,757,759,759,761,761,762,764,766,766,766,767,769,771,776,778,780,781,785,790,792,792,794,796,796,798,800,802,803,805,807,809,809,811,813,813,815,817,817,819,819,819,823,825,825,827,829,831,831,831,833,835,841,843,843,845,847,847,849,851,851,854,854,856,858,858,860,860,862,864,864,867,869,869,871,873,875,875,875,875,1632,1632,1632,1663,1663,1639,1639,1632,1632,1632,1639,1632,1632,1632,1632,1632,1632,1632,1632,1632,1632,1632,1632,1632,1632,1624,1624,1624,1624,1616,1616,1609,1609,1609,1601,1601,1601,0,987,987,987,987,987,987,987,984,981,981,978,978,978,975,975,978,978,978,978,978,981,984,984,987,989,992,992,992,992,992,992,992,0,0,0,0,1601,1601,1601,1601,1601,1601,1601,1601,1601,1601,1601,1601,1601,1594,1594,1594,1594,1594,1586,1586,1586,1586,1586,1586,1586,1586,1586,1586,1586,1586,1586,1579,1579,1586,1586,1586,1586,1586,1586,1586,1586,1586,1586,1579,1579,1579,1579,1579,1579,1572,1572,1572,1572,1572,1564,1564,1557,1557,1557,1550,1550,1550,1550,1543,1543,1543,1543,1529,1529,1523,1523,1523,1516,1516,1516,1516,1509,1503,1503,1496,1496,1496,1496,1489,1489,1489,1483,1477,1470,1470,1470,1464,1464,1464,1464,1452,1452,1445,1445,1445,1439,1439,1439,1433,1427,1427,1421,1421,1421,1415,1415,1415,1415,1410,1410,1404,1404,1398,1398,1392,1392,1392,1392,1387,1381,1381,1376,1376,1376,1370,1370,1370,1365,1354,1354,1354,1349,1349,1349,1349,1349,1349,1343,1343,1338,1338,1333,1333,1328,1328,1322,1322,1322,1317,1317,1312,1312,1307,1307,1307,1302,1302,1297,1292,1292,1288,1288,1288,1283,1283,1278,1278,1273,1273,1273,1268,1268,1268,1264,1259,1259,1255,1255,1255,1250,1250,1250,1245,1241,1241,1236,1236,1232,1232,1223,1223,1223,1223,1219,1219,1219,1214,1214,1210,1210,1206,1206,1206,1202,1202,1197,1197,1197,1197,1193,1193,1189,1189,1185,1185,1185,1181,1181,1177,1169,1169,1169,1169,1169,1165,1165,1165,1165,1161,1157,1153,1153,1153,1153,1149,1149,1149,1149,1145,1145,1141,1141,1138,1138,1134,1134,1134,1130,1130,1126,1123,1123,1123,1123,1119,1119,992,992,1115,1112,1112,973,970,970,0,0,0,0,0,0,0,0,0,0,0,0,0,0,0,0,0,0,0,0,0,0,0,0,0,0,0,0,0,0,0,0,0,0
0,0,0,0,0,0,0,0,0,0,0,1739,1739,1748,1748,1748,1748,1748,1757,1757,1757,1757,1757,1748,1748,1748,1748,1739,1739,1739,1739,1739,1748,0,0,0,0,0,0,0,0,987,984,981,981,981,981,981,981,981,981,984,981,981,981,984,984,898,898,898,896,894,891,889,802,796,796,794,792,789,785,780,776,774,773,771,769,764,764,764,764,764,764,764,764,762,762,762,761,759,759,759,759,759,761,761,761,761,761,761,759,759,759,759,759,759,757,757,759,755,755,755,755,755,757,759,759,759,757,757,759,759,759,759,755,755,757,755,755,755,754,754,752,752,752,752,752,750,750,750,750,750,750,750,750,749,749,749,747,746,744,744,746,746,746,746,746,747,747,747,746,746,746,742,742,744,744,744,746,746,747,747,747,747,747,749,750,750,752,752,752,754,755,757,757,759,759,761,762,762,764,766,766,767,767,769,780,781,781,785,787,790,792,792,794,796,796,798,800,802,803,803,805,807,809,809,811,813,813,813,817,817,819,819,821,823,825,825,827,829,831,833,833,833,839,841,843,843,843,847,847,849,851,851,854,854,856,858,858,860,860,862,862,864,867,869,869,871,871,871,1616,1632,1632,1632,1632,1632,1632,1632,1632,1632,1632,1632,1632,1632,1632,1632,1632,1624,1624,1624,1624,1624,1624,1624,1624,1624,1624,1624,1624,1624,1624,1616,1616,1609,1609,1609,1609,1601,1601,1601,0,987,987,987,989,989,989,989,987,984,981,981,978,978,978,978,978,978,978,978,978,981,984,984,987,989,992,992,992,992,992,995,995,0,0,0,0,1586,1586,1586,1594,1594,1601,1601,1601,1601,1601,1601,1601,1594,1594,1586,1586,1586,1586,1586,1586,1579,1579,1579,1579,1579,1579,1579,1579,1579,1579,1579,1579,1579,1579,1579,1579,1572,1572,1572,1579,1579,1579,1579,1579,1572,1572,1572,1572,1572,1572,1572,1572,1572,1572,1564,1564,1557,1557,1550,1550,1550,1543,1543,1543,1543,1543,1543,1536,1529,1529,1523,1523,1523,1516,1516,1516,1509,1509,1503,1496,1496,1496,1496,1489,1489,1489,1489,1483,1477,1470,1470,1470,1464,1464,1464,1458,1452,1452,1445,1445,1445,1439,1439,1433,1433,1427,1421,1421,1421,1415,1415,1415,1415,1415,1410,1410,1404,1398,1398,1398,1398,1392,1392,1387,1387,1381,1376,1376,1376,1370,1370,1370,1365,1359,1354,1354,1354,1354,1349,1349,1349,1349,1343,1343,1338,1338,1333,1333,1328,1328,1322,1322,1322,1317,1317,1312,1312,1312,1307,1307,1302,1302,1302,1297,1292,1292,1288,1288,1283,1283,1278,1278,1273,1273,1273,1268,1268,1268,1264,1264,1259,1255,1255,1255,1250,1250,1250,1245,1241,1241,1236,1236,1236,1232,1227,1227,1223,1223,1223,1219,1219,1219,1214,1214,1214,1210,1206,1206,1206,1202,1202,1202,1197,1197,1193,1193,1189,1189,1185,1185,1185,1181,1181,1177,1173,1169,1169,1169,1169,1165,1165,1165,1165,1161,1157,1153,1153,1153,1153,1153,1149,1149,1149,1145,1145,1145,1141,1138,1138,1134,1134,1134,1130,1130,1130,1126,1126,1123,1123,1123,989,989,989,984,978,975,973,970,970,0,0,0,0,0,0,0,0,0,0,0,0,0,0,0,0,0,0,0,0,0,0,0,0,0,0,0,0,0,0,0,0,0,0
0,0,0,0,0,0,0,0,0,0,0,1739,1739,1739,1739,1739,1739,1739,1748,1748,1739,1739,1739,1739,1739,1739,1739,1739,1739,1739,1739,1739,1748,0,0,0,0,0,0,0,0,989,987,981,981,981,981,981,981,981,984,984,984,984,984,984,987,987,896,896,894,894,891,889,887,887,885,882,792,789,783,780,776,773,771,769,766,762,762,762,762,762,762,762,762,762,761,761,759,757,755,755,755,757,759,759,759,757,757,759,757,757,757,757,757,757,754,754,752,752,752,754,754,754,754,755,755,755,754,754,754,755,755,755,754,754,754,754,752,752,752,752,749,749,750,749,749,749,749,747,747,749,749,747,747,747,747,746,742,742,742,742,742,742,742,742,744,744,742,741,741,744,744,742,742,742,742,742,744,744,746,746,746,746,747,747,747,747,749,750,752,754,754,755,757,759,759,761,761,762,766,766,767,767,769,769,785,785,785,787,789,792,794,794,796,796,798,798,800,802,803,805,807,807,809,809,811,813,813,813,817,819,819,821,823,825,825,825,827,831,831,833,833,835,839,841,843,843,843,847,847,849,849,851,854,854,856,858,858,860,860,862,862,864,867,869,869,869,869,1616,1616,1632,1632,1624,1624,1624,1624,1624,1632,1632,1632,1632,1632,1632,1624,1624,1624,1624,1624,1624,1624,1624,1624,1624,1616,1616,1616,1616,1616,1616,1616,1616,1609,1609,1601,1601,1601,1601,1601,1601,0,0,989,989,989,989,989,989,987,987,981,981,981,978,978,978,978,978,978,978,978,981,984,987,987,989,992,992,995,995,995,998,0,0,0,0,0,1586,1586,1586,1594,1594,1594,1594,1594,1594,1594,1586,1586,1586,1586,1586,1579,1579,1579,1579,1579,1579,1579,1579,1579,1579,1579,1579,1579,1579,1579,1579,1572,1572,1572,1572,1572,1572,1564,1564,1572,1564,1564,1564,1572,1572,1564,1564,1564,1564,1564,1564,1564,1564,1564,1557,1557,1557,1550,1550,1550,1550,1543,1543,1543,1543,1543,1543,1536,1529,1529,1523,1523,1523,1516,1516,1516,1509,1509,1503,1496,1496,1496,1496,1489,1489,1489,1489,1483,1483,1477,1470,1470,1470,1464,1464,1458,1452,1452,1445,1445,1445,1439,1439,1439,1433,1433,1427,1421,1421,1421,1415,1415,1415,1415,1410,1410,1404,1398,1398,1398,1398,1392,1392,1387,1381,1381,1376,1376,1370,1370,1370,1370,1365,1359,1354,1354,1354,1354,1349,1349,1349,1343,1343,1343,1338,1338,1333,1333,1328,1328,1322,1322,1322,1317,1317,1312,1312,1312,1307,1307,1307,1302,1302,1297,1292,1292,1288,1288,1283,1283,1283,1278,1278,1273,1273,1273,1268,1268,1264,1264,1259,1255,1255,1255,1250,1250,1250,1245,1241,1241,1236,1236,1236,1232,1227,1227,1223,1223,1223,1219,1219,1219,1214,1214,1214,1210,1210,1210,1206,1202,1202,1202,1197,1197,1197,1193,1193,1189,1185,1185,1185,1181,1181,1177,1177,1169,1169,1169,1169,1165,1165,1165,1165,1161,1157,1157,1157,1153,1153,1153,1149,1149,1149,1149,1145,1145,1141,1138,1138,1134,1134,1134,1130,1130,1130,1130,1126,1126,1123,987,987,984,984,981,978,975,973,970,970,0,0,0,0,0,0,0,0,0,0,0,0,0,0,0,0,0,0,0,0,0,0,0,0,0,0,0,0,0,0,0,0,0,0
0,0,0,0,0,0,0,0,0,0,0,1731,1731,1731,1731,1731,1731,1731,1739,1739,1731,1731,1731,1731,1731,1731,1731,1731,1731,1731,1731,1731,1739,0,0,0,0,0,0,0,0,989,987,984,981,981,981,981,981,981,981,984,987,987,987,987,987,989,896,896,894,894,891,891,887,887,885,882,882,783,783,780,774,773,769,766,764,762,762,761,761,761,761,761,761,759,759,754,754,754,754,754,754,754,755,757,757,754,754,754,755,755,755,755,754,754,752,752,750,750,750,750,750,750,752,754,754,754,752,752,752,752,752,752,750,750,752,752,749,749,749,749,747,747,747,747,747,746,746,746,746,747,746,746,746,744,744,744,742,742,741,741,742,741,741,741,741,741,739,739,739,739,739,739,739,739,739,741,741,742,744,744,744,746,746,747,747,747,749,750,752,754,754,755,757,759,759,761,761,764,767,767,767,767,780,781,785,787,787,789,790,792,794,794,796,796,798,798,800,802,803,805,807,809,809,809,811,813,813,815,817,819,819,821,823,825,825,827,827,831,833,833,833,835,839,841,843,843,845,847,847,849,849,851,854,854,854,856,856,858,860,862,864,864,867,867,1609,1609,1609,1616,1616,1616,1624,1624,1624,1624,1624,1624,1624,1624,1624,1624,1624,1624,1624,1624,1624,1624,1624,1616,1616,1616,1616,1616,1609,1609,1609,1609,1616,1616,1609,1609,1601,1601,1601,1601,1601,1601,1601,1601,0,0,0,989,989,989,989,992,989,987,984,981,981,978,978,978,978,978,978,978,981,981,984,987,987,989,992,992,995,995,995,998,0,0,0,0,0,1586,1579,1579,1586,1586,1586,1586,1586,1586,1586,1579,1579,1579,1579,1579,1579,1579,1579,1579,1579,1579,1572,1572,1572,1572,1572,1572,1572,1572,1572,1572,1564,1564,1564,1564,1564,1564,1564,1564,1564,1557,1557,1557,1557,1557,1557,1557,1564,1564,1564,1557,1557,1557,1557,1557,1557,1550,1550,1550,1550,1550,1543,1543,1543,1543,1543,1536,1536,1529,1529,1523,1523,1523,1516,1516,1516,1509,1509,1503,1496,1496,1496,1496,1496,1489,1489,1489,1483,1483,1477,1470,1470,1470,1464,1464,1464,1458,1452,1452,1445,1445,1439,1439,1439,1439,1433,1427,1427,1421,1421,1415,1415,1415,1415,1410,1410,1404,1398,1398,1398,1398,1392,1392,1387,1381,1381,1376,1376,1370,1370,1370,1370,1365,1365,1359,1354,1354,1354,1349,1349,1349,1343,1343,1343,1338,1338,1333,1333,1328,1328,1322,1322,1322,1317,1317,1312,1312,1312,1307,1307,1307,1302,1302,1297,1292,1292,1288,1288,1283,1283,1283,1278,1278,1273,1273,1273,1268,1268,1264,1264,1259,1255,1255,1255,1250,1250,1250,1245,1241,1241,1236,1236,1236,1232,1232,1227,1227,1223,1223,1223,1219,1219,1214,1214,1214,1210,1210,1210,1206,1206,1202,1202,1202,1197,1197,1193,1189,1189,1185,1185,1185,1181,1181,1177,1177,1173,1169,1169,1169,1169,1165,1165,1165,1165,1161,1157,1157,1157,1153,1153,1153,1149,1149,1149,1149,1149,1145,1138,1138,1134,1134,1134,1134,1130,1130,1130,1130,1126,989,984,984,981,981,978,975,975,973,970,970,0,0,0,0,0,0,0,0,0,0,0,0,0,0,0,0,0,0,0,0,0,0,0,0,0,0,0,0,0,0,0,0,0,0
0,0,0,0,0,0,0,0,0,0,0,1731,1731,1731,1731,1731,1731,1731,1731,1731,1731,1731,1722,1722,1731,1731,1731,1731,1731,1731,1731,1731,1731,1731,0,0,0,0,0,0,0,992,989,987,981,981,981,981,981,981,981,984,984,987,987,989,989,989,995,896,894,891,891,889,887,887,885,880,880,783,783,780,774,773,769,764,764,761,761,759,759,757,757,757,757,752,752,750,750,752,752,750,750,750,750,752,750,749,749,749,749,749,750,750,750,750,750,749,749,749,749,749,747,747,747,747,747,747,746,746,749,749,750,749,749,749,750,750,747,746,746,746,746,744,744,744,744,742,742,744,744,744,744,742,742,742,742,742,741,741,741,741,741,741,739,739,741,739,738,738,736,736,738,739,738,738,738,739,739,741,742,742,744,744,746,747,747,747,749,750,752,752,754,755,757,759,759,761,764,766,769,769,771,780,780,785,787,787,789,789,790,792,794,794,796,798,798,798,800,802,803,805,807,809,809,811,811,813,813,815,817,819,819,821,823,825,825,827,829,831,833,833,833,837,839,841,843,843,845,847,847,849,849,851,854,854,854,854,856,858,860,862,864,864,1609,1609,1609,1609,1609,1609,1616,1616,1616,1616,1616,1616,1616,1624,1624,1624,1624,1624,1616,1616,1616,1616,1616,1616,1616,1609,1609,1609,1609,1601,1601,1601,1601,1601,1601,1601,1601,1601,1601,1601,1594,1594,1594,1594,1594,1594,0,0,0,0,989,989,989,992,989,989,987,984,981,978,978,978,978,978,978,978,981,981,984,987,989,989,992,995,995,995,995,998,998,998,0,0,0,1579,1579,1579,1579,1579,1579,1579,1579,1579,1579,1572,1572,1572,1572,1572,1572,1572,1572,1572,1572,1572,1572,1572,1572,1572,1572,1572,1572,1572,1572,1564,1557,1557,1557,1557,1557,1557,1557,1557,1557,1550,1550,1550,1550,1550,1550,1550,1550,1550,1550,1557,1550,1550,1557,1550,1550,1550,1550,1543,1543,1543,1543,1543,1536,1536,1536,1536,1529,1529,1529,1523,1523,1523,1516,1516,1516,1509,1509,1503,1496,1496,1496,1496,1496,1489,1489,1489,1489,1483,1477,1477,1470,1470,1470,1464,1464,1458,1452,1452,1445,1445,1439,1439,1439,1439,1433,1427,1427,1421,1421,1415,1415,1415,1415,1410,1410,1404,1398,1398,1398,1398,1392,1392,1387,1387,1381,1376,1376,1376,1370,1370,1370,1370,1365,1365,1359,1354,1354,1354,1349,1349,1349,1343,1343,1338,1338,1333,1333,1328,1328,1322,1322,1322,1317,1317,1312,1312,1312,1307,1307,1307,1307,1302,1302,1297,1292,1292,1288,1288,1283,1283,1278,1278,1273,1273,1273,1268,1268,1264,1264,1259,1255,1255,1255,1250,1250,1250,1245,1245,1241,1236,1236,1236,1232,1232,1227,1227,1223,1223,1223,1219,1219,1214,1214,1214,1210,1210,1210,1206,1206,1202,1202,1202,1197,1197,1193,1189,1189,1189,1185,1185,1185,1185,1181,1181,1173,1169,1169,1169,1169,1165,1165,1165,1165,1161,1161,1157,1157,1153,1153,1153,1149,1149,1149,1149,1149,1149,1141,1138,1138,1134,1134,1134,1130,1130,1130,1130,1130,987,984,981,981,978,978,975,975,973,970,970,0,0,0,0,0,0,0,0,0,0,0,0,0,0,0,0,0,0,0,0,0,0,0,0,0,0,0,0,0,0,0,0,0,0
0,0,0,0,0,0,0,0,0,0,0,1731,1731,1731,1722,1722,1722,1722,1722,1722,1722,1722,1722,1722,1722,1722,1722,1722,1722,1722,1722,1722,1722,1722,0,0,0,0,0,0,0,0,989,987,981,981,981,981,981,981,981,984,984,987,987,989,989,992,995,998,894,889,887,887,887,885,882,878,878,783,783,778,774,771,766,764,762,761,759,757,755,754,754,754,752,752,750,750,750,750,750,749,749,749,747,747,747,747,747,747,746,746,746,746,746,747,747,747,747,747,746,746,746,744,742,742,744,742,742,744,742,742,742,741,741,741,741,741,744,742,742,742,742,741,741,741,741,741,741,741,742,742,739,739,741,741,741,741,741,741,741,741,739,739,738,736,736,736,736,734,734,734,736,736,736,736,736,736,739,739,741,741,744,744,746,747,747,747,749,750,752,752,754,755,757,759,759,761,764,766,773,776,778,780,781,785,787,787,789,790,790,792,794,794,796,798,798,800,800,802,803,805,807,809,809,811,813,813,815,817,817,819,819,821,823,825,825,827,829,831,833,833,835,837,839,841,843,843,845,847,849,849,849,851,854,854,854,854,856,856,856,1601,1594,1594,1594,1609,1609,1609,1609,1609,1616,1616,1616,1616,1616,1616,1616,1616,1616,1616,1616,1616,1609,1609,1609,1609,1609,1609,1609,1609,1601,1601,1601,1601,1601,1601,1601,1601,1601,1601,1601,1601,1594,1594,1594,1594,1594,1594,1594,1594,0,0,0,0,989,989,992,992,989,989,987,984,981,981,978,978,978,978,978,978,981,981,984,987,989,992,992,995,995,995,998,998,998,0,0,0,0,1572,1572,1579,1579,1579,1579,1579,1572,1572,1572,1572,1572,1572,1572,1572,1572,1572,1572,1572,1572,1572,1572,1572,1572,1572,1572,1572,1564,1564,1564,1557,1557,1557,1550,1550,1550,1550,1550,1550,1550,1550,1550,1550,1550,1550,1543,1543,1543,1543,1543,1543,1543,1543,1550,1550,1550,1550,1543,1543,1543,1536,1536,1536,1536,1536,1536,1529,1529,1529,1529,1523,1523,1523,1516,1516,1516,1516,1509,1503,1496,1496,1496,1496,1496,1489,1489,1489,1489,1483,1477,1477,1470,1470,1470,1464,1464,1458,1452,1452,1445,1445,1445,1439,1439,1439,1433,1427,1421,1421,1421,1421,1415,1415,1415,1410,1410,1404,1398,1398,1398,1398,1392,1392,1387,1387,1381,1376,1376,1376,1370,1370,1370,1370,1370,1365,1359,1354,1354,1354,1349,1349,1349,1343,1343,1338,1338,1333,1333,1333,1328,1322,1322,1322,1317,1317,1312,1312,1312,1312,1307,1307,1307,1302,1302,1297,1292,1292,1288,1288,1283,1283,1278,1278,1273,1273,1273,1268,1268,1264,1264,1259,1259,1255,1255,1255,1250,1250,1250,1245,1241,1236,1236,1236,1232,1232,1232,1227,1227,1223,1223,1219,1219,1214,1214,1214,1210,1210,1210,1206,1206,1202,1202,1202,1197,1197,1197,1193,1193,1189,1185,1185,1185,1185,1181,1181,1173,1173,1169,1169,1169,1165,1165,1165,1165,1161,1161,1161,1157,1157,1153,1153,1153,1149,1149,1149,1149,1149,1141,1138,1138,1134,1134,1134,1130,1130,1130,1130,1130,981,981,981,981,978,978,975,975,973,970,970,0,0,0,0,0,0,0,0,0,0,0,0,0,0,0,0,0,0,0,0,0,0,0,0,0,0,0,0,0,0,0,0,0,0
0,0,0,0,0,0,0,0,0,0,0,1722,1722,1722,1722,1722,1722,1722,1713,1713,1722,1722,1713,1713,1722,1722,1722,1713,1713,1713,1713,1713,1713,1722,0,0,0,0,0,0,0,0,992,989,987,984,984,984,984,984,984,987,987,987,987,989,989,992,995,998,998,889,887,885,885,882,878,875,875,873,873,778,774,771,766,764,761,759,757,757,755,754,752,750,749,747,747,747,747,747,747,747,746,746,746,746,746,744,744,744,742,742,742,742,742,744,744,744,744,744,744,742,742,742,741,741,741,741,741,741,739,739,738,736,736,736,736,739,741,741,741,741,741,741,739,739,738,738,738,738,739,738,738,738,738,738,738,739,738,738,739,738,738,736,734,734,734,734,733,733,733,734,734,734,736,736,736,736,738,739,741,741,741,744,746,747,747,747,749,750,752,754,755,757,759,761,762,762,771,771,776,778,778,781,781,785,787,787,789,790,790,792,794,796,796,798,798,800,800,802,803,805,807,809,809,811,813,813,815,817,817,819,819,821,823,825,825,827,831,831,833,835,835,839,839,841,843,843,845,847,847,849,849,851,851,851,854,854,856,856,0,0,1601,1594,1594,1594,1601,1601,1601,1609,1616,1616,1616,1609,1609,1609,1609,1609,1609,1609,1609,1609,1601,1601,1601,1601,1601,1601,1601,1601,1601,1601,1601,1601,1594,1594,1594,1594,1594,1594,1594,1594,1594,1594,1594,1594,1594,1594,1594,0,0,0,0,0,989,989,989,992,992,989,989,987,984,981,981,978,978,978,978,981,981,981,984,987,989,989,992,992,995,995,998,998,998,0,0,0,0,1572,1572,1579,1572,1572,1572,1572,1572,1564,1564,1557,1557,1564,1564,1564,1564,1564,1564,1564,1564,1564,1564,1564,1564,1564,1564,1564,1564,1557,1557,1557,1550,1550,1550,1550,1550,1550,1550,1550,1550,1543,1543,1543,1543,1543,1543,1543,1543,1536,1536,1543,1543,1543,1536,1536,1543,1543,1543,1536,1536,1536,1536,1529,1529,1529,1529,1529,1529,1529,1529,1529,1523,1523,1516,1516,1516,1516,1509,1503,1496,1496,1496,1496,1496,1489,1489,1489,1489,1483,1477,1477,1477,1470,1470,1464,1464,1458,1458,1452,1445,1445,1445,1439,1439,1439,1433,1427,1421,1421,1421,1421,1415,1415,1415,1410,1410,1404,1398,1398,1398,1398,1392,1392,1392,1387,1381,1376,1376,1376,1370,1370,1370,1370,1370,1365,1365,1354,1354,1354,1349,1349,1349,1343,1343,1338,1338,1333,1333,1333,1328,1322,1322,1322,1317,1317,1312,1312,1312,1312,1312,1307,1307,1302,1302,1302,1292,1292,1288,1288,1288,1283,1283,1278,1273,1273,1273,1268,1268,1264,1264,1264,1259,1255,1255,1255,1250,1250,1245,1245,1241,1236,1236,1236,1232,1232,1232,1227,1227,1227,1223,1219,1219,1214,1214,1214,1214,1214,1214,1206,1206,1206,1202,1202,1202,1197,1197,1193,1193,1189,1189,1185,1185,1185,1181,1181,1173,1173,1169,1169,1169,1169,1165,1165,1165,1165,1165,1161,1161,1157,1157,1153,1153,1153,1149,1149,1149,1145,1145,1138,1138,1134,1134,1134,1130,1130,1130,1130,1130,981,978,978,978,978,975,973,973,970,970,970,0,0,0,0,0,0,0,0,0,0,0,0,0,0,0,0,0,0,0,0,0,0,0,0,0,0,0,0,0,0,0,0,0,0
0,0,0,0,0,0,0,0,0,0,0,1722,1722,1722,1722,1722,1713,1713,1713,1713,1713,1713,1713,1713,1722,1722,1713,1713,1713,1713,1705,1705,1705,1705,0,0,0,0,0,0,0,0,0,989,987,984,984,984,984,984,984,987,987,987,989,992,992,995,995,998,998,1001,887,882,880,878,875,875,875,873,869,778,774,771,766,764,761,759,757,755,754,752,749,749,746,746,744,744,744,746,744,744,742,742,742,742,742,742,742,742,741,741,741,741,741,742,742,742,742,742,741,741,739,739,739,738,738,738,738,738,736,733,733,734,734,733,733,733,733,736,736,738,738,738,736,736,736,736,734,734,734,734,734,734,734,734,734,734,733,733,738,738,736,734,733,733,731,731,731,731,733,733,733,734,734,736,736,736,738,739,741,741,741,744,746,747,747,747,749,750,752,754,755,759,761,764,767,774,776,778,778,778,780,781,781,783,787,787,789,790,792,792,794,796,796,798,798,800,802,802,803,805,807,809,809,811,813,813,815,817,817,819,819,821,823,825,827,827,831,831,833,835,837,839,841,841,843,843,845,847,847,849,849,851,851,851,854,854,854,1264,1609,1609,1601,1601,1594,1594,1601,1601,1601,1601,1609,1609,1609,1609,1609,1609,1601,1601,1601,1601,1601,1594,1594,1594,1594,1594,1594,1594,1594,1594,1594,1594,1594,1594,1594,1594,1594,1594,1594,1594,1594,1594,1594,1586,1586,1586,1586,1572,1572,0,0,0,0,0,0,989,989,992,992,989,989,987,987,984,984,981,978,978,981,981,981,984,987,989,989,989,992,992,995,998,998,1001,1001,0,0,0,0,1572,1572,1572,1572,1572,1572,1572,1572,1564,1557,1557,1557,1557,1564,1557,1557,1564,1557,1557,1557,1557,1557,1557,1557,1557,1557,1557,1557,1550,1550,1550,1550,1550,1543,1543,1543,1543,1543,1543,1543,1543,1543,1543,1536,1536,1536,1536,1536,1536,1536,1536,1536,1536,1536,1536,1536,1536,1536,1536,1536,1529,1529,1529,1529,1529,1529,1529,1529,1529,1529,1523,1523,1523,1516,1516,1516,1516,1509,1509,1496,1496,1496,1496,1496,1496,1489,1489,1489,1483,1483,1477,1477,1470,1470,1464,1464,1458,1458,1452,1445,1445,1445,1445,1439,1439,1433,1427,1421,1421,1421,1421,1421,1415,1415,1410,1410,1404,1398,1398,1398,1398,1392,1392,1392,1387,1381,1376,1376,1376,1370,1370,1370,1370,1370,1365,1365,1354,1354,1354,1349,1349,1349,1343,1343,1338,1338,1333,1333,1333,1333,1328,1322,1322,1322,1317,1312,1312,1312,1312,1312,1307,1307,1307,1302,1302,1292,1292,1292,1288,1288,1288,1283,1278,1273,1273,1273,1268,1268,1264,1264,1259,1255,1255,1255,1255,1250,1250,1245,1245,1241,1236,1236,1236,1236,1232,1232,1232,1227,1227,1223,1219,1219,1214,1214,1214,1214,1214,1210,1210,1210,1206,1202,1202,1202,1197,1197,1193,1193,1189,1189,1185,1185,1185,1181,1181,1177,1173,1173,1169,1169,1169,1169,1165,1165,1165,1165,1161,1161,1157,1157,1153,1153,1153,1149,1149,1149,1145,1145,1138,1138,1138,1134,1134,1134,1130,1130,1134,1134,978,978,978,975,975,973,973,973,970,970,970,0,0,0,0,0,0,0,0,0,0,0,0,0,0,0,0,0,0,0,0,0,0,0,0,0,0,0,0,0,0,0,0,0,0
0,0,0,0,0,0,0,0,0,0,0,1722,1722,1713,1713,1713,1713,1713,1713,1713,1705,1705,1705,1713,1713,1713,1705,1705,1705,1696,1696,1696,1696,1696,0,0,0,0,0,0,0,0,0,989,987,987,984,984,984,984,984,987,987,989,989,995,995,995,998,998,998,1001,1001,882,880,875,875,873,873,869,869,778,774,773,769,764,762,759,757,754,752,750,747,746,744,744,742,741,741,741,741,739,739,739,739,739,739,739,739,739,739,739,739,739,739,741,739,739,739,739,739,739,736,736,736,734,734,734,734,734,734,733,733,733,733,733,731,731,731,733,733,733,733,734,734,734,733,733,733,733,733,733,733,733,733,733,733,733,731,731,731,731,730,730,731,731,730,730,731,731,731,733,733,733,734,734,736,736,738,739,741,741,742,744,746,747,747,747,749,750,752,754,755,761,762,771,771,776,776,778,778,778,780,781,781,783,787,787,789,790,792,792,794,796,796,798,798,800,802,802,803,805,807,809,809,811,813,815,815,817,819,819,821,823,825,825,827,827,831,833,833,835,837,839,841,841,843,843,845,847,849,849,849,851,851,851,851,1264,1264,1264,1609,1609,1601,1601,1594,1594,1601,1601,1601,1601,1601,1601,1601,1601,1601,1601,1601,1594,1594,1594,1594,1586,1586,1586,1586,1586,1586,1586,1594,1594,1594,1594,1594,1594,1594,1594,1586,1586,1586,1586,1586,1586,1586,1579,1579,1579,1572,1572,1572,0,0,0,0,0,0,0,995,992,992,992,989,989,987,984,984,981,981,981,981,981,984,987,987,989,989,992,992,995,998,998,1001,1001,1001,1004,0,0,0,1572,1572,1572,1572,1572,1557,1557,1557,1550,1550,1550,1550,1557,1557,1557,1557,1557,1557,1557,1557,1557,1550,1550,1550,1550,1550,1550,1550,1543,1543,1543,1543,1543,1543,1543,1543,1543,1543,1543,1543,1543,1543,1536,1536,1536,1536,1536,1529,1529,1529,1536,1536,1536,1529,1529,1536,1529,1529,1529,1529,1523,1523,1523,1523,1523,1529,1523,1523,1523,1523,1523,1523,1516,1516,1516,1516,1516,1509,1509,1503,1503,1496,1496,1496,1496,1489,1489,1489,1483,1483,1477,1477,1470,1470,1464,1464,1458,1458,1452,1445,1445,1445,1445,1439,1439,1433,1433,1421,1421,1421,1421,1421,1415,1415,1410,1410,1404,1398,1398,1398,1398,1392,1392,1392,1392,1387,1381,1376,1376,1376,1370,1370,1370,1370,1370,1365,1354,1354,1354,1349,1349,1349,1343,1343,1338,1338,1338,1333,1333,1333,1328,1328,1328,1322,1317,1317,1312,1312,1312,1312,1312,1307,1307,1302,1302,1292,1292,1292,1288,1288,1288,1283,1278,1273,1273,1273,1268,1268,1264,1264,1259,1255,1255,1255,1255,1250,1250,1250,1245,1245,1241,1236,1236,1236,1236,1232,1232,1232,1227,1227,1223,1219,1214,1214,1214,1214,1214,1210,1210,1210,1206,1202,1202,1202,1202,1197,1193,1193,1189,1189,1185,1185,1185,1185,1181,1181,1177,1173,1173,1173,1169,1169,1169,1165,1165,1165,1165,1161,1161,1157,1157,1153,1153,1149,1149,1149,1145,1145,1138,1138,1138,1134,1134,1134,1134,1134,1134,1134,978,978,975,975,975,973,973,973,970,970,970,0,0,0,0,0,0,0,0,0,0,0,0,0,0,0,0,0,0,0,0,0,0,0,0,0,0,0,0,0,0,0,0,0,0
0,0,0,0,0,0,0,0,0,0,0,1713,1713,1705,1705,1705,1705,1705,1705,1705,1705,1705,1705,1705,1713,1713,1696,1696,1696,1696,1688,1688,1688,1688,1688,0,0,0,0,0,0,0,0,0,987,987,984,984,984,984,987,987,987,989,992,995,995,995,998,998,998,998,1001,1001,878,873,871,869,869,867,867,862,774,773,771,764,762,759,757,754,752,750,746,744,744,742,741,739,739,738,738,738,738,736,736,736,736,736,736,736,738,738,738,738,738,739,738,738,738,739,738,736,731,731,733,733,733,733,733,734,733,733,733,731,731,730,728,728,730,730,730,730,731,731,731,731,730,730,731,730,730,730,730,730,730,730,730,730,728,728,730,728,728,728,730,730,730,730,730,730,731,733,733,733,733,734,734,736,739,739,741,741,742,744,746,747,747,747,750,752,754,755,762,769,773,773,773,776,778,778,778,780,780,781,781,785,787,789,789,790,792,794,794,796,796,798,798,800,802,802,803,805,807,809,809,811,815,815,817,817,819,819,821,823,825,825,827,827,831,833,833,835,837,837,839,841,843,843,845,847,849,849,849,851,851,1264,1264,1264,1264,1264,1601,1601,1601,1601,1594,1594,1601,1601,1601,1601,1601,1594,1594,1594,1594,1594,1594,1594,1586,1586,1586,1586,1586,1579,1579,1579,1579,1579,1579,1579,1579,1586,1586,1586,1586,1586,1586,1586,1579,1579,1579,1579,1579,1579,1572,1572,1564,1564,1572,1572,0,0,0,0,0,0,995,995,992,992,992,989,989,987,984,984,981,981,981,981,984,987,989,989,992,992,992,995,998,998,1001,1001,1001,1004,0,0,0,0,1572,1557,1557,1550,1550,1557,1550,1550,1550,1550,1550,1550,1550,1550,1550,1550,1550,1550,1550,1550,1543,1543,1543,1543,1543,1543,1543,1543,1543,1543,1543,1543,1543,1543,1543,1543,1543,1536,1536,1536,1536,1529,1529,1529,1529,1529,1529,1529,1529,1529,1529,1529,1529,1529,1529,1529,1523,1523,1523,1523,1516,1516,1516,1516,1516,1523,1523,1523,1523,1523,1516,1516,1516,1516,1516,1509,1509,1503,1503,1503,1496,1496,1496,1496,1489,1489,1489,1483,1483,1477,1477,1470,1470,1464,1464,1458,1458,1452,1445,1445,1445,1445,1439,1439,1439,1427,1421,1421,1421,1421,1421,1415,1415,1410,1410,1404,1398,1398,1398,1398,1392,1392,1392,1392,1387,1381,1381,1376,1376,1376,1370,1370,1370,1370,1365,1359,1354,1354,1349,1349,1349,1343,1343,1343,1343,1338,1338,1333,1333,1328,1328,1328,1322,1317,1317,1312,1312,1312,1312,1312,1307,1307,1302,1302,1292,1292,1292,1288,1288,1288,1283,1278,1278,1273,1273,1268,1268,1264,1264,1264,1259,1255,1255,1255,1250,1250,1250,1250,1245,1245,1241,1241,1236,1236,1236,1232,1232,1232,1227,1227,1219,1214,1214,1214,1214,1214,1210,1210,1210,1206,1202,1202,1202,1202,1197,1197,1193,1189,1185,1185,1185,1185,1185,1181,1181,1181,1177,1177,1173,1173,1169,1169,1165,1165,1165,1165,1161,1161,1157,1157,1153,1153,1153,1149,1149,1145,1145,1138,1138,1138,1134,1134,1134,1134,1134,1134,975,975,975,975,975,975,973,973,973,973,973,973,0,0,0,0,0,0,0,0,0,0,0,0,0,0,0,0,0,0,0,0,0,0,0,0,0,0,0,0,0,0,0,0,0,0
0,0,0,0,0,0,0,0,0,0,0,1713,1713,1705,1705,1705,1696,1696,1696,1696,1696,1696,1696,1705,1705,1705,1696,1696,1696,1688,1688,1688,1688,1688,1688,0,0,0,0,0,0,0,0,0,0,987,987,984,984,987,987,987,987,989,989,992,995,995,998,998,998,998,1001,1001,878,873,871,869,869,864,864,860,858,773,771,764,762,761,757,754,752,749,746,744,742,742,741,739,738,738,738,738,736,736,734,734,733,733,733,733,734,734,734,734,736,738,736,734,734,734,731,731,730,730,730,730,730,731,731,731,731,730,730,730,728,727,727,727,727,727,727,727,727,727,728,728,728,728,728,727,727,727,728,728,727,727,727,728,727,727,727,725,725,727,728,728,728,728,728,730,730,731,733,733,733,734,734,736,739,739,741,742,742,744,746,747,747,749,750,754,767,767,767,769,773,773,773,776,778,778,778,780,781,781,783,785,787,789,790,790,792,794,796,796,796,798,798,800,802,802,803,805,809,809,809,813,815,817,817,819,819,821,821,823,825,825,827,829,831,831,833,835,837,837,839,841,843,843,845,847,849,849,849,1264,1264,1264,1264,1264,1264,1264,1594,1594,1594,1594,1594,1594,1594,1594,1594,1594,1594,1586,1586,1586,1586,1586,1586,1586,1579,1579,1579,1579,1579,1572,1572,1572,1572,1572,1572,1572,1572,1572,1572,1572,1579,1579,1579,1579,1572,1572,1572,1572,1572,1572,1572,1564,1564,1564,1564,1572,0,0,0,0,0,0,0,995,995,995,992,992,989,989,987,984,984,984,984,984,984,987,989,992,992,992,992,995,998,998,1001,1001,1001,1004,0,0,0,1572,1572,1557,1550,1550,1543,1543,1543,1543,1543,1550,1550,1550,1550,1550,1543,1543,1543,1543,1543,1543,1536,1536,1536,1536,1536,1536,1536,1536,1536,1536,1536,1536,1536,1536,1536,1536,1536,1529,1529,1529,1529,1529,1529,1523,1523,1523,1523,1523,1523,1523,1523,1523,1523,1523,1523,1523,1523,1523,1523,1516,1516,1516,1516,1516,1516,1516,1516,1516,1516,1516,1516,1516,1516,1509,1509,1509,1509,1503,1503,1496,1496,1496,1496,1496,1489,1489,1489,1483,1483,1483,1477,1470,1470,1464,1464,1458,1458,1452,1445,1445,1445,1445,1439,1439,1439,1427,1427,1421,1421,1421,1421,1415,1415,1410,1410,1404,1398,1398,1398,1398,1398,1392,1392,1392,1387,1387,1381,1376,1376,1376,1376,1370,1370,1370,1365,1359,1354,1354,1349,1349,1349,1349,1343,1343,1343,1343,1338,1338,1333,1328,1328,1328,1322,1322,1317,1317,1312,1312,1312,1312,1307,1307,1302,1302,1292,1292,1292,1288,1288,1288,1283,1278,1278,1273,1273,1268,1268,1268,1264,1264,1259,1259,1255,1255,1255,1250,1250,1250,1250,1241,1241,1241,1236,1236,1236,1236,1232,1232,1223,1223,1219,1214,1214,1214,1214,1214,1210,1210,1210,1206,1202,1202,1202,1202,1197,1197,1197,1193,1185,1185,1185,1185,1181,1181,1181,1181,1177,1177,1177,1173,1169,1169,1165,1165,1165,1165,1161,1161,1161,1157,1153,1153,1153,1149,1149,1145,1145,1141,1138,1138,1138,1138,1134,1134,1134,1134,975,975,975,975,975,975,975,973,973,973,973,973,0,0,0,0,0,0,0,0,0,0,0,0,0,0,0,0,0,0,0,0,0,0,0,0,0,0,0,0,0,0,0,0,0,0
