0,0,0,0,0,0,0,0,0,0,1227,1223,1223,1219,1219,1219,1219,1219,1219,1219,1223,1223,1223,1223,1223,1223,1223,1223,1223,1223,1223,1223,1223,1223,1219,1219,1219,1219,1219,1214,1214,1214,1214,1214,1214,1214,1214,1214,1214,1214,1214,1214,1214,1214,1214,1214,1214,1214,1214,1214,1210,1210,1210,1210,1210,1210,1214,1219,1219,1214,1214,1214,1214,1219,1219,1214,1214,1214,1214,1210,1210,1210,1210,1210,1210,1206,1202,1101,1101,1101,1101,1105,1105,1105,1105,1105,1105,1105,1105,1105,1112,1112,1115,1115,1115,1119,1119,1123,0,0,0,0,0,0,0,0,0,741,741,742,742,744,746,746,747,747,749,749,750,750,752,752,754,754,754,754,757,757,759,759,759,761,761,0,0,0,0,0,0,0,1202,1202,1202,1197,1197,1197,1197,1197,1193,1193,1193,1193,1193,1193,1189,1189,1193,1193,1193,1193,1193,1193,1193,1193,1193,1189,1189,1189,1189,1189,1189,1185,1185,1185,1185,1185,1185,1185,1185,1185,1193,1193,1189,1189,1185,1185,1185,1185,1181,1181,1181,1181,1185,1185,1185,1185,1185,1185,1185,1185,1181,1181,1181,1181,1181,1181,1181,1181,1185,1185,1185,1185,1181,1181,1181,1181,1181,1177,1177,975,975,975,975,973,973,962,956,954,951,948,946,943,940,938,935,935,933,933,933,930,928,928,928,928,928,928,928,928,930,930,930,930,930,930,930,930,930,930,930,930,930,933,933,935,935,938,938,940,940,943,943,943,946,948,948,951,954,954,956,956,959,959,962,962,964,967,967,970,970,973,973,975,975,1161,1161,1157,1157,1157,1161,1161,1161,1161,1161,1161,1165,1165,1165,1165,1165,1165,1165,1165,1161,1161,1161,1157,1157,1157,1063,1063,1060,1057,1054,1050,1047,1044,1041,1041,1038,1038,1041,1041,1041,1044,1047,1047,1050,1050,1054,1054,1050,1050,1050,1149,1149,1149,1149,1149,1149,1149,1149,1149,1149,1149,1149,1149,1149,1149,1149,1145,1145,1145,1145,1145,1145,1145,1145,1145,1145,1145,1145,1149,1149,1149,1149,1145,1145,1141,1141,1141,1141,1141,1138,1138,1138,1141,1145,1145,1145,1145,1145,1145,1141,1141,1141,1138,1138,1138,1138,1138,1138,1138,1138,1138,1138,1138,1138,1138,1138,1138,1138,1138,1138,1138,1138,1138,1138,1134,1134,1138,1138,1138,1134,1134,1134,1134,1138,1134,1134,1134,1134,1134,1138,1138,1138,1138,1138,1138,1138,1134,1134,1134,1134,1134,1134,1134,1134,1134,1134,1134,1134,1134,1134,1134,1134,1130,1130,1130,1130,1130,1130,1130,1130,1130,1126,1126,1126,1126,1126,1126,1123,1123,1123,1123,1123,1123,1123,1123,1123,1123,1123,1119,1119,1119,1119,1119,1119,1119,1119,1119,1119,1119,1119,1123,1119,1119,1119,1119,1119,1119,1119,1119,1119,1119,1119,1115,1112,1112,1112,1115,1115,1115,1115,1115,1115,1115,1115,1115,1115,1115,1115,1112,1112,1112,1108,1108,1108,1108,1112,1112,1112,1112,1108,1108,1108,1108,1108,1108,1108,1108,1108,1108,1108,1105,1105,1105,1105,1105,0,0,0,0,0,0,0,0,0,0,0,0,774,774,774,774,774,774,774,774,774,774,774,773,773,773,771,771,771,769,769,769,769,767,767,767,767,767,767,767,767,767,767,767,0,0,0,0,0,0,0,0,0,0,0,0,0,0,0,0,0,0,0,0,0,0,0,0,0,0,0,0,0,0,0,0,0,0,0,0,0,0
0,0,0,0,0,0,0,0,0,0,0,1219,1219,1219,1219,1219,1214,1214,1214,1214,1219,1219,1214,1214,1214,1219,1219,1219,1219,1219,1219,1219,1219,1219,1214,1214,1214,1214,1214,1214,1210,1210,1210,1206,1206,1210,1210,1210,1214,1214,1214,1214,1214,1214,1210,1210,1210,1210,1210,1210,1206,1206,1210,1210,1210,1210,1214,1214,1214,1210,1210,1210,1210,1214,1214,1210,1210,1210,1210,1210,1206,1206,1206,1206,1206,1202,1197,1101,1101,1101,1101,1105,1105,1105,1105,1105,1108,1108,1108,1108,1112,1115,1115,1115,1115,1119,1119,0,0,0,0,0,0,0,0,0,746,746,744,742,742,744,746,746,747,747,749,749,750,752,752,752,754,754,754,757,757,759,759,759,759,761,761,0,0,0,0,0,0,0,1202,1202,1197,1197,1193,1193,1193,1193,1193,1189,1189,1189,1189,1185,1185,1181,1181,1185,1185,1185,1181,1181,1181,1189,1189,1185,1185,1185,1185,1185,1185,1181,1181,1181,1181,1185,1181,1181,1181,1181,1185,1185,1181,1181,1185,1185,1185,1181,1181,1181,1181,1181,1181,1181,1181,1181,1181,1181,1181,1181,1181,1181,1181,1181,1181,1181,1181,1181,1181,1181,1181,1181,1181,1181,1181,1177,1177,1177,1177,978,975,975,975,973,973,962,959,956,954,948,946,943,938,935,933,933,930,930,928,928,928,925,925,925,925,925,925,928,928,928,928,928,928,928,928,928,928,928,928,930,930,930,933,933,935,938,940,940,943,943,943,943,946,948,951,954,954,956,956,959,959,959,962,962,964,967,967,970,973,973,973,975,1157,1157,1157,1157,1157,1157,1157,1157,1161,1157,1157,1157,1161,1161,1161,1161,1161,1157,1157,1157,1161,1157,1157,1157,1153,1153,1153,1063,1060,1060,1057,1054,1050,1044,1041,1041,1041,1041,1041,1041,1041,1044,1047,1050,1050,1050,1054,1054,1050,1050,1050,1145,1145,1145,1149,1145,1145,1145,1145,1145,1149,1145,1145,1145,1145,1145,1145,1141,1141,1141,1141,1141,1141,1141,1141,1141,1141,1141,1141,1141,1141,1141,1145,1145,1141,1141,1141,1138,1138,1138,1138,1138,1138,1138,1138,1138,1138,1138,1141,1141,1141,1138,1138,1138,1138,1134,1134,1134,1134,1134,1138,1138,1138,1138,1138,1138,1138,1138,1134,1134,1134,1134,1134,1134,1134,1134,1134,1134,1134,1134,1134,1134,1134,1134,1134,1130,1130,1130,1130,1130,1134,1134,1134,1134,1134,1134,1134,1134,1134,1130,1130,1130,1130,1130,1130,1130,1130,1130,1130,1130,1130,1130,1126,1126,1126,1126,1126,1126,1126,1126,1126,1123,1123,1123,1123,1123,1123,1123,1123,1123,1123,1123,1123,1119,1119,1119,1119,1119,1119,1119,1119,1119,1119,1115,1115,1115,1115,1115,1119,1115,1115,1115,1115,1112,1112,1115,1115,1115,1119,1115,1115,1115,1115,1112,1108,1108,1108,1112,1112,1112,1112,1112,1112,1112,1112,1112,1112,1112,1112,1112,1108,1108,1108,1108,1108,1108,1108,1108,1108,1108,1108,1105,1105,1105,1105,1105,1105,1105,1105,1105,1105,1101,1101,1101,1101,0,0,0,0,0,0,0,0,0,0,0,0,0,774,774,774,774,774,774,774,774,774,774,774,773,773,773,773,771,771,769,769,769,769,767,767,767,767,767,767,767,767,767,767,767,0,0,0,0,0,0,0,0,0,0,0,0,0,0,0,0,0,0,0,0,0,0,0,0,0,0,0,0,0,0,0,0,0,0,0,0,0,0
0,0,0,0,0,0,0,0,0,1223,1223,1219,1219,1214,1214,1214,1214,1214,1214,1214,1214,1210,1210,1210,1210,1210,1210,1210,1210,1210,1210,1214,1214,1214,1214,1214,1214,1214,1214,1210,1210,1206,1202,1202,1202,1206,1206,1206,1210,1210,1210,1210,1210,1210,1210,1210,1210,1206,1206,1206,1206,1206,1206,1210,1210,1210,1210,1210,1210,1210,1210,1206,1206,1210,1210,1206,1206,1202,1202,1206,1202,1202,1202,1202,1202,1197,1197,1193,1101,1101,1101,1105,1105,1105,1105,1105,1108,1108,1108,1108,1112,1115,1115,1115,1115,1119,1119,1123,0,0,0,0,0,0,0,0,746,746,746,746,744,744,746,747,747,747,749,750,750,752,752,754,754,754,755,757,757,759,759,759,761,761,761,762,0,0,0,0,0,0,1197,1197,1197,1193,1189,1185,1185,1189,1189,1189,1189,1189,1189,1185,1185,1181,1181,1185,1181,1181,1181,1181,1181,1181,1181,1185,1185,1185,1185,1185,1185,1181,1181,1181,1181,1181,1181,1181,1181,1181,1181,1181,1181,1181,1181,1181,1181,1181,1181,1181,1181,1181,1181,1181,1181,1181,1181,1181,1181,1181,1177,1177,1177,1177,1177,1177,1177,1177,1177,1177,1177,1177,1177,1177,1177,1177,1177,1177,1173,978,978,975,975,975,967,962,959,956,954,951,946,943,935,933,930,930,930,925,925,925,925,923,923,925,925,925,925,925,925,925,925,925,925,925,925,925,925,928,928,930,930,930,933,933,935,938,940,940,943,943,943,946,946,948,951,954,956,956,956,959,959,959,962,962,964,967,967,970,1149,1149,1153,1153,1153,1153,1157,1157,1153,1153,1153,1153,1157,1157,1153,1153,1157,1157,1157,1157,1157,1153,1153,1153,1153,1153,1153,1153,1153,1153,1153,1063,1063,1060,1060,1057,1054,1050,1044,1041,1041,1041,1041,1041,1044,1047,1050,1050,1050,1054,1054,1054,1054,1054,1141,1141,1141,1141,1145,1145,1141,1141,1145,1145,1145,1141,1141,1145,1141,1141,1141,1138,1138,1138,1138,1138,1138,1138,1138,1138,1138,1138,1138,1138,1138,1138,1138,1138,1138,1138,1138,1138,1138,1138,1134,1134,1134,1134,1134,1138,1138,1138,1138,1138,1138,1138,1138,1138,1134,1134,1134,1134,1134,1134,1134,1134,1134,1134,1134,1134,1134,1134,1134,1134,1130,1130,1130,1130,1130,1130,1130,1130,1130,1134,1134,1130,1130,1130,1126,1126,1126,1126,1126,1126,1130,1130,1130,1130,1130,1130,1130,1130,1130,1126,1126,1126,1126,1126,1126,1126,1126,1130,1130,1126,1126,1123,1123,1123,1123,1123,1123,1123,1123,1123,1123,1123,1123,1119,1119,1119,1119,1119,1119,1119,1119,1119,1119,1119,1119,1119,1119,1119,1119,1119,1119,1115,1115,1115,1115,1115,1112,1112,1115,1112,1112,1112,1112,1112,1112,1108,1108,1112,1115,1115,1112,1112,1112,1108,1108,1108,1108,1108,1108,1108,1108,1108,1108,1108,1108,1112,1108,1108,1108,1108,1108,1108,1108,1108,1108,1108,1108,1105,1105,1105,1105,1101,1101,1101,1101,1101,1101,1101,1105,1101,1101,1101,1097,1097,1090,1090,0,0,0,0,0,0,0,0,0,0,0,778,776,776,774,774,774,774,774,774,774,774,774,774,774,773,773,771,771,771,771,769,769,769,767,767,767,767,767,767,767,767,767,767,0,0,0,0,0,0,0,0,0,0,0,0,0,0,0,0,0,0,0,0,0,0,0,0,0,0,0,0,0,0,0,0,0,0,0,0,0,0
0,0,0,0,0,0,0,0,0,1223,1223,1219,1214,1214,1214,1214,1214,1214,1210,1210,1210,1210,1210,1206,1206,1210,1210,1210,1210,1210,1210,1214,1210,1210,1210,1210,1210,1210,1210,1210,1206,1202,1202,1197,1197,1202,1202,1202,1202,1206,1206,1210,1206,1206,1206,1206,1206,1202,1202,1202,1202,1202,1202,1202,1202,1206,1206,1210,1206,1206,1206,1202,1202,1206,1206,1202,1202,1202,1202,1202,1202,1197,1197,1197,1197,1193,1193,1193,1105,1105,1105,1105,1105,1105,1105,1108,1108,1108,1112,1112,1115,1115,1119,1119,1119,1123,1123,1123,0,0,0,0,0,0,0,0,0,744,744,746,746,746,746,747,747,749,750,750,752,752,752,754,754,754,755,757,759,759,759,761,762,762,762,762,0,0,0,0,0,0,1197,1197,1193,1189,1185,1185,1185,1185,1185,1185,1185,1185,1185,1181,1181,1181,1181,1181,1181,1181,1181,1181,1181,1181,1181,1181,1181,1181,1181,1181,1181,1181,1181,1181,1181,1181,1177,1177,1177,1177,1177,1177,1177,1177,1177,1177,1177,1177,1177,1177,1177,1177,1177,1177,1177,1177,1177,1177,1177,1177,1177,1177,1177,1177,1173,1173,1173,1173,1173,1173,1173,1173,1173,1173,1173,1173,1173,1173,1169,975,975,975,975,975,967,962,959,954,954,951,948,933,930,930,925,923,923,923,923,923,923,920,920,920,923,923,923,923,923,923,923,923,925,925,925,925,925,928,928,930,930,930,933,935,935,940,940,943,943,943,946,946,948,948,954,954,956,956,956,956,959,959,959,962,964,967,1149,1149,1149,1149,1149,1153,1153,1153,1153,1153,1153,1153,1149,1149,1153,1149,1149,1149,1153,1153,1153,1153,1153,1153,1153,1149,1149,1149,1149,1149,1149,1145,1145,1063,1063,1063,1060,1060,1057,1054,1047,1044,1041,1041,1041,1044,1044,1047,1050,1050,1054,1054,1054,1054,1054,1054,1141,1138,1138,1141,1141,1141,1141,1141,1141,1141,1145,1141,1141,1141,1141,1141,1138,1138,1138,1138,1138,1138,1138,1138,1138,1138,1138,1134,1134,1134,1134,1134,1134,1134,1134,1134,1134,1134,1134,1134,1134,1134,1134,1134,1134,1134,1134,1134,1134,1134,1134,1134,1134,1134,1134,1130,1130,1130,1130,1130,1130,1130,1130,1130,1134,1134,1130,1130,1130,1130,1126,1126,1126,1126,1126,1126,1126,1126,1126,1130,1130,1126,1126,1123,1123,1123,1123,1123,1123,1126,1126,1126,1126,1126,1126,1123,1123,1123,1119,1119,1123,1123,1123,1123,1123,1123,1123,1123,1123,1123,1123,1119,1119,1119,1119,1119,1119,1119,1119,1119,1119,1119,1119,1119,1119,1115,1115,1115,1115,1115,1115,1119,1115,1115,1115,1115,1119,1115,1115,1115,1115,1112,1112,1112,1112,1112,1108,1108,1112,1108,1108,1108,1108,1108,1108,1108,1108,1108,1108,1108,1108,1108,1108,1108,1105,1105,1105,1105,1105,1105,1105,1105,1105,1108,1108,1108,1108,1108,1108,1108,1105,1105,1105,1105,1105,1105,1105,1105,1105,1101,1101,1097,1097,1097,1097,1097,1097,1097,1097,1097,1097,1094,1094,1094,1090,1087,1087,0,0,0,0,0,0,0,0,0,0,778,776,776,774,774,774,774,774,774,774,774,774,774,774,773,773,773,773,771,771,771,769,769,769,769,769,769,769,769,769,769,767,767,0,0,0,0,0,0,0,0,0,0,0,0,0,0,0,0,0,0,0,0,0,0,0,0,0,0,0,0,0,0,0,0,0,0,0,0,0,0
0,0,0,0,0,0,0,0,0,0,0,1214,1210,1210,1210,1210,1210,1210,1210,1210,1210,1206,1206,1206,1206,1206,1206,1206,1206,1206,1206,1210,1210,1206,1206,1210,1210,1206,1206,1206,1202,1202,1197,1197,1197,1197,1202,1202,1202,1202,1206,1206,1206,1202,1202,1202,1202,1197,1197,1202,1202,1202,1202,1202,1202,1202,1202,1202,1197,1197,1197,1197,1202,1202,1202,1197,1197,1197,1197,1197,1197,1197,1193,1193,1193,1189,1189,1189,1189,1108,1108,1108,1108,1108,1108,1108,1112,1112,1112,1115,1115,1119,1119,1119,1123,1123,1123,1123,1123,0,0,0,0,0,0,0,0,744,744,746,746,746,747,747,749,749,750,750,752,752,754,754,754,755,757,757,759,759,761,761,762,762,762,762,762,0,0,0,0,0,1197,1193,1189,1185,1181,1181,1181,1181,1181,1181,1181,1181,1181,1181,1181,1181,1181,1181,1181,1181,1181,1181,1181,1177,1177,1177,1181,1181,1177,1177,1181,1181,1181,1177,1177,1177,1177,1177,1177,1177,1173,1173,1177,1177,1177,1177,1177,1177,1173,1173,1173,1177,1177,1177,1177,1177,1177,1177,1177,1177,1173,1173,1173,1169,1169,1169,1169,1169,1169,1169,1173,1173,1173,1169,1169,1169,1169,1169,1169,975,975,975,975,975,975,975,954,954,954,951,951,915,915,918,920,918,918,918,920,918,918,918,918,920,920,920,920,920,920,923,923,923,923,923,925,925,925,928,928,930,930,933,933,935,938,940,943,943,943,946,946,946,948,948,954,954,956,956,956,956,956,959,959,964,964,1145,1145,1149,1149,1149,1149,1149,1149,1149,1149,1149,1149,1149,1149,1149,1149,1149,1149,1149,1153,1153,1149,1149,1149,1149,1149,1149,1149,1149,1149,1149,1145,1141,1141,1067,1063,1063,1063,1060,1060,1057,1050,1047,1044,1044,1044,1044,1047,1050,1050,1050,1054,1054,1054,1054,1054,1138,1138,1138,1138,1138,1138,1138,1138,1138,1138,1138,1138,1138,1138,1138,1138,1138,1138,1134,1134,1134,1134,1134,1134,1134,1134,1134,1134,1134,1130,1130,1130,1130,1130,1134,1134,1134,1134,1134,1130,1130,1130,1130,1130,1130,1130,1134,1130,1130,1130,1134,1134,1134,1134,1134,1130,1130,1130,1126,1126,1126,1126,1126,1126,1130,1130,1130,1130,1130,1126,1126,1126,1123,1123,1123,1123,1123,1123,1123,1123,1126,1126,1123,1123,1123,1123,1119,1119,1123,1123,1123,1123,1123,1123,1123,1123,1119,1119,1119,1119,1119,1119,1119,1115,1115,1119,1119,1119,1119,1119,1119,1119,1119,1119,1119,1119,1119,1119,1119,1119,1115,1115,1115,1115,1115,1115,1112,1112,1115,1112,1112,1112,1115,1112,1112,1112,1112,1112,1112,1112,1112,1112,1108,1108,1108,1108,1108,1108,1108,1108,1108,1108,1105,1105,1105,1105,1105,1105,1105,1105,1105,1105,1105,1105,1105,1105,1105,1105,1105,1105,1101,1101,1101,1101,1105,1105,1105,1105,1105,1105,1105,1105,1105,1105,1105,1105,1105,1105,1101,1101,1097,1097,1097,1094,1094,1094,1094,1094,1094,1094,1094,1094,1094,1094,1090,1090,1087,1084,1084,0,0,0,0,0,0,780,780,778,776,776,776,774,774,774,774,774,774,774,774,774,774,774,774,773,773,773,771,771,771,771,769,769,769,769,769,769,769,769,769,769,769,0,0,0,0,0,0,0,0,0,0,0,0,0,0,0,0,0,0,0,0,0,0,0,0,0,0,0,0,0,0,0,0,0,0,0,0,0,0
0,0,0,0,0,0,0,0,0,0,0,1210,1210,1210,1210,1210,1210,1210,1206,1206,1206,1206,1202,1202,1202,1202,1202,1202,1202,1202,1202,1206,1202,1202,1202,1202,1206,1202,1202,1202,1202,1197,1197,1197,1197,1197,1197,1197,1197,1197,1202,1202,1202,1197,1197,1197,1197,1197,1197,1197,1197,1197,1197,1197,1197,1197,1197,1197,1197,1193,1193,1193,1193,1193,1193,1193,1193,1193,1193,1197,1197,1193,1193,1193,1193,1189,1189,1189,1185,1185,1108,1108,1108,1108,1108,1108,1112,1112,1112,1115,1115,1119,1119,1119,1123,1123,1123,1123,1123,0,0,0,0,0,0,0,0,0,746,746,746,746,747,747,749,750,750,752,752,754,754,754,755,757,757,759,759,761,761,761,764,764,764,762,762,0,0,0,0,0,0,1193,1185,1185,1181,1181,1181,1181,1181,1181,1181,1181,1181,1177,1177,1177,1177,1177,1177,1177,1177,1177,1177,1177,1177,1177,1177,1177,1177,1177,1177,1177,1177,1173,1173,1173,1173,1173,1173,1169,1169,1169,1169,1173,1173,1173,1173,1173,1173,1173,1173,1173,1173,1173,1173,1173,1173,1173,1173,1173,1169,1169,1169,1169,1165,1165,1165,1169,1169,1169,1169,1169,1169,1169,1169,1169,1169,1165,1165,975,975,975,975,1169,1169,906,906,913,913,910,910,913,915,915,915,915,915,915,915,915,915,915,915,918,918,918,918,918,918,920,923,923,923,923,925,925,925,928,928,930,930,933,933,935,938,940,943,943,943,946,946,948,948,951,954,954,956,956,956,956,956,1141,1141,1141,1145,1145,1145,1145,1145,1145,1145,1149,1149,1149,1149,1145,1145,1145,1145,1145,1145,1145,1145,1149,1149,1149,1145,1145,1145,1145,1145,1145,1141,1141,1145,1145,1145,1141,1138,1067,1063,1063,1063,1060,1060,1057,1054,1050,1047,1044,1044,1047,1047,1050,1050,1050,1054,1054,1057,1054,1054,1138,1138,1138,1138,1138,1138,1138,1138,1138,1138,1138,1138,1134,1134,1134,1134,1134,1134,1134,1134,1134,1134,1134,1134,1134,1134,1134,1130,1130,1126,1126,1126,1126,1126,1130,1130,1130,1130,1130,1130,1130,1126,1126,1126,1126,1126,1126,1126,1126,1126,1130,1130,1130,1130,1130,1130,1126,1126,1123,1123,1123,1123,1123,1123,1123,1126,1126,1126,1126,1123,1123,1123,1123,1119,1119,1119,1119,1119,1123,1123,1123,1123,1123,1123,1119,1119,1119,1119,1119,1119,1119,1119,1119,1119,1119,1119,1115,1115,1115,1115,1115,1115,1115,1115,1115,1115,1115,1115,1115,1119,1119,1119,1115,1115,1115,1115,1115,1115,1115,1115,1112,1112,1112,1112,1112,1112,1108,1108,1112,1108,1108,1108,1108,1108,1108,1108,1108,1108,1108,1108,1108,1108,1108,1105,1105,1108,1108,1105,1105,1108,1105,1105,1105,1105,1105,1101,1101,1101,1101,1101,1101,1101,1101,1101,1101,1101,1101,1097,1097,1101,1101,1101,1097,1097,1101,1101,1101,1101,1097,1097,1097,1101,1101,1101,1101,1101,1101,1101,1097,1097,1097,1094,1094,1094,1094,1094,1094,1094,1094,1094,1094,1094,1090,1090,1090,1090,1087,1084,1084,0,0,0,0,785,781,780,780,778,776,776,776,774,774,774,774,774,774,774,774,774,774,774,774,774,773,773,773,773,773,771,771,771,771,771,771,771,771,771,771,769,769,0,0,0,0,0,0,0,0,0,0,0,0,0,0,0,0,0,0,0,0,0,0,0,0,0,0,0,0,0,0,0,0,0,0,0,0,0,0
0,0,0,0,0,0,0,0,0,0,0,1206,1202,1202,1206,1206,1206,1206,1202,1202,1202,1197,1197,1197,1197,1197,1197,1197,1197,1197,1197,1202,1202,1197,1197,1202,1202,1197,1197,1197,1197,1197,1197,1197,1197,1197,1197,1193,1193,1193,1197,1197,1197,1197,1197,1197,1197,1193,1193,1197,1197,1197,1193,1193,1193,1193,1193,1193,1193,1193,1193,1193,1193,1193,1193,1193,1193,1193,1193,1193,1193,1193,1193,1193,1193,1189,1189,1189,1185,1185,1112,1108,1108,1108,1108,1112,1112,1112,1115,1115,1115,1119,1119,1119,1119,1119,1123,1123,1123,1119,1119,0,0,0,0,0,0,0,0,746,746,746,747,749,749,750,750,752,754,754,755,755,755,757,757,759,759,761,761,761,764,764,764,764,764,766,0,0,0,0,0,1193,1181,1181,1177,1177,1177,1177,1177,1181,1181,1177,1177,1177,1177,1177,1177,1177,1177,1177,1177,1173,1173,1169,1169,1173,1173,1165,1165,1173,1173,1173,1173,1169,1169,1169,1169,1165,1165,1165,1165,1165,1165,1165,1165,1169,1169,1169,1169,1169,1169,1169,1169,1169,1165,1165,1165,1165,1165,1165,1165,1165,1165,1165,1165,1165,1165,1165,1165,1165,1165,1165,1165,1165,1165,1165,1165,1165,1165,1165,1165,1165,1165,1165,906,906,906,906,908,910,910,913,913,913,913,913,913,913,915,915,913,913,915,915,915,915,915,918,918,920,923,923,923,923,925,925,925,928,928,930,930,933,935,938,940,943,943,943,946,946,948,948,948,954,954,954,956,956,956,956,1141,1141,1138,1138,1141,1145,1145,1145,1145,1145,1145,1145,1145,1145,1145,1145,1141,1141,1141,1141,1141,1141,1141,1145,1145,1145,1145,1145,1141,1141,1138,1138,1138,1138,1138,1138,1138,1138,1138,1138,1067,1063,1063,1063,1060,1057,1054,1050,1050,1047,1047,1047,1050,1050,1050,1054,1054,1054,1057,1057,1057,1138,1138,1138,1138,1138,1138,1138,1138,1134,1134,1134,1134,1134,1134,1134,1134,1134,1134,1130,1130,1130,1130,1130,1130,1130,1130,1130,1126,1126,1123,1123,1123,1123,1123,1126,1126,1126,1126,1126,1126,1126,1126,1126,1123,1123,1123,1123,1123,1123,1126,1126,1126,1126,1126,1126,1126,1123,1123,1123,1123,1123,1123,1123,1123,1123,1123,1123,1123,1123,1119,1119,1119,1119,1115,1115,1115,1115,1119,1119,1119,1119,1119,1119,1119,1115,1115,1115,1115,1115,1119,1119,1119,1115,1115,1115,1115,1112,1112,1112,1112,1112,1112,1112,1112,1112,1112,1112,1112,1112,1112,1112,1112,1112,1112,1112,1112,1112,1112,1112,1112,1108,1108,1108,1108,1108,1108,1108,1108,1108,1108,1105,1105,1108,1108,1108,1108,1108,1108,1105,1105,1105,1105,1105,1101,1101,1101,1101,1101,1101,1105,1105,1105,1101,1101,1101,1097,1097,1097,1097,1097,1097,1097,1097,1097,1097,1097,1097,1094,1094,1094,1094,1094,1094,1094,1097,1097,1097,1097,1094,1094,1094,1094,1094,1097,1097,1097,1097,1097,1097,1097,1094,1094,1094,1094,1094,1090,1090,1090,1090,1090,1090,1090,1090,1090,1090,1087,1087,1084,1084,0,0,783,783,783,781,780,780,778,778,776,776,776,774,774,774,776,774,774,774,774,774,774,774,774,773,773,773,773,773,773,773,771,771,771,771,771,771,771,771,769,769,0,0,0,0,0,0,0,0,0,0,0,0,0,0,0,0,0,0,0,0,0,0,0,0,0,0,0,0,0,0,0,0,0,0,0,0,0,0
0,0,0,0,0,0,0,0,0,1206,1202,1202,1197,1197,1202,1202,1202,1202,1197,1197,1197,1197,1197,1197,1197,1197,1197,1197,1197,1197,1197,1197,1197,1197,1197,1197,1197,1197,1197,1197,1197,1193,1193,1193,1193,1193,1193,1193,1193,1193,1193,1193,1193,1197,1197,1197,1193,1193,1193,1193,1193,1193,1193,1193,1193,1193,1193,1193,1193,1189,1189,1193,1189,1189,1189,1189,1189,1189,1189,1189,1189,1189,1189,1189,1189,1189,1189,1185,1185,1181,1108,1108,1108,1108,1112,1112,1112,1115,1115,1119,1119,1119,1119,1123,1119,1119,1123,1123,1123,1119,1119,0,0,0,0,0,0,0,0,747,747,747,749,750,750,752,752,754,754,755,757,757,759,759,759,759,759,761,761,762,764,766,766,766,766,766,0,0,0,0,0,0,1177,1177,1177,1173,1173,1173,1173,1177,1177,1177,1173,1173,1177,1173,1173,1173,1173,1173,1173,1169,1169,1169,1169,1169,1169,1165,1165,1165,1173,1173,1169,1169,1165,1165,1165,1165,1165,1165,1161,1161,1161,1161,1165,1165,1165,1165,1165,1165,1165,1165,1165,1165,1165,1165,1165,1165,1161,1161,1161,1161,1161,1161,1161,1161,1161,1161,1161,1161,1165,1165,1165,1161,1161,1165,1165,1165,1165,1165,1165,1165,1165,906,906,906,906,906,908,910,910,910,910,913,913,913,913,913,913,913,913,913,913,913,915,915,915,915,918,918,920,923,923,923,925,925,928,928,930,933,933,935,938,940,940,943,943,943,946,946,948,948,951,954,954,954,956,956,956,956,1141,1141,1138,1138,1141,1141,1145,1145,1145,1145,1145,1145,1141,1141,1141,1141,1141,1138,1138,1138,1138,1138,1138,1145,1145,1141,1141,1141,1138,1138,1138,1138,1138,1138,1138,1138,1138,1134,1134,1134,1134,1067,1067,1063,1063,1060,1057,1054,1050,1050,1050,1050,1050,1050,1054,1054,1057,1057,1057,1057,1057,1138,1138,1134,1134,1134,1134,1134,1134,1134,1130,1130,1130,1130,1130,1130,1130,1130,1130,1126,1126,1126,1126,1126,1126,1126,1126,1123,1123,1123,1123,1123,1123,1123,1123,1123,1123,1123,1123,1123,1123,1123,1123,1123,1123,1123,1123,1119,1119,1123,1123,1123,1123,1123,1123,1123,1123,1123,1123,1123,1123,1119,1119,1119,1119,1119,1119,1119,1119,1119,1119,1119,1119,1115,1115,1115,1115,1115,1115,1115,1115,1119,1119,1115,1115,1112,1112,1112,1112,1112,1115,1115,1115,1115,1112,1112,1112,1112,1112,1112,1112,1108,1108,1112,1108,1108,1108,1108,1108,1108,1108,1108,1108,1108,1108,1108,1108,1108,1108,1108,1108,1108,1108,1108,1108,1108,1105,1105,1105,1105,1105,1105,1105,1105,1105,1105,1105,1105,1105,1105,1105,1105,1101,1101,1101,1097,1097,1097,1101,1101,1101,1101,1101,1101,1097,1097,1094,1094,1094,1094,1094,1094,1094,1094,1094,1094,1094,1094,1094,1094,1094,1094,1094,1090,1090,1090,1094,1094,1094,1094,1094,1094,1090,1090,1094,1094,1094,1094,1094,1094,1094,1094,1090,1090,1090,1090,1090,1090,1090,1090,1090,1090,1090,1087,1087,1087,1087,1087,1090,1090,0,783,781,781,781,781,780,780,778,778,776,776,776,776,776,776,776,776,776,776,774,774,774,774,774,774,773,773,773,773,773,773,773,773,773,773,773,773,773,773,771,771,0,0,0,0,0,0,0,0,0,0,0,0,0,0,0,0,0,0,0,0,0,0,0,0,0,0,0,0,0,0,0,0,0,0,0,0,0,0
0,0,0,0,0,0,0,0,0,1202,1197,1197,1193,1193,1193,1193,1193,1193,1193,1193,1193,1193,1193,1193,1193,1193,1193,1193,1193,1193,1193,1193,1193,1193,1193,1193,1197,1193,1193,1197,1197,1193,1193,1193,1193,1193,1193,1189,1189,1189,1193,1193,1193,1193,1193,1193,1189,1189,1189,1189,1189,1189,1189,1189,1189,1189,1189,1189,1189,1189,1189,1181,1181,1181,1185,1185,1185,1185,1185,1185,1185,1185,1185,1185,1185,1181,1181,1181,1181,1181,1108,1108,1108,1112,1112,1115,1115,1115,1119,1119,1119,1119,1123,1123,1119,1119,1126,1126,1126,1119,1119,0,0,0,0,0,0,0,0,0,0,750,750,752,752,752,752,754,755,755,757,757,759,759,759,759,761,762,762,762,764,766,766,766,766,766,766,0,0,0,0,0,1177,1173,1169,1169,1169,1169,1169,1173,1173,1169,1169,1169,1173,1169,1169,1169,1169,1169,1169,1169,1165,1165,1165,1165,1165,1161,1161,1161,1161,1165,1165,1165,1165,1161,1161,1161,1161,1161,1161,1161,1161,1161,1161,1161,1161,1161,1161,1161,1161,1161,1161,1161,1161,1161,1161,1161,1157,1157,1157,1157,1157,1157,1157,1161,1161,1157,1157,1157,1161,1161,1161,1161,1161,1161,1161,1161,1161,903,903,903,903,903,906,906,906,906,908,908,908,910,910,910,910,910,910,910,910,910,910,913,913,913,913,915,915,915,918,918,920,923,923,923,925,925,928,928,930,933,935,935,938,940,943,943,943,946,946,948,948,948,951,954,954,954,956,956,956,1138,1138,1138,1138,1138,1138,1138,1138,1141,1141,1141,1141,1141,1138,1138,1138,1138,1138,1134,1134,1134,1134,1134,1134,1138,1138,1138,1138,1138,1134,1134,1134,1134,1134,1134,1134,1134,1134,1134,1130,1130,1130,1067,1067,1063,1063,1063,1060,1057,1054,1050,1050,1050,1050,1054,1054,1057,1057,1057,1060,1060,1060,1138,1134,1134,1130,1130,1130,1130,1130,1130,1126,1126,1126,1126,1126,1126,1126,1126,1126,1123,1123,1123,1123,1123,1123,1123,1123,1123,1123,1119,1119,1119,1119,1119,1119,1119,1119,1119,1119,1119,1119,1119,1119,1119,1119,1119,1119,1119,1119,1119,1119,1119,1119,1119,1119,1119,1119,1115,1115,1119,1119,1119,1119,1119,1119,1119,1119,1119,1119,1119,1119,1115,1115,1115,1112,1112,1112,1112,1112,1112,1115,1115,1112,1112,1112,1112,1112,1112,1112,1112,1112,1112,1112,1112,1108,1108,1108,1108,1108,1108,1108,1108,1108,1108,1108,1108,1105,1105,1108,1108,1108,1108,1108,1108,1108,1105,1105,1105,1105,1108,1105,1105,1105,1105,1105,1105,1105,1105,1105,1105,1105,1101,1101,1105,1105,1105,1105,1105,1105,1101,1101,1101,1097,1097,1097,1097,1097,1097,1097,1097,1101,1097,1097,1097,1094,1094,1094,1094,1094,1094,1094,1094,1090,1090,1090,1090,1090,1090,1090,1090,1090,1090,1090,1090,1090,1090,1090,1087,1087,1090,1090,1090,1087,1087,1087,1087,1090,1090,1090,1090,1090,1090,1090,1087,1087,1087,1087,1087,1087,1087,1087,1087,1087,1087,1087,1087,1090,1090,1090,1090,0,783,781,781,781,781,780,780,778,778,776,776,776,776,776,776,776,776,776,776,774,774,774,774,774,774,773,773,773,773,773,773,773,773,773,773,773,773,773,773,773,773,0,0,0,0,0,0,0,0,0,0,0,0,0,0,0,0,0,0,0,0,0,0,0,0,0,0,0,0,0,0,0,0,0,0,0,0,0,0
0,0,0,0,0,0,0,0,0,1193,1193,1193,1193,1193,1189,1189,1189,1189,1189,1189,1189,1193,1193,1193,1193,1193,1189,1189,1189,1189,1189,1189,1189,1193,1193,1193,1193,1193,1193,1193,1193,1193,1193,1193,1193,1189,1189,1189,1189,1189,1189,1189,1189,1189,1189,1189,1185,1185,1185,1185,1185,1185,1185,1185,1185,1185,1185,1185,1185,1185,1181,1181,1181,1181,1181,1181,1181,1181,1177,1177,1181,1181,1181,1181,1181,1181,1181,1181,1173,1173,1177,1108,1108,1115,1115,1115,1115,1119,1119,1119,1119,1123,1123,1123,1126,1126,1126,1126,1130,1130,1130,1130,0,0,0,0,0,0,0,0,0,752,752,752,752,752,754,755,755,757,759,759,759,761,761,761,761,762,766,766,766,767,767,767,767,766,766,0,0,0,0,0,0,1169,1165,1165,1165,1165,1169,1169,1169,1169,1169,1169,1169,1169,1169,1169,1165,1165,1165,1165,1165,1165,1161,1161,1165,1161,1161,1161,1161,1161,1161,1161,1161,1161,1161,1161,1161,1161,1157,1157,1157,1157,1157,1157,1157,1157,1157,1157,1157,1157,1157,1157,1153,1153,1153,1153,1153,1149,1149,1153,1153,1157,1157,1157,1157,1157,1153,1153,1153,1153,1153,1153,1157,1157,1157,1157,903,903,903,903,903,903,906,906,906,906,906,906,906,908,908,908,908,910,910,910,910,910,910,913,913,913,913,915,915,915,918,920,923,923,923,925,925,928,928,930,933,933,935,935,938,940,943,943,943,946,946,948,948,951,951,954,954,956,1138,1138,1138,1138,1138,1138,1134,1134,1134,1134,1138,1138,1138,1138,1138,1138,1138,1134,1134,1134,1134,1134,1134,1134,1134,1134,1134,1134,1134,1134,1134,1134,1134,1134,1134,1134,1134,1134,1134,1134,1134,1134,1130,1130,1130,1130,1067,1067,1067,1067,1063,1060,1057,1054,1054,1054,1054,1054,1054,1057,1057,1060,1060,1060,1060,1063,1134,1130,1126,1126,1126,1126,1126,1123,1123,1123,1123,1123,1123,1123,1123,1123,1123,1123,1123,1119,1119,1123,1123,1119,1119,1119,1119,1119,1119,1119,1119,1119,1119,1119,1115,1115,1115,1119,1119,1115,1115,1115,1115,1115,1115,1115,1115,1115,1115,1115,1112,1112,1115,1115,1115,1112,1112,1112,1112,1112,1112,1115,1115,1115,1115,1115,1115,1115,1115,1112,1108,1108,1112,1112,1108,1108,1108,1112,1108,1108,1108,1108,1108,1108,1108,1108,1108,1108,1108,1108,1108,1108,1108,1108,1108,1108,1108,1108,1108,1108,1105,1105,1105,1105,1105,1105,1105,1105,1105,1105,1105,1105,1105,1105,1105,1105,1105,1105,1101,1101,1101,1105,1101,1101,1101,1101,1101,1101,1101,1101,1101,1101,1101,1101,1101,1101,1101,1101,1097,1097,1097,1094,1094,1094,1094,1094,1094,1097,1097,1097,1097,1094,1094,1094,1094,1090,1090,1090,1090,1090,1090,1090,1090,1090,1090,1087,1087,1090,1090,1090,1087,1087,1087,1087,1087,1087,1087,1087,1087,1087,1087,1087,1084,1084,1087,1084,1084,1084,1084,1084,1084,1084,1084,1087,1084,1084,1084,1084,1084,1084,1084,1084,1084,1087,1090,1090,1090,781,783,783,781,781,781,780,780,778,778,776,776,776,778,778,778,778,776,776,776,776,776,774,774,774,774,774,774,773,773,774,774,774,774,774,774,774,774,774,774,774,773,773,0,0,0,0,0,0,0,0,0,0,0,0,0,0,0,0,0,0,0,0,0,0,0,0,0,0,0,0,0,0,0,0,0,0,0,0,0,0
0,0,0,0,0,0,0,0,0,1189,1189,1189,1189,1189,1189,1189,1189,1185,1185,1185,1185,1189,1185,1185,1185,1189,1189,1189,1185,1185,1185,1185,1185,1189,1189,1189,1189,1193,1193,1193,1193,1189,1189,1189,1189,1189,1189,1185,1185,1185,1185,1185,1185,1185,1185,1185,1185,1181,1181,1181,1181,1181,1185,1185,1185,1185,1185,1181,1181,1181,1181,1177,1177,1177,1181,1181,1181,1177,1177,1177,1177,1177,1177,1177,1177,1177,1177,1177,1169,1165,1165,1115,1115,1115,1115,1115,1115,1119,1119,1119,1119,1119,1119,1126,1126,1130,1130,1130,1130,1130,1130,1130,0,0,0,0,0,0,0,0,0,0,754,754,754,754,754,755,757,757,759,759,761,761,761,761,761,764,766,766,767,767,767,769,769,767,767,0,0,0,0,0,0,1165,1165,1161,1161,1161,1161,1161,1161,1161,1165,1165,1165,1165,1165,1165,1165,1161,1161,1161,1161,1161,1161,1161,1161,1161,1161,1161,1157,1157,1157,1157,1157,1157,1157,1153,1153,1157,1157,1153,1153,1153,1153,1153,1149,1149,1153,1153,1153,1153,1153,1153,1153,1149,1149,1149,1149,1149,1149,1149,1149,1149,1149,1153,1153,1153,1153,1149,1149,1149,1149,1149,1149,1149,1149,1153,901,901,903,903,903,903,903,903,903,903,903,906,906,906,906,908,908,908,908,910,908,908,908,913,913,913,913,915,915,915,915,918,923,923,923,925,928,928,928,930,933,935,935,938,940,943,943,943,946,946,946,951,951,951,951,954,1130,1130,1134,1134,1134,1134,1134,1134,1134,1134,1134,1134,1134,1134,1134,1134,1134,1134,1134,1134,1134,1134,1134,1134,1134,1134,1134,1130,1130,1134,1134,1130,1130,1126,1126,1130,1130,1130,1130,1130,1130,1130,1130,1130,1130,1130,1130,1130,1070,1067,1067,1067,1063,1060,1057,1057,1057,1054,1054,1054,1054,1057,1057,1060,1060,1060,1060,1063,1123,1123,1123,1123,1123,1123,1123,1123,1119,1119,1123,1123,1123,1123,1119,1119,1119,1119,1119,1115,1115,1119,1119,1119,1119,1119,1119,1115,1115,1115,1115,1115,1115,1115,1112,1112,1112,1112,1112,1112,1112,1112,1112,1112,1112,1112,1112,1112,1112,1108,1108,1108,1112,1112,1112,1108,1108,1112,1112,1108,1108,1108,1108,1112,1112,1108,1108,1112,1112,1108,1108,1108,1108,1108,1108,1108,1108,1108,1108,1108,1108,1108,1108,1108,1108,1108,1108,1108,1108,1105,1105,1105,1105,1105,1105,1105,1105,1105,1105,1105,1105,1105,1105,1105,1105,1105,1105,1105,1105,1105,1105,1105,1105,1101,1101,1101,1101,1101,1101,1101,1101,1101,1097,1097,1097,1097,1097,1101,1101,1097,1097,1101,1101,1097,1097,1097,1097,1097,1097,1097,1094,1094,1094,1094,1094,1094,1094,1094,1094,1094,1094,1090,1090,1090,1090,1090,1090,1090,1087,1087,1087,1087,1087,1087,1087,1087,1087,1087,1087,1087,1087,1087,1087,1087,1087,1084,1084,1084,1084,1087,1084,1084,1080,1080,1084,1080,1080,1080,1080,1080,1084,1084,1084,1084,1084,1084,1084,1084,1084,1084,1084,1084,1084,1084,1090,1090,781,781,781,781,780,780,780,780,778,778,776,776,776,776,778,778,778,778,776,776,776,776,776,774,774,774,774,774,774,774,774,774,774,774,774,774,774,774,774,774,774,774,774,774,0,0,0,0,0,0,0,0,0,0,0,0,0,0,0,0,0,0,0,0,0,0,0,0,0,0,0,0,0,0,0,0,0,0,0,0,0,0
0,0,0,0,0,0,0,0,0,1185,1185,1185,1185,1185,1185,1185,1185,1181,1181,1181,1181,1185,1185,1185,1185,1185,1181,1181,1181,1181,1181,1181,1181,1181,1181,1185,1185,1185,1185,1189,1189,1189,1189,1185,1185,1185,1185,1181,1181,1181,1181,1181,1181,1181,1181,1181,1181,1181,1181,1181,1181,1181,1181,1181,1181,1181,1181,1181,1181,1177,1173,1173,1177,1177,1177,1177,1177,1173,1173,1173,1173,1173,1173,1173,1173,1173,1173,1173,1169,1165,1165,1161,1119,1115,1115,1115,1115,1119,1119,1119,1119,1119,1119,1126,1126,1130,1130,1130,1130,1130,1130,1130,0,0,0,0,0,0,0,0,0,754,754,754,755,755,755,755,757,759,759,761,761,761,761,761,762,764,766,766,767,767,767,769,769,767,767,0,0,0,0,0,0,1161,1161,1161,1157,1157,1157,1153,1153,1157,1157,1157,1157,1157,1161,1161,1161,1161,1157,1157,1161,1161,1157,1157,1157,1157,1157,1157,1153,1153,1153,1153,1153,1153,1153,1149,1149,1149,1153,1149,1149,1149,1149,1149,1149,1149,1149,1149,1149,1149,1149,1149,1149,1149,1149,1149,1149,1149,1149,1145,1145,1145,1145,1149,1149,1149,1149,1149,1149,1149,1149,1149,898,898,898,898,901,901,901,901,901,901,901,903,903,903,903,903,903,903,906,906,906,906,908,908,908,908,908,913,913,913,913,915,915,915,915,918,923,925,925,925,928,930,930,930,933,935,935,938,940,943,943,943,946,948,948,1126,1126,1130,1130,1130,1130,1130,1130,1130,1130,1130,1130,1130,1130,1130,1130,1134,1130,1130,1130,1130,1130,1130,1130,1130,1130,1130,1130,1130,1130,1130,1130,1130,1130,1126,1126,1126,1126,1126,1126,1126,1126,1126,1126,1126,1126,1130,1126,1126,1126,1126,1126,1126,1073,1070,1070,1067,1063,1063,1057,1057,1057,1057,1057,1057,1057,1060,1063,1063,1063,1063,1063,1063,1119,1119,1119,1119,1115,1115,1119,1119,1119,1119,1119,1119,1119,1119,1119,1119,1115,1115,1112,1112,1112,1115,1115,1115,1115,1115,1115,1115,1112,1112,1112,1112,1112,1112,1108,1108,1108,1108,1108,1108,1108,1108,1108,1108,1108,1108,1108,1108,1108,1108,1108,1108,1108,1108,1108,1108,1108,1108,1108,1105,1105,1105,1108,1105,1105,1105,1105,1108,1108,1105,1105,1105,1105,1105,1105,1105,1105,1105,1105,1105,1105,1105,1105,1105,1105,1105,1105,1105,1105,1105,1101,1101,1101,1101,1101,1101,1101,1101,1101,1101,1101,1101,1101,1101,1101,1101,1101,1101,1101,1101,1101,1101,1101,1101,1101,1101,1097,1097,1094,1094,1097,1094,1094,1094,1094,1094,1094,1094,1097,1097,1097,1097,1101,1097,1097,1094,1094,1094,1094,1094,1094,1090,1090,1090,1090,1090,1090,1094,1094,1090,1090,1090,1090,1087,1087,1087,1087,1087,1087,1084,1084,1084,1084,1084,1084,1084,1084,1087,1087,1087,1084,1084,1087,1087,1084,1084,1084,1084,1084,1084,1084,1080,1080,1080,1080,1080,1077,1077,1077,1077,1080,1080,1080,1080,1080,1080,1080,1080,1080,1080,1084,1084,1084,1084,0,1084,781,781,781,780,780,780,780,780,778,778,776,776,776,776,778,778,778,778,776,776,776,776,776,774,774,774,774,774,774,774,774,774,774,774,774,774,774,774,774,774,774,774,774,774,0,0,0,0,0,0,0,0,0,0,0,0,0,0,0,0,0,0,0,0,0,0,0,0,0,0,0,0,0,0,0,0,0,0,0,0,0,0
0,0,0,0,0,0,0,0,0,1181,1181,1181,1181,1181,1181,1181,1181,1181,1181,1181,1181,1181,1181,1181,1181,1181,1181,1177,1177,1177,1177,1177,1177,1177,1177,1181,1185,1185,1185,1185,1185,1181,1181,1181,1181,1181,1181,1181,1181,1181,1181,1181,1181,1177,1177,1177,1177,1177,1177,1177,1177,1177,1181,1181,1181,1181,1181,1177,1177,1173,1173,1169,1169,1173,1173,1173,1173,1169,1169,1169,1169,1169,1169,1169,1169,1169,1169,1165,1165,1165,1161,1157,1123,1119,1119,1119,1119,1119,1119,1119,1119,1123,1123,1126,1130,1130,1130,1130,1130,1130,1130,1130,1130,0,0,0,0,0,0,0,0,754,754,754,755,755,755,755,757,759,759,761,761,761,761,762,762,766,767,767,767,767,769,771,771,773,773,0,0,0,0,0,0,1157,1157,1157,1157,1153,1153,1153,1153,1153,1153,1153,1153,1153,1153,1157,1157,1157,1153,1153,1157,1153,1153,1153,1153,1153,1153,1153,1153,1153,1153,1153,1149,1149,1149,1149,1149,1149,1149,1149,1149,1149,1149,1149,1149,1149,1149,1149,1149,1145,1145,1149,1145,1145,1145,1145,1145,1145,1145,1145,1145,1145,1145,1145,1145,1149,1149,1149,1145,1145,1149,898,898,898,898,898,898,901,901,901,901,901,901,901,901,901,901,901,901,903,903,903,903,906,906,908,908,908,910,913,913,913,913,915,915,918,918,920,923,925,925,928,930,930,930,933,935,935,935,938,940,943,943,943,946,1126,1126,1126,1126,1126,1130,1130,1130,1130,1130,1130,1130,1130,1130,1130,1126,1126,1126,1126,1126,1126,1126,1126,1126,1126,1126,1126,1130,1130,1130,1130,1130,1130,1126,1126,1126,1126,1123,1123,1123,1123,1123,1123,1123,1123,1123,1123,1126,1126,1126,1126,1123,1123,1123,1123,1077,1073,1073,1070,1067,1063,1060,1060,1060,1057,1057,1057,1060,1063,1063,1063,1063,1067,1067,1070,1070,1115,1115,1115,1112,1112,1112,1112,1112,1115,1115,1119,1115,1115,1115,1115,1112,1112,1112,1112,1112,1112,1112,1112,1108,1108,1108,1108,1108,1108,1108,1108,1108,1108,1108,1108,1105,1105,1105,1105,1105,1108,1108,1105,1105,1105,1105,1105,1105,1105,1105,1105,1105,1105,1105,1105,1105,1105,1105,1105,1105,1105,1105,1105,1101,1101,1101,1101,1101,1101,1101,1105,1105,1101,1101,1101,1101,1101,1101,1101,1101,1101,1101,1101,1101,1101,1101,1101,1101,1101,1097,1097,1097,1097,1097,1097,1097,1097,1097,1097,1097,1097,1097,1097,1097,1097,1097,1094,1094,1097,1094,1090,1090,1094,1094,1097,1094,1090,1090,1090,1090,1090,1090,1090,1090,1090,1090,1090,1090,1090,1090,1097,1097,1094,1094,1094,1094,1094,1090,1090,1090,1090,1090,1090,1090,1090,1090,1090,1090,1090,1087,1087,1084,1084,1084,1084,1084,1084,1080,1080,1080,1084,1084,1084,1084,1084,1084,1087,1087,1084,1084,1084,1084,1084,1084,1080,1080,1084,1084,1084,1084,1080,1080,1080,1080,1080,1077,1077,1077,1077,1080,1077,1077,1077,1077,1077,1077,1077,1080,1080,1080,1084,1084,1087,1087,0,781,781,781,780,780,780,778,778,778,778,778,778,778,778,778,778,778,778,776,776,776,776,776,774,774,774,774,774,774,774,774,774,774,774,774,774,776,776,776,776,776,774,774,774,0,0,0,0,0,0,0,0,0,0,0,0,0,0,0,0,0,0,0,0,0,0,0,0,0,0,0,0,0,0,0,0,0,0,0,0,0,0
0,0,0,0,0,0,0,0,0,1181,1177,1177,1177,1177,1177,1177,1177,1177,1177,1177,1177,1177,1177,1177,1177,1177,1177,1177,1173,1173,1173,1173,1173,1173,1173,1177,1181,1181,1181,1181,1181,1177,1177,1177,1177,1177,1177,1177,1177,1177,1177,1177,1177,1177,1177,1177,1177,1177,1177,1177,1177,1177,1177,1177,1177,1177,1177,1177,1173,1169,1169,1169,1169,1169,1169,1169,1169,1169,1165,1165,1165,1165,1165,1165,1165,1165,1165,1165,1165,1161,1161,1157,1145,1134,1123,1119,1119,1119,1119,1119,1123,1123,1126,1126,1130,1130,1130,1130,1134,1134,1134,1130,1130,0,0,0,0,0,0,0,0,754,754,755,755,755,757,757,757,759,759,761,761,761,762,762,764,767,767,767,767,769,771,773,773,773,774,0,0,0,0,0,0,1157,1153,1153,1153,1153,1149,1149,1149,1149,1149,1149,1149,1149,1149,1149,1153,1149,1149,1149,1149,1149,1153,1153,1153,1153,1149,1149,1149,1149,1149,1149,1149,1149,1149,1145,1145,1145,1145,1145,1145,1145,1145,1145,1145,1145,1145,1145,1145,1145,1145,1145,1145,1145,1145,1145,1145,1145,1141,1141,1141,1141,1141,1145,1145,1145,1149,1149,889,889,889,894,896,896,896,896,898,898,898,898,898,898,898,898,898,898,898,898,901,901,901,903,903,906,906,908,908,908,910,913,913,913,913,915,915,918,918,923,925,925,925,930,933,933,933,933,935,935,935,938,940,943,943,943,1123,1123,1126,1123,1123,1126,1126,1126,1126,1126,1126,1126,1126,1126,1126,1126,1123,1123,1123,1123,1123,1123,1123,1119,1119,1119,1119,1123,1126,1126,1126,1126,1126,1126,1126,1123,1123,1123,1123,1123,1123,1119,1119,1119,1119,1119,1123,1123,1123,1123,1123,1123,1119,1119,1119,1115,1112,1077,1077,1070,1070,1067,1063,1060,1060,1060,1060,1060,1060,1063,1063,1067,1067,1067,1070,1070,1070,1108,1108,1112,1112,1108,1108,1108,1108,1108,1112,1112,1112,1115,1112,1112,1112,1108,1108,1108,1108,1108,1108,1108,1108,1108,1108,1108,1108,1108,1108,1108,1108,1108,1105,1105,1105,1105,1105,1105,1105,1105,1105,1105,1105,1105,1105,1105,1101,1101,1101,1105,1105,1105,1101,1101,1105,1101,1101,1101,1101,1101,1101,1101,1101,1097,1097,1097,1097,1097,1097,1097,1097,1097,1101,1101,1101,1097,1097,1097,1097,1097,1101,1097,1097,1097,1101,1097,1097,1097,1097,1094,1094,1094,1094,1094,1094,1094,1094,1094,1094,1094,1094,1094,1094,1094,1090,1090,1087,1087,1084,1080,1080,1084,1084,1087,1087,1084,1084,1084,1087,1087,1087,1087,1087,1087,1087,1087,1087,1087,1087,1084,1084,1087,1090,1090,1090,1090,1090,1090,1087,1087,1087,1087,1087,1087,1087,1090,1087,1084,1080,1080,1077,1077,1077,1077,1077,1077,1077,1077,1077,1080,1080,1084,1084,1084,1084,1087,1084,1084,1084,1084,1084,1084,1084,1080,1080,1084,1084,1080,1080,1080,1080,1084,1084,1080,1077,1077,1077,1077,1077,1077,1077,1077,1077,1077,1077,1077,1077,1077,1080,1084,1084,0,0,781,0,781,781,780,780,780,778,778,778,778,778,778,778,778,778,778,776,776,776,776,776,776,776,774,774,774,776,776,776,776,776,776,776,776,776,776,776,776,776,776,776,776,776,776,0,0,0,0,0,0,0,0,0,0,0,0,0,0,0,0,0,0,0,0,0,0,0,0,0,0,0,0,0,0,0,0,0,0,0,0,0,0
0,0,0,0,0,0,0,0,0,1173,1173,1177,1177,1177,1177,1177,1177,1177,1177,1177,1177,1177,1177,1177,1177,1177,1177,1173,1173,1169,1169,1169,1169,1169,1169,1169,1173,1173,1173,1173,1173,1177,1177,1173,1169,1169,1173,1173,1173,1173,1173,1173,1173,1173,1173,1173,1173,1173,1177,1177,1177,1177,1177,1177,1177,1177,1173,1169,1169,1169,1165,1165,1165,1165,1165,1165,1165,1165,1165,1165,1165,1165,1165,1165,1165,1165,1165,1165,1161,1161,1157,1157,1149,1138,1134,1123,1119,1119,1119,1119,1126,1126,1126,1130,1130,1134,1134,1134,1134,1134,1134,1134,1134,1134,0,0,0,0,0,0,0,755,755,755,755,757,757,757,759,759,761,761,761,761,762,762,764,767,767,767,769,769,771,773,773,774,774,778,0,0,0,0,0,0,1149,1149,1149,1149,1149,1149,1149,1149,1149,1149,1149,1149,1149,1149,1149,1145,1145,1145,1145,1145,1145,1145,1145,1149,1149,1145,1145,1145,1145,1145,1145,1145,1145,1145,1145,1145,1141,1141,1141,1141,1141,1141,1141,1141,1141,1141,1141,1141,1141,1141,1141,1141,1141,1141,1141,1141,1141,1141,1141,1141,1141,1145,1145,1145,887,887,889,889,889,894,894,894,894,894,896,896,896,896,896,896,896,896,896,896,896,898,898,901,901,903,903,906,906,908,908,908,910,913,913,913,913,915,918,920,920,925,928,928,928,930,933,933,933,933,935,935,935,938,940,943,1119,1119,1119,1123,1123,1123,1123,1123,1123,1126,1123,1123,1123,1123,1123,1123,1123,1123,1119,1119,1119,1119,1119,1119,1119,1119,1119,1119,1119,1119,1119,1119,1126,1126,1126,1126,1123,1119,1119,1123,1123,1123,1119,1119,1119,1119,1119,1119,1119,1119,1119,1119,1119,1119,1119,1119,1115,1112,1112,1080,1080,1073,1070,1067,1063,1060,1060,1060,1060,1060,1060,1063,1067,1067,1067,1070,1070,1073,1073,1105,1108,1108,1108,1108,1108,1108,1108,1108,1108,1108,1108,1108,1108,1108,1108,1108,1108,1108,1108,1108,1105,1105,1105,1105,1105,1105,1105,1105,1105,1105,1105,1105,1105,1105,1105,1105,1101,1101,1101,1101,1101,1101,1101,1101,1101,1101,1101,1101,1101,1101,1101,1101,1101,1101,1101,1101,1101,1101,1097,1097,1101,1097,1097,1097,1097,1094,1094,1094,1094,1094,1094,1094,1094,1094,1094,1094,1094,1094,1094,1094,1097,1097,1097,1097,1097,1097,1094,1094,1094,1094,1094,1094,1090,1090,1090,1090,1090,1090,1090,1087,1087,1090,1090,1090,1084,1084,1084,1084,1080,1077,1077,1077,1077,1077,1080,1080,1080,1080,1080,1080,1080,1080,1084,1080,1080,1084,1080,1080,1077,1077,1080,1080,1080,1080,1080,1087,1084,1084,1084,1084,1084,1087,1087,1080,1067,1067,1073,1070,1070,1070,1070,1070,1070,1070,1070,1070,1067,1057,1057,1077,1080,1080,1084,1084,1084,1087,1084,1084,1084,1084,1084,1084,1084,1084,1025,1025,1025,1022,1022,1022,1022,1025,1025,1025,1025,1025,1025,1025,1077,1077,1077,1077,1073,1073,1077,1077,1077,1077,1080,1084,0,0,0,0,781,780,780,780,780,780,778,778,778,780,778,778,778,778,778,778,776,776,776,776,776,776,776,774,774,776,776,776,776,776,776,776,776,776,776,776,776,776,776,776,776,776,776,776,0,0,0,0,0,0,0,0,0,0,0,0,0,0,0,0,0,0,0,0,0,0,0,0,0,0,0,0,0,0,0,0,0,0,0,0,0,0
0,0,0,0,0,0,0,0,0,1169,1169,1173,1173,1173,1173,1173,1173,1173,1177,1177,1177,1177,1173,1173,1173,1173,1169,1169,1169,1169,1169,1169,1165,1165,1165,1169,1169,1169,1169,1173,1173,1169,1169,1165,1165,1169,1169,1169,1169,1169,1169,1169,1169,1169,1169,1169,1169,1173,1173,1173,1173,1173,1173,1173,1173,1169,1169,1169,1169,1165,1161,1161,1161,1161,1161,1161,1161,1165,1161,1161,1161,1161,1161,1161,1161,1161,1161,1161,1161,1157,1157,1157,1153,1145,1141,1134,1126,1126,1126,1126,1126,1130,1130,1130,1130,1134,1134,1134,1134,1134,1134,1134,1134,1134,0,0,0,0,0,0,0,0,757,757,757,759,759,759,759,759,761,761,761,761,762,764,766,767,767,767,769,771,771,773,774,774,776,778,0,0,0,0,0,1145,1145,1145,1145,1145,1145,1145,1145,1145,1145,1145,1145,1145,1145,1145,1145,1145,1145,1145,1141,1141,1145,1145,1145,1145,1145,1141,1141,1145,1145,1145,1145,1145,1145,1141,1141,1141,1141,1141,1138,1138,1141,1141,1141,1141,1138,1138,1138,1138,1138,1138,1138,1138,1138,1138,1141,1141,1138,1138,1141,1141,885,885,885,887,887,887,887,889,889,889,889,891,891,891,891,894,894,894,894,894,894,894,894,894,896,896,896,898,901,903,903,906,906,908,908,908,910,913,913,913,913,915,918,920,923,925,928,928,928,930,933,933,933,933,935,935,935,938,1119,1119,1119,1119,1119,1119,1123,1119,1119,1119,1123,1123,1123,1119,1119,1119,1119,1119,1119,1119,1119,1119,1119,1119,1119,1119,1119,1119,1115,1115,1115,1115,1115,1115,1115,1115,1115,1123,1119,1119,1119,1119,1119,1119,1119,1119,1119,1119,1115,1115,1115,1115,1115,1115,1115,1115,1115,1115,1112,1108,1108,1080,1080,1077,1073,1070,1067,1063,1063,1060,1060,1060,1063,1063,1067,1067,1067,1070,1073,1077,1080,1105,1108,1108,1105,1105,1105,1105,1105,1105,1105,1105,1105,1105,1105,1105,1105,1105,1105,1105,1105,1105,1105,1105,1105,1101,1101,1101,1101,1105,1105,1105,1105,1105,1105,1101,1101,1101,1101,1101,1101,1101,1097,1097,1097,1097,1097,1097,1097,1097,1097,1097,1097,1097,1097,1097,1097,1097,1097,1097,1097,1097,1097,1097,1097,1094,1094,1094,1094,1094,1094,1094,1094,1090,1090,1090,1090,1090,1090,1090,1090,1090,1094,1094,1094,1094,1094,1094,1094,1090,1090,1090,1090,1090,1090,1090,1090,1087,1087,1087,1087,1084,1084,1084,1084,1084,1080,1080,1080,1080,1077,1073,1073,1073,1073,1073,1073,1073,1073,1073,1077,1077,1077,1077,1080,1077,1077,1077,1077,1077,1073,1073,1073,1073,1073,1073,1073,1073,1077,1073,1073,1080,1080,1080,1070,1067,1067,1067,1067,1067,1067,1067,1063,1063,1067,1063,1060,1054,1054,1054,1050,1044,1044,1080,1084,1034,1034,1031,1031,1028,1028,1028,1028,1084,1084,1025,1025,1025,1025,1022,1022,1022,1022,1025,1025,1025,1025,1025,1025,1025,1025,1025,1025,1073,1073,1070,1070,1070,1070,1077,1080,0,0,0,0,781,781,780,780,778,778,780,778,778,778,780,778,778,780,778,778,778,778,778,776,776,776,776,776,776,776,776,776,776,776,776,776,776,776,776,776,776,776,776,776,776,776,776,776,776,0,0,0,0,0,0,0,0,0,0,0,0,0,0,0,0,0,0,0,0,0,0,0,0,0,0,0,0,0,0,0,0,0,0,0,0,0,0
0,0,0,0,0,0,0,0,1169,1169,1169,1169,1169,1169,1169,1169,1169,1173,1173,1173,1173,1173,1173,1173,1173,1169,1169,1169,1169,1169,1169,1169,1165,1165,1165,1165,1165,1165,1169,1169,1169,1169,1169,1165,1165,1165,1165,1165,1169,1169,1169,1169,1169,1169,1165,1165,1165,1165,1165,1165,1165,1165,1165,1169,1169,1165,1165,1165,1165,1161,1161,1161,1161,1157,1157,1157,1161,1161,1161,1161,1161,1157,1157,1157,1157,1157,1157,1157,1157,1157,1157,1157,1153,1149,1145,1134,1130,1130,1130,1130,1130,1130,1130,1130,1134,1134,1134,1134,1134,1134,1134,1134,1134,1134,0,0,0,0,0,0,0,0,757,757,757,759,759,759,759,759,761,761,761,761,762,762,767,767,767,767,769,771,773,773,774,776,776,780,0,0,0,0,0,1145,1145,1145,1145,1145,1145,1145,1141,1141,1145,1145,1145,1145,1141,1141,1141,1141,1141,1141,1138,1138,1138,1141,1141,1141,1138,1138,1138,1138,1138,1138,1141,1141,1141,1141,1141,1138,1138,1138,1134,1134,1138,1138,1138,1138,1134,1134,1134,1134,1134,1134,1138,1138,1138,1138,1138,1138,1138,1138,1138,885,885,885,885,887,887,887,887,889,887,887,889,889,889,889,891,891,891,891,894,894,894,894,894,894,896,896,896,898,901,903,903,906,906,908,908,910,913,913,913,915,915,918,918,923,925,925,928,928,928,933,933,933,935,935,935,935,935,1119,1119,1119,1119,1119,1119,1119,1119,1119,1119,1119,1119,1119,1119,1119,1115,1115,1115,1115,1115,1115,1115,1115,1115,1115,1115,1115,1115,1115,1115,1115,1112,1112,1112,1112,1108,1108,1108,1108,1108,1112,1112,1119,1119,1119,1119,1119,1115,1115,1115,1115,1112,1112,1112,1112,1112,1112,1112,1112,1108,1108,1105,1094,1084,1080,1073,1070,1067,1067,1063,1063,1063,1063,1063,1067,1067,1067,1070,1073,1077,1080,1084,1101,1105,1105,1105,1105,1105,1105,1105,1101,1101,1101,1101,1101,1105,1105,1101,1101,1101,1101,1101,1101,1101,1101,1101,1097,1097,1097,1097,1097,1097,1101,1101,1101,1101,1097,1097,1097,1097,1097,1097,1097,1097,1097,1094,1094,1094,1094,1094,1094,1094,1094,1094,1094,1094,1094,1094,1094,1094,1094,1094,1094,1094,1094,1094,1094,1094,1090,1090,1090,1090,1090,1090,1090,1090,1090,1087,1087,1087,1087,1087,1087,1087,1087,1090,1090,1090,1090,1090,1090,1090,1090,1090,1090,1087,1087,1087,1087,1087,1087,1084,1084,1084,1080,1080,1084,1080,1080,1080,1077,1077,1073,1070,1070,1070,1070,1070,1070,1070,1070,1073,1073,1077,1077,1077,1077,1077,1077,1073,1073,1070,1070,1070,1070,1070,1070,1070,1070,1070,1067,1067,1067,1067,1067,1067,1067,1063,1063,1063,1063,1063,1063,1063,1063,1063,1060,1057,1054,1054,1047,1047,1044,1041,1041,1038,1034,1034,1031,1031,1028,1028,1028,1028,1025,1025,1025,1025,1025,1025,1025,1022,1022,1025,1025,1025,1025,1025,1025,1025,1025,1025,1025,1025,1073,1073,1070,1070,1070,1070,0,0,0,0,0,783,781,781,780,780,778,778,780,778,778,778,780,780,780,780,778,778,778,778,778,778,776,776,776,776,776,776,776,776,776,776,776,776,776,776,776,776,776,776,776,776,776,776,776,776,776,0,0,0,0,0,0,0,0,0,0,0,0,0,0,0,0,0,0,0,0,0,0,0,0,0,0,0,0,0,0,0,0,0,0,0,0,0,0
0,0,0,0,0,0,0,0,1169,1165,1165,1165,1165,1165,1165,1165,1165,1169,1169,1173,1169,1169,1169,1165,1165,1165,1165,1165,1165,1165,1165,1165,1161,1161,1161,1161,1161,1161,1161,1161,1161,1165,1165,1161,1161,1161,1161,1161,1161,1161,1161,1165,1165,1165,1161,1161,1161,1157,1157,1157,1157,1157,1157,1161,1161,1161,1161,1161,1161,1157,1157,1157,1157,1153,1153,1153,1157,1157,1157,1157,1157,1157,1157,1153,1153,1153,1153,1157,1157,1153,1153,1153,1153,1149,1145,1138,1134,1134,1130,1130,1130,1130,1130,1134,1134,1134,1134,1134,1134,1134,1134,1134,1134,1134,0,0,0,0,0,0,0,0,759,759,759,759,759,759,759,759,761,761,761,761,762,762,767,767,769,769,771,773,773,773,774,776,780,781,0,0,0,0,0,1141,1141,1141,1141,1141,1141,1141,1141,1141,1141,1141,1141,1141,1138,1138,1138,1138,1138,1138,1138,1138,1138,1138,1138,1138,1138,1134,1134,1138,1138,1138,1138,1134,1134,1138,1138,1138,1134,1134,1134,1134,1134,1134,1134,1134,1134,1134,1134,1134,1134,1134,1134,1134,1134,1134,1138,1138,1134,885,885,885,885,885,887,887,887,887,887,887,885,885,887,889,889,889,889,889,891,891,891,891,894,894,894,894,896,896,896,898,901,903,906,906,906,908,908,910,913,913,913,915,915,918,918,923,925,925,928,930,930,933,933,935,935,935,935,938,1115,1115,1119,1119,1119,1119,1119,1119,1119,1115,1115,1115,1115,1115,1115,1115,1115,1115,1115,1115,1115,1115,1115,1112,1112,1115,1115,1115,1115,1115,1112,1112,1108,1108,1108,1108,1108,1108,1105,1105,1108,1108,1108,1112,1112,1112,1112,1115,1115,1112,1112,1112,1108,1108,1108,1108,1108,1108,1108,1108,1108,1105,1105,1101,1087,1080,1077,1073,1070,1067,1067,1063,1063,1063,1067,1067,1067,1070,1073,1073,1077,1080,1084,1101,1101,1105,1105,1101,1101,1101,1101,1101,1097,1097,1097,1101,1101,1101,1097,1097,1097,1097,1097,1097,1097,1097,1097,1094,1094,1097,1097,1097,1097,1097,1097,1097,1097,1097,1094,1094,1094,1094,1094,1094,1094,1094,1094,1094,1094,1094,1094,1094,1094,1090,1090,1090,1090,1090,1090,1090,1090,1090,1090,1090,1090,1090,1090,1090,1090,1087,1087,1087,1087,1087,1087,1087,1087,1087,1087,1087,1087,1087,1084,1084,1084,1084,1084,1084,1084,1087,1087,1087,1087,1087,1087,1087,1087,1087,1087,1084,1084,1084,1080,1080,1080,1080,1080,1080,1077,1077,1077,1073,1073,1070,1070,1067,1067,1067,1067,1067,1070,1070,1070,1070,1073,1073,1073,1073,1070,1070,1070,1070,1067,1067,1067,1067,1067,1067,1067,1067,1067,1067,1067,1063,1063,1063,1063,1063,1063,1063,1063,1063,1063,1060,1060,1060,1060,1057,1054,1050,1047,1044,1044,1044,1041,1041,1038,1038,1034,1034,1031,1031,1028,1028,1028,1025,1025,1025,1025,1025,1025,1025,1022,1022,1025,1025,1025,1025,1025,1025,1025,1025,1025,1025,1025,1025,1028,1070,1070,0,0,0,0,0,0,0,783,781,781,781,780,778,778,780,778,778,778,780,780,780,780,778,778,778,778,778,778,776,776,776,776,776,776,776,776,776,776,776,776,776,776,776,776,776,776,776,776,776,776,776,776,778,0,0,0,0,0,0,0,0,0,0,0,0,0,0,0,0,0,0,0,0,0,0,0,0,0,0,0,0,0,0,0,0,0,0,0,0,0,0
0,0,0,0,0,0,0,1165,1165,1165,1165,1165,1165,1165,1165,1165,1165,1165,1165,1169,1169,1165,1165,1165,1165,1165,1161,1161,1161,1161,1161,1161,1157,1157,1157,1153,1153,1153,1153,1161,1161,1161,1161,1161,1161,1161,1161,1161,1161,1161,1161,1161,1157,1157,1153,1153,1157,1157,1157,1157,1157,1157,1157,1157,1157,1157,1157,1157,1157,1153,1153,1153,1153,1153,1153,1153,1153,1157,1157,1157,1157,1157,1153,1153,1149,1149,1153,1153,1149,1149,1149,1149,1149,1145,1145,1138,1134,1134,1130,1130,1130,1134,1134,1134,1134,1134,1134,1134,1134,1134,1134,1134,1134,1134,0,0,0,0,0,0,0,0,761,759,759,759,759,759,761,761,761,761,762,762,764,764,767,769,771,771,773,773,773,774,774,776,780,781,0,0,0,0,0,1138,1138,1138,1138,1138,1138,1138,1138,1138,1138,1138,1138,1138,1134,1134,1134,1134,1134,1134,1134,1134,1134,1134,1134,1134,1134,1134,1134,1134,1134,1134,1134,1134,1134,1134,1134,1130,1130,1130,1130,1130,1130,1130,1130,1130,1130,1130,1130,1130,1130,1130,1134,1134,1134,1134,1134,1134,885,885,885,885,885,885,887,887,887,887,887,887,885,885,887,887,887,887,887,887,889,889,891,891,894,894,894,894,896,896,896,898,901,903,906,906,908,908,908,913,913,913,915,915,918,920,920,923,925,925,928,930,930,933,933,935,935,935,1112,1115,1115,1115,1115,1115,1115,1115,1115,1115,1115,1115,1112,1112,1112,1112,1112,1112,1112,1112,1112,1112,1112,1112,1112,1112,1112,1112,1112,1112,1112,1112,1108,1108,1108,1105,1105,1105,1105,1105,1105,1105,1105,1105,1105,1108,1108,1108,1108,1108,1108,1108,1108,1108,1108,1108,1108,1108,1108,1108,1108,1108,1108,1105,1101,1101,1094,1084,1080,1077,1073,1070,1067,1067,1063,1063,1067,1067,1067,1070,1073,1077,1077,1080,1084,1090,1097,1101,1101,1097,1097,1097,1097,1097,1094,1094,1094,1094,1094,1094,1094,1094,1094,1094,1094,1094,1094,1094,1094,1094,1094,1094,1094,1094,1094,1094,1094,1094,1094,1094,1094,1094,1094,1094,1094,1094,1094,1094,1094,1090,1090,1090,1090,1090,1090,1090,1090,1090,1090,1090,1090,1087,1087,1087,1087,1087,1087,1087,1087,1087,1087,1087,1084,1084,1084,1084,1084,1084,1084,1084,1084,1084,1084,1084,1084,1084,1084,1084,1084,1080,1080,1084,1080,1080,1084,1084,1084,1084,1084,1084,1084,1080,1080,1080,1080,1077,1077,1077,1077,1077,1077,1073,1073,1070,1070,1070,1067,1067,1067,1067,1067,1067,1067,1067,1067,1067,1070,1070,1070,1070,1070,1070,1067,1067,1067,1067,1063,1063,1063,1063,1063,1063,1063,1063,1063,1060,1060,1060,1063,1060,1060,1060,1060,1060,1060,1060,1060,1060,1057,1057,1054,1047,1044,1044,1044,1041,1041,1041,1038,1038,1038,1034,1034,1031,1028,1028,1028,1028,1025,1025,1025,1025,1025,1025,1022,1022,1025,1025,1025,1025,1025,1025,1025,1025,1025,1025,1025,1025,1025,0,0,0,0,0,0,0,0,783,781,781,781,781,780,780,780,780,780,780,780,780,780,780,780,780,780,778,778,778,778,776,776,776,776,776,776,776,776,776,776,776,776,776,776,776,776,776,776,776,776,776,776,778,778,778,0,0,0,0,0,0,0,0,0,0,0,0,0,0,0,0,0,0,0,0,0,0,0,0,0,0,0,0,0,0,0,0,0,0,0,0,0,0
0,0,0,0,0,0,0,1165,1165,1161,1161,1161,1161,1161,1161,1161,1161,1161,1161,1165,1165,1165,1165,1161,1161,1161,1161,1161,1161,1157,1157,1157,1153,1153,1153,1153,1153,1153,1153,1157,1157,1161,1157,1157,1157,1157,1157,1157,1157,1153,1153,1157,1153,1153,1149,1149,1149,1149,1149,1149,1153,1153,1153,1153,1153,1153,1153,1153,1153,1149,1149,1153,1153,1149,1149,1149,1149,1153,1153,1153,1153,1153,1153,1149,1149,1149,1149,1149,1149,1149,1149,1149,1149,1145,1141,1138,1138,1134,1130,1130,1134,1134,1134,1134,1134,1134,1134,1134,1134,1134,1134,1134,1134,1134,0,0,0,0,0,0,0,0,761,761,761,761,761,761,761,761,762,762,762,762,764,766,767,769,771,771,773,773,773,774,774,776,778,780,0,0,0,0,0,1134,1134,1134,1134,1134,1134,1134,1134,1134,1134,1134,1134,1134,1134,1134,1134,1130,1130,1134,1134,1130,1130,1130,1130,1130,1130,1130,1130,1130,1130,1130,1130,1130,1130,1130,1130,1130,1130,1126,1126,1126,1126,1126,1130,1126,1126,1130,1130,1130,1130,1130,1130,1130,1130,1130,880,880,882,882,882,882,885,885,885,885,885,885,885,885,885,885,887,887,887,887,887,887,889,889,891,891,894,894,894,894,896,896,898,901,903,903,906,906,908,910,913,913,913,913,915,918,918,920,923,923,925,925,928,928,930,933,1112,1112,1112,1112,1112,1112,1112,1112,1115,1115,1115,1115,1112,1112,1112,1112,1108,1108,1108,1108,1108,1108,1108,1108,1108,1108,1108,1108,1108,1108,1108,1108,1108,1108,1108,1108,1108,1105,1105,1105,1101,1101,1101,1101,1101,1101,1105,1105,1105,1108,1105,1105,1105,1105,1105,1105,1105,1105,1105,1105,1105,1105,1105,1105,1105,1105,1105,1101,1097,1097,1094,1087,1080,1077,1073,1073,1070,1070,1067,1067,1067,1067,1067,1073,1077,1077,1080,1080,1084,1087,1094,1097,1097,1094,1094,1094,1094,1094,1094,1094,1094,1094,1094,1094,1094,1094,1094,1094,1094,1094,1094,1090,1090,1090,1090,1090,1090,1090,1090,1090,1090,1090,1094,1090,1090,1090,1090,1090,1090,1090,1090,1090,1090,1090,1090,1090,1090,1090,1090,1090,1087,1087,1087,1087,1087,1087,1084,1084,1084,1084,1084,1084,1084,1084,1084,1084,1084,1084,1084,1084,1084,1084,1084,1084,1084,1080,1080,1080,1080,1080,1080,1080,1080,1080,1080,1080,1077,1077,1077,1077,1077,1077,1080,1080,1080,1080,1077,1077,1077,1077,1077,1077,1077,1077,1073,1073,1070,1070,1067,1067,1067,1067,1067,1067,1067,1067,1067,1067,1067,1067,1067,1067,1067,1067,1067,1067,1067,1067,1067,1063,1063,1063,1063,1063,1060,1060,1060,1060,1063,1060,1060,1060,1060,1060,1060,1057,1057,1057,1057,1054,1054,1057,1057,1054,1050,1047,1044,1044,1044,1041,1041,1041,1041,1038,1038,1038,1034,1034,1034,1031,1028,1028,1028,1028,1028,1025,1025,1025,1022,1022,1025,1025,1025,1025,1025,1025,1025,1025,1025,1025,1025,1025,1025,0,0,0,0,0,0,0,0,783,781,781,781,781,780,780,780,780,780,780,780,780,780,780,780,780,780,778,778,778,778,776,776,776,776,776,776,776,776,776,776,776,776,778,776,776,776,776,776,776,776,776,778,778,778,780,0,0,0,0,0,0,0,0,0,0,0,0,0,0,0,0,0,0,0,0,0,0,0,0,0,0,0,0,0,0,0,0,0,0,0,0,0,0
0,0,0,0,0,0,0,1161,1161,1161,1157,1157,1157,1157,1153,1153,1153,1153,1153,1157,1157,1157,1161,1157,1157,1161,1157,1157,1157,1157,1153,1153,1153,1153,1153,1153,1153,1149,1149,1153,1153,1157,1153,1153,1153,1153,1153,1153,1153,1153,1153,1153,1149,1149,1149,1149,1149,1145,1145,1145,1145,1145,1149,1153,1149,1149,1149,1153,1149,1149,1149,1149,1149,1149,1149,1149,1149,1149,1149,1149,1149,1149,1149,1149,1145,1145,1145,1145,1145,1145,1145,1145,1145,1141,1138,1138,1134,1134,1130,1130,1134,1134,1134,1134,1134,1134,1134,1134,1134,1134,1134,1130,1130,1130,0,0,0,0,0,0,0,0,762,761,761,761,761,761,761,762,762,762,762,764,764,767,767,769,771,771,773,773,773,774,774,776,778,780,0,0,0,0,0,1134,1134,1134,1130,1130,1130,1130,1130,1130,1130,1130,1130,1130,1130,1130,1130,1130,1130,1130,1130,1130,1130,1126,1126,1126,1126,1126,1126,1126,1126,1126,1126,1130,1130,1126,1126,1126,1126,1123,1123,1123,1123,1123,1123,1123,1123,1126,1126,1130,1130,1130,1130,1130,878,878,878,880,880,880,880,882,882,882,882,882,882,882,885,885,885,885,885,887,887,887,887,887,889,889,891,891,894,894,894,894,896,898,898,901,903,906,906,906,908,910,913,913,913,915,918,918,920,920,923,923,923,923,925,928,1105,1105,1108,1108,1108,1108,1112,1112,1112,1112,1112,1112,1112,1112,1108,1108,1108,1108,1108,1105,1105,1105,1105,1105,1105,1105,1105,1108,1105,1105,1105,1105,1105,1105,1105,1105,1105,1105,1105,1105,1101,1101,1101,1101,1101,1101,1101,1101,1101,1101,1101,1105,1101,1101,1101,1101,1101,1101,1101,1101,1101,1101,1101,1101,1101,1101,1105,1105,1101,1097,1097,1094,1094,1090,1084,1080,1077,1073,1073,1070,1070,1070,1070,1070,1070,1077,1077,1077,1080,1084,1084,1087,1090,1094,1094,1094,1094,1090,1090,1090,1090,1090,1090,1090,1090,1090,1090,1090,1090,1090,1090,1090,1090,1090,1090,1090,1090,1090,1090,1087,1087,1087,1087,1087,1087,1087,1087,1087,1087,1087,1087,1087,1087,1087,1087,1087,1087,1087,1087,1087,1087,1087,1087,1084,1084,1084,1084,1084,1080,1080,1080,1080,1080,1080,1080,1080,1080,1080,1080,1080,1080,1080,1080,1080,1080,1080,1080,1080,1080,1080,1077,1077,1077,1077,1077,1077,1077,1077,1073,1073,1073,1073,1073,1073,1073,1073,1073,1077,1077,1077,1077,1073,1073,1073,1073,1073,1070,1070,1067,1067,1067,1067,1067,1067,1067,1067,1067,1067,1067,1067,1067,1067,1067,1067,1067,1067,1067,1067,1067,1063,1063,1063,1060,1060,1060,1060,1060,1060,1060,1060,1060,1060,1060,1060,1060,1060,1057,1057,1057,1057,1057,1054,1054,1054,1054,1054,1050,1047,1044,1044,1044,1041,1041,1041,1041,1038,1038,1038,1038,1034,1034,1031,1031,1028,1028,1028,1028,1028,1028,1025,1025,1025,1025,1025,1025,1025,1025,1025,1025,1025,1025,1025,1025,1025,1025,0,0,0,0,0,0,0,0,783,781,781,781,781,781,780,780,780,780,780,780,781,781,781,780,780,780,778,778,778,778,776,776,776,776,776,776,776,776,776,776,776,778,778,778,778,778,778,778,778,778,778,778,780,780,780,0,0,0,0,0,0,0,0,0,0,0,0,0,0,0,0,0,0,0,0,0,0,0,0,0,0,0,0,0,0,0,0,0,0,0,0,0,0
0,0,0,0,0,0,0,1157,1157,1157,1157,1153,1153,1153,1153,1153,1153,1153,1153,1153,1153,1157,1157,1157,1157,1157,1157,1157,1153,1153,1153,1153,1153,1153,1149,1149,1149,1149,1149,1149,1149,1149,1149,1149,1149,1149,1149,1149,1149,1149,1149,1149,1149,1149,1149,1149,1145,1145,1145,1145,1145,1145,1145,1145,1145,1145,1145,1145,1149,1145,1145,1145,1145,1145,1145,1145,1145,1145,1145,1145,1145,1145,1145,1145,1145,1145,1145,1141,1141,1141,1141,1141,1141,1138,1134,1134,1134,1134,1130,1130,1134,1134,1134,1134,1134,1134,1134,1134,1134,1134,1134,1130,1130,1130,0,0,0,0,0,0,0,0,0,761,761,761,762,762,762,762,762,762,762,764,764,767,769,771,771,771,774,774,774,774,776,776,780,780,780,0,0,0,0,1134,1130,1130,1130,1130,1130,1130,1130,1130,1130,1130,1130,1126,1126,1126,1126,1126,1126,1126,1126,1126,1126,1123,1123,1123,1123,1123,1123,1123,1123,1123,1123,1126,1123,1123,1123,1123,1123,1123,1119,1119,1119,1119,1123,1123,1123,1123,1126,1126,1126,1126,875,875,875,878,878,878,878,878,878,878,878,880,880,880,880,882,882,885,885,885,885,887,887,887,887,887,889,889,891,891,894,894,896,896,896,898,901,903,903,906,906,908,910,910,913,913,915,915,918,918,920,920,923,923,923,923,925,1105,1105,1105,1105,1105,1105,1105,1108,1108,1108,1108,1108,1108,1108,1108,1108,1108,1108,1108,1105,1105,1105,1105,1105,1105,1105,1105,1105,1105,1105,1105,1105,1105,1105,1101,1101,1105,1101,1101,1101,1101,1101,1101,1097,1097,1097,1097,1101,1101,1097,1097,1097,1101,1101,1101,1101,1101,1101,1097,1097,1097,1097,1097,1097,1097,1097,1097,1097,1097,1097,1094,1094,1094,1090,1090,1084,1080,1077,1077,1073,1073,1073,1073,1070,1070,1077,1077,1080,1080,1080,1084,1084,1087,1087,1090,1090,1090,1090,1090,1090,1090,1090,1090,1087,1087,1087,1090,1090,1090,1087,1087,1087,1087,1087,1087,1087,1087,1087,1087,1087,1087,1084,1084,1084,1084,1084,1084,1080,1080,1080,1084,1084,1084,1084,1084,1084,1084,1084,1084,1084,1084,1084,1084,1084,1080,1080,1080,1080,1080,1080,1080,1080,1080,1077,1077,1077,1077,1077,1077,1077,1077,1077,1077,1077,1077,1077,1080,1080,1077,1077,1077,1077,1077,1077,1077,1077,1077,1073,1073,1073,1070,1070,1070,1070,1070,1070,1070,1070,1073,1073,1073,1073,1073,1073,1073,1073,1070,1070,1070,1067,1063,1063,1063,1063,1063,1063,1067,1067,1067,1067,1067,1067,1067,1067,1067,1067,1067,1067,1063,1063,1063,1063,1060,1060,1060,1060,1060,1060,1057,1057,1060,1060,1057,1057,1057,1057,1057,1057,1054,1054,1054,1054,1054,1054,1054,1054,1054,1050,1047,1044,1044,1044,1041,1041,1041,1041,1038,1038,1038,1038,1038,1034,1031,1031,1028,1028,1028,1028,1028,1028,1025,1025,1025,1025,1025,1025,1025,1028,1028,1028,1028,1028,1025,1025,1025,1025,0,0,0,0,0,0,0,0,783,781,781,781,781,781,780,780,781,781,781,781,781,781,781,780,780,780,778,778,778,778,778,778,776,776,776,776,776,776,776,778,778,778,778,778,778,778,778,778,778,778,778,780,780,781,781,0,0,0,0,0,0,0,0,0,0,0,0,0,0,0,0,0,0,0,0,0,0,0,0,0,0,0,0,0,0,0,0,0,0,0,0,0,0
0,0,0,0,0,0,0,1157,1157,1153,1153,1153,1153,1153,1149,1149,1149,1149,1149,1145,1145,1145,1145,1145,1149,1153,1153,1153,1153,1149,1149,1149,1149,1149,1145,1145,1145,1145,1145,1145,1149,1149,1149,1149,1149,1149,1149,1149,1145,1145,1145,1145,1145,1145,1145,1145,1145,1145,1145,1145,1141,1141,1145,1145,1141,1141,1141,1141,1141,1141,1141,1141,1145,1145,1145,1141,1141,1141,1141,1141,1141,1141,1141,1145,1141,1141,1141,1141,1141,1138,1138,1138,1138,1134,1134,1134,1134,1134,1130,1130,1134,1130,1130,1134,1134,1134,1130,1130,1130,1134,1130,1130,1126,1126,0,0,0,0,0,0,0,0,0,0,762,762,762,762,762,762,764,764,764,764,766,767,769,771,771,773,774,774,774,774,776,778,780,780,780,0,0,0,0,0,1126,1126,1126,1126,1126,1126,1126,1126,1126,1126,1126,1126,1126,1126,1126,1123,1123,1123,1123,1123,1119,1119,1119,1119,1119,1119,1119,1119,1119,1119,1119,1119,1119,1119,1119,1119,1119,1119,1119,1119,1119,1119,1119,1119,1119,875,875,875,873,873,873,875,875,875,875,875,875,875,878,878,878,878,878,878,880,880,880,885,885,885,885,887,887,887,887,887,889,889,891,891,894,894,896,896,898,901,901,903,906,906,908,908,910,913,913,913,915,915,918,918,920,920,923,923,923,1105,1105,1105,1105,1105,1105,1105,1105,1105,1105,1105,1105,1105,1105,1105,1105,1105,1105,1105,1105,1105,1105,1105,1105,1105,1105,1101,1101,1101,1101,1101,1101,1101,1101,1101,1101,1101,1101,1101,1101,1097,1097,1097,1097,1097,1097,1097,1097,1097,1097,1097,1094,1094,1094,1097,1097,1097,1097,1097,1097,1097,1094,1094,1094,1094,1094,1094,1094,1094,1094,1094,1094,1090,1090,1090,1090,1090,1084,1080,1077,1077,1077,1073,1073,1073,1073,1073,1077,1077,1080,1080,1080,1080,1084,1084,1084,1087,1087,1090,1090,1087,1087,1087,1087,1087,1087,1087,1087,1087,1087,1087,1087,1087,1087,1087,1084,1084,1084,1084,1084,1084,1080,1080,1084,1080,1080,1080,1080,1080,1080,1080,1080,1080,1080,1080,1077,1077,1080,1080,1080,1080,1080,1080,1080,1080,1080,1080,1080,1080,1077,1077,1077,1077,1077,1077,1077,1077,1077,1077,1077,1077,1077,1077,1077,1077,1077,1077,1077,1077,1077,1077,1077,1073,1073,1073,1073,1073,1073,1073,1073,1073,1070,1070,1067,1067,1067,1067,1067,1067,1067,1070,1070,1070,1070,1070,1070,1070,1070,1067,1067,1067,1067,1063,1063,1063,1063,1063,1063,1063,1067,1067,1067,1067,1067,1067,1063,1063,1063,1063,1063,1063,1063,1063,1063,1060,1060,1060,1060,1057,1057,1057,1057,1057,1057,1054,1054,1054,1054,1054,1054,1054,1054,1054,1054,1054,1054,1054,1054,1054,1050,1047,1044,1044,1044,1044,1044,1041,1041,1041,1041,1038,1038,1038,1038,1034,1031,1031,1031,1031,1028,1028,1028,1025,1025,1025,1025,1025,1025,1028,1028,1028,1028,1028,1028,1028,1025,1025,1025,0,0,0,0,0,0,0,0,783,781,781,781,781,781,780,780,781,781,781,781,781,781,781,781,780,780,780,780,780,778,778,778,776,776,778,776,776,776,778,778,778,780,780,780,780,780,780,780,780,780,780,781,781,781,781,0,0,0,0,0,0,0,0,0,0,0,0,0,0,0,0,0,0,0,0,0,0,0,0,0,0,0,0,0,0,0,0,0,0,0,0,0,0
0,0,0,0,0,0,0,0,1153,1153,1149,1149,1149,1149,1149,1149,1149,1145,1145,1145,1145,1145,1145,1145,1145,1149,1149,1149,1149,1145,1145,1149,1145,1145,1145,1145,1145,1145,1141,1141,1145,1145,1145,1145,1145,1145,1145,1145,1145,1145,1145,1145,1145,1145,1145,1145,1145,1145,1141,1141,1141,1141,1141,1141,1141,1141,1138,1138,1138,1138,1138,1138,1138,1138,1138,1138,1138,1138,1138,1138,1138,1138,1138,1141,1138,1138,1138,1138,1138,1138,1138,1134,1134,1134,1134,1130,1130,1130,1130,1130,1130,1130,1130,1134,1134,1134,1130,1130,1130,1130,1130,1126,1115,1115,0,0,0,0,0,0,0,0,0,0,762,762,766,766,766,764,764,766,766,766,767,769,769,771,773,773,774,774,774,776,776,778,780,780,781,0,0,0,0,0,1123,1123,1123,1123,1123,1123,1123,1123,1123,1123,1123,1123,1123,1123,1123,1119,1119,1119,1119,1119,1119,1119,1115,1115,1119,1119,1119,1119,1119,1119,1119,1119,1115,1115,1115,1115,1115,1119,1119,1119,1119,1119,869,869,869,869,873,873,873,873,873,873,873,875,875,875,875,875,875,875,875,875,875,878,878,878,880,882,882,885,885,887,887,887,887,887,889,891,891,894,894,894,896,896,898,901,901,903,906,906,908,910,910,913,913,913,915,915,918,918,920,920,923,1101,1101,1101,1101,1101,1101,1101,1101,1101,1101,1101,1101,1101,1101,1101,1101,1101,1101,1101,1101,1101,1101,1101,1101,1101,1101,1101,1101,1101,1101,1101,1101,1101,1101,1101,1101,1101,1097,1097,1097,1097,1097,1094,1094,1094,1094,1094,1094,1094,1094,1094,1094,1094,1090,1090,1090,1094,1094,1094,1094,1094,1094,1094,1094,1090,1090,1090,1090,1090,1090,1090,1087,1087,1090,1090,1090,1090,1087,1087,1084,1084,1080,1077,1077,1077,1077,1077,1077,1077,1080,1080,1080,1080,1080,1080,1080,1080,1080,1084,1084,1087,1087,1084,1084,1084,1084,1084,1084,1084,1084,1084,1084,1084,1080,1080,1080,1080,1080,1080,1080,1080,1080,1080,1080,1077,1077,1077,1077,1077,1077,1077,1077,1077,1077,1077,1077,1077,1077,1077,1077,1077,1077,1077,1077,1077,1077,1077,1077,1077,1077,1077,1077,1077,1077,1077,1077,1077,1077,1077,1073,1073,1073,1073,1073,1073,1073,1073,1073,1073,1073,1070,1070,1070,1070,1070,1070,1070,1073,1073,1073,1070,1070,1070,1067,1067,1067,1067,1067,1067,1067,1067,1067,1067,1067,1067,1067,1067,1067,1067,1063,1063,1063,1063,1063,1063,1063,1063,1063,1063,1063,1063,1063,1063,1063,1067,1067,1063,1063,1063,1063,1063,1063,1060,1060,1060,1060,1057,1057,1057,1057,1057,1054,1054,1054,1054,1054,1054,1054,1054,1054,1054,1054,1054,1054,1054,1054,1054,1054,1054,1054,1054,1050,1047,1044,1044,1044,1044,1044,1044,1041,1041,1041,1041,1038,1038,1038,1038,1034,1034,1031,1031,1031,1028,1028,1028,1028,1028,1028,1028,1028,1028,1031,1031,1031,1031,1028,1028,1028,1028,1028,0,0,0,0,0,0,0,0,781,781,781,781,781,781,781,781,781,781,781,781,781,781,781,781,780,780,780,780,780,780,778,778,778,778,778,776,776,776,778,778,778,780,780,780,780,780,780,780,780,780,781,781,781,781,781,0,0,0,0,0,0,0,0,0,0,0,0,0,0,0,0,0,0,0,0,0,0,0,0,0,0,0,0,0,0,0,0,0,0,0,0,0,0
0,0,0,0,0,0,0,0,1149,1149,1149,1149,1149,1149,1149,1149,1145,1145,1145,1145,1141,1141,1141,1141,1141,1141,1141,1145,1145,1145,1145,1145,1145,1145,1145,1141,1141,1141,1138,1138,1138,1138,1138,1141,1141,1145,1145,1141,1141,1141,1141,1141,1141,1141,1141,1141,1141,1141,1141,1138,1138,1138,1138,1138,1138,1138,1138,1138,1134,1134,1134,1134,1134,1134,1134,1134,1134,1134,1134,1134,1134,1134,1134,1138,1134,1134,1134,1134,1134,1134,1134,1134,1134,1134,1130,1130,1130,1130,1130,1130,1130,1130,1130,1130,1130,1130,1130,1130,1130,1130,1126,1123,1115,1112,1112,0,0,0,0,0,0,0,0,0,767,767,766,766,766,766,767,767,767,767,767,769,771,773,773,773,774,774,776,776,778,780,781,781,781,0,0,0,0,0,1123,1123,1123,1123,1123,1119,1119,1123,1119,1119,1119,1119,1119,1119,1119,1115,1115,1119,1119,1115,1115,1115,1115,1115,1115,1115,1115,1119,1115,1115,1115,1115,1115,1115,1115,1115,1115,1115,1115,1115,1115,1115,867,867,867,867,871,871,871,871,871,871,871,871,871,873,873,875,875,875,875,875,875,875,878,878,880,882,882,885,885,887,887,887,887,889,891,891,894,894,896,896,896,898,901,903,903,903,906,908,908,910,910,913,913,913,915,915,918,918,920,1097,1097,1101,1101,1101,1101,1101,1101,1101,1101,1097,1097,1097,1101,1101,1101,1101,1097,1097,1097,1097,1097,1094,1094,1097,1101,1101,1101,1101,1101,1097,1097,1097,1097,1097,1097,1097,1097,1097,1097,1094,1094,1094,1094,1094,1094,1090,1090,1090,1090,1090,1090,1090,1090,1090,1090,1090,1090,1094,1094,1094,1094,1094,1094,1090,1090,1090,1090,1090,1087,1087,1087,1084,1084,1084,1087,1087,1087,1087,1084,1084,1084,1080,1080,1077,1077,1077,1077,1077,1077,1077,1077,1080,1080,1080,1080,1080,1080,1080,1080,1080,1080,1084,1084,1084,1084,1080,1080,1080,1080,1080,1080,1080,1080,1080,1080,1080,1077,1077,1080,1077,1077,1077,1077,1077,1077,1077,1077,1077,1077,1077,1077,1077,1077,1077,1077,1077,1073,1073,1073,1073,1073,1073,1073,1073,1073,1073,1073,1073,1077,1073,1073,1077,1073,1073,1077,1073,1073,1073,1073,1073,1073,1073,1073,1073,1070,1070,1070,1070,1070,1070,1070,1070,1070,1070,1070,1070,1067,1067,1070,1070,1070,1067,1067,1067,1067,1067,1067,1067,1063,1063,1063,1063,1063,1063,1063,1063,1063,1063,1063,1063,1063,1060,1060,1060,1060,1060,1060,1060,1060,1060,1063,1063,1063,1063,1063,1063,1063,1063,1063,1063,1060,1060,1060,1060,1057,1057,1057,1057,1057,1054,1054,1054,1054,1054,1054,1054,1054,1054,1054,1054,1050,1050,1050,1050,1050,1050,1050,1050,1050,1050,1050,1050,1050,1047,1047,1047,1044,1044,1044,1044,1041,1041,1041,1041,1041,1041,1038,1038,1038,1034,1034,1034,1031,1031,1031,1031,1031,1031,1031,1031,1031,1031,1034,1034,1034,1034,1034,1031,1028,1028,0,0,0,0,0,783,781,781,781,781,781,781,781,781,781,781,781,781,781,781,780,780,781,781,781,780,780,780,780,780,780,778,778,778,778,778,778,778,778,780,780,780,780,780,780,781,780,780,781,781,781,781,783,783,783,783,0,0,0,0,0,0,0,0,0,0,0,0,0,0,0,0,0,0,0,0,0,0,0,0,0,0,0,0,0,0,0,0,0,0,0,0,0,0
0,0,0,0,0,0,0,0,1145,1145,1145,1145,1149,1149,1149,1145,1145,1145,1145,1141,1141,1138,1138,1138,1138,1141,1141,1141,1141,1141,1141,1141,1138,1138,1138,1138,1138,1138,1138,1138,1134,1134,1134,1138,1138,1138,1138,1138,1138,1138,1138,1138,1138,1138,1138,1138,1138,1138,1138,1134,1134,1134,1134,1134,1134,1134,1134,1134,1134,1134,1134,1134,1134,1134,1130,1130,1130,1130,1130,1130,1130,1130,1130,1134,1134,1130,1130,1130,1130,1134,1134,1130,1130,1130,1130,1130,1126,1126,1126,1126,1126,1126,1126,1130,1130,1130,1130,1126,1126,1123,1123,1119,1112,1112,1112,1108,1108,0,0,0,0,0,0,0,0,767,767,767,767,767,767,767,769,769,771,771,773,773,773,774,774,776,776,778,780,780,781,781,781,783,0,0,0,0,1123,1123,1123,1123,1123,1119,1119,1119,1119,1119,1119,1115,1115,1115,1115,1115,1115,1115,1115,1115,1115,1115,1115,1115,1115,1115,1115,1115,1115,1115,1115,1115,1115,1115,1115,1115,1115,1115,1115,1115,1115,869,867,867,867,867,869,869,869,869,869,869,869,869,869,871,871,871,873,873,873,875,875,875,875,878,878,880,882,882,885,887,887,887,887,889,891,894,894,894,896,896,898,901,901,903,903,906,906,908,908,910,913,913,913,913,913,913,918,1097,1097,1097,1097,1097,1097,1101,1097,1097,1097,1097,1097,1094,1094,1094,1094,1097,1097,1097,1094,1094,1094,1094,1090,1090,1090,1090,1090,1094,1097,1097,1097,1097,1097,1094,1094,1094,1094,1094,1094,1094,1090,1090,1090,1090,1090,1090,1090,1090,1090,1090,1090,1090,1090,1090,1087,1087,1087,1087,1087,1090,1090,1090,1090,1090,1090,1087,1087,1087,1087,1087,1084,1084,1084,1084,1084,1084,1084,1084,1084,1084,1080,1080,1080,1080,1080,1077,1077,1077,1077,1077,1077,1077,1077,1080,1080,1080,1080,1080,1080,1080,1080,1080,1080,1080,1080,1080,1080,1080,1080,1080,1080,1077,1077,1077,1077,1077,1077,1077,1077,1077,1077,1077,1077,1077,1077,1077,1073,1073,1073,1073,1073,1073,1073,1073,1073,1073,1073,1073,1070,1070,1073,1070,1070,1070,1070,1070,1070,1067,1067,1067,1067,1067,1070,1073,1073,1073,1073,1073,1070,1070,1070,1070,1070,1067,1067,1067,1067,1067,1067,1067,1067,1067,1067,1067,1067,1067,1067,1067,1067,1067,1067,1067,1067,1067,1067,1067,1067,1067,1063,1063,1063,1063,1063,1060,1060,1060,1060,1060,1060,1063,1063,1060,1060,1057,1057,1057,1057,1057,1057,1057,1057,1057,1060,1060,1060,1060,1060,1060,1060,1060,1060,1060,1060,1060,1057,1057,1057,1057,1057,1054,1054,1054,1054,1054,1054,1050,1050,1050,1050,1050,1050,1050,1050,1050,1050,1050,1047,1047,1047,1050,1050,1050,1050,1050,1047,1047,1044,1044,1044,1044,1044,1044,1041,1041,1041,1041,1041,1041,1038,1038,1038,1034,1034,1034,1034,1034,1034,1034,1034,1034,1034,1034,1034,1034,1038,1038,1038,1038,1038,1034,1028,1028,0,0,0,0,0,783,781,781,781,781,781,781,781,781,781,781,781,781,781,781,780,780,781,781,781,780,780,780,780,780,780,780,778,778,780,778,778,778,780,780,780,780,781,781,781,781,781,781,781,781,781,783,783,783,783,783,0,0,0,0,0,0,0,0,0,0,0,0,0,0,0,0,0,0,0,0,0,0,0,0,0,0,0,0,0,0,0,0,0,0,0,0,0,0
0,0,0,0,0,0,0,0,1138,1138,1138,1138,1138,1141,1141,1141,1145,1141,1141,1138,1138,1134,1134,1134,1134,1134,1134,1134,1134,1134,1138,1138,1134,1134,1134,1134,1134,1134,1134,1134,1134,1134,1134,1134,1134,1138,1138,1138,1138,1138,1138,1138,1138,1138,1134,1134,1134,1134,1134,1134,1134,1134,1134,1130,1130,1130,1130,1130,1130,1130,1130,1130,1130,1130,1130,1130,1130,1130,1130,1130,1126,1126,1126,1126,1126,1126,1126,1130,1130,1130,1130,1130,1130,1130,1130,1126,1126,1126,1123,1123,1126,1126,1126,1126,1126,1126,1126,1123,1123,1123,1123,1119,1112,1112,1112,1108,1108,0,0,0,0,0,0,0,0,769,767,767,767,767,767,767,769,771,771,773,773,773,774,774,776,778,778,780,781,781,781,781,783,783,0,0,0,0,0,1119,1119,1119,1119,1119,1119,1115,1115,1115,1115,1115,1112,1112,1112,1112,1112,1115,1115,1112,1112,1112,1112,1112,1112,1112,1112,1112,1112,1112,1112,1112,1112,1112,1112,1112,1112,1112,864,864,867,867,867,867,867,867,869,869,869,869,869,869,869,869,869,869,869,871,873,873,873,873,873,875,875,878,878,880,880,882,885,887,887,887,889,891,891,894,894,896,896,896,898,901,901,903,906,906,906,908,910,913,913,913,913,913,913,913,1094,1094,1094,1094,1097,1097,1097,1097,1097,1094,1094,1094,1094,1094,1094,1094,1094,1094,1094,1090,1090,1090,1090,1090,1090,1087,1087,1090,1090,1090,1090,1090,1090,1090,1090,1090,1090,1090,1090,1090,1090,1090,1087,1087,1087,1087,1087,1087,1087,1087,1087,1087,1087,1087,1087,1087,1087,1087,1084,1084,1087,1090,1087,1087,1090,1087,1087,1087,1084,1084,1084,1084,1084,1084,1084,1080,1080,1080,1080,1080,1080,1080,1080,1077,1077,1077,1077,1077,1077,1077,1077,1077,1077,1077,1077,1077,1077,1077,1077,1077,1077,1077,1077,1077,1077,1077,1080,1080,1080,1077,1077,1077,1077,1073,1073,1073,1073,1073,1073,1073,1073,1073,1073,1077,1077,1077,1073,1073,1073,1070,1070,1070,1070,1070,1070,1070,1070,1070,1070,1070,1067,1067,1067,1067,1067,1067,1067,1067,1067,1067,1067,1067,1063,1063,1063,1067,1067,1067,1070,1070,1070,1067,1067,1067,1067,1067,1067,1063,1063,1067,1063,1063,1067,1067,1063,1063,1067,1063,1063,1063,1063,1063,1063,1063,1063,1063,1063,1063,1063,1063,1063,1060,1060,1060,1060,1057,1057,1057,1057,1057,1057,1057,1057,1057,1057,1057,1054,1054,1054,1054,1054,1054,1057,1057,1057,1057,1057,1057,1057,1057,1060,1060,1057,1057,1057,1057,1054,1054,1054,1054,1054,1054,1054,1050,1050,1050,1050,1050,1050,1050,1050,1050,1047,1047,1047,1047,1047,1047,1047,1047,1047,1047,1047,1050,1050,1047,1044,1044,1044,1044,1044,1041,1041,1041,1041,1041,1041,1041,1041,1041,1038,1038,1038,1038,1038,1038,1038,1034,1034,1034,1038,1038,1038,1038,1038,1038,1038,1041,1041,1041,1041,1041,1041,1041,0,0,0,0,783,783,781,781,781,781,781,781,781,781,781,781,781,781,781,780,780,780,781,781,781,780,780,780,780,780,780,780,780,780,780,778,778,778,780,780,780,781,781,781,781,781,781,781,781,783,783,785,785,785,785,785,787,0,0,0,0,0,0,0,0,0,0,0,0,0,0,0,0,0,0,0,0,0,0,0,0,0,0,0,0,0,0,0,0,0,0,0,0,0
0,0,0,0,0,0,0,0,1134,1134,1134,1134,1138,1138,1138,1134,1134,1134,1134,1134,1134,1134,1134,1134,1134,1130,1130,1134,1134,1134,1134,1134,1134,1134,1134,1134,1134,1134,1134,1134,1130,1130,1130,1130,1130,1134,1134,1134,1134,1134,1134,1134,1134,1134,1134,1130,1130,1134,1134,1130,1130,1130,1130,1130,1130,1126,1126,1126,1126,1126,1126,1126,1126,1126,1126,1126,1126,1126,1126,1126,1123,1123,1123,1123,1123,1123,1123,1123,1123,1126,1126,1126,1126,1126,1126,1126,1123,1123,1119,1119,1123,1123,1123,1123,1123,1123,1123,1119,1119,1119,1119,1119,1115,1115,1115,1115,1115,0,0,0,0,0,0,0,0,774,767,767,767,767,767,767,771,771,771,773,773,774,774,776,778,778,780,780,781,781,781,781,783,783,787,0,0,0,0,1101,1101,1115,1115,1115,1115,1115,1112,1112,1112,1108,1108,1108,1108,1108,1108,1112,1112,1112,1112,1112,1112,1112,1108,1108,1108,1112,1108,1108,1108,1108,1108,1108,1108,1108,1108,862,862,864,864,867,867,867,867,867,867,867,867,867,867,867,867,867,867,869,869,871,871,873,873,873,873,875,875,875,878,880,880,882,885,887,887,887,889,891,891,894,894,896,896,898,901,903,903,903,906,906,906,908,910,913,913,913,913,1090,1090,1090,1090,1090,1094,1094,1094,1094,1094,1097,1094,1094,1090,1090,1090,1090,1090,1090,1090,1090,1090,1090,1090,1090,1090,1087,1087,1087,1087,1087,1087,1087,1087,1087,1087,1087,1087,1087,1087,1087,1087,1087,1087,1087,1087,1087,1087,1087,1087,1087,1087,1087,1087,1087,1087,1087,1087,1084,1084,1084,1084,1084,1087,1087,1087,1087,1087,1084,1084,1080,1080,1080,1080,1084,1080,1080,1080,1080,1080,1080,1077,1077,1077,1077,1077,1077,1077,1077,1077,1077,1077,1077,1077,1077,1077,1077,1077,1073,1073,1073,1073,1073,1073,1073,1073,1073,1073,1073,1077,1077,1077,1073,1073,1073,1070,1070,1070,1070,1070,1070,1070,1070,1070,1070,1070,1073,1073,1073,1070,1070,1070,1067,1067,1067,1067,1067,1067,1067,1067,1067,1067,1067,1067,1067,1067,1067,1067,1067,1067,1067,1063,1063,1063,1063,1063,1063,1063,1063,1063,1063,1063,1063,1067,1063,1063,1063,1063,1063,1063,1063,1063,1063,1063,1063,1063,1063,1063,1063,1063,1063,1063,1063,1060,1060,1060,1060,1063,1060,1060,1060,1060,1060,1060,1057,1057,1057,1057,1054,1054,1054,1054,1054,1054,1054,1054,1054,1054,1054,1054,1054,1054,1054,1054,1054,1054,1054,1054,1054,1054,1054,1054,1054,1057,1057,1057,1054,1054,1054,1054,1054,1054,1054,1054,1054,1050,1050,1050,1050,1050,1047,1047,1047,1047,1047,1047,1047,1044,1044,1044,1044,1044,1044,1044,1044,1044,1047,1044,1044,1041,1041,1041,1041,1041,1041,1041,1041,1041,1041,1041,1041,1041,1041,1041,1038,1038,1038,1038,1038,1038,1038,1038,1038,1038,1038,1038,1038,1038,1038,1038,1038,1038,1038,1041,1044,1044,0,0,0,781,781,783,783,781,781,781,781,781,781,781,781,781,781,781,781,781,780,780,780,781,781,781,780,780,781,781,780,780,780,780,780,780,780,780,780,780,780,780,781,781,781,781,781,781,781,783,783,785,787,787,787,787,787,787,0,0,0,0,0,0,0,0,0,0,0,0,0,0,0,0,0,0,0,0,0,0,0,0,0,0,0,0,0,0,0,0,0,0,0,0,0
0,0,0,0,0,0,0,0,1134,1134,1134,1134,1134,1134,1134,1130,1130,1134,1134,1134,1130,1130,1126,1126,1130,1126,1126,1130,1130,1130,1130,1130,1130,1130,1130,1130,1130,1130,1130,1130,1126,1126,1126,1126,1126,1126,1130,1130,1130,1130,1130,1130,1130,1130,1130,1126,1126,1126,1130,1126,1126,1126,1126,1126,1126,1126,1123,1123,1123,1123,1123,1123,1123,1123,1123,1123,1123,1123,1123,1123,1123,1123,1123,1119,1119,1119,1123,1123,1123,1123,1126,1126,1126,1123,1123,1123,1119,1119,1119,1119,1119,1119,1119,1119,1119,1119,1119,1119,1119,1119,1119,1115,1115,1115,1112,1112,1108,1108,0,0,0,0,0,0,0,774,773,767,767,767,767,767,771,771,773,773,773,774,774,776,778,778,780,780,781,781,783,783,781,781,787,0,0,0,1101,1101,1101,1105,1112,1108,1108,1105,1105,1108,1108,1108,1105,1105,1105,1105,1108,1108,1108,1108,1108,1108,1108,1108,1108,1108,1108,1108,1108,1108,1108,1108,1108,1108,1108,1108,860,860,862,864,864,867,867,867,867,864,864,864,864,867,864,864,864,867,867,867,869,869,871,871,873,873,875,875,875,875,878,880,880,882,885,887,887,889,889,891,891,894,894,896,898,898,901,903,903,903,903,906,906,908,910,913,913,1087,1087,1090,1090,1090,1090,1090,1090,1090,1090,1090,1090,1090,1090,1090,1090,1090,1090,1087,1087,1087,1087,1087,1087,1087,1087,1087,1087,1087,1087,1084,1084,1084,1084,1084,1084,1084,1084,1087,1087,1084,1080,1080,1080,1080,1080,1084,1084,1084,1084,1084,1084,1084,1084,1084,1084,1084,1084,1084,1084,1080,1080,1080,1080,1080,1084,1084,1084,1084,1084,1080,1080,1080,1080,1080,1080,1080,1080,1080,1080,1077,1077,1077,1077,1077,1077,1073,1073,1073,1073,1073,1073,1073,1073,1077,1077,1077,1073,1073,1073,1073,1070,1070,1070,1070,1070,1070,1073,1073,1073,1073,1073,1073,1070,1070,1070,1067,1067,1067,1067,1067,1067,1067,1070,1070,1070,1070,1070,1070,1070,1070,1067,1067,1067,1067,1067,1067,1067,1067,1067,1067,1067,1067,1067,1067,1067,1063,1063,1063,1063,1063,1063,1063,1063,1063,1063,1063,1063,1063,1060,1060,1060,1060,1060,1060,1060,1060,1060,1063,1063,1063,1063,1060,1060,1063,1060,1060,1060,1060,1060,1060,1060,1060,1060,1060,1057,1057,1057,1057,1060,1057,1057,1057,1057,1057,1057,1057,1054,1054,1054,1054,1054,1054,1054,1054,1054,1054,1054,1054,1054,1054,1054,1050,1050,1054,1054,1054,1054,1050,1050,1050,1050,1050,1050,1050,1050,1050,1050,1054,1050,1050,1050,1050,1050,1050,1050,1050,1050,1050,1050,1047,1047,1047,1047,1047,1047,1047,1044,1044,1044,1044,1044,1044,1041,1041,1044,1044,1044,1044,1044,1041,1041,1041,1041,1041,1041,1041,1041,1041,1041,1038,1038,1038,1038,1038,1038,1038,1038,1038,1034,1034,1034,1034,1034,1034,1038,1038,1038,1038,1038,1038,1038,1038,1038,1038,1041,1044,1044,0,0,0,781,781,783,783,783,783,783,783,783,781,781,781,781,781,781,781,781,780,780,780,780,780,780,780,780,781,781,781,781,781,780,780,780,780,780,780,781,781,781,781,781,781,781,781,781,781,783,783,785,789,789,789,789,789,0,0,0,0,0,0,0,0,0,0,0,0,0,0,0,0,0,0,0,0,0,0,0,0,0,0,0,0,0,0,0,0,0,0,0,0,0,0
0,0,0,0,0,0,0,0,1130,1130,1130,1130,1130,1130,1130,1130,1130,1130,1130,1130,1130,1126,1126,1123,1123,1123,1123,1126,1126,1130,1130,1130,1130,1130,1130,1130,1130,1126,1126,1123,1123,1123,1123,1123,1123,1126,1126,1126,1126,1130,1126,1126,1126,1126,1126,1123,1123,1123,1126,1126,1126,1126,1126,1126,1123,1123,1123,1119,1119,1119,1119,1119,1119,1119,1119,1119,1119,1119,1119,1119,1119,1119,1119,1119,1119,1119,1119,1119,1119,1123,1119,1119,1119,1119,1119,1115,1115,1115,1115,1115,1115,1119,1119,1119,1119,1119,1119,1115,1115,1119,1115,1115,1115,1115,1112,1108,1105,1105,1105,0,0,0,0,0,0,773,773,773,771,771,771,771,771,773,773,773,774,774,776,778,778,780,780,781,781,781,783,783,781,781,781,0,0,0,1101,1101,1105,1105,1105,1105,1105,1105,1105,1105,1105,1105,1105,1105,1105,1105,1105,1105,1105,1105,1105,1105,1105,1105,1105,1105,1105,1105,1105,1105,860,860,860,862,860,860,860,860,864,864,864,864,864,864,862,862,862,862,862,864,864,864,864,864,867,867,869,869,871,871,875,875,875,875,878,878,880,880,882,885,885,887,887,889,889,891,891,894,896,896,898,898,901,903,903,903,903,1087,1087,1087,1087,1087,1087,1087,1087,1087,1087,1087,1087,1090,1090,1090,1090,1090,1090,1090,1087,1087,1087,1087,1087,1087,1087,1087,1084,1084,1087,1087,1084,1084,1087,1087,1084,1084,1084,1084,1084,1080,1080,1080,1084,1080,1080,1080,1080,1080,1077,1077,1077,1077,1077,1077,1080,1080,1080,1080,1080,1080,1080,1080,1077,1077,1077,1077,1077,1077,1077,1077,1080,1080,1080,1080,1080,1077,1077,1077,1077,1077,1080,1080,1077,1077,1077,1077,1077,1077,1073,1073,1073,1073,1073,1070,1070,1073,1070,1070,1070,1073,1073,1073,1073,1070,1070,1070,1070,1070,1070,1067,1067,1067,1070,1067,1067,1067,1067,1070,1070,1067,1067,1067,1067,1067,1067,1067,1067,1067,1067,1067,1067,1067,1067,1067,1067,1067,1067,1067,1067,1067,1067,1067,1063,1063,1063,1063,1063,1063,1063,1063,1063,1063,1063,1063,1063,1063,1063,1063,1060,1060,1060,1060,1060,1060,1057,1057,1057,1057,1057,1057,1057,1057,1057,1057,1057,1057,1057,1060,1060,1060,1060,1060,1060,1060,1057,1057,1057,1057,1057,1054,1054,1054,1054,1054,1054,1054,1054,1054,1054,1054,1054,1054,1054,1054,1054,1050,1050,1050,1050,1050,1050,1050,1050,1050,1050,1050,1050,1050,1050,1050,1050,1050,1050,1050,1050,1050,1050,1050,1047,1047,1047,1047,1047,1047,1044,1044,1050,1047,1047,1050,1047,1047,1047,1047,1047,1044,1044,1044,1044,1044,1044,1044,1041,1041,1041,1041,1041,1041,1041,1041,1041,1041,1041,1041,1041,1041,1038,1038,1038,1038,1041,1038,1038,1038,1038,1038,1038,1038,1038,1038,1038,1034,1034,1034,1031,1031,1031,1031,1031,1031,1034,1034,1034,1034,1034,1034,1034,1034,1031,1031,1041,1044,1044,0,0,781,781,781,783,783,783,783,783,783,783,781,781,781,781,781,781,781,781,780,780,780,780,780,780,780,780,781,781,781,781,781,781,781,781,781,781,781,781,781,781,781,781,781,781,781,781,783,783,783,785,789,789,790,790,790,0,0,0,0,0,0,0,0,0,0,0,0,0,0,0,0,0,0,0,0,0,0,0,0,0,0,0,0,0,0,0,0,0,0,0,0,0,0
0,0,0,0,0,0,0,0,1126,1126,1126,1126,1126,1126,1126,1126,1123,1123,1123,1126,1126,1126,1123,1123,1123,1123,1123,1123,1123,1126,1126,1126,1130,1130,1126,1126,1126,1126,1123,1123,1123,1123,1123,1123,1123,1123,1123,1123,1123,1126,1126,1123,1123,1123,1123,1123,1123,1123,1123,1123,1123,1123,1123,1123,1123,1123,1119,1119,1119,1119,1119,1115,1115,1119,1115,1115,1119,1115,1115,1115,1119,1115,1115,1115,1115,1115,1115,1115,1115,1115,1115,1115,1115,1115,1115,1115,1112,1112,1108,1108,1112,1112,1112,1115,1115,1115,1115,1115,1115,1115,1115,1115,1115,1112,1108,1108,1105,1105,1105,0,0,0,0,0,0,773,773,773,773,773,771,771,771,773,773,774,774,776,776,778,778,780,780,781,781,781,783,783,783,783,789,0,0,0,1105,1105,1105,1105,1105,1105,1105,1101,1101,1101,1101,1101,1101,1101,1101,1101,1101,1105,1101,1101,1105,1105,1105,1105,1105,1105,1105,1105,858,858,858,860,860,860,860,860,860,860,862,862,862,862,862,862,862,862,862,862,862,862,862,862,864,864,867,867,867,869,871,873,875,875,875,875,878,878,880,880,882,885,887,887,887,889,889,891,891,894,896,896,898,898,901,903,903,903,903,1087,1087,1087,1087,1087,1087,1087,1087,1087,1084,1084,1084,1087,1087,1087,1087,1087,1087,1087,1087,1087,1087,1087,1087,1087,1084,1084,1084,1084,1084,1084,1084,1084,1084,1084,1080,1080,1080,1080,1080,1077,1077,1080,1080,1077,1077,1077,1077,1077,1077,1077,1077,1077,1077,1073,1073,1073,1073,1073,1077,1077,1077,1077,1077,1077,1077,1077,1073,1073,1073,1073,1077,1077,1077,1077,1077,1073,1073,1073,1073,1077,1077,1077,1077,1077,1073,1073,1073,1073,1070,1070,1070,1070,1070,1067,1067,1070,1067,1067,1067,1070,1070,1070,1070,1067,1067,1067,1067,1067,1067,1067,1067,1067,1067,1067,1063,1063,1063,1063,1063,1063,1063,1063,1063,1063,1063,1063,1063,1063,1067,1067,1067,1063,1063,1063,1063,1063,1063,1063,1063,1063,1063,1063,1063,1063,1063,1060,1060,1060,1060,1060,1060,1060,1060,1060,1060,1060,1060,1060,1057,1057,1057,1057,1057,1057,1054,1054,1054,1054,1054,1057,1054,1054,1054,1054,1054,1057,1057,1057,1057,1057,1057,1057,1057,1057,1054,1054,1054,1054,1054,1054,1050,1050,1050,1050,1054,1054,1054,1050,1050,1050,1054,1050,1050,1050,1050,1050,1050,1050,1050,1050,1050,1050,1050,1050,1050,1050,1047,1047,1047,1047,1047,1047,1047,1047,1047,1047,1047,1047,1044,1044,1044,1044,1044,1044,1041,1041,1041,1041,1041,1047,1044,1044,1044,1044,1041,1041,1041,1041,1041,1041,1041,1041,1041,1041,1041,1041,1038,1038,1038,1038,1038,1038,1038,1038,1038,1038,1038,1038,1038,1038,1038,1038,1038,1038,1038,1034,1034,1034,1034,1034,1034,1031,1031,1031,1028,1028,1028,1028,1028,1028,1031,1031,1031,1028,1028,1028,1028,1028,1028,1031,0,0,0,0,0,781,781,781,783,783,783,783,783,783,783,781,781,781,781,781,781,781,781,780,780,780,780,781,780,780,780,781,781,781,781,781,781,781,781,781,781,781,781,781,781,781,781,781,781,783,783,783,785,787,787,789,790,790,790,792,813,0,0,0,0,0,0,0,0,0,0,0,0,0,0,0,0,0,0,0,0,0,0,0,0,0,0,0,0,0,0,0,0,0,0,0,0,0
0,0,0,0,0,0,0,1126,1126,1126,1126,1126,1126,1126,1126,1123,1123,1123,1123,1123,1123,1123,1119,1119,1119,1119,1119,1123,1123,1123,1126,1126,1126,1123,1123,1123,1123,1123,1123,1119,1119,1119,1119,1119,1119,1119,1119,1119,1123,1123,1123,1123,1119,1119,1119,1119,1119,1119,1119,1119,1119,1119,1119,1119,1119,1119,1119,1115,1115,1115,1115,1115,1115,1115,1115,1115,1115,1112,1112,1115,1115,1115,1115,1115,1115,1115,1115,1112,1112,1112,1112,1112,1112,1112,1112,1112,1108,1108,1108,1108,1108,1108,1108,1108,1108,1108,1112,1112,1112,1112,1112,1112,1112,1112,1108,1105,1105,1101,1101,1101,0,0,0,0,0,773,773,773,773,773,773,773,773,773,773,774,774,776,778,778,780,780,780,781,781,781,783,785,785,785,789,0,0,0,0,1105,1105,1105,1101,1101,1101,1101,1101,1101,1101,1097,1097,1097,1097,1097,1097,1097,1097,1097,1101,1101,1101,1101,1101,1101,1105,854,854,856,858,858,858,858,858,858,860,860,860,860,860,860,860,860,860,860,860,860,860,862,862,862,864,864,867,867,867,869,871,871,875,875,875,878,878,880,880,882,882,887,887,887,889,891,891,894,894,894,896,896,898,898,901,903,903,903,1087,1087,1087,1087,1087,1087,1087,1084,1084,1084,1084,1084,1084,1084,1084,1080,1080,1080,1080,1084,1084,1084,1084,1084,1084,1084,1080,1080,1080,1080,1080,1080,1080,1080,1080,1080,1077,1077,1077,1077,1077,1077,1077,1077,1077,1077,1077,1077,1073,1073,1077,1073,1073,1073,1073,1073,1073,1070,1070,1070,1070,1070,1070,1070,1073,1073,1073,1073,1073,1073,1073,1073,1077,1073,1073,1073,1070,1070,1070,1070,1070,1073,1073,1073,1073,1073,1070,1070,1070,1070,1070,1070,1067,1067,1067,1067,1067,1067,1067,1067,1067,1067,1063,1063,1063,1063,1063,1063,1063,1063,1063,1063,1063,1063,1063,1063,1063,1060,1060,1060,1060,1060,1060,1060,1060,1063,1063,1063,1063,1063,1063,1063,1063,1063,1063,1060,1060,1060,1063,1063,1063,1063,1060,1060,1060,1060,1060,1060,1057,1057,1060,1060,1060,1060,1057,1057,1057,1057,1057,1057,1057,1057,1054,1054,1057,1057,1054,1054,1054,1054,1054,1054,1054,1054,1054,1054,1054,1054,1054,1054,1054,1054,1054,1054,1054,1054,1054,1054,1050,1050,1050,1050,1050,1050,1050,1050,1050,1050,1050,1050,1050,1050,1050,1050,1050,1047,1047,1047,1047,1050,1050,1050,1047,1047,1047,1047,1047,1047,1044,1044,1044,1044,1044,1044,1044,1044,1044,1044,1044,1044,1041,1041,1041,1041,1041,1041,1038,1038,1038,1038,1038,1038,1038,1038,1041,1041,1041,1038,1038,1038,1038,1038,1038,1038,1038,1038,1038,1038,1038,1038,1038,1038,1034,1034,1034,1034,1034,1034,1034,1034,1034,1034,1038,1038,1038,1034,1034,1034,1034,1034,1034,1034,1031,1031,1031,1028,1028,1028,1028,1028,1028,1028,1028,1028,1028,1028,1028,1028,1025,1025,1025,0,0,0,0,0,783,781,781,781,783,783,783,783,783,783,783,781,781,781,781,781,781,781,781,780,780,780,780,781,780,780,780,781,781,781,781,781,781,781,781,781,781,781,781,781,783,783,783,783,783,783,783,785,787,789,789,790,792,792,796,798,811,0,0,0,0,0,0,0,0,0,0,0,0,0,0,0,0,0,0,0,0,0,0,0,0,0,0,0,0,0,0,0,0,0,0,0,0,0
0,0,0,0,0,0,0,1123,1123,1126,1123,1123,1123,1123,1123,1119,1119,1119,1119,1119,1119,1119,1119,1119,1119,1119,1119,1119,1119,1119,1123,1123,1123,1119,1119,1119,1119,1119,1119,1119,1119,1119,1119,1119,1119,1119,1119,1119,1119,1119,1119,1119,1119,1119,1119,1119,1119,1115,1115,1115,1115,1115,1115,1115,1115,1115,1115,1115,1115,1112,1112,1112,1112,1112,1112,1108,1108,1108,1108,1108,1108,1112,1112,1112,1112,1112,1112,1112,1112,1112,1112,1108,1108,1108,1108,1108,1105,1105,1105,1105,1105,1105,1105,1105,1105,1105,1105,1105,1105,1105,1108,1108,1108,1108,1105,1105,1105,1101,1101,1101,0,0,0,0,0,774,774,773,773,773,773,773,773,773,774,774,776,776,778,778,780,781,781,781,781,783,785,785,787,787,789,789,0,0,1101,1101,1101,1101,1101,1101,1101,1097,1097,1097,1097,1097,1097,1094,1094,1094,1094,1094,1094,1097,1097,1097,1101,1101,1101,1101,851,851,854,856,856,856,856,858,858,858,858,858,858,858,858,858,858,858,858,858,860,860,860,862,862,862,864,864,867,867,867,869,871,871,875,875,875,878,878,880,882,882,885,887,887,889,889,891,891,891,891,894,896,896,896,898,901,903,903,903,1077,1077,1080,1080,1087,1084,1084,1084,1084,1080,1080,1080,1080,1080,1080,1077,1077,1077,1080,1080,1080,1080,1080,1080,1080,1080,1077,1077,1077,1077,1077,1077,1077,1077,1077,1077,1077,1077,1077,1077,1077,1077,1077,1073,1073,1073,1073,1073,1073,1073,1073,1073,1073,1073,1073,1070,1070,1067,1067,1067,1067,1067,1067,1067,1067,1067,1067,1070,1070,1070,1070,1070,1073,1073,1070,1070,1070,1070,1070,1070,1070,1070,1070,1070,1070,1067,1067,1067,1067,1067,1067,1067,1067,1067,1067,1067,1067,1063,1063,1063,1063,1063,1063,1060,1060,1060,1060,1060,1060,1063,1063,1063,1063,1063,1063,1063,1060,1060,1060,1057,1057,1057,1057,1057,1057,1057,1054,1054,1057,1060,1060,1060,1057,1057,1060,1057,1057,1057,1057,1057,1057,1060,1057,1057,1057,1057,1057,1057,1057,1057,1057,1057,1057,1057,1057,1054,1054,1054,1054,1054,1054,1054,1054,1054,1054,1054,1054,1054,1054,1054,1054,1050,1050,1050,1050,1050,1050,1054,1054,1054,1054,1054,1050,1050,1050,1050,1050,1050,1050,1050,1047,1047,1047,1047,1047,1047,1047,1047,1047,1047,1047,1047,1047,1047,1047,1047,1047,1047,1047,1047,1047,1047,1047,1047,1044,1044,1044,1044,1044,1044,1044,1044,1044,1044,1041,1041,1041,1041,1041,1041,1041,1038,1038,1038,1038,1038,1038,1038,1038,1038,1038,1034,1034,1034,1034,1034,1034,1038,1038,1038,1034,1034,1034,1038,1038,1038,1038,1034,1034,1034,1034,1034,1031,1031,1031,1031,1031,1031,1034,1034,1034,1034,1034,1034,1034,1031,1031,1031,1031,1031,1031,1031,1031,1028,1028,1028,1028,1028,1028,1025,1025,1025,1025,1025,1028,1028,1025,1025,1025,1025,1025,0,0,0,0,0,783,783,783,783,783,783,783,783,783,783,783,783,781,781,781,781,781,781,781,781,781,781,781,781,780,780,780,781,781,781,781,781,781,781,781,781,781,781,781,781,783,783,783,785,785,785,785,787,787,789,790,792,794,796,800,805,807,0,0,0,0,0,0,0,0,0,0,0,0,0,0,0,0,0,0,0,0,0,0,0,0,0,0,0,0,0,0,0,0,0,0,0,0,0
