0,0,0,0,0,0,0,0,0,0,0,0,0,0,0,0,0,0,0,0,0,0,0,0,0,0,0,0,0,0,0,0,0,0,0,0,0,0,0,0,0,0,0,0,0,0,0,0,0,0,0,0,0,0,0,0,0,0,0,0,0,0,0,0,0,0,0,0,0,0,0,0,0,0,0,0,0,0,0,0,0,0,0,0,0,0,0,0,0,0,0,0,0,0,0,0,0,0,0,0,0,0,0,0,0,0,0,0,0,0,0,0,0,0,0,0,0,0,0,0,0,0,0,0,0,0,0,0,0,0,0,0,0,0,0,0,0,0,0,0,0,0,0,0,0,0,0,0,0,0,0,0,0,0,0,0,0,0,0,0,0,0,0,0,0,0,0,0,0,0,0,0,0,0,0,0,0,0,0,0,0,0,0,0,0,0,0,0,0,0,0,0,0,0,0,0,0,0,0,0,0,0,0,0,0,0,0,0,0,0,0,0,0,0,0,0,0,0,0,0,0,0,0,0,0,0,0,0,0,0,0,0,0,0,0,0,0,0,0,0,0,0,0,0,0,0,0,0,0,0,0,0,0,0,0,0,0,0,0,0,0,0,0,0,0,0,0,0,0,0,0,0,0,0,0,0,0,0,0,0,0,0,0,0,0,0,0,0,0,0,0,0,0,0,0,0,0,0,0,0,0,0,0,0,0,0,0,0,0,0,0,0,0,0,0,0,0,0,0,0,0,0,0,0,0,0,0,0,0,0,0,0,0,0,0,0,0,0,0,0,0,0,0,0,0,0,0,0,0,0,0,0,0,0,0,0,0,0,0,0,0,0,0,0,0,0,0,0,0,0,0,0,0,0,0,0,0,0,0,0,0,0,0,0,0,0,0,0,0,0,0,0,0,0,0,0,0,0,0,0,0,0,0,0,0,0,0,0,0,0,0,0,0,0,0,0,0,0,0,0,0,0,0,0,0,0,0,0,0,0,0,0,0,0,0,0,0,0,0,0,0,0,0,0,0,0,0,0,0,0,0,0,0,0,0,0,0,0,0,0,0,0,0,0,0,0,0,0,0,0,0,0,0,0,0,0,0,0,0,0,0,0,0,0,0,0,0,0,0,0,0,0,0,0,0,0,0,0,0,0,0,0,0,0,0,0,0,0,0,0,0,0,0,0,0,0,0,0,0,0,0,0,0,0,0,0,0,0,0,0,0,0,0,0,0,0,0,0,0,0,0,0,0,0,0,0,0,0,0,0,0,0,0,0,0,0,0,0,0,0,0,0,0,0,0,0,0,0,0,0,0,0,0,0,0,0,0,0,0,0,0,0,0,0,0,0,0,0,0,0,0,0,0,0,0,0,0,0,0,0,0,0,0,0,0,0,0,0,0,0,0,0,0,0,0,0,0,0,0,0,0,0,0,0,0,0,0,0,0,0,0,0,0,0,0,0,0,0,0,0
0,0,0,0,0,0,0,0,0,0,0,0,0,0,0,0,0,0,0,0,0,0,0,0,0,0,0,0,0,0,0,0,0,0,0,0,0,0,0,0,0,0,0,0,0,0,0,0,0,0,0,0,0,0,0,0,0,0,0,0,0,0,0,0,0,0,0,0,0,0,0,0,0,0,0,0,0,0,0,0,0,0,0,0,0,0,0,0,0,0,0,0,0,0,0,0,0,0,0,0,0,0,0,0,0,0,0,0,0,0,0,0,0,0,0,0,0,0,0,0,0,0,0,0,0,0,0,0,0,0,0,0,0,0,0,0,0,0,0,0,0,0,0,0,0,0,0,0,0,0,0,0,0,0,0,0,0,0,0,0,0,0,0,0,0,0,0,0,0,0,0,0,0,0,0,0,0,0,0,0,0,0,0,0,0,0,0,0,0,0,0,0,0,0,0,0,0,0,0,0,0,0,0,0,0,0,0,0,0,0,0,0,0,0,0,0,0,0,0,0,0,0,0,0,0,0,0,0,0,0,0,0,0,0,0,0,0,0,0,0,0,0,0,0,0,0,0,0,0,0,0,0,0,0,0,0,0,0,0,0,0,0,0,0,0,0,0,0,0,0,0,0,0,0,0,0,0,0,0,0,0,0,0,0,0,0,0,0,0,0,0,0,0,0,0,0,0,0,0,0,0,0,0,0,0,0,0,0,0,0,0,0,0,0,0,0,0,0,0,0,0,0,0,0,0,0,0,0,0,0,0,0,0,0,0,0,0,0,0,0,0,0,0,0,0,0,0,0,0,0,0,0,0,0,0,0,0,0,0,0,0,0,0,0,0,0,0,0,0,0,0,0,0,0,0,0,0,0,0,0,0,0,0,0,0,0,0,0,0,0,0,0,0,0,0,0,0,0,0,0,0,0,0,0,0,0,0,0,0,0,0,0,0,0,0,0,0,0,0,0,0,0,0,0,0,0,0,0,0,0,0,0,0,0,0,0,0,0,0,0,0,0,0,0,0,0,0,0,0,0,0,0,0,0,0,0,0,0,0,0,0,0,0,0,0,0,0,0,0,0,0,0,0,0,0,0,0,0,0,0,0,0,0,0,0,0,0,0,0,0,0,0,0,0,0,0,0,0,0,0,0,0,0,0,0,0,0,0,0,0,0,0,0,0,0,0,0,0,0,0,0,0,0,0,0,0,0,0,0,0,0,0,0,0,0,0,0,0,0,0,0,0,0,0,0,0,0,0,0,0,0,0,0,0,0,0,0,0,0,0,0,0,0,0,0,0,0,0,0,0,0,0,0,0,0,0,0,0,0,0,0,0,0,0,0,0,0,0,0,0,0,0,0,0,0,0,0,0,0,0,0,0,0,0,0,0,0,0,0,0,0,0,0,0,0,0,0,0,0,0,0,0,0,0,0,0,0,0,0,0,0,0,0,0,0,0,0,0,0,0
0,0,0,0,0,0,0,0,0,0,0,0,0,0,0,0,0,0,0,0,0,0,0,0,0,0,0,0,0,0,0,0,0,0,0,0,0,0,0,0,0,0,0,0,0,0,0,0,0,0,0,0,0,0,0,0,0,0,0,0,0,0,0,0,0,0,0,0,0,0,0,0,0,0,0,0,0,0,0,0,0,0,0,0,0,0,0,0,0,0,0,0,0,0,0,0,0,0,0,0,0,0,0,0,0,0,0,0,0,0,0,0,0,0,0,0,0,0,0,0,0,0,0,0,0,0,0,0,0,0,0,0,0,0,0,0,0,0,0,0,0,0,0,0,0,0,0,0,0,0,0,0,0,0,0,0,0,0,0,0,0,0,0,0,0,0,0,0,0,0,0,0,0,0,0,0,0,0,0,0,0,0,0,0,0,0,0,0,0,0,0,0,0,0,0,0,0,0,0,0,0,0,0,0,0,0,0,0,0,0,0,0,0,0,0,0,0,0,0,0,0,0,0,0,0,0,0,0,0,0,0,0,0,0,0,0,0,0,0,0,0,0,0,0,0,0,0,0,0,0,0,0,0,0,0,0,0,0,0,0,0,0,0,0,0,0,0,0,0,0,0,0,0,0,0,0,0,0,0,0,0,0,0,0,0,0,0,0,0,0,0,0,0,0,0,0,0,0,0,0,0,0,0,0,0,0,0,0,0,0,0,0,0,0,0,0,0,0,0,0,0,0,0,0,0,0,0,0,0,0,0,0,0,0,0,0,0,0,0,0,0,0,0,0,0,0,0,0,0,0,0,0,0,0,0,0,0,0,0,0,0,0,0,0,0,0,0,0,0,0,0,0,0,0,0,0,0,0,0,0,0,0,0,0,0,0,0,0,0,0,0,0,0,0,0,0,0,0,0,0,0,0,0,0,0,0,0,0,0,0,0,0,0,0,0,0,0,0,0,0,0,0,0,0,0,0,0,0,0,0,0,0,0,0,0,0,0,0,0,0,0,0,0,0,0,0,0,0,0,0,0,0,0,0,0,0,0,0,0,0,0,0,0,0,0,0,0,0,0,0,0,0,0,0,0,0,0,0,0,0,0,0,0,0,0,0,0,0,0,0,0,0,0,0,0,0,0,0,0,0,0,0,0,0,0,0,0,0,0,0,0,0,0,0,0,0,0,0,0,0,0,0,0,0,0,0,0,0,0,0,0,0,0,0,0,0,0,0,0,0,0,0,0,0,0,0,0,0,0,0,0,0,0,0,0,0,0,0,0,0,0,0,0,0,0,0,0,0,0,0,0,0,0,0,0,0,0,0,0,0,0,0,0,0,0,0,0,0,0,0,0,0,0,0,0,0,0,0,0,0,0,0,0,0,0,0,0,0,0,0,0,0,0,0,0,0,0,0,0,0,0,0,0,0,0,0,0,0,0,0,0,0,0,0,0,0,0,0,0,0
0,0,0,0,0,0,0,0,0,0,0,0,0,0,0,0,0,0,0,2065,2053,2040,2040,2016,2016,2005,2005,2005,1993,1970,1970,1959,1936,1936,1936,1936,1936,0,0,1439,1439,1433,1427,1421,1415,1415,1415,1415,1415,1410,1410,1415,1415,1415,1415,1427,1433,1433,1439,1439,1439,1439,1439,1439,1439,1439,1445,1445,1452,1452,1458,1458,1458,1458,1464,1464,1464,1470,1470,1470,1470,1470,1477,1477,1483,1483,1483,1483,1489,1489,1489,0,0,0,0,0,0,0,0,0,0,0,0,0,0,0,0,0,0,0,0,0,0,0,0,0,0,0,0,0,0,0,0,0,0,0,0,0,0,0,0,0,0,0,0,0,0,0,0,0,0,0,0,0,0,0,0,0,0,0,0,0,0,0,0,0,0,0,0,0,0,0,0,0,0,0,0,0,0,0,0,0,0,0,0,0,0,0,0,0,0,0,0,0,0,0,0,0,0,0,0,0,0,0,0,0,0,0,0,0,0,0,0,0,0,0,0,0,0,0,0,0,0,0,0,0,0,0,0,0,0,0,0,0,0,0,0,0,0,0,0,0,0,0,0,0,0,0,0,0,0,0,0,0,0,0,0,0,0,0,0,0,0,0,0,0,0,0,0,0,0,0,0,0,0,0,0,0,0,0,0,0,0,0,0,0,0,0,0,0,0,0,0,0,0,0,0,0,0,0,0,0,0,0,0,0,0,0,0,0,0,0,0,0,0,0,0,0,0,0,0,0,0,0,0,0,0,0,0,0,0,0,0,0,0,0,0,0,0,0,0,0,0,0,0,0,0,0,0,0,0,0,0,0,0,0,0,0,0,0,0,0,0,0,0,0,0,0,0,0,0,0,0,0,0,0,0,0,0,0,0,0,0,0,0,0,0,0,0,0,0,0,0,0,0,0,0,0,0,0,0,0,0,0,0,0,0,0,0,0,0,0,0,0,0,0,0,0,0,0,0,0,0,0,0,0,0,0,0,0,0,0,0,0,0,0,0,0,0,0,0,0,0,0,0,0,0,0,0,0,0,0,0,0,0,0,0,0,0,0,0,0,0,0,0,0,0,0,0,0,0,0,0,0,0,0,0,0,0,0,0,0,0,0,0,0,0,0,0,0,0,0,0,0,0,0,0,0,0,0,0,0,0,0,0,0,0,0,0,0,0,0,0,0,0,0,0,0,0,0,0,0,0,0,0,0,0,0,0,0,0,0,0,0,0,0,0,0,0,0,0,0,0,0,0,0,0,0,0,0,0,0,0,0,0,0,0,0,0,0,0,0,0,0,0,0,0,0,0,0,0,0,0,0,0,0,0,0,0,0,0,0,0,0,0,0,0,0,0,0,0,0,0,0,0,0,0,0,0,0,0,0,0,0,0,0,0,0,0,0,0,0,0,0,0,0,0,0,0,0,0,0,0,0,0,0,0,0,0,0,0,0,0,0,0,0,0,0,0,0,0,0,0,0,0,0,0,0,0,0
0,0,0,0,0,0,0,0,0,0,0,0,0,0,0,0,0,0,0,2065,2053,2040,2028,2016,2016,2005,2005,2005,1993,1970,1970,1959,1947,1936,1936,1936,1936,0,0,1439,1433,1427,1427,1421,1415,1415,1415,1415,1415,1410,1410,1415,1415,1415,1415,1427,1433,1433,1433,1433,1439,1439,1439,1439,1439,1439,1445,1445,1452,1452,1452,1452,1458,1458,1464,1464,1464,1470,1470,1470,1470,1470,1477,1477,1483,1483,1483,1483,1489,1489,1489,1496,1496,1503,1509,1516,1516,1516,1516,1523,1523,1529,1529,1529,1536,1536,1536,1536,1543,1543,1543,1543,1543,1550,1550,1557,1557,1564,1572,1572,1572,1572,1572,1572,1579,1586,1594,1601,1601,1601,1609,1601,1601,1601,1609,1616,1616,1616,1616,1624,1624,1632,1632,1632,1632,1632,1639,1639,0,0,0,0,0,0,0,0,0,0,0,0,0,0,0,0,0,0,0,0,0,0,0,0,0,0,0,0,0,0,0,0,0,0,0,0,0,0,0,0,0,0,0,0,0,0,0,0,0,0,0,0,0,0,0,0,0,0,0,0,0,0,0,0,0,0,0,0,0,0,0,0,0,0,0,0,0,0,0,0,0,0,0,0,0,0,0,0,0,0,0,0,0,0,0,0,0,0,0,0,0,0,0,0,0,0,0,0,0,0,0,0,0,0,0,0,0,0,0,0,0,0,0,0,0,0,0,0,0,0,0,0,0,0,0,0,0,0,0,0,0,0,0,0,0,0,0,0,0,0,0,0,0,0,0,0,0,0,0,0,0,0,0,0,0,0,0,0,0,0,0,0,0,0,0,0,0,0,0,0,0,0,0,0,0,0,0,0,0,0,0,0,0,0,0,0,0,0,0,0,0,0,0,0,0,0,0,0,0,0,0,0,0,0,0,0,0,0,0,0,0,0,0,0,0,0,0,0,0,0,0,0,0,0,0,0,0,0,0,0,0,0,0,0,0,0,0,0,0,0,0,0,0,0,0,0,0,0,0,0,0,0,0,0,0,0,0,0,0,0,0,0,0,0,0,0,0,0,0,0,0,0,0,0,0,0,0,0,0,0,0,0,0,0,0,0,0,0,0,0,0,0,0,0,0,0,0,0,0,0,0,0,0,0,0,0,0,0,0,0,0,0,0,0,0,0,0,0,0,0,0,0,0,0,0,0,0,0,0,0,0,0,0,0,0,0,0,0,0,0,0,0,0,0,0,0,0,0,0,0,0,0,0,0,0,0,0,0,0,0,0,0,0,0,0,0,0,0,0,0,0,0,0,0,0,0,0,0,0,0,0,0,0,0,0,0,0,0,0,0,0,0,0,0,0,0,0,0,0,0,0,0,0,0,0,0,0,0,0,0,0,0,0,0,0,0,0,0,0,0,0,0,0,0,0,0,0,0,0,0,0,0,0,0,0,0,0,0,0,0,0,0,0,0,0,0,0,0,0,0,0,0,0,0,0,0,0,0,0,0,0,0,0,0,0,0,0,0,0,0,0,0,0,0,0,0,0,0,0,0,0,0
0,0,0,0,0,0,0,0,0,0,0,0,0,0,0,0,0,0,0,2065,2053,2040,2028,2016,2005,1993,1993,1993,1993,1970,1970,1970,1959,1959,1947,1936,1926,1926,1439,1439,1433,1427,1427,1421,1415,1415,1415,1410,1410,1410,1410,1415,1415,1415,1415,1433,1433,1433,1433,1433,1439,1439,1439,1439,1439,1439,1445,1445,1452,1452,1452,1452,1458,1458,1464,1464,1464,1470,1470,1470,1470,1470,1477,1477,1483,1483,1483,1483,1489,1489,1496,1496,1496,1503,1509,1516,1516,1516,1516,1523,1523,1523,1529,1529,1529,1536,1536,1536,1536,1543,1543,1543,1543,1550,1550,1557,1557,1564,1572,1572,1572,1572,1572,1572,1579,1586,1594,1601,1601,1601,1609,1601,1601,1601,1609,1616,1616,1616,1616,1624,1624,1632,1632,1632,1632,1632,1639,1639,1639,1639,1639,1639,1639,1639,1632,1632,1624,1624,1624,1624,1624,1616,1616,1609,1601,1601,1594,1594,0,0,0,0,0,0,0,0,1010,1010,1010,1001,1001,1001,1001,1001,1001,998,998,1001,1001,1001,1004,1007,1007,1010,1010,1010,1013,1013,0,0,0,0,1536,1536,1536,1536,1536,1536,1536,0,0,0,0,0,0,0,0,0,0,0,0,0,0,0,0,0,0,0,0,0,0,0,0,0,0,0,0,0,0,0,0,0,0,0,0,0,0,0,0,0,0,0,0,0,0,0,0,0,0,0,0,0,0,0,0,0,0,0,0,0,0,0,0,0,0,0,0,0,0,0,0,0,0,0,0,0,0,0,0,0,0,0,0,0,0,0,0,0,0,0,0,0,0,0,0,0,0,0,0,0,0,0,0,0,0,0,0,0,0,0,0,0,0,0,0,0,0,0,0,0,0,0,0,0,0,0,0,0,0,0,0,0,0,0,0,0,0,0,0,0,0,0,0,0,0,0,0,0,0,0,0,0,0,0,0,0,0,0,0,0,0,0,0,0,0,0,0,0,0,0,0,0,0,0,0,0,0,0,0,0,0,0,0,0,0,0,0,0,0,0,0,0,0,0,0,0,0,0,0,0,0,0,0,0,0,0,0,0,0,0,0,0,0,0,0,0,0,0,0,0,0,0,0,0,0,0,0,0,0,0,0,0,0,0,0,0,0,0,0,0,0,0,0,0,0,0,0,0,0,0,0,0,0,0,0,0,0,0,0,0,0,0,0,0,0,0,0,0,0,0,0,0,0,0,0,0,0,0,0,0,0,0,0,0,0,0,0,0,0,0,0,0,0,0,0,0,0,0,0,0,0,0,0,0,0,0,0,0,0,0,0,0,0,0,0,0,0,0,0,0,0,0,0,0,0,0,0,0,0,0,0,0,0,0,0,0,0,0,0,0,0,0,0,0,0,0,0,0,0,0,0,0,0,0,0,0,0,0,0,0,0,0,0,0,0,0,0,0,0,0,0,0,0,0,0,0,0,0,0,0,0,0,0,0,0,0,0,0,0,0,0,0,0,0,0,0,0,0,0,0,0,0,0,0,0,0,0,0,0,0,0,0,0,0,0,0,0,0,0,0,0,0,0,0,0,0,0,0,0,0
0,0,0,0,0,0,0,0,0,0,0,0,0,0,0,0,0,0,0,2065,2053,2040,2016,2005,2005,1993,1993,1993,1993,1970,1970,1970,1959,1959,1959,1947,1926,1926,1445,1445,1433,1433,1427,1421,1421,1415,1415,1410,1410,1410,1410,1415,1415,1415,1415,1433,1433,1433,1433,1433,1439,1439,1439,1445,1445,1445,1445,1445,1445,1445,1452,1452,1458,1458,1464,1464,1470,1470,1477,1477,1470,1470,1477,1477,1483,1483,1483,1483,1489,1489,1496,1496,1503,1509,1509,1516,1516,1516,1516,1523,1523,1523,1529,1529,1529,1536,1536,1536,1536,1543,1543,1543,1543,1550,1550,1557,1564,1564,1572,1572,1572,1572,1572,1579,1586,1586,1594,1601,1601,1601,1609,1601,1601,1601,1609,1616,1616,1616,1624,1624,1624,1632,1632,1632,1632,1639,1639,1639,1639,1639,1639,1639,1639,1639,1632,1632,1624,1624,1624,1624,1624,1616,1609,1609,1601,1601,1594,1594,0,0,0,0,0,0,0,1010,1010,1010,1010,1001,1001,1001,1001,1001,1001,998,998,1001,1001,1001,1001,1007,1007,1010,1010,1010,1013,1013,0,0,0,1536,1536,1536,1536,1536,1536,1536,1529,1523,1523,1516,1516,1516,1516,1516,1516,1516,1509,1509,1503,1503,1503,1496,1489,1489,1489,1483,1483,1483,1483,1483,1483,1483,1483,1477,1470,1470,1464,1464,1464,1464,1464,1458,1458,1458,1458,1452,1452,1445,1445,1445,1439,1439,1439,1439,1433,1433,1433,1433,1427,1427,1427,1427,1421,1421,1415,1415,1415,1415,1415,1415,1415,1410,1410,0,0,0,0,0,0,0,0,0,0,0,0,0,0,0,0,0,0,0,0,0,0,0,0,0,0,0,0,0,0,0,0,0,0,0,0,0,0,0,0,0,0,0,0,0,0,0,0,0,0,0,0,0,0,0,0,0,0,0,0,0,0,0,0,0,0,0,0,0,0,0,0,0,0,0,0,0,0,0,0,0,0,0,0,0,0,0,0,0,0,0,0,0,0,0,0,0,0,0,0,0,0,0,0,0,0,0,0,0,0,0,0,0,0,0,0,0,0,0,0,0,0,0,0,0,0,0,0,0,0,0,0,0,0,0,0,0,0,0,0,0,0,0,0,0,0,0,0,0,0,0,0,0,0,0,0,0,0,0,0,0,0,0,0,0,0,0,0,0,0,0,0,0,0,0,0,0,0,0,0,0,0,0,0,0,0,0,0,0,0,0,0,0,0,0,0,0,0,0,0,0,0,0,0,0,0,0,0,0,0,0,0,0,0,0,0,0,0,0,0,0,0,0,0,0,0,0,0,0,0,0,0,0,0,0,0,0,0,0,0,0,0,0,0,0,0,0,0,0,0,0,0,0,0,0,0,0,0,0,0,0,0,0,0,0,0,0,0,0,0,0,0,0,0,0,0,0,0,0,0,0,0,0,0,0,0,0,0,0,0,0,0,0,0,0,0,0,0,0,0,0,0,0,0,0,0,0,0,0,0,0,0,0,0,0,0,0,0,0,0,0,0,0,0,0,0,0,0,0,0,0,0,0,0,0,0,0,0,0,0,0,0,0,0,0,0,0,0,0,0,0,0,0,0,0,0,0,0,0,0,0,0,0,0,0
0,0,0,0,0,0,0,0,0,0,0,0,0,0,0,0,0,0,0,2065,2053,2040,2016,2005,1993,1981,1981,1981,1993,1959,1959,1959,1959,1959,1947,1936,1936,1936,1936,1433,1433,1433,1433,1433,1427,1415,1415,1410,1410,1410,1415,1415,1415,1415,1433,1433,1433,1433,1433,1433,1439,1439,1439,1445,1445,1445,1445,1445,1445,1445,1452,1452,1458,1458,1464,1464,1464,1470,1470,1470,1477,1477,1483,1483,1483,1483,1483,1483,1489,1489,1496,1496,1503,1509,1509,1516,1516,1516,1516,1523,1523,1529,1529,1529,1529,1529,1536,1536,1543,1543,1550,1550,1550,1557,1557,1564,1564,1572,1572,1572,1572,1572,1572,1579,1586,1594,1601,1601,1601,1601,1609,1609,1609,1609,1609,1616,1616,1616,1624,1624,1632,1632,1632,1632,1639,1639,1639,1639,1639,1639,1639,1639,1639,1639,1632,1632,1624,1624,1624,1624,1624,1616,1609,1609,1601,1601,1594,1594,0,0,0,0,0,0,0,1010,1010,1010,1007,1001,1001,1001,1001,1001,1001,998,998,998,1001,1001,1001,1007,1010,1010,1010,1013,1013,0,0,0,0,1536,1536,1536,1536,1536,1536,1536,1529,1523,1523,1516,1516,1516,1516,1516,1516,1516,1509,1509,1503,1503,1503,1496,1489,1489,1489,1483,1483,1483,1483,1483,1483,1483,1483,1477,1470,1470,1464,1464,1464,1464,1464,1458,1458,1458,1452,1452,1452,1445,1445,1445,1439,1439,1439,1439,1433,1433,1433,1433,1427,1427,1427,1427,1421,1421,1415,1415,1415,1415,1415,1415,1415,1410,1410,1410,1410,1404,1398,1392,1392,1392,1392,1392,1392,1392,1392,1392,1387,1387,1381,1381,1376,1376,1370,1370,1370,1370,1370,1370,1370,0,0,0,0,0,0,0,854,854,854,851,851,851,849,849,847,847,847,845,845,843,843,843,843,843,843,845,845,849,851,854,856,856,0,0,0,0,0,1312,1312,1312,1312,1312,1312,1312,1307,1307,1307,0,0,0,0,0,0,0,0,0,0,0,0,0,0,0,0,0,0,0,0,0,0,0,0,0,0,0,0,0,0,0,0,0,0,0,0,0,0,0,0,0,0,0,0,0,0,0,0,0,0,0,0,0,0,0,0,0,0,0,0,0,0,0,0,0,0,0,0,0,0,0,0,0,0,0,0,0,0,0,0,0,0,0,0,0,0,0,0,0,0,0,0,0,0,0,0,0,0,0,0,0,0,0,0,0,0,0,0,0,0,0,0,0,0,0,0,0,0,0,0,0,0,0,0,0,0,0,0,0,0,0,0,0,0,0,0,0,0,0,0,0,0,0,0,0,0,0,0,0,0,0,0,0,0,0,0,0,0,0,0,0,0,0,0,0,0,0,0,0,0,0,0,0,0,0,0,0,0,0,0,0,0,0,0,0,0,0,0,0,0,0,0,0,0,0,0,0,0,0,0,0,0,0,0,0,0,0,0,0,0,0,0,0,0,0,0,0,0,0,0,0,0,0,0,0,0,0,0,0,0,0,0,0,0,0,0,0,0,0,0,0,0,0,0,0,0,0,0,0,0,0,0,0,0,0,0,0,0,0,0,0,0,0,0,0,0,0,0,0,0,0,0,0,0,0,0,0,0,0,0,0,0,0,0,0,0,0,0,0,0,0
0,0,0,0,0,0,0,0,0,0,0,0,0,0,0,0,0,0,0,2053,2040,2028,2016,2005,1993,1981,1981,1981,1981,1959,1959,1959,1959,1947,1947,1936,1936,1936,1439,1439,1439,1433,1433,1433,1427,1421,1415,1415,1415,1415,1415,1415,1415,1415,1433,1433,1433,1433,1433,1433,1433,1439,1439,1445,1445,1445,1445,1445,1452,1452,1452,1452,1458,1458,1458,1464,1464,1470,1470,1470,1477,1477,1483,1483,1483,1483,1483,1483,1489,1489,1496,1496,1503,1509,1509,1516,1516,1516,1516,1523,1523,1529,1529,1529,1529,1529,1536,1536,1536,1543,1550,1550,1550,1557,1557,1564,1564,1572,1572,1572,1572,1572,1572,1579,1586,1594,1601,1601,1601,1601,1609,1609,1609,1609,1616,1616,1616,1624,1624,1624,1632,1632,1632,1639,1639,1639,1639,1639,1639,1639,1639,1639,1639,1639,1632,1632,1632,1624,1624,1624,1624,1616,1609,1609,1601,1601,1594,1594,1594,0,0,0,0,0,0,1010,1010,1010,1007,1004,1004,1001,1001,1001,1001,998,998,998,1001,1001,1001,1007,1010,1013,1013,1013,1013,0,0,0,1536,1536,1536,1536,1536,1536,1536,1536,1529,1529,1523,1516,1516,1516,1516,1516,1516,1516,1509,1509,1509,1503,1503,1496,1489,1489,1489,1489,1489,1489,1483,1483,1483,1483,1483,1477,1477,1470,1470,1470,1464,1464,1464,1458,1458,1458,1452,1452,1452,1445,1445,1445,1439,1439,1439,1439,1433,1433,1433,1433,1427,1427,1427,1427,1421,1421,1421,1421,1415,1415,1415,1415,1415,1415,1410,1410,1410,1404,1398,1392,1392,1392,1392,1392,1392,1392,1392,1392,1387,1387,1381,1381,1376,1376,1370,1370,1370,1370,1370,1370,1370,0,0,0,0,0,0,0,854,854,854,851,851,851,849,849,847,847,847,845,845,843,843,843,843,843,843,845,845,849,851,854,856,856,0,0,0,0,0,1312,1312,1312,1312,1312,1312,1312,1307,1307,1302,1302,1302,1302,1297,1292,1292,1292,1288,1288,1288,1283,1283,1283,1283,1278,1278,1273,1273,1273,1268,1268,1268,1268,1264,1264,1259,1259,1259,1259,1259,1259,1255,1255,1255,1255,1255,1250,1250,1245,1245,1241,1241,1236,1236,1236,1236,1236,1236,1232,1232,1232,1232,1232,1227,1227,1227,1223,1223,1219,1219,1219,1214,1214,1214,1214,1214,1210,1210,1206,1206,1202,1202,1202,1202,1202,1202,1197,1197,1197,1197,1193,1193,1189,1189,1189,1185,1185,0,0,0,0,0,0,0,0,0,0,0,0,0,0,0,0,0,0,0,0,0,0,0,0,0,0,0,0,0,0,0,0,0,0,0,0,0,0,0,0,0,0,0,0,0,0,0,0,0,0,0,0,0,0,0,0,0,0,0,0,0,0,0,0,0,0,0,0,0,0,0,0,0,0,0,0,0,0,0,0,0,0,0,0,0,0,0,0,0,0,0,0,0,0,0,0,0,0,0,0,0,0,0,0,0,0,0,0,0,0,0,0,0,0,0,0,0,0,0,0,0,0,0,0,0,0,0,0,0,0,0,0,0,0,0,0,0,0,0,0,0,0,0,0,0,0,0,0,0,0,0,0,0,0,0,0,0,0,0,0,0,0,0,0,0,0,0,0,0,0,0,0,0,0,0,0,0,0,0,0,0,0,0,0,0,0,0,0,0,0,0,0,0,0,0,0,0,0,0,0,0,0,0,0
0,0,0,0,0,0,0,0,0,0,0,0,0,0,0,0,0,0,0,2040,2040,2016,2005,2005,1981,1981,1981,1981,1981,1970,1959,1959,1959,1947,1947,1936,1936,1936,1439,1439,1439,1433,1433,1433,1427,1421,1421,1415,1415,1415,1415,1415,1415,1415,1427,1433,1427,1427,1433,1433,1433,1433,1439,1445,1445,1445,1445,1445,1452,1452,1452,1452,1458,1458,1458,1464,1464,1464,1470,1470,1477,1477,1483,1483,1483,1483,1483,1483,1489,1489,1496,1496,1503,1509,1509,1516,1516,1516,1516,1523,1523,1529,1529,1529,1529,1529,1536,1536,1536,1543,1543,1550,1550,1557,1564,1564,1564,1572,1572,1572,1572,1572,1579,1579,1586,1594,1601,1601,1601,1601,1609,1609,1609,1609,1616,1616,1624,1624,1624,1624,1632,1632,1632,1639,1639,1647,1647,1647,1647,1647,1639,1639,1639,1639,1632,1632,1632,1624,1624,1624,1624,1616,1616,1616,1601,1601,1594,1594,1594,0,0,0,0,0,1013,1010,1010,1010,1007,1004,1004,1001,1001,1001,1001,1001,1001,1001,1004,1004,1004,1010,1010,1013,1013,1013,1013,1016,1016,0,0,1536,1536,1536,1536,1536,1536,1536,1536,1529,1529,1523,1523,1516,1516,1516,1516,1516,1509,1509,1509,1509,1503,1496,1489,1489,1489,1489,1489,1489,1489,1489,1489,1483,1483,1483,1477,1470,1470,1470,1464,1464,1464,1458,1458,1458,1458,1458,1458,1458,1458,1445,1445,1445,1439,1439,1439,1439,1439,1433,1433,1433,1427,1427,1427,1421,1421,1421,1415,1415,1415,1415,1415,1415,1410,1410,1410,1404,1398,1398,1398,1398,1398,1392,1392,1392,1392,1392,1392,1387,1387,1381,1381,1376,1370,1370,1370,1370,1370,1370,1370,0,0,0,0,0,0,0,854,854,854,851,851,851,851,849,849,849,847,845,845,845,843,843,843,843,845,847,847,851,854,854,856,856,0,0,0,0,0,1312,1312,1312,1312,1312,1312,1312,1307,1307,1302,1302,1302,1302,1297,1292,1292,1292,1288,1288,1288,1283,1283,1283,1283,1278,1278,1273,1273,1273,1268,1268,1268,1268,1264,1264,1259,1259,1259,1259,1259,1259,1255,1255,1255,1255,1250,1250,1250,1245,1245,1241,1241,1236,1236,1236,1232,1232,1236,1232,1232,1232,1232,1232,1227,1227,1227,1223,1223,1219,1219,1219,1214,1214,1214,1214,1214,1210,1210,1206,1206,1202,1202,1202,1202,1202,1202,1197,1197,1197,1197,1193,1193,1189,1189,1189,1185,1185,1185,1181,1181,1181,1181,1177,1177,1177,1177,1177,1173,1173,1169,1169,1169,1169,1165,1165,1165,1161,1157,1157,1157,1153,1153,1153,1153,1153,1153,1153,1149,1149,1149,1149,1145,1145,1145,1145,1141,1141,1138,1138,1138,1134,1134,1134,1130,1126,1126,1126,1126,1126,1123,1123,1123,1123,1123,1119,1119,1119,1119,1115,1115,1112,1112,1112,1112,1112,1112,1108,1108,1108,1105,1105,1105,1105,1105,1105,1105,1101,1101,1101,1097,1097,1094,1094,1090,1090,1090,1090,1090,1090,1090,1090,1087,1087,1087,1084,1084,1080,1080,1077,1077,1077,1077,1073,1073,1073,1073,0,0,0,0,0,0,0,0,0,0,0,0,0,0,0,0,0,0,0,0,0,0,0,0,0,0,0,0,0,0,0,0,0,0,0,0,0,0,0,0,0,0,0,0,0,0,0,0,0,0,0,0,0,0,0,0,0,0,0,0,0,0,0,0,0,0,0,0,0,0,0,0,0,0,0,0,0,0,0,0,0,0,0,0,0,0,0,0,0,0,0,0,0,0,0
0,0,0,0,0,0,0,0,0,0,0,0,0,0,0,0,0,0,2040,2028,2028,2016,2005,2005,1981,1981,1981,1981,1981,1970,1970,1970,1959,1959,1947,1936,1936,1936,1439,1439,1439,1439,1433,1433,1433,1421,1421,1421,1421,1421,1415,1415,1415,1415,1427,1433,1427,1427,1433,1433,1433,1433,1439,1445,1445,1445,1452,1452,1452,1452,1452,1452,1458,1458,1458,1464,1464,1464,1470,1470,1477,1477,1483,1483,1483,1483,1483,1483,1489,1489,1496,1496,1503,1509,1509,1516,1516,1516,1516,1523,1523,1529,1529,1529,1529,1529,1529,1536,1543,1543,1543,1550,1550,1557,1564,1564,1564,1572,1572,1572,1572,1579,1579,1579,1586,1594,1594,1594,1601,1601,1609,1609,1609,1609,1616,1624,1624,1624,1624,1632,1632,1632,1632,1639,1639,1647,1647,1647,1647,1655,1647,1647,1639,1639,1639,1639,1632,1624,1624,1624,1624,1616,1616,1616,1601,1601,1601,1594,1594,0,0,0,0,0,1013,1010,1010,1010,1010,1007,1004,1004,1001,1001,1001,1001,1001,1001,1004,1004,1007,1007,1010,1013,1013,1013,1013,1016,1016,1022,0,1536,1536,1536,1536,1536,1536,1536,1536,1529,1529,1529,1523,1523,1523,1516,1516,1516,1509,1509,1509,1509,1503,1496,1496,1489,1489,1489,1489,1489,1489,1489,1489,1483,1483,1483,1477,1470,1470,1470,1464,1464,1464,1464,1458,1458,1458,1458,1458,1458,1458,1445,1445,1445,1439,1439,1439,1439,1439,1433,1433,1433,1427,1427,1427,1421,1421,1421,1415,1415,1415,1415,1415,1415,1415,1410,1410,1410,1404,1398,1398,1398,1398,1392,1392,1392,1392,1392,1392,1387,1387,1381,1381,1376,1370,1370,1370,1370,1370,1370,0,0,0,0,0,0,0,858,854,854,854,851,851,851,851,849,849,847,847,845,845,845,843,843,843,845,845,847,847,851,854,856,856,856,0,0,0,0,0,1312,1312,1312,1312,1307,1307,1307,1307,1307,1302,1302,1302,1302,1297,1292,1292,1292,1292,1288,1288,1288,1288,1283,1283,1278,1278,1273,1273,1273,1273,1273,1268,1268,1268,1264,1259,1259,1259,1259,1259,1259,1255,1255,1255,1255,1250,1250,1250,1245,1245,1245,1245,1241,1236,1236,1232,1232,1236,1232,1232,1232,1232,1232,1227,1227,1227,1223,1223,1219,1219,1219,1219,1214,1214,1214,1214,1210,1210,1206,1206,1206,1206,1206,1202,1202,1202,1197,1197,1197,1197,1193,1193,1193,1189,1189,1185,1185,1185,1181,1181,1181,1181,1177,1177,1177,1177,1177,1173,1173,1169,1169,1169,1169,1165,1165,1165,1161,1157,1157,1157,1153,1153,1153,1153,1153,1153,1153,1149,1149,1149,1149,1145,1145,1145,1145,1141,1141,1138,1138,1138,1134,1134,1134,1130,1126,1126,1126,1126,1126,1123,1123,1123,1123,1123,1119,1119,1119,1119,1115,1115,1112,1112,1112,1112,1112,1112,1108,1108,1108,1105,1105,1105,1105,1105,1105,1105,1101,1101,1101,1097,1097,1094,1094,1090,1090,1090,1090,1090,1090,1090,1087,1087,1087,1087,1084,1084,1080,1080,1077,1077,1077,1077,1073,1073,1073,1070,1070,1067,1067,1067,1067,1067,1067,1067,1063,1063,1063,1063,1060,1060,1057,1054,1054,1054,1054,1050,1050,1050,1050,1047,1047,1044,1044,1041,1041,1041,1041,1041,1041,1041,1041,1038,1038,1034,1034,1028,1028,1028,1025,1025,1025,1025,1022,1022,1022,1019,1019,1016,1016,1016,1013,1010,1010,1007,1007,1004,1004,1004,1004,1001,1001,1001,0,0,0,0,0,0,0,0,0,0,0,0,0,0,0,0,0,0,0,0,0,0,0,0,0,0,0,0,0
0,0,0,0,0,0,0,0,0,0,0,0,0,0,0,0,0,0,2040,2028,2028,2016,2005,2005,1981,1981,1981,1981,1981,1970,1970,1970,1959,1959,1947,1947,1947,1947,1439,1439,1439,1439,1433,1433,1433,1427,1427,1415,1415,1421,1421,1421,1421,1421,1427,1427,1427,1433,1433,1433,1433,1439,1445,1445,1445,1445,1452,1452,1452,1452,1452,1458,1458,1458,1458,1464,1464,1464,1470,1477,1483,1483,1489,1489,1489,1489,1489,1489,1489,1496,1496,1503,1509,1509,1509,1516,1516,1516,1516,1516,1523,1523,1523,1529,1529,1529,1529,1536,1543,1543,1550,1550,1557,1564,1564,1564,1564,1572,1572,1572,1572,1579,1579,1579,1586,1594,1594,1594,1601,1601,1609,1609,1609,1609,1616,1624,1624,1624,1632,1632,1632,1632,1639,1639,1639,1647,1647,1647,1647,1655,1647,1647,1639,1639,1639,1639,1632,1632,1632,1624,1624,1624,1616,1616,1609,1609,1601,1601,1601,0,0,0,0,0,1013,1010,1010,1010,1010,1007,1004,1004,1001,1001,1001,1001,1001,1001,1004,1004,1007,1007,1010,1013,1013,1013,1013,1019,1022,0,0,0,1536,1536,1536,1536,1536,1536,1536,1529,1529,1529,1523,1523,1523,1516,1516,1516,1509,1509,1509,1509,1503,1496,1496,1496,1489,1489,1489,1489,1489,1489,1489,1483,1483,1483,1477,1477,1470,1470,1464,1464,1464,1464,1464,1458,1458,1458,1458,1458,1458,1445,1445,1445,1445,1439,1439,1439,1439,1439,1433,1433,1433,1427,1427,1427,1421,1421,1421,1415,1415,1415,1415,1415,1415,1410,1410,1410,1410,1404,1404,1404,1398,1398,1392,1392,1392,1392,1392,1387,1387,1387,1381,1381,1376,1370,1370,1370,1370,1370,0,0,0,0,0,0,0,858,854,854,854,851,851,851,851,851,849,847,847,845,845,845,845,845,845,845,845,847,849,851,854,856,858,858,0,0,0,0,0,1312,1312,1312,1312,1307,1307,1307,1307,1307,1307,1307,1302,1302,1297,1297,1292,1292,1292,1288,1288,1288,1288,1283,1283,1278,1278,1273,1273,1273,1273,1273,1268,1268,1268,1264,1259,1259,1259,1259,1259,1259,1255,1255,1255,1255,1255,1250,1250,1250,1250,1245,1245,1241,1241,1236,1236,1236,1236,1232,1232,1232,1232,1232,1232,1227,1227,1223,1223,1219,1219,1219,1219,1219,1219,1214,1214,1210,1210,1210,1206,1206,1206,1206,1202,1202,1202,1197,1197,1197,1197,1193,1193,1193,1189,1189,1185,1185,1185,1185,1185,1181,1181,1177,1177,1177,1177,1177,1173,1173,1169,1169,1169,1169,1165,1165,1165,1161,1161,1157,1157,1157,1157,1153,1153,1153,1153,1153,1149,1149,1149,1149,1145,1145,1145,1145,1145,1141,1138,1138,1138,1134,1134,1134,1134,1130,1130,1130,1130,1126,1126,1123,1123,1123,1123,1119,1119,1119,1119,1119,1115,1112,1112,1112,1112,1112,1112,1108,1108,1108,1108,1105,1105,1105,1105,1105,1105,1101,1101,1101,1097,1097,1094,1094,1094,1090,1090,1090,1090,1090,1090,1087,1087,1087,1084,1084,1084,1080,1080,1080,1077,1077,1077,1073,1073,1073,1070,1070,1067,1067,1067,1067,1063,1063,1063,1063,1063,1063,1063,1060,1060,1057,1054,1054,1054,1054,1050,1050,1050,1050,1047,1047,1044,1044,1041,1041,1041,1041,1041,1041,1041,1038,1038,1038,1034,1034,1028,1028,1028,1025,1025,1025,1025,1022,1022,1022,1019,1019,1016,1016,1016,1013,1010,1010,1007,1007,1004,1004,1004,1004,1001,1001,1001,0,0,0,0,0,0,0,0,0,0,0,0,0,0,0,0,0,0,0,0,0,0,0,0,0,0,0,0,0
0,0,0,0,0,0,0,0,0,0,0,0,0,0,0,0,0,0,2053,2040,2028,2016,2005,2005,1981,1981,1981,1981,1981,1970,1970,1970,1959,1959,1947,1947,1947,1947,1947,1439,1439,1439,1439,1439,1433,1427,1427,1415,1415,1421,1421,1421,1421,1421,1421,1427,1427,1427,1433,1433,1433,1439,1445,1445,1445,1445,1452,1452,1452,1452,1458,1458,1458,1458,1458,1464,1464,1464,1470,1477,1483,1483,1489,1483,1483,1489,1489,1489,1489,1496,1496,1503,1509,1509,1509,1516,1516,1516,1516,1516,1523,1523,1523,1529,1529,1536,1536,1536,1543,1543,1550,1550,1557,1564,1564,1564,1564,1572,1572,1572,1579,1579,1579,1586,1594,1594,1594,1601,1601,1601,1609,1609,1609,1609,1616,1616,1624,1624,1632,1632,1632,1632,1632,1639,1639,1647,1647,1647,1647,1655,1647,1647,1639,1639,1639,1639,1632,1632,1632,1624,1624,1624,1616,1616,1616,1609,1601,1601,1601,1616,0,0,0,0,1013,1013,1013,1010,1010,1007,1007,1004,1001,1001,1001,1001,1001,1004,1004,1004,1007,1010,1010,1013,1013,1013,1016,1019,1022,0,0,0,1543,1536,1536,1536,1536,1536,1536,1536,1529,1529,1523,1523,1516,1516,1516,1516,1509,1509,1509,1509,1503,1503,1496,1496,1496,1496,1489,1489,1489,1489,1489,1483,1483,1483,1477,1477,1477,1470,1470,1464,1464,1464,1464,1458,1458,1458,1458,1458,1458,1452,1445,1445,1445,1439,1439,1439,1439,1439,1433,1433,1433,1433,1427,1427,1427,1421,1421,1415,1415,1415,1415,1415,1415,1410,1410,1410,1410,1410,1404,1404,1404,1398,1398,1392,1392,1392,1392,1387,1387,1387,1381,1381,1376,1370,1370,1376,1376,1376,0,0,0,0,0,0,0,0,854,854,854,851,851,851,851,851,849,847,847,845,845,845,845,845,845,845,845,847,849,854,856,856,858,858,0,0,0,0,0,1312,1312,1312,1312,1312,1307,1307,1307,1307,1307,1307,1302,1302,1302,1297,1292,1292,1292,1288,1288,1288,1288,1283,1283,1283,1278,1273,1273,1273,1273,1273,1273,1268,1268,1264,1259,1259,1259,1259,1259,1259,1259,1255,1255,1255,1255,1250,1250,1250,1250,1250,1250,1245,1241,1236,1236,1236,1232,1232,1232,1232,1232,1232,1232,1227,1227,1227,1223,1223,1219,1219,1219,1219,1219,1214,1214,1214,1214,1210,1210,1210,1206,1206,1202,1202,1202,1197,1197,1197,1197,1193,1193,1193,1189,1189,1189,1185,1185,1185,1185,1181,1181,1181,1181,1181,1181,1177,1177,1173,1169,1169,1169,1169,1169,1165,1165,1165,1161,1161,1157,1157,1157,1153,1153,1153,1153,1149,1149,1149,1149,1149,1149,1145,1145,1145,1145,1141,1138,1138,1138,1134,1134,1134,1134,1130,1130,1130,1130,1126,1126,1123,1123,1123,1123,1123,1123,1119,1119,1119,1115,1115,1112,1112,1112,1112,1112,1108,1108,1108,1108,1105,1105,1105,1105,1105,1105,1101,1101,1101,1097,1097,1094,1094,1094,1094,1090,1090,1090,1090,1090,1087,1087,1087,1084,1084,1084,1080,1080,1080,1077,1077,1077,1073,1073,1073,1070,1070,1067,1067,1067,1067,1063,1063,1063,1063,1063,1063,1063,1060,1060,1057,1054,1054,1054,1054,1050,1050,1050,1050,1050,1047,1047,1044,1044,1044,1041,1041,1041,1041,1041,1038,1038,1038,1034,1034,1028,1028,1028,1025,1025,1025,1025,1025,1025,1022,1022,1019,1016,1016,1016,1016,1013,1010,1010,1007,1007,1004,1004,1004,1001,1001,1001,0,0,0,0,0,0,0,0,0,0,0,0,0,0,0,0,0,0,0,0,0,0,0,0,0,0,0,0,0
0,0,0,0,0,0,0,0,0,0,0,0,0,0,0,0,0,0,2053,2053,2028,2016,2005,2005,2005,1993,1993,1993,1981,1970,1970,1970,1970,1959,1959,1947,1947,1947,1947,1439,1439,1439,1439,1439,1433,1427,1421,1421,1421,1415,1415,1421,1421,1421,1421,1427,1427,1427,1433,1433,1433,1433,1439,1445,1445,1445,1445,1452,1452,1458,1458,1458,1458,1458,1458,1464,1464,1470,1477,1477,1483,1483,1489,1483,1483,1489,1489,1489,1489,1496,1496,1503,1509,1509,1509,1509,1516,1516,1516,1523,1529,1529,1529,1529,1529,1536,1536,1543,1543,1543,1550,1550,1557,1564,1564,1564,1564,1572,1572,1572,1579,1579,1579,1586,1586,1594,1594,1594,1601,1601,1609,1609,1609,1609,1616,1616,1624,1624,1632,1632,1632,1632,1632,1639,1647,1647,1647,1655,1655,1655,1647,1647,1647,1647,1639,1639,1632,1632,1632,1632,1624,1624,1616,1616,1616,1609,1609,1616,1616,1616,0,0,0,0,1013,1010,1010,1010,1010,1010,1007,1004,1001,1001,1001,1001,1001,1004,1004,1004,1007,1010,1010,1013,1013,1013,1016,1019,1019,1019,0,1543,1543,1536,1536,1536,1536,1536,1536,1536,1529,1529,1529,1523,1516,1516,1516,1516,1516,1509,1509,1509,1503,1503,1496,1496,1496,1496,1496,1496,1489,1489,1489,1483,1483,1483,1477,1477,1477,1470,1470,1464,1464,1464,1464,1464,1458,1458,1458,1458,1458,1458,1445,1445,1445,1445,1445,1439,1439,1439,1439,1439,1433,1433,1433,1427,1427,1427,1421,1421,1415,1415,1415,1415,1415,1410,1410,1410,1410,1410,1410,1404,1404,1398,1392,1392,1392,1392,1392,1392,1387,1387,1381,1381,1376,1370,1370,1376,1376,1376,0,0,0,0,0,0,0,0,0,854,854,854,854,851,851,851,849,849,847,845,845,845,845,845,845,845,845,847,851,854,856,858,858,858,0,0,0,0,0,1312,1312,1312,1312,1312,1307,1307,1307,1307,1307,1307,1307,1302,1302,1302,1297,1292,1292,1292,1292,1288,1288,1288,1283,1283,1283,1278,1273,1273,1273,1273,1273,1273,1268,1268,1264,1264,1259,1259,1259,1259,1255,1255,1255,1255,1255,1250,1250,1250,1250,1250,1250,1245,1241,1236,1236,1236,1232,1232,1232,1232,1232,1232,1232,1227,1227,1227,1223,1223,1219,1219,1219,1219,1219,1214,1214,1214,1214,1214,1210,1210,1210,1206,1206,1202,1202,1202,1197,1197,1197,1193,1193,1197,1197,1189,1189,1185,1185,1185,1185,1181,1181,1181,1181,1181,1181,1177,1177,1173,1173,1169,1169,1169,1169,1169,1165,1165,1161,1161,1157,1157,1157,1157,1153,1153,1153,1149,1149,1149,1149,1149,1149,1149,1149,1145,1145,1141,1138,1138,1138,1134,1134,1134,1134,1130,1130,1130,1130,1126,1126,1126,1126,1123,1123,1123,1123,1119,1119,1119,1115,1115,1112,1112,1112,1112,1112,1108,1108,1108,1108,1105,1105,1105,1105,1105,1105,1101,1101,1101,1097,1097,1094,1094,1094,1094,1090,1090,1090,1090,1090,1087,1087,1087,1087,1084,1084,1080,1080,1080,1077,1077,1077,1073,1073,1073,1073,1070,1070,1067,1067,1067,1067,1067,1063,1063,1063,1063,1063,1063,1060,1057,1054,1054,1054,1054,1050,1050,1050,1050,1050,1050,1047,1047,1044,1044,1044,1041,1041,1041,1041,1038,1038,1038,1034,1034,1031,1028,1028,1025,1025,1025,1025,1025,1025,1022,1022,1019,1019,1019,1016,1016,1013,1013,1010,1010,1007,1007,1004,1004,1001,1001,1001,0,0,0,0,0,0,0,0,0,0,0,0,0,0,0,0,0,0,0,0,0,0,0,0,0,0,0,0,0
0,0,0,0,0,0,0,0,0,0,0,0,0,0,1470,1464,1464,2065,2065,2053,2028,2016,2005,2005,2005,1993,1993,1993,1981,1970,1970,1970,1970,1959,1959,1959,1959,1959,1959,1439,1439,1439,1439,1439,1433,1427,1421,1421,1421,1415,1415,1415,1415,1421,1421,1421,1421,1427,1433,1433,1433,1433,1439,1445,1445,1445,1445,1452,1452,1458,1458,1458,1458,1458,1458,1464,1464,1470,1477,1477,1483,1483,1489,1483,1483,1489,1489,1489,1496,1496,1496,1503,1509,1509,1509,1509,1516,1516,1516,1523,1523,1529,1529,1529,1529,1536,1536,1543,1543,1543,1557,1557,1557,1564,1564,1564,1564,1572,1572,1572,1579,1579,1579,1579,1586,1586,1594,1594,1594,1601,1609,1616,1616,1616,1616,1616,1624,1624,1632,1632,1632,1632,1639,1647,1647,1655,1655,1655,1655,1655,1647,1647,1647,1647,1647,1639,1639,1632,1632,1632,1632,1624,1624,1624,1624,1624,1624,1624,1624,1624,0,0,0,0,1013,1010,1010,1010,1010,1010,1007,1004,1004,1004,1004,1004,1004,1004,1004,1007,1007,1010,1010,1013,1013,1013,1013,1016,1016,0,0,0,1543,1543,1536,1536,1536,1536,1536,1536,1529,1529,1529,1523,1523,1516,1516,1516,1516,1516,1509,1509,1503,1503,1503,1503,1496,1496,1496,1496,1496,1489,1489,1483,1483,1483,1477,1477,1477,1470,1470,1464,1464,1464,1464,1464,1458,1458,1458,1458,1458,1458,1452,1452,1452,1445,1445,1445,1439,1439,1439,1439,1439,1433,1433,1427,1427,1427,1421,1421,1415,1415,1415,1415,1415,1415,1415,1410,1410,1410,1410,1404,1404,1398,1392,1392,1392,1392,1392,1392,1392,1387,1381,1381,1381,1376,1376,1376,1376,0,0,0,0,0,0,0,0,0,0,854,854,854,854,851,851,851,851,849,847,845,845,845,845,845,845,845,845,849,851,854,856,858,860,860,0,0,0,0,0,1312,1312,1312,1312,1312,1312,1312,1307,1307,1307,1307,1307,1302,1302,1302,1297,1297,1292,1292,1292,1288,1288,1288,1283,1283,1283,1278,1278,1273,1273,1273,1273,1273,1268,1268,1264,1264,1264,1259,1259,1259,1255,1255,1255,1255,1255,1255,1250,1250,1250,1250,1250,1250,1245,1241,1236,1236,1236,1236,1236,1232,1232,1232,1232,1227,1227,1227,1227,1223,1223,1223,1223,1219,1219,1219,1219,1214,1214,1214,1214,1210,1210,1206,1206,1202,1202,1202,1202,1202,1197,1197,1197,1197,1193,1193,1189,1189,1185,1185,1185,1181,1181,1181,1181,1181,1181,1177,1177,1177,1177,1173,1173,1169,1169,1169,1169,1165,1161,1161,1161,1161,1157,1157,1153,1153,1153,1153,1153,1149,1149,1149,1149,1149,1145,1145,1145,1141,1141,1138,1138,1138,1138,1134,1134,1134,1130,1130,1130,1126,1126,1126,1126,1123,1123,1123,1123,1119,1119,1119,1115,1115,1112,1112,1112,1112,1112,1108,1108,1108,1108,1108,1105,1105,1105,1105,1105,1101,1101,1101,1097,1097,1097,1094,1094,1094,1094,1090,1090,1090,1090,1087,1087,1087,1087,1084,1084,1080,1080,1080,1080,1077,1077,1077,1077,1077,1073,1073,1070,1070,1067,1067,1067,1067,1063,1063,1063,1063,1063,1063,1060,1057,1057,1054,1054,1054,1050,1050,1050,1050,1050,1050,1047,1047,1044,1044,1044,1041,1041,1041,1041,1038,1038,1038,1038,1034,1034,1028,1028,1025,1025,1025,1025,1025,1025,1022,1022,1019,1019,1016,1016,1016,1013,1013,1010,1010,1010,1007,1004,1004,1004,1001,1001,0,0,0,0,0,0,0,0,0,0,0,0,0,0,0,0,0,0,0,0,0,0,0,0,0,0,0,0,0
0,0,0,0,0,0,0,0,0,0,0,0,0,0,1470,1464,1464,1470,2065,2065,2028,2016,2016,2005,2005,1993,1993,1993,1981,1981,1970,1970,1970,1959,1959,1959,1959,1959,1959,1439,1439,1439,1439,1439,1433,1427,1427,1421,1421,1415,1415,1415,1415,1421,1421,1421,1421,1427,1433,1433,1439,1439,1439,1445,1445,1445,1452,1452,1452,1458,1458,1458,1458,1458,1464,1464,1464,1470,1477,1477,1483,1483,1489,1483,1483,1489,1489,1489,1496,1496,1503,1503,1509,1509,1509,1509,1516,1516,1516,1523,1523,1529,1529,1536,1536,1536,1536,1543,1543,1543,1557,1557,1564,1564,1564,1564,1564,1572,1572,1572,1579,1579,1579,1579,1586,1586,1594,1594,1594,1601,1609,1616,1616,1616,1616,1616,1624,1624,1632,1632,1632,1632,1639,1647,1647,1655,1655,1655,1655,1655,1655,1655,1647,1647,1647,1639,1639,1632,1632,1632,1632,1632,1624,1624,1624,1624,1624,1624,1624,1624,0,0,0,0,1013,1013,1013,1010,1010,1010,1007,1007,1004,1004,1004,1004,1004,1007,1007,1007,1007,1010,1010,1013,1013,1013,1013,1016,1016,0,0,0,1543,1543,1536,1536,1536,1536,1536,1536,1536,1529,1529,1523,1523,1516,1516,1516,1516,1509,1509,1509,1509,1503,1503,1503,1503,1503,1496,1496,1496,1489,1489,1483,1483,1483,1483,1483,1477,1477,1470,1470,1464,1464,1464,1464,1464,1458,1458,1458,1458,1458,1458,1452,1452,1452,1445,1445,1439,1439,1439,1439,1439,1433,1433,1433,1427,1427,1421,1421,1415,1415,1415,1415,1415,1415,1415,1415,1415,1410,1410,1404,1404,1398,1398,1392,1392,1392,1392,1392,1392,1392,1387,1387,1381,1376,1376,1376,1376,0,0,0,0,0,0,0,0,0,858,854,854,854,854,851,851,851,851,849,847,845,845,845,845,845,845,845,847,849,851,854,858,858,860,860,862,862,0,0,0,1312,1312,1312,1312,1312,1312,1312,1307,1307,1307,1307,1307,1307,1302,1302,1302,1297,1297,1292,1292,1292,1288,1288,1288,1288,1283,1283,1278,1278,1273,1273,1273,1273,1268,1268,1268,1268,1264,1264,1259,1255,1255,1255,1255,1255,1255,1255,1250,1250,1250,1250,1250,1250,1245,1241,1241,1241,1236,1236,1236,1236,1236,1236,1232,1232,1232,1227,1227,1223,1223,1223,1223,1219,1219,1219,1219,1219,1219,1214,1214,1214,1210,1210,1206,1202,1202,1202,1202,1197,1197,1197,1197,1197,1193,1193,1189,1189,1185,1185,1185,1181,1181,1181,1181,1181,1181,1181,1177,1177,1177,1173,1173,1169,1169,1169,1169,1165,1165,1161,1161,1161,1157,1157,1153,1153,1157,1153,1153,1149,1149,1149,1149,1149,1145,1145,1145,1141,1141,1138,1138,1138,1138,1134,1134,1134,1134,1134,1134,1130,1126,1126,1126,1123,1123,1123,1123,1119,1119,1119,1115,1115,1112,1112,1112,1112,1112,1112,1108,1108,1108,1108,1108,1105,1105,1105,1105,1105,1101,1101,1097,1097,1094,1094,1094,1094,1094,1090,1090,1090,1090,1090,1090,1087,1087,1087,1084,1080,1080,1080,1080,1077,1077,1077,1077,1077,1077,1073,1073,1070,1070,1067,1067,1067,1063,1063,1063,1063,1063,1063,1060,1060,1057,1054,1054,1054,1054,1050,1050,1050,1050,1050,1047,1047,1044,1044,1044,1044,1041,1041,1041,1041,1038,1038,1038,1034,1034,1031,1028,1028,1025,1025,1025,1025,1025,1022,1022,1019,1019,1016,1016,1013,1013,1013,1010,1010,1010,1010,1004,1004,1004,1001,1001,0,0,0,0,0,0,0,0,0,0,0,0,0,0,0,0,0,0,0,0,0,0,0,0,0,0,0,0,0
0,0,0,0,0,0,0,0,0,0,0,0,0,0,1477,1477,1470,1470,1483,1523,2028,2016,2005,2005,2005,1993,1993,1993,1981,1981,1970,1970,1970,1959,1959,1959,1959,1959,1959,1959,1439,1439,1439,1439,1433,1427,1427,1421,1421,1415,1415,1415,1415,1421,1421,1427,1427,1427,1433,1433,1433,1439,1439,1439,1445,1452,1452,1452,1452,1458,1458,1458,1458,1464,1464,1464,1464,1470,1477,1477,1483,1483,1489,1489,1489,1489,1489,1489,1496,1496,1503,1503,1509,1509,1509,1509,1516,1516,1516,1516,1523,1529,1529,1536,1536,1543,1543,1543,1543,1550,1557,1557,1564,1564,1564,1564,1564,1572,1572,1572,1579,1579,1579,1586,1586,1594,1594,1594,1594,1601,1609,1616,1616,1616,1616,1616,1624,1624,1632,1632,1632,1632,1639,1647,1647,1655,1655,1655,1655,1655,1655,1655,1647,1647,1647,1639,1639,1639,1632,1632,1632,1632,1624,1624,1624,1624,1624,1624,1624,1624,0,0,0,0,1016,1013,1013,1013,1010,1010,1010,1007,1004,1004,1004,1004,1001,1001,1007,1007,1010,1010,1010,1013,1013,1013,1013,1016,1016,0,0,0,1543,1543,1536,1536,1536,1536,1536,1536,1536,1536,1529,1523,1523,1523,1516,1516,1516,1509,1509,1509,1509,1503,1503,1503,1503,1503,1503,1503,1496,1489,1489,1489,1483,1483,1483,1483,1477,1477,1470,1470,1464,1464,1464,1464,1464,1458,1458,1458,1458,1458,1458,1458,1452,1452,1452,1445,1445,1445,1439,1439,1439,1433,1433,1433,1427,1427,1427,1421,1421,1415,1415,1415,1415,1415,1415,1415,1410,1410,1410,1404,1404,1398,1398,1392,1392,1392,1392,1392,1392,1392,1387,1387,1387,1381,1381,1381,1381,0,0,0,0,0,0,0,0,0,858,854,854,854,854,851,851,851,851,849,847,845,845,845,845,845,845,845,847,849,851,854,858,858,860,860,862,862,862,0,0,0,1312,1312,1312,1312,1312,1312,1312,1307,1307,1307,1307,1307,1307,1302,1302,1302,1297,1297,1297,1292,1292,1288,1288,1288,1288,1283,1283,1283,1278,1278,1273,1273,1268,1268,1268,1268,1264,1264,1259,1255,1255,1255,1255,1255,1255,1255,1250,1250,1250,1250,1250,1250,1250,1245,1241,1241,1236,1236,1241,1236,1236,1236,1232,1232,1232,1232,1227,1223,1223,1223,1223,1219,1219,1219,1219,1219,1219,1214,1214,1214,1210,1210,1206,1202,1202,1202,1202,1197,1197,1197,1197,1197,1193,1193,1189,1189,1185,1185,1185,1181,1181,1181,1181,1181,1181,1181,1177,1177,1177,1173,1173,1173,1169,1169,1169,1165,1165,1165,1161,1161,1161,1161,1157,1157,1157,1153,1153,1153,1153,1153,1149,1149,1149,1149,1145,1141,1141,1141,1138,1138,1138,1138,1138,1134,1134,1134,1134,1130,1126,1126,1126,1126,1126,1123,1123,1119,1119,1119,1119,1115,1115,1115,1115,1112,1112,1112,1108,1108,1108,1108,1108,1105,1105,1105,1105,1101,1101,1101,1097,1097,1094,1094,1094,1094,1094,1090,1090,1090,1090,1090,1087,1087,1087,1087,1084,1084,1080,1080,1080,1080,1077,1077,1077,1077,1077,1073,1073,1070,1070,1070,1067,1067,1063,1063,1063,1063,1063,1063,1063,1060,1060,1057,1057,1057,1054,1054,1050,1050,1050,1050,1047,1047,1047,1047,1047,1044,1044,1041,1041,1038,1038,1038,1038,1034,1034,1031,1028,1028,1028,1028,1028,1025,1025,1022,1022,1019,1019,1016,1016,1013,1013,1013,1013,1010,1010,1010,1004,1004,1004,1004,1004,0,0,0,0,0,0,0,0,0,0,0,0,0,0,0,0,0,0,0,0,0,0,0,0,0,0,0,0,0
0,0,0,0,0,0,0,0,0,0,0,0,0,0,1477,1477,1477,1477,1477,1516,1516,1516,2005,2005,2005,1993,1993,1993,1981,1981,1970,1970,1970,1970,1959,1959,1959,1959,1959,1445,1445,1445,1439,1439,1433,1427,1427,1415,1415,1415,1415,1415,1421,1421,1427,1427,1427,1427,1433,1433,1433,1433,1439,1439,1445,1445,1452,1452,1458,1458,1458,1458,1458,1464,1464,1464,1470,1470,1477,1483,1483,1489,1489,1489,1489,1489,1489,1496,1496,1496,1503,1509,1509,1509,1509,1509,1516,1516,1516,1516,1523,1529,1529,1536,1536,1543,1543,1543,1543,1550,1557,1557,1564,1564,1564,1564,1564,1572,1572,1572,1579,1579,1579,1586,1586,1594,1594,1601,1601,1601,1609,1616,1616,1616,1616,1616,1624,1624,1632,1632,1632,1632,1639,1647,1647,1655,1655,1655,1655,1655,1655,1655,1647,1647,1647,1639,1639,1639,1639,1632,1632,1632,1624,1624,1624,1624,1624,1624,1624,0,0,0,0,0,1016,1013,1013,1010,1010,1010,1007,1004,1004,1004,1001,1001,1001,1001,1004,1007,1010,1010,1010,1013,1013,1013,1013,1016,1016,0,0,0,1536,1536,1536,1536,1536,1536,1536,1536,1536,1536,1529,1529,1523,1523,1516,1516,1516,1516,1516,1509,1509,1509,1509,1509,1509,1509,1503,1503,1496,1489,1489,1489,1483,1483,1483,1483,1483,1477,1470,1470,1470,1464,1464,1464,1464,1464,1458,1458,1458,1458,1458,1458,1452,1452,1452,1445,1445,1445,1439,1439,1439,1433,1433,1433,1427,1427,1427,1421,1421,1421,1421,1415,1415,1415,1415,1415,1410,1410,1410,1404,1404,1398,1398,1392,1392,1392,1392,1392,1392,1392,1387,1387,1387,1387,1381,1381,1381,1381,0,0,0,0,0,0,0,0,858,856,854,854,854,854,854,851,851,849,849,847,845,845,845,845,845,847,849,851,854,854,856,858,860,860,862,862,862,0,0,0,0,0,1317,1317,1317,1312,1312,1312,1307,1307,1307,1307,1307,1302,1302,1302,1302,1297,1297,1292,1292,1292,1288,1288,1288,1288,1283,1283,1283,1278,1278,1273,1268,1268,1268,1268,1268,1264,1259,1259,1259,1255,1255,1255,1255,1255,1255,1255,1250,1250,1250,1250,1250,1250,1241,1241,1241,1241,1241,1236,1236,1236,1232,1232,1232,1232,1227,1223,1223,1223,1223,1219,1219,1219,1219,1219,1219,1219,1214,1214,1214,1214,1210,1202,1202,1202,1202,1202,1197,1197,1197,1197,1197,1193,1193,1189,1189,1185,1185,1185,1185,1181,1181,1181,1181,1181,1177,1177,1177,1173,1173,1173,1169,1169,1169,1165,1165,1165,1165,1165,1161,1161,1161,1157,1157,1157,1153,1153,1153,1153,1149,1149,1149,1149,1145,1145,1141,1141,1141,1138,1138,1138,1138,1134,1134,1134,1134,1130,1126,1126,1126,1126,1126,1123,1123,1123,1123,1119,1119,1119,1115,1115,1112,1112,1112,1108,1108,1108,1108,1108,1108,1105,1105,1105,1105,1101,1101,1101,1097,1097,1094,1094,1094,1094,1094,1090,1090,1090,1090,1090,1087,1087,1087,1087,1084,1084,1084,1080,1080,1080,1080,1077,1077,1077,1077,1073,1073,1070,1070,1070,1070,1067,1067,1067,1063,1063,1063,1063,1063,1060,1060,1057,1057,1057,1054,1054,1054,1050,1050,1050,1050,1050,1047,1047,1047,1044,1044,1041,1041,1038,1038,1038,1038,1034,1034,1031,1028,1028,1028,1028,1028,1025,1025,1025,1022,1019,1019,1016,1016,1016,1016,1013,1013,1013,1013,1010,1007,1004,1004,1001,1001,0,0,0,0,0,0,0,0,0,0,0,0,0,0,0,0,0,0,0,0,0,0,0,0,0,0,0,0,0
0,0,0,0,0,0,0,0,0,0,0,0,0,0,1477,1477,1477,1477,1477,1496,1516,1516,2016,2005,2005,2005,1993,1993,1981,1981,1981,1970,1970,1970,1959,1959,1959,1959,1959,1445,1445,1445,1439,1439,1433,1433,1427,1415,1415,1415,1415,1415,1415,1421,1427,1427,1427,1427,1433,1433,1433,1433,1439,1439,1445,1445,1452,1452,1458,1458,1458,1458,1464,1464,1464,1464,1470,1477,1477,1483,1483,1483,1483,1483,1489,1489,1489,1496,1496,1496,1509,1509,1509,1509,1509,1509,1516,1516,1516,1516,1529,1536,1536,1536,1536,1543,1543,1543,1543,1550,1557,1557,1564,1564,1564,1564,1572,1572,1572,1572,1579,1579,1579,1586,1586,1594,1594,1601,1601,1609,1616,1616,1616,1616,1616,1624,1624,1624,1632,1632,1632,1632,1639,1647,1647,1655,1655,1655,1655,1655,1655,1655,1647,1647,1647,1639,1639,1639,1639,1632,1632,1632,1632,1624,1624,1624,1624,1624,1624,0,0,0,0,0,1016,1013,1013,1010,1010,1010,1007,1004,1004,1001,1001,1001,1001,1001,1004,1007,1010,1010,1013,1013,1013,1016,1016,1016,1016,0,0,0,1536,1536,1543,1543,1543,1543,1536,1536,1536,1536,1529,1529,1523,1523,1523,1516,1516,1516,1516,1509,1509,1509,1509,1509,1509,1509,1509,1503,1503,1489,1489,1489,1489,1483,1483,1483,1483,1477,1477,1470,1470,1464,1464,1464,1464,1464,1464,1464,1458,1458,1458,1458,1458,1458,1452,1452,1445,1445,1439,1439,1433,1433,1433,1433,1433,1427,1427,1427,1421,1421,1421,1421,1415,1415,1415,1415,1410,1410,1404,1404,1404,1398,1398,1392,1392,1392,1392,1392,1392,1392,1387,1387,1387,1387,1381,1381,1381,1381,0,0,0,0,0,0,0,0,858,856,856,854,854,854,854,851,851,849,849,847,845,845,845,845,847,847,849,851,854,854,856,858,860,860,862,862,862,862,0,0,0,1317,1317,1317,1317,1317,1312,1312,1312,1307,1307,1307,1307,1307,1302,1302,1302,1297,1297,1297,1292,1292,1288,1288,1288,1288,1283,1283,1283,1283,1278,1273,1273,1268,1268,1268,1268,1264,1264,1259,1259,1255,1255,1255,1255,1255,1255,1255,1250,1250,1250,1250,1245,1245,1245,1245,1241,1241,1241,1241,1236,1236,1232,1232,1232,1232,1232,1227,1223,1223,1223,1219,1219,1219,1219,1219,1219,1214,1214,1214,1214,1214,1210,1202,1202,1202,1202,1202,1197,1197,1197,1197,1197,1193,1193,1189,1189,1185,1185,1185,1185,1185,1185,1181,1181,1181,1177,1177,1177,1173,1173,1173,1173,1169,1169,1169,1165,1165,1165,1165,1165,1161,1161,1161,1161,1157,1157,1153,1153,1153,1153,1149,1149,1149,1145,1145,1141,1141,1141,1141,1138,1138,1138,1138,1134,1134,1134,1130,1130,1126,1126,1126,1126,1123,1123,1123,1123,1123,1119,1119,1115,1115,1112,1112,1112,1108,1108,1108,1108,1108,1108,1108,1105,1105,1105,1105,1101,1101,1097,1097,1094,1094,1094,1094,1094,1090,1090,1090,1090,1090,1090,1087,1087,1087,1084,1084,1080,1080,1080,1080,1080,1077,1077,1077,1077,1077,1077,1073,1073,1070,1070,1067,1067,1067,1063,1063,1063,1063,1063,1060,1060,1057,1057,1057,1054,1054,1054,1054,1054,1054,1054,1050,1047,1047,1047,1044,1044,1041,1041,1038,1038,1038,1038,1038,1034,1034,1034,1031,1028,1028,1028,1028,1025,1025,1022,1019,1019,1016,1016,1016,1016,1013,1013,1013,1010,1010,1007,1004,1004,1001,1001,0,0,0,0,0,0,0,0,0,0,0,0,0,0,0,0,0,0,0,0,0,0,0,0,0,0,0,0,0
0,0,0,0,0,0,0,0,0,0,0,0,0,0,1464,1464,1470,1477,1477,1489,1489,2016,2016,2016,2016,2005,1993,1993,1993,1993,1981,1981,1970,1970,1970,1959,1959,1970,1970,1981,1439,1439,1439,1439,1433,1433,1427,1421,1415,1415,1415,1415,1415,1421,1427,1427,1427,1427,1433,1433,1433,1439,1439,1439,1445,1452,1452,1452,1458,1458,1458,1458,1464,1464,1464,1464,1477,1477,1483,1483,1483,1483,1483,1483,1489,1489,1496,1496,1503,1503,1503,1503,1509,1509,1509,1509,1509,1516,1516,1516,1523,1536,1536,1536,1536,1543,1543,1543,1543,1550,1557,1557,1564,1564,1564,1572,1572,1572,1572,1572,1579,1586,1586,1586,1586,1586,1594,1601,1601,1609,1616,1616,1616,1616,1616,1624,1624,1624,1632,1632,1632,1632,1639,1647,1647,1655,1655,1655,1655,1655,1655,1655,1647,1647,1647,1639,1639,1639,1639,1632,1632,1632,1632,1632,1624,1624,1624,1624,1624,0,0,0,0,0,1016,1013,1013,1010,1010,1010,1007,1004,1004,1001,1001,1001,1001,1001,1007,1010,1010,1010,1013,1013,1016,1016,1016,1016,1016,0,0,0,1543,1543,1543,1543,1543,1543,1543,1536,1536,1536,1529,1529,1523,1523,1523,1516,1516,1516,1516,1509,1509,1509,1509,1509,1509,1509,1509,1509,1503,1503,1489,1489,1489,1489,1489,1483,1483,1483,1477,1470,1470,1464,1464,1464,1464,1464,1464,1464,1458,1458,1458,1458,1458,1458,1458,1452,1445,1445,1439,1439,1433,1433,1433,1433,1433,1433,1433,1427,1427,1421,1421,1421,1421,1415,1415,1415,1410,1410,1404,1404,1404,1398,1398,1392,1392,1392,1392,1392,1392,1392,1387,1387,1387,1387,1387,1387,1381,1381,0,0,0,0,0,0,860,858,858,856,856,854,854,854,854,851,851,851,849,849,847,845,845,845,847,847,849,851,851,854,856,858,860,860,862,862,0,0,0,0,0,1317,1317,1322,1322,1317,1317,1312,1312,1307,1307,1307,1307,1307,1302,1302,1302,1302,1302,1297,1297,1292,1292,1292,1288,1288,1288,1288,1283,1283,1278,1278,1273,1273,1273,1268,1268,1264,1264,1259,1259,1259,1255,1255,1255,1255,1255,1255,1250,1250,1250,1250,1245,1245,1245,1245,1241,1241,1245,1241,1236,1236,1236,1232,1232,1232,1232,1227,1227,1223,1223,1223,1219,1219,1219,1219,1219,1214,1214,1214,1214,1214,1214,1210,1210,1202,1202,1202,1202,1202,1202,1197,1197,1193,1193,1189,1189,1185,1185,1185,1185,1185,1185,1181,1181,1181,1177,1177,1177,1173,1173,1173,1173,1169,1169,1169,1169,1165,1165,1165,1165,1165,1161,1161,1161,1161,1157,1153,1153,1153,1153,1153,1149,1149,1145,1145,1145,1141,1141,1141,1141,1138,1138,1138,1138,1134,1134,1130,1130,1126,1126,1126,1126,1126,1123,1123,1123,1123,1119,1119,1119,1115,1112,1112,1108,1108,1108,1108,1108,1108,1108,1108,1108,1105,1105,1105,1101,1097,1097,1097,1094,1094,1094,1094,1094,1094,1094,1090,1090,1090,1090,1087,1087,1087,1084,1084,1080,1080,1080,1080,1080,1077,1077,1077,1077,1077,1077,1073,1073,1073,1070,1070,1070,1067,1063,1063,1063,1063,1063,1063,1060,1060,1060,1057,1054,1054,1054,1054,1054,1054,1054,1050,1047,1047,1047,1044,1044,1041,1041,1041,1038,1038,1038,1038,1034,1034,1034,1031,1031,1028,1028,1028,1025,1025,1022,1019,1019,1016,1016,1016,1016,1013,1013,1013,1010,1010,1007,1007,1004,1004,1004,0,0,0,0,0,0,0,0,0,0,0,0,0,0,0,0,0,0,0,0,0,0,0,0,0,0,0,0,0
0,0,0,0,0,0,0,0,0,0,0,0,0,0,1464,1464,1470,1470,1489,1489,2028,2028,2016,2016,2005,2005,1993,1993,1993,1981,1981,1970,1970,1970,1970,1959,1959,1970,1970,1981,1439,1439,1439,1439,1433,1433,1427,1421,1415,1415,1415,1421,1421,1421,1427,1427,1433,1433,1433,1433,1433,1439,1439,1439,1439,1445,1452,1452,1458,1458,1458,1458,1464,1464,1464,1470,1470,1477,1477,1483,1483,1483,1483,1489,1489,1496,1496,1496,1503,1503,1503,1503,1509,1509,1509,1509,1509,1516,1516,1516,1523,1529,1536,1536,1536,1543,1543,1543,1543,1550,1557,1557,1564,1564,1572,1572,1572,1572,1572,1572,1579,1586,1586,1586,1586,1586,1594,1601,1601,1609,1616,1616,1616,1616,1616,1624,1624,1624,1632,1632,1632,1632,1647,1647,1655,1655,1655,1655,1655,1655,1655,1655,1647,1647,1647,1639,1639,1639,1639,1632,1632,1632,1632,1632,1624,1624,1624,1624,1624,0,0,0,0,0,0,1016,1016,1010,1010,1010,1007,1004,1004,1004,1001,1001,1004,1004,1007,1010,1010,1010,1013,1016,1016,1019,1019,1019,1019,0,0,0,1543,1543,1543,1543,1543,1543,1543,1543,1536,1536,1536,1536,1529,1523,1523,1523,1516,1516,1516,1509,1509,1509,1509,1509,1509,1509,1509,1509,1503,1503,1489,1489,1489,1489,1489,1483,1483,1483,1483,1477,1470,1470,1464,1464,1464,1464,1464,1464,1458,1458,1458,1458,1458,1458,1452,1452,1445,1445,1445,1439,1439,1433,1433,1433,1433,1433,1433,1427,1427,1427,1427,1421,1421,1415,1415,1415,1410,1410,1410,1404,1404,1398,1398,1398,1398,1392,1392,1392,1392,1392,1387,1387,1387,1387,1387,1387,1381,1381,0,0,0,0,0,0,860,856,856,856,856,856,854,854,854,851,851,851,849,849,847,847,847,847,847,847,849,851,851,854,856,858,860,860,862,862,0,0,0,0,1328,1322,1322,1322,1322,1317,1317,1312,1312,1307,1307,1307,1307,1307,1302,1302,1302,1302,1302,1302,1297,1297,1292,1292,1288,1288,1288,1288,1283,1283,1278,1278,1273,1273,1273,1273,1268,1268,1264,1264,1264,1259,1259,1255,1255,1255,1255,1255,1250,1250,1250,1250,1245,1245,1245,1245,1245,1245,1245,1241,1236,1236,1236,1232,1232,1232,1227,1227,1227,1223,1223,1223,1223,1219,1219,1219,1219,1219,1214,1214,1214,1214,1210,1210,1210,1206,1202,1202,1202,1202,1202,1197,1197,1193,1193,1193,1189,1185,1185,1185,1185,1185,1185,1181,1181,1181,1181,1181,1177,1173,1173,1173,1169,1169,1169,1169,1169,1169,1169,1165,1165,1165,1165,1161,1161,1161,1161,1157,1157,1153,1153,1153,1153,1149,1149,1149,1145,1145,1145,1141,1141,1138,1138,1138,1138,1138,1134,1130,1130,1126,1126,1126,1126,1126,1126,1123,1123,1123,1119,1119,1119,1115,1112,1112,1108,1108,1112,1112,1108,1108,1108,1108,1108,1105,1105,1105,1101,1097,1097,1097,1094,1094,1094,1094,1094,1094,1090,1090,1090,1090,1090,1087,1087,1087,1084,1084,1084,1084,1080,1080,1080,1077,1077,1077,1077,1077,1077,1073,1073,1073,1073,1070,1067,1067,1063,1063,1063,1063,1063,1063,1063,1060,1060,1057,1057,1054,1054,1054,1054,1054,1054,1050,1047,1047,1047,1044,1044,1041,1041,1041,1041,1038,1038,1038,1034,1034,1034,1031,1031,1031,1028,1028,1025,1025,1022,1019,1019,1016,1016,1016,1016,1016,1013,1013,1010,1010,1007,1007,1004,1004,1004,0,0,0,0,0,0,0,0,0,0,0,0,0,0,0,0,0,0,0,0,0,0,0,0,0,0,0,0,0
0,0,0,0,0,0,0,0,0,0,0,0,0,0,1458,1458,1470,1470,1489,1489,2028,2028,2016,2016,2005,2005,1993,1993,1993,1981,1981,1970,1970,1970,1959,1959,1970,1970,1970,1981,1445,1445,1439,1439,1433,1433,1427,1421,1415,1415,1415,1421,1421,1421,1421,1421,1427,1433,1433,1433,1439,1439,1439,1439,1439,1445,1452,1452,1452,1458,1458,1458,1458,1464,1464,1470,1470,1477,1477,1483,1483,1483,1483,1489,1496,1496,1496,1503,1503,1509,1509,1509,1509,1509,1509,1509,1509,1516,1516,1516,1523,1529,1536,1536,1536,1543,1543,1543,1543,1550,1557,1557,1564,1564,1572,1572,1572,1572,1572,1579,1586,1594,1594,1594,1594,1594,1601,1601,1601,1601,1616,1616,1616,1624,1624,1624,1624,1632,1632,1632,1632,1632,1647,1647,1655,1655,1655,1655,1655,1655,1655,1655,1647,1647,1647,1639,1639,1639,1639,1639,1632,1632,1632,1632,1632,1624,1624,1616,1616,0,0,0,0,0,0,1019,1019,1013,1013,1010,1007,1004,1004,1004,1001,1001,1004,1004,1007,1010,1010,1010,1013,1013,1016,1019,1019,1019,1019,0,0,1550,1550,1543,1543,1543,1543,1543,1543,1543,1536,1536,1536,1536,1536,1529,1523,1523,1516,1516,1516,1516,1516,1509,1509,1509,1509,1509,1509,1509,1503,1503,1489,1489,1489,1489,1489,1489,1483,1483,1483,1483,1477,1470,1470,1470,1464,1464,1464,1464,1464,1458,1458,1458,1458,1458,1452,1452,1445,1445,1445,1439,1439,1439,1433,1433,1433,1433,1433,1433,1427,1427,1427,1421,1421,1415,1415,1415,1410,1410,1410,1404,1404,1398,1398,1398,1398,1392,1392,1392,1392,1392,1387,1387,1387,1387,1387,1387,1387,1387,0,0,0,0,0,0,856,856,856,856,856,856,854,854,854,851,851,851,851,849,847,847,847,847,847,847,849,851,854,854,856,858,860,860,862,0,0,0,0,0,1328,1328,1322,1322,1322,1322,1317,1312,1312,1307,1307,1307,1307,1302,1302,1302,1302,1302,1302,1302,1297,1292,1292,1292,1288,1288,1288,1288,1288,1283,1283,1278,1278,1273,1273,1273,1268,1268,1268,1264,1264,1264,1259,1255,1255,1255,1255,1255,1255,1250,1250,1250,1250,1250,1250,1245,1245,1245,1245,1241,1236,1236,1236,1232,1232,1232,1227,1227,1227,1223,1223,1223,1223,1219,1219,1219,1219,1219,1214,1214,1214,1214,1210,1210,1210,1206,1202,1202,1202,1202,1202,1197,1197,1197,1197,1197,1189,1185,1185,1185,1185,1185,1185,1181,1181,1181,1181,1181,1177,1177,1173,1173,1169,1169,1169,1169,1169,1169,1169,1165,1165,1165,1165,1161,1161,1161,1161,1157,1157,1153,1153,1153,1153,1149,1149,1149,1149,1149,1145,1145,1141,1141,1138,1138,1138,1134,1134,1130,1130,1130,1130,1130,1126,1126,1126,1126,1123,1123,1119,1119,1119,1115,1112,1112,1112,1112,1112,1112,1108,1108,1108,1108,1108,1105,1105,1105,1101,1101,1097,1097,1094,1094,1094,1094,1094,1094,1090,1090,1090,1090,1090,1087,1087,1087,1084,1084,1084,1084,1080,1080,1080,1077,1077,1077,1077,1077,1077,1073,1073,1073,1073,1070,1067,1067,1063,1063,1063,1063,1063,1063,1063,1063,1060,1060,1057,1054,1054,1054,1054,1054,1054,1054,1050,1050,1047,1047,1044,1044,1041,1041,1041,1038,1038,1038,1038,1038,1034,1034,1034,1034,1031,1028,1028,1025,1022,1022,1019,1016,1016,1016,1016,1016,1016,1013,1013,1010,1007,1007,1004,1004,1004,0,0,0,0,0,0,0,0,0,0,0,0,0,0,0,0,0,0,0,0,0,0,0,0,0,0,0,0,0
0,0,0,0,0,0,0,0,0,0,0,0,0,0,1458,1458,1464,1470,2028,2028,2028,2016,2016,2016,2005,2005,1993,1993,1993,1981,1981,1970,1970,1970,1959,1959,1970,1970,1970,1970,1445,1445,1439,1439,1433,1433,1427,1427,1415,1415,1415,1421,1421,1421,1421,1421,1427,1433,1433,1433,1439,1439,1439,1439,1445,1445,1452,1452,1452,1458,1458,1458,1458,1464,1464,1470,1477,1477,1477,1483,1483,1483,1489,1489,1496,1496,1503,1503,1509,1509,1509,1509,1509,1509,1509,1509,1516,1516,1516,1516,1523,1529,1536,1536,1536,1543,1543,1543,1550,1550,1557,1564,1564,1564,1572,1572,1572,1572,1579,1579,1586,1594,1594,1594,1594,1594,1601,1601,1601,1601,1616,1616,1616,1624,1624,1624,1624,1632,1632,1632,1632,1639,1647,1647,1655,1655,1655,1655,1655,1655,1655,1655,1655,1647,1647,1639,1639,1639,1639,1639,1632,1632,1632,1632,1632,1624,1624,1616,1616,0,0,0,0,0,1019,1016,1016,1013,1013,1010,1010,1007,1007,1007,1004,1004,1004,1007,1010,1010,1010,1010,1013,1013,1016,1019,1019,1022,0,0,0,1550,1550,1550,1543,1543,1543,1543,1543,1543,1536,1536,1536,1536,1536,1536,1536,1523,1516,1516,1516,1516,1516,1509,1509,1509,1509,1509,1509,1509,1503,1503,1496,1489,1489,1489,1489,1489,1489,1483,1483,1483,1477,1477,1470,1470,1464,1464,1464,1464,1464,1458,1458,1458,1458,1458,1452,1452,1452,1445,1445,1445,1439,1439,1439,1439,1433,1433,1433,1433,1433,1427,1427,1427,1427,1415,1415,1415,1410,1410,1410,1404,1404,1404,1404,1398,1398,1398,1392,1392,1392,1392,1387,1387,1387,1387,1387,1387,1387,1387,0,0,0,0,0,0,856,856,858,856,856,856,854,854,854,851,851,851,851,849,847,847,847,847,847,849,851,851,854,854,856,858,860,862,862,0,0,0,0,1333,1328,1328,1328,1328,1322,1322,1317,1312,1312,1307,1307,1307,1307,1302,1302,1302,1302,1302,1302,1302,1297,1292,1292,1292,1288,1288,1288,1288,1288,1288,1283,1283,1278,1273,1273,1273,1268,1268,1268,1268,1264,1264,1259,1259,1255,1255,1255,1255,1255,1250,1250,1250,1250,1250,1250,1245,1245,1245,1241,1241,1236,1236,1236,1232,1232,1232,1227,1227,1227,1227,1227,1223,1223,1219,1219,1219,1219,1219,1214,1214,1214,1214,1210,1210,1210,1206,1202,1202,1202,1202,1202,1197,1197,1197,1197,1193,1193,1189,1189,1189,1185,1185,1185,1181,1181,1181,1181,1181,1177,1177,1173,1173,1169,1169,1169,1169,1169,1169,1169,1169,1165,1165,1165,1165,1165,1161,1161,1157,1157,1153,1153,1153,1153,1149,1149,1149,1149,1149,1149,1145,1141,1141,1138,1138,1138,1134,1134,1134,1134,1130,1130,1130,1126,1126,1126,1126,1126,1123,1123,1119,1119,1119,1115,1115,1112,1112,1112,1112,1112,1108,1108,1108,1108,1108,1105,1105,1101,1101,1097,1097,1094,1094,1094,1094,1094,1094,1090,1090,1090,1090,1090,1090,1087,1087,1087,1084,1084,1084,1080,1080,1080,1077,1077,1077,1077,1077,1077,1073,1073,1073,1073,1070,1067,1067,1063,1063,1063,1063,1063,1063,1063,1063,1063,1060,1060,1057,1054,1054,1054,1054,1054,1054,1050,1050,1050,1047,1047,1044,1044,1044,1041,1041,1038,1038,1038,1038,1034,1034,1034,1031,1031,1028,1028,1028,1025,1025,1022,1019,1019,1016,1016,1016,1016,1013,1013,1010,1010,1007,1004,1004,1004,0,0,0,0,0,0,0,0,0,0,0,0,0,0,0,0,0,0,0,0,0,0,0,0,0,0,0,0,0
0,0,0,0,0,0,0,0,0,0,0,0,0,0,1464,1464,1464,1470,2028,2028,2016,2016,2016,2016,2005,2005,1993,1993,1993,1981,1981,1970,1970,1970,1970,1970,1970,1970,1981,1981,0,1445,1439,1439,1433,1433,1427,1427,1421,1415,1415,1421,1421,1421,1427,1427,1433,1433,1433,1433,1439,1439,1439,1439,1445,1445,1452,1452,1452,1458,1458,1458,1458,1464,1464,1477,1477,1477,1483,1483,1483,1483,1489,1489,1496,1496,1503,1503,1509,1509,1509,1509,1509,1509,1509,1516,1516,1516,1523,1523,1529,1536,1536,1536,1543,1543,1543,1550,1550,1557,1564,1564,1564,1564,1572,1572,1572,1572,1579,1579,1586,1594,1594,1594,1594,1594,1601,1601,1601,1609,1616,1616,1616,1624,1624,1624,1624,1632,1632,1632,1632,1647,1647,1647,1655,1655,1663,1663,1655,1655,1655,1655,1655,1655,1647,1647,1647,1647,1647,1639,1639,1632,1632,1632,1632,1624,1624,1616,1616,0,0,0,0,0,1019,1016,1016,1013,1013,1010,1010,1010,1010,1007,1004,1004,1010,1007,1007,1010,1010,1013,1013,1016,1016,1019,1019,1022,0,0,0,0,1557,1550,1543,1543,1543,1543,1543,1543,1543,1536,1536,1536,1536,1529,1529,1523,1523,1523,1516,1516,1516,1516,1516,1509,1509,1509,1509,1509,1503,1503,1503,1489,1489,1489,1489,1489,1489,1483,1483,1483,1483,1477,1470,1470,1470,1464,1464,1464,1464,1464,1458,1458,1458,1458,1458,1452,1452,1452,1445,1445,1439,1439,1439,1439,1433,1433,1433,1433,1433,1433,1427,1427,1427,1415,1415,1415,1410,1410,1410,1410,1404,1404,1404,1404,1404,1398,1398,1392,1392,1392,1387,1387,1387,1387,1387,1387,1387,1387,0,0,0,0,0,0,858,858,858,858,858,856,856,854,854,851,851,851,851,849,849,847,847,847,847,849,851,851,854,854,856,858,860,862,0,0,0,0,0,1333,1328,1328,1328,1328,1328,1322,1322,1317,1312,1312,1307,1307,1307,1302,1302,1302,1302,1302,1302,1302,1302,1297,1292,1292,1288,1288,1288,1288,1288,1288,1283,1283,1278,1278,1273,1273,1273,1268,1268,1268,1268,1268,1264,1259,1259,1255,1255,1255,1255,1255,1250,1250,1250,1250,1250,1245,1245,1245,1241,1241,1236,1236,1236,1236,1236,1232,1232,1232,1232,1232,1227,1227,1227,1223,1219,1219,1219,1219,1214,1214,1214,1214,1210,1210,1206,1206,1202,1202,1202,1202,1202,1197,1197,1197,1197,1193,1193,1189,1189,1189,1185,1185,1185,1181,1181,1181,1181,1181,1181,1181,1181,1177,1169,1169,1169,1169,1169,1169,1169,1169,1165,1165,1165,1165,1165,1161,1161,1157,1157,1153,1153,1153,1153,1149,1149,1149,1149,1149,1149,1145,1141,1141,1141,1141,1138,1138,1134,1134,1134,1130,1130,1130,1130,1130,1126,1126,1126,1123,1123,1119,1119,1119,1115,1115,1112,1112,1112,1112,1112,1112,1112,1108,1108,1108,1105,1105,1105,1101,1101,1097,1097,1094,1094,1094,1094,1094,1090,1090,1090,1090,1090,1090,1087,1087,1087,1084,1084,1084,1084,1080,1080,1080,1077,1077,1077,1077,1077,1073,1073,1073,1073,1070,1070,1067,1067,1063,1063,1063,1063,1063,1063,1063,1063,1060,1057,1057,1054,1054,1054,1054,1054,1050,1050,1050,1050,1050,1047,1047,1044,1044,1041,1041,1041,1041,1038,1038,1034,1034,1034,1031,1031,1028,1028,1028,1028,1025,1025,1022,1019,1019,1016,1016,1016,1016,1013,1013,1010,1007,1004,1004,1004,0,0,0,0,0,0,0,0,0,0,0,0,0,0,0,0,0,0,0,0,0,0,0,0,0,0,0,0,0
0,0,0,0,0,0,0,0,0,0,0,0,0,0,1458,1458,1464,1464,2028,2028,2016,2016,2016,2005,2005,2005,2005,1993,1993,1981,1981,1970,1970,1970,1970,1970,1970,1981,1981,1445,0,1445,1439,1439,1439,1439,1433,1427,1421,1421,1421,1421,1421,1421,1427,1427,1433,1433,1433,1433,1439,1439,1439,1439,1445,1452,1452,1458,1464,1458,1458,1458,1464,1464,1464,1477,1477,1477,1477,1483,1483,1483,1489,1489,1496,1496,1503,1503,1509,1509,1509,1509,1509,1509,1516,1516,1516,1516,1523,1523,1529,1536,1536,1536,1543,1543,1543,1550,1550,1557,1564,1564,1564,1564,1572,1572,1572,1572,1579,1579,1586,1594,1594,1594,1594,1601,1601,1601,1601,1609,1616,1616,1616,1624,1624,1632,1632,1632,1632,1632,1632,1647,1647,1655,1655,1655,1663,1663,1663,1663,1663,1655,1655,1655,1655,1647,1647,1647,1647,1639,1639,1632,1632,1632,1632,1624,1624,1616,1616,0,0,0,0,0,1019,1016,1016,1013,1013,1010,1010,1010,1010,1007,1007,1007,1010,1007,1007,1010,1010,1013,1013,1016,1019,1019,1022,1022,0,0,0,1557,1557,1557,1550,1550,1543,1543,1543,1543,1543,1536,1536,1536,1536,1529,1529,1536,1523,1523,1523,1516,1516,1516,1516,1516,1516,1509,1509,1509,1509,1503,1503,1496,1489,1489,1489,1489,1489,1483,1483,1483,1483,1477,1477,1477,1470,1470,1464,1464,1464,1464,1458,1458,1458,1458,1458,1452,1452,1452,1452,1445,1439,1439,1439,1439,1433,1433,1433,1433,1433,1427,1427,1421,1421,1415,1415,1415,1415,1410,1410,1410,1410,1404,1404,1404,1404,1398,1398,1398,1392,1392,1387,1387,1387,1387,1387,1387,1387,1387,0,0,0,0,0,0,858,858,858,858,856,856,856,854,854,851,851,851,851,849,847,847,847,847,847,849,851,851,854,854,856,858,860,862,0,0,0,0,0,1333,1328,1328,1328,1328,1322,1322,1322,1317,1312,1312,1312,1307,1307,1307,1302,1302,1302,1302,1302,1302,1302,1297,1292,1292,1288,1288,1288,1288,1288,1288,1283,1283,1283,1278,1278,1273,1273,1268,1268,1268,1268,1268,1264,1264,1259,1255,1255,1255,1255,1255,1250,1250,1250,1250,1250,1250,1245,1245,1245,1241,1241,1236,1236,1236,1236,1232,1232,1232,1232,1232,1232,1227,1227,1227,1219,1219,1219,1219,1214,1214,1214,1214,1210,1210,1206,1206,1202,1202,1202,1202,1202,1202,1197,1197,1197,1197,1197,1189,1189,1189,1185,1185,1185,1185,1185,1185,1181,1181,1181,1181,1181,1177,1169,1169,1169,1169,1169,1169,1169,1169,1165,1165,1165,1165,1165,1161,1161,1161,1157,1157,1153,1153,1153,1149,1149,1149,1149,1149,1149,1145,1141,1141,1141,1141,1138,1138,1134,1134,1134,1134,1134,1130,1130,1130,1130,1126,1126,1123,1123,1119,1119,1115,1115,1115,1112,1112,1112,1112,1112,1112,1112,1108,1108,1108,1105,1105,1105,1105,1101,1097,1097,1097,1094,1094,1094,1094,1090,1090,1090,1090,1090,1090,1087,1087,1084,1084,1080,1080,1084,1084,1080,1080,1077,1077,1077,1077,1077,1073,1073,1073,1073,1070,1070,1067,1067,1067,1067,1063,1063,1063,1063,1063,1063,1060,1057,1057,1054,1054,1054,1054,1054,1050,1050,1050,1050,1050,1050,1047,1047,1044,1044,1041,1041,1041,1041,1038,1038,1038,1034,1031,1031,1031,1028,1028,1028,1025,1025,1022,1019,1019,1016,1016,1016,1016,1016,1013,1013,1010,1010,1007,1007,0,0,0,0,0,0,0,0,0,0,0,0,0,0,0,0,0,0,0,0,0,0,0,0,0,0,0,0,0
0,0,0,0,0,0,0,0,0,0,0,0,0,0,1458,1458,1464,1464,1470,2028,2016,2016,2016,2005,2005,2005,2005,1993,1993,1981,1981,1970,1970,1970,1970,1981,1981,1981,0,0,0,1445,1439,1439,1439,1439,1433,1427,1421,1421,1421,1421,1421,1421,1427,1433,1433,1433,1433,1439,1439,1439,1439,1445,1445,1452,1458,1458,1458,1458,1458,1458,1464,1464,1464,1470,1477,1477,1477,1483,1483,1483,1489,1496,1496,1503,1503,1503,1509,1509,1509,1509,1516,1516,1516,1516,1516,1516,1523,1523,1536,1536,1536,1536,1536,1543,1543,1550,1550,1557,1564,1564,1564,1572,1572,1572,1572,1572,1579,1579,1586,1594,1594,1594,1594,1594,1594,1601,1601,1601,1609,1609,1616,1624,1624,1632,1632,1632,1639,1639,1639,1647,1647,1655,1655,1655,1663,1663,1663,1663,1663,1655,1655,1655,1655,1655,1647,1647,1647,1639,1639,1639,1632,1632,1632,1632,1624,1624,1624,0,0,0,0,0,1019,1016,1016,1013,1013,1010,1010,1010,1010,1010,1007,1007,1007,1007,1010,1010,1013,1013,1016,1016,1019,1019,1022,1025,0,0,0,1564,1557,1557,1550,1550,1543,1543,1543,1543,1543,1536,1536,1536,1536,1536,1536,1536,1523,1523,1516,1516,1516,1516,1516,1516,1516,1509,1509,1509,1509,1503,1503,1496,1496,1489,1489,1489,1489,1489,1483,1483,1483,1483,1477,1477,1477,1470,1470,1470,1464,1464,1464,1458,1458,1458,1458,1458,1458,1452,1452,1445,1439,1439,1439,1439,1433,1433,1433,1433,1433,1427,1427,1421,1421,1415,1415,1415,1415,1415,1415,1410,1410,1410,1410,1410,1404,1404,1398,1398,1392,1392,1392,1392,1392,1387,1387,1387,1387,1387,0,0,0,0,0,0,858,858,858,858,856,856,856,854,854,851,851,851,851,849,847,847,847,847,847,849,851,851,854,854,856,858,860,862,0,0,0,0,0,1333,1328,1328,1328,1328,1322,1322,1322,1317,1312,1312,1312,1307,1307,1307,1302,1302,1302,1302,1302,1302,1302,1297,1292,1292,1292,1292,1292,1288,1288,1288,1288,1288,1283,1283,1278,1273,1273,1273,1268,1268,1268,1268,1264,1264,1264,1259,1259,1259,1259,1255,1255,1250,1250,1250,1250,1250,1250,1245,1245,1241,1241,1241,1241,1236,1236,1236,1236,1236,1232,1232,1232,1232,1232,1227,1223,1219,1219,1219,1219,1214,1214,1214,1210,1210,1210,1210,1206,1206,1202,1202,1202,1202,1197,1197,1197,1197,1197,1193,1189,1189,1185,1185,1185,1185,1185,1185,1185,1181,1181,1181,1181,1177,1177,1169,1169,1169,1169,1169,1169,1169,1169,1165,1165,1165,1165,1165,1165,1161,1161,1157,1157,1153,1153,1153,1149,1149,1149,1149,1149,1145,1141,1141,1141,1141,1138,1138,1138,1138,1134,1134,1134,1134,1130,1130,1130,1126,1126,1123,1123,1119,1119,1115,1115,1115,1112,1112,1112,1112,1112,1112,1112,1108,1108,1108,1108,1105,1105,1105,1101,1101,1097,1097,1094,1094,1094,1094,1090,1090,1090,1090,1090,1090,1087,1087,1084,1084,1080,1080,1084,1084,1080,1080,1077,1077,1077,1077,1077,1073,1073,1073,1073,1070,1070,1067,1067,1067,1067,1063,1063,1063,1063,1063,1063,1060,1060,1060,1057,1057,1054,1054,1054,1054,1050,1050,1050,1050,1050,1050,1047,1044,1044,1041,1041,1041,1041,1041,1038,1034,1031,1031,1031,1031,1028,1028,1028,1028,1025,1022,1019,1019,1016,1016,1016,1016,1016,1013,1013,1010,1010,1007,1007,0,0,0,0,0,0,0,0,0,0,0,0,0,0,0,0,0,0,0,0,0,0,0,0,0,0,0,0,0
0,0,0,0,0,0,0,0,0,0,0,0,0,0,1458,1458,1464,1464,1470,2005,2005,2005,2005,2005,2005,2005,2005,1993,1993,1981,1981,1970,1970,1970,0,0,0,0,0,0,0,1452,1439,1439,1439,1439,1433,1433,1427,1421,1421,1421,1421,1421,1427,1427,1433,1433,1439,1439,1439,1439,1445,1445,1452,1452,1458,1458,1458,1458,1458,1458,1464,1464,1464,1470,1470,1477,1477,1477,1477,1483,1489,1496,1496,1503,1503,1503,1509,1509,1509,1509,1516,1516,1516,1516,1516,1516,1536,1536,1536,1536,1536,1536,1536,1543,1543,1550,1550,1557,1564,1564,1564,1572,1572,1572,1572,1572,1579,1579,1586,1586,1594,1594,1594,1594,1594,1601,1601,1601,1609,1609,1616,1624,1624,1632,1632,1632,1639,1639,1647,1655,1655,1655,1655,1663,1663,1663,1663,1663,1663,1663,1663,1655,1655,1655,1655,1647,1647,1647,1639,1639,1639,1639,1632,1632,1632,1624,1624,0,0,0,0,0,1019,1019,1016,1016,1013,1010,1010,1010,1010,1010,1007,1007,1007,1007,1010,1010,1013,1013,1016,1016,1019,1019,1022,1025,0,0,0,1564,1557,1557,1550,1550,1550,1543,1543,1543,1543,1543,1543,1536,1536,1536,1536,1536,1523,1523,1516,1516,1516,1516,1516,1516,1516,1509,1509,1509,1509,1503,1503,1496,1496,1489,1489,1489,1489,1489,1483,1483,1483,1483,1483,1477,1477,1477,1470,1470,1470,1464,1464,1464,1458,1458,1458,1458,1458,1452,1452,1452,1445,1439,1439,1439,1433,1433,1433,1433,1433,1427,1427,1421,1421,1415,1415,1415,1415,1415,1415,1410,1410,1410,1410,1410,1410,1404,1404,1404,1398,1398,1392,1392,1392,1387,1387,1387,1387,1387,0,0,0,0,0,0,858,858,858,858,858,856,856,854,854,851,851,851,851,849,849,847,847,849,849,849,851,851,854,856,856,858,862,862,0,0,0,0,1333,1333,1328,1328,1328,1328,1322,1322,1322,1317,1312,1312,1312,1307,1307,1307,1307,1302,1302,1302,1302,1302,1302,1302,1292,1292,1292,1292,1292,1292,1288,1288,1288,1288,1283,1283,1278,1273,1273,1273,1273,1273,1268,1268,1268,1264,1264,1264,1264,1259,1259,1259,1255,1255,1255,1250,1250,1250,1250,1245,1245,1241,1241,1241,1241,1241,1236,1236,1236,1236,1236,1236,1232,1232,1232,1227,1223,1219,1219,1219,1219,1219,1214,1214,1214,1210,1210,1210,1206,1206,1202,1202,1202,1202,1197,1197,1197,1197,1197,1193,1189,1189,1189,1185,1185,1185,1185,1185,1185,1181,1181,1181,1181,1177,1177,1177,1169,1169,1169,1169,1169,1169,1169,1165,1165,1165,1165,1165,1165,1161,1157,1157,1157,1153,1153,1153,1149,1149,1149,1149,1149,1145,1141,1141,1141,1141,1138,1138,1138,1138,1134,1134,1134,1134,1130,1130,1130,1126,1126,1123,1123,1119,1119,1119,1115,1115,1115,1112,1112,1115,1112,1112,1112,1108,1108,1108,1108,1105,1105,1105,1105,1101,1097,1097,1097,1094,1094,1094,1090,1090,1090,1090,1090,1090,1087,1087,1087,1084,1080,1080,1084,1084,1080,1080,1080,1080,1077,1077,1077,1077,1077,1073,1073,1070,1070,1067,1067,1067,1067,1067,1067,1067,1067,1063,1063,1063,1060,1060,1057,1057,1054,1054,1054,1054,1050,1050,1050,1050,1050,1050,1047,1047,1044,1044,1044,1041,1041,1041,1038,1034,1031,1031,1031,1031,1028,1028,1028,1028,1028,1025,1025,1022,1019,1016,1016,1016,1016,1013,1013,1010,1010,1007,1007,0,0,0,0,0,0,0,0,0,0,0,0,0,0,0,0,0,0,0,0,0,0,0,0,0,0,0,0,0
0,0,0,0,0,0,0,0,0,0,0,0,0,0,1458,1458,1464,1464,1464,1470,2005,2005,2005,2005,2005,2005,2005,1993,1993,1993,1981,1970,1970,1970,0,0,0,0,0,0,0,1458,1452,1445,1445,1445,1439,1433,1427,1421,1415,1415,1421,1421,1427,1427,1433,1433,1439,1439,1439,1445,1445,1445,1445,1452,1452,1452,1458,1458,1458,1464,1464,1470,1470,1470,1470,1477,1477,1477,1477,1483,1489,1489,1496,1496,1503,1503,1509,1509,1509,1516,1516,1516,1516,1516,1523,1523,1536,1536,1536,1536,1536,1536,1536,1543,1543,1550,1550,1557,1564,1564,1564,1572,1572,1572,1572,1579,1579,1579,1586,1586,1594,1594,1594,1594,1601,1601,1601,1601,1616,1616,1624,1624,1624,1632,1632,1632,1639,1639,1647,1655,1655,1655,1655,1663,1663,1663,1663,1663,1663,1663,1663,1663,1663,1663,1655,1655,1647,1647,1647,1639,1639,1639,1639,1632,1632,1624,1624,0,0,0,0,1022,1019,1019,1019,1016,1013,1013,1010,1010,1010,1010,1010,1010,1010,1010,1010,1010,1013,1013,1016,1016,1019,1019,1025,1025,0,0,0,1564,1557,1557,1550,1550,1550,1543,1543,1543,1543,1543,1543,1543,1536,1536,1536,1536,1529,1523,1523,1516,1516,1516,1516,1516,1516,1509,1509,1509,1509,1509,1503,1496,1496,1496,1489,1489,1489,1489,1483,1483,1483,1483,1483,1477,1477,1477,1477,1477,1470,1464,1464,1464,1464,1458,1458,1458,1458,1458,1452,1452,1452,1445,1439,1439,1439,1433,1433,1433,1433,1433,1427,1421,1421,1421,1415,1415,1415,1415,1415,1415,1415,1410,1410,1410,1410,1404,1404,1404,1398,1398,1392,1392,1392,1392,1387,1387,1387,0,0,0,0,0,0,0,858,858,858,858,858,856,856,854,851,851,851,851,851,849,849,847,847,849,849,851,851,854,854,856,856,858,862,864,0,0,0,0,1333,1333,1328,1328,1328,1328,1322,1322,1322,1317,1312,1312,1312,1307,1307,1307,1307,1302,1302,1302,1302,1302,1302,1302,1292,1292,1292,1292,1292,1292,1288,1288,1288,1288,1283,1283,1278,1278,1278,1273,1273,1273,1268,1268,1268,1268,1264,1264,1264,1264,1264,1259,1255,1255,1255,1255,1255,1250,1250,1250,1245,1245,1245,1241,1241,1241,1241,1241,1236,1236,1236,1236,1232,1232,1232,1227,1223,1219,1219,1219,1219,1219,1214,1214,1214,1210,1210,1210,1206,1206,1202,1202,1202,1202,1197,1197,1197,1197,1197,1197,1193,1193,1189,1185,1185,1185,1185,1185,1185,1185,1181,1181,1181,1181,1181,1177,1173,1169,1169,1169,1169,1169,1169,1165,1165,1165,1165,1165,1165,1161,1157,1157,1157,1153,1153,1153,1149,1149,1149,1149,1145,1145,1145,1141,1141,1141,1138,1138,1138,1138,1138,1134,1134,1134,1130,1130,1130,1126,1126,1123,1123,1119,1119,1119,1119,1119,1119,1115,1115,1115,1112,1112,1112,1108,1108,1108,1108,1105,1105,1105,1105,1101,1101,1097,1097,1094,1094,1094,1094,1094,1090,1090,1090,1090,1090,1090,1087,1087,1087,1087,1087,1084,1084,1080,1080,1080,1077,1077,1077,1077,1077,1073,1073,1070,1070,1067,1067,1067,1067,1067,1067,1067,1067,1063,1063,1063,1060,1060,1057,1057,1057,1054,1054,1054,1050,1050,1050,1050,1050,1050,1047,1047,1044,1044,1044,1044,1041,1041,1038,1034,1034,1034,1031,1031,1031,1028,1028,1028,1028,1028,1025,1025,1022,1019,1016,1016,1016,1016,1013,1013,1013,1010,1010,0,0,0,0,0,0,0,0,0,0,0,0,0,0,0,0,0,0,0,0,0,0,0,0,0,0,0,0,0
0,0,0,0,0,0,0,0,0,0,0,0,0,0,1464,1464,1464,1464,1464,1470,1470,2016,2016,2005,2005,2005,2005,2005,1993,1993,1993,1970,1970,1970,1970,0,0,0,0,0,0,1464,1458,1445,1445,1445,1439,1433,1427,1421,1415,1415,1421,1421,1427,1427,1433,1439,1439,1439,1445,1445,1445,1445,1445,1445,1452,1452,1458,1458,1464,1464,1464,1470,1470,1477,1477,1477,1483,1483,1483,1483,1489,1489,1496,1496,1503,1509,1509,1509,1516,1516,1516,1516,1523,1523,1529,1529,1536,1536,1536,1536,1536,1536,1543,1543,1543,1550,1550,1557,1564,1564,1564,1572,1572,1572,1572,1579,1579,1586,1586,1594,1594,1594,1594,1594,1601,1601,1601,1609,1616,1624,1624,1624,1632,1632,1632,1632,1639,1639,1647,1655,1655,1655,1655,1663,1663,1663,1663,1663,1671,1663,1663,1663,1663,1663,1655,1655,1655,1647,1647,1639,1639,1639,1632,1632,1632,1624,1624,0,0,0,0,1022,1019,1019,1019,1013,1013,1013,1010,1010,1010,1010,1010,1010,1010,1010,1010,1010,1013,1013,1016,1016,1019,1019,1022,1022,0,0,0,1564,1564,1564,1557,1550,1550,1550,1543,1543,1543,1543,1543,1543,1543,1536,1536,1536,1529,1529,1523,1516,1516,1516,1516,1516,1516,1516,1509,1509,1509,1509,1503,1503,1503,1503,1496,1489,1489,1489,1489,1483,1483,1483,1483,1483,1477,1477,1477,1477,1470,1464,1464,1464,1464,1464,1458,1458,1458,1458,1452,1452,1452,1445,1445,1439,1439,1439,1439,1433,1433,1433,1433,1427,1427,1427,1421,1415,1415,1415,1415,1415,1415,1415,1410,1410,1410,1410,1410,1404,1398,1398,1392,1392,1392,1392,1387,1387,1387,0,0,0,0,0,0,860,858,858,858,858,858,856,856,854,851,851,851,851,851,849,849,849,849,849,849,851,854,854,856,858,860,860,862,864,0,0,0,0,1333,1333,1328,1328,1328,1328,1322,1322,1322,1322,1317,1312,1312,1312,1307,1307,1307,1307,1302,1302,1302,1302,1302,1302,1292,1292,1292,1292,1292,1292,1292,1288,1288,1288,1283,1283,1278,1278,1278,1273,1273,1273,1268,1268,1268,1268,1264,1264,1264,1264,1264,1264,1259,1259,1255,1255,1255,1250,1250,1250,1250,1245,1245,1241,1241,1241,1241,1236,1236,1236,1236,1236,1232,1232,1232,1232,1227,1223,1219,1219,1219,1219,1214,1214,1214,1214,1214,1214,1210,1210,1206,1202,1202,1202,1202,1197,1197,1197,1197,1197,1193,1193,1189,1189,1185,1185,1185,1185,1185,1185,1185,1185,1181,1181,1181,1177,1177,1169,1169,1169,1169,1169,1169,1169,1165,1165,1165,1165,1165,1161,1157,1157,1157,1153,1153,1153,1149,1149,1149,1149,1145,1145,1145,1141,1141,1141,1141,1138,1138,1138,1138,1138,1134,1134,1130,1130,1130,1126,1126,1126,1123,1123,1123,1119,1119,1119,1119,1119,1119,1115,1115,1112,1112,1108,1108,1108,1108,1108,1105,1105,1105,1105,1101,1101,1101,1097,1097,1094,1094,1094,1094,1094,1090,1090,1090,1090,1090,1090,1087,1087,1087,1084,1084,1080,1080,1080,1080,1077,1077,1077,1077,1077,1073,1073,1070,1070,1067,1067,1067,1067,1067,1067,1067,1067,1063,1063,1060,1060,1060,1060,1057,1054,1054,1054,1050,1050,1050,1050,1050,1050,1047,1047,1044,1044,1044,1044,1041,1041,1038,1038,1034,1034,1031,1031,1031,1031,1031,1028,1028,1028,1028,1025,1025,1022,1022,1016,1016,1016,1013,1013,1013,1010,1010,0,0,0,0,0,0,0,0,0,0,0,0,0,0,0,0,0,0,0,0,0,0,0,0,0,0,0,0,0
0,0,0,0,0,0,0,0,0,0,0,0,0,0,1464,1464,1464,1464,1464,1464,1464,2016,2016,2005,2005,2005,2005,2005,1993,1993,1993,1981,1970,1970,1970,0,0,0,0,0,0,0,1458,1445,1445,1445,1439,1433,1433,1427,1415,1415,1421,1421,1427,1427,1433,1439,1439,1439,1445,1445,1445,1445,1445,1445,1452,1452,1458,1458,1464,1464,1464,1470,1477,1477,1477,1477,1483,1483,1483,1483,1489,1496,1496,1503,1503,1509,1509,1509,1516,1516,1516,1516,1523,1529,1529,1529,1536,1536,1536,1536,1536,1536,1543,1543,1543,1550,1550,1557,1564,1564,1572,1572,1572,1572,1579,1579,1579,1586,1586,1594,1594,1594,1594,1594,1601,1601,1601,1616,1624,1624,1624,1624,1624,1632,1632,1632,1639,1639,1647,1647,1655,1655,1655,1663,1663,1663,1663,1671,1671,1663,1663,1663,1663,1663,1663,1655,1655,1647,1647,1639,1639,1639,1632,1632,1632,1624,1624,0,0,0,0,0,1019,1019,1019,1013,1013,1013,1010,1010,1010,1010,1010,1010,1010,1010,1010,1010,1013,1013,1016,1016,1022,1022,1022,1025,0,0,0,1564,1564,1564,1557,1557,1557,1550,1550,1543,1543,1543,1543,1543,1543,1536,1536,1536,1536,1529,1523,1523,1516,1516,1516,1516,1516,1516,1509,1509,1509,1509,1509,1509,1503,1503,1496,1496,1489,1489,1489,1483,1483,1483,1483,1483,1483,1477,1477,1477,1470,1470,1470,1464,1464,1464,1464,1458,1458,1458,1452,1452,1452,1445,1445,1439,1439,1439,1439,1433,1433,1433,1433,1427,1427,1427,1421,1421,1421,1421,1421,1415,1415,1415,1415,1410,1410,1410,1410,1404,1404,1398,1392,1392,1392,1392,1392,1392,1392,0,0,0,0,0,0,860,860,858,858,860,860,858,856,854,854,851,851,851,851,849,849,849,849,849,849,851,854,856,858,860,860,862,862,864,0,0,0,0,0,1338,1333,1328,1328,1328,1328,1328,1322,1322,1317,1312,1312,1312,1307,1307,1307,1307,1302,1302,1302,1302,1302,1302,1302,1292,1292,1292,1292,1292,1292,1288,1288,1288,1288,1283,1283,1278,1278,1273,1273,1273,1273,1268,1268,1268,1268,1268,1268,1268,1268,1264,1264,1259,1255,1255,1255,1250,1250,1250,1250,1245,1245,1245,1245,1245,1241,1236,1236,1236,1236,1236,1232,1232,1232,1232,1227,1227,1223,1223,1219,1219,1219,1219,1214,1214,1214,1214,1210,1210,1206,1206,1202,1202,1202,1197,1197,1197,1197,1197,1197,1193,1189,1189,1185,1185,1185,1185,1185,1185,1185,1185,1181,1181,1181,1181,1177,1173,1169,1169,1169,1169,1169,1169,1165,1165,1165,1165,1165,1161,1157,1157,1157,1153,1153,1153,1149,1149,1149,1149,1149,1149,1149,1145,1145,1141,1141,1138,1138,1138,1138,1138,1134,1134,1134,1134,1130,1126,1126,1126,1123,1123,1123,1123,1119,1119,1119,1119,1119,1115,1115,1112,1112,1108,1108,1108,1108,1108,1108,1105,1105,1105,1105,1101,1101,1101,1097,1097,1094,1094,1094,1094,1090,1090,1090,1090,1090,1090,1087,1087,1087,1087,1084,1080,1080,1080,1080,1077,1077,1077,1077,1077,1073,1070,1070,1070,1067,1067,1067,1067,1067,1067,1067,1067,1063,1063,1060,1060,1060,1060,1057,1054,1054,1054,1054,1054,1050,1050,1050,1050,1050,1047,1047,1044,1044,1044,1044,1041,1041,1038,1034,1034,1031,1031,1031,1031,1031,1031,1028,1028,1028,1028,1025,1025,1025,1025,1016,1016,1013,1013,1013,1013,1013,0,0,0,0,0,0,0,0,0,0,0,0,0,0,0,0,0,0,0,0,0,0,0,0,0,0,0,0,0
0,0,0,0,0,0,0,0,0,0,0,0,0,0,1464,1458,1458,1458,1458,1458,1458,1458,2016,2016,2016,2016,2005,2005,1993,1993,1993,1981,1970,1970,0,0,0,0,0,0,0,0,1464,1452,1445,1445,1439,1439,1433,1427,1427,1421,1421,1433,1433,1433,1433,1439,1439,1439,1439,1439,1439,1445,1445,1445,1452,1452,1458,1464,1464,1464,1464,1470,1470,1470,1477,1477,1483,1483,1483,1489,1496,1496,1496,1503,1503,1509,1509,1509,1516,1516,1516,1523,1523,1523,1536,1536,1536,1536,1536,1536,1536,1536,1543,1543,1543,1543,1550,1557,1557,1564,1572,1572,1572,1572,1579,1579,1579,1586,1586,1594,1594,1594,1594,1594,1601,1601,1601,1616,1624,1624,1624,1624,1624,1632,1632,1632,1639,1639,1647,1647,1655,1655,1663,1663,1663,1663,1663,1671,1671,1671,1671,1663,1663,1663,1663,1655,1655,1647,1647,1639,1639,1639,1632,1632,1632,1632,1632,0,0,0,0,0,1022,1022,1019,1016,1013,1010,1010,1010,1010,1010,1007,1007,1010,1010,1010,1010,1013,1013,1016,1016,1022,1022,1025,1025,0,0,0,1564,1564,1564,1557,1557,1557,1550,1550,1550,1550,1543,1543,1543,1543,1536,1536,1536,1536,1529,1529,1523,1523,1523,1516,1516,1516,1516,1516,1509,1509,1509,1509,1509,1503,1503,1496,1496,1496,1489,1489,1489,1483,1483,1483,1483,1483,1483,1477,1477,1477,1470,1470,1470,1464,1464,1464,1464,1464,1458,1458,1452,1452,1445,1445,1439,1439,1439,1439,1439,1433,1433,1433,1433,1427,1427,1427,1421,1421,1421,1421,1415,1415,1415,1415,1410,1410,1410,1410,1404,1404,1404,1398,1392,1392,1392,1392,1392,1392,0,0,0,0,0,0,860,858,858,858,860,860,858,856,854,854,851,851,851,851,851,849,849,849,849,849,851,854,856,858,860,860,862,862,864,0,0,0,0,1349,1338,1333,1328,1328,1328,1328,1322,1322,1317,1317,1312,1312,1312,1312,1307,1307,1307,1307,1307,1302,1302,1302,1302,1297,1292,1292,1292,1292,1292,1292,1288,1288,1288,1288,1283,1283,1278,1278,1273,1273,1273,1273,1268,1268,1268,1264,1264,1264,1264,1268,1264,1264,1259,1259,1255,1255,1250,1250,1250,1250,1245,1245,1245,1245,1245,1241,1236,1236,1236,1236,1236,1232,1232,1232,1232,1227,1227,1227,1223,1223,1219,1219,1219,1214,1214,1214,1214,1210,1210,1210,1206,1202,1202,1202,1202,1202,1197,1197,1197,1197,1193,1189,1189,1189,1189,1185,1185,1185,1185,1185,1185,1181,1181,1181,1181,1181,1177,1173,1169,1169,1169,1169,1169,1169,1165,1165,1165,1165,1161,1157,1157,1157,1157,1153,1153,1153,1149,1149,1149,1149,1149,1149,1145,1145,1145,1141,1141,1138,1138,1138,1138,1134,1134,1134,1134,1130,1126,1126,1126,1126,1123,1123,1123,1123,1119,1119,1119,1119,1115,1115,1112,1112,1112,1108,1108,1108,1108,1108,1105,1105,1105,1105,1101,1101,1101,1097,1097,1094,1094,1094,1094,1090,1090,1090,1090,1090,1090,1087,1087,1087,1087,1084,1080,1080,1080,1080,1077,1077,1077,1077,1077,1073,1070,1070,1070,1067,1067,1067,1067,1067,1067,1067,1067,1063,1063,1060,1060,1060,1060,1057,1054,1054,1054,1054,1054,1054,1050,1050,1050,1050,1047,1047,1044,1044,1044,1044,1044,1041,1038,1038,1038,1034,1034,1034,1031,1031,1031,1031,1028,1028,1028,1028,1025,1025,1025,1019,1016,1016,1013,1013,1013,1013,0,0,0,0,0,0,0,0,0,0,0,0,0,0,0,0,0,0,0,0,0,0,0,0,0,0,0,0,0
0,0,0,0,0,0,0,0,0,0,0,0,0,0,1464,1458,1458,1458,1458,1458,1458,0,2028,2028,2016,2016,2016,2005,1993,1993,1993,1993,1981,1981,1993,0,0,0,0,0,0,0,0,1452,1445,1445,1439,1439,1433,1433,1427,1427,1433,1433,1433,1433,1433,1439,1439,1439,1439,1439,1439,1445,1445,1445,1445,1452,1458,1464,1464,1464,1464,1470,1470,1470,1477,1477,1483,1489,1489,1489,1496,1496,1496,1503,1503,1509,1509,1509,1516,1516,1516,1523,1523,1523,1529,1536,1536,1536,1536,1536,1536,1536,1543,1543,1543,1543,1550,1550,1557,1564,1572,1572,1572,1572,1579,1586,1586,1586,1594,1594,1594,1594,1594,1594,1601,1601,1601,1616,1624,1624,1624,1624,1624,1632,1632,1632,1639,1647,1647,1647,1655,1655,1663,1663,1663,1671,1671,1671,1671,1671,1671,1671,1663,1663,1663,1655,1655,1647,1647,1647,1639,1639,1632,1632,1632,1632,1639,0,0,0,0,0,1022,1022,1019,1013,1013,1010,1010,1010,1010,1010,1007,1007,1010,1010,1010,1010,1013,1013,1016,1022,1022,1025,1025,1025,0,0,0,1564,1564,1564,1557,1557,1557,1557,1557,1550,1550,1550,1543,1543,1543,1543,1536,1536,1536,1536,1529,1529,1523,1523,1516,1516,1516,1516,1516,1516,1509,1509,1509,1509,1503,1503,1496,1496,1496,1489,1489,1489,1489,1483,1483,1483,1483,1483,1477,1477,1477,1477,1477,1470,1470,1464,1464,1464,1464,1458,1458,1452,1452,1445,1445,1445,1439,1439,1439,1439,1439,1439,1433,1433,1433,1427,1427,1421,1421,1421,1421,1415,1415,1415,1415,1415,1415,1410,1410,1404,1404,1404,1398,1392,1392,1392,1392,1387,1387,0,0,0,0,0,0,0,858,858,858,860,860,858,856,854,854,854,854,851,851,849,849,849,849,849,851,851,856,858,858,860,860,862,862,0,0,0,0,0,1349,1338,1338,1333,1333,1328,1328,1322,1322,1317,1317,1312,1312,1312,1307,1307,1307,1307,1307,1307,1307,1302,1302,1302,1297,1292,1292,1292,1292,1292,1292,1288,1288,1288,1288,1283,1283,1278,1278,1273,1273,1273,1273,1268,1268,1268,1264,1264,1264,1264,1268,1264,1264,1259,1259,1255,1255,1250,1250,1250,1250,1245,1245,1245,1245,1245,1241,1241,1236,1236,1236,1236,1232,1232,1232,1232,1232,1227,1227,1223,1223,1223,1219,1219,1219,1219,1219,1214,1214,1214,1210,1206,1202,1202,1202,1202,1202,1202,1197,1197,1197,1197,1193,1193,1189,1189,1189,1189,1185,1185,1185,1185,1181,1181,1181,1181,1181,1177,1173,1173,1169,1169,1169,1169,1169,1169,1165,1165,1165,1161,1157,1157,1157,1153,1153,1153,1153,1149,1149,1149,1149,1149,1149,1145,1145,1145,1141,1141,1138,1138,1138,1138,1134,1134,1134,1134,1130,1130,1126,1126,1126,1126,1123,1123,1123,1123,1123,1119,1119,1119,1115,1115,1112,1112,1112,1108,1108,1108,1108,1105,1105,1105,1105,1101,1101,1101,1097,1097,1094,1094,1094,1094,1094,1090,1090,1090,1090,1090,1087,1087,1087,1087,1084,1084,1080,1080,1080,1077,1077,1077,1077,1077,1073,1073,1070,1070,1070,1070,1067,1067,1067,1067,1067,1067,1067,1063,1063,1063,1060,1060,1057,1054,1054,1054,1054,1054,1054,1050,1050,1050,1050,1050,1047,1047,1044,1044,1044,1041,1041,1041,1038,1038,1034,1034,1034,1031,1031,1031,1031,1028,1028,1028,1028,1025,1025,1025,1019,1016,1016,1013,1013,1013,1013,0,0,0,0,0,0,0,0,0,0,0,0,0,0,0,0,0,0,0,0,0,0,0,0,0,0,0,0,0
0,0,0,0,0,0,0,0,0,0,0,0,0,0,1464,1464,1458,1458,1458,1458,1458,0,0,0,2016,2016,2016,2016,1993,1993,1993,1981,1970,1959,1959,0,0,0,0,0,0,0,0,0,1445,1445,1439,1439,1433,1433,1427,1427,1433,1433,1433,1433,1433,1439,1445,1445,1445,1439,1439,1445,1445,1445,1445,1445,1458,1464,1464,1464,1464,1470,1477,1477,1483,1483,1489,1489,1489,1496,1496,1496,1496,1503,1503,1509,1509,1509,1516,1516,1516,1516,1523,1523,1523,1523,1529,1529,1536,1536,1536,1536,1543,1543,1543,1543,1550,1550,1557,1564,1572,1572,1572,1579,1586,1586,1586,1594,1594,1594,1594,1594,1594,1594,1601,1601,1609,1616,1624,1624,1624,1632,1632,1632,1632,1632,1639,1639,1647,1647,1655,1655,1663,1663,1663,1671,1671,1671,1680,1671,1671,1671,1671,1663,1663,1663,1655,1655,1655,1647,1639,1639,1647,1647,1639,1632,1632,0,0,0,0,0,1022,1019,1019,1013,1013,1010,1010,1010,1010,1010,1010,1010,1010,1010,1010,1010,1013,1016,1019,1022,1022,1025,1025,0,0,0,0,1564,1564,1564,1564,1564,1557,1557,1557,1550,1550,1550,1550,1543,1543,1543,1536,1536,1536,1536,1536,1529,1529,1523,1523,1516,1516,1516,1516,1516,1509,1509,1509,1509,1509,1503,1503,1503,1496,1496,1489,1489,1489,1483,1483,1483,1483,1483,1483,1477,1477,1477,1477,1470,1470,1464,1464,1464,1464,1458,1458,1452,1452,1452,1445,1445,1439,1439,1439,1439,1439,1439,1433,1433,1433,1433,1433,1427,1421,1421,1421,1421,1415,1415,1415,1410,1410,1410,1410,1404,1404,1398,1398,1392,1392,1392,1392,1387,1387,0,0,0,0,0,0,0,860,858,858,860,860,858,856,854,854,854,854,851,851,849,849,849,849,849,851,854,856,858,860,860,862,862,864,0,0,0,0,1349,1349,1338,1338,1333,1333,1328,1328,1322,1322,1317,1317,1312,1312,1312,1307,1307,1307,1307,1307,1307,1302,1302,1302,1302,1302,1292,1292,1292,1292,1292,1292,1288,1288,1288,1288,1283,1283,1278,1278,1273,1273,1273,1273,1268,1268,1268,1268,1268,1268,1268,1268,1268,1264,1264,1259,1255,1255,1250,1250,1250,1250,1245,1245,1245,1245,1245,1241,1241,1241,1236,1236,1236,1232,1232,1232,1232,1232,1227,1227,1223,1223,1223,1219,1219,1219,1219,1219,1214,1214,1214,1210,1210,1206,1202,1202,1202,1202,1202,1197,1197,1197,1197,1193,1193,1193,1189,1189,1189,1189,1185,1185,1185,1181,1181,1181,1181,1181,1177,1177,1177,1169,1169,1169,1169,1169,1169,1165,1165,1165,1161,1161,1157,1157,1153,1153,1153,1153,1149,1149,1149,1149,1149,1149,1145,1145,1145,1145,1141,1138,1138,1138,1138,1134,1134,1134,1134,1134,1130,1130,1126,1126,1126,1123,1123,1123,1123,1123,1123,1119,1119,1119,1115,1115,1112,1112,1112,1108,1108,1108,1108,1105,1105,1105,1105,1101,1101,1101,1101,1097,1097,1094,1094,1094,1094,1090,1090,1090,1090,1090,1087,1087,1087,1084,1084,1084,1080,1080,1080,1077,1077,1077,1077,1073,1073,1073,1073,1070,1070,1070,1067,1067,1067,1067,1067,1067,1063,1063,1063,1060,1057,1057,1057,1057,1054,1054,1054,1054,1050,1050,1050,1050,1050,1047,1047,1044,1044,1044,1041,1041,1041,1038,1038,1038,1038,1034,1031,1031,1031,1031,1028,1028,1028,1028,1028,1025,1025,1022,1022,1016,1013,1013,1013,1013,0,0,0,0,0,0,0,0,0,0,0,0,0,0,0,0,0,0,0,0,0,0,0,0,0,0,0,0,0
0,0,0,0,0,0,0,0,0,0,0,0,0,0,1464,1464,1458,1458,1458,1458,1458,0,0,0,0,0,0,0,1993,1993,1993,1970,1970,1959,1959,1970,0,0,0,0,0,0,0,0,0,1439,1433,1433,1433,1433,1433,1433,1433,1433,1433,1433,1433,1439,1445,1445,1445,1439,1439,1445,1445,1445,1445,1445,1458,1464,1464,1464,1464,1470,1470,1477,1483,1483,1483,1489,1489,1496,1496,1496,1496,1503,1509,1509,1509,1509,1516,1516,1516,1516,1523,1523,1523,1523,1529,1529,1536,1536,1536,1543,1543,1543,1543,1543,1550,1557,1557,1572,1572,1572,1572,1579,1586,1594,1594,1594,1594,1594,1594,1601,1601,1601,1601,1601,1609,1616,1624,1624,1624,1632,1632,1632,1632,1632,1639,1639,1647,1647,1655,1655,1663,1663,1663,1671,1671,1671,1671,1671,1671,1671,1671,1671,1663,1663,1655,1655,1655,1647,1639,1639,1639,1632,1632,1632,1632,0,0,0,0,0,1019,1019,1019,1016,1013,1013,1010,1010,1010,1010,1010,1010,1010,1010,1010,1013,1013,1016,1019,1022,1025,1025,1025,0,0,0,0,0,1564,1564,1564,1564,1557,1557,1557,1550,1550,1550,1550,1550,1543,1543,1536,1536,1536,1536,1536,1529,1529,1529,1523,1516,1516,1516,1516,1516,1509,1509,1509,1509,1509,1509,1503,1503,1496,1496,1489,1489,1489,1489,1483,1483,1483,1483,1483,1477,1477,1477,1477,1470,1470,1464,1464,1464,1458,1458,1458,1452,1452,1445,1445,1445,1439,1439,1439,1439,1439,1439,1433,1433,1433,1433,1433,1427,1421,1421,1421,1421,1415,1415,1415,1410,1410,1410,1404,1404,1404,1398,1398,1392,1392,1392,1392,1392,1392,0,0,0,0,0,0,0,860,860,860,860,860,858,856,856,854,854,851,851,851,851,849,849,849,851,851,854,858,858,860,860,862,862,0,0,0,0,0,1349,1349,1338,1338,1333,1333,1328,1328,1322,1322,1317,1317,1312,1312,1312,1312,1307,1307,1307,1307,1307,1302,1302,1302,1302,1302,1292,1292,1292,1292,1292,1292,1292,1292,1288,1288,1283,1283,1278,1278,1273,1273,1273,1273,1268,1268,1268,1268,1268,1268,1268,1268,1268,1264,1264,1259,1255,1255,1250,1250,1250,1250,1245,1245,1245,1245,1245,1241,1241,1241,1236,1236,1236,1232,1232,1232,1232,1232,1227,1227,1223,1223,1223,1219,1219,1219,1219,1219,1214,1214,1214,1214,1210,1206,1206,1202,1202,1202,1202,1202,1197,1197,1197,1197,1197,1193,1193,1193,1189,1189,1189,1185,1185,1181,1181,1181,1181,1181,1177,1177,1177,1173,1169,1169,1169,1169,1169,1169,1165,1165,1161,1161,1157,1157,1157,1153,1153,1153,1153,1149,1149,1149,1149,1149,1145,1145,1145,1145,1141,1138,1138,1138,1138,1134,1134,1134,1134,1134,1134,1130,1126,1126,1126,1123,1123,1123,1123,1123,1123,1119,1119,1119,1115,1115,1115,1112,1112,1108,1108,1108,1108,1108,1105,1105,1105,1101,1101,1101,1101,1097,1097,1097,1094,1094,1094,1094,1094,1094,1090,1090,1090,1087,1087,1084,1084,1084,1080,1080,1080,1077,1077,1077,1077,1077,1073,1073,1073,1073,1073,1070,1070,1070,1070,1067,1067,1067,1063,1063,1063,1060,1057,1057,1057,1057,1057,1057,1057,1054,1054,1054,1054,1050,1050,1047,1047,1047,1044,1044,1041,1041,1041,1041,1041,1038,1038,1038,1034,1034,1031,1031,1028,1028,1028,1028,1028,1028,1025,1025,1022,1019,1016,1016,1016,1016,0,0,0,0,0,0,0,0,0,0,0,0,0,0,0,0,0,0,0,0,0,0,0,0,0,0,0,0,0
