0,0,0,0,0,0,0,0,0,0,0,0,0,1804,1804,1794,1794,1794,1794,1804,1804,1804,1794,1794,1804,1804,1804,1794,1794,1804,1804,1804,1804,1804,1804,1804,1804,1813,1813,1813,1813,1813,1813,1813,1804,1804,1804,1804,1804,1813,1813,1813,1813,1813,1813,1813,1813,1804,1804,1804,1804,1804,1804,1804,1804,1804,1804,1804,1804,1804,1804,1804,1804,1804,1804,1804,1804,1804,1794,1794,1794,1794,0,0,0,0,0,0,0,0,0,0,0,0,0,0,0,0,0,0,750,750,749,749,749,749,749,747,747,747,747,747,747,747,749,750,750,750,750,750,750,750,750,750,750,750,750,750,750,750,749,747,747,747,747,747,747,749,750,749,749,747,747,747,746,746,746,746,746,746,747,746,746,749,749,749,749,749,747,747,749,749,749,749,750,752,752,752,754,755,754,754,750,750,750,750,749,749,749,750,750,749,749,749,750,750,750,752,752,752,754,752,752,752,750,750,750,750,750,754,752,747,747,747,747,747,750,749,749,750,752,750,749,749,749,749,750,752,754,752,752,754,754,752,752,752,752,750,750,752,752,752,752,752,754,754,754,754,755,755,757,757,759,759,759,759,759,761,761,761,762,762,764,766,767,767,767,769,769,771,773,774,774,774,776,776,778,780,781,781,781,783,783,785,787,787,789,789,790,790,790,802,803,807,807,807,809,809,811,811,813,815,817,819,819,819,821,823,825,825,827,827,827,829,829,831,833,833,835,837,839,841,841,843,845,845,847,847,849,849,851,851,851,854,854,856,858,860,860,862,862,864,867,867,869,869,871,871,873,873,875,875,875,878,878,880,880,880,880,880,880,880,880,880,882,882,887,887,887,889,889,889,891,891,894,894,894,894,894,894,0,0,0,0,0,0,0,1731,1731,1722,1722,1713,1705,1696,1696,1696,1696,1688,1688,1680,1671,1671,1663,1663,1655,1647,1639,1639,1639,1632,1632,1632,1624,1616,1616,1609,1601,1601,1601,1594,1586,1579,1579,1579,1572,1572,1572,1564,1564,1557,1550,1550,1543,1543,1543,1536,1536,1523,1523,1516,1516,1516,1509,1503,1496,1496,1489,1489,1489,1489,1483,1477,1470,1470,1464,1464,1464,1458,1452,1445,1445,1445,1439,1439,1439,1433,1427,1421,1415,1415,1415,1415,1410,1404,1404,1398,1398,1392,1392,1387,1376,1376,1370,1370,1370,1370,1365,1359,1359,1354,1354,1354,1349,1349,1343,1333,1333,1328,1328,1328,1322,1317,1312,1312,1312,1307,1307,1302,1297,1292,1292,1292,1288,1288,1288,1283,1278,1278,1273,1273,1268,1268,1264,1259,1255,1250,1250,1245,1245,1241,1241,1236,1236,1236,1232,1227,1227,1223,1219,1219,1214,1214,1210,1206,1206,1202,1202,1202,1197,1197,1197,1189,1185,1185,1181,1181,1181,1177,1173,1173,1169,1169,1165,1165,1165,1161,1157,1157,1153,1153,1149,1149,1145,1145,1141,1138,1138,1134,1130,1126,1126,1123,1123,1123,1119,1119,1119,1115,1112,1112,1105,1105,1101,1101,1101,1097,1094,1094,1094,1090,1090,1087,1084,1084,1080,1080,1077,1077,1073,1073,1070,1067,1063,1063,1060,1060,1057,1057,0,0,0,0,0,0,0,0,0,0,0,0,0,0,0,0,0,0,0,0,0,0,0,0,0,0,0,0,0,0,0,0
0,0,0,0,0,0,0,0,0,0,0,0,1794,1794,1794,1794,1794,1785,1785,1794,1794,1794,1785,1785,1785,1785,1794,1794,1794,1794,1794,1794,1794,1794,1794,1794,1804,1804,1804,1804,1804,1804,1804,1804,1804,1804,1804,1804,1804,1804,1804,1804,1804,1804,1804,1804,1804,1804,1804,1804,1804,1804,1804,1804,1804,1804,1804,1804,1804,1804,1794,1794,1794,1794,1794,1794,1794,1794,1794,1785,1785,1766,1766,0,0,0,0,0,0,0,0,0,0,0,0,0,0,0,0,0,749,747,747,747,747,747,747,747,746,746,746,746,746,746,746,746,746,747,747,747,747,747,746,746,746,749,744,744,747,747,746,746,746,746,746,746,746,746,746,746,747,746,746,746,744,744,744,742,742,742,742,742,742,742,742,744,747,747,747,747,747,747,747,747,747,747,747,746,746,746,741,741,746,746,747,747,747,747,747,747,747,747,747,747,749,749,749,749,749,749,752,749,749,747,747,747,747,746,742,742,746,744,744,744,742,742,744,744,744,747,747,747,747,747,747,747,747,747,747,747,747,752,752,752,750,750,749,749,749,750,750,750,752,752,752,752,752,754,754,754,755,757,757,759,759,759,759,761,761,761,762,762,766,766,767,767,767,769,769,771,773,774,774,774,776,778,780,781,781,781,783,785,785,790,790,798,803,803,802,802,803,807,807,809,809,809,811,811,811,813,815,815,817,819,819,819,821,823,825,827,827,827,827,829,829,831,833,833,835,837,839,841,843,843,845,845,847,847,849,849,851,851,854,854,856,856,858,860,862,862,862,864,867,867,869,871,871,871,873,873,875,878,878,878,880,880,880,880,880,880,882,882,882,882,882,887,887,887,889,889,889,891,891,894,896,896,896,896,896,896,0,0,0,0,0,0,0,1731,1731,1722,1722,1713,1705,1705,1696,1696,1696,1688,1688,1680,1671,1671,1671,1663,1663,1647,1647,1639,1639,1632,1632,1632,1624,1616,1616,1609,1609,1601,1601,1601,1594,1586,1579,1579,1572,1572,1572,1564,1564,1557,1550,1550,1543,1543,1543,1536,1536,1523,1523,1516,1516,1516,1509,1503,1496,1496,1496,1496,1489,1489,1483,1477,1470,1470,1470,1464,1464,1458,1452,1445,1445,1445,1439,1439,1439,1433,1427,1421,1415,1415,1415,1415,1410,1404,1404,1398,1398,1392,1392,1387,1376,1376,1376,1370,1370,1370,1365,1365,1359,1359,1354,1354,1349,1349,1343,1338,1333,1333,1328,1328,1322,1322,1317,1312,1312,1307,1307,1302,1297,1292,1292,1292,1288,1288,1288,1283,1278,1278,1273,1268,1268,1268,1264,1259,1255,1250,1250,1250,1245,1241,1241,1236,1236,1236,1232,1227,1227,1223,1219,1219,1219,1214,1210,1206,1206,1202,1202,1202,1197,1197,1193,1189,1185,1185,1181,1181,1181,1177,1177,1173,1173,1169,1165,1165,1165,1161,1157,1157,1153,1149,1149,1149,1145,1141,1141,1138,1138,1134,1130,1126,1126,1123,1123,1123,1119,1119,1119,1115,1112,1108,1108,1105,1105,1105,1101,1097,1094,1094,1094,1090,1090,1090,1087,1084,1080,1080,1077,1077,1073,1073,1070,1067,1063,1063,1060,1060,1057,1057,0,0,0,0,0,0,0,0,0,0,0,0,0,0,0,0,0,0,0,0,0,0,0,0,0,0,0,0,0,0,0,0
0,0,0,0,0,0,0,0,0,0,0,0,1794,1794,1794,1785,1785,1776,1776,1785,1785,1785,1785,1785,1785,1785,1785,1785,1785,1785,1785,1794,1794,1785,1785,1794,1794,1794,1794,1794,1804,1804,1804,1804,1794,1794,1794,1794,1794,1804,1804,1804,1804,1804,1804,1804,1794,1794,1794,1794,1794,1794,1794,1794,1794,1794,1794,1794,1794,1804,1794,1794,1794,1794,1794,1785,1785,1785,1785,1776,1776,1766,1766,0,0,0,0,0,0,0,0,0,0,0,0,0,0,0,0,0,749,746,746,746,746,746,746,746,744,744,744,744,744,744,742,742,742,744,746,746,746,744,744,744,742,742,739,739,739,741,738,738,742,741,741,742,739,739,738,736,736,736,736,739,742,742,742,742,741,741,741,741,741,741,741,741,742,742,742,744,746,744,744,746,742,741,741,741,741,741,741,741,741,744,746,746,746,746,744,744,744,744,744,746,746,746,746,746,746,746,744,742,742,744,744,742,742,742,741,741,742,742,742,742,741,741,741,741,741,741,741,741,744,744,744,744,744,742,742,744,744,746,746,746,746,747,747,747,747,747,749,749,750,750,752,752,752,752,754,754,755,757,757,759,759,759,759,759,761,761,761,762,766,766,767,767,767,769,769,771,773,774,774,774,776,780,781,783,781,781,792,792,792,796,800,802,803,803,803,805,807,809,809,809,809,811,811,811,813,813,815,817,819,819,819,819,821,825,825,827,827,829,829,831,831,833,833,835,835,837,839,841,843,843,845,845,847,847,849,851,851,854,854,854,856,858,860,860,862,862,864,867,867,869,869,871,871,873,875,875,878,878,878,880,880,882,882,882,882,882,882,885,885,885,885,887,887,887,889,889,889,891,894,894,896,896,896,896,896,896,0,0,0,0,0,0,0,1731,1731,1722,1722,1722,1713,1705,1705,1696,1696,1688,1688,1680,1671,1671,1671,1663,1663,1647,1647,1639,1639,1632,1632,1632,1624,1616,1616,1609,1609,1609,1601,1601,1594,1586,1579,1579,1572,1572,1572,1564,1564,1557,1550,1550,1543,1543,1543,1536,1536,1523,1523,1516,1516,1516,1509,1503,1496,1496,1496,1496,1489,1489,1483,1477,1470,1470,1470,1464,1464,1458,1452,1452,1445,1445,1445,1439,1439,1433,1427,1421,1421,1415,1415,1415,1410,1410,1404,1398,1398,1392,1392,1387,1381,1376,1376,1370,1370,1370,1365,1365,1359,1359,1354,1354,1349,1349,1343,1338,1333,1333,1328,1328,1322,1322,1317,1312,1312,1312,1307,1302,1302,1297,1292,1292,1288,1288,1288,1283,1278,1278,1273,1268,1268,1268,1264,1259,1255,1250,1250,1250,1245,1241,1241,1236,1236,1236,1232,1232,1227,1223,1223,1223,1219,1214,1214,1210,1206,1202,1202,1202,1197,1197,1189,1189,1185,1185,1181,1181,1181,1177,1177,1173,1173,1169,1165,1165,1165,1161,1157,1157,1153,1149,1149,1149,1145,1141,1141,1138,1138,1134,1130,1126,1126,1123,1123,1123,1119,1119,1119,1115,1112,1108,1108,1105,1105,1105,1101,1097,1094,1094,1094,1094,1090,1090,1087,1084,1080,1080,1077,1077,1073,1073,1070,1067,1067,1063,1060,1060,1057,1057,0,0,0,0,0,0,0,0,0,0,0,0,0,0,0,0,0,0,0,0,0,0,0,0,0,0,0,0,0,0,0,0
0,0,0,0,0,0,0,0,0,0,0,0,1785,1785,1785,1785,1776,1776,1776,1776,1776,1785,1776,1776,1776,1776,1776,1785,1785,1785,1776,1776,1785,1785,1785,1785,1785,1785,1785,1785,1785,1785,1785,1785,1794,1794,1794,1794,1794,1794,1794,1804,1804,1804,1794,1794,1794,1794,1785,1785,1785,1785,1785,1785,1794,1794,1794,1794,1794,1794,1794,1794,1785,1785,1785,1785,1776,1776,1785,1776,1776,1766,1766,1766,0,0,0,0,0,0,0,0,0,0,0,0,0,0,0,0,0,746,746,746,746,746,746,741,739,738,738,739,739,741,741,739,739,739,742,744,742,742,742,741,738,736,736,734,734,734,734,734,736,738,736,736,736,734,734,734,734,734,734,736,739,739,739,739,739,739,739,739,739,739,739,739,739,739,739,739,739,739,739,741,741,739,739,739,739,739,739,739,739,741,742,742,741,741,741,741,741,741,741,742,744,742,742,741,741,736,736,736,736,739,739,739,739,739,739,739,739,739,739,739,738,738,738,741,739,739,738,738,741,741,741,741,741,741,741,741,741,742,742,744,744,744,744,744,746,747,747,749,750,750,750,752,752,752,754,754,755,757,757,759,759,759,759,759,761,761,761,762,766,767,767,767,769,771,771,771,773,774,774,776,789,789,792,792,794,794,794,794,796,798,802,803,803,805,805,807,807,809,809,809,811,811,811,813,813,815,817,817,819,819,819,819,821,825,827,827,827,829,831,831,833,833,833,835,835,839,841,841,843,843,845,845,847,849,849,851,851,854,854,854,856,858,860,860,862,864,864,867,867,869,869,871,871,873,875,875,878,878,880,880,882,882,882,885,885,885,887,887,885,885,885,887,887,889,889,889,891,891,894,896,896,896,896,896,896,896,0,0,0,0,0,0,0,1722,1722,1722,1722,1722,1713,1705,1705,1696,1696,1696,1688,1680,1671,1671,1671,1671,1663,1655,1647,1639,1639,1639,1632,1632,1624,1616,1616,1609,1609,1609,1601,1601,1594,1586,1579,1579,1579,1572,1572,1572,1572,1557,1557,1550,1550,1543,1543,1543,1536,1529,1523,1516,1516,1516,1509,1503,1503,1496,1496,1496,1489,1489,1483,1477,1470,1470,1470,1464,1464,1464,1458,1452,1445,1445,1445,1439,1439,1433,1427,1427,1421,1415,1415,1415,1415,1410,1404,1398,1398,1392,1392,1387,1381,1376,1376,1370,1370,1370,1365,1365,1359,1359,1354,1354,1354,1349,1343,1338,1333,1333,1328,1328,1328,1322,1322,1317,1312,1312,1307,1307,1302,1297,1292,1292,1292,1288,1288,1283,1283,1278,1273,1273,1268,1268,1264,1259,1255,1255,1250,1250,1250,1245,1241,1236,1236,1236,1232,1232,1227,1227,1223,1223,1219,1214,1214,1210,1206,1206,1202,1202,1197,1197,1189,1189,1185,1185,1181,1181,1181,1177,1177,1177,1169,1169,1169,1165,1165,1161,1157,1157,1153,1149,1149,1149,1145,1145,1141,1138,1138,1134,1134,1126,1126,1123,1123,1123,1119,1119,1119,1115,1112,1108,1108,1105,1105,1105,1101,1101,1097,1094,1094,1094,1090,1090,1087,1084,1080,1080,1077,1077,1073,1073,1070,1067,1067,1063,1063,1063,1060,1060,0,0,0,0,0,0,0,0,0,0,0,0,0,0,0,0,0,0,0,0,0,0,0,0,0,0,0,0,0,0,0,0
0,0,0,0,0,0,0,0,0,0,0,0,1776,1776,1776,1776,1766,1766,1766,1766,1776,1776,1776,1776,1776,1776,1776,1776,1776,1776,1776,1776,1776,1776,1776,1776,1776,1785,1785,1785,1785,1785,1776,1776,1776,1776,1776,1776,1785,1794,1794,1794,1794,1794,1785,1776,1776,1776,1776,1776,1776,1776,1785,1785,1785,1785,1785,1785,1785,1785,1785,1785,1776,1776,1776,1776,1776,1776,1776,1776,1776,1766,1766,1766,0,0,0,0,0,0,0,0,0,0,0,0,0,0,0,0,0,746,746,746,746,746,744,741,739,738,738,739,739,739,736,736,736,734,734,734,734,736,738,736,734,734,734,734,734,733,733,733,734,736,734,734,733,733,733,733,733,733,733,734,736,738,738,738,738,738,738,738,736,736,736,736,736,736,736,736,736,736,736,734,733,730,730,736,738,736,736,736,738,738,738,739,738,738,739,739,739,739,739,739,736,736,736,736,734,734,734,733,733,733,734,733,733,734,736,736,736,736,736,736,736,734,734,734,736,736,736,736,736,739,739,739,741,739,739,739,739,741,741,741,742,744,744,744,744,746,747,747,749,750,750,752,752,752,754,754,755,757,757,759,759,759,759,761,761,761,761,762,766,767,767,767,771,773,773,773,774,776,789,789,789,792,792,792,794,794,796,796,798,800,802,803,803,805,805,807,807,809,809,809,811,811,813,813,815,817,817,817,819,819,819,821,823,825,827,827,829,831,831,833,833,833,835,835,835,839,841,843,843,843,845,845,847,849,851,851,854,854,854,856,858,858,860,862,862,864,864,867,869,869,869,871,873,875,875,878,878,878,880,880,882,882,885,885,887,887,887,887,887,887,887,887,887,889,889,889,891,891,894,896,896,896,896,898,896,896,0,0,0,0,0,0,0,1722,1722,1722,1722,1722,1713,1705,1705,1696,1696,1696,1688,1680,1671,1671,1671,1671,1663,1663,1647,1639,1639,1639,1632,1632,1624,1624,1616,1609,1609,1609,1609,1601,1594,1586,1579,1579,1579,1572,1572,1572,1572,1564,1557,1550,1550,1543,1543,1543,1536,1529,1523,1516,1516,1516,1509,1509,1503,1496,1496,1496,1489,1489,1483,1477,1477,1470,1470,1464,1464,1464,1458,1452,1445,1445,1445,1439,1439,1433,1427,1427,1421,1421,1415,1415,1415,1410,1404,1398,1398,1392,1392,1392,1381,1381,1376,1376,1370,1370,1370,1365,1359,1359,1354,1354,1349,1349,1343,1343,1338,1333,1333,1328,1328,1328,1322,1317,1317,1312,1312,1307,1307,1297,1292,1292,1292,1288,1288,1283,1283,1278,1273,1273,1268,1268,1264,1259,1255,1255,1250,1250,1250,1245,1241,1241,1236,1236,1232,1232,1227,1227,1223,1223,1219,1214,1214,1214,1210,1206,1202,1202,1202,1197,1189,1189,1185,1185,1181,1181,1181,1181,1177,1177,1169,1169,1169,1165,1165,1161,1157,1157,1153,1149,1149,1149,1145,1145,1141,1141,1138,1134,1134,1130,1126,1123,1123,1123,1119,1119,1119,1115,1112,1108,1108,1105,1105,1105,1105,1101,1097,1097,1094,1094,1090,1090,1087,1084,1080,1080,1077,1077,1073,1073,1070,1070,1067,1067,1063,1063,1060,1060,0,0,0,0,0,0,0,0,0,0,0,0,0,0,0,0,0,0,0,0,0,0,0,0,0,0,0,0,0,0,0,0
0,0,0,0,0,0,0,0,0,0,0,0,1757,1757,1757,1757,1766,1766,1766,1766,1766,1766,1766,1766,1766,1766,1766,1766,1766,1766,1757,1757,1766,1766,1766,1776,1776,1776,1776,1776,1785,1776,1776,1776,1766,1766,1766,1766,1766,1766,1766,1766,1785,1776,1776,1766,1766,1776,1766,1766,1766,1776,1776,1776,1776,1776,1776,1776,1776,1776,1776,1776,1766,1766,1776,1766,1766,1766,1766,1766,1766,1757,1757,1757,0,0,0,0,0,0,0,0,0,0,0,0,0,0,0,0,0,746,746,744,744,744,744,744,741,734,734,731,731,731,731,734,733,733,733,730,730,730,734,734,733,733,733,733,733,731,731,731,731,731,731,730,730,730,730,730,730,730,730,733,733,733,731,731,733,734,734,734,734,734,734,734,733,733,728,728,733,731,731,731,728,728,728,730,730,730,730,733,733,733,733,734,734,734,738,736,736,738,736,734,734,734,734,734,733,733,733,733,733,733,733,731,731,733,733,733,734,733,733,734,734,734,734,734,734,734,734,734,736,736,738,739,738,738,739,739,739,739,739,741,741,742,742,744,744,746,747,747,749,750,750,752,752,752,754,754,755,757,757,759,759,759,759,761,761,761,762,764,766,767,767,769,773,774,774,774,785,787,789,789,790,794,794,794,794,796,796,796,798,800,802,803,803,805,805,807,807,809,809,811,811,811,813,815,815,817,817,819,819,819,821,821,825,827,827,827,829,831,831,833,833,833,835,835,835,841,841,843,843,845,845,847,847,849,851,854,854,854,856,856,858,860,860,862,864,864,867,867,869,869,871,871,873,875,875,878,878,878,880,880,882,882,885,887,887,887,887,887,887,887,887,889,889,889,889,891,891,891,894,896,896,898,898,898,898,898,0,0,0,0,0,0,0,1713,1713,1713,1713,1713,1713,1705,1705,1705,1696,1696,1688,1680,1671,1671,1671,1671,1663,1663,1647,1639,1639,1639,1632,1632,1632,1624,1616,1609,1609,1609,1609,1601,1601,1594,1586,1579,1579,1579,1572,1572,1564,1564,1557,1550,1550,1543,1543,1536,1536,1529,1523,1523,1516,1516,1509,1509,1503,1503,1496,1496,1496,1489,1489,1483,1477,1470,1470,1470,1464,1464,1458,1452,1452,1445,1445,1439,1439,1433,1433,1427,1421,1421,1415,1415,1415,1410,1404,1398,1398,1398,1392,1392,1381,1381,1376,1376,1376,1370,1370,1365,1359,1359,1354,1354,1349,1349,1343,1343,1338,1333,1333,1333,1328,1328,1322,1317,1317,1312,1312,1307,1302,1297,1292,1292,1292,1288,1288,1283,1283,1278,1273,1273,1268,1268,1264,1259,1255,1255,1255,1250,1250,1245,1245,1241,1236,1236,1232,1232,1227,1227,1223,1223,1219,1219,1214,1214,1210,1206,1206,1202,1202,1197,1193,1189,1185,1185,1181,1181,1181,1181,1177,1177,1177,1169,1169,1165,1165,1161,1157,1153,1153,1153,1149,1149,1145,1145,1141,1141,1138,1138,1134,1130,1126,1126,1123,1123,1119,1119,1119,1115,1112,1108,1108,1105,1105,1105,1105,1101,1097,1097,1094,1094,1090,1090,1087,1084,1080,1080,1077,1077,1073,1073,1070,1070,1067,1067,1063,1063,1060,1060,0,0,0,0,0,0,0,0,0,0,0,0,0,0,0,0,0,0,0,0,0,0,0,0,0,0,0,0,0,0,0,0
0,0,0,0,0,0,0,0,0,0,0,0,1739,1739,1748,1748,1757,1757,1757,1757,1757,1766,1766,1757,1757,1757,1757,1757,1757,1757,1757,1757,1766,1766,1766,1766,1766,1776,1776,1776,1776,1776,1776,1766,1766,1766,1766,1766,1766,1766,1766,1766,1766,1766,1766,1766,1766,1766,1766,1766,1766,1766,1766,1766,1766,1766,1766,1766,1766,1766,1766,1766,1766,1766,1766,1757,1757,1757,1766,1766,1757,1757,1757,1757,1766,0,0,0,0,0,0,0,0,0,0,0,0,0,0,0,0,0,0,744,744,742,742,742,733,731,728,728,728,728,731,731,728,728,728,728,728,728,733,731,731,731,731,731,731,730,730,730,730,728,728,728,728,728,728,728,728,728,728,728,728,728,727,727,727,730,731,730,730,733,733,731,731,728,728,728,727,727,727,727,727,727,727,727,727,727,727,727,727,728,728,731,731,731,731,731,733,734,734,730,730,730,733,733,731,731,731,731,731,731,731,731,731,731,731,731,731,731,731,733,733,733,733,733,733,733,734,734,734,734,734,736,736,736,738,738,739,739,739,739,741,741,742,744,744,746,747,747,749,750,750,752,752,752,754,754,755,757,757,759,759,759,761,761,761,762,762,766,767,767,769,771,776,776,781,781,787,787,789,789,790,794,794,794,796,796,798,798,800,802,802,803,805,805,807,807,809,809,809,811,811,813,813,815,815,817,817,819,819,821,823,823,825,827,827,829,829,831,833,833,833,833,835,835,837,841,843,843,845,845,847,847,849,851,851,854,854,854,856,858,860,860,862,864,864,867,867,867,869,869,871,871,873,875,875,878,878,880,880,880,882,885,885,887,887,887,887,887,887,887,887,889,889,889,891,891,894,894,896,896,898,898,898,898,898,901,0,0,0,0,0,0,0,1696,1696,1705,1713,1713,1705,1705,1705,1696,1696,1696,1688,1680,1680,1671,1671,1671,1663,1663,1647,1647,1639,1639,1632,1632,1632,1624,1624,1616,1616,1609,1609,1601,1601,1594,1586,1579,1579,1579,1572,1572,1564,1564,1557,1550,1550,1543,1543,1536,1536,1529,1523,1523,1516,1516,1509,1509,1503,1503,1496,1496,1496,1489,1489,1483,1477,1477,1470,1470,1464,1464,1458,1452,1452,1445,1445,1439,1439,1433,1433,1427,1421,1421,1415,1410,1410,1410,1404,1398,1398,1398,1398,1392,1392,1381,1376,1376,1376,1370,1370,1365,1359,1359,1354,1354,1349,1349,1343,1343,1338,1338,1333,1333,1333,1328,1328,1322,1317,1312,1312,1307,1302,1297,1292,1292,1292,1288,1288,1283,1283,1278,1273,1268,1268,1268,1264,1259,1259,1255,1255,1250,1250,1250,1245,1241,1236,1236,1232,1232,1232,1227,1223,1223,1219,1219,1214,1214,1210,1210,1206,1202,1202,1197,1193,1189,1185,1185,1185,1185,1185,1181,1181,1177,1177,1169,1169,1165,1165,1157,1157,1153,1153,1153,1149,1149,1149,1145,1141,1141,1138,1138,1134,1130,1126,1126,1123,1123,1123,1119,1119,1115,1112,1108,1108,1105,1105,1105,1105,1101,1097,1097,1094,1094,1090,1090,1087,1084,1080,1080,1077,1077,1073,1073,1070,1070,1067,1067,1063,1063,1060,1060,0,0,0,0,0,0,0,0,0,0,0,0,0,0,0,0,0,0,0,0,0,0,0,0,0,0,0,0,0,0,0,0
0,0,0,0,0,0,0,0,0,0,0,0,1731,1731,1739,1748,1748,1748,1757,1757,1757,1757,1757,1757,1748,1748,1748,1748,1748,1748,1748,1748,1757,1757,1757,1757,1757,1766,1766,1766,1766,1766,1766,1766,1757,1757,1757,1757,1757,1757,1757,1757,1757,1757,1757,1757,1757,1757,1757,1766,1766,1766,1766,1766,1766,1757,1757,1757,1757,1757,1757,1757,1757,1757,1757,1757,1748,1748,1766,1757,1757,1757,1757,1757,1766,0,0,0,0,0,0,0,0,0,0,0,0,0,0,0,0,0,0,744,744,742,742,742,733,725,723,723,723,725,725,727,728,728,727,727,727,727,727,728,728,725,725,728,727,727,727,727,727,727,727,727,728,727,727,728,728,728,727,727,725,725,723,723,723,723,722,722,723,727,728,727,727,727,727,725,725,725,725,725,725,725,725,725,725,725,723,723,723,725,723,723,725,725,725,727,728,728,728,728,728,727,725,725,725,730,730,730,730,728,728,728,728,728,728,728,728,730,730,730,730,730,731,731,731,733,733,733,733,734,734,734,736,736,738,738,739,739,739,739,741,741,742,742,744,746,747,747,749,750,750,752,752,752,754,754,755,757,757,759,759,761,761,761,762,762,766,767,767,767,778,778,780,783,783,787,787,789,789,790,792,794,794,796,796,796,798,798,800,802,803,803,805,805,807,807,809,809,811,811,813,813,815,815,817,817,819,819,821,821,823,825,825,827,827,829,831,833,833,833,833,835,835,837,837,841,843,843,845,845,847,849,849,851,854,854,854,856,856,858,860,860,862,864,867,867,867,869,869,869,871,871,873,875,875,878,878,880,880,880,882,885,887,887,887,887,889,887,887,887,889,889,889,891,891,894,894,896,896,898,898,898,898,901,901,901,0,0,0,0,0,0,1696,1696,1696,1705,1705,1705,1705,1705,1705,1696,1696,1688,1688,1680,1680,1671,1671,1671,1663,1663,1655,1647,1639,1639,1632,1632,1632,1632,1624,1624,1616,1616,1609,1601,1601,1594,1586,1579,1579,1579,1572,1572,1572,1564,1557,1550,1550,1543,1543,1543,1536,1529,1523,1523,1516,1516,1516,1509,1509,1503,1503,1496,1496,1496,1489,1489,1483,1477,1470,1470,1464,1464,1458,1452,1452,1445,1445,1439,1439,1439,1433,1427,1421,1421,1415,1410,1410,1404,1404,1398,1398,1398,1398,1392,1392,1387,1381,1376,1376,1376,1370,1365,1359,1359,1354,1354,1354,1349,1343,1343,1338,1338,1333,1333,1333,1328,1328,1322,1317,1317,1312,1312,1302,1297,1292,1292,1292,1288,1288,1283,1283,1278,1273,1268,1268,1268,1264,1259,1259,1255,1255,1250,1250,1250,1245,1241,1236,1236,1232,1232,1232,1227,1227,1223,1219,1219,1214,1214,1210,1210,1206,1202,1202,1197,1193,1189,1185,1185,1185,1185,1185,1181,1181,1181,1177,1169,1169,1165,1165,1157,1157,1153,1153,1153,1149,1149,1149,1145,1141,1141,1138,1138,1134,1134,1130,1126,1123,1123,1123,1119,1119,1115,1112,1108,1108,1105,1105,1105,1105,1101,1097,1097,1094,1094,1090,1090,1087,1084,1080,1080,1077,1077,1073,1073,1070,1070,1067,1067,1063,1063,1060,1060,0,0,0,0,0,0,0,0,0,0,0,0,0,0,0,0,0,0,0,0,0,0,0,0,0,0,0,0,0,0,0,0
0,0,0,0,0,0,0,0,0,0,0,0,1731,1731,1739,1739,1748,1748,1748,1757,1757,1748,1748,1748,1748,1739,1739,1748,1739,1739,1739,1748,1748,1748,1748,1757,1757,1757,1757,1757,1757,1757,1757,1757,1748,1748,1748,1748,1748,1748,1748,1748,1757,1757,1757,1757,1757,1757,1757,1757,1757,1757,1757,1757,1757,1748,1748,1748,1748,1748,1748,1748,1748,1757,1757,1748,1739,1739,1748,1748,1739,1739,1748,1748,1766,0,0,0,0,0,0,0,0,0,0,0,0,0,0,0,0,0,0,744,744,742,742,727,727,725,722,722,720,720,720,720,722,727,725,725,723,723,723,723,723,723,723,725,725,725,725,725,725,725,725,725,725,725,725,727,727,725,725,723,723,722,722,722,722,722,722,722,722,723,725,725,725,725,725,725,720,720,722,722,722,722,723,723,723,723,722,722,723,723,722,722,722,722,720,720,720,720,725,725,725,725,723,723,723,723,723,727,727,725,725,725,725,725,725,725,725,727,728,728,728,728,730,731,731,731,733,733,733,733,733,734,734,736,736,738,739,739,739,739,741,741,742,742,746,747,747,749,750,750,750,752,752,754,754,755,755,757,759,761,761,761,761,761,766,767,778,778,780,780,780,781,785,785,785,787,787,789,789,790,794,794,796,796,796,796,798,798,800,802,803,803,805,805,807,809,809,809,811,811,813,815,815,815,817,819,819,819,821,823,823,825,825,827,827,829,831,833,833,835,835,835,835,837,839,843,843,845,845,845,847,849,851,851,854,854,854,856,856,858,860,860,862,867,867,867,869,869,869,869,871,871,873,875,878,878,878,880,880,880,885,887,887,889,889,889,889,889,889,889,889,889,891,891,894,894,896,896,898,898,898,901,901,901,901,0,0,0,0,0,0,0,1696,1696,1696,1705,1696,1696,1696,1696,1696,1696,1696,1688,1688,1680,1680,1671,1671,1671,1663,1663,1655,1647,1639,1639,1639,1632,1632,1632,1632,1624,1624,1616,1609,1601,1601,1594,1586,1586,1579,1579,1579,1572,1572,1564,1557,1557,1550,1543,1543,1543,1536,1536,1529,1523,1523,1516,1516,1516,1509,1503,1503,1496,1496,1496,1489,1489,1483,1477,1470,1464,1464,1464,1458,1452,1452,1445,1445,1445,1439,1439,1433,1427,1421,1421,1415,1410,1410,1404,1404,1398,1398,1398,1398,1392,1392,1392,1381,1376,1376,1376,1370,1365,1359,1359,1354,1354,1354,1349,1343,1343,1338,1338,1333,1333,1333,1328,1328,1322,1317,1317,1312,1307,1302,1302,1297,1292,1292,1288,1288,1283,1283,1278,1273,1268,1268,1268,1264,1259,1259,1255,1255,1250,1250,1250,1245,1245,1241,1236,1232,1232,1232,1227,1227,1223,1219,1219,1214,1214,1210,1210,1206,1206,1202,1197,1193,1193,1189,1185,1185,1185,1185,1185,1181,1181,1177,1169,1169,1165,1165,1157,1157,1153,1153,1153,1149,1149,1149,1145,1145,1138,1138,1138,1138,1134,1130,1130,1126,1126,1123,1119,1119,1115,1112,1108,1108,1108,1105,1105,1105,1101,1097,1097,1094,1094,1090,1090,1087,1084,1080,1080,1077,1077,1077,1073,1073,1070,1067,1067,1063,1063,1063,1063,0,0,0,0,0,0,0,0,0,0,0,0,0,0,0,0,0,0,0,0,0,0,0,0,0,0,0,0,0,0,0,0
0,0,0,0,0,0,0,0,0,0,0,0,1731,1731,1731,1731,1731,1731,1739,1748,1748,1739,1739,1739,1739,1739,1739,1739,1739,1739,1739,1739,1739,1739,1739,1748,1748,1757,1748,1748,1748,1748,1748,1748,1748,1748,1748,1748,1748,1739,1739,1739,1748,1748,1748,1757,1757,1757,1757,1757,1757,1748,1748,1748,1748,1748,1748,1748,1748,1748,1748,1748,1748,1748,1748,1748,1739,1739,1739,1739,1739,1739,1748,1748,1757,1766,0,0,0,0,0,0,0,0,0,0,0,0,0,0,0,0,0,0,744,742,742,727,727,720,720,719,717,717,717,717,717,719,719,719,720,722,722,720,720,722,722,723,723,723,723,723,723,723,723,720,720,719,719,725,725,725,723,722,722,722,720,720,720,720,719,719,719,719,717,717,717,720,720,720,720,720,720,720,720,720,722,722,722,720,720,720,720,720,720,719,719,719,719,719,719,719,719,719,720,720,722,722,722,722,722,722,722,722,722,722,723,723,723,723,723,725,725,727,727,728,728,730,730,731,731,731,733,733,733,734,734,736,736,738,739,739,739,739,742,742,742,744,746,747,747,749,750,750,752,752,754,754,755,757,759,759,761,762,762,766,766,773,776,780,780,780,781,781,781,783,785,785,785,787,789,789,789,790,794,794,796,796,796,796,798,800,802,802,803,803,805,805,807,809,809,811,811,813,815,815,817,817,817,819,819,821,821,823,825,825,827,827,829,829,831,833,833,835,835,835,839,839,841,845,845,845,845,847,849,851,851,851,854,854,854,856,858,858,860,862,867,867,867,867,869,869,869,871,871,871,871,875,875,878,878,880,880,885,889,891,891,889,889,889,889,889,889,889,889,891,891,894,894,894,896,896,898,898,901,901,901,903,903,903,0,0,0,0,0,0,1696,1696,1696,1696,1696,1696,1696,1696,1696,1688,1688,1680,1680,1680,1671,1671,1671,1671,1663,1663,1655,1647,1639,1639,1639,1639,1639,1632,1632,1632,1624,1624,1609,1609,1601,1594,1586,1586,1579,1579,1579,1572,1572,1564,1564,1557,1550,1543,1543,1543,1536,1536,1529,1523,1523,1516,1516,1516,1509,1509,1503,1503,1496,1496,1489,1489,1483,1477,1470,1464,1464,1464,1458,1452,1452,1445,1445,1445,1439,1439,1439,1433,1427,1421,1415,1410,1410,1404,1404,1398,1398,1398,1398,1392,1392,1392,1381,1381,1376,1376,1370,1365,1365,1359,1354,1354,1349,1349,1349,1343,1343,1338,1338,1333,1333,1328,1328,1322,1322,1317,1312,1307,1302,1302,1297,1292,1292,1292,1288,1288,1283,1283,1278,1268,1268,1268,1264,1259,1259,1255,1255,1250,1250,1250,1250,1245,1241,1236,1236,1232,1232,1227,1227,1223,1219,1219,1214,1214,1214,1210,1206,1206,1202,1197,1193,1193,1189,1189,1185,1185,1185,1185,1185,1181,1181,1169,1169,1165,1165,1161,1157,1153,1153,1153,1149,1149,1149,1149,1145,1138,1138,1138,1138,1134,1134,1130,1126,1126,1123,1123,1119,1115,1112,1112,1108,1108,1108,1105,1105,1101,1101,1097,1094,1094,1090,1090,1090,1087,1080,1080,1080,1077,1077,1073,1073,1070,1067,1067,1067,1063,1063,1063,0,0,0,0,0,0,0,0,0,0,0,0,0,0,0,0,0,0,0,0,0,0,0,0,0,0,0,0,0,0,0,0
0,0,0,0,0,0,0,0,0,0,0,0,1731,1731,1731,1731,1731,1731,1731,1739,1739,1739,1739,1739,1739,1731,1731,1739,1731,1731,1731,1731,1731,1731,1739,1739,1739,1748,1739,1739,1739,1748,1748,1739,1739,1739,1739,1739,1739,1739,1731,1731,1739,1739,1748,1748,1748,1748,1757,1748,1748,1748,1748,1748,1739,1739,1739,1739,1739,1739,1739,1739,1739,1748,1748,1739,1739,1739,1739,1739,1739,1739,1739,1748,1757,1766,0,0,0,0,0,0,0,0,0,0,0,0,0,0,0,0,0,0,0,0,0,0,0,717,717,716,716,714,714,714,714,716,716,716,716,714,714,714,714,719,719,720,720,720,722,722,722,722,720,717,717,717,717,717,720,716,716,716,716,716,720,716,716,714,714,717,716,716,716,716,716,716,717,717,719,719,719,720,720,720,720,720,719,719,719,719,717,717,717,717,717,717,717,717,716,716,717,717,717,717,717,717,717,717,719,719,720,722,722,722,722,722,723,723,723,723,725,725,727,727,728,728,730,731,731,731,733,733,733,734,736,736,738,739,739,739,739,741,742,742,744,744,746,747,749,750,752,752,754,754,754,755,757,759,761,762,773,773,773,774,774,776,778,780,780,780,781,781,783,785,787,787,787,787,789,789,790,792,794,794,796,796,796,798,798,800,802,802,803,803,805,807,807,809,809,811,811,813,815,815,817,817,819,819,821,821,823,823,825,827,827,827,829,831,833,833,835,835,835,837,839,839,841,845,845,847,847,849,849,851,851,854,854,856,856,856,858,860,860,862,867,867,867,867,869,869,869,871,871,871,871,875,875,878,878,880,898,894,894,894,891,889,889,889,889,889,889,889,889,891,891,894,894,896,896,898,898,901,901,903,903,903,903,903,0,0,0,0,0,0,1696,1696,1696,1696,1696,1696,1688,1688,1688,1688,1680,1680,1680,1671,1671,1671,1671,1671,1663,1663,1655,1647,1647,1639,1639,1639,1639,1632,1632,1632,1624,1624,1616,1609,1601,1594,1586,1586,1579,1579,1579,1579,1572,1572,1564,1557,1550,1550,1543,1543,1536,1536,1529,1523,1523,1516,1516,1516,1509,1509,1503,1503,1496,1496,1496,1489,1483,1483,1470,1470,1464,1464,1458,1452,1452,1445,1445,1445,1439,1439,1439,1433,1421,1421,1415,1415,1410,1404,1404,1398,1398,1398,1398,1392,1392,1392,1392,1381,1381,1376,1376,1370,1365,1365,1359,1354,1349,1349,1349,1343,1343,1338,1338,1333,1333,1328,1328,1322,1322,1317,1312,1307,1302,1302,1297,1292,1292,1292,1288,1288,1288,1283,1278,1273,1268,1268,1264,1264,1259,1255,1255,1255,1250,1250,1250,1245,1241,1236,1236,1232,1232,1232,1227,1223,1219,1219,1219,1214,1214,1210,1210,1206,1202,1197,1197,1193,1193,1189,1189,1189,1185,1185,1185,1181,1181,1169,1169,1169,1165,1161,1157,1153,1153,1153,1149,1149,1149,1149,1145,1138,1138,1138,1138,1134,1134,1130,1126,1126,1123,1123,1119,1115,1115,1112,1108,1108,1108,1105,1105,1101,1101,1097,1097,1094,1090,1090,1090,1087,1080,1080,1080,1077,1077,1073,1073,1073,1070,1067,1067,1063,1063,1063,0,0,0,0,0,0,0,0,0,0,0,0,0,0,0,0,0,0,0,0,0,0,0,0,0,0,0,0,0,0,0,0
0,0,0,0,0,0,0,0,0,0,0,0,1731,1731,1731,1731,1722,1722,1722,1731,1731,1731,1731,1731,1731,1731,1731,1731,1731,1731,1731,1731,1731,1731,1731,1731,1731,1731,1722,1722,1731,1731,1731,1731,1731,1731,1731,1731,1731,1731,1731,1731,1731,1739,1739,1739,1748,1748,1748,1739,1739,1739,1739,1739,1731,1731,1731,1731,1731,1731,1731,1731,1731,1731,1739,1739,1731,1731,1739,1739,1731,1731,1731,1739,0,0,0,0,0,0,0,0,0,0,0,0,0,0,0,0,0,0,0,0,0,0,0,0,0,717,716,716,714,714,714,713,713,713,713,711,711,711,710,710,710,710,710,710,719,719,719,720,719,719,717,717,716,714,713,713,713,713,714,714,714,714,714,714,714,713,711,711,711,711,713,713,714,714,714,714,716,716,717,716,716,717,717,717,716,716,716,717,716,716,716,716,714,714,714,714,714,714,716,716,716,716,716,716,716,716,716,716,717,720,720,720,720,722,722,722,722,723,723,725,725,727,728,728,730,731,731,731,733,733,733,734,736,736,738,739,739,739,741,742,742,742,744,746,747,749,750,752,754,754,754,754,755,757,762,764,767,773,773,773,773,774,774,776,778,780,780,780,781,781,783,785,787,787,787,789,789,789,790,792,794,796,796,798,798,798,800,800,802,803,803,805,805,807,809,809,811,811,811,813,815,815,817,817,819,821,821,823,823,825,825,827,827,829,831,831,833,835,835,837,837,837,841,841,841,845,847,847,849,851,851,851,854,854,854,856,856,856,858,860,860,862,867,867,867,869,869,869,871,871,871,871,873,875,0,0,0,898,898,898,898,896,894,891,889,889,889,889,889,889,889,891,894,894,896,896,898,898,901,903,903,903,903,906,906,906,0,0,0,0,0,0,1688,1688,1688,1688,1688,1688,1688,1680,1680,1680,1680,1671,1671,1671,1671,1671,1671,1671,1663,1663,1655,1655,1647,1639,1639,1639,1639,1639,1632,1632,1632,1624,1616,1609,1601,1601,1594,1586,1579,1579,1579,1579,1572,1572,1564,1557,1550,1550,1543,1543,1536,1536,1529,1523,1523,1516,1516,1516,1509,1509,1503,1503,1496,1496,1489,1489,1483,1483,1470,1470,1464,1464,1458,1458,1452,1445,1445,1445,1439,1439,1439,1433,1421,1421,1421,1415,1415,1410,1410,1404,1398,1398,1398,1392,1392,1392,1387,1381,1381,1376,1376,1370,1365,1365,1359,1354,1354,1349,1349,1343,1343,1338,1333,1333,1333,1328,1328,1328,1322,1322,1317,1307,1302,1302,1297,1292,1292,1292,1288,1288,1288,1283,1278,1278,1268,1268,1264,1264,1259,1255,1255,1255,1250,1250,1250,1245,1241,1236,1236,1232,1232,1232,1227,1223,1219,1219,1219,1214,1214,1210,1210,1206,1202,1197,1197,1197,1193,1189,1189,1189,1185,1185,1185,1181,1181,1177,1169,1169,1165,1161,1161,1157,1153,1153,1153,1149,1149,1149,1145,1141,1141,1138,1138,1134,1134,1130,1126,1126,1123,1123,1119,1119,1115,1112,1108,1108,1108,1105,1105,1101,1101,1097,1097,1094,1090,1090,1090,1087,1084,1084,1080,1077,1077,1073,1073,1073,1070,1067,1067,1063,1063,1063,0,0,0,0,0,0,0,0,0,0,0,0,0,0,0,0,0,0,0,0,0,0,0,0,0,0,0,0,0,0,0,0
0,0,0,0,0,0,0,0,0,0,0,0,1731,1731,1722,1722,1722,1722,1722,1722,1722,1722,1722,1722,1722,1722,1722,1731,1731,1722,1722,1731,1731,1731,1722,1722,1722,1722,1722,1722,1722,1731,1731,1731,1731,1731,1731,1722,1722,1722,1722,1722,1731,1731,1731,1731,1739,1739,1739,1739,1731,1731,1731,1731,1731,1722,1722,1722,1731,1731,1722,1722,1731,1731,1731,1722,1722,1722,1731,1731,1731,1731,1731,1739,0,0,0,0,0,0,0,0,0,0,0,0,0,0,0,0,0,0,0,0,0,0,0,0,0,0,716,713,713,713,711,711,711,711,711,711,710,710,710,710,708,708,708,710,713,714,714,714,716,716,714,711,711,710,710,710,713,713,711,711,713,713,713,713,713,711,710,710,710,710,710,710,711,711,711,711,714,714,713,713,713,714,714,714,713,713,714,714,714,713,713,713,713,713,713,713,713,713,714,714,714,714,714,714,714,714,714,714,716,717,719,719,720,720,722,722,722,722,723,725,725,727,728,728,730,731,731,733,733,733,733,734,736,736,738,739,739,741,741,742,742,742,744,746,747,754,754,755,755,755,755,755,764,764,766,767,771,773,773,774,774,776,776,776,778,780,780,780,781,781,783,785,787,787,787,789,789,789,790,794,796,796,798,798,798,800,800,802,802,803,803,805,807,809,809,811,811,811,813,815,815,817,817,819,819,821,821,823,823,825,827,827,829,829,831,833,833,835,835,837,839,839,841,841,843,845,847,847,849,851,851,854,854,854,854,856,856,856,858,860,860,862,864,867,867,869,869,871,871,871,871,0,0,0,0,0,0,908,903,901,901,898,896,894,891,891,889,889,889,889,891,891,894,894,896,896,898,898,901,903,903,903,906,906,906,906,0,0,0,0,0,0,1688,1680,1680,1680,1671,1671,1671,1671,1671,1671,1671,1671,1671,1671,1671,1671,1663,1663,1663,1655,1655,1655,1647,1647,1639,1639,1639,1639,1632,1632,1632,1624,1616,1609,1601,1601,1594,1586,1579,1579,1579,1579,1572,1572,1564,1557,1550,1550,1543,1543,1543,1536,1529,1523,1523,1516,1516,1516,1509,1509,1509,1503,1496,1496,1489,1489,1483,1483,1470,1470,1464,1464,1458,1458,1452,1452,1445,1445,1445,1439,1439,1433,1421,1421,1421,1415,1415,1410,1410,1404,1404,1398,1398,1398,1392,1392,1387,1381,1381,1376,1376,1370,1365,1365,1359,1359,1354,1349,1349,1343,1343,1338,1333,1333,1333,1328,1328,1328,1322,1322,1312,1307,1307,1302,1297,1292,1292,1292,1288,1288,1288,1288,1283,1278,1268,1268,1268,1264,1259,1259,1255,1255,1255,1250,1250,1245,1241,1236,1236,1232,1232,1232,1227,1223,1223,1219,1219,1214,1214,1210,1210,1206,1202,1202,1197,1197,1193,1193,1189,1189,1185,1185,1185,1181,1181,1177,1169,1169,1165,1165,1161,1157,1153,1153,1153,1149,1149,1149,1145,1141,1141,1138,1138,1134,1134,1130,1126,1126,1123,1123,1119,1119,1119,1115,1112,1108,1108,1108,1105,1105,1101,1097,1097,1094,1094,1090,1090,1087,1084,1084,1080,1080,1077,1077,1077,1073,1070,1067,1067,1067,1063,1063,0,0,0,0,0,0,0,0,0,0,0,0,0,0,0,0,0,0,0,0,0,0,0,0,0,0,0,0,0,0,0,0
0,0,0,0,0,0,0,0,0,0,0,0,1722,1722,1722,1722,1713,1713,1713,1713,1713,1722,1722,1722,1722,1722,1722,1722,1722,1722,1722,1722,1722,1722,1722,1722,1722,1722,1713,1713,1722,1722,1722,1722,1722,1722,1722,1722,1722,1722,1722,1722,1722,1722,1722,1731,1731,1731,1731,1731,1731,1722,1722,1722,1722,1722,1722,1722,1722,1722,1722,1722,1722,1722,1722,1713,1713,1713,1713,1722,1713,1713,1731,1739,0,0,0,0,0,0,0,0,0,0,0,0,0,0,0,0,0,0,0,0,0,0,0,0,0,713,713,713,713,711,710,710,710,710,710,710,708,707,707,707,707,707,707,704,704,704,704,707,707,707,708,708,708,708,708,708,708,708,708,708,710,710,708,708,708,708,708,708,708,708,708,710,710,710,710,710,711,711,710,710,710,710,711,710,710,711,713,713,713,711,711,713,711,711,711,711,711,711,713,713,714,714,714,714,714,714,714,714,716,716,717,719,719,720,720,722,722,722,723,725,725,727,728,728,730,731,731,733,733,733,734,734,736,736,739,739,741,741,741,744,744,744,747,750,759,759,757,757,761,761,764,766,766,766,767,769,771,773,774,774,774,776,776,776,780,780,780,781,781,783,785,785,787,787,789,789,789,790,790,794,796,796,798,798,800,800,802,802,803,803,805,805,807,809,809,811,811,811,813,815,817,817,817,819,819,821,821,823,823,825,827,827,829,831,831,833,833,835,835,837,839,841,841,841,843,845,847,849,849,851,851,854,854,854,854,856,856,856,858,860,860,862,864,867,867,869,869,871,871,871,0,0,0,0,0,0,0,908,906,903,903,903,901,896,894,894,889,889,889,889,891,894,894,896,896,896,898,898,901,903,903,903,906,906,906,906,0,0,0,0,0,0,1680,1671,1671,1671,1671,1671,1671,1671,1671,1671,1671,1671,1671,1663,1663,1663,1663,1663,1663,1655,1655,1647,1647,1639,1639,1639,1639,1639,1632,1632,1632,1616,1616,1609,1601,1601,1594,1594,1586,1579,1579,1579,1579,1572,1564,1557,1557,1550,1550,1543,1543,1536,1529,1523,1523,1516,1516,1516,1516,1509,1509,1503,1503,1496,1489,1489,1483,1477,1470,1470,1464,1464,1458,1458,1452,1452,1445,1445,1445,1439,1439,1427,1421,1421,1421,1415,1415,1415,1410,1404,1404,1398,1398,1398,1392,1392,1387,1387,1381,1376,1376,1370,1370,1365,1359,1354,1354,1349,1349,1349,1343,1338,1338,1333,1333,1328,1328,1328,1322,1322,1312,1312,1307,1307,1302,1297,1292,1292,1292,1288,1288,1288,1283,1278,1273,1268,1268,1264,1259,1259,1255,1255,1255,1250,1250,1245,1241,1236,1236,1232,1232,1232,1227,1223,1223,1219,1219,1214,1214,1210,1210,1206,1206,1202,1197,1197,1193,1193,1189,1189,1185,1185,1185,1181,1181,1177,1169,1169,1165,1165,1161,1161,1157,1153,1153,1149,1149,1149,1145,1141,1141,1138,1138,1134,1134,1130,1130,1126,1123,1123,1119,1119,1119,1115,1112,1108,1108,1108,1105,1105,1101,1097,1097,1094,1094,1090,1090,1090,1084,1084,1080,1080,1077,1077,1077,1073,1070,1067,1067,1067,1063,1063,0,0,0,0,0,0,0,0,0,0,0,0,0,0,0,0,0,0,0,0,0,0,0,0,0,0,0,0,0,0,0,0
0,0,0,0,0,0,0,0,0,0,0,0,1722,1722,1713,1713,1713,1713,1713,1713,1713,1713,1713,1713,1713,1722,1722,1722,1722,1722,1722,1722,1722,1713,1713,1713,1713,1705,1705,1705,1713,1713,1713,1713,1722,1722,1722,1713,1713,1713,1713,1713,1713,1713,1713,1722,1722,1722,1722,1722,1722,1722,1722,1722,1713,1713,1713,1713,1713,1713,1705,1705,1713,1713,1713,1705,1705,1713,1713,1713,1713,1713,1713,1713,0,0,0,0,0,0,0,0,0,0,0,0,0,0,0,0,0,0,0,0,0,0,0,0,0,710,710,710,710,708,708,708,707,707,707,707,707,706,706,706,704,704,704,704,704,704,704,704,704,704,706,706,706,706,706,706,707,707,706,706,707,707,706,706,706,706,706,707,707,707,707,707,707,707,708,708,708,708,708,708,707,707,708,708,708,710,710,710,710,710,708,708,710,710,710,710,710,710,711,711,713,713,713,714,714,714,714,714,716,716,717,719,719,720,720,722,722,722,723,725,725,727,728,728,731,731,733,733,734,734,734,736,738,738,739,741,741,741,742,746,747,747,747,759,759,761,761,761,762,764,766,766,767,767,769,771,773,773,774,774,776,776,776,778,780,780,780,781,781,783,785,787,787,787,789,789,790,790,792,796,796,796,798,800,800,802,802,802,803,803,805,807,807,809,809,811,811,813,815,815,817,819,819,819,821,821,821,823,825,825,827,829,829,831,831,833,835,835,837,839,839,841,843,843,843,847,847,849,849,851,851,854,854,854,856,856,858,858,860,860,860,862,864,867,867,869,871,871,0,0,0,0,0,0,0,0,0,908,906,906,903,903,901,898,896,894,891,889,889,891,891,894,894,896,896,898,898,901,901,903,903,906,906,906,906,906,0,0,0,0,0,0,1671,1663,1663,1663,1663,1663,1663,1663,1663,1663,1663,1663,1663,1663,1663,1663,1663,1663,1655,1655,1655,1647,1647,1639,1639,1639,1639,1632,1632,1632,1632,1616,1616,1609,1609,1601,1601,1594,1586,1579,1579,1579,1579,1572,1572,1564,1557,1550,1550,1550,1543,1543,1536,1523,1523,1516,1516,1516,1516,1509,1509,1509,1503,1496,1496,1489,1489,1477,1477,1470,1470,1464,1458,1458,1452,1452,1445,1445,1445,1439,1439,1427,1421,1421,1421,1421,1415,1415,1415,1410,1404,1398,1398,1398,1398,1392,1387,1387,1381,1376,1376,1370,1370,1365,1359,1354,1354,1349,1349,1349,1343,1338,1338,1333,1333,1333,1328,1328,1322,1322,1312,1312,1307,1307,1302,1297,1292,1292,1292,1288,1288,1288,1283,1278,1273,1268,1268,1264,1259,1259,1255,1255,1255,1250,1250,1250,1241,1236,1236,1236,1232,1232,1227,1227,1223,1219,1219,1219,1214,1210,1210,1206,1206,1202,1197,1197,1197,1193,1193,1189,1185,1185,1185,1181,1181,1177,1169,1169,1165,1165,1165,1161,1157,1153,1153,1153,1149,1149,1145,1141,1141,1138,1138,1134,1134,1134,1130,1126,1123,1123,1123,1119,1119,1119,1115,1108,1108,1108,1105,1105,1101,1101,1097,1094,1094,1090,1090,1090,1090,1084,1084,1080,1077,1077,1077,1073,1070,1070,1070,1067,1067,1067,0,0,0,0,0,0,0,0,0,0,0,0,0,0,0,0,0,0,0,0,0,0,0,0,0,0,0,0,0,0,0,0
0,0,0,0,0,0,0,0,0,0,0,0,1713,1713,1713,1713,1705,1705,1705,1705,1705,1705,1705,1705,1705,1713,1713,1713,1713,1713,1713,1713,1713,1713,1705,1705,1696,1696,1696,1696,1696,1696,1705,1705,1713,1713,1713,1713,1713,1713,1713,1713,1713,1713,1713,1713,1713,1713,1713,1722,1713,1713,1713,1713,1713,1705,1705,1705,1705,1705,1696,1696,1696,1696,1705,1696,1696,1696,1705,1705,1705,1705,1696,1696,0,0,0,0,0,0,0,0,0,0,0,0,0,0,0,0,0,0,0,0,0,0,0,0,708,708,708,708,708,707,706,706,704,704,704,704,706,706,704,704,704,704,703,703,703,703,703,703,703,703,704,704,704,704,703,703,703,703,703,704,703,703,703,703,703,703,703,703,701,700,700,703,703,703,703,703,704,704,707,707,704,704,704,704,706,706,706,707,707,704,704,704,707,708,708,708,710,710,710,710,711,713,713,713,714,714,714,714,716,716,717,719,719,720,720,722,722,723,723,725,727,727,728,728,730,731,733,733,734,734,736,736,738,739,741,742,742,742,750,750,752,755,759,759,761,761,762,762,764,766,766,767,767,769,771,771,773,773,774,774,776,776,776,778,780,780,781,781,781,783,785,787,787,789,789,789,790,792,794,796,796,798,798,800,802,802,802,803,803,805,805,807,809,809,809,811,811,813,815,817,817,819,819,821,821,821,823,825,825,827,827,829,831,831,833,833,835,835,837,839,841,841,843,843,843,847,849,849,851,851,854,854,854,856,856,858,858,858,860,860,860,860,1647,1647,1655,1647,0,0,0,0,0,0,0,0,0,0,0,908,908,906,906,903,901,898,896,894,891,891,891,891,894,894,896,896,898,898,898,901,901,903,906,906,906,908,906,906,908,0,0,0,0,0,1671,1663,1663,1663,1655,1655,1663,1663,1663,1663,1663,1655,1655,1655,1655,1655,1655,1655,1655,1647,1647,1647,1639,1639,1639,1639,1632,1632,1632,1632,1632,1616,1616,1609,1609,1601,1601,1594,1586,1579,1579,1579,1579,1572,1572,1564,1564,1557,1550,1550,1543,1543,1536,1523,1523,1516,1516,1516,1516,1509,1509,1509,1503,1496,1496,1489,1489,1477,1477,1470,1470,1464,1464,1458,1458,1452,1445,1445,1445,1439,1439,1427,1421,1421,1421,1421,1421,1415,1415,1410,1404,1398,1398,1398,1398,1392,1387,1387,1381,1376,1376,1370,1370,1365,1365,1354,1354,1349,1349,1349,1343,1338,1338,1333,1333,1333,1328,1328,1322,1322,1312,1312,1312,1307,1302,1297,1297,1292,1292,1288,1288,1288,1283,1278,1278,1268,1268,1264,1259,1259,1259,1255,1255,1255,1250,1250,1241,1241,1236,1236,1232,1232,1227,1227,1223,1219,1219,1219,1214,1210,1206,1206,1206,1202,1197,1197,1197,1193,1193,1189,1185,1185,1185,1181,1181,1177,1173,1169,1169,1165,1165,1161,1161,1157,1153,1153,1149,1149,1145,1141,1141,1138,1138,1134,1134,1134,1130,1126,1126,1123,1123,1119,1119,1119,1115,1108,1108,1108,1105,1105,1105,1101,1101,1094,1094,1094,1094,1090,1090,1084,1084,1080,1077,1077,1077,1073,1070,1070,1070,1067,1067,1067,0,0,0,0,0,0,0,0,0,0,0,0,0,0,0,0,0,0,0,0,0,0,0,0,0,0,0,0,0,0,0,0
0,0,0,0,0,0,0,0,0,0,0,0,1696,1696,1705,1705,1696,1696,1696,1696,1696,1696,1696,1696,1696,1696,1696,1696,1696,1705,1705,1705,1705,1705,1705,1705,1696,1696,1696,1696,1688,1688,1696,1696,1705,1713,1713,1713,1713,1713,1713,1713,1713,1705,1705,1705,1705,1705,1705,1705,1705,1705,1705,1705,1705,1705,1705,1705,1696,1696,1696,1696,1696,1696,1696,1688,1688,1696,1696,1696,1688,1688,1688,1688,1688,0,0,0,0,0,0,0,0,0,0,0,0,0,0,0,0,0,0,0,0,0,0,0,708,708,708,708,703,703,701,701,700,700,700,700,700,703,703,703,704,704,703,701,701,701,703,703,703,703,701,701,703,701,701,700,700,700,700,698,698,698,700,700,700,700,701,700,700,698,698,698,698,698,700,700,700,703,703,701,700,698,698,700,700,703,703,704,703,703,703,704,704,707,707,707,708,708,710,710,711,711,713,713,713,714,714,716,716,716,717,719,720,720,720,722,723,723,725,725,727,727,728,728,730,733,733,734,734,736,738,738,741,741,742,744,747,749,754,754,755,757,759,761,761,761,762,764,764,766,767,767,769,769,771,773,773,774,774,774,776,778,778,778,780,780,781,781,783,785,785,787,787,789,789,789,790,792,794,796,798,798,798,802,802,802,803,803,803,805,807,807,809,809,811,811,813,813,815,817,819,819,821,821,823,823,823,825,825,827,829,831,831,831,833,835,835,835,837,839,841,841,843,843,843,847,849,851,851,854,854,854,856,856,856,858,858,860,860,860,1647,1647,1647,1647,1655,1647,1647,1647,0,0,0,0,0,0,0,0,0,908,908,906,906,906,903,898,896,896,891,891,891,894,894,894,896,898,898,898,898,901,901,903,906,906,908,908,908,908,908,0,0,0,0,0,0,1663,1655,1655,1655,1655,1655,1655,1655,1655,1655,1655,1655,1655,1647,1647,1647,1647,1647,1647,1639,1639,1639,1639,1639,1639,1632,1632,1632,1632,1624,1616,1616,1609,1609,1609,1601,1601,1586,1579,1579,1579,1579,1579,1572,1572,1564,1557,1550,1550,1543,1543,1536,1529,1523,1523,1516,1516,1516,1509,1509,1509,1503,1496,1496,1489,1489,1477,1477,1470,1470,1464,1464,1464,1458,1452,1452,1445,1445,1445,1439,1427,1421,1421,1421,1421,1421,1415,1415,1415,1410,1404,1398,1398,1398,1392,1387,1381,1381,1376,1376,1370,1370,1365,1365,1354,1354,1349,1349,1349,1343,1338,1338,1333,1333,1333,1328,1328,1322,1317,1317,1312,1312,1307,1307,1302,1297,1292,1292,1288,1288,1288,1283,1278,1273,1273,1268,1268,1264,1259,1259,1255,1255,1255,1250,1250,1241,1241,1236,1236,1232,1232,1232,1227,1223,1219,1219,1219,1214,1210,1206,1206,1202,1202,1197,1197,1197,1193,1189,1189,1185,1185,1185,1181,1181,1177,1173,1169,1169,1169,1165,1165,1161,1157,1153,1153,1149,1149,1145,1141,1141,1138,1138,1134,1134,1134,1130,1130,1126,1123,1123,1123,1119,1119,1115,1108,1108,1108,1108,1105,1105,1105,1101,1097,1094,1094,1094,1090,1090,1087,1084,1080,1080,1077,1077,1073,1070,1070,1070,1067,1067,1067,0,0,0,0,0,0,0,0,0,0,0,0,0,0,0,0,0,0,0,0,0,0,0,0,0,0,0,0,0,0,0,0
0,0,0,0,0,0,0,0,0,0,0,0,1688,1688,1688,1696,1688,1688,1688,1688,1688,1688,1688,1688,1688,1688,1680,1680,1680,1688,1696,1696,1696,1696,1705,1696,1696,1688,1688,1688,1688,1688,1688,1688,1696,1705,1713,1713,1713,1713,1713,1705,1705,1705,1705,1696,1696,1696,1696,1696,1705,1705,1705,1705,1705,1705,1696,1696,1696,1696,1688,1688,1688,1688,1688,1688,1688,1688,1696,1688,1688,1688,1688,1688,1688,0,0,0,0,0,0,0,0,0,0,0,0,0,0,0,0,0,0,0,0,0,0,0,708,708,708,704,701,701,700,700,698,698,698,697,697,697,697,696,696,694,694,700,700,700,700,700,700,700,700,700,701,700,698,698,698,697,697,697,697,697,697,697,697,697,698,698,698,697,697,697,697,697,697,697,698,697,697,697,700,698,698,698,698,700,701,703,703,703,703,704,704,704,704,707,708,708,710,710,711,711,713,713,713,714,714,716,716,717,719,719,720,722,722,722,723,723,727,727,727,728,728,730,733,733,734,736,736,739,741,741,741,742,747,749,750,752,754,757,757,759,759,761,761,761,762,764,766,766,767,767,769,771,771,773,773,774,774,776,776,778,778,780,780,781,781,783,785,785,787,787,789,789,790,790,790,792,794,796,798,798,800,802,802,803,803,803,805,807,809,811,811,811,811,813,813,815,817,817,819,819,821,823,823,823,825,825,827,827,829,831,831,831,833,833,835,835,837,839,841,841,843,843,843,847,849,851,851,854,854,856,856,856,1639,1639,1639,1639,1639,1639,1647,1647,1647,1647,1655,1647,1647,1647,0,0,0,0,0,0,0,0,0,910,910,908,908,906,903,901,898,896,896,894,894,894,896,896,896,898,898,898,901,901,903,906,906,908,908,908,908,908,908,908,0,0,0,0,0,1663,1655,1655,1647,1647,1647,1647,1647,1647,1647,1647,1647,1647,1647,1647,1639,1639,1639,1639,1639,1639,1639,1639,1639,1639,1632,1632,1632,1632,1624,1616,1616,1609,1609,1609,1601,1601,1586,1586,1579,1579,1579,1579,1572,1572,1564,1557,1550,1550,1543,1543,1536,1529,1523,1523,1516,1516,1516,1509,1509,1509,1503,1496,1489,1489,1483,1477,1477,1470,1470,1470,1464,1464,1458,1458,1452,1445,1445,1445,1439,1427,1421,1421,1421,1421,1421,1415,1415,1415,1410,1404,1404,1398,1398,1392,1387,1381,1381,1376,1376,1370,1370,1370,1365,1365,1354,1349,1349,1349,1349,1338,1338,1333,1333,1333,1328,1328,1322,1317,1317,1312,1312,1307,1307,1302,1297,1297,1292,1292,1288,1288,1283,1278,1273,1273,1268,1268,1264,1264,1259,1255,1255,1255,1250,1250,1245,1241,1236,1236,1232,1232,1232,1227,1223,1223,1219,1219,1214,1210,1206,1206,1202,1202,1197,1197,1197,1193,1189,1189,1185,1185,1185,1181,1181,1177,1173,1169,1169,1169,1165,1165,1161,1157,1157,1153,1153,1149,1145,1141,1141,1141,1138,1138,1134,1134,1134,1130,1126,1123,1123,1123,1119,1119,1115,1112,1108,1108,1108,1108,1105,1105,1101,1097,1097,1094,1094,1090,1090,1084,1084,1080,1080,1077,1077,1073,1073,1070,1070,1067,1067,1067,0,0,0,0,0,0,0,0,0,0,0,0,0,0,0,0,0,0,0,0,0,0,0,0,0,0,0,0,0,0,0,0
0,0,0,0,0,0,0,0,0,0,0,0,1680,1680,1688,1688,1688,1688,1688,1688,1688,1680,1680,1680,1680,1688,1680,1671,1671,1680,1680,1688,1688,1688,1696,1696,1688,1688,1688,1688,1680,1680,1688,1688,1688,1696,1705,1705,1705,1705,1705,1705,1705,1696,1696,1696,1696,1696,1688,1688,1696,1696,1696,1696,1696,1696,1696,1696,1688,1688,1688,1688,1680,1680,1688,1680,1680,1680,1688,1688,1680,1680,1680,1680,1688,1688,0,0,0,0,0,0,0,0,0,0,0,0,0,0,0,0,0,0,0,0,0,0,710,710,708,701,700,698,698,697,697,696,696,696,696,696,693,693,693,691,691,688,687,687,687,687,687,697,697,697,697,697,696,696,693,693,693,693,694,694,694,694,694,694,694,694,694,694,696,696,696,694,694,697,696,696,696,697,698,698,698,698,698,698,700,701,703,704,704,704,704,704,704,707,708,708,710,710,711,711,713,713,714,714,716,716,717,717,719,720,720,722,722,723,725,725,727,727,727,728,730,730,734,738,739,742,742,742,746,746,746,749,750,752,752,754,755,757,757,759,759,761,761,762,762,764,766,767,767,769,769,771,771,773,774,774,776,776,778,778,780,780,781,781,783,783,785,787,787,789,789,789,790,790,792,792,794,796,798,798,802,802,802,803,803,805,807,809,809,811,811,811,813,815,815,817,817,817,819,821,823,823,825,825,825,827,827,829,831,831,831,833,833,833,835,835,837,839,841,841,843,843,843,847,847,847,1632,1632,1632,1639,1639,1639,1639,1639,1639,1639,1639,1639,1647,1647,1655,1655,1655,1647,1647,1647,1647,0,0,0,0,0,0,0,0,913,910,910,908,908,906,901,898,898,896,896,896,896,896,896,898,898,898,898,901,903,903,906,908,908,908,908,908,910,908,908,0,0,0,0,0,0,1647,1647,1639,1639,1639,1639,1639,1639,1639,1639,1639,1639,1639,1639,1639,1639,1639,1639,1639,1639,1632,1632,1632,1632,1632,1632,1632,1632,1624,1616,1609,1609,1609,1609,1601,1601,1594,1586,1586,1579,1579,1579,1572,1572,1564,1557,1550,1550,1550,1543,1543,1536,1523,1523,1523,1516,1516,1509,1509,1503,1503,1496,1489,1489,1483,1477,1477,1470,1470,1470,1464,1464,1458,1458,1452,1445,1445,1445,1439,1433,1427,1427,1421,1421,1415,1415,1415,1415,1410,1404,1404,1398,1398,1392,1387,1381,1381,1376,1376,1370,1370,1370,1365,1354,1354,1349,1349,1349,1349,1343,1338,1333,1333,1333,1328,1328,1322,1317,1317,1312,1312,1307,1307,1302,1297,1297,1292,1292,1288,1288,1283,1278,1273,1273,1268,1268,1268,1264,1259,1255,1255,1255,1250,1250,1250,1241,1241,1236,1236,1236,1232,1232,1227,1227,1223,1219,1214,1214,1206,1206,1206,1202,1202,1197,1197,1193,1189,1189,1185,1185,1185,1181,1181,1177,1173,1169,1169,1169,1165,1165,1165,1161,1157,1153,1153,1153,1145,1141,1141,1141,1138,1138,1134,1134,1134,1130,1126,1123,1123,1123,1119,1119,1115,1112,1108,1108,1108,1108,1105,1105,1101,1097,1097,1094,1094,1090,1090,1084,1084,1080,1080,1077,1077,1073,1073,1070,1070,1067,1067,1067,0,0,0,0,0,0,0,0,0,0,0,0,0,0,0,0,0,0,0,0,0,0,0,0,0,0,0,0,0,0,0,0
0,0,0,0,0,0,0,0,0,0,0,0,1671,1671,1680,1680,1680,1680,1680,1680,1680,1680,1680,1680,1680,1680,1671,1671,1671,1680,1680,1680,1680,1680,1680,1688,1688,1680,1680,1680,1680,1680,1680,1680,1688,1696,1696,1705,1705,1705,1705,1696,1696,1696,1696,1688,1688,1688,1688,1688,1688,1688,1688,1688,1688,1688,1688,1688,1688,1688,1688,1688,1680,1680,1680,1680,1680,1680,1680,1680,1671,1671,1680,1680,1680,1680,1680,0,0,0,0,0,0,0,0,0,0,0,0,0,0,0,0,0,0,0,0,0,0,0,0,701,698,696,696,694,694,694,694,693,691,691,691,690,688,688,687,687,687,687,687,687,687,687,693,693,690,690,691,693,691,691,691,693,691,691,691,691,691,691,691,693,693,693,693,694,694,693,693,694,694,694,694,697,698,698,698,698,698,698,698,701,701,703,703,704,704,704,706,707,708,708,710,710,711,713,713,714,714,714,716,716,717,717,719,720,722,723,723,723,727,727,727,727,728,728,733,739,741,742,744,746,747,747,749,749,749,750,752,752,754,755,755,757,757,759,761,761,761,762,764,766,766,767,767,769,771,771,773,773,774,774,776,776,778,780,780,780,781,781,783,785,787,787,787,789,789,790,790,792,792,794,796,798,798,800,802,802,803,803,805,805,807,809,809,811,811,811,813,815,815,817,819,819,819,821,823,825,825,825,825,827,829,829,831,831,833,833,833,833,835,835,835,839,835,835,843,843,843,843,1632,1632,1632,1632,1632,1639,1639,1639,1639,1639,1639,1647,1647,1647,1647,1647,1647,1647,1647,1639,1639,1639,1639,1639,0,0,0,0,0,0,0,915,913,913,910,908,906,903,898,898,896,896,896,896,896,898,898,898,901,901,901,903,906,906,908,908,910,908,908,910,908,908,0,0,0,0,0,0,1639,1639,1639,1632,1632,1639,1639,1639,1639,1632,1632,1632,1632,1632,1632,1632,1632,1632,1632,1632,1632,1632,1632,1632,1632,1624,1624,1624,1616,1616,1609,1609,1609,1601,1601,1601,1594,1586,1586,1579,1579,1579,1572,1572,1564,1557,1550,1550,1550,1543,1543,1536,1536,1523,1523,1516,1516,1509,1509,1503,1503,1496,1496,1489,1483,1483,1477,1477,1470,1470,1464,1464,1464,1458,1452,1445,1445,1445,1439,1433,1427,1427,1421,1421,1415,1415,1415,1415,1410,1404,1404,1398,1398,1392,1392,1381,1381,1376,1376,1376,1370,1370,1365,1354,1354,1349,1349,1349,1349,1343,1338,1338,1333,1333,1328,1328,1322,1317,1317,1312,1312,1307,1307,1302,1297,1297,1292,1292,1292,1288,1288,1278,1273,1273,1273,1268,1268,1264,1259,1255,1255,1255,1250,1250,1250,1245,1241,1241,1236,1236,1232,1232,1227,1227,1223,1219,1214,1214,1210,1206,1206,1202,1202,1197,1197,1193,1189,1189,1185,1185,1185,1181,1181,1177,1173,1169,1169,1169,1165,1165,1165,1161,1157,1157,1153,1153,1145,1145,1141,1141,1138,1138,1134,1134,1134,1130,1126,1126,1123,1123,1119,1119,1115,1112,1108,1108,1108,1108,1105,1105,1101,1097,1097,1094,1094,1090,1090,1090,1084,1080,1080,1077,1077,1073,1073,1070,1070,1070,1067,1067,0,0,0,0,0,0,0,0,0,0,0,0,0,0,0,0,0,0,0,0,0,0,0,0,0,0,0,0,0,0,0,0
0,0,0,0,0,0,0,0,0,0,0,0,1671,1671,1671,1680,1680,1680,1680,1680,1680,1680,1671,1671,1671,1680,1671,1671,1671,1671,1671,1680,1663,1663,1671,1671,1671,1671,1671,1671,1680,1680,1680,1680,1680,1688,1688,1696,1696,1696,1696,1696,1696,1688,1688,1688,1688,1688,1680,1680,1688,1688,1688,1688,1688,1688,1688,1680,1680,1680,1680,1680,1671,1671,1671,1671,1671,1671,1671,1671,1671,1671,1671,1680,1680,1680,1680,0,0,0,0,0,0,0,0,0,0,0,0,0,0,0,0,0,0,0,0,0,0,0,0,700,697,696,694,693,691,691,690,690,688,688,688,687,687,687,687,687,686,686,687,686,686,687,687,687,687,687,688,687,687,688,688,688,690,688,688,688,688,688,690,690,691,691,693,693,693,693,693,693,693,694,694,696,697,698,698,698,698,698,698,701,701,703,703,703,704,704,707,707,708,710,710,711,711,713,714,714,716,716,717,717,717,719,719,722,723,725,727,730,728,728,728,728,739,739,739,739,742,744,744,746,747,749,749,750,750,752,754,754,754,755,755,757,759,759,761,761,762,762,764,766,766,767,767,769,771,771,773,774,774,774,776,778,778,780,780,781,781,783,783,785,787,787,789,789,789,790,792,792,794,796,796,798,798,800,802,803,803,805,805,807,807,809,809,811,811,813,813,815,817,817,819,819,821,821,823,825,825,825,825,827,827,831,831,831,833,833,833,833,835,835,835,839,835,835,843,843,843,1632,1632,1632,1632,1632,1632,1632,1639,1639,1639,1639,1639,1647,1647,1647,1647,1647,1647,1647,1639,1639,1639,1639,1632,1632,0,0,0,0,0,0,0,0,915,913,913,910,908,903,901,898,898,898,896,896,898,898,898,901,901,901,903,906,906,908,908,908,910,908,908,908,908,908,0,0,0,0,0,1632,1632,1632,1632,1632,1632,1632,1632,1632,1632,1632,1632,1624,1624,1624,1624,1624,1624,1624,1632,1632,1632,1624,1624,1624,1624,1624,1624,1616,1616,1616,1609,1609,1609,1601,1601,1601,1594,1586,1586,1579,1579,1579,1572,1572,1564,1557,1550,1550,1550,1543,1543,1543,1536,1523,1523,1516,1516,1516,1509,1509,1503,1496,1496,1489,1489,1483,1483,1477,1477,1470,1470,1464,1464,1458,1452,1452,1445,1445,1439,1433,1433,1427,1421,1421,1421,1415,1415,1415,1410,1410,1404,1398,1398,1392,1392,1381,1381,1376,1376,1376,1370,1370,1365,1365,1354,1349,1349,1349,1349,1343,1338,1338,1338,1333,1328,1328,1322,1317,1317,1312,1312,1307,1307,1302,1297,1297,1292,1292,1292,1288,1288,1278,1278,1273,1273,1268,1268,1268,1259,1259,1259,1255,1255,1250,1250,1250,1245,1241,1236,1236,1232,1232,1227,1227,1223,1219,1219,1214,1214,1210,1206,1202,1202,1197,1197,1193,1189,1189,1185,1185,1185,1181,1181,1177,1173,1169,1169,1169,1165,1165,1165,1161,1161,1157,1153,1153,1145,1145,1141,1141,1138,1138,1138,1134,1134,1134,1130,1126,1123,1123,1123,1119,1119,1115,1112,1108,1108,1108,1105,1105,1101,1101,1097,1094,1094,1094,1090,1087,1084,1084,1080,1077,1077,1073,1073,1070,1070,1070,1067,1067,0,0,0,0,0,0,0,0,0,0,0,0,0,0,0,0,0,0,0,0,0,0,0,0,0,0,0,0,0,0,0,0
0,0,0,0,0,0,0,0,0,0,0,0,1663,1663,1671,1671,1671,1671,1671,1671,1671,1671,1671,1663,1663,1671,1663,1663,1663,1663,1663,1663,1655,1655,1663,1663,1663,1663,1663,1663,1671,1671,1671,1671,1680,1680,1680,1688,1688,1688,1688,1688,1688,1688,1680,1680,1680,1680,1680,1680,1680,1680,1680,1680,1680,1680,1680,1680,1671,1671,1671,1671,1671,1671,1671,1671,1671,1671,1663,1663,1663,1663,1663,1663,1663,1671,1671,0,0,0,0,0,0,0,0,0,0,0,0,0,0,0,0,0,0,0,0,0,0,0,0,700,697,694,693,691,690,688,687,687,687,686,686,686,686,686,686,686,686,686,686,686,686,684,684,686,684,684,686,686,686,686,686,686,686,686,687,687,687,688,688,690,690,691,691,691,693,693,693,693,693,693,693,694,696,698,698,698,698,698,700,701,701,703,703,703,704,704,707,708,708,710,711,711,713,713,714,716,716,717,717,717,719,719,720,723,727,730,730,731,731,731,734,739,739,741,741,741,744,744,746,746,749,750,750,750,752,752,754,754,754,755,757,757,759,761,761,761,762,764,766,766,767,767,771,771,771,773,773,774,774,776,778,778,780,780,781,781,781,783,785,785,787,787,789,789,790,792,792,794,794,796,798,798,800,802,803,803,803,805,807,807,809,809,811,811,813,813,815,815,817,817,819,819,821,821,823,825,825,825,825,827,827,831,831,831,833,833,835,835,835,835,835,1632,1632,1632,1632,1632,1632,1632,1632,1632,1632,1632,1632,1632,1632,1632,1639,1639,1639,1639,1639,1639,1639,1639,1639,1639,1639,1632,1632,1632,1632,1632,0,0,0,0,0,0,0,0,918,915,913,913,908,906,903,901,898,898,898,898,898,898,901,901,903,903,906,906,906,908,908,908,910,908,908,908,910,0,0,0,0,0,0,1624,1624,1624,1624,1624,1624,1632,1632,1632,1632,1632,1632,1624,1624,1624,1624,1624,1624,1624,1624,1624,1624,1624,1624,1624,1616,1616,1616,1609,1609,1609,1609,1609,1609,1601,1601,1601,1594,1586,1586,1579,1579,1579,1579,1572,1572,1557,1550,1550,1550,1543,1543,1543,1536,1523,1523,1516,1516,1516,1509,1509,1503,1496,1496,1489,1489,1489,1483,1483,1477,1477,1470,1470,1464,1458,1458,1452,1445,1445,1439,1439,1433,1427,1421,1421,1415,1415,1415,1415,1410,1410,1404,1404,1398,1392,1392,1387,1381,1381,1376,1376,1376,1370,1370,1365,1354,1354,1349,1349,1349,1343,1338,1338,1333,1333,1328,1328,1322,1317,1317,1312,1312,1307,1307,1302,1297,1297,1292,1292,1292,1288,1288,1283,1278,1273,1273,1273,1268,1268,1264,1264,1259,1255,1255,1250,1250,1250,1245,1241,1236,1236,1236,1232,1227,1227,1223,1219,1219,1214,1214,1210,1206,1202,1202,1202,1197,1193,1193,1189,1189,1185,1185,1185,1181,1177,1173,1173,1169,1169,1165,1165,1165,1161,1161,1157,1153,1153,1149,1145,1145,1141,1138,1138,1138,1134,1134,1134,1130,1126,1123,1123,1123,1119,1119,1115,1112,1108,1108,1108,1105,1105,1101,1101,1097,1094,1094,1094,1090,1087,1084,1080,1080,1077,1077,1077,1073,1070,1070,1070,1067,1067,0,0,0,0,0,0,0,0,0,0,0,0,0,0,0,0,0,0,0,0,0,0,0,0,0,0,0,0,0,0,0,0
0,0,0,0,0,0,0,0,0,0,0,0,1663,1663,1663,1663,1663,1663,1663,1663,1663,1663,1663,1663,1663,1663,1663,1663,1663,1655,1655,1655,1655,1655,1655,1655,1655,1655,1655,1663,1663,1663,1663,1655,1655,1655,1655,1655,1663,1663,1671,1680,1680,1680,1680,1671,1671,1671,1671,1671,1671,1680,1680,1680,1680,1680,1680,1671,1663,1663,1663,1663,1663,1663,1663,1663,1663,1663,1663,1663,1663,1663,1663,1663,1663,1663,1663,1671,1671,0,0,0,0,0,0,0,0,0,0,0,0,0,0,0,0,0,0,0,0,0,0,0,0,691,690,688,686,686,684,684,684,683,683,684,684,684,684,684,684,684,684,683,683,683,683,684,683,683,683,683,683,683,683,683,683,684,686,687,687,687,688,688,688,690,691,691,691,693,693,693,693,693,693,694,696,698,698,698,698,698,700,701,703,703,704,704,704,706,707,708,708,710,711,711,713,714,716,717,717,719,720,720,720,720,723,727,728,731,733,733,734,734,738,739,741,741,742,742,744,746,746,747,749,750,750,752,752,754,754,754,755,755,757,757,759,761,761,762,764,766,766,767,767,767,771,771,773,773,773,774,774,776,778,778,780,780,781,781,783,785,787,787,787,789,789,790,790,792,794,794,796,796,798,798,800,802,803,803,803,805,807,807,809,809,811,811,813,813,815,817,817,819,819,819,821,821,823,825,825,825,825,827,827,831,831,831,833,835,835,1624,1624,1624,1624,1624,1624,1624,1624,1624,1624,1624,1624,1632,1632,1624,1624,1624,1632,1632,1632,1632,1639,1639,1639,1639,1639,1639,1632,1632,1632,1632,1624,1624,1624,1624,0,0,0,0,0,0,0,0,918,915,915,913,910,906,903,901,901,898,898,898,898,901,901,903,903,903,906,906,908,908,908,910,910,910,910,910,910,0,0,0,0,0,0,1616,1616,1616,1616,1616,1616,1624,1624,1624,1624,1624,1624,1616,1616,1616,1616,1616,1616,1616,1616,1616,1616,1616,1616,1609,1609,1609,1609,1609,1609,1609,1609,1609,1601,1601,1601,1601,1594,1586,1586,1586,1579,1579,1579,1572,1572,1557,1557,1550,1550,1550,1543,1543,1536,1523,1523,1516,1516,1516,1509,1509,1503,1496,1496,1489,1489,1489,1483,1483,1477,1477,1470,1464,1464,1464,1458,1452,1452,1445,1439,1439,1433,1427,1421,1421,1415,1415,1415,1415,1410,1410,1404,1398,1398,1392,1392,1387,1381,1381,1376,1376,1376,1370,1370,1365,1354,1354,1354,1349,1349,1349,1343,1338,1333,1333,1328,1328,1322,1322,1317,1312,1312,1307,1307,1302,1297,1297,1292,1292,1292,1292,1288,1283,1278,1278,1273,1273,1268,1268,1264,1264,1259,1255,1255,1250,1250,1250,1245,1241,1236,1236,1236,1232,1232,1227,1223,1219,1219,1214,1214,1214,1210,1206,1202,1202,1197,1193,1193,1189,1189,1185,1185,1185,1181,1177,1173,1173,1169,1169,1165,1165,1165,1161,1161,1157,1153,1153,1153,1149,1145,1141,1141,1138,1138,1134,1134,1134,1130,1126,1126,1123,1123,1119,1119,1115,1112,1112,1108,1108,1105,1105,1101,1101,1101,1097,1094,1094,1090,1087,1084,1080,1080,1077,1077,1077,1073,1073,1070,1070,1067,1067,0,0,0,0,0,0,0,0,0,0,0,0,0,0,0,0,0,0,0,0,0,0,0,0,0,0,0,0,0,0,0,0
0,0,0,0,0,0,0,0,0,0,0,0,1663,1663,1655,1655,1663,1655,1655,1655,1655,1655,1663,1663,1663,1663,1663,1655,1655,1655,1655,1647,1647,1647,1647,1647,1647,1655,1655,1655,1655,1655,1663,1647,1647,1647,1647,1647,1655,1655,1655,1655,1663,1663,1663,1663,1663,1663,1663,1663,1663,1671,1671,1671,1671,1663,1663,1663,1663,1663,1655,1655,1655,1663,1663,1663,1663,1663,1663,1655,1655,1655,1655,1655,1655,1655,1655,1663,1663,0,0,0,0,0,0,0,0,0,0,0,0,0,0,0,0,0,0,0,0,0,0,0,0,691,688,686,684,684,683,683,683,682,682,682,683,683,683,682,682,683,682,680,680,680,680,682,680,680,682,682,682,682,682,682,682,683,684,686,686,687,687,687,688,688,690,690,691,691,693,693,693,693,694,696,697,698,698,700,700,700,701,703,703,703,704,704,704,706,707,708,710,711,713,713,714,716,717,719,720,720,722,722,722,722,730,730,731,731,733,734,734,738,739,741,741,742,742,744,744,746,746,747,749,750,750,752,752,754,754,754,755,755,757,759,759,761,761,762,764,766,767,767,767,769,771,771,773,773,774,774,776,778,778,780,780,781,781,781,783,785,787,787,787,789,789,790,790,792,794,794,796,798,798,798,800,803,803,803,805,807,807,809,809,809,811,811,811,813,815,817,819,819,819,819,821,821,823,825,825,825,825,825,827,827,827,827,1609,1609,1609,1624,1624,1616,1616,1616,1624,1624,1624,1624,1624,1624,1624,1624,1624,1624,1624,1624,1624,1624,1632,1632,1632,1632,1632,1632,1632,1632,1632,1632,1632,1632,1624,1624,1624,1624,0,0,0,0,0,0,0,0,918,918,915,913,910,908,906,903,901,901,901,901,901,901,901,903,903,906,906,908,908,908,910,910,913,913,913,913,913,0,0,0,0,0,0,1616,1616,1609,1609,1609,1609,1616,1616,1616,1616,1616,1616,1609,1609,1609,1609,1609,1616,1609,1609,1609,1609,1609,1601,1601,1601,1601,1601,1601,1601,1601,1601,1601,1601,1601,1594,1594,1594,1586,1586,1586,1579,1579,1579,1572,1572,1564,1557,1557,1550,1550,1543,1543,1536,1523,1523,1516,1516,1516,1509,1509,1503,1496,1496,1489,1489,1489,1483,1483,1477,1477,1470,1464,1464,1464,1458,1452,1452,1445,1445,1439,1433,1427,1427,1421,1421,1415,1415,1415,1410,1410,1404,1398,1398,1392,1392,1387,1381,1381,1376,1376,1376,1370,1370,1365,1365,1354,1354,1354,1349,1349,1343,1338,1338,1333,1328,1328,1322,1322,1317,1312,1312,1307,1307,1302,1297,1297,1292,1292,1292,1292,1288,1283,1278,1278,1273,1273,1273,1268,1264,1264,1259,1255,1255,1250,1250,1250,1245,1241,1236,1236,1236,1232,1232,1227,1223,1219,1219,1214,1214,1214,1210,1206,1202,1202,1197,1197,1193,1189,1189,1189,1185,1185,1181,1177,1173,1169,1169,1169,1165,1165,1165,1161,1161,1157,1153,1153,1153,1149,1149,1145,1141,1138,1138,1134,1134,1134,1130,1126,1126,1123,1123,1119,1119,1115,1112,1112,1108,1108,1105,1105,1101,1101,1101,1097,1094,1094,1090,1087,1084,1084,1080,1080,1077,1077,1073,1070,1070,1067,1067,1067,0,0,0,0,0,0,0,0,0,0,0,0,0,0,0,0,0,0,0,0,0,0,0,0,0,0,0,0,0,0,0,0
0,0,0,0,0,0,0,0,0,0,0,0,1655,1655,1655,1655,1655,1655,1655,1655,1655,1655,1655,1655,1655,1655,1655,1647,1647,1647,1647,1639,1639,1639,1639,1639,1639,1632,1632,1655,1655,1655,1655,1647,1647,1647,1639,1639,1647,1639,1639,1639,1655,1647,1647,1655,1655,1655,1655,1663,1663,1663,1663,1663,1663,1655,1655,1655,1655,1655,1655,1655,1655,1663,1663,1663,1655,1655,1655,1655,1655,1647,1647,1647,1647,1647,1647,1647,1663,0,0,0,0,0,0,0,0,0,0,0,0,0,0,0,0,0,0,0,0,0,0,0,0,691,687,684,683,683,682,682,682,680,680,679,679,680,680,679,678,678,679,679,679,679,679,680,680,680,680,680,682,682,682,682,682,683,683,684,686,686,686,687,687,688,688,690,690,691,693,693,693,694,696,697,698,700,700,700,701,701,701,703,703,704,704,704,706,707,707,710,711,713,716,716,717,719,720,722,722,723,723,725,727,730,731,731,733,733,734,736,736,739,739,741,742,742,744,744,746,746,747,747,749,750,752,752,754,754,754,754,755,755,757,759,761,761,762,762,764,766,767,767,767,771,771,773,773,773,774,776,776,778,780,780,780,781,781,783,785,787,787,789,789,789,790,790,792,794,794,794,798,798,798,800,802,803,803,805,805,807,807,809,809,809,811,811,811,813,813,817,819,819,821,821,821,821,823,825,825,823,823,825,825,1219,0,0,0,1609,1609,1609,1609,1609,1609,1616,1616,1616,1616,1616,1616,1616,1616,1616,1616,1616,1616,1616,1616,1624,1624,1624,1624,1632,1632,1632,1632,1632,1624,1624,1624,1624,1616,1616,1616,1616,0,0,0,0,0,0,0,0,918,918,915,915,913,908,906,903,903,901,901,901,901,901,903,903,906,906,906,908,908,908,910,913,913,915,915,915,915,0,0,0,0,0,0,1609,1609,1609,1609,1609,1609,1609,1609,1609,1609,1609,1609,1609,1609,1609,1609,1609,1609,1609,1609,1609,1609,1601,1594,1594,1594,1601,1601,1601,1601,1601,1601,1601,1601,1594,1594,1594,1594,1586,1586,1579,1579,1579,1579,1572,1572,1564,1557,1557,1557,1550,1550,1543,1543,1523,1523,1516,1516,1516,1509,1509,1503,1496,1496,1489,1489,1489,1483,1483,1477,1477,1470,1464,1464,1464,1458,1452,1452,1445,1445,1439,1439,1433,1427,1421,1421,1421,1415,1415,1410,1404,1404,1398,1398,1392,1392,1387,1387,1381,1376,1376,1376,1370,1370,1365,1365,1354,1354,1354,1349,1349,1343,1343,1338,1333,1328,1328,1322,1322,1317,1317,1312,1312,1307,1302,1302,1297,1297,1292,1292,1292,1288,1283,1278,1278,1273,1273,1273,1268,1268,1264,1259,1255,1255,1250,1250,1250,1245,1241,1236,1236,1236,1232,1232,1227,1223,1219,1219,1219,1214,1214,1210,1206,1206,1202,1197,1197,1193,1193,1189,1189,1185,1185,1181,1181,1173,1169,1169,1169,1165,1165,1165,1161,1161,1157,1153,1153,1153,1149,1149,1145,1141,1138,1138,1134,1134,1134,1130,1130,1126,1123,1123,1119,1119,1115,1112,1112,1108,1108,1105,1105,1105,1101,1101,1097,1094,1094,1090,1090,1084,1084,1080,1080,1077,1077,1073,1070,1070,1067,1067,1067,0,0,0,0,0,0,0,0,0,0,0,0,0,0,0,0,0,0,0,0,0,0,0,0,0,0,0,0,0,0,0,0
0,0,0,0,0,0,0,0,0,0,0,1647,1647,1647,1647,1647,1647,1647,1647,1647,1647,1647,1655,1655,1655,1655,1655,1647,1639,1639,1639,1639,1639,1639,1639,1639,1639,1632,1632,1647,1647,1647,1655,1647,1647,1647,1639,1639,1639,1639,1639,1639,1647,1647,1647,1647,1647,1647,1655,1655,1655,1655,1663,1663,1655,1655,1655,1655,1655,1647,1647,1647,1655,1655,1655,1655,1655,1655,1655,1647,1647,1647,1639,1639,1639,1639,1632,1632,1655,0,0,0,0,0,0,0,0,0,0,0,0,0,0,0,0,0,0,0,0,0,0,0,0,0,683,683,682,682,680,676,676,676,676,675,675,676,676,676,676,678,678,678,678,678,678,679,680,680,680,680,682,682,682,682,682,683,683,684,684,686,686,687,687,688,688,690,690,691,693,693,693,696,697,697,698,700,700,701,701,703,703,704,704,706,706,706,707,708,710,711,714,716,719,719,720,722,723,723,725,727,727,728,728,730,731,733,733,733,734,736,738,739,741,741,742,744,744,746,746,747,747,747,749,752,752,752,754,754,754,755,757,757,759,759,761,762,762,764,764,766,767,767,769,771,773,773,773,774,776,776,778,780,780,780,780,781,783,783,785,787,787,789,789,790,790,792,792,794,796,796,798,798,798,800,803,803,805,805,807,807,809,809,809,809,811,811,811,813,813,817,819,821,823,823,821,821,823,825,821,821,823,1219,1219,1219,1227,1227,1616,1609,1609,1609,1609,1609,1609,1609,1609,1609,1616,1616,1616,1616,1616,1616,1609,1609,1609,1609,1609,1616,1616,1616,1616,1616,1624,1624,1624,1624,1624,1624,1616,1609,1609,1609,1601,1601,0,0,0,0,0,0,0,0,918,918,915,915,913,910,906,903,903,901,901,901,901,901,903,903,906,906,908,908,908,910,910,913,915,915,918,918,918,0,0,0,0,0,0,1609,1609,1601,1601,1601,1601,1601,1601,1601,1601,1601,1601,1601,1601,1601,1601,1601,1601,1601,1601,1601,1601,1594,1594,1594,1594,1594,1601,1601,1601,1601,1601,1601,1594,1594,1594,1594,1586,1586,1579,1579,1579,1579,1579,1572,1572,1564,1564,1557,1557,1550,1550,1550,1543,1523,1523,1523,1516,1516,1516,1509,1503,1496,1496,1489,1489,1489,1483,1483,1483,1477,1470,1464,1464,1464,1458,1458,1452,1445,1445,1439,1439,1433,1427,1427,1421,1421,1415,1415,1410,1404,1404,1398,1398,1392,1392,1387,1387,1381,1381,1376,1376,1376,1370,1370,1365,1354,1354,1354,1349,1349,1349,1343,1338,1333,1328,1328,1322,1322,1322,1317,1312,1312,1307,1302,1302,1297,1297,1292,1292,1292,1288,1283,1283,1278,1273,1273,1273,1268,1268,1264,1259,1259,1255,1255,1250,1250,1250,1245,1241,1236,1236,1232,1232,1227,1223,1219,1219,1219,1214,1214,1210,1206,1206,1202,1197,1197,1197,1193,1193,1189,1185,1185,1181,1181,1177,1173,1169,1169,1165,1165,1165,1161,1161,1157,1153,1153,1153,1149,1149,1145,1141,1138,1138,1134,1134,1134,1134,1130,1126,1126,1123,1119,1119,1115,1112,1112,1108,1108,1105,1105,1105,1105,1101,1097,1094,1094,1094,1090,1087,1087,1084,1080,1080,1077,1077,1073,1073,1070,1067,1067,0,0,0,0,0,0,0,0,0,0,0,0,0,0,0,0,0,0,0,0,0,0,0,0,0,0,0,0,0,0,0,0
0,0,0,0,0,0,0,0,0,0,0,1632,1632,1639,1632,1632,1639,1639,1632,1632,1639,1647,1647,1647,1647,1647,1647,1639,1639,1639,1639,1632,1632,1632,1632,1639,1639,1632,1632,1624,1624,1647,1632,1632,1632,1639,1639,1632,1632,1632,1632,1632,1632,1632,1632,1639,1639,1639,1639,1639,1639,1639,1647,1655,1647,1647,1647,1647,1647,1639,1639,1639,1647,1647,1647,1647,1647,1647,1647,1639,1639,1639,1632,1632,1632,1632,1632,1632,1639,0,0,0,0,0,0,0,0,0,0,0,0,0,0,0,0,0,0,0,0,0,0,0,0,0,683,682,680,680,678,675,675,675,675,674,674,675,674,674,675,676,676,676,676,676,678,678,679,679,680,680,680,682,682,682,682,682,682,684,684,686,686,687,687,688,688,690,691,693,693,693,694,696,697,698,700,700,700,701,703,704,704,704,706,708,708,711,713,714,716,716,716,719,720,720,722,723,725,727,727,727,728,728,730,731,733,733,733,734,736,736,738,739,741,742,742,744,746,746,746,747,747,747,750,752,752,752,754,754,755,755,757,759,759,761,761,762,762,764,766,766,767,767,769,773,773,773,774,774,776,778,780,780,780,780,781,781,783,785,787,787,789,789,789,790,790,792,794,794,796,798,798,800,800,802,803,803,805,805,807,809,809,809,809,811,811,811,811,813,813,817,821,823,825,825,825,825,825,825,821,821,1214,1219,1219,1223,1227,1227,1616,1616,1609,1609,1609,1609,1609,1609,1609,1609,1609,1609,1609,1609,1609,1609,1601,1601,1601,1601,1601,1609,1609,1609,1609,1609,1609,1609,1609,1609,1616,1616,1609,1609,1601,1601,1601,1601,0,0,0,0,0,0,0,0,0,918,915,915,913,910,906,906,903,903,903,901,901,903,903,906,906,906,908,908,910,910,910,915,915,918,918,918,918,0,0,0,0,0,0,1601,1601,1601,1601,1586,1586,1586,1594,1594,1594,1594,1601,1601,1601,1601,1601,1601,1601,1601,1601,1594,1594,1586,1586,1586,1586,1594,1594,1594,1594,1594,1594,1594,1594,1594,1586,1586,1586,1579,1579,1579,1579,1579,1572,1572,1572,1564,1564,1564,1557,1557,1550,1550,1543,1523,1523,1523,1516,1516,1516,1516,1509,1503,1496,1489,1489,1489,1483,1477,1477,1477,1470,1470,1464,1464,1464,1458,1452,1445,1445,1439,1439,1439,1433,1427,1421,1421,1421,1415,1415,1410,1404,1398,1398,1392,1392,1387,1387,1381,1381,1376,1376,1376,1370,1370,1365,1359,1354,1354,1354,1349,1349,1343,1338,1333,1328,1328,1328,1328,1322,1317,1312,1312,1307,1302,1302,1297,1297,1292,1292,1292,1288,1283,1283,1278,1278,1273,1268,1268,1268,1264,1259,1259,1255,1255,1250,1250,1245,1245,1241,1236,1236,1232,1232,1227,1223,1219,1219,1219,1214,1214,1210,1206,1206,1202,1197,1197,1197,1193,1193,1189,1189,1185,1181,1181,1177,1177,1173,1169,1169,1165,1165,1165,1161,1157,1153,1153,1153,1149,1149,1145,1141,1138,1138,1138,1138,1134,1134,1130,1126,1123,1123,1119,1119,1119,1115,1112,1108,1108,1105,1105,1105,1105,1101,1097,1094,1094,1094,1090,1087,1087,1084,1080,1080,1077,1077,1073,1073,1070,1067,1067,0,0,0,0,0,0,0,0,0,0,0,0,0,0,0,0,0,0,0,0,0,0,0,0,0,0,0,0,0,0,0,0
0,0,0,0,0,0,0,0,0,0,0,1632,1632,1632,1632,1632,1632,1624,1624,1624,1632,1632,1632,1632,1632,1639,1639,1632,1632,1632,1632,1632,1632,1624,1624,1632,1632,1632,1632,1624,1624,1624,1624,1624,1632,1632,1632,1632,1632,1632,1632,1632,1632,1632,1632,1632,1632,1632,1632,1632,1632,1632,1632,1632,1632,1632,1632,1632,1639,1632,1632,1632,1639,1639,1639,1639,1639,1639,1639,1632,1632,1632,1632,1624,1624,1624,1624,1632,1632,0,0,0,0,0,0,0,0,0,0,0,0,0,1025,1025,0,0,0,0,0,0,0,0,0,0,683,682,676,676,675,674,672,672,672,672,672,672,672,672,675,675,676,676,676,676,676,678,679,679,679,680,680,682,682,682,682,682,682,684,684,686,687,687,687,688,690,690,691,693,693,694,694,696,697,698,701,701,701,703,704,706,706,706,707,710,710,711,714,716,719,719,720,720,722,722,723,725,727,727,728,728,730,730,731,733,733,733,734,734,736,738,739,739,742,744,744,744,746,746,747,747,747,749,750,752,752,754,755,755,755,757,759,759,761,761,761,762,764,764,766,767,767,767,771,773,773,774,774,776,776,778,780,780,780,781,781,783,785,787,787,789,789,789,789,790,790,792,794,794,796,798,798,800,800,802,803,803,805,805,807,809,809,811,811,811,811,811,811,813,813,817,821,825,825,825,1210,1210,1210,1210,1214,1214,1214,1219,1219,1223,1227,1227,0,1609,1609,1609,1609,1601,1601,1601,1601,1601,1601,1601,1601,1601,1601,1601,1601,1594,1594,1594,1594,1601,1601,1601,1601,1601,1601,1601,1601,1601,1601,1601,1601,1601,1601,1601,1601,1601,0,0,0,0,0,0,0,0,0,918,918,915,913,910,908,906,906,903,903,903,903,903,906,906,906,908,908,908,910,913,913,915,918,918,918,918,918,0,0,0,0,0,0,1601,1594,1586,1586,1586,1586,1586,1586,1586,1586,1586,1586,1586,1586,1586,1594,1594,1594,1594,1594,1594,1586,1586,1579,1579,1579,1586,1586,1586,1586,1586,1586,1586,1586,1586,1579,1579,1579,1579,1579,1579,1579,1572,1572,1572,1572,1572,1564,1564,1557,1557,1550,1550,1543,1529,1523,1523,1523,1516,1516,1516,1509,1503,1503,1489,1489,1489,1483,1477,1477,1470,1470,1470,1464,1464,1464,1458,1452,1452,1445,1439,1439,1439,1433,1433,1427,1421,1421,1415,1415,1410,1404,1398,1398,1392,1392,1392,1387,1381,1381,1376,1376,1376,1370,1370,1365,1359,1354,1354,1354,1349,1349,1343,1338,1333,1333,1328,1328,1328,1322,1317,1317,1312,1307,1307,1302,1302,1297,1292,1292,1288,1288,1283,1283,1278,1278,1273,1268,1268,1268,1264,1259,1259,1255,1255,1255,1250,1245,1245,1241,1236,1236,1232,1232,1227,1223,1219,1219,1219,1214,1214,1210,1206,1206,1202,1202,1197,1197,1197,1193,1193,1189,1185,1181,1181,1177,1177,1173,1169,1169,1169,1165,1165,1161,1157,1153,1153,1153,1149,1149,1145,1141,1141,1138,1138,1138,1134,1134,1130,1126,1123,1123,1119,1119,1119,1115,1112,1108,1108,1105,1105,1105,1105,1101,1097,1094,1094,1094,1090,1087,1087,1084,1080,1080,1077,1077,1073,1073,1070,1067,1067,0,0,0,0,0,0,0,0,0,0,0,0,0,0,0,0,0,0,0,0,0,0,0,0,0,0,0,0,0,0,0,0
0,0,0,0,0,0,0,0,0,0,0,1624,1624,1624,1624,1624,1624,1624,1624,1624,1624,1624,1624,1624,1632,1632,1632,1632,1632,1632,1632,1624,1624,1624,1624,1632,1624,1624,1624,1624,1624,1624,1624,1624,1632,1632,1632,1632,1632,1624,1624,1624,1624,1624,1624,1624,1624,1624,1624,1624,1624,1624,1624,1624,1624,1624,1624,1624,1632,1632,1632,1632,1632,1632,1639,1632,1632,1632,1632,1632,1632,1632,1624,1624,1624,1624,1624,1624,1624,1624,0,0,0,0,0,0,0,0,0,1031,1028,1025,1025,1025,1028,0,0,0,0,0,0,0,0,0,0,0,676,675,674,672,671,671,671,670,670,671,671,672,672,675,675,675,676,676,676,678,679,679,679,680,680,682,682,682,682,682,682,684,684,686,686,687,688,688,690,690,691,693,693,694,694,697,698,700,703,703,703,704,706,707,707,708,708,713,713,714,716,719,720,720,722,722,723,725,727,727,727,728,728,728,730,731,731,733,733,734,734,736,738,739,739,741,742,744,746,746,746,746,747,747,747,749,750,752,752,754,755,755,757,759,759,759,761,761,761,762,764,764,766,767,767,769,773,773,773,774,774,776,778,778,780,780,780,781,781,785,787,787,787,789,789,789,790,790,790,792,794,794,796,798,798,800,800,802,803,803,803,805,807,809,809,811,811,811,811,811,813,813,815,819,819,1219,1219,1214,1214,1210,1210,1210,1214,1214,1219,1219,1219,1223,1223,1227,1609,1609,1601,1601,1601,1601,1601,1601,1594,1594,1594,1594,1594,1594,1594,1594,1594,1594,1594,1594,1594,1601,1594,1594,1594,1594,1594,1594,1594,1594,1594,1594,1586,1586,1586,1586,1594,1594,0,0,0,0,0,0,0,0,0,920,918,915,915,913,910,908,906,906,906,903,903,906,906,906,906,908,908,910,913,913,915,915,918,918,918,918,918,918,0,0,0,0,0,1601,1586,1586,1579,1579,1579,1579,1579,1579,1579,1579,1579,1579,1579,1579,1579,1579,1579,1579,1586,1586,1579,1579,1579,1579,1579,1579,1579,1579,1579,1579,1579,1586,1579,1579,1579,1579,1579,1579,1572,1572,1572,1572,1572,1572,1572,1572,1564,1564,1564,1557,1557,1550,1543,1529,1529,1523,1523,1516,1516,1516,1509,1503,1503,1489,1489,1489,1483,1477,1477,1470,1470,1470,1464,1464,1464,1458,1452,1445,1445,1439,1439,1439,1433,1433,1427,1427,1421,1421,1415,1410,1404,1398,1398,1398,1392,1392,1387,1387,1381,1376,1376,1376,1370,1370,1365,1359,1354,1354,1354,1349,1349,1343,1338,1333,1333,1328,1328,1328,1322,1317,1317,1312,1312,1307,1307,1302,1297,1297,1292,1288,1288,1283,1278,1278,1273,1273,1268,1268,1268,1264,1259,1259,1255,1255,1250,1250,1245,1245,1241,1236,1236,1236,1232,1227,1223,1223,1219,1219,1214,1214,1214,1210,1206,1202,1202,1197,1197,1197,1193,1193,1189,1185,1185,1181,1181,1177,1173,1169,1169,1169,1165,1165,1161,1157,1153,1153,1153,1149,1149,1145,1141,1138,1138,1138,1138,1134,1134,1130,1126,1123,1123,1119,1119,1119,1115,1112,1108,1108,1105,1105,1105,1105,1101,1101,1094,1094,1090,1090,1087,1087,1084,1080,1080,1077,1077,1073,1073,1070,1067,1067,0,0,0,0,0,0,0,0,0,0,0,0,0,0,0,0,0,0,0,0,0,0,0,0,0,0,0,0,0,0,0,0
0,0,0,0,0,0,0,0,0,0,0,1616,1616,1616,1624,1624,1624,1624,1616,1616,1624,1616,1616,1624,1624,1624,1624,1624,1624,1624,1624,1624,1624,1624,1624,1624,1624,1616,1616,1616,1624,1624,1624,1624,1624,1624,1624,1624,1624,1624,1624,1624,1616,1616,1616,1616,1616,1616,1616,1616,1609,1609,1616,1616,1616,1616,1616,1624,1624,1624,1624,1624,1624,1624,1624,1632,1624,1624,1624,1624,1624,1624,1624,1624,1616,1616,1624,1624,1616,1616,1616,0,0,0,0,0,0,0,1031,1028,1028,1025,1025,1025,1025,0,0,0,0,0,0,0,0,0,0,0,0,674,672,672,671,671,670,670,670,670,671,671,672,674,675,675,676,676,676,678,679,679,679,680,680,682,682,682,682,683,683,684,684,686,686,688,688,688,690,691,691,693,694,696,696,698,700,701,703,703,704,707,708,708,710,711,711,714,714,716,717,720,722,722,722,722,725,725,727,727,728,728,728,730,731,731,733,733,733,734,736,738,739,739,739,741,744,746,746,746,747,747,747,747,749,749,750,752,752,754,755,755,757,759,759,761,761,761,762,764,764,764,767,767,767,769,773,773,773,774,776,776,778,780,780,781,781,781,783,785,787,787,789,789,789,790,790,792,792,794,794,794,796,798,798,800,800,803,803,803,803,805,807,809,809,811,811,811,811,811,813,1227,1227,1223,1223,1219,1219,1214,1214,1214,1210,1210,1214,1214,1219,1219,1219,1223,1223,1227,1609,1609,1601,1601,1601,1601,1601,1594,1594,1594,1594,1594,1594,1586,1586,1586,1586,1586,1586,1586,1586,1594,1594,1594,1594,1594,1594,1594,1594,1594,1586,1586,1586,1586,1586,1586,1579,1579,0,0,0,0,0,0,0,0,0,920,918,918,915,913,910,908,906,906,906,906,906,906,906,906,908,908,908,910,913,915,915,915,918,918,918,918,918,918,0,0,0,0,0,0,1579,1579,1579,1579,1579,1579,1579,1579,1579,1579,1579,1579,1579,1579,1579,1572,1572,1572,1572,1579,1579,1579,1579,1579,1579,1579,1579,1579,1579,1579,1579,1579,1579,1579,1579,1579,1572,1572,1572,1572,1572,1572,1564,1564,1564,1564,1564,1564,1557,1557,1550,1550,1543,1529,1529,1523,1523,1516,1516,1516,1509,1509,1503,1496,1489,1489,1483,1483,1477,1470,1470,1470,1464,1464,1464,1458,1452,1445,1445,1445,1439,1439,1433,1433,1427,1427,1421,1421,1415,1410,1404,1398,1398,1398,1392,1392,1387,1387,1381,1376,1376,1370,1370,1370,1365,1359,1354,1354,1354,1349,1349,1343,1338,1333,1333,1328,1328,1328,1322,1322,1317,1312,1312,1307,1307,1302,1302,1297,1297,1292,1288,1288,1278,1278,1273,1273,1268,1268,1268,1264,1259,1259,1255,1255,1250,1250,1245,1245,1241,1236,1236,1236,1232,1227,1223,1223,1219,1219,1214,1214,1214,1210,1206,1202,1202,1197,1197,1197,1193,1193,1189,1185,1185,1181,1181,1177,1177,1173,1169,1169,1165,1165,1161,1157,1157,1153,1153,1149,1149,1145,1141,1138,1138,1138,1138,1134,1134,1130,1123,1123,1123,1119,1119,1119,1115,1112,1112,1108,1108,1105,1105,1105,1101,1101,1094,1094,1090,1090,1090,1087,1084,1084,1080,1077,1077,1073,1073,1070,1067,1067,0,0,0,0,0,0,0,0,0,0,0,0,0,0,0,0,0,0,0,0,0,0,0,0,0,0,0,0,0,0,0,0
0,0,0,0,0,0,0,0,0,0,0,1609,1609,1609,1609,1609,1609,1616,1616,1616,1616,1609,1609,1616,1616,1616,1616,1616,1616,1624,1624,1616,1616,1616,1616,1624,1616,1616,1616,1616,1616,1616,1616,1616,1624,1624,1624,1624,1624,1624,1616,1616,1616,1616,1616,1616,1616,1616,1616,1609,1609,1609,1609,1609,1609,1609,1609,1616,1616,1616,1616,1616,1616,1616,1616,1616,1616,1616,1616,1616,1616,1616,1609,1609,1609,1609,1609,1624,1616,1609,1609,0,0,0,0,0,0,0,1031,1025,1025,1025,1025,1025,1022,1022,0,0,0,0,0,0,0,0,0,0,0,674,672,672,671,671,670,670,670,670,670,671,674,674,675,675,676,676,676,676,679,679,679,680,680,682,682,682,682,683,684,686,686,686,687,687,688,688,690,691,693,694,696,696,698,698,701,701,704,704,707,708,710,710,711,713,713,716,716,717,719,720,722,722,722,722,723,725,727,727,728,728,730,731,731,733,733,733,734,734,738,738,739,739,739,741,744,746,746,746,747,747,747,749,749,750,750,752,754,754,755,757,757,759,759,761,761,762,764,764,766,767,767,767,769,771,774,774,774,774,776,778,778,780,780,781,781,781,783,785,787,789,789,789,790,790,792,792,794,794,796,796,798,798,798,800,800,802,803,805,805,807,809,809,811,811,813,813,813,1227,1227,1227,1227,1223,1219,1219,1214,1214,1214,1214,1214,1214,1214,1219,1219,1219,1223,1223,1223,1227,1609,1609,1601,1601,1594,1594,1594,1594,1586,1586,1586,1586,1586,1586,1586,1586,1586,1579,1579,1579,1579,1586,1586,1586,1586,1586,1586,1586,1586,1586,1586,1586,1579,1579,1586,1586,1579,1579,0,0,0,0,0,0,0,0,0,920,918,918,915,913,913,908,908,906,906,906,906,906,906,908,908,908,910,910,913,915,915,918,918,918,918,918,918,918,0,0,0,0,0,0,1579,1579,1579,1579,1579,1579,1579,1572,1572,1572,1572,1572,1572,1572,1572,1572,1572,1572,1572,1572,1572,1572,1572,1572,1572,1572,1572,1572,1572,1572,1572,1572,1572,1572,1572,1572,1572,1572,1572,1572,1572,1564,1564,1564,1564,1564,1557,1557,1557,1550,1550,1550,1543,1536,1529,1523,1523,1523,1516,1516,1516,1509,1503,1496,1489,1489,1483,1483,1477,1477,1470,1470,1470,1464,1464,1458,1452,1445,1445,1445,1439,1439,1433,1427,1427,1427,1421,1421,1415,1410,1404,1398,1398,1398,1392,1392,1387,1381,1381,1376,1376,1370,1370,1370,1365,1359,1359,1354,1354,1354,1349,1349,1343,1338,1333,1328,1328,1328,1322,1322,1317,1312,1312,1307,1307,1302,1302,1297,1292,1292,1288,1288,1283,1278,1273,1273,1268,1268,1268,1264,1264,1259,1255,1255,1250,1250,1250,1245,1241,1241,1236,1236,1232,1227,1227,1223,1219,1219,1214,1214,1214,1210,1206,1202,1202,1197,1197,1197,1193,1193,1189,1185,1185,1181,1181,1181,1177,1173,1169,1169,1165,1165,1161,1161,1157,1157,1153,1149,1149,1145,1141,1141,1138,1138,1138,1134,1134,1130,1123,1123,1123,1119,1119,1119,1115,1112,1112,1108,1108,1108,1105,1105,1101,1101,1094,1094,1090,1090,1090,1087,1087,1084,1080,1077,1077,1073,1073,1070,1067,1067,0,0,0,0,0,0,0,0,0,0,0,0,0,0,0,0,0,0,0,0,0,0,0,0,0,0,0,0,0,0,0,0
0,0,0,0,0,0,0,0,0,0,0,1601,1601,1609,1609,1609,1609,1609,1616,1616,1609,1609,1609,1609,1609,1609,1609,1609,1616,1616,1616,1616,1616,1616,1616,1616,1609,1609,1609,1609,1609,1609,1609,1616,1616,1616,1616,1624,1624,1616,1616,1616,1609,1609,1609,1609,1609,1609,1609,1609,1601,1601,1601,1609,1609,1609,1609,1609,1609,1609,1601,1601,1601,1601,1616,1616,1609,1609,1609,1601,1601,1609,1609,1609,1609,1609,1609,1609,1609,1601,1601,1601,0,0,0,0,0,0,1028,1025,1025,1025,1025,1025,1022,1022,1025,0,0,0,0,0,0,0,0,0,0,0,672,672,671,670,670,670,670,670,670,671,674,674,675,675,676,676,676,676,679,679,679,680,680,682,682,682,683,684,684,686,686,686,687,687,688,690,691,693,693,694,696,697,700,700,703,704,706,707,708,710,711,711,713,714,716,716,717,720,720,720,722,722,722,723,723,725,727,727,728,730,730,731,733,733,733,733,734,734,738,739,739,739,741,742,744,744,746,747,747,747,749,749,750,750,752,752,754,755,755,757,759,759,761,761,762,764,764,766,766,767,767,769,769,771,774,774,774,774,776,778,778,780,780,781,781,783,785,787,787,789,789,789,790,790,792,794,794,794,796,796,798,798,798,800,802,802,803,805,805,807,809,809,811,811,811,811,0,1227,1227,1227,1223,1219,1219,1219,1214,1214,1214,1214,1214,1214,1214,1219,1223,1223,1223,1223,1227,1227,1227,1601,1601,1594,1594,1586,1586,1586,1586,1586,1579,1579,1579,1579,1579,1579,1579,1572,1572,1572,1572,1579,1579,1579,1579,1579,1579,1579,1579,1579,1579,1579,1579,1579,1579,1579,1579,1579,0,0,0,0,0,0,0,0,0,920,918,918,915,913,913,910,908,906,906,906,906,906,906,908,908,910,910,913,915,915,918,918,918,918,918,918,918,918,0,0,0,0,0,0,1572,1572,1572,1572,1572,1572,1572,1572,1572,1572,1572,1564,1564,1564,1564,1564,1564,1564,1572,1572,1572,1572,1564,1564,1564,1564,1564,1564,1572,1572,1572,1572,1572,1564,1564,1564,1564,1564,1564,1564,1564,1564,1557,1557,1557,1557,1557,1557,1557,1550,1550,1550,1543,1536,1529,1523,1523,1523,1516,1516,1516,1509,1503,1496,1496,1489,1489,1483,1477,1477,1470,1470,1470,1464,1464,1464,1452,1445,1445,1445,1439,1439,1433,1427,1427,1421,1421,1421,1415,1410,1404,1398,1398,1398,1392,1392,1387,1381,1376,1376,1376,1370,1370,1370,1365,1359,1359,1354,1354,1354,1349,1343,1338,1333,1333,1333,1333,1328,1328,1322,1317,1312,1312,1307,1307,1302,1302,1297,1292,1292,1288,1288,1283,1278,1278,1273,1273,1268,1268,1268,1264,1259,1255,1255,1250,1250,1250,1245,1241,1241,1236,1236,1232,1232,1227,1223,1219,1219,1219,1214,1214,1210,1206,1206,1202,1202,1197,1197,1193,1193,1189,1185,1185,1181,1181,1181,1177,1177,1173,1169,1165,1165,1161,1161,1157,1157,1153,1153,1149,1149,1141,1141,1141,1138,1138,1134,1134,1130,1123,1123,1123,1119,1119,1119,1115,1115,1112,1108,1108,1108,1105,1105,1101,1101,1097,1094,1094,1090,1090,1087,1087,1084,1080,1077,1077,1073,1073,1073,1067,1067,0,0,0,0,0,0,0,0,0,0,0,0,0,0,0,0,0,0,0,0,0,0,0,0,0,0,0,0,0,0,0,0
0,0,0,0,0,0,0,0,0,0,0,1594,1594,1594,1594,1594,1601,1601,1609,1609,1601,1601,1609,1609,1609,1609,1601,1601,1609,1616,1609,1609,1609,1609,1609,1609,1601,1601,1601,1601,1601,1601,1601,1609,1609,1609,1616,1616,1616,1616,1609,1609,1609,1609,1609,1609,1601,1601,1601,1601,1601,1601,1601,1609,1609,1609,1601,1601,1601,1601,1601,1601,1601,1601,1609,1609,1601,1601,1601,1601,1601,1601,1601,1601,1601,1601,1601,1601,1601,1601,1594,1579,1579,0,0,0,0,1031,1028,1025,1025,1025,1025,1025,1025,1025,1025,0,0,0,0,0,0,0,0,0,0,675,672,672,671,670,670,670,670,671,671,672,674,674,675,676,676,676,676,676,679,679,680,680,680,682,682,683,684,684,686,686,687,687,688,688,688,691,691,694,694,696,696,698,701,703,704,704,707,707,711,713,713,713,714,714,716,716,717,720,720,722,722,723,723,723,725,725,727,728,728,730,731,733,733,733,733,734,734,738,739,739,739,739,741,742,744,744,746,747,747,747,749,749,750,750,752,752,754,755,755,757,759,761,761,761,762,764,764,766,766,767,769,769,771,773,774,774,774,774,776,778,778,780,781,783,783,785,787,787,787,789,789,789,790,790,792,794,794,794,796,796,798,798,798,800,803,807,807,807,807,1557,1564,1564,1557,1557,1557,1564,1232,1227,1227,1227,1223,1219,1219,1219,1214,1214,1214,1214,1214,1214,1214,1219,1223,1223,1223,1223,1227,1227,1227,1601,1601,1586,1586,1579,1579,1579,1579,1579,1572,1572,1572,1572,1572,1572,1572,1572,1572,1572,1572,1579,1579,1579,1579,1579,1579,1579,1579,1579,1579,1579,1579,1579,1579,1579,1579,1579,0,0,0,0,0,0,0,0,0,923,920,920,918,915,913,910,908,908,908,906,906,906,906,908,910,910,913,913,915,915,918,918,918,918,918,918,918,918,0,0,0,0,0,1564,1564,1564,1564,1564,1564,1564,1572,1564,1564,1564,1564,1557,1557,1557,1557,1557,1557,1557,1564,1564,1564,1564,1557,1557,1557,1557,1557,1557,1557,1557,1557,1564,1564,1564,1564,1564,1564,1564,1564,1557,1557,1557,1550,1550,1557,1557,1550,1550,1550,1550,1550,1543,1543,1536,1536,1529,1523,1523,1523,1516,1516,1509,1503,1503,1496,1489,1489,1483,1477,1477,1470,1470,1470,1464,1464,1464,1452,1445,1445,1445,1439,1439,1433,1433,1427,1421,1421,1421,1415,1410,1404,1398,1398,1398,1392,1392,1387,1381,1376,1376,1376,1370,1370,1370,1365,1359,1359,1354,1354,1354,1349,1343,1338,1333,1333,1333,1333,1328,1328,1322,1317,1317,1312,1307,1307,1307,1302,1297,1292,1292,1288,1288,1283,1278,1278,1273,1273,1268,1268,1268,1264,1259,1259,1255,1250,1250,1245,1245,1245,1241,1236,1236,1236,1232,1227,1223,1223,1219,1219,1214,1214,1210,1206,1206,1202,1202,1197,1197,1193,1193,1189,1185,1185,1185,1181,1181,1177,1177,1173,1169,1165,1165,1161,1161,1157,1157,1153,1153,1149,1149,1141,1141,1141,1138,1138,1134,1134,1130,1123,1123,1123,1123,1119,1119,1119,1115,1112,1108,1108,1108,1105,1105,1101,1101,1097,1094,1094,1090,1090,1087,1087,1084,1080,1080,1077,1077,1073,1073,1070,1070,0,0,0,0,0,0,0,0,0,0,0,0,0,0,0,0,0,0,0,0,0,0,0,0,0,0,0,0,0,0,0,0
0,0,0,0,0,0,0,0,0,0,0,1594,1594,1594,1594,1594,1594,1594,1594,1594,1594,1601,1601,1601,1601,1601,1601,1601,1601,1609,1609,1609,1609,1609,1609,1609,1601,1601,1601,1601,1601,1594,1594,1601,1601,1601,1609,1609,1609,1609,1609,1601,1601,1601,1601,1601,1601,1601,1601,1601,1601,1601,1601,1601,1601,1601,1594,1594,1601,1601,1601,1601,1594,1594,1601,1601,1601,1601,1594,1594,1594,1594,1594,1601,1601,1601,1601,1601,1594,1594,1594,1579,1579,0,0,0,0,1031,1031,1028,1028,1028,1028,1028,1025,1025,1025,0,0,0,0,0,0,0,0,0,0,675,672,672,671,671,670,670,670,671,672,674,674,675,675,676,676,678,678,679,679,680,680,680,682,682,683,683,684,686,686,687,687,688,690,690,690,693,693,694,694,696,696,701,704,704,704,707,708,708,713,713,713,714,714,716,716,717,719,720,722,723,723,723,723,725,725,725,727,728,730,731,731,733,733,733,733,734,734,738,739,739,739,741,741,742,744,744,746,747,747,747,749,750,750,752,752,754,754,755,757,759,759,761,761,762,764,766,766,766,767,767,771,771,773,773,774,774,774,776,778,780,780,781,781,783,783,785,787,787,787,787,789,789,790,790,792,794,794,796,796,796,798,798,798,800,800,800,1557,1557,1557,1557,1557,1557,1557,1557,1557,1564,1232,1232,1227,1227,1227,1223,1219,1219,1214,1214,1214,1214,1214,1214,1214,1219,1223,1223,1223,1223,1227,1227,1227,1601,1601,1586,1579,1572,1572,1572,1572,1572,1572,1572,1572,1572,1564,1564,1564,1564,1564,1564,1564,1572,1572,1572,1572,1572,1572,1572,1572,1572,1572,1572,1572,1564,1564,1572,1564,1564,0,0,0,0,0,0,0,0,0,925,923,923,920,918,915,913,910,908,908,908,908,908,908,908,910,913,913,915,918,918,918,918,920,920,920,918,918,920,0,0,0,0,0,1557,1550,1550,1557,1557,1557,1557,1557,1557,1557,1557,1557,1550,1550,1550,1550,1550,1550,1550,1550,1557,1557,1550,1550,1550,1550,1550,1550,1550,1550,1550,1550,1550,1550,1550,1557,1557,1557,1557,1557,1557,1557,1550,1550,1550,1550,1550,1550,1550,1543,1543,1543,1543,1536,1536,1529,1529,1523,1523,1523,1516,1516,1509,1509,1503,1496,1489,1489,1483,1477,1477,1470,1470,1470,1464,1464,1464,1452,1445,1445,1445,1439,1439,1433,1433,1427,1427,1421,1421,1415,1410,1410,1404,1398,1398,1392,1392,1387,1387,1381,1376,1376,1370,1370,1370,1365,1359,1359,1354,1354,1354,1349,1343,1338,1333,1333,1333,1333,1328,1328,1322,1322,1317,1312,1307,1307,1307,1302,1297,1292,1292,1288,1288,1283,1278,1278,1273,1273,1268,1268,1268,1268,1264,1259,1255,1255,1250,1245,1245,1245,1241,1236,1236,1236,1232,1232,1223,1223,1219,1219,1219,1214,1214,1210,1206,1202,1202,1197,1197,1197,1193,1189,1185,1185,1185,1181,1181,1177,1177,1173,1169,1165,1165,1161,1161,1157,1157,1153,1153,1149,1149,1145,1141,1141,1138,1138,1138,1134,1130,1123,1123,1123,1123,1119,1119,1119,1115,1112,1112,1108,1108,1105,1105,1105,1101,1097,1094,1094,1090,1090,1090,1087,1084,1080,1080,1077,1077,1073,1073,1070,1070,0,0,0,0,0,0,0,0,0,0,0,0,0,0,0,0,0,0,0,0,0,0,0,0,0,0,0,0,0,0,0,0
