0,0,0,0,0,0,1193,1193,1193,1193,1193,1193,1197,1197,1197,1193,1193,1197,1197,1193,1193,1193,1193,1193,1189,1189,1189,1189,1189,1189,1189,1189,1189,1193,1193,1193,1193,1193,1193,1193,1193,1193,1193,1193,1193,1193,1189,1189,1193,1193,1193,1193,1193,1193,1193,1193,1193,1193,1197,1197,1197,1197,1193,1193,1197,1193,1193,1193,1193,1193,1193,1193,1193,1193,1193,1193,1193,1193,1197,1197,1193,1193,1193,1193,1193,1193,1193,1197,1197,1197,1197,1197,1197,1197,1202,1197,1197,1197,1197,1197,1197,1197,981,981,978,975,975,973,970,967,967,967,967,967,967,967,967,967,973,978,981,981,981,984,984,987,989,992,998,998,998,1001,1001,1001,1004,1007,1007,1010,1010,1010,1010,1010,1016,1016,1202,1202,1202,1202,1202,1202,1202,1202,1206,1206,1206,1206,1210,1210,1210,1210,1210,1206,1206,1206,1206,1210,1210,1210,1210,1210,1206,1206,1210,1210,1210,1210,1210,1210,1214,1214,1214,1214,1214,1214,1214,1214,1214,1214,1214,1214,1214,1214,1214,1214,1219,1219,1219,1219,1219,1219,1219,1219,1219,1214,1214,1214,1219,1214,1214,1219,1219,1219,1219,1219,1214,1214,1214,1214,1214,1219,1223,0,0,0,0,0,0,0,0,0,0,0,0,706,703,703,701,700,698,697,697,696,694,693,693,691,691,691,691,691,693,694,696,697,697,698,701,704,704,706,708,708,708,708,0,0,0,0,0,998,998,998,998,995,995,992,989,989,989,987,987,987,989,1232,1232,1232,1232,1232,1232,1232,1232,1227,1227,1227,1227,1227,1227,1227,1227,1227,1227,1227,1227,1227,1232,1232,1232,1232,1232,1232,1232,1232,1232,1232,1236,1236,1236,1236,1236,1236,1236,1236,1236,1236,1236,1236,1241,1241,1241,1241,1241,1241,1236,1236,1236,1236,1236,1236,1236,1236,1236,1236,1236,1236,1236,1236,1236,1236,1241,1241,1241,1241,1245,1245,1245,1245,1245,1245,1004,1004,1007,1013,1010,1010,1013,1013,1013,1013,1013,1013,1013,1013,1013,1013,1019,1019,1022,1025,1025,1028,1031,1031,1034,1038,1041,1041,1044,1047,1050,1054,1057,1060,1063,1063,1063,1063,1245,1245,1245,1245,1245,1245,1245,1245,1245,1250,1250,1250,1250,1250,1250,1250,1250,1250,1250,1250,1250,1245,1245,1245,1245,1250,1250,1250,1250,1250,1250,1255,1255,1255,1255,1255,1255,1255,1255,1250,1250,1250,1255,1255,1250,1250,1255,1255,1255,1255,1255,1255,1255,1255,1255,1255,1255,1250,1250,1250,1250,1250,1250,1250,1250,1255,1255,1255,1255,1255,1250,1250,1250,1250,1255,1255,1250,1250,1250,1250,1255,1255,1255,1255,1255,1255,1255,1259,1255,1255,1255,1255,1255,1255,1255,1255,1255,1255,1255,1255,1255,1250,1250,1250,1250,1250,1250,1250,1250,1255,1255,1255,1255,1255,1255,1255,1255,1255,1255,1255,1255,1255,1255,1255,1255,1255,1250,1250,1250,1250,1250,1255,1255,1255,1259,1255,1255,1255,1255,1255,1255,1255,1255,1255,1255,1255,1255,1255,1255,1255,1255,1259,1259,1259,1259,1259,1259,1259,1259,1259,1259,1259,1259,1259,1255,1255,1259,1259,1177,1177,1177,1169,1169,1169,1165,1165,1165,1165,1165,1165,1119,1119,1119,1119,1112,1108,1108,1112,1105,1105,1105,1097,1094,1094,1094,1094,1094,1094,1094,1094,1094,1090,1090,1090,1084,1080,1077,1073,1070,1067,1067,0,0,0,0,0,0,0,0,0,0,0,0,0,0,0,0,0,0,0,0,0,0,0,0,0,0,0,0,0,0,0,0,0
0,0,0,0,0,0,1193,1193,1193,1193,1193,1193,1193,1193,1193,1193,1193,1193,1193,1189,1189,1189,1189,1185,1185,1185,1185,1185,1185,1185,1185,1185,1185,1189,1189,1189,1189,1189,1193,1193,1193,1193,1193,1193,1189,1189,1189,1189,1189,1185,1185,1189,1189,1189,1189,1189,1189,1193,1193,1193,1193,1193,1193,1193,1193,1189,1189,1193,1193,1189,1189,1189,1193,1193,1193,1193,1193,1193,1193,1193,1189,1189,1189,1189,1189,1193,1193,1193,1193,1193,1197,1193,1193,1193,1197,1197,1197,1197,1193,1193,1193,1193,981,981,978,975,975,973,970,970,967,967,967,967,967,967,967,967,973,978,981,981,984,984,984,987,989,992,995,998,998,1001,1001,1001,1004,1007,1007,1010,1010,1010,1010,1010,1202,1202,1202,1202,1202,1202,1202,1202,1202,1202,1202,1202,1202,1202,1206,1206,1206,1206,1206,1206,1206,1206,1206,1206,1206,1206,1206,1206,1202,1202,1206,1202,1202,1206,1206,1210,1210,1210,1210,1214,1210,1210,1210,1214,1214,1214,1210,1210,1210,1210,1210,1210,1214,1214,1214,1214,1214,1214,1214,1214,1214,1214,1214,1214,1214,1214,1214,1214,1214,1214,1214,1214,1210,1210,1206,1206,1210,1214,0,0,0,0,0,0,0,0,0,0,0,0,0,707,704,703,703,701,700,698,697,697,694,693,693,691,691,691,691,691,693,694,696,697,697,698,701,706,706,707,708,708,708,708,0,0,0,0,0,998,998,995,995,992,992,989,989,987,987,987,987,989,989,1232,1232,1227,1227,1227,1227,1227,1227,1223,1223,1223,1223,1223,1219,1219,1219,1219,1223,1223,1223,1227,1227,1227,1227,1232,1232,1232,1227,1227,1227,1227,1232,1232,1232,1232,1232,1232,1232,1232,1232,1232,1236,1236,1236,1236,1236,1236,1236,1236,1236,1236,1236,1236,1236,1236,1236,1236,1236,1236,1236,1236,1236,1236,1236,1236,1236,1236,1236,1236,1241,1241,1241,1245,1245,1001,1001,1004,1004,1004,1007,1007,1010,1010,1010,1010,1010,1010,1010,1010,1013,1013,1016,1019,1022,1025,1025,1028,1031,1034,1038,1041,1041,1044,1047,1050,1050,1054,1057,1060,1063,1063,1063,1241,1241,1241,1241,1241,1241,1241,1241,1241,1241,1245,1245,1245,1245,1245,1245,1245,1245,1245,1245,1241,1241,1241,1241,1241,1241,1241,1241,1241,1245,1245,1250,1250,1250,1250,1250,1250,1250,1250,1250,1250,1250,1250,1250,1250,1250,1250,1250,1250,1250,1250,1250,1250,1250,1255,1250,1250,1250,1250,1250,1250,1250,1245,1245,1250,1250,1250,1250,1245,1245,1245,1245,1245,1245,1245,1245,1250,1250,1250,1250,1250,1250,1250,1250,1250,1250,1250,1250,1250,1250,1250,1250,1250,1250,1250,1250,1250,1250,1250,1250,1250,1250,1245,1245,1250,1250,1250,1250,1250,1250,1250,1250,1250,1250,1250,1250,1250,1250,1250,1250,1250,1255,1250,1250,1250,1250,1250,1250,1250,1250,1250,1250,1250,1250,1250,1255,1255,1255,1255,1255,1250,1250,1255,1255,1255,1255,1255,1255,1255,1255,1255,1255,1255,1255,1255,1255,1255,1255,1259,1259,1255,1255,1255,1255,1255,1255,1255,1259,1259,1259,1169,1169,1169,1169,1169,1165,1165,1165,1165,1165,1165,1108,1108,1108,1108,1108,1105,1105,1105,1101,1097,1097,1097,1094,1094,1094,1094,1094,1094,1094,1090,1090,1090,1084,1080,1080,1077,1073,1070,1070,1067,1067,0,0,0,0,0,0,0,0,0,0,0,0,0,0,0,0,0,0,0,0,0,0,0,0,0,0,0,0,0,0,0,0,0
0,0,0,0,0,0,1189,1189,1189,1189,1189,1189,1193,1193,1189,1189,1189,1189,1189,1189,1189,1185,1181,1181,1177,1177,1177,1177,1177,1181,1181,1181,1181,1185,1185,1185,1185,1185,1189,1189,1189,1189,1185,1185,1185,1185,1185,1185,1185,1181,1181,1181,1181,1181,1185,1185,1185,1189,1193,1193,1193,1193,1189,1189,1189,1189,1189,1189,1189,1189,1189,1189,1189,1189,1193,1189,1189,1193,1189,1189,1185,1185,1185,1189,1189,1189,1189,1193,1193,1193,1193,1189,1189,1193,1193,1193,1193,1193,1193,1189,1189,1193,1193,981,981,975,975,973,970,970,967,967,967,967,967,967,967,970,975,978,981,981,984,984,984,987,987,989,995,998,998,1001,1001,1001,1004,1007,1007,1007,1007,1010,1010,1013,1197,1197,1202,1202,1202,1202,1202,1202,1202,1202,1202,1202,1202,1202,1206,1206,1202,1202,1202,1202,1202,1202,1202,1202,1202,1202,1202,1202,1197,1197,1202,1202,1202,1202,1202,1206,1202,1202,1202,1206,1210,1210,1210,1210,1210,1210,1210,1210,1206,1206,1210,1210,1210,1210,1210,1210,1210,1210,1210,1210,1210,1210,1210,1210,1210,1210,1210,1214,1210,1210,1210,1210,1210,1210,1206,1206,1210,1214,1214,0,0,0,0,0,0,0,0,0,0,0,711,708,706,706,703,703,700,698,698,697,696,694,693,693,691,691,691,693,694,696,696,697,698,700,703,706,707,708,708,708,708,708,0,0,0,0,0,998,995,995,992,989,989,989,987,987,987,987,987,987,987,987,1227,1227,1227,1227,1227,1227,1227,1223,1223,1223,1223,1223,1219,1219,1219,1219,1219,1219,1219,1223,1223,1223,1223,1223,1223,1223,1223,1227,1227,1227,1227,1227,1227,1227,1227,1227,1227,1227,1227,1232,1232,1232,1232,1232,1232,1232,1236,1236,1236,1236,1236,1236,1232,1232,1232,1232,1232,1232,1232,1232,1236,1236,1236,1236,1236,1236,1236,1236,1236,1236,1236,1241,995,995,998,1001,1001,1001,1004,1001,1001,1001,1001,1007,1007,1007,1007,1010,1010,1013,1016,1019,1022,1025,1025,1028,1031,1034,1038,1041,1044,1047,1047,1050,1054,1054,1060,1063,1063,1067,1067,1236,1236,1236,1236,1236,1236,1236,1241,1241,1241,1241,1245,1245,1245,1236,1236,1245,1241,1241,1241,1241,1241,1236,1236,1236,1236,1236,1236,1241,1241,1241,1241,1245,1245,1245,1245,1245,1245,1245,1245,1250,1250,1250,1250,1250,1245,1245,1245,1245,1245,1245,1245,1245,1245,1250,1250,1245,1245,1245,1245,1245,1245,1245,1245,1245,1245,1245,1241,1241,1241,1241,1241,1241,1241,1241,1241,1245,1245,1245,1245,1245,1245,1245,1245,1245,1245,1250,1250,1250,1245,1245,1250,1250,1250,1250,1250,1250,1250,1250,1250,1250,1245,1245,1245,1245,1245,1245,1245,1245,1245,1250,1250,1245,1245,1245,1245,1245,1245,1245,1245,1245,1250,1250,1245,1245,1245,1245,1245,1245,1245,1250,1250,1250,1250,1250,1250,1250,1250,1250,1250,1250,1250,1250,1250,1250,1250,1250,1250,1250,1250,1250,1250,1250,1255,1255,1255,1255,1255,1255,1255,1255,1255,1255,1255,1250,1250,1250,1264,1264,1197,1185,1169,1169,1169,1169,1165,1165,1165,1165,1165,1169,1108,1108,1108,1108,1108,1105,1105,1101,1101,1097,1097,1097,1094,1094,1094,1094,1094,1094,1090,1090,1087,1087,1080,1077,1077,1073,1070,1067,1063,1063,1067,0,0,0,0,0,0,0,0,0,0,0,0,0,0,0,0,0,0,0,0,0,0,0,0,0,0,0,0,0,0,0,0,0
0,0,0,0,0,0,1189,1185,1185,1185,1185,1185,1185,1181,1181,1185,1185,1185,1185,1185,1181,1181,1177,1177,1177,1177,1173,1173,1177,1177,1177,1177,1177,1177,1181,1181,1177,1177,1185,1185,1185,1185,1181,1181,1181,1181,1181,1181,1181,1181,1181,1181,1181,1181,1181,1181,1181,1181,1189,1189,1189,1193,1189,1189,1189,1185,1185,1185,1185,1185,1185,1185,1185,1185,1185,1185,1185,1185,1185,1185,1181,1181,1181,1185,1185,1185,1185,1189,1189,1189,1189,1189,1189,1189,1185,1185,1189,1189,1189,1189,1189,1001,1001,1001,981,978,975,975,973,970,970,970,970,970,967,967,970,973,975,978,981,981,984,987,987,987,987,989,992,995,998,998,1001,1001,1004,1007,1007,1007,1007,1193,1193,1193,1193,1193,1197,1197,1197,1197,1197,1197,1197,1197,1197,1202,1197,1197,1202,1202,1202,1202,1202,1197,1197,1202,1197,1197,1197,1197,1197,1197,1197,1197,1197,1197,1197,1197,1197,1202,1202,1202,1202,1202,1206,1206,1206,1206,1206,1210,1206,1206,1206,1206,1206,1206,1206,1206,1206,1206,1206,1206,1206,1202,1202,1206,1206,1206,1206,1210,1210,1210,1210,1210,1210,1210,1206,1206,1202,1202,1206,1206,1214,0,0,0,0,0,0,0,0,0,0,0,711,708,707,706,703,703,701,700,698,698,697,694,694,693,691,691,693,693,694,696,696,697,700,700,706,706,708,710,710,710,710,710,0,0,0,0,0,995,995,992,989,989,989,987,987,987,987,987,987,984,984,984,984,1227,1227,1223,1223,1223,1223,1223,1223,1219,1219,1219,1214,1214,1214,1214,1219,1219,1219,1219,1219,1219,1219,1219,1219,1219,1219,1219,1219,1223,1227,1227,1223,1223,1223,1223,1223,1227,1227,1227,1227,1227,1227,1227,1227,1227,1232,1232,1232,1232,1232,1232,1232,1232,1232,1232,1232,1232,1232,1232,1232,1232,1232,1232,1232,1232,1232,1232,1232,1236,992,992,995,995,995,998,998,998,1001,998,998,998,998,998,1001,1004,1004,1007,1010,1010,1016,1019,1025,1025,1025,1028,1031,1034,1041,1044,1047,1047,1050,1050,1054,1054,1060,1063,1063,1067,1067,1232,1232,1232,1232,1236,1236,1236,1236,1236,1236,1236,1241,1241,1241,1236,1236,1241,1236,1236,1236,1236,1236,1236,1236,1232,1232,1232,1236,1236,1236,1236,1236,1236,1236,1236,1241,1241,1241,1245,1245,1245,1245,1245,1245,1245,1245,1241,1241,1241,1241,1241,1241,1241,1241,1241,1241,1241,1245,1245,1245,1245,1245,1245,1245,1245,1245,1245,1241,1241,1241,1241,1236,1236,1236,1236,1241,1236,1236,1241,1241,1241,1236,1236,1241,1241,1241,1241,1241,1245,1241,1241,1245,1245,1245,1245,1245,1245,1245,1245,1245,1245,1241,1241,1241,1241,1241,1241,1241,1241,1241,1245,1245,1241,1241,1241,1241,1241,1241,1241,1241,1241,1245,1245,1241,1241,1241,1241,1241,1241,1241,1245,1245,1245,1245,1245,1250,1245,1245,1245,1245,1245,1250,1250,1250,1250,1250,1250,1250,1245,1245,1245,1245,1245,1250,1250,1250,1250,1250,1255,1255,1255,1255,1255,1250,1250,1250,1250,1250,1197,1197,1185,1185,1169,1169,1169,1165,1165,1165,1153,1153,1108,1108,1108,1108,1105,1105,1101,1101,1097,1097,1094,1094,1094,1094,1094,1094,1094,1094,1090,1090,1090,1087,1084,1077,1073,1073,1070,1067,1063,1060,1060,0,0,0,0,0,0,0,0,0,0,0,0,0,0,0,0,0,0,0,0,0,0,0,0,0,0,0,0,0,0,0,0,0,0
0,0,0,0,0,0,1181,1181,1181,1181,1181,1173,1173,1173,1173,1181,1181,1181,1181,1181,1181,1177,1173,1173,1173,1173,1173,1173,1173,1173,1173,1173,1173,1173,1173,1173,1173,1177,1181,1181,1181,1181,1177,1177,1181,1177,1177,1177,1177,1177,1177,1181,1181,1181,1181,1181,1181,1181,1185,1185,1189,1189,1185,1185,1185,1181,1181,1181,1181,1181,1181,1181,1181,1181,1181,1181,1181,1181,1181,1181,1181,1181,1181,1181,1181,1185,1185,1185,1185,1185,1185,1185,1185,1185,1185,1185,1189,1189,1189,1189,1185,1185,998,998,981,978,978,975,975,973,973,970,970,970,970,970,970,973,978,978,981,981,984,987,987,987,989,989,992,992,998,998,998,998,1004,1010,1010,1010,1185,1189,1189,1189,1193,1193,1193,1193,1193,1193,1193,1197,1197,1197,1197,1197,1197,1197,1197,1197,1197,1197,1197,1197,1197,1197,1197,1197,1197,1197,1193,1193,1193,1193,1197,1197,1197,1197,1197,1197,1197,1197,1197,1197,1197,1197,1197,1197,1202,1202,1206,1206,1202,1202,1206,1206,1202,1202,1202,1202,1202,1197,1197,1197,1197,1202,1202,1202,1202,1206,1206,1206,1206,1206,1206,1206,1202,1202,1197,1197,1197,1197,0,0,0,0,0,0,0,0,0,0,716,714,711,710,708,707,703,703,701,700,698,698,697,696,694,693,693,693,693,693,696,696,697,698,701,701,706,706,708,710,710,710,710,710,0,0,0,0,0,992,989,989,987,987,987,987,987,987,984,984,984,981,981,981,978,978,978,978,978,975,975,1223,1223,1214,1214,1214,1214,1214,1214,1214,1214,1214,1214,1214,1219,1219,1219,1214,1214,1219,1214,1214,1219,1219,1223,1223,1223,1223,1223,1223,1223,1223,1223,1223,1223,1223,1223,1223,1223,1223,1227,1227,1232,1232,1232,1232,1227,1227,1227,1227,1227,1227,1227,1232,1232,1232,1232,1232,1232,1232,1232,1232,1232,989,989,992,992,995,995,995,995,995,995,995,995,995,995,995,998,1001,1001,1004,1007,1010,1016,1022,1025,1025,1025,1028,1031,1038,1041,1047,1050,1050,1050,1054,1054,1057,1060,1063,1067,1067,1227,1227,1227,1232,1232,1232,1232,1232,1236,1236,1232,1232,1236,1236,1236,1232,1232,1236,1236,1236,1232,1232,1232,1232,1232,1232,1232,1232,1232,1232,1232,1232,1232,1232,1236,1232,1232,1236,1236,1241,1241,1241,1241,1236,1236,1236,1236,1236,1236,1236,1236,1236,1236,1236,1236,1236,1236,1236,1236,1241,1241,1236,1236,1241,1241,1241,1245,1241,1236,1236,1236,1236,1236,1236,1236,1236,1236,1236,1236,1236,1236,1236,1236,1236,1236,1236,1236,1236,1236,1236,1236,1236,1236,1241,1241,1241,1241,1241,1241,1241,1236,1236,1236,1236,1236,1236,1236,1236,1236,1241,1241,1241,1241,1236,1236,1236,1236,1236,1236,1236,1236,1241,1241,1241,1236,1236,1236,1236,1236,1236,1236,1241,1241,1241,1241,1245,1245,1245,1241,1241,1241,1241,1241,1245,1245,1245,1245,1245,1245,1245,1241,1241,1241,1241,1245,1245,1245,1245,1245,1250,1250,1250,1250,1250,1245,1236,1236,1250,1250,1197,1197,1185,1181,1177,1173,1169,1165,1165,1165,1153,1153,1108,1108,1108,1108,1105,1105,1101,1097,1097,1094,1094,1094,1094,1094,1094,1094,1090,1090,1090,1090,1090,1084,1080,1073,1070,1070,1067,1063,1063,1060,1060,0,0,0,0,0,0,0,0,0,0,0,0,0,0,0,0,0,0,0,0,0,0,0,0,0,0,0,0,0,0,0,0,0,0
0,0,0,0,0,0,1181,1181,1181,1181,1181,1173,1173,1173,1173,1177,1177,1177,1177,1177,1177,1173,1169,1169,1169,1165,1165,1165,1165,1169,1169,1169,1173,1173,1173,1173,1173,1173,1173,1173,1173,1177,1173,1173,1177,1177,1177,1177,1177,1177,1177,1177,1177,1177,1177,1177,1177,1181,1181,1181,1185,1185,1185,1181,1181,1181,1181,1181,1181,1181,1181,1181,1177,1177,1181,1181,1181,1181,1181,1181,1177,1177,1177,1181,1181,1181,1181,1181,1181,1185,1181,1181,1181,1181,1181,1185,1181,1181,1181,1181,1177,1177,998,992,984,978,978,975,975,973,973,973,973,970,970,970,973,975,978,978,981,984,984,987,987,987,989,989,989,989,989,989,998,998,1185,1185,1185,1185,1185,1189,1189,1189,1189,1189,1189,1189,1189,1193,1193,1193,1193,1193,1193,1193,1193,1193,1197,1193,1193,1197,1197,1193,1193,1197,1197,1197,1193,1193,1193,1193,1193,1193,1193,1193,1193,1193,1197,1197,1197,1193,1193,1193,1197,1197,1197,1197,1197,1197,1197,1197,1197,1202,1202,1202,1197,1197,1197,1202,1197,1197,1197,1197,1197,1202,1197,1197,1197,1202,1202,1202,1202,1202,1202,1202,1202,1197,1197,1197,1197,1197,1197,0,0,0,0,0,0,0,0,0,716,714,711,710,708,708,706,704,703,701,700,698,697,696,696,694,694,693,693,696,696,696,697,698,701,703,704,706,708,710,710,711,711,711,713,0,0,0,0,992,989,989,987,987,987,984,984,984,984,981,981,981,981,978,978,978,978,978,978,975,975,975,1214,1214,1214,1214,1214,1214,1214,1214,1214,1214,1214,1214,1214,1214,1214,1214,1214,1214,1214,1214,1214,1214,1219,1219,1219,1219,1219,1219,1219,1219,1219,1219,1219,1219,1219,1219,1219,1223,1223,1223,1227,1227,1227,1227,1223,1223,1223,1223,1223,1223,1223,1227,1227,1227,1227,1227,1227,1227,1232,1232,1232,989,989,989,992,992,992,992,992,992,992,992,992,992,992,995,995,1001,1001,1004,1007,1010,1016,1022,1025,1025,1025,1028,1028,1041,1047,1050,1050,1050,1050,1054,1054,1057,1060,1063,1067,1067,1227,1223,1223,1227,1227,1232,1232,1232,1232,1232,1232,1232,1232,1232,1232,1232,1232,1232,1232,1232,1232,1232,1232,1227,1227,1227,1227,1227,1232,1232,1232,1232,1232,1232,1232,1227,1227,1227,1227,1227,1232,1236,1236,1236,1232,1232,1236,1232,1232,1232,1232,1232,1236,1232,1232,1232,1236,1236,1236,1236,1236,1236,1236,1236,1236,1236,1236,1236,1236,1236,1236,1236,1236,1236,1232,1232,1232,1232,1232,1232,1232,1232,1232,1232,1232,1232,1236,1236,1236,1236,1236,1232,1232,1232,1236,1236,1241,1241,1236,1236,1236,1232,1232,1232,1232,1236,1232,1232,1236,1236,1236,1236,1236,1236,1236,1236,1236,1236,1236,1236,1236,1236,1236,1236,1236,1236,1236,1236,1236,1236,1236,1236,1236,1236,1236,1241,1241,1241,1236,1236,1236,1236,1236,1236,1241,1236,1236,1236,1236,1236,1236,1236,1236,1241,1241,1236,1236,1236,1236,1241,1241,1241,1241,1241,1236,1232,1232,1232,1206,1206,1202,1197,1181,1177,1173,1165,1165,1157,1157,1157,1157,1108,1108,1108,1108,1108,1105,1101,1097,1094,1094,1094,1094,1094,1094,1094,1094,1090,1090,1090,1090,1087,1080,1077,1070,1067,1067,1063,1060,1060,1057,1057,0,0,0,0,0,0,0,0,0,0,0,0,0,0,0,0,0,0,0,0,0,0,0,0,0,0,0,0,0,0,0,0,0,0
0,0,0,0,0,0,1177,1177,1177,1177,1177,1173,1173,1173,1173,1173,1173,1173,1173,1173,1169,1165,1165,1165,1161,1161,1165,1165,1165,1165,1165,1169,1169,1169,1169,1169,1169,1169,1169,1169,1173,1173,1169,1169,1169,1173,1173,1173,1173,1173,1173,1177,1177,1177,1173,1173,1173,1177,1177,1177,1181,1181,1181,1177,1177,1177,1177,1177,1177,1177,1177,1177,1177,1177,1177,1177,1177,1177,1177,1181,1177,1177,1177,1181,1181,1181,1181,1177,1177,1181,1181,1177,1177,1177,1177,1181,1177,1177,1177,1177,1177,992,989,989,984,981,978,978,975,975,973,973,973,973,973,973,975,975,978,978,981,984,987,987,987,987,989,989,989,989,989,989,1181,1181,1181,1185,1185,1185,1185,1185,1189,1189,1189,1189,1185,1185,1185,1189,1189,1189,1189,1193,1193,1193,1193,1193,1193,1193,1193,1193,1193,1193,1193,1193,1193,1193,1193,1193,1193,1193,1193,1193,1193,1193,1193,1193,1193,1193,1193,1193,1193,1193,1193,1193,1193,1193,1193,1193,1193,1193,1193,1193,1193,1193,1197,1197,1197,1197,1197,1193,1193,1197,1197,1197,1197,1197,1197,1197,1197,1197,1197,1197,1197,1197,1197,1197,1197,1197,1197,1197,1197,0,0,0,0,0,0,0,0,0,716,714,711,710,708,708,707,706,703,703,701,700,698,697,696,694,694,694,694,696,696,696,698,698,703,704,704,706,708,710,710,711,711,711,713,0,0,0,0,0,989,987,987,987,984,984,984,984,978,978,978,978,978,978,978,978,978,975,975,975,975,975,975,1214,1214,1214,1214,1214,1210,1210,1210,1210,1210,1210,1210,1210,1210,1206,1206,1210,1206,1206,1210,1210,1214,1214,1214,1214,1214,1214,1214,1214,1214,1219,1219,1219,1219,1219,1219,1219,1223,1223,1223,1223,1223,1223,1219,1219,1219,1219,1219,1219,1219,1219,1223,1223,1223,1223,1223,1227,1227,1227,987,987,987,989,989,992,989,989,989,989,992,992,992,992,992,992,995,1001,1001,1004,1010,1013,1016,1019,1025,1025,1025,1028,1028,1047,1050,1054,1054,1054,1054,1054,1057,1057,1060,1063,1067,1067,1223,1223,1223,1223,1227,1227,1227,1227,1232,1232,1227,1227,1227,1227,1227,1227,1227,1227,1232,1232,1227,1227,1227,1227,1227,1227,1227,1227,1227,1227,1227,1227,1227,1227,1227,1223,1223,1223,1223,1223,1223,1223,1223,1232,1227,1227,1232,1227,1227,1227,1232,1232,1232,1232,1232,1232,1232,1232,1232,1232,1232,1232,1232,1232,1232,1232,1236,1236,1236,1236,1236,1232,1232,1232,1232,1232,1232,1227,1227,1227,1227,1227,1227,1227,1227,1232,1232,1232,1232,1232,1232,1232,1232,1232,1232,1232,1232,1236,1232,1232,1232,1232,1232,1232,1232,1232,1232,1232,1232,1232,1232,1232,1232,1232,1232,1232,1232,1232,1236,1236,1232,1232,1236,1236,1232,1232,1232,1232,1232,1232,1232,1232,1232,1232,1232,1236,1232,1232,1232,1232,1232,1232,1232,1232,1232,1236,1232,1232,1236,1236,1236,1236,1236,1236,1236,1236,1236,1236,1236,1236,1236,1236,1236,1236,1236,1232,1223,1219,1206,1206,1202,1197,1181,1177,1169,1165,1165,1157,1157,1157,1115,1115,1112,1108,1108,1108,1105,1101,1097,1094,1094,1094,1094,1094,1094,1094,1094,1090,1090,1090,1090,1084,1077,1073,1067,1067,1063,1063,1057,1057,1054,1054,0,0,0,0,0,0,0,0,0,0,0,0,0,0,0,0,0,0,0,0,0,0,0,0,0,0,0,0,0,0,0,0,0,0
0,0,0,0,0,0,1173,1173,1173,1173,1169,1169,1173,1173,1173,1173,1173,1173,1173,1169,1169,1165,1165,1161,1161,1161,1165,1161,1161,1165,1165,1165,1169,1169,1169,1169,1169,1165,1165,1165,1165,1169,1165,1165,1165,1165,1169,1169,1169,1169,1173,1173,1173,1173,1173,1173,1173,1173,1177,1177,1177,1177,1177,1177,1177,1177,1177,1177,1173,1173,1173,1173,1173,1173,1173,1173,1177,1177,1177,1177,1177,1177,1177,1177,1177,1177,1177,1177,1177,1177,1177,1177,1173,1173,1173,1177,1177,1177,1173,1173,1173,992,989,987,987,981,978,978,975,975,975,975,973,973,975,975,975,975,978,978,981,984,984,987,987,987,989,989,989,989,989,1181,1181,1181,1181,1181,1185,1185,1185,1185,1185,1185,1185,1185,1185,1185,1185,1185,1185,1185,1189,1189,1189,1189,1189,1189,1189,1189,1189,1189,1193,1189,1189,1189,1189,1193,1189,1189,1189,1189,1189,1189,1189,1189,1189,1189,1189,1189,1189,1189,1189,1189,1189,1193,1193,1189,1189,1189,1189,1189,1193,1193,1193,1193,1193,1193,1193,1193,1193,1193,1193,1193,1193,1193,1193,1193,1193,1193,1193,1193,1197,1197,1197,1197,1197,1193,1193,1193,1193,1193,0,0,0,0,0,0,0,0,0,0,716,713,711,710,710,708,707,706,703,703,701,700,698,697,697,696,696,696,696,696,697,697,698,701,703,704,704,706,710,710,710,711,713,713,713,0,0,0,0,0,989,987,987,987,984,984,984,981,978,978,978,978,978,978,978,975,975,975,975,975,973,973,973,973,1214,1214,1214,1214,1210,1210,1210,1210,1210,1206,1206,1206,1206,1206,1206,1206,1202,1202,1206,1206,1210,1210,1210,1210,1210,1210,1214,1214,1214,1214,1214,1214,1219,1219,1219,1219,1219,1219,1223,1223,1219,1219,1219,1219,1214,1214,1214,1214,1214,1214,1214,1214,1219,1219,1219,1219,1219,981,981,984,984,984,987,989,987,987,987,987,989,989,989,989,992,992,995,1001,1001,1007,1010,1013,1016,1019,1025,1025,1025,1028,1031,1054,1054,1054,1054,1054,1054,1057,1057,1060,1063,1067,1067,1067,1219,1214,1214,1214,1219,1219,1223,1223,1223,1227,1223,1223,1223,1223,1223,1223,1223,1223,1223,1223,1223,1223,1227,1223,1223,1223,1223,1223,1223,1223,1223,1223,1223,1223,1223,1223,1219,1219,1219,1219,1219,1219,1219,1219,1219,1219,1223,1227,1227,1227,1227,1227,1227,1227,1227,1227,1227,1227,1227,1227,1227,1227,1227,1227,1227,1232,1232,1232,1232,1232,1232,1232,1232,1232,1227,1227,1227,1223,1223,1223,1223,1223,1227,1223,1223,1227,1227,1227,1227,1227,1227,1232,1227,1227,1232,1227,1227,1227,1227,1227,1227,1232,1232,1232,1232,1232,1232,1232,1232,1232,1232,1232,1227,1227,1227,1232,1227,1227,1232,1232,1232,1232,1232,1232,1232,1232,1227,1227,1227,1232,1232,1227,1227,1227,1227,1232,1232,1232,1232,1232,1232,1232,1232,1232,1232,1232,1232,1232,1227,1227,1227,1232,1232,1236,1236,1236,1236,1236,1232,1232,1232,1232,1232,1236,1232,1227,1219,1214,1206,1206,1202,1197,1185,1181,1169,1165,1165,1157,1157,1157,1119,1115,1112,1108,1108,1108,1105,1097,1094,1094,1090,1090,1094,1094,1094,1094,1090,1090,1090,1087,1087,1080,1077,1073,1067,1067,1063,1060,1057,1054,1054,1054,0,0,0,0,0,0,0,0,0,0,0,0,0,0,0,0,0,0,0,0,0,0,0,0,0,0,0,0,0,0,0,0,0,0
0,0,0,0,0,0,1165,1165,1169,1169,1169,1169,1169,1169,1169,1169,1169,1169,1169,1165,1165,1165,1161,1161,1161,1161,1165,1161,1161,1165,1165,1165,1165,1165,1165,1165,1165,1165,1161,1161,1165,1165,1165,1165,1165,1165,1165,1165,1165,1165,1165,1165,1165,1169,1169,1169,1169,1169,1169,1169,1169,1173,1173,1173,1173,1173,1173,1173,1169,1169,1173,1173,1173,1173,1173,1173,1173,1173,1173,1177,1173,1173,1173,1173,1177,1173,1173,1169,1169,1169,1173,1169,1169,1173,1173,1173,1173,1173,1169,1169,1169,1169,1169,987,987,984,981,978,978,975,975,975,975,975,975,975,975,978,978,978,981,984,984,987,987,987,987,989,989,989,1177,1177,1177,1181,1181,1181,1181,1185,1185,1185,1185,1185,1185,1181,1181,1181,1181,1181,1181,1181,1185,1185,1185,1185,1185,1185,1181,1181,1181,1185,1189,1185,1185,1185,1185,1189,1185,1185,1185,1185,1185,1185,1185,1185,1185,1185,1185,1185,1185,1189,1185,1185,1189,1189,1189,1185,1185,1185,1185,1185,1189,1189,1185,1185,1189,1189,1189,1185,1185,1185,1185,1185,1189,1189,1189,1189,1189,1193,1193,1193,1193,1193,1193,1193,1193,1193,1193,1193,1189,1189,0,0,0,0,0,0,0,0,0,0,0,713,711,710,710,708,707,706,703,703,701,701,700,697,697,697,696,696,696,697,697,698,700,701,703,704,704,706,710,710,711,713,713,714,714,0,0,0,0,0,989,987,987,987,984,981,978,978,975,975,975,975,975,975,975,975,975,975,975,973,973,973,973,973,1214,1214,1214,1210,1210,1210,1206,1206,1206,1206,1206,1206,1202,1202,1202,1202,1202,1202,1202,1202,1206,1206,1206,1206,1206,1206,1210,1210,1210,1210,1210,1210,1210,1210,1210,1214,1214,1214,1214,1214,1214,1214,1214,1214,1214,1214,1214,1214,1214,1214,1214,1214,1214,1214,978,975,975,978,981,981,981,981,981,984,984,984,984,984,987,989,989,989,992,992,995,1001,1004,1007,1013,1013,1016,1016,1022,1022,1025,1028,1050,1057,1057,1057,1054,1054,1054,1057,1060,1060,1063,1067,1067,1067,1214,1214,1214,1214,1214,1214,1219,1219,1219,1219,1219,1219,1219,1219,1219,1219,1219,1219,1219,1219,1219,1219,1223,1219,1219,1219,1219,1219,1219,1223,1223,1223,1219,1219,1219,1219,1219,1219,1219,1219,1219,1219,1219,1219,1219,1219,1219,1219,1219,1223,1223,1223,1227,1227,1227,1227,1223,1223,1223,1223,1223,1223,1223,1223,1223,1223,1227,1227,1227,1227,1227,1227,1227,1227,1223,1223,1223,1219,1219,1219,1219,1219,1223,1219,1219,1223,1223,1223,1223,1223,1223,1227,1227,1227,1227,1227,1227,1223,1219,1219,1219,1219,1227,1227,1227,1227,1227,1227,1223,1223,1223,1223,1223,1223,1223,1227,1227,1227,1227,1227,1227,1227,1227,1227,1227,1227,1223,1223,1223,1223,1223,1223,1223,1223,1223,1223,1227,1227,1227,1227,1227,1227,1227,1227,1227,1227,1227,1223,1223,1223,1223,1223,1223,1227,1232,1232,1232,1232,1232,1232,1232,1232,1232,1232,1227,1223,1219,1214,1206,1206,1202,1202,1197,1185,1169,1165,1165,1157,1157,1123,1119,1115,1112,1108,1108,1105,1101,1097,1094,1090,1090,1090,1090,1094,1094,1094,1090,1090,1090,1087,1087,1080,1073,1070,1067,1063,1063,1057,1054,1050,1050,1050,0,0,0,0,0,0,0,0,0,0,0,0,0,0,0,0,0,0,0,0,0,0,0,0,0,0,0,0,0,0,0,0,0,0
0,0,0,0,0,0,1165,1165,1165,1165,1165,1165,1165,1165,1165,1165,1165,1165,1165,1165,1161,1161,1161,1161,1161,1161,1161,1161,1161,1161,1161,1161,1161,1161,1161,1161,1161,1153,1153,1157,1157,1161,1161,1161,1161,1161,1161,1161,1161,1161,1161,1161,1161,1161,1161,1161,1161,1165,1165,1165,1165,1165,1165,1169,1169,1169,1169,1169,1165,1165,1165,1165,1165,1165,1169,1169,1169,1169,1169,1173,1173,1173,1173,1169,1169,1169,1169,1169,1169,1169,1169,1169,1169,1169,1169,1169,1169,1169,1165,1165,1165,1165,1165,987,987,984,981,981,978,978,975,975,975,975,975,975,978,978,978,981,984,984,987,987,987,987,987,989,989,1177,1177,1177,1177,1177,1181,1181,1181,1181,1181,1181,1181,1181,1181,1181,1181,1181,1181,1181,1181,1181,1181,1181,1181,1181,1181,1181,1181,1181,1181,1181,1181,1181,1181,1181,1181,1181,1181,1181,1181,1181,1181,1181,1181,1181,1181,1185,1185,1185,1185,1185,1185,1185,1185,1185,1185,1185,1185,1185,1185,1185,1185,1185,1185,1185,1185,1185,1185,1181,1181,1185,1185,1185,1185,1185,1185,1189,1189,1189,1189,1189,1189,1189,1189,1189,1189,1189,1185,1185,1185,1181,1181,0,0,0,0,0,0,0,0,0,0,0,711,710,710,710,708,706,704,703,703,701,700,698,697,697,696,696,696,697,697,698,700,703,703,704,704,706,710,711,711,713,714,714,714,0,0,0,0,0,989,989,987,987,984,981,978,978,975,975,975,975,975,975,975,973,973,973,973,973,970,970,970,970,970,1214,1214,1210,1210,1210,1206,1206,1202,1202,1202,1202,1202,1197,1197,1197,1197,1197,1197,1197,1202,1202,1202,1202,1206,1206,1206,1206,1206,1206,1206,1206,1206,1206,1206,1206,1206,1206,1206,1210,1210,1210,1210,1210,1210,1210,1210,1210,1210,1210,1210,1210,1210,975,975,975,975,975,978,978,978,978,978,981,984,984,984,984,987,987,989,989,989,992,995,1001,1004,1007,1013,1013,1016,1016,1022,1022,1063,1063,1060,1060,1057,1057,1057,1057,1057,1060,1060,1060,1063,1067,1067,1067,1210,1210,1210,1210,1210,1214,1214,1219,1219,1219,1219,1219,1219,1219,1214,1214,1214,1214,1214,1214,1219,1219,1219,1219,1219,1219,1219,1219,1219,1219,1219,1219,1219,1219,1219,1219,1219,1214,1214,1214,1214,1214,1214,1214,1214,1214,1214,1214,1214,1214,1214,1219,1223,1223,1223,1223,1223,1223,1223,1219,1219,1219,1219,1219,1219,1219,1219,1219,1219,1223,1223,1223,1223,1223,1219,1219,1219,1219,1219,1219,1219,1219,1219,1219,1219,1219,1223,1223,1223,1223,1223,1223,1223,1223,1223,1223,1223,1219,1219,1219,1219,1219,1219,1219,1219,1223,1223,1223,1223,1223,1223,1223,1219,1219,1223,1223,1223,1223,1223,1223,1223,1223,1223,1223,1223,1223,1219,1219,1219,1219,1219,1219,1219,1219,1219,1223,1223,1223,1227,1227,1227,1227,1223,1223,1223,1223,1223,1219,1219,1219,1219,1219,1219,1219,1219,1223,1227,1227,1227,1227,1227,1227,1232,1232,1227,1223,1219,1214,1210,1206,1202,1202,1197,1189,1185,1185,1181,1157,1157,1123,1119,1115,1108,1108,1108,1105,1101,1094,1094,1090,1090,1090,1090,1090,1094,1090,1090,1087,1087,1084,1084,1077,1073,1067,1067,1063,1063,1057,1054,1050,1047,1047,0,0,0,0,0,0,0,0,0,0,0,0,0,0,0,0,0,0,0,0,0,0,0,0,0,0,0,0,0,0,0,0,0,0
0,0,0,0,0,0,1161,1161,1165,1165,1165,1165,1161,1161,1161,1161,1161,1161,1161,1161,1161,1157,1157,1161,1157,1157,1161,1157,1157,1157,1161,1161,1157,1153,1153,1153,1153,1153,1153,1153,1153,1157,1157,1157,1157,1157,1157,1157,1157,1157,1157,1157,1157,1157,1157,1157,1157,1157,1157,1157,1157,1161,1161,1161,1161,1161,1161,1161,1161,1161,1161,1161,1161,1161,1165,1165,1165,1165,1169,1169,1169,1169,1169,1165,1165,1165,1165,1165,1165,1165,1169,1165,1165,1165,1165,1165,1169,1165,1165,1165,1165,1165,1165,989,987,984,981,981,978,978,975,975,975,975,975,975,978,978,978,981,984,987,987,987,987,989,989,989,989,1173,1173,1173,1173,1173,1173,1173,1173,1177,1181,1181,1181,1181,1181,1181,1177,1177,1177,1177,1177,1177,1177,1177,1177,1177,1177,1177,1177,1177,1177,1177,1177,1177,1177,1177,1181,1181,1181,1181,1181,1181,1181,1181,1181,1181,1181,1181,1181,1181,1181,1181,1181,1181,1181,1181,1181,1181,1181,1181,1181,1181,1185,1185,1181,1181,1185,1185,1181,1181,1181,1181,1181,1181,1181,1181,1181,1181,1181,1181,1185,1185,1185,1185,1185,1185,1185,1185,1185,1181,1181,1181,1181,0,0,0,0,0,0,0,0,0,0,0,711,711,711,711,708,706,704,704,703,701,700,698,697,697,697,696,696,697,697,698,701,703,704,704,704,707,710,711,713,713,714,714,714,0,0,0,0,0,989,989,989,987,984,984,978,978,975,975,973,973,973,973,973,973,973,970,970,970,967,967,967,967,970,967,967,1214,970,970,1202,1202,1197,1197,1197,1197,1197,1197,1197,1197,1197,1197,1197,1197,1197,1197,1202,1202,1202,1202,1202,1206,1206,1206,1206,1206,1202,1202,1202,1202,1202,1202,1202,1202,1202,1206,1206,1206,1202,1202,1202,1206,1206,1210,1210,1210,973,973,975,975,975,975,975,975,978,978,978,978,981,981,981,981,984,987,989,989,989,992,995,1001,1004,1010,1013,1016,1016,1016,1022,1022,1063,1063,1063,1060,1060,1060,1057,1057,1057,1060,1060,1063,1063,1067,1067,1206,1206,1206,1206,1206,1206,1210,1214,1214,1214,1214,1214,1214,1214,1214,1214,1214,1214,1214,1214,1214,1214,1214,1214,1214,1214,1214,1214,1214,1214,1219,1219,1219,1214,1214,1214,1214,1214,1214,1214,1214,1214,1214,1214,1214,1214,1214,1214,1214,1214,1214,1214,1214,1214,1214,1219,1219,1219,1219,1219,1219,1219,1214,1214,1214,1214,1214,1214,1214,1214,1214,1219,1219,1219,1219,1219,1219,1219,1219,1219,1219,1219,1219,1219,1214,1214,1219,1219,1219,1219,1219,1219,1219,1219,1219,1219,1219,1219,1219,1219,1214,1214,1214,1214,1214,1214,1214,1219,1219,1219,1219,1219,1219,1219,1219,1219,1219,1219,1219,1219,1219,1219,1214,1214,1219,1219,1219,1219,1219,1219,1219,1219,1219,1219,1219,1219,1219,1219,1219,1223,1223,1223,1223,1219,1219,1219,1219,1219,1219,1219,1219,1214,1214,1219,1219,1219,1219,1219,1223,1223,1223,1223,1223,1223,1223,1223,1219,1214,1210,1206,1206,1202,1202,1197,1189,1185,1185,1185,1185,1189,1123,1123,1119,1108,1108,1108,1105,1101,1094,1094,1090,1090,1090,1090,1090,1094,1090,1090,1087,1087,1084,1080,1073,1070,1063,1063,1063,1063,1054,1054,1050,1047,1047,0,0,0,0,0,0,0,0,0,0,0,0,0,0,0,0,0,0,0,0,0,0,0,0,0,0,0,0,0,0,0,0,0,0
0,0,0,0,0,0,1161,1161,1161,1165,1165,1165,1161,1161,1161,1161,1161,1157,1157,1157,1157,1157,1157,1157,1157,1157,1157,1157,1157,1157,1157,1153,1153,1153,1153,1149,1149,1149,1149,1149,1149,1153,1153,1153,1153,1153,1157,1153,1153,1153,1157,1153,1153,1157,1157,1153,1153,1153,1153,1157,1157,1153,1153,1157,1157,1161,1157,1157,1161,1157,1157,1157,1157,1157,1161,1161,1161,1161,1161,1165,1165,1165,1165,1165,1165,1165,1165,1165,1165,1165,1165,1165,1165,1165,1165,1165,1165,1165,1165,1165,1165,1165,1165,989,987,987,981,981,978,978,975,975,975,975,975,975,978,978,981,984,984,987,987,987,987,989,989,989,989,992,1173,1169,1169,1169,1169,1169,1169,1169,1169,1173,1177,1177,1177,1177,1177,1177,1177,1173,1173,1173,1173,1173,1173,1173,1173,1173,1173,1173,1173,1177,1177,1173,1173,1177,1177,1177,1177,1177,1177,1177,1177,1177,1177,1177,1177,1177,1177,1177,1177,1181,1181,1181,1181,1181,1181,1181,1177,1177,1177,1181,1181,1181,1177,1177,1181,1181,1181,1177,1177,1177,1181,1181,1181,1181,1181,1181,1181,1181,1181,1181,1181,1181,1181,1181,1181,1181,1181,1177,1177,1177,1177,0,0,0,0,0,0,0,0,0,0,0,0,711,711,711,710,706,704,704,703,701,700,698,697,697,697,697,697,697,697,698,703,703,704,704,704,708,711,713,713,714,714,714,714,0,0,0,0,992,989,989,989,987,984,984,978,978,975,975,973,973,973,973,970,970,970,967,967,967,964,964,964,967,967,967,967,967,967,967,967,1202,1197,1193,1189,1189,1193,1193,1193,1193,1193,1193,1193,1193,1197,1197,1197,1197,1202,1202,1202,1202,1202,1202,1202,1202,1202,1202,1197,1197,1197,1197,1197,1197,1197,1197,1197,1197,1202,1202,1202,1202,1202,1206,1206,967,967,970,973,973,973,973,975,975,975,975,975,975,978,978,981,981,984,987,989,989,989,992,998,1001,1004,1010,1013,1016,1016,1016,1070,1067,1067,1063,1063,1063,1063,1060,1060,1060,1060,1063,1063,1063,1067,1067,1067,1197,1197,1197,1202,1202,1202,1210,1210,1210,1210,1210,1214,1210,1210,1210,1210,1210,1210,1210,1210,1210,1210,1210,1210,1214,1214,1214,1214,1214,1214,1214,1214,1214,1214,1214,1214,1214,1214,1214,1214,1214,1214,1214,1214,1214,1214,1214,1214,1214,1210,1210,1210,1210,1210,1210,1210,1214,1214,1214,1219,1214,1214,1214,1214,1214,1214,1214,1214,1214,1214,1214,1214,1214,1214,1214,1214,1214,1214,1214,1214,1214,1214,1214,1214,1214,1214,1214,1214,1214,1214,1214,1214,1214,1214,1214,1214,1214,1210,1210,1214,1214,1214,1210,1210,1214,1214,1214,1214,1214,1214,1214,1219,1219,1219,1219,1214,1214,1214,1214,1214,1214,1214,1214,1214,1219,1219,1219,1219,1214,1214,1214,1214,1214,1214,1214,1214,1214,1214,1219,1219,1219,1219,1219,1219,1214,1214,1214,1219,1214,1214,1214,1214,1214,1219,1219,1219,1214,1214,1219,1219,1219,1219,1219,1219,1219,1219,1214,1214,1210,1206,1206,1202,1202,1197,1193,1189,1189,1193,1189,1189,1193,1123,1119,1108,1108,1108,1219,1219,1097,1094,1090,1090,1090,1090,1090,1094,1090,1090,1087,1084,1080,1077,1073,1067,1060,1060,1063,1054,1054,1050,1044,1044,1044,0,0,0,0,0,0,0,0,0,0,0,0,0,0,0,0,0,0,0,0,0,0,0,0,0,0,0,0,0,0,0,0,0,0
0,0,0,0,0,0,1161,1161,1161,1165,1161,1161,1161,1161,1161,1157,1157,1153,1153,1153,1153,1153,1153,1153,1153,1153,1157,1153,1153,1153,1153,1153,1149,1149,1149,1149,1149,1149,1149,1149,1149,1149,1149,1149,1149,1149,1153,1149,1149,1149,1153,1153,1153,1153,1153,1153,1153,1153,1153,1153,1153,1153,1153,1153,1153,1157,1153,1153,1157,1157,1157,1153,1153,1153,1157,1157,1157,1161,1161,1161,1161,1161,1161,1161,1161,1161,1161,1161,1161,1161,1161,1161,1161,1161,1161,1161,1161,1161,1161,1161,1161,1161,1165,987,987,987,984,981,981,978,978,978,975,975,975,978,978,978,981,984,984,987,987,987,987,989,989,989,989,992,1165,1165,1165,1165,1165,1165,1165,1165,1165,1165,1169,1169,1169,1173,1173,1173,1177,1169,1169,1169,1169,1169,1169,1169,1169,1169,1169,1169,1169,1173,1173,1173,1173,1173,1173,1177,1173,1173,1173,1173,1173,1173,1173,1173,1173,1177,1177,1177,1177,1177,1177,1177,1177,1177,1177,1177,1177,1177,1177,1177,1177,1177,1177,1177,1177,1177,1177,1177,1177,1177,1177,1177,1177,1177,1177,1177,1177,1177,1177,1177,1177,1177,1177,1177,1177,1177,1177,1177,1177,1177,1177,0,0,0,0,0,0,0,0,0,0,0,0,714,714,711,710,707,706,704,703,703,701,700,698,697,697,697,697,697,697,698,703,704,704,704,706,708,713,713,713,714,714,714,0,0,0,0,0,992,989,989,989,987,987,984,978,978,975,975,973,973,973,970,970,967,967,967,964,962,962,962,964,964,964,964,964,964,964,964,964,964,962,962,1189,1189,1193,1193,1193,1193,1193,1193,1193,1193,1193,1193,1193,1193,1197,1197,1197,1197,1202,1202,1202,1202,1202,1197,1197,1197,1197,1197,1197,1197,1197,1197,1197,1197,1197,1197,1197,1202,1202,962,962,964,964,967,970,970,970,973,973,973,973,973,973,973,975,978,978,981,984,987,989,989,992,995,1001,1001,1004,1007,1010,1013,1016,1077,1070,1067,1067,1067,1063,1063,1063,1063,1063,1063,1063,1063,1063,1063,1067,1067,1067,1197,1197,1197,1202,1202,1202,1206,1206,1206,1210,1210,1210,1206,1206,1206,1206,1206,1206,1206,1206,1206,1206,1206,1210,1210,1210,1210,1210,1214,1210,1210,1210,1214,1210,1210,1210,1210,1210,1210,1210,1210,1210,1210,1210,1210,1210,1210,1210,1210,1206,1206,1206,1206,1210,1210,1210,1214,1214,1214,1214,1214,1214,1214,1214,1210,1210,1210,1210,1210,1210,1210,1206,1206,1210,1210,1210,1210,1210,1210,1214,1214,1214,1214,1214,1214,1214,1214,1214,1214,1214,1214,1214,1210,1210,1210,1210,1210,1206,1206,1210,1210,1210,1206,1206,1210,1210,1210,1214,1214,1214,1210,1210,1214,1214,1214,1210,1210,1210,1210,1210,1210,1210,1214,1214,1214,1214,1214,1214,1214,1214,1214,1214,1214,1214,1214,1214,1214,1214,1214,1214,1214,1214,1214,1214,1214,1210,1210,1210,1210,1210,1214,1214,1214,1214,1214,1214,1214,1210,1210,1214,1214,1214,1214,1219,1214,1214,1214,1214,1210,1202,1202,1202,1197,1197,1193,1189,1189,1193,1193,1193,1193,1206,1214,1219,1219,1219,1219,1219,1219,1094,1090,1090,1090,1090,1090,1094,1090,1090,1084,1080,1077,1077,1067,1063,1060,1060,1057,1050,1050,1047,1041,1041,1041,0,0,0,0,0,0,0,0,0,0,0,0,0,0,0,0,0,0,0,0,0,0,0,0,0,0,0,0,0,0,0,0,0,0
0,0,0,0,0,0,1157,1157,1161,1161,1161,1161,1157,1157,1157,1157,1153,1149,1149,1149,1149,1149,1149,1149,1149,1153,1149,1149,1149,1149,1149,1149,1149,1149,1149,1149,1149,1145,1145,1145,1145,1145,1145,1145,1145,1149,1149,1149,1149,1149,1149,1149,1149,1149,1149,1149,1149,1149,1149,1149,1149,1149,1149,1153,1153,1153,1153,1153,1153,1153,1153,1149,1149,1149,1153,1153,1157,1157,1157,1161,1161,1157,1157,1157,1157,1157,1157,1157,1157,1157,1157,1157,1157,1157,1157,1157,1157,1157,1157,1161,1161,1161,1161,987,987,987,984,984,981,981,978,978,975,975,975,978,978,978,981,984,984,987,987,987,989,989,989,989,989,1161,1161,1161,1161,1161,1161,1161,1161,1161,1161,1161,1165,1165,1165,1165,1165,1169,1165,1165,1165,1165,1165,1165,1165,1165,1165,1165,1165,1165,1165,1165,1165,1165,1169,1169,1173,1173,1169,1169,1169,1169,1169,1169,1169,1169,1169,1173,1173,1173,1173,1173,1173,1173,1173,1173,1173,1173,1173,1173,1173,1173,1177,1173,1173,1173,1173,1173,1173,1173,1173,1173,1173,1173,1177,1177,1177,1173,1173,1173,1173,1173,1173,1173,1173,1173,1173,1173,1173,1173,1173,1173,1181,0,0,0,0,0,0,0,0,0,0,0,0,714,714,713,710,707,706,704,704,703,701,700,698,697,697,697,697,697,698,698,703,704,704,706,707,710,713,713,714,714,714,714,0,0,0,0,0,992,989,989,989,989,987,984,978,978,975,975,975,973,973,970,970,967,967,967,962,962,959,959,962,962,962,962,962,962,964,962,962,959,959,956,956,956,1193,1193,1193,1193,1193,1193,1193,1193,1193,1193,1193,1189,1189,1193,1193,1197,1197,1197,1197,1197,1197,1197,1197,1197,1197,1197,1193,1193,1193,1197,1197,1197,1197,1197,1197,1197,959,959,959,962,964,967,967,967,967,970,970,970,970,970,973,973,975,975,978,981,984,987,989,989,992,998,1001,1001,1004,1004,1007,1013,1077,1077,1073,1070,1067,1067,1063,1063,1063,1063,1063,1063,1063,1063,1063,1067,1067,1067,1070,1197,1197,1197,1197,1197,1197,1197,1197,1197,1202,1206,1206,1202,1202,1202,1202,1202,1202,1202,1202,1202,1202,1202,1206,1206,1206,1206,1206,1206,1206,1206,1210,1210,1210,1206,1206,1210,1210,1206,1206,1206,1206,1206,1206,1206,1206,1206,1206,1206,1202,1202,1202,1202,1202,1202,1202,1202,1202,1210,1210,1210,1210,1206,1206,1206,1210,1206,1206,1206,1206,1206,1206,1202,1202,1206,1206,1206,1206,1206,1206,1210,1210,1210,1210,1210,1210,1210,1210,1210,1210,1210,1202,1202,1202,1202,1202,1206,1202,1202,1206,1206,1206,1206,1206,1206,1206,1206,1206,1210,1210,1210,1210,1210,1210,1210,1210,1210,1210,1206,1206,1206,1206,1206,1210,1210,1210,1210,1214,1210,1210,1210,1210,1210,1210,1210,1210,1210,1210,1210,1214,1214,1210,1210,1210,1210,1210,1210,1210,1210,1210,1210,1210,1210,1214,1214,1214,1210,1210,1210,1210,1210,1214,1214,1214,1214,1214,1210,1210,1206,1202,1197,1197,1197,1197,1197,1193,1193,1193,1193,1193,1197,1206,1214,1219,1219,1219,1214,1214,1214,1094,1090,1090,1090,1090,1090,1090,1087,1087,1080,1077,1073,1067,1067,1063,1057,1057,1054,1047,1047,1044,1038,1038,1038,0,0,0,0,0,0,0,0,0,0,0,0,0,0,0,0,0,0,0,0,0,0,0,0,0,0,0,0,0,0,0,0,0,0
0,0,0,0,0,0,1157,1157,1157,1157,1157,1157,1157,1153,1153,1153,1149,1149,1149,1145,1145,1145,1149,1149,1149,1149,1149,1149,1149,1149,1145,1145,1145,1145,1145,1145,1145,1145,1145,1145,1141,1141,1141,1141,1141,1145,1145,1145,1145,1145,1149,1149,1149,1149,1149,1149,1149,1149,1149,1149,1149,1149,1149,1149,1149,1149,1149,1149,1149,1149,1149,1149,1145,1145,1149,1149,1149,1153,1153,1157,1157,1157,1153,1153,1153,1153,1153,1153,1153,1153,1153,1153,1153,1153,1153,1153,1153,1153,1153,1153,1153,1157,1161,989,989,987,984,984,984,981,978,978,975,975,975,978,978,978,981,984,987,987,987,989,989,989,992,992,992,1157,1157,1157,1157,1157,1157,1157,1161,1161,1157,1157,1161,1161,1161,1161,1161,1165,1165,1161,1161,1161,1161,1161,1161,1165,1165,1165,1165,1165,1165,1165,1165,1165,1165,1165,1165,1169,1169,1165,1165,1165,1165,1165,1165,1165,1165,1165,1165,1169,1165,1165,1169,1169,1169,1169,1169,1169,1169,1169,1173,1173,1173,1173,1173,1169,1169,1169,1169,1169,1169,1169,1169,1169,1173,1169,1169,1173,1169,1169,1169,1169,1169,1169,1169,1169,1169,1169,1165,1165,1165,1169,1169,0,0,0,0,0,0,0,0,0,0,0,0,714,713,711,710,708,707,704,704,703,703,701,698,698,697,697,697,697,698,701,703,704,704,706,707,711,713,714,714,716,716,716,0,0,0,0,998,995,992,989,989,989,987,987,978,978,975,975,975,973,970,970,967,967,967,964,962,959,956,956,959,959,959,959,959,959,962,959,959,956,956,954,954,954,951,951,951,1193,1193,1189,1189,1189,1189,1189,1189,1189,1189,1193,1193,1193,1193,1193,1193,1193,1193,1193,1193,1193,1193,1193,1189,1189,1189,1193,1193,1193,1193,1193,956,956,959,959,959,962,964,964,964,964,964,967,967,967,967,970,970,973,975,975,978,981,984,987,989,992,995,998,1001,1001,1004,1004,1007,1077,1077,1077,1073,1070,1067,1067,1063,1063,1063,1063,1063,1063,1063,1063,1063,1067,1067,1067,1070,1193,1193,1193,1193,1197,1197,1197,1197,1197,1197,1197,1197,1197,1197,1197,1197,1197,1197,1197,1197,1197,1202,1202,1202,1202,1202,1202,1202,1202,1202,1202,1202,1202,1202,1202,1202,1202,1202,1202,1202,1202,1202,1202,1202,1202,1202,1202,1202,1202,1202,1197,1197,1197,1197,1197,1202,1202,1202,1202,1202,1202,1202,1202,1202,1202,1202,1202,1202,1202,1202,1202,1202,1202,1202,1202,1202,1202,1202,1202,1202,1206,1206,1206,1206,1206,1210,1210,1210,1206,1206,1210,1202,1197,1197,1197,1197,1202,1202,1202,1202,1202,1202,1202,1202,1202,1202,1202,1202,1202,1206,1206,1206,1206,1202,1202,1202,1202,1202,1202,1202,1202,1202,1202,1210,1210,1206,1206,1210,1210,1210,1206,1206,1206,1210,1210,1206,1206,1206,1206,1206,1202,1202,1206,1206,1206,1206,1206,1206,1206,1206,1210,1210,1210,1210,1210,1210,1210,1210,1210,1210,1210,1214,1214,1214,1214,1214,1206,1206,1202,1202,1197,1197,1193,1193,1197,1197,1193,1193,1197,1197,1202,1206,1214,1214,1214,1214,1214,1210,1210,1210,1210,1094,1094,1090,1090,1090,1087,1087,1077,1073,1070,1067,1063,1060,1057,1054,1054,1047,1047,1041,1038,1034,1034,0,0,0,0,0,0,0,0,0,0,0,0,0,0,0,0,0,0,0,0,0,0,0,0,0,0,0,0,0,0,0,0,0,0
0,0,0,0,0,1153,1153,1153,1153,1153,1153,1153,1157,1153,1153,1153,1149,1145,1145,1141,1141,1141,1141,1141,1145,1145,1145,1145,1145,1145,1145,1145,1145,1145,1145,1145,1145,1141,1141,1141,1138,1138,1138,1138,1138,1141,1141,1145,1145,1145,1145,1145,1145,1145,1145,1145,1141,1141,1141,1145,1145,1145,1149,1149,1149,1149,1149,1149,1149,1145,1145,1145,1145,1145,1145,1145,1145,1145,1149,1149,1153,1157,1153,1153,1153,1153,1153,1149,1149,1149,1149,1149,1149,1149,1149,1149,1149,1153,1153,1153,1153,1157,1157,1161,989,989,987,984,984,981,981,978,975,975,975,978,978,981,984,984,987,987,989,989,989,992,992,995,995,1153,1153,1153,1153,1153,1153,1157,1157,1157,1157,1157,1157,1157,1157,1157,1157,1161,1161,1161,1161,1157,1157,1157,1157,1157,1157,1157,1157,1161,1161,1161,1161,1165,1165,1165,1165,1165,1165,1165,1165,1165,1165,1165,1165,1165,1165,1165,1165,1165,1161,1161,1165,1165,1165,1165,1165,1165,1165,1165,1165,1169,1169,1169,1169,1169,1169,1169,1165,1165,1165,1165,1165,1169,1169,1165,1165,1169,1169,1169,1165,1165,1165,1165,1165,1165,1165,1165,1165,1165,1165,1165,1169,0,0,0,0,0,0,0,0,0,0,0,0,714,713,711,710,708,707,706,704,704,703,701,700,698,698,698,698,698,698,701,703,704,704,706,708,711,714,714,716,716,716,716,0,0,0,0,998,995,992,989,989,989,989,987,987,981,978,975,975,973,970,970,967,967,964,962,962,959,956,956,956,956,956,956,956,956,956,956,956,956,954,954,954,951,948,948,948,948,1185,1185,1185,1189,1189,1189,1185,1185,1185,1189,1189,1189,1189,1189,1189,1189,1193,1189,1189,1193,1189,1189,1189,1189,1189,1189,1189,1189,1189,956,956,956,956,956,956,956,959,962,962,962,962,964,964,964,964,967,970,970,973,973,978,981,984,989,989,992,995,998,998,1001,1001,1004,1007,1077,1077,1077,1073,1070,1070,1067,1067,1063,1063,1063,1063,1063,1063,1063,1063,1067,1067,1067,1070,1193,1193,1193,1193,1193,1197,1193,1193,1193,1193,1193,1189,1189,1197,1193,1193,1193,1193,1193,1197,1197,1197,1197,1197,1197,1202,1202,1202,1202,1202,1202,1197,1197,1197,1197,1197,1197,1197,1197,1197,1197,1197,1197,1197,1197,1197,1197,1197,1197,1197,1197,1197,1197,1197,1197,1197,1197,1197,1197,1197,1197,1197,1197,1197,1197,1193,1193,1193,1197,1202,1202,1202,1202,1202,1202,1197,1197,1202,1202,1202,1202,1202,1202,1202,1202,1202,1202,1202,1197,1197,1197,1197,1197,1197,1197,1197,1202,1197,1197,1197,1197,1197,1202,1197,1197,1197,1202,1197,1197,1202,1202,1197,1197,1197,1197,1197,1197,1197,1197,1197,1202,1202,1202,1206,1206,1206,1206,1206,1206,1206,1202,1202,1202,1206,1206,1202,1202,1202,1202,1202,1197,1197,1202,1202,1202,1202,1202,1202,1202,1202,1206,1206,1206,1206,1206,1210,1210,1206,1206,1210,1210,1214,1210,1210,1206,1206,1202,1202,1202,1202,1197,1197,1193,1193,1197,1197,1197,1197,1197,1197,1202,1206,1214,1214,1214,1214,1214,1206,1206,1206,1206,1210,1094,1090,1087,1087,1087,1080,1073,1070,1067,1063,1060,1057,1054,1054,1047,1047,1047,1041,1034,1034,1034,0,0,0,0,0,0,0,0,0,0,0,0,0,0,0,0,0,0,0,0,0,0,0,0,0,0,0,0,0,0,0,0,0,0
0,0,0,0,0,1149,1149,1149,1149,1149,1149,1149,1153,1149,1149,1145,1145,1145,1141,1138,1138,1138,1138,1138,1138,1138,1141,1141,1141,1141,1141,1141,1141,1141,1141,1145,1141,1141,1138,1138,1138,1134,1134,1138,1138,1138,1138,1141,1141,1141,1141,1141,1141,1141,1141,1141,1141,1141,1141,1138,1138,1141,1145,1145,1145,1145,1145,1145,1145,1141,1141,1141,1141,1141,1141,1141,1141,1141,1141,1141,1145,1145,1145,1149,1149,1149,1149,1149,1145,1145,1145,1145,1145,1145,1145,1145,1145,1149,1149,1149,1149,1153,1153,1153,989,989,987,987,987,984,981,978,978,978,978,978,978,981,984,987,987,987,989,989,992,992,992,995,998,1153,1153,1153,1153,1153,1153,1153,1157,1157,1157,1153,1153,1153,1153,1153,1153,1153,1153,1157,1157,1157,1157,1157,1157,1157,1157,1157,1157,1157,1157,1157,1161,1161,1161,1165,1165,1165,1165,1165,1165,1161,1161,1161,1161,1161,1161,1161,1161,1161,1157,1157,1161,1161,1161,1161,1161,1165,1165,1165,1165,1165,1165,1165,1165,1165,1165,1165,1165,1161,1161,1165,1165,1165,1165,1165,1165,1165,1165,1165,1165,1165,1165,1165,1165,1165,1165,1165,1161,1161,1161,1165,1165,0,0,0,0,0,0,0,0,0,0,0,0,716,714,713,710,708,707,707,706,704,704,703,701,700,698,698,698,698,698,701,703,704,704,707,708,711,713,714,716,716,716,716,0,0,0,0,0,995,992,989,989,989,987,987,984,981,978,975,975,973,973,970,967,967,964,962,959,959,956,956,956,956,954,954,954,954,954,954,954,954,951,951,948,948,948,946,946,946,946,1185,1185,1185,1185,1185,1185,1181,1181,1185,1185,1185,1185,1185,1185,1185,1185,1185,1185,1189,1189,1185,1185,1185,1185,1189,1189,1189,1189,954,954,954,956,956,956,956,956,956,959,959,959,962,964,964,964,967,967,970,973,973,978,981,984,989,989,992,995,998,998,1001,1001,1004,1080,1077,1077,1077,1077,1073,1070,1067,1067,1063,1063,1063,1063,1063,1063,1063,1063,1067,1067,1070,1073,1185,1189,1193,1193,1193,1193,1193,1189,1189,1189,1189,1185,1185,1189,1189,1189,1193,1193,1193,1193,1193,1193,1193,1197,1197,1197,1197,1197,1197,1197,1197,1193,1193,1193,1193,1189,1189,1193,1193,1193,1193,1193,1193,1193,1197,1197,1197,1197,1197,1197,1197,1193,1193,1193,1193,1193,1193,1193,1193,1193,1193,1193,1193,1193,1189,1189,1189,1189,1193,1193,1197,1197,1197,1197,1197,1197,1197,1197,1197,1197,1197,1197,1197,1197,1197,1202,1202,1202,1197,1197,1193,1193,1193,1193,1193,1193,1197,1197,1197,1197,1197,1197,1197,1197,1197,1197,1197,1197,1197,1197,1197,1197,1197,1197,1197,1197,1197,1197,1197,1197,1197,1197,1202,1202,1202,1202,1202,1202,1202,1202,1202,1197,1197,1202,1202,1197,1197,1197,1197,1202,1197,1197,1197,1197,1202,1202,1202,1202,1202,1202,1202,1202,1202,1202,1202,1202,1206,1206,1206,1206,1206,1210,1210,1206,1206,1202,1202,1202,1202,1202,1197,1197,1197,1197,1197,1197,1197,1197,1197,1202,1202,1206,1210,1210,1210,1210,1206,1206,1202,1202,1202,1202,1206,1214,1087,1084,1073,1070,1067,1067,1067,1060,1057,1054,1054,1047,1044,1044,1044,1038,1034,1031,1031,0,0,0,0,0,0,0,0,0,0,0,0,0,0,0,0,0,0,0,0,0,0,0,0,0,0,0,0,0,0,0,0,0,0
0,0,0,0,0,1149,1149,1145,1145,1145,1145,1145,1145,1141,1138,1134,1134,1138,1138,1134,1134,1134,1134,1134,1134,1134,1138,1138,1138,1138,1138,1141,1141,1141,1141,1138,1138,1138,1138,1134,1134,1134,1134,1134,1134,1138,1138,1138,1138,1138,1138,1138,1138,1138,1138,1138,1138,1138,1138,1138,1138,1138,1141,1141,1141,1141,1141,1141,1141,1138,1138,1138,1138,1138,1138,1138,1138,1138,1138,1138,1138,1141,1141,1141,1141,1141,1141,1141,1145,1145,1141,1141,1145,1145,1145,1141,1141,1145,1145,1145,1149,1149,1149,1153,989,987,987,987,987,984,981,978,978,978,978,978,978,981,984,987,987,987,989,989,992,992,992,995,998,1149,1149,1149,1149,1149,1149,1149,1153,1153,1153,1153,1153,1153,1153,1149,1149,1149,1149,1153,1153,1153,1157,1157,1157,1157,1157,1157,1153,1153,1153,1153,1153,1157,1157,1161,1161,1161,1161,1161,1161,1161,1161,1161,1161,1161,1161,1161,1157,1157,1153,1153,1157,1161,1157,1157,1161,1161,1161,1161,1161,1161,1161,1161,1161,1161,1161,1161,1161,1161,1161,1161,1161,1161,1161,1161,1161,1161,1161,1161,1161,1161,1161,1161,1161,1161,1161,1161,1161,1161,1161,1161,1161,0,0,0,0,0,0,0,0,0,0,0,717,716,714,713,711,710,708,707,706,704,704,703,701,700,700,700,700,700,700,701,703,704,704,708,710,713,713,714,716,716,714,714,0,0,0,0,0,0,992,989,989,987,987,987,984,981,978,978,975,973,973,970,967,967,964,962,959,959,956,956,956,954,954,954,954,951,951,951,951,951,948,948,948,948,946,946,943,943,946,946,1185,1185,1185,1185,1185,1181,1181,1185,1181,1181,1181,1181,1181,1181,1185,1185,1185,1185,1185,1185,1185,1185,1185,1185,1185,1185,1189,951,951,954,954,956,954,954,956,956,956,956,956,956,959,962,962,964,967,970,973,973,978,981,984,989,989,992,995,998,998,1001,1001,1080,1080,1077,1077,1077,1077,1073,1070,1070,1067,1067,1063,1063,1063,1063,1063,1063,1063,1067,1067,1070,1185,1185,1185,1189,1189,1189,1189,1189,1189,1185,1185,1185,1185,1185,1185,1185,1185,1189,1185,1185,1189,1189,1193,1193,1193,1193,1193,1193,1193,1197,1193,1193,1189,1189,1189,1189,1185,1185,1189,1189,1189,1189,1189,1185,1185,1185,1193,1189,1189,1189,1189,1189,1189,1189,1185,1185,1185,1185,1185,1189,1189,1189,1189,1189,1185,1185,1185,1185,1185,1185,1189,1189,1189,1193,1193,1193,1193,1193,1193,1193,1189,1189,1193,1189,1189,1189,1193,1193,1197,1197,1197,1193,1193,1193,1193,1193,1193,1193,1193,1193,1197,1197,1197,1197,1197,1197,1197,1197,1197,1197,1193,1189,1189,1197,1189,1189,1193,1193,1193,1193,1193,1193,1193,1193,1193,1197,1197,1197,1197,1197,1197,1197,1193,1193,1197,1197,1197,1197,1197,1197,1197,1197,1197,1197,1197,1202,1202,1202,1197,1197,1197,1197,1197,1197,1202,1197,1197,1202,1202,1202,1202,1206,1210,1206,1206,1206,1202,1202,1202,1202,1202,1202,1197,1197,1197,1197,1193,1193,1193,1193,1197,1202,1202,1206,1210,1210,1210,1206,1206,1202,1202,1202,1202,1202,1202,1202,1084,1070,1067,1067,1063,1063,1060,1054,1054,1047,1047,1044,1041,1041,1038,1031,1031,1031,0,0,0,0,0,0,0,0,0,0,0,0,0,0,0,0,0,0,0,0,0,0,0,0,0,0,0,0,0,0,0,0,0,0
0,0,0,0,0,1145,1145,1141,1138,1138,1138,1138,1134,1134,1134,1130,1130,1134,1134,1130,1130,1130,1130,1134,1134,1134,1134,1138,1138,1138,1138,1134,1134,1138,1134,1134,1134,1134,1134,1134,1134,1134,1134,1134,1134,1134,1134,1134,1134,1134,1134,1134,1134,1134,1134,1134,1134,1134,1134,1134,1134,1134,1134,1138,1134,1134,1138,1138,1138,1134,1134,1134,1134,1134,1134,1134,1134,1134,1134,1134,1134,1138,1138,1141,1138,1138,1141,1141,1141,1141,1138,1138,1141,1141,1141,1141,1141,1141,1145,1145,1145,1149,1149,1149,989,987,987,987,987,984,984,981,978,978,978,978,981,981,984,987,987,987,989,989,992,995,995,998,998,1149,1149,1149,1149,1149,1149,1149,1149,1149,1149,1149,1149,1149,1149,1149,1149,1149,1149,1149,1149,1149,1153,1153,1153,1153,1153,1153,1153,1153,1153,1153,1153,1153,1153,1153,1153,1153,1153,1157,1157,1157,1157,1161,1161,1161,1157,1157,1157,1153,1153,1153,1153,1157,1153,1153,1157,1157,1157,1161,1161,1161,1161,1161,1161,1161,1161,1161,1161,1161,1161,1161,1161,1157,1157,1157,1157,1161,1161,1161,1161,1161,1161,1161,1161,1161,1161,1161,1157,1157,1157,1157,1161,0,0,0,0,0,0,0,0,0,0,0,717,716,714,713,711,710,708,707,707,706,704,703,703,701,701,701,700,700,701,703,704,704,704,708,710,713,713,714,716,716,714,714,0,0,0,0,0,0,0,989,987,987,984,984,981,978,978,978,975,975,973,970,967,967,964,962,959,959,956,956,954,954,954,954,951,951,948,948,948,948,946,946,946,946,946,946,943,943,946,943,943,943,1189,1189,1185,1185,1185,1185,1181,1181,1181,1181,1181,1181,1181,1181,1181,1181,1185,1185,1181,1181,1185,1185,1185,946,946,948,948,948,951,954,951,951,954,954,954,956,956,956,959,959,959,964,967,970,973,973,978,981,984,989,989,992,992,995,998,998,1001,1080,1080,1080,1077,1077,1077,1077,1073,1070,1067,1067,1067,1063,1063,1063,1063,1067,1067,1067,1070,1073,1185,1185,1185,1185,1185,1185,1185,1185,1185,1185,1185,1185,1181,1181,1185,1185,1185,1185,1185,1185,1185,1185,1185,1189,1189,1189,1193,1193,1193,1189,1189,1189,1189,1189,1185,1185,1185,1185,1185,1181,1181,1185,1181,1181,1181,1185,1185,1185,1185,1185,1185,1189,1185,1185,1185,1185,1185,1185,1185,1185,1185,1189,1185,1185,1185,1185,1185,1185,1185,1185,1185,1185,1185,1189,1189,1189,1193,1189,1189,1189,1185,1185,1189,1185,1185,1185,1189,1189,1189,1189,1189,1189,1189,1189,1189,1189,1189,1189,1189,1189,1193,1193,1193,1197,1193,1193,1193,1193,1193,1193,1193,1189,1189,1193,1189,1189,1189,1189,1189,1189,1189,1189,1189,1189,1189,1193,1193,1193,1197,1197,1193,1193,1193,1193,1193,1193,1193,1193,1193,1193,1193,1197,1197,1197,1197,1197,1197,1197,1197,1197,1197,1197,1197,1197,1197,1197,1197,1197,1202,1202,1202,1206,1206,1206,1206,1202,1202,1202,1202,1202,1197,1197,1193,1193,1197,1189,1189,1189,1193,1193,1197,1197,1202,1202,1206,1206,1206,1206,1202,1202,1197,1197,1197,1193,1193,1202,1070,1070,1067,1067,1063,1060,1054,1054,1054,1047,1047,1044,1041,1041,1034,1028,1028,1028,0,0,0,0,0,0,0,0,0,0,0,0,0,0,0,0,0,0,0,0,0,0,0,0,0,0,0,0,0,0,0,0,0,0
0,0,0,0,0,1141,1141,1138,1134,1134,1134,1134,1130,1130,1130,1126,1126,1130,1130,1130,1130,1130,1130,1130,1130,1130,1134,1134,1134,1134,1134,1130,1130,1134,1130,1130,1130,1130,1134,1130,1130,1130,1130,1130,1130,1134,1134,1134,1134,1134,1134,1134,1130,1130,1130,1130,1134,1134,1134,1130,1130,1130,1130,1130,1130,1130,1134,1134,1134,1134,1134,1134,1134,1134,1134,1134,1134,1134,1134,1134,1134,1134,1134,1138,1134,1134,1138,1138,1138,1138,1138,1138,1138,1138,1134,1134,1138,1138,1141,1141,1141,1145,1149,1149,992,989,989,987,987,987,984,981,981,978,978,978,981,981,984,987,987,987,989,992,995,995,995,998,1149,1149,1149,1149,1145,1145,1145,1145,1145,1145,1145,1145,1145,1145,1145,1145,1145,1145,1145,1145,1145,1145,1149,1149,1149,1149,1149,1149,1149,1149,1149,1149,1149,1149,1149,1149,1153,1149,1149,1149,1149,1149,1149,1157,1157,1157,1157,1157,1153,1153,1149,1149,1149,1149,1149,1149,1153,1153,1153,1157,1157,1157,1157,1157,1157,1157,1157,1157,1157,1157,1157,1157,1157,1153,1153,1153,1153,1157,1157,1157,1157,1161,1161,1161,1157,1157,1157,1157,1153,1153,1153,1153,1153,0,0,0,0,0,0,0,0,0,0,0,717,716,714,714,711,710,708,708,708,707,706,704,703,701,701,701,700,700,701,703,704,704,706,708,710,713,713,716,716,717,717,720,0,0,0,0,0,0,0,1161,987,987,984,984,978,978,978,975,975,975,973,973,967,967,964,962,962,959,956,956,954,954,954,954,951,948,948,948,946,946,946,946,946,946,946,943,943,943,946,943,943,943,940,940,1189,1189,1185,1185,1185,1181,1181,1177,1177,1177,1177,1173,1173,1177,1181,1181,1181,1181,1181,943,943,943,946,946,946,948,948,951,951,951,951,954,954,954,954,954,956,959,959,964,967,970,975,975,978,984,984,989,989,992,992,995,995,995,1084,1084,1080,1080,1077,1077,1077,1077,1073,1070,1070,1067,1067,1067,1067,1067,1067,1067,1067,1070,1070,1070,1077,1185,1185,1185,1185,1181,1181,1181,1181,1181,1181,1181,1181,1181,1181,1185,1185,1185,1181,1181,1185,1185,1181,1181,1181,1181,1189,1189,1189,1189,1189,1189,1185,1185,1185,1185,1181,1181,1181,1181,1181,1185,1181,1181,1181,1181,1181,1185,1185,1185,1185,1185,1185,1185,1181,1181,1181,1181,1185,1185,1185,1185,1185,1185,1185,1185,1181,1181,1181,1181,1181,1181,1185,1185,1185,1185,1185,1185,1185,1185,1185,1185,1185,1185,1185,1185,1185,1185,1185,1185,1185,1185,1185,1185,1185,1185,1185,1189,1189,1189,1189,1189,1189,1189,1189,1189,1189,1189,1193,1189,1189,1189,1189,1185,1185,1185,1185,1185,1185,1185,1189,1185,1185,1185,1185,1189,1189,1189,1189,1189,1193,1193,1189,1189,1189,1189,1189,1189,1189,1189,1193,1193,1193,1197,1197,1197,1197,1197,1197,1197,1197,1197,1197,1193,1193,1193,1193,1197,1197,1197,1202,1202,1202,1202,1202,1202,1202,1197,1197,1197,1197,1197,1193,1193,1193,1189,1189,1189,1189,1193,1193,1197,1197,1197,1202,1202,1202,1202,1202,1197,1197,1197,1193,1189,1189,1189,1070,1070,1067,1063,1063,1060,1054,1054,1050,1047,1044,1041,1041,1038,1031,1028,1028,1028,0,0,0,0,0,0,0,0,0,0,0,0,0,0,0,0,0,0,0,0,0,0,0,0,0,0,0,0,0,0,0,0,0,0
0,0,0,0,0,1138,1138,1138,1134,1134,1134,1134,1130,1130,1123,1123,1126,1126,1130,1126,1126,1126,1130,1130,1130,1126,1126,1130,1130,1130,1130,1130,1130,1130,1130,1130,1126,1126,1130,1130,1130,1130,1130,1130,1130,1130,1130,1130,1130,1134,1130,1130,1130,1130,1130,1130,1130,1130,1130,1130,1126,1126,1126,1130,1130,1130,1130,1130,1130,1130,1130,1130,1130,1130,1130,1130,1130,1130,1134,1134,1134,1134,1134,1134,1134,1134,1134,1134,1134,1134,1134,1134,1134,1134,1134,1134,1134,1134,1134,1138,1138,1141,1145,1149,992,989,989,987,987,984,984,978,978,978,978,978,981,984,987,987,987,989,989,992,995,995,998,998,1145,1145,1145,1145,1145,1145,1141,1141,1141,1141,1141,1141,1141,1138,1138,1141,1141,1141,1141,1145,1145,1145,1145,1145,1145,1145,1145,1145,1145,1145,1145,1145,1145,1145,1145,1149,1149,1149,1145,1145,1145,1145,1145,1145,1145,1149,1153,1153,1149,1149,1149,1145,1145,1145,1145,1145,1145,1149,1149,1149,1153,1153,1153,1149,1149,1149,1153,1153,1153,1153,1153,1153,1153,1149,1149,1149,1149,1153,1153,1153,1153,1157,1157,1157,1153,1153,1153,1153,1149,1149,1149,1153,1153,1153,0,0,0,0,0,0,0,0,0,0,717,716,714,714,711,710,708,708,707,707,706,704,703,703,703,701,701,701,701,703,704,704,708,710,711,714,714,717,717,719,719,720,0,0,0,0,0,0,1161,1161,1157,1157,1157,978,978,975,975,975,975,975,973,973,970,967,967,964,962,959,959,956,956,954,954,954,951,948,946,946,946,946,946,946,946,943,943,943,943,943,946,943,943,943,940,938,938,1189,1189,1185,1181,1181,1181,1177,1177,1173,1173,1169,1169,1169,1173,1177,1177,943,943,943,943,943,943,943,946,946,946,946,946,946,948,948,948,951,951,951,954,959,959,964,967,973,975,975,978,984,984,989,989,989,992,995,995,995,1169,1169,1080,1080,1080,1080,1080,1077,1077,1073,1070,1067,1067,1067,1067,1067,1067,1067,1067,1070,1070,1070,1077,1185,1185,1185,1177,1177,1177,1177,1181,1181,1181,1181,1181,1181,1181,1181,1181,1181,1181,1181,1181,1181,1177,1177,1177,1177,1181,1181,1185,1185,1185,1185,1185,1181,1181,1181,1181,1177,1177,1177,1177,1181,1181,1181,1181,1181,1181,1181,1181,1181,1181,1181,1181,1181,1181,1181,1181,1181,1181,1181,1181,1185,1185,1185,1185,1181,1181,1181,1181,1181,1181,1181,1181,1181,1181,1181,1181,1181,1181,1181,1181,1181,1185,1185,1185,1185,1185,1185,1185,1185,1185,1185,1185,1181,1181,1181,1181,1181,1181,1181,1185,1185,1185,1185,1189,1189,1185,1185,1189,1189,1185,1185,1185,1181,1181,1185,1181,1181,1181,1185,1185,1185,1185,1185,1185,1185,1185,1185,1185,1185,1185,1185,1185,1185,1185,1185,1185,1185,1185,1185,1185,1189,1189,1193,1193,1197,1197,1193,1193,1193,1193,1193,1193,1193,1193,1193,1193,1197,1197,1197,1197,1202,1202,1197,1197,1202,1202,1197,1197,1197,1197,1197,1193,1189,1189,1189,1185,1185,1189,1189,1189,1193,1197,1197,1197,1197,1197,1197,1197,1197,1197,1197,1193,1189,1189,1189,1063,1063,1063,1060,1060,1057,1054,1050,1047,1044,1041,1038,1038,1034,1028,1025,1025,1025,0,0,0,0,0,0,0,0,0,0,0,0,0,0,0,0,0,0,0,0,0,0,0,0,0,0,0,0,0,0,0,0,0,0
0,0,0,0,0,1138,1138,1134,1130,1130,1130,1130,1130,1123,1123,1123,1123,1123,1123,1123,1123,1123,1126,1126,1119,1119,1119,1119,1126,1123,1123,1119,1119,1126,1126,1126,1126,1126,1126,1126,1126,1126,1126,1126,1126,1126,1126,1130,1130,1130,1130,1130,1126,1126,1130,1130,1126,1126,1126,1126,1126,1126,1126,1126,1126,1126,1126,1126,1126,1126,1126,1126,1126,1126,1130,1130,1130,1130,1130,1130,1130,1130,1130,1130,1130,1130,1130,1130,1130,1130,1130,1130,1130,1130,1130,1130,1130,1130,1134,1130,1130,1134,1138,1138,989,989,987,987,987,984,984,978,978,978,978,978,981,984,987,987,989,989,992,992,995,995,998,998,1141,1141,1141,1145,1141,1141,1138,1138,1138,1138,1138,1138,1138,1138,1138,1138,1138,1138,1138,1141,1141,1141,1145,1141,1141,1141,1141,1141,1141,1141,1141,1141,1141,1145,1145,1145,1145,1145,1145,1145,1141,1141,1141,1141,1145,1145,1145,1145,1145,1145,1145,1145,1145,1145,1145,1145,1145,1145,1145,1145,1149,1149,1149,1145,1145,1149,1149,1149,1145,1145,1149,1149,1149,1149,1149,1149,1149,1149,1149,1149,1149,1153,1153,1153,1153,1153,1153,1149,1149,1149,1149,1149,1149,1153,0,0,0,0,0,0,0,0,0,720,719,719,717,716,711,711,708,708,707,706,706,704,703,703,703,701,701,703,703,704,704,706,710,710,711,714,714,717,719,719,720,720,0,0,0,0,0,0,1157,1157,1157,1153,1153,978,978,975,975,975,975,975,973,973,970,967,967,967,964,962,959,956,956,954,954,954,951,948,946,946,946,943,943,943,943,943,943,943,943,943,943,943,943,940,940,938,938,938,1185,1185,1181,1181,1177,1173,1173,1169,1169,1165,1165,1165,1165,1173,1177,940,940,940,940,940,940,940,940,940,940,940,943,946,946,948,948,948,951,951,954,959,962,964,970,973,975,975,978,981,984,987,989,989,992,1169,1169,1169,1169,1169,1080,1080,1080,1080,1080,1077,1077,1073,1070,1067,1067,1067,1067,1067,1067,1067,1070,1070,1073,1077,1080,1181,1181,1181,1173,1173,1173,1173,1173,1173,1177,1177,1173,1173,1177,1177,1177,1177,1173,1173,1173,1173,1173,1173,1173,1173,1173,1173,1173,1173,1177,1177,1181,1177,1177,1177,1177,1173,1173,1173,1173,1173,1177,1177,1177,1177,1177,1181,1181,1181,1181,1177,1177,1177,1177,1177,1181,1181,1181,1181,1181,1181,1181,1181,1181,1181,1181,1181,1181,1181,1177,1177,1177,1177,1177,1177,1177,1177,1177,1177,1181,1181,1181,1181,1181,1185,1185,1185,1181,1181,1181,1181,1181,1181,1177,1177,1177,1177,1177,1177,1181,1181,1181,1185,1185,1185,1185,1185,1185,1185,1181,1181,1181,1181,1181,1181,1181,1181,1181,1181,1181,1181,1181,1185,1185,1181,1181,1185,1185,1185,1181,1181,1181,1181,1181,1185,1181,1181,1181,1181,1181,1185,1185,1185,1185,1189,1185,1185,1185,1189,1189,1189,1193,1193,1193,1193,1193,1193,1193,1197,1197,1202,1202,1197,1197,1197,1197,1197,1197,1193,1193,1185,1185,1189,1189,1185,1185,1185,1189,1189,1189,1189,1189,1189,1193,1193,1197,1197,1197,1193,1193,1193,1193,1193,1193,1193,1060,1060,1060,1057,1054,1054,1050,1047,1047,1041,1038,1038,1031,1028,1025,1022,1022,1022,0,0,0,0,0,0,0,0,0,0,0,0,0,0,0,0,0,0,0,0,0,0,0,0,0,0,0,0,0,0,0,0,0,0
0,0,0,0,0,1130,1130,1130,1130,1126,1126,1130,1130,1123,1123,1123,1123,1123,1123,1119,1119,1119,1119,1119,1119,1119,1119,1119,1123,1123,1123,1119,1119,1123,1123,1123,1123,1123,1126,1126,1123,1123,1123,1123,1123,1123,1123,1126,1126,1126,1126,1126,1123,1123,1126,1126,1126,1126,1126,1126,1123,1123,1123,1123,1123,1123,1123,1123,1123,1123,1126,1126,1126,1126,1126,1126,1126,1126,1130,1130,1130,1130,1126,1126,1126,1126,1126,1126,1126,1126,1130,1126,1126,1130,1130,1130,1126,1126,1130,1130,1126,1126,1134,1134,1134,989,987,987,987,987,984,981,981,981,981,981,984,984,987,987,989,989,992,992,995,995,998,1001,1141,1141,1141,1141,1138,1138,1134,1134,1134,1134,1134,1134,1134,1134,1134,1134,1138,1138,1138,1138,1138,1138,1138,1138,1138,1138,1138,1138,1138,1138,1138,1138,1138,1141,1141,1141,1141,1141,1141,1141,1138,1138,1138,1138,1141,1138,1138,1138,1141,1141,1141,1138,1138,1141,1141,1141,1141,1141,1145,1145,1145,1145,1145,1141,1141,1141,1141,1141,1138,1138,1141,1145,1145,1145,1145,1145,1145,1145,1145,1145,1145,1145,1149,1149,1145,1145,1149,1149,1145,1145,1145,1149,1149,1153,0,0,0,0,0,0,0,0,0,720,720,720,719,716,716,711,710,708,707,706,706,704,703,703,703,701,701,703,703,704,704,707,710,710,711,713,714,719,719,720,720,0,0,0,0,0,0,0,1157,1153,1153,1153,1153,1153,1149,978,978,978,975,975,975,973,970,970,967,967,964,962,962,959,956,956,954,954,951,948,946,946,946,943,943,943,943,940,940,940,940,940,940,940,940,940,940,938,938,935,935,935,1181,1181,1177,1169,1169,1169,1165,1161,1161,1161,1161,1169,935,935,938,938,938,938,938,938,938,938,938,940,940,943,943,946,948,948,951,951,954,959,962,964,970,975,975,978,978,981,984,987,989,989,1165,1165,1165,1169,1169,1169,1080,1080,1080,1080,1080,1077,1077,1073,1073,1070,1070,1070,1067,1067,1067,1070,1070,1073,1077,1077,1080,1181,1181,1169,1169,1169,1169,1169,1169,1169,1169,1169,1169,1169,1169,1173,1173,1173,1169,1169,1169,1169,1169,1169,1169,1169,1173,1169,1169,1169,1169,1169,1169,1173,1173,1173,1173,1169,1169,1169,1169,1173,1173,1173,1173,1173,1173,1177,1177,1177,1177,1177,1177,1177,1177,1177,1181,1173,1173,1181,1181,1181,1173,1173,1173,1181,1181,1173,1173,1173,1173,1173,1173,1173,1173,1177,1177,1177,1177,1177,1177,1177,1177,1177,1177,1177,1181,1181,1181,1177,1177,1177,1177,1177,1177,1173,1173,1173,1169,1169,1177,1181,1181,1181,1181,1181,1181,1181,1181,1181,1177,1177,1177,1177,1177,1177,1177,1177,1177,1177,1177,1177,1177,1181,1181,1177,1177,1177,1177,1181,1177,1177,1181,1177,1177,1177,1177,1177,1177,1177,1177,1177,1153,1153,1153,1153,1181,1181,1181,1185,1185,1185,1181,1153,1141,1138,1138,1145,1134,1134,1138,1141,1141,1197,1197,1197,1193,1193,1193,1193,1185,1181,1181,1185,1185,1185,1185,1185,1185,1185,1185,1189,1189,1185,1185,1189,1189,1189,1189,1189,1189,1189,1189,1189,1189,1193,1060,1060,1057,1057,1054,1054,1047,1044,1041,1041,1038,1034,1031,1025,1022,1022,1019,1019,0,0,0,0,0,0,0,0,0,0,0,0,0,0,0,0,0,0,0,0,0,0,0,0,0,0,0,0,0,0,0,0,0,0
0,0,0,0,0,1126,1126,1130,1130,1126,1126,1126,1123,1123,1119,1119,1119,1123,1119,1119,1119,1119,1119,1119,1119,1119,1119,1119,1119,1119,1119,1119,1119,1119,1119,1119,1119,1119,1123,1123,1123,1123,1123,1123,1123,1123,1123,1119,1115,1115,1119,1119,1119,1119,1119,1123,1123,1123,1123,1123,1123,1119,1119,1119,1119,1119,1119,1119,1119,1119,1123,1123,1123,1123,1123,1126,1126,1126,1126,1126,1126,1126,1126,1126,1126,1126,1123,1123,1123,1123,1123,1123,1123,1126,1126,1123,1123,1126,1130,1126,1126,1126,1130,1130,998,989,987,987,987,987,987,984,981,981,981,984,984,987,987,989,989,989,992,995,995,995,998,1001,1001,1141,1134,1134,1134,1134,1134,1134,1130,1130,1130,1130,1134,1134,1134,1134,1134,1134,1134,1134,1134,1134,1134,1134,1130,1130,1134,1134,1134,1134,1134,1134,1134,1138,1138,1138,1138,1138,1138,1138,1138,1138,1134,1134,1138,1134,1134,1134,1138,1138,1138,1134,1134,1138,1138,1138,1138,1138,1141,1141,1141,1141,1141,1138,1138,1138,1138,1138,1138,1138,1138,1138,1138,1141,1141,1141,1141,1141,1141,1141,1145,1145,1145,1145,1145,1145,1145,1141,1141,1141,1141,1145,1145,1149,0,0,0,0,0,0,0,0,0,720,720,720,719,716,716,714,710,708,708,707,706,704,703,703,703,703,703,703,703,704,704,707,710,711,713,713,717,719,719,720,720,0,0,0,0,0,0,0,1153,1153,1149,1149,1149,1149,1149,1149,1149,978,978,978,975,975,970,970,967,967,964,962,962,959,956,956,956,954,954,951,946,946,946,943,943,943,940,940,938,935,935,938,938,938,938,938,938,938,935,933,933,933,933,1169,1169,1165,1165,1165,1165,1157,1157,1157,933,933,933,935,935,935,935,938,938,938,938,938,938,938,938,940,943,946,946,948,951,951,954,959,962,967,970,975,978,978,981,984,987,989,1161,1161,1161,1161,1161,1165,1165,1165,1084,1084,1080,1080,1080,1080,1077,1077,1073,1070,1070,1070,1070,1070,1070,1070,1070,1073,1077,1077,1084,1169,1169,1169,1169,1169,1165,1165,1169,1169,1169,1169,1169,1169,1169,1169,1169,1169,1169,1169,1169,1169,1169,1169,1165,1165,1169,1169,1169,1169,1165,1165,1165,1165,1165,1165,1169,1169,1169,1169,1169,1169,1169,1169,1169,1169,1173,1173,1173,1173,1173,1173,1173,1169,1169,1169,1173,1169,1169,1169,1169,1169,1169,1169,1169,1169,1169,1169,1169,1169,1169,1173,1173,1173,1173,1173,1173,1177,1173,1173,1177,1177,1173,1173,1173,1173,1169,1169,1177,1177,1177,1177,1177,1177,1173,1173,1169,1169,1169,1169,1169,1169,1169,1169,1177,1177,1177,1177,1173,1173,1173,1173,1173,1169,1169,1173,1173,1173,1173,1173,1173,1173,1173,1169,1169,1169,1169,1169,1165,1165,1169,1169,1177,1173,1173,1173,1169,1165,1165,1169,1169,1157,1153,1149,1149,1153,1153,1153,1149,1149,1153,1157,1157,1153,1141,1138,1138,1138,1134,1134,1138,1141,1141,1145,1149,1149,1153,1157,1181,1169,1169,1169,1169,1173,1181,1181,1181,1181,1181,1185,1185,1185,1185,1185,1185,1185,1185,1185,1189,1189,1189,1189,1189,1189,1193,1193,1057,1057,1057,1057,1054,1054,1047,1044,1041,1038,1034,1031,1028,1025,1022,1019,1019,1019,0,0,0,0,0,0,0,0,0,0,0,0,0,0,0,0,0,0,0,0,0,0,0,0,0,0,0,0,0,0,0,0,0,0
0,0,0,0,0,1123,1123,1126,1126,1123,1123,1123,1119,1119,1119,1119,1119,1119,1119,1119,1119,1119,1119,1119,1119,1115,1115,1119,1119,1119,1119,1119,1115,1115,1119,1119,1119,1119,1119,1119,1119,1119,1119,1119,1119,1119,1115,1115,1112,1112,1115,1115,1115,1115,1115,1115,1119,1119,1119,1119,1119,1119,1119,1119,1119,1119,1119,1119,1119,1119,1119,1119,1119,1123,1123,1123,1123,1123,1123,1123,1123,1123,1123,1123,1123,1123,1119,1119,1119,1119,1119,1119,1119,1123,1123,1123,1123,1123,1123,1123,1123,1123,1123,1126,998,992,989,989,987,987,987,987,984,984,984,984,984,987,987,989,989,989,992,995,995,995,998,998,998,1126,1126,1126,1130,1130,1130,1130,1130,1130,1130,1130,1130,1130,1130,1130,1130,1134,1134,1130,1130,1130,1130,1130,1130,1130,1130,1130,1130,1134,1134,1134,1134,1134,1134,1134,1134,1134,1134,1134,1134,1134,1134,1134,1134,1134,1134,1134,1134,1138,1138,1134,1134,1138,1138,1134,1134,1134,1138,1138,1141,1138,1138,1138,1134,1134,1134,1134,1134,1134,1134,1134,1138,1138,1138,1138,1138,1138,1141,1141,1141,1141,1141,1141,1141,1141,1141,1141,1138,1138,1138,1141,1141,1145,1149,0,0,0,0,0,0,0,0,722,720,720,719,717,717,714,711,710,708,707,706,704,703,703,703,703,703,704,704,704,706,708,711,713,713,714,717,719,720,720,720,0,0,0,0,0,0,0,1149,1149,1149,1149,1149,1149,1149,1149,1149,1149,1145,978,978,975,973,973,967,967,964,964,962,962,959,956,956,954,954,951,948,946,946,943,943,943,940,938,935,935,935,935,938,935,935,935,938,935,935,933,933,933,933,935,935,1165,1165,1161,1161,1157,928,928,928,930,933,933,933,935,935,935,935,935,935,935,935,938,938,938,940,943,946,948,948,951,954,959,962,967,970,973,978,978,981,984,987,989,1157,1157,1157,1157,1157,1157,1157,1157,1084,1084,1084,1084,1080,1080,1080,1077,1077,1073,1073,1070,1070,1070,1070,1070,1073,1073,1077,1077,1084,1169,1165,1165,1165,1165,1165,1165,1165,1165,1169,1169,1165,1165,1165,1165,1165,1169,1165,1165,1165,1165,1165,1165,1165,1165,1165,1165,1165,1165,1165,1165,1165,1161,1161,1161,1161,1165,1165,1169,1169,1169,1169,1169,1169,1169,1169,1169,1169,1169,1169,1169,1169,1169,1169,1169,1169,1169,1165,1165,1169,1169,1165,1165,1165,1165,1169,1169,1165,1165,1165,1169,1169,1169,1169,1169,1169,1169,1169,1169,1169,1169,1169,1169,1165,1165,1165,1165,1165,1165,1165,1165,1165,1165,1165,1165,1165,1165,1165,1165,1165,1165,1165,1165,1169,1169,1173,1169,1169,1169,1169,1169,1169,1169,1169,1169,1169,1169,1169,1169,1165,1165,1165,1165,1165,1165,1161,1161,1157,1157,1165,1165,1169,1165,1165,1165,1165,1153,1153,1157,1157,1153,1149,1149,1149,1149,1149,1149,1149,1149,1149,1153,1141,1141,1141,1141,1138,1138,1134,1134,1138,1141,1141,1145,1149,1149,1153,1157,1165,1169,1169,1169,1169,1169,1173,1173,1181,1181,1181,1181,1181,1181,1181,1181,1181,1177,1177,1177,1181,1181,1185,1185,1185,1189,1193,1054,1054,1054,1054,1054,1054,1047,1047,1044,1038,1038,1034,1031,1028,1025,1019,1019,1016,1016,0,0,0,0,0,0,0,0,0,0,0,0,0,0,0,0,0,0,0,0,0,0,0,0,0,0,0,0,0,0,0,0,0,0
0,0,0,0,0,1119,1119,1123,1123,1123,1119,1119,1119,1119,1119,1119,1119,1119,1115,1115,1115,1115,1115,1115,1115,1115,1115,1115,1115,1115,1115,1115,1112,1112,1112,1112,1112,1115,1115,1115,1115,1115,1115,1115,1115,1115,1112,1112,1112,1112,1112,1112,1112,1112,1112,1112,1115,1115,1115,1115,1115,1115,1115,1115,1115,1115,1115,1115,1115,1119,1119,1119,1119,1119,1119,1119,1119,1119,1119,1119,1119,1119,1119,1119,1119,1119,1119,1115,1115,1119,1119,1119,1119,1119,1119,1119,1119,1119,1119,1123,1119,1119,1123,1123,998,998,995,992,989,989,987,987,987,984,984,984,987,987,987,989,989,989,992,992,995,995,998,998,998,1123,1123,1126,1126,1126,1130,1130,1130,1130,1130,1130,1130,1130,1130,1130,1130,1130,1130,1130,1130,1130,1130,1130,1126,1126,1130,1130,1130,1130,1130,1130,1130,1130,1130,1130,1134,1134,1134,1134,1134,1134,1130,1130,1130,1130,1130,1130,1134,1134,1134,1134,1134,1134,1134,1134,1134,1134,1134,1134,1134,1134,1134,1134,1134,1134,1134,1134,1134,1134,1134,1134,1134,1138,1138,1138,1138,1138,1138,1138,1138,1138,1138,1141,1138,1138,1138,1138,1134,1134,1134,1138,1138,1141,1149,0,0,0,0,0,0,0,0,0,720,720,719,717,717,716,711,711,710,708,707,706,704,703,703,703,703,704,704,704,706,708,711,713,713,714,717,719,720,720,722,0,0,0,0,0,0,0,1149,1149,1145,1145,1145,1145,1145,1145,1145,1145,1145,1141,978,975,975,973,970,967,964,964,964,962,959,956,956,954,954,951,951,946,946,943,943,943,940,938,935,935,933,933,935,935,933,930,930,933,935,933,933,933,933,933,930,930,930,1161,930,928,928,928,928,930,930,930,930,933,933,935,935,935,935,935,935,935,938,938,938,940,946,948,948,951,954,962,962,967,970,973,975,978,981,984,1153,1153,1153,1153,1153,1153,1153,1153,1153,1153,1090,1087,1084,1084,1080,1080,1080,1077,1077,1073,1073,1070,1070,1070,1070,1070,1073,1077,1077,1080,1084,1087,1165,1165,1165,1165,1161,1161,1165,1165,1165,1165,1165,1165,1165,1165,1165,1165,1165,1165,1165,1165,1161,1161,1161,1161,1165,1165,1165,1161,1161,1161,1161,1157,1157,1161,1161,1161,1161,1165,1165,1165,1165,1165,1165,1169,1165,1165,1165,1169,1169,1165,1165,1165,1165,1165,1165,1165,1161,1161,1165,1165,1161,1161,1165,1165,1169,1165,1165,1165,1165,1169,1169,1169,1165,1165,1169,1169,1169,1165,1165,1165,1165,1161,1161,1161,1161,1161,1161,1161,1157,1157,1157,1161,1161,1161,1161,1157,1157,1157,1161,1165,1161,1161,1165,1165,1165,1169,1169,1169,1169,1169,1169,1165,1165,1165,1165,1165,1161,1161,1165,1165,1165,1161,1161,1161,1161,1157,1157,1157,1161,1161,1161,1161,1161,1161,1157,1153,1153,1153,1149,1149,1149,1145,1145,1149,1149,1149,1145,1145,1141,1141,1141,1141,1141,1138,1138,1138,1138,1138,1138,1138,1141,1145,1149,1149,1153,1157,1161,1169,1169,1169,1169,1169,1169,1169,1173,1173,1177,1177,1177,1181,1181,1181,1181,1173,1173,1173,1173,1177,1181,1177,1177,1189,1193,1050,1050,1050,1054,1054,1054,1047,1041,1038,1034,1034,1031,1028,1028,1025,1019,1016,1016,1016,0,0,0,0,0,0,0,0,0,0,0,0,0,0,0,0,0,0,0,0,0,0,0,0,0,0,0,0,0,0,0,0,0,0
0,0,0,0,0,1119,1119,1119,1119,1119,1119,1119,1119,1115,1115,1115,1115,1119,1115,1115,1115,1112,1112,1112,1112,1112,1112,1112,1112,1115,1115,1112,1108,1108,1108,1108,1108,1105,1105,1108,1112,1112,1112,1112,1112,1112,1112,1108,1108,1108,1108,1108,1108,1112,1112,1112,1115,1115,1115,1115,1115,1115,1112,1112,1115,1115,1115,1115,1115,1115,1115,1115,1115,1115,1115,1112,1112,1112,1112,1115,1115,1115,1115,1115,1115,1119,1115,1115,1115,1115,1115,1115,1115,1115,1115,1115,1115,1115,1119,1119,1119,1119,1119,998,998,998,995,995,992,989,989,989,987,984,984,984,987,987,987,989,989,989,992,992,995,995,998,998,998,1119,1119,1119,1123,1126,1126,1130,1126,1126,1130,1130,1126,1126,1126,1126,1126,1126,1126,1126,1126,1126,1126,1126,1123,1123,1126,1126,1126,1126,1126,1126,1126,1126,1126,1130,1130,1130,1130,1130,1130,1130,1126,1126,1126,1126,1130,1130,1130,1130,1130,1134,1134,1134,1134,1134,1134,1134,1130,1130,1130,1130,1130,1130,1130,1130,1130,1130,1130,1130,1130,1130,1134,1134,1134,1134,1134,1134,1134,1134,1134,1134,1134,1138,1138,1138,1138,1134,1134,1134,1134,1134,1134,1134,0,0,0,0,0,0,0,0,0,0,720,720,719,717,717,714,713,711,710,708,707,706,704,703,703,703,703,704,704,704,706,708,711,713,714,716,719,720,720,722,723,0,0,0,0,0,0,0,1145,1145,1145,1145,1145,1145,1145,1145,1145,1145,1141,1141,1141,1138,1134,1134,970,967,964,964,964,962,959,956,956,954,954,954,951,946,946,943,943,940,940,938,935,933,933,933,933,933,930,930,930,930,930,930,930,930,930,930,930,930,928,928,928,928,925,925,925,928,928,928,928,930,930,933,933,933,935,935,935,935,938,938,938,940,946,948,948,951,956,962,962,967,970,973,975,978,1149,1149,1149,1153,1153,1153,1153,1153,1153,1149,1149,1149,1094,1090,1087,1087,1084,1080,1080,1077,1077,1073,1073,1073,1073,1073,1073,1073,1073,1077,1077,1080,1087,1087,1165,1161,1161,1161,1157,1157,1161,1161,1161,1161,1161,1161,1161,1161,1161,1161,1161,1161,1161,1161,1161,1161,1161,1161,1161,1161,1161,1161,1161,1157,1157,1157,1157,1157,1157,1157,1161,1161,1161,1161,1161,1161,1165,1165,1165,1165,1161,1161,1165,1165,1165,1165,1165,1165,1161,1161,1161,1161,1161,1161,1161,1161,1165,1165,1165,1165,1165,1161,1161,1165,1165,1165,1165,1165,1165,1169,1165,1161,1161,1161,1157,1157,1157,1157,1157,1157,1161,1157,1157,1157,1153,1153,1149,1149,1153,1153,1153,1153,1157,1157,1161,1161,1161,1161,1165,1165,1165,1165,1165,1165,1165,1165,1157,1157,1157,1157,1157,1157,1157,1157,1157,1157,1157,1157,1157,1153,1153,1153,1157,1157,1157,1157,1157,1157,1153,1153,1153,1149,1149,1149,1145,1145,1145,1145,1145,1145,1145,1145,1141,1141,1141,1141,1141,1138,1138,1138,1138,1138,1138,1138,1141,1145,1149,1149,1153,1157,1157,1165,1165,1165,1169,1169,1169,1169,1169,1169,1173,1173,1173,1177,1177,1177,1177,1173,1173,1169,1169,1169,1181,1177,1177,1047,1047,1047,1050,1050,1047,1047,1044,1041,1038,1034,1034,1031,1028,1028,1025,1025,1016,1016,1013,1013,0,0,0,0,0,0,0,0,0,0,0,0,0,0,0,0,0,0,0,0,0,0,0,0,0,0,0,0,0,0,0,0,0,0
0,0,0,0,0,1115,1115,1119,1119,1119,1119,1115,1115,1115,1115,1115,1115,1115,1112,1112,1112,1108,1108,1108,1108,1108,1108,1112,1112,1112,1112,1108,1108,1108,1108,1108,1105,1105,1105,1105,1108,1108,1108,1105,1105,1105,1105,1105,1105,1105,1105,1105,1105,1108,1108,1112,1112,1112,1112,1112,1112,1112,1108,1108,1112,1112,1112,1115,1115,1115,1112,1112,1112,1112,1112,1108,1108,1108,1112,1112,1112,1112,1112,1115,1115,1115,1115,1115,1115,1115,1112,1112,1112,1112,1115,1115,1115,1115,1115,1115,1115,1112,1112,998,998,998,995,995,995,992,989,989,987,987,987,987,987,987,987,989,989,992,992,992,995,995,998,998,998,1115,1115,1115,1119,1119,1123,1123,1123,1123,1126,1126,1123,1123,1123,1123,1126,1126,1123,1123,1123,1123,1123,1123,1123,1123,1123,1123,1123,1123,1123,1126,1126,1126,1126,1126,1126,1126,1126,1126,1126,1126,1126,1126,1126,1126,1126,1126,1126,1126,1126,1130,1130,1130,1130,1130,1126,1126,1126,1126,1130,1130,1130,1130,1130,1130,1130,1126,1126,1126,1130,1130,1130,1134,1134,1134,1134,1134,1134,1134,1134,1134,1134,1134,1134,1134,1134,1134,1134,1134,1134,1130,1130,1130,0,0,0,0,0,0,0,0,0,0,722,720,719,717,717,714,714,713,711,708,707,706,704,704,704,704,704,704,704,706,706,710,711,713,714,717,719,720,720,722,723,725,0,0,0,0,0,0,1145,1141,1141,1141,1141,1141,1141,1141,1141,1141,1138,1138,1138,1138,1134,1134,1134,967,964,964,964,962,959,956,956,954,954,954,951,946,946,943,943,940,940,938,935,933,933,933,933,930,930,928,928,928,928,928,928,928,928,928,930,928,928,928,928,925,925,925,925,925,925,925,928,928,928,930,930,933,933,935,935,935,938,938,940,943,946,948,948,951,956,962,964,967,967,970,975,1149,1149,1149,1149,1149,1149,1149,1149,1149,1145,1145,1145,1149,1094,1090,1090,1087,1084,1084,1080,1077,1077,1073,1073,1073,1073,1073,1073,1073,1077,1077,1080,1084,1087,1087,1087,1161,1161,1157,1157,1157,1157,1157,1157,1161,1157,1157,1161,1161,1157,1157,1157,1157,1161,1157,1157,1157,1157,1157,1157,1157,1157,1157,1157,1153,1153,1153,1153,1157,1157,1157,1157,1157,1157,1157,1153,1153,1157,1157,1161,1161,1157,1157,1161,1161,1161,1161,1161,1161,1157,1157,1153,1153,1157,1157,1157,1161,1161,1161,1161,1161,1161,1157,1157,1161,1161,1161,1161,1161,1165,1165,1165,1161,1161,1157,1157,1157,1153,1153,1153,1153,1157,1157,1153,1153,1153,1149,1149,1149,1149,1149,1149,1153,1153,1153,1157,1157,1153,1153,1161,1157,1157,1161,1161,1153,1153,1153,1153,1153,1153,1153,1153,1153,1153,1153,1153,1153,1153,1153,1153,1153,1153,1153,1153,1153,1153,1153,1153,1153,1149,1149,1149,1149,1149,1145,1145,1145,1145,1145,1145,1145,1145,1145,1145,1149,1141,1141,1141,1141,1141,1138,1138,1138,1138,1141,1145,1145,1149,1149,1149,1157,1157,1157,1161,1165,1169,1169,1169,1169,1169,1169,1169,1173,1173,1177,1177,1173,1173,1169,1169,1169,1169,1165,1165,1165,1181,1047,1047,1047,1050,1050,1047,1047,1044,1041,1038,1031,1031,1028,1025,1025,1025,1019,1016,1013,1013,1013,0,0,0,0,0,0,0,0,0,0,0,0,0,0,0,0,0,0,0,0,0,0,0,0,0,0,0,0,0,0,0,0,0,0
0,0,0,0,0,1115,1115,1115,1119,1119,1115,1115,1115,1115,1112,1112,1115,1115,1112,1112,1108,1108,1108,1108,1108,1108,1108,1108,1108,1108,1112,1108,1105,1105,1105,1105,1105,1105,1105,1105,1105,1105,1105,1105,1105,1105,1105,1105,1105,1105,1105,1105,1105,1105,1105,1108,1108,1108,1108,1108,1108,1108,1105,1105,1108,1108,1108,1112,1112,1112,1112,1112,1112,1108,1108,1108,1108,1108,1108,1108,1112,1112,1112,1112,1112,1115,1112,1112,1112,1112,1112,1112,1112,1112,1112,1112,1112,1112,1112,1112,1112,1108,1010,1001,1001,998,998,998,995,995,992,989,987,987,987,987,987,987,989,989,989,992,992,995,995,995,998,998,1115,1115,1115,1115,1115,1119,1119,1119,1119,1119,1119,1123,1119,1119,1119,1119,1123,1119,1119,1119,1119,1119,1119,1119,1119,1119,1119,1119,1119,1123,1123,1123,1123,1123,1123,1123,1123,1123,1119,1119,1123,1123,1119,1119,1119,1119,1123,1123,1123,1126,1126,1126,1126,1123,1123,1123,1123,1123,1123,1123,1126,1126,1126,1126,1126,1130,1126,1126,1126,1123,1123,1126,1126,1130,1130,1130,1130,1130,1130,1130,1130,1130,1130,1130,1130,1130,1134,1130,1130,1130,1130,1130,1130,1130,0,0,0,0,0,0,0,0,0,0,722,720,719,717,717,714,714,713,711,710,707,706,704,704,704,704,704,704,706,707,708,710,711,713,714,719,719,720,720,723,725,725,0,0,0,0,0,0,0,1141,1141,1141,1138,1138,1138,1138,1138,1138,1138,1138,1138,1134,1134,1134,1130,1130,1130,964,964,962,959,959,956,956,954,954,951,946,946,943,943,943,940,938,935,933,933,933,930,930,928,928,928,928,928,925,925,925,923,923,920,920,920,920,925,925,925,925,925,925,925,925,925,925,925,928,928,930,933,933,935,935,938,940,940,943,948,948,951,954,959,964,964,967,967,970,1149,1149,1149,1149,1149,1149,1149,1149,1149,1145,1145,1141,1141,1145,1145,1090,1090,1087,1084,1084,1080,1077,1077,1073,1073,1073,1073,1073,1077,1077,1077,1080,1080,1087,1087,1087,1087,1157,1157,1153,1153,1153,1153,1157,1157,1157,1157,1157,1161,1157,1157,1157,1153,1153,1157,1153,1153,1153,1153,1153,1153,1153,1153,1153,1153,1153,1153,1153,1153,1153,1153,1153,1157,1153,1153,1153,1153,1153,1153,1153,1153,1153,1153,1153,1157,1157,1157,1157,1157,1157,1153,1153,1153,1153,1153,1153,1153,1157,1157,1157,1161,1157,1157,1153,1153,1157,1157,1157,1157,1157,1161,1161,1161,1157,1157,1153,1153,1153,1153,1153,1153,1153,1153,1153,1153,1149,1149,1145,1145,1145,1145,1145,1145,1149,1149,1149,1149,1145,1145,1145,1153,1153,1153,1153,1153,1153,1153,1149,1149,1153,1149,1149,1149,1153,1153,1153,1153,1153,1153,1153,1153,1153,1149,1149,1149,1149,1149,1149,1149,1149,1149,1149,1149,1149,1149,1145,1145,1145,1145,1145,1145,1145,1145,1145,1145,1149,1145,1145,1145,1145,1145,1145,1145,1141,1141,1141,1145,1145,1149,1149,1149,1157,1157,1157,1161,1161,1165,1165,1165,1165,1165,1165,1169,1169,1169,1169,1169,1169,1169,1169,1169,1165,1165,1161,1161,1161,1165,1050,1050,1050,1050,1050,1047,1047,1041,1038,1034,1031,1031,1028,1025,1022,1019,1019,1016,1010,1010,1013,0,0,0,0,0,0,0,0,0,0,0,0,0,0,0,0,0,0,0,0,0,0,0,0,0,0,0,0,0,0,0,0,0,0
0,0,0,0,0,1115,1115,1115,1115,1115,1115,1115,1112,1112,1112,1112,1112,1115,1112,1108,1108,1105,1105,1105,1105,1105,1105,1105,1105,1105,1105,1105,1105,1101,1101,1101,1101,1101,1101,1101,1101,1101,1101,1101,1101,1101,1101,1101,1101,1101,1101,1101,1101,1105,1105,1105,1105,1105,1105,1105,1108,1105,1105,1105,1105,1108,1108,1108,1108,1108,1108,1108,1108,1105,1105,1105,1105,1105,1105,1105,1108,1108,1108,1108,1108,1112,1112,1112,1108,1108,1108,1108,1108,1108,1108,1112,1108,1108,1108,1108,1108,1105,1010,1010,1001,998,998,998,995,995,992,989,987,987,987,987,987,987,987,989,992,992,995,995,995,998,998,998,1112,1112,1115,1115,1115,1115,1115,1119,1119,1119,1119,1119,1119,1119,1119,1119,1119,1119,1119,1119,1119,1119,1115,1115,1119,1119,1119,1119,1119,1119,1119,1119,1119,1119,1119,1119,1119,1119,1119,1119,1119,1119,1119,1119,1119,1119,1119,1119,1119,1119,1119,1123,1123,1123,1123,1119,1119,1119,1119,1119,1119,1123,1123,1123,1123,1126,1123,1123,1123,1123,1123,1123,1123,1123,1123,1126,1126,1126,1126,1126,1126,1126,1123,1123,1123,1126,1130,1130,1130,1130,1130,1130,1126,1126,0,0,0,0,0,0,0,0,0,0,722,720,719,719,717,716,714,714,711,710,708,707,706,704,704,704,704,704,706,707,708,710,714,714,716,719,720,720,720,723,725,725,0,0,0,0,0,0,0,1138,1138,1134,1134,1134,1134,1134,1134,1134,1134,1134,1134,1134,1134,1134,1130,1130,1130,1126,1126,962,959,959,956,956,954,954,951,946,946,943,943,943,940,938,935,933,933,933,930,930,928,928,928,925,925,925,925,923,920,920,918,918,918,918,918,918,923,923,923,923,923,923,923,923,923,925,925,928,930,933,933,935,938,938,940,943,948,948,951,956,962,964,967,967,967,970,1145,1145,1145,1145,1145,1145,1145,1145,1145,1145,1141,1141,1141,1141,1141,1094,1090,1090,1087,1084,1080,1080,1080,1077,1077,1073,1073,1073,1077,1077,1077,1080,1080,1087,1087,1087,1087,1153,1153,1153,1149,1149,1153,1153,1153,1153,1153,1153,1153,1153,1153,1153,1153,1153,1153,1153,1149,1149,1153,1153,1153,1153,1153,1153,1153,1153,1153,1153,1153,1153,1153,1153,1153,1153,1153,1153,1149,1149,1149,1149,1149,1149,1149,1149,1153,1153,1153,1153,1153,1153,1153,1153,1149,1149,1149,1149,1153,1153,1157,1157,1157,1153,1153,1153,1153,1153,1153,1153,1153,1153,1157,1157,1157,1157,1153,1149,1149,1153,1153,1153,1149,1149,1149,1153,1149,1149,1149,1145,1145,1145,1145,1145,1145,1145,1145,1145,1149,1145,1145,1145,1149,1149,1153,1153,1153,1153,1149,1149,1149,1149,1149,1149,1149,1149,1149,1153,1149,1149,1153,1153,1153,1149,1149,1149,1149,1149,1149,1149,1145,1145,1149,1149,1149,1145,1145,1141,1141,1141,1141,1141,1145,1145,1145,1145,1149,1149,1145,1145,1145,1145,1145,1149,1149,1149,1145,1145,1145,1149,1149,1153,1153,1157,1157,1157,1157,1161,1161,1161,1161,1161,1165,1165,1165,1169,1169,1169,1169,1169,1169,1165,1165,1165,1165,1161,1161,1161,1165,1050,1050,1050,1047,1044,1041,1038,1038,1038,1034,1031,1028,1025,1022,1022,1019,1016,1013,1007,1007,0,0,0,0,0,0,0,0,0,0,0,0,0,0,0,0,0,0,0,0,0,0,0,0,0,0,0,0,0,0,0,0,0,0,0
0,0,0,0,0,1115,1115,1115,1115,1112,1112,1112,1112,1108,1108,1108,1108,1108,1108,1108,1105,1105,1105,1105,1105,1105,1105,1101,1101,1101,1101,1101,1101,1101,1101,1101,1101,1101,1101,1101,1097,1097,1097,1097,1101,1097,1097,1097,1097,1097,1101,1101,1101,1101,1101,1101,1101,1105,1105,1105,1105,1101,1101,1101,1101,1101,1105,1105,1105,1108,1105,1105,1105,1105,1101,1101,1101,1101,1101,1105,1105,1105,1105,1108,1108,1108,1108,1105,1105,1105,1105,1105,1108,1108,1108,1108,1108,1105,1105,1105,1105,1105,1010,1010,1001,1001,998,998,995,995,992,989,987,987,987,987,987,987,987,989,992,992,995,995,995,998,1001,1001,1001,1001,1115,1115,1115,1115,1115,1115,1115,1112,1112,1115,1115,1115,1115,1115,1115,1115,1115,1115,1115,1115,1115,1115,1115,1115,1115,1115,1115,1115,1115,1119,1119,1115,1115,1115,1115,1115,1115,1115,1115,1115,1115,1115,1115,1115,1115,1115,1115,1115,1115,1119,1119,1119,1119,1119,1119,1115,1115,1115,1115,1119,1119,1119,1119,1119,1119,1119,1119,1119,1119,1119,1119,1119,1119,1123,1123,1119,1119,1119,1123,1123,1119,1119,1119,1119,1123,1126,1126,1126,1126,1126,1126,1126,0,0,0,0,0,0,0,0,0,0,722,722,720,720,717,716,716,714,713,711,710,708,707,706,704,704,704,706,707,707,708,710,714,714,719,720,720,720,720,723,725,725,0,0,0,0,0,0,0,1130,1130,1130,1130,1130,1130,1130,1130,1134,1134,1134,1134,1134,1134,1130,1130,1130,1130,1126,1126,1123,959,959,956,954,954,954,951,946,946,943,943,943,940,940,935,935,933,933,930,930,928,928,928,925,925,925,923,920,920,918,918,918,918,918,918,918,918,918,918,920,920,920,920,920,920,923,925,925,928,930,933,933,938,938,940,943,946,948,951,959,959,962,964,964,967,1138,1138,1141,1141,1141,1141,1141,1141,1141,1141,1141,1141,1138,1138,1138,1138,1094,1090,1090,1087,1084,1084,1080,1080,1077,1077,1077,1073,1073,1077,1077,1077,1080,1084,1087,1087,1090,1090,1149,1149,1149,1149,1149,1149,1149,1149,1145,1145,1149,1149,1149,1149,1149,1149,1149,1149,1149,1149,1149,1149,1149,1149,1149,1149,1149,1149,1149,1149,1149,1149,1149,1149,1149,1149,1149,1149,1149,1149,1149,1149,1149,1149,1149,1149,1149,1149,1149,1149,1149,1153,1153,1149,1149,1149,1149,1149,1149,1153,1153,1153,1153,1153,1153,1149,1149,1149,1149,1149,1149,1153,1153,1153,1157,1153,1153,1153,1149,1149,1153,1153,1149,1149,1149,1149,1149,1149,1149,1145,1145,1145,1145,1145,1145,1145,1141,1141,1141,1141,1141,1141,1145,1145,1149,1149,1149,1149,1149,1149,1149,1149,1149,1149,1149,1149,1149,1149,1149,1149,1149,1149,1149,1153,1149,1149,1149,1149,1149,1149,1149,1145,1145,1149,1149,1145,1145,1141,1141,1141,1141,1141,1141,1145,1145,1145,1145,1145,1149,1149,1149,1145,1145,1145,1149,1149,1149,1149,1149,1149,1149,1149,1153,1153,1157,1157,1157,1157,1157,1161,1161,1161,1161,1161,1161,1165,1165,1165,1165,1165,1165,1165,1165,1165,1161,1161,1161,1161,1161,1165,1050,1050,1050,1047,1038,1038,1038,1038,1034,1031,1028,1028,1025,1022,1022,1016,1013,1007,1004,1004,0,0,0,0,0,0,0,0,0,0,0,0,0,0,0,0,0,0,0,0,0,0,0,0,0,0,0,0,0,0,0,0,0,0,0
0,0,0,0,0,1112,1112,1112,1112,1108,1108,1108,1108,1108,1105,1105,1105,1108,1105,1105,1105,1105,1105,1101,1101,1101,1101,1097,1094,1094,1094,1097,1097,1097,1097,1097,1097,1097,1097,1097,1094,1094,1094,1094,1094,1094,1094,1094,1097,1097,1097,1097,1097,1097,1097,1097,1097,1097,1097,1097,1101,1101,1101,1101,1101,1101,1101,1101,1101,1105,1105,1101,1101,1101,1101,1101,1101,1101,1101,1101,1101,1101,1101,1105,1105,1101,1101,1101,1101,1101,1101,1105,1105,1105,1105,1108,1105,1105,1105,1105,1105,1105,1101,1010,1001,1001,998,998,998,995,992,989,989,987,987,987,987,987,989,989,992,995,995,998,998,998,1001,1001,1001,1001,1115,1115,1112,1112,1112,1112,1108,1108,1105,1105,1112,1115,1115,1115,1115,1115,1115,1115,1115,1115,1112,1112,1115,1115,1115,1115,1115,1115,1115,1115,1115,1115,1115,1115,1115,1115,1115,1115,1115,1115,1112,1112,1112,1112,1112,1112,1112,1112,1112,1115,1115,1115,1115,1115,1115,1115,1115,1112,1112,1115,1115,1115,1115,1115,1119,1115,1115,1115,1115,1115,1115,1115,1115,1115,1115,1119,1115,1115,1115,1115,1115,1119,1119,1119,1119,1119,1123,1123,1123,1123,1119,1119,0,0,0,0,0,0,0,0,0,0,722,722,722,720,717,716,716,714,713,711,710,708,707,707,706,706,706,707,707,708,710,711,713,714,719,720,720,720,720,723,725,725,0,0,0,0,0,0,0,1126,1126,1123,1123,1126,1126,1130,1130,1130,1130,1130,1130,1130,1130,1130,1130,1126,1123,1123,1123,1123,1123,1119,956,954,954,954,951,946,946,943,943,943,940,940,935,935,933,933,930,928,928,928,925,925,923,923,920,918,918,915,915,915,915,915,913,913,913,915,915,918,918,918,918,920,920,923,925,925,928,930,933,933,938,938,940,943,946,948,956,959,959,962,964,964,1138,1138,1138,1138,1138,1138,1141,1141,1141,1141,1141,1141,1138,1138,1138,1134,1134,1134,1090,1090,1087,1087,1084,1080,1080,1077,1077,1077,1077,1077,1077,1077,1080,1080,1087,1087,1087,1090,1090,1145,1145,1145,1145,1145,1145,1145,1141,1141,1141,1141,1145,1145,1145,1145,1145,1149,1149,1145,1145,1145,1149,1149,1145,1145,1145,1145,1145,1145,1145,1145,1145,1145,1145,1145,1145,1145,1145,1145,1145,1145,1145,1145,1149,1149,1149,1149,1149,1149,1149,1145,1145,1149,1149,1149,1149,1149,1149,1149,1149,1149,1149,1149,1149,1149,1145,1145,1145,1145,1149,1149,1149,1149,1149,1153,1153,1149,1149,1149,1149,1149,1149,1149,1149,1149,1149,1149,1149,1149,1145,1145,1145,1145,1145,1141,1141,1141,1141,1141,1141,1138,1138,1141,1141,1145,1149,1149,1149,1149,1149,1149,1149,1149,1149,1149,1149,1149,1149,1149,1149,1149,1149,1149,1149,1149,1149,1149,1149,1149,1149,1145,1145,1145,1145,1145,1145,1141,1141,1141,1141,1141,1141,1141,1141,1145,1145,1145,1145,1145,1145,1149,1149,1149,1149,1149,1149,1149,1149,1149,1149,1149,1149,1153,1153,1157,1157,1157,1157,1157,1157,1161,1161,1161,1161,1161,1161,1161,1161,1161,1161,1165,1161,1161,1161,1161,1161,1165,1165,1165,1165,1165,1050,1050,1047,1038,1038,1034,1034,1034,1031,1028,1028,1025,1022,1019,1013,1010,1004,1001,1001,0,0,0,0,0,0,0,0,0,0,0,0,0,0,0,0,0,0,0,0,0,0,0,0,0,0,0,0,0,0,0,0,0,0,0
