0,0,0,0,0,0,0,0,0,0,0,0,0,0,1550,1550,1550,1550,1543,1543,1543,1536,1536,1536,1536,1536,1536,1536,1536,1529,1529,1529,1523,1523,1523,1516,1516,1516,1516,1516,1516,1516,1516,1516,1516,1516,1516,1509,1509,1509,1509,1509,1503,1503,1503,1503,1503,1503,1503,1503,1509,1509,1509,1509,1496,1496,1496,1496,1496,1496,1496,1496,1496,1496,1496,1496,1496,1496,1496,1503,1503,1503,1503,1509,1516,1516,1529,1529,1536,1766,1766,1766,1757,1757,1757,1757,1757,1757,1757,1757,1757,1757,1757,1748,1748,1739,1739,1739,1731,1731,1523,1523,1523,1523,1523,1523,1523,1516,1516,1516,1516,1516,1516,1523,1529,1529,1529,1536,1543,1550,1550,1550,1550,1557,1557,1557,1564,1564,1564,1572,1572,1572,1572,1579,1579,1579,1579,1579,1586,1586,1594,1594,1601,1609,1616,1616,1616,1624,1624,1624,1624,1632,1632,1639,1639,1639,1647,1647,1655,1655,1655,1655,1663,1663,1663,1663,1671,1671,1671,1680,1688,1688,1688,1688,1696,1696,1696,1705,1705,1713,1713,1722,1722,1722,1722,1722,1722,1731,1731,1731,1731,1739,1757,1757,1757,1757,1766,1766,1766,1757,1757,1748,1739,1739,1739,0,0,0,0,0,0,0,1050,1047,1047,1047,1041,1041,1041,1038,1038,1034,1034,1034,1034,1034,1034,1034,1034,1038,1038,1041,1044,1044,1047,1047,1047,1047,1047,1047,0,0,0,0,1632,1632,1632,1632,1632,1624,1624,1624,1624,1624,1624,1616,1616,1609,1609,1601,1601,1601,1601,1601,1594,1594,1594,1586,1586,1579,1579,1572,1572,1572,1572,1572,1572,1564,1564,1564,1564,1564,1557,1557,1557,1557,1557,1550,1543,1543,1543,1543,1543,1536,1536,1536,1536,1536,1529,1529,1523,1516,1516,1516,1516,1509,1509,1509,1509,1509,1509,1509,1509,1509,1509,1509,1509,1503,1496,1496,1496,1496,1489,1489,1483,1483,1477,1477,1477,1477,1470,1470,1470,1464,1464,1458,1458,1452,1445,1445,0,0,0,0,0,0,0,0,880,878,873,873,873,871,871,869,869,867,864,862,862,862,862,862,862,862,864,867,867,871,873,878,878,880,880,880,887,0,0,0,0,0,1376,1376,1376,1376,1376,1370,1370,1370,1370,1370,1370,1365,1365,1354,1354,1354,1354,1354,1349,1349,1349,1349,1343,1343,1343,1338,1338,1338,1338,1338,1333,1333,1328,1328,1328,1328,1322,1322,1322,1317,1317,1317,1317,1312,1312,1312,1307,1307,1307,1302,1302,1302,1297,1292,1292,1292,1292,1292,1288,1288,1288,1288,1288,1288,1283,1283,1278,1273,1273,1273,1273,1273,1268,1268,1268,1264,1259,1255,1255,1255,1255,1255,1255,1250,1250,1250,1250,1250,1250,1245,1245,1241,1241,1241,1236,1236,1236,1236,1236,1232,1232,1232,1227,1223,1223,1223,1219,1219,1219,1219,1219,1219,1219,1219,1214,1214,1214,1214,1210,1206,1206,1202,1202,1202,1202,1197,1197,1197,1197,1197,1193,1189,1189,1189,1185,1185,1185,1185,1185,1181,1181,1181,1181,1181,1177,1177,1173,1173,1169,1169,1169,1169,1169,1169,1165,1165,1161,1161,1161,1161,1157,1157,1153,1153,1153,1153,1153,1149,1149,1149,1145,1145,1141,1141,1141,1138,1138,1138,1138,1138,1138,1134,1134,1134,1134,1134,1130,1130,1130,1126,1126,1123,1123,1123,1123,1119,1119,1119,1115,1112,1112,1112,1112,1108,1108,1108,1105,1105,1101,1097,1097,1097,1094,1094,1094,1094,1090,1090,1090,1090,0,0,0,0,0,0,0,0,0,0,0,0,0,0,0,0,0,0,0,0,0,0,0,0,0,0,0,0
0,0,0,0,0,0,0,0,0,0,0,0,0,0,1550,1550,1550,1550,1543,1543,1543,1536,1536,1543,1536,1536,1536,1536,1536,1536,1529,1529,1523,1523,1523,1516,1516,1516,1516,1516,1516,1516,1516,1516,1516,1516,1516,1516,1509,1509,1509,1509,1503,1503,1503,1503,1503,1503,1503,1503,1509,1516,1516,1509,1509,1509,1509,1496,1496,1496,1496,1496,1496,1496,1496,1496,1496,1496,1496,1503,1503,1503,1503,1509,1509,1516,1529,1529,1529,1766,1766,1766,1766,1766,1766,1766,1766,1766,1766,1766,1757,1757,1757,1748,1748,1739,1739,1739,1731,1731,1739,1523,1523,1529,1523,1523,1523,1523,1523,1523,1516,1516,1516,1529,1529,1529,1536,1536,1536,1543,1543,1543,1543,1557,1557,1557,1564,1564,1564,1572,1572,1572,1572,1579,1579,1579,1579,1579,1586,1586,1594,1601,1601,1609,1616,1616,1624,1624,1624,1624,1632,1632,1632,1632,1639,1639,1647,1647,1655,1655,1655,1655,1663,1663,1663,1671,1671,1671,1671,1680,1688,1688,1696,1696,1696,1696,1705,1705,1705,1713,1713,1713,1722,1722,1722,1722,1722,1731,1731,1731,1731,1739,1757,1757,1757,1757,1776,1766,1766,1757,1757,1748,1739,1739,1739,0,0,0,0,0,0,0,1050,1047,1047,1047,1041,1041,1041,1038,1038,1038,1038,1034,1034,1034,1034,1034,1034,1038,1038,1041,1044,1047,1047,1050,1050,1050,1047,1047,0,0,0,1632,1632,1632,1632,1632,1632,1624,1624,1624,1624,1624,1624,1616,1616,1609,1609,1609,1609,1601,1601,1601,1594,1594,1594,1586,1586,1586,1579,1579,1572,1572,1572,1572,1572,1572,1564,1564,1564,1564,1564,1557,1557,1557,1557,1550,1550,1543,1543,1543,1543,1543,1536,1536,1536,1536,1536,1536,1523,1516,1516,1516,1516,1516,1509,1509,1509,1509,1516,1516,1509,1509,1509,1509,1509,1509,1496,1496,1496,1496,1496,1489,1483,1483,1483,1483,1477,1477,1470,1470,1470,1464,1464,1464,1452,1445,1439,1439,0,0,0,0,0,0,0,0,880,878,873,873,873,871,871,869,869,867,864,864,864,862,862,862,862,862,867,867,867,871,873,880,880,880,880,882,887,0,0,0,0,0,1376,1376,1376,1376,1376,1370,1370,1370,1370,1370,1370,1365,1365,1365,1359,1354,1354,1354,1349,1349,1349,1349,1349,1349,1343,1343,1343,1343,1343,1338,1333,1333,1328,1328,1328,1328,1328,1322,1322,1322,1317,1317,1317,1312,1312,1312,1307,1307,1307,1302,1302,1302,1297,1292,1292,1292,1292,1292,1288,1288,1288,1288,1288,1288,1283,1283,1283,1278,1278,1278,1273,1273,1273,1268,1268,1264,1264,1259,1255,1255,1255,1255,1255,1255,1250,1250,1250,1250,1250,1245,1245,1245,1241,1241,1236,1236,1236,1236,1236,1232,1232,1232,1227,1223,1223,1223,1219,1219,1219,1219,1219,1219,1219,1219,1219,1214,1214,1214,1210,1206,1206,1202,1202,1202,1202,1197,1197,1197,1197,1197,1193,1193,1193,1189,1189,1185,1185,1185,1185,1185,1185,1185,1181,1181,1181,1177,1173,1173,1169,1169,1169,1169,1169,1169,1165,1165,1165,1161,1161,1161,1157,1157,1153,1153,1153,1153,1153,1149,1149,1149,1149,1149,1145,1141,1141,1138,1138,1138,1138,1138,1138,1138,1134,1134,1134,1134,1130,1130,1130,1126,1126,1123,1123,1123,1123,1119,1119,1119,1115,1112,1112,1112,1112,1108,1108,1108,1105,1105,1105,1097,1097,1097,1097,1094,1094,1094,1090,1090,1090,1090,0,0,0,0,0,0,0,0,0,0,0,0,0,0,0,0,0,0,0,0,0,0,0,0,0,0,0,0
0,0,0,0,0,0,0,0,0,0,0,0,0,0,1550,1550,1557,1557,1550,1550,1543,1543,1543,1543,1543,1543,1543,1536,1536,1536,1529,1529,1523,1523,1523,1523,1523,1516,1516,1516,1516,1516,1516,1516,1516,1516,1516,1516,1509,1509,1509,1509,1509,1509,1503,1503,1503,1503,1503,1509,1516,1516,1516,1509,1509,1503,1503,1503,1496,1496,1496,1496,1496,1496,1496,1496,1496,1496,1496,1503,1503,1503,1503,1509,1509,1523,1529,1529,1529,1529,1766,1766,1766,1766,1766,1766,1766,1766,1766,1757,1757,1757,1748,1748,1748,1739,1739,1739,1731,1731,1739,1523,1523,1529,1523,1523,1523,1523,1523,1516,1516,1516,1523,1529,1529,1536,1536,1536,1536,1543,1543,1543,1543,1557,1557,1557,1564,1564,1564,1572,1572,1572,1572,1579,1579,1579,1594,1594,1586,1586,1601,1601,1601,1609,1616,1616,1624,1624,1624,1624,1632,1632,1632,1632,1639,1639,1647,1647,1655,1655,1655,1655,1655,1663,1663,1671,1671,1671,1671,1680,1688,1688,1696,1696,1696,1696,1705,1705,1705,1713,1713,1713,1722,1722,1722,1722,1731,1731,1731,1739,1739,1748,1757,1757,1757,1757,1776,1766,1766,1757,1757,1757,1748,1748,1748,0,0,0,0,0,0,0,0,1047,1047,1047,1041,1041,1041,1041,1038,1038,1038,1034,1034,1034,1034,1038,1038,1038,1038,1041,1044,1047,1047,1050,1050,1050,1050,1050,0,0,0,1647,1639,1632,1632,1632,1632,1632,1632,1632,1632,1632,1624,1616,1616,1616,1616,1609,1609,1601,1601,1601,1601,1594,1594,1594,1594,1586,1579,1579,1579,1579,1579,1572,1572,1572,1564,1564,1564,1564,1564,1564,1557,1557,1557,1557,1550,1550,1543,1543,1543,1543,1543,1536,1536,1536,1536,1536,1529,1516,1516,1516,1516,1516,1516,1516,1509,1509,1516,1516,1516,1516,1509,1509,1509,1509,1503,1503,1496,1496,1496,1489,1483,1483,1483,1483,1477,1477,1470,1470,1470,1464,1464,1464,1452,1445,1439,1439,0,0,0,0,0,0,0,0,880,878,875,873,873,873,871,869,869,867,867,864,864,864,864,864,864,864,867,867,867,871,873,880,880,880,880,887,887,0,0,0,0,0,1381,1376,1376,1376,1376,1376,1376,1376,1370,1370,1370,1370,1365,1365,1365,1359,1354,1354,1354,1349,1349,1349,1349,1349,1343,1343,1343,1343,1343,1338,1333,1333,1333,1333,1328,1328,1328,1328,1328,1322,1322,1317,1317,1312,1312,1312,1307,1307,1307,1307,1307,1302,1297,1297,1297,1297,1292,1292,1288,1288,1288,1288,1288,1288,1283,1283,1283,1278,1278,1278,1273,1273,1273,1268,1268,1264,1264,1259,1255,1255,1255,1255,1255,1255,1255,1255,1250,1250,1250,1245,1245,1245,1241,1241,1236,1236,1236,1236,1236,1232,1232,1232,1227,1227,1227,1223,1219,1219,1219,1219,1219,1219,1219,1219,1219,1214,1214,1214,1210,1210,1206,1206,1202,1202,1202,1197,1197,1197,1197,1197,1197,1193,1193,1193,1189,1185,1185,1185,1185,1185,1185,1185,1185,1181,1181,1181,1177,1177,1173,1173,1169,1169,1169,1169,1165,1165,1165,1165,1161,1161,1157,1157,1153,1153,1153,1153,1153,1153,1149,1149,1149,1149,1145,1145,1141,1141,1141,1141,1138,1138,1138,1138,1138,1138,1134,1134,1134,1134,1130,1126,1126,1123,1123,1123,1123,1119,1119,1119,1115,1115,1115,1112,1112,1108,1108,1108,1105,1105,1105,1101,1097,1097,1097,1094,1094,1094,1094,1094,1090,1090,0,0,0,0,0,0,0,0,0,0,0,0,0,0,0,0,0,0,0,0,0,0,0,0,0,0,0,0
0,0,0,0,0,0,0,0,0,0,0,0,0,0,1550,1550,1557,1557,1550,1550,1550,1550,1550,1543,1543,1543,1543,1543,1536,1536,1529,1529,1529,1523,1523,1523,1523,1516,1516,1516,1516,1516,1523,1516,1516,1516,1516,1516,1516,1516,1516,1509,1509,1509,1509,1509,1509,1509,1509,1509,1516,1516,1516,1509,1509,1503,1503,1503,1503,1496,1496,1496,1496,1496,1496,1496,1496,1496,1509,1509,1509,1509,1509,1509,1523,1523,1529,1529,1529,1529,1766,1766,1766,1766,1766,1766,1766,1766,1766,1757,1757,1757,1748,1748,1748,1739,1739,1739,1731,1731,1739,1523,1523,1529,1523,1523,1523,1523,1523,1516,1516,1523,1529,1529,1536,1536,1536,1536,1543,1543,1543,1543,1543,1557,1557,1564,1564,1564,1564,1572,1572,1572,1572,1579,1579,1586,1594,1594,1594,1594,1601,1601,1601,1609,1616,1616,1624,1624,1624,1624,1632,1632,1632,1632,1639,1639,1647,1647,1655,1655,1655,1655,1655,1663,1663,1671,1671,1671,1671,1680,1688,1688,1688,1696,1696,1696,1696,1705,1705,1705,1713,1722,1722,1722,1722,1722,1731,1731,1731,1739,1739,1748,1757,1757,1757,1757,1766,1766,1766,1766,1766,1757,1757,1757,1757,0,0,0,0,0,0,0,0,1047,1047,1047,1044,1044,1044,1041,1041,1038,1038,1034,1034,1034,1034,1038,1038,1038,1038,1041,1044,1047,1047,1050,1050,1050,1050,0,0,0,0,1647,1647,1639,1639,1639,1639,1639,1632,1632,1632,1632,1624,1624,1616,1616,1616,1609,1609,1609,1609,1609,1601,1601,1601,1594,1594,1586,1579,1579,1579,1579,1579,1572,1572,1572,1572,1572,1572,1564,1564,1564,1564,1564,1564,1557,1557,1550,1550,1543,1543,1543,1543,1543,1543,1543,1543,1536,1529,1529,1523,1523,1523,1516,1516,1509,1509,1509,1516,1516,1516,1516,1509,1509,1509,1509,1509,1503,1503,1496,1496,1496,1489,1489,1483,1483,1483,1477,1477,1470,1470,1464,1464,1464,1452,1445,1439,1439,0,0,0,0,0,0,0,885,880,878,875,875,875,873,871,871,869,869,869,867,867,864,864,864,864,867,867,867,869,871,878,880,880,880,882,887,889,0,0,0,0,0,1381,1376,1376,1376,1376,1376,1376,1376,1370,1370,1370,1370,1365,1365,1365,1359,1359,1354,1354,1354,1354,1349,1349,1349,1349,1343,1343,1343,1343,1338,1338,1333,1333,1333,1333,1328,1328,1328,1328,1328,1322,1322,1322,1312,1312,1312,1312,1307,1307,1307,1307,1302,1302,1297,1297,1297,1292,1292,1292,1292,1288,1288,1288,1288,1288,1283,1283,1283,1278,1278,1278,1273,1273,1273,1273,1268,1264,1264,1264,1259,1259,1259,1255,1255,1255,1255,1255,1250,1250,1250,1245,1245,1245,1245,1241,1236,1236,1236,1236,1232,1232,1232,1232,1227,1227,1223,1223,1223,1219,1219,1219,1219,1219,1219,1219,1219,1214,1214,1214,1210,1206,1206,1202,1202,1202,1202,1202,1197,1197,1197,1197,1193,1193,1193,1189,1185,1185,1185,1185,1185,1185,1185,1185,1181,1181,1181,1181,1177,1177,1173,1173,1169,1169,1169,1169,1165,1165,1165,1161,1161,1161,1157,1157,1153,1153,1153,1153,1153,1149,1149,1149,1149,1145,1145,1145,1145,1141,1141,1138,1138,1138,1138,1138,1138,1134,1134,1134,1134,1130,1130,1126,1126,1123,1123,1123,1119,1119,1119,1115,1112,1112,1112,1112,1108,1108,1108,1108,1108,1105,1101,1101,1101,1097,1097,1094,1094,1094,1094,1094,1094,0,0,0,0,0,0,0,0,0,0,0,0,0,0,0,0,0,0,0,0,0,0,0,0,0,0,0,0
0,0,0,0,0,0,0,0,0,0,0,0,0,0,1550,1550,1550,1550,1550,1550,1550,1550,1550,1543,1543,1543,1543,1543,1536,1536,1536,1536,1529,1529,1529,1523,1523,1523,1523,1523,1523,1523,1523,1516,1516,1516,1516,1516,1516,1516,1516,1509,1509,1509,1509,1509,1509,1509,1509,1509,1516,1516,1516,1509,1509,1509,1509,1503,1503,1503,1496,1496,1503,1503,1509,1509,1509,1509,1509,1509,1509,1503,1503,1509,1523,1523,1529,1529,1529,1529,1776,1776,1776,1776,1776,1776,1776,1766,1766,1766,1757,1757,1757,1748,1748,1748,1748,1739,1739,1739,1523,1523,1529,1529,1529,1529,1529,1523,1523,1516,1516,1523,1529,1529,1536,1536,1543,1543,1543,1543,1543,1543,1543,1557,1557,1564,1564,1564,1564,1572,1572,1572,1572,1579,1579,1594,1594,1594,1594,1594,1601,1601,1609,1609,1616,1616,1624,1624,1624,1624,1632,1632,1632,1632,1639,1639,1647,1647,1647,1655,1655,1655,1655,1663,1663,1671,1671,1671,1671,1680,1688,1688,1688,1696,1696,1696,1696,1705,1705,1705,1705,1713,1722,1722,1722,1722,1731,1731,1731,1739,1739,1748,1757,1757,1757,1757,1766,1766,1766,1766,1766,1757,1757,1748,1748,0,0,0,0,0,0,0,0,1047,1047,1047,1044,1044,1044,1044,1041,1038,1038,1038,1038,1034,1034,1038,1038,1038,1041,1044,1047,1047,1050,1050,1050,1054,1054,0,0,0,0,1655,1655,1647,1647,1647,1639,1639,1632,1632,1632,1632,1632,1624,1616,1616,1616,1609,1609,1609,1609,1609,1601,1601,1601,1594,1594,1594,1586,1586,1586,1586,1579,1579,1572,1572,1572,1572,1572,1572,1572,1572,1564,1564,1564,1557,1557,1557,1550,1543,1543,1543,1543,1543,1543,1543,1543,1536,1536,1529,1529,1523,1523,1516,1516,1509,1509,1516,1516,1516,1516,1516,1516,1516,1516,1509,1509,1503,1503,1496,1496,1496,1489,1489,1483,1483,1483,1477,1477,1470,1470,1470,1470,1464,1464,1452,1452,0,0,0,0,0,0,0,0,885,880,878,875,875,875,873,871,871,869,869,869,867,867,864,864,864,864,867,867,869,869,871,878,880,880,882,882,887,889,0,0,0,1392,1392,1381,1381,1376,1376,1376,1376,1376,1376,1376,1376,1370,1370,1370,1365,1365,1365,1359,1354,1354,1354,1354,1354,1349,1349,1349,1349,1343,1343,1343,1338,1338,1333,1333,1333,1333,1328,1328,1328,1328,1328,1322,1322,1322,1317,1312,1312,1312,1307,1307,1307,1307,1302,1302,1297,1297,1297,1297,1292,1292,1292,1292,1288,1288,1288,1288,1283,1283,1283,1283,1283,1278,1278,1278,1273,1273,1273,1268,1268,1264,1259,1259,1259,1259,1255,1255,1255,1255,1250,1250,1250,1250,1250,1245,1245,1241,1236,1236,1236,1236,1232,1232,1232,1232,1232,1232,1227,1227,1223,1219,1219,1219,1219,1219,1219,1219,1219,1219,1214,1214,1210,1210,1206,1206,1206,1202,1202,1202,1202,1197,1197,1197,1193,1193,1193,1189,1189,1185,1185,1185,1185,1185,1185,1185,1185,1181,1181,1181,1181,1177,1177,1173,1173,1169,1169,1169,1165,1165,1165,1165,1165,1161,1161,1157,1157,1157,1153,1153,1153,1149,1149,1149,1149,1145,1145,1145,1145,1145,1145,1141,1141,1138,1138,1138,1138,1134,1134,1134,1134,1130,1130,1126,1126,1123,1123,1123,1119,1119,1119,1115,1112,1112,1112,1112,1108,1108,1108,1108,1105,1105,1101,1101,1101,1097,1097,1094,1094,1094,1094,1094,1094,0,0,0,0,0,0,0,0,0,0,0,0,0,0,0,0,0,0,0,0,0,0,0,0,0,0,0,0
0,0,0,0,0,0,0,0,0,0,0,0,0,0,1550,1550,1550,1550,1550,1550,1543,1543,1543,1543,1543,1543,1543,1543,1543,1536,1536,1536,1536,1529,1529,1529,1529,1529,1529,1529,1523,1523,1523,1516,1516,1516,1516,1516,1516,1516,1516,1509,1509,1509,1509,1509,1509,1509,1509,1509,1516,1516,1516,1509,1509,1509,1509,1509,1509,1503,1496,1496,1503,1503,1509,1509,1516,1516,1516,1509,1509,1503,1503,1509,1523,1523,1529,1529,1529,1529,1776,1776,1776,1776,1776,1776,1776,1776,1766,1766,1766,1757,1757,1748,1748,1748,1748,1739,1731,1731,1523,1523,1529,1529,1529,1529,1529,1523,1523,1523,1523,1523,1529,1529,1536,1536,1543,1543,1543,1543,1543,1543,1543,1557,1557,1564,1564,1564,1564,1572,1572,1572,1572,1579,1579,1586,1586,1594,1594,1594,1601,1601,1609,1609,1616,1616,1616,1624,1624,1624,1624,1632,1632,1632,1639,1639,1647,1647,1647,1655,1655,1655,1663,1663,1663,1671,1671,1671,1680,1688,1688,1688,1696,1696,1696,1696,1696,1705,1705,1705,1705,1713,1722,1722,1722,1722,1731,1731,1739,1739,1748,1757,1757,1757,1757,1766,1766,1766,1766,1766,1766,1757,1748,1739,1731,1731,0,0,0,0,0,0,0,1050,1047,1047,1047,1044,1044,1044,1041,1038,1038,1038,1038,1038,1038,1038,1038,1041,1041,1044,1047,1047,1050,1050,1050,1054,1054,0,0,0,0,1655,1655,1647,1647,1647,1647,1639,1639,1632,1632,1632,1624,1624,1616,1616,1616,1609,1609,1609,1609,1609,1601,1601,1601,1594,1594,1594,1594,1594,1586,1586,1586,1579,1572,1572,1572,1572,1572,1572,1572,1572,1564,1564,1564,1564,1557,1557,1550,1543,1543,1543,1543,1543,1543,1543,1543,1536,1536,1529,1529,1523,1523,1523,1516,1516,1516,1516,1516,1516,1516,1516,1516,1516,1516,1509,1509,1503,1503,1503,1496,1496,1489,1489,1489,1489,1483,1483,1477,1470,1470,1470,1470,1464,1464,1452,1452,1464,0,0,0,0,0,0,0,0,880,878,875,875,875,875,873,871,871,869,869,869,869,867,867,867,867,867,869,869,869,873,878,880,880,882,887,0,0,0,0,1381,1381,1381,1381,1381,1381,1381,1376,1376,1376,1376,1376,1376,1376,1370,1370,1370,1365,1365,1359,1359,1359,1354,1354,1354,1354,1354,1349,1349,1349,1349,1343,1343,1338,1333,1333,1333,1333,1328,1328,1328,1328,1328,1322,1322,1322,1317,1312,1312,1312,1307,1307,1307,1307,1302,1302,1297,1297,1297,1297,1292,1292,1292,1292,1288,1288,1288,1288,1283,1283,1283,1283,1283,1278,1278,1278,1273,1273,1273,1268,1268,1264,1264,1264,1264,1259,1255,1255,1255,1255,1255,1250,1250,1250,1250,1250,1245,1241,1241,1236,1236,1236,1232,1232,1232,1232,1232,1232,1227,1227,1223,1223,1219,1219,1219,1219,1219,1219,1219,1219,1214,1214,1210,1210,1206,1206,1206,1202,1202,1202,1202,1197,1197,1197,1193,1193,1193,1189,1189,1189,1185,1185,1185,1185,1185,1185,1181,1181,1181,1181,1181,1177,1177,1173,1173,1173,1169,1169,1165,1165,1165,1165,1165,1165,1161,1161,1157,1157,1153,1153,1153,1149,1149,1149,1149,1145,1145,1145,1145,1145,1145,1141,1141,1138,1138,1138,1138,1134,1134,1134,1134,1134,1130,1130,1126,1123,1123,1123,1123,1119,1119,1115,1112,1112,1115,1115,1112,1112,1108,1108,1105,1105,1105,1105,1101,1097,1097,1094,1094,1094,1094,1094,1094,0,0,0,0,0,0,0,0,0,0,0,0,0,0,0,0,0,0,0,0,0,0,0,0,0,0,0,0
0,0,0,0,0,0,0,0,0,0,0,0,0,0,1550,1550,1550,1550,1550,1550,1543,1543,1543,1543,1543,1543,1543,1543,1543,1536,1536,1536,1536,1536,1536,1529,1529,1529,1529,1536,1529,1529,1523,1516,1516,1509,1509,1516,1516,1516,1516,1509,1509,1509,1509,1509,1509,1509,1509,1509,1516,1516,1516,1516,1509,1509,1509,1509,1509,1509,1509,1509,1509,1509,1516,1516,1516,1516,1516,1516,1509,1509,1509,1509,1523,1523,1529,1536,1536,1536,1536,1785,1785,1785,1785,1785,1785,1776,1776,1776,1766,1757,1757,1748,1748,1748,1748,1739,1731,1731,1731,1543,1536,1536,1536,1536,1536,1529,1529,1523,1523,1523,1529,1529,1536,1536,1543,1543,1543,1543,1550,1557,1557,1557,1564,1564,1564,1564,1572,1572,1572,1572,1572,1579,1579,1586,1586,1594,1594,1594,1601,1601,1609,1609,1609,1616,1616,1624,1624,1624,1624,1632,1632,1632,1639,1639,1647,1647,1655,1655,1655,1663,1663,1663,1663,1671,1671,1671,1680,1688,1688,1688,1696,1696,1696,1696,1696,1696,1705,1705,1705,1713,1722,1722,1722,1731,1731,1731,1739,1739,1748,1757,1757,1757,1766,1766,1766,1766,1766,1766,1766,1757,1739,1731,1722,1705,1705,0,0,0,0,0,0,1050,1047,1047,1047,1044,1044,1044,1041,1038,1038,1038,1038,1038,1038,1038,1041,1041,1044,1044,1047,1050,1050,1050,1050,1054,1054,1054,0,0,0,1655,1655,1655,1647,1647,1647,1639,1632,1632,1632,1632,1624,1624,1624,1624,1624,1616,1616,1616,1616,1609,1609,1601,1601,1601,1594,1594,1594,1594,1594,1586,1586,1586,1579,1572,1572,1572,1572,1572,1572,1572,1572,1564,1564,1564,1557,1557,1550,1550,1543,1543,1543,1543,1543,1543,1543,1536,1536,1529,1529,1529,1529,1523,1516,1516,1516,1523,1523,1516,1516,1516,1516,1516,1516,1509,1509,1503,1503,1503,1496,1496,1489,1489,1489,1489,1483,1483,1477,1477,1477,1470,1470,1470,1464,1464,1464,1464,0,0,0,0,0,0,0,0,880,878,878,875,875,875,873,871,871,871,869,869,869,867,867,867,867,869,869,869,871,873,878,880,880,882,0,0,0,0,0,1381,1381,1381,1387,1387,1387,1381,1381,1376,1376,1376,1376,1376,1376,1370,1370,1370,1370,1365,1365,1359,1359,1359,1354,1354,1354,1354,1354,1349,1349,1349,1343,1343,1338,1338,1338,1333,1333,1328,1328,1328,1328,1328,1328,1322,1322,1312,1312,1312,1312,1312,1307,1307,1307,1307,1302,1302,1297,1297,1297,1297,1292,1292,1292,1288,1288,1288,1288,1288,1288,1283,1283,1283,1278,1278,1278,1273,1273,1273,1268,1268,1268,1264,1264,1264,1259,1259,1259,1255,1255,1255,1255,1255,1250,1250,1250,1245,1245,1241,1241,1236,1236,1232,1232,1232,1232,1232,1232,1227,1227,1223,1223,1219,1219,1219,1219,1219,1219,1219,1219,1219,1214,1210,1210,1206,1206,1206,1202,1202,1202,1202,1202,1197,1197,1193,1193,1193,1189,1189,1189,1189,1185,1185,1185,1185,1185,1181,1181,1181,1181,1181,1177,1177,1173,1173,1173,1169,1169,1165,1165,1165,1165,1165,1165,1165,1161,1157,1157,1157,1157,1153,1153,1153,1149,1149,1149,1149,1149,1145,1145,1145,1141,1141,1138,1138,1138,1138,1134,1134,1134,1134,1134,1130,1130,1130,1126,1126,1123,1123,1123,1119,1119,1112,1112,1115,1115,1112,1112,1108,1108,1108,1105,1105,1105,1101,1101,1097,1094,1094,1094,1094,1094,1094,0,0,0,0,0,0,0,0,0,0,0,0,0,0,0,0,0,0,0,0,0,0,0,0,0,0,0,0
0,0,0,0,0,0,0,0,0,0,0,0,0,0,1550,1550,1550,1550,1550,1550,1543,1543,1543,1543,1543,1543,1543,1543,1543,1543,1536,1536,1536,1536,1536,1536,1529,1529,1529,1529,1523,1523,1523,1523,1516,1509,1509,1516,1516,1516,1516,1516,1516,1516,1509,1509,1509,1516,1516,1516,1516,1516,1516,1516,1509,1509,1509,1509,1509,1509,1509,1509,1509,1516,1516,1516,1516,1509,1509,1509,1509,1509,1509,1516,1523,1529,1529,1536,1536,1536,1536,1794,1794,1794,1794,1794,1794,1785,1776,1776,1766,1766,1757,1757,1748,1748,1748,1739,1731,1731,1731,1731,1536,1536,1536,1536,1536,1529,1529,1523,1523,1523,1529,1529,1536,1536,1543,1543,1543,1543,1550,1557,1557,1557,1564,1564,1572,1572,1572,1572,1572,1572,1572,1579,1579,1586,1586,1594,1594,1601,1601,1601,1609,1609,1609,1609,1616,1624,1624,1624,1624,1632,1632,1632,1639,1639,1647,1655,1655,1655,1655,1663,1663,1663,1663,1671,1671,1680,1680,1688,1688,1688,1688,1688,1696,1696,1696,1696,1696,1705,1705,1713,1713,1722,1731,1731,1731,1731,1739,1739,1748,1757,1757,1757,1766,1766,1766,1766,1766,1766,1757,1757,1739,1731,1696,1696,1705,0,0,0,0,0,0,0,1047,1047,1047,1047,1044,1044,1041,1041,1038,1038,1038,1038,1038,1038,1041,1041,1044,1047,1047,1050,1050,1050,1050,1054,1060,0,0,0,0,1655,1655,1655,1655,1647,1647,1639,1632,1632,1632,1632,1632,1624,1624,1624,1624,1624,1616,1616,1616,1616,1609,1601,1601,1601,1594,1594,1594,1594,1594,1594,1586,1586,1586,1579,1579,1572,1572,1572,1572,1572,1572,1572,1564,1564,1564,1557,1550,1550,1543,1543,1543,1543,1543,1543,1543,1536,1536,1536,1536,1529,1529,1523,1516,1516,1516,1523,1523,1516,1516,1516,1516,1516,1516,1516,1509,1509,1503,1503,1503,1496,1489,1489,1489,1489,1489,1483,1483,1477,1477,1470,1470,1470,1470,1464,1464,0,0,0,0,0,0,0,0,0,880,878,878,878,878,875,873,873,871,871,871,869,869,869,869,869,869,869,869,869,871,873,878,880,880,882,0,0,0,0,0,0,1387,1387,1387,1387,1387,1387,1381,1381,1376,1376,1376,1376,1376,1370,1370,1370,1370,1370,1365,1365,1365,1359,1354,1354,1354,1354,1354,1349,1349,1349,1343,1343,1338,1338,1338,1333,1333,1333,1333,1328,1328,1328,1328,1322,1322,1312,1312,1312,1312,1312,1312,1307,1307,1307,1302,1302,1302,1297,1297,1297,1297,1297,1297,1288,1288,1288,1288,1288,1283,1283,1283,1283,1278,1278,1278,1273,1273,1273,1268,1268,1268,1264,1264,1264,1264,1259,1259,1255,1255,1255,1255,1255,1255,1255,1250,1250,1245,1245,1241,1241,1236,1236,1232,1232,1232,1232,1232,1232,1227,1223,1223,1223,1219,1219,1219,1219,1219,1219,1219,1219,1214,1214,1210,1210,1206,1206,1202,1202,1202,1202,1202,1197,1197,1197,1197,1197,1193,1193,1193,1189,1189,1189,1185,1185,1185,1181,1181,1181,1181,1181,1177,1177,1173,1173,1173,1169,1169,1169,1169,1169,1165,1165,1165,1165,1161,1157,1157,1157,1157,1157,1153,1153,1153,1149,1149,1149,1149,1149,1145,1145,1145,1145,1141,1141,1138,1138,1134,1134,1134,1134,1134,1134,1130,1130,1126,1126,1123,1123,1123,1119,1119,1115,1115,1115,1115,1112,1112,1112,1108,1108,1108,1105,1105,1101,1101,1097,1094,1094,1094,1094,1094,1094,0,0,0,0,0,0,0,0,0,0,0,0,0,0,0,0,0,0,0,0,0,0,0,0,0,0,0,0
0,0,0,0,0,0,0,0,0,0,0,0,0,0,1550,1550,1550,1550,1550,1550,1543,1543,1543,1543,1543,1543,1536,1536,1543,1543,1536,1536,1536,1536,1536,1536,1529,1523,1523,1529,1523,1523,1523,1523,1523,1509,1509,1516,1516,1516,1516,1516,1516,1516,1516,1516,1516,1516,1516,1516,1516,1516,1516,1516,1516,1509,1509,1509,1509,1509,1509,1509,1509,1516,1516,1516,1516,1509,1509,1509,1509,1509,1509,1516,1523,1529,1529,1536,1536,1536,1536,1543,1794,1794,1794,1794,1785,1776,1776,1766,1766,1766,1757,1757,1748,1748,1748,1739,1731,1731,1731,1731,1536,1536,1536,1536,1536,1536,1536,1529,1529,1529,1529,1529,1536,1536,1543,1543,1543,1550,1550,1557,1557,1564,1564,1564,1564,1572,1572,1572,1572,1572,1572,1579,1579,1586,1594,1594,1601,1601,1601,1601,1609,1609,1609,1609,1616,1624,1624,1624,1624,1632,1632,1632,1639,1639,1647,1655,1655,1655,1655,1663,1663,1663,1663,1671,1671,1680,1688,1688,1688,1688,1688,1688,1696,1696,1696,1696,1696,1705,1705,1713,1713,1722,1731,1731,1731,1739,1739,1739,1748,1757,1757,1757,1766,1766,1766,1766,1766,1757,1757,1757,1748,1731,1696,1696,0,0,0,0,0,0,1060,1057,1050,1050,1050,1047,1044,1044,1041,1041,1038,1038,1038,1038,1038,1038,1041,1044,1044,1047,1050,1050,1050,1050,1054,1054,1060,0,0,0,0,1655,1655,1655,1655,1647,1647,1639,1639,1639,1639,1632,1632,1632,1632,1632,1624,1624,1624,1624,1616,1616,1616,1609,1601,1601,1601,1594,1594,1594,1594,1594,1594,1586,1586,1579,1579,1579,1579,1572,1572,1572,1572,1572,1564,1564,1564,1557,1557,1550,1543,1543,1543,1543,1543,1543,1543,1536,1536,1536,1536,1536,1529,1523,1523,1516,1516,1523,1523,1523,1523,1523,1516,1516,1516,1516,1509,1509,1509,1509,1503,1503,1496,1489,1489,1489,1489,1489,1483,1483,1483,1477,1470,1470,1470,1470,1470,0,0,0,0,0,0,0,0,0,880,878,878,878,878,875,873,873,871,871,871,869,869,869,869,869,869,869,869,871,873,873,878,880,880,885,0,0,0,0,0,1398,1392,1392,1392,1392,1392,1387,1387,1381,1376,1376,1376,1376,1376,1376,1376,1370,1370,1370,1370,1365,1365,1359,1354,1354,1354,1354,1354,1349,1349,1349,1349,1343,1343,1338,1338,1333,1333,1333,1333,1328,1328,1328,1328,1322,1322,1317,1317,1312,1312,1312,1312,1307,1307,1307,1307,1302,1302,1302,1302,1302,1297,1297,1297,1292,1292,1292,1292,1288,1283,1283,1283,1283,1278,1278,1278,1278,1273,1273,1273,1268,1268,1264,1264,1264,1264,1259,1259,1259,1255,1255,1255,1255,1255,1255,1250,1250,1245,1245,1241,1241,1241,1236,1236,1232,1232,1232,1232,1232,1227,1227,1223,1223,1223,1219,1219,1223,1223,1219,1219,1219,1214,1214,1214,1210,1210,1206,1202,1202,1202,1202,1202,1197,1197,1197,1197,1197,1197,1193,1193,1193,1189,1189,1189,1185,1185,1181,1181,1181,1181,1181,1181,1177,1173,1173,1173,1169,1169,1169,1169,1169,1165,1165,1165,1165,1165,1161,1157,1157,1157,1157,1153,1153,1153,1149,1149,1149,1149,1149,1149,1145,1145,1145,1141,1141,1138,1138,1138,1138,1134,1134,1134,1134,1130,1130,1130,1126,1126,1126,1123,1123,1119,1119,1119,1119,1119,1115,1115,1115,1112,1112,1108,1105,1105,1105,1101,1097,1094,1094,1094,1094,1094,1094,0,0,0,0,0,0,0,0,0,0,0,0,0,0,0,0,0,0,0,0,0,0,0,0,0,0,0,0
0,0,0,0,0,0,0,0,0,0,0,0,0,0,1557,1557,1550,1550,1550,1550,1543,1543,1543,1543,1543,1543,1536,1536,1543,1543,1536,1536,1536,1536,1536,1536,1529,1523,1523,1529,1523,1523,1523,1523,1523,1516,1516,1516,1516,1516,1516,1516,1516,1516,1516,1516,1516,1516,1516,1516,1523,1516,1516,1516,1516,1509,1509,1509,1509,1516,1516,1516,1516,1516,1516,1516,1516,1509,1509,1509,1509,1516,1516,1523,1523,1529,1529,1536,1536,1536,1536,1543,1794,1794,1794,1794,1785,1776,1776,1766,1766,1766,1757,1757,1757,1757,1748,1748,1731,1731,1731,1731,1731,1536,1536,1536,1536,1536,1536,1536,1536,1536,1536,1536,1536,1536,1536,1543,1543,1550,1550,1557,1557,1564,1564,1564,1564,1572,1572,1572,1572,1572,1579,1579,1579,1586,1594,1594,1601,1601,1601,1601,1601,1609,1609,1616,1624,1624,1624,1624,1632,1632,1632,1632,1639,1639,1647,1655,1655,1655,1655,1663,1663,1663,1663,1671,1671,1680,1688,1688,1688,1688,1688,1696,1696,1696,1696,1696,1696,1705,1713,1713,1722,1722,1731,1731,1739,1739,1748,1748,1757,1757,1757,1757,1766,1766,1766,1766,1766,1757,1757,1757,1757,1731,1731,0,0,0,0,0,0,1063,1060,1057,1054,1050,1050,1047,1044,1044,1041,1041,1038,1038,1038,1038,1038,1041,1044,1044,1047,1047,1050,1050,1050,1050,1057,1057,1060,0,0,0,0,1655,1655,1655,1655,1647,1647,1647,1639,1639,1639,1632,1632,1632,1632,1632,1624,1624,1624,1624,1616,1616,1616,1609,1601,1601,1601,1601,1594,1594,1594,1594,1594,1594,1586,1586,1579,1579,1579,1572,1572,1572,1572,1572,1572,1564,1564,1557,1557,1550,1543,1543,1543,1543,1543,1543,1543,1543,1536,1536,1536,1536,1529,1523,1523,1523,1523,1523,1523,1523,1523,1523,1523,1523,1516,1516,1516,1516,1509,1509,1503,1503,1496,1496,1496,1489,1489,1489,1483,1483,1483,1477,1470,1470,1470,1470,1470,0,0,0,0,0,0,0,0,0,880,878,878,878,878,875,873,873,871,871,871,869,869,869,869,869,869,869,871,871,875,875,880,880,882,0,0,0,0,0,0,1392,1392,1392,1392,1392,1392,1387,1387,1387,1376,1376,1376,1376,1376,1376,1376,1370,1370,1370,1370,1370,1365,1365,1359,1359,1354,1354,1354,1354,1349,1349,1349,1349,1343,1343,1338,1338,1338,1333,1333,1328,1328,1328,1328,1322,1322,1317,1317,1312,1312,1312,1312,1312,1307,1307,1307,1307,1307,1302,1302,1302,1302,1302,1297,1292,1292,1292,1288,1288,1288,1288,1283,1283,1283,1283,1278,1278,1278,1273,1273,1273,1268,1264,1264,1264,1264,1264,1259,1259,1255,1255,1255,1255,1255,1255,1250,1250,1245,1245,1245,1241,1241,1236,1236,1236,1236,1236,1232,1232,1227,1227,1223,1223,1223,1223,1223,1223,1223,1219,1219,1219,1219,1214,1214,1210,1210,1206,1206,1206,1206,1206,1202,1197,1197,1197,1197,1193,1193,1193,1193,1193,1193,1189,1189,1185,1185,1185,1185,1181,1181,1181,1181,1177,1177,1173,1173,1169,1169,1169,1169,1169,1165,1165,1165,1165,1165,1165,1161,1161,1161,1157,1153,1153,1153,1153,1149,1149,1149,1149,1149,1145,1145,1145,1141,1141,1138,1138,1138,1138,1134,1134,1134,1134,1134,1130,1130,1126,1126,1126,1123,1123,1123,1119,1119,1119,1119,1119,1119,1115,1112,1112,1108,1108,1105,1105,1105,1101,1101,1097,1094,1094,1094,1094,0,0,0,0,0,0,0,0,0,0,0,0,0,0,0,0,0,0,0,0,0,0,0,0,0,0,0,0
0,0,0,0,0,0,0,0,0,0,0,0,0,0,1557,1557,1550,1550,1550,1550,1543,1543,1543,1543,1543,1543,1536,1536,1543,1543,1536,1536,1536,1536,1536,1536,1536,1536,1529,1529,1523,1523,1523,1523,1523,1516,1516,1516,1516,1516,1516,1516,1516,1516,1516,1516,1516,1516,1516,1516,1516,1516,1516,1516,1516,1516,1516,1516,1516,1516,1516,1516,1516,1516,1516,1516,1516,1516,1516,1516,1516,1516,1516,1523,1529,1529,1536,1536,1536,1536,1536,1543,1794,1794,1794,1794,1794,1785,1776,1776,1766,1766,1757,1757,1757,1757,1748,1748,1748,1748,1748,1748,1748,1536,1536,1536,1536,1536,1536,1536,1536,1536,1536,1536,1536,1536,1536,1543,1543,1550,1550,1557,1564,1564,1564,1564,1564,1572,1572,1572,1572,1572,1579,1579,1586,1594,1594,1594,1601,1601,1601,1601,1601,1609,1609,1616,1624,1624,1624,1624,1632,1632,1632,1632,1639,1639,1647,1655,1655,1655,1655,1663,1663,1663,1663,1671,1680,1688,1688,1688,1688,1688,1696,1696,1696,1696,1696,1705,1705,1713,1713,1722,1722,1722,1731,1731,1748,1748,1748,1757,1757,1757,1757,1766,1766,1766,1766,1766,1766,1766,1766,1757,1757,1731,1731,0,0,0,0,0,1063,1063,1060,1057,1054,1050,1050,1047,1047,1044,1044,1041,1038,1038,1038,1038,1041,1041,1044,1044,1047,1047,1050,1050,1054,1054,1057,1057,1060,0,0,0,0,1655,1655,1655,1655,1655,1655,1647,1647,1647,1647,1639,1639,1632,1632,1632,1624,1624,1624,1624,1624,1616,1616,1609,1609,1601,1601,1601,1601,1594,1594,1594,1594,1594,1594,1586,1579,1579,1579,1572,1572,1572,1572,1572,1572,1564,1564,1564,1557,1550,1550,1543,1543,1543,1543,1543,1543,1536,1536,1536,1536,1536,1536,1529,1523,1523,1523,1523,1523,1523,1523,1523,1523,1523,1523,1516,1516,1516,1509,1509,1509,1503,1496,1496,1496,1496,1489,1489,1489,1483,1483,1483,1477,1470,1470,1470,1477,0,0,0,0,0,0,0,0,0,880,880,880,878,878,878,875,875,873,871,871,869,869,869,869,869,869,869,871,871,875,878,880,880,885,889,0,0,0,0,0,1392,1392,1392,1392,1392,1392,1387,1387,1387,1376,1376,1381,1376,1376,1376,1376,1376,1370,1370,1370,1370,1370,1365,1365,1365,1359,1359,1354,1354,1354,1349,1349,1349,1343,1343,1343,1338,1338,1333,1333,1333,1333,1328,1328,1328,1322,1322,1317,1317,1312,1312,1312,1312,1307,1307,1307,1307,1307,1302,1302,1302,1302,1302,1297,1292,1292,1292,1288,1288,1288,1288,1283,1283,1283,1283,1278,1278,1278,1273,1273,1273,1268,1268,1268,1268,1264,1264,1264,1259,1259,1259,1255,1255,1255,1255,1250,1250,1245,1245,1245,1241,1241,1241,1236,1236,1236,1236,1236,1232,1232,1232,1232,1227,1223,1223,1223,1223,1223,1219,1219,1219,1219,1214,1214,1210,1210,1210,1206,1206,1206,1206,1202,1202,1202,1197,1197,1193,1193,1193,1193,1193,1193,1189,1189,1185,1185,1185,1185,1185,1181,1181,1181,1177,1177,1173,1173,1169,1169,1169,1169,1169,1169,1165,1165,1165,1165,1165,1165,1161,1161,1157,1153,1153,1153,1153,1153,1149,1149,1149,1149,1145,1145,1145,1141,1141,1138,1138,1138,1138,1134,1134,1134,1134,1134,1134,1130,1126,1126,1126,1123,1123,1123,1123,1123,1123,1119,1119,1119,1119,1115,1112,1112,1108,1108,1105,1105,1105,1101,1101,1097,1097,1094,1094,0,0,0,0,0,0,0,0,0,0,0,0,0,0,0,0,0,0,0,0,0,0,0,0,0,0,0,0
0,0,0,0,0,0,0,0,0,0,0,0,0,0,1557,1557,1557,1557,1550,1550,1543,1543,1543,1543,1543,1543,1536,1536,1543,1543,1543,1536,1536,1536,1536,1536,1536,1536,1529,1529,1523,1523,1523,1523,1523,1516,1516,1516,1523,1516,1516,1516,1516,1516,1516,1516,1516,1516,1516,1516,1516,1516,1516,1516,1516,1516,1516,1516,1516,1516,1516,1516,1516,1516,1516,1516,1516,1516,1516,1516,1516,1516,1516,1523,1529,1529,1536,1536,1543,1536,1536,1543,1794,1794,1794,1794,1794,1785,1776,1776,1766,1766,1766,1766,1766,1766,1757,1757,1757,1748,1748,1748,1748,1748,1543,1543,1543,1543,1536,1536,1536,1536,1536,1536,1536,1536,1536,1543,1543,1557,1557,1564,1564,1564,1564,1564,1572,1572,1572,1572,1572,1579,1579,1579,1586,1594,1594,1601,1601,1601,1601,1601,1609,1609,1609,1616,1624,1624,1624,1624,1632,1632,1632,1632,1639,1647,1655,1655,1655,1655,1663,1663,1663,1663,1663,1663,1680,1688,1688,1688,1688,1688,1696,1696,1696,1696,1705,1705,1713,1713,1713,1722,1722,1731,1739,1739,1748,1748,1748,1757,1757,1757,1757,1766,1766,1766,1766,1766,1766,1766,1766,1757,1757,1757,1757,0,0,0,0,0,1063,1063,1063,1060,1057,1054,1050,1050,1047,1044,1044,1041,1038,1038,1038,1041,1038,1038,1044,1044,1047,1047,1050,1054,1054,1054,1057,1060,1060,1060,0,0,0,1655,1655,1655,1655,1655,1647,1647,1647,1647,1647,1639,1639,1632,1632,1632,1632,1632,1624,1624,1624,1624,1616,1616,1609,1609,1601,1601,1601,1594,1594,1594,1594,1594,1594,1586,1586,1579,1579,1572,1572,1572,1572,1572,1572,1572,1564,1564,1557,1550,1550,1550,1543,1543,1543,1543,1543,1536,1536,1536,1536,1536,1536,1536,1529,1529,1529,1529,1529,1523,1523,1523,1523,1523,1523,1516,1516,1516,1516,1509,1509,1503,1496,1496,1496,1496,1496,1489,1489,1489,1489,1483,1483,1477,1477,1477,0,0,0,0,0,0,0,0,0,0,880,880,880,880,878,878,875,875,873,871,871,871,869,869,869,869,869,869,871,871,875,878,880,880,887,889,0,0,0,0,0,0,1392,1392,1392,1392,1392,1392,1387,1387,1381,1381,1381,1381,1376,1376,1376,1376,1370,1370,1370,1370,1370,1365,1365,1365,1359,1359,1354,1354,1354,1349,1349,1349,1343,1343,1343,1343,1338,1333,1333,1333,1333,1333,1328,1328,1322,1322,1317,1317,1312,1312,1312,1312,1312,1307,1307,1307,1307,1307,1302,1302,1302,1302,1297,1297,1297,1297,1292,1288,1288,1288,1288,1283,1283,1283,1278,1278,1278,1273,1273,1273,1273,1268,1268,1268,1268,1264,1264,1264,1259,1259,1255,1255,1250,1250,1250,1245,1245,1245,1245,1245,1245,1241,1236,1236,1236,1236,1236,1232,1232,1232,1232,1227,1227,1227,1223,1223,1223,1219,1219,1219,1219,1214,1214,1210,1210,1210,1206,1206,1206,1206,1206,1202,1202,1197,1197,1197,1193,1193,1193,1193,1193,1189,1189,1189,1185,1185,1185,1185,1181,1181,1181,1177,1177,1173,1173,1169,1169,1169,1169,1169,1169,1169,1165,1165,1165,1165,1165,1161,1161,1157,1157,1153,1153,1153,1153,1149,1149,1149,1149,1145,1145,1145,1145,1145,1141,1141,1138,1138,1138,1138,1134,1134,1134,1134,1130,1130,1126,1126,1126,1123,1123,1123,1123,1123,1123,1119,1119,1119,1115,1115,1112,1112,1108,1108,1105,1105,1101,1101,1097,1097,1094,1094,0,0,0,0,0,0,0,0,0,0,0,0,0,0,0,0,0,0,0,0,0,0,0,0,0,0,0,0
0,0,0,0,0,0,0,0,0,0,0,0,0,0,1557,1557,1557,1557,1557,1550,1543,1543,1543,1543,1543,1543,1543,1543,1543,1543,1543,1543,1536,1536,1536,1536,1536,1536,1529,1529,1529,1523,1523,1529,1523,1523,1523,1523,1523,1523,1523,1523,1523,1523,1516,1516,1516,1523,1523,1523,1523,1516,1516,1523,1516,1516,1516,1516,1516,1516,1516,1516,1516,1516,1516,1516,1516,1516,1516,1516,1516,1516,1516,1523,1529,1536,1536,1543,1543,1536,1536,1543,1833,1833,1794,1794,1794,1785,1785,1776,1776,1766,1766,1766,1766,1766,1766,1757,1757,1757,1748,1748,1748,1739,1543,1543,1543,1543,1536,1536,1543,1536,1536,1536,1536,1536,1536,1550,1550,1557,1557,1564,1564,1564,1564,1572,1572,1572,1572,1572,1572,1579,1579,1579,1586,1594,1594,1601,1601,1601,1601,1601,1609,1609,1609,1616,1624,1624,1624,1624,1632,1632,1632,1639,1647,1655,1655,1655,1655,1655,1655,1655,1663,1663,1663,1663,1680,1680,1688,1688,1688,1688,1696,1696,1696,1705,1705,1713,1713,1722,1722,1722,1731,1731,1739,1739,1748,1748,1757,1757,1757,1757,1757,1766,1766,1766,1766,1766,1766,1766,1766,1757,1757,1757,1757,1776,0,0,0,0,1063,1063,1063,1057,1054,1054,1050,1050,1047,1047,1047,1041,1038,1038,1038,1038,1038,1038,1044,1047,1047,1047,1050,1054,1054,1054,1057,1060,1060,0,0,0,0,1655,1655,1655,1655,1655,1647,1647,1647,1647,1647,1647,1639,1632,1632,1632,1632,1632,1632,1624,1624,1624,1624,1624,1609,1609,1601,1601,1601,1594,1594,1594,1594,1594,1594,1594,1586,1586,1579,1572,1572,1572,1572,1572,1572,1572,1564,1564,1557,1557,1550,1550,1543,1543,1543,1543,1543,1536,1536,1536,1536,1536,1536,1536,1529,1529,1529,1529,1529,1529,1523,1523,1523,1523,1523,1523,1516,1516,1516,1509,1509,1503,1503,1496,1496,1496,1496,1496,1489,1489,1489,1489,1483,1483,1477,1477,0,0,0,0,0,0,0,0,0,0,880,880,880,880,880,878,878,875,873,871,871,871,869,869,869,869,869,869,871,875,878,880,880,885,889,889,0,0,0,0,0,0,1398,1392,1392,1392,1392,1392,1392,1392,1387,1387,1387,1381,1376,1376,1376,1370,1370,1370,1370,1370,1370,1365,1365,1365,1359,1359,1359,1354,1354,1349,1349,1349,1349,1343,1343,1343,1343,1338,1338,1333,1333,1333,1333,1328,1328,1322,1322,1317,1317,1312,1312,1312,1312,1312,1312,1307,1307,1307,1307,1307,1302,1302,1297,1297,1292,1292,1292,1292,1288,1288,1288,1288,1283,1283,1283,1283,1278,1278,1273,1273,1273,1268,1268,1268,1268,1268,1264,1264,1259,1259,1255,1255,1250,1250,1250,1245,1245,1245,1245,1245,1245,1241,1241,1236,1236,1236,1236,1236,1232,1232,1232,1232,1227,1227,1227,1227,1223,1223,1219,1219,1219,1214,1214,1214,1214,1210,1210,1210,1206,1206,1206,1202,1202,1202,1197,1197,1197,1193,1193,1193,1193,1189,1189,1189,1185,1185,1185,1185,1181,1181,1181,1177,1177,1177,1173,1173,1173,1169,1169,1169,1169,1169,1165,1165,1165,1165,1165,1165,1161,1161,1157,1157,1153,1153,1153,1153,1149,1149,1149,1149,1149,1145,1145,1145,1145,1141,1138,1138,1138,1138,1134,1134,1134,1134,1130,1130,1130,1126,1126,1126,1123,1123,1123,1123,1123,1119,1119,1119,1119,1115,1115,1112,1112,1108,1108,1105,1105,1105,1101,1101,1097,1097,0,0,0,0,0,0,0,0,0,0,0,0,0,0,0,0,0,0,0,0,0,0,0,0,0,0,0,0
0,0,0,0,0,0,0,0,0,0,0,0,0,0,1564,1564,1557,1557,1557,1557,1550,1550,1543,1543,1543,1543,1543,1543,1543,1543,1543,1543,1536,1536,1536,1536,1536,1536,1529,1529,1529,1529,1529,1529,1523,1523,1523,1523,1523,1523,1523,1523,1523,1523,1523,1516,1516,1523,1523,1523,1523,1516,1516,1523,1523,1523,1523,1523,1523,1516,1516,1516,1516,1516,1516,1516,1516,1516,1516,1516,1516,1516,1523,1529,1529,1536,1536,1543,1543,1543,1543,1543,1794,1794,1794,1794,1794,1785,1785,1776,1776,1776,1766,1766,1766,1766,1766,1757,1757,1757,1757,1748,1748,1739,1739,1550,1543,1543,1543,1543,1543,1536,1536,1536,1536,1543,1543,1550,1550,1557,1557,1564,1564,1564,1564,1564,1564,1572,1572,1572,1572,1579,1586,1586,1586,1594,1594,1601,1601,1601,1601,1609,1609,1609,1609,1616,1624,1624,1624,1632,1632,1632,1639,1639,1647,1655,1655,1655,1655,1655,1655,1655,1663,1663,1663,1663,1680,1680,1688,1688,1688,1688,1696,1696,1705,1705,1713,1722,1722,1722,1722,1722,1731,1731,1739,1739,1748,1748,1757,1757,1757,1757,1757,1766,1766,1766,1766,1766,1776,1766,1766,1766,1766,1766,1766,1776,0,0,0,0,0,1063,1063,1057,1054,1054,1050,1050,1047,1047,1047,1044,1041,1041,1041,1038,1038,1041,1044,1047,1047,1050,1050,1054,1054,1054,1057,1060,1060,0,0,0,0,1663,1663,1655,1655,1655,1655,1647,1647,1647,1647,1647,1639,1632,1632,1632,1632,1632,1632,1624,1624,1624,1624,1624,1616,1609,1601,1601,1601,1601,1594,1594,1594,1594,1594,1594,1586,1586,1579,1579,1572,1572,1572,1572,1572,1572,1564,1564,1557,1557,1550,1550,1550,1543,1543,1543,1543,1543,1543,1536,1536,1536,1536,1536,1536,1529,1529,1529,1529,1529,1529,1523,1523,1523,1523,1523,1516,1516,1516,1516,1509,1509,1503,1503,1496,1496,1496,1496,1496,1496,1489,1489,1489,1483,1483,1483,0,0,0,0,0,0,0,0,0,0,880,880,880,880,880,878,878,875,873,873,871,871,869,869,869,869,869,871,871,878,880,880,885,887,889,889,0,0,0,0,0,0,1398,1398,1392,1392,1392,1392,1392,1392,1387,1387,1387,1381,1376,1376,1376,1370,1370,1370,1370,1370,1370,1370,1365,1365,1359,1359,1359,1354,1354,1354,1349,1349,1349,1349,1343,1343,1343,1343,1338,1338,1333,1333,1333,1333,1328,1328,1322,1322,1317,1317,1317,1317,1312,1312,1312,1312,1312,1307,1307,1307,1307,1302,1297,1297,1292,1292,1292,1292,1288,1288,1288,1288,1288,1283,1283,1283,1278,1278,1278,1273,1273,1273,1268,1268,1268,1268,1264,1264,1259,1259,1255,1255,1250,1250,1250,1250,1245,1245,1245,1245,1245,1241,1241,1241,1236,1236,1236,1236,1236,1232,1232,1232,1227,1227,1227,1227,1223,1223,1219,1219,1219,1219,1214,1214,1214,1210,1210,1210,1206,1206,1206,1206,1202,1202,1202,1202,1197,1197,1197,1193,1193,1193,1189,1189,1185,1185,1185,1185,1181,1181,1181,1181,1177,1177,1177,1177,1173,1173,1173,1169,1169,1169,1169,1169,1165,1165,1165,1165,1165,1161,1161,1157,1157,1153,1153,1153,1149,1149,1149,1149,1149,1149,1145,1145,1145,1141,1141,1138,1138,1138,1138,1134,1134,1134,1134,1130,1130,1130,1126,1126,1126,1126,1123,1123,1123,1123,1123,1119,1119,1119,1115,1112,1112,1108,1108,1108,1105,1105,1101,1101,1097,1097,0,0,0,0,0,0,0,0,0,0,0,0,0,0,0,0,0,0,0,0,0,0,0,0,0,0,0,0
0,0,0,0,0,0,0,0,0,0,0,0,0,0,1564,1564,1564,1564,1557,1557,1557,1550,1550,1550,1550,1550,1543,1543,1543,1543,1543,1543,1543,1536,1536,1536,1536,1536,1536,1529,1529,1529,1529,1529,1536,1536,1536,1523,1523,1523,1523,1523,1523,1523,1523,1516,1516,1523,1523,1523,1523,1523,1523,1523,1523,1523,1523,1523,1523,1523,1516,1516,1516,1516,1516,1516,1516,1516,1516,1516,1516,1516,1523,1529,1529,1536,1536,1543,1543,1543,1543,1543,1794,1794,1794,1794,1794,1794,1785,1785,1776,1776,1776,1776,1776,1776,1766,1766,1766,1766,1757,1757,1757,1748,1748,1550,1550,1550,1543,1543,1543,1536,1536,1536,1536,1543,1543,1550,1550,1557,1557,1564,1564,1564,1564,1564,1564,1572,1572,1572,1572,1579,1586,1586,1586,1594,1594,1601,1601,1601,1609,1609,1616,1616,1616,1624,1624,1624,1632,1632,1632,1639,1639,1639,1647,1655,1655,1655,1655,1655,1655,1655,1663,1663,1663,1663,1680,1680,1688,1688,1688,1688,1696,1696,1705,1713,1722,1722,1722,1722,1722,1722,1731,1731,1739,1739,1748,1748,1757,1757,1757,1757,1757,1766,1766,1766,1766,1766,1776,1766,1766,1766,1766,1766,1766,1776,1785,0,0,0,0,0,1063,1060,1054,1054,1050,1050,1050,1047,1047,1044,1041,1041,1041,1041,1044,1044,1044,1047,1047,1050,1054,1054,1054,1054,1057,1060,1063,0,1070,0,1671,1671,1663,1663,1655,1655,1655,1655,1655,1647,1647,1647,1639,1632,1632,1632,1632,1632,1632,1624,1624,1624,1624,1624,1616,1616,1609,1601,1601,1601,1601,1594,1594,1594,1594,1594,1586,1586,1579,1579,1572,1572,1572,1572,1572,1572,1564,1564,1564,1557,1550,1550,1550,1543,1543,1543,1543,1543,1543,1536,1536,1536,1536,1536,1536,1536,1536,1536,1536,1529,1529,1523,1523,1523,1523,1523,1516,1516,1516,1516,1509,1509,1503,1503,1496,1496,1496,1496,1496,1496,1496,1496,1489,1483,1483,1483,1483,0,0,0,0,0,0,0,0,887,882,882,882,880,880,878,878,878,875,873,871,871,871,871,871,869,869,871,873,880,880,882,887,889,889,889,889,0,0,0,0,0,1398,1398,1398,1392,1392,1392,1392,1392,1387,1387,1387,1387,1381,1381,1376,1376,1376,1376,1370,1370,1370,1370,1370,1365,1365,1365,1359,1359,1354,1354,1354,1349,1349,1349,1349,1349,1349,1343,1338,1338,1338,1338,1333,1333,1333,1333,1328,1328,1322,1322,1322,1322,1317,1312,1312,1312,1312,1307,1307,1307,1307,1302,1297,1297,1292,1292,1292,1292,1292,1288,1288,1288,1288,1288,1283,1283,1283,1278,1278,1278,1273,1273,1273,1268,1268,1268,1268,1264,1264,1259,1255,1255,1255,1250,1250,1250,1250,1245,1245,1245,1245,1241,1241,1241,1241,1236,1236,1236,1236,1236,1232,1232,1232,1232,1232,1227,1227,1223,1223,1219,1219,1219,1214,1214,1214,1214,1214,1210,1210,1210,1206,1206,1202,1202,1202,1202,1197,1197,1197,1197,1197,1193,1193,1193,1189,1185,1185,1185,1185,1181,1181,1181,1181,1177,1177,1177,1173,1173,1173,1173,1169,1169,1169,1169,1169,1169,1165,1165,1165,1161,1161,1161,1157,1157,1153,1153,1153,1149,1149,1149,1149,1149,1145,1145,1145,1141,1141,1141,1138,1138,1138,1138,1134,1134,1134,1130,1130,1130,1126,1126,1126,1126,1123,1123,1123,1119,1119,1119,1119,1119,1115,1115,1112,1112,1108,1108,1105,1105,1105,1101,1097,1097,0,0,0,0,0,0,0,0,0,0,0,0,0,0,0,0,0,0,0,0,0,0,0,0,0,0,0,0
0,0,0,0,0,0,0,0,0,0,0,0,0,0,1564,1564,1564,1564,1557,1557,1557,1550,1550,1550,1550,1550,1550,1543,1543,1543,1543,1543,1543,1543,1543,1536,1536,1536,1536,1536,1536,1536,1536,1536,1536,1536,1536,1536,1536,1536,1536,1536,1529,1529,1523,1523,1523,1523,1523,1523,1523,1523,1529,1523,1523,1523,1523,1523,1523,1523,1516,1516,1516,1516,1516,1516,1516,1523,1523,1516,1516,1516,1529,1529,1529,1536,1536,1543,1543,1543,1543,1550,1794,1794,1794,1794,1794,1794,1794,1794,1785,1785,1785,1776,1776,1776,1766,1766,1766,1766,1757,1757,1757,1748,1748,1557,1557,1557,1550,1543,1543,1543,1536,1536,1536,1543,1543,1550,1557,1557,1557,1564,1564,1564,1564,1572,1572,1572,1572,1572,1579,1579,1586,1586,1586,1594,1594,1601,1601,1601,1609,1609,1616,1616,1616,1624,1624,1624,1632,1632,1632,1639,1639,1639,1647,1655,1655,1655,1655,1655,1655,1655,1663,1663,1663,1671,1680,1680,1688,1688,1688,1688,1696,1705,1713,1722,1722,1722,1722,1722,1722,1722,1731,1731,1739,1739,1748,1757,1757,1757,1757,1766,1766,1766,1766,1766,1776,1776,1776,1766,1766,1766,1766,1776,1776,1776,1785,0,0,0,0,0,1063,1060,1054,1054,1054,1050,1050,1047,1047,1044,1041,1041,1041,1044,1044,1044,1047,1047,1050,1050,1054,1057,1057,1057,1057,1060,1063,1070,0,0,0,1671,1663,1663,1663,1655,1655,1655,1655,1655,1655,1647,1647,1639,1639,1632,1632,1632,1632,1624,1624,1624,1624,1624,1616,1616,1616,1609,1601,1601,1601,1601,1594,1594,1594,1594,1586,1586,1579,1579,1572,1572,1572,1572,1572,1572,1564,1564,1564,1557,1557,1557,1550,1550,1550,1543,1543,1543,1543,1543,1536,1536,1536,1536,1536,1536,1536,1536,1536,1536,1529,1523,1523,1523,1523,1523,1516,1516,1516,1516,1509,1509,1503,1503,1496,1496,1496,1496,1496,1496,1496,1496,1489,1483,1483,1483,1483,0,0,0,0,0,0,0,0,887,882,882,882,880,880,878,878,878,875,873,873,871,871,871,871,871,871,871,875,880,880,885,887,889,889,889,889,0,0,0,0,0,1398,1398,1398,1398,1392,1392,1392,1392,1392,1392,1392,1392,1387,1381,1376,1376,1376,1376,1376,1370,1370,1370,1370,1365,1365,1365,1359,1359,1354,1354,1354,1354,1349,1349,1349,1349,1349,1343,1343,1343,1338,1338,1333,1333,1333,1333,1328,1328,1322,1322,1322,1322,1317,1312,1312,1312,1312,1312,1307,1307,1307,1302,1297,1297,1292,1292,1292,1292,1292,1292,1292,1292,1288,1288,1288,1283,1283,1278,1278,1278,1278,1273,1273,1273,1273,1268,1268,1264,1264,1264,1259,1255,1255,1255,1255,1255,1250,1250,1250,1250,1245,1245,1241,1241,1241,1241,1236,1236,1236,1236,1236,1232,1232,1232,1232,1227,1227,1223,1223,1219,1219,1219,1214,1214,1214,1214,1214,1214,1210,1210,1206,1206,1202,1202,1202,1202,1197,1197,1197,1197,1197,1193,1189,1189,1189,1185,1185,1185,1185,1185,1181,1181,1181,1177,1177,1177,1173,1173,1173,1173,1169,1169,1169,1169,1169,1169,1169,1165,1165,1165,1161,1161,1157,1157,1153,1153,1153,1149,1149,1149,1149,1149,1149,1145,1145,1145,1141,1141,1141,1138,1138,1138,1134,1134,1134,1134,1134,1130,1126,1126,1126,1126,1123,1123,1123,1119,1119,1119,1119,1119,1115,1115,1115,1112,1112,1108,1108,1105,1105,1101,1101,1101,0,0,0,0,0,0,0,0,0,0,0,0,0,0,0,0,0,0,0,0,0,0,0,0,0,0,0,0
0,0,0,0,0,0,0,0,0,0,0,0,0,0,1564,1564,1564,1564,1557,1557,1557,1557,1550,1550,1550,1550,1550,1543,1543,1543,1543,1543,1543,1543,1543,1536,1536,1536,1536,1536,1536,1536,1536,1536,1536,1536,1536,1536,1536,1536,1536,1536,1536,1529,1523,1523,1523,1523,1523,1523,1523,1529,1529,1529,1523,1523,1523,1523,1523,1516,1516,1516,1516,1516,1516,1523,1523,1523,1523,1516,1516,1523,1529,1529,1536,1536,1536,1543,1543,1543,1543,1543,1804,1804,1804,1804,1804,1804,1794,1794,1794,1794,1794,1785,1785,1776,1776,1766,1766,1766,1757,1757,1757,1757,1757,1564,1564,1564,1550,1550,1543,1543,1543,1543,1543,1543,1550,1550,1557,1557,1557,1564,1564,1564,1564,1572,1572,1572,1572,1572,1579,1586,1586,1586,1594,1594,1594,1601,1601,1601,1609,1616,1616,1616,1616,1624,1624,1624,1632,1632,1632,1639,1639,1639,1647,1655,1655,1655,1655,1655,1655,1663,1663,1663,1671,1680,1680,1688,1688,1696,1696,1696,1705,1713,1722,1722,1722,1722,1722,1722,1722,1731,1731,1731,1739,1739,1748,1757,1757,1757,1757,1766,1766,1766,1776,1776,1776,1776,1776,1776,1766,1766,1776,1766,1766,1766,1766,0,0,0,0,0,0,1060,1054,1054,1054,1050,1050,1047,1047,1044,1044,1044,1044,1044,1044,1047,1047,1047,1050,1050,1054,1057,1057,1057,1060,1060,1063,1070,0,0,0,0,1663,1663,1663,1663,1655,1655,1655,1655,1655,1647,1647,1639,1639,1632,1632,1632,1632,1624,1624,1624,1624,1624,1616,1616,1616,1609,1609,1609,1601,1601,1601,1601,1594,1594,1586,1586,1579,1579,1572,1572,1572,1572,1572,1572,1572,1564,1564,1564,1557,1557,1550,1550,1550,1550,1543,1543,1543,1543,1543,1543,1536,1536,1536,1536,1536,1536,1536,1536,1529,1529,1529,1523,1523,1523,1516,1516,1516,1516,1509,1509,1503,1503,1496,1496,1496,1496,1496,1496,1496,1496,1489,1489,1483,1483,1483,0,0,0,0,0,0,0,0,887,882,882,882,880,880,878,878,878,875,873,873,871,871,871,871,871,871,873,878,882,882,885,887,889,889,889,889,0,0,0,0,0,1398,1398,1398,1398,1392,1392,1392,1392,1392,1392,1392,1392,1392,1381,1376,1376,1376,1376,1376,1370,1370,1370,1370,1365,1365,1365,1359,1359,1354,1354,1354,1354,1349,1349,1349,1349,1349,1343,1343,1343,1338,1338,1333,1333,1333,1333,1328,1328,1328,1328,1328,1322,1317,1312,1312,1312,1312,1312,1307,1307,1307,1307,1302,1302,1297,1297,1297,1297,1292,1292,1292,1292,1288,1288,1283,1283,1283,1278,1278,1278,1278,1273,1273,1273,1273,1268,1268,1268,1264,1264,1259,1255,1255,1255,1255,1255,1255,1250,1250,1250,1245,1245,1245,1241,1241,1241,1236,1236,1236,1236,1236,1232,1232,1232,1232,1232,1227,1227,1223,1223,1223,1219,1214,1214,1214,1214,1214,1214,1210,1210,1210,1206,1206,1206,1202,1202,1202,1197,1197,1197,1197,1193,1189,1189,1189,1185,1185,1185,1185,1185,1185,1181,1181,1181,1177,1177,1177,1173,1173,1173,1173,1169,1169,1169,1169,1169,1169,1165,1165,1165,1165,1161,1161,1157,1153,1153,1153,1153,1153,1153,1149,1149,1149,1149,1145,1145,1141,1141,1141,1138,1138,1138,1138,1138,1134,1134,1134,1130,1126,1126,1126,1126,1123,1123,1123,1119,1119,1119,1119,1119,1119,1115,1115,1115,1115,1112,1108,1108,1105,1105,1101,1101,0,0,0,0,0,0,0,0,0,0,0,0,0,0,0,0,0,0,0,0,0,0,0,0,0,0,0,0
0,0,0,0,0,0,0,0,0,0,0,0,0,0,1564,1564,1564,1564,1564,1564,1557,1557,1557,1557,1557,1557,1557,1550,1550,1543,1543,1543,1543,1543,1543,1536,1536,1536,1536,1536,1536,1536,1536,1536,1543,1543,1543,1543,1543,1536,1536,1536,1536,1536,1523,1523,1523,1523,1523,1523,1523,1529,1529,1529,1523,1523,1523,1523,1523,1516,1516,1516,1516,1516,1516,1523,1523,1523,1523,1516,1516,1529,1529,1529,1536,1536,1543,1543,1543,1543,1543,1543,1550,1557,1804,1804,1804,1804,1804,1804,1804,1804,1804,1794,1794,1785,1785,1776,1776,1766,1766,1766,1766,1766,1766,1564,1564,1564,1550,1550,1543,1543,1543,1543,1543,1550,1550,1550,1557,1557,1557,1564,1564,1564,1564,1572,1572,1572,1572,1579,1579,1586,1594,1594,1594,1594,1594,1601,1601,1609,1616,1616,1616,1616,1624,1624,1624,1632,1632,1632,1639,1639,1639,1639,1647,1655,1655,1655,1655,1655,1655,1663,1663,1663,1671,1680,1688,1688,1696,1696,1696,1696,1713,1713,1722,1722,1722,1722,1731,1722,1722,1731,1731,1731,1739,1739,1748,1757,1757,1757,1766,1766,1766,1766,1776,1776,1776,1776,1776,1776,1776,1776,1776,1766,1766,1766,1766,0,0,0,0,0,1060,1060,1057,1054,1054,1050,1050,1047,1047,1044,1044,1044,1044,1044,1044,1047,1047,1050,1050,1054,1054,1057,1060,1060,1060,1060,1063,1070,0,0,0,0,1663,1663,1663,1663,1655,1655,1655,1655,1655,1647,1647,1639,1639,1632,1632,1632,1632,1632,1624,1624,1624,1624,1624,1616,1616,1616,1609,1609,1609,1601,1601,1601,1601,1594,1594,1586,1586,1579,1579,1572,1572,1572,1572,1572,1572,1564,1564,1564,1557,1557,1557,1557,1550,1550,1550,1543,1543,1543,1543,1543,1543,1536,1536,1536,1536,1536,1543,1536,1536,1529,1529,1529,1523,1523,1523,1516,1516,1516,1509,1509,1503,1503,1496,1496,1496,1496,1496,1496,1496,1496,1489,1489,1489,1483,1483,0,0,0,0,0,0,0,0,887,885,882,882,880,880,880,878,878,878,875,875,873,871,871,871,871,871,873,878,880,882,885,887,889,889,889,889,0,0,0,0,0,1398,1398,1398,1398,1398,1398,1392,1392,1392,1392,1392,1392,1392,1387,1376,1376,1376,1376,1376,1376,1376,1370,1370,1370,1365,1365,1365,1359,1359,1354,1354,1354,1354,1354,1349,1349,1349,1349,1343,1343,1338,1338,1333,1333,1333,1333,1333,1333,1328,1328,1328,1322,1322,1317,1312,1312,1312,1312,1307,1307,1307,1307,1302,1302,1297,1297,1297,1297,1292,1292,1292,1292,1288,1288,1283,1283,1283,1278,1278,1283,1278,1278,1278,1273,1273,1273,1268,1268,1264,1264,1259,1259,1259,1255,1255,1255,1255,1255,1250,1250,1250,1245,1245,1245,1245,1241,1241,1236,1236,1236,1236,1236,1232,1232,1232,1232,1232,1227,1227,1223,1223,1219,1219,1214,1214,1214,1214,1214,1210,1210,1210,1206,1206,1206,1202,1202,1202,1202,1197,1197,1197,1193,1193,1193,1189,1185,1185,1185,1185,1185,1185,1181,1181,1181,1181,1177,1177,1173,1173,1173,1173,1169,1169,1169,1169,1169,1169,1165,1165,1165,1165,1165,1161,1157,1157,1153,1153,1153,1153,1153,1153,1149,1149,1149,1149,1145,1145,1141,1141,1141,1138,1138,1138,1138,1134,1134,1134,1134,1130,1130,1126,1126,1126,1123,1123,1123,1123,1119,1119,1119,1119,1119,1115,1115,1115,1115,1108,1108,1108,1105,1105,1105,0,0,0,0,0,0,0,0,0,0,0,0,0,0,0,0,0,0,0,0,0,0,0,0,0,0,0,0
0,0,0,0,0,0,0,0,0,0,0,0,0,0,1564,1564,1564,1564,1564,1564,1557,1557,1557,1557,1557,1557,1557,1550,1550,1550,1550,1543,1543,1543,1543,1536,1536,1536,1536,1536,1536,1536,1536,1536,1543,1543,1543,1543,1543,1536,1536,1536,1536,1536,1536,1536,1529,1523,1523,1529,1529,1529,1529,1529,1529,1523,1523,1529,1523,1523,1523,1523,1523,1523,1523,1523,1523,1523,1523,1523,1523,1529,1529,1529,1536,1536,1536,1543,1543,1543,1550,1550,1550,1550,1813,1813,1813,1813,1813,1804,1804,1804,1804,1804,1794,1785,1785,1776,1776,1776,1766,1766,1766,1766,1766,1564,1564,1564,1564,1550,1543,1543,1543,1543,1543,1550,1550,1557,1557,1557,1557,1557,1564,1564,1564,1572,1572,1572,1572,1579,1579,1586,1594,1594,1594,1594,1594,1601,1601,1609,1616,1616,1616,1624,1624,1624,1632,1632,1639,1639,1639,1639,1639,1647,1647,1655,1655,1655,1655,1655,1663,1663,1663,1663,1680,1680,1688,1688,1696,1696,1696,1696,1713,1713,1722,1722,1722,1722,1722,1731,1731,1731,1731,1731,1731,1739,1748,1757,1757,1757,1766,1766,1766,1776,1776,1776,1776,1776,1776,1776,1776,1776,1776,1766,1766,1766,1766,0,0,0,0,0,1060,1060,1057,1054,1054,1050,1050,1047,1047,1047,1044,1044,1044,1044,1047,1047,1047,1050,1050,1054,1054,1057,1060,1060,1060,1063,1063,1070,1070,0,0,0,1663,1663,1663,1663,1663,1663,1655,1655,1655,1655,1647,1639,1639,1632,1632,1632,1632,1632,1632,1624,1624,1624,1624,1624,1624,1616,1609,1609,1609,1609,1601,1601,1601,1594,1594,1594,1586,1579,1579,1572,1572,1572,1572,1572,1572,1572,1564,1564,1564,1564,1557,1557,1557,1550,1550,1550,1543,1543,1543,1543,1543,1536,1536,1536,1536,1536,1543,1536,1536,1529,1529,1529,1523,1523,1523,1516,1516,1516,1509,1509,1503,1503,1503,1503,1496,1496,1496,1496,1496,1496,1489,1489,1489,1483,1483,1489,0,0,0,0,0,0,889,887,885,882,882,880,880,880,878,878,878,875,875,875,873,873,873,873,873,878,880,880,882,885,889,889,889,889,889,0,0,0,0,1410,1410,1404,1404,1398,1398,1398,1398,1392,1392,1392,1392,1392,1392,1387,1381,1381,1376,1376,1376,1376,1376,1376,1370,1370,1370,1365,1365,1365,1359,1354,1354,1354,1354,1354,1354,1349,1349,1349,1343,1343,1338,1338,1333,1333,1333,1333,1333,1333,1328,1328,1328,1328,1322,1322,1317,1317,1312,1312,1312,1312,1307,1307,1302,1302,1302,1297,1297,1292,1292,1292,1292,1292,1288,1288,1283,1283,1283,1283,1283,1283,1278,1278,1278,1273,1273,1273,1268,1268,1268,1264,1264,1259,1259,1259,1255,1255,1255,1255,1250,1250,1250,1245,1245,1245,1245,1245,1241,1236,1236,1236,1236,1236,1236,1232,1232,1232,1232,1227,1227,1223,1223,1223,1219,1219,1219,1214,1214,1214,1210,1210,1210,1210,1206,1206,1202,1202,1202,1202,1202,1202,1197,1197,1193,1193,1189,1189,1189,1185,1185,1185,1185,1181,1181,1181,1181,1177,1177,1173,1173,1173,1173,1173,1169,1169,1169,1169,1169,1165,1165,1165,1165,1165,1161,1157,1157,1153,1153,1153,1153,1153,1153,1153,1153,1149,1149,1149,1149,1145,1145,1145,1141,1138,1138,1138,1138,1134,1134,1134,1134,1130,1130,1126,1126,1123,1123,1123,1123,1123,1119,1119,1119,1119,1119,1115,1115,1115,1112,1112,1108,1108,1105,1105,0,0,0,0,0,0,0,0,0,0,0,0,0,0,0,0,0,0,0,0,0,0,0,0,0,0,0,0
0,0,0,0,0,0,0,0,0,0,0,0,0,0,1564,1564,1564,1564,1564,1564,1557,1557,1557,1557,1557,1557,1557,1550,1550,1543,1543,1543,1543,1543,1543,1543,1536,1536,1536,1536,1536,1536,1536,1536,1543,1543,1543,1543,1543,1543,1543,1536,1536,1536,1536,1536,1536,1536,1536,1529,1529,1529,1529,1529,1529,1529,1529,1529,1529,1529,1529,1523,1523,1523,1523,1523,1523,1523,1523,1523,1529,1529,1529,1529,1536,1536,1536,1543,1543,1543,1550,1550,1550,1550,1550,1813,1813,1813,1804,1804,1804,1804,1804,1804,1794,1785,1785,1776,1766,1766,1766,1766,1766,1766,1776,1564,1564,1550,1550,1557,1543,1543,1543,1543,1543,1550,1550,1550,1557,1557,1557,1557,1564,1564,1572,1572,1572,1572,1572,1579,1586,1594,1594,1594,1594,1594,1594,1601,1601,1609,1616,1616,1624,1624,1624,1632,1632,1632,1639,1639,1639,1639,1639,1647,1647,1655,1655,1663,1663,1663,1663,1663,1663,1663,1680,1688,1688,1688,1696,1696,1696,1705,1705,1713,1713,1722,1722,1722,1722,1722,1731,1731,1731,1731,1731,1739,1748,1757,1757,1757,1766,1766,1766,1776,1776,1776,1785,1785,1785,1776,1776,1776,1776,1766,1766,1766,0,0,0,0,0,0,0,1063,1057,1057,1054,1050,1050,1047,1047,1047,1047,1047,1047,1047,1047,1047,1050,1050,1050,1054,1057,1057,1060,1060,1060,1063,1063,1070,1070,1070,0,1663,0,1663,1663,1663,1663,1663,1655,1655,1655,1655,1647,1647,1639,1639,1632,1632,1632,1632,1632,1624,1624,1624,1624,1624,1624,1616,1609,1609,1609,1609,1609,1601,1601,1601,1594,1594,1586,1586,1586,1579,1579,1572,1572,1572,1572,1572,1564,1564,1564,1564,1564,1557,1557,1557,1550,1550,1550,1543,1543,1543,1543,1536,1536,1536,1536,1536,1543,1543,1536,1536,1536,1536,1529,1529,1523,1523,1516,1516,1509,1509,1503,1503,1503,1503,1503,1496,1496,1496,1496,1496,1489,1489,1489,1489,1489,1489,0,0,0,0,0,0,887,887,887,885,885,882,880,880,880,878,878,878,878,875,875,873,873,875,875,880,880,880,885,885,889,891,891,891,0,0,0,0,0,1410,1410,1404,1404,1404,1398,1398,1398,1398,1392,1392,1392,1392,1392,1392,1387,1381,1381,1381,1381,1376,1376,1376,1376,1370,1370,1365,1365,1365,1365,1354,1354,1354,1354,1354,1354,1349,1349,1349,1343,1343,1338,1338,1333,1333,1333,1333,1333,1333,1328,1328,1328,1328,1322,1322,1322,1317,1317,1317,1312,1312,1307,1307,1302,1302,1302,1297,1297,1292,1292,1292,1292,1292,1288,1288,1288,1288,1288,1288,1283,1283,1283,1283,1278,1278,1273,1273,1273,1273,1268,1264,1264,1264,1264,1259,1255,1255,1255,1255,1250,1250,1250,1250,1245,1245,1245,1245,1241,1241,1236,1236,1236,1236,1236,1236,1236,1236,1232,1227,1227,1223,1223,1223,1219,1219,1219,1214,1214,1214,1214,1210,1210,1210,1206,1206,1206,1202,1202,1202,1202,1202,1197,1197,1197,1197,1193,1193,1189,1185,1185,1185,1185,1185,1185,1181,1181,1181,1177,1173,1173,1173,1173,1173,1173,1169,1169,1169,1169,1165,1165,1165,1165,1165,1165,1161,1157,1153,1153,1153,1153,1153,1153,1153,1153,1149,1149,1149,1149,1149,1149,1145,1141,1141,1138,1138,1138,1138,1138,1134,1134,1130,1130,1126,1126,1123,1123,1123,1123,1123,1119,1119,1119,1119,1119,1115,1115,1115,1112,1112,1108,1108,1108,1108,0,0,0,0,0,0,0,0,0,0,0,0,0,0,0,0,0,0,0,0,0,0,0,0,0,0,0,0
0,0,0,0,0,0,0,0,0,0,0,0,0,0,1564,1564,1564,1564,1564,1564,1564,1557,1557,1557,1557,1557,1557,1550,1550,1543,1543,1543,1543,1543,1543,1543,1536,1536,1543,1543,1536,1536,1543,1543,1543,1543,1543,1543,1543,1543,1543,1543,1543,1543,1536,1536,1536,1536,1536,1536,1536,1536,1536,1529,1529,1529,1529,1536,1529,1529,1529,1529,1523,1523,1529,1523,1523,1523,1529,1529,1529,1529,1529,1529,1536,1536,1536,1543,1543,1543,1550,1550,1550,1550,1550,1813,1813,1813,1804,1804,1804,1804,1804,1804,1794,1785,1785,1776,1766,1766,1757,1757,1757,1757,1564,1564,1550,1550,1550,1557,1543,1543,1543,1543,1543,1543,1543,1550,1550,1550,1557,1557,1564,1564,1572,1572,1572,1579,1579,1586,1586,1594,1594,1594,1594,1594,1594,1601,1601,1609,1616,1624,1624,1624,1624,1632,1632,1632,1632,1639,1639,1639,1639,1647,1655,1655,1655,1663,1663,1663,1663,1663,1671,1671,1680,1688,1688,1696,1696,1696,1696,1705,1705,1713,1713,1722,1722,1722,1722,1722,1731,1731,1731,1731,1731,1739,1748,1757,1757,1757,1766,1766,1766,1776,1776,1785,1785,1785,1785,1785,1785,1776,1776,1776,1776,1776,0,0,0,0,0,0,0,1063,1060,1060,1057,1054,1050,1047,1047,1047,1047,1047,1047,1047,1047,1047,1050,1050,1050,1054,1057,1057,1060,1060,1060,1063,1063,1067,1067,1067,0,0,1663,1663,1663,1663,1663,1663,1663,1655,1655,1655,1655,1647,1647,1639,1639,1632,1632,1632,1632,1632,1624,1624,1624,1624,1624,1624,1616,1616,1616,1616,1609,1609,1601,1601,1594,1594,1586,1586,1586,1579,1579,1572,1572,1572,1572,1572,1564,1564,1564,1564,1564,1557,1557,1557,1550,1550,1550,1543,1543,1543,1543,1543,1543,1536,1536,1543,1543,1543,1543,1536,1536,1536,1529,1529,1523,1523,1516,1516,1509,1509,1509,1509,1503,1503,1503,1503,1496,1496,1496,1489,1489,1489,1489,1489,1489,1489,0,0,0,0,0,0,887,887,887,887,887,885,882,880,880,878,878,878,878,875,875,875,875,875,878,880,880,882,885,885,889,889,891,891,0,0,0,0,0,1410,1410,1410,1404,1404,1398,1398,1398,1398,1398,1392,1392,1392,1392,1392,1392,1387,1387,1381,1381,1381,1376,1376,1376,1370,1370,1365,1365,1365,1365,1359,1354,1354,1354,1354,1354,1354,1354,1349,1349,1349,1343,1343,1338,1338,1333,1333,1333,1333,1333,1328,1328,1328,1322,1322,1322,1317,1317,1317,1312,1312,1312,1307,1307,1307,1307,1302,1297,1297,1292,1292,1292,1292,1288,1288,1288,1288,1288,1288,1283,1283,1283,1283,1278,1278,1278,1273,1273,1273,1268,1264,1264,1264,1264,1259,1259,1259,1255,1255,1255,1255,1250,1250,1250,1245,1245,1245,1241,1236,1236,1236,1236,1236,1236,1236,1236,1236,1232,1232,1227,1227,1227,1223,1223,1219,1219,1214,1214,1214,1214,1210,1210,1206,1206,1206,1206,1202,1202,1202,1202,1197,1197,1197,1197,1197,1193,1193,1189,1189,1185,1185,1185,1185,1185,1185,1181,1181,1177,1177,1173,1173,1173,1173,1173,1169,1169,1169,1169,1165,1165,1165,1165,1165,1161,1161,1157,1153,1153,1153,1153,1153,1153,1153,1153,1153,1149,1149,1149,1149,1149,1145,1145,1141,1141,1138,1138,1138,1138,1134,1134,1130,1130,1126,1126,1123,1123,1123,1123,1123,1123,1119,1119,1119,1119,1119,1115,1115,1112,1112,1112,1108,1108,1108,0,0,0,0,0,0,0,0,0,0,0,0,0,0,0,0,0,0,0,0,0,0,0,0,0,0,0,0
0,0,0,0,0,0,0,0,0,0,0,0,0,0,1564,1564,1564,1564,1564,1564,1564,1557,1557,1557,1557,1557,1557,1550,1550,1543,1543,1543,1543,1543,1543,1543,1543,1543,1543,1543,1543,1543,1543,1543,1536,1536,1536,1543,1543,1536,1536,1543,1543,1543,1543,1543,1536,1536,1536,1536,1536,1536,1536,1529,1529,1529,1529,1529,1529,1523,1523,1529,1523,1523,1529,1523,1523,1529,1529,1529,1529,1529,1529,1536,1536,1536,1536,1543,1543,1543,1543,1550,1550,1543,1543,1543,1564,1813,1804,1804,1804,1804,1804,1804,1794,1785,1785,1766,1757,1757,1757,1757,1757,1757,1757,1550,1550,1550,1550,1557,1557,1550,1543,1543,1543,1543,1543,1550,1550,1550,1557,1557,1564,1564,1572,1572,1572,1579,1579,1586,1586,1594,1594,1594,1594,1594,1601,1601,1609,1609,1616,1624,1624,1624,1632,1632,1632,1632,1632,1639,1639,1639,1639,1647,1647,1655,1655,1663,1663,1663,1663,1671,1671,1671,1680,1688,1688,1696,1696,1696,1696,1705,1705,1705,1713,1722,1722,1722,1722,1722,1731,1731,1731,1731,1739,1739,1748,1757,1757,1757,1766,1766,1766,1766,1776,1785,1785,1785,1785,1785,1785,1794,1794,1794,1794,1794,0,0,0,0,0,0,1063,1063,1060,1060,1057,1057,1054,1050,1047,1047,1047,1047,1047,1047,1047,1050,1050,1050,1050,1054,1057,1057,1060,1060,1060,1063,1063,1063,1067,0,0,1671,0,1663,1663,1663,1663,1663,1663,1663,1655,1655,1655,1647,1647,1639,1639,1632,1632,1632,1632,1632,1632,1624,1624,1624,1624,1624,1616,1616,1616,1616,1609,1609,1601,1601,1601,1594,1594,1586,1586,1586,1579,1579,1572,1572,1572,1572,1572,1572,1572,1564,1564,1564,1564,1557,1557,1550,1550,1543,1543,1543,1543,1543,1543,1536,1536,1543,1543,1543,1543,1543,1536,1536,1536,1529,1523,1523,1516,1516,1509,1509,1509,1509,1509,1503,1503,1503,1496,1496,1496,1489,1489,1489,1489,1489,1489,0,0,0,0,0,0,0,887,887,887,887,887,885,885,882,880,880,880,878,878,878,878,878,878,878,878,880,880,882,885,887,889,889,891,891,0,0,0,0,0,1410,1410,1410,1410,1404,1404,1398,1398,1398,1398,1398,1392,1392,1392,1392,1392,1392,1387,1387,1387,1381,1381,1376,1376,1370,1370,1370,1370,1370,1365,1365,1359,1354,1354,1354,1354,1354,1354,1349,1349,1349,1343,1343,1338,1338,1333,1333,1333,1333,1333,1333,1328,1328,1328,1328,1322,1322,1322,1322,1317,1312,1312,1312,1307,1307,1307,1302,1297,1297,1292,1292,1292,1292,1288,1288,1288,1288,1288,1288,1283,1283,1283,1283,1283,1278,1278,1273,1273,1273,1268,1268,1264,1264,1264,1264,1259,1259,1255,1255,1255,1255,1250,1250,1250,1250,1245,1245,1241,1236,1236,1236,1236,1236,1236,1232,1232,1232,1232,1232,1232,1227,1227,1223,1223,1219,1219,1219,1219,1214,1214,1210,1210,1206,1206,1206,1206,1202,1202,1202,1202,1197,1197,1197,1197,1197,1193,1193,1193,1189,1189,1189,1189,1185,1185,1185,1185,1181,1181,1177,1173,1173,1177,1173,1173,1173,1169,1169,1169,1165,1165,1165,1165,1165,1161,1161,1157,1157,1157,1153,1153,1153,1153,1153,1153,1153,1153,1149,1149,1149,1149,1145,1145,1141,1141,1141,1138,1138,1138,1134,1134,1130,1130,1126,1126,1126,1126,1123,1123,1123,1123,1123,1123,1119,1119,1119,1119,1115,1115,1112,1112,1108,1108,1108,0,0,0,0,0,0,0,0,0,0,0,0,0,0,0,0,0,0,0,0,0,0,0,0,0,0,0,0
0,0,0,0,0,0,0,0,0,0,0,0,0,0,1564,1564,1564,1564,1564,1564,1564,1564,1564,1557,1557,1557,1550,1550,1550,1543,1543,1543,1543,1543,1543,1543,1543,1543,1543,1543,1543,1543,1543,1543,1536,1536,1536,1536,1536,1536,1536,1543,1543,1543,1543,1543,1543,1536,1536,1536,1536,1536,1536,1536,1536,1536,1529,1529,1529,1523,1523,1529,1523,1523,1529,1529,1529,1529,1529,1529,1529,1536,1536,1536,1536,1536,1543,1543,1543,1543,1543,1550,1550,1543,1543,1543,1564,1813,1804,1804,1804,1804,1794,1794,1785,1766,1766,1748,1739,1739,1739,1731,1731,1731,1731,1550,1550,1550,1550,1557,1557,1543,1543,1543,1543,1550,1543,1543,1550,1550,1557,1557,1564,1572,1572,1572,1572,1579,1586,1586,1586,1594,1594,1594,1594,1594,1601,1601,1609,1609,1616,1624,1624,1624,1632,1632,1632,1632,1632,1639,1639,1639,1639,1647,1647,1655,1655,1663,1663,1663,1671,1671,1671,1671,1680,1688,1688,1688,1688,1688,1696,1705,1705,1705,1713,1722,1722,1722,1722,1722,1731,1731,1731,1731,1739,1748,1757,1757,1757,1757,1757,1766,1766,1766,1776,1785,1785,1785,1794,1794,1794,1794,1794,1794,1794,1794,0,0,0,0,0,0,1063,1063,1060,1060,1057,1057,1054,1050,1047,1047,1047,1047,1047,1047,1047,1050,1050,1050,1054,1054,1057,1057,1060,1060,1063,1063,1063,1063,1067,0,0,1671,1671,1663,1663,1663,1663,1663,1663,1663,1663,1663,1655,1655,1655,1647,1647,1639,1639,1632,1632,1632,1632,1632,1632,1624,1624,1624,1616,1616,1616,1616,1616,1609,1601,1601,1601,1601,1594,1586,1586,1586,1579,1579,1579,1572,1572,1572,1572,1572,1572,1564,1564,1564,1564,1557,1557,1550,1550,1543,1543,1543,1543,1543,1543,1543,1543,1543,1543,1543,1543,1543,1543,1543,1536,1536,1529,1523,1523,1516,1509,1509,1509,1509,1509,1503,1503,1503,1503,1496,1496,1489,1489,1489,1489,1489,1489,0,0,0,0,0,0,0,889,887,887,887,887,885,885,882,882,880,880,878,878,878,878,878,878,878,878,880,880,882,885,887,889,891,891,891,0,0,0,0,0,1410,1410,1410,1410,1410,1404,1404,1398,1398,1398,1398,1392,1392,1392,1392,1392,1392,1387,1387,1387,1381,1381,1376,1376,1370,1370,1370,1370,1370,1370,1365,1359,1359,1359,1359,1359,1354,1354,1354,1354,1349,1349,1343,1343,1338,1338,1333,1333,1333,1333,1333,1333,1328,1328,1328,1328,1322,1322,1322,1317,1312,1312,1312,1312,1307,1307,1307,1302,1297,1297,1292,1292,1292,1292,1292,1288,1288,1288,1288,1288,1283,1283,1283,1278,1278,1278,1273,1273,1273,1268,1268,1268,1264,1264,1264,1259,1259,1259,1259,1255,1255,1255,1255,1250,1250,1250,1250,1241,1236,1236,1236,1236,1236,1236,1232,1232,1232,1232,1232,1232,1227,1227,1227,1223,1219,1219,1219,1219,1214,1214,1214,1210,1210,1206,1206,1206,1206,1206,1206,1202,1197,1197,1197,1197,1197,1193,1193,1193,1189,1189,1189,1189,1185,1185,1185,1185,1181,1181,1181,1177,1177,1177,1177,1177,1173,1169,1169,1169,1169,1165,1165,1165,1165,1161,1161,1161,1157,1157,1157,1153,1153,1153,1153,1153,1153,1153,1149,1149,1149,1149,1145,1145,1141,1141,1141,1138,1138,1138,1138,1134,1134,1130,1130,1130,1126,1126,1126,1123,1123,1123,1123,1123,1119,1119,1119,1119,1115,1115,1112,1112,1108,1108,1108,0,0,0,0,0,0,0,0,0,0,0,0,0,0,0,0,0,0,0,0,0,0,0,0,0,0,0,0
0,0,0,0,0,0,0,0,0,0,0,0,0,0,1564,1564,1572,1572,1564,1564,1564,1564,1564,1557,1557,1557,1550,1550,1550,1543,1543,1543,1543,1543,1543,1543,1543,1543,1543,1543,1536,1536,1543,1543,1536,1536,1536,1536,1536,1536,1536,1543,1543,1543,1543,1543,1543,1543,1543,1536,1536,1536,1536,1536,1536,1536,1536,1536,1529,1529,1529,1529,1529,1529,1529,1529,1529,1529,1529,1529,1529,1536,1536,1536,1536,1536,1543,1543,1543,1543,1550,1564,1557,1557,1557,1557,1557,1813,1766,1766,1785,1785,1785,1785,1766,1757,1748,1731,1731,1731,1731,1722,1722,1722,1688,0,1550,1550,1550,1557,1557,1543,1543,1543,1550,1550,1543,1543,1550,1550,1557,1557,1564,1572,1572,1572,1572,1579,1586,1586,1586,1594,1594,1594,1594,1594,1601,1609,1609,1616,1616,1624,1624,1624,1632,1632,1632,1632,1632,1639,1639,1647,1647,1647,1655,1655,1655,1663,1663,1663,1671,1671,1671,1680,1680,1688,1688,1688,1688,1688,1696,1696,1696,1705,1713,1722,1722,1722,1722,1722,1731,1731,1731,1731,1739,1748,1757,1757,1757,1757,1757,1766,1766,1766,1776,1785,1785,1785,1794,1794,1794,1794,1794,1794,1794,0,0,0,0,0,0,0,0,1063,1060,1060,1060,1057,1054,1054,1047,1047,1047,1047,1047,1047,1047,1050,1050,1050,1054,1054,1057,1057,1060,1060,1060,1063,1063,1063,0,0,1713,1671,1671,1663,1663,1663,1663,1663,1663,1663,1663,1663,1655,1655,1655,1647,1647,1639,1639,1632,1632,1632,1632,1632,1632,1632,1632,1624,1624,1624,1624,1616,1616,1616,1609,1601,1601,1601,1594,1594,1594,1594,1586,1586,1586,1579,1579,1579,1572,1572,1572,1564,1564,1564,1564,1564,1557,1557,1550,1550,1543,1543,1543,1543,1543,1543,1543,1550,1543,1543,1543,1543,1543,1543,1536,1536,1529,1523,1523,1516,1516,1516,1509,1509,1509,1509,1503,1503,1503,1503,1496,1489,1489,1489,1483,1483,0,0,0,0,0,0,0,0,887,887,887,887,887,887,887,885,882,882,880,880,878,878,878,878,878,878,880,880,880,885,885,889,891,891,891,891,0,0,0,0,0,1415,1415,1410,1410,1410,1404,1404,1404,1398,1398,1398,1392,1392,1392,1392,1392,1392,1387,1387,1387,1381,1381,1376,1376,1370,1370,1370,1370,1370,1370,1365,1359,1359,1359,1359,1359,1354,1354,1354,1354,1349,1349,1349,1343,1338,1333,1333,1333,1333,1333,1333,1333,1328,1328,1328,1328,1328,1322,1322,1317,1317,1312,1312,1312,1307,1307,1307,1302,1297,1297,1292,1292,1292,1292,1292,1292,1288,1288,1288,1288,1283,1283,1283,1278,1278,1278,1273,1273,1273,1268,1268,1268,1264,1264,1264,1264,1259,1259,1259,1259,1255,1255,1255,1250,1250,1250,1250,1250,1241,1236,1236,1236,1236,1236,1232,1232,1232,1232,1232,1232,1227,1227,1227,1223,1219,1219,1219,1219,1214,1214,1214,1210,1210,1210,1206,1206,1206,1206,1206,1206,1202,1202,1202,1202,1202,1197,1197,1197,1193,1189,1189,1189,1185,1185,1185,1185,1185,1185,1181,1181,1181,1177,1177,1177,1177,1173,1169,1169,1169,1169,1169,1169,1165,1165,1161,1161,1161,1157,1157,1157,1157,1153,1153,1153,1153,1153,1149,1149,1149,1149,1145,1145,1141,1141,1141,1138,1138,1138,1138,1134,1134,1130,1130,1130,1130,1130,1126,1126,1126,1123,1123,1123,1123,1119,1119,1119,1119,1115,1112,1112,1108,1108,1108,0,0,0,0,0,0,0,0,0,0,0,0,0,0,0,0,0,0,0,0,0,0,0,0,0,0,0,0
0,0,0,0,0,0,0,0,0,0,0,0,0,0,1572,1572,1572,1572,1572,1572,1564,1564,1564,1564,1564,1557,1557,1550,1550,1550,1550,1550,1543,1543,1543,1543,1543,1543,1550,1543,1536,1536,1543,1543,1543,1536,1536,1543,1543,1536,1536,1543,1543,1543,1543,1543,1543,1543,1543,1543,1536,1536,1543,1536,1536,1536,1536,1536,1529,1529,1529,1529,1529,1529,1529,1529,1529,1529,1529,1529,1536,1536,1536,1536,1536,1536,1543,1543,1543,1543,1550,1564,1557,1557,1557,1557,1557,1766,1766,1757,1748,1731,1731,1739,1731,1731,1722,1722,1722,1713,1713,1713,1688,1688,1688,1663,1663,1557,1557,1557,1557,1550,1550,1550,1550,1550,1550,1550,1557,1557,1564,1564,1572,1572,1572,1572,1579,1586,1586,1586,1586,1594,1594,1594,1594,1601,1601,1609,1609,1616,1624,1624,1624,1624,1632,1632,1632,1632,1632,1639,1639,1647,1647,1647,1655,1655,1663,1663,1663,1663,1671,1671,1671,1680,1680,1688,1688,1688,1688,1696,1696,1696,1696,1713,1722,1722,1722,1722,1722,1722,1731,1731,1731,1731,1739,1748,1757,1757,1757,1757,1757,1766,1766,1776,1776,1785,1785,1794,1794,1794,1794,1794,1794,1794,1794,1794,0,0,0,0,0,0,0,0,1060,1060,1060,1057,1057,1054,1050,1050,1047,1047,1047,1047,1047,1050,1050,1054,1054,1057,1057,1060,1060,1060,1060,1063,1063,1063,1063,0,1713,1713,1680,1671,1671,1671,1671,1671,1663,1663,1663,1663,1663,1655,1655,1655,1647,1647,1639,1632,1632,1632,1632,1632,1632,1632,1632,1632,1624,1624,1624,1624,1616,1616,1609,1601,1601,1601,1594,1594,1594,1594,1586,1586,1586,1579,1579,1579,1572,1572,1572,1572,1564,1564,1564,1564,1564,1564,1557,1557,1550,1550,1543,1543,1543,1543,1543,1550,1543,1543,1543,1543,1543,1543,1536,1536,1529,1523,1523,1523,1516,1516,1516,1516,1516,1509,1509,1509,1503,1503,1496,1489,1489,1483,1483,1483,0,0,0,0,0,0,0,0,887,887,887,887,887,887,887,885,885,882,880,880,878,878,878,878,878,878,880,880,882,885,889,889,891,891,891,894,0,0,0,0,0,1415,1415,1415,1415,1410,1410,1404,1404,1404,1398,1398,1398,1392,1392,1392,1392,1387,1387,1387,1387,1381,1381,1376,1376,1370,1370,1370,1370,1370,1370,1365,1365,1359,1359,1359,1359,1359,1354,1354,1354,1354,1349,1349,1343,1338,1333,1333,1333,1333,1333,1333,1333,1328,1328,1328,1328,1328,1322,1322,1317,1317,1317,1312,1312,1312,1307,1307,1302,1302,1302,1302,1297,1292,1292,1292,1292,1292,1288,1288,1288,1288,1283,1283,1283,1278,1278,1273,1273,1273,1268,1268,1268,1268,1268,1268,1264,1259,1259,1259,1259,1259,1255,1255,1250,1250,1250,1250,1245,1241,1241,1241,1236,1236,1236,1232,1232,1232,1232,1232,1232,1227,1227,1227,1223,1219,1219,1219,1219,1214,1214,1214,1210,1210,1210,1206,1206,1206,1206,1206,1206,1202,1202,1202,1202,1202,1197,1197,1197,1193,1193,1189,1189,1185,1185,1185,1185,1185,1185,1181,1181,1181,1177,1177,1177,1177,1173,1173,1173,1169,1169,1169,1169,1165,1165,1161,1161,1161,1161,1157,1157,1157,1153,1153,1153,1153,1153,1149,1149,1149,1149,1145,1145,1145,1141,1141,1138,1138,1138,1138,1138,1134,1134,1134,1134,1130,1130,1130,1126,1126,1126,1123,1123,1123,1123,1119,1119,1119,1115,1115,1112,1112,1108,1108,0,0,0,0,0,0,0,0,0,0,0,0,0,0,0,0,0,0,0,0,0,0,0,0,0,0,0,0
0,0,0,0,0,0,0,0,0,0,0,0,0,0,1572,1572,1572,1572,1572,1572,1572,1572,1564,1564,1564,1564,1557,1557,1557,1550,1550,1550,1543,1543,1543,1543,1543,1543,1550,1543,1543,1543,1543,1543,1543,1543,1543,1543,1543,1536,1536,1543,1543,1543,1543,1543,1543,1543,1543,1543,1543,1543,1543,1536,1536,1536,1536,1536,1529,1529,1536,1536,1536,1529,1529,1529,1529,1529,1529,1529,1536,1536,1536,1536,1536,1536,1543,1543,1543,1543,1550,1557,1557,1557,1557,1557,1564,1564,1731,1731,1731,1696,1696,1696,1696,1705,1705,1705,1705,1705,1705,1705,1688,1688,1663,1663,1663,1557,1557,1557,1557,1550,1550,1550,1550,1550,1550,1550,1557,1557,1564,1564,1572,1572,1572,1572,1579,1586,1586,1586,1586,1594,1594,1594,1594,1601,1601,1609,1609,1616,1624,1624,1624,1624,1632,1632,1632,1632,1632,1639,1639,1647,1647,1647,1655,1655,1663,1663,1663,1671,1671,1671,1671,1680,1680,1688,1688,1688,1696,1696,1696,1696,1696,1713,1722,1722,1722,1722,1722,1731,1731,1731,1731,1739,1739,1748,1757,1757,1757,1757,1766,1766,1766,1776,1776,1785,1785,1794,1794,1794,1794,1794,1794,1794,1794,1794,0,0,0,0,0,0,0,0,1060,1060,1060,1060,1057,1054,1054,1050,1047,1047,1047,1047,1047,1050,1050,1054,1057,1057,1060,1060,1060,1060,1060,1063,1063,1063,0,0,1696,1696,1688,1680,1680,1671,1671,1671,1671,1671,1663,1663,1663,1655,1655,1655,1647,1647,1647,1639,1639,1632,1632,1639,1632,1632,1632,1632,1624,1624,1624,1624,1624,1616,1609,1601,1601,1601,1601,1594,1594,1594,1594,1594,1586,1586,1579,1579,1579,1579,1579,1572,1572,1572,1572,1564,1564,1564,1557,1557,1557,1557,1550,1543,1543,1543,1543,1550,1543,1543,1543,1543,1543,1543,1536,1536,1529,1523,1523,1523,1523,1516,1516,1516,1516,1516,1509,1509,1509,1503,1503,1489,1489,1483,1483,1483,0,0,0,0,0,0,0,0,889,889,887,887,887,887,887,885,885,882,880,880,878,878,878,878,878,880,880,880,882,885,889,891,894,894,894,0,0,0,0,0,0,1421,1415,1415,1415,1415,1410,1410,1404,1404,1398,1398,1398,1392,1392,1392,1392,1387,1387,1387,1387,1387,1381,1376,1376,1376,1370,1370,1370,1370,1370,1365,1365,1365,1365,1365,1365,1359,1359,1354,1354,1354,1349,1349,1343,1338,1338,1338,1333,1333,1333,1333,1333,1333,1328,1328,1328,1328,1328,1322,1317,1317,1317,1312,1312,1312,1307,1307,1307,1307,1307,1302,1297,1292,1292,1292,1292,1292,1292,1288,1288,1288,1283,1283,1283,1283,1278,1278,1278,1273,1268,1268,1268,1268,1268,1268,1264,1264,1264,1264,1264,1259,1259,1255,1250,1250,1250,1250,1245,1245,1241,1241,1241,1236,1236,1236,1236,1236,1232,1232,1232,1232,1232,1227,1223,1223,1219,1219,1219,1219,1219,1214,1214,1214,1210,1210,1206,1206,1206,1206,1206,1202,1202,1202,1202,1197,1197,1197,1197,1193,1193,1189,1189,1185,1185,1185,1185,1185,1185,1181,1181,1181,1181,1181,1177,1177,1173,1173,1173,1169,1169,1169,1169,1169,1165,1165,1165,1165,1161,1161,1161,1157,1157,1157,1153,1153,1153,1153,1149,1149,1149,1145,1145,1145,1145,1141,1138,1138,1138,1138,1138,1134,1134,1134,1134,1130,1130,1130,1130,1126,1126,1123,1123,1123,1123,1119,1119,1119,1119,1115,1112,1112,1108,1108,0,0,0,0,0,0,0,0,0,0,0,0,0,0,0,0,0,0,0,0,0,0,0,0,0,0,0,0
0,0,0,0,0,0,0,0,0,0,0,0,0,0,1572,1572,1572,1572,1572,1572,1572,1572,1564,1564,1564,1564,1557,1557,1557,1557,1550,1550,1550,1550,1550,1550,1550,1550,1550,1543,1543,1543,1543,1543,1543,1543,1543,1543,1543,1543,1543,1543,1543,1543,1543,1543,1543,1543,1543,1543,1543,1543,1536,1536,1536,1536,1536,1536,1536,1536,1536,1536,1536,1536,1536,1536,1536,1536,1536,1536,1536,1536,1536,1536,1536,1536,1536,1543,1543,1543,1550,1557,1557,1557,1557,1557,1557,1557,1713,1713,1713,1696,1696,1696,1696,1696,1696,1688,1688,1688,1688,1688,1671,1671,1663,1663,1663,0,1557,1557,1557,1550,1550,1550,1550,1550,1550,1550,1557,1557,1564,1564,1572,1572,1572,1572,1579,1586,1586,1586,1594,1594,1594,1601,1601,1601,1601,1609,1609,1616,1624,1624,1624,1624,1632,1632,1632,1632,1632,1639,1639,1639,1647,1647,1647,1655,1663,1663,1671,1671,1671,1680,1680,1680,1688,1688,1688,1696,1696,1696,1696,1705,1713,1713,1722,1722,1722,1722,1731,1731,1731,1739,1739,1739,1739,1748,1757,1757,1757,1757,1766,1766,1766,1776,1776,1785,1785,1794,1794,1794,1794,1794,1794,1794,1794,1794,0,0,0,0,0,0,0,0,1060,1060,1060,1060,1057,1057,1054,1050,1050,1050,1050,1050,1050,1050,1050,1054,1057,1057,1060,1060,1063,1063,1063,1063,1063,0,0,1696,1696,1696,1688,1680,1680,1680,1680,1671,1671,1671,1663,1663,1663,1663,1655,1655,1655,1655,1647,1639,1639,1639,1639,1639,1632,1632,1632,1632,1624,1624,1624,1624,1624,1616,1609,1609,1609,1601,1601,1601,1601,1594,1594,1594,1586,1586,1579,1579,1579,1579,1579,1572,1572,1572,1572,1572,1564,1564,1557,1557,1564,1557,1557,1550,1550,1550,1550,1550,1550,1543,1543,1543,1543,1543,1536,1536,1536,1529,1529,1523,1523,1523,1516,1516,1516,1516,1509,1509,1509,1509,1503,1496,1489,1489,1489,0,0,0,0,0,0,0,0,0,889,889,889,889,889,887,887,887,885,885,882,880,878,878,878,878,878,880,880,880,882,887,889,891,894,894,894,0,0,0,0,0,0,1421,1421,1415,1415,1415,1410,1410,1404,1404,1398,1398,1398,1392,1392,1392,1392,1387,1387,1387,1387,1387,1381,1376,1376,1376,1376,1370,1370,1370,1370,1370,1370,1370,1370,1365,1365,1359,1359,1359,1359,1354,1354,1349,1343,1343,1338,1338,1338,1333,1333,1333,1333,1333,1333,1328,1328,1328,1322,1322,1317,1317,1317,1312,1312,1312,1312,1307,1307,1307,1307,1302,1302,1297,1297,1292,1292,1292,1292,1288,1288,1288,1283,1283,1283,1283,1283,1283,1283,1278,1273,1273,1273,1268,1268,1268,1268,1268,1264,1264,1264,1259,1259,1255,1255,1255,1255,1250,1250,1245,1245,1245,1241,1236,1236,1236,1236,1236,1232,1232,1232,1232,1232,1227,1223,1223,1219,1219,1219,1219,1219,1214,1214,1214,1210,1210,1210,1210,1210,1206,1206,1202,1202,1202,1202,1197,1197,1197,1197,1197,1193,1189,1189,1189,1189,1185,1185,1185,1185,1181,1181,1181,1181,1181,1181,1177,1177,1173,1173,1173,1169,1169,1169,1169,1165,1165,1165,1165,1165,1161,1161,1161,1157,1157,1157,1153,1153,1153,1153,1153,1149,1145,1145,1145,1145,1145,1141,1141,1138,1138,1138,1138,1134,1134,1134,1134,1134,1130,1130,1130,1130,1126,1123,1123,1123,1123,1119,1119,1119,1119,1115,1112,1108,1108,0,0,0,0,0,0,0,0,0,0,0,0,0,0,0,0,0,0,0,0,0,0,0,0,0,0,0,0
0,0,0,0,0,0,0,0,0,0,0,0,0,0,1572,1572,1572,1572,1572,1572,1572,1572,1564,1564,1564,1564,1564,1564,1564,1557,1557,1557,1557,1550,1550,1550,1557,1557,1550,1543,1543,1543,1543,1543,1543,1543,1543,1543,1543,1543,1543,1543,1543,1543,1543,1543,1543,1543,1543,1543,1543,1543,1536,1536,1543,1536,1536,1536,1536,1536,1536,1536,1536,1536,1536,1536,1536,1536,1536,1536,1536,1536,1536,1536,1536,1536,1536,1543,1543,1543,1550,1557,1564,1557,1557,1557,1557,1557,1705,1705,1696,1688,1688,1688,1688,1688,1680,1655,1639,1632,1632,1647,1663,1663,1663,1663,1663,0,1557,1557,1557,1557,1550,1550,1550,1550,1557,1557,1557,1564,1564,1564,1572,1572,1579,1579,1579,1586,1586,1586,1594,1594,1601,1601,1601,1601,1601,1609,1609,1616,1624,1624,1624,1632,1632,1632,1632,1632,1632,1632,1639,1639,1647,1647,1647,1655,1663,1663,1671,1671,1671,1680,1680,1680,1688,1688,1688,1696,1696,1696,1696,1705,1713,1713,1722,1722,1722,1722,1731,1731,1739,1739,1748,1748,1748,1748,1757,1757,1757,1766,1766,1766,1776,1776,1785,1785,1785,1794,1794,1794,1794,1794,1794,1785,1785,1794,0,0,0,0,0,0,0,0,1060,1060,1060,1060,1057,1057,1054,1050,1050,1050,1050,1050,1050,1050,1050,1054,1057,1057,1060,1063,1063,1063,1063,1063,1063,1070,0,1696,1696,1696,1688,1688,1680,1680,1680,1680,1680,1671,1671,1663,1663,1663,1655,1655,1655,1655,1655,1647,1647,1639,1639,1647,1639,1639,1632,1632,1632,1632,1624,1624,1624,1616,1616,1609,1609,1601,1601,1601,1601,1594,1594,1594,1586,1586,1586,1586,1579,1579,1579,1579,1572,1572,1572,1572,1564,1564,1564,1564,1564,1564,1557,1550,1550,1550,1550,1550,1550,1550,1543,1543,1543,1543,1536,1536,1536,1536,1529,1529,1523,1523,1523,1523,1516,1516,1516,1516,1509,1509,1503,1503,1496,1496,1496,0,0,0,0,0,0,0,0,0,889,889,889,889,889,887,887,887,885,885,882,880,878,878,878,878,878,880,880,880,882,887,889,891,894,896,896,0,0,0,0,0,0,1427,1421,1421,1415,1415,1415,1410,1410,1404,1404,1398,1398,1392,1392,1392,1392,1392,1387,1387,1387,1387,1381,1376,1376,1376,1376,1376,1370,1370,1370,1370,1370,1370,1370,1365,1365,1359,1359,1359,1359,1354,1354,1349,1343,1343,1343,1338,1338,1338,1333,1333,1333,1333,1333,1328,1328,1328,1322,1322,1317,1317,1317,1312,1312,1312,1312,1307,1307,1307,1307,1307,1302,1302,1297,1292,1292,1292,1292,1288,1288,1288,1288,1288,1283,1283,1283,1283,1283,1278,1278,1278,1273,1273,1268,1268,1268,1268,1268,1264,1264,1259,1259,1255,1255,1255,1255,1250,1250,1250,1245,1245,1241,1236,1236,1236,1236,1236,1232,1232,1232,1232,1232,1232,1227,1223,1223,1223,1219,1219,1219,1219,1214,1214,1214,1214,1210,1210,1210,1210,1210,1206,1202,1202,1202,1202,1202,1197,1197,1197,1193,1193,1193,1189,1185,1185,1185,1185,1185,1185,1181,1181,1181,1181,1181,1181,1177,1177,1173,1173,1173,1169,1169,1169,1169,1165,1165,1165,1165,1165,1161,1161,1161,1161,1157,1157,1153,1153,1153,1153,1153,1149,1149,1145,1145,1145,1141,1141,1141,1138,1138,1138,1134,1134,1134,1134,1134,1134,1130,1130,1130,1130,1126,1123,1123,1123,1123,1119,1119,1119,1115,1115,1112,1112,0,0,0,0,0,0,0,0,0,0,0,0,0,0,0,0,0,0,0,0,0,0,0,0,0,0,0,0
0,0,0,0,0,0,0,0,0,0,0,0,0,0,1572,1572,1572,1572,1572,1572,1572,1572,1564,1564,1564,1564,1564,1564,1564,1564,1557,1557,1564,1557,1557,1557,1557,1557,1557,1550,1550,1550,1550,1550,1550,1543,1543,1543,1543,1543,1543,1543,1543,1550,1543,1543,1543,1543,1543,1543,1543,1543,1536,1536,1536,1543,1543,1543,1536,1536,1536,1536,1536,1536,1536,1536,1536,1536,1536,1536,1536,1543,1543,1543,1543,1543,1543,1543,1543,1543,1550,1557,1564,1557,1557,1557,1557,1572,1696,1688,1688,1680,1680,1663,1663,1655,1655,1647,1639,1632,1632,1639,1647,1647,1639,1639,1639,1579,1564,1564,1557,1557,1557,1557,1557,1557,1557,1557,1557,1564,1564,1572,1572,1572,1579,1579,1579,1586,1586,1586,1594,1594,1601,1601,1601,1601,1601,1609,1616,1616,1624,1624,1624,1632,1632,1632,1632,1632,1632,1632,1639,1639,1647,1647,1655,1655,1663,1663,1671,1671,1671,1680,1680,1680,1688,1688,1696,1696,1696,1696,1705,1705,1713,1713,1722,1722,1722,1731,1731,1731,1739,1748,1748,1748,1748,1757,1757,1757,1757,1766,1766,1766,1776,1776,1785,1785,1785,1794,1794,1794,1794,1794,1794,1785,1785,0,0,0,0,0,0,0,0,0,1060,1060,1060,1060,1057,1057,1054,1050,1050,1050,1050,1050,1050,1050,1050,1050,1057,1057,1060,1063,1063,1063,1063,1067,1070,1070,0,1696,1696,1688,1688,1688,1680,1680,1688,1680,1680,1671,1671,1663,1663,1663,1655,1655,1655,1655,1655,1647,1647,1639,1639,1647,1639,1639,1639,1632,1632,1632,1632,1624,1624,1624,1624,1616,1616,1609,1609,1601,1601,1601,1594,1594,1594,1594,1586,1586,1579,1579,1579,1579,1572,1572,1572,1572,1564,1564,1564,1564,1564,1564,1557,1557,1557,1550,1550,1550,1550,1550,1550,1543,1543,1543,1543,1543,1536,1536,1536,1529,1523,1523,1523,1523,1523,1516,1516,1516,1516,1509,1509,1503,1503,1503,1503,0,0,0,0,0,0,0,0,0,0,889,889,889,889,887,887,887,885,885,882,880,880,878,878,878,878,880,880,882,882,887,891,894,894,896,898,0,0,0,0,0,0,1427,1421,1421,1421,1415,1415,1415,1410,1410,1404,1404,1398,1398,1398,1392,1392,1392,1387,1387,1387,1387,1387,1381,1376,1376,1376,1376,1376,1376,1370,1370,1370,1370,1365,1365,1365,1359,1359,1359,1359,1354,1354,1354,1349,1343,1343,1343,1343,1338,1338,1338,1333,1333,1333,1333,1328,1328,1322,1322,1328,1322,1322,1317,1317,1317,1312,1312,1312,1307,1307,1307,1302,1302,1302,1292,1292,1292,1292,1292,1288,1288,1288,1288,1283,1283,1283,1283,1283,1283,1283,1278,1273,1273,1268,1268,1268,1268,1268,1264,1264,1259,1259,1259,1255,1255,1255,1250,1250,1250,1250,1250,1245,1245,1236,1236,1236,1236,1232,1232,1232,1232,1232,1232,1227,1223,1223,1223,1219,1219,1219,1219,1219,1214,1214,1214,1214,1214,1210,1210,1210,1210,1210,1202,1202,1202,1202,1202,1202,1197,1197,1193,1193,1189,1185,1185,1185,1185,1185,1185,1185,1181,1181,1181,1181,1181,1181,1177,1177,1177,1177,1173,1169,1169,1169,1165,1165,1165,1165,1165,1165,1161,1161,1161,1157,1157,1153,1153,1153,1153,1153,1153,1149,1149,1149,1149,1145,1145,1141,1138,1138,1138,1138,1134,1134,1134,1134,1134,1134,1130,1130,1130,1126,1126,1123,1123,1123,1119,1119,1119,1115,1115,1112,1112,0,0,0,0,0,0,0,0,0,0,0,0,0,0,0,0,0,0,0,0,0,0,0,0,0,0,0,0
0,0,0,0,0,0,0,0,0,0,0,0,0,0,1572,1572,1572,1572,1572,1572,1572,1572,1564,1564,1564,1564,1564,1564,1564,1564,1564,1564,1564,1564,1564,1564,1557,1557,1557,1550,1550,1550,1550,1550,1550,1543,1543,1550,1550,1543,1543,1550,1543,1543,1543,1543,1543,1543,1543,1543,1543,1543,1536,1536,1536,1536,1543,1543,1543,1543,1543,1543,1543,1536,1536,1536,1536,1543,1536,1536,1543,1543,1543,1543,1543,1543,1543,1543,1543,1543,1550,1557,1564,1564,1564,1564,1572,1572,1688,1680,1671,1671,1655,1647,1639,1639,1639,1639,1639,1632,1632,1632,1639,1639,1639,1632,1632,1579,1579,1564,1557,1557,1557,1557,1557,1557,1557,1557,1564,1564,1564,1572,1572,1572,1579,1579,1579,1586,1586,1586,1594,1594,1601,1601,1601,1601,1601,1609,1616,1616,1624,1624,1624,1632,1632,1632,1632,1632,1632,1632,1639,1639,1647,1655,1655,1655,1663,1663,1671,1671,1671,1671,1680,1680,1688,1688,1688,1696,1696,1696,1705,1705,1713,1722,1722,1722,1722,1731,1731,1739,1739,1739,1748,1757,1757,1757,1757,1757,1757,1766,1776,1776,1776,1785,1785,1785,1785,1794,1794,1794,1794,1794,1785,1776,1776,0,0,0,0,0,0,0,0,0,1060,1060,1060,1060,1057,1057,1054,1050,1050,1050,1050,1050,1050,1050,1050,1050,1057,1060,1060,1063,1063,1063,1067,1067,1070,0,0,0,1688,1688,1688,1688,1680,1680,1688,1680,1680,1671,1671,1663,1663,1663,1655,1655,1655,1655,1655,1655,1655,1647,1647,1647,1639,1639,1639,1632,1632,1632,1632,1624,1624,1624,1624,1616,1616,1609,1609,1609,1601,1601,1594,1594,1594,1594,1586,1586,1586,1586,1586,1579,1579,1579,1572,1572,1572,1572,1564,1564,1564,1564,1564,1557,1557,1557,1557,1557,1550,1550,1550,1543,1543,1543,1543,1543,1536,1536,1536,1529,1529,1523,1523,1523,1523,1523,1516,1516,1516,1516,1509,1509,1503,1503,1503,0,0,0,0,0,0,0,0,0,0,889,889,889,889,887,887,887,885,885,882,880,880,878,878,878,880,880,880,882,885,889,891,894,894,896,901,0,0,0,0,0,0,1427,1421,1421,1421,1415,1415,1415,1410,1410,1410,1404,1398,1398,1398,1398,1392,1392,1392,1387,1387,1387,1387,1381,1381,1376,1376,1376,1376,1376,1370,1370,1370,1370,1365,1365,1365,1359,1359,1359,1359,1354,1354,1354,1349,1349,1343,1343,1343,1343,1338,1338,1338,1333,1333,1333,1328,1328,1328,1328,1328,1322,1322,1317,1317,1317,1312,1312,1312,1307,1307,1307,1302,1302,1302,1302,1297,1292,1292,1292,1292,1288,1288,1288,1288,1283,1283,1283,1283,1283,1283,1278,1273,1273,1268,1268,1268,1268,1268,1268,1268,1264,1264,1264,1255,1255,1255,1255,1250,1250,1250,1250,1245,1245,1241,1241,1241,1236,1236,1232,1232,1232,1232,1232,1227,1223,1223,1223,1223,1219,1219,1219,1219,1219,1214,1214,1214,1214,1210,1210,1210,1210,1210,1202,1202,1202,1202,1202,1202,1197,1197,1197,1193,1193,1185,1185,1185,1185,1185,1185,1185,1181,1181,1181,1181,1181,1181,1177,1177,1177,1177,1173,1169,1169,1169,1165,1165,1165,1165,1165,1165,1165,1161,1161,1161,1161,1157,1157,1157,1157,1153,1153,1153,1149,1149,1149,1149,1145,1145,1141,1141,1141,1138,1138,1138,1134,1134,1134,1134,1130,1130,1130,1126,1126,1123,1123,1123,1119,1119,1119,1115,1115,1112,1112,0,0,0,0,0,0,0,0,0,0,0,0,0,0,0,0,0,0,0,0,0,0,0,0,0,0,0,0
0,0,0,0,0,0,0,0,0,0,0,0,0,0,1572,1572,1572,1579,1572,1572,1572,1572,1572,1564,1564,1564,1564,1564,1564,1564,1564,1564,1572,1564,1564,1564,1564,1564,1557,1557,1550,1550,1550,1550,1550,1550,1550,1550,1550,1543,1543,1543,1543,1543,1550,1550,1550,1543,1543,1543,1543,1543,1536,1536,1536,1536,1543,1543,1543,1543,1543,1543,1543,1543,1543,1543,1543,1543,1543,1543,1543,1543,1543,1543,1543,1543,1543,1543,1550,1550,1557,1564,1564,1564,1564,1564,1572,1671,1671,1671,1671,1663,1647,1647,1639,1639,1639,1632,1632,1632,1632,1632,1632,1632,1639,1632,1624,1609,1579,1564,1564,1557,1557,1557,1557,1557,1564,1564,1564,1564,1572,1572,1572,1572,1579,1579,1579,1586,1586,1586,1594,1594,1601,1601,1601,1601,1609,1609,1616,1616,1624,1624,1632,1632,1632,1632,1632,1632,1632,1639,1639,1647,1655,1655,1655,1655,1663,1663,1663,1671,1671,1671,1680,1680,1688,1688,1688,1696,1696,1696,1705,1705,1713,1722,1722,1722,1722,1731,1731,1731,1731,1739,1748,1757,1757,1757,1757,1757,1757,1766,1776,1776,1776,1785,1785,1785,1785,1794,1794,1794,1794,1794,1785,1776,1776,0,0,0,0,0,0,0,0,0,1063,1060,1060,1060,1057,1057,1054,1050,1050,1050,1050,1050,1050,1050,1050,1054,1057,1060,1060,1063,1063,1063,1067,1067,1073,0,0,0,0,1688,1688,1688,1688,1688,1688,1680,1680,1671,1671,1663,1663,1663,1655,1655,1655,1655,1655,1655,1655,1647,1647,1647,1639,1639,1639,1632,1632,1632,1632,1632,1624,1624,1624,1624,1616,1609,1609,1609,1609,1601,1601,1601,1594,1594,1594,1586,1586,1586,1586,1579,1579,1579,1572,1572,1572,1572,1564,1564,1564,1564,1564,1564,1557,1557,1557,1557,1557,1550,1550,1550,1543,1543,1543,1543,1536,1536,1536,1529,1529,1523,1523,1523,1523,1523,1523,1516,1516,1516,1509,1509,1509,1509,1509,0,0,0,0,0,0,0,0,0,0,889,889,889,889,889,887,887,885,885,882,880,880,880,878,878,880,880,880,882,889,889,894,894,896,898,901,0,0,0,0,0,0,1427,1421,1421,1421,1415,1415,1415,1415,1410,1410,1404,1404,1404,1398,1398,1398,1392,1392,1392,1392,1392,1387,1387,1381,1381,1381,1376,1376,1376,1370,1370,1370,1370,1370,1365,1365,1365,1365,1359,1359,1354,1354,1354,1349,1349,1349,1343,1343,1343,1338,1338,1338,1338,1333,1333,1333,1328,1328,1328,1328,1322,1322,1322,1322,1317,1317,1312,1312,1312,1307,1307,1307,1307,1302,1302,1297,1292,1292,1292,1292,1288,1288,1288,1288,1288,1288,1283,1283,1283,1283,1278,1273,1273,1273,1268,1268,1268,1268,1268,1268,1264,1264,1264,1259,1255,1255,1255,1250,1250,1250,1250,1245,1245,1241,1241,1241,1241,1236,1236,1232,1232,1232,1232,1227,1227,1223,1223,1223,1219,1219,1219,1219,1219,1219,1219,1219,1214,1214,1210,1210,1210,1210,1206,1206,1206,1206,1202,1202,1202,1197,1197,1197,1193,1185,1185,1185,1185,1185,1185,1185,1181,1181,1181,1181,1181,1181,1181,1181,1181,1177,1173,1169,1169,1169,1169,1165,1165,1165,1165,1165,1165,1161,1161,1161,1161,1157,1157,1157,1157,1153,1153,1153,1149,1149,1149,1149,1145,1145,1145,1145,1141,1138,1138,1138,1138,1134,1134,1134,1134,1130,1130,1126,1126,1126,1123,1123,1123,1119,1119,1119,1115,1115,1115,0,0,0,0,0,0,0,0,0,0,0,0,0,0,0,0,0,0,0,0,0,0,0,0,0,0,0,0
0,0,0,0,0,0,0,0,0,0,0,0,0,0,1572,1572,1572,1579,1572,1572,1572,1572,1572,1572,1564,1564,1564,1564,1564,1564,1564,1564,1564,1564,1564,1564,1564,1564,1557,1557,1550,1550,1550,1550,1557,1550,1550,1550,1550,1543,1543,1543,1543,1543,1550,1550,1550,1550,1543,1543,1543,1543,1536,1536,1536,1543,1543,1543,1543,1543,1550,1543,1543,1543,1543,1543,1543,1543,1543,1543,1543,1543,1543,1543,1543,1543,1543,1543,1550,1550,1557,1564,1564,1564,1564,1572,1572,1639,1647,1655,1663,1655,1647,1639,1639,1639,1639,1632,1632,1632,1624,1624,1624,1624,1632,1624,1616,1594,1579,1564,1564,1557,1557,1564,1557,1557,1564,1564,1564,1564,1572,1572,1572,1572,1579,1579,1579,1586,1586,1586,1594,1601,1601,1601,1609,1609,1609,1609,1616,1616,1624,1624,1632,1632,1632,1632,1632,1639,1639,1639,1639,1647,1655,1655,1655,1655,1663,1663,1663,1671,1671,1680,1680,1680,1680,1688,1688,1696,1696,1696,1705,1705,1713,1722,1722,1722,1722,1731,1731,1731,1731,1739,1748,1748,1757,1757,1757,1757,1766,1766,1776,1776,1776,1785,1785,1785,1785,1794,1794,1794,1794,1794,1785,1776,1776,0,0,0,0,0,0,0,0,0,1063,1060,1060,1060,1057,1057,1057,1054,1050,1050,1050,1050,1050,1054,1054,1057,1060,1060,1063,1063,1067,1067,1067,1070,1073,1073,0,0,0,1688,1688,1688,1688,1688,1688,1680,1680,1680,1671,1671,1663,1663,1663,1663,1655,1655,1655,1655,1655,1647,1647,1647,1639,1639,1632,1632,1632,1632,1632,1632,1624,1624,1624,1624,1616,1616,1609,1609,1609,1601,1601,1601,1594,1594,1594,1594,1594,1586,1586,1579,1579,1579,1572,1572,1572,1572,1564,1564,1564,1564,1564,1564,1564,1557,1557,1557,1557,1550,1550,1550,1550,1543,1543,1543,1543,1543,1543,1536,1529,1529,1523,1523,1523,1523,1523,1516,1516,1516,1516,1516,1509,1509,1509,0,0,0,0,0,0,0,0,0,0,891,889,889,889,889,887,887,885,885,882,880,880,880,880,880,880,880,880,882,889,889,894,894,896,898,901,0,0,0,0,0,0,1421,1421,1421,1421,1415,1415,1415,1415,1410,1410,1410,1404,1404,1404,1398,1398,1398,1398,1392,1392,1392,1392,1387,1387,1387,1381,1381,1381,1376,1376,1376,1370,1370,1370,1370,1370,1365,1365,1365,1359,1354,1354,1354,1349,1349,1349,1349,1349,1343,1343,1343,1338,1338,1333,1333,1333,1328,1328,1328,1328,1322,1322,1322,1322,1317,1317,1312,1312,1312,1312,1307,1307,1307,1307,1307,1302,1297,1292,1292,1292,1292,1288,1288,1288,1288,1288,1288,1283,1283,1283,1278,1273,1273,1273,1273,1273,1268,1268,1268,1268,1268,1268,1264,1264,1259,1255,1255,1250,1250,1250,1250,1245,1245,1241,1241,1241,1241,1236,1236,1236,1232,1232,1232,1232,1227,1227,1227,1223,1223,1223,1223,1219,1219,1219,1219,1219,1214,1214,1214,1214,1214,1210,1206,1206,1206,1206,1206,1202,1202,1197,1197,1197,1197,1193,1189,1185,1185,1185,1185,1185,1185,1185,1185,1181,1181,1181,1181,1181,1181,1177,1173,1169,1169,1169,1169,1165,1165,1165,1165,1165,1165,1165,1165,1165,1161,1161,1161,1161,1161,1157,1153,1153,1149,1149,1149,1149,1149,1145,1145,1145,1145,1141,1141,1138,1138,1138,1134,1134,1134,1130,1130,1130,1130,1126,1126,1123,1123,1123,1119,1119,1119,1115,1115,0,0,0,0,0,0,0,0,0,0,0,0,0,0,0,0,0,0,0,0,0,0,0,0,0,0,0,0
