0,0,0,0,0,0,0,0,0,0,0,0,0,0,0,0,0,2040,2040,2040,2016,2005,1993,1993,1993,1981,1981,1981,1970,1970,1959,1959,1959,1959,1959,1959,1947,1947,1936,1936,1926,1926,1915,1915,1915,1915,1904,1904,1894,1894,1894,1894,1883,1883,1873,1873,1863,1863,1863,1853,1853,1843,1843,1843,1843,1833,1833,1833,1823,1813,1813,1813,1813,1813,1804,1804,1804,1804,1804,1804,1804,1804,1794,1794,1785,1785,1776,1776,1776,1776,1776,1776,1776,1766,1766,1766,1766,1766,1757,1757,1757,1748,1739,1739,1748,1748,1739,1739,1739,1739,1739,1731,1731,1731,1722,1722,1722,1722,1722,1722,1722,1722,1713,1713,1713,1705,1696,1696,1696,1696,1696,1696,1696,1696,1696,1696,1696,1688,1688,1688,1688,1688,1680,1680,1680,1680,1671,1671,1663,1663,1663,1663,1663,1663,1663,1655,1655,1655,1655,1655,1647,1647,1639,1639,1632,1632,1632,1632,1632,1632,1632,1632,1624,1624,1624,1624,1624,1624,1624,1624,1616,1609,1609,1609,1601,1601,1601,1601,1601,1601,1601,1601,1601,1609,1616,1616,1616,1616,1616,1616,1616,1624,2349,2349,2349,2349,2333,2333,2333,2333,2333,2333,2333,2333,2333,1586,1586,1586,1579,1579,1579,1579,1579,1579,1579,1579,1579,1579,1586,1586,1586,1586,1586,1586,1586,1594,1594,1594,1594,1594,1594,1594,1601,1601,1601,1601,1609,1609,1616,1616,1616,1616,1624,1624,1624,1624,1624,1632,1632,1632,1632,1632,1632,1632,1632,1632,1632,1632,1632,1632,1647,1655,1655,0,0,0,0,1025,1025,1025,1025,1022,1022,1022,1022,1019,1019,1019,1019,1019,1022,1022,1022,1022,1022,1025,1025,1025,1025,1025,1025,0,0,0,0,1722,1713,1713,1713,1713,1713,1713,1713,1722,1722,1722,1713,1713,1713,1713,1705,1705,1705,1696,1680,1680,1671,1671,1671,1663,1663,1663,1655,1655,1639,1639,1639,1639,1639,1632,1624,1624,1616,1616,1609,1601,1601,1601,1601,1586,1586,1579,1579,1572,1572,1579,1579,1579,0,0,0,0,0,0,0,0,0,0,0,794,790,789,789,787,785,783,781,780,778,776,774,774,774,774,774,774,774,776,776,776,778,778,780,780,781,781,781,783,783,783,783,783,0,0,0,0,0,0,0,1370,1370,1365,1365,1365,1359,1354,1354,1349,1349,1343,1338,1333,1333,1333,1328,1322,1322,1322,1317,1317,1312,1307,1307,1302,1297,1297,1292,1292,1288,1283,1283,1283,1278,1273,1273,1268,1268,1264,1264,1259,1259,1255,1255,1250,1245,1241,1236,1236,1236,1236,1232,1232,1227,1227,1223,1214,1214,1214,1214,1210,1206,1206,1202,1202,1197,1197,1193,1193,1189,1185,1181,1181,1177,1177,1173,1173,1169,1169,1165,1165,1165,1161,1157,1153,1153,1149,1145,1145,1141,1138,1138,1138,1138,1138,1134,1134,1130,1126,1123,1123,1123,1119,1119,1115,1112,1108,1108,1108,1105,1105,1101,1097,1097,1094,1090,1090,1090,1087,1084,1084,1080,1080,1080,1077,1077,1070,1070,1067,1067,1063,1063,1060,1060,1060,1057,1054,1050,1050,1047,1044,1044,1041,1041,1041,1041,1038,1038,1038,1031,1028,1028,1025,1025,1022,1019,1016,1016,1013,1013,1010,1010,1007,1004,1004,1004,1004,1001,1001,998,992,992,989,989,989,987,984,981,978,978,978,978,970,970,967,967,964,962,959,959,959,956,954,951,948,948,946,943,943,938,938,0,0,0,0,0,0,0,0,0,0,0,0,0,0,0,0,0,0,0,0,0,0,0,0,0,0,0,0,0,0
0,0,0,0,0,0,0,0,0,0,0,0,0,0,0,0,0,2040,2040,2040,2016,2005,1993,1993,1993,1981,1981,1981,1981,1970,1970,1959,1959,1959,1959,1947,1947,1947,1936,1936,1926,1926,1915,1915,1915,1904,1904,1904,1894,1894,1894,1883,1883,1883,1873,1873,1863,1863,1863,1863,1853,1853,1843,1843,1843,1833,1833,1833,1823,1823,1823,1823,1813,1813,1813,1804,1804,1804,1804,1804,1804,1804,1804,1794,1794,1785,1785,1776,1776,1776,1776,1776,1776,1776,1766,1766,1766,1766,1766,1766,1757,1757,1748,1748,1748,1748,1748,1748,1739,1739,1739,1739,1731,1731,1731,1722,1722,1722,1722,1722,1722,1722,1713,1713,1713,1713,1705,1705,1705,1705,1705,1705,1696,1696,1696,1696,1696,1688,1688,1688,1688,1688,1688,1680,1680,1680,1680,1671,1671,1663,1663,1663,1663,1663,1663,1655,1655,1655,1655,1655,1647,1647,1647,1647,1639,1639,1639,1639,1639,1639,1632,1632,1632,1632,1632,1632,1624,1624,1624,1624,1624,1609,1609,1609,1609,1609,1601,1601,1601,1601,1601,1609,1609,1616,1616,1616,1624,1616,1616,1616,1616,1624,1624,2349,2349,2349,2349,2349,2349,2333,2333,2333,2349,2349,2349,1594,1586,1586,1579,1579,1579,1579,1579,1579,1579,1579,1579,1586,1586,1586,1586,1586,1586,1586,1586,1594,1594,1594,1594,1594,1594,1594,1601,1601,1601,1609,1609,1609,1616,1616,1616,1616,1624,1624,1624,1624,1624,1632,1632,1632,1632,1632,1632,1632,1632,1632,1632,1632,1632,1632,1647,1655,1655,0,0,0,1025,1025,1025,1025,1025,1025,1022,1022,1022,1022,1022,1022,1022,1022,1022,1022,1022,1022,1022,1025,1025,1025,1025,1025,0,0,0,0,0,1722,1713,1713,1713,1713,1713,1713,1713,1722,1722,1722,1722,1713,1713,1713,1705,1705,1705,1696,1680,1680,1680,1671,1671,1663,1663,1663,1663,1655,1639,1639,1639,1639,1639,1632,1632,1624,1616,1616,1609,1601,1601,1601,1601,1586,1586,1586,1579,1579,1579,1579,1579,1579,0,0,0,0,0,0,0,0,0,0,0,794,792,790,789,787,785,783,781,780,778,776,774,774,774,774,774,774,774,776,776,776,778,778,780,780,781,781,781,781,783,783,783,783,0,0,0,0,0,0,0,1376,1370,1370,1365,1365,1359,1354,1354,1349,1349,1343,1338,1333,1333,1333,1328,1322,1322,1322,1317,1317,1312,1307,1307,1302,1297,1297,1292,1292,1292,1283,1283,1283,1278,1273,1273,1273,1268,1264,1264,1259,1259,1255,1255,1250,1250,1245,1241,1241,1236,1236,1232,1232,1227,1227,1223,1214,1214,1214,1214,1210,1206,1206,1202,1202,1197,1197,1197,1193,1189,1185,1185,1181,1181,1181,1177,1173,1169,1169,1165,1165,1165,1161,1157,1153,1153,1149,1145,1145,1141,1141,1138,1138,1138,1138,1138,1134,1134,1130,1126,1123,1123,1119,1119,1115,1112,1108,1108,1108,1105,1105,1101,1097,1097,1094,1090,1090,1090,1087,1084,1084,1084,1080,1080,1077,1077,1070,1070,1067,1067,1063,1063,1063,1060,1060,1057,1054,1054,1054,1047,1047,1044,1044,1041,1041,1041,1038,1038,1038,1031,1031,1028,1025,1025,1022,1019,1016,1016,1013,1013,1010,1010,1007,1004,1004,1004,1004,1001,1001,998,992,992,992,989,989,987,984,981,981,978,978,978,973,970,970,967,964,962,959,959,956,956,954,951,948,948,946,946,943,940,940,0,0,0,0,0,0,0,0,0,0,0,0,0,0,0,0,0,0,0,0,0,0,0,0,0,0,0,0,0,0
0,0,0,0,0,0,0,0,0,0,0,0,0,0,0,0,0,0,2040,2040,2005,2005,1993,1993,1993,1981,1981,1981,1981,1970,1970,1959,1959,1959,1959,1947,1936,1936,1936,1926,1926,1926,1915,1915,1915,1904,1904,1904,1894,1894,1894,1883,1883,1883,1873,1873,1863,1863,1863,1863,1853,1853,1843,1843,1843,1833,1833,1833,1833,1823,1823,1823,1823,1813,1813,1813,1813,1813,1813,1804,1804,1804,1804,1804,1794,1794,1785,1785,1785,1785,1785,1776,1776,1776,1766,1766,1766,1766,1766,1766,1766,1757,1757,1748,1748,1748,1748,1748,1748,1739,1739,1739,1739,1731,1731,1731,1722,1722,1722,1722,1722,1722,1722,1722,1713,1713,1705,1705,1705,1705,1705,1705,1696,1696,1696,1696,1696,1688,1688,1688,1688,1688,1688,1688,1680,1680,1680,1671,1671,1663,1663,1663,1663,1663,1663,1663,1663,1663,1655,1655,1647,1647,1647,1647,1647,1639,1639,1639,1639,1639,1632,1632,1632,1632,1632,1632,1632,1632,1624,1624,1624,1616,1609,1609,1609,1609,1601,1601,1601,1609,1609,1609,1609,1616,1616,1616,1624,1616,1616,1616,1616,1616,1616,2349,2349,2349,2349,2349,2349,2349,2349,2349,2349,2349,2349,1594,1594,1586,1586,1586,1579,1579,1579,1579,1579,1586,1586,1586,1586,1586,1586,1586,1586,1594,1594,1594,1594,1594,1594,1594,1594,1594,1601,1601,1609,1609,1609,1616,1616,1616,1616,1624,1624,1624,1632,1632,1632,1632,1632,1632,1632,1632,1632,1632,1632,1632,1632,1632,1632,1632,1647,1655,1655,0,0,0,0,1025,1025,1025,1025,1025,1025,1022,1022,1022,1022,1022,1022,1022,1022,1022,1022,1022,1022,1025,1025,1025,1025,1025,0,0,0,0,0,1722,1722,1713,1713,1713,1713,1713,1713,1722,1722,1722,1722,1713,1713,1713,1705,1705,1705,1705,1688,1688,1680,1671,1671,1663,1663,1663,1663,1655,1647,1639,1639,1639,1639,1632,1632,1624,1624,1624,1609,1609,1601,1601,1601,1594,1586,1586,1579,1579,1579,1579,1579,1579,0,0,0,0,0,0,0,0,0,0,0,794,792,790,789,787,785,783,781,780,778,776,774,774,774,774,774,774,776,776,776,776,778,778,780,780,781,781,781,781,783,783,783,783,0,0,0,0,0,0,0,1376,1376,1370,1365,1365,1359,1354,1354,1349,1349,1349,1338,1333,1333,1333,1328,1322,1322,1322,1317,1317,1312,1307,1307,1302,1302,1297,1292,1292,1292,1288,1288,1288,1278,1273,1273,1268,1268,1264,1264,1259,1259,1255,1255,1250,1250,1245,1245,1241,1241,1241,1232,1232,1227,1227,1223,1219,1219,1219,1214,1214,1210,1206,1206,1202,1197,1197,1197,1193,1189,1185,1185,1181,1181,1181,1177,1173,1173,1169,1165,1165,1165,1161,1161,1153,1153,1149,1145,1145,1141,1141,1138,1138,1138,1138,1134,1134,1134,1130,1126,1123,1123,1119,1119,1119,1115,1108,1108,1108,1105,1105,1101,1097,1097,1094,1090,1090,1090,1087,1084,1084,1084,1080,1080,1080,1077,1073,1073,1070,1067,1067,1063,1063,1060,1060,1060,1054,1054,1054,1047,1047,1044,1044,1041,1041,1041,1038,1038,1038,1034,1031,1028,1025,1022,1022,1022,1019,1016,1016,1013,1013,1010,1010,1007,1004,1004,1004,1001,1001,998,992,992,989,989,989,987,984,981,981,978,978,978,973,970,970,967,967,962,959,959,956,956,954,951,948,948,946,946,943,940,940,0,0,0,0,0,0,0,0,0,0,0,0,0,0,0,0,0,0,0,0,0,0,0,0,0,0,0,0,0,0
0,0,0,0,0,0,0,0,0,0,0,0,0,0,0,0,0,2053,2053,2053,2053,2028,1993,1993,1993,1993,1981,1981,1981,1981,1970,1970,1959,1959,1959,1947,1936,1936,1936,1926,1926,1926,1915,1915,1915,1915,1904,1904,1894,1894,1894,1883,1883,1883,1883,1873,1863,1863,1873,1863,1863,1853,1853,1853,1843,1843,1833,1833,1833,1833,1823,1823,1823,1823,1813,1813,1813,1813,1813,1813,1804,1804,1804,1804,1794,1794,1794,1785,1785,1785,1785,1776,1776,1776,1766,1766,1766,1766,1766,1766,1766,1757,1757,1757,1748,1748,1748,1748,1748,1739,1739,1739,1739,1731,1731,1731,1731,1722,1722,1722,1722,1722,1722,1722,1713,1713,1713,1713,1713,1713,1713,1713,1705,1705,1705,1696,1696,1688,1688,1688,1688,1688,1688,1688,1680,1680,1680,1671,1671,1671,1671,1671,1663,1663,1663,1663,1663,1663,1655,1655,1647,1647,1647,1647,1647,1647,1639,1639,1639,1639,1632,1632,1632,1632,1632,1632,1632,1624,1624,1624,1624,1616,1616,1609,1609,1609,1609,1609,1609,1609,1609,1609,1609,1616,1616,1624,1624,1616,1616,1616,1616,1616,1624,2349,2349,2349,2349,2349,2349,2349,2349,2349,2349,2349,2349,1594,1594,1594,1586,1586,1586,1586,1586,1586,1586,1586,1586,1586,1586,1586,1586,1586,1586,1594,1594,1594,1594,1594,1594,1594,1594,1594,1601,1601,1609,1609,1609,1616,1616,1616,1616,1624,1624,1624,1632,1632,1632,1632,1632,1624,1624,1632,1632,1632,1632,1632,1632,1632,1632,1639,1655,1655,1655,0,0,0,1025,1025,1025,1025,1025,1025,1025,1022,1022,1022,1022,1022,1022,1022,1022,1022,1022,1022,1025,1025,1025,1025,1025,1025,0,0,0,0,0,1722,1713,1713,1713,1713,1713,1713,1713,1713,1722,1722,1722,1713,1713,1713,1705,1705,1705,1705,1696,1696,1680,1671,1671,1663,1663,1663,1663,1655,1647,1647,1647,1639,1639,1632,1632,1632,1624,1624,1616,1609,1609,1601,1601,1594,1586,1586,1579,1579,1579,1579,1579,1579,0,0,0,0,0,0,0,0,0,0,796,796,792,790,789,787,785,783,781,780,778,776,774,774,774,774,774,774,776,776,776,778,778,780,780,781,781,781,781,783,783,783,783,783,0,0,0,0,0,0,0,1376,1376,1370,1370,1370,1365,1359,1354,1354,1349,1349,1338,1333,1333,1328,1328,1328,1322,1322,1322,1317,1312,1312,1312,1302,1302,1297,1292,1292,1292,1288,1288,1288,1278,1273,1273,1268,1268,1264,1264,1264,1259,1255,1255,1250,1250,1245,1245,1245,1241,1241,1236,1236,1232,1227,1223,1219,1219,1219,1214,1214,1210,1206,1206,1202,1202,1197,1197,1193,1189,1185,1185,1181,1181,1181,1177,1173,1173,1169,1165,1165,1165,1161,1153,1153,1153,1149,1149,1145,1141,1141,1138,1138,1138,1134,1134,1134,1134,1130,1126,1123,1123,1119,1119,1119,1115,1108,1108,1108,1105,1105,1101,1097,1097,1094,1094,1090,1090,1087,1087,1087,1084,1080,1080,1077,1077,1073,1073,1070,1067,1067,1063,1063,1060,1060,1060,1057,1054,1054,1050,1047,1047,1044,1044,1041,1041,1038,1038,1038,1034,1031,1028,1025,1022,1022,1022,1019,1019,1016,1016,1013,1013,1010,1007,1007,1004,1004,1001,1001,998,992,992,989,989,989,987,984,981,981,978,978,978,975,973,970,967,967,962,959,959,959,956,956,954,951,948,948,946,946,943,943,0,0,0,0,0,0,0,0,0,0,0,0,0,0,0,0,0,0,0,0,0,0,0,0,0,0,0,0,0,0
0,0,0,0,0,0,0,0,0,0,0,0,0,0,0,0,0,2053,2053,2040,2028,2028,1993,1993,1993,1993,1981,1981,1981,1981,1970,1970,1959,1959,1959,1947,1936,1936,1936,1926,1926,1926,1915,1915,1915,1915,1904,1904,1894,1894,1894,1883,1883,1883,1883,1873,1873,1873,1873,1863,1863,1853,1853,1853,1843,1843,1843,1843,1833,1833,1833,1833,1823,1823,1823,1823,1813,1813,1813,1813,1804,1804,1804,1804,1794,1794,1794,1794,1785,1785,1785,1776,1776,1776,1766,1766,1766,1766,1766,1766,1766,1766,1757,1757,1757,1748,1748,1748,1748,1739,1739,1739,1739,1731,1731,1731,1731,1731,1731,1722,1722,1722,1722,1722,1722,1722,1722,1713,1713,1713,1713,1713,1705,1705,1705,1696,1696,1688,1688,1688,1688,1688,1688,1688,1688,1688,1680,1680,1671,1671,1671,1671,1663,1663,1663,1663,1663,1663,1663,1655,1655,1655,1655,1647,1647,1647,1647,1639,1639,1639,1639,1639,1632,1632,1632,1632,1632,1624,1624,1624,1624,1616,1616,1609,1609,1609,1609,1609,1609,1609,1609,1609,1609,1616,1624,1624,1624,1624,1624,1624,1616,1609,1609,1601,1601,2349,2349,2349,2349,2349,2349,2349,2349,2349,2365,1594,1594,1594,1586,1586,1586,1586,1586,1586,1586,1586,1586,1586,1594,1594,1594,1594,1594,1594,1594,1594,1594,1594,1594,1594,1601,1601,1601,1609,1609,1609,1616,1616,1616,1624,1624,1624,1632,1632,1632,1632,1632,1632,1632,1624,1624,1632,1632,1632,1632,1632,1632,1632,1639,1639,1655,1655,1655,0,0,0,1028,1028,1028,1028,1025,1025,1025,1025,1022,1022,1022,1022,1022,1022,1022,1022,1022,1022,1025,1025,1025,1025,1025,1025,0,0,0,0,1722,1722,1713,1713,1705,1705,1705,1705,1713,1713,1722,1722,1722,1713,1713,1713,1705,1705,1705,1705,1705,1696,1688,1680,1671,1671,1663,1663,1663,1663,1655,1647,1647,1647,1639,1632,1632,1632,1632,1616,1616,1609,1601,1601,1601,1594,1594,1586,1579,1579,1579,1579,1579,1579,0,0,0,0,0,0,0,0,0,0,796,796,794,792,790,789,785,785,783,781,778,776,774,774,774,774,774,774,776,776,778,778,778,780,781,781,781,783,783,783,783,783,783,783,0,0,0,0,0,0,0,1376,1376,1376,1370,1370,1365,1354,1354,1354,1349,1349,1343,1333,1333,1328,1328,1328,1322,1322,1322,1317,1317,1312,1312,1307,1307,1302,1292,1292,1292,1288,1288,1283,1283,1278,1278,1273,1273,1268,1268,1264,1259,1255,1255,1250,1250,1250,1245,1245,1245,1241,1236,1236,1232,1232,1227,1223,1219,1219,1214,1214,1210,1206,1206,1202,1202,1197,1197,1197,1189,1185,1185,1181,1181,1181,1177,1173,1173,1169,1165,1165,1165,1161,1153,1153,1153,1153,1149,1145,1141,1141,1138,1138,1138,1134,1134,1134,1134,1130,1123,1123,1123,1119,1119,1119,1115,1112,1108,1108,1105,1105,1101,1097,1097,1094,1094,1090,1090,1087,1087,1087,1084,1080,1080,1077,1077,1073,1073,1070,1067,1067,1067,1063,1063,1060,1060,1057,1054,1054,1050,1047,1047,1044,1044,1041,1041,1038,1038,1038,1034,1031,1028,1028,1025,1022,1022,1019,1019,1016,1016,1013,1013,1013,1010,1007,1004,1004,1001,1001,998,995,992,992,989,989,989,987,984,981,981,978,978,975,973,970,970,967,964,962,959,959,956,956,954,951,951,948,946,946,943,943,0,0,0,0,0,0,0,0,0,0,0,0,0,0,0,0,0,0,0,0,0,0,0,0,0,0,0,0,0,0
0,0,0,0,0,0,0,0,0,0,0,0,0,0,0,0,0,2053,2053,2040,2016,2016,2016,2005,2005,2005,1993,1981,1981,1981,1970,1970,1959,1959,1959,1947,1936,1936,1936,1926,1926,1926,1915,1915,1915,1904,1904,1904,1894,1894,1894,1883,1883,1883,1883,1873,1873,1873,1873,1873,1863,1863,1853,1853,1843,1843,1843,1833,1833,1833,1833,1833,1833,1823,1823,1823,1813,1813,1813,1813,1804,1804,1804,1804,1804,1804,1794,1794,1794,1785,1785,1776,1776,1776,1766,1766,1766,1766,1766,1766,1766,1766,1757,1757,1757,1757,1757,1757,1748,1748,1739,1739,1739,1739,1739,1731,1731,1731,1731,1731,1722,1722,1722,1722,1722,1722,1722,1713,1713,1713,1713,1705,1705,1705,1705,1696,1696,1696,1688,1688,1688,1688,1688,1688,1688,1688,1680,1680,1680,1671,1671,1671,1671,1663,1663,1663,1663,1663,1663,1663,1655,1655,1655,1647,1647,1647,1647,1639,1639,1639,1639,1639,1632,1632,1632,1632,1632,1632,1632,1624,1624,1616,1616,1616,1609,1609,1609,1609,1609,1616,1616,1616,1616,1616,1624,1624,1624,1624,1624,1624,1616,1609,1609,1601,1594,1594,2349,2349,2349,2349,2349,2349,2349,2349,2349,1594,1594,1594,1586,1586,1586,1586,1586,1586,1586,1586,1586,1586,1594,1594,1594,1594,1594,1594,1594,1594,1594,1594,1601,1601,1601,1601,1609,1609,1609,1616,1616,1616,1616,1624,1624,1624,1632,1632,1632,1632,1632,1632,1632,1632,1632,1632,1632,1632,1632,1632,1639,1639,1639,1639,1655,1655,1655,0,0,0,1028,1028,1028,1028,1025,1025,1025,1025,1022,1022,1022,1022,1022,1022,1022,1022,1022,1022,1025,1025,1025,1025,1025,0,0,0,0,0,1722,1722,1705,1705,1705,1705,1705,1705,1713,1713,1722,1722,1722,1722,1713,1713,1713,1713,1705,1705,1705,1696,1688,1680,1671,1671,1663,1663,1663,1663,1655,1655,1655,1647,1639,1639,1632,1632,1624,1616,1616,1609,1601,1601,1601,1594,1594,1586,1579,1579,1579,1579,1579,1579,0,0,0,0,0,0,0,0,0,798,798,796,796,794,792,790,787,785,783,781,778,776,774,774,774,774,774,774,776,776,778,778,778,781,781,781,781,783,783,783,783,783,783,783,0,0,0,0,0,0,0,1376,1376,1376,1370,1370,1365,1354,1354,1354,1354,1349,1349,1343,1333,1333,1333,1328,1322,1322,1322,1317,1312,1312,1312,1307,1307,1302,1292,1292,1292,1288,1288,1283,1273,1273,1273,1273,1268,1264,1264,1264,1259,1255,1255,1250,1250,1250,1250,1245,1245,1236,1236,1236,1232,1232,1227,1223,1219,1219,1214,1214,1210,1210,1206,1202,1202,1197,1197,1197,1189,1185,1185,1181,1181,1181,1177,1173,1173,1169,1165,1165,1165,1161,1157,1153,1153,1153,1149,1145,1141,1141,1138,1138,1138,1138,1134,1134,1134,1130,1123,1123,1123,1119,1119,1119,1115,1112,1108,1108,1105,1105,1101,1097,1097,1094,1094,1094,1090,1090,1087,1087,1084,1084,1080,1077,1077,1077,1073,1070,1067,1067,1067,1063,1063,1060,1060,1057,1054,1054,1050,1047,1047,1044,1044,1041,1041,1038,1038,1038,1034,1031,1028,1028,1025,1025,1022,1022,1019,1016,1016,1013,1013,1013,1010,1007,1004,1004,1001,1001,998,995,992,992,989,989,989,987,987,984,981,978,978,975,973,970,970,967,964,962,959,959,956,956,954,954,951,948,946,946,943,943,0,0,0,0,0,0,0,0,0,0,0,0,0,0,0,0,0,0,0,0,0,0,0,0,0,0,0,0,0,0
0,0,0,0,0,0,0,0,0,0,0,0,0,0,0,0,0,2053,2053,2028,2016,2016,2016,2005,2005,2005,1993,1981,1981,1981,1970,1970,1959,1959,1959,1947,1947,1936,1936,1926,1926,1926,1915,1915,1915,1904,1904,1904,1894,1894,1894,1883,1883,1883,1883,1873,1873,1873,1873,1873,1863,1863,1863,1853,1843,1843,1843,1833,1833,1833,1833,1833,1833,1823,1823,1823,1813,1813,1813,1804,1804,1813,1804,1804,1804,1804,1794,1794,1794,1785,1785,1776,1776,1776,1766,1766,1776,1776,1776,1766,1766,1766,1757,1757,1757,1748,1748,1748,1748,1748,1739,1739,1739,1739,1739,1739,1739,1731,1731,1731,1731,1722,1722,1722,1722,1722,1722,1713,1713,1713,1713,1705,1705,1705,1705,1696,1696,1696,1688,1688,1688,1688,1688,1688,1688,1688,1680,1680,1680,1671,1671,1671,1671,1663,1663,1663,1663,1663,1663,1663,1663,1655,1655,1655,1647,1647,1647,1639,1639,1639,1639,1639,1632,1632,1632,1632,1632,1632,1624,1624,1624,1616,1616,1616,1609,1609,1609,1609,1609,1616,1616,1616,1616,1624,1624,1624,1624,1624,1624,1624,1616,1609,1601,1594,1586,1586,1594,2349,2349,2333,2333,2349,2365,0,0,0,1594,1594,1594,1594,1594,1594,1594,1586,1586,1586,1586,1586,1594,1594,1594,1594,1594,1594,1594,1594,1594,1594,1601,1601,1601,1601,1609,1609,1609,1616,1616,1616,1616,1624,1624,1624,1624,1632,1632,1624,1624,1632,1632,1632,1632,1632,1632,1632,1639,1639,1639,1639,1639,1647,1655,1655,1655,0,0,0,1028,1028,1028,1028,1028,1025,1025,1025,1022,1022,1019,1019,1019,1022,1022,1022,1022,1025,1025,1025,1025,1025,1025,1025,0,0,0,0,1731,1713,1705,1705,1705,1705,1705,1713,1713,1722,1722,1722,1722,1722,1713,1713,1713,1713,1713,1705,1705,1696,1688,1688,1680,1671,1671,1663,1663,1663,1655,1655,1655,1647,1639,1639,1632,1632,1624,1616,1616,1609,1609,1601,1601,1594,1594,1586,1586,1586,1579,1579,1579,1579,0,0,0,0,0,0,0,0,0,798,796,796,796,794,792,790,787,785,783,781,780,776,776,776,776,776,776,776,776,776,778,778,780,781,781,781,783,783,783,783,783,783,783,783,0,0,0,0,0,0,0,1381,1376,1376,1370,1370,1365,1359,1354,1354,1354,1349,1343,1338,1338,1333,1333,1328,1322,1322,1322,1317,1312,1312,1312,1307,1307,1302,1297,1297,1292,1292,1288,1283,1273,1273,1273,1273,1268,1264,1264,1264,1255,1255,1250,1250,1250,1250,1250,1245,1245,1236,1236,1236,1232,1232,1227,1223,1219,1219,1219,1214,1214,1210,1206,1202,1202,1197,1197,1197,1189,1189,1185,1185,1185,1181,1181,1173,1173,1169,1165,1165,1165,1161,1157,1157,1153,1153,1149,1145,1141,1141,1138,1138,1138,1138,1134,1134,1134,1130,1126,1123,1123,1119,1119,1119,1115,1112,1108,1108,1105,1105,1101,1097,1097,1094,1094,1090,1090,1090,1087,1087,1084,1080,1080,1077,1077,1077,1073,1073,1070,1067,1067,1063,1063,1060,1060,1057,1054,1054,1050,1050,1050,1044,1044,1041,1041,1038,1038,1038,1034,1034,1028,1028,1025,1025,1022,1022,1019,1019,1016,1013,1013,1013,1010,1007,1004,1004,1001,1001,998,995,995,992,992,989,989,987,987,984,981,981,978,975,973,970,970,967,964,962,959,959,956,956,956,954,951,948,946,946,943,943,0,0,0,0,0,0,0,0,0,0,0,0,0,0,0,0,0,0,0,0,0,0,0,0,0,0,0,0,0,0
0,0,0,0,0,0,0,0,0,0,0,0,0,0,0,0,0,2040,2040,2028,2016,2016,2016,2005,2005,2005,2005,1993,1981,1981,1970,1970,1959,1959,1959,1947,1947,1936,1936,1926,1926,1926,1915,1915,1904,1904,1904,1904,1904,1894,1894,1883,1883,1883,1883,1873,1873,1873,1873,1873,1873,1873,1863,1853,1843,1843,1843,1843,1843,1833,1833,1833,1833,1823,1823,1823,1823,1813,1813,1804,1804,1804,1804,1804,1804,1804,1794,1794,1794,1785,1785,1785,1785,1785,1776,1776,1776,1776,1776,1766,1766,1766,1757,1757,1757,1748,1748,1748,1748,1748,1748,1739,1739,1739,1739,1739,1739,1731,1731,1731,1731,1731,1731,1731,1731,1731,1722,1722,1713,1713,1713,1705,1705,1705,1705,1696,1696,1696,1696,1696,1696,1696,1688,1688,1688,1688,1688,1680,1680,1671,1671,1671,1671,1671,1671,1663,1663,1663,1663,1663,1663,1655,1655,1655,1647,1647,1647,1647,1647,1647,1639,1639,1639,1632,1632,1632,1632,1632,1624,1624,1624,1616,1616,1616,1616,1609,1609,1609,1609,1616,1616,1616,1616,1624,1624,1624,1624,1624,1624,1624,1616,1609,1601,1594,1586,1586,1586,0,0,2333,2333,0,0,0,0,0,1594,1594,1594,1594,1594,1594,1594,1594,1594,1586,1586,1586,1594,1594,1594,1594,1594,1601,1601,1601,1601,1601,1601,1601,1601,1609,1609,1609,1609,1616,1616,1616,1616,1624,1624,1624,1624,1624,1632,1624,1624,1632,1632,1632,1632,1632,1632,1632,1639,1639,1639,1647,1647,1655,1655,1655,1655,0,0,0,1031,1028,1028,1028,1028,1025,1025,1022,1022,1022,1019,1019,1019,1022,1022,1022,1022,1025,1025,1025,1025,1025,1025,1025,0,0,0,0,0,1713,1705,1705,1705,1705,1705,1713,1713,1722,1722,1722,1722,1722,1722,1722,1713,1713,1713,1705,1705,1696,1688,1688,1680,1680,1671,1671,1663,1663,1663,1655,1655,1647,1639,1639,1632,1632,1632,1616,1616,1609,1609,1601,1601,1601,1594,1586,1579,1579,1572,1572,1572,1572,0,0,0,0,0,0,0,0,798,798,796,796,794,794,790,790,787,785,783,781,780,780,778,778,776,776,776,776,776,778,778,780,780,781,781,781,783,783,785,785,785,785,785,785,0,0,0,0,0,0,1376,1376,1376,1376,1370,1370,1365,1359,1354,1354,1354,1349,1343,1338,1333,1333,1333,1333,1328,1328,1322,1317,1317,1312,1312,1307,1307,1307,1302,1297,1292,1292,1288,1283,1283,1278,1273,1273,1273,1268,1268,1264,1255,1250,1250,1250,1250,1245,1245,1245,1241,1236,1236,1236,1232,1232,1227,1223,1219,1219,1219,1214,1214,1210,1210,1206,1202,1202,1197,1197,1197,1189,1185,1185,1185,1181,1181,1177,1173,1169,1165,1165,1165,1161,1157,1157,1153,1153,1149,1149,1145,1141,1138,1138,1138,1138,1134,1134,1130,1130,1126,1126,1123,1123,1119,1115,1115,1112,1112,1108,1108,1105,1101,1097,1097,1094,1094,1090,1090,1090,1087,1087,1084,1080,1080,1077,1077,1077,1073,1070,1067,1067,1067,1063,1063,1060,1060,1057,1054,1054,1050,1050,1050,1044,1044,1041,1041,1038,1038,1038,1034,1034,1028,1028,1025,1025,1022,1022,1019,1019,1016,1016,1016,1013,1010,1007,1004,1004,1001,1001,998,995,995,992,992,989,989,989,989,987,984,984,978,975,975,973,970,967,964,962,959,959,956,956,956,954,951,951,946,946,943,943,0,0,0,0,0,0,0,0,0,0,0,0,0,0,0,0,0,0,0,0,0,0,0,0,0,0,0,0,0,0
0,0,0,0,0,0,0,0,0,0,0,0,0,0,0,0,0,2040,2028,2028,2028,2016,2016,2016,2016,2016,2005,1993,1981,1970,1970,1970,1959,1959,1959,1947,1947,1947,1936,1926,1926,1926,1915,1915,1904,1904,1904,1904,1904,1904,1883,1883,1883,1883,1883,1883,1873,1873,1873,1873,1873,1873,1863,1863,1853,1843,1843,1843,1843,1833,1833,1833,1833,1833,1823,1823,1823,1823,1813,1804,1804,1804,1804,1804,1804,1804,1804,1794,1794,1785,1785,1785,1785,1785,1776,1776,1776,1776,1776,1766,1766,1766,1757,1757,1757,1757,1757,1757,1757,1757,1748,1748,1748,1748,1748,1739,1739,1731,1731,1731,1731,1731,1731,1731,1731,1731,1722,1722,1713,1713,1713,1713,1705,1705,1705,1705,1696,1696,1696,1696,1696,1696,1688,1688,1688,1688,1688,1680,1680,1680,1680,1680,1671,1671,1671,1663,1663,1663,1663,1663,1663,1655,1655,1655,1655,1647,1647,1647,1647,1647,1639,1639,1632,1632,1632,1632,1632,1632,1624,1624,1624,1624,1624,1616,1616,1616,1616,1616,1616,1616,1616,1616,1616,1624,1624,1624,1624,1624,1624,1624,1624,1624,1624,1594,1586,1586,1586,0,0,0,0,0,0,0,0,0,1594,1594,1594,1594,1594,1594,1594,1594,1594,1586,1586,1594,1594,1594,1594,1594,1594,1601,1601,1601,1601,1601,1601,1601,1601,1609,1609,1609,1609,1609,1616,1616,1616,1616,1624,1624,1624,1624,1632,1624,1624,1632,1632,1632,1632,1632,1639,1639,1639,1639,1647,1647,1647,1647,1655,1655,1655,0,0,0,1028,1028,1028,1028,1028,1028,1025,1022,1022,1022,1019,1019,1019,1022,1022,1022,1025,1025,1025,1025,1025,1025,1025,1025,0,0,0,0,1731,1713,1705,1705,1713,1713,1713,1713,1713,1722,1722,1722,1722,1722,1722,1722,1713,1713,1713,1713,1696,1696,1696,1688,1680,1680,1671,1671,1671,1663,1663,1655,1655,1647,1639,1639,1639,1632,1624,1616,1616,1609,1609,1601,1601,1601,1594,1586,1579,1579,1572,1572,1572,1572,0,0,0,0,0,0,0,0,798,798,796,796,794,794,790,790,789,785,783,781,781,780,780,778,778,776,776,776,778,778,780,780,780,781,781,781,783,783,785,785,785,785,787,0,0,0,0,0,0,0,1376,1376,1376,1376,1370,1370,1365,1359,1354,1354,1354,1349,1343,1343,1333,1333,1333,1333,1333,1328,1322,1317,1317,1312,1312,1307,1307,1307,1302,1302,1297,1292,1292,1288,1283,1278,1273,1273,1273,1268,1268,1264,1255,1250,1250,1250,1250,1245,1245,1245,1241,1236,1236,1232,1232,1232,1227,1223,1219,1219,1219,1214,1214,1214,1210,1206,1202,1197,1197,1197,1197,1189,1185,1185,1185,1181,1181,1177,1173,1169,1169,1165,1165,1161,1157,1157,1157,1153,1153,1149,1145,1145,1141,1138,1138,1138,1134,1134,1130,1130,1126,1126,1123,1123,1119,1115,1115,1112,1112,1108,1108,1105,1101,1097,1097,1094,1094,1090,1090,1090,1087,1087,1084,1084,1080,1077,1077,1077,1073,1070,1067,1067,1067,1063,1063,1060,1060,1057,1054,1054,1050,1050,1047,1044,1044,1041,1041,1038,1038,1034,1034,1031,1028,1028,1028,1025,1025,1022,1022,1019,1016,1016,1016,1013,1010,1007,1007,1004,1001,1001,998,998,995,992,992,992,992,989,989,987,984,978,978,975,975,975,973,970,967,964,962,959,959,956,956,954,954,951,951,946,943,943,0,0,0,0,0,0,0,0,0,0,0,0,0,0,0,0,0,0,0,0,0,0,0,0,0,0,0,0,0,0
0,0,0,0,0,0,0,0,0,0,0,0,0,0,0,0,0,2040,2028,2028,2028,2016,2016,2016,2016,2016,2005,1993,1981,1970,1970,1970,1959,1959,1959,1959,1947,1947,1936,1936,1936,1926,1915,1915,1915,1904,1904,1904,1904,1904,1883,1883,1883,1883,1883,1883,1883,1873,1873,1873,1873,1873,1863,1863,1853,1843,1843,1843,1843,1843,1843,1833,1833,1833,1823,1823,1823,1823,1813,1804,1804,1823,1813,1804,1804,1804,1804,1794,1794,1794,1785,1785,1785,1785,1776,1776,1776,1776,1794,1766,1766,1766,1766,1766,1766,1757,1757,1757,1757,1757,1757,1748,1748,1748,1748,1739,1739,1731,1731,1731,1731,1731,1731,1731,1731,1731,1731,1722,1722,1713,1713,1713,1705,1705,1705,1705,1705,1705,1705,1696,1696,1696,1696,1696,1696,1688,1688,1688,1680,1680,1680,1680,1671,1671,1671,1671,1671,1663,1663,1663,1663,1663,1655,1655,1655,1647,1647,1647,1647,1647,1639,1639,1632,1632,1632,1632,1632,1632,1624,1624,1624,1624,1624,1624,1624,1616,1616,1616,1616,1616,1616,1616,1616,1624,1624,1624,1624,1624,1624,1624,1624,1624,1624,1586,1586,1586,1586,0,0,0,0,0,0,0,0,0,1594,1594,1594,1594,1594,1594,1594,1594,1594,1594,1594,1594,1594,1594,1594,1601,1601,1601,1601,1601,1601,1601,1601,1601,1609,1609,1609,1609,1609,1609,1616,1616,1616,1616,1624,1624,1624,1624,1632,1632,1632,1632,1632,1632,1632,1632,1639,1639,1639,1639,1647,1647,1647,1647,1655,1655,0,0,0,0,1028,1028,1028,1028,1028,1028,1025,1022,1022,1022,1022,1022,1022,1022,1022,1025,1025,1025,1025,1028,1025,1025,1025,0,0,0,0,0,1722,1713,1705,1705,1713,1713,1713,1713,1713,1722,1722,1722,1722,1722,1722,1722,1713,1713,1722,1713,1696,1696,1696,1688,1680,1680,1680,1671,1671,1663,1663,1655,1655,1647,1647,1639,1639,1632,1624,1616,1616,1609,1609,1601,1601,1601,1594,1594,1586,1579,1579,1579,1572,1572,0,0,0,0,0,0,0,0,798,798,796,796,794,794,790,790,789,785,783,783,781,780,780,780,778,778,778,778,780,780,781,781,781,781,783,783,783,785,787,787,787,787,789,0,0,0,0,0,0,1387,1387,1376,1376,1376,1376,1365,1365,1359,1354,1354,1354,1349,1343,1338,1338,1333,1333,1333,1333,1328,1322,1317,1317,1312,1312,1307,1307,1307,1302,1297,1297,1292,1292,1288,1288,1283,1283,1278,1273,1273,1268,1268,1264,1250,1250,1250,1250,1250,1250,1245,1241,1236,1236,1232,1232,1232,1227,1223,1219,1219,1219,1214,1214,1214,1210,1206,1202,1197,1197,1197,1197,1189,1189,1185,1185,1181,1181,1177,1173,1169,1169,1169,1165,1161,1157,1157,1157,1153,1153,1149,1145,1145,1141,1138,1138,1138,1134,1134,1134,1130,1126,1126,1126,1123,1123,1119,1115,1112,1112,1108,1108,1105,1101,1101,1097,1094,1094,1094,1090,1090,1087,1087,1084,1084,1080,1077,1077,1077,1073,1070,1070,1067,1067,1063,1063,1060,1060,1057,1054,1054,1050,1050,1047,1044,1044,1041,1041,1038,1038,1034,1034,1031,1031,1028,1028,1025,1025,1022,1019,1019,1016,1016,1016,1013,1010,1007,1007,1004,1001,1001,1001,998,995,995,992,992,992,989,989,987,984,978,978,975,975,975,973,970,970,967,962,962,959,956,956,954,954,954,951,946,943,943,0,0,0,0,0,0,0,0,0,0,0,0,0,0,0,0,0,0,0,0,0,0,0,0,0,0,0,0,0,0
0,0,0,0,0,0,0,0,0,0,0,0,0,0,0,0,0,2028,2028,2016,2016,2016,2016,2016,2016,2005,2005,1993,1993,1970,1970,1970,1959,1959,1959,1959,1959,1947,1947,1936,1936,1926,1926,1915,1915,1915,1915,1904,1904,1904,1894,1894,1883,1883,1883,1883,1883,1873,1873,1873,1873,1873,1873,1863,1853,1853,1843,1843,1843,1843,1843,1843,1833,1833,1833,1823,1823,1823,1823,1823,1823,1823,1823,1813,1813,1804,1804,1794,1794,1794,1785,1785,1785,1785,1776,1776,1776,1776,1776,1766,1766,1766,1766,1766,1766,1757,1757,1757,1757,1757,1757,1748,1748,1748,1748,1739,1739,1739,1739,1739,1731,1731,1731,1731,1731,1731,1731,1722,1722,1713,1713,1713,1713,1705,1705,1713,1705,1705,1705,1705,1705,1696,1696,1696,1696,1688,1688,1688,1680,1680,1680,1680,1680,1671,1671,1671,1671,1671,1663,1663,1663,1663,1655,1655,1655,1655,1647,1647,1647,1647,1639,1639,1639,1632,1632,1632,1632,1632,1632,1624,1624,1624,1624,1624,1624,1616,1616,1616,1616,1616,1616,1616,1624,1624,1624,1624,1624,1624,1632,1632,1624,1624,1632,1594,1594,1594,0,0,0,0,0,0,0,0,0,0,1594,1594,1594,1594,1594,1594,1594,1594,1594,1586,1586,1594,1594,1594,1594,1601,1601,1601,1601,1601,1601,1609,1609,1609,1609,1609,1609,1609,1609,1616,1616,1616,1616,1624,1624,1624,1624,1624,1632,1632,1632,1632,1632,1632,1639,1639,1639,1639,1639,1647,1647,1639,1639,1647,0,0,0,0,0,0,1031,1031,1028,1025,1025,1025,1025,1022,1022,1022,1022,1022,1022,1022,1022,1025,1025,1025,1025,1028,1028,1025,1025,0,0,0,0,0,1713,1713,1713,1713,1713,1713,1713,1713,1713,1722,1722,1722,1722,1722,1722,1722,1722,1722,1722,1713,1705,1705,1696,1688,1680,1680,1680,1671,1671,1663,1663,1663,1655,1647,1647,1639,1639,1632,1624,1616,1616,1609,1609,1609,1601,1601,1594,1594,1586,1579,1579,1579,1572,1572,0,0,0,0,0,0,0,0,798,798,796,796,794,794,792,790,789,787,783,783,781,781,780,780,780,778,778,778,780,780,781,781,781,783,783,783,785,785,787,787,787,787,0,0,0,0,0,0,0,1381,1381,1376,1376,1376,1376,1365,1365,1359,1354,1354,1349,1349,1343,1338,1338,1333,1333,1333,1333,1328,1322,1317,1317,1312,1312,1307,1307,1307,1302,1297,1292,1292,1288,1288,1288,1283,1283,1278,1273,1273,1273,1268,1264,1250,1250,1250,1250,1250,1250,1245,1245,1236,1236,1236,1232,1232,1227,1223,1219,1219,1219,1214,1214,1214,1210,1206,1202,1202,1202,1202,1197,1189,1185,1185,1185,1181,1181,1177,1173,1173,1169,1169,1165,1165,1161,1161,1157,1157,1153,1153,1149,1145,1141,1138,1138,1138,1134,1134,1134,1130,1126,1126,1126,1123,1123,1119,1115,1115,1112,1112,1108,1105,1105,1101,1097,1094,1094,1094,1090,1090,1087,1087,1084,1080,1080,1077,1077,1077,1073,1070,1070,1067,1067,1063,1063,1060,1060,1057,1057,1054,1054,1050,1050,1047,1047,1041,1041,1038,1038,1034,1031,1031,1031,1028,1028,1025,1025,1022,1019,1019,1016,1016,1016,1013,1013,1010,1007,1004,1004,1001,1001,998,998,995,992,992,992,992,989,989,987,981,978,975,975,975,973,970,970,967,962,962,959,956,954,954,951,951,948,946,946,946,0,0,0,0,0,0,0,0,0,0,0,0,0,0,0,0,0,0,0,0,0,0,0,0,0,0,0,0,0,0
0,0,0,0,0,0,0,0,0,0,0,0,0,0,0,0,0,2028,2028,2016,2016,2016,2016,2016,2005,2005,1993,1993,1981,1970,1970,1970,1959,1959,1959,1959,1959,1947,1947,1947,1936,1926,1926,1915,1915,1904,1904,1904,1904,1904,1904,1894,1883,1883,1883,1883,1883,1883,1873,1873,1873,1873,1873,1863,1853,1853,1843,1843,1843,1843,1843,1843,1833,1833,1833,1823,1823,1823,1823,1823,1823,1823,1823,1813,1813,1804,1804,1804,1794,1794,1794,1785,1785,1785,1776,1776,1776,1776,1776,1766,1766,1766,1766,1766,1766,1766,1757,1757,1766,1757,1757,1757,1748,1748,1748,1739,1739,1739,1739,1739,1731,1731,1731,1731,1731,1731,1731,1722,1713,1713,1713,1713,1713,1705,1705,1713,1713,1713,1713,1705,1705,1696,1696,1696,1696,1688,1688,1688,1688,1688,1680,1680,1680,1680,1680,1680,1671,1671,1671,1663,1663,1663,1663,1655,1655,1655,1647,1647,1647,1647,1647,1639,1639,1639,1639,1632,1632,1632,1632,1624,1624,1624,1624,1624,1624,1624,1624,1624,1624,1616,1616,1624,1624,1624,1624,1624,1624,1632,1632,1632,1632,1632,1632,1632,0,0,0,0,0,0,0,0,0,0,0,0,0,1601,1601,1601,1594,1594,1594,1594,1594,1586,1586,1594,1594,1594,1594,1601,1601,1601,1601,1601,1601,1609,1609,1609,1609,1609,1609,1609,1609,1616,1616,1616,1624,1624,1624,1624,1624,1624,1632,1632,1632,1632,1632,1639,1639,1639,1639,1647,1647,1647,1647,1639,1639,1647,0,0,0,0,0,0,1031,1031,1028,1025,1025,1025,1025,1022,1022,1022,1022,1022,1022,1022,1025,1025,1028,1028,1028,1028,1028,1025,1025,1034,0,0,0,0,1713,1713,1713,1713,1713,1713,1713,1713,1722,1722,1722,1722,1722,1722,1722,1722,1722,1722,1722,1722,1705,1705,1696,1696,1688,1688,1680,1680,1671,1663,1663,1663,1655,1647,1647,1639,1639,1632,1624,1624,1616,1616,1609,1609,1609,1601,1594,1594,1586,1586,1579,1579,1572,1572,1572,0,0,0,0,0,0,798,798,796,796,796,794,794,792,790,789,787,783,783,781,781,781,780,780,780,780,780,780,781,781,781,783,783,783,783,785,787,789,789,789,789,0,0,0,0,0,0,0,1381,1381,1376,1376,1376,1370,1365,1365,1359,1354,1354,1349,1349,1343,1343,1338,1338,1333,1333,1333,1328,1322,1317,1317,1312,1312,1312,1312,1307,1307,1297,1292,1288,1288,1288,1288,1288,1283,1278,1273,1273,1273,1268,1264,1255,1250,1250,1250,1250,1250,1245,1241,1241,1236,1236,1232,1232,1232,1223,1219,1219,1219,1219,1214,1214,1210,1206,1202,1202,1202,1197,1197,1189,1185,1185,1185,1181,1181,1177,1177,1173,1169,1169,1165,1165,1161,1161,1157,1157,1153,1153,1149,1145,1141,1138,1138,1138,1134,1134,1134,1130,1126,1126,1126,1123,1123,1119,1119,1115,1112,1112,1108,1105,1101,1097,1097,1094,1094,1094,1090,1090,1087,1087,1084,1080,1080,1077,1077,1077,1073,1070,1070,1067,1067,1063,1063,1060,1060,1057,1057,1054,1054,1050,1050,1047,1047,1041,1041,1038,1038,1034,1031,1031,1031,1028,1028,1025,1025,1025,1022,1019,1019,1016,1016,1013,1013,1010,1007,1004,1004,1001,1001,998,998,995,992,992,992,992,989,989,987,981,978,975,975,975,973,973,970,970,964,962,959,956,954,954,951,951,948,946,946,946,0,0,0,0,0,0,0,0,0,0,0,0,0,0,0,0,0,0,0,0,0,0,0,0,0,0,0,0,0,0
0,0,0,0,0,0,0,0,0,0,0,0,0,0,0,0,0,2028,2028,2028,2016,2016,2016,2005,2005,2005,1993,1993,1981,1970,1970,1970,1959,1959,1959,1959,1959,1947,1947,1947,1936,1926,1926,1915,1915,1904,1904,1904,1904,1904,1904,1904,1883,1883,1883,1883,1883,1883,1883,1873,1873,1873,1873,1863,1853,1853,1843,1843,1853,1843,1843,1843,1833,1833,1833,1823,1823,1823,1823,1823,1823,1823,1813,1813,1813,1804,1804,1804,1804,1794,1794,1785,1785,1785,1776,1776,1776,1776,1776,1766,1766,1766,1766,1766,1766,1766,1766,1766,1766,1766,1757,1757,1757,1748,1748,1748,1748,1739,1739,1739,1739,1731,1731,1731,1731,1731,1731,1722,1713,1713,1713,1722,1713,1713,1713,1713,1713,1713,1713,1705,1705,1705,1696,1696,1696,1688,1688,1688,1688,1688,1680,1680,1680,1680,1680,1680,1680,1671,1671,1671,1663,1663,1663,1663,1655,1655,1655,1655,1655,1647,1647,1639,1639,1639,1639,1632,1632,1632,1632,1632,1632,1624,1624,1624,1624,1624,1624,1624,1624,1616,1616,1624,1624,1624,1624,1632,1632,1632,1632,1632,1632,1632,1639,1655,0,0,0,0,0,0,0,0,0,0,0,0,0,1601,1601,1601,1594,1594,1594,1594,1594,1594,1594,1594,1594,1594,1594,1601,1601,1601,1601,1601,1601,1609,1609,1609,1609,1609,1609,1609,1616,1616,1616,1616,1624,1624,1624,1632,1632,1632,1632,1632,1632,1639,1639,1639,1647,1647,1647,1647,1647,1647,1647,1647,1647,1647,0,0,0,0,0,0,1031,1031,1028,1028,1025,1025,1025,1022,1022,1022,1022,1022,1022,1025,1025,1028,1028,1028,1028,1031,1028,1028,1028,1034,0,0,0,0,0,1713,1713,1713,1713,1713,1713,1722,1722,1722,1722,1722,1722,1722,1722,1722,1722,1722,1722,1713,1705,1705,1696,1688,1680,1680,1680,1671,1671,1663,1663,1663,1663,1647,1647,1639,1639,1632,1632,1624,1624,1616,1616,1609,1609,1601,1594,1586,1586,1586,1579,1579,1572,1572,1572,0,0,0,0,0,0,798,798,796,796,794,794,792,790,790,789,787,783,783,781,781,780,780,780,780,780,780,780,781,781,781,783,783,783,785,787,789,789,789,789,789,0,0,0,0,0,0,0,1381,1381,1376,1376,1376,1370,1370,1365,1365,1354,1354,1354,1349,1349,1343,1343,1338,1338,1333,1328,1328,1322,1317,1312,1312,1312,1312,1312,1307,1307,1302,1292,1288,1288,1288,1288,1288,1283,1278,1278,1273,1273,1268,1264,1255,1250,1250,1250,1250,1250,1245,1241,1241,1236,1236,1236,1232,1232,1227,1223,1219,1219,1219,1214,1214,1210,1206,1202,1202,1202,1197,1197,1189,1189,1185,1185,1181,1181,1181,1177,1173,1173,1169,1165,1165,1165,1161,1157,1157,1153,1153,1149,1149,1145,1141,1138,1138,1134,1134,1134,1134,1130,1126,1126,1123,1123,1119,1119,1115,1112,1112,1108,1105,1101,1097,1097,1094,1094,1094,1090,1090,1087,1087,1084,1084,1080,1080,1077,1077,1073,1073,1070,1070,1067,1063,1063,1063,1060,1057,1057,1054,1054,1050,1050,1047,1047,1044,1041,1041,1038,1038,1034,1031,1031,1031,1028,1028,1025,1025,1022,1019,1019,1016,1016,1013,1013,1010,1007,1004,1004,1004,1001,1001,998,995,995,995,992,992,992,989,987,984,978,975,975,975,973,973,970,970,967,964,962,956,956,954,954,951,948,948,946,946,0,0,0,0,0,0,0,0,0,0,0,0,0,0,0,0,0,0,0,0,0,0,0,0,0,0,0,0,0,0
0,0,0,0,0,0,0,0,0,0,0,0,0,0,0,0,0,2040,2028,2028,2016,2016,2016,2005,2005,2005,2005,1993,1993,1981,1970,1970,1970,1959,1959,1959,1947,1947,1947,1947,1936,1926,1926,1926,1915,1915,1915,1915,1904,1904,1904,1904,1894,1894,1894,1883,1883,1883,1883,1883,1873,1873,1863,1853,1853,1853,1843,1843,1853,1843,1843,1843,1833,1833,1833,1833,1823,1823,1823,1823,1823,1823,1813,1813,1823,1813,1804,1804,1804,1794,1794,1794,1785,1785,1785,1785,1794,1776,1776,1766,1766,1766,1766,1766,1766,1766,1766,1766,1766,1757,1757,1757,1757,1748,1748,1748,1748,1748,1748,1739,1739,1739,1731,1731,1731,1731,1731,1722,1722,1722,1722,1722,1722,1713,1713,1713,1713,1713,1713,1705,1705,1705,1705,1696,1696,1696,1688,1688,1688,1688,1688,1688,1680,1680,1680,1680,1680,1671,1671,1671,1663,1663,1663,1663,1663,1655,1655,1655,1655,1655,1647,1647,1647,1639,1639,1639,1632,1632,1632,1632,1632,1624,1624,1624,1624,1624,1624,1624,1624,1616,1616,1624,1624,1624,1624,1632,1632,1632,1632,1639,1639,1647,1655,1655,1655,0,0,0,0,0,0,0,0,0,0,0,0,1601,1601,1601,1594,1594,1594,1594,1594,1594,1594,1594,1594,1594,1594,1601,1601,1601,1601,1609,1609,1609,1609,1609,1609,1609,1609,1616,1616,1616,1616,1624,1624,1624,1632,1632,1632,1632,1632,1632,1632,1639,1647,1647,1647,1647,1647,1647,1647,1647,1639,1639,1647,1647,0,0,0,0,0,0,1031,1031,1031,1028,1025,1025,1025,1022,1022,1022,1022,1022,1025,1025,1025,1028,1031,1028,1028,1031,1028,1028,1028,1038,0,0,0,0,0,1713,1713,1713,1713,1722,1722,1722,1722,1722,1722,1731,1731,1731,1722,1722,1722,1722,1722,1713,1705,1705,1696,1688,1680,1680,1680,1671,1671,1663,1663,1663,1663,1647,1647,1639,1639,1632,1632,1624,1624,1616,1616,1609,1609,1594,1594,1586,1586,1586,1579,1572,1572,1572,0,0,0,0,0,0,0,798,798,796,796,794,794,792,790,790,789,787,783,783,781,781,780,780,780,780,780,780,781,781,781,783,783,785,785,787,787,789,789,789,789,789,789,0,0,0,0,0,0,1381,1381,1381,1381,1376,1370,1370,1365,1365,1354,1354,1354,1349,1349,1349,1343,1338,1338,1333,1328,1328,1322,1317,1312,1312,1312,1312,1312,1307,1307,1302,1302,1292,1288,1288,1288,1288,1283,1278,1278,1273,1273,1268,1264,1255,1255,1250,1250,1250,1250,1245,1241,1241,1236,1236,1236,1236,1232,1227,1223,1219,1219,1219,1219,1214,1210,1206,1202,1202,1197,1197,1197,1193,1189,1185,1185,1181,1181,1181,1177,1173,1173,1169,1169,1165,1165,1161,1153,1153,1153,1153,1153,1149,1145,1145,1141,1138,1138,1134,1134,1134,1130,1126,1126,1123,1123,1119,1119,1119,1115,1112,1112,1108,1105,1101,1101,1097,1094,1094,1090,1090,1087,1087,1084,1084,1080,1080,1077,1077,1073,1073,1073,1070,1067,1063,1063,1063,1060,1057,1054,1054,1054,1050,1050,1047,1047,1044,1041,1041,1041,1038,1034,1034,1034,1031,1028,1028,1025,1025,1022,1022,1019,1019,1016,1013,1013,1010,1007,1004,1004,1004,1001,1001,998,998,995,995,995,992,992,989,987,984,978,978,975,975,973,973,970,970,967,967,964,959,959,956,954,951,948,948,948,948,0,0,0,0,0,0,0,0,0,0,0,0,0,0,0,0,0,0,0,0,0,0,0,0,0,0,0,0,0,0
0,0,0,0,0,0,0,0,0,0,0,0,0,0,0,0,0,2040,2040,2028,2028,2016,2016,2016,2016,2005,2005,1993,1981,1981,1970,1970,1970,1959,1959,1959,1947,1947,1947,1947,1947,1936,1926,1926,1915,1915,1915,1915,1915,1915,1904,1904,1894,1894,1894,1883,1883,1883,1883,1883,1873,1873,1853,1853,1853,1853,1853,1853,1853,1843,1843,1843,1833,1833,1833,1833,1823,1823,1823,1823,1823,1823,1823,1823,1823,1813,1813,1804,1804,1804,1804,1804,1804,1804,1794,1794,1794,1794,1776,1766,1766,1766,1766,1766,1766,1766,1766,1766,1766,1757,1757,1757,1757,1748,1748,1748,1748,1748,1748,1748,1739,1739,1731,1731,1731,1731,1731,1731,1722,1722,1722,1722,1722,1722,1722,1713,1713,1713,1713,1705,1705,1705,1705,1696,1696,1696,1688,1688,1688,1688,1688,1688,1688,1680,1680,1680,1680,1671,1671,1671,1663,1663,1663,1663,1663,1655,1655,1655,1655,1655,1647,1647,1647,1639,1639,1639,1632,1632,1632,1624,1624,1624,1624,1624,1624,1624,1624,1624,1624,1624,1624,1624,1624,1624,1624,1632,1632,1632,1632,1639,1639,1647,1655,1655,1655,0,0,0,0,0,0,0,0,0,0,0,0,1609,1601,1601,1601,1601,1594,1594,1594,1594,1594,1594,1594,1594,1601,1601,1601,1609,1609,1609,1609,1609,1609,1609,1609,1609,1616,1616,1616,1616,1624,1624,1624,1624,1632,1632,1632,1632,1632,1632,1632,1639,1647,1647,1647,1647,1647,1647,1647,1647,1639,1639,1647,0,0,0,0,0,0,1034,1031,1031,1031,1028,1025,1025,1025,1022,1022,1022,1022,1025,1025,1025,1028,1028,1031,1031,1031,1031,1031,1031,1031,1038,0,0,0,0,0,1722,1722,1722,1722,1722,1722,1722,1722,1722,1731,1731,1731,1731,1722,1722,1722,1722,1722,1722,1705,1705,1696,1688,1680,1680,1680,1671,1671,1663,1663,1663,1663,1655,1647,1647,1639,1639,1632,1624,1624,1616,1609,1609,864,864,862,862,1586,1586,1579,1572,1572,1572,0,0,0,0,0,0,0,0,798,796,796,794,794,792,790,790,789,787,785,783,781,781,781,781,781,781,781,781,781,781,781,783,783,785,787,787,789,789,789,789,789,789,789,0,0,0,0,0,0,0,1392,1381,1381,1376,1370,1370,1370,1365,1359,1354,1354,1354,1354,1349,1349,1343,1338,1333,1328,1328,1322,1317,1317,1312,1312,1312,1312,1307,1307,1302,1302,1292,1288,1288,1288,1288,1283,1278,1278,1278,1273,1268,1268,1255,1255,1250,1250,1250,1250,1245,1241,1241,1241,1236,1236,1232,1232,1227,1223,1219,1219,1219,1214,1214,1210,1206,1202,1202,1197,1197,1197,1193,1189,1189,1185,1185,1181,1181,1177,1173,1173,1169,1169,1165,1165,1161,1153,1153,1153,1153,1153,1149,1149,1145,1145,1138,1138,1134,1134,1134,1130,1126,1123,1123,1123,1119,1119,1119,1115,1112,1112,1108,1105,1101,1101,1097,1094,1094,1090,1090,1090,1087,1087,1084,1080,1080,1077,1077,1073,1073,1073,1070,1067,1063,1063,1063,1063,1060,1054,1054,1054,1054,1050,1050,1047,1047,1044,1041,1041,1038,1034,1034,1034,1031,1028,1028,1028,1028,1025,1022,1022,1019,1016,1016,1013,1010,1007,1004,1004,1004,1001,1001,998,998,995,995,995,992,992,989,987,984,978,978,978,978,973,973,973,970,970,970,967,964,962,959,954,951,951,948,948,948,0,0,0,0,0,0,0,0,0,0,0,0,0,0,0,0,0,0,0,0,0,0,0,0,0,0,0,0,0,0
0,0,0,0,0,0,0,0,0,0,0,0,0,0,0,0,0,2040,2040,2028,2028,2016,2016,2016,2016,2005,1993,1993,1981,1981,1970,1970,1970,1959,1959,1959,1947,1947,1947,1947,1947,1936,1926,1926,1926,1915,1915,1915,1915,1915,1904,1904,1894,1894,1894,1883,1883,1883,1883,1883,1873,1873,1853,1853,1853,1853,1853,1853,1853,1853,1853,1843,1843,1843,1833,1833,1823,1823,1823,1823,1823,1823,1823,1823,1823,1813,1813,1804,1804,1804,1804,1804,1794,1794,1804,1804,1794,1794,1794,1785,1776,1776,1776,1766,1766,1766,1766,1766,1766,1766,1757,1757,1757,1748,1748,1748,1748,1757,1748,1748,1739,1739,1731,1731,1731,1731,1731,1731,1722,1722,1722,1722,1722,1722,1722,1722,1713,1713,1713,1705,1705,1705,1696,1696,1696,1696,1688,1688,1688,1688,1688,1688,1688,1688,1680,1680,1680,1671,1671,1671,1671,1663,1663,1663,1663,1663,1655,1655,1655,1655,1655,1647,1647,1639,1639,1639,1632,1632,1632,1624,1624,1624,1624,1624,1624,1624,1624,1624,1624,1624,1624,1624,1624,1624,1624,1632,1632,1632,1632,1639,1639,1647,1655,1655,1663,0,0,0,0,0,0,0,0,0,0,0,1624,1609,1609,1601,1601,1601,1594,1594,1594,1594,1594,1594,1601,1601,1601,1601,1601,1609,1609,1609,1609,1609,1609,1609,1609,1609,1616,1616,1616,1616,1624,1624,1624,1624,1632,1632,1632,1632,1632,1632,1632,1639,1647,1647,1647,1647,1647,1647,1647,1647,1639,1639,1647,0,0,0,1034,0,1034,1034,1034,1031,1031,1028,1025,1025,1025,1025,1022,1022,1022,1025,1025,1025,1028,1031,1031,1031,1034,1034,1034,1034,1034,1034,0,0,0,0,0,1713,1713,1722,1722,1722,1722,1722,1722,1731,1731,1731,1731,1731,1722,1722,1722,1722,1722,1722,1705,1705,1696,1688,1680,1680,1680,1671,1671,1671,1671,1671,1671,1663,1647,1647,1647,1639,1632,1624,1609,1609,1601,867,864,864,862,862,862,862,1586,1579,1579,0,0,0,0,0,0,0,0,0,798,796,796,796,794,794,792,790,789,787,785,783,781,781,781,781,781,781,781,781,781,781,781,783,783,785,787,789,789,789,789,789,789,789,789,0,0,0,0,0,0,0,1381,1381,1381,1376,1376,1370,1370,1370,1365,1354,1354,1354,1354,1354,1349,1343,1343,1333,1328,1328,1322,1322,1317,1312,1312,1312,1312,1307,1307,1302,1302,1292,1288,1288,1288,1288,1283,1278,1278,1278,1273,1268,1268,1264,1255,1255,1255,1250,1250,1245,1241,1241,1241,1236,1236,1232,1232,1227,1223,1219,1219,1219,1214,1214,1210,1210,1206,1202,1202,1197,1197,1193,1193,1185,1185,1181,1181,1181,1177,1173,1173,1169,1169,1165,1165,1161,1157,1157,1153,1153,1153,1149,1149,1149,1145,1141,1138,1134,1134,1130,1130,1126,1123,1123,1123,1119,1119,1119,1115,1112,1108,1108,1105,1105,1101,1101,1097,1094,1094,1090,1090,1090,1087,1084,1080,1080,1080,1077,1077,1073,1073,1070,1067,1063,1063,1063,1063,1057,1054,1054,1054,1054,1050,1050,1047,1047,1044,1041,1041,1038,1038,1038,1034,1034,1028,1028,1028,1028,1025,1025,1022,1019,1016,1016,1013,1010,1007,1007,1004,1004,1001,1001,1001,998,995,995,995,992,992,989,987,987,978,978,978,978,973,973,970,970,970,970,967,964,962,959,954,951,951,948,948,948,0,0,0,0,0,0,0,0,0,0,0,0,0,0,0,0,0,0,0,0,0,0,0,0,0,0,0,0,0,0
0,0,0,0,0,0,0,0,0,0,0,0,0,0,0,0,0,2040,2040,2028,2028,2028,2016,2016,2005,2005,1993,1993,1981,1981,1970,1970,1970,1959,1959,1947,1947,1936,1936,1936,1936,1936,1926,1926,1926,1926,1915,1915,1915,1915,1915,1904,1904,1894,1894,1883,1883,1883,1883,1883,1873,1873,1853,1853,1863,1853,1853,1863,1863,1863,1853,1853,1843,1843,1843,1833,1833,1833,1833,1833,1823,1823,1823,1813,1813,1813,1804,1804,1804,1804,1804,1804,1794,1794,1804,1804,1794,1794,1794,1785,1776,1776,1776,1776,1766,1766,1766,1766,1766,1766,1757,1757,1757,1748,1748,1748,1748,1757,1757,1748,1739,1739,1739,1739,1739,1739,1731,1731,1731,1731,1731,1722,1722,1722,1722,1722,1713,1713,1713,1705,1705,1705,1696,1696,1696,1696,1688,1688,1688,1688,1688,1688,1688,1688,1688,1688,1680,1680,1671,1671,1671,1663,1663,1663,1663,1655,1655,1655,1655,1655,1647,1647,1647,1639,1639,1639,1639,1639,1632,1632,1632,1624,1624,1624,1624,1624,1624,1624,1624,1624,1624,1624,1624,1624,1632,1632,1632,1632,1639,1639,1639,1647,1655,1655,0,0,0,0,0,0,0,0,0,0,0,1632,1624,1624,1616,1609,1601,1601,1601,1594,1594,1594,1594,1594,1594,1594,1601,1601,1601,1609,1609,1609,1609,1616,1616,1616,1616,1616,1616,1616,1616,1616,1624,1624,1624,1632,1632,1632,1632,1632,1639,1639,1639,1639,1647,1647,1647,1647,1647,1647,1647,1647,1639,1639,1647,0,0,0,1034,1034,1034,1034,1034,1031,1031,1028,1025,1025,1025,1025,1025,1022,1022,1025,1025,1025,1028,1031,1034,1034,1034,1034,1034,1034,1034,1034,0,0,0,0,0,1713,1713,1713,1713,1713,1722,1722,1722,1731,1731,1731,959,956,954,954,1722,1731,1731,1722,1713,1696,1688,1688,1680,1680,1680,1680,1680,906,903,903,1671,1663,1663,1647,1647,1639,1632,882,880,875,871,867,867,864,864,862,860,858,858,1586,0,0,0,0,0,0,0,0,0,798,798,798,796,796,796,794,792,790,789,787,785,783,781,781,781,781,781,781,781,781,781,781,783,783,783,785,787,789,789,789,789,789,789,789,789,0,0,0,0,0,0,0,1381,1381,1381,1376,1376,1370,1370,1370,1365,1365,1359,1354,1354,1349,1349,1349,1349,1333,1333,1328,1322,1322,1317,1317,1312,1312,1312,1307,1307,1302,1302,1292,1292,1292,1288,1288,1283,1278,1278,1273,1268,1268,1268,1264,1259,1255,1255,1250,1250,1245,1245,1245,1241,1241,1236,1232,1232,1227,1223,1219,1219,1219,1219,1214,1210,1210,1206,1202,1202,1197,1197,1193,1193,1185,1185,1181,1181,1181,1177,1177,1177,1173,1169,1169,1165,1165,1157,1157,1153,1153,1153,1149,1149,1149,1145,1141,1138,1134,1134,1130,1130,1126,1123,1123,1123,1123,1119,1119,1115,1112,1108,1108,1105,1105,1101,1101,1097,1094,1094,1090,1090,1090,1087,1084,1080,1080,1080,1077,1077,1077,1073,1070,1070,1067,1063,1063,1063,1057,1054,1054,1054,1054,1050,1050,1047,1047,1044,1041,1041,1038,1038,1038,1034,1034,1031,1028,1028,1028,1025,1025,1022,1019,1016,1016,1013,1010,1010,1007,1007,1004,1004,1001,1001,998,995,995,995,992,992,989,989,987,984,978,975,975,973,973,970,970,970,970,967,964,964,959,954,951,951,948,948,948,0,0,0,0,0,0,0,0,0,0,0,0,0,0,0,0,0,0,0,0,0,0,0,0,0,0,0,0,0,0
0,0,0,0,0,0,0,0,0,0,0,0,0,0,0,0,0,2040,2028,2028,2028,2016,2016,2016,2005,2005,1993,1993,1981,1981,1970,1970,1970,1959,1959,1947,1947,1936,1936,1936,1936,1936,1926,1926,1926,1926,1926,1926,1915,1915,1904,1904,1904,1894,1883,1883,1883,1883,1883,1883,1873,1873,1853,1853,1863,1853,1853,1863,1863,1863,1863,1853,1843,1843,1843,1843,1833,1833,1833,1833,1833,1823,1823,1813,1813,1813,1804,1804,1804,1804,1804,1804,1804,1804,1804,1804,1794,1794,1794,1794,1785,1776,1776,1776,1776,1766,1766,1766,1766,1766,1757,1757,1757,1757,1757,1757,1757,1757,1757,1748,1739,1739,1739,1739,1739,1739,1731,1731,1731,1731,1731,1731,1731,1722,1722,1722,1722,1722,1713,1705,1705,1705,1696,1696,1696,1696,1696,1688,1688,1688,1688,1688,1688,1688,1688,1688,1680,1680,1671,1671,1671,1663,1663,1663,1663,1655,1655,1655,1655,1655,1647,1647,1647,1647,1647,1639,1639,1639,1632,1632,1632,1632,1632,1624,1624,1624,1624,1624,1624,1624,1624,1624,1624,1624,1632,1632,1632,1632,1639,1639,1639,1647,1647,1655,1655,0,0,0,0,0,0,0,0,0,0,1632,1624,1616,1616,1609,1601,1601,1601,1594,1594,1594,1594,1594,1594,1594,1601,1601,1601,1609,1609,1609,1609,1616,1616,1616,1616,1616,1616,1616,1624,1624,1624,1624,1632,1632,1632,1639,1632,1632,1639,1639,1639,1647,1647,1647,1647,1647,1647,1647,1647,1647,1647,1647,1647,1647,0,1034,1034,1034,1034,1034,1034,1034,1034,1031,1028,1028,1025,1025,1025,1022,1022,1025,1025,1025,1031,1031,1034,1034,1034,1034,1034,1034,1038,1038,0,970,970,970,0,1713,1713,1713,1713,1713,1722,962,959,956,956,956,956,954,951,948,946,946,1731,1731,1696,1696,1688,1688,920,915,913,910,908,903,901,901,898,896,896,891,891,885,885,882,878,873,871,871,869,867,864,862,860,858,856,849,849,849,0,0,0,0,0,0,0,798,798,798,798,796,796,794,792,790,789,787,785,783,781,780,780,780,781,781,781,781,781,781,783,783,785,785,787,787,789,789,789,789,789,789,789,0,0,0,0,0,0,0,1387,1381,1381,1376,1376,1370,1370,1370,1365,1365,1359,1354,1354,1349,1349,1349,1343,1338,1333,1328,1328,1322,1317,1317,1317,1312,1312,1307,1307,1307,1302,1297,1292,1292,1288,1288,1283,1278,1278,1273,1268,1268,1268,1264,1259,1255,1255,1250,1250,1250,1245,1245,1241,1241,1236,1232,1232,1232,1227,1219,1219,1219,1219,1219,1214,1210,1206,1202,1202,1197,1197,1193,1193,1189,1185,1181,1181,1181,1177,1177,1177,1173,1169,1169,1165,1165,1161,1157,1153,1153,1153,1153,1149,1149,1145,1145,1138,1138,1134,1134,1130,1126,1123,1123,1123,1123,1119,1119,1115,1112,1108,1108,1105,1105,1105,1101,1097,1097,1094,1094,1090,1090,1087,1084,1080,1080,1080,1077,1077,1077,1073,1070,1070,1067,1067,1063,1063,1057,1057,1054,1054,1054,1050,1050,1050,1047,1044,1041,1041,1041,1038,1038,1038,1034,1031,1031,1028,1028,1025,1025,1022,1019,1016,1016,1013,1010,1010,1007,1007,1004,1004,1001,1001,998,998,995,995,992,992,989,989,987,981,978,975,975,973,973,970,970,970,970,967,967,964,959,959,956,956,948,948,948,0,0,0,0,0,0,0,0,0,0,0,0,0,0,0,0,0,0,0,0,0,0,0,0,0,0,0,0,0,0
0,0,0,0,0,0,0,0,0,0,0,0,0,0,0,0,2040,2040,2028,2028,2028,2016,2016,2016,2005,2005,1993,1993,1981,1981,1970,1970,1970,1959,1959,1959,1947,1936,1936,1936,1936,1936,1936,1936,1936,1936,1926,1926,1915,1915,1904,1904,1904,1894,1883,1883,1883,1883,1883,1883,1873,1873,1853,1853,1863,1853,1853,1863,1863,1863,1863,1853,1853,1843,1843,1843,1843,1843,1833,1833,1833,1823,1823,1823,1813,1813,1813,1804,1804,1804,1804,1804,1804,1804,1794,1794,1794,1794,1794,1794,1794,1794,1785,1776,1776,1776,1776,1766,1766,1766,1766,1766,1766,1766,1757,1757,1757,1757,1757,1757,1739,1739,1739,1739,1739,1739,1739,1739,1731,1731,1731,1731,1731,1722,1722,1722,1722,1722,1713,1705,1705,1705,1705,1696,1696,1696,1696,1688,1688,1688,1688,1688,1688,1688,1688,1688,1688,1680,1680,1680,1671,1671,1663,1663,1663,1663,1663,1655,1655,1655,1655,1655,1655,1647,1647,1639,1639,1639,1632,1632,1632,1632,1632,1624,1624,1624,1624,1624,1624,1624,1624,1624,1624,1624,1632,1632,1632,1632,1632,1639,1639,1647,1647,1655,1655,0,0,0,0,0,0,0,0,0,0,1813,1624,1616,1616,1609,1609,1601,1601,1594,1594,1594,1594,1594,1594,1594,1601,1601,1609,1609,1609,1609,1609,1616,1616,1616,1616,1616,1616,1616,1624,1624,1624,1624,1632,1632,1632,1639,1632,1632,1639,1639,1639,1639,1639,1639,1639,1639,1647,1647,1647,1647,1647,1647,1647,1655,0,1038,1038,1038,1038,1038,1034,1034,1034,1031,1028,1028,1025,1025,1025,1025,1025,1025,1025,1025,1028,1031,1031,1034,1034,1034,1034,1034,1038,1038,970,970,970,970,0,975,975,975,1722,967,964,962,959,956,956,956,956,951,951,946,943,938,935,933,933,928,928,923,920,915,913,910,908,903,901,901,898,896,896,889,887,887,885,882,878,873,871,869,869,867,864,862,860,858,851,849,849,847,847,0,0,0,0,0,0,798,798,798,796,796,794,792,790,789,789,787,785,783,781,780,780,780,781,781,781,781,781,783,783,783,785,785,787,787,789,789,789,789,789,789,789,0,0,0,0,0,0,0,1387,1387,1381,1376,1376,1370,1370,1370,1365,1365,1359,1359,1354,1354,1349,1349,1343,1338,1333,1333,1328,1322,1322,1317,1317,1317,1312,1312,1307,1307,1302,1302,1292,1292,1288,1288,1283,1278,1278,1273,1268,1268,1268,1264,1264,1259,1255,1255,1250,1250,1245,1245,1245,1241,1236,1232,1232,1232,1227,1223,1219,1219,1214,1214,1214,1210,1206,1202,1202,1197,1197,1197,1193,1193,1189,1185,1185,1181,1181,1177,1177,1173,1169,1169,1169,1165,1161,1157,1153,1153,1153,1153,1149,1149,1145,1145,1141,1138,1138,1134,1130,1130,1126,1123,1123,1123,1119,1119,1115,1115,1112,1108,1108,1105,1105,1105,1101,1097,1094,1094,1094,1090,1087,1084,1080,1080,1080,1080,1077,1077,1073,1073,1070,1067,1067,1063,1060,1060,1057,1054,1054,1054,1054,1050,1050,1047,1047,1044,1041,1041,1038,1038,1038,1034,1031,1031,1028,1028,1025,1025,1022,1019,1016,1016,1016,1010,1010,1007,1007,1004,1004,1001,1001,998,998,995,995,992,992,989,987,987,981,981,978,978,975,973,970,970,970,970,967,967,962,962,959,959,956,948,948,948,0,0,0,0,0,0,0,0,0,0,0,0,0,0,0,0,0,0,0,0,0,0,0,0,0,0,0,0,0,0
0,0,0,0,0,0,0,0,0,0,0,0,0,0,0,0,2040,2040,2028,2028,2028,2028,2028,2016,2016,2005,2005,2005,1993,1981,1981,1970,1970,1970,1970,1959,1959,1947,1947,1947,1947,1947,1947,1947,1936,1936,1926,1926,1926,1915,1915,1904,1904,1894,1894,1883,1883,1883,1883,1883,1873,1873,1853,1853,1863,1863,1863,1863,1873,1863,1863,1863,1853,1853,1853,1853,1843,1843,1843,1843,1833,1833,1833,1833,1813,1813,1813,1804,1804,1804,1804,1804,1804,1794,1794,1794,1794,1794,1794,1794,1794,1794,1785,1785,1785,1776,1776,1766,1766,1766,1766,1766,1766,1766,1757,1757,1757,1757,1757,1757,1748,1748,1739,1739,1748,1739,1739,1739,1731,1731,1731,1731,1731,1731,1731,1722,1722,1722,1713,1713,1705,1705,1705,1696,1696,1696,1696,1696,1688,1688,1688,1688,1688,1688,1688,1688,1688,1688,1680,1680,1671,1671,1663,1663,1663,1663,1663,1655,1655,1655,1655,1655,1655,1647,1647,1647,1647,1639,1639,1639,1639,1632,1632,1624,1624,1624,1624,1624,1624,1624,1624,1624,1624,1624,1632,1632,1632,1632,1632,1639,1639,1647,1647,1647,1655,0,0,0,0,0,0,0,0,0,1813,1813,1813,1616,1609,1609,1601,1601,1601,1594,1594,1594,1594,1594,1601,1601,1601,1601,1609,1609,1609,1609,1609,1616,1616,1616,1616,1616,1616,1616,1624,1624,1624,1624,1632,1632,1632,1632,1632,1632,1639,1639,1639,1639,1639,1639,1639,1639,1647,1647,1647,1647,1647,1647,1647,1647,0,1038,1038,1038,1038,1038,1038,1038,1034,1031,1028,1028,1025,1025,1025,1025,1025,1025,1025,1025,1028,1031,1031,1034,1034,1034,1034,1034,1038,1038,970,970,970,978,975,975,973,970,967,967,964,962,959,956,956,956,954,951,946,946,943,938,935,933,930,928,928,923,920,918,915,910,908,908,901,901,898,896,894,889,887,885,882,882,875,873,871,869,867,864,862,860,858,856,849,847,847,847,845,845,0,0,0,0,0,798,798,798,796,796,794,792,790,789,789,787,785,783,781,780,780,781,781,781,781,781,783,783,783,783,785,785,787,789,789,789,789,789,789,789,789,0,0,0,0,0,0,0,1392,1387,1381,1376,1376,1370,1370,1370,1370,1365,1359,1359,1354,1354,1349,1349,1343,1338,1333,1333,1328,1328,1322,1317,1317,1317,1312,1312,1312,1307,1302,1302,1292,1292,1288,1288,1283,1278,1278,1273,1268,1268,1268,1264,1264,1259,1255,1255,1250,1250,1250,1250,1245,1241,1236,1236,1232,1232,1227,1223,1219,1219,1214,1214,1214,1210,1206,1202,1202,1197,1197,1197,1193,1193,1189,1185,1185,1181,1181,1177,1177,1173,1169,1169,1169,1165,1161,1157,1157,1157,1153,1149,1149,1149,1149,1145,1141,1138,1138,1134,1134,1130,1126,1126,1123,1123,1123,1119,1115,1112,1112,1112,1108,1108,1105,1105,1101,1097,1097,1094,1094,1090,1090,1084,1084,1084,1080,1080,1077,1077,1073,1073,1070,1067,1067,1063,1060,1060,1057,1054,1054,1054,1054,1050,1050,1050,1047,1044,1041,1041,1041,1041,1038,1034,1031,1031,1028,1028,1025,1025,1022,1019,1016,1016,1016,1013,1013,1010,1007,1007,1004,1001,1001,1001,998,995,995,992,992,989,987,987,981,981,978,978,975,973,970,970,970,970,970,967,962,962,959,959,956,954,948,948,0,0,0,0,0,0,0,0,0,0,0,0,0,0,0,0,0,0,0,0,0,0,0,0,0,0,0,0,0,0
0,0,0,0,0,0,0,0,0,0,0,0,0,0,0,0,2040,2040,2028,2028,2028,2028,2028,2016,2016,2005,2005,2005,1993,1981,1981,1970,1970,1970,1970,1970,1959,1947,1947,1947,1947,1947,1947,1947,1936,1936,1926,1926,1926,1915,1915,1904,1904,1894,1894,1883,1883,1883,1883,1883,1873,1873,1853,1853,1863,1863,1863,1863,1873,1873,1863,1863,1863,1853,1853,1853,1843,1843,1843,1833,1833,1833,1833,1833,1833,1833,1813,1813,1804,1804,1804,1804,1794,1794,1794,1794,1794,1794,1794,1794,1794,1794,1794,1785,1785,1776,1776,1766,1766,1766,1766,1766,1766,1766,1757,1757,1757,1757,1757,1757,1748,1748,1748,1748,1748,1748,1748,1739,1739,1731,1731,1731,1731,1731,1731,1722,1722,1722,1722,1713,1713,1705,1705,1696,1696,1696,1696,1696,1688,1688,1696,1688,1688,1688,1688,1688,1688,1688,1688,1688,1680,1671,1671,1663,1663,1663,1663,1655,1655,1655,1655,1655,1655,1647,1647,1647,1647,1647,1639,1639,1639,1632,1632,1632,1632,1632,1632,1632,1632,1632,1632,1624,1624,1632,1632,1632,1632,1632,1639,1647,1647,1647,1647,1647,1655,0,0,0,0,0,0,0,0,1813,1813,1804,1804,1813,1609,1609,1601,1601,1601,1601,1601,1601,1601,1601,1601,1601,1601,1601,1609,1609,1609,1609,1616,1616,1616,1616,1616,1616,1616,1616,1624,1624,1624,1624,1632,1632,1632,1632,1632,1639,1639,1639,1639,1639,1639,1639,1639,1639,1647,1647,1647,1647,1647,1647,1647,1647,1647,1041,1041,1041,1038,1038,1038,1038,1034,1031,1031,1028,1028,1025,1025,1025,1025,1028,1025,1025,1031,1031,1031,1034,1034,1034,1034,1034,1034,989,975,975,975,978,975,975,973,967,967,967,964,962,959,956,956,956,954,951,946,943,940,938,935,933,930,928,925,923,920,915,913,910,908,908,906,903,898,896,894,889,887,885,880,878,875,873,871,869,867,864,862,860,858,851,849,845,843,843,839,839,837,837,0,0,0,798,798,798,796,796,794,792,790,789,789,787,785,783,781,781,781,781,781,781,781,783,783,783,783,785,785,787,789,789,789,789,789,789,789,789,789,0,0,0,0,0,0,0,1392,1392,1381,1376,1376,1376,1370,1370,1370,1365,1365,1359,1354,1354,1349,1349,1343,1338,1333,1333,1328,1328,1322,1322,1322,1317,1317,1312,1312,1307,1302,1302,1297,1292,1292,1288,1288,1283,1278,1273,1268,1268,1268,1268,1264,1259,1259,1255,1255,1250,1250,1250,1245,1241,1236,1236,1232,1232,1227,1223,1219,1219,1219,1214,1214,1214,1210,1206,1202,1202,1197,1197,1197,1193,1189,1189,1185,1181,1181,1181,1177,1177,1169,1169,1169,1165,1165,1161,1157,1157,1153,1149,1149,1149,1149,1141,1141,1138,1138,1134,1134,1130,1130,1126,1123,1123,1123,1119,1115,1112,1112,1112,1108,1108,1105,1105,1101,1097,1097,1097,1094,1094,1090,1090,1084,1084,1080,1080,1080,1077,1073,1070,1070,1067,1067,1063,1063,1060,1057,1054,1054,1054,1054,1050,1050,1050,1047,1044,1041,1041,1041,1041,1038,1034,1031,1031,1028,1028,1025,1025,1022,1019,1016,1016,1016,1013,1013,1010,1010,1007,1004,1004,1001,1001,998,995,995,992,992,992,989,987,981,981,978,978,975,975,973,973,970,970,970,967,962,962,959,956,956,954,948,948,0,0,0,0,0,0,0,0,0,0,0,0,0,0,0,0,0,0,0,0,0,0,0,0,0,0,0,0,0,0
0,0,0,0,0,0,0,0,0,0,0,0,0,0,0,0,2028,2028,2028,2028,2016,2016,2016,2016,2016,2005,2005,1993,1993,1981,1981,1970,1970,1970,1970,1970,1959,1959,1959,1947,1947,1947,1947,1936,1936,1936,1926,1926,1926,1915,1915,1904,1904,1894,1894,1894,1894,1883,1883,1883,1873,1873,1873,1863,1863,1863,1863,1863,1873,1873,1863,1863,1863,1853,1843,1843,1843,1843,1843,1833,1833,1833,1823,1823,1823,1823,1813,1813,1804,1804,1804,1804,1794,1794,1794,1794,1794,1794,1794,1794,1794,1794,1794,1794,1785,1785,1776,1776,1766,1766,1766,1766,1766,1766,1757,1757,1757,1757,1757,1757,1757,1757,1757,1748,1748,1748,1748,1748,1739,1731,1731,1731,1731,1731,1731,1722,1722,1722,1722,1713,1713,1713,1713,1713,1696,1696,1696,1696,1696,1696,1696,1696,1696,1696,1688,1688,1688,1688,1688,1688,1680,1680,1671,1671,1671,1663,1663,1663,1663,1655,1655,1655,1655,1655,1655,1655,1655,1647,1647,1639,1639,1632,1632,1632,1632,1632,1632,1632,1632,1632,1632,1632,1632,1632,1632,1632,1632,1632,1639,1647,1647,1647,1647,1655,0,0,0,0,0,0,0,0,1813,1813,1813,1804,1804,1804,1601,1601,1609,1609,1601,1601,1601,1601,1601,1601,1601,1601,1601,1601,1601,1601,1609,1609,1616,1616,1616,1616,1616,1616,1616,1616,1624,1624,1624,1624,1632,1632,1632,1639,1639,1639,1639,1639,1639,1639,1639,1639,1639,1639,1647,1647,1647,1647,1647,1647,1647,1647,1647,0,1041,1041,1041,1038,1038,1038,1034,1031,1031,1028,1028,1025,1025,1025,1025,1025,1025,1025,1028,1028,1031,1034,1034,1034,1034,1034,1034,989,989,984,981,978,978,973,970,967,967,967,964,962,959,956,956,956,954,951,946,943,940,938,935,933,930,928,925,923,920,915,913,910,908,906,903,901,898,896,894,889,887,885,880,878,875,873,871,869,867,862,860,860,856,851,847,845,843,841,837,837,835,833,833,833,833,800,800,798,798,796,794,792,792,790,789,787,785,783,781,781,781,781,781,781,781,783,783,783,785,785,787,787,789,789,789,789,790,790,790,789,789,0,0,0,0,0,0,1398,1392,1392,1381,1376,1376,1376,1370,1370,1370,1370,1365,1359,1354,1354,1349,1349,1343,1343,1338,1333,1333,1328,1322,1322,1322,1317,1317,1312,1312,1307,1302,1302,1297,1292,1292,1292,1288,1283,1278,1278,1268,1268,1268,1268,1264,1259,1259,1255,1255,1250,1250,1250,1245,1241,1236,1236,1232,1232,1227,1223,1219,1219,1219,1219,1214,1214,1210,1206,1202,1202,1197,1197,1197,1193,1189,1189,1185,1185,1181,1181,1177,1177,1173,1169,1169,1165,1165,1161,1157,1153,1153,1149,1149,1149,1145,1141,1141,1138,1138,1134,1134,1134,1130,1126,1126,1123,1123,1119,1115,1115,1112,1112,1108,1108,1105,1105,1101,1101,1097,1097,1094,1094,1094,1090,1087,1084,1084,1080,1080,1077,1073,1070,1070,1067,1067,1063,1063,1063,1060,1057,1057,1054,1054,1050,1050,1050,1047,1044,1041,1041,1041,1041,1038,1038,1034,1031,1028,1028,1025,1025,1022,1019,1019,1016,1016,1016,1013,1013,1010,1010,1007,1004,1004,1001,998,995,995,992,992,989,989,987,984,981,978,978,978,975,973,973,970,970,970,967,962,959,959,956,956,954,951,951,0,0,0,0,0,0,0,0,0,0,0,0,0,0,0,0,0,0,0,0,0,0,0,0,0,0,0,0,0,0
0,0,0,0,0,0,0,0,0,0,0,0,0,0,0,0,2028,2028,2028,2028,2016,2016,2016,2016,2005,2005,1993,1993,1993,1981,1981,1970,1970,1970,1970,1970,1970,1959,1959,1947,1947,1947,1947,1936,1936,1936,1926,1926,1915,1915,1915,1904,1904,1894,1894,1894,1894,1883,1883,1883,1873,1873,1873,1863,1863,1863,1873,1873,1873,1863,1863,1863,1863,1853,1843,1843,1843,1843,1843,1833,1833,1833,1823,1823,1823,1823,1813,1813,1804,1804,1804,1804,1794,1794,1794,1794,1794,1794,1794,1794,1794,1794,1794,1794,1785,1785,1785,1776,1776,1766,1766,1766,1766,1766,1766,1766,1757,1757,1757,1757,1757,1757,1757,1757,1757,1757,1748,1748,1739,1731,1731,1731,1731,1731,1731,1731,1722,1722,1722,1722,1722,1722,1713,1713,1696,1696,1696,1696,1696,1696,1696,1696,1696,1696,1696,1688,1688,1688,1688,1688,1680,1680,1671,1671,1671,1671,1663,1663,1663,1655,1655,1655,1655,1655,1647,1647,1655,1647,1647,1647,1647,1639,1639,1632,1632,1632,1632,1632,1632,1632,1632,1632,1632,1632,1632,1632,1632,1632,1639,1647,1647,1647,1647,1647,0,0,0,0,0,0,1813,1813,1813,1813,1813,1804,1804,1804,1601,1601,1601,1601,1601,1601,1601,1601,1601,1601,1601,1601,1601,1601,1601,1601,1609,1609,1609,1616,1616,1616,1616,1616,1616,1616,1616,1624,1624,1632,1632,1632,1632,1639,1639,1639,1639,1639,1639,1639,1639,1639,1639,1639,1647,1647,1655,1655,1655,1655,1647,1647,1647,0,1044,1044,1041,1041,1038,1038,1034,1034,1031,1028,1028,1025,1025,1025,1025,1025,1025,1025,1028,1028,1028,1031,1031,1034,1034,989,989,989,987,987,984,981,975,973,970,967,967,964,964,962,959,956,956,956,954,948,946,943,940,938,935,930,930,928,925,923,920,918,913,910,908,906,898,898,898,894,891,889,887,885,880,880,878,873,871,869,864,862,860,858,856,851,847,845,841,839,837,835,835,833,829,827,827,800,800,798,798,796,794,792,790,789,789,787,785,783,781,781,781,781,781,783,783,783,783,785,785,785,787,787,789,789,790,790,790,790,790,790,0,0,0,0,0,0,1404,1398,1398,1392,1381,1376,1376,1376,1370,1370,1370,1370,1365,1365,1354,1354,1354,1349,1349,1343,1338,1338,1333,1328,1328,1322,1322,1322,1317,1312,1312,1307,1302,1302,1297,1292,1292,1292,1288,1288,1283,1278,1278,1268,1268,1268,1264,1264,1259,1255,1255,1255,1250,1250,1245,1241,1241,1236,1236,1232,1227,1223,1223,1219,1219,1219,1214,1214,1210,1206,1202,1202,1202,1197,1197,1193,1189,1189,1185,1185,1181,1181,1181,1177,1173,1169,1169,1165,1165,1161,1157,1153,1153,1149,1149,1149,1145,1145,1141,1141,1138,1138,1134,1134,1130,1126,1126,1123,1123,1119,1115,1115,1112,1112,1108,1108,1105,1105,1101,1101,1101,1097,1094,1094,1094,1090,1087,1087,1084,1084,1080,1077,1077,1073,1070,1070,1067,1067,1063,1063,1063,1060,1060,1057,1054,1054,1050,1050,1047,1044,1041,1041,1041,1038,1038,1038,1034,1031,1028,1028,1025,1025,1022,1019,1019,1016,1016,1016,1013,1013,1010,1010,1007,1004,1004,1001,998,998,995,992,992,989,989,987,984,981,978,978,978,975,973,973,970,970,970,967,962,959,959,956,956,954,951,951,0,0,0,0,0,0,0,0,0,0,0,0,0,0,0,0,0,0,0,0,0,0,0,0,0,0,0,0,0,0
0,0,0,0,0,0,0,0,0,0,0,0,0,0,0,0,2040,2040,2040,2040,2028,2028,2016,2016,2005,2005,1993,1993,1993,1981,1981,1970,1970,1970,1970,1970,1970,1959,1959,1959,1959,1947,1947,1936,1926,1926,1926,1915,1915,1904,1904,1904,1904,1904,1894,1894,1894,1883,1883,1883,1873,1873,1873,1873,1863,1863,1873,1873,1873,1863,1863,1863,1853,1853,1853,1853,1853,1843,1843,1833,1833,1833,1833,1833,1823,1823,1823,1813,1813,1804,1804,1804,1804,1804,1794,1794,1794,1794,1794,1794,1794,1794,1794,1794,1794,1785,1785,1785,1776,1776,1776,1766,1766,1766,1766,1766,1757,1757,1757,1757,1757,1757,1757,1757,1757,1757,1748,1748,1739,1739,1731,1731,1731,1731,1731,1731,1731,1722,1722,1722,1722,1722,1713,1713,1696,1696,1696,1696,1696,1696,1696,1696,1696,1696,1696,1696,1688,1688,1688,1688,1688,1680,1680,1671,1671,1671,1671,1663,1663,1663,1663,1663,1655,1655,1647,1647,1655,1655,1655,1647,1647,1647,1639,1632,1632,1632,1632,1632,1632,1632,1632,1632,1632,1632,1632,1632,1632,1639,1639,1647,1647,1647,1647,1647,0,0,0,0,0,1794,1794,1804,1813,1804,1804,1804,1804,1804,1594,1594,1601,1601,1601,1601,1601,1601,1601,1601,1601,1601,1601,1601,1601,1609,1609,1609,1609,1616,1616,1616,1616,1616,1616,1616,1616,1624,1624,1632,1632,1632,1632,1632,1639,1639,1639,1639,1639,1639,1639,1639,1639,1639,1647,1655,1655,1655,1655,1655,1639,1639,1639,0,1044,1044,1041,1041,1038,1038,1034,1034,1031,1031,1028,1025,1025,1025,1025,1025,1025,1025,1025,1025,1028,1025,1025,998,995,989,989,989,987,987,987,981,975,973,970,967,967,964,964,962,959,956,956,956,954,948,946,943,940,938,935,930,930,928,925,923,920,918,913,910,908,906,898,898,898,894,891,889,887,885,882,882,878,873,871,867,864,862,860,858,856,851,849,843,839,837,837,835,835,833,827,827,825,825,802,800,798,796,794,792,790,789,789,787,785,783,781,781,781,781,781,783,783,783,783,785,785,787,789,789,789,789,790,790,790,790,790,0,0,0,0,0,0,0,1404,1398,1398,1392,1392,1381,1376,1376,1376,1370,1370,1370,1370,1365,1359,1354,1354,1349,1349,1343,1338,1338,1333,1333,1328,1322,1322,1322,1317,1312,1312,1307,1302,1297,1297,1292,1292,1292,1288,1288,1283,1283,1278,1273,1268,1268,1268,1264,1259,1259,1255,1255,1250,1250,1245,1245,1241,1236,1236,1232,1227,1227,1223,1219,1219,1219,1214,1214,1210,1206,1206,1202,1202,1202,1197,1193,1189,1189,1189,1185,1181,1181,1181,1177,1173,1169,1169,1165,1165,1161,1157,1153,1153,1149,1149,1149,1145,1145,1141,1141,1141,1138,1134,1134,1134,1130,1126,1123,1123,1119,1115,1115,1115,1112,1108,1108,1108,1105,1105,1101,1101,1097,1094,1094,1094,1090,1087,1087,1087,1084,1080,1080,1077,1077,1073,1070,1067,1067,1067,1063,1063,1060,1060,1057,1054,1054,1054,1050,1047,1044,1041,1041,1041,1038,1038,1038,1034,1031,1028,1028,1025,1025,1022,1022,1019,1016,1016,1016,1013,1013,1013,1010,1007,1004,1004,1001,1001,998,995,995,992,992,989,987,984,984,978,978,978,975,973,973,970,970,970,967,962,962,959,956,956,954,951,951,0,0,0,0,0,0,0,0,0,0,0,0,0,0,0,0,0,0,0,0,0,0,0,0,0,0,0,0,0,0
0,0,0,0,0,0,0,0,0,0,0,0,0,0,0,0,2040,2040,2040,2040,2028,2028,2016,2016,2005,2005,2005,2005,1993,1981,1981,1970,1970,1970,1970,1970,1970,1959,1959,1959,1959,1947,1947,1936,1926,1926,1926,1915,1915,1904,1904,1894,1894,1894,1894,1894,1894,1883,1883,1883,1883,1883,1883,1873,1873,1873,1873,1873,1863,1863,1863,1863,1853,1853,1853,1853,1853,1843,1843,1843,1843,1833,1833,1833,1833,1823,1823,1813,1813,1804,1804,1804,1804,1804,1804,1804,1804,1804,1794,1794,1794,1794,1794,1794,1794,1794,1785,1785,1794,1776,1776,1776,1766,1766,1766,1766,1766,1757,1757,1757,1757,1757,1757,1757,1757,1757,1748,1748,1739,1739,1739,1731,1731,1731,1731,1731,1731,1731,1722,1722,1722,1722,1722,1713,1713,1696,1696,1696,1696,1696,1696,1696,1696,1696,1696,1696,1688,1688,1688,1688,1688,1680,1680,1671,1671,1671,1671,1671,1671,1663,1663,1663,1663,1655,1655,1655,1655,1655,1655,1647,1647,1647,1655,1639,1639,1639,1632,1632,1632,1632,1632,1632,1632,1632,1632,1632,1632,1639,1639,1655,1655,1655,1655,1655,0,0,1766,0,0,1776,1776,1804,1804,1804,1804,1804,1804,1804,1594,1594,1601,1601,1601,1609,1601,1601,1601,1601,1601,1601,1601,1601,1609,1609,1609,1609,1609,1616,1616,1616,1616,1616,1616,1616,1624,1624,1632,1632,1632,1632,1632,1632,1632,1639,1639,1639,1639,1639,1639,1639,1639,1639,1655,1655,1655,1655,1655,1655,1639,1639,1639,1044,1044,1044,1041,1041,1041,1038,1034,1034,1034,1031,1028,1028,1025,1025,1025,1025,1025,1025,1025,1025,1022,1013,1004,998,995,989,989,989,987,987,987,981,975,973,970,967,967,964,964,962,959,956,956,956,954,948,946,943,940,938,935,933,930,925,925,923,920,918,913,910,908,906,901,898,898,894,891,889,887,885,882,882,878,873,871,867,864,862,860,858,856,851,847,841,839,837,835,835,833,829,827,825,819,819,803,800,798,796,794,792,790,789,789,787,785,783,781,781,781,781,781,783,783,785,785,785,787,787,789,789,789,790,790,790,790,790,790,0,0,0,0,0,0,0,1404,1398,1398,1392,1392,1381,1381,1376,1376,1376,1370,1370,1370,1365,1359,1354,1354,1349,1349,1349,1338,1338,1333,1333,1328,1328,1322,1322,1317,1312,1312,1307,1302,1297,1297,1292,1292,1292,1288,1288,1288,1283,1278,1273,1273,1268,1268,1264,1264,1264,1259,1255,1250,1250,1245,1245,1241,1236,1236,1232,1227,1227,1223,1219,1219,1219,1214,1214,1214,1206,1206,1202,1202,1202,1197,1193,1193,1189,1189,1185,1181,1181,1181,1177,1173,1173,1169,1165,1165,1161,1161,1157,1153,1153,1153,1149,1145,1145,1141,1141,1141,1138,1138,1134,1134,1130,1126,1123,1123,1119,1119,1119,1115,1112,1108,1108,1108,1105,1105,1101,1101,1097,1097,1094,1094,1090,1090,1087,1087,1084,1080,1080,1077,1077,1073,1070,1070,1067,1067,1063,1063,1063,1060,1057,1057,1054,1054,1050,1050,1047,1044,1041,1041,1038,1038,1038,1034,1031,1028,1028,1025,1025,1022,1022,1019,1016,1016,1016,1013,1013,1013,1010,1010,1004,1004,1001,1001,998,995,995,992,989,989,989,987,984,981,981,978,978,975,973,973,970,970,967,967,962,959,956,956,954,954,954,0,0,0,0,0,0,0,0,0,0,0,0,0,0,0,0,0,0,0,0,0,0,0,0,0,0,0,0,0,0
0,0,0,0,0,0,0,0,0,0,0,0,0,0,0,0,0,2065,2053,2040,2028,2028,2016,2016,2016,2005,2005,2005,1993,1993,1981,1981,1970,1970,1970,1970,1970,1970,1970,1959,1947,1947,1936,1936,1926,1926,1926,1915,1915,1904,1904,1894,1894,1894,1894,1894,1894,1883,1883,1883,1883,1883,1883,1883,1883,1873,1873,1873,1863,1863,1863,1863,1853,1853,1853,1853,1853,1843,1843,1843,1833,1833,1833,1833,1833,1833,1823,1823,1813,1813,1804,1804,1804,1804,1804,1804,1804,1804,1804,1804,1804,1804,1794,1794,1794,1794,1785,1785,1794,1794,1776,1776,1766,1766,1766,1766,1766,1757,1757,1766,1766,1766,1757,1757,1757,1757,1748,1748,1739,1739,1739,1739,1739,1739,1731,1731,1731,1731,1722,1722,1722,1722,1722,1722,1713,1705,1696,1696,1696,1696,1696,1696,1696,1696,1696,1696,1688,1688,1688,1688,1688,1680,1680,1680,1671,1671,1671,1671,1671,1663,1663,1663,1663,1655,1655,1655,1655,1655,1655,1655,1655,1655,1647,1639,1639,1639,1639,1632,1632,1632,1632,1632,1632,1632,1632,1632,1632,1639,1655,1655,1655,1655,1655,1655,1671,1766,1766,1766,1766,1776,1776,1785,1804,1804,1804,1804,1804,1804,1624,1609,1609,1609,1609,1609,1601,1601,1609,1609,1601,1601,1601,1601,1609,1609,1609,1609,1609,1616,1616,1616,1616,1616,1616,1616,1624,1624,1632,1632,1632,1632,1632,1632,1632,1639,1639,1639,1639,1639,1639,1647,1647,1647,1655,1655,1655,1655,1655,1655,1647,1647,1044,1044,1044,1044,1041,1041,1041,1038,1038,1034,1034,1031,1028,1028,1025,1025,1025,1025,1022,1022,1022,1019,1010,1007,1001,998,995,992,989,989,989,987,987,978,975,973,970,967,967,964,964,962,959,956,956,956,954,951,948,946,940,938,935,933,930,925,925,923,920,918,913,910,908,903,901,898,898,894,891,889,887,885,882,882,878,873,871,867,864,862,858,858,856,851,847,841,839,837,835,835,833,829,827,825,819,819,813,803,798,796,794,792,790,789,789,787,785,783,783,783,783,783,783,783,785,785,785,787,787,789,789,789,790,790,790,790,792,792,792,0,0,0,0,0,0,1410,1404,1398,1398,1392,1392,1387,1381,1381,1376,1376,1370,1370,1370,1365,1365,1354,1354,1349,1349,1349,1343,1338,1333,1333,1328,1328,1322,1322,1317,1312,1312,1307,1302,1297,1297,1292,1292,1292,1288,1288,1288,1283,1278,1278,1273,1268,1268,1264,1264,1259,1259,1255,1255,1250,1250,1245,1245,1241,1236,1236,1232,1227,1227,1223,1219,1219,1214,1214,1214,1210,1206,1206,1202,1202,1197,1197,1193,1193,1189,1185,1185,1181,1181,1177,1173,1169,1169,1165,1165,1161,1161,1157,1153,1153,1153,1149,1145,1145,1141,1141,1141,1138,1138,1134,1134,1130,1126,1126,1123,1119,1119,1119,1115,1112,1108,1108,1108,1105,1105,1101,1101,1097,1097,1094,1094,1090,1090,1087,1087,1087,1084,1080,1077,1077,1073,1070,1070,1067,1067,1063,1063,1063,1060,1057,1057,1054,1054,1050,1050,1047,1044,1041,1041,1038,1038,1038,1034,1031,1028,1028,1028,1025,1025,1022,1022,1019,1016,1016,1016,1013,1013,1010,1010,1007,1004,1004,1001,1001,995,995,992,989,989,989,987,984,981,981,978,978,975,973,973,970,970,967,967,962,959,959,956,956,954,954,0,0,0,0,0,0,0,0,0,0,0,0,0,0,0,0,0,0,0,0,0,0,0,0,0,0,0,0,0,0
0,0,0,0,0,0,0,0,0,0,0,0,0,0,0,0,0,2065,2065,2053,2040,2028,2016,2016,2005,2005,1993,1993,1993,1993,1981,1981,1981,1970,1970,1970,1970,1970,1970,1959,1947,1947,1936,1936,1926,1926,1926,1915,1915,1915,1915,1915,1915,1904,1904,1904,1904,1904,1894,1894,1883,1883,1883,1883,1883,1873,1873,1873,1873,1873,1873,1863,1853,1853,1853,1843,1843,1843,1843,1843,1833,1833,1843,1833,1833,1833,1823,1823,1823,1813,1813,1813,1804,1804,1813,1804,1804,1804,1804,1804,1804,1804,1794,1794,1794,1794,1785,1785,1794,1794,1794,1785,1776,1776,1766,1766,1766,1766,1766,1766,1766,1766,1766,1757,1757,1757,1748,1748,1739,1739,1739,1739,1739,1739,1731,1731,1731,1731,1722,1722,1722,1722,1722,1722,1713,1705,1705,1705,1696,1696,1696,1696,1696,1696,1696,1696,1696,1696,1688,1688,1688,1688,1680,1680,1671,1671,1671,1671,1671,1663,1663,1663,1663,1655,1655,1655,1655,1655,1655,1655,1655,1655,1647,1647,1639,1639,1639,1632,1632,1632,1632,1632,1632,1632,1632,1632,1639,1639,1655,1655,1655,1655,1655,1663,1671,1766,1757,1757,1766,1766,1757,1757,1776,1794,1647,1647,1647,1647,1624,1616,1609,1609,1609,1609,1609,1609,1609,1609,1601,1601,1609,1609,1609,1609,1609,1609,1609,1616,1616,1616,1616,1616,1616,1624,1624,1624,1632,1632,1632,1632,1632,1632,1639,1639,1639,1639,1639,1639,1647,1647,1647,1655,1655,1655,1655,1655,1655,1655,1647,1647,1044,1044,1044,1041,1041,1041,1041,1038,1038,1034,1034,1031,1028,1028,1025,1025,1025,1025,1022,1016,1013,1013,1010,1007,1001,995,995,992,989,989,989,987,984,978,975,975,970,967,967,967,964,962,959,956,956,956,954,951,948,946,940,938,935,933,930,928,925,923,920,918,915,910,908,903,901,898,898,896,894,889,887,885,882,882,878,875,871,867,864,862,858,858,856,851,849,843,839,837,835,835,833,829,827,823,821,819,813,802,798,796,794,792,790,790,789,787,785,783,783,783,783,783,783,783,785,785,787,787,789,789,790,790,790,790,792,792,792,792,0,0,0,0,0,0,0,1410,1404,1404,1398,1392,1392,1387,1381,1381,1376,1376,1370,1370,1370,1365,1359,1359,1354,1349,1349,1349,1343,1338,1333,1333,1328,1328,1328,1322,1317,1312,1312,1307,1307,1302,1297,1292,1292,1292,1288,1288,1283,1283,1283,1278,1273,1268,1268,1264,1264,1259,1259,1255,1255,1255,1250,1245,1245,1241,1241,1241,1232,1227,1227,1223,1219,1219,1214,1214,1210,1210,1206,1206,1202,1202,1197,1197,1193,1193,1189,1185,1185,1181,1181,1177,1173,1169,1169,1165,1165,1161,1161,1157,1153,1153,1153,1149,1145,1145,1145,1141,1141,1138,1138,1138,1134,1130,1126,1126,1123,1119,1119,1119,1115,1112,1108,1108,1108,1105,1105,1105,1101,1101,1097,1097,1094,1094,1090,1087,1087,1087,1084,1080,1080,1077,1073,1073,1070,1070,1067,1067,1067,1063,1060,1060,1057,1057,1054,1050,1050,1047,1044,1041,1041,1038,1038,1038,1034,1031,1028,1028,1028,1025,1025,1025,1022,1019,1016,1016,1016,1013,1013,1010,1010,1007,1004,1004,1001,1001,998,995,992,992,989,989,987,984,981,981,978,978,975,973,973,970,970,967,967,962,962,959,956,956,954,954,0,0,0,0,0,0,0,0,0,0,0,0,0,0,0,0,0,0,0,0,0,0,0,0,0,0,0,0,0,0
0,0,0,0,0,0,0,0,0,0,0,0,0,0,0,0,0,2065,2053,2053,2040,2028,2016,2016,2005,2005,1993,1993,1993,1993,1981,1981,1981,1981,1981,1970,1970,1970,1959,1959,1947,1947,1936,1936,1926,1926,1926,1915,1915,1915,1915,1915,1915,1915,1904,1904,1915,1904,1894,1894,1883,1883,1883,1883,1883,1873,1873,1873,1873,1873,1873,1863,1863,1853,1853,1843,1843,1843,1843,1843,1843,1843,1843,1833,1833,1833,1833,1823,1823,1823,1823,1823,1813,1813,1813,1804,1804,1804,1804,1804,1804,1804,1794,1794,1794,1794,1785,1785,1794,1794,1794,1785,1776,1776,1766,1766,1766,1766,1766,1766,1766,1766,1766,1757,1757,1757,1757,1748,1748,1748,1748,1739,1739,1739,1731,1731,1731,1731,1731,1731,1722,1722,1722,1722,1713,1713,1705,1705,1696,1696,1696,1696,1696,1696,1696,1696,1696,1688,1688,1688,1688,1688,1688,1680,1680,1680,1671,1671,1663,1663,1663,1663,1663,1655,1655,1655,1655,1655,1655,1655,1655,1655,1655,1647,1647,1639,1639,1632,1632,1632,1632,1632,1632,1632,1632,1632,1639,1639,1655,1655,1655,1655,1655,1663,1663,1766,1757,1757,1757,1757,1748,1739,1688,1680,1647,1647,1647,1647,1639,1624,1616,1616,1609,1609,1609,1609,1609,1609,1609,1609,1609,1609,1609,1609,1616,1616,1616,1616,1616,1616,1616,1616,1616,1624,1624,1632,1632,1632,1632,1639,1639,1639,1639,1639,1647,1647,1647,1647,1647,1655,1655,1655,1655,1655,1655,1655,1655,1655,1647,1647,1047,1047,1044,1041,1041,1041,1041,1038,1038,1034,1034,1031,1028,1028,1025,1025,1022,1022,1019,1016,1013,1013,1010,1007,1001,995,995,992,989,989,989,987,984,978,975,975,973,970,967,967,964,962,959,956,956,956,954,951,948,946,940,938,935,933,930,928,925,923,920,918,915,910,908,903,901,898,898,896,894,889,889,887,882,882,875,873,871,867,864,862,860,858,856,851,849,843,839,837,835,835,829,827,825,823,821,817,813,802,798,796,794,792,790,790,789,787,785,783,783,783,783,783,783,783,785,787,787,789,789,790,790,790,790,792,792,792,792,792,0,0,0,0,0,0,0,1410,1404,1404,1398,1398,1392,1392,1381,1381,1376,1376,1376,1370,1370,1370,1359,1359,1354,1349,1349,1349,1343,1338,1338,1333,1333,1333,1328,1328,1317,1312,1312,1307,1307,1307,1297,1292,1292,1292,1288,1288,1283,1283,1283,1278,1273,1268,1268,1264,1264,1259,1259,1255,1255,1255,1250,1250,1250,1245,1241,1241,1236,1232,1227,1223,1219,1219,1214,1214,1210,1210,1206,1206,1202,1202,1202,1197,1197,1193,1193,1189,1185,1185,1181,1177,1173,1169,1169,1165,1165,1165,1161,1157,1153,1153,1153,1149,1145,1145,1145,1141,1141,1138,1138,1138,1134,1130,1126,1126,1123,1119,1119,1119,1115,1112,1108,1108,1108,1105,1105,1105,1105,1101,1097,1094,1094,1094,1090,1087,1087,1087,1084,1080,1080,1077,1077,1073,1070,1070,1067,1067,1067,1063,1063,1060,1057,1057,1054,1050,1050,1047,1044,1041,1041,1041,1038,1038,1034,1034,1028,1028,1028,1025,1025,1025,1025,1022,1019,1016,1016,1013,1013,1010,1010,1004,1004,1004,1001,1001,998,995,992,992,989,989,987,987,984,981,978,978,978,973,973,973,970,970,967,967,962,959,959,956,954,954,0,0,0,0,0,0,0,0,0,0,0,0,0,0,0,0,0,0,0,0,0,0,0,0,0,0,0,0,0,0
0,0,0,0,0,0,0,0,0,0,0,0,0,0,0,0,0,2065,2053,2053,2040,2028,2016,2016,2016,2005,2005,2005,1993,1993,1981,1981,1981,1970,1970,1970,1970,1959,1959,1959,1959,1947,1947,1936,1926,1926,1926,1926,1915,1915,1915,1915,1915,1915,1915,1915,1915,1915,1904,1904,1894,1894,1883,1883,1883,1873,1873,1873,1873,1873,1873,1873,1873,1873,1853,1853,1853,1843,1843,1843,1843,1843,1843,1833,1833,1833,1833,1833,1823,1823,1823,1823,1813,1813,1813,1813,1804,1804,1804,1804,1804,1804,1804,1794,1794,1794,1794,1785,1785,1794,1794,1776,1776,1776,1776,1776,1766,1766,1766,1766,1766,1766,1766,1757,1757,1757,1757,1757,1748,1748,1748,1739,1739,1739,1739,1739,1731,1731,1731,1731,1722,1722,1722,1722,1713,1713,1705,1705,1705,1705,1696,1696,1696,1696,1696,1696,1688,1688,1688,1688,1688,1688,1688,1680,1680,1680,1671,1671,1663,1663,1663,1663,1663,1655,1655,1655,1655,1655,1655,1655,1655,1655,1655,1647,1647,1647,1639,1632,1632,1632,1632,1632,1632,1632,1632,1632,1639,1639,1655,1655,1655,1655,1655,1663,1663,1757,1757,1757,1757,1748,1731,1713,1688,1680,1671,1663,1655,1647,1639,1632,1624,1624,1616,1609,1609,1609,1609,1609,1609,1609,1609,1609,1616,1616,1616,1616,1616,1616,1616,1616,1616,1616,1616,1624,1632,1632,1632,1632,1632,1639,1639,1639,1647,1647,1647,1647,1647,1647,1655,1655,1655,1655,1655,1655,1655,1655,1655,1655,1655,1655,1047,1047,1047,1044,1044,1044,1041,1041,1038,1034,1034,1034,1031,1028,1025,1025,1022,1022,1016,1013,1013,1010,1007,1007,1001,998,995,992,989,989,989,987,984,978,975,975,973,970,967,967,964,962,959,956,956,956,954,951,948,946,940,938,935,933,930,928,925,923,920,918,915,913,910,903,901,898,898,896,894,889,889,887,882,882,875,873,871,867,864,862,860,858,856,851,849,843,839,837,837,835,829,827,825,823,821,817,813,802,798,796,794,792,790,790,789,785,785,783,783,783,783,783,783,785,787,787,789,789,790,790,790,790,792,792,794,794,794,794,0,0,0,0,0,0,0,1410,1404,1404,1398,1398,1392,1392,1387,1387,1381,1381,1376,1376,1370,1365,1359,1359,1354,1349,1349,1349,1349,1343,1338,1333,1333,1333,1328,1328,1317,1312,1312,1307,1307,1307,1302,1297,1297,1292,1288,1288,1283,1283,1283,1278,1273,1273,1268,1268,1264,1264,1259,1255,1255,1255,1250,1250,1250,1245,1241,1236,1236,1232,1227,1223,1219,1219,1219,1214,1210,1210,1206,1206,1202,1202,1202,1197,1197,1197,1193,1189,1185,1185,1181,1177,1173,1173,1169,1169,1165,1165,1161,1161,1153,1153,1153,1149,1149,1145,1145,1145,1141,1141,1138,1138,1134,1130,1130,1126,1123,1123,1123,1119,1119,1115,1112,1108,1108,1108,1105,1105,1101,1101,1097,1094,1094,1094,1090,1087,1087,1087,1084,1080,1080,1077,1077,1073,1073,1070,1070,1067,1067,1063,1060,1060,1057,1057,1054,1054,1050,1050,1044,1041,1041,1041,1038,1038,1034,1034,1031,1028,1028,1025,1025,1025,1025,1022,1019,1016,1016,1013,1013,1010,1010,1004,1004,1004,1001,1001,998,995,992,992,992,989,989,987,984,981,978,978,978,975,973,973,973,970,970,967,964,962,959,956,956,956,0,0,0,0,0,0,0,0,0,0,0,0,0,0,0,0,0,0,0,0,0,0,0,0,0,0,0,0,0,0
0,0,0,0,0,0,0,0,0,0,0,0,0,0,0,0,0,2065,2053,2053,2040,2028,2016,2016,2016,2016,2005,2005,2005,2005,2005,1993,1981,1970,1970,1970,1970,1959,1959,1959,1959,1959,1947,1936,1926,1926,1926,1915,1915,1915,1904,1904,1915,1915,1915,1915,1915,1915,1904,1904,1894,1894,1883,1883,1883,1883,1873,1873,1873,1873,1873,1873,1873,1873,1873,1853,1853,1843,1843,1843,1843,1843,1843,1833,1833,1833,1833,1833,1833,1833,1823,1823,1823,1823,1823,1813,1813,1813,1804,1804,1804,1804,1804,1804,1794,1794,1794,1785,1785,1794,1794,1776,1776,1776,1776,1776,1766,1766,1766,1766,1766,1766,1766,1757,1757,1757,1757,1757,1757,1748,1748,1748,1748,1739,1739,1739,1731,1731,1731,1731,1722,1722,1722,1722,1722,1713,1713,1705,1705,1705,1696,1696,1696,1696,1696,1696,1688,1688,1688,1688,1688,1688,1688,1688,1680,1680,1671,1671,1671,1663,1663,1663,1663,1663,1655,1655,1655,1655,1655,1655,1655,1655,1655,1655,1647,1647,1639,1632,1632,1632,1632,1632,1632,1632,1632,1632,1647,1647,1647,1655,1655,1655,1655,1663,1663,1696,1748,1739,1739,1731,1722,1696,1688,1680,1671,1663,1663,1655,1639,1632,1624,1624,1616,1609,1609,1609,1609,1609,1609,1609,1609,1616,1616,1616,1616,1616,1616,1616,1616,1616,1616,1616,1616,1624,1632,1632,1632,1639,1639,1639,1639,1639,1647,1647,1647,1655,1655,1655,1655,1655,1655,1655,1655,1655,1655,1655,1655,1655,1655,1655,1655,1047,1047,1044,1044,1044,1041,1041,1038,1034,1034,1034,1031,1028,1025,1025,1022,1019,1016,1013,1013,1010,1007,1007,1001,998,995,992,989,989,989,987,984,978,975,975,973,970,970,967,964,962,959,956,956,956,954,951,948,946,940,938,935,933,930,928,925,923,920,918,915,913,910,903,901,898,898,896,891,889,889,887,885,878,875,873,869,867,864,862,860,858,856,851,849,843,841,837,837,835,829,827,825,823,821,817,803,802,798,798,794,792,792,790,789,785,785,785,783,783,783,783,783,785,787,789,789,789,790,790,790,790,792,792,794,794,794,794,0,0,0,0,0,0,1415,1410,1404,1404,1398,1398,1392,1392,1387,1387,1381,1381,1376,1376,1370,1365,1365,1359,1354,1354,1349,1349,1349,1343,1333,1333,1333,1333,1328,1328,1317,1312,1312,1307,1307,1307,1302,1297,1297,1292,1288,1288,1283,1283,1283,1278,1273,1273,1268,1268,1264,1264,1259,1255,1255,1255,1250,1250,1250,1245,1241,1236,1236,1232,1232,1223,1219,1219,1214,1214,1214,1214,1210,1206,1206,1202,1202,1202,1197,1197,1193,1193,1189,1185,1181,1177,1173,1173,1169,1169,1165,1165,1165,1161,1153,1153,1153,1149,1149,1145,1145,1145,1145,1141,1138,1138,1134,1134,1126,1126,1123,1123,1123,1119,1119,1115,1112,1108,1108,1105,1105,1105,1101,1101,1097,1094,1094,1094,1090,1087,1087,1087,1084,1080,1080,1077,1077,1073,1073,1073,1070,1067,1067,1063,1060,1060,1057,1057,1054,1054,1050,1050,1044,1041,1041,1041,1041,1038,1034,1034,1031,1031,1028,1025,1025,1025,1025,1022,1022,1016,1016,1013,1013,1010,1010,1004,1004,1004,1001,1001,998,998,995,992,992,989,989,987,984,981,978,978,978,975,973,973,973,970,970,967,964,962,962,959,956,956,0,0,0,0,0,0,0,0,0,0,0,0,0,0,0,0,0,0,0,0,0,0,0,0,0,0,0,0,0,0
0,0,0,0,0,0,0,0,0,0,0,0,0,0,0,0,0,2065,2053,2053,2040,2028,2028,2028,2016,2016,2016,2005,2005,2005,2005,1981,1981,1970,1970,1970,1970,1959,1959,1959,1959,1959,1947,1947,1926,1926,1926,1915,1915,1915,1904,1904,1915,1915,1915,1915,1915,1915,1904,1904,1894,1894,1894,1894,1883,1883,1873,1873,1883,1883,1873,1873,1873,1873,1873,1853,1853,1843,1843,1853,1843,1843,1843,1833,1833,1833,1833,1833,1833,1833,1833,1833,1823,1823,1823,1823,1813,1813,1813,1813,1804,1804,1804,1804,1794,1794,1794,1794,1794,1794,1794,1785,1785,1776,1776,1776,1766,1766,1766,1766,1766,1766,1766,1757,1757,1757,1757,1757,1757,1757,1757,1757,1748,1739,1739,1739,1731,1731,1731,1731,1722,1722,1722,1722,1722,1713,1713,1713,1705,1705,1705,1705,1705,1696,1696,1696,1688,1688,1688,1688,1688,1688,1688,1680,1680,1680,1680,1671,1671,1671,1663,1663,1663,1663,1663,1655,1655,1655,1655,1655,1655,1655,1655,1655,1647,1647,1639,1632,1632,1632,1632,1632,1632,1632,1632,1639,1639,1647,1647,1655,1655,1655,1655,1663,1680,1696,1713,1722,1731,1731,1722,1696,1688,1680,1671,1663,1663,1655,1647,1639,1632,1624,1616,1609,1609,1609,1609,1609,1609,1609,1616,1616,1616,1616,1624,1616,1616,1616,1624,1624,1624,1624,1624,1624,1632,1632,1632,1639,1639,1639,1639,1647,1647,1655,1655,1655,1655,1655,1655,1655,1655,1655,1655,1655,1655,1655,1655,1655,1655,1655,1655,1047,1047,1044,1044,1044,1041,1041,1038,1034,1034,1034,1031,1028,1025,1025,1022,1019,1016,1013,1013,1010,1007,1007,1001,998,995,992,989,989,989,987,984,978,978,975,973,973,970,967,964,962,959,956,956,956,954,951,948,946,940,938,935,935,930,928,925,923,920,918,915,913,910,903,901,898,898,896,891,889,889,887,885,878,875,873,869,867,864,862,860,858,856,851,847,843,841,837,837,835,829,827,825,821,819,815,803,802,798,798,796,794,792,790,789,785,785,785,783,783,783,783,783,785,787,789,789,790,790,790,792,792,792,794,794,794,794,0,0,0,0,0,0,1415,1415,1410,1410,1404,1398,1398,1398,1392,1392,1387,1387,1381,1376,1376,1370,1370,1365,1359,1354,1354,1349,1349,1349,1338,1333,1333,1333,1333,1328,1328,1317,1312,1312,1312,1307,1307,1302,1302,1297,1292,1288,1288,1288,1283,1283,1278,1278,1273,1273,1268,1268,1264,1259,1259,1255,1255,1250,1250,1250,1245,1241,1236,1236,1232,1232,1223,1223,1219,1214,1214,1214,1214,1214,1206,1206,1202,1202,1202,1197,1197,1193,1193,1189,1185,1181,1177,1173,1173,1169,1169,1165,1165,1165,1161,1157,1157,1153,1149,1149,1145,1145,1145,1145,1138,1138,1138,1138,1134,1126,1126,1123,1123,1123,1119,1119,1115,1112,1108,1108,1105,1105,1105,1101,1101,1097,1094,1094,1094,1090,1090,1087,1087,1084,1080,1080,1077,1077,1073,1073,1073,1070,1067,1067,1063,1060,1060,1057,1057,1054,1054,1054,1047,1044,1044,1041,1041,1041,1038,1038,1034,1034,1031,1028,1028,1025,1025,1025,1025,1022,1019,1016,1016,1013,1010,1010,1004,1004,1004,1004,1001,1001,998,995,992,992,989,989,987,984,981,978,978,978,975,973,973,973,970,970,967,967,964,964,959,956,956,0,0,0,0,0,0,0,0,0,0,0,0,0,0,0,0,0,0,0,0,0,0,0,0,0,0,0,0,0,0
0,0,0,0,0,0,0,0,0,0,0,0,0,0,0,0,0,2078,2053,2040,2040,2028,2028,2028,2016,2016,2016,2005,2005,2005,2005,1981,1981,1970,1970,1970,1970,1959,1959,1959,1959,1959,1947,1947,1936,1926,1926,1915,1915,1915,1915,1915,1926,1915,1915,1915,1915,1915,1904,1904,1894,1894,1894,1894,1883,1883,1883,1883,1883,1883,1873,1873,1873,1873,1873,1853,1853,1853,1853,1853,1843,1843,1843,1843,1843,1843,1833,1833,1833,1833,1833,1833,1823,1823,1823,1813,1813,1813,1813,1813,1813,1804,1804,1804,1794,1794,1794,1794,1794,1794,1785,1785,1785,1785,1776,1776,1766,1766,1766,1766,1766,1766,1766,1757,1757,1757,1757,1757,1757,1757,1757,1757,1748,1739,1739,1739,1731,1731,1731,1731,1722,1722,1722,1722,1722,1722,1713,1713,1713,1705,1705,1705,1705,1696,1696,1696,1688,1688,1688,1688,1688,1688,1688,1680,1680,1688,1680,1680,1680,1671,1671,1671,1663,1663,1663,1655,1655,1655,1655,1655,1655,1655,1655,1655,1647,1647,1647,1632,1632,1632,1632,1632,1632,1632,1632,1639,1639,1647,1647,1655,1655,1655,1655,1663,1663,1696,1713,1722,1731,1722,1713,1696,1688,1680,1671,1663,1663,1655,1647,1639,1632,1624,1624,1609,1609,1609,1609,1609,1609,1616,1616,1616,1616,1616,1624,1624,1616,1616,1624,1624,1624,1624,1624,1624,1632,1632,1632,1639,1639,1639,1639,1647,1647,1655,1655,1655,1655,1655,1655,1655,1655,1655,1655,1655,1655,1655,1655,1655,1655,1655,1655,1047,1047,1044,1044,1044,1044,1041,1038,1038,1034,1034,1031,1031,1025,1025,1022,1019,1016,1013,1013,1010,1010,1007,1001,998,995,992,989,989,989,987,984,978,978,975,973,973,970,967,964,962,959,956,956,956,954,951,948,943,940,938,935,933,930,928,925,920,920,918,915,913,910,906,901,898,898,896,894,889,889,887,885,882,875,873,871,867,864,862,860,858,856,851,847,843,841,839,837,835,829,827,825,821,819,813,805,802,800,798,796,794,792,790,789,785,785,785,785,783,783,783,785,787,789,789,790,790,792,794,794,794,794,794,796,796,796,0,0,0,0,0,0,1415,1415,1415,1410,1410,1404,1398,1398,1392,1392,1387,1387,1381,1376,1376,1370,1370,1365,1359,1354,1354,1354,1354,1349,1338,1338,1333,1333,1333,1328,1328,1317,1312,1312,1312,1307,1307,1307,1302,1297,1292,1292,1288,1288,1283,1283,1278,1278,1273,1273,1268,1268,1268,1264,1259,1255,1255,1255,1250,1245,1245,1241,1241,1236,1236,1232,1223,1223,1219,1219,1214,1214,1214,1210,1210,1206,1202,1202,1202,1197,1197,1197,1193,1189,1185,1181,1181,1177,1173,1169,1169,1169,1165,1165,1161,1157,1157,1153,1153,1149,1149,1145,1145,1145,1138,1138,1138,1138,1134,1130,1126,1123,1123,1123,1119,1115,1115,1112,1112,1108,1105,1105,1105,1101,1101,1097,1097,1094,1094,1090,1090,1087,1087,1087,1084,1080,1077,1077,1073,1073,1073,1070,1067,1067,1063,1063,1060,1060,1057,1057,1054,1054,1047,1044,1044,1041,1041,1041,1038,1038,1038,1034,1031,1031,1028,1028,1025,1025,1025,1022,1019,1016,1016,1013,1013,1010,1004,1004,1004,1004,1001,1001,1001,998,992,992,989,989,987,987,981,981,978,978,978,975,975,973,973,970,967,967,967,964,956,956,956,0,0,0,0,0,0,0,0,0,0,0,0,0,0,0,0,0,0,0,0,0,0,0,0,0,0,0,0,0,0
