0,0,0,0,0,0,0,0,0,0,0,0,0,0,0,0,1970,1970,1970,1959,1959,1959,1947,1947,1947,1947,1947,1947,1936,1936,1936,1926,1926,1926,1926,1915,1915,1915,1915,1915,1915,1904,1904,1894,1894,1894,1894,1894,1894,1894,1894,1894,1894,1894,1894,1883,1883,1883,1883,1883,1883,1883,1873,1873,1873,1873,1873,1863,1863,1853,1843,1843,1843,1843,1843,1843,1843,1833,1833,1843,1843,1843,1843,1843,1843,1833,1833,1833,1833,1823,1823,1823,1823,1823,1823,1813,1813,1813,1813,1804,1804,1804,1804,1804,1804,1804,1804,1804,1804,1804,1794,1794,1794,1794,1794,1785,1785,1776,1776,1776,1776,1776,1766,1766,1766,1766,1766,1766,1757,1757,1757,1757,1757,1757,1748,1748,1748,1748,1748,1739,1739,1739,1739,1739,1739,1731,1731,1731,1731,1722,1722,1722,1722,1722,1722,1722,1722,1722,1713,1713,1713,1713,1722,1722,1722,1722,1722,1731,1722,1722,1722,2016,2016,2005,1981,1981,1981,1970,1970,1970,1970,1970,1970,1970,1970,1705,1705,1705,1705,1696,1696,1696,1696,1696,1696,1696,1696,1696,1705,1705,1713,1713,1722,1722,1722,1722,1722,1722,1722,1722,1722,1722,1722,1722,0,0,0,1101,1094,1090,1090,1090,1090,1087,1087,1084,1084,1080,1080,1084,1087,1087,1087,1090,1094,1094,1097,1097,1097,1097,1097,1097,1097,1097,0,0,1794,1794,1794,1804,1804,1813,1813,1813,1813,1823,1823,1833,1833,1833,1833,1843,1843,1843,1843,1843,1853,1853,1853,1853,1853,1843,1843,1853,1853,1863,1863,1863,1873,1873,1873,1873,1863,1853,1853,1843,1843,1833,1833,1833,1823,1813,1804,1804,0,0,0,0,0,0,0,0,0,0,860,860,858,858,858,856,854,851,849,849,847,845,845,845,845,845,845,845,847,849,851,854,854,854,856,856,858,860,860,860,860,862,862,862,0,0,0,0,0,0,0,1601,1594,1594,1586,1579,1579,1579,1572,1572,1572,1564,1564,1557,1550,1543,1543,1543,1543,1536,1536,1529,1529,1523,1523,1516,1516,1503,1496,1496,1489,1489,1489,1483,1483,1477,1470,1470,1470,1464,1464,1464,1458,1452,1445,1445,1445,1439,1439,1433,1433,1427,1427,1421,1421,1415,1415,1415,1415,1410,1404,1398,1398,1392,1392,1387,1381,1381,1376,1376,1376,1370,1370,1370,1365,1365,1359,1354,1349,1349,1343,1343,1338,1338,1333,1333,1333,1328,1328,1328,1322,1317,1312,1312,1307,1307,1302,1297,1297,1292,1292,1288,1288,1288,1283,1278,1278,1273,1273,1268,1268,1264,1259,1259,1255,1255,1255,1250,1250,1245,1245,1241,1236,1236,1232,1232,1232,1227,1227,1223,1219,1219,1219,1214,1214,1214,1210,1206,1202,1202,1202,1197,1197,1193,1189,1185,1185,1185,1181,1181,1177,1177,1173,1169,1169,1165,1165,1165,1161,1157,1157,1153,1153,1153,1153,1153,1149,1145,1141,1141,1138,1138,1134,1130,1130,1126,1123,1123,1123,1123,1119,1119,1115,1112,1112,1108,1105,1105,1101,1101,1097,1097,1094,1090,1090,1090,1087,1087,1084,1080,1080,1077,1077,1077,1073,1070,1070,1067,1067,1063,1063,1063,1060,1060,1057,1057,1050,1050,1050,1047,1047,1044,1041,1041,1041,1038,1038,1038,1034,1031,1028,1028,1025,1025,1025,1022,1022,1019,1019,1016,1016,1016,1013,1013,1010,1010,1007,1004,1004,1001,1001,1001,998,998,995,992,992,992,992,989,989,989,987,984,984,984,0,0,0,0,0,0,0,0,0,0,0,0,0,0,0,0,0,0,0,0,0,0,0,0,0,0,0,0,0,0
0,0,0,0,0,0,0,0,0,0,0,0,0,0,0,1970,1970,1970,1970,1959,1959,1959,1947,1947,1947,1947,1947,1947,1947,1936,1936,1926,1926,1926,1926,1915,1915,1915,1915,1915,1915,1904,1904,1904,1904,1904,1904,1894,1894,1894,1894,1894,1894,1894,1894,1883,1883,1883,1883,1883,1883,1883,1873,1873,1873,1873,1873,1863,1863,1863,1843,1843,1843,1843,1843,1843,1843,1833,1833,1843,1843,1843,1843,1843,1843,1843,1843,1833,1833,1833,1823,1823,1823,1823,1823,1813,1813,1813,1813,1804,1804,1804,1804,1804,1804,1804,1804,1804,1804,1804,1804,1794,1794,1794,1794,1785,1785,1776,1776,1776,1776,1776,1766,1766,1766,1766,1766,1766,1766,1766,1757,1757,1757,1757,1757,1757,1757,1748,1748,1748,1748,1739,1739,1739,1739,1731,1731,1731,1731,1722,1722,1722,1722,1722,1722,1722,1722,1722,1713,1713,1713,1713,1722,1722,1722,1722,1722,1731,1722,1713,1713,2005,2005,1981,1981,1970,1970,1970,1970,1959,1959,1959,1959,1959,1959,1713,1713,1713,1705,1696,1696,1696,1696,1696,1696,1696,1696,1696,1705,1705,1713,1713,1722,1722,1722,1722,1722,1722,1722,1722,1722,1731,1731,1731,0,0,0,1094,1094,1090,1090,1090,1090,1087,1087,1087,1084,1084,1084,1087,1087,1087,1090,1090,1094,1094,1097,1097,1097,1097,1097,1097,1097,1097,0,0,0,1794,1794,1804,1804,1813,1813,1813,1813,1823,1823,1833,1833,1833,1843,1843,1843,1843,1843,1843,1853,1853,1853,1853,1853,1853,1853,1863,1863,1863,1863,1863,1873,1873,1873,1873,1863,1853,1853,1843,1843,1833,1833,1833,1823,1813,1794,1794,0,0,0,0,0,0,0,0,0,0,860,860,860,858,858,856,854,851,849,849,849,845,845,845,845,845,845,847,847,849,851,854,854,854,856,856,858,860,860,860,860,862,862,862,0,0,0,0,0,0,0,1601,1594,1594,1586,1579,1579,1579,1579,1572,1572,1572,1564,1557,1550,1543,1543,1543,1543,1536,1536,1536,1529,1523,1523,1516,1516,1503,1496,1496,1496,1489,1489,1483,1483,1477,1477,1477,1470,1470,1464,1464,1458,1452,1452,1445,1445,1439,1439,1439,1433,1427,1427,1421,1421,1421,1415,1415,1415,1415,1410,1404,1398,1392,1392,1387,1381,1381,1376,1376,1376,1376,1370,1370,1365,1365,1365,1354,1349,1349,1343,1343,1343,1338,1338,1333,1333,1328,1328,1328,1322,1317,1312,1312,1312,1307,1302,1302,1302,1297,1292,1292,1288,1288,1283,1283,1278,1278,1273,1268,1268,1268,1264,1264,1259,1259,1255,1250,1250,1245,1245,1241,1236,1236,1236,1232,1232,1232,1227,1223,1223,1219,1219,1214,1214,1214,1210,1210,1206,1202,1202,1197,1197,1193,1189,1189,1185,1185,1185,1181,1181,1177,1177,1173,1169,1169,1165,1165,1161,1157,1157,1153,1153,1153,1153,1153,1149,1149,1145,1141,1138,1138,1134,1130,1130,1126,1126,1123,1123,1123,1119,1119,1115,1112,1112,1108,1108,1105,1105,1101,1101,1097,1094,1090,1090,1090,1090,1087,1084,1080,1080,1077,1077,1077,1073,1073,1070,1070,1067,1063,1063,1063,1060,1060,1057,1057,1050,1050,1050,1047,1047,1047,1044,1041,1041,1041,1038,1038,1034,1031,1028,1028,1025,1025,1025,1025,1022,1019,1019,1016,1016,1016,1013,1013,1010,1010,1007,1004,1004,1001,1001,1001,998,998,995,995,992,992,992,989,989,989,987,984,984,0,0,0,0,0,0,0,0,0,0,0,0,0,0,0,0,0,0,0,0,0,0,0,0,0,0,0,0,0,0,0
0,0,0,0,0,0,0,0,0,0,0,0,0,0,0,1970,1970,1970,1970,1959,1959,1959,1959,1947,1947,1947,1947,1947,1947,1947,1936,1936,1926,1926,1926,1926,1926,1915,1915,1915,1915,1904,1904,1904,1904,1904,1904,1894,1894,1894,1894,1894,1894,1894,1894,1894,1883,1883,1883,1883,1883,1883,1873,1873,1873,1873,1873,1863,1863,1863,1853,1853,1843,1843,1843,1843,1843,1843,1843,1843,1843,1843,1843,1843,1843,1843,1843,1833,1833,1833,1833,1833,1823,1823,1823,1823,1823,1823,1813,1804,1804,1804,1804,1804,1804,1804,1804,1804,1804,1804,1804,1794,1794,1794,1794,1785,1785,1785,1785,1785,1776,1776,1776,1776,1776,1766,1766,1766,1766,1766,1757,1757,1757,1757,1757,1757,1757,1757,1748,1748,1748,1739,1739,1739,1739,1731,1731,1731,1731,1731,1731,1731,1731,1722,1722,1722,1722,1722,1713,1713,1713,1722,1722,1722,1722,1722,1731,1731,1722,1713,1713,2005,1993,1981,1970,1970,1970,1970,1970,1959,1959,1959,1959,1959,1959,1713,1713,1713,1705,1705,1705,1705,1705,1705,1705,1705,1705,1705,1713,1713,1713,1713,1713,1722,1722,1722,1722,1722,1722,1722,1722,1722,1722,1722,0,0,0,1094,0,1094,1094,1090,1090,1087,1087,1087,1087,1087,1087,1087,1087,1087,1090,1094,1094,1094,1097,1097,1101,1101,1101,1101,1101,0,0,0,0,1794,1794,1804,1804,1813,1813,1813,1823,1823,1833,1833,1833,1833,1833,1843,1843,1843,1843,1843,1853,1853,1853,1863,1863,1853,1853,1863,1863,1863,1863,1863,1873,1873,1873,1873,1873,1853,1853,1843,1843,1833,1833,1833,1823,1823,1794,1794,0,0,0,0,0,0,0,0,0,0,860,860,858,858,858,856,854,851,849,849,847,845,845,845,845,845,847,847,849,851,854,854,854,856,856,858,860,860,860,860,860,862,862,862,0,0,0,0,0,0,0,1601,1594,1594,1586,1586,1579,1579,1579,1572,1572,1572,1564,1564,1550,1550,1550,1543,1543,1536,1536,1536,1529,1523,1523,1516,1516,1503,1503,1496,1496,1496,1489,1489,1483,1483,1477,1477,1470,1470,1464,1464,1464,1458,1452,1445,1445,1445,1439,1439,1439,1427,1427,1421,1421,1421,1421,1415,1415,1415,1410,1404,1398,1398,1392,1387,1381,1381,1376,1376,1376,1376,1370,1370,1370,1365,1365,1354,1349,1349,1349,1343,1343,1338,1338,1333,1333,1333,1328,1328,1322,1317,1312,1312,1312,1307,1302,1302,1302,1297,1292,1292,1288,1288,1283,1283,1278,1278,1273,1273,1268,1268,1264,1264,1264,1259,1255,1255,1250,1250,1245,1245,1241,1236,1236,1236,1232,1232,1227,1227,1223,1219,1219,1214,1214,1214,1210,1210,1206,1202,1202,1197,1197,1197,1193,1189,1185,1185,1185,1181,1181,1177,1177,1173,1173,1169,1169,1165,1161,1157,1157,1153,1153,1153,1153,1153,1149,1149,1145,1141,1138,1138,1134,1130,1130,1126,1126,1123,1123,1123,1119,1119,1115,1112,1112,1108,1108,1105,1105,1101,1101,1097,1094,1094,1090,1090,1090,1090,1087,1080,1080,1080,1077,1077,1073,1073,1070,1070,1067,1063,1063,1060,1060,1060,1057,1057,1054,1050,1050,1050,1050,1047,1044,1041,1041,1041,1038,1038,1038,1034,1031,1028,1028,1028,1025,1025,1025,1022,1019,1019,1016,1016,1013,1013,1010,1010,1007,1004,1004,1004,1001,1001,998,998,995,995,995,992,992,989,989,989,987,984,984,0,0,0,0,0,0,0,0,0,0,0,0,0,0,0,0,0,0,0,0,0,0,0,0,0,0,0,0,0,0,0
0,0,0,0,0,0,0,0,0,0,0,0,0,0,0,1970,1970,1970,1970,1959,1959,1959,1959,1959,1959,1959,1959,1959,1947,1947,1947,1936,1936,1936,1936,1926,1926,1915,1915,1926,1915,1904,1904,1904,1904,1904,1904,1904,1904,1904,1894,1894,1894,1894,1894,1883,1883,1883,1883,1883,1883,1883,1883,1883,1873,1873,1873,1863,1863,1863,1863,1863,1863,1853,1853,1843,1843,1843,1843,1843,1843,1843,1843,1843,1843,1843,1843,1843,1833,1833,1833,1833,1833,1823,1823,1823,1823,1823,1813,1813,1804,1804,1804,1804,1804,1804,1813,1813,1813,1804,1804,1804,1804,1794,1794,1794,1794,1794,1785,1785,1785,1785,1776,1776,1776,1766,1766,1766,1766,1766,1766,1757,1757,1757,1757,1757,1757,1757,1757,1748,1748,1748,1748,1748,1739,1739,1739,1731,1731,1731,1731,1731,1731,1731,1731,1722,1722,1722,1722,1722,1722,1722,1722,1722,1722,1722,1731,1731,1722,1713,1713,1722,1981,1981,1970,1970,1959,1959,1959,1959,1959,1959,1959,1947,1926,1713,1713,1713,1713,1705,1705,1705,1705,1705,1705,1705,1705,1705,1713,1713,1713,1713,1713,1722,1722,1722,1722,1722,1722,1722,1731,1722,1722,1722,0,0,0,0,0,1094,1094,1090,1090,1090,1087,1087,1087,1087,1087,1087,1090,1090,1090,1094,1097,1097,1097,1097,1101,1101,1101,1101,1105,1105,0,0,0,1804,1804,1804,1813,1813,1813,1813,1823,1823,1833,1833,1833,1833,1833,1843,1843,1843,1843,1843,1853,1853,1863,1863,1863,1863,1863,1863,1863,1863,1863,1873,1873,1883,1873,1873,1873,1863,1853,1843,1843,1843,1833,1833,1823,1823,1823,0,0,0,0,0,0,0,0,0,0,0,860,860,858,858,858,856,854,854,851,851,847,847,845,845,847,847,847,849,849,851,854,854,854,856,856,858,860,860,860,862,862,862,862,862,0,0,0,0,0,0,0,1601,1594,1594,1594,1586,1579,1579,1579,1579,1572,1572,1564,1564,1550,1550,1550,1543,1543,1543,1536,1536,1529,1523,1523,1523,1516,1503,1503,1496,1496,1496,1489,1489,1483,1483,1477,1477,1470,1470,1464,1464,1464,1464,1458,1452,1452,1445,1445,1439,1439,1433,1427,1421,1421,1421,1415,1415,1415,1415,1410,1404,1404,1398,1392,1387,1381,1381,1376,1376,1376,1376,1370,1370,1370,1370,1365,1354,1354,1349,1349,1343,1343,1343,1338,1338,1333,1333,1333,1328,1322,1317,1317,1312,1312,1307,1307,1302,1302,1297,1292,1292,1292,1288,1283,1283,1283,1278,1273,1273,1268,1268,1268,1264,1264,1259,1255,1255,1250,1250,1245,1245,1241,1241,1241,1236,1232,1232,1232,1227,1223,1223,1219,1214,1214,1214,1210,1210,1206,1206,1202,1202,1197,1197,1197,1189,1189,1185,1185,1185,1181,1181,1177,1177,1173,1169,1169,1165,1165,1161,1157,1157,1153,1153,1153,1153,1149,1149,1145,1141,1138,1138,1134,1134,1130,1130,1126,1126,1123,1123,1119,1119,1115,1115,1112,1108,1108,1105,1105,1105,1101,1101,1097,1094,1090,1090,1090,1090,1087,1080,1080,1080,1080,1077,1077,1073,1073,1070,1067,1063,1063,1060,1060,1060,1057,1054,1054,1054,1050,1050,1050,1047,1044,1041,1041,1041,1038,1038,1038,1034,1031,1031,1028,1028,1025,1025,1025,1022,1022,1019,1019,1016,1016,1013,1010,1010,1007,1004,1004,1004,1004,1001,1001,1001,998,995,995,992,992,992,989,989,987,987,987,0,0,0,0,0,0,0,0,0,0,0,0,0,0,0,0,0,0,0,0,0,0,0,0,0,0,0,0,0,0,0
0,0,0,0,0,0,0,0,0,0,0,0,0,0,0,1970,1970,1970,1970,1959,1959,1959,1959,1959,1959,1959,1959,1959,1959,1959,1959,1947,1936,1936,1926,1926,1926,1926,1926,1926,1915,1915,1915,1915,1904,1904,1904,1904,1904,1904,1894,1894,1894,1894,1894,1883,1883,1883,1883,1883,1883,1883,1883,1883,1873,1873,1873,1873,1873,1863,1863,1863,1863,1853,1853,1843,1843,1843,1843,1843,1843,1843,1843,1843,1843,1843,1843,1843,1833,1833,1833,1833,1833,1833,1823,1823,1823,1823,1823,1813,1813,1813,1813,1813,1813,1813,1813,1813,1813,1804,1804,1804,1804,1794,1794,1794,1794,1794,1794,1785,1785,1785,1785,1776,1776,1766,1766,1766,1766,1766,1766,1757,1757,1757,1757,1757,1757,1757,1757,1748,1748,1748,1748,1748,1748,1739,1739,1739,1731,1731,1731,1731,1731,1731,1731,1731,1722,1722,1722,1722,1722,1722,1722,1722,1722,1722,1731,1731,1731,1722,1722,1722,1981,1970,1970,1959,1959,1947,1947,1947,1947,1947,1947,1936,1926,1926,1713,1713,1713,1705,1705,1705,1705,1705,1705,1705,1705,1705,1713,1713,1713,1722,1722,1722,1722,1722,1722,1722,1722,1722,1731,1731,1722,1722,0,0,0,1101,0,1094,1094,1090,1090,1090,1087,1087,1087,1087,1087,1087,1090,1090,1090,1094,1094,1097,1097,1097,1101,1101,1101,1101,1101,1101,0,0,0,1804,1804,1813,1813,1813,1813,1813,1823,1823,1833,1833,1833,1833,1843,1843,1843,1843,1843,1843,1853,1853,1863,1863,1863,1863,1863,1873,1873,1873,1873,1873,1883,1883,1883,1883,1873,1873,1853,1843,1843,1843,1833,1833,1833,1833,1833,0,0,0,0,0,0,0,0,0,0,0,860,860,860,860,858,858,856,854,851,851,847,847,847,847,847,847,849,849,851,851,854,854,854,856,858,858,860,860,862,862,862,862,862,862,0,0,0,0,0,0,1601,1601,1594,1594,1594,1586,1586,1586,1579,1579,1579,1572,1572,1564,1557,1550,1550,1543,1543,1543,1536,1536,1529,1523,1523,1516,1516,1503,1503,1503,1496,1496,1496,1489,1483,1483,1483,1477,1470,1470,1470,1464,1464,1464,1458,1458,1452,1445,1445,1445,1439,1433,1433,1421,1421,1421,1415,1415,1415,1415,1410,1410,1404,1398,1392,1392,1387,1381,1376,1376,1376,1376,1370,1370,1370,1370,1370,1365,1354,1354,1349,1349,1343,1343,1338,1338,1333,1333,1333,1328,1328,1322,1317,1312,1312,1312,1307,1307,1307,1302,1297,1292,1292,1288,1288,1283,1283,1278,1273,1273,1273,1268,1268,1268,1264,1259,1259,1255,1250,1250,1245,1245,1241,1241,1241,1236,1236,1236,1232,1227,1223,1223,1219,1219,1214,1214,1214,1214,1210,1206,1202,1202,1202,1197,1197,1193,1189,1189,1185,1185,1181,1181,1177,1177,1173,1169,1169,1165,1165,1161,1161,1157,1157,1153,1153,1153,1149,1149,1145,1141,1138,1138,1134,1134,1130,1130,1126,1126,1123,1123,1119,1119,1119,1115,1112,1112,1108,1108,1105,1105,1105,1101,1097,1094,1094,1094,1090,1090,1087,1080,1080,1080,1080,1077,1077,1073,1073,1073,1067,1067,1063,1063,1063,1060,1057,1054,1054,1054,1050,1050,1050,1047,1044,1041,1041,1041,1038,1038,1038,1038,1034,1031,1028,1028,1028,1028,1025,1025,1022,1022,1019,1019,1016,1013,1013,1010,1007,1007,1004,1004,1004,1004,1001,1001,998,995,995,992,992,992,989,989,987,987,987,0,0,0,0,0,0,0,0,0,0,0,0,0,0,0,0,0,0,0,0,0,0,0,0,0,0,0,0,0,0,0
0,0,0,0,0,0,0,0,0,0,0,0,0,0,0,1970,1970,1970,1970,1959,1959,1959,1959,1959,1959,1947,1947,1947,1959,1959,1947,1947,1947,1936,1926,1926,1926,1926,1926,1926,1926,1915,1915,1926,1915,1915,1915,1915,1915,1904,1904,1894,1894,1894,1894,1894,1894,1894,1883,1883,1883,1883,1883,1883,1873,1873,1873,1873,1873,1863,1863,1863,1863,1863,1853,1853,1853,1843,1843,1853,1853,1843,1843,1843,1843,1843,1843,1843,1833,1833,1833,1833,1833,1833,1833,1833,1833,1823,1823,1823,1813,1813,1813,1813,1813,1813,1813,1813,1813,1804,1804,1804,1804,1804,1794,1794,1794,1794,1794,1785,1785,1785,1785,1785,1776,1766,1766,1766,1766,1766,1766,1766,1757,1757,1757,1757,1757,1757,1757,1748,1748,1748,1748,1748,1748,1748,1739,1739,1739,1739,1731,1731,1731,1731,1731,1731,1722,1722,1722,1722,1722,1722,1722,1722,1722,1722,1731,1731,1731,1731,1731,1731,1970,1970,1959,1959,1959,1947,1947,1947,1936,1936,1936,1926,1926,1926,1926,1722,1713,1713,1713,1713,1713,1705,1705,1705,1705,1713,1713,1713,1713,1722,1722,1722,1722,1722,1722,1722,1722,1731,1731,1731,1722,1722,0,0,1101,1101,1101,1097,1097,1090,1090,1090,1087,1087,1087,1087,1087,1087,1090,1090,1090,1094,1094,1094,1097,1097,1101,1101,1101,1101,1101,1101,0,0,0,0,1813,1813,1813,1813,1813,1823,1823,1833,1833,1833,1833,1833,1843,1843,1843,1843,1843,1853,1853,1853,1863,1863,1863,1863,1873,1873,1873,1873,1873,1883,1883,1883,1883,1883,1883,1873,1863,1853,1843,1843,1843,1833,1833,1833,1833,0,0,0,0,0,0,0,0,0,0,0,860,860,860,860,860,858,856,854,851,851,847,847,847,847,847,847,849,849,851,851,854,854,856,856,858,860,860,860,862,862,862,862,862,862,0,0,0,0,0,0,1601,1601,1594,1594,1594,1586,1586,1586,1579,1579,1579,1572,1572,1564,1557,1557,1550,1550,1543,1543,1536,1536,1529,1523,1523,1516,1516,1509,1509,1503,1496,1496,1496,1489,1489,1483,1483,1483,1477,1470,1470,1464,1464,1464,1464,1458,1452,1445,1445,1445,1445,1439,1439,1427,1421,1421,1415,1415,1415,1415,1410,1410,1404,1398,1398,1392,1392,1381,1381,1376,1376,1376,1370,1370,1370,1370,1370,1365,1354,1354,1349,1349,1349,1343,1343,1338,1333,1333,1333,1328,1328,1322,1317,1317,1312,1312,1307,1307,1307,1302,1297,1297,1292,1288,1288,1288,1283,1278,1273,1273,1273,1268,1268,1268,1264,1264,1259,1255,1255,1250,1245,1245,1245,1241,1241,1241,1236,1236,1232,1227,1223,1223,1219,1219,1214,1214,1214,1214,1210,1206,1206,1202,1202,1197,1197,1197,1193,1189,1185,1185,1185,1181,1181,1177,1173,1169,1169,1165,1165,1165,1161,1157,1157,1153,1153,1153,1149,1149,1145,1145,1141,1138,1134,1134,1134,1130,1130,1130,1126,1123,1123,1119,1119,1115,1112,1112,1112,1108,1105,1105,1105,1101,1101,1097,1094,1094,1090,1090,1087,1080,1080,1080,1080,1077,1077,1073,1073,1073,1070,1067,1067,1063,1063,1063,1057,1057,1057,1054,1054,1054,1050,1050,1047,1044,1041,1041,1041,1038,1038,1038,1034,1034,1031,1028,1028,1028,1025,1025,1022,1022,1019,1019,1016,1016,1013,1010,1007,1007,1004,1004,1004,1004,1001,1001,998,995,995,992,992,992,989,989,987,987,987,0,0,0,0,0,0,0,0,0,0,0,0,0,0,0,0,0,0,0,0,0,0,0,0,0,0,0,0,0,0,0
0,0,0,0,0,0,0,0,0,0,0,0,0,0,0,1970,1970,1970,1970,1959,1959,1959,1959,1959,1959,1947,1947,1947,1959,1959,1947,1947,1947,1936,1936,1926,1926,1926,1926,1926,1926,1926,1926,1926,1926,1915,1915,1915,1915,1904,1904,1894,1894,1894,1894,1894,1894,1894,1883,1883,1883,1883,1883,1883,1873,1873,1873,1873,1873,1873,1873,1863,1863,1863,1863,1853,1853,1853,1853,1853,1853,1853,1853,1853,1853,1843,1843,1843,1843,1843,1843,1843,1833,1833,1833,1833,1833,1833,1823,1823,1823,1823,1823,1823,1813,1813,1813,1813,1813,1804,1804,1804,1804,1804,1794,1794,1794,1794,1794,1794,1794,1785,1785,1785,1776,1776,1776,1766,1766,1766,1766,1766,1766,1766,1757,1757,1757,1757,1757,1757,1757,1757,1757,1757,1757,1748,1748,1739,1739,1739,1731,1731,1731,1731,1731,1731,1731,1722,1722,1722,1722,1722,1722,1722,1722,1722,1731,1731,1731,1731,1731,1731,1970,1970,1959,1959,1947,1936,1936,1926,1926,1926,1915,1915,1915,1915,1915,1722,1713,1713,1713,1713,1713,1713,1713,1713,1713,1713,1713,1722,1722,1722,1722,1722,1722,1731,1731,1731,1731,1731,1731,1722,1722,1722,0,0,0,1101,1101,1101,1097,1094,1090,1090,1090,1087,1087,1087,1087,1090,1090,1090,1094,1094,1094,1094,1097,1097,1101,1101,1101,1105,1105,1105,0,0,0,1823,1823,1823,1813,1813,1813,1823,1823,1833,1833,1833,1833,1843,1843,1843,1843,1843,1843,1853,1853,1853,1863,1863,1873,1873,1873,1873,1873,1873,1873,1883,1894,1883,1883,1883,1883,1873,1863,1853,1843,1843,1843,1843,1843,1843,1843,0,0,0,0,0,0,0,0,0,0,0,862,860,860,860,860,858,856,854,854,851,847,847,847,847,847,849,849,849,851,854,854,854,856,858,858,860,860,862,862,862,862,862,862,862,0,0,0,0,0,0,1609,1601,1601,1594,1594,1586,1586,1586,1579,1579,1579,1572,1572,1564,1564,1557,1550,1550,1543,1543,1536,1536,1529,1523,1523,1516,1516,1509,1509,1509,1503,1496,1496,1489,1489,1483,1483,1483,1477,1470,1470,1470,1464,1464,1464,1458,1452,1445,1445,1445,1445,1439,1439,1427,1421,1421,1421,1415,1415,1415,1415,1410,1404,1398,1398,1392,1392,1387,1381,1381,1376,1376,1370,1370,1370,1370,1370,1365,1359,1354,1354,1349,1349,1349,1343,1338,1333,1333,1333,1333,1328,1322,1322,1317,1312,1312,1307,1307,1307,1302,1297,1297,1292,1292,1288,1288,1283,1283,1278,1273,1273,1268,1268,1268,1268,1264,1259,1259,1255,1250,1250,1245,1245,1241,1241,1241,1236,1236,1232,1232,1227,1223,1223,1219,1219,1214,1214,1214,1210,1210,1206,1202,1202,1202,1197,1197,1193,1189,1189,1185,1185,1181,1181,1177,1177,1173,1169,1165,1165,1165,1161,1157,1157,1153,1153,1153,1149,1149,1145,1145,1141,1141,1138,1134,1134,1134,1130,1130,1126,1123,1123,1123,1119,1119,1115,1112,1112,1108,1108,1105,1105,1105,1101,1097,1097,1094,1094,1090,1090,1084,1080,1080,1080,1080,1077,1077,1073,1073,1070,1067,1067,1063,1063,1063,1057,1057,1057,1054,1054,1054,1050,1050,1047,1047,1044,1041,1041,1041,1038,1038,1038,1034,1031,1031,1028,1028,1028,1025,1025,1022,1022,1019,1016,1016,1013,1013,1010,1007,1007,1007,1004,1004,1001,1001,998,998,995,995,992,992,989,989,987,984,984,0,0,0,0,0,0,0,0,0,0,0,0,0,0,0,0,0,0,0,0,0,0,0,0,0,0,0,0,0,0,0
0,0,0,0,0,0,0,0,0,0,0,0,0,0,0,1970,1970,1970,1970,1970,1959,1959,1959,1959,1959,1959,1959,1959,1959,1959,1959,1947,1947,1936,1936,1926,1926,1926,1926,1926,1926,1926,1926,1926,1926,1926,1915,1915,1915,1904,1904,1904,1894,1894,1894,1894,1894,1894,1894,1894,1894,1883,1883,1883,1883,1883,1873,1873,1873,1873,1873,1863,1863,1873,1863,1863,1863,1853,1853,1863,1863,1853,1853,1853,1863,1853,1853,1843,1843,1843,1843,1843,1843,1833,1833,1833,1833,1833,1833,1823,1823,1823,1823,1823,1813,1813,1813,1813,1813,1804,1804,1804,1804,1804,1794,1794,1794,1794,1794,1794,1794,1785,1785,1785,1776,1776,1776,1766,1766,1766,1766,1766,1766,1766,1766,1766,1766,1766,1766,1757,1757,1757,1757,1757,1757,1757,1757,1748,1739,1739,1731,1731,1731,1731,1731,1731,1731,1731,1722,1722,1722,1722,1722,1722,1722,1722,1731,1731,1731,1731,1731,1731,1970,1959,1947,1947,1947,1926,1926,1915,1915,1904,1904,1904,1904,1904,1915,1904,1713,1713,1713,1713,1713,1713,1713,1713,1713,1713,1713,1722,1722,1722,1722,1722,1731,1731,1731,1731,1731,1731,1731,1722,1722,1731,0,1101,1101,1101,1101,1101,1097,1097,1094,1090,1090,1090,1090,1090,1090,1090,1090,1090,1094,1094,1094,1094,1097,1097,1101,1101,1105,1105,1105,1105,0,0,0,1833,1823,1823,1813,1813,1813,1823,1823,1833,1833,1833,1833,1843,1843,1843,1843,1843,1843,1853,1853,1863,1863,1863,1873,1873,1873,1873,1873,1873,1873,1883,1894,1894,1894,1883,1883,1873,1863,1863,1853,1843,1843,1843,1843,1843,1843,0,0,0,0,0,0,0,0,0,0,0,862,860,860,860,860,858,858,856,854,849,847,847,847,847,847,849,849,851,851,854,854,856,856,858,860,860,862,862,862,862,862,862,862,0,0,0,0,0,0,1609,1609,1601,1601,1594,1594,1594,1586,1586,1586,1579,1579,1572,1572,1564,1564,1557,1557,1550,1550,1543,1543,1536,1529,1523,1523,1516,1516,1509,1509,1509,1503,1503,1496,1496,1489,1489,1489,1483,1477,1470,1470,1470,1464,1464,1464,1458,1452,1452,1445,1445,1445,1439,1433,1427,1427,1421,1421,1415,1415,1415,1415,1410,1404,1398,1398,1398,1392,1387,1381,1381,1381,1376,1376,1376,1370,1370,1370,1365,1365,1359,1354,1354,1349,1349,1343,1343,1338,1333,1333,1333,1328,1322,1322,1317,1312,1312,1312,1307,1307,1302,1297,1297,1292,1292,1288,1288,1283,1283,1278,1273,1273,1268,1268,1268,1264,1264,1259,1259,1255,1255,1250,1250,1245,1245,1245,1241,1236,1236,1232,1232,1227,1223,1223,1219,1219,1214,1214,1214,1210,1210,1206,1202,1202,1202,1197,1197,1193,1189,1189,1185,1185,1181,1181,1181,1177,1177,1169,1169,1169,1165,1161,1161,1157,1153,1153,1153,1149,1149,1149,1145,1145,1141,1138,1138,1134,1134,1134,1130,1130,1126,1123,1123,1119,1119,1115,1115,1112,1108,1108,1108,1105,1105,1101,1101,1097,1097,1094,1094,1090,1084,1084,1080,1080,1080,1077,1077,1073,1073,1070,1067,1067,1067,1063,1063,1060,1060,1057,1057,1054,1054,1054,1050,1047,1047,1044,1044,1041,1041,1038,1038,1038,1034,1031,1031,1028,1028,1028,1025,1025,1025,1022,1022,1019,1016,1016,1013,1010,1010,1007,1007,1004,1004,1001,1001,1001,998,995,995,992,992,989,989,987,984,984,0,0,0,0,0,0,0,0,0,0,0,0,0,0,0,0,0,0,0,0,0,0,0,0,0,0,0,0,0,0,0
0,0,0,0,0,0,0,0,0,0,0,0,0,0,0,1970,1970,1970,1970,1970,1970,1959,1959,1970,1959,1959,1959,1959,1959,1959,1959,1959,1959,1947,1947,1936,1936,1926,1926,1936,1926,1926,1926,1926,1926,1926,1926,1915,1915,1915,1904,1904,1904,1904,1904,1904,1904,1904,1894,1894,1894,1883,1883,1883,1883,1873,1873,1873,1873,1873,1873,1873,1873,1873,1873,1873,1863,1863,1863,1863,1863,1863,1863,1863,1863,1853,1853,1853,1843,1843,1843,1843,1843,1843,1833,1833,1833,1833,1833,1833,1823,1823,1823,1823,1823,1823,1813,1813,1813,1804,1804,1804,1804,1804,1804,1794,1794,1794,1794,1794,1794,1794,1794,1794,1785,1776,1776,1776,1776,1776,1766,1766,1766,1766,1766,1766,1766,1766,1766,1766,1757,1757,1757,1766,1757,1757,1757,1748,1739,1739,1739,1731,1731,1731,1731,1731,1731,1731,1722,1722,1722,1722,1722,1722,1731,1731,1731,1739,1739,1739,1739,1739,1959,1947,1936,1936,1926,1915,1904,1904,1894,1894,1894,1894,1894,1894,1894,1904,1713,1713,1713,1713,1713,1713,1713,1713,1713,1713,1713,1722,1722,1722,1722,1722,1731,1731,1731,1731,1731,1731,1731,1722,1722,1722,1722,1101,1101,1101,1101,1101,1097,1097,1094,1094,1090,1090,1090,1090,1090,1090,1090,1094,1094,1094,1094,1097,1097,1101,1101,1101,1105,1105,1105,1105,0,0,0,1833,1833,1833,1823,1823,1823,1823,1833,1833,1833,1833,1833,1843,1843,1843,1843,1853,1853,1853,1863,1863,1863,1873,1873,1873,1873,1873,1873,1873,1873,1883,1894,1894,1894,1894,1883,1873,1863,1863,1853,1853,1843,1843,1843,1843,0,0,0,0,0,0,0,0,0,0,0,0,860,860,860,860,860,860,858,856,854,849,847,847,847,847,849,849,851,851,851,854,854,856,858,858,860,860,862,862,862,862,862,862,0,0,0,0,0,0,1655,1609,1609,1609,1601,1601,1594,1594,1594,1586,1586,1579,1579,1579,1572,1564,1564,1564,1557,1550,1550,1543,1543,1536,1529,1523,1523,1516,1516,1516,1509,1509,1503,1503,1496,1496,1489,1489,1483,1483,1483,1477,1470,1470,1470,1464,1464,1464,1458,1452,1452,1445,1445,1445,1433,1427,1427,1421,1421,1415,1415,1415,1415,1410,1404,1404,1398,1392,1392,1387,1387,1387,1381,1376,1376,1376,1370,1370,1370,1365,1365,1359,1354,1354,1349,1349,1343,1343,1338,1333,1333,1333,1328,1322,1322,1317,1312,1312,1312,1307,1307,1302,1302,1297,1292,1292,1288,1288,1288,1283,1278,1278,1273,1268,1268,1268,1264,1264,1259,1259,1255,1255,1250,1250,1250,1245,1245,1241,1241,1236,1232,1232,1227,1223,1223,1219,1219,1219,1214,1214,1210,1210,1206,1206,1202,1202,1197,1197,1193,1189,1189,1185,1185,1181,1181,1181,1181,1177,1177,1169,1169,1165,1165,1161,1157,1153,1153,1153,1149,1149,1149,1145,1145,1141,1138,1138,1134,1134,1134,1130,1130,1126,1123,1123,1123,1119,1119,1115,1115,1108,1108,1108,1105,1105,1101,1101,1097,1097,1094,1094,1090,1090,1084,1084,1080,1080,1077,1077,1073,1073,1070,1070,1067,1067,1067,1063,1060,1060,1057,1057,1054,1054,1054,1050,1047,1047,1044,1044,1041,1041,1041,1038,1038,1034,1034,1031,1031,1028,1028,1025,1025,1025,1025,1022,1019,1016,1016,1013,1010,1010,1007,1007,1004,1004,1001,1001,1001,998,998,995,992,992,989,989,987,987,987,0,0,0,0,0,0,0,0,0,0,0,0,0,0,0,0,0,0,0,0,0,0,0,0,0,0,0,0,0,0,0
0,0,0,0,0,0,0,0,0,0,0,0,0,0,0,1970,1970,1981,1970,1970,1970,1970,1970,1970,1959,1959,1959,1947,1947,1959,1959,1959,1959,1947,1947,1947,1936,1936,1936,1936,1926,1926,1926,1926,1926,1926,1926,1926,1926,1915,1915,1915,1904,1904,1904,1904,1904,1904,1904,1894,1894,1883,1883,1883,1883,1873,1873,1873,1873,1873,1873,1873,1873,1873,1873,1873,1863,1863,1863,1863,1863,1863,1863,1863,1863,1863,1853,1853,1843,1843,1843,1843,1843,1843,1843,1833,1833,1833,1833,1833,1833,1833,1833,1833,1823,1823,1823,1813,1813,1813,1804,1804,1804,1804,1804,1794,1794,1794,1794,1794,1794,1794,1794,1794,1794,1785,1785,1776,1776,1776,1776,1766,1766,1766,1766,1766,1766,1766,1766,1766,1766,1766,1757,1757,1757,1757,1757,1748,1748,1748,1739,1731,1731,1731,1731,1731,1731,1731,1731,1731,1731,1731,1731,1731,1731,1731,1739,1739,1739,1748,1748,1748,1748,1936,1926,1926,1915,1904,1894,1894,1894,1883,1883,1883,1883,1883,1883,1894,1713,1713,1713,1713,1713,1713,1713,1713,1713,1713,1713,1722,1722,1722,1731,1731,1731,1731,1731,1731,1731,1731,1731,1722,1722,1722,1722,1101,1101,1101,1101,1101,1101,1097,1094,1094,1090,1090,1090,1090,1090,1090,1090,1094,1094,1094,1097,1097,1101,1101,1101,1101,1105,1105,1105,1105,0,0,0,1833,1833,1833,1833,1833,1833,1833,1833,1833,1833,1833,1843,1843,1843,1843,1843,1853,1853,1863,1863,1863,1873,1873,1873,1873,1873,1873,1873,1873,1873,1883,1894,1894,1894,1894,1883,1873,1873,1863,1863,1853,1853,1843,1843,1853,0,0,0,0,0,0,0,0,0,0,0,0,860,860,860,860,860,860,858,858,854,851,849,849,849,849,849,851,851,851,854,854,854,856,858,858,860,860,862,862,862,862,864,864,0,0,0,0,0,0,1655,1609,1609,1609,1601,1601,1601,1594,1594,1586,1586,1579,1579,1579,1572,1564,1564,1557,1557,1550,1550,1543,1543,1536,1529,1523,1523,1516,1516,1516,1516,1509,1509,1503,1496,1496,1489,1489,1483,1483,1483,1477,1470,1470,1470,1464,1464,1464,1458,1452,1452,1445,1445,1445,1433,1427,1427,1421,1421,1421,1415,1415,1415,1415,1410,1404,1398,1392,1392,1392,1387,1387,1381,1376,1376,1376,1370,1370,1370,1365,1365,1359,1354,1354,1349,1349,1343,1343,1338,1333,1333,1333,1328,1328,1322,1317,1317,1312,1312,1307,1307,1302,1302,1302,1292,1292,1292,1288,1288,1288,1283,1278,1273,1273,1268,1268,1264,1264,1259,1259,1255,1255,1250,1250,1250,1245,1245,1241,1241,1236,1236,1232,1227,1223,1223,1219,1219,1219,1214,1214,1214,1210,1210,1206,1202,1202,1197,1197,1197,1193,1189,1189,1185,1181,1181,1181,1181,1177,1177,1173,1169,1169,1165,1165,1157,1153,1153,1153,1149,1149,1149,1145,1145,1141,1138,1138,1138,1134,1134,1134,1130,1130,1126,1123,1123,1123,1119,1119,1115,1112,1108,1108,1105,1105,1105,1101,1101,1097,1094,1094,1094,1090,1087,1084,1080,1080,1080,1077,1077,1077,1073,1073,1070,1070,1067,1063,1063,1063,1060,1057,1054,1054,1054,1050,1050,1050,1047,1044,1044,1041,1041,1038,1038,1034,1034,1034,1031,1028,1028,1028,1025,1025,1025,1022,1019,1016,1016,1013,1010,1010,1007,1007,1004,1004,1001,1001,1001,998,998,995,992,992,989,989,987,987,987,0,0,0,0,0,0,0,0,0,0,0,0,0,0,0,0,0,0,0,0,0,0,0,0,0,0,0,0,0,0,0
0,0,0,0,0,0,0,0,0,0,0,0,0,0,0,1970,1970,1981,1970,1970,1970,1970,1970,1970,1959,1959,1959,1947,1947,1959,1959,1947,1947,1947,1947,1947,1947,1936,1936,1926,1926,1936,1936,1926,1926,1926,1926,1926,1926,1915,1915,1915,1904,1904,1904,1904,1904,1904,1904,1904,1894,1894,1883,1883,1883,1873,1873,1873,1873,1873,1873,1873,1873,1873,1873,1873,1863,1863,1863,1863,1863,1863,1863,1863,1863,1863,1853,1853,1853,1853,1853,1843,1843,1843,1843,1843,1843,1833,1833,1833,1833,1833,1833,1833,1823,1823,1823,1823,1813,1813,1804,1804,1804,1804,1804,1804,1804,1804,1804,1804,1794,1794,1794,1794,1794,1785,1785,1776,1776,1776,1776,1766,1766,1766,1766,1766,1766,1766,1766,1766,1766,1766,1757,1757,1757,1757,1757,1757,1748,1748,1748,1739,1739,1731,1731,1731,1731,1731,1731,1731,1731,1731,1731,1731,1731,1731,1739,1739,1739,1748,1748,1748,1748,1926,1915,1904,1904,1894,1883,1883,1883,1883,1883,1883,1883,1883,1883,1883,1713,1713,1722,1722,1722,1713,1713,1713,1713,1713,1722,1722,1722,1722,1731,1731,1731,1731,1731,1731,1731,1731,1731,1731,1739,1739,1101,1101,1101,1101,1101,1101,1101,1097,1097,1094,1090,1090,1090,1090,1090,1090,1090,1094,1094,1094,1097,1097,1101,1101,1101,1101,1105,1105,1105,1105,0,0,0,1833,1833,1833,1833,1833,1833,1833,1833,1833,1833,1843,1843,1843,1843,1853,1853,1863,1863,1863,1863,1863,1873,1873,1873,1873,1873,1873,1873,1873,1873,1883,1894,1894,1894,1883,1883,1873,1873,1863,1863,1853,1853,1843,1843,1843,0,0,0,0,0,0,0,0,0,0,0,0,862,860,860,860,862,860,860,858,856,851,849,849,849,849,849,851,851,851,854,854,856,856,858,860,862,862,862,864,864,864,864,864,0,0,0,0,0,0,0,1624,1624,1616,1609,1601,1601,1594,1594,1586,1586,1579,1579,1579,1572,1564,1564,1557,1557,1550,1550,1550,1543,1543,1536,1529,1529,1523,1516,1516,1516,1509,1509,1509,1503,1496,1496,1489,1489,1489,1483,1477,1477,1470,1470,1470,1464,1464,1458,1452,1452,1445,1445,1439,1433,1433,1427,1421,1421,1421,1415,1415,1415,1415,1410,1404,1404,1398,1392,1392,1392,1392,1387,1381,1381,1376,1376,1370,1370,1365,1365,1359,1354,1354,1354,1349,1349,1343,1338,1333,1333,1333,1333,1328,1322,1322,1317,1317,1312,1307,1307,1302,1302,1302,1292,1292,1292,1288,1288,1288,1283,1278,1273,1273,1273,1268,1268,1264,1264,1259,1255,1255,1250,1250,1250,1245,1245,1245,1241,1236,1236,1232,1227,1227,1223,1223,1219,1219,1219,1214,1214,1214,1210,1206,1206,1202,1202,1197,1197,1193,1189,1189,1185,1185,1181,1181,1181,1177,1177,1173,1169,1169,1169,1165,1161,1157,1153,1153,1149,1149,1149,1149,1145,1141,1141,1138,1138,1134,1134,1134,1134,1130,1126,1126,1123,1123,1119,1119,1115,1112,1108,1108,1108,1105,1105,1101,1101,1097,1097,1094,1094,1090,1087,1084,1080,1080,1080,1077,1077,1077,1073,1073,1070,1070,1070,1067,1063,1063,1060,1057,1057,1054,1054,1050,1050,1050,1047,1047,1044,1041,1041,1038,1038,1034,1034,1034,1031,1028,1028,1028,1025,1025,1025,1022,1022,1019,1016,1013,1010,1010,1007,1007,1007,1004,1004,1001,1001,1001,998,995,995,992,989,989,989,987,987,0,0,0,0,0,0,0,0,0,0,0,0,0,0,0,0,0,0,0,0,0,0,0,0,0,0,0,0,0,0,0
0,0,0,0,0,0,0,0,0,0,0,0,0,0,0,1970,1970,1981,1981,1970,1970,1970,1970,1970,1959,1959,1959,1947,1947,1959,1959,1947,1947,1947,1947,1947,1947,1947,1936,1926,1926,1936,1936,1936,1926,1926,1926,1926,1926,1915,1915,1915,1915,1915,1904,1904,1904,1915,1915,1904,1904,1894,1883,1883,1883,1883,1873,1873,1873,1873,1873,1873,1873,1873,1873,1873,1873,1863,1863,1863,1863,1863,1863,1863,1863,1863,1863,1863,1853,1853,1853,1843,1843,1843,1843,1843,1843,1843,1843,1833,1833,1833,1833,1823,1823,1823,1823,1823,1823,1813,1813,1813,1804,1804,1804,1804,1804,1804,1804,1804,1804,1804,1794,1794,1794,1785,1785,1776,1776,1776,1776,1766,1766,1766,1766,1766,1766,1766,1766,1766,1766,1766,1766,1766,1757,1757,1757,1757,1757,1748,1748,1739,1739,1739,1731,1731,1731,1731,1731,1731,1731,1731,1731,1731,1731,1731,1739,1739,1748,1748,1748,1748,1757,1915,1904,1904,1894,1894,1883,1883,1883,1883,1883,1883,1883,1883,1883,1883,1713,1713,1722,1722,1722,1722,1722,1713,1713,1722,1722,1722,1722,1722,1722,1722,1731,1731,1731,1739,1739,1731,1731,1731,1739,1739,1101,1101,1101,1101,1101,1101,1101,1097,1097,1094,1094,1090,1090,1090,1090,1090,1094,1094,1094,1097,1097,1097,1101,1101,1101,1105,1105,1105,1105,1105,0,0,0,1833,1833,1833,1833,1833,1833,1833,1833,1833,1833,1843,1843,1843,1843,1853,1853,1863,1863,1863,1863,1863,1873,1873,1873,1873,1873,1873,1873,1873,1873,1883,1883,1894,1894,1883,1883,1873,1873,1863,1863,1853,1853,1843,1843,1843,0,0,0,0,0,0,0,0,0,0,0,0,862,862,860,860,862,860,860,858,856,851,849,849,849,849,849,851,851,854,854,856,858,858,860,862,862,862,862,864,864,864,864,864,0,0,0,0,0,0,0,1624,1616,1616,1609,1609,1601,1601,1594,1586,1586,1579,1579,1579,1572,1572,1564,1564,1557,1550,1550,1550,1543,1543,1536,1529,1529,1523,1523,1516,1516,1516,1509,1509,1503,1503,1496,1489,1489,1489,1483,1483,1477,1477,1470,1470,1464,1464,1458,1452,1452,1445,1445,1439,1433,1433,1427,1427,1421,1421,1421,1415,1415,1415,1410,1410,1404,1398,1398,1392,1392,1392,1392,1387,1381,1376,1376,1376,1370,1370,1365,1359,1359,1354,1354,1349,1349,1343,1338,1338,1333,1333,1333,1328,1322,1322,1317,1317,1312,1307,1307,1302,1302,1302,1297,1292,1292,1292,1288,1288,1288,1283,1278,1273,1273,1273,1268,1264,1264,1259,1255,1255,1250,1250,1250,1245,1245,1245,1241,1236,1236,1232,1227,1227,1223,1223,1219,1219,1219,1214,1214,1214,1210,1206,1206,1202,1202,1197,1197,1193,1189,1189,1185,1185,1185,1181,1181,1181,1181,1177,1173,1169,1169,1165,1165,1161,1157,1153,1153,1153,1149,1149,1145,1145,1141,1141,1138,1138,1134,1134,1134,1130,1126,1126,1123,1123,1123,1119,1115,1115,1112,1108,1108,1105,1105,1105,1101,1101,1097,1094,1094,1094,1090,1087,1084,1080,1080,1080,1077,1077,1073,1073,1070,1070,1070,1067,1063,1063,1060,1057,1057,1054,1054,1054,1050,1050,1050,1047,1044,1044,1041,1041,1038,1038,1034,1034,1031,1028,1028,1025,1025,1025,1025,1022,1022,1019,1016,1016,1010,1010,1010,1010,1007,1007,1004,1004,1004,1001,998,995,995,992,992,989,989,987,987,0,0,0,0,0,0,0,0,0,0,0,0,0,0,0,0,0,0,0,0,0,0,0,0,0,0,0,0,0,0,0
0,0,0,0,0,0,0,0,0,0,0,0,0,0,0,1981,1981,1981,1981,1981,1970,1970,1970,1970,1959,1959,1959,1959,1959,1959,1959,1959,1959,1947,1947,1947,1947,1947,1936,1926,1926,1936,1936,1936,1926,1926,1936,1926,1926,1926,1915,1915,1915,1915,1915,1915,1915,1915,1915,1915,1904,1904,1894,1894,1883,1883,1873,1873,1873,1873,1873,1873,1873,1873,1873,1873,1873,1873,1873,1873,1873,1873,1873,1873,1873,1863,1863,1863,1863,1853,1853,1843,1843,1843,1843,1843,1843,1843,1843,1843,1833,1833,1833,1823,1823,1823,1823,1823,1823,1813,1813,1813,1804,1804,1804,1804,1804,1804,1804,1804,1804,1804,1804,1794,1794,1794,1785,1776,1776,1776,1776,1776,1776,1776,1776,1766,1766,1766,1766,1766,1766,1766,1766,1766,1757,1757,1757,1757,1757,1748,1748,1748,1739,1739,1739,1731,1731,1731,1731,1731,1731,1731,1731,1731,1731,1731,1739,1739,1748,1748,1748,1748,1757,1904,1904,1894,1894,1883,1883,1883,1883,1883,1883,1883,1883,1873,1873,1873,1722,1722,1722,1722,1722,1722,1722,1722,1722,1722,1722,1722,1722,1722,1722,1722,1731,1731,1731,1739,1739,1739,1739,1739,1739,1101,1101,1097,1097,1101,1101,1101,1101,1101,1097,1097,1094,1094,1090,1090,1090,1094,1094,1097,1097,1097,1101,1101,1101,1101,1105,1105,1105,1105,1105,1105,0,0,0,1843,1843,1833,1833,1833,1833,1833,1833,1843,1843,1843,1843,1843,1853,1853,1853,1863,1863,1863,1863,1873,1873,1873,1873,1873,1873,1873,1873,1873,1873,1883,1883,1894,1894,1883,1883,1883,1873,1873,1863,1863,1853,1853,1843,1843,0,0,0,0,0,0,0,0,0,0,0,0,862,862,860,860,862,860,860,858,856,851,851,851,851,851,851,854,854,854,856,858,858,860,862,862,862,864,864,867,867,867,864,864,867,0,0,0,0,0,0,0,1616,1616,1609,1609,1601,1601,1594,1594,1586,1579,1579,1579,1579,1572,1564,1564,1557,1557,1550,1550,1543,1543,1536,1529,1529,1523,1523,1523,1516,1516,1516,1509,1509,1503,1496,1496,1489,1489,1483,1483,1477,1477,1470,1470,1464,1464,1458,1458,1452,1445,1445,1439,1439,1433,1433,1427,1421,1421,1421,1421,1415,1415,1410,1410,1398,1398,1398,1392,1392,1392,1392,1387,1387,1376,1376,1376,1370,1370,1365,1365,1359,1359,1354,1349,1349,1343,1343,1338,1333,1333,1333,1328,1322,1322,1322,1317,1312,1312,1307,1302,1302,1302,1297,1292,1292,1292,1288,1288,1288,1283,1278,1278,1273,1273,1268,1264,1264,1259,1255,1255,1250,1250,1250,1250,1245,1245,1241,1241,1236,1232,1232,1227,1227,1223,1223,1223,1219,1219,1214,1214,1210,1206,1206,1202,1202,1197,1197,1193,1189,1189,1185,1185,1185,1181,1181,1181,1181,1177,1177,1169,1169,1169,1165,1161,1157,1153,1153,1153,1149,1149,1145,1145,1141,1141,1138,1138,1134,1134,1134,1130,1130,1126,1123,1123,1123,1119,1115,1115,1112,1112,1108,1108,1105,1105,1105,1101,1097,1097,1094,1094,1090,1087,1084,1080,1080,1080,1077,1077,1077,1073,1070,1070,1070,1067,1063,1063,1060,1057,1057,1054,1054,1054,1050,1050,1050,1047,1047,1044,1041,1041,1038,1038,1034,1034,1031,1028,1028,1025,1025,1025,1025,1025,1022,1019,1016,1016,1013,1010,1010,1010,1007,1007,1004,1004,1004,1001,1001,998,995,992,992,989,989,989,989,0,0,0,0,0,0,0,0,0,0,0,0,0,0,0,0,0,0,0,0,0,0,0,0,0,0,0,0,0,0,0
0,0,0,0,0,0,0,0,0,0,0,0,0,0,0,0,1993,1993,1981,1981,1981,1970,1970,1970,1959,1959,1959,1959,1959,1959,1959,1959,1959,1959,1947,1947,1947,1947,1936,1936,1936,1936,1936,1936,1926,1926,1936,1926,1926,1926,1915,1915,1915,1915,1915,1915,1915,1915,1915,1915,1904,1904,1904,1894,1894,1883,1883,1873,1873,1873,1873,1873,1873,1873,1873,1873,1873,1873,1873,1873,1873,1873,1873,1873,1873,1873,1863,1863,1863,1863,1853,1853,1853,1843,1843,1843,1843,1843,1843,1843,1843,1843,1843,1833,1833,1823,1823,1823,1823,1823,1813,1813,1813,1804,1804,1804,1804,1804,1804,1804,1804,1804,1804,1794,1794,1794,1785,1776,1776,1776,1776,1776,1776,1776,1776,1766,1766,1766,1766,1766,1766,1766,1766,1766,1757,1757,1757,1757,1757,1757,1748,1748,1748,1748,1739,1739,1739,1731,1731,1731,1731,1731,1731,1731,1731,1739,1739,1748,1748,1748,1748,1748,1904,1904,1904,1894,1894,1883,1883,1883,1883,1873,1873,1883,1883,1873,1873,1873,1722,1722,1722,1731,1722,1722,1722,1722,1722,1722,1722,1722,1722,1722,1722,1731,1731,1731,1731,1739,1739,1739,1739,1739,1748,1097,1097,1097,1097,1097,1101,1101,1101,1101,1097,1097,1094,1094,1090,1090,1094,1094,1094,1097,1101,1101,1101,1101,1101,1101,1105,1105,1105,1105,1105,1105,0,0,0,1843,1843,1833,1833,1833,1833,1833,1833,1843,1843,1843,1843,1853,1853,1853,1863,1863,1873,1873,1873,1873,1873,1873,1873,1873,1873,1873,1873,1873,1873,1883,1894,1894,1894,1894,1894,1883,1883,1873,1873,1863,1863,1863,1863,0,0,0,0,0,0,0,0,0,0,0,0,0,867,864,862,862,862,860,860,858,856,854,851,851,851,851,851,854,854,856,856,858,858,860,860,862,862,864,864,867,867,867,867,867,867,0,0,0,0,0,0,0,1616,1616,1609,1609,1601,1601,1601,1594,1586,1579,1579,1579,1579,1579,1564,1564,1557,1557,1550,1550,1543,1543,1543,1536,1536,1523,1523,1523,1516,1516,1516,1509,1509,1503,1503,1496,1489,1489,1489,1483,1477,1477,1470,1470,1464,1464,1464,1458,1458,1452,1445,1439,1439,1433,1433,1427,1427,1421,1421,1421,1415,1415,1415,1410,1398,1398,1398,1392,1392,1392,1392,1387,1387,1381,1376,1376,1370,1370,1370,1365,1365,1359,1354,1354,1349,1349,1343,1343,1338,1333,1333,1328,1328,1322,1322,1317,1317,1312,1307,1307,1307,1302,1302,1292,1292,1292,1288,1288,1288,1283,1283,1278,1273,1273,1268,1268,1264,1259,1259,1255,1255,1250,1250,1250,1245,1245,1245,1241,1241,1232,1232,1227,1227,1227,1223,1223,1219,1219,1214,1214,1214,1210,1206,1202,1202,1197,1197,1193,1193,1189,1189,1185,1185,1185,1181,1181,1181,1181,1177,1173,1173,1169,1169,1165,1161,1157,1153,1153,1153,1149,1149,1145,1145,1141,1138,1138,1134,1134,1134,1134,1130,1126,1123,1123,1119,1119,1115,1115,1112,1112,1108,1108,1105,1105,1105,1101,1101,1097,1094,1094,1090,1087,1084,1084,1080,1080,1077,1077,1077,1073,1070,1070,1070,1067,1063,1063,1060,1060,1057,1057,1054,1054,1054,1050,1050,1050,1047,1044,1041,1041,1041,1038,1038,1034,1031,1031,1028,1028,1025,1025,1025,1025,1022,1019,1016,1016,1013,1010,1010,1010,1007,1007,1007,1004,1004,1004,1001,998,995,992,992,989,989,989,989,0,0,0,0,0,0,0,0,0,0,0,0,0,0,0,0,0,0,0,0,0,0,0,0,0,0,0,0,0,0,0
0,0,0,0,0,0,0,0,0,0,0,0,0,0,0,0,1993,1981,1981,1981,1981,1981,1981,1970,1970,1970,1970,1959,1959,1959,1959,1959,1959,1959,1959,1959,1947,1947,1936,1936,1936,1936,1936,1936,1926,1926,1936,1926,1926,1926,1926,1915,1915,1915,1915,1915,1915,1915,1915,1915,1915,1904,1904,1904,1894,1894,1883,1883,1883,1883,1883,1883,1883,1873,1873,1873,1873,1873,1873,1873,1873,1873,1873,1873,1873,1873,1873,1863,1863,1863,1853,1853,1853,1843,1843,1843,1843,1843,1843,1843,1843,1843,1843,1833,1833,1833,1833,1833,1823,1823,1823,1823,1813,1813,1804,1804,1804,1804,1804,1804,1804,1804,1804,1794,1794,1794,1794,1785,1785,1785,1776,1776,1776,1776,1776,1766,1766,1766,1766,1766,1766,1766,1766,1766,1757,1757,1757,1757,1757,1757,1757,1748,1748,1748,1748,1739,1739,1739,1731,1731,1731,1731,1731,1739,1739,1739,1748,1748,1748,1748,1748,1748,1748,1894,1894,1894,1883,1883,1883,1883,1883,1873,1873,1873,1873,1873,1873,1873,1731,1731,1731,1731,1731,1731,1722,1722,1722,1722,1722,1722,1722,1722,1722,1731,1731,1739,1739,1739,1739,1739,1090,1087,1087,1094,1094,1094,1097,1097,1101,1101,1101,1101,1101,1097,1094,1094,1094,1094,1094,1094,1097,1097,1101,1101,1101,1101,1101,1105,1105,1101,1101,1101,1105,1105,1094,0,1843,1843,1843,1833,1833,1833,1833,1843,1843,1843,1843,1843,1853,1853,1853,1853,1863,1863,1873,1873,1873,1873,1873,1873,1873,1873,1873,1873,1873,1883,1883,1883,1894,1894,1894,1894,1894,1883,1883,1883,1873,1873,1873,1863,1863,0,0,0,0,0,0,0,0,0,0,0,0,0,867,864,862,862,862,860,860,858,856,854,854,851,851,851,854,854,854,856,856,858,858,860,860,862,862,864,864,867,869,869,869,867,867,0,0,0,0,0,0,0,1616,1616,1609,1609,1601,1601,1601,1594,1586,1586,1579,1579,1579,1579,1572,1564,1557,1557,1550,1550,1550,1543,1543,1536,1536,1523,1523,1523,1516,1516,1516,1509,1509,1503,1503,1496,1489,1489,1489,1483,1483,1477,1470,1470,1470,1464,1464,1458,1458,1452,1445,1445,1439,1439,1433,1433,1427,1427,1421,1421,1415,1415,1415,1410,1404,1398,1398,1392,1392,1392,1392,1387,1387,1381,1376,1376,1376,1370,1370,1365,1365,1359,1359,1354,1354,1349,1349,1343,1338,1333,1333,1328,1328,1328,1322,1322,1317,1312,1312,1307,1307,1307,1302,1297,1292,1292,1292,1288,1288,1288,1283,1278,1273,1273,1268,1268,1264,1259,1259,1255,1255,1250,1250,1250,1245,1245,1245,1241,1241,1236,1232,1227,1227,1227,1223,1223,1219,1219,1219,1214,1214,1210,1210,1206,1202,1202,1197,1197,1193,1189,1189,1185,1185,1185,1181,1181,1181,1181,1177,1173,1173,1169,1169,1165,1161,1157,1157,1153,1153,1149,1149,1145,1145,1141,1138,1138,1138,1134,1134,1134,1130,1126,1123,1123,1119,1119,1115,1115,1112,1112,1108,1108,1105,1105,1105,1101,1101,1097,1097,1094,1090,1087,1084,1084,1080,1080,1077,1077,1077,1077,1073,1073,1070,1070,1067,1063,1060,1060,1057,1057,1054,1054,1054,1050,1050,1050,1050,1047,1044,1041,1041,1038,1038,1038,1034,1031,1028,1028,1025,1025,1025,1025,1022,1019,1016,1016,1013,1010,1010,1010,1007,1007,1007,1004,1004,1004,1001,1001,998,995,992,989,989,989,989,0,0,0,0,0,0,0,0,0,0,0,0,0,0,0,0,0,0,0,0,0,0,0,0,0,0,0,0,0,0,0
0,0,0,0,0,0,0,0,0,0,0,0,0,0,0,0,1993,1981,1981,1981,1981,1981,1970,1970,1970,1970,1970,1959,1959,1959,1959,1959,1959,1959,1959,1959,1947,1947,1936,1936,1947,1936,1936,1936,1926,1926,1936,1926,1926,1926,1926,1915,1915,1915,1915,1915,1915,1915,1915,1915,1915,1915,1904,1904,1904,1894,1894,1883,1883,1883,1883,1883,1883,1883,1883,1883,1873,1873,1873,1873,1873,1873,1873,1873,1873,1873,1873,1873,1863,1863,1863,1853,1853,1853,1853,1843,1843,1843,1843,1843,1843,1843,1843,1833,1833,1833,1833,1833,1833,1833,1833,1823,1823,1813,1813,1813,1813,1813,1813,1804,1804,1804,1804,1804,1794,1794,1794,1794,1785,1785,1785,1785,1785,1776,1776,1766,1766,1766,1766,1766,1766,1766,1766,1766,1766,1757,1757,1757,1757,1757,1757,1757,1748,1748,1748,1739,1739,1739,1739,1731,1731,1739,1739,1739,1739,1748,1748,1748,1748,1748,1748,1748,1748,1894,1894,1894,1883,1883,1873,1873,1873,1873,1873,1873,1873,1873,1873,1873,1873,1731,1731,1731,1731,1731,1731,1722,1722,1722,1722,1722,1722,1722,1722,1731,1731,1739,1739,1748,1087,1087,1087,1087,1087,1090,1094,1094,1094,1097,1101,1101,1101,1101,1101,1101,1097,1097,1097,1094,1094,1094,1097,1101,1101,1101,1101,1101,1101,1101,1101,1101,1101,1101,1094,1094,1094,0,1843,1843,1843,1843,1833,1833,1833,1843,1843,1843,1843,1843,1853,1853,1853,1853,1863,1863,1873,1873,1873,1873,1873,1873,1873,1873,1873,1873,1883,1883,1883,1883,1894,1894,1894,1894,1894,1894,1883,1883,1873,1873,1873,1863,1863,0,0,0,0,0,0,0,0,0,0,0,0,0,867,864,862,862,862,862,860,858,856,854,854,851,851,854,854,854,856,856,858,858,860,860,862,862,864,864,867,869,869,869,869,867,867,0,0,0,0,0,0,0,1624,1624,1616,1609,1609,1601,1601,1601,1594,1586,1579,1579,1579,1579,1572,1564,1557,1557,1550,1550,1550,1543,1543,1536,1536,1529,1523,1523,1516,1516,1516,1516,1509,1503,1503,1496,1496,1489,1489,1483,1483,1477,1477,1470,1470,1464,1464,1464,1458,1452,1445,1439,1439,1439,1433,1433,1427,1427,1421,1421,1421,1415,1415,1410,1404,1398,1398,1398,1392,1392,1392,1387,1387,1381,1376,1376,1376,1370,1370,1370,1365,1359,1359,1354,1354,1349,1349,1349,1343,1338,1333,1328,1328,1328,1328,1322,1317,1312,1312,1307,1307,1307,1302,1297,1292,1292,1288,1288,1288,1288,1283,1283,1278,1273,1268,1268,1264,1264,1259,1255,1255,1250,1250,1250,1245,1245,1245,1241,1236,1236,1232,1232,1227,1227,1227,1223,1219,1219,1219,1219,1214,1214,1210,1206,1202,1202,1197,1197,1193,1193,1189,1189,1185,1185,1185,1181,1181,1181,1177,1173,1173,1169,1169,1165,1161,1157,1157,1157,1153,1153,1149,1149,1145,1141,1141,1138,1138,1134,1134,1134,1130,1126,1123,1123,1119,1119,1115,1115,1112,1112,1108,1108,1108,1105,1105,1101,1101,1097,1097,1094,1090,1087,1084,1084,1080,1080,1080,1077,1077,1077,1073,1073,1070,1070,1067,1063,1060,1060,1060,1057,1057,1054,1054,1054,1050,1050,1050,1047,1044,1044,1041,1041,1038,1038,1034,1034,1031,1028,1028,1028,1025,1025,1022,1022,1019,1016,1013,1010,1010,1010,1007,1007,1007,1004,1004,1004,1001,1001,998,998,995,992,992,989,989,0,0,0,0,0,0,0,0,0,0,0,0,0,0,0,0,0,0,0,0,0,0,0,0,0,0,0,0,0,0,0
0,0,0,0,0,0,0,0,0,0,0,0,0,0,0,0,1993,1993,1981,1981,1981,1981,1970,1970,1970,1970,1970,1970,1970,1970,1970,1970,1959,1959,1959,1959,1947,1947,1947,1947,1947,1947,1947,1947,1926,1926,1936,1926,1926,1926,1926,1926,1915,1915,1915,1915,1915,1915,1915,1915,1915,1915,1915,1915,1904,1904,1894,1894,1894,1894,1894,1894,1883,1883,1883,1883,1883,1883,1883,1873,1873,1883,1873,1873,1873,1873,1873,1873,1863,1863,1863,1853,1853,1853,1853,1843,1843,1843,1843,1843,1843,1843,1843,1843,1833,1833,1833,1833,1833,1833,1833,1823,1823,1823,1823,1813,1813,1813,1813,1813,1813,1804,1804,1804,1794,1794,1794,1794,1794,1794,1785,1785,1785,1776,1776,1766,1766,1766,1766,1766,1766,1766,1766,1766,1766,1766,1757,1757,1757,1757,1757,1757,1748,1748,1748,1739,1739,1739,1739,1731,1731,1739,1739,1739,1748,1748,1748,1748,1748,1748,1748,1748,1748,1904,1904,1894,1883,1883,1873,1873,1873,1873,1873,1873,1873,1873,1873,1873,1873,1739,1739,1739,1731,1731,1731,1731,1722,1722,1722,1722,1722,1722,1722,1731,1731,1739,1084,1084,1087,1087,1087,1087,1087,1090,1090,1090,1090,1094,1097,1097,1097,1101,1101,1101,1097,1097,1097,1097,1097,1097,1097,1101,1101,1101,1101,1101,1101,1101,1101,1101,1101,1101,1090,1090,1090,0,1843,1843,1843,1843,1843,1843,1843,1843,1843,1843,1853,1853,1853,1853,1863,1863,1863,1863,1863,1873,1873,1873,1873,1873,1873,1873,1883,1883,1883,1883,1883,1883,1894,1894,1894,1894,1904,1894,1883,1883,1883,1873,1873,1873,1873,0,0,0,0,0,0,0,0,0,0,0,0,0,867,864,864,864,862,862,860,860,858,856,854,851,851,854,854,854,856,856,858,860,860,860,862,862,864,864,867,869,869,869,869,869,869,0,0,0,0,0,0,1624,1624,1624,1616,1609,1609,1609,1601,1601,1594,1594,1586,1579,1579,1579,1572,1572,1564,1557,1550,1550,1550,1543,1543,1543,1536,1536,1523,1523,1523,1516,1516,1516,1509,1509,1503,1503,1496,1489,1489,1489,1483,1483,1477,1470,1470,1464,1464,1464,1458,1452,1445,1439,1439,1439,1439,1433,1427,1427,1421,1421,1421,1415,1415,1410,1404,1398,1398,1398,1398,1392,1392,1392,1387,1381,1376,1376,1376,1370,1370,1370,1365,1365,1359,1354,1354,1349,1349,1349,1343,1338,1333,1328,1328,1328,1328,1322,1322,1317,1312,1307,1307,1307,1302,1297,1292,1292,1288,1288,1288,1288,1283,1283,1278,1278,1273,1268,1268,1264,1259,1259,1255,1255,1250,1250,1245,1245,1245,1241,1236,1236,1236,1232,1232,1227,1227,1223,1223,1219,1219,1219,1214,1214,1210,1206,1202,1202,1202,1197,1197,1193,1193,1189,1185,1185,1185,1181,1181,1181,1177,1177,1173,1169,1169,1165,1165,1161,1161,1157,1153,1153,1149,1149,1145,1141,1141,1138,1138,1134,1134,1134,1130,1126,1126,1123,1119,1119,1119,1119,1115,1112,1112,1108,1108,1105,1105,1105,1101,1097,1097,1094,1090,1090,1087,1084,1084,1080,1080,1077,1077,1077,1077,1073,1073,1073,1070,1063,1063,1063,1060,1060,1057,1057,1054,1054,1054,1050,1050,1047,1044,1044,1041,1041,1041,1038,1034,1034,1031,1031,1028,1028,1025,1025,1025,1022,1019,1016,1016,1013,1010,1010,1007,1007,1007,1007,1004,1004,1001,1001,1001,998,995,992,992,992,992,0,0,0,0,0,0,0,0,0,0,0,0,0,0,0,0,0,0,0,0,0,0,0,0,0,0,0,0,0,0,0
0,0,0,0,0,0,0,0,0,0,0,0,0,0,0,0,1993,1993,1981,1981,1981,1981,1970,1970,1970,1970,1970,1970,1970,1970,1970,1970,1959,1959,1959,1959,1959,1947,1947,1947,1959,1947,1947,1947,1947,1936,1936,1926,1926,1926,1926,1926,1926,1926,1915,1915,1926,1926,1926,1926,1915,1915,1915,1915,1915,1915,1894,1894,1904,1904,1894,1894,1894,1894,1894,1883,1883,1883,1883,1883,1883,1883,1883,1883,1883,1883,1873,1873,1873,1873,1863,1863,1863,1853,1853,1853,1853,1843,1843,1843,1843,1843,1843,1843,1843,1833,1833,1833,1833,1833,1833,1823,1823,1823,1823,1823,1813,1813,1813,1813,1813,1804,1804,1804,1804,1794,1794,1794,1794,1794,1785,1785,1785,1776,1776,1776,1776,1776,1776,1766,1766,1766,1766,1766,1766,1766,1766,1766,1766,1757,1757,1757,1757,1748,1748,1748,1739,1739,1739,1739,1739,1739,1739,1739,1748,1748,1748,1748,1757,1748,1748,1748,1748,1904,1904,1894,1883,1883,1873,1873,1873,1873,1873,1873,1873,1873,1873,1873,1739,1739,1739,1739,1739,1731,1731,1731,1731,1722,1077,1077,1722,1077,1077,1731,1731,1080,1080,1084,1087,1087,1087,1087,1087,1090,1087,1087,1090,1094,1097,1097,1097,1101,1101,1101,1097,1097,1097,1097,1097,1097,1097,1101,1101,1101,1101,1101,1101,1101,1101,1077,1073,1073,1087,1087,1087,1073,1073,1843,1843,1843,1843,1843,1843,1843,1843,1853,1853,1853,1853,1863,1863,1863,1863,1863,1863,1873,1873,1873,1873,1873,1873,1873,1883,1883,1883,1883,1883,1883,1894,1894,1894,1894,1904,1904,1894,1883,1883,1873,1873,1873,1873,0,0,0,0,0,0,0,0,0,0,0,0,869,867,867,864,864,864,862,860,860,858,856,856,854,854,854,854,854,856,858,858,860,860,862,862,864,864,867,867,869,869,869,869,869,0,0,0,0,0,0,0,1624,1624,1624,1616,1609,1609,1609,1601,1601,1594,1594,1586,1586,1586,1579,1572,1572,1564,1557,1557,1550,1550,1543,1543,1543,1536,1536,1529,1523,1523,1516,1516,1516,1516,1509,1509,1503,1496,1496,1489,1489,1489,1483,1477,1470,1470,1470,1464,1464,1464,1452,1445,1445,1445,1439,1439,1439,1433,1427,1421,1421,1421,1415,1415,1410,1404,1398,1398,1398,1398,1392,1392,1392,1387,1381,1376,1376,1376,1370,1370,1370,1365,1365,1359,1359,1354,1354,1349,1349,1343,1338,1333,1333,1328,1328,1328,1322,1322,1317,1312,1312,1312,1307,1307,1302,1292,1292,1292,1288,1288,1288,1288,1283,1283,1278,1278,1268,1268,1264,1264,1259,1255,1255,1250,1250,1250,1245,1245,1245,1241,1236,1236,1232,1232,1232,1227,1227,1223,1219,1219,1219,1214,1214,1210,1206,1202,1202,1202,1197,1197,1193,1193,1189,1185,1185,1185,1185,1185,1181,1177,1177,1173,1169,1169,1169,1165,1165,1161,1157,1157,1153,1153,1149,1149,1145,1141,1138,1138,1134,1134,1134,1130,1126,1126,1123,1123,1119,1119,1119,1115,1112,1112,1108,1108,1105,1105,1105,1101,1101,1097,1094,1094,1090,1087,1087,1084,1080,1080,1080,1077,1077,1077,1073,1073,1073,1070,1063,1063,1063,1060,1060,1057,1057,1057,1054,1054,1050,1050,1047,1044,1044,1041,1041,1041,1038,1038,1034,1031,1031,1028,1028,1025,1025,1025,1022,1019,1016,1016,1013,1013,1010,1010,1010,1007,1007,1004,1004,1001,1001,1001,1001,998,998,992,992,992,0,0,0,0,0,0,0,0,0,0,0,0,0,0,0,0,0,0,0,0,0,0,0,0,0,0,0,0,0,0,0
0,0,0,0,0,0,0,0,0,0,0,0,0,0,0,0,2005,1993,1993,1993,1993,1981,1981,1981,1970,1970,1970,1970,1970,1970,1970,1970,1959,1959,1959,1959,1959,1959,1959,1959,1959,1959,1959,1959,1947,1947,1947,1926,1926,1926,1926,1926,1926,1926,1926,1926,1926,1926,1926,1926,1926,1915,1915,1915,1915,1915,1904,1904,1904,1904,1894,1894,1894,1894,1894,1883,1883,1883,1883,1883,1883,1883,1883,1883,1883,1883,1873,1873,1873,1873,1863,1863,1863,1853,1853,1853,1853,1843,1843,1843,1843,1843,1843,1843,1843,1833,1833,1833,1833,1833,1833,1833,1823,1823,1823,1823,1813,1813,1823,1813,1813,1804,1804,1804,1804,1794,1794,1794,1794,1794,1794,1785,1785,1776,1776,1776,1776,1776,1776,1766,1766,1766,1766,1766,1766,1766,1766,1766,1766,1757,1757,1757,1757,1757,1748,1748,1739,1739,1739,1739,1739,1739,1739,1739,1748,1748,1748,1748,1757,1757,1757,1757,1757,1894,1894,1894,1883,1883,1873,1873,1873,1873,1873,1873,1883,1883,1883,1883,1739,1739,1739,1739,1739,1739,1731,1731,1731,1077,1077,1077,1077,1077,1077,1073,1073,1077,1077,1080,1080,1080,1080,1080,1084,1084,1084,1084,1087,1090,1090,1090,1090,1097,1097,1097,1094,1094,1094,1094,1094,1097,1097,1097,1101,1101,1101,1050,1050,1101,1101,1067,1067,1073,1067,1067,1067,1073,1073,1843,1843,1843,1843,1843,1843,1853,1853,1853,1863,1863,1863,1863,1863,1863,1863,1863,1873,1873,1873,1873,1873,1873,1873,1873,1883,1883,1883,1883,1883,1883,1894,1894,1894,1904,1904,1904,1894,1883,1883,1883,1883,1883,1883,0,0,0,0,0,0,0,0,0,0,0,0,869,867,867,864,864,864,862,860,860,858,856,856,854,854,854,854,854,858,858,858,860,860,862,862,864,864,867,867,869,869,871,871,871,0,0,0,0,0,0,1624,1624,1624,1624,1616,1609,1609,1609,1601,1601,1601,1594,1594,1586,1586,1579,1572,1572,1564,1564,1557,1550,1550,1550,1543,1543,1536,1536,1529,1523,1523,1516,1516,1516,1516,1509,1509,1503,1503,1496,1489,1489,1489,1483,1477,1477,1470,1470,1464,1464,1464,1452,1452,1445,1445,1445,1439,1439,1433,1433,1427,1421,1421,1415,1415,1410,1404,1404,1398,1398,1398,1398,1392,1392,1387,1381,1376,1376,1376,1376,1370,1370,1370,1365,1365,1359,1354,1354,1349,1349,1343,1343,1333,1333,1333,1328,1328,1322,1322,1317,1317,1312,1312,1307,1307,1307,1297,1297,1292,1292,1288,1288,1288,1283,1283,1278,1278,1273,1268,1264,1264,1259,1255,1255,1255,1250,1250,1245,1245,1245,1241,1236,1236,1236,1232,1232,1227,1227,1223,1219,1219,1219,1214,1214,1210,1210,1206,1202,1202,1197,1197,1197,1193,1193,1189,1185,1185,1185,1181,1181,1177,1177,1173,1169,1169,1169,1165,1165,1165,1161,1157,1153,1153,1149,1149,1145,1145,1141,1138,1134,1134,1134,1130,1126,1126,1123,1123,1119,1119,1119,1115,1112,1112,1108,1108,1105,1105,1105,1101,1101,1094,1094,1090,1090,1087,1087,1084,1084,1080,1080,1077,1077,1077,1073,1073,1073,1070,1067,1063,1063,1063,1060,1060,1057,1057,1054,1054,1054,1050,1047,1044,1044,1041,1041,1041,1038,1038,1034,1034,1031,1031,1028,1028,1025,1025,1022,1022,1019,1016,1013,1013,1013,1010,1010,1010,1007,1004,1004,1004,1001,1001,1001,998,995,992,992,992,0,0,0,0,0,0,0,0,0,0,0,0,0,0,0,0,0,0,0,0,0,0,0,0,0,0,0,0,0,0,0
0,0,0,0,0,0,0,0,0,0,0,0,0,0,0,0,2005,2005,2005,1993,1993,1981,1981,1981,1970,1970,1970,1970,1970,1970,1970,1970,1970,1970,1970,1959,1959,1959,1959,1959,1959,1959,1959,1947,1947,1947,1947,1936,1936,1936,1926,1926,1926,1926,1926,1926,1926,1926,1926,1926,1926,1926,1915,1915,1915,1915,1904,1904,1904,1904,1894,1894,1894,1894,1894,1894,1883,1883,1883,1883,1883,1883,1883,1883,1883,1883,1873,1873,1873,1873,1863,1863,1863,1863,1863,1853,1853,1853,1853,1853,1853,1843,1843,1843,1843,1833,1833,1833,1833,1833,1833,1833,1833,1833,1823,1823,1823,1823,1823,1823,1823,1813,1813,1813,1804,1804,1804,1804,1804,1794,1794,1794,1794,1785,1785,1785,1785,1785,1785,1776,1776,1776,1776,1766,1766,1766,1766,1766,1766,1757,1757,1757,1757,1757,1748,1748,1748,1748,1739,1739,1739,1739,1739,1739,1748,1748,1748,1748,1757,1757,1757,1757,1757,1894,1894,1883,1883,1883,1873,1873,1873,1873,1060,1060,1063,1883,1067,1067,1063,1063,1739,1739,1739,1739,1739,1739,1077,1073,1073,1073,1077,1073,1073,1070,1070,1073,1073,1077,1080,1080,1080,1080,1084,1084,1084,1084,1084,1084,1084,1087,1087,1094,1094,1097,1094,1094,1094,1094,1094,1097,1097,1097,1101,1101,1050,1050,1050,1054,1057,1063,1067,1070,1067,1063,1063,1063,1060,1060,1060,1047,1853,1853,1853,1853,1863,1863,1863,1863,1863,1863,1863,1863,1863,1873,1873,1873,1873,1873,1883,1883,1883,1883,1883,1883,1883,1883,1883,1883,1894,1894,1904,1904,1904,1904,1894,1883,1883,1883,1883,1883,1883,0,0,0,0,0,0,0,0,0,0,0,0,0,867,867,867,867,864,862,862,860,858,858,856,854,854,854,854,856,858,858,858,860,860,862,862,864,864,867,869,869,869,871,871,0,0,0,0,0,0,0,1624,1624,1624,1624,1616,1609,1609,1609,1609,1601,1601,1601,1594,1594,1586,1586,1572,1572,1564,1564,1557,1550,1550,1550,1543,1543,1536,1529,1529,1523,1523,1516,1516,1516,1516,1516,1509,1509,1503,1496,1489,1489,1489,1483,1477,1477,1470,1470,1470,1464,1464,1458,1452,1452,1445,1445,1445,1439,1439,1433,1427,1421,1421,1415,1415,1415,1410,1404,1404,1398,1398,1398,1392,1392,1387,1387,1376,1376,1376,1376,1370,1370,1370,1365,1365,1359,1354,1354,1349,1349,1343,1343,1333,1333,1333,1328,1328,1322,1322,1317,1317,1312,1312,1307,1307,1307,1302,1297,1292,1292,1288,1288,1288,1288,1283,1278,1278,1273,1268,1268,1264,1264,1259,1255,1255,1250,1250,1245,1245,1245,1241,1241,1236,1236,1232,1232,1232,1227,1227,1223,1219,1219,1219,1214,1210,1210,1206,1202,1202,1197,1197,1197,1193,1193,1189,1185,1185,1185,1181,1181,1177,1177,1173,1169,1169,1169,1169,1165,1165,1161,1157,1153,1153,1153,1149,1145,1145,1141,1141,1138,1134,1134,1130,1130,1130,1126,1123,1119,1119,1119,1115,1115,1112,1112,1108,1108,1105,1105,1101,1101,1094,1094,1090,1090,1087,1087,1084,1084,1080,1080,1080,1077,1077,1077,1073,1073,1067,1067,1063,1063,1063,1060,1060,1057,1057,1054,1054,1054,1050,1047,1044,1044,1041,1041,1041,1038,1038,1034,1034,1031,1031,1028,1028,1028,1025,1025,1022,1019,1016,1016,1013,1013,1013,1010,1010,1007,1004,1004,1004,1001,1001,1001,998,995,992,992,992,0,0,0,0,0,0,0,0,0,0,0,0,0,0,0,0,0,0,0,0,0,0,0,0,0,0,0,0,0,0,0
0,0,0,0,0,0,0,0,0,0,0,0,0,0,0,0,2005,2005,2005,1993,1993,1981,1981,2005,1981,1981,1970,1970,1970,1970,1970,1970,1970,1970,1970,1970,1959,1959,1959,1959,1959,1959,1959,1947,1947,1947,1947,1936,1936,1936,1926,1926,1936,1926,1926,1926,1926,1926,1926,1926,1926,1926,1915,1915,1915,1915,1904,1904,1904,1915,1904,1904,1894,1894,1894,1894,1883,1883,1883,1883,1883,1883,1883,1883,1883,1883,1873,1873,1873,1873,1873,1863,1863,1863,1863,1853,1853,1853,1853,1853,1853,1843,1843,1843,1843,1843,1843,1833,1833,1833,1833,1833,1833,1833,1833,1833,1823,1823,1823,1823,1823,1813,1813,1813,1813,1804,1804,1804,1804,1804,1794,1794,1794,1785,1785,1785,1785,1785,1785,1776,1776,1776,1776,1766,1766,1766,1766,1766,1766,1757,1757,1757,1757,1757,1757,1748,1748,1748,1748,1739,1739,1739,1739,1739,1748,1748,1748,1757,1757,1757,1757,1757,1757,1894,1894,1883,1883,1883,1873,1873,1873,1063,1060,1060,1063,1063,1063,1063,1063,1060,1060,1060,1060,1060,1739,1739,1073,1073,1070,1070,1070,1070,1070,1070,1070,1070,1070,1070,1077,1077,1077,1077,1077,1080,1080,1077,1077,1077,1077,1084,1084,1087,1087,1090,1090,1090,1090,1090,1094,1097,1044,1044,1044,1047,1047,1050,1050,1054,1054,1060,1060,1063,1063,1060,1060,1063,1057,1054,1047,1047,1050,1050,1873,1873,1863,1863,1863,1863,1863,1863,1863,1863,1863,1873,1873,1873,1873,1883,1883,1883,1883,1883,1883,1883,1883,1883,1883,1894,1894,1904,1904,1904,1904,1904,1894,1894,1883,1883,1883,1883,1883,0,0,0,0,0,0,0,0,0,0,0,0,0,867,867,867,867,864,864,862,860,858,858,854,854,856,856,856,856,858,858,860,860,862,862,862,864,867,869,869,869,869,871,871,0,0,0,0,0,0,0,1624,1624,1624,1624,1616,1616,1609,1609,1609,1601,1601,1601,1594,1594,1586,1579,1579,1572,1564,1564,1557,1557,1550,1550,1543,1543,1536,1529,1529,1523,1523,1523,1516,1516,1516,1516,1509,1509,1503,1503,1496,1489,1489,1483,1483,1477,1470,1470,1470,1464,1464,1464,1452,1452,1445,1445,1445,1439,1439,1433,1427,1421,1421,1415,1415,1415,1410,1410,1410,1404,1404,1398,1398,1392,1387,1387,1376,1376,1376,1376,1370,1370,1370,1365,1365,1359,1354,1354,1349,1349,1349,1338,1338,1333,1333,1328,1328,1328,1322,1317,1317,1312,1312,1307,1307,1307,1302,1302,1297,1292,1288,1288,1288,1288,1283,1278,1278,1273,1268,1268,1264,1264,1259,1259,1255,1255,1250,1250,1250,1245,1245,1241,1236,1236,1232,1232,1232,1227,1227,1223,1223,1219,1219,1214,1210,1210,1206,1202,1202,1197,1197,1197,1193,1193,1189,1189,1185,1185,1181,1181,1177,1177,1173,1173,1169,1169,1169,1165,1165,1161,1157,1157,1153,1153,1149,1149,1145,1141,1141,1138,1134,1134,1130,1130,1130,1126,1123,1123,1119,1119,1115,1115,1112,1112,1108,1108,1105,1105,1101,1097,1097,1094,1090,1090,1087,1087,1087,1084,1084,1080,1080,1077,1077,1077,1073,1073,1067,1067,1063,1063,1063,1060,1060,1060,1057,1057,1054,1054,1050,1047,1047,1044,1041,1041,1041,1038,1038,1038,1034,1034,1031,1031,1028,1028,1025,1025,1022,1019,1016,1016,1016,1013,1013,1013,1010,1010,1007,1004,1004,1001,1001,1001,998,995,995,992,992,0,0,0,0,0,0,0,0,0,0,0,0,0,0,0,0,0,0,0,0,0,0,0,0,0,0,0,0,0,0,0
0,0,0,0,0,0,0,0,0,0,0,0,0,0,0,0,2005,2005,2005,2005,2005,1993,1993,1993,1993,1981,1981,1981,1981,1981,1981,1981,1981,1981,1981,1970,1970,1959,1959,1959,1959,1959,1959,1947,1947,1947,1947,1947,1947,1947,1936,1936,1936,1936,1936,1926,1926,1926,1926,1926,1926,1915,1915,1915,1915,1915,1904,1904,1904,1915,1904,1904,1904,1904,1904,1894,1894,1894,1894,1883,1883,1883,1883,1883,1883,1883,1873,1873,1873,1873,1873,1873,1863,1863,1863,1863,1863,1863,1853,1853,1853,1843,1843,1843,1843,1843,1843,1833,1833,1833,1833,1833,1833,1833,1833,1833,1833,1833,1833,1823,1823,1823,1823,1813,1813,1813,1804,1804,1804,1804,1794,1794,1794,1794,1785,1785,1785,1785,1785,1776,1776,1776,1776,1766,1766,1766,1766,1766,1766,1757,1757,1757,1757,1757,1757,1757,1748,1748,1748,1748,1748,1739,1739,1739,1748,1047,1047,1757,1757,1757,1757,1757,1757,1894,1894,1883,1883,1050,1050,1050,1054,1057,1060,1060,1060,1063,1063,1063,1060,1060,1060,1060,1060,1060,1060,1063,1067,1070,1070,1070,1070,1070,1070,1070,1070,1067,1067,1067,1073,1073,1070,1063,1063,1077,1073,1063,1063,1063,1063,1070,1070,1087,1080,1080,1090,1090,1090,1090,1044,1044,1044,1044,1044,1047,1047,1050,1050,1054,1054,1057,1057,1060,1060,1057,1057,1057,1047,1044,1044,1044,1044,1044,1044,1044,1863,1863,1863,1863,1863,1863,1863,1863,1863,1873,1873,1873,1873,1883,1883,1883,1883,1883,1883,1883,1883,1883,1883,1894,1894,1904,1904,1904,1904,1904,1894,1894,1883,1883,1883,1883,1883,0,0,0,0,0,0,0,0,0,0,0,0,0,867,867,867,867,864,864,862,860,860,858,854,854,856,856,856,858,858,860,860,862,862,862,864,864,867,869,869,869,871,871,871,0,0,0,0,0,0,0,1632,1632,1632,1632,1624,1616,1616,1609,1609,1601,1601,1601,1601,1594,1594,1579,1579,1572,1572,1564,1564,1557,1557,1550,1550,1543,1543,1536,1529,1523,1523,1523,1516,1516,1516,1516,1516,1509,1503,1503,1496,1489,1489,1489,1483,1477,1470,1470,1470,1464,1464,1464,1458,1452,1452,1445,1445,1439,1439,1433,1427,1427,1421,1421,1415,1415,1415,1410,1410,1404,1404,1398,1398,1392,1392,1387,1376,1376,1376,1376,1370,1370,1370,1370,1365,1359,1354,1354,1354,1349,1349,1338,1338,1333,1333,1333,1328,1328,1322,1322,1317,1312,1312,1312,1307,1307,1302,1302,1297,1292,1292,1288,1288,1288,1283,1283,1278,1278,1273,1268,1268,1264,1259,1259,1255,1255,1250,1250,1250,1250,1250,1241,1236,1236,1236,1232,1232,1232,1227,1223,1223,1219,1219,1214,1214,1210,1206,1202,1202,1202,1197,1197,1193,1193,1189,1189,1185,1185,1181,1181,1177,1177,1177,1173,1169,1169,1169,1165,1165,1165,1157,1157,1153,1153,1149,1149,1145,1145,1141,1138,1134,1134,1134,1130,1130,1130,1123,1123,1123,1119,1119,1115,1115,1112,1108,1108,1105,1105,1105,1097,1097,1094,1094,1094,1090,1090,1087,1084,1084,1080,1080,1080,1077,1077,1077,1073,1067,1067,1063,1063,1063,1063,1063,1060,1057,1057,1054,1054,1054,1050,1047,1044,1044,1041,1041,1038,1038,1038,1034,1034,1031,1031,1028,1028,1025,1025,1025,1019,1019,1016,1016,1016,1013,1013,1013,1010,1007,1007,1004,1004,1001,1001,998,998,995,995,995,0,0,0,0,0,0,0,0,0,0,0,0,0,0,0,0,0,0,0,0,0,0,0,0,0,0,0,0,0,0,0
0,0,0,0,0,0,0,0,0,0,0,0,0,0,0,2016,2016,2005,2005,2005,2005,1993,1993,1993,1993,1993,1981,1981,1981,1981,1981,1981,1981,1981,1981,1970,1970,1970,1959,1959,1959,1959,1959,1947,1947,1947,1947,1947,1947,1947,1936,1936,1936,1936,1936,1936,1926,1926,1926,1926,1926,1915,1915,1915,1915,1915,1904,1904,1904,1904,1904,1904,1904,1904,1904,1904,1894,1894,1894,1883,1883,1883,1883,1883,1883,1883,1873,1873,1873,1873,1873,1873,1863,1863,1863,1863,1863,1863,1853,1853,1853,1843,1843,1843,1843,1843,1843,1843,1843,1843,1843,1833,1833,1833,1833,1833,1833,1823,1823,1823,1823,1823,1813,1813,1813,1813,1804,1804,1804,1804,1804,1794,1794,1794,1794,1794,1794,1785,1785,1785,1776,1776,1776,1766,1766,1766,1766,1766,1766,1757,1757,1757,1757,1757,1757,1757,1748,1748,1748,1748,1748,1739,1739,1739,1050,1047,1047,1050,1054,1054,1757,1757,1757,1050,1050,1050,1047,1047,1050,1050,1054,1057,1057,1057,1057,1060,1060,1057,1057,1057,1057,1060,1057,1057,1057,1063,1067,1067,1067,1067,1067,1067,1067,1067,1067,1063,1060,1060,1067,1063,1063,1047,1041,1041,1050,1050,1050,1054,1057,1070,1070,1080,1080,1080,1050,1050,1050,1050,1047,1044,1044,1044,1047,1047,1047,1047,1050,1050,1054,1057,1057,1060,1060,1057,1057,1057,1041,1038,1038,1038,1038,1041,1041,1047,1038,1038,1038,1863,1863,1863,1863,1873,1873,1873,1873,1873,1873,1883,1883,1883,1883,1894,1894,1883,1883,1894,1894,1894,1894,1904,1904,1904,1904,1904,1904,1894,1894,1883,1883,1883,0,0,0,0,0,0,0,0,0,0,0,0,0,0,869,867,867,867,864,864,862,862,860,858,856,856,856,856,858,858,860,860,862,862,862,864,864,867,869,869,869,871,871,871,871,0,0,0,0,0,0,0,1639,1632,1632,1632,1624,1616,1616,1609,1609,1609,1601,1601,1601,1601,1594,1586,1579,1572,1572,1564,1564,1564,1557,1550,1550,1550,1543,1536,1529,1523,1523,1523,1523,1516,1516,1516,1516,1509,1503,1503,1496,1489,1489,1489,1483,1477,1470,1470,1470,1464,1464,1464,1458,1452,1452,1445,1445,1445,1439,1439,1433,1427,1427,1421,1415,1415,1415,1410,1410,1410,1404,1398,1398,1392,1392,1387,1381,1376,1376,1376,1370,1370,1370,1370,1365,1359,1354,1354,1354,1349,1349,1343,1338,1338,1333,1333,1328,1328,1328,1322,1317,1312,1312,1312,1307,1307,1307,1302,1297,1297,1292,1292,1288,1288,1288,1283,1278,1278,1273,1268,1268,1268,1264,1264,1255,1255,1250,1250,1250,1250,1250,1241,1241,1236,1236,1232,1232,1232,1227,1223,1223,1219,1219,1214,1214,1210,1206,1202,1202,1202,1197,1197,1197,1193,1193,1189,1185,1185,1181,1181,1177,1177,1173,1173,1169,1169,1169,1165,1165,1165,1161,1157,1153,1153,1149,1149,1149,1145,1145,1138,1138,1134,1134,1130,1130,1130,1130,1123,1123,1119,1119,1119,1115,1115,1108,1108,1105,1105,1105,1101,1097,1097,1094,1094,1090,1090,1090,1087,1084,1084,1080,1080,1080,1077,1077,1073,1067,1067,1067,1063,1063,1063,1063,1060,1060,1057,1054,1054,1054,1050,1047,1047,1044,1041,1041,1041,1038,1038,1038,1034,1034,1031,1031,1028,1025,1025,1025,1022,1022,1019,1019,1016,1016,1013,1013,1013,1010,1007,1004,1004,1004,1001,1001,998,995,995,995,0,0,0,0,0,0,0,0,0,0,0,0,0,0,0,0,0,0,0,0,0,0,0,0,0,0,0,0,0,0,0
0,0,0,0,0,0,0,0,0,0,0,0,0,0,0,2016,2016,2016,2016,2016,2016,2016,2005,2005,2005,1993,1981,1981,1981,1981,1981,1981,1981,1981,1981,1970,1970,1970,1959,1959,1959,1959,1959,1959,1959,1947,1947,1947,1947,1947,1947,1947,1947,1947,1936,1936,1936,1936,1936,1926,1926,1926,1915,1915,1915,1915,1904,1904,1904,1904,1904,1904,1904,1904,1904,1904,1894,1894,1894,1883,1883,1883,1883,1883,1883,1883,1883,1883,1873,1873,1873,1873,1873,1873,1873,1873,1873,1863,1863,1863,1853,1853,1853,1853,1843,1843,1843,1843,1843,1843,1843,1843,1833,1833,1833,1833,1833,1823,1823,1823,1823,1823,1813,1813,1813,1813,1804,1804,1804,1804,1804,1794,1794,1794,1794,1794,1794,1794,1785,1785,1776,1776,1776,1776,1766,1766,1766,1766,1766,1757,1757,1757,1757,1757,1757,1757,1757,1757,1757,1047,1047,1047,1047,1047,1047,1047,1047,1050,1054,1054,1054,1054,1054,1050,1047,1047,1047,1047,1047,1050,1050,1054,1054,1054,1054,1060,1057,1050,1047,1047,1054,1054,1050,1047,1047,1050,1057,1057,1060,1063,1063,1060,1057,1057,1060,1057,1054,1050,1025,1025,1047,1044,1041,1041,1044,1044,1041,1041,1057,1057,1041,1041,1044,1044,1047,1047,1047,1044,1044,1044,1044,1044,1044,1044,1044,1044,1047,1050,1050,1057,1057,1057,1057,1057,1057,1031,1031,1031,1031,1034,1034,1041,1044,1047,1038,1038,1038,1873,1873,1873,1873,1873,1873,1863,1863,1873,1873,1873,1883,1883,1883,1894,1894,1894,1894,1904,1904,1904,1904,1904,1915,1904,1904,1904,1904,1894,1894,1883,1883,1894,0,0,0,0,0,0,0,0,0,0,0,0,0,0,869,869,867,867,864,864,862,862,860,858,858,858,858,858,860,860,860,860,862,862,862,864,864,867,869,869,869,871,871,871,871,0,0,0,0,0,0,0,1639,1639,1632,1632,1624,1616,1616,1609,1609,1609,1601,1601,1601,1601,1601,1586,1579,1579,1572,1572,1564,1564,1557,1557,1550,1550,1543,1536,1529,1523,1523,1523,1523,1516,1516,1516,1516,1509,1503,1503,1496,1496,1489,1489,1489,1483,1477,1470,1470,1470,1464,1464,1464,1458,1452,1452,1445,1445,1439,1439,1439,1433,1427,1421,1421,1415,1415,1415,1410,1410,1404,1404,1398,1392,1392,1387,1381,1376,1376,1376,1370,1370,1370,1370,1365,1359,1359,1354,1354,1354,1349,1343,1343,1338,1338,1333,1333,1328,1328,1322,1317,1317,1312,1312,1307,1307,1307,1302,1297,1297,1292,1292,1288,1288,1288,1283,1278,1278,1273,1268,1268,1268,1264,1264,1259,1255,1255,1255,1255,1250,1250,1250,1241,1241,1236,1236,1232,1232,1232,1227,1223,1219,1214,1214,1214,1210,1206,1202,1202,1202,1202,1202,1197,1197,1193,1193,1189,1185,1181,1181,1177,1177,1173,1173,1169,1169,1169,1165,1165,1165,1161,1157,1153,1153,1153,1149,1149,1149,1145,1141,1138,1138,1134,1134,1130,1130,1130,1123,1123,1123,1119,1119,1115,1115,1112,1108,1108,1108,1105,1101,1101,1097,1094,1094,1090,1090,1090,1087,1084,1084,1080,1080,1080,1080,1077,1073,1067,1067,1067,1067,1063,1063,1063,1063,1060,1057,1057,1054,1054,1054,1050,1047,1044,1041,1041,1041,1038,1038,1038,1034,1034,1034,1031,1028,1025,1025,1025,1022,1022,1019,1019,1016,1016,1013,1013,1013,1010,1010,1007,1004,1004,1001,1001,998,998,995,995,0,0,0,0,0,0,0,0,0,0,0,0,0,0,0,0,0,0,0,0,0,0,0,0,0,0,0,0,0,0,0
0,0,0,0,0,0,0,0,0,0,0,0,0,0,0,2016,2016,2016,2016,2016,2016,2005,2005,2005,2005,2005,2005,1993,1993,1993,1993,1981,1981,1981,1981,1981,1970,1970,1970,1970,1959,1959,1959,1959,1959,1959,1959,1959,1959,1959,1959,1959,1959,1947,1947,1947,1936,1936,1936,1936,1926,1926,1926,1926,1915,1915,1915,1915,1915,1915,1915,1915,1915,1904,1904,1904,1894,1894,1894,1894,1883,1883,1894,1883,1883,1883,1883,1883,1883,1873,1873,1873,1873,1873,1873,1873,1873,1873,1863,1863,1853,1853,1853,1853,1843,1843,1843,1843,1843,1843,1843,1843,1843,1843,1833,1833,1833,1833,1833,1833,1823,1823,1823,1813,1813,1813,1804,1804,1804,1804,1804,1794,1794,1794,1794,1794,1794,1794,1794,1785,1776,1776,1776,1776,1766,1766,1766,1766,1766,1757,1757,1757,1757,1757,1757,1757,1757,1757,1757,1041,1041,1047,1047,1047,1047,1050,1050,1050,1054,1054,1054,1050,1050,1050,1047,1047,1044,1044,1044,1050,1050,1050,1050,1047,1047,1054,1044,1038,1038,1038,1038,1041,1044,1044,1047,1047,1050,1050,1050,1050,1050,1050,1054,1054,1054,1047,1047,1041,1025,1025,1034,1034,1031,1031,1031,1038,1038,1038,1038,1041,1041,1041,1034,1044,1044,1041,1041,1041,1041,1038,1038,1038,1041,1041,1041,1044,1047,1047,1047,1054,1054,1054,1057,1034,1031,1031,1031,1031,1031,1031,1031,1038,1044,1044,1038,1038,1038,1010,1013,1013,1013,1013,1013,1013,1863,1863,1863,1873,1883,1883,1894,1894,1904,1904,1904,1915,1915,1904,1904,1904,1915,1904,1904,1904,1904,1904,1904,1904,1894,1894,1904,0,0,0,0,0,0,0,0,0,0,0,0,878,873,869,869,869,867,864,862,862,860,858,858,858,858,858,860,862,862,862,862,862,864,864,867,869,869,871,871,871,871,871,871,0,0,0,0,0,0,0,1639,1639,1632,1632,1624,1616,1616,1609,1609,1609,1609,1609,1601,1601,1601,1594,1586,1579,1572,1572,1572,1564,1564,1557,1550,1550,1550,1536,1529,1523,1523,1523,1523,1516,1516,1516,1516,1509,1503,1503,1496,1496,1489,1489,1489,1483,1477,1477,1477,1470,1464,1464,1464,1458,1452,1452,1445,1445,1445,1439,1439,1433,1427,1421,1421,1415,1415,1415,1410,1410,1410,1404,1398,1398,1392,1387,1381,1376,1376,1376,1370,1370,1370,1370,1365,1359,1359,1354,1354,1354,1349,1349,1343,1338,1338,1333,1333,1328,1328,1322,1322,1317,1312,1312,1307,1307,1307,1307,1302,1302,1292,1292,1288,1288,1288,1283,1283,1278,1273,1273,1273,1268,1268,1264,1264,1259,1255,1255,1255,1255,1250,1250,1245,1241,1236,1236,1232,1232,1232,1227,1223,1219,1214,1214,1214,1210,1210,1206,1206,1206,1202,1202,1197,1197,1193,1193,1189,1185,1185,1181,1181,1177,1177,1173,1169,1169,1169,1165,1165,1165,1161,1157,1153,1153,1149,1149,1149,1149,1145,1141,1138,1138,1134,1134,1134,1134,1130,1126,1123,1123,1119,1119,1115,1115,1112,1112,1108,1108,1105,1105,1105,1101,1094,1094,1090,1090,1090,1087,1084,1084,1084,1080,1080,1080,1077,1077,1070,1067,1067,1067,1063,1063,1063,1063,1060,1057,1054,1054,1054,1054,1050,1047,1047,1044,1044,1041,1041,1041,1038,1038,1034,1034,1031,1028,1025,1025,1025,1025,1022,1022,1019,1019,1016,1016,1013,1013,1013,1010,1007,1004,1004,1001,1001,998,998,998,998,0,0,0,0,0,0,0,0,0,0,0,0,0,0,0,0,0,0,0,0,0,0,0,0,0,0,0,0,0,0,0
0,0,0,0,0,0,0,0,0,0,0,0,0,0,0,2016,2016,2016,2016,2016,2016,2005,2005,2005,2005,2005,2005,1993,1993,2005,1993,1981,1981,1981,1981,1981,1970,1970,1970,1959,1959,1970,1959,1959,1959,1959,1959,1959,1959,1959,1959,1959,1959,1959,1947,1947,1947,1936,1936,1936,1926,1926,1926,1926,1926,1926,1915,1915,1915,1915,1915,1915,1915,1915,1904,1904,1894,1894,1904,1894,1894,1883,1883,1883,1883,1883,1883,1883,1883,1883,1883,1883,1873,1873,1873,1873,1873,1873,1873,1863,1863,1863,1853,1853,1853,1853,1843,1843,1843,1843,1843,1843,1843,1843,1843,1833,1833,1833,1833,1833,1823,1823,1823,1813,1813,1813,1813,1813,1813,1804,1804,1794,1794,1794,1794,1794,1794,1794,1794,1794,1785,1785,1776,1776,1766,1766,1766,1757,1757,1766,1757,1757,1757,1757,1757,1757,1044,1044,1044,1041,1041,1044,1044,1047,1047,1047,1047,1050,1050,1050,1050,1050,1047,1047,1047,1044,1041,1041,1041,1041,1047,1044,1044,1044,1044,1038,1038,1034,1034,1034,1034,1034,1038,1038,1041,1038,1038,1038,1044,1044,1044,1044,1044,1044,1044,1044,1041,1028,1028,1028,1028,1028,1028,1028,1028,1031,1031,1031,1034,1034,1034,1034,1034,1038,1038,1034,1034,1034,1034,1034,1034,1034,1034,1034,1038,1038,1038,1038,1038,1038,1041,1031,1028,1025,1025,1028,1025,1025,1028,1028,1028,1025,1016,1013,1013,1013,1013,1010,1010,1010,1010,1007,1007,1010,1010,1007,1004,1001,1001,1883,1894,1894,1904,1904,1904,1915,1915,1915,1915,1904,1904,1904,1904,1904,1904,1904,1904,1904,1904,1904,1904,0,0,0,0,0,0,0,0,0,0,0,878,878,875,871,871,871,867,864,862,862,860,858,858,858,858,858,860,862,862,862,864,864,864,867,869,869,869,871,871,871,871,871,871,0,0,0,0,0,0,1671,1647,1639,1632,1632,1624,1624,1616,1616,1609,1609,1609,1609,1609,1601,1601,1594,1586,1579,1579,1572,1572,1572,1564,1557,1557,1557,1550,1536,1529,1523,1523,1523,1523,1523,1516,1516,1516,1509,1509,1503,1496,1496,1489,1489,1489,1483,1483,1477,1477,1470,1470,1464,1464,1458,1452,1452,1445,1445,1445,1439,1439,1433,1433,1427,1421,1421,1415,1415,1415,1410,1410,1404,1398,1398,1392,1392,1381,1376,1376,1376,1376,1370,1370,1370,1365,1365,1359,1359,1354,1354,1349,1349,1343,1338,1338,1333,1333,1333,1328,1328,1322,1317,1312,1312,1307,1307,1307,1307,1302,1302,1297,1292,1292,1288,1288,1288,1283,1283,1278,1273,1273,1268,1268,1268,1264,1264,1259,1255,1255,1255,1250,1250,1245,1241,1236,1236,1232,1232,1232,1227,1227,1223,1219,1214,1214,1214,1210,1210,1206,1206,1202,1202,1202,1197,1193,1193,1189,1185,1185,1181,1181,1177,1177,1173,1173,1169,1169,1165,1165,1165,1161,1157,1153,1153,1149,1149,1149,1149,1145,1141,1141,1138,1138,1134,1134,1134,1130,1126,1123,1123,1123,1119,1119,1115,1112,1112,1108,1108,1105,1105,1105,1101,1094,1094,1094,1090,1090,1087,1087,1084,1084,1084,1084,1080,1077,1077,1073,1070,1067,1067,1067,1063,1063,1063,1060,1057,1054,1054,1054,1054,1050,1050,1050,1047,1047,1044,1041,1041,1041,1038,1034,1034,1031,1028,1028,1025,1025,1025,1022,1022,1019,1019,1016,1016,1013,1013,1013,1013,1010,1007,1004,1001,1001,998,998,998,998,0,0,0,0,0,0,0,0,0,0,0,0,0,0,0,0,0,0,0,0,0,0,0,0,0,0,0,0,0,0,0
0,0,0,0,0,0,0,0,0,0,0,0,0,0,0,2016,2016,2016,2016,2016,2016,2005,2005,2005,2005,1993,1993,2005,2005,2005,1993,1993,1981,1981,1981,1981,1970,1970,1970,1959,1959,1970,1959,1959,1959,1959,1959,1959,1959,1959,1959,1959,1959,1959,1959,1959,1947,1947,1947,1947,1936,1936,1926,1926,1926,1926,1926,1926,1926,1926,1926,1915,1915,1915,1915,1915,1904,1904,1904,1904,1894,1883,1883,1894,1883,1883,1883,1883,1883,1883,1883,1883,1873,1873,1873,1873,1873,1873,1873,1873,1873,1863,1863,1863,1853,1853,1853,1853,1853,1853,1843,1843,1843,1843,1843,1833,1833,1833,1833,1833,1823,1823,1823,1823,1813,1813,1813,1813,1813,1804,1804,1804,1794,1794,1794,1794,1794,1794,1794,1794,1785,1785,1776,1776,1766,1766,1019,1019,1757,1766,1757,1757,1757,1757,1757,1044,1044,1041,1041,1041,1041,1044,1044,1044,1044,1047,1047,1050,1047,1047,1047,1047,1047,1047,1044,1044,1041,1041,1041,1041,1044,1041,1041,1041,1038,1034,1034,1031,1031,1028,1028,1034,1034,1034,1038,1031,1031,1031,1031,1031,1034,1034,1038,1038,1034,1034,1022,1022,1025,1025,1025,1025,1025,1025,1025,1025,1025,1025,1025,1025,1025,1025,1022,1022,1022,1025,1031,1031,1031,1031,1031,1031,1028,1028,1031,1025,1025,1031,1022,1022,1041,1019,1019,1019,1019,1022,1022,1022,1022,1022,1022,1016,1013,1013,1013,1007,1007,1007,1007,1007,1004,1004,1004,1004,1004,1007,1004,1001,998,995,987,987,1915,1915,1915,1915,1915,1915,1915,1904,1904,1904,1904,1904,1904,1904,1904,1904,1904,1904,1904,1904,1904,0,0,0,0,0,0,0,0,885,878,878,875,871,871,871,869,867,862,862,860,860,858,858,860,860,860,862,862,862,864,864,867,869,869,871,871,873,871,871,871,871,0,0,0,0,0,0,0,1671,1655,1639,1639,1632,1624,1624,1624,1616,1616,1609,1609,1609,1609,1609,1601,1601,1594,1586,1579,1579,1572,1572,1564,1564,1557,1557,1550,1536,1536,1529,1529,1523,1523,1523,1523,1523,1516,1516,1509,1509,1496,1496,1489,1489,1489,1489,1483,1477,1477,1470,1470,1464,1464,1458,1458,1452,1452,1445,1445,1439,1439,1439,1433,1433,1427,1421,1415,1415,1415,1410,1410,1404,1398,1398,1392,1392,1387,1381,1376,1376,1376,1376,1370,1370,1370,1365,1365,1359,1359,1354,1354,1349,1349,1343,1338,1333,1333,1333,1328,1328,1328,1322,1317,1312,1312,1307,1307,1307,1307,1302,1297,1292,1292,1292,1288,1288,1283,1283,1278,1273,1273,1268,1268,1268,1268,1264,1259,1255,1255,1255,1250,1250,1245,1241,1241,1236,1236,1232,1232,1232,1227,1223,1219,1219,1214,1214,1214,1210,1210,1206,1202,1202,1202,1197,1197,1193,1189,1185,1185,1181,1181,1177,1177,1173,1173,1169,1169,1169,1165,1165,1161,1157,1157,1153,1153,1149,1149,1149,1145,1141,1141,1138,1138,1138,1134,1134,1134,1126,1126,1123,1123,1123,1119,1119,1115,1112,1108,1108,1108,1105,1105,1105,1097,1097,1094,1090,1090,1090,1087,1084,1084,1084,1084,1080,1077,1077,1073,1070,1067,1067,1067,1063,1063,1063,1063,1060,1057,1054,1054,1054,1054,1050,1050,1047,1047,1047,1044,1041,1041,1038,1038,1034,1034,1028,1028,1028,1025,1025,1025,1022,1019,1019,1016,1016,1016,1013,1013,1013,1010,1007,1004,1001,1001,998,998,998,998,0,0,0,0,0,0,0,0,0,0,0,0,0,0,0,0,0,0,0,0,0,0,0,0,0,0,0,0,0,0,0
0,0,0,0,0,0,0,0,0,0,0,0,0,0,0,2016,2016,2016,2016,2016,2016,2005,2005,2005,1993,1993,1993,2005,2005,2005,1993,1993,1993,1981,1970,1970,1970,1970,1970,1970,1970,1970,1970,1970,1959,1959,1959,1959,1959,1959,1959,1959,1959,1959,1959,1959,1959,1947,1947,1947,1947,1947,1936,1926,1926,1926,1926,1926,1926,1926,1926,1915,1915,1915,1915,1915,1915,1915,1915,1904,1904,1904,1904,1894,1894,1883,1883,1883,1883,1883,1883,1883,1883,1883,1883,1873,1873,1873,1873,1873,1873,1863,1863,1863,1863,1863,1853,1853,1853,1853,1853,1843,1843,1843,1843,1843,1833,1833,1833,1833,1823,1823,1823,1823,1813,1813,1813,1813,1813,1804,1804,1804,1804,1794,1794,1794,1794,1794,1794,1794,1785,1034,1034,1028,1025,1025,1019,1016,1016,1016,1016,1044,1044,1757,1757,1044,1041,1041,1038,1038,1041,1041,1038,1038,1038,1044,1044,1047,1047,1047,1047,1047,1047,1044,1041,1041,1038,1038,1041,1041,1041,1038,1038,1038,1038,1031,1028,1028,1028,1019,1019,1028,1031,1031,1031,1028,1025,1025,1025,1022,1022,1025,1022,1022,1025,1022,1022,1022,1019,1016,1016,1016,1022,1022,1022,1022,1022,1022,1022,1022,1022,1022,1019,1019,1019,1022,1022,1022,1022,1031,1031,1031,1022,1022,1031,1025,1025,1031,1010,1010,1013,1013,1013,1013,1013,1016,1019,1016,1016,1013,1013,1013,1010,1010,1010,1007,1007,1007,1007,1007,1004,1004,1004,1004,1004,1007,1001,1001,998,989,987,984,984,984,984,984,1915,1915,1915,1904,1904,1904,1904,1904,1915,1915,1915,1915,1915,1915,1904,1904,1904,1915,1915,1915,0,0,0,0,0,885,878,878,875,873,871,871,869,867,862,862,860,860,860,860,860,860,860,862,862,864,864,867,867,869,869,871,871,873,873,873,873,873,0,0,0,0,0,0,0,1671,1647,1639,1639,1632,1632,1624,1624,1616,1616,1616,1609,1609,1609,1609,1601,1601,1594,1586,1579,1579,1572,1572,1564,1564,1557,1557,1550,1543,1536,1529,1529,1523,1523,1523,1523,1523,1516,1516,1509,1509,1496,1496,1496,1489,1489,1489,1483,1483,1477,1470,1470,1464,1464,1458,1458,1452,1452,1445,1445,1439,1439,1439,1439,1433,1433,1427,1421,1415,1415,1410,1410,1404,1398,1398,1392,1392,1387,1381,1376,1376,1376,1376,1376,1370,1370,1365,1365,1359,1359,1354,1354,1349,1349,1343,1343,1338,1333,1333,1333,1328,1328,1322,1322,1312,1312,1307,1307,1307,1307,1302,1297,1297,1292,1292,1288,1288,1288,1283,1278,1273,1273,1273,1268,1268,1268,1264,1264,1259,1255,1255,1250,1250,1245,1245,1241,1236,1236,1232,1232,1232,1227,1227,1223,1223,1219,1219,1214,1210,1210,1210,1206,1202,1202,1202,1197,1197,1189,1185,1185,1185,1181,1181,1177,1173,1173,1169,1169,1165,1165,1165,1165,1157,1157,1153,1153,1149,1149,1149,1145,1145,1141,1141,1138,1138,1134,1134,1134,1126,1126,1126,1123,1123,1119,1119,1119,1115,1112,1108,1108,1108,1105,1105,1101,1097,1094,1094,1094,1090,1087,1087,1087,1084,1084,1080,1080,1077,1077,1073,1070,1067,1067,1067,1067,1063,1063,1060,1060,1057,1054,1054,1054,1050,1050,1050,1047,1047,1044,1041,1041,1038,1038,1038,1034,1028,1028,1028,1025,1025,1025,1022,1022,1019,1016,1016,1016,1013,1013,1013,1010,1007,1004,1001,1001,998,998,998,998,0,0,0,0,0,0,0,0,0,0,0,0,0,0,0,0,0,0,0,0,0,0,0,0,0,0,0,0,0,0,0
0,0,0,0,0,0,0,0,0,0,0,0,0,0,0,2016,2016,2016,2016,2016,2016,2005,2005,2005,1993,1993,2005,2005,2005,1993,1993,1993,1993,1981,1970,1970,1970,1970,1970,1970,1970,1970,1970,1970,1959,1959,1970,1970,1959,1959,1959,1959,1959,1959,1959,1959,1959,1959,1959,1947,1947,1947,1936,1926,1926,1926,1926,1926,1926,1926,1926,1915,1915,1915,1915,1915,1915,1915,1915,1915,1904,1904,1904,1894,1894,1883,1883,1883,1883,1883,1883,1883,1883,1883,1883,1873,1873,1873,1873,1873,1873,1863,1863,1863,1863,1863,1863,1863,1853,1853,1853,1843,1843,1843,1843,1843,1843,1833,1833,1833,1833,1823,1823,1823,1823,1813,1813,1813,1813,1804,1804,1794,1794,1794,1794,1794,1794,1794,1794,1794,1031,1031,1031,1028,1025,1022,1019,1016,1016,1016,1016,1022,1022,1022,1028,1034,1038,1038,1038,1034,1034,1038,1034,1031,1031,1038,1041,1044,1044,1044,1044,1044,1044,1041,1038,1038,1038,1038,1038,1038,1038,1038,1034,1034,1034,1028,1025,1025,1019,1016,1016,1016,1022,1028,1025,1022,1019,1019,1019,1022,1019,1019,1019,1019,1019,1019,1013,1013,1013,1010,1010,1010,1010,1013,1013,1013,1019,1019,1016,1016,1019,1019,1019,1016,1016,1016,1016,1010,1007,1001,1001,1001,1001,1001,1001,992,989,989,1007,1007,1013,1013,1013,1010,1010,1013,1016,1001,1001,1004,1004,1004,1004,1004,1004,1004,1004,1004,1004,1004,1001,1001,1001,1001,1004,1004,1001,998,995,987,987,984,984,984,984,984,984,984,984,1904,1904,975,975,975,978,978,1915,1915,1915,1915,1904,1904,1904,1915,1915,1915,0,0,0,0,0,885,878,878,875,873,873,871,869,867,862,862,860,860,860,860,860,860,860,862,864,864,867,867,869,869,869,871,871,873,875,875,873,873,875,0,0,0,0,0,0,1671,1647,1639,1639,1632,1632,1632,1624,1616,1616,1616,1609,1609,1609,1601,1601,1601,1594,1586,1579,1579,1572,1572,1564,1564,1557,1557,1550,1543,1543,1536,1529,1529,1523,1523,1523,1523,1516,1516,1516,1509,1503,1496,1496,1489,1489,1489,1489,1483,1483,1470,1470,1464,1464,1464,1458,1458,1452,1452,1445,1445,1439,1439,1439,1433,1433,1427,1421,1415,1415,1415,1410,1404,1404,1398,1398,1392,1392,1392,1381,1381,1381,1376,1376,1370,1370,1365,1365,1359,1359,1354,1354,1349,1349,1349,1343,1338,1333,1333,1333,1328,1328,1328,1322,1317,1312,1307,1307,1307,1307,1302,1297,1297,1292,1292,1292,1288,1288,1283,1278,1278,1273,1273,1268,1268,1268,1268,1264,1259,1255,1255,1255,1250,1250,1245,1241,1236,1236,1236,1232,1232,1227,1227,1223,1223,1219,1219,1214,1214,1210,1210,1206,1206,1202,1202,1197,1197,1189,1185,1185,1185,1181,1181,1177,1173,1173,1169,1169,1165,1165,1165,1165,1157,1157,1153,1153,1149,1149,1149,1149,1145,1141,1141,1138,1138,1138,1134,1134,1130,1126,1126,1123,1123,1123,1119,1119,1115,1112,1112,1108,1108,1105,1105,1101,1101,1097,1094,1094,1090,1090,1087,1087,1084,1084,1080,1080,1077,1077,1073,1070,1067,1067,1067,1067,1063,1063,1060,1060,1057,1054,1054,1054,1050,1050,1050,1047,1047,1047,1044,1041,1041,1038,1038,1034,1031,1028,1028,1025,1025,1025,1022,1022,1019,1016,1016,1016,1013,1013,1013,1013,1007,1004,1001,1001,1001,1001,998,998,0,0,0,0,0,0,0,0,0,0,0,0,0,0,0,0,0,0,0,0,0,0,0,0,0,0,0,0,0,0,0
0,0,0,0,0,0,0,0,0,0,0,0,0,0,0,2016,2016,2016,2016,2016,2016,2005,2005,2005,1993,1993,2005,2005,2005,1993,1993,1993,1993,1981,1970,1970,1970,1970,1970,1970,1970,1970,1970,1970,1970,1970,1970,1970,1970,1970,1959,1959,1959,1959,1959,1959,1959,1959,1959,1947,1947,1947,1936,1936,1936,1936,1926,1926,1926,1926,1926,1915,1915,1915,1915,1926,1915,1915,1915,1915,1915,1915,1904,1894,1894,1894,1894,1883,1883,1883,1883,1883,1883,1883,1883,1883,1883,1883,1873,1873,1873,1873,1873,1873,1863,1863,1863,1863,1863,1853,1853,1853,1853,1853,1843,1843,1843,1833,1833,1833,1823,1823,1823,1823,1823,1813,1813,1813,1813,1804,1794,1794,1794,1794,1794,1794,1794,1028,1025,1025,1028,1028,1028,1025,1022,1022,1019,1016,1016,1016,1016,1019,1019,1019,1022,1025,1028,1028,1028,1028,1028,1031,1031,1028,1028,1034,1038,1041,1038,1038,1041,1038,1028,1025,1025,1016,1013,1013,1031,1025,1025,1031,1031,1031,1031,1022,1022,1022,1016,1016,1013,1013,1016,1016,1004,1004,1004,1004,1007,1013,1013,1013,1013,1016,1016,1016,1007,1007,1007,1004,1004,1007,1007,1007,1010,1010,1010,1010,1010,1013,1010,1010,1010,1007,1004,1004,1004,998,998,995,995,995,995,998,995,992,989,989,992,989,989,992,992,1010,1010,1007,1007,995,989,989,992,992,989,989,989,1001,1001,1001,1001,1001,1001,995,992,992,998,1001,998,998,995,987,984,981,981,981,981,981,981,978,978,975,975,975,975,975,975,975,975,975,1915,1915,1915,1915,956,951,0,0,0,0,0,0,0,885,878,878,875,875,873,873,871,867,864,862,860,860,860,860,860,862,862,862,864,867,867,869,869,869,871,873,873,875,875,875,875,875,875,0,0,0,0,0,0,0,1647,1639,1639,1639,1632,1632,1624,1624,1624,1616,1616,1616,1609,1601,1601,1601,1594,1586,1579,1579,1572,1572,1564,1564,1557,1557,1550,1543,1543,1543,1536,1529,1529,1523,1523,1523,1523,1516,1516,1509,1503,1496,1496,1496,1496,1489,1489,1483,1483,1477,1470,1464,1464,1464,1458,1458,1452,1452,1445,1445,1445,1439,1439,1439,1433,1433,1421,1421,1415,1415,1410,1410,1404,1404,1398,1398,1392,1392,1387,1381,1381,1376,1376,1370,1370,1370,1370,1365,1359,1354,1354,1354,1349,1349,1343,1338,1333,1333,1333,1328,1328,1328,1322,1317,1312,1312,1307,1307,1307,1302,1302,1297,1292,1292,1292,1288,1288,1283,1278,1278,1273,1273,1273,1268,1268,1268,1264,1264,1259,1259,1255,1250,1250,1250,1245,1241,1236,1236,1232,1232,1232,1227,1227,1223,1219,1219,1214,1214,1210,1210,1210,1206,1206,1202,1202,1197,1197,1189,1185,1185,1181,1181,1177,1177,1173,1169,1169,1169,1169,1165,1165,1161,1157,1153,1153,1153,1149,1149,1145,1145,1141,1141,1138,1138,1138,1134,1134,1130,1130,1126,1123,1123,1123,1119,1119,1115,1112,1112,1108,1108,1105,1105,1105,1101,1097,1094,1094,1090,1090,1087,1087,1084,1080,1080,1080,1080,1077,1077,1073,1070,1067,1067,1067,1063,1063,1060,1060,1057,1057,1054,1054,1050,1050,1050,1047,1047,1047,1044,1041,1041,1038,1038,1034,1031,1028,1028,1028,1025,1025,1025,1022,1019,1019,1016,1016,1013,1013,1013,1013,1007,1004,1004,1001,1001,1001,1001,1001,0,0,0,0,0,0,0,0,0,0,0,0,0,0,0,0,0,0,0,0,0,0,0,0,0,0,0,0,0,0,0
0,0,0,0,0,0,0,0,0,0,0,0,0,0,0,2016,2016,2016,2016,2016,2016,2005,2005,2005,1993,1993,2005,2005,2005,1993,1993,1993,1993,1981,1970,1970,1970,1970,1970,1970,1970,1970,1970,1981,1970,1970,1970,1970,1970,1970,1970,1970,1970,1970,1959,1959,1959,1959,1947,1947,1947,1936,1936,1936,1936,1936,1936,1936,1926,1926,1926,1926,1926,1926,1926,1926,1915,1915,1915,1915,1915,1904,1904,1894,1894,1894,1894,1883,1883,1883,1883,1883,1883,1883,1883,1883,1883,1883,1883,1883,1873,1873,1873,1873,1863,1863,1863,1853,1853,1853,1853,1853,1853,1853,1843,1843,1843,1843,1833,1833,1823,1823,1823,1823,1823,1813,1813,1813,1813,1804,1794,1794,1794,1794,1794,1794,1022,1022,1022,1022,1022,1022,1025,1022,1022,1019,1016,1016,1016,1016,1016,1016,1013,1013,1013,1016,1010,1010,1010,1019,1019,1025,1028,1025,1025,1031,1034,1041,1031,1019,1016,1016,1016,1013,1013,1013,1010,1010,1010,1013,1013,1013,1031,1025,1025,1016,1016,1016,1013,1013,1010,1010,1001,1001,1001,1001,1001,1001,1001,1001,1010,1004,1004,1010,1010,1010,1001,998,998,998,998,1001,1001,1001,1004,1004,1004,1004,998,998,992,992,1004,1001,995,989,989,992,992,992,992,992,992,998,992,992,989,989,992,987,987,987,987,1010,1010,1007,1007,995,987,987,989,989,989,989,989,995,995,995,998,998,995,989,989,989,992,992,992,992,992,978,978,981,981,978,978,978,978,978,975,975,975,973,973,973,973,967,967,973,1915,1915,956,956,0,0,0,0,0,0,0,0,0,0,878,878,875,875,873,873,871,869,864,862,860,860,860,860,862,862,862,864,864,867,867,869,869,871,871,873,873,875,875,878,878,878,878,878,0,0,0,0,0,0,1671,1639,1639,1639,1639,1632,1632,1624,1624,1624,1616,1616,1609,1601,1601,1601,1594,1586,1579,1579,1579,1572,1572,1564,1564,1557,1550,1550,1543,1543,1543,1536,1529,1529,1523,1523,1523,1516,1516,1509,1509,1503,1496,1496,1496,1489,1489,1489,1483,1477,1470,1470,1464,1464,1464,1458,1458,1452,1452,1445,1445,1439,1439,1439,1433,1433,1427,1421,1415,1415,1415,1410,1404,1404,1398,1398,1398,1392,1392,1387,1381,1381,1376,1376,1370,1370,1370,1365,1354,1354,1354,1354,1349,1349,1343,1338,1333,1333,1333,1333,1328,1328,1322,1317,1312,1312,1312,1307,1307,1307,1302,1302,1297,1292,1292,1288,1288,1283,1278,1278,1273,1273,1273,1268,1268,1268,1268,1264,1264,1259,1255,1255,1250,1250,1245,1241,1236,1236,1232,1232,1232,1232,1227,1223,1223,1219,1219,1214,1214,1210,1210,1206,1206,1202,1202,1197,1197,1189,1189,1185,1181,1181,1181,1177,1177,1173,1169,1169,1169,1165,1165,1161,1157,1153,1153,1153,1149,1149,1145,1145,1141,1141,1138,1138,1138,1134,1134,1130,1130,1126,1126,1123,1123,1119,1119,1115,1112,1112,1108,1108,1105,1105,1105,1101,1097,1094,1094,1094,1090,1087,1087,1087,1080,1080,1080,1080,1077,1077,1073,1073,1070,1067,1067,1067,1063,1063,1060,1057,1057,1054,1054,1050,1050,1047,1047,1047,1044,1044,1041,1041,1038,1038,1034,1034,1028,1028,1028,1025,1025,1025,1022,1022,1019,1016,1016,1016,1016,1013,1007,1007,1004,1004,1004,1001,1001,1001,1001,0,0,0,0,0,0,0,0,0,0,0,0,0,0,0,0,0,0,0,0,0,0,0,0,0,0,0,0,0,0,0
0,0,0,0,0,0,0,0,0,0,0,0,0,0,0,2016,2016,2016,2016,2016,2016,2016,2016,2005,1993,1993,2005,2005,2005,1993,1993,1993,1993,1981,1970,1970,1970,1981,1970,1970,1970,1970,1970,1981,1970,1970,1970,1970,1970,1970,1970,1970,1970,1970,1959,1959,1959,1959,1947,1947,1947,1936,1936,1936,1936,1936,1936,1926,1926,1926,1926,1926,1926,1926,1926,1926,1915,1915,1915,1915,1915,1904,1904,1904,1894,1894,1894,1894,1883,1883,1883,1883,1883,1883,1883,1883,1883,1883,1883,1883,1873,1873,1873,1873,1863,1863,1863,1853,1853,1853,1853,1853,1853,1853,1843,1843,1843,1010,1010,1010,1010,1013,1823,1823,1823,1804,1804,1813,1804,1022,1022,1019,1019,1022,1016,1016,1016,1016,1019,1019,1022,1022,1022,1022,1019,1016,1016,1013,1013,1013,1013,1010,1010,1010,1010,1010,1007,1007,1001,1001,1001,1001,1001,1001,1019,1022,1034,1041,1010,1007,1007,1007,1010,1010,1007,1007,1007,1004,1004,1004,992,992,1031,1025,1025,1010,1010,1010,1010,1010,1007,1001,995,995,995,995,989,989,989,1001,1001,995,989,987,987,1001,998,992,992,995,995,998,995,995,995,995,998,998,992,989,989,989,987,987,984,984,987,989,989,989,989,989,992,992,992,992,989,987,987,984,984,984,981,970,970,970,970,973,984,984,987,987,987,987,987,989,984,984,984,989,989,987,984,984,978,978,987,970,967,967,973,978,978,978,978,978,978,975,975,973,973,973,973,970,970,967,964,964,959,956,956,956,951,951,0,0,0,0,0,0,0,0,878,878,875,875,875,875,873,869,867,862,862,862,862,862,862,862,862,864,864,867,867,869,869,871,871,873,873,875,878,878,878,878,878,878,0,0,0,0,0,0,0,1647,1639,1639,1639,1632,1632,1632,1624,1624,1616,1616,1609,1609,1601,1601,1594,1586,1586,1579,1579,1572,1572,1564,1564,1564,1557,1550,1550,1543,1543,1536,1536,1529,1529,1523,1523,1516,1516,1509,1509,1503,1496,1496,1496,1489,1489,1489,1483,1477,1470,1470,1464,1464,1464,1458,1458,1458,1452,1445,1445,1439,1439,1439,1433,1427,1427,1421,1421,1415,1415,1410,1410,1404,1404,1398,1398,1392,1392,1387,1387,1381,1376,1376,1370,1370,1370,1365,1354,1354,1354,1354,1349,1349,1343,1338,1333,1333,1333,1333,1328,1328,1322,1322,1317,1312,1312,1307,1307,1307,1302,1302,1297,1297,1292,1292,1288,1288,1283,1283,1278,1273,1273,1273,1268,1268,1268,1268,1264,1259,1255,1255,1250,1250,1250,1241,1241,1236,1236,1232,1232,1232,1227,1227,1223,1219,1219,1214,1214,1210,1210,1206,1206,1202,1202,1202,1197,1197,1193,1189,1185,1185,1185,1181,1177,1173,1173,1169,1169,1169,1165,1161,1161,1157,1153,1153,1149,1149,1149,1145,1145,1145,1141,1141,1138,1138,1134,1134,1130,1130,1126,1126,1123,1123,1119,1119,1115,1112,1112,1108,1108,1105,1105,1101,1097,1097,1094,1094,1090,1090,1090,1087,1084,1080,1080,1080,1077,1077,1077,1073,1070,1067,1067,1067,1063,1063,1063,1060,1057,1054,1054,1050,1050,1047,1047,1047,1044,1044,1041,1041,1038,1038,1034,1034,1031,1028,1028,1028,1025,1025,1022,1022,1019,1019,1016,1016,1016,1013,1007,1007,1004,1004,1004,1001,1001,998,998,0,0,0,0,0,0,0,0,0,0,0,0,0,0,0,0,0,0,0,0,0,0,0,0,0,0,0,0,0,0,0
