0,0,0,0,0,1214,1214,1214,1214,1210,1210,1206,1206,1202,1202,1197,1197,1197,1197,1193,1193,973,973,975,975,978,978,978,975,967,967,967,970,970,970,970,970,973,975,975,978,978,978,978,981,984,984,987,989,992,995,995,998,998,998,1001,1004,1007,1007,1007,1169,1173,1173,1173,1173,1173,1177,1177,1177,1177,1177,1177,1173,1173,1173,1173,1173,1173,1173,1173,1173,1173,1173,1169,1169,1169,1169,1169,1169,1169,1169,1169,1169,1169,1169,1169,1173,0,0,0,0,0,0,0,0,696,696,697,697,697,694,693,691,688,688,687,686,683,682,682,680,680,682,682,686,686,687,690,690,691,693,693,694,697,697,698,700,700,700,701,703,0,0,0,0,0,0,0,0,1161,1161,1165,1165,1165,1165,1165,1161,1161,1161,1161,1161,1161,1161,1161,1161,1161,1161,1161,1157,1157,1161,1161,1157,1157,1157,1157,1157,1161,1161,1161,1161,1161,1161,1161,1161,1157,1157,1157,1161,1157,1157,1157,978,978,978,978,975,975,973,970,970,967,964,964,962,959,956,956,954,954,954,954,951,951,951,948,948,948,948,946,946,943,943,943,940,940,943,943,943,1157,1157,1157,1153,1153,1157,1153,1153,1149,1149,1145,1145,1145,1145,1145,1145,1145,1145,1145,1145,1145,1145,1141,1141,1149,1149,938,938,938,938,940,940,940,938,938,940,943,943,943,943,946,948,948,951,954,956,956,962,964,967,967,970,970,973,973,975,1138,1138,1134,1134,1134,1134,1134,1134,1134,1134,1134,1134,1134,1134,1134,1134,1134,1130,1130,1130,1080,1080,1080,1080,1077,1077,1073,1073,1070,1070,1070,1070,1073,1073,1080,1080,1080,1084,1084,1084,1090,1134,1138,1138,1138,1138,1138,1138,1138,1134,1134,1134,1134,1134,1134,1134,1134,1134,1134,1134,1134,1134,1134,1134,1134,1134,1134,1134,1134,1134,1134,1130,1130,1130,1130,1126,1126,1126,1126,1126,1126,1126,1126,1126,1123,1123,1123,1123,1123,1123,1134,1130,1130,1130,1130,1126,1126,1126,1126,1126,1126,1130,1126,1126,1126,1126,1123,1123,1123,1123,1123,1123,1123,1123,1123,1123,1123,1123,1119,1119,1119,1119,1119,1119,1119,1115,1115,1115,1115,1115,1115,1115,1112,1112,1115,1115,1112,1112,1112,1112,1115,1115,1115,1115,1115,1115,1115,1115,1115,1115,1115,1115,1115,1115,1115,1115,1115,1112,1112,1112,1108,1108,1112,1112,1112,1108,1108,1108,1105,1105,1105,1105,1105,1105,1108,1108,1108,1108,1108,1108,1105,1105,1105,1101,1101,1101,1101,1101,1101,1101,1101,1101,1108,1105,1105,1105,1105,1105,1101,1101,1101,1105,1101,1101,1101,1101,1101,1097,1097,1097,1097,1094,1094,1097,1097,1097,1097,1097,1097,1097,1094,1094,1094,1094,1094,1090,1087,1087,1087,1090,1097,0,0,0,880,0,878,878,878,880,880,880,880,880,880,880,880,880,880,880,880,880,880,880,882,882,885,885,887,887,887,887,887,889,894,894,894,896,896,898,901,906,913,915,913,910,908,903,903,898,896,894,891,891,889,889,887,887,885,882,880,875,875,875,875,873,871,869,869,869,862,862,860,860,858,856,854,854,851,849,849,849,847,847,845,843,843,843,0,0,0,0,0,0,0,0,0,0,0,0,0,0,0,0,0,0,0,0,0,0,0,0,0,0,0,0,0,0,0,0,0,0,0,0,0
0,0,0,0,0,1214,1214,1210,1210,1206,1206,1202,1202,1197,1197,1193,1193,1193,1193,1193,1193,973,973,975,975,978,978,978,975,967,967,967,970,970,970,970,970,973,975,975,978,978,978,981,981,984,984,987,989,992,995,995,998,998,998,1001,1001,1007,1165,1165,1165,1169,1169,1169,1173,1173,1173,1173,1173,1173,1173,1173,1173,1173,1169,1165,1165,1169,1169,1169,1165,1165,1169,1165,1165,1165,1165,1165,1169,1169,1169,1165,1165,1165,1165,1161,1161,0,0,0,0,0,0,0,0,0,697,697,697,697,697,694,693,690,688,687,686,684,683,682,682,682,682,682,686,687,687,690,690,691,693,693,694,697,697,698,700,700,700,701,703,703,0,0,0,0,0,0,0,1157,1157,1161,1161,1161,1161,1161,1161,1161,1161,1161,1157,1157,1157,1157,1157,1157,1157,1157,1157,1157,1157,1153,1153,1153,1153,1153,1153,1157,1157,1157,1157,1161,1161,1161,1157,1153,1153,1153,1153,1153,1149,1149,1153,978,978,978,978,978,975,973,970,967,964,964,962,959,956,956,954,954,951,951,948,948,948,946,946,946,946,946,943,943,943,940,940,940,940,940,940,940,940,940,1153,1153,1153,1149,1149,1149,1145,1145,1145,1145,1145,1145,1145,1145,1145,1141,1141,1141,1141,938,935,935,935,935,938,938,938,938,940,938,938,938,938,938,940,943,943,946,948,948,951,954,956,959,964,964,967,967,967,970,973,973,1134,1134,1134,1134,1134,1134,1134,1134,1134,1134,1134,1134,1134,1134,1134,1134,1130,1130,1130,1119,1119,1084,1084,1080,1080,1080,1077,1077,1073,1073,1070,1070,1070,1073,1077,1080,1080,1080,1084,1084,1087,1090,1134,1138,1134,1134,1134,1134,1134,1134,1134,1134,1134,1134,1134,1134,1134,1134,1130,1130,1130,1134,1134,1130,1130,1130,1130,1130,1130,1130,1130,1130,1130,1126,1126,1126,1126,1126,1126,1126,1126,1126,1123,1123,1123,1123,1123,1123,1123,1123,1123,1123,1123,1123,1126,1126,1126,1126,1126,1126,1126,1123,1123,1123,1123,1123,1123,1123,1123,1123,1123,1123,1123,1119,1119,1119,1119,1119,1119,1119,1119,1119,1119,1119,1119,1115,1115,1112,1112,1112,1112,1112,1112,1112,1112,1112,1112,1108,1108,1105,1105,1108,1108,1108,1108,1108,1108,1112,1112,1112,1112,1108,1108,1108,1108,1112,1112,1108,1108,1108,1108,1108,1108,1108,1108,1105,1105,1105,1105,1105,1105,1105,1105,1105,1101,1101,1105,1105,1105,1105,1105,1105,1105,1105,1101,1101,1101,1101,1101,1101,1097,1097,1097,1094,1094,1094,1094,1094,1094,1101,1097,1097,1097,1097,1097,1097,1094,1094,1097,1097,1094,1094,1094,1094,1094,1094,1094,1094,1094,1094,1094,1094,1090,1090,1090,1090,1087,1084,1084,1084,1090,1090,0,0,880,880,880,880,880,880,880,880,880,880,880,880,880,880,880,880,880,880,880,880,880,882,882,885,885,887,887,887,887,889,891,894,894,894,896,898,898,906,906,913,913,910,908,906,903,901,898,896,894,891,891,889,887,885,885,880,880,878,873,873,873,871,871,869,867,867,862,862,862,860,858,856,856,854,854,851,851,849,849,847,845,845,843,843,843,0,0,0,0,0,0,0,0,0,0,0,0,0,0,0,0,0,0,0,0,0,0,0,0,0,0,0,0,0,0,0,0,0,0,0,0,0
0,0,0,0,0,1210,1210,1210,1206,1202,1202,1197,1197,1197,1193,1193,1193,1193,1193,1193,1193,975,975,973,973,978,978,978,975,970,970,970,970,970,970,970,970,973,973,975,978,978,981,981,981,984,984,984,989,992,995,995,998,998,998,1001,1001,1161,1161,1165,1165,1165,1169,1169,1169,1169,1169,1169,1169,1169,1165,1165,1165,1169,1165,1165,1165,1165,1165,1165,1165,1165,1165,1165,1165,1165,1165,1165,1165,1165,1165,1165,1165,1161,1157,1157,1153,1153,0,0,0,0,0,0,0,0,698,698,698,697,697,694,693,690,688,687,686,684,683,682,682,682,682,682,686,687,687,688,691,693,693,694,694,697,697,698,700,700,701,701,703,703,0,0,0,0,0,0,0,1153,1153,1157,1157,1157,1157,1157,1157,1157,1157,1157,1153,1153,1157,1153,1153,1153,1157,1153,1153,1153,1153,1153,1153,1153,1153,1149,1149,1153,1153,1153,1153,1153,1153,1153,1153,1149,1149,1149,1149,1149,1149,1149,1149,978,978,978,978,978,975,973,970,967,964,964,962,959,956,956,954,951,948,948,946,946,946,946,946,943,943,943,943,940,940,940,938,938,940,938,938,938,938,938,938,1149,1149,1149,1149,1149,1145,1145,1145,1145,1145,1145,1145,1141,1141,1141,1138,1138,938,935,935,935,935,935,935,935,938,938,938,938,935,935,935,935,938,938,940,943,946,948,951,954,956,959,962,964,967,967,967,970,973,973,1134,1134,1134,1134,1134,1130,1130,1130,1134,1134,1134,1134,1130,1130,1130,1130,1130,1130,1126,1119,1119,1087,1087,1084,1084,1080,1080,1077,1077,1073,1073,1073,1073,1077,1077,1080,1080,1080,1084,1084,1087,1090,1130,1130,1134,1134,1134,1130,1130,1130,1130,1130,1130,1130,1130,1130,1130,1130,1126,1126,1126,1126,1126,1126,1126,1126,1126,1126,1126,1130,1130,1130,1126,1123,1123,1123,1123,1123,1123,1123,1123,1123,1123,1123,1123,1123,1119,1119,1119,1119,1119,1119,1119,1123,1123,1126,1126,1123,1123,1123,1123,1123,1119,1119,1119,1119,1119,1119,1119,1119,1119,1119,1119,1112,1112,1112,1112,1112,1112,1112,1115,1115,1119,1119,1115,1112,1112,1112,1108,1108,1108,1112,1108,1108,1108,1108,1108,1108,1105,1105,1105,1105,1108,1108,1108,1108,1108,1108,1108,1108,1108,1108,1108,1108,1108,1108,1108,1108,1105,1105,1105,1105,1105,1105,1105,1105,1105,1101,1101,1101,1101,1101,1101,1101,1101,1101,1101,1101,1101,1101,1101,1101,1101,1101,1097,1097,1097,1097,1101,1097,1094,1094,1094,1094,1094,1094,1094,1094,1094,1094,1094,1094,1097,1097,1097,1094,1094,1094,1094,1094,1094,1094,1094,1090,1090,1094,1094,1094,1094,1094,1094,1094,1090,1090,1090,1087,1084,1080,1080,1080,1090,1090,0,0,880,880,880,880,880,880,880,880,880,880,880,880,880,880,880,880,880,880,880,880,880,882,882,885,885,885,887,887,887,889,891,894,894,894,896,898,901,906,908,913,913,910,908,903,903,901,898,896,894,891,889,889,887,885,882,880,878,875,873,871,871,869,869,869,864,864,862,862,862,860,858,856,854,854,854,851,851,849,849,847,845,845,843,843,843,0,0,0,0,0,0,0,0,0,0,0,0,0,0,0,0,0,0,0,0,0,0,0,0,0,0,0,0,0,0,0,0,0,0,0,0,0
0,0,0,0,0,1206,1206,1206,1206,1202,1197,1197,1197,1193,1193,1193,1193,1193,1189,1189,1193,1193,1193,970,970,978,975,975,975,975,973,970,970,970,970,970,970,973,973,975,978,978,981,981,981,984,984,984,989,992,995,995,998,998,998,1161,1161,1161,1161,1165,1165,1165,1165,1165,1165,1165,1165,1165,1165,1165,1161,1161,1161,1165,1165,1161,1161,1165,1165,1165,1161,1161,1161,1165,1165,1161,1161,1161,1165,1165,1165,1165,1161,1161,1157,1157,1153,1153,0,0,0,0,0,0,0,0,0,701,700,700,698,697,694,691,690,687,686,684,684,683,682,682,683,683,686,687,687,688,691,693,693,694,696,697,697,698,700,700,701,703,703,704,704,0,0,0,0,0,0,1153,1145,1145,1149,1149,1149,1149,1153,1153,1153,1153,1153,1153,1153,1153,1149,1149,1153,1153,1149,1149,1149,1149,1149,1149,1149,1149,1149,1149,1149,1149,1149,1149,1149,1149,1149,1149,1149,1149,1149,1145,1145,1145,1145,1145,1145,984,981,981,975,973,967,967,967,964,962,959,956,956,954,951,948,948,946,946,946,946,943,943,940,940,940,940,938,938,938,938,938,938,938,938,938,935,935,1145,1145,1145,1145,1145,1145,1145,1145,1145,1145,1145,1141,1141,1141,1138,1138,933,933,933,933,933,933,933,933,933,933,933,933,935,935,935,935,935,938,938,940,943,946,948,951,954,956,959,962,964,964,964,967,970,1130,1130,1130,1130,1130,1130,1130,1130,1130,1130,1130,1130,1130,1130,1130,1130,1130,1130,1130,1126,1123,1119,1115,1090,1090,1087,1084,1080,1080,1077,1077,1077,1073,1073,1073,1077,1077,1080,1080,1084,1087,1087,1090,1094,1097,1130,1130,1130,1130,1130,1130,1130,1130,1130,1126,1126,1126,1126,1126,1123,1123,1123,1123,1123,1123,1123,1123,1123,1123,1123,1123,1126,1123,1123,1123,1123,1123,1123,1119,1119,1123,1123,1123,1123,1119,1119,1119,1119,1119,1115,1115,1115,1115,1115,1115,1119,1119,1119,1119,1123,1123,1123,1119,1119,1115,1115,1119,1119,1119,1119,1119,1119,1119,1115,1112,1108,1108,1108,1108,1108,1108,1108,1108,1108,1112,1108,1108,1108,1108,1108,1108,1108,1108,1108,1108,1108,1108,1105,1105,1105,1101,1101,1101,1105,1105,1105,1105,1105,1108,1108,1108,1105,1105,1105,1105,1105,1105,1105,1108,1105,1105,1105,1105,1101,1101,1105,1105,1105,1097,1097,1097,1097,1097,1097,1097,1097,1097,1097,1097,1094,1094,1097,1097,1094,1094,1094,1094,1094,1094,1094,1094,1094,1094,1094,1094,1094,1090,1090,1090,1090,1090,1090,1090,1090,1094,1094,1094,1094,1090,1090,1094,1094,1094,1094,1090,1090,1090,1094,1094,1094,1094,1094,1094,1090,1090,1090,1090,1084,1084,1080,1080,1080,1080,1080,1080,878,880,880,880,880,880,880,880,880,880,880,880,880,880,880,880,880,880,880,880,880,880,880,882,885,885,885,887,887,887,889,891,891,891,894,896,898,901,906,908,913,913,908,906,901,901,901,898,894,891,889,887,887,885,882,880,878,875,873,873,871,871,869,869,869,864,862,862,860,860,860,858,856,854,854,854,851,849,849,847,845,845,845,843,843,843,0,0,0,0,0,0,0,0,0,0,0,0,0,0,0,0,0,0,0,0,0,0,0,0,0,0,0,0,0,0,0,0,0,0,0,0,0
0,0,0,0,0,1197,1197,1197,1197,1197,1197,1197,1193,1193,1193,1193,1193,1189,1189,1189,1189,1189,1193,970,970,975,975,975,975,975,973,973,973,973,973,973,973,973,975,975,978,978,981,981,981,984,984,984,989,992,995,995,998,1165,1165,1161,1161,1161,1161,1161,1161,1161,1161,1161,1161,1161,1161,1161,1161,1161,1157,1157,1157,1161,1161,1161,1161,1161,1161,1165,1161,1161,1161,1161,1161,1161,1161,1161,1161,1161,1161,1165,1161,1161,1157,1157,1153,1153,0,0,0,0,0,0,0,0,0,703,703,701,701,698,696,693,691,690,687,686,684,683,683,683,684,684,686,687,687,688,691,693,693,694,696,697,697,698,700,701,703,703,704,704,704,0,0,0,0,0,0,0,1145,1145,1141,1141,1145,1145,1149,1149,1149,1149,1149,1149,1153,1149,1149,1149,1149,1149,1149,1149,1149,1149,1145,1145,1145,1145,1145,1145,1145,1145,1145,1145,1145,1145,1145,1145,1145,1145,1145,1145,1145,1145,1145,1141,1141,1141,987,981,978,973,967,967,967,964,964,959,956,956,954,954,951,948,946,946,946,943,943,943,938,938,940,938,938,938,935,935,935,935,935,935,935,935,935,935,935,1145,1145,1145,1145,1145,1145,1145,1145,1145,1141,1141,1141,1138,930,928,928,930,933,933,933,933,933,933,933,933,933,933,933,935,935,935,938,940,940,943,946,948,951,954,956,959,962,964,964,964,967,1126,1126,1130,1130,1130,1130,1130,1126,1126,1126,1126,1126,1126,1130,1130,1130,1130,1126,1126,1126,1126,1123,1119,1115,1094,1094,1090,1087,1084,1080,1080,1077,1077,1073,1073,1073,1077,1077,1080,1080,1084,1087,1087,1090,1094,1097,1112,1119,1126,1126,1123,1123,1126,1126,1126,1126,1126,1123,1123,1123,1123,1123,1123,1119,1119,1123,1123,1123,1123,1123,1123,1123,1123,1119,1119,1119,1119,1119,1119,1115,1115,1119,1119,1119,1119,1119,1119,1119,1115,1115,1115,1115,1115,1115,1115,1115,1115,1119,1119,1119,1115,1115,1115,1115,1115,1112,1112,1115,1115,1115,1115,1115,1115,1112,1112,1108,1108,1108,1108,1108,1105,1105,1108,1108,1108,1108,1108,1105,1105,1105,1105,1105,1105,1108,1108,1105,1105,1105,1105,1105,1101,1101,1101,1101,1101,1101,1101,1101,1105,1105,1105,1105,1105,1105,1101,1101,1105,1105,1105,1105,1105,1101,1101,1101,1101,1101,1101,1101,1097,1097,1094,1094,1097,1094,1094,1094,1094,1094,1094,1094,1094,1094,1094,1094,1094,1094,1090,1090,1090,1090,1090,1090,1090,1090,1090,1090,1090,1090,1090,1090,1090,1090,1090,1090,1090,1090,1090,1090,1090,1090,1090,1090,1090,1090,1090,1090,1090,1090,1090,1090,1090,1090,1090,1090,1090,1087,1087,1087,1084,1084,1080,1080,1080,1080,1080,0,878,878,878,880,880,880,880,880,880,880,880,880,880,880,880,880,880,880,880,880,880,880,880,882,882,885,885,887,887,887,889,891,891,891,896,896,898,901,910,910,913,910,906,903,898,898,898,896,894,891,889,887,887,882,880,878,875,875,873,871,871,869,869,869,867,862,860,860,860,860,858,858,854,854,854,851,851,849,849,847,845,845,845,843,843,843,0,0,0,0,0,0,0,0,0,0,0,0,0,0,0,0,0,0,0,0,0,0,0,0,0,0,0,0,0,0,0,0,0,0,0,0,0
0,0,0,0,0,1197,1197,1197,1197,1197,1197,1193,1193,1193,1193,1189,1189,1189,1189,1189,1189,1189,1193,970,970,975,975,975,975,975,975,973,973,973,973,973,975,978,978,978,978,978,981,981,981,984,984,984,989,992,995,995,998,1161,1161,1161,1161,1161,1161,1161,1161,1161,1161,1161,1161,1161,1157,1157,1157,1157,1157,1157,1157,1157,1157,1157,1157,1157,1157,1157,1157,1157,1157,1157,1157,1157,1157,1157,1157,1157,1157,1161,1161,1157,1153,1153,1153,1153,0,0,0,0,0,0,0,0,0,0,703,703,703,698,696,694,694,693,688,687,686,684,684,684,686,686,687,687,687,688,691,693,693,694,696,697,697,698,701,701,703,704,704,706,706,707,708,0,0,0,0,0,1145,1145,1141,1141,1141,1145,1145,1145,1149,1149,1149,1149,1145,1145,1145,1149,1149,1149,1145,1145,1145,1145,1145,1145,1141,1141,1145,1141,1141,1141,1141,1141,1145,1145,1145,1145,1145,1141,1141,1141,1141,1141,1141,1141,1141,1141,1141,1138,1134,1134,1134,967,967,967,962,959,959,956,956,954,951,948,946,946,946,943,943,940,938,938,938,935,935,935,935,935,935,935,935,935,933,933,933,930,930,928,928,928,1145,1145,1145,1145,1145,1141,1141,1141,1141,933,928,928,928,930,930,930,930,930,930,930,930,933,933,933,933,935,935,938,938,940,940,943,946,948,951,956,956,959,959,962,964,964,1123,1123,1123,1123,1126,1126,1126,1123,1123,1123,1123,1123,1123,1126,1126,1126,1126,1126,1126,1126,1126,1123,1123,1119,1115,1112,1094,1094,1090,1087,1080,1080,1077,1077,1077,1077,1077,1077,1077,1077,1080,1084,1087,1087,1090,1094,1105,1112,1112,1115,1115,1119,1119,1119,1123,1123,1119,1119,1119,1119,1119,1119,1115,1115,1119,1119,1119,1119,1119,1119,1119,1119,1119,1115,1115,1115,1112,1112,1112,1112,1112,1112,1112,1112,1115,1115,1115,1115,1112,1112,1112,1112,1112,1112,1112,1112,1112,1112,1112,1112,1112,1112,1112,1112,1112,1108,1108,1108,1108,1108,1108,1112,1112,1108,1108,1108,1108,1108,1108,1108,1105,1105,1105,1105,1105,1105,1105,1105,1105,1105,1105,1105,1105,1105,1105,1105,1105,1101,1097,1097,1097,1097,1097,1097,1097,1097,1101,1097,1097,1101,1101,1101,1105,1101,1101,1097,1097,1097,1097,1094,1094,1101,1101,1101,1101,1101,1101,1097,1097,1097,1094,1094,1094,1094,1094,1094,1094,1094,1094,1094,1094,1090,1090,1090,1090,1090,1090,1090,1090,1090,1090,1087,1087,1090,1090,1090,1090,1090,1090,1090,1090,1090,1087,1087,1087,1087,1084,1084,1087,1087,1087,1087,1090,1090,1090,1090,1087,1087,1087,1090,1090,1087,1087,1090,1084,1080,1080,1080,1080,1080,1080,1080,1080,1080,1080,1084,1084,878,878,878,880,880,880,880,880,880,880,880,880,880,880,880,880,880,880,880,880,880,880,880,882,882,882,885,887,887,887,889,891,891,891,894,896,898,906,910,910,913,910,906,903,898,898,896,896,894,889,887,882,882,880,880,878,875,873,871,871,869,869,869,867,864,862,860,860,860,858,858,858,854,854,854,851,851,851,849,847,847,845,845,845,843,843,0,0,0,0,0,0,0,0,0,0,0,0,0,0,0,0,0,0,0,0,0,0,0,0,0,0,0,0,0,0,0,0,0,0,0,0,0
0,0,0,0,0,1193,1193,1193,1193,1193,1193,1193,1189,1189,1189,1189,1189,1189,1189,1189,1185,1185,1181,1181,1181,1177,975,975,975,975,973,973,973,973,973,975,975,978,978,978,981,981,984,984,984,984,984,987,989,989,995,995,1161,1161,1161,1161,1161,1161,1161,1157,1157,1157,1157,1157,1161,1161,1157,1157,1157,1157,1157,1153,1153,1153,1153,1153,1153,1153,1153,1153,1157,1157,1157,1153,1153,1153,1153,1153,1153,1153,1153,1153,1157,1153,1149,1149,1149,1149,0,0,0,0,0,0,0,0,0,0,0,0,703,698,697,697,696,694,691,688,687,686,686,686,686,686,687,687,688,691,691,693,694,696,696,697,698,700,701,703,703,704,704,706,706,707,708,0,0,0,0,0,0,0,1141,1141,1141,1141,1145,1145,1145,1145,1145,1145,1145,1145,1145,1145,1145,1145,1145,1145,1145,1145,1141,1141,1141,1141,1141,1138,1138,1138,1138,1141,1141,1141,1141,1141,1141,1141,1138,1138,1138,1138,1138,1138,1138,1138,1138,1134,1134,1130,1130,1130,967,967,962,959,959,959,956,954,951,948,946,946,946,943,943,938,938,938,938,935,935,935,935,935,933,933,933,933,933,933,933,930,928,928,925,925,925,925,925,923,923,1141,913,913,928,928,925,925,928,928,928,928,928,928,928,928,928,930,930,933,933,935,935,938,938,940,943,943,946,948,951,954,956,959,959,962,964,1119,1119,1119,1119,1119,1123,1123,1123,1123,1119,1119,1119,1119,1123,1123,1123,1123,1123,1123,1123,1119,1119,1119,1119,1119,1115,1112,1101,1097,1094,1090,1084,1080,1080,1077,1077,1077,1077,1077,1077,1077,1080,1084,1087,1087,1094,1094,1101,1108,1112,1112,1112,1112,1112,1112,1119,1119,1119,1115,1115,1115,1115,1112,1112,1112,1115,1115,1115,1115,1119,1115,1115,1112,1112,1112,1108,1108,1108,1108,1108,1112,1108,1108,1108,1108,1108,1108,1108,1108,1112,1112,1108,1108,1108,1108,1108,1108,1108,1108,1112,1112,1112,1108,1108,1108,1112,1108,1108,1108,1105,1105,1108,1108,1108,1108,1105,1105,1105,1105,1105,1105,1105,1101,1101,1101,1101,1101,1101,1101,1101,1105,1105,1105,1101,1101,1105,1105,1101,1097,1097,1094,1094,1097,1097,1094,1094,1094,1097,1097,1097,1097,1097,1097,1101,1101,1101,1097,1097,1097,1094,1094,1094,1094,1094,1097,1097,1097,1097,1097,1097,1097,1094,1090,1090,1090,1090,1090,1090,1090,1090,1090,1090,1090,1090,1087,1087,1090,1087,1087,1087,1087,1087,1087,1087,1087,1087,1087,1090,1090,1087,1087,1087,1087,1087,1087,1084,1084,1084,1080,1080,1080,1080,1080,1080,1087,1087,1087,1084,1084,1084,1087,1080,1080,1080,1080,1080,1080,1080,1080,1080,1080,1080,1080,1080,1080,1080,1084,1084,878,878,878,880,880,880,880,880,880,880,880,880,880,880,880,878,878,880,880,880,880,880,880,880,882,882,885,885,887,887,889,891,891,894,894,896,901,906,910,913,913,908,906,903,898,898,896,894,891,887,887,882,882,878,878,875,873,873,871,871,869,869,867,867,864,860,860,860,860,858,858,858,856,854,854,851,851,851,851,847,847,847,845,845,845,845,0,0,0,0,0,0,0,0,0,0,0,0,0,0,0,0,0,0,0,0,0,0,0,0,0,0,0,0,0,0,0,0,0,0,0,0,0
0,0,0,0,0,1193,1193,1189,1189,1189,1189,1189,1185,1185,1185,1185,1185,1185,1181,1181,1181,1181,1181,1177,1177,1177,0,975,975,975,973,973,973,973,973,975,975,978,978,978,981,981,984,984,984,984,987,987,989,989,995,995,1161,1157,1157,1149,1149,1157,1157,1153,1153,1153,1157,1157,1157,1157,1157,1157,1153,1153,1153,1153,1149,1149,1153,1153,1153,1149,1149,1153,1153,1153,1153,1149,1149,1149,1149,1149,1149,1149,1149,1149,1149,1149,1149,1149,1149,1145,1145,0,0,0,0,0,0,0,0,0,0,0,0,698,698,697,697,696,693,690,687,687,686,686,686,686,687,687,688,691,691,693,694,696,696,697,698,700,701,703,704,704,706,706,707,707,708,0,0,0,0,0,0,0,1138,1138,1141,1141,1141,1141,1145,1145,1145,1141,1141,1141,1141,1141,1141,1141,1141,1141,1145,1141,1141,1141,1138,1138,1141,1138,1138,1138,1138,1138,1138,1138,1138,1138,1141,1138,1134,1134,1134,1134,1134,1138,1134,1134,1134,1134,1134,1130,1130,1130,1130,1126,962,959,959,959,956,954,954,951,948,946,946,943,943,938,938,938,935,935,935,935,933,933,933,933,933,933,930,930,930,928,928,925,925,925,925,925,923,923,920,918,913,913,925,925,925,925,925,925,925,925,925,925,925,925,925,928,928,930,933,935,935,938,938,940,943,946,946,948,951,954,956,959,959,962,1119,1119,1119,1119,1119,1119,1119,1119,1115,1115,1119,1119,1119,1119,1119,1119,1119,1119,1119,1119,1119,1119,1119,1119,1115,1115,1115,1112,1105,1097,1094,1090,1087,1080,1080,1077,1077,1077,1077,1077,1077,1077,1080,1084,1087,1087,1094,1097,1101,1105,1108,1108,1112,1112,1112,1112,1112,1112,1112,1112,1112,1112,1112,1112,1108,1108,1112,1112,1112,1112,1112,1112,1112,1108,1108,1105,1105,1105,1105,1108,1108,1108,1108,1108,1108,1108,1105,1105,1105,1108,1108,1108,1108,1108,1108,1108,1108,1108,1108,1108,1108,1108,1108,1105,1105,1105,1108,1105,1105,1105,1105,1105,1105,1105,1105,1105,1105,1105,1101,1101,1101,1101,1101,1097,1097,1097,1097,1097,1097,1097,1097,1101,1101,1101,1101,1101,1101,1101,1097,1094,1094,1094,1094,1097,1097,1094,1094,1094,1097,1094,1094,1097,1094,1094,1094,1094,1094,1094,1094,1094,1090,1090,1090,1090,1090,1090,1090,1094,1094,1094,1094,1090,1090,1090,1090,1090,1090,1090,1090,1090,1090,1090,1090,1090,1090,1087,1087,1087,1087,1084,1084,1084,1084,1084,1084,1084,1084,1084,1087,1087,1087,1087,1087,1084,1084,1084,1080,1080,1080,1080,1080,1080,1080,1080,1080,1080,1084,1084,1084,1080,1080,1080,1080,1077,1077,1077,1080,1080,1077,1077,1077,1080,1080,1080,1080,1080,1080,1084,1084,878,878,878,880,880,880,880,880,880,880,880,880,880,880,880,878,878,880,880,880,880,880,880,880,882,885,885,885,887,887,889,891,891,894,894,896,901,906,910,910,910,908,906,901,898,896,894,891,889,887,885,882,880,878,878,875,873,873,871,869,869,869,867,867,864,860,860,858,858,858,858,858,856,854,854,851,851,851,851,849,847,847,847,845,845,845,0,0,0,0,0,0,0,0,0,0,0,0,0,0,0,0,0,0,0,0,0,0,0,0,0,0,0,0,0,0,0,0,0,0,0,0,0
0,0,0,0,0,1197,1193,1189,1189,1189,1189,1189,1185,1181,1181,1181,1181,1177,1177,1177,1177,1173,1173,1177,1177,1177,1169,975,975,975,975,975,975,975,975,975,978,978,978,978,981,981,984,984,984,987,987,987,989,989,995,1161,1161,1157,1157,1149,1149,1153,1153,1149,1149,1149,1153,1153,1157,1157,1153,1153,1153,1153,1153,1149,1149,1149,1149,1149,1149,1149,1149,1149,1149,1149,1149,1149,1145,1145,1145,1145,1145,1145,1145,1145,1145,1145,1145,1145,1145,1145,1145,0,0,0,0,0,0,0,0,0,0,0,0,698,698,698,697,696,694,691,688,687,686,686,687,687,687,687,690,691,691,693,694,696,696,697,698,700,701,703,704,706,707,707,707,708,710,0,0,0,0,0,0,0,1138,1138,1138,1138,1141,1141,1141,1141,1141,1138,1138,1138,1138,1138,1138,1138,1138,1138,1141,1141,1138,1138,1138,1138,1138,1138,1134,1134,1134,1134,1134,1134,1134,1134,1134,1134,1134,1130,1130,1134,1134,1134,1134,1134,1134,1134,1130,1130,1130,1130,1130,1126,962,959,959,959,956,956,954,951,948,946,946,943,943,938,938,938,935,935,935,933,933,930,930,930,930,930,930,930,930,928,925,925,925,925,925,923,923,923,920,918,918,918,918,920,920,923,923,923,925,923,923,923,923,925,925,925,925,928,930,933,935,938,938,940,943,946,946,948,951,954,956,959,959,1115,1115,1115,1119,1119,1115,1115,1115,1115,1115,1115,1115,1115,1115,1115,1115,1115,1115,1115,1115,1115,1115,1115,1115,1115,1115,1115,1112,1112,1105,1101,1094,1094,1090,1084,1084,1080,1080,1077,1077,1077,1077,1080,1080,1084,1087,1090,1094,1097,1101,1105,1105,1108,1108,1108,1108,1108,1108,1108,1108,1108,1108,1108,1108,1108,1108,1108,1108,1108,1108,1108,1112,1108,1108,1105,1105,1105,1105,1105,1105,1105,1105,1105,1105,1105,1108,1108,1105,1105,1105,1108,1105,1105,1105,1105,1105,1105,1105,1105,1105,1105,1105,1101,1101,1101,1101,1101,1101,1101,1101,1101,1097,1097,1097,1097,1097,1097,1101,1101,1101,1101,1097,1097,1097,1097,1097,1097,1097,1097,1094,1094,1094,1097,1097,1097,1097,1097,1097,1097,1094,1094,1090,1090,1094,1094,1094,1094,1094,1094,1094,1094,1094,1094,1094,1094,1094,1090,1090,1090,1090,1090,1090,1087,1087,1087,1087,1087,1087,1090,1090,1090,1090,1090,1090,1087,1087,1087,1087,1087,1087,1087,1087,1087,1087,1087,1084,1084,1080,1080,1080,1080,1080,1080,1080,1080,1080,1080,1080,1080,1084,1084,1084,1084,1084,1084,1080,1080,1080,1080,1080,1080,1080,1080,1077,1077,1080,1080,1080,1080,1080,1080,1080,1080,1080,1077,1077,1077,1077,1077,1077,1077,1077,1077,1077,1077,1077,1077,1077,1077,1077,878,878,878,880,880,880,880,880,880,880,878,878,878,878,878,878,878,878,880,880,880,880,880,880,882,882,885,885,887,887,889,889,891,894,894,896,903,906,910,908,908,906,903,898,896,894,891,889,887,887,885,880,880,878,875,873,873,871,871,869,869,869,867,867,862,860,860,858,858,856,856,856,856,854,851,851,851,851,851,849,849,849,847,847,845,845,0,0,0,0,0,0,0,0,0,0,0,0,0,0,0,0,0,0,0,0,0,0,0,0,0,0,0,0,0,0,0,0,0,0,0,0,0
0,0,0,0,0,1193,1193,1189,1185,1185,1185,1185,1181,1177,1177,1173,1173,1177,1173,1173,1173,1169,1169,1169,1169,1169,1169,1169,975,975,975,975,975,975,975,975,978,978,978,978,981,981,984,984,984,987,987,987,989,989,995,1157,1157,1157,1153,1149,1149,1149,1149,1149,1149,1145,1145,1149,1149,1149,1153,1153,1149,1149,1149,1145,1145,1145,1145,1145,1145,1145,1145,1145,1145,1145,1145,1145,1141,1141,1141,1141,1141,1141,1141,1141,1141,1141,1141,1141,1141,1141,1141,0,0,0,0,0,0,0,0,0,0,0,0,700,698,698,698,697,696,693,690,688,687,687,687,687,687,687,690,691,691,693,694,696,696,697,698,700,701,703,704,706,707,708,708,708,710,710,0,0,0,0,0,0,1138,1138,1138,1138,1138,1141,1138,1138,1138,1138,1138,1138,1138,1138,1134,1134,1134,1134,1138,1138,1134,1134,1134,1134,1134,1134,1134,1134,1134,1134,1130,1130,1130,1130,1130,1130,1130,1126,1126,1130,1130,1130,1130,1130,1130,1134,1130,1130,1130,1130,1130,1126,1123,1123,1123,959,956,956,954,951,948,946,946,943,943,938,938,935,935,935,933,933,930,928,928,928,928,928,928,928,925,925,925,925,925,923,923,923,923,920,918,918,918,918,918,918,920,920,920,920,920,920,920,923,923,923,925,925,925,928,930,933,935,940,940,943,943,946,946,948,951,954,956,959,1115,1115,1115,1115,1115,1115,1115,1115,1115,1115,1112,1112,1112,1112,1115,1115,1115,1115,1115,1115,1112,1112,1115,1115,1115,1115,1115,1115,1112,1108,1108,1105,1097,1094,1090,1084,1084,1080,1080,1080,1080,1080,1080,1080,1080,1084,1087,1090,1094,1097,1101,1105,1105,1105,1105,1105,1105,1105,1105,1108,1108,1108,1108,1105,1105,1108,1108,1108,1105,1105,1108,1108,1108,1108,1105,1105,1105,1105,1101,1101,1105,1105,1105,1105,1105,1105,1105,1105,1105,1105,1105,1105,1105,1105,1105,1105,1105,1105,1105,1105,1105,1105,1101,1101,1101,1097,1097,1097,1097,1097,1097,1094,1094,1094,1094,1094,1094,1094,1094,1094,1097,1097,1094,1094,1094,1094,1094,1094,1094,1094,1094,1094,1094,1094,1094,1094,1094,1094,1094,1094,1090,1090,1090,1090,1090,1094,1094,1094,1094,1094,1094,1094,1094,1094,1090,1090,1090,1090,1090,1087,1087,1087,1087,1087,1084,1084,1084,1084,1084,1084,1084,1087,1087,1090,1087,1087,1084,1084,1084,1084,1084,1084,1084,1084,1087,1084,1080,1080,1080,1080,1080,1080,1080,1077,1077,1077,1080,1080,1080,1080,1080,1080,1080,1084,1080,1080,1080,1080,1077,1077,1077,1077,1077,1077,1077,1077,1077,1077,1077,1077,1077,1077,1077,1077,1077,1073,1073,1073,1073,1077,1077,1077,1077,1077,1073,1073,1077,1073,1073,1077,875,875,878,878,880,880,880,880,878,878,878,878,878,878,878,878,878,878,878,880,880,880,880,880,880,882,882,885,885,887,887,889,889,891,894,894,896,903,906,908,908,908,903,903,898,896,894,889,887,887,885,885,880,878,875,875,873,871,871,871,869,869,869,867,867,862,862,860,858,858,856,856,856,856,854,851,851,851,851,851,849,849,849,849,847,847,847,0,0,0,0,0,0,0,0,0,0,0,0,0,0,0,0,0,0,0,0,0,0,0,0,0,0,0,0,0,0,0,0,0,0,0,0,0
0,0,0,0,0,1189,1189,1181,1181,1181,1181,1181,1177,1177,1177,1173,1173,1173,1173,1169,1165,1161,1161,1161,1161,1161,0,0,0,975,975,975,975,975,975,978,978,978,978,978,981,981,984,984,987,987,987,989,989,989,995,1153,1153,1153,1149,1149,1149,1149,1149,1145,1145,1145,1145,1145,1145,1145,1145,1145,1145,1149,1145,1145,1141,1141,1141,1141,1141,1141,1141,1141,1141,1141,1141,1141,1141,1138,1138,1141,1138,1138,1141,1141,1141,1141,1138,1138,1141,1141,1141,0,0,0,0,0,0,0,0,0,0,0,0,700,700,700,698,697,696,693,691,690,688,687,687,687,687,687,690,691,691,693,694,696,697,698,700,701,701,703,704,706,707,708,708,708,710,710,0,0,0,0,0,0,0,1134,1134,1138,1138,1138,1138,1138,1138,1134,1134,1134,1134,1134,1134,1130,1130,1134,1134,1134,1134,1134,1134,1134,1134,1134,1130,1130,1130,1130,1130,1130,1130,1130,1130,1130,1126,1126,1126,1126,1123,1123,1123,1123,1130,1130,1130,1130,1126,1126,1126,1126,1123,1123,1119,959,956,956,954,951,948,948,946,943,940,940,938,935,935,935,933,933,930,928,928,925,925,925,925,923,923,923,923,923,923,923,923,923,920,920,918,918,915,915,918,918,915,915,918,918,918,920,920,920,923,923,923,925,925,928,930,933,935,940,940,943,946,946,948,948,951,954,1115,1112,1112,1112,1112,1112,1112,1112,1112,1112,1112,1112,1108,1108,1112,1112,1112,1112,1112,1112,1112,1112,1112,1112,1112,1112,1112,1112,1112,1112,1108,1105,1105,1105,1101,1097,1094,1084,1084,1080,1080,1080,1080,1080,1080,1080,1084,1084,1087,1090,1094,1097,1101,1105,1105,1105,1105,1105,1105,1105,1105,1105,1105,1105,1105,1101,1101,1105,1101,1101,1105,1105,1105,1105,1105,1105,1105,1105,1105,1105,1101,1101,1105,1101,1101,1101,1101,1105,1105,1101,1101,1105,1105,1105,1101,1101,1101,1101,1101,1101,1101,1101,1101,1101,1097,1097,1097,1094,1094,1094,1094,1094,1094,1094,1094,1094,1094,1094,1094,1094,1094,1094,1094,1094,1094,1094,1094,1094,1090,1090,1094,1094,1094,1090,1090,1090,1090,1090,1090,1090,1090,1090,1087,1087,1090,1090,1090,1090,1090,1090,1090,1090,1090,1090,1090,1090,1087,1087,1087,1084,1084,1084,1084,1084,1084,1084,1084,1080,1080,1080,1080,1080,1080,1080,1080,1080,1080,1080,1084,1084,1080,1080,1080,1080,1080,1084,1084,1084,1080,1080,1077,1077,1077,1077,1077,1077,1077,1077,1077,1077,1077,1077,1077,1077,1077,1077,1080,1077,1077,1077,1077,1077,1077,1073,1073,1073,1073,1073,1073,1077,1073,1073,1073,1077,1077,1073,1073,1073,1073,1073,1073,1073,1077,1077,1077,1077,1073,1073,1077,1073,1073,875,875,875,878,880,880,880,880,878,878,878,878,878,878,878,878,878,878,878,880,880,880,880,880,880,880,882,882,885,885,887,887,889,889,891,894,896,901,906,906,908,908,906,903,901,898,896,894,889,887,887,885,882,880,878,875,875,871,871,871,869,869,869,869,867,867,864,862,860,860,860,858,858,858,856,854,854,851,851,851,851,849,849,849,849,847,847,847,0,0,0,0,0,0,0,0,0,0,0,0,0,0,0,0,0,0,0,0,0,0,0,0,0,0,0,0,0,0,0,0,0,0,0,0,0
0,0,0,0,0,1189,1189,1181,1181,1181,1181,1177,1177,1173,1169,1169,1169,1169,1169,1169,1165,1161,1157,1157,1153,1153,0,0,0,975,0,975,975,975,975,978,978,978,978,978,981,981,984,984,987,989,989,989,989,989,995,995,1153,1149,1145,1145,1145,1145,1145,1145,1145,1141,1141,1141,1141,1141,1141,1141,1141,1141,1141,1138,1138,1138,1138,1138,1138,1141,1138,1138,1138,1141,1141,1138,1138,1138,1138,1138,1138,1138,1138,1141,1141,1138,1138,1138,1141,1141,1141,0,0,0,0,0,0,0,0,0,0,0,0,701,701,700,698,698,696,693,691,690,690,687,687,687,687,688,691,691,691,693,694,696,697,700,701,703,703,703,704,706,707,708,708,708,710,710,0,0,0,0,0,0,0,1134,1134,1134,1134,1134,1134,1134,1134,1130,1130,1130,1130,1134,1130,1130,1130,1130,1130,1130,1130,1130,1130,1130,1130,1130,1130,1130,1130,1130,1130,1130,1126,1126,1126,1130,1126,1123,1123,1123,1119,1119,1119,1119,1123,1126,1126,1126,1126,1126,1123,1123,1119,1119,1119,1115,956,956,954,954,948,948,946,943,940,940,938,935,935,933,933,930,930,928,925,925,923,923,923,923,920,920,920,920,923,920,920,920,920,920,915,915,915,915,915,915,915,915,915,915,918,918,920,920,920,923,923,925,928,930,933,935,935,938,940,943,943,946,946,948,1119,1112,1112,1112,1112,1108,1108,1112,1108,1108,1108,1108,1108,1105,1105,1105,1108,1108,1108,1108,1108,1108,1108,1108,1108,1108,1112,1112,1112,1112,1108,1108,1108,1105,1105,1105,1105,1101,1097,1094,1090,1084,1080,1080,1080,1080,1080,1084,1087,1087,1090,1094,1094,1097,1097,1101,1101,1101,1101,1105,1101,1101,1101,1105,1105,1101,1101,1101,1101,1101,1097,1097,1097,1097,1097,1101,1105,1101,1101,1105,1105,1101,1101,1101,1101,1101,1101,1101,1101,1101,1105,1101,1101,1101,1101,1101,1097,1097,1097,1101,1101,1097,1097,1097,1097,1097,1094,1094,1094,1094,1094,1094,1090,1090,1090,1090,1090,1090,1090,1090,1090,1090,1090,1090,1094,1094,1090,1090,1090,1090,1090,1090,1090,1090,1090,1090,1090,1087,1087,1090,1087,1087,1087,1087,1087,1087,1087,1087,1087,1087,1087,1087,1087,1087,1087,1087,1087,1087,1084,1080,1080,1080,1080,1080,1080,1080,1080,1080,1080,1080,1080,1080,1080,1077,1077,1077,1077,1077,1077,1077,1077,1077,1080,1080,1080,1080,1080,1080,1080,1080,1080,1077,1077,1077,1077,1077,1073,1073,1073,1073,1077,1077,1077,1077,1077,1077,1073,1073,1077,1077,1077,1077,1073,1073,1073,1073,1073,1070,1070,1070,1070,1070,1073,1073,1073,1073,1073,1073,1073,1070,1070,1070,1070,1070,1077,1077,1077,1077,1077,1077,1077,0,878,0,878,878,878,880,880,880,880,878,878,878,878,878,878,878,878,878,878,878,880,880,880,880,880,880,880,882,882,885,885,885,887,889,891,894,894,896,901,903,906,906,906,903,901,901,898,894,889,887,885,885,882,880,878,875,875,873,871,871,871,869,869,869,869,867,867,864,862,860,860,860,858,858,858,858,856,854,854,854,854,851,851,851,849,849,847,847,0,0,0,0,0,0,0,0,0,0,0,0,0,0,0,0,0,0,0,0,0,0,0,0,0,0,0,0,0,0,0,0,0,0,0,0,0,0
0,0,0,0,0,1185,1185,1181,1181,1177,1177,1177,1177,1169,1169,1165,1165,1169,1165,1165,1165,1161,1157,1157,1153,1153,1157,1157,0,0,975,975,975,975,975,975,978,978,978,981,981,981,987,987,987,989,989,989,989,992,995,995,1149,1149,1141,1141,1141,1141,1141,1141,1141,1138,1138,1138,1138,1138,1138,1138,1138,1138,1138,1138,1134,1134,1134,1134,1134,1138,1138,1134,1134,1138,1138,1134,1134,1134,1134,1138,1138,1134,1134,1138,1138,1134,1134,1134,1138,1138,1134,1134,0,0,0,0,0,0,0,0,0,0,0,703,703,701,700,698,696,694,693,691,690,688,688,687,687,688,690,691,691,694,694,697,698,700,701,701,701,703,704,706,707,708,708,710,710,710,0,0,0,0,0,0,0,1130,1126,1126,1126,1130,1130,1130,1130,1130,1130,1130,1130,1130,1130,1130,1130,1126,1126,1126,1126,1126,1126,1126,1126,1130,1130,1126,1123,1123,1126,1126,1123,1123,1123,1123,1123,1119,1119,1119,1119,1119,1119,1119,1119,1119,1119,1119,1123,1123,1123,1119,1119,1119,1115,1115,1115,1105,1105,1108,948,946,946,943,940,940,938,935,935,933,933,930,928,925,925,925,923,923,920,920,918,918,918,918,920,918,918,918,918,918,915,915,915,915,915,913,913,913,915,915,915,915,918,920,920,923,923,925,928,930,933,933,935,938,940,943,943,946,946,1123,1115,1108,1108,1108,1108,1108,1108,1105,1105,1105,1105,1105,1105,1105,1101,1101,1105,1105,1105,1105,1105,1105,1105,1105,1105,1108,1108,1108,1108,1108,1108,1108,1105,1105,1105,1105,1105,1101,1101,1094,1090,1087,1084,1084,1084,1084,1084,1084,1087,1087,1090,1094,1094,1094,1097,1097,1097,1097,1101,1101,1101,1101,1101,1101,1101,1097,1097,1097,1097,1097,1094,1094,1094,1094,1094,1097,1097,1097,1097,1101,1101,1101,1097,1097,1101,1097,1097,1097,1097,1097,1101,1101,1094,1094,1097,1097,1094,1094,1094,1097,1097,1094,1094,1094,1094,1094,1090,1090,1094,1090,1090,1090,1090,1090,1090,1087,1087,1090,1090,1090,1090,1090,1090,1090,1090,1090,1090,1090,1090,1087,1087,1087,1090,1090,1090,1087,1087,1087,1087,1087,1084,1084,1084,1080,1080,1080,1080,1084,1084,1084,1087,1087,1084,1084,1084,1084,1084,1084,1080,1080,1080,1077,1077,1080,1080,1080,1080,1080,1080,1080,1080,1077,1077,1077,1077,1077,1077,1073,1073,1073,1073,1073,1077,1077,1077,1077,1077,1077,1077,1077,1077,1077,1073,1073,1073,1073,1073,1073,1073,1073,1073,1073,1073,1070,1070,1070,1070,1070,1070,1070,1070,1070,1070,1070,1070,1070,1070,1070,1070,1070,1070,1070,1070,1070,1070,1070,1070,1070,1070,1070,1070,1070,1070,1070,1077,1077,1077,1077,1077,1077,0,0,0,878,878,878,880,880,880,880,880,878,878,878,878,878,878,878,878,878,878,878,878,880,880,880,880,880,882,882,882,885,885,885,887,889,891,894,894,898,901,903,903,903,901,901,898,898,896,891,889,887,885,882,880,878,878,875,875,873,871,871,871,871,869,869,869,869,867,864,862,862,862,860,860,860,860,860,856,854,854,854,854,854,851,851,851,851,849,849,0,0,0,0,0,0,0,0,0,0,0,0,0,0,0,0,0,0,0,0,0,0,0,0,0,0,0,0,0,0,0,0,0,0,0,0,0,0
0,0,0,0,0,1185,1181,1181,1177,1177,1177,1177,1169,1169,1165,1165,1165,1165,1165,1165,1161,1161,1157,1157,1157,1157,1157,1157,1161,0,973,973,973,975,975,975,978,978,978,981,981,981,987,987,989,989,989,992,992,992,995,998,1001,1134,1134,1134,1138,1138,1138,1138,1138,1138,1138,1134,1134,1134,1134,1134,1134,1134,1134,1134,1130,1130,1130,1130,1130,1130,1130,1130,1130,1134,1134,1134,1134,1134,1134,1134,1134,1134,1134,1134,1134,1134,1134,1134,1134,1134,1134,1134,0,0,0,0,0,0,0,0,0,0,0,0,703,703,701,700,697,694,693,691,690,688,688,688,688,688,690,691,691,693,694,696,698,700,701,701,701,703,703,706,707,708,710,710,710,710,0,0,0,0,0,0,0,1130,1123,1123,1123,1123,1123,1126,1126,1126,1126,1126,1126,1126,1126,1126,1126,1123,1123,1123,1123,1123,1123,1123,1123,1123,1126,1123,1123,1123,1123,1123,1123,1123,1119,1119,1123,1119,1119,1119,1119,1119,1115,1115,1119,1119,1119,1119,1119,1119,1119,1119,1115,1115,1112,1112,1112,1105,1105,1108,1108,946,943,943,943,940,938,935,935,933,933,930,928,925,925,923,923,920,918,918,915,915,915,915,915,915,915,915,915,918,915,915,915,913,913,913,913,913,913,913,913,915,918,918,920,923,923,925,928,930,933,933,935,938,938,940,943,946,1101,1101,1105,1105,1105,1105,1105,1105,1105,1105,1105,1101,1101,1101,1101,1101,1101,1101,1101,1101,1101,1101,1101,1105,1105,1101,1101,1105,1105,1105,1105,1105,1101,1101,1101,1101,1101,1101,1101,1101,1097,1094,1090,1090,1087,1087,1087,1087,1087,1087,1087,1090,1090,1094,1094,1094,1094,1094,1094,1094,1097,1097,1097,1097,1097,1097,1097,1097,1094,1094,1094,1094,1094,1090,1090,1090,1094,1094,1094,1094,1094,1101,1097,1097,1097,1094,1094,1094,1090,1090,1090,1094,1094,1094,1090,1090,1097,1097,1094,1094,1094,1094,1094,1094,1090,1090,1090,1090,1090,1090,1090,1090,1090,1090,1090,1090,1084,1084,1087,1087,1087,1087,1087,1087,1087,1090,1090,1090,1090,1090,1090,1087,1087,1087,1084,1084,1087,1087,1087,1084,1080,1080,1080,1077,1077,1077,1077,1077,1077,1080,1080,1080,1080,1084,1080,1080,1080,1080,1080,1080,1077,1077,1077,1077,1077,1077,1077,1080,1077,1077,1077,1077,1077,1077,1073,1073,1073,1070,1070,1070,1070,1070,1070,1070,1073,1073,1073,1073,1073,1073,1073,1073,1073,1070,1070,1070,1070,1070,1070,1070,1070,1067,1067,1070,1067,1067,1067,1070,1067,1067,1067,1067,1067,1067,1067,1067,1067,1067,1067,1067,1067,1067,1067,1067,1067,1067,1067,1067,1067,1067,1067,1067,1067,1067,1067,1067,1077,1077,1080,1080,0,0,0,0,0,0,878,878,880,880,880,880,880,878,878,878,878,878,878,878,878,878,878,878,878,880,880,880,880,880,882,882,885,885,885,885,887,887,889,894,894,898,901,901,901,901,901,898,898,898,896,891,889,887,885,882,880,878,878,878,875,873,871,871,871,871,871,869,869,869,869,867,864,862,862,862,862,860,860,860,858,856,854,854,854,854,854,854,851,851,847,847,0,0,0,0,0,0,0,0,0,0,0,0,0,0,0,0,0,0,0,0,0,0,0,0,0,0,0,0,0,0,0,0,0,0,0,0,0,0
0,0,0,0,0,1181,1181,1177,1177,1173,1173,1169,1169,1165,1165,1165,1165,1165,1161,1161,1161,1161,1157,1157,1153,1153,1153,1161,1161,0,973,973,973,975,975,975,978,978,981,981,984,984,987,989,989,989,989,992,992,992,995,998,998,1130,1130,1130,1134,1134,1134,1134,1134,1134,1134,1130,1130,1130,1130,1130,1130,1130,1130,1130,1130,1130,1126,1126,1126,1130,1130,1126,1126,1130,1130,1130,1130,1130,1134,1134,1134,1130,1130,1130,1130,1130,1130,1130,1130,1130,1126,1126,0,0,0,0,0,0,0,0,0,0,0,0,704,703,701,700,697,694,693,691,691,690,688,688,688,688,688,691,691,693,694,696,698,700,701,701,701,703,703,706,707,710,710,710,710,710,710,0,0,0,0,0,0,1130,1119,1119,1119,1119,1119,1119,1119,1119,1119,1123,1123,1123,1123,1123,1123,1119,1119,1119,1119,1119,1119,1119,1119,1123,1123,1119,1119,1119,1119,1119,1119,1119,1119,1119,1119,1119,1115,1115,1115,1115,1115,1115,1115,1115,1115,1115,1115,1115,1115,1115,1115,1115,1112,1112,1108,1105,1105,1105,1105,1105,943,943,943,940,938,938,935,933,933,930,928,925,925,923,918,918,918,915,915,913,913,913,913,913,913,913,913,913,913,913,913,913,913,910,910,910,913,913,913,915,918,918,920,923,925,925,928,930,933,933,935,935,938,940,943,1097,1097,1097,1101,1101,1101,1101,1101,1101,1101,1101,1101,1101,1101,1101,1101,1101,1101,1101,1101,1101,1101,1101,1101,1101,1101,1101,1101,1101,1101,1097,1097,1097,1097,1097,1097,1097,1097,1101,1101,1101,1097,1094,1090,1090,1090,1090,1090,1090,1090,1090,1090,1090,1090,1094,1094,1094,1094,1094,1094,1094,1094,1094,1097,1094,1094,1094,1097,1094,1094,1094,1090,1090,1090,1090,1090,1090,1090,1090,1090,1090,1090,1090,1090,1090,1094,1094,1094,1090,1090,1090,1090,1090,1090,1090,1090,1090,1094,1094,1090,1090,1090,1090,1090,1087,1087,1087,1087,1087,1090,1090,1090,1087,1087,1087,1087,1084,1084,1084,1084,1084,1084,1087,1087,1087,1087,1087,1087,1087,1087,1087,1087,1087,1087,1084,1084,1080,1080,1080,1080,1080,1077,1077,1077,1077,1077,1077,1077,1077,1077,1080,1080,1080,1080,1080,1080,1080,1080,1080,1077,1077,1077,1077,1073,1073,1077,1077,1077,1077,1077,1077,1077,1077,1073,1073,1073,1070,1070,1070,1070,1067,1067,1067,1067,1067,1067,1067,1067,1067,1070,1070,1070,1070,1067,1067,1067,1067,1067,1067,1067,1067,1067,1067,1067,1067,1067,1067,1067,1067,1067,1063,1063,1067,1067,1063,1063,1063,1063,1063,1067,1063,1063,1063,1063,1063,1063,1063,1063,1063,1063,1063,1067,1063,1063,1063,1063,1067,1077,1080,1080,0,0,0,0,0,0,0,878,878,880,880,880,880,880,878,878,878,878,878,878,878,875,875,878,878,878,878,880,880,880,880,880,882,882,885,885,885,887,887,889,896,896,898,898,898,898,898,898,898,896,896,894,891,889,887,885,882,880,878,878,878,875,875,873,873,871,871,871,869,869,869,869,867,864,864,864,862,862,862,860,860,858,858,856,856,856,854,854,854,851,851,839,839,0,0,0,0,0,0,0,0,0,0,0,0,0,0,0,0,0,0,0,0,0,0,0,0,0,0,0,0,0,0,0,0,0,0,0,0,0,0
0,0,0,0,0,1181,1177,1177,1177,1169,1165,1165,1165,1165,1161,1161,1161,1161,1161,1161,1157,1157,1157,1153,1153,1153,1153,1157,1157,987,987,978,978,978,978,978,978,978,981,981,984,984,987,989,989,989,989,992,992,992,995,998,998,1130,1130,1130,1130,1130,1130,1130,1130,1130,1130,1130,1130,1126,1126,1126,1126,1126,1126,1126,1126,1126,1126,1126,1126,1126,1126,1126,1126,1126,1130,1130,1130,1130,1130,1130,1130,1130,1130,1130,1130,1130,1126,1126,1126,1119,1119,1119,0,0,0,0,0,0,0,0,0,0,0,0,706,704,703,701,697,696,693,693,691,690,688,688,688,688,688,691,691,694,696,697,698,700,701,703,703,704,704,706,708,710,710,710,710,710,710,0,0,0,0,0,0,0,1119,1115,1115,1115,1115,1115,1115,1115,1119,1115,1115,1115,1119,1119,1119,1119,1119,1119,1119,1119,1115,1115,1119,1119,1119,1119,1119,1119,1119,1119,1115,1115,1115,1115,1115,1115,1115,1115,1115,1115,1115,1115,1115,1115,1112,1112,1112,1112,1115,1112,1112,1112,1112,1112,1108,1105,1105,1105,1105,1105,1105,1105,943,940,938,938,935,935,935,933,930,928,925,923,918,918,915,915,913,913,910,910,910,910,908,908,908,910,910,910,910,910,910,910,910,910,910,910,913,913,915,918,920,923,925,925,928,930,933,933,935,935,938,940,1097,1097,1097,1097,1101,1101,1097,1097,1097,1097,1097,1097,1097,1101,1101,1101,1101,1101,1097,1097,1101,1101,1097,1097,1097,1097,1097,1097,1097,1097,1097,1094,1094,1094,1094,1094,1094,1097,1097,1101,1101,1101,1097,1094,1090,1090,1090,1090,1090,1090,1090,1090,1090,1090,1090,1094,1094,1094,1094,1094,1094,1094,1094,1094,1094,1094,1094,1094,1094,1094,1094,1090,1090,1090,1090,1090,1087,1087,1090,1090,1087,1087,1087,1087,1087,1087,1084,1084,1084,1087,1087,1087,1084,1084,1084,1087,1087,1090,1090,1090,1090,1090,1090,1087,1087,1084,1084,1084,1084,1084,1087,1087,1087,1087,1084,1084,1084,1084,1084,1084,1084,1084,1084,1084,1084,1084,1080,1080,1084,1084,1084,1084,1080,1080,1080,1080,1080,1080,1077,1077,1077,1077,1077,1077,1073,1073,1077,1077,1077,1077,1077,1080,1077,1077,1077,1077,1077,1077,1077,1077,1073,1073,1073,1070,1070,1070,1073,1073,1073,1073,1073,1073,1073,1077,1073,1070,1070,1070,1070,1067,1067,1067,1067,1067,1067,1067,1067,1067,1067,1067,1067,1067,1067,1067,1067,1067,1063,1063,1067,1067,1067,1067,1067,1067,1067,1067,1067,1067,1067,1067,1063,1063,1063,1063,1063,1063,1063,1060,1060,1063,1063,1063,1063,1063,1063,1063,1063,1060,1060,1060,1060,1060,1063,1063,1063,1063,1063,0,0,0,0,0,0,0,0,0,0,0,878,878,880,880,880,878,878,878,878,878,875,875,875,875,875,875,878,878,878,878,878,878,880,880,880,882,882,885,885,885,887,887,889,896,896,898,898,898,898,898,896,896,896,894,891,889,887,885,882,882,880,878,878,878,875,875,873,873,871,871,871,871,869,869,869,869,867,864,864,862,862,862,862,860,860,860,858,856,856,854,854,851,837,837,837,837,0,0,0,0,0,0,0,0,0,0,0,0,0,0,0,0,0,0,0,0,0,0,0,0,0,0,0,0,0,0,0,0,0,0,0,0,0,0
0,0,0,0,0,1177,1177,1177,1169,1169,1165,1165,1165,1161,1161,1157,1157,1161,1157,1157,1153,1153,1153,1153,1149,1149,1149,989,987,987,987,987,981,981,978,978,978,981,981,981,984,987,987,989,989,989,989,992,992,995,998,998,1001,1004,1130,1130,1130,1130,1130,1130,1130,1130,1126,1126,1126,1123,1123,1126,1126,1126,1126,1123,1123,1123,1123,1123,1123,1126,1126,1126,1126,1126,1126,1126,1126,1126,1126,1126,1126,1126,1126,1126,1126,1126,1123,1123,1119,1115,1115,1115,0,0,0,0,0,0,0,0,0,0,0,0,707,704,704,703,700,697,694,693,693,691,690,688,688,688,690,691,693,696,697,698,698,700,701,703,703,704,704,707,708,710,710,711,710,710,710,710,0,0,0,0,0,0,1115,1115,1115,1115,1115,1115,1115,1115,1115,1115,1115,1112,1112,1112,1112,1115,1119,1115,1115,1115,1115,1115,1115,1115,1115,1115,1115,1115,1115,1115,1115,1115,1112,1112,1112,1115,1112,1112,1112,1112,1112,1112,1112,1112,1108,1108,1108,1108,1112,1108,1108,1108,1108,1108,1105,1105,1105,1105,1105,1105,1105,1105,1101,940,938,938,935,935,935,933,933,928,928,925,920,918,915,913,910,908,906,906,908,906,906,906,906,906,906,908,908,908,908,908,908,908,910,910,910,913,915,918,920,923,925,928,928,930,933,935,935,938,938,1097,1094,1094,1094,1097,1097,1097,1094,1094,1094,1094,1094,1094,1094,1097,1097,1097,1097,1097,1097,1097,1097,1097,1097,1094,1094,1097,1097,1094,1090,1090,1090,1090,1090,1090,1090,1090,1090,1090,1090,1097,1097,1097,1094,1094,1090,1090,1090,1090,1090,1090,1090,1090,1090,1090,1090,1094,1090,1090,1090,1090,1090,1090,1090,1090,1090,1090,1094,1094,1094,1090,1090,1090,1090,1090,1087,1087,1087,1087,1087,1087,1084,1084,1084,1084,1084,1084,1084,1084,1084,1084,1084,1084,1084,1084,1084,1084,1084,1087,1087,1087,1087,1087,1084,1084,1084,1080,1080,1080,1084,1084,1084,1080,1080,1084,1084,1080,1080,1080,1080,1080,1080,1080,1080,1080,1080,1080,1080,1080,1080,1080,1080,1080,1077,1077,1077,1077,1077,1077,1077,1077,1077,1073,1073,1073,1073,1073,1077,1077,1077,1077,1077,1077,1077,1077,1077,1077,1073,1073,1073,1073,1073,1073,1073,1070,1070,1070,1070,1070,1070,1070,1070,1073,1073,1073,1070,1070,1070,1067,1067,1067,1067,1067,1067,1067,1067,1067,1063,1063,1063,1063,1063,1063,1063,1063,1063,1063,1063,1063,1063,1063,1063,1063,1063,1063,1063,1063,1063,1063,1063,1063,1063,1063,1063,1060,1060,1060,1060,1060,1060,1060,1063,1063,1063,1063,1060,1060,1057,1057,1057,1057,1060,1060,1060,1060,1060,1063,1063,0,0,0,0,0,0,0,0,0,0,878,878,878,880,880,880,878,878,878,878,875,875,875,875,875,875,875,875,878,878,878,878,878,880,880,880,882,882,885,885,885,887,887,889,896,896,898,898,898,896,896,896,896,894,894,889,889,887,885,882,882,880,878,878,878,875,875,873,873,871,871,871,871,871,871,871,869,869,867,867,864,864,864,862,860,860,860,858,856,854,851,851,847,837,835,833,833,0,0,0,0,0,0,0,0,0,0,0,0,0,0,0,0,0,0,0,0,0,0,0,0,0,0,0,0,0,0,0,0,0,0,0,0,0,0
0,0,0,0,0,1173,1173,1173,1169,1165,1165,1165,1165,1161,1161,1157,1157,1157,1157,1153,1153,1153,1153,1153,1149,1145,989,989,987,987,987,987,987,987,981,981,981,981,981,984,984,987,987,989,989,989,989,992,992,995,998,1001,1001,1004,1130,1130,1130,1130,1130,1130,1130,1126,1123,1123,1123,1123,1123,1123,1123,1123,1123,1123,1123,1123,1119,1119,1123,1123,1123,1123,1123,1126,1123,1123,1123,1123,1123,1123,1123,1123,1123,1119,1119,1119,1119,1119,1119,1115,1115,1112,1112,0,0,0,0,0,0,0,0,0,0,0,708,706,706,704,701,698,694,693,693,691,690,690,690,690,691,693,694,696,697,698,698,700,700,703,704,704,706,707,708,710,710,711,711,713,710,710,0,0,0,0,0,0,1115,1115,1115,1115,1115,1115,1115,1115,1112,1112,1112,1108,1108,1108,1108,1108,1108,1108,1108,1115,1112,1112,1112,1115,1115,1115,1112,1112,1112,1115,1112,1112,1108,1108,1108,1112,1112,1112,1112,1112,1112,1112,1108,1108,1108,1105,1105,1108,1108,1105,1105,1105,1105,1105,1105,1105,1105,1105,1101,1101,1101,1101,1101,1101,1101,940,938,935,935,935,933,930,930,925,920,918,915,910,906,906,903,903,903,903,903,903,903,903,906,906,906,906,906,906,906,908,908,908,910,913,915,920,920,923,925,928,930,930,933,935,935,938,1090,1090,1094,1090,1090,1094,1094,1090,1090,1090,1090,1090,1090,1090,1094,1094,1094,1094,1094,1094,1094,1094,1094,1094,1094,1090,1090,1094,1094,1090,1090,1087,1087,1087,1087,1087,1087,1087,1087,1090,1090,1094,1094,1094,1094,1094,1094,1090,1090,1090,1090,1090,1090,1090,1090,1090,1090,1090,1090,1090,1090,1090,1090,1090,1087,1087,1090,1090,1090,1090,1090,1090,1090,1087,1087,1084,1084,1084,1084,1084,1084,1084,1084,1084,1080,1080,1080,1080,1080,1080,1080,1080,1080,1080,1080,1080,1080,1084,1084,1084,1084,1084,1084,1080,1080,1080,1080,1080,1080,1080,1080,1080,1080,1080,1080,1080,1080,1080,1080,1080,1080,1080,1080,1080,1077,1077,1077,1077,1077,1077,1077,1077,1077,1077,1073,1073,1073,1073,1073,1073,1070,1070,1070,1070,1070,1070,1070,1070,1070,1070,1070,1070,1077,1077,1077,1077,1073,1073,1070,1070,1070,1070,1067,1067,1070,1067,1067,1067,1067,1067,1067,1070,1070,1070,1070,1073,1070,1070,1067,1067,1067,1067,1067,1063,1063,1063,1063,1063,1063,1063,1063,1063,1063,1063,1060,1060,1060,1060,1060,1060,1063,1063,1063,1063,1063,1063,1063,1063,1063,1063,1063,1063,1063,1060,1060,1060,1060,1057,1057,1057,1057,1060,1060,1060,1060,1060,1060,1057,1057,1057,1054,1054,1057,1057,1060,1060,1060,0,0,0,0,0,0,0,0,0,0,0,0,878,878,878,880,878,878,878,878,878,875,875,875,875,875,875,875,875,875,878,878,878,878,878,880,880,882,882,885,885,885,885,887,889,889,896,896,898,898,898,896,896,896,894,891,891,889,887,885,885,882,880,880,878,878,878,875,875,873,873,873,873,871,871,871,871,871,871,869,869,869,867,864,864,862,862,860,860,854,854,851,849,841,839,835,833,833,833,0,0,0,0,0,0,0,0,0,0,0,0,0,0,0,0,0,0,0,0,0,0,0,0,0,0,0,0,0,0,0,0,0,0,0,0,0,0
0,0,0,0,0,1173,1173,1173,1169,1165,1165,1165,1165,1161,1161,1157,1157,1153,1153,1153,1149,1149,1149,1149,989,989,989,989,987,987,987,989,987,987,984,984,984,984,984,984,984,987,989,989,989,989,992,995,995,998,1001,1001,1004,1004,1130,1130,1130,1130,1130,1130,1130,1126,1123,1123,1123,1123,1123,1123,1123,1123,1123,1119,1119,1119,1119,1119,1119,1119,1119,1119,1119,1119,1119,1119,1119,1119,1119,1119,1119,1119,1119,1119,1119,1119,1119,1119,1119,1115,1115,1112,1112,0,0,0,0,0,0,0,0,0,0,0,708,707,707,706,703,698,694,694,693,691,691,690,690,691,693,694,694,696,697,698,698,700,700,703,704,706,706,707,708,710,710,711,713,713,713,713,0,0,0,0,0,0,1112,1112,1112,1112,1112,1112,1112,1112,1108,1108,1108,1108,1105,1105,1108,1108,1108,1108,1108,1108,1108,1108,1108,1112,1112,1112,1112,1108,1108,1108,1108,1105,1105,1105,1108,1108,1108,1108,1108,1108,1108,1108,1108,1108,1105,1105,1105,1105,1105,1105,1105,1105,1105,1105,1101,1101,1101,1101,1101,1101,1101,1101,1101,1101,1101,940,938,938,938,935,933,930,930,928,923,918,915,908,903,903,903,903,901,901,901,901,901,901,903,903,903,903,906,906,906,906,908,908,910,913,915,920,923,925,925,928,928,930,933,935,935,1090,1090,1090,1090,1087,1087,1087,1087,1087,1087,1087,1087,1090,1090,1090,1090,1090,1090,1090,1090,1090,1090,1090,1090,1090,1090,1090,1090,1090,1090,1090,1087,1087,1087,1087,1087,1084,1084,1084,1084,1084,1087,1090,1090,1090,1090,1090,1090,1090,1090,1090,1090,1090,1090,1090,1090,1090,1090,1090,1090,1090,1090,1087,1084,1084,1084,1084,1084,1087,1087,1087,1090,1087,1087,1084,1084,1080,1080,1080,1080,1080,1080,1080,1080,1080,1080,1080,1080,1080,1080,1080,1080,1080,1080,1080,1080,1080,1080,1080,1080,1080,1080,1080,1080,1080,1080,1080,1080,1077,1077,1077,1080,1080,1077,1077,1077,1077,1077,1077,1077,1077,1077,1077,1077,1077,1077,1077,1073,1073,1077,1077,1077,1073,1073,1070,1070,1070,1070,1070,1070,1070,1070,1067,1067,1067,1067,1067,1067,1067,1067,1067,1067,1067,1067,1073,1073,1070,1067,1067,1070,1070,1067,1067,1067,1067,1067,1063,1063,1063,1063,1063,1067,1067,1067,1067,1067,1070,1067,1067,1067,1067,1067,1063,1063,1063,1063,1063,1063,1063,1060,1060,1060,1060,1060,1060,1057,1057,1057,1057,1057,1057,1060,1060,1060,1063,1063,1063,1063,1063,1060,1060,1060,1060,1060,1060,1057,1057,1057,1057,1054,1054,1057,1057,1060,1057,1057,1057,1057,1054,1054,1054,1054,1054,1057,1057,1060,0,0,0,0,0,0,0,0,0,0,0,0,0,878,878,878,878,878,878,878,878,878,878,875,875,875,875,875,875,875,875,875,878,878,878,878,878,880,880,880,882,885,885,885,887,887,889,889,896,896,898,898,898,896,896,894,891,889,889,887,887,885,885,882,880,880,878,878,878,875,875,873,873,873,873,873,873,873,873,873,871,871,869,869,869,867,864,862,862,862,860,854,849,847,845,839,837,835,833,831,831,0,0,0,0,0,0,0,0,0,0,0,0,0,0,0,0,0,0,0,0,0,0,0,0,0,0,0,0,0,0,0,0,0,0,0,0,0,0
0,0,0,0,0,0,1173,1173,1169,1165,1165,1165,1165,1161,1161,1157,1157,1153,1153,1153,1149,1149,1149,1149,989,989,989,989,987,987,987,989,989,987,987,984,984,984,984,984,984,987,989,989,989,992,992,995,998,998,1001,1001,1004,1004,0,1130,1130,1130,1130,1130,1130,1130,1123,1123,1123,1123,1123,1123,1123,1123,1123,1119,1119,1119,1119,1119,1119,1119,1119,1119,1119,1119,1119,1119,1119,1119,1119,1119,1119,1119,1119,1119,1119,1119,1119,1119,1119,1119,1115,1115,1112,1112,0,0,0,0,0,0,0,0,0,0,708,708,708,707,706,700,696,694,693,691,691,690,690,691,693,694,694,696,697,698,698,700,701,703,704,706,706,707,708,710,710,711,713,713,714,714,0,0,0,0,0,0,1112,1112,1108,1108,1108,1108,1108,1108,1105,1105,1105,1105,1105,1105,1105,1105,1105,1105,1105,1105,1105,1105,1105,1105,1105,1108,1108,1108,1105,1105,1105,1105,1105,1105,1105,1105,1105,1105,1105,1105,1105,1105,1105,1105,1105,1101,1101,1101,1101,1101,1101,1101,1101,1101,1101,1097,1097,1097,1097,1097,1097,1097,1097,1097,1097,1094,1094,1101,938,935,933,930,930,930,923,918,915,903,901,901,901,898,898,898,898,898,898,898,898,901,903,903,903,903,903,906,908,908,910,913,915,920,920,925,925,928,928,930,933,933,935,1087,1087,1087,1087,1087,1087,1087,1087,1087,1087,1087,1087,1087,1087,1087,1087,1087,1087,1087,1087,1087,1090,1090,1090,1090,1090,1087,1087,1090,1090,1087,1087,1084,1084,1084,1084,1084,1080,1080,1080,1080,1080,1084,1087,1087,1087,1087,1087,1087,1090,1090,1090,1090,1090,1090,1090,1090,1090,1090,1090,1084,1084,1084,1080,1080,1080,1080,1080,1080,1084,1084,1084,1084,1084,1080,1080,1080,1080,1080,1080,1080,1080,1080,1080,1080,1080,1080,1080,1080,1080,1080,1080,1080,1077,1077,1077,1077,1077,1077,1077,1077,1080,1080,1080,1077,1077,1077,1077,1077,1077,1077,1077,1077,1077,1073,1073,1073,1073,1073,1073,1073,1077,1077,1077,1077,1073,1073,1073,1073,1073,1073,1073,1067,1067,1067,1067,1067,1067,1067,1067,1067,1067,1067,1067,1067,1063,1063,1067,1067,1067,1067,1067,1067,1067,1067,1067,1067,1067,1067,1067,1067,1067,1067,1063,1063,1063,1063,1063,1063,1063,1063,1063,1063,1063,1063,1067,1067,1063,1063,1063,1063,1063,1063,1063,1063,1060,1060,1060,1060,1057,1057,1057,1057,1057,1057,1057,1054,1054,1054,1054,1054,1054,1054,1054,1054,1057,1060,1063,1060,1060,1060,1060,1060,1057,1057,1054,1054,1054,1054,1054,1054,1054,1054,1054,1054,1054,1054,1054,1054,1054,1050,1050,1054,1054,1057,1060,0,0,0,0,0,0,0,0,0,0,0,0,0,875,875,878,878,878,878,878,875,875,875,875,875,875,875,875,875,875,875,875,875,875,875,878,878,878,880,880,882,882,885,885,887,887,889,891,896,896,898,898,896,896,894,894,891,889,887,887,887,885,885,882,882,882,880,878,878,878,875,875,875,875,875,875,873,873,873,873,871,871,869,869,869,864,862,862,862,860,856,851,849,847,841,839,837,835,833,831,831,0,0,0,0,0,0,0,0,0,0,0,0,0,0,0,0,0,0,0,0,0,0,0,0,0,0,0,0,0,0,0,0,0,0,0,0,0,0
0,0,0,0,0,0,0,0,0,0,0,0,0,0,0,0,0,0,0,0,0,0,0,0,0,0,0,0,0,0,0,0,0,0,0,0,0,0,0,0,0,0,0,0,0,0,0,0,0,0,0,0,0,0,0,0,0,0,0,0,0,0,0,0,0,0,0,0,0,0,0,0,0,0,0,0,0,0,0,0,0,0,0,0,0,0,0,0,0,0,0,0,0,0,0,0,0,0,1115,1115,1112,1112,0,0,0,0,0,0,0,0,0,0,708,708,708,707,707,704,704,696,694,691,691,691,691,691,693,694,696,697,697,698,700,700,701,703,704,706,706,707,708,710,710,711,713,714,714,714,0,0,0,0,0,0,1112,1112,1108,1108,1108,1108,1108,1108,1105,1105,1105,1105,1105,1105,1105,1105,1105,1105,1105,1105,1105,1105,1105,1105,1105,1105,1105,1105,1105,1105,1101,1101,1101,1101,1101,1101,1101,1101,1101,1101,1101,1101,1101,1105,1101,1101,1101,1101,1101,1097,1097,1097,1097,1097,1097,1094,1094,1094,1094,1094,1094,1094,1094,1094,1094,1094,1094,1101,938,935,933,930,930,930,923,923,0,898,898,896,896,896,896,896,896,896,896,896,896,898,898,901,903,903,903,906,908,908,910,913,915,920,920,923,925,928,928,930,933,933,1087,1087,1087,1087,1087,1087,1084,1084,1084,1084,1087,1087,1087,1084,1084,1087,1087,1087,1084,1084,1087,1087,1087,1087,1087,1087,1084,1084,1087,1087,1087,1084,1084,1080,1080,1080,1080,1080,1080,1080,1080,1080,1080,1080,1080,1080,1080,1084,1087,1087,1087,1087,1090,1090,1090,1090,1090,1090,1090,1090,1084,1080,1080,1080,1080,1080,1080,1080,1080,1080,1080,1080,1080,1080,1080,1080,1080,1077,1077,1077,1077,1077,1077,1077,1077,1077,1077,1080,1077,1077,1077,1077,1077,1077,1077,1077,1077,1077,1077,1077,1073,1073,1073,1073,1073,1073,1073,1073,1073,1073,1073,1073,1073,1073,1073,1070,1070,1070,1070,1070,1070,1070,1073,1077,1077,1073,1073,1073,1070,1070,1070,1067,1067,1067,1063,1063,1067,1063,1063,1063,1063,1063,1063,1063,1063,1063,1063,1063,1063,1063,1063,1063,1063,1063,1067,1067,1063,1063,1063,1063,1063,1063,1063,1063,1063,1063,1063,1060,1060,1060,1060,1060,1063,1063,1063,1063,1063,1063,1063,1063,1063,1060,1060,1060,1060,1060,1060,1057,1057,1057,1057,1057,1057,1057,1057,1057,1054,1054,1054,1054,1054,1054,1054,1054,1054,1054,1050,1050,1050,1050,1057,1057,1054,1054,1054,1054,1054,1054,1054,1054,1050,1050,1054,1054,1054,1054,1054,1054,1054,1050,1050,1050,1050,1050,1054,1057,0,0,0,0,0,0,0,0,0,0,0,0,0,878,875,875,878,878,878,878,875,875,875,875,875,873,873,873,873,873,875,875,875,875,875,875,875,878,878,880,880,882,882,885,885,887,887,889,891,896,896,898,898,896,896,894,891,889,889,887,887,887,885,885,882,882,882,880,880,880,878,878,878,875,875,875,875,875,875,875,871,871,871,869,869,867,864,862,860,858,856,856,849,847,845,841,839,837,835,833,831,831,0,0,0,0,0,0,0,0,0,0,0,0,0,0,0,0,0,0,0,0,0,0,0,0,0,0,0,0,0,0,0,0,0,0,0,0,0,0
0,0,0,0,0,0,0,0,0,0,0,0,0,0,0,0,0,0,0,0,0,0,0,0,0,0,0,0,0,0,0,0,0,0,0,0,0,0,0,0,0,0,0,0,0,0,0,0,0,0,0,0,0,0,0,0,0,0,0,0,0,0,0,0,0,0,0,0,0,0,0,0,0,0,0,0,0,0,0,0,0,0,0,0,0,0,0,0,0,0,0,0,0,0,0,0,0,0,0,0,0,0,0,0,0,0,0,0,0,0,0,0,0,0,0,0,0,0,0,0,0,0,0,0,0,0,0,0,0,0,0,0,0,0,0,0,0,0,0,0,0,0,0,0,0,0,0,0,0,0,0,0,0,0,0,0,0,0,0,0,0,0,0,0,0,0,0,0,0,0,0,0,0,0,0,0,0,0,1108,1105,1105,1105,1105,1105,1101,1101,1101,1101,1101,1101,1101,1101,1101,1101,1101,1101,1101,1105,1101,1101,1101,1101,1101,1097,1097,1097,1097,1097,1097,1094,1094,1094,1094,1094,1094,1094,1094,1094,1094,1094,1094,0,0,935,933,933,930,930,930,0,0,898,898,896,896,896,896,896,896,896,896,896,896,898,898,901,903,906,906,906,908,910,913,913,918,920,920,923,925,928,928,930,933,1084,1084,1084,1090,1090,1087,1087,1084,1084,1084,1084,1084,1084,1084,1084,1084,1084,1084,1084,1080,1080,1084,1084,1084,1080,1080,1084,1080,1080,1084,1084,1084,1080,1080,1080,1080,1080,1080,1080,1080,1080,1077,1077,1077,1080,1080,1080,1080,1080,1080,1080,1084,1084,1084,1084,1087,1087,1087,1084,1084,1084,1080,1080,1080,1080,1080,1080,1080,1080,1080,1080,1077,1077,1077,1077,1077,1077,1077,1077,1077,1077,1077,1077,1077,1077,1077,1077,1077,1077,1077,1077,1077,1077,1077,1077,1077,1077,1073,1073,1073,1073,1073,1073,1070,1070,1070,1070,1070,1070,1070,1070,1070,1070,1070,1070,1070,1070,1070,1067,1067,1067,1067,1067,1070,1073,1073,1073,1070,1070,1067,1067,1067,1067,1067,1067,1063,1063,1063,1063,1063,1063,1060,1060,1060,1060,1063,1063,1060,1060,1063,1063,1063,1063,1063,1063,1063,1063,1063,1063,1063,1063,1063,1063,1063,1063,1060,1057,1057,1060,1060,1060,1060,1060,1060,1063,1060,1060,1060,1060,1060,1060,1057,1057,1057,1057,1060,1057,1057,1054,1054,1054,1054,1054,1054,1054,1054,1054,1054,1054,1054,1050,1050,1054,1054,1054,1054,1054,1047,1047,1047,1047,1047,1050,1054,1054,1054,1054,1054,1054,1050,1050,1050,1050,1050,1050,1050,1050,1050,1050,1050,1050,1050,1050,1050,1050,1054,0,0,0,0,0,0,0,0,0,0,0,0,0,0,875,875,875,875,878,878,878,875,875,873,873,873,873,873,873,873,873,873,875,875,875,875,875,875,878,878,880,880,882,885,885,885,887,889,889,891,896,896,898,898,896,896,894,891,889,889,889,889,887,887,885,882,882,882,880,880,880,878,878,878,878,878,878,878,875,875,875,871,871,871,869,867,864,862,860,858,856,854,854,849,845,841,839,837,835,833,831,829,829,0,0,0,0,0,0,0,0,0,0,0,0,0,0,0,0,0,0,0,0,0,0,0,0,0,0,0,0,0,0,0,0,0,0,0,0,0,0
0,0,0,0,0,0,0,0,0,0,0,0,0,0,0,0,0,0,0,0,0,0,0,0,0,0,0,0,0,0,0,0,0,0,0,0,0,0,0,0,0,0,0,0,0,0,0,0,0,0,0,0,0,0,0,0,0,0,0,0,0,0,0,0,0,0,0,0,0,0,0,0,0,0,0,0,0,0,0,0,0,0,0,0,0,0,0,0,0,0,0,0,0,0,0,0,0,0,0,0,0,0,0,0,0,0,0,0,0,0,0,0,0,0,0,0,0,0,0,0,0,0,0,0,0,0,0,0,0,0,0,0,0,0,0,0,0,0,0,0,0,0,0,0,0,0,0,0,0,0,0,0,0,0,0,0,0,0,0,0,0,0,0,0,0,0,0,0,0,0,0,0,0,0,0,0,0,0,0,0,0,0,0,0,0,0,0,0,0,0,0,0,0,0,0,0,0,0,0,0,0,0,0,0,0,0,0,0,0,0,0,0,0,0,0,0,0,0,0,0,0,0,0,0,0,0,0,0,0,0,0,0,0,0,0,0,0,0,0,0,0,0,0,0,0,0,906,906,906,908,910,913,913,915,918,920,920,923,925,928,928,930,0,1084,1084,1084,1090,1090,1087,1087,1087,1087,1084,1084,1084,1084,1084,1084,1084,1084,1084,1084,1080,1080,1084,1084,1084,1080,1080,1084,1080,1080,1084,1084,1084,1080,1080,1080,1080,1080,1080,1080,1080,1080,1077,1077,1077,1080,1080,1080,1080,1080,1080,1080,1080,1080,1080,1080,1084,1080,1080,1080,1080,1080,1080,1077,1077,1077,1077,1077,1077,1077,1077,1077,1077,1077,1077,1077,1077,1077,1077,1077,1077,1073,1073,1073,1073,1073,1073,1077,1073,1073,1073,1073,1073,1073,1073,1073,1073,1073,1073,1070,1070,1070,1070,1070,1070,1067,1067,1067,1067,1067,1067,1067,1067,1067,1067,1067,1067,1067,1067,1067,1067,1067,1067,1067,1067,1070,1070,1070,1070,1070,1067,1067,1067,1063,1063,1063,1063,1063,1063,1063,1063,1063,1060,1060,1060,1060,1060,1060,1060,1060,1060,1060,1060,1060,1060,1063,1063,1060,1060,1060,1060,1060,1060,1060,1060,1060,1057,1057,1057,1057,1057,1057,1057,1057,1060,1060,1057,1057,1057,1057,1057,1054,1054,1054,1057,1057,1057,1054,1054,1054,1050,1050,1047,1047,1050,1050,1050,1050,1050,1050,1050,1050,1050,1050,1050,1050,1050,1047,1044,1044,1044,1044,1044,1044,1047,1050,1050,1050,1050,1050,1050,1050,1050,1050,1050,1050,1050,1047,1047,1047,1050,1047,1047,1050,1050,1050,1054,0,0,0,0,0,0,0,0,0,0,0,0,0,0,875,875,875,875,875,875,875,875,873,873,873,873,873,873,873,873,873,873,875,875,875,875,875,875,878,878,880,880,880,882,885,885,887,889,891,896,896,898,898,896,896,896,894,894,891,889,889,889,889,887,887,885,885,885,882,880,880,880,880,880,878,878,878,878,878,878,875,873,871,869,864,864,862,862,860,858,856,854,854,849,845,841,839,837,835,833,831,829,829,0,0,0,0,0,0,0,0,0,0,0,0,0,0,0,0,0,0,0,0,0,0,0,0,0,0,0,0,0,0,0,0,0,0,0,0,0,0
0,0,0,0,0,0,0,0,0,0,0,0,0,0,0,0,0,0,0,0,0,0,0,0,0,0,0,0,0,0,0,0,0,0,0,0,0,0,0,0,0,0,0,0,0,0,0,0,0,0,0,0,0,0,0,0,0,0,0,0,0,0,0,0,0,0,0,0,0,0,0,0,0,0,0,0,0,0,0,0,0,0,0,0,0,0,0,0,0,0,0,0,0,0,0,0,0,0,0,0,0,0,0,0,0,0,0,0,0,0,0,0,0,0,0,0,0,0,0,0,0,0,0,0,0,0,0,0,0,0,0,0,0,0,0,0,0,0,0,0,0,0,0,0,0,0,0,0,0,0,0,0,0,0,0,0,0,0,0,0,0,0,0,0,0,0,0,0,0,0,0,0,0,0,0,0,0,0,0,0,0,0,0,0,0,0,0,0,0,0,0,0,0,0,0,0,0,0,0,0,0,0,0,0,0,0,0,0,0,0,0,0,0,0,0,0,0,0,0,0,0,0,0,0,0,0,0,0,0,0,0,0,0,0,0,0,0,0,0,0,0,0,0,0,0,0,0,0,0,0,0,0,0,0,0,0,0,0,0,0,0,0,0,0,0,0,0,0,0,0,0,0,0,0,0,0,0,0,0,0,0,0,0,0,0,0,0,0,0,0,0,0,0,0,0,0,0,0,0,0,0,0,0,0,0,0,0,0,0,0,0,0,0,1080,1080,1080,1080,1080,1084,1080,1080,1080,1080,1080,1080,1077,1077,1077,1077,1077,1077,1077,1077,1077,1077,1077,1077,1077,1077,1077,1077,1077,1077,1073,1073,1073,1073,1073,1073,1077,1073,1073,1073,1073,1073,1073,1073,1073,1073,1073,1073,1070,1070,1070,1070,1070,1070,1067,1067,1067,1067,1067,1067,1063,1063,1067,1067,1067,1067,1067,1067,1067,1067,1063,1063,1063,1067,1067,1067,1067,1067,1067,1067,1063,1063,1063,1063,1063,1063,1063,1063,1063,1063,1063,1063,1063,1063,1060,1060,1060,1057,1057,1057,1060,1060,1060,1060,1060,1060,1057,1057,1057,1060,1060,1057,1057,1057,1057,1057,1054,1054,1054,1054,1054,1054,1054,1057,1057,1057,1054,1054,1054,1054,1054,1054,1050,1050,1050,1050,1050,1054,1050,1047,1047,1044,1044,1047,1047,1047,1050,1050,1050,1050,1050,1050,1050,1050,1050,1047,1044,1044,1041,1041,1044,1044,1044,1044,1044,1044,1050,1047,1047,1050,1047,1047,1047,1047,1044,1044,1044,1044,1044,1047,1047,1047,1047,1050,1050,1054,0,0,0,0,0,0,0,0,0,0,0,0,0,0,875,875,875,875,875,875,875,875,873,873,873,873,873,873,873,873,873,873,873,873,875,875,875,875,875,878,880,880,880,882,885,887,887,889,891,894,896,898,898,896,896,896,894,894,891,891,889,889,889,889,887,887,887,885,882,880,880,880,880,880,878,878,878,878,878,875,873,871,869,867,864,862,862,860,860,858,856,854,854,849,845,839,837,835,831,831,829,827,827,0,0,0,0,0,0,0,0,0,0,0,0,0,0,0,0,0,0,0,0,0,0,0,0,0,0,0,0,0,0,0,0,0,0,0,0,0,0
0,0,0,0,0,0,0,0,0,0,0,0,0,0,0,0,0,0,0,0,0,0,0,0,0,0,0,0,0,0,0,0,0,0,0,0,0,0,0,0,0,0,0,0,0,0,0,0,0,0,0,0,0,0,0,0,0,0,0,0,0,0,0,0,0,0,0,0,0,0,0,0,0,0,0,0,0,0,0,0,0,0,0,0,0,0,0,0,0,0,0,0,0,0,0,0,0,0,0,0,0,0,0,0,0,0,0,0,0,0,0,0,0,0,0,0,0,0,0,0,0,0,0,0,0,0,0,0,0,0,0,0,0,0,0,0,0,0,0,0,0,0,0,0,0,0,0,0,0,0,0,0,0,0,0,0,0,0,0,0,0,0,0,0,0,0,0,0,0,0,0,0,0,0,0,0,0,0,0,0,0,0,0,0,0,0,0,0,0,0,0,0,0,0,0,0,0,0,0,0,0,0,0,0,0,0,0,0,0,0,0,0,0,0,0,0,0,0,0,0,0,0,0,0,0,0,0,0,0,0,0,0,0,0,0,0,0,0,0,0,0,0,0,0,0,0,0,0,0,0,0,0,0,0,0,0,0,0,0,0,0,0,0,0,0,0,0,0,0,0,0,0,0,0,0,0,0,0,0,0,0,0,0,0,0,0,0,0,0,0,0,0,0,0,0,0,0,0,0,0,0,0,0,0,0,0,0,0,0,0,0,0,0,0,0,0,0,0,0,0,0,0,0,0,0,0,0,0,0,0,0,0,0,0,0,0,0,0,0,0,0,0,0,0,0,0,0,0,0,0,0,0,0,0,0,0,0,0,0,0,0,0,0,0,0,0,0,0,0,0,0,0,0,1063,1063,1067,1067,1067,1067,1067,1067,1067,1067,1063,1063,1063,1067,1067,1067,1067,1067,1067,1067,1063,1063,1063,1063,1063,1063,1063,1063,1063,1063,1063,1063,1063,1063,1060,1060,1060,1057,1057,1057,1060,1060,1060,1060,1060,1060,1057,1057,1057,1060,1060,1057,1057,1057,1057,1057,1054,1054,1054,1054,1054,1050,1050,1054,1054,1054,1054,1050,1047,1047,1050,1050,1050,1050,1050,1050,1050,1050,1047,1047,1044,1044,1044,1044,1044,1044,1044,1044,1047,1047,1047,1047,1044,1044,1044,1044,1044,1044,1041,1041,1041,1041,1041,1044,1041,1041,1041,1041,1044,1047,1047,1044,1044,1044,1044,1044,1041,1041,1041,1047,1047,1047,1047,1047,1050,0,0,0,0,0,0,0,0,0,0,0,0,0,0,0,873,873,875,875,875,875,875,873,873,871,871,871,871,873,873,873,873,873,873,873,873,873,873,875,875,878,880,880,880,882,885,887,889,889,894,894,896,898,898,896,896,896,894,894,891,891,891,891,891,891,889,889,887,885,882,880,880,880,880,880,878,878,878,875,875,875,871,869,864,862,862,862,860,860,858,856,854,851,851,847,843,839,833,833,831,829,827,827,827,0,0,0,0,0,0,0,0,0,0,0,0,0,0,0,0,0,0,0,0,0,0,0,0,0,0,0,0,0,0,0,0,0,0,0,0,0,0
0,0,0,0,0,0,0,0,0,0,0,0,0,0,0,0,0,0,0,0,0,0,0,0,0,0,0,0,0,0,0,0,0,0,0,0,0,0,0,0,0,0,0,0,0,0,0,0,0,0,0,0,0,0,0,0,0,0,0,0,0,0,0,0,0,0,0,0,0,0,0,0,0,0,0,0,0,0,0,0,0,0,0,0,0,0,0,0,0,0,0,0,0,0,0,0,0,0,0,0,0,0,0,0,0,0,0,0,0,0,0,0,0,0,0,0,0,0,0,0,0,0,0,0,0,0,0,0,0,0,0,0,0,0,0,0,0,0,0,0,0,0,0,0,0,0,0,0,0,0,0,0,0,0,0,0,0,0,0,0,0,0,0,0,0,0,0,0,0,0,0,0,0,0,0,0,0,0,0,0,0,0,0,0,0,0,0,0,0,0,0,0,0,0,0,0,0,0,0,0,0,0,0,0,0,0,0,0,0,0,0,0,0,0,0,0,0,0,0,0,0,0,0,0,0,0,0,0,0,0,0,0,0,0,0,0,0,0,0,0,0,0,0,0,0,0,0,0,0,0,0,0,0,0,0,0,0,0,0,0,0,0,0,0,0,0,0,0,0,0,0,0,0,0,0,0,0,0,0,0,0,0,0,0,0,0,0,0,0,0,0,0,0,0,0,0,0,0,0,0,0,0,0,0,0,0,0,0,0,0,0,0,0,0,0,0,0,0,0,0,0,0,0,0,0,0,0,0,0,0,0,0,0,0,0,0,0,0,0,0,0,0,0,0,0,0,0,0,0,0,0,0,0,0,0,0,0,0,0,0,0,0,0,0,0,0,0,0,0,0,0,0,0,0,0,0,0,0,0,0,0,0,0,0,0,0,0,0,0,0,0,0,0,0,0,0,0,0,0,0,0,0,0,0,0,0,0,0,0,0,0,0,0,0,0,0,0,0,0,0,0,0,0,0,0,0,0,0,0,1054,1054,1054,1054,1054,1050,1050,1054,1054,1054,1054,1050,1047,1047,1050,1050,1050,1050,1050,1054,1050,1050,1047,1047,1044,1044,1044,1044,1044,1044,1044,1044,1047,1047,1047,1047,1044,1044,1044,1044,1044,1044,1041,1041,1041,1041,1041,1044,1041,1041,1041,1041,1041,1041,1044,1041,1041,1041,1041,1041,1041,1041,1041,1047,1044,1044,1047,1047,0,0,0,0,0,0,0,0,0,0,0,0,0,0,0,0,873,873,873,873,875,875,875,873,873,871,871,871,871,873,873,873,873,873,873,873,873,873,873,873,875,878,878,880,880,882,885,887,889,891,896,896,898,898,898,898,896,896,896,894,894,894,894,894,894,894,891,889,887,885,885,882,880,880,880,878,878,878,875,875,875,873,869,869,864,862,860,860,860,858,856,854,851,849,849,841,841,843,833,831,829,829,827,825,825,0,0,0,0,0,0,0,0,0,0,0,0,0,0,0,0,0,0,0,0,0,0,0,0,0,0,0,0,0,0,0,0,0,0,0,0,0,0
0,0,0,0,0,0,0,0,0,0,0,0,0,0,0,0,0,0,0,0,0,0,0,0,0,0,0,0,0,0,0,0,0,0,0,0,0,0,0,0,0,0,0,0,0,0,0,0,0,0,0,0,0,0,0,0,0,0,0,0,0,0,0,0,0,0,0,0,0,0,0,0,0,0,0,0,0,0,0,0,0,0,0,0,0,0,0,0,0,0,0,0,0,0,0,0,0,0,0,0,0,0,0,0,0,0,0,0,0,0,0,0,0,0,0,0,0,0,0,0,0,0,0,0,0,0,0,0,0,0,0,0,0,0,0,0,0,0,0,0,0,0,0,0,0,0,0,0,0,0,0,0,0,0,0,0,0,0,0,0,0,0,0,0,0,0,0,0,0,0,0,0,0,0,0,0,0,0,0,0,0,0,0,0,0,0,0,0,0,0,0,0,0,0,0,0,0,0,0,0,0,0,0,0,0,0,0,0,0,0,0,0,0,0,0,0,0,0,0,0,0,0,0,0,0,0,0,0,0,0,0,0,0,0,0,0,0,0,0,0,0,0,0,0,0,0,0,0,0,0,0,0,0,0,0,0,0,0,0,0,0,0,0,0,0,0,0,0,0,0,0,0,0,0,0,0,0,0,0,0,0,0,0,0,0,0,0,0,0,0,0,0,0,0,0,0,0,0,0,0,0,0,0,0,0,0,0,0,0,0,0,0,0,0,0,0,0,0,0,0,0,0,0,0,0,0,0,0,0,0,0,0,0,0,0,0,0,0,0,0,0,0,0,0,0,0,0,0,0,0,0,0,0,0,0,0,0,0,0,0,0,0,0,0,0,0,0,0,0,0,0,0,0,0,0,0,0,0,0,0,0,0,0,0,0,0,0,0,0,0,0,0,0,0,0,0,0,0,0,0,0,0,0,0,0,0,0,0,0,0,0,0,0,0,0,0,0,0,0,0,0,0,0,0,0,0,0,0,0,0,0,0,0,0,0,0,0,0,0,0,0,0,0,0,0,0,0,0,0,0,0,0,0,0,0,0,0,0,0,0,0,0,0,0,0,0,0,0,0,0,0,0,0,0,0,0,0,0,0,0,1041,1041,1041,1044,1041,1041,1041,1041,1041,1041,1041,1041,1047,1044,1044,1047,0,0,0,0,0,0,0,0,0,0,0,0,0,0,0,0,0,873,873,873,873,875,875,875,873,873,873,873,871,871,873,873,873,873,873,873,873,873,873,873,873,875,878,878,880,880,882,885,887,889,891,896,896,898,898,898,898,896,896,896,896,896,896,894,894,894,894,891,889,887,885,885,882,880,880,878,878,878,875,875,875,873,864,864,867,862,860,858,858,858,856,854,854,851,849,847,841,841,837,831,829,827,827,825,825,825,0,0,0,0,0,0,0,0,0,0,0,0,0,0,0,0,0,0,0,0,0,0,0,0,0,0,0,0,0,0,0,0,0,0,0,0,0,0
0,0,0,0,0,0,0,0,0,0,0,0,0,0,0,0,0,0,0,0,0,0,0,0,0,0,0,0,0,0,0,0,0,0,0,0,0,0,0,0,0,0,0,0,0,0,0,0,0,0,0,0,0,0,0,0,0,0,0,0,0,0,0,0,0,0,0,0,0,0,0,0,0,0,0,0,0,0,0,0,0,0,0,0,0,0,0,0,0,0,0,0,0,0,0,0,0,0,0,0,0,0,0,0,0,0,0,0,0,0,0,0,0,0,0,0,0,0,0,0,0,0,0,0,0,0,0,0,0,0,0,0,0,0,0,0,0,0,0,0,0,0,0,0,0,0,0,0,0,0,0,0,0,0,0,0,0,0,0,0,0,0,0,0,0,0,0,0,0,0,0,0,0,0,0,0,0,0,0,0,0,0,0,0,0,0,0,0,0,0,0,0,0,0,0,0,0,0,0,0,0,0,0,0,0,0,0,0,0,0,0,0,0,0,0,0,0,0,0,0,0,0,0,0,0,0,0,0,0,0,0,0,0,0,0,0,0,0,0,0,0,0,0,0,0,0,0,0,0,0,0,0,0,0,0,0,0,0,0,0,0,0,0,0,0,0,0,0,0,0,0,0,0,0,0,0,0,0,0,0,0,0,0,0,0,0,0,0,0,0,0,0,0,0,0,0,0,0,0,0,0,0,0,0,0,0,0,0,0,0,0,0,0,0,0,0,0,0,0,0,0,0,0,0,0,0,0,0,0,0,0,0,0,0,0,0,0,0,0,0,0,0,0,0,0,0,0,0,0,0,0,0,0,0,0,0,0,0,0,0,0,0,0,0,0,0,0,0,0,0,0,0,0,0,0,0,0,0,0,0,0,0,0,0,0,0,0,0,0,0,0,0,0,0,0,0,0,0,0,0,0,0,0,0,0,0,0,0,0,0,0,0,0,0,0,0,0,0,0,0,0,0,0,0,0,0,0,0,0,0,0,0,0,0,0,0,0,0,0,0,0,0,0,0,0,0,0,0,0,0,0,0,0,0,0,0,0,0,0,0,0,0,0,0,0,0,0,0,0,0,0,0,0,0,0,0,0,0,0,0,0,0,0,0,0,0,0,0,0,0,0,0,0,0,0,0,0,0,0,0,0,0,0,0,0,0,0,0,0,0,0,0,0,0,0,0,0,0,0,0,0,0,0,0,0,0,0,873,873,873,873,873,873,873,873,873,873,875,878,878,880,880,882,885,887,889,891,896,896,898,898,898,898,898,898,896,896,896,896,896,896,894,894,894,891,887,885,885,882,880,880,878,878,878,875,873,873,871,864,862,862,862,860,858,856,856,854,854,851,851,849,841,841,833,831,829,829,827,827,823,823,823,0,0,0,0,0,0,0,0,0,0,0,0,0,0,0,0,0,0,0,0,0,0,0,0,0,0,0,0,0,0,0,0,0,0,0,0,0,0
0,0,0,0,0,0,0,0,0,0,0,0,0,0,0,0,0,0,0,0,0,0,0,0,0,0,0,0,0,0,0,0,0,0,0,0,0,0,0,0,0,0,0,0,0,0,0,0,0,0,0,0,0,0,0,0,0,0,0,0,0,0,0,0,0,0,0,0,0,0,0,0,0,0,0,0,0,0,0,0,0,0,0,0,0,0,0,0,0,0,0,0,0,0,0,0,0,0,0,0,0,0,0,0,0,0,0,0,0,0,0,0,0,0,0,0,0,0,0,0,0,0,0,0,0,0,0,0,0,0,0,0,0,0,0,0,0,0,0,0,0,0,0,0,0,0,0,0,0,0,0,0,0,0,0,0,0,0,0,0,0,0,0,0,0,0,0,0,0,0,0,0,0,0,0,0,0,0,0,0,0,0,0,0,0,0,0,0,0,0,0,0,0,0,0,0,0,0,0,0,0,0,0,0,0,0,0,0,0,0,0,0,0,0,0,0,0,0,0,0,0,0,0,0,0,0,0,0,0,0,0,0,0,0,0,0,0,0,0,0,0,0,0,0,0,0,0,0,0,0,0,0,0,0,0,0,0,0,0,0,0,0,0,0,0,0,0,0,0,0,0,0,0,0,0,0,0,0,0,0,0,0,0,0,0,0,0,0,0,0,0,0,0,0,0,0,0,0,0,0,0,0,0,0,0,0,0,0,0,0,0,0,0,0,0,0,0,0,0,0,0,0,0,0,0,0,0,0,0,0,0,0,0,0,0,0,0,0,0,0,0,0,0,0,0,0,0,0,0,0,0,0,0,0,0,0,0,0,0,0,0,0,0,0,0,0,0,0,0,0,0,0,0,0,0,0,0,0,0,0,0,0,0,0,0,0,0,0,0,0,0,0,0,0,0,0,0,0,0,0,0,0,0,0,0,0,0,0,0,0,0,0,0,0,0,0,0,0,0,0,0,0,0,0,0,0,0,0,0,0,0,0,0,0,0,0,0,0,0,0,0,0,0,0,0,0,0,0,0,0,0,0,0,0,0,0,0,0,0,0,0,0,0,0,0,0,0,0,0,0,0,0,0,0,0,0,0,0,0,0,0,0,0,0,0,0,0,0,0,0,0,0,0,0,0,0,0,0,0,0,0,0,0,0,0,0,0,0,0,0,0,0,0,0,0,0,0,0,0,0,0,0,0,0,0,0,0,0,0,0,0,0,0,0,0,0,0,0,0,0,0,0,0,0,0,0,0,0,0,0,0,0,0,0,0,0,0,0,0,0,0,0,0,0,0,0,0,0,0,0,0,0,0,0,0,873,873,871,864,862,862,862,860,858,856,856,854,854,851,851,849,841,841,833,831,829,829,827,827,823,823,823,0,0,0,0,0,0,0,0,0,0,0,0,0,0,0,0,0,0,0,0,0,0,0,0,0,0,0,0,0,0,0,0,0,0,0,0,0,0
0,0,0,0,0,0,0,0,0,0,0,0,0,0,0,0,0,0,0,0,0,0,0,0,0,0,0,0,0,0,0,0,0,0,0,0,0,0,0,0,0,0,0,0,0,0,0,0,0,0,0,0,0,0,0,0,0,0,0,0,0,0,0,0,0,0,0,0,0,0,0,0,0,0,0,0,0,0,0,0,0,0,0,0,0,0,0,0,0,0,0,0,0,0,0,0,0,0,0,0,0,0,0,0,0,0,0,0,0,0,0,0,0,0,0,0,0,0,0,0,0,0,0,0,0,0,0,0,0,0,0,0,0,0,0,0,0,0,0,0,0,0,0,0,0,0,0,0,0,0,0,0,0,0,0,0,0,0,0,0,0,0,0,0,0,0,0,0,0,0,0,0,0,0,0,0,0,0,0,0,0,0,0,0,0,0,0,0,0,0,0,0,0,0,0,0,0,0,0,0,0,0,0,0,0,0,0,0,0,0,0,0,0,0,0,0,0,0,0,0,0,0,0,0,0,0,0,0,0,0,0,0,0,0,0,0,0,0,0,0,0,0,0,0,0,0,0,0,0,0,0,0,0,0,0,0,0,0,0,0,0,0,0,0,0,0,0,0,0,0,0,0,0,0,0,0,0,0,0,0,0,0,0,0,0,0,0,0,0,0,0,0,0,0,0,0,0,0,0,0,0,0,0,0,0,0,0,0,0,0,0,0,0,0,0,0,0,0,0,0,0,0,0,0,0,0,0,0,0,0,0,0,0,0,0,0,0,0,0,0,0,0,0,0,0,0,0,0,0,0,0,0,0,0,0,0,0,0,0,0,0,0,0,0,0,0,0,0,0,0,0,0,0,0,0,0,0,0,0,0,0,0,0,0,0,0,0,0,0,0,0,0,0,0,0,0,0,0,0,0,0,0,0,0,0,0,0,0,0,0,0,0,0,0,0,0,0,0,0,0,0,0,0,0,0,0,0,0,0,0,0,0,0,0,0,0,0,0,0,0,0,0,0,0,0,0,0,0,0,0,0,0,0,0,0,0,0,0,0,0,0,0,0,0,0,0,0,0,0,0,0,0,0,0,0,0,0,0,0,0,0,0,0,0,0,0,0,0,0,0,0,0,0,0,0,0,0,0,0,0,0,0,0,0,0,0,0,0,0,0,0,0,0,0,0,0,0,0,0,0,0,0,0,0,0,0,0,0,0,0,0,0,0,0,0,0,0,0,0,0,0,0,0,0,0,0,0,0,0,0,0,0,0,0,0,0,0,0,0,0,0,0,0,0,0,0,0,0,0,0,0,0,0,0,0,0,0,0,0,0,0,0,0,0,0,0,0,0,0,0,0,0,0,0,0,0,0,0,0,0,0,0,0,0,0,0,0,0,0,0,0,0,0,0,0,0,0,0,0,0,0,0,0,0,0,0,0,0,0,0,0,0,0,0,0,0,0,0,0,0
0,0,0,0,0,0,0,0,0,0,0,0,0,0,0,0,0,0,0,0,0,0,0,0,0,0,0,0,0,0,0,0,0,0,0,0,0,0,0,0,0,0,0,0,0,0,0,0,0,0,0,0,0,0,0,0,0,0,0,0,0,0,0,0,0,0,0,0,0,0,0,0,0,0,0,0,0,0,0,0,0,0,0,0,0,0,0,0,0,0,0,0,0,0,0,0,0,0,0,0,0,0,0,0,0,0,0,0,0,0,0,0,0,0,0,0,0,0,0,0,0,0,0,0,0,0,0,0,0,0,0,0,0,0,0,0,0,0,0,0,0,0,0,0,0,0,0,0,0,0,0,0,0,0,0,0,0,0,0,0,0,0,0,0,0,0,0,0,0,0,0,0,0,0,0,0,0,0,0,0,0,0,0,0,0,0,0,0,0,0,0,0,0,0,0,0,0,0,0,0,0,0,0,0,0,0,0,0,0,0,0,0,0,0,0,0,0,0,0,0,0,0,0,0,0,0,0,0,0,0,0,0,0,0,0,0,0,0,0,0,0,0,0,0,0,0,0,0,0,0,0,0,0,0,0,0,0,0,0,0,0,0,0,0,0,0,0,0,0,0,0,0,0,0,0,0,0,0,0,0,0,0,0,0,0,0,0,0,0,0,0,0,0,0,0,0,0,0,0,0,0,0,0,0,0,0,0,0,0,0,0,0,0,0,0,0,0,0,0,0,0,0,0,0,0,0,0,0,0,0,0,0,0,0,0,0,0,0,0,0,0,0,0,0,0,0,0,0,0,0,0,0,0,0,0,0,0,0,0,0,0,0,0,0,0,0,0,0,0,0,0,0,0,0,0,0,0,0,0,0,0,0,0,0,0,0,0,0,0,0,0,0,0,0,0,0,0,0,0,0,0,0,0,0,0,0,0,0,0,0,0,0,0,0,0,0,0,0,0,0,0,0,0,0,0,0,0,0,0,0,0,0,0,0,0,0,0,0,0,0,0,0,0,0,0,0,0,0,0,0,0,0,0,0,0,0,0,0,0,0,0,0,0,0,0,0,0,0,0,0,0,0,0,0,0,0,0,0,0,0,0,0,0,0,0,0,0,0,0,0,0,0,0,0,0,0,0,0,0,0,0,0,0,0,0,0,0,0,0,0,0,0,0,0,0,0,0,0,0,0,0,0,0,0,0,0,0,0,0,0,0,0,0,0,0,0,0,0,0,0,0,0,0,0,0,0,0,0,0,0,0,0,0,0,0,0,0,0,0,0,0,0,0,0,0,0,0,0,0,0,0,0,0,0,0,0,0,0,0,0,0,0,0,0,0,0,0,0,0,0,0,0,0,0,0,0,0,0,0,0,0,0,0,0,0,0,0,0,0,0,0,0,0,0,0,0,0,0,0,0,0,0,0,0,0,0,0,0,0,0,0,0,0,0,0,0,0,0,0,0
0,0,0,0,0,0,0,0,0,0,0,0,0,0,0,0,0,0,0,0,0,0,0,0,0,0,0,0,0,0,0,0,0,0,0,0,0,0,0,0,0,0,0,0,0,0,0,0,0,0,0,0,0,0,0,0,0,0,0,0,0,0,0,0,0,0,0,0,0,0,0,0,0,0,0,0,0,0,0,0,0,0,0,0,0,0,0,0,0,0,0,0,0,0,0,0,0,0,0,0,0,0,0,0,0,0,0,0,0,0,0,0,0,0,0,0,0,0,0,0,0,0,0,0,0,0,0,0,0,0,0,0,0,0,0,0,0,0,0,0,0,0,0,0,0,0,0,0,0,0,0,0,0,0,0,0,0,0,0,0,0,0,0,0,0,0,0,0,0,0,0,0,0,0,0,0,0,0,0,0,0,0,0,0,0,0,0,0,0,0,0,0,0,0,0,0,0,0,0,0,0,0,0,0,0,0,0,0,0,0,0,0,0,0,0,0,0,0,0,0,0,0,0,0,0,0,0,0,0,0,0,0,0,0,0,0,0,0,0,0,0,0,0,0,0,0,0,0,0,0,0,0,0,0,0,0,0,0,0,0,0,0,0,0,0,0,0,0,0,0,0,0,0,0,0,0,0,0,0,0,0,0,0,0,0,0,0,0,0,0,0,0,0,0,0,0,0,0,0,0,0,0,0,0,0,0,0,0,0,0,0,0,0,0,0,0,0,0,0,0,0,0,0,0,0,0,0,0,0,0,0,0,0,0,0,0,0,0,0,0,0,0,0,0,0,0,0,0,0,0,0,0,0,0,0,0,0,0,0,0,0,0,0,0,0,0,0,0,0,0,0,0,0,0,0,0,0,0,0,0,0,0,0,0,0,0,0,0,0,0,0,0,0,0,0,0,0,0,0,0,0,0,0,0,0,0,0,0,0,0,0,0,0,0,0,0,0,0,0,0,0,0,0,0,0,0,0,0,0,0,0,0,0,0,0,0,0,0,0,0,0,0,0,0,0,0,0,0,0,0,0,0,0,0,0,0,0,0,0,0,0,0,0,0,0,0,0,0,0,0,0,0,0,0,0,0,0,0,0,0,0,0,0,0,0,0,0,0,0,0,0,0,0,0,0,0,0,0,0,0,0,0,0,0,0,0,0,0,0,0,0,0,0,0,0,0,0,0,0,0,0,0,0,0,0,0,0,0,0,0,0,0,0,0,0,0,0,0,0,0,0,0,0,0,0,0,0,0,0,0,0,0,0,0,0,0,0,0,0,0,0,0,0,0,0,0,0,0,0,0,0,0,0,0,0,0,0,0,0,0,0,0,0,0,0,0,0,0,0,0,0,0,0,0,0,0,0,0,0,0,0,0,0,0,0,0,0,0,0,0,0,0,0,0,0,0,0,0,0,0,0,0,0,0,0,0,0,0,0,0,0,0,0,0,0,0,0,0,0,0
0,0,0,0,0,0,0,0,0,0,0,0,0,0,0,0,0,0,0,0,0,0,0,0,0,0,0,0,0,0,0,0,0,0,0,0,0,0,0,0,0,0,0,0,0,0,0,0,0,0,0,0,0,0,0,0,0,0,0,0,0,0,0,0,0,0,0,0,0,0,0,0,0,0,0,0,0,0,0,0,0,0,0,0,0,0,0,0,0,0,0,0,0,0,0,0,0,0,0,0,0,0,0,0,0,0,0,0,0,0,0,0,0,0,0,0,0,0,0,0,0,0,0,0,0,0,0,0,0,0,0,0,0,0,0,0,0,0,0,0,0,0,0,0,0,0,0,0,0,0,0,0,0,0,0,0,0,0,0,0,0,0,0,0,0,0,0,0,0,0,0,0,0,0,0,0,0,0,0,0,0,0,0,0,0,0,0,0,0,0,0,0,0,0,0,0,0,0,0,0,0,0,0,0,0,0,0,0,0,0,0,0,0,0,0,0,0,0,0,0,0,0,0,0,0,0,0,0,0,0,0,0,0,0,0,0,0,0,0,0,0,0,0,0,0,0,0,0,0,0,0,0,0,0,0,0,0,0,0,0,0,0,0,0,0,0,0,0,0,0,0,0,0,0,0,0,0,0,0,0,0,0,0,0,0,0,0,0,0,0,0,0,0,0,0,0,0,0,0,0,0,0,0,0,0,0,0,0,0,0,0,0,0,0,0,0,0,0,0,0,0,0,0,0,0,0,0,0,0,0,0,0,0,0,0,0,0,0,0,0,0,0,0,0,0,0,0,0,0,0,0,0,0,0,0,0,0,0,0,0,0,0,0,0,0,0,0,0,0,0,0,0,0,0,0,0,0,0,0,0,0,0,0,0,0,0,0,0,0,0,0,0,0,0,0,0,0,0,0,0,0,0,0,0,0,0,0,0,0,0,0,0,0,0,0,0,0,0,0,0,0,0,0,0,0,0,0,0,0,0,0,0,0,0,0,0,0,0,0,0,0,0,0,0,0,0,0,0,0,0,0,0,0,0,0,0,0,0,0,0,0,0,0,0,0,0,0,0,0,0,0,0,0,0,0,0,0,0,0,0,0,0,0,0,0,0,0,0,0,0,0,0,0,0,0,0,0,0,0,0,0,0,0,0,0,0,0,0,0,0,0,0,0,0,0,0,0,0,0,0,0,0,0,0,0,0,0,0,0,0,0,0,0,0,0,0,0,0,0,0,0,0,0,0,0,0,0,0,0,0,0,0,0,0,0,0,0,0,0,0,0,0,0,0,0,0,0,0,0,0,0,0,0,0,0,0,0,0,0,0,0,0,0,0,0,0,0,0,0,0,0,0,0,0,0,0,0,0,0,0,0,0,0,0,0,0,0,0,0,0,0,0,0,0,0,0,0,0,0,0,0,0,0,0,0,0,0,0,0,0,0,0,0,0,0,0,0,0,0,0
0,0,0,0,0,0,0,0,0,0,0,0,0,0,0,0,0,0,0,0,0,0,0,0,0,0,0,0,0,0,0,0,0,0,0,0,0,0,0,0,0,0,0,0,0,0,0,0,0,0,0,0,0,0,0,0,0,0,0,0,0,0,0,0,0,0,0,0,0,0,0,0,0,0,0,0,0,0,0,0,0,0,0,0,0,0,0,0,0,0,0,0,0,0,0,0,0,0,0,0,0,0,0,0,0,0,0,0,0,0,0,0,0,0,0,0,0,0,0,0,0,0,0,0,0,0,0,0,0,0,0,0,0,0,0,0,0,0,0,0,0,0,0,0,0,0,0,0,0,0,0,0,0,0,0,0,0,0,0,0,0,0,0,0,0,0,0,0,0,0,0,0,0,0,0,0,0,0,0,0,0,0,0,0,0,0,0,0,0,0,0,0,0,0,0,0,0,0,0,0,0,0,0,0,0,0,0,0,0,0,0,0,0,0,0,0,0,0,0,0,0,0,0,0,0,0,0,0,0,0,0,0,0,0,0,0,0,0,0,0,0,0,0,0,0,0,0,0,0,0,0,0,0,0,0,0,0,0,0,0,0,0,0,0,0,0,0,0,0,0,0,0,0,0,0,0,0,0,0,0,0,0,0,0,0,0,0,0,0,0,0,0,0,0,0,0,0,0,0,0,0,0,0,0,0,0,0,0,0,0,0,0,0,0,0,0,0,0,0,0,0,0,0,0,0,0,0,0,0,0,0,0,0,0,0,0,0,0,0,0,0,0,0,0,0,0,0,0,0,0,0,0,0,0,0,0,0,0,0,0,0,0,0,0,0,0,0,0,0,0,0,0,0,0,0,0,0,0,0,0,0,0,0,0,0,0,0,0,0,0,0,0,0,0,0,0,0,0,0,0,0,0,0,0,0,0,0,0,0,0,0,0,0,0,0,0,0,0,0,0,0,0,0,0,0,0,0,0,0,0,0,0,0,0,0,0,0,0,0,0,0,0,0,0,0,0,0,0,0,0,0,0,0,0,0,0,0,0,0,0,0,0,0,0,0,0,0,0,0,0,0,0,0,0,0,0,0,0,0,0,0,0,0,0,0,0,0,0,0,0,0,0,0,0,0,0,0,0,0,0,0,0,0,0,0,0,0,0,0,0,0,0,0,0,0,0,0,0,0,0,0,0,0,0,0,0,0,0,0,0,0,0,0,0,0,0,0,0,0,0,0,0,0,0,0,0,0,0,0,0,0,0,0,0,0,0,0,0,0,0,0,0,0,0,0,0,0,0,0,0,0,0,0,0,0,0,0,0,0,0,0,0,0,0,0,0,0,0,0,0,0,0,0,0,0,0,0,0,0,0,0,0,0,0,0,0,0,0,0,0,0,0,0,0,0,0,0,0,0,0,0,0,0,0,0,0,0,0,0,0,0,0,0,0,0,0,0,0,0,0
