0,0,0,0,0,0,0,0,0,0,0,0,0,0,0,0,1823,1823,1813,1813,1794,1785,1785,1776,1776,1766,1766,1766,1766,1766,1757,1757,1757,1757,1757,1757,1739,1739,1739,1739,1739,1731,1731,1731,1722,1722,1722,1722,1722,1713,1713,1696,1696,1696,1696,1688,1688,1688,1688,1680,1680,1671,1671,1671,1671,1671,1663,1663,1663,1663,1663,1663,1655,1655,1655,1655,1655,1655,1655,1655,1647,1647,1647,1647,1647,1639,1639,1632,1632,1632,1632,1632,1632,1632,1632,1624,1624,1624,1624,1624,1624,1616,1616,1616,1616,1616,1609,1609,1609,1609,1609,1609,1609,1609,1609,1601,1601,1601,1601,1594,1594,1594,1594,1594,1594,1594,1594,1594,1594,1594,1594,1594,1594,1594,1594,1594,1601,1601,1601,1609,1624,1632,1639,1639,2317,2317,2317,2317,2317,2317,2301,2301,2301,2286,2286,2286,2286,2286,1572,1572,1572,1572,1579,1572,1572,1572,1572,1572,1572,1572,1572,1579,1579,1579,1586,1594,1594,1594,1594,1594,1594,1601,1601,1601,1601,1601,1609,1609,1616,1616,1616,1616,1616,1624,1624,1624,1624,1624,1624,1632,1632,1632,1639,1639,1647,1647,1647,1655,1655,1655,1655,1663,1663,1663,1663,1663,1671,1671,1671,1671,1671,1663,1663,1663,0,0,0,0,0,0,1060,1060,1060,1060,1057,1054,1054,1054,1050,1050,1050,1054,1054,1057,1060,1060,1060,1060,1060,1060,1060,1063,0,0,0,0,1757,1757,1748,1748,1748,1739,1731,1731,1731,1731,1731,1722,1713,1713,1713,1705,1696,1696,1688,1680,1680,1680,1671,1671,1663,1663,1663,1655,1655,1655,1655,1647,1639,1632,1632,1624,1624,1616,1616,1609,1609,1601,1601,1601,1601,1594,1594,1586,1579,1572,1572,1564,1564,1564,1564,1564,1557,1557,0,0,0,0,0,0,0,0,0,0,845,845,843,841,839,837,835,835,833,833,829,829,827,827,827,829,829,829,0,0,0,0,0,0,0,0,0,0,0,0,0,0,0,0,0,0,0,0,0,0,0,0,0,0,0,0,0,0,0,0,0,0,0,0,0,0,0,0,0,0,0,0,0,0,0,0,0,0,0,0,0,0,0,0,0,0,0,0,0,0,0,0,0,0,0,0,0,0,0,0,0,0,0,0,0,0,0,0,0,0,0,0,0,0,0,0,0,0,0,0,0,0,0,0,0,0,0,0,0,0,0,0,0,0,0,0,0,0,0,0,0,0,0,0,0,0,0,0,0,0,0,0,0,0,0,0,0,0,0,0,0,0,0,0,0,0,0,0,0,0,0,0,0,0,0,0,0,0,0,0,0,0,0,0,0,0,0,0,0,0,0,0,0,0,0,0,0,0,0,0,0,0,0,0,0,0,0,0,0,0,0,0,0,0,0,0,0,0,0,0,0,0,0,0,0,0,0,0,0,0,0,0,0,0,0,0,0,0,0,0,0,0,0,0,0,0,0,0,0,0,0,0,0,0,0,0,0,0,0,0,0,0,0,0,0,0,0,0,0,0,0,0,0,0,0,0,0,0,0,0,0,0,0,0,0,0,0,0,0,0,0,0,0,0,0,0,0,0,0,0,0,0,0,0,0,0,0,0,0,0,0,0,0,0,0,0,0,0,0,0,0,0,0,0,0,0
0,0,0,0,0,0,0,0,0,0,0,0,0,0,0,0,1823,1823,1813,1813,1804,1785,1776,1776,1776,1766,1766,1766,1766,1757,1757,1757,1757,1757,1757,1757,1748,1748,1739,1739,1739,1731,1731,1731,1731,1722,1722,1722,1722,1722,1696,1696,1696,1696,1696,1688,1688,1688,1688,1680,1680,1680,1680,1680,1671,1671,1663,1663,1663,1663,1663,1663,1655,1655,1655,1655,1655,1655,1655,1655,1647,1647,1647,1647,1647,1639,1639,1632,1632,1632,1632,1632,1632,1632,1632,1632,1624,1624,1624,1624,1624,1616,1616,1616,1609,1609,1609,1609,1609,1609,1609,1609,1609,1609,1609,1601,1601,1601,1601,1594,1594,1594,1594,1594,1594,1594,1594,1594,1594,1594,1594,1594,1594,1594,1594,1594,1601,1601,1609,1616,1624,1632,1632,1632,2317,2317,2317,2317,2317,2317,2301,2301,2301,2301,2301,2286,2286,2286,1579,1579,1572,1572,1579,1572,1572,1572,1572,1572,1572,1572,1579,1579,1579,1579,1586,1594,1594,1594,1594,1594,1601,1601,1601,1609,1601,1601,1609,1616,1616,1616,1616,1616,1616,1624,1624,1624,1624,1624,1632,1632,1632,1632,1639,1647,1647,1647,1655,1655,1655,1655,1655,1663,1663,1663,1663,1663,1671,1671,1671,1671,1671,1671,1671,1671,0,0,0,0,0,0,1063,1060,1060,1060,1057,1057,1054,1054,1054,1050,1050,1054,1054,1057,1060,1060,1060,1060,1060,1060,1063,1063,0,0,0,0,1757,1748,1748,1748,1748,1739,1731,1731,1731,1731,1731,1722,1713,1713,1713,1705,1696,1696,1688,1680,1680,1680,1671,1671,1663,1663,1663,1655,1655,1655,1655,1639,1639,1632,1624,1624,1624,1616,1616,1609,1609,1601,1601,1601,1601,1594,1594,1586,1579,1572,1572,1564,1564,1564,1564,1564,1557,1557,0,0,0,0,0,0,0,0,0,0,845,845,843,841,839,837,835,835,833,833,829,829,827,827,827,829,829,829,831,833,833,835,835,837,837,839,841,841,0,0,0,0,0,0,1415,1415,1410,1410,1404,1404,1398,1398,1398,1392,1392,1387,1381,1376,1376,1370,1370,1370,1370,1370,1370,1365,1365,1354,1354,1349,1349,1343,1343,1338,1338,1333,1333,1333,1328,1322,1322,1317,1317,1317,1312,1312,1312,1307,1307,1307,1302,1292,1292,1288,1288,1288,1288,1283,1283,1278,1273,1273,1268,1264,1264,1264,1259,1259,1255,1255,1250,1250,1250,1250,1245,1241,1241,1236,1232,1232,1232,1232,0,0,0,0,0,0,0,0,0,0,0,0,0,0,0,0,0,0,0,0,0,0,0,0,0,0,0,0,0,0,0,0,0,0,0,0,0,0,0,0,0,0,0,0,0,0,0,0,0,0,0,0,0,0,0,0,0,0,0,0,0,0,0,0,0,0,0,0,0,0,0,0,0,0,0,0,0,0,0,0,0,0,0,0,0,0,0,0,0,0,0,0,0,0,0,0,0,0,0,0,0,0,0,0,0,0,0,0,0,0,0,0,0,0,0,0,0,0,0,0,0,0,0,0,0,0,0,0,0,0,0,0,0,0,0,0,0,0,0,0,0,0,0,0,0,0,0,0,0,0,0,0,0,0,0,0,0,0,0,0,0,0,0,0,0,0,0,0,0,0,0,0,0,0,0,0,0,0,0,0,0,0,0,0,0,0,0,0,0,0,0,0,0,0,0,0,0,0,0,0,0,0,0,0
0,0,0,0,0,0,0,0,0,0,0,0,0,0,0,0,1823,1823,1813,1813,1804,1785,1776,1776,1766,1766,1766,1766,1766,1757,1757,1757,1757,1757,1757,1748,1748,1748,1739,1739,1739,1731,1731,1731,1731,1722,1722,1722,1722,1722,1696,1696,1696,1696,1696,1688,1688,1688,1688,1680,1680,1680,1680,1680,1671,1671,1663,1663,1663,1663,1663,1663,1655,1655,1655,1655,1655,1655,1655,1655,1655,1647,1647,1647,1647,1639,1639,1639,1639,1632,1632,1632,1632,1632,1632,1632,1632,1632,1624,1624,1624,1624,1616,1616,1609,1609,1609,1609,1609,1609,1601,1601,1601,1601,1601,1601,1601,1601,1601,1594,1594,1594,1594,1594,1594,1594,1594,1594,1594,1594,1594,1594,1594,1594,1594,1594,1601,1601,1609,1616,1624,1624,1624,1624,2317,2317,2317,2317,2317,2317,2317,2317,2301,2301,2301,2301,2301,2301,1586,1586,1572,1572,1579,1579,1579,1579,1572,1572,1572,1579,1579,1579,1579,1586,1586,1594,1594,1594,1594,1594,1601,1601,1609,1609,1609,1609,1616,1616,1624,1616,1616,1616,1616,1624,1624,1624,1624,1624,1632,1632,1632,1632,1639,1647,1647,1647,1655,1655,1655,1655,1663,1663,1663,1663,1663,1663,1671,1671,1663,1663,1671,1671,1671,1671,0,0,0,0,0,1063,1063,1060,1060,1060,1060,1057,1054,1054,1054,1054,1054,1054,1054,1057,1060,1060,1060,1060,1063,1063,1063,1063,0,0,0,0,0,1748,1748,1748,1748,1739,1739,1739,1731,1731,1731,1722,1722,1713,1713,1705,1696,1696,1688,1688,1680,1680,1671,1671,1663,1663,1663,1663,1655,1655,1655,1639,1639,1632,1624,1624,1624,1616,1616,1609,1609,1601,1601,1601,1601,1594,1594,1586,1586,1579,1572,1572,1564,1564,1564,1564,1557,1557,0,0,0,0,0,0,0,0,0,0,847,845,843,841,839,837,835,835,833,831,829,829,829,827,827,829,829,829,831,833,833,835,835,837,837,839,841,841,0,0,0,0,0,0,1415,1415,1410,1410,1404,1404,1398,1398,1398,1392,1392,1387,1381,1376,1376,1370,1370,1370,1370,1370,1365,1365,1354,1354,1354,1349,1349,1343,1343,1338,1338,1333,1333,1333,1328,1322,1322,1317,1317,1317,1312,1312,1312,1307,1307,1307,1302,1292,1292,1288,1288,1288,1288,1283,1283,1278,1273,1273,1268,1264,1264,1264,1259,1259,1255,1255,1250,1250,1250,1250,1245,1241,1241,1236,1232,1232,1232,1227,1227,1223,1223,1219,1219,1219,1214,1214,1214,1210,1206,1206,1202,1202,1197,1197,1197,1193,1189,1185,1185,1185,1181,1181,1181,1177,1173,1173,1173,1169,1169,1165,1165,1161,1161,1157,1157,1153,1153,1149,1149,1145,1145,1141,1141,1138,1138,1134,1134,1134,1130,1130,1126,1123,1123,1123,1119,1119,1115,1115,1112,1112,1108,1108,1105,1105,1105,1105,1101,1097,1094,1094,1094,1094,1090,1090,1090,1087,1087,1084,1080,1080,1080,1077,1077,1073,1070,1067,1067,1067,1067,1063,1063,1063,1060,1057,1057,1054,1054,1050,1050,1047,1047,1044,1041,1041,1038,1038,1038,0,0,0,0,0,0,0,0,0,0,0,0,0,0,0,0,0,0,0,0,0,0,0,0,0,0,0,0,0,0,0,0,0,0,0,0,0,0,0,0,0,0,0,0,0,0,0,0,0,0,0,0,0,0,0,0,0,0,0,0,0,0,0,0,0,0,0,0,0,0,0,0,0,0,0,0,0,0,0,0,0,0,0,0,0,0,0,0,0,0,0,0,0,0,0
0,0,0,0,0,0,0,0,0,0,0,0,0,0,0,0,1823,1823,1813,1813,1804,1785,1776,1776,1766,1766,1766,1766,1766,1766,1757,1757,1757,1757,1757,1748,1748,1748,1739,1739,1739,1731,1731,1731,1731,1722,1722,1722,1722,1722,1713,1696,1696,1696,1696,1688,1688,1688,1688,1688,1688,1688,1680,1680,1671,1671,1671,1671,1663,1663,1663,1663,1655,1655,1655,1655,1655,1655,1655,1655,1655,1655,1655,1655,1647,1639,1639,1639,1639,1639,1632,1632,1632,1632,1632,1632,1632,1632,1624,1624,1624,1624,1624,1624,1616,1616,1609,1609,1609,1609,1601,1601,1601,1601,1601,1601,1601,1601,1601,1601,1594,1594,1594,1594,1594,1594,1594,1594,1594,1594,1594,1594,1594,1594,1594,1601,1601,1601,1609,1616,1624,1624,1624,1624,1624,2317,2317,2317,2317,2317,2317,2317,2317,2301,2301,2301,2301,2301,1572,1572,1572,1572,1579,1579,1579,1579,1572,1572,1572,1579,1579,1586,1586,1586,1594,1594,1594,1594,1601,1601,1601,1601,1609,1609,1609,1609,1616,1616,1624,1616,1616,1616,1616,1624,1624,1624,1624,1632,1632,1632,1632,1632,1639,1647,1655,1655,1655,1655,1655,1655,1663,1663,1663,1663,1663,1671,1671,1671,1663,1663,1671,1671,1671,1680,0,0,0,0,0,1063,1063,1063,1063,1060,1060,1060,1057,1057,1057,1054,1054,1057,1057,1057,1060,1060,1060,1060,1063,1063,1063,1063,0,0,0,0,0,1748,1748,1748,1748,1739,1739,1739,1731,1731,1731,1722,1722,1713,1713,1705,1696,1696,1688,1688,1688,1688,1680,1680,1671,1663,1663,1663,1655,1655,1655,1639,1639,1632,1632,1624,1624,1624,1616,1616,1609,1609,1609,1601,1601,1594,1594,1586,1586,1579,1572,1572,1564,1564,1564,1564,1557,1557,0,0,0,0,0,0,0,0,0,0,0,845,843,841,839,837,835,835,831,831,829,829,829,829,829,829,829,831,831,833,833,835,835,837,839,841,841,843,0,0,0,0,0,1421,1415,1415,1410,1410,1404,1404,1398,1398,1398,1398,1392,1392,1381,1376,1376,1370,1370,1370,1370,1365,1365,1365,1354,1354,1354,1349,1349,1349,1343,1338,1338,1333,1333,1333,1328,1322,1322,1317,1317,1317,1312,1312,1312,1307,1307,1307,1302,1292,1292,1292,1292,1288,1288,1283,1283,1278,1273,1273,1273,1268,1268,1264,1259,1259,1255,1255,1255,1250,1250,1250,1245,1245,1241,1236,1236,1232,1232,1227,1227,1223,1223,1219,1219,1219,1214,1214,1214,1210,1206,1206,1202,1202,1197,1197,1197,1193,1189,1185,1185,1185,1181,1181,1181,1177,1173,1173,1173,1169,1169,1165,1165,1161,1161,1157,1157,1153,1153,1149,1149,1145,1145,1141,1141,1138,1138,1134,1134,1134,1130,1130,1126,1123,1123,1123,1119,1119,1115,1115,1112,1112,1108,1108,1105,1105,1105,1105,1101,1097,1094,1094,1094,1094,1090,1090,1090,1087,1087,1080,1080,1080,1080,1077,1077,1073,1070,1067,1067,1067,1067,1063,1063,1063,1060,1057,1057,1054,1054,1050,1050,1047,1047,1044,1041,1041,1038,1038,1038,1038,1034,1034,1028,1028,1028,1025,1025,1025,1022,1022,1019,1019,1016,1016,1013,1010,1010,1007,1007,1004,1004,1004,1001,998,998,995,992,992,992,989,989,987,987,984,981,981,981,978,978,975,970,970,967,967,967,967,964,962,959,956,956,954,951,951,948,948,946,946,943,940,938,935,935,935,0,0,0,0,0,0,0,0,0,0,0,0,0,0,0,0,0,0,0,0,0,0,0,0,0,0,0,0,0,0
0,0,0,0,0,0,0,0,0,0,0,0,0,0,0,0,1823,1813,1804,1804,1794,1785,1776,1776,1766,1766,1766,1766,1766,1766,1757,1757,1757,1757,1757,1748,1748,1748,1739,1739,1739,1731,1731,1731,1731,1722,1722,1722,1722,1722,1696,1696,1696,1696,1696,1688,1688,1688,1688,1688,1688,1688,1688,1680,1680,1680,1671,1671,1671,1663,1663,1663,1655,1655,1655,1655,1655,1663,1663,1663,1663,1663,1655,1655,1655,1639,1639,1639,1639,1639,1632,1632,1632,1632,1632,1632,1632,1632,1632,1632,1624,1624,1624,1624,1616,1616,1609,1609,1609,1609,1609,1609,1609,1601,1601,1601,1601,1601,1601,1601,1601,1594,1594,1594,1594,1594,1594,1594,1594,1594,1594,1594,1594,1594,1594,1601,1601,1609,1609,1616,1624,1624,1624,1624,1624,1624,2333,2333,2317,2317,2317,2317,2317,2301,2301,2301,2301,2301,0,1586,1586,1586,1586,1586,1579,1579,1579,1572,1572,1579,1579,1586,1586,1586,1594,1594,1594,1594,1601,1601,1601,1601,1601,1609,1609,1616,1616,1616,1616,1616,1616,1616,1616,1624,1624,1624,1624,1632,1632,1632,1632,1632,1639,1647,1655,1655,1655,1655,1655,1655,1655,1663,1663,1663,1663,1663,1671,1671,1671,1671,1671,1671,1671,1688,0,0,0,0,0,0,1067,1063,1063,1063,1060,1057,1057,1054,1054,1054,1054,1054,1057,1057,1060,1060,1060,1063,1063,1063,1063,1063,0,0,0,0,0,1757,1748,1748,1748,1748,1739,1739,1731,1731,1731,1722,1722,1713,1713,1705,1696,1696,1688,1688,1688,1688,1680,1680,1671,1663,1663,1663,1655,1655,1655,1647,1639,1632,1632,1632,1624,1624,1616,1616,1616,1609,1609,1601,1601,1601,1594,1586,1586,1579,1579,1572,1572,1572,1572,1572,1564,1564,0,0,0,0,0,0,0,0,0,0,0,845,843,841,839,837,835,833,831,831,829,829,829,829,829,829,829,831,833,833,835,835,837,837,839,841,841,843,0,0,0,0,0,1421,1415,1415,1410,1410,1410,1404,1398,1398,1398,1398,1392,1392,1387,1381,1376,1370,1370,1370,1370,1365,1365,1365,1359,1354,1354,1354,1349,1349,1343,1343,1338,1338,1333,1333,1333,1328,1322,1322,1322,1317,1317,1312,1312,1307,1307,1307,1302,1292,1292,1292,1292,1288,1288,1288,1283,1278,1278,1273,1268,1268,1264,1264,1259,1259,1259,1255,1255,1255,1250,1250,1250,1245,1241,1236,1236,1232,1232,1227,1227,1227,1223,1219,1219,1219,1214,1214,1214,1210,1206,1206,1202,1202,1197,1197,1197,1193,1193,1185,1185,1185,1181,1181,1181,1177,1173,1173,1173,1169,1169,1165,1165,1165,1161,1161,1157,1153,1153,1149,1149,1149,1145,1141,1141,1138,1138,1134,1134,1134,1134,1130,1130,1123,1123,1123,1119,1119,1119,1119,1115,1112,1108,1108,1105,1105,1105,1105,1101,1097,1094,1094,1094,1094,1090,1090,1090,1087,1087,1080,1080,1080,1080,1077,1077,1073,1070,1070,1067,1067,1067,1063,1063,1063,1060,1057,1057,1054,1054,1054,1050,1050,1047,1044,1041,1041,1041,1038,1038,1038,1034,1031,1028,1028,1028,1025,1025,1025,1022,1022,1019,1019,1016,1016,1013,1010,1010,1007,1007,1004,1004,1004,1001,998,998,995,992,992,992,989,989,987,987,984,981,981,981,978,978,973,970,970,967,967,967,967,964,962,959,956,956,954,951,951,948,948,946,946,943,940,938,935,935,935,0,0,0,0,0,0,0,0,0,0,0,0,0,0,0,0,0,0,0,0,0,0,0,0,0,0,0,0,0,0
0,0,0,0,0,0,0,0,0,0,0,0,0,0,0,0,1823,1813,1804,1804,1794,1785,1785,1776,1766,1766,1766,1766,1766,1766,1757,1757,1757,1757,1757,1748,1748,1748,1748,1748,1739,1731,1731,1731,1731,1722,1722,1722,1722,1722,1696,1696,1696,1696,1696,1688,1688,1688,1688,1688,1688,1688,1688,1680,1680,1680,1680,1671,1671,1671,1663,1663,1663,1663,1663,1663,1663,1663,1663,1663,1663,1663,1663,1663,1655,1647,1639,1639,1639,1639,1632,1632,1632,1632,1632,1632,1632,1632,1632,1632,1624,1624,1624,1624,1616,1616,1616,1609,1609,1609,1609,1609,1609,1601,1601,1601,1601,1601,1601,1601,1601,1601,1601,1601,1601,1601,1601,1601,1594,1594,1594,1594,1594,1594,1601,1601,1601,1609,1609,1616,1624,1624,1624,1624,1632,1632,2333,2333,2333,2333,2333,2333,2317,2317,2317,2317,2317,2333,0,0,1586,1586,1586,1586,1579,1579,1579,1572,1572,1579,1579,1586,1586,1594,1594,1594,1594,1601,1601,1601,1601,1601,1601,1609,1609,1616,1616,1616,1616,1616,1616,1616,1624,1624,1624,1624,1624,1632,1632,1632,1632,1632,1639,1647,1655,1655,1655,1655,1655,1655,1655,1655,1663,1663,1663,1663,1671,1671,1671,1671,1671,1671,1680,1688,0,0,0,0,0,0,1067,1067,1063,1060,1060,1057,1057,1054,1054,1054,1054,1054,1057,1057,1060,1060,1063,1063,1063,1063,1060,1060,0,0,0,0,0,1757,1748,1748,1748,1748,1739,1739,1731,1731,1731,1722,1722,1713,1713,1705,1696,1696,1696,1696,1688,1688,1688,1680,1671,1671,1663,1663,1663,1655,1655,1647,1639,1632,1632,1632,1624,1624,1616,1616,1616,1609,1609,1601,1601,1601,1594,1594,1586,1579,1579,1579,1572,1572,1572,1572,1557,1557,0,0,0,0,0,0,0,0,0,0,845,845,843,841,839,837,835,833,833,831,829,829,829,829,829,829,829,831,833,833,835,835,837,837,839,839,841,0,0,0,0,0,0,1421,1421,1415,1415,1410,1410,1404,1404,1398,1398,1398,1392,1392,1387,1381,1376,1376,1370,1370,1370,1365,1365,1365,1359,1359,1354,1354,1354,1349,1349,1343,1343,1338,1333,1333,1333,1328,1322,1322,1322,1317,1317,1317,1312,1307,1307,1307,1302,1302,1292,1292,1292,1292,1288,1288,1283,1283,1278,1273,1268,1268,1264,1264,1264,1259,1259,1255,1255,1255,1250,1250,1250,1245,1241,1241,1236,1232,1232,1227,1227,1227,1227,1223,1223,1219,1219,1214,1210,1210,1210,1206,1202,1202,1202,1197,1197,1197,1193,1189,1185,1185,1181,1181,1181,1177,1177,1173,1173,1169,1169,1165,1165,1165,1165,1161,1161,1157,1153,1153,1149,1149,1149,1145,1141,1138,1138,1134,1134,1134,1134,1130,1130,1123,1123,1123,1123,1119,1119,1119,1115,1115,1112,1108,1105,1105,1105,1105,1101,1097,1097,1094,1094,1094,1090,1090,1090,1090,1084,1080,1080,1080,1077,1077,1077,1077,1073,1070,1070,1067,1067,1063,1063,1063,1060,1057,1057,1054,1054,1050,1050,1050,1047,1044,1044,1041,1041,1038,1038,1038,1034,1031,1028,1028,1028,1025,1025,1025,1022,1022,1022,1019,1016,1016,1013,1010,1010,1007,1007,1004,1004,1004,1001,1001,998,995,992,992,992,992,989,987,987,984,981,981,981,978,978,973,970,970,967,967,967,967,964,962,959,959,956,954,951,951,951,948,948,946,943,940,938,938,935,935,0,0,0,0,0,0,0,0,0,0,0,0,0,0,0,0,0,0,0,0,0,0,0,0,0,0,0,0,0,0
0,0,0,0,0,0,0,0,0,0,0,0,0,0,0,0,1823,1823,1813,1804,1804,1785,1785,1776,1776,1776,1766,1766,1766,1766,1757,1757,1757,1757,1757,1748,1748,1739,1739,1739,1739,1731,1731,1731,1722,1722,1722,1722,1722,1722,1705,1696,1696,1696,1696,1688,1688,1688,1688,1688,1688,1688,1688,1680,1680,1680,1680,1671,1671,1671,1663,1663,1663,1663,1663,1663,1663,1663,1663,1663,1663,1663,1663,1663,1655,1655,1647,1639,1639,1639,1639,1639,1639,1639,1639,1632,1632,1632,1632,1632,1632,1632,1624,1624,1616,1616,1616,1616,1616,1609,1609,1609,1609,1609,1609,1601,1601,1601,1601,1601,1601,1601,1601,1601,1601,1601,1601,1601,1601,1594,1594,1594,1601,1601,1601,1601,1601,1609,1609,1616,1624,1624,1624,1632,1632,1632,2333,2333,2333,2333,2333,2333,2333,2333,2317,2317,2333,2333,2333,0,1594,1594,1586,1586,1586,1579,1579,1579,1579,1579,1586,1586,1594,1594,1594,1594,1594,1601,1601,1601,1601,1601,1601,1609,1609,1616,1616,1616,1616,1624,1624,1624,1624,1624,1624,1624,1624,1632,1632,1639,1639,1639,1639,1647,1655,1655,1655,1655,1655,1655,1655,1655,1663,1663,1663,1663,1663,1671,1671,1671,1671,1671,1671,1688,0,0,0,0,0,1073,1070,1067,1063,1060,1060,1057,1057,1054,1054,1054,1054,1054,1057,1057,1060,1060,1063,1063,1063,1063,1060,1060,0,0,0,0,1757,1757,1757,1757,1757,1748,1739,1739,1739,1731,1731,1722,1722,1713,1713,1705,1705,1696,1696,1696,1696,1688,1688,1680,1671,1663,1663,1663,1663,1655,1655,1647,1647,1639,1632,1632,1624,1624,1624,1624,1616,1616,1616,1609,1601,1601,1594,1594,1594,1586,1572,1572,1572,1572,1572,1572,1557,1557,0,0,0,0,0,0,0,0,0,0,845,845,843,841,839,837,835,835,833,831,831,829,829,829,829,829,829,831,833,833,835,835,837,837,839,839,841,843,0,0,0,0,0,1421,1421,1415,1415,1415,1410,1404,1404,1398,1398,1398,1392,1392,1392,1387,1381,1376,1376,1370,1370,1370,1365,1365,1359,1359,1354,1354,1354,1349,1349,1349,1343,1343,1333,1333,1333,1328,1322,1322,1322,1317,1317,1317,1312,1312,1307,1307,1302,1302,1292,1292,1292,1292,1288,1288,1283,1283,1278,1278,1273,1268,1268,1268,1264,1259,1259,1259,1255,1255,1250,1250,1250,1245,1245,1241,1236,1236,1232,1227,1227,1227,1227,1223,1223,1219,1219,1219,1210,1210,1210,1206,1206,1202,1202,1202,1197,1197,1193,1189,1185,1185,1185,1181,1181,1177,1177,1173,1173,1169,1169,1165,1165,1165,1165,1161,1161,1157,1153,1153,1149,1149,1149,1145,1145,1138,1138,1138,1134,1134,1134,1130,1130,1126,1123,1123,1123,1119,1119,1119,1115,1115,1112,1108,1105,1105,1105,1105,1101,1101,1097,1094,1094,1094,1090,1090,1090,1090,1084,1080,1080,1080,1077,1077,1077,1077,1073,1073,1070,1067,1067,1063,1063,1063,1060,1057,1057,1054,1054,1050,1050,1050,1047,1047,1044,1041,1041,1038,1038,1038,1034,1031,1028,1028,1028,1028,1025,1025,1022,1022,1019,1019,1016,1016,1013,1010,1010,1007,1007,1004,1004,1004,1001,1001,998,995,995,992,992,992,989,989,987,984,981,981,981,978,978,975,970,970,970,967,967,967,964,962,959,959,956,954,954,951,951,948,948,946,946,943,938,938,935,935,0,0,0,0,0,0,0,0,0,0,0,0,0,0,0,0,0,0,0,0,0,0,0,0,0,0,0,0,0,0
0,0,0,0,0,0,0,0,0,0,0,0,0,0,0,0,1823,1823,1813,1804,1804,1794,1785,1785,1776,1776,1766,1766,1766,1766,1766,1757,1757,1757,1757,1748,1748,1739,1739,1739,1731,1731,1731,1731,1722,1722,1722,1722,1713,1713,1705,1705,1705,1705,1705,1705,1696,1696,1688,1688,1688,1688,1688,1680,1680,1680,1680,1671,1671,1671,1663,1663,1663,1663,1663,1663,1663,1663,1663,1663,1663,1663,1663,1663,1655,1655,1647,1639,1639,1639,1639,1639,1639,1639,1639,1632,1632,1632,1632,1632,1632,1632,1624,1624,1624,1624,1616,1616,1616,1616,1616,1616,1609,1609,1609,1601,1601,1601,1601,1601,1601,1601,1601,1601,1601,1601,1601,1594,1594,1601,1601,1601,1601,1601,1601,1601,1609,1609,1609,1616,1624,1624,1624,1632,1632,1632,2333,2333,2333,2333,2333,2333,2333,2333,2333,2333,2333,2333,2333,0,1594,1594,1586,1586,1586,1586,1586,1586,1586,1586,1586,1594,1594,1594,1594,1594,1594,1601,1601,1601,1609,1609,1609,1609,1609,1616,1616,1616,1616,1624,1624,1624,1624,1624,1624,1632,1632,1632,1632,1639,1639,1639,1647,1655,1655,1655,1655,1655,1655,1655,1655,1655,1663,1663,1663,1663,1663,1671,1680,1671,1671,1671,1671,1688,1688,1688,0,0,0,1073,1070,1067,1063,1063,1060,1057,1057,1054,1054,1054,1057,1057,1057,1060,1060,1060,1063,1063,1063,1063,1063,0,0,0,0,0,1757,1757,1757,1757,1757,1748,1748,1739,1739,1739,1731,1722,1722,1713,1713,1713,1705,1696,1696,1696,1696,1688,1688,1688,1680,1663,1663,1663,1663,1655,1655,1647,1647,1639,1632,1632,1632,1624,1624,1624,1616,1616,1609,1609,1609,1601,1601,1594,1594,1586,1572,1572,1572,1572,1572,1572,1572,0,0,0,0,0,0,0,0,0,0,0,845,845,843,841,839,837,835,835,833,833,831,829,829,829,829,829,829,831,833,833,835,835,837,839,839,841,841,841,0,0,0,0,0,0,1421,1415,1415,1415,1415,1410,1404,1398,1398,1398,1398,1398,1392,1392,1387,1381,1376,1370,1370,1370,1370,1365,1359,1359,1359,1354,1354,1354,1349,1349,1349,1343,1338,1338,1333,1328,1328,1322,1322,1322,1317,1317,1312,1312,1307,1307,1302,1302,1297,1292,1292,1292,1288,1288,1288,1283,1278,1278,1273,1273,1268,1268,1268,1264,1264,1259,1259,1255,1255,1250,1250,1245,1245,1241,1236,1236,1232,1227,1227,1227,1223,1223,1223,1219,1219,1219,1214,1210,1210,1206,1206,1202,1202,1202,1202,1197,1197,1193,1189,1185,1185,1181,1181,1181,1177,1177,1173,1173,1169,1165,1165,1165,1165,1161,1157,1157,1153,1153,1149,1149,1149,1145,1145,1141,1138,1138,1134,1134,1134,1130,1126,1126,1123,1123,1123,1119,1119,1119,1115,1115,1112,1108,1108,1108,1105,1105,1101,1101,1097,1097,1094,1094,1094,1090,1090,1090,1087,1080,1080,1080,1077,1077,1077,1077,1073,1073,1070,1067,1067,1067,1063,1063,1060,1060,1057,1054,1054,1054,1050,1050,1047,1047,1044,1041,1041,1038,1038,1038,1034,1031,1028,1028,1028,1028,1025,1025,1022,1022,1019,1019,1019,1016,1013,1010,1010,1007,1007,1004,1004,1001,1001,1001,998,995,995,992,992,992,989,989,987,984,981,981,981,978,978,978,975,975,970,967,967,967,967,964,962,959,956,956,954,954,951,948,948,946,946,943,940,938,938,938,0,0,0,0,0,0,0,0,0,0,0,0,0,0,0,0,0,0,0,0,0,0,0,0,0,0,0,0,0,0
0,0,0,0,0,0,0,0,0,0,0,0,0,0,0,0,1823,1804,1804,1794,1794,1794,1785,1785,1776,1776,1776,1766,1766,1766,1766,1757,1757,1757,1757,1748,1739,1739,1739,1731,1731,1731,1731,1722,1722,1722,1722,1722,1713,1713,1713,1713,1705,1705,1696,1696,1688,1688,1688,1688,1688,1688,1688,1680,1680,1680,1680,1671,1671,1671,1663,1663,1671,1663,1663,1663,1663,1663,1663,1663,1663,1663,1663,1663,1663,1655,1647,1647,1647,1647,1639,1639,1639,1639,1639,1632,1632,1632,1632,1632,1632,1632,1632,1624,1624,1624,1624,1624,1624,1616,1616,1616,1616,1609,1609,1609,1601,1601,1601,1601,1601,1601,1601,1601,1601,1601,1601,1594,1594,1601,1601,1601,1601,1601,1601,1601,1601,1609,1616,1616,1624,1624,1632,1632,1632,1632,2317,2317,2317,2333,2349,2349,2349,2349,2349,2333,2333,2333,2333,2333,1594,1594,1586,1586,1594,1586,1586,1586,1586,1586,1594,1594,1594,1594,1594,1594,1594,1601,1601,1601,1609,1609,1609,1609,1609,1616,1616,1616,1624,1624,1624,1624,1624,1624,1632,1632,1632,1632,1632,1639,1639,1639,1639,1647,1655,1655,1655,1655,1655,1655,1663,1663,1663,1663,1663,1663,1671,1680,1680,1671,1671,1671,1680,1688,1688,1688,0,0,0,0,1067,1067,1067,1063,1060,1057,1057,1054,1054,1057,1057,1057,1060,1060,1060,1060,1063,1063,1063,1063,1063,0,0,0,0,0,1757,1757,1757,1757,1757,1757,1748,1748,1739,1739,1731,1731,1722,1722,1722,1713,1713,1705,1696,1696,1696,1688,1688,1688,1680,1671,1663,1663,1663,1655,1655,1655,1647,1647,1639,1639,1632,1632,1632,1624,1624,1616,1609,1609,1609,1601,1601,1594,1594,901,901,1579,1572,1572,1572,1564,1550,1550,0,0,0,0,0,0,0,0,0,0,845,845,843,841,839,837,835,835,833,833,831,829,829,829,829,829,829,831,833,835,835,835,837,839,839,841,841,841,0,0,0,0,0,0,1421,1421,1415,1415,1415,1415,1410,1404,1404,1404,1398,1398,1392,1392,1387,1381,1376,1370,1370,1370,1370,1365,1359,1359,1359,1354,1354,1354,1349,1349,1349,1343,1338,1338,1333,1328,1328,1322,1322,1322,1317,1317,1312,1312,1307,1307,1307,1302,1297,1297,1292,1292,1292,1288,1288,1283,1283,1283,1278,1273,1273,1268,1268,1264,1264,1259,1259,1255,1255,1250,1250,1245,1245,1241,1236,1236,1232,1227,1227,1227,1223,1223,1223,1219,1219,1214,1214,1210,1210,1206,1202,1202,1202,1202,1202,1197,1197,1193,1189,1189,1185,1185,1181,1181,1181,1177,1177,1173,1169,1165,1165,1165,1165,1161,1157,1157,1153,1153,1149,1149,1149,1145,1145,1141,1138,1138,1138,1134,1134,1130,1126,1126,1123,1123,1123,1119,1119,1119,1115,1115,1112,1108,1108,1108,1105,1105,1105,1101,1101,1097,1097,1094,1094,1090,1090,1090,1087,1080,1080,1080,1077,1077,1077,1077,1073,1073,1070,1067,1067,1067,1063,1063,1060,1060,1057,1057,1057,1054,1050,1050,1047,1047,1044,1044,1041,1041,1041,1038,1038,1034,1031,1028,1028,1028,1028,1025,1025,1022,1022,1019,1019,1016,1013,1013,1010,1010,1007,1004,1004,1001,1001,1001,998,995,995,992,992,992,989,989,987,984,984,981,981,981,978,978,975,975,973,970,967,967,967,964,962,959,956,956,954,951,951,948,948,946,946,943,940,940,938,938,0,0,0,0,0,0,0,0,0,0,0,0,0,0,0,0,0,0,0,0,0,0,0,0,0,0,0,0,0,0
0,0,0,0,0,0,0,0,0,0,0,0,0,0,0,0,1804,1804,1804,1794,1794,1794,1785,1785,1776,1776,1776,1776,1766,1766,1766,1766,1757,1757,1757,1748,1739,1739,1739,1731,1731,1731,1731,1722,1722,1722,1722,1722,1713,1713,1713,1713,1713,1713,1696,1696,1688,1688,1688,1688,1688,1688,1688,1688,1688,1680,1680,1671,1671,1671,1663,1663,1671,1663,1663,1671,1663,1663,1663,1663,1663,1663,1663,1663,1663,1663,1655,1655,1647,1647,1639,1639,1639,1639,1639,1632,1632,1632,1632,1632,1632,1632,1632,1632,1624,1624,1624,1624,1624,1624,1624,1624,1616,1616,1616,1609,1609,1601,1601,1601,1601,1601,1601,1601,1601,1601,1601,1601,1601,1601,1601,1601,1601,1601,1601,1601,1601,1609,1616,1616,1624,1624,1632,1632,1632,1632,2317,2317,2317,2333,2349,2349,2349,2349,2349,2333,2333,2333,2333,2333,0,1594,1594,1594,1594,1594,1594,1586,1586,1594,1594,1594,1594,1594,1594,1594,1594,1594,1601,1601,1609,1609,1609,1609,1609,1616,1616,1616,1624,1624,1624,1624,1632,1632,1632,1632,1632,1632,1639,1639,1639,1639,1639,1647,1655,1655,1655,1655,1655,1663,1663,1663,1663,1663,1663,1663,1671,1680,1680,1680,1671,1671,1688,1688,1688,0,0,0,0,0,1067,1067,1067,1063,1060,1057,1057,1054,1054,1057,1057,1060,1060,1060,1060,1060,1063,1063,1063,1060,1060,0,0,0,0,0,1757,1757,1757,1757,1757,1757,1748,1748,1748,1739,1731,1731,1722,1722,1722,1722,1713,1713,1705,1696,1696,1688,1688,1688,1680,1671,1671,1663,1663,1655,1655,1655,1655,1647,1639,1639,1639,1632,1632,1632,1624,1624,1616,1609,1609,1601,1601,1594,903,901,901,903,906,906,1564,1564,1550,1550,0,0,0,0,0,0,0,0,0,847,845,845,843,841,839,837,837,835,833,833,833,829,829,829,829,829,831,831,833,835,835,835,837,839,839,841,841,841,843,0,0,0,0,0,1421,1421,1415,1415,1415,1415,1410,1404,1404,1398,1398,1398,1392,1392,1387,1387,1381,1376,1376,1370,1370,1365,1359,1359,1359,1354,1354,1354,1354,1349,1349,1349,1343,1338,1333,1328,1328,1328,1328,1322,1322,1317,1317,1312,1307,1307,1307,1302,1297,1297,1292,1292,1292,1288,1288,1288,1283,1283,1278,1273,1273,1268,1268,1264,1264,1259,1259,1255,1255,1255,1250,1250,1250,1245,1241,1236,1232,1232,1232,1227,1227,1223,1223,1223,1219,1214,1214,1210,1210,1206,1202,1202,1202,1202,1202,1197,1197,1193,1193,1189,1189,1185,1185,1181,1181,1177,1177,1173,1169,1169,1169,1165,1165,1161,1161,1157,1153,1153,1153,1149,1149,1149,1145,1141,1138,1138,1138,1138,1134,1134,1130,1126,1123,1123,1123,1119,1119,1119,1115,1115,1112,1108,1108,1108,1105,1105,1105,1101,1101,1097,1097,1094,1094,1094,1090,1090,1090,1084,1080,1080,1077,1077,1077,1077,1073,1073,1070,1067,1067,1067,1063,1063,1063,1060,1060,1057,1054,1054,1050,1050,1050,1047,1047,1044,1041,1041,1041,1038,1038,1034,1031,1031,1028,1028,1028,1025,1025,1022,1022,1019,1019,1016,1016,1013,1010,1010,1010,1007,1004,1004,1004,1001,1001,998,995,992,992,992,989,989,987,984,984,981,981,981,981,978,978,975,973,970,970,967,967,964,962,959,956,956,954,951,951,948,948,946,946,943,943,940,938,938,0,0,0,0,0,0,0,0,0,0,0,0,0,0,0,0,0,0,0,0,0,0,0,0,0,0,0,0,0,0
0,0,0,0,0,0,0,0,0,0,0,0,0,0,0,0,1804,1804,1804,1804,1804,1794,1794,1785,1785,1785,1776,1776,1766,1766,1766,1766,1766,1757,1757,1748,1748,1739,1739,1731,1731,1731,1731,1722,1722,1722,1722,1722,1722,1722,1713,1713,1713,1713,1713,1705,1696,1696,1696,1688,1688,1688,1688,1688,1688,1688,1688,1680,1671,1671,1671,1671,1671,1671,1671,1671,1671,1663,1663,1663,1663,1663,1663,1663,1663,1663,1663,1655,1647,1647,1647,1639,1639,1639,1639,1632,1632,1632,1632,1632,1632,1632,1632,1632,1632,1632,1624,1624,1632,1624,1624,1624,1624,1624,1616,1616,1609,1609,1609,1601,1601,1601,1601,1601,1601,1601,1601,1601,1601,1601,1601,1601,1601,1601,1601,1601,1609,1609,1616,1616,1624,1624,1632,1632,1639,1639,2317,2317,2317,2333,2349,2349,2349,2349,2349,2333,2333,2333,2333,2333,1601,1601,1594,1594,1594,1594,1594,1594,1594,1594,1594,1594,1594,1594,1594,1594,1594,1594,1601,1601,1609,1609,1609,1609,1609,1616,1616,1616,1616,1624,1624,1624,1632,1632,1632,1632,1632,1632,1639,1647,1647,1655,1655,1655,1655,1655,1655,1655,1663,1663,1663,1663,1663,1663,1663,1663,1680,1680,1680,1680,1680,1680,1688,1688,1680,1680,0,0,0,0,0,1067,1067,1063,1060,1057,1057,1057,1057,1057,1057,1060,1060,1060,1060,1060,1063,1063,1063,1060,1060,0,0,0,0,0,1757,1757,1757,1757,1757,1757,1757,1748,1748,1739,1731,1731,1722,1722,1722,1722,1722,1713,1713,1696,1696,1688,1688,1688,1680,1671,1671,1663,1663,1655,1655,1655,1647,1647,1639,1639,1639,1632,1632,1632,1624,1624,1616,1609,1609,1609,1601,1594,903,901,901,903,901,901,1564,1564,1564,0,0,0,0,0,0,0,0,0,851,847,845,845,843,841,839,839,837,837,835,833,833,829,829,829,831,831,831,833,835,835,835,837,837,839,841,841,843,843,843,0,0,0,0,0,1421,1421,1421,1421,1421,1415,1410,1410,1404,1398,1398,1398,1392,1392,1392,1392,1387,1381,1376,1370,1370,1365,1365,1359,1359,1354,1354,1354,1354,1349,1349,1349,1343,1338,1333,1328,1328,1328,1328,1328,1322,1322,1317,1312,1307,1307,1307,1302,1297,1297,1292,1292,1292,1288,1288,1288,1283,1283,1278,1278,1273,1273,1268,1268,1264,1264,1259,1259,1255,1255,1250,1250,1250,1245,1245,1236,1236,1232,1232,1227,1227,1227,1223,1223,1219,1219,1214,1210,1210,1206,1206,1202,1202,1202,1202,1197,1197,1197,1193,1189,1189,1185,1185,1185,1181,1177,1177,1173,1173,1169,1169,1169,1165,1165,1161,1157,1157,1153,1153,1149,1149,1149,1145,1141,1141,1138,1138,1138,1134,1134,1130,1126,1126,1123,1123,1123,1119,1119,1119,1115,1115,1112,1108,1108,1105,1105,1105,1101,1101,1097,1097,1094,1094,1094,1090,1090,1090,1084,1080,1080,1077,1077,1077,1077,1073,1073,1073,1070,1067,1067,1063,1063,1063,1060,1060,1057,1054,1054,1050,1050,1050,1047,1047,1044,1044,1041,1041,1038,1038,1034,1031,1031,1028,1028,1028,1028,1025,1025,1022,1022,1019,1016,1016,1013,1010,1010,1010,1007,1007,1004,1004,1001,1001,1001,998,992,992,992,989,989,987,984,984,981,981,981,981,978,978,978,975,970,970,967,967,964,962,962,959,956,954,954,951,951,948,948,946,946,943,943,940,940,0,0,0,0,0,0,0,0,0,0,0,0,0,0,0,0,0,0,0,0,0,0,0,0,0,0,0,0,0,0
0,0,0,0,0,0,0,0,0,0,0,0,0,0,0,0,1804,1804,1804,1804,1804,1804,1794,1785,1785,1785,1776,1776,1766,1766,1766,1766,1766,1757,1757,1748,1748,1739,1739,1731,1731,1731,1731,1722,1722,1722,1713,1713,1722,1722,1713,1713,1713,1713,1713,1705,1696,1696,1696,1696,1696,1696,1688,1688,1688,1688,1688,1688,1680,1671,1671,1671,1680,1671,1671,1671,1671,1671,1671,1663,1663,1663,1663,1663,1663,1663,1663,1655,1655,1647,1647,1639,1639,1639,1639,1632,1632,1639,1632,1632,1639,1639,1639,1632,1632,1632,1632,1632,1632,1632,1624,1624,1624,1624,1624,1616,1616,1609,1609,1609,1609,1601,1601,1601,1601,1601,1601,1601,1601,1601,1601,1601,1601,1601,1601,1601,1609,1609,1616,1616,1624,1624,1632,1632,1639,2301,2301,2301,2317,2333,2349,2349,2349,2349,2349,2333,2333,2301,2301,2301,1601,1601,1594,1594,1594,1594,1594,1594,1594,1594,1594,1594,1594,1601,1594,1594,1601,1601,1601,1601,1609,1609,1609,1609,1609,1616,1616,1616,1616,1624,1624,1632,1632,1632,1632,1632,1639,1639,1647,1655,1655,1655,1655,1655,1655,1655,1655,1655,1663,1663,1663,1663,1663,1663,1671,1671,1680,1680,1680,1680,1680,1680,1688,1688,1680,1680,0,0,0,0,0,1067,1067,1063,1060,1057,1057,1057,1057,1060,1060,1060,1060,1060,1060,1060,1063,1063,1063,1063,1063,0,0,0,0,0,1766,1766,1766,1766,1766,1757,1757,1748,1748,1739,1731,1731,1722,1722,1722,1722,1722,1713,1713,1696,1696,1688,1688,1688,1680,1671,1671,1663,1663,1655,1655,1647,1647,1647,1639,1639,1639,1632,1632,1632,1624,1624,1616,1609,1609,913,910,908,903,903,901,901,898,898,896,894,894,0,0,0,0,0,0,0,0,0,851,847,845,845,843,841,839,839,837,837,835,835,833,831,831,831,831,831,831,833,835,835,837,837,839,841,841,843,843,843,845,0,0,0,0,0,1421,1421,1427,1421,1421,1415,1410,1410,1410,1404,1398,1398,1392,1392,1392,1392,1387,1381,1376,1376,1370,1370,1365,1365,1359,1354,1354,1354,1354,1349,1349,1349,1343,1338,1333,1333,1328,1328,1328,1328,1322,1322,1317,1312,1307,1307,1307,1302,1297,1297,1297,1292,1292,1292,1288,1288,1283,1283,1278,1278,1273,1273,1268,1268,1268,1264,1264,1259,1255,1255,1250,1250,1250,1250,1245,1236,1236,1232,1232,1227,1223,1223,1227,1219,1219,1219,1214,1214,1214,1210,1206,1202,1202,1202,1197,1197,1197,1197,1193,1193,1193,1189,1185,1185,1181,1177,1177,1177,1173,1169,1169,1169,1165,1165,1161,1157,1157,1153,1153,1153,1153,1149,1149,1145,1141,1138,1138,1138,1134,1134,1130,1126,1126,1126,1123,1123,1119,1119,1119,1115,1115,1112,1108,1108,1105,1105,1105,1101,1101,1097,1097,1094,1094,1094,1090,1090,1090,1084,1080,1080,1080,1077,1077,1077,1073,1073,1070,1070,1067,1067,1063,1063,1063,1060,1060,1057,1054,1054,1050,1050,1050,1050,1047,1047,1044,1044,1041,1038,1038,1034,1034,1031,1031,1031,1028,1028,1025,1025,1022,1019,1019,1016,1016,1013,1010,1010,1010,1007,1007,1007,1004,1004,1001,1001,998,998,995,992,989,989,987,987,984,984,981,981,981,978,978,978,975,973,970,970,967,967,964,962,959,956,956,956,951,951,948,948,946,946,946,943,940,940,0,0,0,0,0,0,0,0,0,0,0,0,0,0,0,0,0,0,0,0,0,0,0,0,0,0,0,0,0,0
0,0,0,0,0,0,0,0,0,0,0,0,0,0,0,0,1804,1804,1804,1804,1804,1804,1794,1794,1785,1785,1785,1776,1766,1766,1766,1766,1766,1757,1757,1757,1748,1748,1748,1731,1731,1731,1722,1722,1731,1722,1713,1713,1722,1722,1722,1722,1713,1713,1713,1705,1705,1696,1688,1688,1696,1696,1696,1696,1696,1688,1688,1688,1680,1680,1671,1671,1671,1671,1671,1671,1671,1671,1671,1663,1663,1663,1663,1663,1663,1663,1663,1655,1655,1655,1647,1639,1639,1639,1639,1632,1632,1639,1639,1639,1639,1639,1639,1639,1632,1632,1632,1632,1632,1632,1632,1632,1624,1624,1624,1624,1616,1609,1609,1609,1609,1609,1601,1601,1601,1601,1601,1601,1601,1601,1601,1601,1601,1601,1601,1601,1609,1616,1616,1616,1624,1624,1632,1632,1639,2301,2301,2301,2317,2333,2333,2333,2333,2349,2333,2333,2317,2301,2301,2301,1601,1601,1594,1594,1594,1594,1594,1594,1594,1594,1594,1594,1594,1601,1601,1601,1601,1601,1601,1609,1609,1609,1609,1609,1609,1616,1616,1616,1624,1624,1624,1632,1632,1632,1632,1632,1639,1639,1647,1647,1655,1655,1655,1655,1655,1655,1655,1663,1663,1663,1663,1663,1663,1663,1671,1671,1680,1680,1680,1680,1688,1688,1688,1688,1688,0,0,0,0,0,1067,1067,1063,1063,1060,1060,1060,1060,1060,1060,1060,1060,1060,1060,1060,1060,1063,1063,1063,1063,1063,0,0,0,0,1766,1766,1766,1766,1766,1766,1757,1757,1748,1748,1739,1731,1731,1722,1722,1722,1722,1722,1713,1713,1705,1696,1696,1696,1688,1688,1680,1671,1663,1663,1655,1647,1647,1639,1639,1639,1639,1639,933,933,933,1632,1624,1616,1609,915,913,910,908,906,903,901,901,898,898,896,894,891,889,889,887,887,0,0,0,0,0,849,849,847,847,843,843,839,839,837,837,835,835,833,831,831,831,833,833,833,833,835,837,837,837,841,841,843,843,843,845,845,0,0,0,0,0,1433,1433,1427,1421,1421,1415,1415,1410,1410,1404,1404,1398,1398,1392,1392,1392,1387,1381,1376,1376,1370,1370,1365,1365,1365,1359,1354,1354,1354,1349,1349,1349,1343,1338,1333,1333,1328,1328,1328,1328,1328,1322,1317,1312,1312,1312,1307,1302,1302,1297,1297,1297,1292,1292,1288,1288,1283,1283,1278,1278,1273,1273,1273,1268,1268,1264,1259,1259,1255,1255,1255,1250,1250,1245,1245,1241,1236,1236,1232,1227,1223,1223,1227,1219,1219,1214,1214,1214,1214,1210,1206,1206,1202,1202,1197,1197,1197,1197,1197,1193,1193,1189,1185,1185,1181,1177,1177,1177,1173,1169,1169,1169,1169,1165,1161,1161,1157,1157,1153,1153,1153,1149,1149,1145,1141,1141,1138,1138,1134,1134,1130,1126,1126,1126,1123,1123,1119,1119,1119,1115,1112,1108,1108,1108,1105,1105,1105,1101,1101,1097,1097,1094,1094,1094,1090,1090,1090,1084,1080,1080,1080,1080,1077,1077,1073,1073,1070,1070,1070,1067,1063,1063,1063,1060,1060,1057,1057,1054,1054,1050,1050,1050,1047,1047,1044,1044,1041,1038,1038,1034,1034,1031,1031,1031,1028,1028,1025,1025,1022,1019,1019,1019,1016,1013,1013,1013,1010,1010,1007,1007,1004,1004,1001,1001,1001,998,995,995,989,989,989,987,987,984,984,981,981,978,978,978,975,973,970,970,967,967,964,962,959,956,956,956,954,951,948,948,946,946,946,943,940,940,0,0,0,0,0,0,0,0,0,0,0,0,0,0,0,0,0,0,0,0,0,0,0,0,0,0,0,0,0,0
0,0,0,0,0,0,0,0,0,0,0,0,0,0,0,0,1804,1804,1804,1804,1804,1804,1794,1794,1794,1785,1785,1776,1766,1766,1766,1757,1757,1757,1757,1757,1748,1748,1748,1722,1722,1722,1722,1722,1722,1722,1722,1722,1722,1722,1722,1722,1713,1713,1713,1705,1705,1696,1688,1688,1696,1696,1696,1696,1696,1688,1688,1688,1680,1680,1680,1680,1671,1671,1671,1671,1671,1671,1671,1663,1663,1663,1663,1663,1663,1663,1663,1655,1655,1655,1647,1647,1639,1639,1639,1639,1639,1639,1639,1639,1647,1639,1639,1632,1632,1632,1632,1632,1632,1632,1632,1632,1624,1624,1624,1624,1616,1609,1609,1609,1609,1609,1609,1609,1609,1609,1601,1601,1601,1601,1601,1601,1601,1601,1601,1601,1601,1616,1616,1616,1616,1624,1632,1632,1632,1632,2317,2317,2317,2333,2333,2333,2333,2333,2333,2317,2286,2286,2286,2286,1601,1601,1601,1594,1594,1594,1594,1594,1594,1594,1594,1594,1594,1601,1601,1601,1601,1601,1601,1609,1609,1616,1616,1616,1616,1616,1616,1624,1624,1624,1632,1632,1632,1632,1639,1639,1639,1639,1639,1647,1655,1655,1655,1655,1655,1655,1655,1663,1663,1663,1663,1663,1671,1671,1680,1680,1680,1680,1680,1680,1688,1680,1680,1688,0,0,0,0,0,0,1067,1067,1063,1063,1063,1060,1060,1060,1060,1060,1060,1060,1060,1060,1060,1060,1063,1063,1063,1063,1063,0,0,0,0,1766,1766,1766,1766,1766,1766,1757,1757,1757,1748,1748,1739,1731,1731,1722,1722,1722,1722,1713,1713,1705,1696,1696,1696,1688,1688,1680,1680,1663,1663,1655,1647,943,943,943,940,938,935,933,933,928,925,923,920,918,915,913,913,910,908,903,903,901,898,898,896,896,891,889,887,885,885,0,0,0,0,862,860,851,847,847,845,843,841,839,837,837,835,835,833,833,833,833,833,833,835,835,835,837,837,839,841,843,843,843,845,845,847,0,0,0,0,0,1433,1427,1427,1421,1421,1415,1415,1415,1410,1410,1404,1404,1398,1392,1392,1392,1387,1387,1381,1376,1370,1370,1365,1365,1359,1359,1354,1354,1354,1354,1349,1349,1343,1338,1333,1333,1328,1328,1328,1328,1328,1322,1317,1312,1312,1312,1307,1302,1302,1302,1297,1297,1292,1292,1292,1288,1283,1283,1278,1278,1273,1273,1273,1268,1268,1264,1259,1259,1255,1255,1255,1250,1250,1245,1245,1241,1236,1236,1236,1232,1232,1227,1227,1219,1219,1214,1214,1214,1214,1210,1206,1206,1202,1202,1197,1197,1197,1197,1197,1193,1193,1189,1185,1185,1181,1177,1177,1177,1177,1173,1173,1169,1169,1165,1165,1161,1161,1157,1157,1153,1153,1149,1149,1145,1141,1141,1138,1138,1134,1134,1130,1130,1126,1126,1126,1123,1123,1123,1119,1115,1112,1108,1108,1108,1105,1105,1105,1101,1101,1101,1097,1094,1094,1094,1090,1090,1090,1084,1084,1080,1080,1080,1080,1077,1073,1073,1070,1070,1070,1067,1063,1063,1063,1060,1060,1057,1057,1054,1054,1050,1050,1050,1047,1047,1044,1041,1041,1038,1038,1038,1034,1034,1034,1031,1028,1028,1025,1025,1022,1022,1019,1019,1016,1016,1013,1013,1010,1010,1007,1007,1004,1004,1004,1004,1001,998,998,995,992,989,989,987,987,984,984,981,981,981,978,978,975,973,970,970,967,967,964,962,959,956,956,956,954,951,951,948,946,946,946,943,940,940,0,0,0,0,0,0,0,0,0,0,0,0,0,0,0,0,0,0,0,0,0,0,0,0,0,0,0,0,0,0
0,0,0,0,0,0,0,0,0,0,0,0,0,0,0,0,1813,1804,1804,1804,1804,1804,1794,1794,1794,1785,1785,1776,1766,1766,1766,1757,1757,1757,1757,1757,1748,1748,1748,1722,1722,1722,1722,1722,1722,1722,1722,1722,1722,1722,1722,1722,1722,1713,1713,1705,1705,1696,1696,1696,1696,1696,1696,1696,1696,1688,1688,1688,1680,1680,1680,1680,1671,1671,1671,1671,1671,1671,1671,1663,1663,1663,1671,1663,1663,1663,1663,1663,1655,1655,1647,1647,1639,1639,1639,1639,1639,1639,1639,1639,1647,1639,1639,1632,1632,1632,1632,1632,1632,1632,1632,1632,1624,1624,1624,1624,1616,1609,1609,1609,1616,1609,1609,1609,1609,1609,1609,1601,1601,1601,1601,1601,1601,1601,1601,1601,1601,1616,1616,1616,1616,1624,1632,1632,1632,1632,2333,2333,2333,2333,2333,2333,2333,2333,2317,2301,2271,2271,2271,2271,1601,1601,1601,1601,1594,1594,1594,1594,1594,1594,1594,1594,1594,1601,1601,1601,1601,1601,1601,1616,1616,1616,1616,1616,1616,1624,1624,1624,1624,1624,1632,1632,1632,1632,1639,1639,1639,1639,1639,1655,1655,1655,1655,1655,1655,1655,1663,1663,1671,1671,1671,1671,1680,1680,1680,1680,1680,1680,1680,1680,1688,1680,1680,1688,0,0,0,0,0,0,1070,1070,1067,1063,1063,1060,1060,1060,1060,1060,1060,1060,1060,1060,1060,1063,1063,1063,1063,1063,1063,0,0,0,1766,0,1766,1766,1766,1766,1766,1757,1757,1757,1748,1748,1739,1731,1722,989,987,987,987,1713,1713,1705,1696,970,967,964,964,962,962,962,956,954,948,943,943,943,940,938,935,935,930,928,925,923,920,918,915,913,913,910,908,903,901,901,896,896,898,896,891,889,887,885,880,878,878,878,869,862,860,851,847,847,845,843,841,839,837,837,835,835,833,833,833,833,833,835,835,835,835,837,837,839,841,843,843,843,845,845,847,0,0,0,0,0,1439,1427,1427,1421,1421,1415,1415,1415,1415,1410,1404,1404,1398,1392,1392,1392,1387,1387,1381,1376,1376,1370,1370,1365,1359,1359,1354,1354,1354,1354,1349,1349,1343,1338,1333,1333,1333,1333,1328,1328,1328,1322,1317,1317,1312,1312,1307,1302,1302,1302,1302,1297,1297,1292,1292,1288,1288,1283,1278,1278,1273,1273,1273,1268,1268,1264,1259,1259,1255,1255,1255,1250,1250,1245,1245,1241,1236,1236,1236,1232,1232,1232,1232,1223,1223,1219,1219,1214,1214,1210,1206,1206,1202,1202,1197,1197,1197,1197,1197,1193,1193,1189,1185,1185,1181,1177,1177,1177,1177,1173,1173,1173,1169,1165,1165,1161,1161,1161,1157,1153,1153,1149,1149,1145,1145,1141,1141,1138,1134,1134,1130,1130,1130,1126,1126,1123,1123,1123,1119,1115,1115,1108,1108,1108,1105,1105,1105,1101,1101,1101,1097,1094,1094,1094,1094,1090,1090,1087,1084,1080,1080,1080,1080,1077,1073,1073,1070,1070,1070,1067,1067,1063,1063,1063,1060,1057,1057,1054,1054,1050,1050,1050,1050,1047,1044,1041,1041,1038,1038,1038,1034,1034,1034,1031,1028,1028,1025,1025,1025,1022,1022,1022,1016,1016,1013,1013,1013,1010,1007,1007,1007,1004,1004,1004,1001,1001,998,998,992,992,989,987,987,984,984,981,981,981,981,978,975,973,973,970,970,967,967,964,962,959,956,956,954,954,951,951,948,946,946,943,940,940,0,0,0,0,0,0,0,0,0,0,0,0,0,0,0,0,0,0,0,0,0,0,0,0,0,0,0,0,0,0
0,0,0,0,0,0,0,0,0,0,0,0,0,0,0,0,1813,1804,1804,1804,1804,1804,1794,1794,1794,1794,1785,1776,1766,1766,1766,1766,1766,1766,1757,1757,1766,1757,1748,1722,1722,1722,1722,1722,1722,1722,1722,1722,1722,1722,1722,1722,1722,1713,1713,1713,1713,1705,1696,1696,1696,1696,1696,1696,1696,1696,1688,1688,1688,1688,1680,1680,1680,1671,1671,1671,1671,1663,1663,1663,1663,1663,1671,1671,1663,1663,1663,1663,1655,1655,1647,1647,1647,1647,1647,1647,1647,1647,1647,1647,1647,1647,1639,1639,1639,1632,1632,1632,1632,1632,1632,1632,1632,1632,1624,1624,1624,1616,1616,1616,1616,1616,1616,1616,1616,1609,1609,1609,1601,1601,1601,1601,1601,1601,1601,1601,1609,1616,1616,1616,1624,1624,1632,1632,1632,1632,2333,2333,2333,2317,2317,2317,2317,2317,2317,2256,2226,2198,2198,2198,1601,1601,1601,1601,1601,1601,1594,1594,1594,1594,1594,1601,1594,1594,1594,1601,1601,1601,1601,1616,1616,1616,1616,1616,1624,1624,1624,1624,1624,1632,1632,1632,1632,1632,1639,1639,1639,1639,1639,1655,1655,1655,1655,1663,1663,1663,1663,1663,1663,1671,1671,1671,1680,1680,1688,1680,1680,1680,1680,1688,1688,1688,1680,1680,0,0,0,0,0,1077,1070,1070,1067,1063,1063,1060,1060,1060,1060,1060,1060,1060,1060,1060,1063,1063,1063,1063,1063,1063,1063,0,0,0,0,0,1766,1766,1766,1766,1766,1757,1757,1757,1001,998,998,995,992,989,987,987,987,984,981,978,975,970,967,964,964,962,962,962,956,954,948,946,943,943,943,940,938,935,930,928,925,923,920,918,915,913,910,910,908,906,901,901,896,896,898,896,894,889,885,882,880,878,875,875,869,864,860,851,847,847,845,843,841,839,839,837,835,835,835,835,833,833,835,835,835,835,837,837,839,841,841,843,843,843,845,845,0,0,0,0,0,0,1439,1427,1427,1427,1421,1421,1415,1415,1415,1410,1410,1404,1398,1398,1392,1392,1387,1387,1381,1376,1376,1370,1370,1365,1365,1359,1354,1354,1354,1354,1349,1349,1343,1343,1333,1333,1333,1333,1328,1328,1328,1322,1322,1317,1317,1312,1307,1307,1307,1302,1302,1302,1297,1297,1292,1288,1288,1283,1283,1278,1273,1273,1273,1268,1268,1264,1259,1259,1255,1255,1255,1250,1250,1250,1245,1241,1236,1236,1236,1232,1232,1232,1232,1227,1227,1219,1219,1214,1214,1210,1210,1206,1202,1202,1197,1197,1197,1197,1197,1193,1193,1189,1185,1185,1181,1181,1181,1181,1177,1177,1173,1173,1169,1169,1165,1165,1161,1157,1157,1153,1153,1153,1149,1145,1145,1145,1141,1138,1134,1134,1130,1130,1130,1126,1126,1123,1123,1123,1119,1119,1115,1112,1108,1108,1108,1105,1105,1105,1105,1101,1101,1097,1097,1094,1094,1094,1090,1087,1084,1084,1084,1080,1080,1077,1077,1073,1070,1070,1070,1067,1067,1067,1063,1063,1060,1057,1057,1054,1054,1050,1050,1050,1050,1047,1047,1044,1041,1041,1038,1038,1038,1034,1034,1031,1031,1028,1028,1025,1025,1022,1022,1019,1016,1016,1016,1013,1013,1013,1010,1007,1007,1004,1004,1004,1004,1001,1001,998,995,992,989,989,987,987,984,981,981,981,981,978,975,973,973,970,970,970,967,967,962,959,956,956,956,954,951,951,948,948,946,943,940,940,0,0,0,0,0,0,0,0,0,0,0,0,0,0,0,0,0,0,0,0,0,0,0,0,0,0,0,0,0,0
0,0,0,0,0,0,0,0,0,0,0,0,0,0,0,0,1804,1804,1804,1804,1804,1804,1794,1794,1794,1794,1794,1785,1766,1766,1766,1766,1766,1766,1766,1766,1766,1757,1757,1731,1722,1722,1731,1722,1722,1722,1722,1722,1722,1722,1722,1722,1722,1713,1713,1713,1713,1713,1705,1705,1705,1705,1705,1696,1696,1696,1688,1688,1688,1688,1680,1680,1680,1680,1671,1671,1671,1663,1663,1663,1663,1663,1671,1671,1663,1663,1663,1663,1655,1655,1647,1647,1647,1647,1647,1647,1647,1647,1647,1647,1647,1647,1647,1639,1639,1632,1632,1632,1632,1632,1632,1632,1632,1632,1632,1624,1624,1624,1616,1616,1616,1616,1616,1616,1616,1616,1616,1609,1601,1601,1609,1609,1609,1609,1609,1609,1609,1616,1616,1616,1624,1624,1632,1632,1632,1632,1647,2333,2333,2271,2241,2241,2256,2256,2241,2212,2184,2170,2170,2170,1601,1601,1601,1601,1601,1601,1601,1594,1594,1594,1594,1601,1594,1594,1594,1601,1601,1601,1601,1624,1624,1624,1624,1624,1624,1624,1624,1624,1632,1632,1632,1632,1632,1632,1639,1639,1639,1639,1647,1655,1655,1655,1655,1663,1663,1663,1663,1663,1663,1663,1671,1671,1680,1680,1680,1680,1680,1680,1680,1688,1688,1688,1680,1680,0,0,0,0,0,1073,1070,1070,1067,1063,1063,1063,1060,1060,1060,1060,1060,1060,1060,1063,1063,1067,1067,1067,1063,1063,1063,0,1073,0,0,0,1766,1766,1766,1766,1013,1013,1010,1010,1001,998,998,995,992,989,989,987,987,984,978,978,975,973,970,967,964,962,962,962,959,954,948,946,943,943,943,940,938,935,933,930,925,925,920,918,915,913,910,908,908,906,901,901,896,896,898,896,891,887,885,880,880,878,875,875,869,867,860,851,849,847,845,843,843,839,839,837,837,835,835,835,835,835,835,835,835,835,837,837,839,841,841,843,843,845,845,845,849,0,0,0,0,0,1439,1427,1427,1427,1427,1421,1421,1415,1415,1415,1410,1410,1404,1398,1392,1392,1392,1387,1381,1376,1376,1370,1370,1370,1365,1365,1359,1359,1354,1354,1354,1349,1343,1343,1338,1338,1333,1333,1328,1328,1328,1328,1322,1322,1317,1312,1307,1307,1307,1307,1307,1302,1302,1297,1292,1292,1288,1283,1283,1278,1273,1273,1273,1268,1268,1264,1264,1264,1255,1255,1255,1255,1250,1250,1245,1241,1236,1236,1236,1232,1232,1232,1232,1227,1227,1219,1219,1219,1214,1214,1214,1214,1202,1202,1197,1197,1197,1197,1197,1193,1193,1189,1185,1185,1181,1181,1181,1181,1177,1177,1173,1169,1169,1169,1165,1161,1161,1157,1157,1153,1153,1153,1149,1145,1145,1145,1141,1138,1134,1134,1134,1130,1130,1130,1126,1126,1123,1123,1119,1119,1115,1112,1108,1108,1108,1105,1105,1105,1105,1105,1101,1097,1097,1097,1094,1094,1090,1090,1087,1084,1084,1080,1080,1077,1077,1073,1070,1070,1070,1067,1067,1067,1063,1063,1060,1057,1057,1054,1054,1050,1050,1050,1050,1047,1044,1044,1041,1041,1038,1038,1038,1034,1034,1031,1031,1028,1028,1025,1025,1022,1022,1019,1016,1016,1016,1013,1013,1013,1010,1007,1007,1004,1004,1004,1004,1001,1001,998,995,992,992,989,989,987,984,984,984,981,981,978,975,973,973,970,970,970,967,967,964,962,959,956,956,954,951,951,948,948,946,943,940,940,0,0,0,0,0,0,0,0,0,0,0,0,0,0,0,0,0,0,0,0,0,0,0,0,0,0,0,0,0,0
0,0,0,0,0,0,0,0,0,0,0,0,0,0,0,0,1804,1804,1804,1804,1804,1804,1794,1794,1794,1785,1785,1785,1776,1766,1766,1766,1766,1766,1766,1766,1766,1757,1757,1748,1731,1731,1731,1722,1722,1722,1722,1722,1722,1722,1722,1722,1722,1722,1713,1713,1713,1713,1705,1705,1705,1705,1705,1696,1696,1696,1688,1688,1688,1688,1688,1688,1680,1680,1671,1671,1671,1671,1671,1663,1663,1663,1671,1671,1671,1663,1663,1663,1655,1655,1655,1647,1647,1647,1647,1647,1647,1647,1647,1647,1647,1647,1639,1639,1639,1639,1632,1632,1632,1632,1632,1632,1632,1632,1632,1624,1624,1624,1616,1616,1616,1616,1616,1616,1616,1616,1616,1616,1609,1609,1609,1609,1609,1609,1609,1609,1616,1616,1616,1616,1624,1624,1624,1624,1632,1632,1647,1647,2241,2241,2226,2226,2226,2212,2198,2198,2184,2170,2170,2170,2170,1601,1601,1601,1601,1601,1601,1594,1594,1594,1594,1601,1601,1601,1609,1601,1601,1601,1601,1624,1624,1624,1624,1624,1624,1624,1624,1624,1632,1632,1632,1632,1639,1639,1639,1639,1639,1639,1639,1647,1655,1655,1663,1663,1663,1663,1663,1663,1663,1663,1671,1671,1680,1680,1680,1680,1680,1680,1688,1688,1688,1688,1688,0,0,0,0,0,1077,1073,1073,1070,1070,1063,1063,1063,1060,1060,1060,1060,1060,1060,1060,1063,1063,1067,1067,1067,1063,1063,1067,1073,1073,1034,1028,1776,1776,1766,1766,1016,1013,1013,1010,1010,1001,1001,998,998,995,992,989,989,987,984,978,978,978,975,970,967,964,964,964,962,959,954,951,946,943,943,943,940,938,938,933,930,928,925,923,918,915,913,910,908,908,906,901,901,898,898,898,896,891,887,882,880,880,878,878,875,871,867,860,851,849,847,845,843,843,839,839,837,835,835,835,835,835,835,835,835,837,837,837,837,839,841,841,843,845,845,847,847,849,0,0,0,0,0,0,1427,1427,1433,1427,1421,1421,1421,1415,1415,1410,1410,1404,1398,1398,1392,1392,1387,1381,1381,1381,1376,1370,1370,1370,1365,1359,1359,1359,1354,1354,1349,1349,1343,1343,1338,1333,1333,1333,1328,1328,1328,1322,1322,1322,1312,1312,1307,1307,1307,1307,1302,1302,1297,1297,1292,1292,1288,1288,1278,1273,1273,1273,1268,1268,1264,1264,1264,1255,1255,1255,1255,1250,1250,1245,1245,1236,1236,1236,1232,1232,1232,1232,1227,1227,1223,1219,1219,1214,1214,1214,1214,1206,1202,1197,1197,1197,1197,1197,1197,1197,1189,1185,1185,1185,1181,1181,1181,1181,1177,1173,1169,1169,1169,1165,1161,1161,1157,1157,1153,1153,1149,1149,1145,1145,1145,1141,1138,1138,1134,1134,1134,1134,1130,1130,1130,1126,1123,1123,1119,1115,1112,1108,1108,1105,1105,1105,1105,1105,1105,1101,1097,1097,1097,1094,1094,1090,1087,1087,1084,1084,1080,1080,1080,1077,1073,1073,1070,1070,1067,1067,1067,1063,1063,1060,1057,1057,1054,1054,1050,1050,1050,1050,1047,1044,1044,1041,1041,1038,1038,1038,1034,1034,1031,1031,1028,1028,1025,1025,1025,1019,1019,1016,1016,1016,1013,1013,1013,1010,1007,1007,1004,1004,1004,1004,1001,1001,998,995,995,992,989,989,987,987,984,984,984,981,978,975,973,973,970,970,970,967,967,967,964,959,959,956,954,954,951,951,948,948,946,943,943,0,0,0,0,0,0,0,0,0,0,0,0,0,0,0,0,0,0,0,0,0,0,0,0,0,0,0,0,0,0
0,0,0,0,0,0,0,0,0,0,0,0,0,0,0,0,1804,1804,1804,1804,1804,1794,1794,1794,1794,1785,1785,1785,1776,1776,1766,1766,1766,1766,1757,1757,1766,1757,1757,1748,1748,1748,1739,1731,1731,1722,1722,1722,1722,1722,1722,1722,1722,1722,1713,1713,1713,1713,1705,1705,1705,1705,1696,1696,1696,1696,1688,1688,1688,1688,1688,1688,1680,1680,1671,1671,1671,1671,1671,1663,1663,1663,1671,1671,1671,1671,1671,1663,1655,1655,1655,1655,1655,1655,1647,1647,1647,1647,1647,1647,1647,1639,1639,1639,1639,1639,1632,1632,1639,1639,1639,1632,1632,1632,1632,1632,1624,1624,1616,1616,1616,1616,1616,1616,1616,1616,1616,1609,1609,1609,1609,1609,1609,1609,1609,1609,1616,1616,1616,1616,1624,1624,1624,1624,1639,1647,1647,1647,2226,2226,2212,2212,2198,2184,2184,2184,2170,2170,2170,2170,2170,2170,1601,1601,1601,1601,1601,1594,1594,1601,1601,1601,1601,1601,1609,1601,1601,1601,1601,1624,1624,1616,1616,1624,1624,1624,1624,1632,1632,1632,1632,1632,1639,1639,1639,1639,1639,1639,1639,1647,1655,1655,1655,1663,1663,1663,1663,1663,1663,1663,1671,1671,1680,1688,1680,1680,1688,1688,1688,1688,1688,1688,1688,0,0,0,0,0,1077,1073,1073,1070,1070,1063,1063,1063,1060,1060,1060,1060,1060,1060,1063,1063,1067,1067,1067,1067,1063,1063,1067,1070,1038,1034,1028,1025,1022,1019,1016,1016,1013,1013,1010,1007,1004,1001,1001,998,995,992,992,989,987,984,984,978,978,975,970,967,964,964,962,962,959,954,951,946,946,946,943,940,938,938,933,930,928,925,923,920,915,913,910,908,908,906,903,901,898,898,898,896,891,887,882,880,880,878,878,875,871,867,860,854,849,847,845,843,843,839,839,837,835,835,835,835,835,835,835,837,837,837,837,839,839,841,843,843,845,845,847,847,849,0,0,0,0,0,0,1433,1433,1433,1427,1427,1421,1421,1415,1415,1410,1410,1410,1404,1398,1392,1392,1387,1381,1381,1381,1376,1376,1370,1370,1370,1365,1365,1359,1359,1354,1349,1349,1349,1349,1343,1338,1333,1333,1333,1328,1328,1328,1328,1322,1317,1312,1312,1312,1307,1307,1307,1307,1302,1297,1292,1292,1288,1288,1278,1278,1273,1273,1268,1268,1264,1264,1264,1255,1255,1255,1255,1250,1250,1245,1245,1241,1236,1236,1232,1232,1232,1232,1227,1227,1223,1223,1219,1219,1214,1214,1214,1206,1202,1202,1197,1197,1197,1197,1197,1197,1189,1189,1185,1185,1185,1181,1181,1181,1181,1177,1173,1169,1169,1165,1165,1161,1157,1157,1153,1153,1149,1149,1145,1145,1145,1141,1138,1138,1138,1134,1134,1134,1130,1130,1130,1126,1123,1123,1119,1119,1112,1108,1108,1105,1105,1105,1105,1105,1105,1101,1097,1097,1097,1094,1094,1090,1087,1087,1087,1084,1084,1080,1080,1077,1073,1073,1070,1070,1067,1067,1067,1063,1063,1060,1057,1057,1054,1054,1050,1050,1050,1050,1047,1044,1044,1041,1041,1038,1038,1038,1038,1038,1034,1031,1028,1028,1025,1025,1025,1019,1019,1016,1016,1016,1016,1013,1013,1010,1010,1007,1007,1007,1004,1004,1001,1001,998,995,995,992,992,989,989,987,984,984,984,981,978,975,973,973,970,970,970,967,967,967,964,962,959,959,954,954,951,951,951,948,946,943,943,0,0,0,0,0,0,0,0,0,0,0,0,0,0,0,0,0,0,0,0,0,0,0,0,0,0,0,0,0,0
0,0,0,0,0,0,0,0,0,0,0,0,0,0,0,0,1794,1794,1804,1804,1804,1794,1794,1794,1794,1785,1785,1785,1776,1776,1766,1766,1766,1766,1757,1757,1766,1757,1757,1748,1748,1748,1739,1731,1731,1731,1731,1731,1731,1731,1722,1722,1722,1713,1713,1713,1722,1713,1713,1705,1705,1696,1696,1696,1696,1696,1688,1688,1688,1688,1688,1688,1688,1680,1680,1680,1671,1671,1671,1671,1671,1671,1671,1671,1671,1671,1671,1663,1663,1655,1655,1655,1655,1655,1655,1647,1647,1647,1647,1647,1647,1639,1639,1639,1639,1639,1632,1632,1632,1639,1632,1632,1632,1632,1632,1632,1624,1624,1616,1616,1616,1616,1616,1616,1616,1616,1616,1609,1609,1609,1609,1609,1616,1616,1616,1616,1616,1616,1616,1624,1624,1632,1632,1632,1632,1639,1632,1632,2212,2212,2198,2198,2184,2170,2170,2170,2170,2170,2170,2170,2170,2170,1601,1601,1601,1601,1601,1594,1594,1601,1601,1601,1601,1601,1609,1609,1609,1601,1601,1609,1616,1616,1616,1624,1624,1624,1632,1632,1632,1632,1632,1639,1639,1639,1639,1639,1639,1647,1647,1655,1655,1655,1655,1663,1663,1663,1663,1663,1663,1663,1671,1671,1671,1688,1680,1680,1688,1688,1688,1688,1688,1688,1688,1688,1688,0,0,0,1077,1073,1073,1070,1070,1067,1063,1063,1060,1060,1060,1060,1060,1063,1063,1063,1067,1067,1067,1067,1067,1067,1063,1038,1034,1031,1028,1025,1022,1019,1016,1016,1013,1013,1010,1007,1004,1001,1001,998,995,992,992,989,987,984,984,981,978,975,970,967,964,964,962,962,959,954,951,948,946,946,943,943,940,938,933,930,930,928,925,920,918,915,913,910,908,906,903,901,898,898,898,896,891,885,880,880,880,878,875,873,871,867,860,854,849,847,845,843,843,841,839,837,837,835,835,835,835,835,835,837,837,837,837,839,841,841,843,843,845,845,847,847,849,0,0,0,0,0,0,1433,1433,1433,1433,1427,1421,1421,1415,1415,1415,1415,1410,1404,1398,1392,1392,1392,1387,1387,1381,1376,1376,1370,1370,1370,1365,1365,1359,1359,1354,1349,1349,1349,1349,1343,1343,1338,1333,1333,1328,1328,1328,1328,1322,1317,1317,1312,1312,1312,1307,1307,1307,1297,1297,1292,1292,1292,1283,1278,1278,1273,1273,1273,1268,1268,1264,1264,1259,1259,1255,1255,1250,1250,1245,1245,1241,1241,1236,1236,1232,1232,1232,1227,1227,1227,1223,1219,1219,1214,1214,1214,1210,1206,1202,1202,1197,1197,1197,1197,1197,1189,1189,1185,1185,1185,1185,1185,1181,1181,1177,1173,1173,1169,1165,1165,1161,1157,1153,1153,1153,1149,1149,1145,1145,1145,1141,1138,1138,1138,1134,1134,1134,1134,1130,1130,1126,1123,1123,1123,1119,1112,1112,1108,1108,1108,1105,1105,1105,1105,1101,1101,1097,1097,1094,1094,1090,1090,1087,1087,1084,1084,1080,1080,1077,1077,1073,1070,1070,1067,1067,1067,1063,1063,1063,1060,1057,1054,1054,1050,1050,1050,1050,1047,1044,1044,1041,1041,1038,1038,1038,1038,1038,1034,1034,1031,1028,1028,1025,1025,1022,1022,1019,1019,1016,1016,1013,1013,1013,1010,1010,1007,1007,1004,1004,1004,1001,998,998,995,992,992,989,989,987,987,987,984,984,978,975,973,973,970,970,970,967,967,967,967,964,962,959,956,956,951,951,948,948,946,946,946,0,0,0,0,0,0,0,0,0,0,0,0,0,0,0,0,0,0,0,0,0,0,0,0,0,0,0,0,0,0
0,0,0,0,0,0,0,0,0,0,0,0,0,0,0,0,1794,1794,1804,1813,1804,1804,1794,1794,1785,1785,1785,1785,1785,1776,1766,1766,1766,1766,1766,1766,1766,1757,1757,1748,1748,1748,1739,1739,1731,1731,1731,1731,1731,1731,1722,1722,1722,1713,1713,1713,1722,1713,1713,1705,1705,1696,1696,1696,1696,1696,1688,1688,1688,1688,1688,1688,1688,1688,1680,1680,1671,1671,1671,1671,1671,1671,1671,1671,1671,1671,1671,1663,1663,1663,1655,1655,1655,1655,1655,1655,1655,1647,1647,1647,1647,1639,1639,1639,1639,1639,1632,1632,1632,1639,1632,1632,1632,1632,1632,1632,1624,1624,1624,1624,1624,1616,1616,1616,1616,1616,1616,1616,1609,1609,1609,1609,1616,1616,1616,1616,1616,1616,1624,1624,1624,1632,1632,1632,1632,1632,1632,1632,2212,2212,2198,2184,2170,2170,2170,2170,2170,2170,2156,2156,2170,2170,1601,1601,1601,1601,1601,1601,1601,1601,1601,1601,1601,1601,1609,1609,1609,1609,1609,1609,1616,1616,1624,1624,1624,1624,1632,1632,1632,1632,1632,1639,1639,1639,1639,1639,1639,1647,1647,1655,1655,1663,1663,1663,1663,1663,1663,1663,1663,1663,1671,1671,1671,1680,1688,1688,1688,1688,1688,1688,1688,1688,1688,1688,1688,1688,0,0,1077,1073,1073,1070,1070,1067,1063,1063,1060,1060,1060,1060,1063,1063,1063,1063,1067,1067,1067,1067,1067,1067,1063,1034,1034,1031,1028,1025,1022,1022,1019,1016,1013,1013,1010,1007,1004,1004,1001,998,995,992,992,989,989,987,984,981,978,975,970,967,967,964,964,962,956,954,951,951,948,946,946,943,940,938,933,930,930,928,925,920,918,915,913,910,908,906,903,901,898,898,898,896,891,885,880,880,880,878,875,873,869,867,860,854,851,847,845,843,843,841,841,837,837,835,835,835,835,835,835,837,837,837,839,839,841,843,843,843,845,845,847,847,847,0,0,0,0,0,0,1433,1433,1433,1433,1427,1421,1421,1415,1415,1415,1415,1410,1404,1398,1398,1392,1392,1387,1387,1381,1376,1376,1376,1370,1370,1370,1370,1365,1365,1354,1354,1349,1349,1349,1349,1343,1338,1338,1333,1333,1328,1328,1328,1322,1322,1317,1312,1312,1312,1307,1307,1307,1297,1297,1292,1292,1292,1283,1283,1278,1273,1273,1273,1268,1268,1268,1268,1259,1259,1255,1255,1250,1250,1250,1245,1241,1241,1236,1236,1236,1236,1232,1232,1232,1227,1227,1219,1219,1219,1214,1214,1210,1206,1202,1202,1197,1197,1197,1197,1197,1189,1189,1189,1185,1185,1185,1185,1181,1181,1177,1173,1169,1169,1165,1165,1161,1157,1153,1153,1153,1153,1149,1149,1149,1145,1141,1141,1138,1138,1138,1134,1134,1134,1130,1130,1123,1123,1123,1123,1119,1115,1112,1112,1108,1108,1108,1105,1105,1105,1101,1101,1097,1097,1094,1094,1090,1090,1090,1087,1087,1084,1080,1080,1077,1077,1073,1073,1070,1070,1067,1067,1063,1063,1063,1060,1060,1054,1054,1050,1050,1050,1050,1047,1044,1044,1041,1041,1038,1038,1038,1038,1038,1034,1034,1031,1028,1028,1028,1025,1022,1022,1019,1019,1016,1016,1013,1013,1013,1010,1010,1007,1007,1007,1004,1004,1001,998,998,995,995,992,992,989,989,989,989,987,984,978,975,975,973,973,970,970,967,967,967,967,964,964,964,959,956,954,954,948,948,946,946,946,0,0,0,0,0,0,0,0,0,0,0,0,0,0,0,0,0,0,0,0,0,0,0,0,0,0,0,0,0,0
0,0,0,0,0,0,0,0,0,0,0,0,0,0,0,0,1794,1794,1804,1813,1804,1804,1794,1794,1785,1785,1785,1785,1785,1776,1766,1766,1766,1766,1766,1766,1766,1757,1757,1748,1748,1748,1739,1739,1731,1731,1731,1731,1731,1731,1731,1722,1722,1722,1722,1722,1722,1713,1713,1713,1705,1705,1696,1696,1696,1696,1696,1696,1696,1696,1696,1688,1688,1688,1688,1688,1680,1680,1671,1671,1671,1671,1671,1671,1671,1671,1671,1663,1663,1663,1663,1663,1663,1655,1655,1655,1655,1663,1655,1647,1647,1639,1639,1639,1639,1639,1639,1639,1639,1639,1639,1632,1632,1632,1632,1632,1632,1624,1624,1624,1624,1616,1616,1616,1616,1616,1616,1616,1616,1616,1616,1616,1616,1616,1616,1616,1616,1616,1624,1624,1624,1632,1632,1632,1632,1632,1624,1624,2198,2198,2198,2184,2170,2170,2170,2170,2170,2156,2156,2156,2156,2156,1601,1601,1601,1601,1601,1601,1601,1601,1601,1601,1601,1601,1609,1609,1609,1601,1601,1609,1616,1624,1624,1624,1624,1632,1632,1632,1632,1639,1639,1639,1639,1639,1639,1647,1647,1647,1655,1655,1655,1663,1663,1663,1663,1663,1663,1663,1663,1663,1663,1671,1671,1680,1680,1688,1688,1688,1688,1696,1696,1696,1688,1688,1688,1688,1688,0,1077,1073,1073,1070,1070,1070,1063,1063,1060,1060,1060,1060,1063,1063,1063,1063,1067,1067,1067,1067,1067,1067,1038,1034,1034,1031,1028,1025,1025,1022,1019,1016,1013,1013,1010,1007,1004,1004,1001,998,995,992,992,989,989,987,984,981,978,975,970,967,967,964,962,962,956,954,954,951,948,946,946,943,940,938,935,933,930,928,925,920,918,915,913,910,908,906,903,901,898,898,898,896,889,885,882,880,880,878,875,873,869,867,860,854,851,847,845,845,843,843,841,837,837,835,835,835,835,835,835,837,837,837,839,839,841,843,843,845,845,845,847,847,847,0,0,0,0,0,0,1433,1433,1433,1433,1433,1421,1421,1421,1415,1415,1415,1410,1404,1398,1398,1392,1392,1387,1387,1381,1376,1376,1376,1370,1370,1370,1370,1370,1365,1365,1354,1354,1354,1349,1349,1349,1338,1338,1333,1333,1328,1328,1328,1328,1322,1322,1317,1317,1312,1307,1307,1302,1297,1297,1292,1292,1288,1288,1283,1278,1278,1273,1273,1273,1273,1268,1268,1264,1259,1255,1255,1250,1250,1250,1250,1245,1241,1241,1236,1236,1236,1232,1232,1232,1227,1227,1223,1219,1219,1219,1214,1210,1210,1202,1202,1202,1197,1197,1197,1197,1189,1189,1189,1189,1185,1185,1185,1181,1181,1177,1173,1169,1169,1165,1165,1161,1161,1157,1153,1153,1153,1149,1149,1149,1145,1145,1141,1138,1138,1138,1138,1134,1134,1130,1130,1123,1123,1123,1123,1119,1115,1115,1115,1112,1108,1108,1105,1105,1105,1105,1101,1097,1094,1094,1094,1090,1090,1090,1087,1087,1084,1080,1080,1077,1077,1077,1073,1070,1070,1070,1067,1063,1063,1063,1063,1060,1057,1054,1050,1050,1050,1050,1047,1047,1044,1044,1041,1041,1038,1038,1038,1038,1034,1034,1031,1031,1028,1028,1025,1022,1022,1019,1019,1016,1016,1016,1016,1016,1013,1013,1010,1010,1007,1004,1004,1001,998,998,995,995,992,992,989,989,989,989,987,984,978,978,975,975,973,970,970,970,970,967,967,964,964,964,962,959,956,956,951,948,948,946,946,0,0,0,0,0,0,0,0,0,0,0,0,0,0,0,0,0,0,0,0,0,0,0,0,0,0,0,0,0,0
0,0,0,0,0,0,0,0,0,0,0,0,0,0,0,0,1823,1813,1813,1813,1804,1804,1794,1794,1794,1785,1785,1776,1776,1766,1766,1766,1766,1766,1766,1766,1766,1757,1757,1748,1748,1748,1748,1739,1739,1731,1731,1731,1731,1731,1731,1722,1722,1722,1722,1722,1722,1713,1713,1713,1705,1705,1696,1696,1696,1696,1696,1696,1696,1696,1696,1696,1688,1688,1688,1688,1680,1680,1680,1680,1680,1671,1671,1671,1663,1663,1663,1663,1663,1663,1663,1663,1663,1655,1655,1655,1655,1655,1655,1655,1647,1647,1647,1647,1647,1639,1639,1639,1639,1639,1639,1639,1639,1639,1639,1632,1632,1624,1624,1624,1624,1624,1624,1616,1616,1616,1616,1616,1616,1616,1616,1616,1616,1616,1616,1616,1616,1616,1624,1624,1624,1624,1632,1632,1632,1624,1624,1624,2198,2198,2198,2184,2170,2170,2156,2156,2156,2156,2156,2156,2156,0,0,1609,1609,1601,1601,1601,1601,1601,1601,1601,1601,1601,1609,1609,1609,1601,1601,1609,1609,1616,1616,1616,1624,1632,1632,1632,1632,1639,1639,1647,1647,1647,1647,1647,1647,1647,1655,1655,1655,1663,1663,1663,1663,1663,1663,1663,1663,1663,1663,1671,1671,1680,1680,1688,1688,1688,1688,1696,1696,1696,1696,1688,1688,1688,0,0,1077,1073,1073,1070,1070,1070,1063,1063,1060,1060,1060,1060,1063,1063,1063,1063,1067,1067,1067,1067,1067,1067,1038,1034,1031,1031,1028,1025,1025,1022,1019,1016,1016,1013,1010,1007,1007,1004,1001,998,995,992,992,989,989,987,984,981,978,975,970,970,967,964,962,962,956,954,954,954,951,948,946,943,940,938,935,933,930,928,925,920,918,915,913,910,908,906,903,903,901,901,898,894,889,882,882,880,880,878,875,873,869,867,860,856,854,849,847,845,845,843,841,837,837,837,835,835,835,835,835,837,837,839,839,841,843,843,843,845,845,845,847,845,845,0,0,0,0,0,0,1439,1439,1439,1439,1427,1421,1421,1421,1415,1415,1415,1410,1404,1404,1398,1398,1392,1392,1392,1387,1381,1376,1376,1376,1370,1370,1370,1370,1370,1365,1359,1354,1354,1349,1349,1343,1343,1338,1338,1333,1333,1328,1328,1328,1322,1322,1317,1317,1312,1307,1307,1302,1297,1297,1292,1292,1288,1288,1283,1283,1278,1278,1278,1273,1273,1268,1268,1264,1264,1259,1255,1255,1250,1250,1250,1245,1245,1245,1241,1236,1236,1232,1232,1232,1227,1227,1223,1219,1219,1219,1214,1210,1210,1206,1202,1202,1202,1197,1197,1197,1193,1193,1189,1189,1185,1185,1185,1181,1181,1177,1173,1169,1169,1165,1165,1165,1161,1157,1153,1153,1153,1153,1149,1149,1145,1145,1141,1141,1138,1138,1138,1134,1134,1134,1130,1123,1123,1123,1123,1119,1115,1115,1115,1112,1108,1108,1108,1105,1105,1101,1101,1097,1094,1094,1094,1090,1090,1090,1090,1087,1087,1084,1080,1080,1077,1077,1073,1073,1070,1070,1067,1063,1063,1063,1063,1060,1057,1057,1054,1054,1054,1050,1047,1047,1044,1044,1041,1041,1038,1038,1038,1038,1038,1034,1031,1031,1028,1028,1025,1025,1022,1022,1019,1019,1016,1016,1016,1016,1013,1013,1010,1010,1007,1004,1004,1001,998,998,998,995,992,992,992,989,989,989,987,987,984,978,978,975,973,970,970,970,970,967,967,967,964,964,962,959,956,956,951,948,948,946,946,0,0,0,0,0,0,0,0,0,0,0,0,0,0,0,0,0,0,0,0,0,0,0,0,0,0,0,0,0,0
0,0,0,0,0,0,0,0,0,0,0,0,0,0,0,0,1823,1823,1813,1813,1813,1804,1794,1794,1794,1785,1785,1776,1776,1766,1766,1766,1766,1766,1766,1766,1766,1757,1757,1757,1757,1748,1748,1739,1739,1739,1731,1731,1731,1731,1731,1731,1722,1722,1722,1722,1713,1713,1713,1713,1713,1705,1696,1696,1696,1696,1696,1696,1696,1696,1696,1696,1696,1688,1688,1688,1688,1680,1680,1680,1680,1680,1680,1671,1663,1663,1663,1663,1663,1663,1663,1663,1663,1663,1663,1663,1663,1655,1655,1655,1647,1647,1647,1647,1639,1639,1639,1639,1639,1639,1639,1639,1639,1639,1639,1632,1632,1632,1632,1624,1624,1624,1624,1624,1624,1624,1616,1616,1616,1616,1616,1616,1616,1616,1616,1616,1616,1616,1624,1624,1624,1624,1624,1632,1624,1616,1616,1616,2184,2184,2184,2184,2170,2170,2156,2156,2156,2143,2143,2156,2156,2156,0,1609,1609,1609,1609,1609,1601,1601,1601,1601,1601,1601,1609,1609,1609,1609,1609,1609,1609,1616,1616,1616,1632,1632,1632,1632,1632,1639,1639,1647,1647,1647,1647,1647,1647,1655,1655,1655,1655,1663,1663,1663,1663,1663,1663,1663,1663,1671,1671,1671,1671,1680,1680,1688,1688,1688,1688,1696,1696,1696,1696,1696,1696,1696,0,0,1077,1073,1073,1073,1070,1070,1063,1063,1063,1060,1060,1060,1063,1063,1063,1063,1063,1067,1067,1067,1063,1041,1034,1034,1031,1031,1028,1025,1025,1022,1019,1016,1016,1013,1010,1010,1007,1004,1001,1001,998,995,992,989,989,987,984,981,978,975,973,970,967,964,962,962,956,956,954,954,951,948,946,943,940,938,935,933,930,928,925,920,918,915,913,910,908,906,903,903,901,901,898,894,889,882,882,880,880,878,875,873,869,867,860,856,854,851,849,847,845,843,841,839,839,837,837,837,837,837,837,837,839,839,839,841,843,843,845,845,847,847,847,845,845,0,0,0,0,0,1439,1439,1439,1433,1433,1427,1421,1421,1421,1415,1415,1415,1410,1404,1404,1398,1398,1392,1392,1392,1387,1381,1376,1376,1376,1370,1370,1370,1370,1370,1365,1359,1354,1354,1349,1349,1343,1343,1338,1338,1333,1333,1333,1333,1328,1322,1322,1317,1317,1312,1307,1307,1302,1297,1297,1292,1292,1288,1288,1288,1283,1283,1278,1278,1273,1273,1273,1268,1268,1264,1259,1255,1255,1250,1250,1250,1250,1245,1245,1241,1241,1236,1236,1232,1232,1232,1227,1223,1219,1219,1219,1214,1210,1210,1206,1206,1202,1202,1197,1197,1197,1193,1193,1193,1189,1185,1185,1185,1181,1181,1177,1173,1169,1169,1169,1165,1165,1161,1157,1157,1153,1153,1153,1149,1149,1145,1145,1141,1141,1138,1138,1138,1134,1134,1134,1130,1126,1126,1123,1123,1123,1119,1119,1115,1112,1112,1108,1108,1105,1105,1101,1101,1097,1094,1094,1094,1094,1090,1090,1090,1087,1087,1084,1080,1080,1077,1077,1073,1073,1070,1070,1067,1067,1063,1063,1063,1060,1057,1057,1054,1054,1054,1050,1050,1047,1047,1044,1041,1041,1038,1038,1038,1038,1038,1034,1034,1031,1028,1028,1025,1025,1025,1022,1022,1019,1016,1016,1016,1016,1013,1013,1010,1010,1007,1004,1001,1001,1001,998,998,995,992,992,992,989,989,989,989,987,984,984,978,975,975,973,973,970,970,967,967,967,964,964,962,959,956,956,951,948,948,948,948,0,0,0,0,0,0,0,0,0,0,0,0,0,0,0,0,0,0,0,0,0,0,0,0,0,0,0,0,0,0
0,0,0,0,0,0,0,0,0,0,0,0,0,0,0,0,1823,1823,1823,1813,1813,1804,1804,1794,1794,1785,1785,1776,1776,1776,1776,1776,1776,1766,1766,1766,1766,1757,1757,1757,1757,1748,1748,1739,1739,1739,1731,1731,1731,1731,1731,1731,1722,1722,1722,1722,1713,1713,1713,1713,1713,1705,1696,1696,1696,1696,1696,1696,1696,1696,1696,1696,1696,1688,1688,1688,1688,1680,1680,1680,1680,1680,1680,1671,1663,1663,1663,1663,1663,1663,1663,1663,1663,1663,1663,1663,1663,1663,1663,1655,1647,1647,1647,1647,1639,1639,1639,1639,1639,1639,1639,1639,1639,1639,1639,1639,1639,1632,1632,1624,1624,1624,1624,1624,1624,1624,1616,1616,1616,1616,1616,1616,1616,1624,1616,1616,1616,1624,1624,1624,1624,1624,1624,1632,1601,1594,1594,1586,1586,2184,2184,2170,2170,2170,2156,2156,2156,2143,2143,0,2143,0,0,0,1616,1609,1609,1609,1601,1601,1601,1601,1601,1609,1609,1609,1609,1609,1609,1616,1616,1616,1616,1616,1624,1632,1632,1632,1632,1639,1639,1639,1647,1647,1655,1655,1655,1655,1655,1655,1655,1663,1663,1663,1663,1663,1663,1663,1663,1671,1671,1671,1671,1680,1680,1688,1688,1688,1688,1688,1688,1688,1696,1688,1688,0,0,0,1077,1073,1073,1073,1070,1070,1067,1063,1063,1060,1060,1060,1063,1063,1063,1063,1063,1063,1063,1060,1054,1041,1034,1034,1031,1031,1028,1025,1025,1022,1019,1016,1016,1013,1010,1010,1007,1004,1001,1001,998,995,992,989,989,987,984,978,975,975,973,973,970,967,964,959,956,956,954,954,951,948,946,943,940,938,935,933,930,928,925,920,918,915,915,913,908,906,903,903,901,901,898,894,891,882,882,880,880,878,875,873,869,867,862,858,856,851,849,847,845,843,841,839,839,837,837,837,837,837,837,837,839,839,841,841,843,845,845,847,847,847,847,847,0,0,0,0,0,0,1439,1439,1439,1433,1433,1427,1427,1421,1421,1415,1415,1415,1410,1404,1404,1398,1398,1398,1392,1392,1387,1381,1376,1376,1376,1370,1370,1370,1370,1370,1365,1359,1354,1354,1354,1349,1343,1343,1338,1338,1333,1333,1333,1333,1328,1328,1322,1322,1317,1312,1312,1307,1302,1302,1297,1297,1292,1288,1288,1288,1283,1283,1278,1278,1273,1273,1273,1273,1268,1268,1259,1255,1255,1250,1250,1250,1250,1245,1245,1245,1245,1241,1236,1236,1232,1232,1227,1223,1219,1219,1219,1214,1210,1210,1206,1206,1206,1202,1197,1197,1197,1193,1193,1193,1189,1189,1185,1185,1181,1181,1177,1177,1169,1169,1169,1169,1165,1165,1161,1157,1157,1153,1153,1153,1149,1145,1145,1141,1141,1138,1138,1138,1134,1134,1134,1130,1126,1126,1123,1123,1123,1119,1119,1119,1115,1112,1112,1108,1108,1105,1105,1101,1101,1097,1094,1094,1094,1094,1090,1090,1090,1087,1087,1084,1080,1080,1077,1077,1073,1073,1070,1067,1067,1067,1063,1063,1060,1057,1057,1054,1054,1054,1050,1050,1050,1047,1044,1041,1041,1041,1038,1038,1038,1038,1038,1034,1034,1028,1028,1028,1025,1025,1025,1022,1022,1019,1016,1016,1016,1016,1013,1010,1010,1007,1004,1001,1001,1001,998,998,995,992,992,992,989,989,989,989,989,987,984,981,978,978,975,973,970,970,970,967,967,967,967,962,962,956,956,956,954,948,948,948,0,0,0,0,0,0,0,0,0,0,0,0,0,0,0,0,0,0,0,0,0,0,0,0,0,0,0,0,0,0
0,0,0,0,0,0,0,0,0,0,0,0,0,0,0,0,1823,1823,1823,1813,1813,1804,1804,1794,1794,1785,1785,1785,1776,1776,1776,1776,1776,1766,1766,1766,1766,1766,1757,1757,1757,1757,1748,1748,1739,1739,1739,1739,1731,1731,1731,1731,1731,1722,1722,1722,1722,1713,1713,1713,1713,1705,1705,1705,1705,1696,1696,1696,1696,1696,1696,1696,1696,1688,1688,1688,1688,1688,1688,1680,1680,1680,1680,1671,1663,1663,1663,1663,1663,1663,1663,1663,1663,1663,1663,1663,1663,1663,1663,1663,1655,1655,1655,1647,1647,1647,1639,1639,1639,1639,1647,1647,1639,1639,1639,1639,1639,1632,1632,1632,1624,1624,1624,1624,1624,1624,1624,1624,1616,1616,1616,1616,1624,1624,1616,1616,1616,1624,1624,1624,1624,1624,1624,1624,1601,1594,1594,1586,1586,2184,2184,2170,2170,2170,2156,2156,2156,2156,0,0,0,0,0,1616,1616,1616,1616,1616,1609,1601,1601,1601,1601,1609,1609,1609,1616,1609,1609,1616,1616,1616,1616,1624,1624,1632,1632,1632,1632,1639,1639,1639,1647,1647,1655,1655,1655,1655,1655,1655,1655,1663,1663,1663,1663,1663,1663,1663,1663,1663,1671,1671,1671,1680,1680,1688,1696,1688,1688,1688,1688,1688,1688,1688,1688,1688,0,0,1077,1073,1073,1073,1073,1070,1067,1063,1063,1063,1063,1063,1063,1063,1063,1063,1063,1063,1060,1057,1047,1041,1034,1034,1031,1031,1028,1025,1025,1022,1019,1019,1016,1013,1010,1007,1007,1004,1001,1001,998,995,992,989,989,987,981,978,975,975,973,973,970,967,964,959,956,956,954,954,951,948,946,943,940,938,935,933,930,928,925,920,918,915,915,913,908,906,903,903,901,901,898,896,891,885,882,880,880,878,875,873,871,864,862,856,856,851,849,847,845,845,841,839,839,837,837,837,837,837,837,837,839,839,841,843,845,845,845,847,849,849,847,847,0,0,0,0,0,0,1439,1439,1439,1439,1433,1427,1427,1421,1421,1415,1415,1415,1410,1404,1404,1398,1398,1398,1392,1392,1387,1381,1376,1376,1370,1370,1370,1370,1370,1370,1370,1365,1365,1354,1354,1349,1343,1343,1338,1338,1333,1333,1333,1333,1328,1328,1328,1322,1317,1312,1312,1307,1302,1302,1302,1297,1292,1288,1288,1288,1288,1283,1283,1278,1278,1273,1273,1273,1273,1268,1259,1255,1255,1250,1250,1250,1250,1250,1250,1250,1245,1241,1241,1236,1236,1232,1227,1223,1223,1219,1219,1214,1214,1214,1210,1210,1206,1202,1202,1197,1197,1197,1193,1193,1189,1189,1185,1185,1181,1181,1177,1177,1173,1173,1169,1169,1165,1165,1161,1157,1157,1157,1153,1153,1149,1149,1149,1145,1141,1141,1141,1138,1138,1134,1134,1134,1130,1126,1123,1123,1119,1119,1119,1115,1115,1112,1112,1108,1108,1108,1105,1105,1101,1097,1094,1094,1094,1094,1090,1090,1090,1087,1087,1084,1080,1080,1077,1077,1077,1073,1070,1070,1067,1067,1063,1063,1063,1060,1057,1054,1054,1054,1054,1050,1050,1047,1044,1044,1041,1041,1041,1041,1038,1038,1038,1038,1034,1028,1028,1028,1025,1025,1025,1025,1022,1019,1019,1016,1016,1016,1013,1013,1010,1010,1004,1004,1001,1001,1001,998,995,995,992,992,992,989,989,989,989,987,984,981,978,978,975,975,973,970,970,970,967,967,967,962,959,959,956,956,956,948,948,948,0,0,0,0,0,0,0,0,0,0,0,0,0,0,0,0,0,0,0,0,0,0,0,0,0,0,0,0,0,0
0,0,0,0,0,0,0,0,0,0,0,0,0,0,0,0,1823,1823,1823,1813,1813,1813,1804,1804,1794,1794,1794,1785,1785,1785,1785,1776,1776,1776,1766,1766,1766,1766,1757,1757,1757,1757,1757,1748,1748,1748,1748,1739,1731,1731,1731,1731,1731,1731,1731,1722,1722,1722,1713,1713,1713,1705,1705,1705,1705,1696,1696,1705,1705,1696,1696,1696,1696,1696,1688,1688,1688,1688,1688,1680,1680,1680,1680,1671,1663,1663,1671,1671,1671,1663,1663,1663,1663,1663,1663,1663,1663,1663,1663,1663,1655,1655,1655,1647,1647,1647,1647,1647,1639,1639,1647,1647,1639,1639,1647,1639,1639,1639,1632,1632,1632,1632,1632,1624,1624,1624,1624,1624,1624,1624,1624,1624,1624,1624,1624,1624,1624,1624,1624,1624,1624,1624,1624,1624,1609,1601,1601,1594,1594,2184,2184,2170,1823,1813,1813,2170,2170,1794,0,0,0,0,0,0,1616,1616,1616,1616,1609,1601,1601,1601,1601,1609,1609,1609,1616,1616,1616,1616,1616,1624,1624,1624,1632,1632,1632,1632,1632,1639,1647,1647,1647,1647,1655,1655,1655,1655,1655,1655,1655,1663,1663,1663,1663,1663,1663,1663,1663,1663,1671,1671,1671,1680,1680,1688,1696,1696,1696,1696,1688,1688,1688,1688,1688,1688,0,0,1077,1073,1073,1073,1073,1070,1070,1063,1063,1063,1063,1063,1063,1063,1063,1060,1060,1060,1054,1050,1044,1041,1034,1034,1031,1031,1028,1025,1025,1022,1019,1019,1016,1013,1010,1007,1007,1004,1001,1001,998,995,992,989,989,987,981,978,975,975,975,973,970,967,964,959,959,956,954,954,951,948,946,943,940,938,935,933,930,928,925,920,918,915,915,913,908,906,903,903,901,901,898,896,891,887,885,880,880,878,875,873,871,864,860,856,854,851,849,847,845,845,841,839,839,837,837,837,837,837,837,837,839,839,841,843,845,847,847,849,849,849,849,849,0,0,0,0,0,1445,1439,1439,1439,1439,1433,1427,1421,1421,1421,1415,1415,1415,1410,1404,1404,1398,1398,1398,1392,1392,1387,1381,1376,1376,1370,1370,1370,1370,1370,1370,1370,1365,1365,1354,1354,1349,1343,1343,1338,1338,1333,1333,1333,1333,1333,1328,1328,1322,1317,1312,1312,1307,1302,1302,1302,1297,1292,1292,1288,1288,1288,1283,1283,1278,1278,1273,1273,1273,1273,1268,1264,1259,1255,1255,1255,1255,1250,1250,1250,1250,1245,1241,1241,1241,1236,1232,1232,1227,1223,1223,1219,1214,1214,1214,1210,1210,1210,1206,1202,1197,1197,1197,1193,1193,1189,1189,1185,1185,1181,1181,1181,1177,1173,1169,1169,1169,1165,1165,1165,1161,1161,1157,1153,1153,1149,1149,1149,1145,1141,1141,1141,1138,1138,1134,1134,1134,1130,1130,1123,1123,1119,1119,1119,1115,1115,1112,1112,1112,1108,1108,1105,1105,1101,1097,1094,1094,1094,1094,1090,1090,1090,1090,1087,1087,1084,1080,1080,1080,1077,1073,1073,1070,1070,1067,1063,1063,1063,1060,1060,1054,1054,1054,1054,1050,1050,1050,1047,1044,1041,1041,1041,1041,1038,1038,1038,1038,1034,1031,1028,1028,1028,1025,1025,1025,1022,1019,1016,1016,1016,1016,1013,1013,1010,1010,1004,1004,1004,1004,1001,1001,998,995,995,992,992,989,989,989,989,987,984,984,978,978,978,975,973,973,970,970,967,967,967,964,959,959,959,956,956,954,948,948,0,0,0,0,0,0,0,0,0,0,0,0,0,0,0,0,0,0,0,0,0,0,0,0,0,0,0,0,0,0
0,0,0,0,0,0,0,0,0,0,0,0,0,0,0,0,1823,1823,1823,1823,1813,1813,1804,1804,1804,1794,1794,1785,1785,1785,1785,1776,1776,1776,1776,1766,1766,1766,1766,1757,1757,1757,1757,1748,1748,1748,1748,1739,1731,1731,1731,1731,1731,1731,1731,1722,1722,1722,1722,1722,1722,1713,1705,1705,1705,1705,1705,1705,1705,1705,1696,1696,1696,1696,1688,1688,1688,1688,1680,1680,1680,1680,1680,1671,1671,1671,1671,1671,1671,1671,1663,1663,1663,1663,1663,1663,1663,1663,1663,1663,1655,1655,1655,1647,1647,1647,1647,1647,1647,1647,1647,1647,1647,1647,1647,1639,1639,1639,1632,1632,1632,1632,1632,1632,1632,1624,1624,1624,1624,1624,1624,1624,1624,1624,1624,1624,1624,1624,1624,1624,1624,1624,1624,1624,1609,1601,1601,1601,1601,1833,1823,1823,1813,1804,1804,1804,1794,1794,1794,1794,0,1794,0,0,0,1624,1616,1616,1609,1601,1601,1601,1601,1609,1609,1616,1616,1616,1616,1616,1616,1624,1624,1624,1632,1632,1632,1632,1632,1639,1647,1647,1647,1647,1655,1655,1655,1655,1655,1655,1655,1663,1663,1663,1663,1663,1663,1663,1671,1671,1671,1680,1680,1688,1688,1688,1696,1696,1696,1688,1688,1688,1688,0,0,0,0,0,0,1077,1073,1073,1073,1070,1070,1067,1063,1063,1063,1063,1063,1063,1060,1060,1060,1054,1050,1047,1041,1041,1034,1034,1031,1031,1025,1025,1025,1022,1019,1019,1016,1013,1010,1007,1007,1004,1001,1001,998,995,992,989,989,987,981,978,975,975,975,973,970,967,967,959,959,956,954,954,951,948,946,943,940,938,935,933,930,928,925,920,918,915,915,913,908,906,903,903,901,901,898,896,889,887,885,882,880,878,875,873,871,864,860,856,854,851,851,847,847,845,841,839,837,837,837,837,837,837,837,837,839,839,843,845,847,847,847,849,849,849,849,0,0,0,0,0,0,1445,1445,1445,1439,1439,1433,1427,1421,1421,1421,1421,1415,1415,1410,1404,1404,1398,1398,1398,1392,1392,1387,1381,1376,1376,1376,1370,1370,1370,1370,1370,1370,1365,1365,1354,1354,1349,1343,1343,1338,1338,1333,1333,1333,1333,1333,1328,1328,1322,1317,1312,1312,1307,1307,1302,1302,1297,1292,1292,1292,1288,1288,1288,1283,1278,1278,1278,1273,1273,1273,1268,1264,1259,1259,1255,1255,1255,1255,1250,1250,1250,1245,1241,1241,1241,1236,1232,1232,1227,1227,1223,1219,1219,1214,1214,1210,1210,1210,1206,1202,1202,1197,1197,1197,1193,1193,1189,1189,1185,1181,1181,1181,1177,1173,1169,1169,1169,1165,1165,1165,1161,1161,1157,1157,1153,1153,1149,1149,1145,1145,1141,1141,1141,1138,1138,1134,1134,1130,1130,1123,1123,1123,1119,1119,1119,1115,1115,1112,1112,1112,1108,1105,1105,1105,1097,1097,1094,1094,1094,1090,1090,1090,1090,1087,1087,1084,1080,1080,1080,1077,1077,1073,1070,1070,1067,1067,1063,1063,1063,1060,1057,1057,1054,1054,1054,1050,1050,1047,1044,1041,1041,1041,1041,1038,1038,1038,1038,1034,1031,1028,1028,1028,1025,1025,1025,1022,1019,1016,1016,1016,1016,1013,1013,1010,1007,1004,1004,1004,1004,1001,1001,998,998,995,995,992,992,989,989,989,987,984,981,978,978,978,978,975,973,970,970,967,967,967,962,959,959,959,959,956,954,951,951,0,0,0,0,0,0,0,0,0,0,0,0,0,0,0,0,0,0,0,0,0,0,0,0,0,0,0,0,0,0
0,0,0,0,0,0,0,0,0,0,0,0,0,0,0,0,1823,1823,1823,1823,1813,1813,1804,1804,1804,1794,1794,1794,1785,1785,1785,1776,1776,1776,1776,1766,1766,1766,1766,1766,1766,1766,1757,1748,1748,1748,1739,1739,1739,1731,1731,1731,1731,1731,1731,1731,1722,1722,1722,1722,1722,1713,1705,1705,1705,1696,1696,1705,1705,1705,1696,1696,1696,1696,1688,1688,1688,1688,1680,1680,1680,1680,1680,1680,1671,1671,1671,1671,1671,1671,1663,1663,1663,1663,1663,1663,1663,1663,1663,1663,1655,1655,1655,1655,1655,1647,1647,1647,1647,1647,1647,1647,1647,1647,1647,1639,1639,1639,1639,1639,1632,1632,1632,1632,1632,1632,1624,1624,1624,1624,1624,1624,1624,1624,1624,1624,1624,1624,1624,1624,1624,1624,1624,1624,1624,1609,1609,1609,1609,1833,1813,1813,1813,1804,1804,1804,1794,1794,1794,1794,1794,1794,1794,0,1624,1624,1616,1616,1609,1609,1609,1609,1609,1609,1616,1616,1624,1624,1624,1624,1624,1624,1624,1632,1632,1632,1632,1639,1639,1639,1647,1647,1647,1647,1655,1655,1655,1655,1655,1655,1655,1663,1663,1663,1663,1663,1663,1663,1671,1671,1680,1680,1680,1688,1688,1688,1696,1696,1696,1688,1688,1688,1688,0,0,0,0,0,0,1073,1073,1073,1073,1070,1070,1067,1067,1063,1063,1063,1063,1063,1060,1057,1057,1054,1050,1047,1041,1041,1038,1034,1031,1031,1025,1025,1025,1022,1022,1019,1016,1013,1010,1007,1007,1004,1001,998,998,995,989,989,987,987,981,978,978,975,975,973,970,970,967,962,959,956,954,951,948,946,946,943,940,938,933,933,930,928,925,923,918,915,915,913,908,906,903,903,901,901,898,896,889,889,885,882,880,878,878,875,873,869,862,856,854,851,851,849,847,845,841,839,837,837,837,837,837,837,837,837,839,841,843,845,847,849,849,849,849,849,849,0,0,0,0,0,0,1445,1445,1445,1439,1439,1433,1427,1427,1421,1421,1421,1421,1415,1415,1410,1404,1398,1398,1398,1392,1392,1387,1381,1381,1376,1376,1376,1376,1370,1370,1370,1370,1365,1365,1354,1354,1349,1343,1343,1338,1338,1338,1338,1333,1333,1333,1328,1328,1322,1317,1312,1312,1307,1307,1307,1302,1297,1292,1292,1292,1292,1288,1288,1288,1283,1278,1278,1273,1273,1273,1268,1264,1264,1259,1255,1255,1255,1255,1250,1250,1250,1250,1245,1241,1236,1236,1236,1232,1227,1227,1223,1219,1219,1214,1214,1214,1210,1210,1206,1202,1202,1197,1197,1197,1193,1193,1189,1189,1185,1185,1181,1181,1177,1173,1173,1169,1169,1169,1165,1165,1165,1165,1161,1157,1153,1153,1149,1149,1149,1145,1145,1141,1141,1138,1138,1138,1134,1134,1130,1123,1123,1123,1119,1119,1119,1115,1115,1112,1112,1112,1108,1108,1105,1105,1101,1097,1097,1094,1094,1090,1090,1090,1090,1087,1087,1084,1080,1080,1080,1077,1077,1073,1073,1073,1070,1067,1067,1063,1063,1063,1060,1057,1057,1054,1054,1054,1050,1050,1047,1044,1041,1041,1041,1041,1038,1038,1038,1034,1034,1028,1028,1028,1025,1025,1025,1022,1022,1019,1016,1016,1016,1013,1013,1010,1007,1004,1004,1004,1004,1001,1001,1001,998,998,995,992,992,989,989,989,987,984,981,978,978,978,978,975,973,970,970,970,967,967,962,959,959,959,956,956,954,954,954,0,0,0,0,0,0,0,0,0,0,0,0,0,0,0,0,0,0,0,0,0,0,0,0,0,0,0,0,0,0
0,0,0,0,0,0,0,0,0,0,0,0,0,0,0,0,1823,1823,1823,1823,1823,1823,1813,1813,1813,1804,1794,1794,1785,1785,1785,1785,1785,1776,1776,1776,1766,1766,1766,1766,1766,1757,1757,1748,1748,1748,1739,1739,1739,1731,1731,1731,1731,1731,1731,1731,1722,1722,1722,1722,1722,1713,1705,1705,1705,1696,1696,1705,1705,1705,1705,1696,1696,1696,1696,1688,1688,1688,1680,1680,1680,1680,1680,1680,1680,1671,1671,1671,1671,1671,1663,1663,1663,1663,1663,1663,1663,1663,1663,1663,1663,1663,1655,1655,1655,1647,1647,1647,1655,1655,1647,1647,1647,1647,1647,1639,1639,1639,1639,1639,1632,1632,1632,1632,1632,1632,1624,1624,1624,1624,1624,1624,1624,1624,1624,1624,1624,1624,1624,1624,1624,1624,1632,1632,1632,1616,1616,1624,1624,1804,1804,1804,1804,1794,1794,1794,1794,1794,1794,1794,1794,1794,1794,1794,1624,1624,1616,1616,1609,1609,1609,1609,1609,1609,1616,1616,1624,1624,1624,1624,1624,1624,1632,1632,1632,1639,1639,1639,1639,1639,1647,1647,1647,1655,1655,1655,1655,1655,1663,1655,1655,1663,1663,1663,1663,1663,1663,1671,1671,1671,1680,1680,1680,1688,1688,1688,1696,1696,1696,1688,1688,1688,1688,1696,0,0,0,0,0,1073,1073,1073,1073,1070,1070,1067,1067,1063,1063,1063,1063,1060,1060,1054,1054,1050,1047,1044,1041,1041,1038,1038,1031,1028,1025,1025,1025,1025,1022,1019,1016,1013,1010,1007,1007,1004,1001,998,998,995,989,989,987,984,981,978,978,975,975,973,970,970,967,962,959,956,954,951,948,946,946,943,940,938,933,933,930,928,925,923,920,918,915,913,910,908,906,903,901,901,898,896,891,889,885,882,880,878,878,875,873,871,862,856,854,851,851,849,847,845,841,839,839,837,837,837,837,837,837,837,839,841,845,847,849,849,849,849,849,851,851,0,0,0,0,0,0,1452,1445,1445,1439,1439,1433,1427,1427,1427,1421,1421,1421,1415,1415,1410,1404,1398,1398,1398,1392,1392,1392,1387,1381,1381,1376,1376,1376,1370,1370,1370,1370,1365,1354,1354,1354,1349,1349,1343,1343,1338,1338,1338,1338,1333,1333,1333,1328,1322,1317,1312,1312,1307,1307,1307,1302,1297,1292,1292,1292,1292,1288,1288,1288,1283,1278,1278,1273,1273,1273,1268,1264,1264,1259,1255,1255,1255,1255,1250,1250,1250,1250,1245,1241,1236,1236,1236,1232,1232,1227,1223,1223,1219,1214,1214,1214,1214,1210,1210,1206,1202,1202,1197,1197,1193,1193,1189,1189,1185,1185,1185,1181,1181,1173,1173,1169,1169,1169,1165,1165,1165,1165,1161,1161,1157,1153,1153,1149,1149,1149,1145,1145,1141,1141,1138,1138,1134,1134,1130,1123,1123,1123,1119,1119,1119,1119,1115,1115,1112,1112,1108,1108,1105,1105,1101,1097,1097,1094,1094,1094,1090,1090,1090,1087,1087,1084,1080,1080,1080,1077,1077,1073,1073,1073,1070,1067,1067,1067,1063,1063,1060,1060,1057,1054,1054,1054,1050,1050,1050,1047,1047,1044,1041,1041,1041,1038,1038,1038,1034,1028,1028,1028,1025,1025,1025,1022,1022,1019,1016,1016,1016,1013,1013,1010,1007,1004,1004,1004,1004,1001,1001,1001,1001,998,995,995,992,992,989,989,987,984,981,981,978,978,978,975,975,973,970,970,967,967,964,962,959,959,956,956,954,954,954,0,0,0,0,0,0,0,0,0,0,0,0,0,0,0,0,0,0,0,0,0,0,0,0,0,0,0,0,0,0
0,0,0,0,0,0,0,0,0,0,0,0,0,0,0,0,1833,1823,1823,1823,1823,1813,1813,1813,1813,1804,1794,1794,1785,1785,1785,1785,1785,1776,1776,1766,1766,1766,1766,1766,1766,1757,1757,1757,1757,1757,1748,1739,1739,1739,1731,1731,1731,1731,1731,1731,1731,1731,1722,1722,1722,1713,1705,1705,1705,1705,1705,1705,1705,1705,1705,1705,1705,1696,1696,1696,1696,1696,1688,1688,1688,1688,1688,1680,1680,1680,1680,1671,1671,1671,1663,1663,1663,1663,1663,1663,1663,1663,1663,1663,1663,1663,1663,1655,1655,1655,1655,1655,1655,1655,1655,1655,1647,1647,1647,1647,1639,1639,1639,1639,1632,1632,1632,1632,1632,1632,1632,1632,1624,1624,1624,1624,1624,1624,1624,1624,1624,1624,1624,1632,1632,1632,1639,1639,1639,1632,1632,1632,1632,1794,1794,1794,1794,1794,1794,1794,1794,1794,1794,1794,1794,1794,1794,1794,1624,1624,1624,1616,1616,1616,1616,1616,1609,1609,1616,1616,1624,1624,1624,1624,1624,1632,1632,1632,1632,1632,1632,1639,1639,1639,1639,1647,1647,1647,1655,1655,1655,1655,1663,1663,1663,1663,1663,1663,1663,1663,1671,1680,1680,1680,1680,1680,1688,1688,1688,1688,1696,1696,1696,1696,1696,1696,1696,1696,0,0,0,0,1077,1077,1073,1073,1073,1073,1070,1070,1067,1063,1063,1063,1060,1060,1057,1050,1050,1047,1047,1044,1041,1041,1038,1038,1031,1028,1025,1025,1025,1025,1022,1022,1019,1013,1010,1007,1007,1004,1001,1001,998,995,989,989,989,984,981,978,978,975,975,973,970,970,967,962,956,956,954,954,951,948,946,943,940,938,933,933,930,928,925,923,920,918,915,913,910,908,906,903,901,898,898,896,891,889,887,885,880,880,878,875,873,871,862,856,854,851,851,849,847,845,843,841,839,839,837,837,837,837,837,839,841,843,845,847,849,849,849,849,849,851,851,0,0,0,0,0,0,1452,1445,1445,1439,1439,1439,1433,1427,1427,1421,1421,1421,1415,1415,1410,1404,1398,1398,1398,1392,1392,1392,1387,1381,1381,1376,1376,1376,1376,1376,1370,1370,1365,1354,1354,1354,1349,1349,1343,1343,1343,1338,1338,1338,1333,1333,1333,1328,1322,1317,1312,1312,1312,1307,1307,1307,1302,1297,1292,1292,1292,1288,1288,1288,1283,1278,1278,1273,1273,1273,1268,1268,1264,1259,1259,1255,1255,1255,1255,1250,1250,1245,1245,1241,1236,1236,1236,1232,1232,1227,1227,1223,1219,1219,1219,1214,1214,1214,1210,1206,1206,1202,1197,1197,1193,1193,1193,1189,1185,1185,1185,1185,1181,1177,1173,1169,1169,1169,1165,1165,1165,1165,1161,1161,1157,1153,1153,1149,1149,1149,1145,1145,1141,1141,1138,1138,1138,1134,1130,1123,1123,1123,1119,1119,1119,1119,1115,1115,1115,1112,1112,1108,1108,1105,1105,1101,1097,1097,1094,1094,1090,1090,1090,1087,1087,1084,1080,1080,1077,1077,1077,1073,1073,1073,1070,1070,1067,1067,1067,1063,1063,1060,1057,1057,1054,1054,1054,1050,1050,1050,1047,1044,1044,1041,1041,1038,1038,1038,1034,1031,1028,1028,1028,1025,1025,1022,1022,1019,1016,1016,1016,1013,1013,1010,1007,1007,1004,1004,1004,1001,1001,1001,1001,998,995,995,992,992,989,987,987,984,981,981,978,978,978,975,975,973,970,970,967,967,964,962,959,959,956,956,954,954,954,0,0,0,0,0,0,0,0,0,0,0,0,0,0,0,0,0,0,0,0,0,0,0,0,0,0,0,0,0,0
0,0,0,0,0,0,0,0,0,0,0,0,0,0,0,0,1833,1823,1823,1823,1823,1813,1813,1813,1813,1804,1804,1794,1794,1794,1785,1785,1785,1776,1776,1766,1766,1766,1766,1766,1766,1766,1766,1757,1757,1757,1748,1739,1739,1739,1731,1731,1731,1731,1731,1731,1731,1731,1722,1722,1722,1713,1705,1705,1705,1705,1705,1705,1705,1705,1705,1705,1705,1696,1696,1696,1696,1696,1688,1688,1688,1688,1688,1688,1688,1680,1680,1680,1671,1671,1663,1663,1663,1663,1663,1663,1663,1663,1663,1663,1663,1663,1663,1663,1663,1655,1655,1655,1655,1655,1655,1655,1655,1647,1647,1647,1647,1639,1639,1639,1639,1639,1639,1632,1632,1632,1632,1632,1632,1632,1624,1624,1624,1624,1624,1624,1624,1624,1632,1632,1632,1632,1639,1639,1639,1639,1632,1632,1632,1794,1794,1794,1794,1785,1785,1794,1794,1794,1794,1794,1794,1794,1794,1639,1639,1624,1624,1624,1624,1624,1624,1616,1616,1616,1616,1616,1624,1624,1624,1624,1624,1632,1632,1632,1632,1632,1632,1639,1639,1639,1639,1647,1647,1647,1655,1655,1655,1655,1663,1663,1663,1663,1663,1663,1663,1671,1671,1680,1680,1680,1688,1688,1688,1688,1688,1688,1696,1696,1696,1696,1696,1696,1696,1696,0,0,0,0,1077,1077,1073,1073,1073,1073,1070,1070,1067,1063,1063,1063,1060,1060,1057,1050,1050,1047,1047,1044,1041,1041,1038,1038,1031,1028,1025,1025,1025,1025,1022,1022,1019,1016,1010,1007,1007,1004,1001,1001,998,995,992,989,989,987,981,981,978,975,975,973,970,970,967,962,956,956,954,954,951,948,946,943,940,938,933,933,930,928,925,923,920,918,915,913,910,908,906,903,901,898,898,896,891,889,887,885,882,880,878,875,873,871,862,856,854,851,851,849,847,845,843,841,839,839,837,837,839,839,839,841,843,843,845,847,849,849,849,849,849,851,851,0,0,0,0,0,0,1452,1445,1445,1445,1439,1439,1433,1433,1427,1421,1421,1421,1421,1415,1415,1410,1410,1398,1398,1392,1392,1392,1387,1381,1381,1376,1376,1376,1376,1376,1370,1370,1365,1359,1354,1354,1349,1349,1349,1343,1343,1338,1338,1338,1333,1333,1328,1328,1322,1317,1317,1312,1312,1307,1307,1307,1302,1302,1297,1292,1292,1292,1288,1288,1288,1283,1283,1278,1273,1273,1268,1268,1268,1264,1259,1259,1255,1255,1255,1250,1250,1245,1245,1236,1236,1236,1236,1232,1232,1227,1227,1223,1219,1219,1219,1214,1214,1210,1210,1210,1206,1202,1202,1197,1193,1193,1193,1189,1189,1189,1185,1185,1181,1177,1173,1169,1169,1169,1165,1165,1165,1165,1165,1161,1157,1153,1153,1149,1149,1149,1149,1145,1141,1141,1138,1138,1138,1134,1130,1126,1123,1123,1119,1119,1119,1119,1115,1115,1115,1115,1112,1108,1108,1105,1105,1101,1097,1097,1094,1094,1094,1090,1090,1090,1087,1084,1084,1080,1077,1077,1077,1073,1073,1073,1070,1070,1067,1067,1067,1063,1063,1063,1060,1057,1054,1054,1054,1054,1050,1050,1047,1044,1044,1041,1041,1041,1038,1038,1034,1031,1028,1028,1028,1025,1025,1022,1022,1019,1016,1016,1016,1013,1013,1010,1007,1007,1004,1004,1004,1004,1001,1001,1001,1001,998,995,995,992,989,987,984,984,981,981,981,978,978,975,975,975,970,970,970,970,967,962,962,959,959,956,954,954,954,0,0,0,0,0,0,0,0,0,0,0,0,0,0,0,0,0,0,0,0,0,0,0,0,0,0,0,0,0,0
0,0,0,0,0,0,0,0,0,0,0,0,0,0,0,0,1833,1833,1823,1823,1823,1813,1813,1813,1813,1804,1804,1794,1794,1794,1794,1785,1785,1776,1776,1766,1766,1766,1766,1766,1766,1766,1766,1757,1757,1757,1748,1748,1748,1739,1731,1731,1731,1731,1731,1731,1731,1731,1731,1722,1722,1713,1713,1713,1705,1705,1705,1705,1705,1705,1705,1705,1705,1696,1696,1696,1696,1696,1696,1696,1688,1688,1688,1688,1688,1688,1688,1680,1680,1680,1671,1671,1671,1663,1663,1671,1663,1663,1663,1671,1663,1663,1663,1663,1663,1655,1655,1655,1655,1655,1655,1655,1655,1647,1647,1647,1647,1639,1639,1639,1639,1639,1639,1639,1632,1632,1632,1632,1632,1632,1624,1624,1632,1624,1624,1624,1624,1624,1632,1632,1632,1632,1639,1639,1639,1647,1639,1639,1647,1785,1785,1785,1785,1785,1785,1785,1785,1794,1794,1794,1794,1794,1794,1639,1639,1632,1632,1632,1624,1624,1624,1624,1616,1616,1624,1624,1624,1624,1624,1624,1624,1632,1632,1632,1632,1632,1639,1639,1639,1639,1639,1647,1647,1647,1655,1655,1655,1655,1663,1663,1663,1663,1663,1663,1671,1671,1680,1688,1688,1688,1688,1688,1688,1688,1688,1688,1696,1696,1696,1696,1696,1696,1696,1696,1696,0,0,0,1080,1077,1077,1077,1073,1073,1070,1070,1067,1063,1063,1063,1060,1060,1057,1050,1050,1047,1047,1044,1041,1041,1038,1034,1034,1031,1025,1025,1025,1025,1022,1022,1019,1016,1010,1010,1007,1004,1001,1001,998,995,992,989,989,987,984,981,978,978,978,975,973,970,967,962,959,959,956,954,951,948,946,943,940,938,935,933,930,928,925,923,920,918,915,913,910,908,906,903,901,901,898,896,891,889,887,885,882,880,878,878,875,873,862,856,854,851,851,849,847,845,843,841,839,839,839,839,839,839,841,841,843,845,845,847,849,849,849,849,849,851,851,0,0,0,0,0,1458,1452,1452,1445,1445,1445,1439,1433,1433,1427,1421,1421,1421,1421,1415,1415,1410,1410,1404,1404,1398,1392,1392,1387,1381,1381,1381,1376,1376,1376,1376,1376,1370,1365,1359,1354,1354,1354,1349,1349,1349,1343,1343,1343,1338,1333,1333,1328,1328,1322,1317,1317,1312,1312,1312,1307,1307,1307,1302,1302,1292,1292,1292,1292,1288,1288,1283,1283,1278,1273,1273,1268,1268,1268,1264,1264,1259,1255,1255,1255,1255,1250,1250,1245,1236,1236,1236,1236,1232,1232,1227,1227,1223,1219,1219,1219,1214,1214,1210,1210,1210,1206,1206,1202,1202,1197,1197,1193,1193,1189,1189,1185,1185,1181,1177,1173,1173,1169,1169,1169,1165,1165,1165,1165,1161,1157,1157,1153,1149,1149,1149,1145,1145,1141,1141,1138,1138,1134,1134,1130,1126,1123,1123,1119,1119,1119,1119,1115,1115,1115,1115,1112,1108,1108,1105,1105,1105,1101,1097,1094,1094,1094,1094,1090,1087,1087,1084,1084,1080,1077,1077,1077,1073,1073,1073,1070,1070,1067,1067,1067,1067,1063,1063,1060,1060,1054,1054,1054,1054,1050,1050,1050,1047,1044,1041,1041,1041,1038,1038,1034,1031,1028,1028,1028,1025,1025,1025,1022,1019,1016,1016,1016,1013,1013,1010,1010,1007,1007,1004,1004,1004,1004,1001,1001,1001,998,995,995,992,989,989,984,984,981,981,981,978,978,975,975,975,970,970,970,970,967,967,962,959,959,956,956,954,954,0,0,0,0,0,0,0,0,0,0,0,0,0,0,0,0,0,0,0,0,0,0,0,0,0,0,0,0,0,0
