0,0,0,0,0,0,0,0,0,0,0,1452,1452,1445,1445,1445,1445,1445,1445,1445,1445,1445,1439,1439,1439,1445,1445,1445,1445,1452,1458,1458,1452,1445,1445,1445,1439,1439,1439,1439,1433,1433,1439,1439,1439,1439,1439,1445,1445,1445,1445,1439,1439,1439,1439,1439,1439,1439,1439,1439,1439,1439,1433,1433,0,0,0,0,0,933,933,933,933,930,930,928,925,923,923,923,923,920,920,923,923,925,925,928,930,933,933,935,935,935,938,938,938,0,0,0,1427,1421,1421,1421,1427,1427,1427,1427,1427,1433,1433,1433,1433,1433,1433,1427,1427,1427,1421,1421,1421,1421,1421,1421,1421,1421,1421,1421,1421,1421,1421,1421,1421,1421,1421,1421,1421,1421,1421,1421,1415,1415,1415,1415,1415,1415,1415,1415,1415,1415,1415,1421,1421,1421,1415,1415,1415,1415,1415,1415,1415,1415,1415,1415,1415,1415,1415,1415,1410,1410,1410,1410,1410,1410,1410,1410,1410,1410,1410,1410,1119,1119,1119,1119,1119,1123,1126,1130,1130,1130,1130,1130,1130,1126,1126,0,0,0,0,0,0,0,0,0,693,693,693,691,690,690,688,687,684,683,682,680,680,680,680,679,679,679,679,679,680,682,683,684,686,687,687,688,693,694,696,696,697,697,697,697,698,0,0,0,0,0,0,0,0,1264,1264,1264,1264,1264,1264,1264,1268,1268,1273,1273,1278,1278,1278,1392,1392,1392,1392,1392,1392,1392,1392,1392,1392,1392,1387,1387,1387,1387,1387,1387,1387,1387,1387,1387,1387,1381,1381,1381,1381,1381,1381,1381,1381,1381,1381,1381,1381,1381,1376,1376,1376,1376,1376,1370,1370,1370,1370,1370,1370,1370,1370,1370,1370,1370,1370,1376,1376,1376,1376,1376,1376,1376,1370,1370,1376,1376,1370,1370,1370,1370,1370,1370,1370,1370,1370,1370,1370,1370,1370,1370,1370,1365,1359,1354,1354,1354,1354,1349,1349,1054,1054,1054,1054,1054,1054,1050,1050,1050,1050,1050,1047,1047,1047,1047,1050,1050,1054,1057,1060,1060,1060,1063,1063,1063,1354,1354,1349,1349,1349,1349,1349,1354,1354,1354,1354,1354,1354,1354,1354,1354,1354,1354,1354,1349,1349,1349,1349,1349,1349,1349,1349,1349,1349,1349,1349,1349,1349,1349,1349,1349,1349,1349,1349,1343,1343,1343,1343,1343,1343,1343,1343,1343,1343,1338,1338,1333,1333,1333,1333,1333,1338,1338,1338,1338,1338,1338,1338,1333,1333,1333,1333,1333,1333,1333,1333,1333,1333,1333,1338,1338,1338,1338,1338,1338,1333,1333,1333,1333,1333,1333,1333,1333,1333,1333,1333,1328,1328,1328,1328,1328,1328,1328,1328,1328,1328,1328,1328,1328,1328,1328,1328,1328,1328,1328,1328,1328,1322,1322,1322,1322,1322,1317,1317,1317,1317,1317,1317,1317,1317,1317,1317,1317,1317,1317,1312,1312,1312,1312,1312,1312,1312,1312,1312,1312,1312,1312,1312,1312,1312,1307,1307,1307,1307,1312,1312,1307,1307,1312,1307,1307,1302,1302,1292,1232,1232,1232,1232,1227,1227,1223,1219,1219,1219,1214,1214,1219,1145,1145,1145,1145,1145,1145,1145,1141,1141,1141,1141,1138,1138,1141,1138,1138,1138,1130,1126,1123,1119,1115,1112,1108,1105,1097,1094,1090,1090,1087,1084,1080,1077,1073,1073,1070,1067,1067,1063,1063,943,943,943,946,946,946,946,946,946,946,946,946,946,946,946,946,946,946,946,946,948,0,0,0,0,0,0,0,0,0,0,0,0,0,0,0,0,0,0,0,0,0,0,0,0,0,0,0,0,0,0,0,0,0
0,0,0,0,0,0,0,0,0,0,0,1452,1452,1439,1439,1445,1445,1439,1439,1439,1439,1439,1439,1439,1439,1439,1439,1439,1439,1445,1452,1452,1445,1439,1439,1439,1439,1439,1433,1433,1433,1433,1433,1433,1433,1433,1433,1439,1439,1439,1439,1439,1433,1433,1433,1433,1433,1433,1433,1433,1427,1427,1433,1421,1421,0,0,0,0,933,933,933,933,930,930,928,925,923,923,923,923,923,923,923,923,925,925,928,930,933,933,935,935,938,938,940,940,0,943,0,0,1415,1415,1415,1421,1421,1421,1421,1427,1427,1427,1427,1427,1427,1427,1421,1421,1421,1421,1421,1415,1415,1415,1415,1415,1415,1415,1415,1415,1415,1415,1415,1415,1415,1415,1415,1415,1415,1415,1415,1415,1415,1415,1415,1415,1410,1410,1415,1415,1415,1415,1415,1415,1415,1415,1415,1410,1410,1410,1410,1410,1410,1410,1410,1410,1410,1410,1410,1410,1404,1404,1410,1410,1410,1404,1404,1410,1115,1115,1115,1115,1115,1115,1115,1119,1119,1123,1126,1126,1126,1126,1126,1126,1126,1126,0,0,0,0,0,0,0,0,0,0,693,693,693,691,691,690,688,686,683,683,682,680,680,680,680,680,680,680,680,680,682,683,686,686,687,688,688,693,694,696,697,697,698,697,697,698,0,0,0,0,0,0,0,1268,1264,1264,1264,1264,1264,1264,1264,1268,1268,1273,1273,1278,1283,1283,1283,1392,1392,1392,1392,1387,1387,1387,1387,1387,1387,1387,1381,1381,1381,1381,1381,1381,1381,1381,1381,1381,1381,1381,1376,1376,1376,1376,1376,1376,1376,1376,1376,1376,1370,1370,1370,1370,1370,1370,1370,1370,1370,1370,1370,1370,1370,1370,1370,1370,1370,1370,1370,1370,1370,1370,1370,1370,1370,1370,1370,1370,1370,1370,1370,1370,1370,1370,1365,1365,1365,1365,1365,1365,1365,1365,1365,1365,1354,1354,1354,1354,1354,1349,1349,1343,1054,1054,1057,1057,1057,1054,1054,1054,1050,1050,1050,1050,1050,1050,1050,1050,1050,1054,1057,1060,1060,1063,1063,1063,1063,1349,1349,1349,1349,1349,1349,1349,1349,1349,1349,1349,1349,1349,1349,1349,1349,1349,1349,1349,1349,1343,1343,1343,1343,1343,1343,1343,1343,1343,1343,1343,1343,1343,1343,1343,1343,1343,1343,1343,1343,1338,1338,1338,1338,1338,1343,1343,1343,1338,1338,1333,1333,1333,1333,1333,1333,1333,1333,1333,1333,1333,1333,1333,1333,1328,1328,1333,1328,1328,1328,1328,1328,1328,1328,1328,1328,1333,1333,1333,1333,1333,1328,1328,1333,1333,1328,1328,1328,1328,1328,1328,1328,1328,1322,1322,1322,1322,1322,1322,1322,1322,1322,1322,1322,1328,1322,1322,1322,1322,1322,1322,1322,1322,1317,1317,1317,1317,1312,1312,1312,1312,1312,1312,1312,1312,1312,1312,1312,1312,1312,1312,1307,1307,1307,1307,1307,1307,1307,1307,1307,1307,1307,1307,1307,1307,1307,1307,1307,1307,1307,1307,1307,1307,1307,1307,1302,1302,1292,1288,1236,1236,1236,1232,1232,1227,1223,1219,1219,1214,1214,1214,1219,1145,1145,1145,1145,1145,1145,1145,1141,1141,1141,1141,1141,1141,1141,1138,1138,1134,1126,1126,1119,1115,1112,1108,1105,1101,1094,1090,1087,1087,1084,1080,1077,1073,1070,1070,1067,1067,1067,1063,1063,943,943,943,943,943,946,946,946,946,946,946,946,946,946,946,946,946,946,946,948,948,0,0,0,0,0,0,0,0,0,0,0,0,0,0,0,0,0,0,0,0,0,0,0,0,0,0,0,0,0,0,0,0,0
0,0,0,0,0,0,0,0,0,0,0,1445,1439,1439,1439,1439,1439,1439,1439,1439,1439,1439,1433,1433,1433,1439,1439,1439,1439,1439,1445,1445,1439,1439,1439,1439,1433,1433,1433,1427,1427,1427,1427,1427,1427,1427,1427,1433,1433,1433,1433,1433,1433,1433,1433,1433,1433,1433,1433,1433,1421,1421,1421,1415,1415,1415,0,0,0,933,933,933,933,930,930,928,928,925,925,923,923,923,923,923,923,925,925,930,930,933,933,935,935,938,940,940,943,943,0,0,0,1415,1415,1415,1415,1415,1421,1421,1421,1421,1421,1421,1421,1421,1421,1421,1415,1415,1415,1415,1415,1410,1410,1410,1410,1410,1415,1415,1415,1415,1415,1415,1415,1415,1415,1410,1410,1410,1410,1410,1410,1410,1410,1415,1410,1410,1410,1410,1410,1415,1410,1410,1410,1410,1410,1410,1410,1410,1410,1410,1410,1410,1410,1410,1410,1410,1410,1404,1398,1398,1398,1404,1404,1404,1404,1404,1115,1115,1115,1115,1115,1115,1115,1115,1115,1119,1119,1123,1123,1123,1123,1123,1123,1123,1119,1119,0,0,0,0,0,0,0,0,0,693,693,693,691,691,690,688,686,684,684,683,682,682,682,680,680,680,680,680,682,682,683,686,686,687,688,690,693,696,697,697,698,698,700,700,0,0,0,0,0,0,0,0,1268,1268,1268,1268,1268,1264,1264,1268,1268,1268,1273,1273,1278,1283,1283,1283,1392,1392,1392,1387,1387,1387,1387,1381,1381,1381,1376,1376,1376,1376,1376,1376,1376,1376,1376,1376,1376,1376,1376,1376,1376,1376,1370,1370,1370,1370,1370,1370,1370,1370,1370,1370,1370,1370,1370,1370,1365,1365,1365,1365,1365,1365,1365,1365,1365,1365,1365,1370,1365,1365,1370,1365,1365,1365,1365,1365,1365,1370,1365,1365,1365,1365,1365,1359,1359,1359,1359,1359,1359,1359,1359,1359,1359,1354,1354,1354,1349,1349,1349,1349,1343,1057,1057,1060,1060,1057,1057,1054,1054,1054,1054,1050,1050,1050,1050,1050,1050,1050,1054,1057,1060,1063,1063,1063,1067,1067,1343,1343,1343,1349,1349,1343,1343,1349,1343,1343,1343,1343,1343,1343,1343,1343,1343,1343,1343,1338,1338,1338,1333,1333,1333,1333,1333,1333,1333,1338,1338,1338,1338,1338,1338,1338,1338,1338,1338,1338,1333,1333,1333,1333,1333,1333,1333,1338,1333,1333,1333,1333,1333,1333,1328,1328,1328,1328,1328,1333,1328,1328,1328,1328,1328,1328,1328,1328,1328,1328,1328,1328,1328,1328,1322,1322,1322,1322,1328,1328,1328,1328,1328,1328,1328,1328,1328,1328,1328,1322,1322,1322,1322,1317,1317,1317,1317,1317,1317,1317,1317,1317,1317,1322,1322,1322,1322,1317,1317,1317,1317,1317,1317,1312,1312,1312,1312,1312,1307,1307,1307,1312,1312,1312,1312,1312,1312,1312,1312,1307,1307,1307,1307,1307,1307,1302,1302,1302,1302,1302,1302,1302,1302,1302,1302,1302,1302,1302,1302,1302,1302,1302,1302,1302,1302,1297,1292,1288,1283,1236,1236,1236,1236,1232,1232,1223,1219,1219,1214,1214,1214,1219,1145,1145,1145,1149,1149,1145,1145,1141,1141,1145,1141,1141,1141,1138,1138,1134,1126,1123,1123,1119,1115,1112,1108,1105,1097,1090,1087,1087,1084,1080,1077,1077,1073,1070,1070,1067,1067,1063,1063,940,940,940,943,943,943,946,946,946,946,946,946,946,946,946,946,946,946,946,946,948,948,0,0,0,0,0,0,0,0,0,0,0,0,0,0,0,0,0,0,0,0,0,0,0,0,0,0,0,0,0,0,0,0,0
0,0,0,0,0,0,0,0,0,0,0,1445,1439,1439,1439,1439,1439,1433,1433,1433,1433,1433,1433,1427,1427,1433,1433,1433,1433,1433,1433,1439,1439,1433,1433,1433,1433,1433,1433,1427,1427,1427,1427,1427,1427,1427,1427,1433,1433,1433,1427,1427,1427,1427,1427,1427,1427,1427,1427,1421,1415,1415,1415,1415,1410,1410,0,0,0,0,933,933,933,930,930,928,928,925,925,923,923,923,923,923,923,925,928,930,930,933,933,935,935,938,938,940,943,943,0,0,1410,0,0,1410,1410,1415,1415,1415,1415,1415,1415,1415,1415,1415,1415,1415,1415,1415,1410,1410,1410,1404,1404,1410,1410,1410,1410,1410,1410,1410,1410,1410,1410,1410,1410,1410,1410,1410,1410,1410,1410,1410,1410,1410,1410,1410,1410,1410,1410,1410,1410,1410,1410,1410,1410,1404,1404,1404,1404,1404,1404,1404,1404,1404,1398,1398,1398,1398,1398,1398,1398,1398,1404,1404,1404,1404,1108,1108,1112,1112,1115,1112,1112,1115,1115,1115,1115,1119,1119,1119,1119,1119,1119,1119,1115,1115,0,0,0,0,0,0,0,0,0,693,693,693,693,691,691,690,686,686,684,683,683,683,682,682,682,682,682,682,682,683,684,686,686,687,688,690,693,696,697,698,698,700,700,701,0,0,0,0,0,0,0,0,1268,1268,1268,1268,1268,1268,1268,1268,1268,1273,1273,1273,1278,1283,1283,1283,1288,1392,1392,1387,1381,1381,1381,1376,1376,1376,1376,1376,1376,1376,1376,1376,1370,1370,1370,1370,1370,1370,1370,1370,1370,1370,1370,1365,1365,1370,1370,1370,1370,1370,1370,1370,1365,1365,1365,1365,1365,1365,1365,1365,1365,1365,1365,1359,1359,1359,1359,1365,1365,1365,1365,1365,1365,1359,1359,1359,1359,1359,1354,1354,1359,1359,1359,1359,1359,1354,1354,1354,1354,1354,1354,1354,1354,1349,1349,1349,1349,1349,1349,1343,1338,1057,1057,1060,1060,1060,1057,1054,1054,1054,1054,1054,1050,1050,1050,1050,1050,1054,1054,1057,1060,1063,1063,1067,1067,1343,1343,1343,1343,1343,1343,1343,1343,1343,1343,1343,1338,1338,1338,1338,1338,1333,1333,1333,1333,1333,1333,1333,1333,1333,1333,1333,1333,1333,1333,1333,1333,1333,1333,1333,1333,1333,1333,1333,1333,1333,1333,1333,1333,1333,1333,1333,1333,1333,1333,1333,1333,1328,1328,1328,1328,1328,1328,1328,1328,1328,1328,1328,1328,1328,1322,1322,1322,1322,1322,1317,1317,1322,1322,1322,1322,1317,1317,1322,1322,1322,1322,1322,1322,1328,1328,1322,1322,1322,1322,1322,1317,1317,1317,1312,1312,1312,1312,1312,1312,1312,1312,1312,1312,1312,1317,1317,1317,1317,1317,1317,1312,1312,1312,1312,1307,1307,1307,1307,1307,1307,1307,1307,1307,1307,1307,1307,1307,1307,1307,1307,1307,1302,1302,1302,1302,1302,1302,1302,1302,1302,1302,1297,1297,1297,1297,1297,1297,1297,1297,1297,1297,1297,1297,1297,1292,1292,1288,1288,1278,1250,1245,1241,1236,1236,1232,1227,1219,1219,1210,1210,1214,1138,1138,1138,1141,1145,1149,1149,1149,1145,1145,1145,1145,1141,1141,1138,1134,1130,1126,1123,1119,1119,1115,1108,1105,1101,1094,1090,1084,1084,1080,1077,1077,1073,1070,1070,1070,1067,1063,1063,943,940,940,940,943,943,943,943,943,946,946,946,946,946,946,946,948,948,946,946,948,948,0,0,0,0,0,0,0,0,0,0,0,0,0,0,0,0,0,0,0,0,0,0,0,0,0,0,0,0,0,0,0,0,0,0
0,0,0,0,0,0,0,0,0,0,0,1433,1433,1433,1433,1433,1433,1433,1433,1427,1427,1427,1427,1427,1427,1427,1427,1427,1427,1427,1427,1427,1427,1427,1427,1427,1427,1427,1427,1427,1427,1427,1427,1427,1427,1421,1421,1427,1427,1427,1421,1421,1415,1415,1415,1415,1415,1421,1421,1421,1415,1410,1410,1410,1404,1404,0,0,0,0,933,933,933,933,933,930,930,925,925,925,923,923,923,925,925,928,928,930,930,933,935,935,935,938,938,943,943,943,943,0,0,0,0,1410,1410,1410,1410,1415,1415,1415,1410,1410,1410,1415,1415,1410,1410,1410,1410,1410,1410,1404,1404,1404,1404,1404,1404,1404,1410,1410,1410,1410,1410,1410,1410,1410,1410,1404,1404,1410,1410,1410,1410,1410,1410,1410,1404,1404,1404,1404,1404,1404,1404,1404,1404,1398,1398,1398,1404,1404,1404,1398,1398,1398,1392,1392,1392,1392,1392,1392,1392,1398,1398,1404,1404,1404,1108,1108,1112,1112,1112,1112,1112,1112,1115,1115,1115,1119,1119,1119,1119,1119,1119,1115,1115,1115,0,0,0,0,0,0,0,0,0,0,696,694,693,693,693,691,690,686,686,684,683,683,683,682,682,682,682,682,682,683,684,686,686,687,688,690,693,696,697,698,698,700,701,701,0,0,0,0,0,0,0,0,1273,1273,1273,1273,1273,1273,1268,1268,1273,1273,1278,1278,1283,1283,1283,1283,1288,1392,1376,1376,1370,1370,1370,1370,1370,1370,1370,1370,1370,1370,1370,1370,1370,1370,1370,1370,1370,1370,1370,1365,1365,1365,1365,1365,1365,1365,1365,1365,1365,1365,1365,1365,1365,1365,1365,1365,1359,1359,1359,1359,1359,1359,1359,1359,1354,1354,1354,1359,1359,1359,1359,1359,1359,1354,1354,1354,1354,1354,1354,1354,1354,1354,1349,1349,1354,1354,1354,1354,1354,1354,1354,1349,1349,1349,1349,1349,1343,1343,1343,1343,1338,1060,1060,1060,1060,1060,1060,1057,1057,1054,1054,1054,1054,1050,1050,1050,1054,1054,1057,1060,1063,1063,1067,1067,1067,1343,1343,1333,1333,1338,1338,1338,1338,1338,1333,1333,1333,1333,1333,1333,1333,1328,1328,1328,1328,1328,1328,1328,1328,1328,1328,1328,1328,1328,1328,1328,1328,1333,1333,1333,1333,1333,1333,1328,1328,1328,1328,1328,1328,1328,1328,1328,1328,1328,1328,1328,1328,1328,1328,1322,1322,1322,1322,1322,1322,1322,1322,1322,1322,1322,1317,1317,1317,1317,1317,1317,1317,1317,1317,1317,1317,1312,1312,1312,1317,1317,1317,1317,1317,1317,1317,1317,1322,1317,1317,1317,1312,1312,1312,1312,1312,1312,1312,1312,1307,1307,1307,1312,1312,1312,1312,1312,1312,1312,1312,1312,1312,1307,1307,1307,1302,1302,1302,1302,1302,1302,1302,1302,1302,1302,1302,1302,1302,1302,1302,1302,1302,1297,1297,1297,1297,1297,1297,1297,1297,1297,1297,1292,1292,1292,1292,1292,1292,1292,1292,1297,1297,1292,1292,1292,1292,1292,1288,1283,1259,1255,1250,1245,1241,1241,1236,1232,1227,1219,1210,1210,1210,1138,1138,1138,1138,1145,1149,1149,1149,1145,1145,1145,1145,1141,1138,1138,1134,1130,1126,1123,1119,1115,1112,1105,1101,1097,1090,1087,1084,1084,1080,1077,1077,1073,1070,1067,1067,1063,1063,1063,943,940,940,943,943,943,943,943,943,946,946,946,946,946,946,946,948,948,946,946,948,948,0,0,0,0,0,0,0,0,0,0,0,0,0,0,0,0,0,0,0,0,0,0,0,0,0,0,0,0,0,0,0,0,0,0
0,0,0,0,0,0,0,0,0,0,0,1433,1433,1433,1433,1433,1433,1427,1427,1427,1427,1427,1427,1421,1421,1415,1415,1427,1427,1421,1421,1421,1427,1427,1427,1427,1427,1427,1427,1421,1421,1421,1421,1427,1427,1421,1421,1421,1421,1421,1421,1421,1415,1410,1410,1410,1410,1410,1415,1415,1410,1410,1410,1410,1404,1404,0,0,0,0,933,933,935,933,933,933,933,928,925,925,925,925,925,925,925,928,928,930,930,933,935,935,935,938,940,943,943,943,0,0,0,0,1410,1410,1410,1410,1410,1410,1410,1410,1410,1410,1410,1410,1410,1410,1410,1410,1404,1404,1404,1398,1398,1398,1398,1398,1398,1398,1404,1404,1404,1404,1404,1404,1404,1404,1404,1398,1398,1398,1398,1404,1404,1404,1404,1404,1404,1404,1398,1398,1398,1398,1398,1398,1398,1392,1392,1392,1398,1398,1398,1392,1392,1392,1392,1392,1392,1392,1392,1392,1392,1398,1398,1108,1108,1108,1108,1108,1112,1112,1112,1112,1112,1112,1112,1112,1115,1115,1115,1115,1115,1115,1115,1112,1112,0,0,0,0,0,0,0,0,0,0,0,697,697,696,694,694,693,691,688,686,686,684,683,683,682,682,682,682,682,682,683,684,686,687,687,688,690,693,696,697,698,698,700,701,0,0,0,0,0,0,0,0,0,1273,1273,1273,1273,1273,1273,1273,1273,1273,1278,1278,1278,1283,1283,1283,1283,1288,1292,1370,1370,1365,1365,1365,1365,1370,1370,1365,1365,1365,1365,1365,1365,1365,1365,1365,1365,1365,1365,1365,1365,1359,1359,1359,1359,1359,1359,1359,1359,1359,1359,1359,1359,1359,1359,1359,1354,1354,1354,1354,1354,1354,1354,1354,1354,1349,1349,1349,1354,1354,1354,1354,1354,1354,1354,1354,1354,1349,1349,1349,1349,1349,1349,1349,1349,1349,1349,1349,1349,1349,1349,1349,1349,1349,1343,1343,1343,1343,1338,1338,1338,1333,1063,1063,1063,1063,1060,1060,1060,1057,1054,1054,1054,1054,1054,1054,1054,1054,1054,1057,1060,1063,1067,1067,1067,1067,1333,1333,1328,1328,1333,1333,1333,1333,1333,1333,1333,1328,1328,1328,1328,1328,1328,1328,1328,1328,1328,1328,1328,1328,1328,1328,1328,1328,1328,1328,1328,1328,1328,1328,1328,1328,1328,1328,1328,1322,1322,1328,1322,1322,1322,1322,1322,1322,1322,1322,1322,1322,1322,1322,1317,1317,1317,1317,1317,1317,1317,1317,1317,1317,1317,1317,1312,1312,1312,1312,1312,1312,1312,1312,1312,1312,1312,1312,1312,1312,1312,1312,1312,1312,1312,1312,1312,1307,1307,1307,1312,1312,1312,1312,1307,1307,1307,1307,1307,1307,1307,1307,1307,1307,1307,1307,1307,1307,1307,1307,1307,1307,1307,1307,1307,1302,1297,1297,1297,1297,1297,1297,1297,1302,1297,1297,1297,1297,1297,1297,1292,1292,1297,1297,1297,1297,1297,1297,1297,1297,1292,1292,1292,1292,1292,1288,1288,1288,1288,1288,1288,1288,1288,1288,1288,1288,1288,1283,1278,1259,1255,1255,1245,1245,1241,1241,1236,1232,1227,1227,1227,1250,1268,1138,1138,1138,1278,1149,1149,1149,1149,1149,1145,1141,1138,1138,1134,1130,1126,1123,1123,1115,1115,1108,1105,1097,1094,1090,1087,1084,1084,1080,1077,1073,1073,1067,1067,1063,1060,1060,1060,943,943,943,943,943,943,943,946,946,946,946,946,946,946,946,946,948,948,948,948,948,948,0,0,0,0,0,0,0,0,0,0,0,0,0,0,0,0,0,0,0,0,0,0,0,0,0,0,0,0,0,0,0,0,0,0
0,0,0,0,0,0,0,0,0,0,0,1421,1421,1421,1421,1427,1427,1427,1421,1421,1421,1421,1427,1421,1421,1410,1410,1421,1421,1415,1415,1421,1421,1421,1421,1421,1421,1421,1421,1421,1421,1421,1421,1421,1421,1421,1421,1421,1421,1421,1421,1415,1410,1410,1410,1404,1404,1410,1410,1410,1410,1410,1404,1404,1398,1398,0,0,0,0,935,935,938,938,935,933,933,930,928,925,925,925,925,925,925,928,928,930,933,933,935,935,938,938,940,943,943,946,946,948,0,1398,1398,1398,1404,1404,1404,1404,1404,1398,1398,1404,1404,1404,1404,1404,1404,1404,1404,1398,1392,1392,1392,1392,1392,1392,1392,1392,1398,1398,1392,1392,1392,1392,1392,1392,1398,1392,1392,1392,1392,1392,1392,1392,1392,1392,1398,1398,1392,1392,1392,1392,1392,1392,1392,1392,1392,1392,1392,1392,1392,1392,1387,1387,1387,1387,1387,1392,1392,1392,1392,1105,1105,1105,1108,1108,1108,1108,1108,1108,1108,1108,1112,1112,1112,1112,1112,1112,1112,1115,1115,1115,1112,1112,1112,0,0,0,0,0,0,0,0,0,0,0,698,697,697,696,694,694,693,690,688,687,686,684,683,683,682,682,682,682,683,683,684,686,687,688,690,691,693,696,697,698,700,700,701,0,0,0,0,0,0,0,0,0,1273,1273,1273,1273,1273,1273,1273,1273,1273,1278,1278,1278,1283,1283,1288,1288,1292,1292,1354,1354,1354,1354,1354,1359,1359,1359,1359,1365,1365,1365,1365,1365,1365,1365,1359,1359,1359,1359,1359,1359,1354,1354,1359,1354,1354,1354,1354,1359,1359,1359,1354,1354,1359,1359,1354,1354,1354,1354,1349,1349,1349,1349,1343,1343,1343,1343,1343,1354,1354,1354,1354,1354,1354,1349,1349,1349,1349,1349,1349,1349,1349,1349,1349,1349,1349,1349,1349,1343,1343,1343,1343,1343,1343,1338,1338,1338,1338,1338,1338,1333,1333,1067,1067,1067,1063,1063,1063,1060,1060,1057,1057,1054,1054,1054,1054,1054,1054,1057,1060,1060,1067,1067,1070,1070,1073,1328,1328,1322,1322,1322,1328,1328,1328,1328,1322,1322,1322,1322,1322,1322,1322,1322,1322,1322,1322,1322,1322,1322,1322,1322,1322,1322,1322,1322,1317,1317,1328,1328,1328,1328,1328,1328,1328,1322,1322,1322,1322,1317,1317,1317,1317,1317,1317,1317,1317,1317,1317,1317,1317,1317,1312,1312,1312,1312,1312,1312,1312,1312,1312,1312,1312,1312,1312,1312,1307,1307,1307,1307,1307,1307,1307,1307,1307,1307,1307,1307,1307,1307,1307,1302,1302,1307,1302,1302,1302,1302,1302,1302,1307,1307,1307,1307,1307,1307,1302,1302,1302,1302,1302,1302,1302,1302,1302,1307,1307,1302,1302,1302,1302,1302,1297,1297,1297,1297,1292,1292,1292,1292,1292,1292,1292,1292,1292,1292,1292,1292,1292,1292,1292,1292,1292,1292,1292,1292,1292,1292,1292,1292,1288,1288,1288,1288,1283,1283,1283,1283,1283,1283,1283,1283,1283,1283,1278,1273,1259,1255,1250,1250,1245,1241,1241,1241,1232,1227,1227,1245,1250,1268,1268,1273,1273,1273,1273,1273,1268,1268,1264,1141,1138,1138,1134,1134,1126,1123,1123,1119,1115,1112,1105,1101,1097,1094,1087,1087,1084,1080,1077,1073,1070,1070,1067,1063,1063,1060,1060,1060,943,940,940,943,943,943,943,946,946,946,946,946,946,946,948,948,948,948,948,948,948,948,0,0,0,0,0,0,0,0,0,0,0,0,0,0,0,0,0,0,0,0,0,0,0,0,0,0,0,0,0,0,0,0,0,0
0,0,0,0,0,0,0,0,0,0,1415,1415,1415,1415,1415,1415,1415,1415,1415,1415,1415,1410,1410,1415,1415,1410,1410,1415,1415,1415,1415,1415,1415,1415,1415,1415,1415,1415,1415,1415,1415,1415,1415,1415,1415,1415,1415,1415,1415,1415,1415,1415,1410,1410,1410,1404,1404,1410,1410,1410,1404,1404,1404,1404,1398,1398,0,0,0,0,0,938,938,938,935,935,933,930,928,928,925,925,925,925,925,928,930,930,933,935,935,935,938,940,943,943,946,946,948,0,0,0,1392,1387,1387,1392,1398,1398,1398,1398,1398,1398,1398,1398,1398,1398,1398,1398,1398,1392,1392,1392,1392,1392,1392,1392,1392,1392,1392,1392,1387,1387,1387,1387,1387,1387,1392,1392,1392,1392,1392,1392,1387,1387,1387,1387,1387,1387,1387,1387,1392,1392,1392,1392,1392,1387,1387,1387,1387,1387,1387,1387,1387,1387,1381,1381,1387,1387,1387,1101,1101,1101,1101,1101,1105,1105,1105,1108,1108,1108,1108,1108,1108,1108,1108,1108,1108,1112,1112,1112,1112,1108,1108,1108,1108,1108,0,0,0,0,0,0,0,0,0,0,698,697,697,697,696,696,693,691,690,687,686,684,684,683,683,683,683,683,683,684,686,687,687,690,691,691,693,696,697,698,700,701,703,0,0,0,0,0,0,0,0,0,1278,1278,1278,1278,1278,1278,1278,1278,1278,1278,1278,1278,1283,1288,1288,1288,1292,1292,1349,1349,1354,1354,1354,1354,1354,1354,1354,1354,1354,1354,1354,1359,1359,1359,1354,1354,1359,1359,1354,1354,1354,1354,1354,1349,1349,1349,1349,1349,1349,1349,1349,1349,1349,1349,1349,1349,1349,1349,1343,1343,1343,1343,1338,1338,1343,1343,1343,1349,1349,1349,1349,1349,1349,1349,1349,1349,1343,1343,1343,1343,1343,1343,1343,1343,1343,1343,1343,1343,1343,1338,1338,1338,1338,1333,1333,1333,1333,1333,1333,1328,1328,1328,1067,1067,1067,1063,1063,1063,1060,1060,1057,1057,1054,1054,1054,1057,1057,1057,1060,1063,1067,1067,1070,1073,1077,1080,1328,1317,1317,1322,1322,1322,1322,1317,1317,1322,1317,1317,1317,1317,1317,1317,1317,1317,1322,1322,1317,1317,1317,1317,1317,1317,1317,1317,1317,1317,1317,1317,1322,1322,1322,1322,1322,1322,1317,1317,1317,1317,1312,1312,1312,1312,1312,1312,1312,1317,1312,1312,1312,1312,1312,1312,1312,1312,1312,1307,1307,1307,1307,1307,1307,1307,1307,1307,1307,1307,1307,1302,1302,1302,1302,1302,1302,1302,1302,1302,1302,1302,1302,1297,1297,1297,1297,1297,1297,1302,1302,1302,1302,1302,1302,1302,1302,1302,1302,1302,1297,1297,1297,1302,1297,1297,1302,1302,1302,1302,1297,1297,1297,1297,1292,1292,1292,1292,1292,1292,1292,1292,1292,1292,1292,1292,1292,1292,1288,1288,1288,1288,1288,1288,1288,1288,1288,1288,1292,1288,1288,1288,1288,1283,1283,1283,1278,1278,1278,1278,1278,1278,1278,1278,1278,1273,1273,1264,1259,1255,1250,1250,1245,1241,1241,1241,1236,1236,1236,1245,1250,1259,1264,1268,1268,1268,1268,1268,1268,1264,1264,1141,1138,1134,1134,1130,1126,1123,1119,1115,1112,1108,1105,1101,1094,1094,1087,1087,1084,1080,1073,1070,1067,1067,1063,1063,1060,1060,1057,1057,943,940,940,943,943,946,946,946,946,946,946,946,946,948,948,948,948,948,948,948,948,948,0,0,0,0,0,0,0,0,0,0,0,0,0,0,0,0,0,0,0,0,0,0,0,0,0,0,0,0,0,0,0,0,0,0
0,0,0,0,0,0,0,0,0,0,1415,1415,1415,1415,1410,1410,1415,1410,1410,1410,1410,1410,1410,1410,1410,1410,1410,1410,1410,1410,1410,1410,1410,1415,1415,1415,1415,1410,1410,1415,1415,1415,1415,1415,1415,1415,1415,1415,1415,1415,1410,1410,1410,1410,1410,1404,1404,1404,1404,1404,1404,1404,1398,1398,1398,1398,0,0,0,0,0,0,938,938,938,938,935,933,930,928,925,925,925,925,928,930,930,933,933,935,935,938,940,940,943,946,946,946,948,948,0,1387,1387,1387,1387,1387,1392,1392,1392,1392,1392,1392,1392,1392,1392,1392,1392,1392,1392,1387,1387,1387,1387,1387,1387,1387,1387,1387,1387,1387,1381,1381,1381,1387,1387,1387,1387,1387,1387,1387,1387,1387,1387,1387,1381,1381,1381,1381,1381,1381,1387,1387,1387,1387,1387,1387,1387,1381,1381,1381,1381,1381,1381,1381,1381,1381,1381,1097,1097,1097,1097,1101,1101,1101,1101,1101,1105,1105,1105,1105,1105,1105,1108,1108,1108,1108,1108,1108,1108,1112,1108,1108,1105,1105,1105,1105,0,0,0,0,0,0,0,0,0,0,698,698,697,697,697,696,694,693,693,688,687,686,684,684,683,683,683,683,684,684,686,687,688,690,691,693,693,696,697,700,701,701,703,0,0,0,0,0,0,0,0,0,1278,1278,1278,1283,1278,1278,1278,1278,1278,1278,1278,1283,1283,1288,1288,1288,1297,1297,1343,1343,1349,1349,1349,1349,1354,1349,1349,1349,1349,1349,1349,1349,1349,1349,1349,1349,1354,1349,1349,1349,1349,1349,1349,1349,1349,1349,1349,1349,1349,1349,1343,1343,1349,1343,1343,1343,1343,1343,1343,1338,1338,1338,1338,1338,1338,1338,1338,1343,1343,1343,1343,1343,1343,1343,1343,1343,1338,1338,1338,1338,1338,1338,1338,1338,1338,1338,1338,1338,1338,1333,1333,1333,1333,1333,1333,1333,1333,1328,1328,1328,1328,1328,1070,1067,1067,1067,1063,1063,1063,1060,1060,1057,1057,1057,1057,1057,1057,1060,1063,1063,1067,1070,1073,1073,1077,1080,1317,1317,1317,1317,1317,1317,1317,1317,1317,1317,1312,1312,1312,1312,1312,1312,1312,1312,1317,1317,1317,1312,1312,1312,1312,1312,1312,1312,1312,1312,1312,1312,1312,1312,1312,1312,1317,1312,1312,1312,1312,1312,1312,1312,1312,1312,1312,1312,1312,1312,1312,1312,1312,1312,1312,1307,1307,1307,1307,1307,1307,1307,1302,1302,1307,1307,1307,1307,1302,1302,1302,1302,1297,1297,1297,1297,1302,1302,1302,1297,1297,1297,1297,1297,1297,1297,1292,1292,1292,1297,1297,1297,1297,1302,1302,1302,1297,1297,1297,1297,1297,1292,1292,1292,1292,1297,1297,1297,1297,1297,1292,1292,1292,1292,1292,1288,1288,1288,1288,1288,1288,1288,1288,1288,1288,1288,1288,1288,1283,1283,1283,1283,1283,1283,1283,1283,1288,1288,1288,1288,1283,1283,1283,1278,1278,1278,1273,1273,1278,1278,1273,1273,1273,1273,1278,1273,1273,1264,1259,1255,1250,1250,1245,1245,1245,1241,1241,1241,1245,1250,1255,1255,1264,1268,1264,1264,1264,1264,1264,1259,1259,1264,1138,1134,1134,1130,1123,1123,1119,1115,1112,1108,1105,1097,1094,1090,1087,1084,1080,1077,1070,1067,1063,1063,1063,1060,1060,1057,1057,1057,943,943,943,943,946,946,946,946,946,946,946,946,946,946,948,948,948,948,948,948,948,948,0,0,0,0,0,0,0,0,0,0,0,0,0,0,0,0,0,0,0,0,0,0,0,0,0,0,0,0,0,0,0,0,0,0
0,0,0,0,0,0,0,0,0,0,1415,1415,1415,1410,1410,1410,1410,1410,1410,1410,1404,1404,1404,1404,1404,1404,1404,1410,1404,1404,1404,1404,1404,1404,1404,1410,1410,1404,1404,1410,1410,1410,1410,1410,1410,1410,1410,1410,1410,1410,1404,1404,1404,1404,1404,1398,1398,1398,1398,1398,1404,1398,1392,1392,1392,1392,0,0,0,0,0,0,938,938,938,938,938,935,933,930,928,928,928,928,928,930,933,933,933,935,938,938,940,940,943,946,946,946,946,954,0,1387,1387,1381,1381,1387,1387,1387,1387,1387,1392,1392,1387,1387,1387,1387,1387,1387,1387,1387,1387,1387,1387,1387,1387,1387,1387,1381,1381,1381,1370,1370,1381,1381,1381,1381,1381,1387,1381,1381,1381,1381,1381,1381,1376,1376,1376,1381,1381,1381,1381,1381,1381,1381,1381,1381,1381,1381,1381,1381,1381,1381,1376,1376,1090,1090,1090,1094,1094,1094,1094,1097,1097,1097,1101,1101,1101,1101,1101,1105,1105,1105,1108,1108,1108,1108,1108,1108,1108,1108,1105,1105,1105,1101,1101,1101,0,0,0,0,0,0,0,0,0,0,700,698,698,698,697,697,696,694,693,690,688,687,686,686,684,684,684,684,686,686,687,687,688,691,693,693,694,697,698,700,701,703,703,704,0,0,0,0,0,0,0,0,1283,1283,1283,1283,1283,1283,1278,1278,1278,1278,1283,1283,1283,1288,1288,1292,1297,1307,1343,1343,1349,1349,1349,1343,1343,1343,1343,1343,1343,1343,1343,1343,1349,1349,1349,1343,1343,1343,1343,1349,1349,1349,1343,1343,1343,1343,1343,1343,1343,1343,1338,1338,1338,1338,1338,1338,1338,1338,1338,1338,1333,1333,1333,1333,1333,1333,1333,1338,1338,1338,1338,1338,1338,1338,1338,1338,1338,1338,1333,1333,1333,1333,1333,1333,1333,1333,1333,1328,1328,1333,1328,1328,1328,1328,1328,1328,1328,1322,1322,1328,1322,1322,1070,1070,1070,1070,1067,1063,1063,1063,1060,1060,1057,1057,1057,1060,1060,1060,1063,1063,1067,1070,1073,1077,1077,1080,1317,1317,1312,1312,1312,1312,1312,1312,1312,1312,1312,1312,1312,1312,1312,1312,1312,1312,1312,1312,1312,1307,1307,1307,1307,1307,1307,1307,1307,1307,1307,1307,1307,1307,1307,1307,1307,1307,1307,1307,1312,1312,1307,1307,1307,1307,1307,1307,1307,1307,1307,1307,1307,1307,1307,1307,1307,1307,1302,1302,1302,1302,1302,1302,1302,1302,1302,1297,1297,1297,1297,1297,1292,1292,1292,1292,1292,1292,1297,1292,1292,1292,1292,1292,1292,1292,1288,1288,1292,1292,1292,1292,1292,1292,1297,1297,1292,1292,1292,1292,1292,1288,1288,1292,1292,1292,1292,1292,1297,1292,1292,1292,1292,1288,1288,1288,1288,1283,1283,1283,1283,1283,1283,1283,1283,1283,1283,1283,1278,1278,1278,1278,1278,1278,1278,1278,1278,1278,1283,1283,1278,1278,1278,1273,1273,1273,1273,1273,1273,1273,1273,1273,1273,1273,1273,1273,1268,1259,1255,1250,1250,1250,1245,1245,1245,1245,1245,1245,1250,1255,1255,1255,1259,1264,1264,1264,1259,1259,1264,1259,1259,1264,1134,1130,1130,1126,1123,1119,1112,1112,1108,1105,1101,1094,1090,1087,1084,1084,1077,1070,1067,1063,1063,1063,1063,1060,1057,1057,1054,1054,943,943,943,946,946,946,946,946,946,946,946,946,946,946,948,948,948,948,948,948,951,951,0,0,0,0,0,0,0,0,0,0,0,0,0,0,0,0,0,0,0,0,0,0,0,0,0,0,0,0,0,0,0,0,0,0
0,0,0,0,0,0,0,0,0,0,1410,1410,1410,1410,1404,1404,1404,1404,1404,1404,1398,1398,1398,1398,1398,1398,1392,1392,1398,1398,1398,1398,1404,1404,1404,1410,1410,1404,1404,1404,1410,1404,1404,1404,1404,1404,1410,1404,1398,1398,1398,1398,1398,1398,1398,1398,1398,1398,1398,1398,1398,1398,1392,1392,1392,1392,0,0,0,0,0,0,0,938,938,938,938,938,935,933,933,930,928,928,930,930,933,933,935,935,938,938,940,940,943,946,946,946,954,954,0,1387,1387,1376,1376,1381,1381,1381,1381,1387,1387,1387,1387,1387,1387,1381,1376,1376,1376,1376,1381,1381,1381,1381,1381,1381,1381,1376,1376,1376,1370,1370,1376,1376,1376,1370,1370,1376,1376,1376,1376,1370,1370,1376,1370,1370,1370,1376,1376,1376,1376,1376,1376,1376,1381,1381,1381,1376,1376,1381,1381,1381,1376,1087,1087,1090,1090,1090,1090,1090,1094,1094,1097,1097,1097,1097,1101,1101,1101,1101,1105,1105,1105,1108,1108,1108,1108,1108,1108,1105,1105,1105,1101,1101,1101,1097,1097,0,0,0,0,0,0,0,0,0,700,698,698,698,697,697,697,696,693,691,690,688,687,686,686,686,686,686,686,686,687,688,690,691,693,694,696,697,698,700,701,703,704,704,0,0,0,0,0,0,0,0,1283,1283,1283,1283,1283,1283,1283,1283,1283,1283,1283,1283,1283,1288,1288,1292,1297,1307,1343,1343,1343,1343,1343,1343,1343,1343,1343,1343,1343,1343,1343,1343,1343,1343,1343,1343,1343,1338,1338,1338,1338,1338,1343,1338,1338,1338,1338,1338,1338,1333,1333,1333,1333,1333,1333,1333,1333,1333,1333,1333,1333,1333,1333,1333,1333,1328,1328,1333,1333,1333,1333,1333,1333,1333,1333,1333,1333,1333,1333,1333,1328,1328,1328,1328,1328,1328,1328,1328,1328,1328,1322,1322,1322,1322,1322,1322,1322,1322,1322,1322,1322,1322,1063,1063,1067,1067,1063,1063,1063,1063,1063,1060,1060,1060,1060,1060,1060,1063,1063,1067,1070,1073,1077,1077,1077,1080,1312,1312,1312,1312,1312,1312,1312,1312,1312,1312,1312,1307,1307,1307,1307,1312,1307,1307,1307,1307,1307,1302,1302,1302,1302,1302,1302,1302,1302,1302,1302,1302,1302,1302,1302,1302,1302,1302,1302,1302,1302,1302,1297,1297,1307,1307,1307,1307,1307,1307,1302,1302,1302,1302,1307,1302,1302,1302,1302,1297,1297,1297,1297,1297,1297,1297,1297,1297,1292,1292,1292,1292,1292,1292,1292,1292,1292,1292,1292,1292,1292,1292,1292,1292,1292,1292,1288,1288,1288,1288,1288,1288,1288,1292,1292,1288,1288,1288,1288,1288,1288,1288,1288,1288,1288,1288,1288,1292,1292,1292,1288,1288,1288,1288,1288,1283,1283,1283,1283,1278,1278,1278,1278,1278,1278,1278,1278,1278,1273,1273,1273,1273,1273,1273,1273,1273,1273,1273,1273,1273,1273,1273,1273,1273,1273,1268,1268,1268,1268,1268,1268,1268,1268,1268,1268,1268,1264,1259,1255,1250,1250,1250,1245,1245,1245,1245,1245,1245,1245,1250,1255,1255,1259,1264,1259,1259,1259,1259,1259,1255,1255,1259,1134,1130,1130,1126,1123,1115,1108,1108,1105,1101,1097,1094,1090,1087,1084,1080,1077,1067,1067,1063,1063,1063,1060,1060,1057,1057,1054,1054,943,943,943,946,946,946,946,946,946,946,946,946,946,946,948,948,948,948,951,951,954,954,0,0,0,0,0,0,0,0,0,0,0,0,0,0,0,0,0,0,0,0,0,0,0,0,0,0,0,0,0,0,0,0,0,0
0,0,0,0,0,0,0,0,0,0,1404,1404,1404,1404,1398,1398,1398,1398,1398,1398,1392,1392,1392,1392,1392,1392,1392,1392,1392,1392,1398,1398,1392,1392,1398,1404,1404,1398,1398,1398,1404,1404,1398,1398,1398,1398,1398,1398,1392,1392,1392,1392,1392,1392,1392,1392,1392,1392,1392,1392,1398,1392,1392,1387,1387,1387,1387,0,0,0,0,0,0,943,943,943,940,938,938,935,933,930,930,930,930,933,933,933,935,935,938,938,940,943,946,948,948,948,954,954,954,1376,1376,1376,1376,1376,1376,1376,1376,1381,1381,1381,1376,1376,1376,1376,1370,1370,1370,1370,1376,1376,1376,1381,1381,1376,1376,1376,1376,1376,1370,1370,1370,1370,1370,1370,1370,1376,1370,1370,1370,1370,1370,1370,1370,1370,1370,1370,1370,1370,1370,1370,1370,1370,1376,1090,1090,1087,1084,1080,1080,1084,1087,1087,1087,1087,1090,1090,1090,1090,1090,1094,1094,1097,1097,1097,1101,1101,1101,1101,1105,1105,1105,1108,1108,1108,1108,1108,1108,1105,1105,1101,1101,1097,1097,1097,1097,1097,0,0,0,0,0,0,0,0,700,700,700,700,698,697,697,696,693,693,691,690,687,686,686,686,686,686,686,686,687,688,690,691,693,694,696,697,698,700,701,703,704,706,707,0,0,0,0,0,0,0,0,1288,1288,1288,1283,1283,1283,1283,1283,1283,1283,1283,1288,1288,1292,1297,1297,1312,1333,1333,1338,1343,1338,1338,1338,1338,1338,1338,1338,1338,1338,1338,1338,1338,1338,1338,1338,1333,1333,1333,1333,1333,1333,1333,1333,1333,1333,1333,1333,1333,1333,1328,1328,1328,1328,1328,1328,1328,1328,1328,1328,1328,1328,1328,1328,1328,1328,1333,1333,1333,1333,1333,1333,1333,1328,1328,1328,1328,1328,1328,1328,1328,1322,1322,1322,1322,1322,1322,1322,1322,1322,1317,1317,1317,1317,1317,1317,1317,1317,1322,1317,1317,1063,1060,1060,1063,1063,1063,1063,1063,1063,1063,1060,1060,1060,1063,1063,1063,1067,1067,1070,1073,1077,1077,1080,1080,1312,1312,1312,1312,1307,1307,1307,1307,1307,1307,1307,1307,1307,1307,1307,1307,1307,1302,1302,1302,1302,1297,1297,1297,1297,1297,1297,1297,1297,1297,1297,1297,1297,1297,1297,1297,1297,1297,1297,1297,1297,1297,1297,1297,1297,1297,1297,1297,1302,1302,1302,1302,1297,1297,1302,1297,1297,1297,1292,1292,1292,1292,1292,1292,1292,1292,1292,1292,1292,1292,1292,1292,1292,1292,1292,1292,1292,1292,1292,1292,1292,1288,1288,1288,1288,1288,1288,1288,1288,1288,1288,1288,1288,1288,1288,1288,1288,1288,1283,1283,1283,1283,1283,1283,1283,1283,1283,1283,1283,1283,1283,1283,1283,1283,1283,1278,1278,1278,1278,1278,1278,1278,1278,1273,1273,1273,1273,1273,1273,1273,1273,1273,1273,1273,1273,1268,1268,1268,1273,1268,1268,1268,1268,1268,1268,1268,1268,1268,1268,1268,1268,1264,1264,1264,1264,1264,1259,1255,1255,1250,1250,1250,1245,1245,1245,1245,1245,1245,1245,1250,1250,1255,1255,1264,1259,1259,1259,1259,1259,1255,1255,1259,1134,1130,1126,1123,1119,1112,1108,1105,1101,1101,1097,1094,1090,1087,1084,1077,1073,1067,1067,1063,1060,1060,1060,1057,1057,1054,1054,943,943,943,943,946,946,946,946,946,946,946,946,946,946,948,948,948,948,948,951,951,954,954,0,0,0,0,0,0,0,0,0,0,0,0,0,0,0,0,0,0,0,0,0,0,0,0,0,0,0,0,0,0,0,0,0,0
0,0,0,0,0,0,0,0,0,0,1398,1398,1398,1398,1398,1398,1398,1392,1392,1392,1387,1387,1392,1387,1387,1392,1392,1392,1387,1387,1392,1392,1392,1392,1392,1392,1392,1392,1398,1398,1398,1398,1398,1392,1392,1392,1392,1392,1392,1387,1387,1387,1387,1392,1392,1392,1392,1392,1392,1392,1392,1392,1392,1387,1370,1370,1370,0,0,0,0,0,0,0,943,943,943,940,940,938,935,933,933,933,933,933,933,933,935,935,938,938,940,946,946,948,948,951,954,954,954,954,1376,1376,1370,1370,1370,1376,1376,1376,1376,1376,1370,1370,1370,1370,1370,1370,1370,1370,1370,1370,1370,1370,1370,1370,1370,1370,1370,1370,1370,1370,1370,1370,1370,1370,1370,1370,1370,1365,1365,1365,1365,1365,1370,1370,1370,1370,1365,1365,1365,1365,1365,1365,1370,1087,1087,1084,1084,1080,1080,1080,1084,1084,1084,1087,1087,1090,1090,1090,1090,1094,1094,1094,1097,1097,1101,1101,1101,1101,1101,1105,1105,1108,1108,1108,1108,1108,1105,1105,1101,1101,1101,1097,1097,1097,1094,1094,1094,0,0,0,0,0,0,0,701,701,701,703,700,698,698,697,694,693,691,690,688,687,687,687,687,687,687,687,687,688,690,691,693,694,696,698,698,701,703,704,704,706,707,708,0,0,0,0,0,0,0,1288,1288,1288,1288,1288,1283,1283,1283,1283,1283,1283,1288,1292,1292,1297,1297,1312,1322,1333,1333,1338,1338,1333,1333,1333,1333,1333,1333,1333,1333,1333,1338,1333,1333,1333,1333,1328,1328,1328,1328,1328,1328,1328,1328,1328,1328,1328,1328,1328,1328,1328,1328,1328,1328,1328,1328,1328,1328,1328,1328,1328,1328,1328,1322,1322,1322,1328,1328,1328,1328,1328,1328,1328,1328,1328,1328,1328,1322,1322,1322,1322,1317,1317,1317,1317,1317,1317,1317,1317,1317,1312,1312,1317,1317,1317,1317,1317,1317,1322,1317,1054,1054,1054,1057,1060,1060,1060,1060,1060,1060,1063,1063,1063,1063,1063,1063,1063,1067,1070,1073,1077,1077,1080,1080,1080,1312,1312,1307,1307,1307,1302,1302,1302,1302,1302,1302,1302,1302,1302,1307,1307,1302,1302,1297,1297,1297,1297,1297,1297,1297,1297,1297,1297,1297,1297,1297,1297,1297,1297,1292,1292,1292,1292,1292,1292,1292,1292,1292,1292,1292,1292,1292,1292,1292,1292,1292,1297,1292,1292,1292,1292,1292,1292,1292,1292,1292,1292,1292,1292,1292,1292,1292,1292,1292,1292,1292,1292,1292,1288,1288,1288,1288,1288,1288,1288,1288,1288,1288,1288,1288,1288,1283,1283,1283,1283,1283,1288,1283,1283,1283,1283,1283,1283,1278,1278,1278,1278,1278,1278,1278,1278,1278,1278,1278,1278,1273,1273,1273,1273,1278,1278,1273,1273,1278,1278,1273,1273,1273,1273,1268,1268,1268,1268,1273,1273,1268,1268,1268,1268,1268,1268,1264,1264,1268,1264,1264,1264,1264,1264,1264,1268,1264,1264,1264,1264,1264,1264,1264,1259,1259,1259,1255,1255,1250,1250,1250,1250,1245,1245,1245,1245,1245,1245,1245,1250,1250,1250,1250,1255,1255,1255,1255,1255,1255,1255,1255,1255,1255,1123,1123,1119,1115,1112,1105,1105,1101,1097,1094,1090,1087,1084,1080,1077,1067,1067,1063,1063,1060,1060,1057,1057,1057,1054,943,943,943,943,943,946,946,946,946,946,946,946,946,946,946,948,948,948,948,948,951,954,954,954,0,0,0,0,0,0,0,0,0,0,0,0,0,0,0,0,0,0,0,0,0,0,0,0,0,0,0,0,0,0,0,0,0,0
0,0,0,0,0,0,0,0,0,0,1398,1398,1398,1398,1392,1392,1392,1392,1392,1392,1387,1387,1387,1387,1387,1387,1387,1387,1387,1387,1387,1387,1387,1387,1381,1381,1387,1387,1387,1387,1387,1387,1392,1392,1392,1392,1387,1387,1387,1387,1387,1387,1387,1387,1387,1392,1392,1392,1392,1392,1387,1387,1381,1376,1370,1365,1365,1365,0,0,0,0,0,0,0,946,946,943,940,938,935,935,933,933,933,935,935,935,935,935,938,938,943,946,948,948,951,954,954,954,954,954,0,0,1370,1370,1370,1370,1370,1370,1370,1370,1365,1365,1365,1365,1365,1365,1365,1365,1365,1365,1365,1365,1365,1365,1365,1365,1365,1370,1370,1370,1370,1370,1370,1365,1365,1365,1365,1365,1365,1365,1365,1365,1365,1365,1365,1365,1365,1365,1365,1359,1359,1365,1365,1084,1084,1080,1080,1080,1080,1080,1084,1084,1084,1084,1087,1087,1087,1087,1087,1090,1094,1094,1097,1097,1101,1101,1101,1101,1101,1105,1105,1108,1108,1108,1108,1108,1105,1105,1101,1101,1101,1097,1097,1097,1094,1094,1094,0,0,0,0,0,0,0,704,704,704,703,703,700,698,698,697,696,693,691,690,688,687,687,687,687,687,687,687,688,690,691,693,694,697,698,700,701,703,704,706,707,708,708,0,0,0,0,0,0,0,0,0,1292,1292,1288,1288,1288,1288,1288,1288,1288,1288,1292,1297,1297,1307,1312,1317,1328,1328,1333,1333,1328,1328,1328,1328,1328,1333,1333,1333,1333,1333,1328,1328,1328,1328,1328,1328,1328,1328,1328,1322,1322,1322,1322,1322,1322,1322,1322,1322,1322,1322,1322,1322,1322,1322,1322,1322,1322,1322,1322,1322,1322,1322,1322,1322,1328,1328,1322,1322,1322,1322,1322,1322,1322,1322,1317,1317,1317,1317,1317,1317,1312,1312,1312,1312,1312,1312,1312,1312,1312,1312,1312,1312,1312,1317,1312,1312,1317,1050,1050,1050,1050,1050,1054,1057,1057,1060,1060,1060,1060,1063,1063,1063,1063,1063,1067,1067,1070,1073,1077,1077,1080,1080,1080,1307,1307,1307,1302,1302,1297,1297,1297,1297,1297,1297,1297,1297,1302,1302,1302,1297,1297,1297,1297,1297,1292,1292,1292,1292,1292,1292,1292,1292,1292,1292,1292,1292,1292,1292,1292,1292,1292,1292,1288,1288,1288,1288,1288,1292,1292,1292,1288,1288,1292,1292,1288,1288,1288,1288,1292,1292,1292,1288,1288,1288,1288,1288,1288,1288,1288,1288,1288,1288,1288,1288,1288,1288,1288,1288,1288,1288,1288,1288,1288,1283,1283,1283,1283,1283,1283,1283,1283,1278,1278,1278,1283,1278,1278,1278,1278,1278,1278,1273,1273,1273,1273,1273,1273,1273,1273,1273,1273,1273,1273,1273,1268,1268,1268,1268,1268,1268,1273,1273,1273,1268,1268,1268,1268,1268,1268,1268,1268,1268,1268,1268,1268,1268,1268,1268,1264,1259,1259,1264,1259,1259,1259,1259,1259,1259,1264,1259,1259,1264,1264,1264,1259,1259,1259,1255,1255,1255,1250,1250,1250,1245,1245,1245,1245,1245,1245,1245,1245,1245,1245,1250,1250,1250,1250,1255,1255,1250,1250,1250,1250,1255,1255,1255,1123,1123,1119,1112,1105,1105,1101,1094,1094,1087,1084,1080,1080,1077,1073,1067,1063,1063,1063,1060,1057,1057,1057,940,940,940,943,943,943,946,946,946,946,946,946,946,946,946,946,946,946,948,948,948,948,951,954,954,956,0,0,0,0,0,0,0,0,0,0,0,0,0,0,0,0,0,0,0,0,0,0,0,0,0,0,0,0,0,0,0,0,0,0
0,0,0,0,0,0,0,0,0,0,1392,1392,1392,1392,1392,1392,1392,1392,1392,1387,1387,1387,1381,1381,1381,1381,1387,1387,1381,1381,1387,1381,1381,1381,1376,1376,1381,1381,1381,1387,1387,1387,1387,1387,1387,1387,1381,1381,1381,1381,1381,1381,1381,1381,1381,1387,1387,1387,1381,1376,1376,1376,1376,1370,1370,1365,1365,1365,0,0,0,0,0,0,0,946,946,946,943,940,938,935,935,935,935,935,935,935,935,935,938,938,943,946,951,951,951,954,954,954,954,954,954,0,1370,1370,1365,1365,1365,1365,1365,1365,1365,1365,1365,1365,1365,1365,1365,1365,1365,1359,1359,1359,1359,1359,1359,1359,1359,1365,1365,1359,1359,1365,1365,1365,1365,1365,1359,1359,1359,1359,1359,1359,1365,1365,1365,1365,1365,1063,1063,1067,1067,1073,1073,1077,1077,1080,1077,1077,1077,1080,1080,1080,1080,1080,1084,1084,1084,1087,1087,1090,1094,1097,1097,1097,1101,1101,1101,1101,1101,1105,1108,1112,1112,1112,1108,1108,1108,1105,1101,1101,1101,1097,1097,1097,1097,1094,1094,0,0,0,0,0,0,0,706,704,704,704,703,701,700,698,698,697,694,693,693,691,690,688,687,687,687,687,688,690,691,693,694,696,697,698,700,703,704,706,707,708,708,710,0,0,0,0,0,0,0,0,0,1297,1297,1292,1288,1288,1288,1288,1288,1288,1288,1292,1297,1297,1307,1312,1312,1322,1328,1328,1328,1328,1328,1328,1328,1328,1328,1328,1328,1328,1328,1322,1322,1322,1322,1322,1322,1322,1322,1322,1322,1322,1322,1317,1317,1317,1317,1317,1317,1317,1317,1317,1317,1317,1317,1322,1322,1322,1322,1322,1322,1322,1322,1322,1322,1322,1322,1322,1317,1317,1317,1317,1312,1312,1312,1312,1312,1312,1312,1312,1312,1312,1312,1312,1312,1312,1312,1312,1312,1307,1307,1312,1312,1312,1312,1312,1312,1047,1047,1050,1050,1050,1050,1050,1050,1050,1054,1054,1057,1057,1060,1060,1063,1063,1063,1067,1067,1070,1073,1077,1077,1080,1080,1080,1307,1307,1302,1302,1297,1297,1297,1292,1292,1297,1297,1297,1297,1297,1297,1297,1297,1292,1292,1292,1292,1292,1292,1292,1292,1292,1292,1292,1292,1292,1292,1292,1292,1292,1288,1288,1288,1288,1288,1288,1288,1288,1288,1288,1288,1288,1288,1288,1288,1288,1288,1288,1288,1288,1288,1288,1283,1283,1288,1288,1288,1288,1288,1288,1288,1288,1288,1288,1288,1288,1288,1288,1288,1288,1283,1283,1283,1283,1283,1278,1278,1278,1278,1278,1278,1278,1278,1278,1273,1273,1273,1273,1273,1273,1273,1273,1273,1273,1273,1273,1273,1273,1273,1273,1273,1273,1273,1268,1268,1268,1268,1268,1268,1268,1268,1268,1268,1268,1268,1268,1268,1264,1264,1264,1264,1264,1264,1264,1264,1264,1264,1264,1264,1264,1259,1259,1259,1259,1259,1255,1255,1259,1255,1255,1255,1259,1259,1259,1259,1259,1259,1259,1255,1255,1255,1250,1250,1245,1245,1245,1245,1245,1245,1241,1241,1241,1241,1241,1241,1241,1245,1245,1245,1250,1250,1250,1250,1245,1245,1245,1250,1250,1250,1250,1105,1105,1105,1105,1101,1097,1094,1090,1087,1084,1080,1080,1077,1070,1067,1063,1063,1060,1057,1054,1054,938,938,940,940,943,943,943,946,946,946,946,946,946,946,946,946,946,946,946,948,948,948,948,951,954,956,956,0,0,0,0,0,0,0,0,0,0,0,0,0,0,0,0,0,0,0,0,0,0,0,0,0,0,0,0,0,0,0,0,0,0
0,0,0,0,0,0,0,0,0,0,1392,1392,1387,1387,1387,1387,1387,1387,1387,1387,1387,1381,1376,1376,1376,1376,1381,1370,1370,1370,1370,1370,1370,1370,1370,1370,1376,1381,1381,1381,1381,1387,1381,1381,1381,1381,1376,1370,1370,1376,1376,1376,1376,1376,1376,1381,1381,1381,1376,1370,1370,1376,1370,1370,1370,1365,1365,1365,1354,1343,1343,1343,1343,0,0,948,948,946,943,943,940,935,935,935,935,935,935,935,935,935,938,940,943,946,951,951,951,954,954,954,954,951,951,951,1365,1365,1365,1359,1359,1359,1359,1359,1359,1359,1359,1359,1359,1359,1359,1359,1359,1359,1359,1359,1354,1354,1359,1359,1359,1359,1354,1354,1359,1359,1359,1359,1359,1359,1359,1359,1354,1354,1354,1354,1359,1359,1359,1365,1063,1063,1063,1063,1067,1067,1070,1073,1073,1077,1077,1077,1077,1077,1080,1080,1080,1080,1080,1084,1084,1087,1087,1090,1094,1097,1097,1097,1101,1101,1101,1101,1101,1105,1108,1112,1112,1112,1108,1108,1108,1105,1101,1101,1101,1097,1097,1097,1097,1094,1094,0,0,0,0,0,0,0,706,706,704,704,703,703,701,700,698,697,694,694,693,691,690,690,690,690,690,690,690,690,691,694,696,697,698,700,701,703,704,706,707,708,708,710,0,0,0,0,0,0,0,0,0,1297,1297,1292,1292,1288,1288,1288,1288,1288,1292,1297,1297,1302,1307,1312,1312,1317,1322,1322,1322,1322,1322,1322,1322,1322,1322,1322,1322,1317,1317,1317,1312,1312,1317,1317,1317,1317,1317,1317,1317,1312,1312,1312,1312,1317,1312,1312,1317,1312,1312,1312,1312,1317,1317,1312,1312,1312,1312,1317,1317,1317,1317,1317,1317,1322,1317,1317,1312,1312,1312,1312,1312,1312,1312,1312,1312,1312,1312,1307,1307,1312,1307,1307,1307,1307,1307,1312,1312,1307,1307,1312,1312,1312,1312,1312,1044,1044,1044,1047,1047,1044,1044,1047,1050,1050,1050,1054,1054,1057,1060,1060,1063,1063,1063,1067,1067,1070,1073,1077,1080,1080,1080,1080,1297,1297,1297,1297,1297,1292,1292,1292,1292,1292,1292,1292,1292,1292,1292,1292,1292,1292,1292,1292,1292,1288,1288,1288,1288,1288,1288,1288,1288,1288,1288,1288,1288,1288,1283,1283,1283,1288,1288,1283,1283,1283,1283,1283,1283,1288,1288,1288,1288,1288,1288,1283,1283,1283,1283,1283,1283,1278,1278,1278,1278,1278,1283,1283,1283,1283,1283,1283,1283,1283,1283,1278,1278,1278,1278,1278,1278,1278,1273,1273,1273,1273,1273,1273,1273,1273,1273,1273,1268,1268,1268,1268,1268,1268,1268,1268,1268,1268,1268,1268,1268,1268,1268,1268,1268,1268,1268,1268,1264,1264,1264,1264,1264,1264,1264,1264,1264,1259,1259,1259,1259,1255,1255,1255,1259,1259,1259,1259,1259,1264,1264,1259,1259,1259,1259,1259,1255,1255,1255,1255,1255,1255,1255,1255,1255,1255,1255,1255,1255,1255,1259,1255,1255,1255,1255,1250,1250,1245,1245,1245,1245,1241,1241,1236,1236,1236,1236,1236,1236,1236,1241,1241,1241,1245,1245,1245,1245,1241,1241,1241,1245,1245,1245,0,1105,1105,1105,1105,1101,1094,1090,1087,1084,1080,1080,1077,1073,1070,1063,1063,1060,1060,1057,1054,938,938,938,940,940,943,943,943,946,946,946,946,946,946,946,946,946,946,946,948,948,948,948,951,954,954,956,956,0,0,0,0,0,0,0,0,0,0,0,0,0,0,0,0,0,0,0,0,0,0,0,0,0,0,0,0,0,0,0,0,0,0
0,0,0,0,0,0,0,0,0,0,1387,1387,1381,1376,1376,1376,1376,1376,1381,1381,1381,1376,1376,1376,1376,1376,1376,1370,1370,1365,1365,1370,1370,1370,1370,1370,1370,1370,1370,1376,1376,1381,1376,1376,1376,1376,1370,1370,1370,1370,1370,1370,1370,1370,1370,1370,1370,1370,1370,1370,1370,1370,1370,1370,1365,1365,1365,1359,1354,1343,1343,1343,1343,0,956,951,951,951,948,946,943,940,938,935,935,938,938,938,938,938,938,940,946,946,948,951,954,954,954,954,954,951,951,951,0,1359,1359,1359,1354,1354,1354,1354,1354,1354,1354,1354,1354,1354,1354,1354,1354,1354,1354,1354,1354,1354,1354,1354,1354,1354,1349,1349,1354,1354,1354,1354,1354,1354,1354,1354,1354,1354,1354,1354,1359,1359,1359,1359,1063,1063,1063,1063,1067,1067,1070,1070,1073,1073,1077,1077,1077,1077,1077,1077,1077,1080,1080,1080,1084,1084,1087,1087,1090,1094,1097,1097,1101,1101,1101,1101,1105,1105,1108,1112,1115,1115,1112,1112,1112,1105,1105,1105,1101,1101,1097,1097,1097,1097,1097,1097,0,0,0,0,0,0,707,706,704,704,704,703,703,700,698,698,697,694,694,693,691,691,691,690,690,690,691,691,693,694,696,697,698,700,701,703,704,706,707,708,708,710,0,0,0,0,0,0,0,0,0,1302,1297,1297,1292,1292,1288,1288,1288,1288,1292,1297,1297,1302,1307,1312,1312,1317,1322,1322,1317,1317,1317,1317,1317,1322,1322,1322,1322,1317,1317,1312,1312,1312,1312,1312,1312,1312,1312,1312,1312,1312,1312,1312,1312,1312,1312,1312,1312,1312,1312,1312,1312,1312,1312,1307,1307,1307,1307,1307,1307,1307,1307,1312,1312,1317,1317,1312,1312,1312,1307,1307,1307,1307,1307,1307,1307,1307,1307,1307,1307,1307,1307,1307,1307,1307,1307,1307,1307,1307,1307,1307,1312,1312,1312,1044,1041,1041,1041,1044,1044,1044,1044,1044,1047,1047,1050,1050,1054,1057,1060,1060,1063,1063,1063,1067,1070,1070,1073,1077,1080,1080,1080,1080,1292,1292,1292,1292,1292,1292,1292,1292,1292,1292,1288,1288,1288,1288,1288,1288,1292,1288,1288,1288,1288,1288,1288,1288,1288,1288,1288,1283,1283,1283,1283,1283,1283,1283,1278,1278,1278,1283,1283,1278,1278,1283,1283,1283,1283,1283,1283,1283,1283,1283,1283,1278,1278,1278,1278,1278,1278,1278,1273,1273,1273,1273,1273,1273,1273,1278,1278,1278,1278,1278,1278,1278,1273,1273,1273,1273,1273,1273,1273,1273,1273,1273,1273,1268,1268,1268,1268,1268,1268,1264,1264,1264,1264,1264,1264,1264,1268,1268,1268,1268,1268,1268,1268,1268,1268,1264,1264,1264,1259,1259,1259,1259,1259,1259,1259,1259,1259,1259,1259,1259,1255,1255,1255,1255,1255,1255,1255,1255,1255,1255,1259,1255,1255,1255,1255,1255,1255,1255,1255,1255,1255,1255,1255,1255,1255,1255,1255,1255,1255,1255,1255,1255,1255,1250,1250,1250,1245,1241,1241,1241,1236,1236,1232,1232,1232,1236,1236,1232,1232,1236,1236,1236,1236,1241,1241,1241,1241,1236,1236,1236,1241,1241,1241,1105,1105,1105,1105,1105,1101,1094,1090,1087,1084,1080,1080,1077,1073,1067,1063,1060,1060,1057,1054,1054,938,938,938,940,943,943,943,943,946,946,946,946,946,946,946,946,946,946,946,948,948,948,948,951,954,954,956,956,0,0,0,0,0,0,0,0,0,0,0,0,0,0,0,0,0,0,0,0,0,0,0,0,0,0,0,0,0,0,0,0,0,0
0,0,0,0,0,0,0,0,0,0,1376,1376,1370,1370,1370,1370,1370,1370,1370,1376,1376,1376,1370,1370,1370,1370,1370,1370,1370,1365,1365,1365,1370,1365,1365,1365,1365,1365,1365,1370,1370,1376,1370,1370,1370,1370,1370,1365,1365,1365,1365,1365,1365,1365,1359,1359,1359,1365,1365,1365,1365,1365,1365,1365,1365,1365,1359,1359,1359,1343,1343,1343,1343,1343,0,956,951,951,948,946,943,943,940,938,938,938,938,938,938,938,938,943,946,948,948,954,954,954,954,956,956,954,954,954,0,0,1354,1354,1354,1354,1354,1354,1354,1354,1349,1349,1349,1349,1349,1349,1349,1349,1349,1349,1349,1349,1349,1349,1349,1349,1349,1349,1349,1349,1349,1349,1349,1349,1349,1349,1349,1349,1349,1349,1354,1063,1060,1060,1063,1063,1063,1063,1067,1067,1070,1070,1070,1073,1073,1073,1077,1077,1077,1077,1077,1080,1080,1080,1084,1084,1087,1087,1090,1094,1097,1097,1101,1101,1101,1105,1105,1108,1112,1115,1115,1115,1115,1115,1112,1105,1105,1105,1101,1101,1097,1097,1097,1097,1097,1097,0,0,0,0,0,0,0,706,704,704,704,703,703,701,700,698,697,696,694,693,693,691,691,691,691,691,691,693,693,694,696,697,698,700,703,704,704,706,707,708,710,711,0,0,0,0,0,0,0,0,0,1302,1302,1297,1297,1292,1292,1288,1288,1288,1292,1297,1297,1307,1307,1312,1312,1317,1317,1317,1317,1312,1312,1312,1312,1312,1317,1317,1312,1312,1312,1312,1307,1307,1307,1307,1307,1307,1307,1307,1307,1307,1307,1307,1307,1307,1307,1307,1307,1307,1307,1307,1307,1307,1307,1307,1307,1307,1307,1302,1302,1307,1307,1307,1307,1307,1312,1307,1307,1307,1307,1307,1307,1302,1302,1302,1302,1302,1302,1302,1302,1302,1302,1302,1302,1302,1302,1307,1307,1307,1307,1307,1307,1038,1038,1038,1041,1041,1041,1041,1041,1041,1041,1041,1044,1047,1047,1050,1054,1057,1060,1060,1063,1063,1067,1067,1070,1070,1077,1077,1080,1080,1080,1080,1292,1292,1292,1288,1288,1288,1292,1288,1288,1288,1288,1288,1283,1283,1283,1283,1288,1288,1288,1288,1288,1288,1283,1283,1283,1283,1283,1283,1278,1278,1278,1278,1278,1278,1278,1278,1278,1278,1278,1278,1278,1278,1278,1278,1278,1278,1278,1278,1278,1278,1278,1273,1273,1273,1273,1273,1273,1273,1273,1273,1273,1268,1268,1268,1268,1268,1273,1273,1273,1273,1273,1273,1273,1273,1268,1268,1268,1268,1268,1268,1268,1268,1268,1268,1264,1264,1264,1264,1264,1259,1259,1259,1264,1264,1264,1264,1264,1264,1264,1264,1264,1264,1264,1264,1264,1259,1259,1259,1259,1255,1255,1255,1255,1255,1255,1255,1255,1255,1255,1255,1255,1255,1250,1250,1250,1250,1250,1250,1250,1250,1250,1250,1255,1255,1255,1255,1255,1255,1255,1255,1255,1255,1255,1255,1255,1255,1255,1255,1255,1255,1255,1250,1250,1250,1250,1245,1241,1236,1236,1236,1232,1232,1227,1227,1227,1227,1227,1227,1232,1232,1236,1236,1236,1236,1236,1236,1236,1232,1232,1232,1236,1236,1105,1105,1105,1105,1101,1097,1094,1090,1084,1084,1080,1077,1077,1077,1073,1063,1063,1060,1057,1057,1054,1050,938,938,938,940,943,943,943,943,946,946,946,946,946,946,946,946,946,946,946,948,948,948,948,954,954,954,956,956,0,0,0,0,0,0,0,0,0,0,0,0,0,0,0,0,0,0,0,0,0,0,0,0,0,0,0,0,0,0,0,0,0,0
0,0,0,0,0,0,0,0,0,0,1376,1370,1370,1365,1365,1365,1365,1365,1365,1370,1370,1370,1370,1370,1370,1365,1365,1365,1365,1365,1365,1365,1365,1365,1365,1365,1365,1365,1365,1365,1365,1365,1359,1359,1365,1365,1365,1365,1365,1365,1365,1359,1359,1354,1354,1354,1354,1354,1359,1365,1365,1365,1365,1365,1365,1359,1359,1354,1354,1349,1343,1343,1343,1343,956,956,954,954,951,948,946,946,943,940,940,940,940,940,940,940,940,943,946,948,948,954,954,954,956,956,956,956,956,956,0,0,1354,1354,1354,1354,1349,1349,1349,1349,1349,1349,1349,1349,1349,1343,1343,1343,1343,1343,1349,1349,1349,1349,1349,1343,1343,1343,1343,1343,1343,1343,1343,1343,1343,1343,1349,1349,1349,1349,1349,1063,1060,1060,1063,1063,1063,1063,1063,1067,1067,1070,1070,1070,1073,1073,1073,1073,1077,1077,1077,1077,1080,1080,1084,1087,1090,1090,1094,1097,1097,1101,1101,1101,1101,1105,1105,1108,1112,1115,1115,1115,1115,1115,1112,1112,1105,1105,1101,1101,1101,1101,1101,1097,1097,0,0,0,0,0,0,0,0,0,706,704,704,704,703,703,701,700,698,697,696,694,693,693,691,691,691,691,691,693,693,694,696,698,700,701,703,704,706,707,708,708,710,711,713,0,0,0,0,0,0,0,0,1302,1302,1302,1297,1292,1292,1292,1292,1292,1297,1297,1302,1307,1307,1312,1312,1317,1317,1317,1312,1312,1312,1307,1307,1307,1307,1307,1307,1307,1307,1307,1307,1307,1307,1307,1307,1307,1307,1302,1302,1302,1302,1302,1302,1302,1302,1302,1302,1302,1302,1302,1302,1302,1302,1302,1302,1302,1302,1297,1297,1297,1302,1302,1302,1302,1302,1297,1297,1297,1302,1302,1302,1302,1302,1302,1302,1302,1302,1297,1297,1297,1297,1297,1297,1297,1297,1302,1302,1302,1302,1307,1038,1038,1038,1038,1038,1038,1038,1038,1038,1041,1041,1041,1041,1044,1047,1050,1054,1057,1060,1063,1063,1063,1067,1067,1070,1073,1077,1077,1080,1080,1080,1080,1292,1292,1292,1288,1288,1283,1283,1283,1283,1283,1283,1283,1283,1283,1283,1283,1283,1283,1283,1283,1283,1283,1278,1278,1278,1278,1278,1273,1273,1273,1273,1273,1273,1273,1273,1273,1273,1273,1273,1273,1273,1273,1273,1273,1273,1273,1273,1273,1273,1273,1273,1268,1268,1268,1268,1268,1268,1268,1268,1268,1268,1268,1268,1268,1268,1268,1268,1268,1268,1268,1268,1268,1268,1268,1264,1264,1264,1264,1264,1268,1268,1264,1264,1259,1259,1259,1259,1259,1259,1259,1255,1255,1259,1259,1259,1259,1259,1259,1259,1259,1259,1259,1259,1259,1259,1259,1255,1255,1255,1255,1255,1255,1255,1255,1255,1250,1250,1250,1250,1250,1250,1250,1250,1250,1250,1250,1245,1245,1245,1245,1245,1245,1245,1250,1250,1250,1250,1250,1255,1250,1250,1250,1250,1250,1250,1250,1250,1250,1250,1250,1185,1185,1185,1250,1250,1245,1241,1232,1232,1232,1232,1227,1227,1227,1227,1227,1227,1227,1232,1232,1232,1232,1232,1236,1236,1232,1232,1232,1232,1232,1232,1232,1105,1105,1101,1101,1097,1094,1090,1087,1084,1080,1077,1073,1073,1073,1070,1063,1060,1057,1057,1057,1054,940,940,938,938,940,943,943,943,943,946,946,946,946,946,946,946,946,946,946,946,948,948,948,948,954,954,956,956,956,0,0,0,0,0,0,0,0,0,0,0,0,0,0,0,0,0,0,0,0,0,0,0,0,0,0,0,0,0,0,0,0,0,0
0,0,0,0,0,0,0,0,0,0,1370,1365,1365,1365,1365,1359,1354,1354,1359,1365,1365,1365,1365,1365,1365,1365,1365,1359,1359,1359,1359,1359,1359,1359,1359,1359,1359,1359,1354,1354,1359,1359,1354,1354,1354,1359,1359,1359,1359,1359,1359,1359,1354,1354,1349,1349,1354,1354,1354,1359,1359,1359,1359,1365,1359,1359,1354,1354,1354,1354,1343,1343,1343,0,959,959,956,954,951,948,948,946,943,943,940,940,940,940,940,940,940,946,948,948,951,954,954,954,956,956,956,956,956,956,959,0,1343,1343,1343,1349,1349,1349,1349,1349,1349,1349,1343,1343,1343,1343,1343,1343,1343,1343,1343,1343,1343,1343,1343,1343,1343,1338,1338,1338,1338,1338,1343,1343,1343,1343,1349,1349,1349,1349,1060,1060,1060,1060,1063,1063,1063,1063,1063,1067,1067,1067,1067,1070,1070,1073,1073,1073,1073,1077,1077,1077,1080,1080,1084,1087,1090,1090,1094,1097,1097,1101,1101,1101,1101,1105,1105,1108,1112,1115,1115,1115,1115,1115,1112,1108,1108,1105,1105,1101,1101,1101,1101,1101,1101,0,0,0,0,0,0,0,0,0,0,706,706,704,704,704,703,700,698,697,696,694,694,693,693,693,693,693,693,693,693,694,696,698,700,701,703,704,706,707,708,710,711,713,713,0,0,0,0,0,0,0,0,1302,1302,1302,1297,1297,1292,1292,1292,1292,1297,1297,1302,1307,1307,1307,1307,1312,1312,1307,1307,1307,1307,1307,1302,1302,1302,1302,1307,1302,1302,1302,1302,1302,1302,1302,1302,1302,1302,1302,1302,1302,1302,1302,1302,1302,1302,1302,1297,1297,1297,1297,1297,1297,1297,1297,1297,1297,1292,1292,1292,1292,1292,1292,1297,1297,1297,1297,1297,1297,1292,1292,1292,1297,1297,1297,1297,1297,1297,1292,1292,1292,1292,1292,1292,1297,1297,1297,1302,1302,1302,1307,1038,1034,1034,1034,1034,1034,1038,1038,1038,1038,1038,1041,1041,1044,1047,1050,1054,1057,1060,1063,1067,1067,1067,1070,1073,1073,1077,1080,1080,1080,1084,1084,1288,1288,1288,1288,1283,1278,1278,1278,1273,1273,1273,1273,1273,1278,1278,1278,1278,1278,1278,1278,1278,1278,1278,1273,1273,1273,1273,1273,1273,1273,1273,1273,1273,1273,1273,1273,1273,1273,1268,1268,1268,1268,1268,1268,1273,1273,1273,1268,1268,1268,1268,1268,1264,1264,1268,1268,1268,1268,1268,1268,1268,1264,1264,1264,1264,1264,1264,1268,1264,1264,1264,1264,1264,1259,1259,1259,1259,1259,1259,1259,1259,1259,1259,1259,1259,1259,1255,1255,1255,1255,1255,1255,1255,1255,1255,1255,1255,1255,1255,1255,1255,1255,1255,1255,1255,1255,1255,1255,1255,1250,1250,1250,1250,1250,1250,1250,1250,1250,1250,1250,1250,1250,1250,1250,1250,1245,1245,1241,1241,1241,1241,1241,1245,1245,1245,1245,1250,1250,1250,1250,1250,1250,1250,1250,1250,1250,1250,1189,1185,1185,1185,1185,1185,1189,1189,1189,1227,1227,1227,1227,1223,1223,1227,1223,1223,1223,1223,1223,1227,1232,1232,1232,1232,1232,1232,1232,1227,1227,1227,1227,1227,1227,1101,1101,1097,1097,1094,1090,1087,1084,1080,1077,1077,1073,1070,1070,1063,1063,1060,1057,1057,1054,938,938,940,938,938,940,943,943,943,943,946,946,946,946,946,946,946,946,946,946,946,948,948,948,951,954,954,956,956,959,0,0,0,0,0,0,0,0,0,0,0,0,0,0,0,0,0,0,0,0,0,0,0,0,0,0,0,0,0,0,0,0,0,0
0,0,0,0,0,0,0,0,0,0,1365,1365,1365,1359,1359,1354,1354,1354,1354,1359,1359,1359,1359,1359,1359,1359,1359,1359,1359,1359,1359,1359,1359,1359,1359,1354,1354,1354,1354,1354,1354,1354,1349,1349,1354,1354,1359,1359,1359,1359,1359,1354,1354,1349,1349,1349,1349,1349,1354,1354,1354,1359,1359,1359,1359,1354,1354,1354,1354,1354,1343,1343,1343,0,959,959,956,954,951,951,948,946,946,943,940,940,943,943,943,943,943,946,948,948,951,954,954,954,956,956,956,956,956,959,0,0,0,1343,1343,1343,1343,1343,1343,1343,1343,1343,1343,1343,1343,1338,1338,1338,1338,1338,1338,1338,1338,1338,1338,1338,1338,1338,1338,1338,1333,1333,1338,1338,1338,1338,1349,1349,1349,1060,1060,1060,1060,1060,1063,1063,1063,1063,1063,1063,1067,1067,1067,1067,1070,1070,1073,1073,1073,1077,1077,1080,1080,1084,1084,1087,1090,1090,1094,1097,1101,1101,1101,1101,1101,1101,1105,1105,1112,1115,1115,1115,1112,1112,1112,1108,1108,1105,1105,1105,1101,1101,1101,1101,1101,0,0,0,0,0,0,0,0,0,0,0,706,704,704,704,703,701,698,697,697,696,694,694,693,693,693,693,693,694,694,696,697,698,700,701,703,704,706,707,708,710,713,713,714,0,0,0,0,0,0,0,0,1302,1302,1302,1297,1297,1297,1292,1292,1297,1297,1297,1302,1302,1307,1307,1307,1307,1307,1307,1307,1302,1302,1302,1302,1302,1302,1302,1302,1302,1302,1302,1302,1302,1302,1302,1297,1297,1297,1297,1297,1297,1297,1297,1297,1297,1292,1292,1292,1292,1292,1292,1292,1292,1292,1292,1292,1292,1288,1288,1288,1288,1288,1288,1292,1292,1292,1292,1292,1292,1292,1292,1292,1292,1292,1288,1288,1292,1292,1292,1292,1288,1288,1288,1292,1292,1292,1292,1297,1302,1302,1034,1034,1031,1031,1031,1031,1031,1031,1031,1034,1034,1038,1038,1041,1044,1047,1050,1054,1057,1060,1063,1067,1067,1070,1073,1073,1077,1077,1080,1084,1084,1084,1288,1288,1288,1283,1283,1278,1273,1273,1273,1273,1273,1273,1273,1273,1273,1273,1273,1273,1273,1273,1273,1273,1273,1273,1273,1268,1268,1268,1268,1268,1268,1268,1268,1268,1268,1268,1268,1268,1268,1268,1268,1268,1268,1268,1268,1268,1268,1268,1268,1264,1264,1264,1264,1264,1264,1264,1264,1264,1264,1264,1264,1264,1259,1259,1259,1259,1259,1264,1264,1259,1259,1264,1259,1259,1255,1250,1250,1255,1250,1250,1255,1255,1259,1259,1255,1255,1255,1255,1255,1255,1250,1250,1250,1250,1250,1255,1250,1250,1250,1250,1250,1250,1250,1250,1250,1250,1250,1250,1250,1250,1250,1250,1250,1250,1250,1250,1250,1250,1250,1250,1250,1250,1245,1245,1245,1245,1245,1241,1241,1236,1236,1232,1232,1236,1241,1245,1245,1245,1206,1206,1250,1250,1250,1202,1197,1197,1197,1193,1189,1185,1185,1185,1185,1189,1189,1189,1189,1202,1219,1219,1219,1219,1219,1219,1219,1219,1223,1223,1223,1227,1227,1227,1227,1227,1227,1227,1227,1223,1223,1223,1223,1223,1219,1101,1097,1097,1094,1094,1090,1087,1084,1080,1077,1073,1070,1070,1067,1063,1060,1057,1057,1057,1054,938,938,938,938,938,940,943,943,943,943,943,943,946,946,946,946,946,946,946,946,948,948,948,948,954,954,956,956,956,959,0,0,0,0,0,0,0,0,0,0,0,0,0,0,0,0,0,0,0,0,0,0,0,0,0,0,0,0,0,0,0,0,0,0
0,0,0,0,0,0,0,0,0,0,1359,1359,1359,1359,1354,1354,1354,1354,1354,1354,1354,1354,1354,1354,1354,1354,1354,1354,1354,1354,1354,1354,1359,1354,1354,1354,1354,1349,1349,1349,1349,1349,1349,1349,1349,1354,1354,1354,1354,1354,1354,1349,1349,1349,1349,1349,1349,1349,1349,1349,1349,1349,1354,1354,1349,1349,1349,1349,1349,1343,1343,1349,1349,1349,962,962,956,954,954,951,948,948,946,943,943,943,943,943,943,943,946,946,948,948,951,954,954,954,956,956,956,956,956,959,959,0,1343,1343,1343,1343,1338,1338,1338,1338,1338,1338,1338,1338,1338,1333,1333,1333,1333,1333,1333,1333,1333,1333,1333,1333,1328,1328,1328,1328,1333,1333,1338,1333,1333,1333,1343,1349,1057,1057,1060,1060,1060,1060,1063,1063,1063,1063,1063,1063,1063,1063,1067,1067,1067,1070,1073,1073,1073,1077,1077,1080,1084,1084,1087,1087,1090,1094,1094,1097,1101,1101,1101,1101,1101,1101,1101,1105,1322,1322,1317,1317,1112,1112,1112,1108,1108,1108,1105,1105,1101,1101,1101,1101,1101,0,0,0,0,0,0,0,0,0,0,710,707,706,704,704,703,703,700,698,697,697,696,696,694,694,693,693,694,694,694,696,697,700,701,703,703,704,706,707,708,710,713,714,714,717,0,0,0,0,0,0,0,1302,1302,1302,1302,1297,1297,1297,1297,1297,1297,1302,1302,1302,1302,1302,1302,1302,1307,1302,1302,1302,1297,1297,1297,1297,1297,1297,1297,1297,1297,1297,1297,1297,1297,1297,1297,1292,1292,1297,1292,1292,1292,1292,1292,1292,1292,1288,1288,1288,1288,1288,1288,1288,1288,1288,1288,1288,1288,1288,1288,1288,1288,1288,1288,1288,1288,1292,1292,1292,1292,1288,1288,1288,1288,1288,1288,1288,1288,1288,1288,1288,1288,1288,1288,1288,1288,1288,1297,1028,1028,1028,1028,1028,1028,1028,1031,1031,1031,1031,1031,1034,1034,1038,1041,1044,1047,1050,1054,1057,1057,1063,1067,1067,1070,1077,1077,1080,1080,1084,1087,1087,1090,1283,1283,1283,1278,1273,1273,1268,1268,1268,1268,1268,1268,1268,1268,1268,1268,1268,1268,1264,1264,1264,1268,1268,1268,1268,1268,1268,1268,1268,1268,1268,1268,1268,1268,1268,1268,1268,1268,1264,1264,1264,1264,1264,1264,1264,1264,1264,1264,1264,1264,1259,1259,1259,1259,1259,1259,1259,1259,1259,1259,1259,1259,1255,1255,1255,1255,1255,1255,1259,1255,1255,1259,1259,1255,1250,1250,1250,1250,1250,1250,1250,1250,1250,1250,1255,1255,1255,1250,1250,1250,1250,1250,1250,1250,1250,1250,1250,1250,1250,1250,1250,1250,1250,1250,1250,1245,1245,1245,1245,1245,1245,1245,1245,1245,1245,1245,1241,1241,1241,1245,1245,1245,1241,1241,1241,1241,1236,1236,1232,1232,1232,1227,1214,1206,1206,1206,1206,1202,1202,1197,1197,1197,1197,1193,1193,1193,1193,1193,1189,1189,1189,1189,1189,1189,1189,1189,1189,1202,1202,1214,1214,1214,1219,1219,1219,1219,1219,1219,1219,1223,1223,1223,1227,1227,1227,1223,1223,1219,1219,1219,1219,1219,1101,1097,1097,1097,1094,1094,1090,1087,1080,1080,1077,1073,1070,1067,1063,1060,1060,1057,1057,1054,930,930,938,938,938,938,940,943,943,943,943,943,943,946,946,946,946,946,946,946,946,948,948,948,951,954,956,956,956,956,959,0,0,0,0,0,0,0,0,0,0,0,0,0,0,0,0,0,0,0,0,0,0,0,0,0,0,0,0,0,0,0,0,0,0
0,0,0,0,0,0,0,0,0,0,1359,1359,1354,1354,1354,1354,1354,1354,1354,1354,1354,1354,1349,1349,1349,1349,1349,1349,1349,1349,1349,1349,1354,1349,1349,1349,1349,1349,1349,1343,1343,1343,1343,1343,1343,1349,1349,1349,1349,1349,1349,1343,1343,1343,1343,1343,1349,1349,1349,1349,1349,1349,1349,1349,1349,1343,1343,1343,1343,1343,1338,1338,1343,1343,962,962,959,956,954,954,951,948,946,946,943,943,943,943,943,943,946,946,948,948,951,954,956,956,956,959,959,959,959,962,962,0,1343,1343,1343,1338,1338,1338,1333,1333,1333,1333,1333,1333,1333,1328,1328,1328,1328,1328,1328,1328,1328,1328,1328,1328,1328,1328,1328,1328,1333,1333,1047,1047,1333,1047,1047,1047,1047,1054,1054,1054,1057,1060,1060,1060,1060,1060,1060,1063,1063,1063,1067,1067,1067,1070,1073,1073,1073,1077,1077,1080,1084,1084,1087,1090,1090,1094,1094,1097,1101,1101,1101,1101,1101,1101,1101,1317,1317,1317,1317,1317,1317,1312,1312,1312,1307,1307,1105,1105,1307,1307,1307,0,0,0,0,0,0,0,0,0,0,0,0,710,708,707,707,706,704,703,700,700,698,698,697,696,694,694,693,693,694,694,694,696,698,701,703,703,704,704,706,707,710,713,713,714,716,717,0,0,0,0,0,0,0,0,1302,1302,1302,1297,1297,1297,1297,1297,1297,1302,1297,1297,1302,1297,1297,1297,1297,1297,1297,1297,1297,1297,1292,1292,1292,1292,1292,1297,1297,1297,1297,1297,1292,1292,1292,1292,1292,1292,1292,1292,1292,1292,1292,1288,1288,1288,1288,1288,1288,1288,1288,1288,1288,1288,1288,1288,1288,1288,1283,1283,1283,1283,1288,1288,1288,1288,1288,1288,1288,1288,1288,1288,1283,1283,1283,1283,1283,1283,1283,1283,1283,1283,1283,1283,1283,1288,1288,1025,1025,1025,1025,1025,1025,1025,1028,1028,1028,1028,1031,1031,1034,1038,1038,1041,1044,1047,1054,1057,1057,1063,1067,1070,1073,1077,1077,1080,1080,1084,1087,1090,1090,1094,1283,1273,1268,1268,1268,1264,1264,1264,1264,1264,1264,1264,1264,1264,1264,1264,1264,1259,1259,1259,1259,1259,1259,1259,1264,1264,1264,1264,1264,1264,1264,1264,1264,1264,1264,1264,1264,1264,1259,1259,1259,1259,1259,1259,1259,1259,1259,1259,1259,1259,1259,1259,1259,1255,1255,1255,1255,1255,1255,1255,1255,1255,1255,1255,1255,1255,1255,1255,1255,1255,1255,1255,1250,1250,1245,1245,1245,1245,1245,1245,1245,1245,1245,1245,1245,1245,1245,1250,1245,1245,1245,1245,1245,1245,1245,1245,1245,1245,1245,1245,1245,1245,1245,1245,1245,1245,1241,1241,1241,1241,1241,1241,1236,1236,1241,1236,1236,1236,1241,1241,1241,1236,1236,1236,1236,1232,1223,1219,1214,1214,1214,1206,1206,1202,1202,1202,1202,1197,1197,1197,1193,1193,1193,1193,1193,1193,1189,1189,1189,1189,1189,1189,1189,1189,1193,1193,1202,1202,1210,1214,1214,1214,1214,1219,1219,1219,1219,1219,1223,1223,1223,1223,1223,1223,1219,1219,1219,1214,1214,1214,1219,1101,1094,1094,1094,1094,1090,1087,1084,1080,1077,1073,1070,1063,1063,1060,1060,1057,1054,1054,1054,930,930,938,938,938,940,943,943,943,943,943,943,943,946,946,946,946,946,946,946,946,948,948,948,951,954,956,956,956,956,959,0,0,0,0,0,0,0,0,0,0,0,0,0,0,0,0,0,0,0,0,0,0,0,0,0,0,0,0,0,0,0,0,0,0
0,0,0,0,0,0,0,0,0,0,1349,1349,1354,1354,1354,1349,1349,1349,1349,1349,1354,1354,1349,1349,1349,1349,1349,1349,1349,1349,1349,1349,1349,1349,1349,1349,1349,1349,1343,1343,1343,1343,1343,1343,1343,1343,1343,1349,1343,1343,1343,1343,1343,1338,1338,1338,1343,1343,1343,1343,1343,1343,1349,1349,1343,1343,1343,1343,1338,1338,1333,1333,1338,1338,959,959,959,956,956,954,951,948,946,946,943,943,943,943,943,943,946,948,948,951,954,956,956,956,959,959,959,959,959,962,962,0,1343,1343,1338,1333,1328,1328,1328,1328,1328,1328,1328,1328,1328,1328,1328,1328,1328,1328,1328,1328,1328,1328,1328,1328,1328,1328,1328,1328,1047,1047,1047,1044,1044,1047,1047,1047,1047,1050,1050,1050,1050,1060,1060,1060,1060,1060,1060,1063,1063,1063,1063,1063,1067,1067,1070,1073,1073,1077,1080,1080,1084,1087,1087,1090,1094,1094,1097,1097,1101,1101,1101,1101,1101,1101,1312,1312,1312,1312,1312,1312,1312,1312,1307,1307,1307,1307,1307,1307,1307,1307,1302,1302,0,0,0,0,0,0,0,0,0,0,0,0,710,708,708,707,704,703,701,701,700,698,697,697,696,694,694,694,696,696,696,697,701,701,703,703,704,706,707,708,710,713,714,716,717,719,0,0,0,0,0,0,0,0,1297,1297,1297,1297,1297,1297,1297,1297,1297,1297,1297,1297,1297,1292,1292,1292,1292,1288,1288,1292,1288,1288,1288,1292,1292,1292,1292,1292,1292,1292,1292,1292,1292,1288,1288,1288,1288,1292,1288,1288,1288,1288,1288,1288,1288,1288,1283,1283,1288,1288,1288,1288,1288,1288,1288,1283,1283,1283,1283,1283,1278,1278,1283,1283,1283,1283,1283,1283,1283,1283,1283,1278,1278,1278,1278,1278,1278,1278,1278,1278,1283,1283,1283,1283,1283,1288,1022,1022,1022,1022,1022,1025,1025,1025,1025,1025,1028,1028,1028,1031,1034,1038,1038,1041,1044,1047,1054,1057,1060,1063,1070,1073,1077,1077,1080,1080,1084,1087,1090,1090,1094,1094,1264,1264,1264,1264,1264,1264,1259,1259,1259,1259,1259,1259,1259,1259,1259,1259,1259,1259,1259,1255,1255,1255,1255,1255,1255,1255,1255,1255,1259,1259,1259,1259,1259,1259,1259,1259,1259,1259,1255,1255,1255,1255,1255,1255,1255,1255,1255,1255,1255,1255,1255,1255,1255,1255,1255,1255,1255,1255,1250,1250,1255,1250,1250,1250,1250,1250,1250,1250,1250,1250,1250,1250,1245,1245,1245,1245,1245,1241,1241,1241,1241,1241,1241,1241,1241,1241,1241,1236,1236,1241,1241,1241,1241,1241,1241,1241,1241,1241,1241,1241,1241,1241,1241,1241,1241,1241,1236,1236,1236,1236,1236,1236,1236,1236,1236,1232,1232,1232,1232,1232,1236,1232,1232,1227,1223,1223,1214,1210,1206,1206,1206,1206,1202,1202,1202,1202,1197,1197,1193,1193,1193,1193,1193,1193,1193,1193,1189,1189,1189,1189,1189,1189,1189,1189,1193,1193,1202,1202,1210,1210,1210,1214,1214,1214,1214,1219,1219,1219,1219,1219,1219,1219,1219,1219,1219,1214,1214,1210,1210,1210,1210,1094,1094,1094,1094,1090,1087,1084,1080,1077,1077,1073,1070,1063,1063,1060,1057,1057,1054,1054,943,943,940,938,938,938,938,940,940,940,940,943,943,943,943,943,946,946,946,946,946,948,948,948,948,954,956,956,956,956,959,959,0,0,0,0,0,0,0,0,0,0,0,0,0,0,0,0,0,0,0,0,0,0,0,0,0,0,0,0,0,0,0,0,0,0
0,0,0,0,0,0,0,0,0,0,1343,1343,1343,1349,1349,1349,1349,1349,1349,1349,1349,1349,1343,1343,1349,1343,1343,1343,1343,1343,1343,1343,1343,1343,1343,1343,1343,1343,1343,1338,1338,1338,1338,1338,1338,1338,1343,1343,1343,1338,1338,1338,1338,1333,1333,1333,1333,1338,1338,1338,1338,1338,1343,1343,1338,1338,1338,1338,1333,1333,1333,1333,1333,1333,1328,956,956,956,956,954,951,948,946,946,943,943,943,943,943,946,946,948,948,951,954,956,956,956,959,959,959,959,959,962,962,959,1338,1338,1333,1328,1328,1328,1322,1322,1322,1322,1322,1322,1322,1322,1322,1322,1322,1322,1328,1328,1328,1328,1328,1322,1322,1322,1044,1044,1044,1044,1044,1044,1044,1044,1044,1044,1044,1047,1047,1047,1050,1057,1057,1060,1060,1060,1060,1060,1063,1063,1063,1063,1067,1067,1070,1073,1073,1077,1080,1084,1084,1087,1087,1090,1094,1094,1097,1097,1101,1101,1101,1101,1101,1302,1307,1312,1312,1312,1312,1312,1312,1307,1307,1307,1307,1307,1302,1302,1302,1302,1302,1292,1292,0,0,0,0,0,0,0,0,0,0,0,710,710,708,707,706,706,703,703,701,700,698,697,697,696,696,696,696,697,697,698,701,701,703,704,704,706,707,710,711,713,714,716,717,0,0,0,0,0,0,0,0,0,1297,1297,1297,1292,1292,1292,1292,1292,1292,1292,1292,1292,1292,1288,1288,1288,1288,1288,1288,1288,1288,1288,1288,1288,1288,1283,1283,1288,1288,1288,1288,1288,1288,1288,1288,1288,1288,1288,1288,1288,1288,1283,1283,1283,1283,1283,1283,1283,1283,1283,1283,1283,1283,1283,1283,1283,1283,1278,1278,1278,1278,1278,1278,1278,1278,1278,1283,1283,1278,1278,1278,1273,1273,1273,1273,1273,1273,1273,1273,1273,1278,1273,1273,1273,1273,1019,1019,1019,1022,1022,1022,1022,1022,1022,1025,1025,1025,1028,1028,1031,1034,1038,1041,1044,1044,1047,1050,1057,1060,1067,1073,1077,1077,1080,1080,1084,1084,1087,1090,1094,1094,1097,1264,1264,1259,1259,1259,1259,1259,1259,1255,1255,1255,1255,1255,1255,1255,1255,1255,1255,1255,1255,1255,1255,1255,1255,1255,1255,1255,1255,1255,1255,1255,1255,1255,1255,1255,1255,1255,1255,1255,1250,1250,1250,1250,1250,1250,1250,1250,1250,1250,1250,1250,1250,1250,1250,1250,1250,1250,1250,1245,1245,1250,1245,1245,1245,1245,1245,1245,1245,1245,1245,1245,1245,1245,1245,1241,1241,1241,1241,1241,1241,1241,1241,1241,1241,1241,1241,1236,1236,1236,1236,1236,1236,1236,1236,1236,1236,1236,1241,1241,1241,1241,1241,1241,1241,1236,1236,1236,1236,1236,1232,1232,1232,1232,1232,1232,1227,1227,1227,1227,1227,1227,1227,1223,1214,1214,1210,1210,1206,1206,1206,1206,1202,1202,1202,1202,1202,1197,1197,1193,1193,1193,1193,1193,1193,1193,1193,1193,1193,1193,1193,1193,1193,1193,1193,1197,1197,1202,1202,1210,1210,1210,1210,1210,1214,1214,1214,1214,1219,1219,1219,1219,1214,1214,1214,1214,1214,1210,1210,1206,1206,1206,1094,1094,1094,1090,1090,1087,1080,1080,1077,1073,1073,1063,1060,1060,1057,1054,1054,1054,1054,943,940,940,938,938,938,938,940,940,940,940,943,943,943,943,943,943,946,946,946,946,948,948,948,948,954,956,956,956,959,959,962,0,0,0,0,0,0,0,0,0,0,0,0,0,0,0,0,0,0,0,0,0,0,0,0,0,0,0,0,0,0,0,0,0,0
0,0,0,0,0,0,0,0,0,0,1338,1338,1338,1343,1343,1343,1343,1343,1343,1343,1343,1343,1343,1343,1343,1343,1343,1343,1343,1343,1343,1343,1343,1343,1343,1343,1343,1343,1343,1338,1338,1333,1333,1333,1333,1333,1338,1338,1338,1333,1333,1333,1333,1333,1333,1333,1333,1333,1333,1333,1333,1333,1333,1338,1333,1328,1328,1333,1328,1328,1328,1328,1328,1328,1328,1322,956,956,956,956,954,954,948,948,946,946,946,943,943,946,946,948,948,951,954,956,956,956,959,959,959,959,959,959,959,959,1338,1338,1328,1328,1322,1322,1317,1317,1317,1317,1317,1317,1317,1322,1317,1317,1322,1322,1322,1322,1322,1322,1322,1041,1041,1041,1041,1041,1041,1044,1044,1044,1044,1044,1044,1044,1044,1047,1047,1047,1050,1050,1054,1057,1057,1060,1060,1060,1063,1063,1063,1063,1067,1067,1070,1073,1073,1080,1084,1084,1087,1087,1087,1090,1090,1090,1097,1097,1097,1101,1297,1297,1302,1302,1307,1307,1307,1307,1307,1307,1307,1307,1307,1307,1307,1302,1302,1302,1302,1302,1302,1292,1292,0,0,0,0,0,0,0,0,0,0,0,711,710,710,708,707,706,703,703,701,701,700,698,697,697,697,697,697,697,698,700,701,701,703,704,704,706,707,711,713,714,716,717,717,720,720,0,0,0,0,0,0,0,1297,1292,1292,1292,1292,1292,1292,1292,1288,1288,1288,1288,1288,1288,1288,1283,1283,1283,1283,1283,1283,1283,1283,1283,1283,1283,1283,1283,1283,1283,1283,1283,1283,1283,1283,1283,1283,1283,1283,1283,1283,1283,1283,1283,1283,1283,1283,1283,1283,1283,1283,1283,1283,1283,1283,1278,1278,1278,1273,1273,1273,1273,1273,1273,1273,1273,1273,1273,1273,1273,1273,1273,1273,1268,1268,1268,1273,1273,1273,1273,1273,1273,1273,1273,1016,1016,1016,1016,1016,1016,1016,1019,1022,1022,1022,1022,1025,1025,1028,1028,1034,1038,1041,1044,1044,1047,1050,1054,1060,1073,1077,1077,1080,1080,1080,1084,1084,1090,1090,1094,1094,1097,1259,1259,1255,1255,1259,1255,1255,1255,1255,1255,1255,1255,1255,1255,1255,1255,1255,1255,1250,1250,1250,1250,1250,1250,1250,1250,1250,1250,1250,1250,1250,1250,1250,1250,1250,1255,1250,1250,1250,1250,1250,1250,1245,1245,1245,1245,1245,1245,1250,1250,1250,1250,1250,1250,1245,1245,1241,1241,1241,1241,1241,1241,1241,1241,1245,1245,1245,1241,1241,1241,1241,1241,1241,1241,1236,1236,1236,1236,1236,1236,1236,1236,1236,1236,1236,1236,1236,1236,1236,1236,1236,1236,1236,1236,1236,1236,1236,1236,1236,1236,1236,1236,1236,1236,1232,1232,1232,1232,1232,1232,1227,1227,1227,1227,1227,1223,1223,1223,1223,1223,1219,1214,1214,1210,1210,1210,1210,1206,1206,1206,1206,1202,1202,1202,1202,1197,1197,1197,1197,1193,1193,1193,1193,1193,1193,1193,1197,1197,1197,1197,1193,1193,1197,1197,1202,1202,1206,1206,1210,1210,1210,1210,1210,1210,1214,1214,1214,1214,1214,1214,1214,1214,1214,1214,1210,1210,1210,1206,1206,1202,1202,1094,1094,1094,1090,1090,1087,1080,1080,1077,1073,1073,1063,1060,1057,1054,1054,1054,1050,1050,943,940,940,940,940,940,940,940,940,940,940,943,940,940,943,943,943,946,946,946,948,948,948,948,951,956,956,956,956,959,959,962,0,0,0,0,0,0,0,0,0,0,0,0,0,0,0,0,0,0,0,0,0,0,0,0,0,0,0,0,0,0,0,0,0,0
0,0,0,0,0,0,0,0,0,1333,1333,1333,1333,1328,1328,1328,1333,1338,1338,1338,1333,1333,1333,1338,1338,1338,1338,1333,1333,1333,1333,1333,1338,1338,1338,1338,1338,1338,1338,1333,1333,1328,1328,1328,1328,1333,1333,1333,1333,1333,1333,1333,1333,1328,1328,1328,1333,1333,1333,1328,1328,1333,1333,1333,1328,1328,1328,1328,1328,1328,1328,1328,1322,1322,1322,1322,956,956,956,956,954,954,951,951,946,946,946,946,946,948,948,948,948,951,954,956,956,956,959,962,962,962,962,956,956,956,1317,1317,1317,1317,1317,1317,1312,1312,1312,1312,1312,1312,1312,1317,1317,1317,1317,1317,1322,1322,1322,1322,1038,1038,1038,1041,1041,1041,1041,1041,1044,1041,1041,1044,1044,1044,1044,1047,1047,1047,1050,1050,1054,1054,1057,1060,1060,1060,1063,1063,1063,1063,1067,1067,1070,1073,1077,1084,1084,1084,1087,1087,1087,1087,1087,1090,1090,1090,1097,1297,1297,1297,1297,1297,1302,1302,1302,1307,1307,1307,1307,1302,1302,1302,1302,1302,1297,1297,1297,1297,1297,1288,1288,0,0,0,0,0,0,0,0,0,0,714,711,710,710,708,708,707,706,704,703,701,700,698,698,697,697,697,697,698,698,700,701,701,703,704,704,706,708,713,714,716,717,717,719,720,720,0,0,0,0,0,0,0,0,1292,1292,1292,1292,1292,1292,1292,1288,1288,1288,1288,1288,1283,1283,1283,1283,1283,1283,1283,1283,1283,1278,1278,1278,1278,1278,1278,1278,1278,1273,1273,1278,1278,1278,1283,1283,1283,1283,1283,1283,1278,1278,1278,1278,1278,1278,1278,1278,1278,1278,1278,1278,1278,1278,1273,1273,1268,1268,1268,1268,1268,1273,1273,1273,1273,1273,1273,1268,1268,1268,1268,1268,1268,1268,1268,1268,1268,1268,1268,1273,1273,1273,1010,1010,1013,1013,1013,1013,1013,1013,1013,1016,1016,1016,1019,1022,1025,1028,1028,1034,1038,1041,1044,1044,1047,1050,1054,1080,1080,1080,1080,1080,1080,1084,1084,1087,1090,1094,1094,1097,1097,1255,1255,1255,1255,1255,1255,1255,1255,1255,1250,1250,1250,1250,1250,1250,1250,1250,1250,1250,1250,1250,1250,1245,1245,1245,1245,1245,1245,1245,1245,1245,1245,1245,1245,1245,1245,1245,1245,1245,1245,1245,1245,1245,1245,1245,1241,1241,1245,1245,1245,1245,1245,1245,1245,1241,1241,1241,1236,1236,1236,1236,1241,1236,1236,1241,1241,1241,1236,1236,1241,1236,1236,1236,1236,1236,1236,1236,1236,1236,1236,1236,1236,1232,1232,1232,1232,1232,1232,1232,1232,1232,1232,1232,1232,1232,1232,1232,1232,1232,1232,1236,1236,1236,1236,1232,1232,1232,1232,1232,1227,1227,1223,1223,1219,1219,1219,1219,1214,1214,1214,1214,1210,1210,1210,1210,1210,1210,1206,1206,1206,1202,1202,1202,1202,1197,1197,1197,1197,1197,1197,1193,1193,1193,1193,1193,1193,1197,1197,1197,1197,1197,1197,1202,1202,1206,1206,1206,1206,1210,1210,1210,1206,1206,1206,1210,1210,1210,1210,1210,1210,1210,1210,1210,1210,1210,1210,1210,1206,1206,1202,1202,1202,1094,1090,1090,1087,1084,1080,1077,1073,1070,1070,1060,1057,1057,1054,1054,1054,1050,1050,1050,943,940,940,940,940,940,940,940,940,940,943,940,940,943,943,943,946,946,946,948,948,948,948,951,956,956,956,956,959,959,973,0,0,0,0,0,0,0,0,0,0,0,0,0,0,0,0,0,0,0,0,0,0,0,0,0,0,0,0,0,0,0,0,0,0
0,0,0,0,0,0,0,0,0,1328,1328,1328,1328,1328,1328,1328,1328,1328,1328,1328,1328,1328,1328,1328,1328,1328,1328,1328,1328,1328,1328,1328,1328,1328,1333,1333,1333,1333,1333,1333,1328,1328,1328,1328,1328,1328,1328,1328,1333,1333,1333,1328,1328,1328,1328,1328,1328,1328,1328,1328,1328,1328,1328,1328,1328,1328,1328,1328,1328,1322,1322,1322,1322,1317,1317,1317,1317,964,964,962,959,956,956,954,951,948,948,948,948,948,948,948,951,954,954,956,959,959,962,962,962,962,962,956,956,956,0,1312,1312,1312,1312,1312,1312,1312,1307,1307,1307,1307,1307,1312,1312,1312,1312,1317,1322,1322,1322,1038,1038,1038,1038,1038,1038,1038,1038,1041,1041,1041,1041,1041,1041,1044,1044,1044,1047,1047,1050,1050,1054,1054,1057,1060,1060,1060,1063,1063,1063,1063,1067,1067,1070,1073,1077,1084,1084,1084,1087,1087,1087,1087,1087,1090,1090,1090,1292,1292,1297,1297,1297,1297,1297,1302,1302,1302,1302,1302,1302,1297,1297,1297,1297,1292,1292,1292,1292,1292,1292,1288,1288,0,0,0,0,0,0,0,0,0,0,714,713,711,711,710,708,707,706,704,703,703,701,700,698,698,698,698,698,698,700,701,701,703,704,704,704,706,708,713,714,716,717,719,719,720,720,0,0,0,0,0,0,0,0,1288,1288,1288,1288,1288,1288,1288,1283,1283,1283,1283,1283,1283,1278,1278,1278,1278,1278,1278,1278,1278,1278,1278,1278,1273,1273,1273,1273,1273,1273,1273,1273,1273,1273,1273,1268,1268,1273,1273,1273,1273,1273,1273,1273,1273,1273,1273,1273,1273,1273,1273,1273,1273,1268,1268,1268,1268,1264,1264,1264,1264,1268,1268,1268,1268,1268,1268,1268,1268,1268,1264,1264,1268,1264,1264,1264,1264,1268,1268,1273,1004,1004,1007,1007,1010,1010,1010,1010,1013,1013,1013,1013,1013,1016,1016,1019,1025,1028,1031,1034,1038,1041,1044,1044,1047,1050,1050,1087,1087,1084,1084,1084,1084,1084,1087,1090,1090,1094,1097,1097,1101,1255,1255,1250,1250,1250,1250,1250,1250,1250,1250,1250,1250,1250,1250,1250,1250,1245,1245,1245,1245,1245,1245,1245,1245,1241,1241,1241,1241,1241,1241,1241,1241,1241,1241,1241,1241,1241,1241,1241,1236,1236,1236,1241,1241,1241,1241,1241,1241,1241,1241,1241,1241,1241,1241,1236,1236,1236,1236,1236,1236,1236,1236,1236,1236,1236,1236,1236,1236,1236,1236,1236,1236,1236,1236,1236,1236,1236,1236,1236,1236,1232,1232,1232,1227,1227,1227,1223,1223,1223,1227,1227,1223,1219,1219,1219,1223,1227,1227,1227,1227,1227,1227,1223,1223,1227,1227,1227,1227,1227,1223,1223,1219,1219,1219,1214,1214,1214,1210,1210,1210,1210,1210,1210,1210,1210,1206,1206,1206,1206,1206,1202,1202,1202,1202,1197,1197,1197,1197,1197,1197,1197,1197,1197,1197,1197,1197,1197,1197,1197,1197,1202,1202,1202,1206,1206,1206,1206,1206,1206,1206,1206,1206,1206,1206,1206,1206,1206,1206,1206,1206,1206,1210,1210,1210,1210,1206,1206,1202,1202,1197,1197,1197,1090,1090,1087,1087,1084,1080,1077,1073,1067,1063,1060,1057,1057,1054,1054,1054,1050,1050,943,943,940,940,940,940,940,940,940,940,940,943,943,943,943,943,946,946,946,946,948,948,948,951,954,956,956,956,956,959,962,975,0,0,0,0,0,0,0,0,0,0,0,0,0,0,0,0,0,0,0,0,0,0,0,0,0,0,0,0,0,0,0,0,0,0
0,0,0,0,0,0,0,0,0,1328,1328,1328,1328,1328,1328,1322,1322,1322,1322,1328,1322,1322,1322,1322,1322,1322,1322,1322,1322,1328,1328,1328,1328,1328,1328,1328,1328,1328,1328,1328,1328,1328,1328,1328,1328,1328,1328,1328,1328,1333,1333,1328,1328,1328,1328,1328,1328,1322,1322,1322,1322,1322,1322,1322,1322,1322,1322,1322,1322,1322,1322,1322,1317,1317,1317,1317,1317,967,964,964,962,959,959,956,954,951,951,948,948,948,948,948,951,954,956,956,959,959,962,962,964,964,964,962,962,962,0,1307,1307,1307,1307,1307,1307,1307,1307,1307,1307,1307,1307,1307,1312,1312,1312,1317,1322,1322,1038,1038,1038,1038,1038,1038,1038,1038,1038,1038,1038,1041,1041,1041,1041,1044,1044,1044,1047,1047,1050,1050,1054,1054,1057,1060,1063,1063,1063,1063,1067,1067,1067,1070,1073,1077,1084,1084,1084,1084,1087,1087,1087,1087,1087,1090,1292,1292,1292,1292,1292,1292,1292,1292,1292,1292,1292,1297,1297,1292,1292,1292,1292,1292,1292,1288,1288,1288,1288,1288,1288,1288,1288,0,0,0,0,0,0,0,0,0,0,716,714,713,711,710,710,708,707,706,706,704,703,701,700,698,698,698,698,700,700,701,701,703,704,704,706,707,710,713,714,716,717,719,720,720,720,0,0,0,0,0,1019,1019,1019,1022,1022,1019,1019,1288,1288,1283,1283,1283,1283,1278,1278,1278,1273,1273,1273,1273,1278,1278,1278,1278,1278,1278,1273,1273,1268,1268,1268,1268,1268,1268,1268,1268,1268,1268,1264,1264,1264,1264,1264,1268,1268,1268,1268,1268,1268,1268,1268,1268,1268,1268,1268,1268,1264,1264,1264,1264,1264,1264,1264,1264,1268,1264,1264,1264,1264,1264,1264,1264,1264,1259,1259,1264,1259,1259,1259,1259,1264,1268,1273,1004,1004,1007,1007,1007,1007,1007,1007,1010,1010,1010,1013,1013,1013,1016,1019,1025,1028,1031,1038,1041,1041,1044,1044,1047,1047,1050,1090,1090,1087,1087,1087,1087,1087,1090,1090,1094,1094,1097,1097,1101,1250,1250,1250,1250,1250,1250,1250,1250,1245,1245,1245,1245,1245,1245,1245,1245,1245,1245,1241,1241,1241,1241,1241,1241,1236,1236,1236,1241,1236,1236,1236,1241,1241,1241,1236,1236,1236,1236,1236,1236,1236,1236,1236,1236,1236,1236,1236,1236,1236,1236,1236,1236,1236,1236,1236,1236,1236,1232,1232,1236,1232,1232,1232,1232,1232,1232,1232,1232,1232,1232,1232,1232,1232,1232,1232,1232,1232,1232,1232,1232,1232,1227,1227,1227,1223,1223,1223,1219,1219,1219,1214,1214,1214,1214,1214,1214,1219,1219,1219,1219,1219,1219,1219,1219,1219,1214,1214,1219,1219,1219,1219,1219,1214,1214,1214,1214,1210,1210,1210,1206,1206,1206,1206,1206,1206,1206,1206,1206,1206,1206,1202,1202,1202,1202,1197,1197,1197,1197,1197,1197,1197,1197,1197,1197,1197,1197,1197,1197,1202,1202,1202,1202,1202,1206,1206,1206,1206,1206,1206,1206,1206,1202,1202,1202,1202,1202,1202,1202,1202,1202,1202,1202,1206,1206,1202,1202,1202,1202,1197,1197,1197,1197,1090,1087,1087,1084,1084,1080,1077,1073,1067,1063,1060,1057,1054,1054,1054,1054,1050,1050,943,943,940,940,940,940,940,940,940,940,940,943,940,940,943,943,943,946,946,948,948,948,948,951,954,956,956,956,959,962,975,975,0,0,0,0,0,0,0,0,0,0,0,0,0,0,0,0,0,0,0,0,0,0,0,0,0,0,0,0,0,0,0,0,0,0
0,0,0,0,0,0,0,0,0,1328,1328,1328,1328,1322,1322,1322,1322,1322,1322,1322,1322,1317,1317,1322,1322,1322,1322,1322,1322,1322,1322,1322,1322,1322,1328,1328,1328,1328,1328,1328,1328,1322,1322,1322,1322,1322,1328,1328,1328,1328,1328,1328,1328,1322,1322,1322,1322,1322,1322,1322,1322,1322,1317,1317,1322,1322,1322,1322,1322,1322,1322,1317,1312,1312,1307,1307,1307,967,967,964,964,959,959,956,956,954,954,951,951,948,948,951,951,954,956,959,959,962,962,964,964,964,964,964,964,964,0,1302,1302,1302,1302,1302,1302,1302,1302,1302,1302,1302,1302,1307,1307,1307,1312,1025,1025,1025,1031,1031,1031,1034,1034,1034,1034,1034,1038,1038,1038,1038,1038,1041,1041,1041,1044,1044,1047,1047,1050,1050,1054,1054,1057,1060,1063,1063,1063,1067,1067,1067,1067,1070,1073,1077,1084,1084,1087,1087,1087,1087,1087,1087,1087,1297,1292,1292,1292,1292,1292,1292,1292,1292,1292,1292,1292,1292,1292,1288,1288,1288,1288,1288,1288,1288,1288,1288,1288,1288,1283,1283,1283,0,0,0,0,0,0,0,0,0,0,0,716,716,714,713,713,710,708,707,706,704,704,703,701,700,700,700,700,700,701,701,701,703,704,704,706,710,713,714,714,716,717,719,720,720,722,0,0,0,0,0,1019,1019,1019,1022,1022,1019,1019,1019,1016,1016,1016,1016,1283,1278,1278,1273,1268,1268,1273,1273,1273,1273,1273,1273,1273,1273,1268,1268,1268,1268,1268,1268,1268,1268,1264,1264,1264,1264,1264,1264,1264,1264,1264,1264,1264,1264,1264,1264,1264,1264,1264,1264,1264,1264,1264,1264,1259,1259,1259,1259,1259,1259,1255,1255,1259,1259,1259,1259,1259,1259,1259,1259,1259,1255,1255,1259,1255,1255,1255,1255,1264,1268,1004,1004,1004,1004,1004,1004,1004,1007,1007,1007,1007,1010,1010,1013,1013,1016,1019,1025,1028,1031,1038,1041,1041,1044,1044,1044,1047,1094,1094,1090,1090,1090,1090,1090,1090,1090,1090,1094,1094,1097,1097,1097,1250,1241,1241,1241,1245,1245,1245,1245,1245,1245,1245,1241,1241,1241,1241,1241,1241,1241,1236,1236,1236,1236,1236,1236,1236,1236,1236,1236,1236,1236,1236,1236,1236,1236,1236,1236,1236,1236,1236,1232,1232,1232,1232,1232,1232,1232,1232,1232,1232,1236,1232,1232,1232,1232,1236,1232,1232,1232,1232,1232,1232,1232,1227,1227,1227,1227,1227,1227,1227,1227,1227,1227,1227,1227,1227,1227,1232,1227,1227,1227,1227,1227,1223,1223,1223,1219,1219,1214,1214,1214,1210,1206,1206,1206,1210,1210,1214,1214,1214,1214,1214,1214,1214,1214,1214,1214,1214,1214,1214,1214,1214,1214,1214,1210,1210,1210,1206,1206,1206,1206,1206,1206,1206,1206,1206,1206,1206,1206,1206,1202,1202,1202,1202,1202,1202,1202,1197,1197,1197,1197,1197,1197,1197,1197,1197,1197,1197,1197,1202,1202,1202,1202,1202,1202,1202,1202,1202,1202,1202,1202,1202,1202,1197,1197,1197,1197,1197,1197,1197,1197,1197,1202,1202,1202,1197,1197,1197,1197,1197,1193,1193,1197,1090,1087,1084,1084,1080,1077,1077,1070,1063,1060,1057,1054,1054,1054,1054,1054,1050,1050,940,940,940,940,943,943,940,940,940,940,940,940,940,940,943,943,943,946,946,948,948,948,948,951,954,956,956,959,959,975,975,975,0,0,0,0,0,0,0,0,0,0,0,0,0,0,0,0,0,0,0,0,0,0,0,0,0,0,0,0,0,0,0,0,0,0
0,0,0,0,0,0,0,0,0,1322,1322,1322,1322,1322,1317,1317,1317,1317,1317,1317,1317,1317,1317,1317,1317,1317,1317,1317,1317,1322,1322,1322,1322,1322,1322,1322,1322,1322,1322,1322,1322,1322,1322,1322,1322,1322,1322,1322,1322,1322,1322,1322,1322,1322,1322,1322,1317,1317,1317,1317,1317,1317,1317,1317,1322,1317,1317,1317,1317,1317,1317,1312,1307,1307,1302,1302,1307,967,967,967,964,962,962,959,956,954,954,954,954,954,951,951,954,954,956,959,959,962,962,964,964,964,964,964,964,964,967,1302,1302,1302,1302,1302,1302,1302,1302,1302,1302,1302,1302,1302,1302,1302,1025,1025,1025,1025,1025,1025,1031,1031,1031,1031,1034,1034,1034,1034,1038,1038,1038,1038,1038,1041,1044,1047,1047,1047,1050,1050,1054,1054,1057,1060,1063,1067,1067,1067,1070,1070,1070,1073,1073,1077,1084,1087,1087,1087,1087,1090,1288,1288,1288,1292,1292,1292,1288,1288,1288,1288,1288,1288,1288,1288,1288,1288,1288,1288,1288,1288,1288,1288,1288,1288,1283,1283,1283,1283,1278,1278,1278,0,0,0,0,0,0,0,0,0,0,0,716,716,716,714,713,711,710,708,706,704,704,703,703,701,700,700,700,700,701,701,701,703,704,706,708,711,713,714,714,717,719,720,720,722,722,0,0,0,0,0,1019,1019,1019,1019,1019,1019,1019,1016,1016,1016,1016,1016,1016,1278,1278,1268,1268,1268,1268,1268,1268,1268,1268,1268,1268,1268,1268,1264,1264,1264,1264,1264,1264,1264,1264,1264,1264,1259,1259,1259,1259,1259,1259,1259,1259,1259,1259,1259,1259,1259,1259,1259,1259,1259,1259,1259,1255,1255,1255,1255,1255,1255,1255,1255,1259,1255,1255,1255,1255,1255,1255,1255,1255,1255,1255,1255,1255,1255,1250,1250,1001,1001,1001,1001,1001,1004,1004,1004,1004,1004,1004,1004,1007,1007,1010,1013,1013,1016,1022,1025,1028,1031,1038,1038,1041,1044,1044,1044,1097,1097,1094,1090,1090,1090,1090,1090,1090,1090,1090,1094,1094,1097,1097,1097,1236,1236,1236,1236,1236,1236,1236,1236,1236,1236,1236,1236,1236,1236,1236,1236,1236,1236,1232,1232,1232,1232,1232,1232,1232,1232,1232,1232,1232,1232,1232,1232,1232,1232,1232,1232,1232,1232,1232,1232,1232,1232,1232,1227,1227,1227,1227,1227,1227,1227,1227,1227,1227,1232,1232,1232,1232,1232,1232,1232,1227,1227,1227,1227,1223,1223,1223,1223,1223,1223,1223,1223,1223,1223,1223,1223,1223,1223,1223,1223,1223,1223,1219,1219,1219,1219,1214,1214,1210,1210,1206,1206,1206,1206,1206,1206,1210,1210,1210,1210,1210,1210,1210,1210,1210,1210,1210,1210,1210,1206,1206,1206,1206,1206,1206,1206,1206,1202,1202,1202,1202,1202,1202,1202,1206,1206,1206,1206,1202,1202,1202,1202,1202,1202,1197,1197,1202,1202,1197,1197,1197,1197,1197,1197,1197,1197,1197,1197,1197,1197,1197,1197,1197,1197,1197,1197,1193,1193,1193,1193,1197,1197,1197,1197,1197,1197,1197,1197,1193,1193,1193,1193,1193,1193,1193,1193,1193,1189,1189,1189,1193,1193,1193,1080,1080,1084,1080,1077,1077,1070,1063,1060,1057,1054,1054,1050,1050,1050,1050,1050,940,940,940,940,943,943,940,940,940,940,940,940,940,940,943,943,943,946,946,948,948,948,948,954,954,956,956,959,962,975,975,975,0,0,0,0,0,0,0,0,0,0,0,0,0,0,0,0,0,0,0,0,0,0,0,0,0,0,0,0,0,0,0,0,0,0
0,0,0,0,0,0,0,0,0,1322,1322,1322,1322,1317,1317,1312,1312,1312,1317,1312,1312,1312,1312,1317,1317,1312,1312,1317,1317,1317,1317,1317,1317,1317,1317,1317,1317,1317,1317,1312,1312,1312,1317,1317,1322,1322,1317,1317,1317,1317,1317,1317,1317,1312,1312,1317,1317,1312,1312,1312,1317,1312,1312,1312,1317,1317,1312,1312,1312,1312,1312,1312,1307,1302,1302,1288,1288,967,967,967,964,962,962,959,959,956,954,954,954,954,951,951,954,954,956,959,962,962,964,964,964,964,964,964,964,967,967,1302,1302,1297,1297,1297,1297,1302,1297,1297,1297,1297,1302,1028,1025,1025,1025,1025,1025,1025,1025,1025,1028,1031,1031,1031,1031,1031,1034,1034,1034,1038,1038,1038,1038,1041,1044,1047,1047,1047,1050,1050,1050,1054,1057,1060,1063,1067,1067,1067,1070,1070,1073,1073,1077,1084,1087,1087,1087,1087,1087,1283,1283,1288,1288,1288,1283,1283,1283,1283,1283,1283,1283,1283,1283,1283,1283,1283,1283,1283,1283,1283,1283,1283,1283,1283,1283,1278,1278,1278,1268,1264,1264,0,0,0,0,0,0,0,0,0,0,0,717,716,716,714,714,713,711,708,707,707,706,704,703,701,701,701,701,701,701,701,701,703,704,706,710,713,714,714,716,719,720,722,722,722,722,0,0,0,0,0,1016,1016,1016,1019,1016,1016,1016,1016,1016,1016,1013,1013,1013,1013,1013,1013,1268,1268,1268,1268,1268,1268,1268,1268,1264,1264,1264,1264,1264,1259,1259,1259,1259,1259,1259,1259,1259,1259,1255,1255,1255,1255,1259,1255,1255,1259,1259,1259,1255,1255,1255,1255,1255,1255,1255,1255,1255,1255,1255,1255,1250,1250,1250,1250,1255,1255,1255,1255,1255,1255,1255,1255,1250,1250,1250,1250,1250,1250,1250,998,998,998,998,998,1001,1001,1001,1001,1001,1004,1004,1004,1007,1007,1010,1013,1013,1016,1022,1025,1028,1031,1038,1038,1041,1044,1044,1105,1101,1097,1094,1094,1090,1090,1090,1090,1090,1090,1090,1094,1094,1097,1097,1101,1236,1236,1236,1236,1236,1236,1236,1236,1232,1232,1232,1232,1232,1232,1232,1236,1232,1232,1232,1232,1232,1232,1227,1227,1232,1227,1227,1232,1232,1232,1227,1227,1232,1227,1227,1227,1227,1227,1227,1227,1227,1227,1227,1227,1227,1223,1223,1227,1223,1223,1223,1223,1223,1223,1223,1227,1227,1227,1227,1227,1227,1227,1223,1223,1219,1219,1219,1219,1219,1219,1219,1219,1219,1219,1219,1219,1219,1219,1219,1219,1219,1214,1214,1214,1214,1214,1214,1210,1206,1206,1206,1206,1202,1202,1206,1206,1210,1206,1206,1206,1206,1210,1206,1206,1206,1206,1206,1210,1206,1206,1206,1206,1202,1202,1202,1202,1202,1202,1202,1202,1202,1202,1202,1202,1202,1202,1202,1202,1202,1202,1202,1202,1197,1197,1197,1197,1197,1197,1197,1197,1197,1202,1202,1197,1197,1197,1197,1197,1197,1197,1197,1197,1197,1193,1193,1189,1189,1189,1193,1193,1193,1193,1193,1193,1193,1193,1189,1189,1189,1189,1189,1189,1189,1189,1189,1185,1185,1189,1189,1189,1189,1193,1189,1080,1080,1080,1080,1077,1077,1060,1060,1057,1054,1050,1050,1047,1047,1047,1047,1047,940,940,940,940,943,943,940,940,940,940,940,940,940,940,943,943,946,946,948,948,948,948,951,954,956,956,959,962,973,973,975,975,0,0,0,0,0,0,0,0,0,0,0,0,0,0,0,0,0,0,0,0,0,0,0,0,0,0,0,0,0,0,0,0,0,0
