0,0,0,0,1047,1044,1044,1041,1038,1034,1031,1031,1034,1031,1031,1031,1031,1031,1028,1028,1025,1025,1028,1028,1028,1028,1028,1031,1028,1028,1028,1028,1028,1028,1028,1028,1028,1025,1025,1028,1028,1025,1025,1025,1025,1025,1025,1025,1025,1025,1025,1025,1028,1028,1028,1028,1028,1028,1025,1025,1025,1022,1022,1022,1025,1025,1025,1025,1025,1025,1025,1022,1022,1025,1022,1022,1025,1025,1025,1025,1025,1025,1025,1025,1025,1025,1025,1025,1025,1025,1025,1025,1025,1025,1025,1025,1022,1022,1022,1022,1022,1022,1022,1022,1022,1022,1022,1022,1019,1019,1019,1019,1019,1019,1019,1019,1022,1022,1019,1019,1019,1019,1019,1019,1019,1019,1019,1019,1019,1019,1016,1016,1016,1013,1013,1013,1013,1013,1016,1016,1013,1013,1016,1016,1016,1013,1013,1016,1016,1016,1016,1016,1016,1016,1013,1013,1013,1013,1013,1013,1013,1013,1013,1010,1010,1013,1013,1013,1013,1013,1013,1010,1010,1013,1013,1013,1013,1013,1013,1013,1010,1010,1010,1010,1010,1010,1010,1010,1010,1010,1007,1007,1007,1010,1010,1010,1007,1007,1007,1007,1007,1007,1007,1007,1007,1007,1010,1010,1007,1007,1010,1007,1004,1004,1004,1004,1004,1007,1007,1007,1007,1007,1007,1007,1007,1004,1004,1004,1004,1004,1004,1004,1004,1004,1001,1001,1001,1001,1001,1001,1001,1001,1001,1001,995,995,803,803,802,798,798,796,796,794,792,790,790,789,787,787,785,785,785,785,787,787,787,787,794,796,798,798,800,802,803,805,809,813,823,823,825,827,831,833,833,833,995,995,995,998,998,998,998,998,998,995,995,995,995,995,995,992,992,992,989,989,992,992,992,995,995,995,995,992,992,992,992,992,992,992,992,992,992,992,992,992,992,992,992,992,992,992,989,989,989,989,989,989,989,989,989,989,989,992,992,992,992,992,992,992,992,992,992,989,989,989,989,992,989,989,989,989,989,989,989,989,989,989,989,989,989,989,989,989,989,987,987,987,987,987,984,984,987,987,987,984,984,984,984,984,984,984,984,984,984,984,981,981,981,981,981,984,984,984,984,984,984,987,987,987,984,984,984,984,981,981,981,981,981,981,981,981,981,981,981,981,981,981,981,981,978,978,978,978,978,978,978,978,978,978,978,978,978,978,975,975,975,975,975,973,973,973,973,973,973,973,975,975,975,975,975,975,975,975,975,975,975,975,975,975,975,975,975,975,973,973,973,973,973,973,973,970,970,973,970,970,970,970,970,970,970,967,967,967,967,967,967,967,967,967,967,967,967,967,967,967,967,967,967,970,970,970,967,967,970,967,967,967,967,967,967,964,964,964,962,962,962,962,962,964,964,964,967,967,967,967,967,964,964,964,964,967,964,962,962,962,962,962,959,959,959,959,959,959,959,959,959,959,959,959,959,959,959,962,962,962,962,962,964,964,964,962,962,959,959,959,959,959,956,956,956,956,956,956,956,954,954,951,951,951,951,951,951,951,951,954,954,954,954,951,951,954,951,951,951,0,0,0,0,0,0,0,0,0,0,0,0,0,0,0,0,0,0,0,0,0,0,0,0,0,0,0,0,0,0,0,0,0,0,0
0,0,0,0,1044,1041,1038,1038,1034,1031,1031,1031,1031,1031,1031,1028,1028,1025,1025,1025,1025,1025,1025,1028,1025,1025,1025,1025,1025,1025,1025,1025,1025,1025,1025,1028,1028,1025,1025,1025,1025,1025,1025,1025,1025,1025,1025,1022,1022,1022,1022,1022,1025,1025,1025,1025,1025,1025,1025,1022,1022,1022,1022,1022,1022,1022,1022,1022,1022,1022,1022,1022,1022,1022,1022,1019,1019,1019,1019,1022,1022,1022,1022,1022,1022,1022,1022,1022,1022,1022,1022,1022,1022,1022,1022,1022,1022,1022,1019,1019,1019,1019,1019,1019,1019,1019,1019,1019,1019,1016,1016,1019,1019,1016,1016,1016,1019,1019,1019,1016,1016,1016,1019,1019,1016,1016,1016,1016,1019,1016,1013,1013,1013,1013,1013,1010,1010,1013,1013,1013,1013,1013,1013,1013,1013,1013,1013,1013,1013,1013,1013,1013,1013,1013,1013,1013,1013,1010,1010,1013,1013,1010,1010,1010,1010,1010,1010,1010,1010,1010,1010,1010,1010,1010,1010,1010,1010,1010,1010,1010,1010,1010,1010,1007,1007,1007,1007,1007,1010,1007,1007,1004,1004,1007,1007,1007,1007,1007,1007,1007,1007,1004,1004,1004,1004,1004,1004,1004,1001,1001,1004,1004,1004,1004,1004,1004,1004,1004,1004,1004,1004,1007,1004,1004,1004,1001,1001,1001,1001,1004,1001,1001,1001,1001,1001,1001,998,998,1001,1001,998,998,998,998,995,995,803,803,802,800,800,800,796,794,794,792,790,789,789,787,787,785,785,785,787,787,787,789,794,796,798,798,802,803,805,807,809,811,813,823,825,827,831,833,833,992,992,992,992,995,995,995,995,995,995,995,992,992,992,992,989,989,989,989,989,989,989,989,989,992,992,992,992,992,992,992,992,992,992,992,992,989,989,989,989,989,989,989,989,989,989,989,989,989,989,989,989,989,989,989,989,989,989,989,987,987,989,989,989,989,989,989,989,989,989,989,989,989,989,989,987,987,987,987,987,987,987,987,987,987,987,987,987,987,987,987,984,984,984,984,981,981,981,981,984,984,981,981,981,984,984,981,981,981,981,981,981,981,981,981,981,981,981,981,981,981,981,981,981,981,981,981,981,981,981,981,981,978,978,981,981,978,978,978,978,978,978,978,978,978,975,975,975,975,975,975,975,975,975,975,975,975,975,973,973,973,973,973,973,970,970,970,970,973,973,973,973,970,970,973,973,973,970,970,973,973,973,973,973,973,973,973,973,973,970,970,970,970,970,970,970,970,970,970,970,970,970,970,970,970,967,967,967,967,967,967,964,964,964,964,964,964,964,964,964,964,967,964,964,964,964,964,967,967,967,964,964,964,964,964,962,962,964,964,962,962,962,962,962,962,962,962,964,964,964,964,964,959,959,959,959,959,959,959,959,959,959,959,959,959,959,959,959,959,959,959,959,959,959,959,956,956,956,959,959,959,959,959,962,962,962,959,959,959,959,956,956,956,956,956,956,956,956,956,956,954,954,951,951,951,951,951,951,948,948,951,951,951,951,948,948,951,948,948,948,0,0,0,0,0,0,0,0,0,0,0,0,0,0,0,0,0,0,0,0,0,0,0,0,0,0,0,0,0,0,0,0,0,0,0
0,0,0,0,1038,1038,1034,1031,1028,1028,1028,1028,1028,1028,1028,1028,1025,1025,1025,1025,1022,1022,1025,1025,1025,1025,1025,1025,1022,1022,1025,1025,1025,1025,1025,1025,1025,1025,1025,1025,1025,1022,1022,1022,1022,1022,1022,1022,1022,1022,1019,1019,1019,1019,1019,1019,1022,1022,1022,1022,1019,1019,1019,1019,1019,1019,1019,1019,1019,1019,1019,1016,1016,1019,1016,1016,1016,1016,1016,1016,1016,1016,1016,1019,1019,1019,1019,1019,1019,1019,1022,1022,1019,1019,1019,1019,1019,1019,1016,1016,1016,1016,1019,1016,1016,1016,1019,1019,1016,1016,1016,1016,1016,1013,1013,1013,1016,1016,1016,1016,1016,1016,1016,1016,1016,1013,1013,1013,1013,1010,1010,1010,1010,1010,1010,1010,1010,1010,1013,1013,1010,1010,1013,1013,1013,1010,1010,1010,1010,1010,1010,1010,1010,1010,1010,1010,1010,1010,1010,1010,1010,1010,1010,1010,1010,1010,1010,1010,1010,1007,1007,1007,1007,1010,1010,1007,1007,1007,1007,1007,1007,1007,1007,1007,1004,1004,1004,1004,1007,1007,1004,1004,1004,1007,1007,1004,1004,1004,1004,1004,1004,1004,1001,1001,1001,1001,1001,1001,1001,1001,1001,1001,1001,1001,1001,1001,1001,1001,1001,1001,1001,1001,1001,1001,1001,1001,1001,1001,1001,1001,1001,1001,998,998,998,998,998,998,998,998,998,998,998,998,992,992,803,803,803,802,802,802,798,796,794,792,790,790,789,787,787,787,787,787,787,787,789,789,794,796,798,798,803,805,807,809,809,811,813,825,825,827,989,989,989,989,989,989,992,992,992,992,992,992,992,992,989,989,989,989,989,989,989,989,987,987,989,989,989,989,989,989,992,989,989,989,989,989,989,989,989,987,987,987,989,987,987,987,987,987,987,987,987,987,987,987,987,987,987,987,987,984,984,984,984,984,984,984,984,987,987,987,987,987,987,987,987,987,987,987,984,984,984,984,984,984,984,984,984,984,984,984,984,984,984,984,984,984,981,981,981,981,981,981,981,981,981,981,981,981,981,981,981,981,981,981,981,978,978,978,978,978,978,978,978,978,978,978,978,978,981,978,978,981,981,981,981,978,978,978,978,978,978,978,975,975,975,975,975,975,973,973,973,973,973,973,973,973,973,973,973,973,973,970,970,970,970,970,970,970,970,970,970,970,970,970,970,970,970,970,970,970,970,970,970,970,970,970,970,970,970,970,970,970,970,970,970,970,967,967,967,967,967,967,967,967,967,967,967,967,967,967,964,964,964,964,962,962,962,962,962,962,962,962,964,964,964,964,962,962,962,962,962,962,964,962,962,962,962,962,962,962,962,962,962,959,959,959,959,959,959,959,959,959,959,959,959,959,959,956,956,959,959,956,956,956,956,956,956,956,956,956,956,956,959,956,956,956,956,956,956,956,956,956,956,956,959,959,959,959,959,959,959,959,956,956,956,956,956,956,956,956,956,954,954,954,954,951,951,951,951,948,948,948,948,948,948,948,948,948,948,948,948,946,946,0,0,0,0,0,0,0,0,0,0,0,0,0,0,0,0,0,0,0,0,0,0,0,0,0,0,0,0,0,0,0,0,0,0,0
0,0,0,0,1031,1028,1028,1028,1025,1025,1025,1025,1025,1025,1025,1025,1025,1025,1025,1025,1022,1022,1025,1022,1022,1022,1022,1022,1022,1022,1022,1022,1022,1022,1022,1022,1022,1022,1022,1022,1022,1019,1019,1019,1022,1022,1022,1019,1019,1019,1019,1019,1016,1016,1016,1016,1019,1019,1019,1019,1019,1016,1016,1016,1016,1016,1016,1016,1016,1016,1016,1016,1016,1016,1016,1013,1013,1013,1013,1013,1013,1013,1013,1013,1016,1016,1016,1019,1019,1019,1019,1019,1016,1016,1016,1016,1016,1016,1016,1016,1013,1013,1013,1013,1013,1013,1016,1016,1016,1013,1013,1013,1013,1013,1013,1013,1013,1016,1016,1013,1013,1016,1016,1016,1013,1013,1013,1013,1013,1010,1010,1010,1010,1010,1010,1010,1010,1010,1010,1010,1007,1007,1010,1010,1010,1010,1010,1010,1010,1007,1007,1010,1010,1010,1010,1010,1010,1007,1007,1007,1007,1010,1010,1007,1007,1010,1007,1007,1007,1004,1004,1007,1007,1007,1007,1007,1004,1004,1004,1004,1004,1004,1004,1004,1004,1001,1001,1004,1004,1004,1001,1001,1001,1001,1001,1001,1001,1001,1001,1001,1001,1001,1001,1001,1001,1001,998,998,998,998,998,998,998,998,998,998,998,1001,1001,1001,1001,1001,1001,998,998,998,998,998,998,998,998,998,998,998,998,998,998,998,998,998,998,995,995,995,992,992,803,803,803,803,802,802,798,796,794,794,792,790,789,789,787,787,787,787,787,787,789,792,794,796,798,800,803,807,807,809,809,811,813,813,987,987,987,989,989,989,989,989,989,989,989,989,989,992,989,989,989,989,989,987,987,987,987,987,987,987,987,987,987,989,989,989,989,989,989,989,989,987,987,987,987,984,984,984,987,984,984,984,984,984,984,984,984,984,984,984,984,984,984,984,981,981,981,981,981,981,981,981,981,981,981,981,981,987,987,987,987,987,987,984,984,981,981,981,981,981,981,981,981,981,981,981,981,981,981,981,981,981,981,978,978,978,978,978,978,978,978,978,978,978,978,978,978,978,978,978,978,975,975,975,978,978,978,978,978,978,975,975,975,975,975,975,975,978,978,978,978,978,978,978,978,975,975,975,975,973,973,973,973,973,970,970,970,970,970,970,970,970,970,970,970,970,970,970,970,970,970,967,967,967,967,967,967,967,970,970,970,967,967,967,964,964,964,964,967,967,967,970,967,967,967,967,967,967,967,967,967,967,967,967,964,964,964,964,964,964,964,967,964,964,964,964,962,962,962,962,962,962,962,962,962,962,962,962,962,962,962,959,959,959,959,959,959,959,959,959,959,959,959,959,962,959,959,959,959,959,959,956,956,956,956,956,956,959,959,959,959,956,956,956,956,956,956,956,956,954,954,956,956,956,956,956,956,956,956,956,956,954,954,954,954,954,954,954,954,954,956,956,956,956,956,956,956,956,956,954,954,954,954,954,954,954,954,951,951,951,951,951,951,948,948,948,948,946,946,948,946,946,946,946,946,946,946,946,946,0,0,0,0,0,0,0,0,0,0,0,0,0,0,0,0,0,0,0,0,0,0,0,0,0,0,0,0,0,0,0,0,0,0,0
0,0,0,0,1028,1028,1025,1025,1025,1025,1025,1025,1025,1025,1025,1025,1025,1025,1025,1025,1022,1022,1025,1022,1022,1022,1019,1019,1019,1019,1019,1019,1022,1022,1022,1022,1022,1022,1022,1022,1019,1019,1019,1019,1019,1019,1019,1019,1019,1019,1019,1016,1016,1016,1016,1016,1016,1016,1016,1016,1016,1016,1016,1016,1016,1016,1016,1016,1016,1016,1016,1013,1013,1013,1013,1013,1010,1010,1013,1013,1013,1013,1013,1013,1013,1013,1013,1013,1013,1013,1016,1016,1013,1013,1013,1016,1013,1013,1013,1013,1013,1013,1013,1010,1010,1010,1010,1013,1013,1013,1013,1013,1013,1013,1010,1010,1013,1013,1013,1013,1013,1013,1013,1013,1013,1013,1013,1013,1010,1010,1010,1010,1010,1007,1007,1007,1007,1007,1007,1004,1004,1004,1004,1007,1004,1004,1007,1007,1007,1004,1004,1004,1004,1007,1007,1004,1004,1004,1004,1004,1004,1004,1004,1004,1007,1007,1007,1004,1004,1004,1004,1004,1004,1004,1004,1004,1004,1004,1004,1001,1001,1001,1001,1001,1001,1001,1001,1001,1001,1001,1001,998,998,1001,1001,1001,1001,998,998,998,1001,998,998,998,998,998,998,998,995,995,995,995,995,995,995,998,998,998,998,998,998,998,998,998,998,995,995,998,998,998,998,998,998,998,995,995,995,995,995,995,995,992,992,995,995,995,807,807,803,803,803,803,798,796,796,794,792,792,790,789,789,787,787,787,787,789,790,794,796,798,798,802,805,807,807,809,811,811,811,987,987,987,987,987,987,987,987,987,987,987,987,987,987,987,987,989,987,987,987,987,987,987,987,987,984,984,987,987,987,987,987,987,987,987,987,987,984,984,984,984,984,984,981,981,981,981,981,981,981,981,981,984,984,984,984,984,981,981,981,981,981,981,981,981,981,981,981,981,981,981,981,981,981,981,981,984,984,984,984,981,981,981,981,981,981,978,978,978,978,978,978,978,978,978,978,978,978,978,978,978,975,975,975,975,975,975,978,978,978,978,978,978,975,975,973,973,975,975,973,973,975,975,975,975,975,975,973,973,973,973,973,973,973,973,973,975,975,975,975,975,975,973,973,973,973,970,970,970,970,970,970,970,970,970,970,970,970,970,970,967,967,967,967,967,967,967,967,967,967,967,967,967,967,967,967,967,967,967,964,964,964,962,962,962,962,962,964,967,967,967,967,967,967,967,964,964,964,964,964,962,962,962,962,962,962,962,962,964,964,962,962,962,962,959,959,959,959,959,959,959,959,959,959,959,959,959,959,959,959,959,956,956,956,956,956,956,956,956,956,956,959,959,959,959,959,959,956,956,956,956,956,956,956,956,956,956,956,954,954,954,954,954,954,954,954,951,951,954,954,954,954,954,954,954,956,956,954,954,954,954,954,954,954,954,954,954,954,954,954,954,954,956,954,954,954,954,954,954,951,951,951,951,951,951,951,951,951,951,951,948,948,948,948,946,946,946,946,946,946,946,946,946,946,943,943,0,0,0,0,0,0,0,0,0,0,0,0,0,0,0,0,0,0,0,0,0,0,0,0,0,0,0,0,0,0,0,0,0,0,0
0,0,0,0,1025,1025,1025,1025,1025,1025,1025,1025,1025,1025,1025,1025,1025,1025,1025,1025,1022,1022,1022,1022,1019,1019,1019,1019,1016,1016,1016,1016,1019,1019,1019,1022,1019,1019,1022,1022,1019,1019,1019,1019,1019,1019,1019,1016,1016,1016,1016,1013,1013,1013,1013,1013,1013,1013,1013,1013,1013,1013,1013,1013,1013,1013,1013,1013,1013,1013,1013,1013,1013,1013,1010,1010,1010,1010,1010,1010,1010,1013,1010,1010,1013,1010,1010,1010,1010,1010,1010,1010,1010,1010,1013,1013,1013,1013,1010,1010,1010,1010,1010,1010,1010,1010,1010,1010,1010,1010,1010,1010,1010,1010,1010,1010,1010,1010,1010,1010,1010,1010,1013,1010,1010,1010,1010,1010,1010,1007,1007,1007,1007,1007,1004,1004,1004,1004,1004,1004,1001,1001,1001,1004,1001,1001,1001,1001,1001,1001,1001,1001,1001,1001,1004,1001,1001,1001,1001,1001,1001,1001,1001,1001,1001,1001,1001,1001,1001,1001,1001,1001,1001,1001,1001,1001,1001,1001,1001,998,998,998,998,998,998,998,998,998,998,1001,998,998,998,998,998,998,998,998,998,998,998,998,998,998,998,995,995,995,995,995,995,992,992,992,995,992,992,995,998,995,995,995,992,992,992,992,992,995,995,995,995,995,995,992,992,992,992,992,992,992,992,992,992,992,992,992,807,807,807,807,805,805,800,798,796,796,794,792,790,789,789,789,789,789,789,789,790,794,796,798,798,802,805,807,809,809,811,811,811,0,987,987,987,987,987,987,987,987,987,987,987,984,984,987,984,984,984,981,981,984,984,984,984,984,984,984,984,984,984,984,984,984,984,984,984,984,984,981,981,981,981,981,981,981,981,981,981,981,981,981,981,981,981,981,981,981,981,978,978,978,978,978,978,978,978,978,978,978,978,978,978,978,978,978,978,978,978,978,981,981,981,978,978,978,978,978,978,978,978,975,975,975,975,978,978,978,978,978,975,975,975,975,975,975,975,975,975,975,975,975,975,975,973,973,973,973,973,973,970,970,973,973,973,973,973,973,970,970,970,970,970,970,970,970,970,970,970,973,973,973,973,973,970,970,970,970,970,970,967,967,967,967,967,967,967,967,967,967,967,967,967,964,964,964,964,964,964,964,964,967,967,967,967,967,967,967,967,964,962,962,962,962,962,962,962,962,962,962,962,964,964,964,964,964,962,962,962,962,962,959,959,962,959,959,959,959,959,959,962,962,962,959,959,959,959,959,959,959,956,956,956,956,956,956,956,956,956,956,954,954,954,954,954,954,954,954,954,954,954,954,954,956,956,956,956,956,956,956,956,956,956,951,951,951,956,956,956,954,951,951,951,951,951,951,951,948,948,951,951,951,951,951,951,951,954,954,951,951,951,951,951,951,951,951,951,951,951,951,951,951,951,951,954,954,954,951,951,951,948,948,948,948,948,948,948,948,948,948,948,948,948,948,948,946,946,946,946,946,943,943,943,943,943,943,943,0,0,0,0,0,0,0,0,0,0,0,0,0,0,0,0,0,0,0,0,0,0,0,0,0,0,0,0,0,0,0,0,0,0,0
0,0,0,0,1025,1025,1022,1022,1022,1022,1022,1022,1022,1022,1022,1025,1022,1022,1022,1022,1022,1022,1022,1019,1019,1019,1016,1016,1016,1013,1013,1013,1013,1016,1016,1016,1016,1019,1019,1019,1019,1019,1016,1016,1016,1016,1016,1016,1016,1013,1013,1013,1013,1013,1013,1013,1013,1013,1013,1013,1013,1013,1013,1013,1013,1013,1013,1013,1013,1010,1010,1010,1010,1010,1010,1010,1010,1010,1010,1010,1010,1010,1010,1010,1010,1010,1010,1010,1007,1007,1007,1007,1007,1010,1010,1010,1007,1007,1010,1010,1010,1010,1010,1007,1007,1007,1007,1007,1010,1010,1010,1010,1010,1007,1007,1007,1007,1007,1007,1007,1007,1007,1010,1007,1007,1007,1004,1004,1004,1004,1004,1004,1004,1004,1004,1004,1004,1004,1001,1001,1001,1001,1001,1001,1001,1001,1001,1001,1001,1001,1001,1001,1001,1001,1001,1001,1001,1001,998,998,998,1001,998,998,998,998,998,998,998,995,995,998,998,998,998,998,998,998,998,998,998,998,998,998,998,998,998,998,998,998,998,995,995,995,995,998,995,995,995,998,998,995,995,995,995,995,992,992,992,992,992,992,992,992,992,992,992,992,992,992,992,989,989,989,989,989,989,989,989,989,992,992,992,992,992,989,989,992,992,989,989,989,989,989,989,992,807,807,807,807,807,805,802,800,798,796,796,794,792,790,789,789,789,789,789,790,792,796,798,798,798,803,805,807,809,809,811,811,811,0,984,984,984,984,984,984,984,984,984,984,984,984,984,984,981,981,978,978,978,978,978,981,984,981,981,981,981,981,981,981,981,981,981,981,981,981,981,981,981,981,978,978,978,978,978,978,978,978,978,978,978,978,978,978,978,978,978,978,978,978,978,978,978,978,978,978,978,978,978,978,975,975,975,978,978,978,975,975,978,975,975,978,978,978,978,978,975,975,975,975,975,973,973,975,975,975,975,975,973,973,973,973,973,973,973,973,973,973,973,973,973,973,970,970,970,970,970,970,970,970,970,970,970,970,970,970,970,970,967,967,967,970,970,967,967,967,967,970,970,970,970,970,970,967,967,967,967,967,967,967,967,967,967,967,967,967,967,967,964,964,964,964,964,964,964,964,964,964,964,964,964,964,964,964,964,964,964,962,962,959,959,959,959,959,959,959,959,959,959,959,959,959,962,962,962,962,962,959,959,959,959,959,959,959,959,959,959,959,959,959,959,959,959,956,956,956,956,956,956,956,956,956,956,954,954,954,954,954,954,951,951,951,951,951,951,951,951,951,951,951,951,954,954,956,956,956,956,954,954,951,951,951,948,948,951,948,948,948,948,948,948,948,948,948,951,948,948,948,948,948,948,948,948,948,951,951,951,948,948,951,948,948,948,948,948,948,948,948,948,948,948,948,946,946,948,951,948,948,946,946,946,946,946,946,946,946,948,948,948,948,948,946,946,946,946,943,943,943,940,940,940,943,940,940,940,0,0,0,0,0,0,0,0,0,0,0,0,0,0,0,0,0,0,0,0,0,0,0,0,0,0,0,0,0,0,0,0,0,0,0
0,0,0,0,1022,1022,1022,1022,1022,1022,1022,1022,1022,1022,1022,1022,1022,1022,1022,1019,1019,1019,1019,1016,1016,1016,1013,1013,1013,1010,1010,1010,1013,1013,1013,1013,1013,1013,1016,1016,1016,1016,1016,1016,1013,1013,1013,1013,1013,1010,1010,1010,1010,1010,1007,1007,1007,1010,1010,1010,1010,1010,1010,1010,1013,1013,1010,1010,1010,1010,1007,1007,1007,1007,1007,1007,1007,1007,1007,1007,1007,1010,1007,1007,1007,1007,1004,1004,1004,1004,1007,1004,1004,1007,1007,1007,1007,1007,1007,1007,1004,1004,1007,1007,1007,1004,1004,1007,1007,1007,1007,1007,1007,1007,1004,1004,1004,1007,1004,1004,1007,1007,1007,1004,1004,1004,1001,1001,1001,1001,1001,1001,1001,1001,1001,1001,1001,1001,1001,1001,1001,1001,1001,998,998,998,998,998,998,998,998,998,998,998,998,998,998,998,998,998,998,998,998,995,995,995,995,995,995,992,992,995,995,995,995,995,995,995,995,995,995,995,995,995,995,995,995,995,995,995,995,995,995,995,995,995,992,992,992,992,992,992,992,992,992,992,989,989,989,989,989,989,989,989,989,989,989,989,989,989,989,989,989,989,989,989,989,989,989,989,989,989,989,989,989,989,989,989,987,987,987,987,989,987,987,987,807,807,807,807,807,805,803,802,800,798,796,796,794,792,790,790,790,790,790,790,794,796,798,798,800,803,805,809,809,809,811,811,811,978,981,981,981,981,981,981,981,981,981,981,981,981,981,981,978,978,978,978,975,975,975,975,975,975,978,978,978,978,978,981,981,981,981,981,981,981,978,978,978,978,978,975,975,975,975,975,975,975,975,975,975,975,975,975,978,978,978,978,978,978,978,978,975,975,975,975,975,975,975,975,975,975,975,975,975,975,975,975,975,975,975,973,973,973,975,975,973,973,973,973,973,973,973,973,973,973,973,973,973,973,970,970,970,970,970,970,970,970,970,970,970,970,970,970,970,970,970,967,967,967,967,967,967,967,967,970,967,967,967,967,967,967,967,967,967,967,967,967,964,964,964,967,964,964,964,964,964,964,964,964,964,964,964,964,964,964,964,962,962,964,962,962,962,962,962,962,962,962,962,962,962,962,962,962,964,964,962,959,959,959,956,956,956,956,956,959,959,959,959,959,956,956,956,956,956,959,959,959,959,956,956,959,956,956,956,956,956,956,956,956,956,956,956,956,956,956,956,954,954,954,954,954,954,951,951,951,951,951,951,951,948,948,951,951,951,951,951,951,951,948,948,951,948,948,948,948,951,948,948,948,948,948,948,948,948,948,948,948,948,948,948,948,948,948,948,946,946,946,946,946,946,946,946,948,948,948,948,948,948,948,948,946,946,948,948,948,946,946,946,948,946,946,946,946,946,946,946,946,946,946,946,946,943,943,943,946,948,946,946,946,946,946,946,943,943,943,940,940,938,938,938,938,938,938,938,0,0,0,0,0,0,0,0,0,0,0,0,0,0,0,0,0,0,0,0,0,0,0,0,0,0,0,0,0,0,0,0,0,0,0
0,0,0,0,1022,1022,1019,1019,1019,1019,1019,1019,1019,1019,1019,1019,1022,1019,1019,1019,1016,1016,1016,1013,1013,1013,1013,1013,1013,1010,1010,1010,1010,1010,1010,1010,1010,1013,1013,1013,1013,1013,1013,1013,1010,1010,1010,1010,1010,1007,1007,1007,1007,1007,1004,1004,1004,1004,1004,1007,1007,1010,1010,1010,1010,1010,1010,1007,1007,1007,1007,1007,1007,1004,1004,1007,1007,1007,1007,1004,1004,1007,1004,1004,1004,1004,1004,1004,1004,1004,1004,1004,1004,1004,1001,1001,1001,1001,1004,1004,1001,1001,1001,1001,1001,1001,1001,1001,1004,1004,1004,1004,1004,1004,1001,1001,1001,1001,1001,1001,1001,1001,1001,1001,1001,1001,1001,998,998,998,998,998,998,998,998,998,998,998,998,998,998,998,998,998,998,998,998,998,998,998,998,998,998,998,998,995,995,995,995,995,995,995,995,995,995,992,992,992,992,992,992,992,992,989,989,989,989,989,992,992,992,992,992,992,992,992,992,992,992,992,992,992,992,992,992,992,989,989,989,989,989,989,989,989,989,989,989,989,989,989,989,989,989,989,989,987,987,989,989,987,987,987,987,987,989,987,987,987,987,987,987,987,987,987,987,987,987,987,987,987,984,984,984,981,981,981,809,809,809,809,807,805,803,802,802,800,798,796,794,794,792,790,790,790,790,792,794,796,798,798,800,803,805,809,809,811,813,813,978,978,978,978,978,978,978,978,978,978,978,978,978,978,978,978,978,978,975,975,975,975,975,975,973,973,973,973,975,975,975,981,981,981,978,978,978,978,978,978,978,978,975,975,975,973,973,973,973,973,973,973,975,975,975,975,975,975,975,975,975,975,975,975,975,975,975,975,973,973,973,973,973,973,973,973,973,973,973,973,973,973,973,970,970,970,970,970,970,970,970,970,970,970,970,973,973,970,970,970,970,970,970,970,970,970,970,967,967,967,967,967,967,967,967,967,967,967,967,967,967,967,967,967,967,964,964,964,964,964,964,964,964,964,964,964,964,964,964,964,962,962,959,959,962,962,962,962,962,962,962,962,962,962,962,962,962,962,962,962,962,962,962,962,962,959,959,959,959,959,959,959,959,959,959,959,962,962,959,959,956,956,956,956,956,956,956,956,959,959,956,956,956,954,954,954,951,951,954,954,956,956,956,956,956,954,954,956,954,954,954,956,956,956,954,954,954,954,954,954,954,954,951,951,951,948,948,948,948,948,948,948,948,948,948,948,948,948,948,948,948,948,948,948,948,948,948,948,948,948,948,948,948,948,948,948,948,948,948,948,946,946,948,946,946,946,946,946,946,946,943,943,943,943,943,946,946,948,948,948,948,946,946,946,946,948,948,946,946,946,946,946,943,943,940,940,940,943,943,943,943,943,943,943,943,940,940,946,946,946,943,943,943,943,943,943,943,940,940,938,938,935,935,938,935,935,935,0,0,0,0,0,0,0,0,0,0,0,0,0,0,0,0,0,0,0,0,0,0,0,0,0,0,0,0,0,0,0,0,0,0,0
0,0,0,0,1019,1016,1016,1016,1016,1013,1013,1016,1016,1016,1016,1019,1019,1016,1016,1016,1013,1013,1013,1013,1013,1013,1010,1010,1007,1007,1007,1007,1004,1004,1004,1004,1007,1007,1007,1007,1007,1010,1010,1010,1007,1007,1007,1007,1007,1004,1004,1004,1004,1004,1004,1004,1004,1004,1004,1004,1004,1007,1007,1007,1007,1010,1010,1007,1004,1004,1004,1004,1004,1004,1004,1004,1004,1004,1001,1001,1001,1001,1001,1001,1001,1001,1001,1001,1001,1001,1001,1001,1001,1001,1001,1001,1001,1001,1001,1001,1001,1001,1001,998,998,998,998,998,998,1001,1001,1001,1001,1001,998,998,998,1001,998,998,998,998,998,998,998,998,998,995,995,995,995,995,995,995,995,995,995,995,995,995,995,995,995,995,995,995,995,995,995,995,995,995,995,995,995,992,992,992,992,992,992,992,992,992,992,992,992,992,989,989,989,989,989,989,987,987,989,989,989,989,989,992,992,989,989,989,989,992,992,992,992,992,989,989,989,989,989,989,989,987,987,989,987,987,987,987,987,987,987,987,987,987,987,987,987,987,987,987,987,987,987,987,987,987,987,987,987,987,987,984,984,984,984,984,981,981,981,984,984,984,981,981,978,975,975,981,981,809,809,809,809,807,805,803,803,802,800,798,796,794,794,792,792,792,792,792,796,798,798,798,802,803,805,809,809,811,813,813,978,978,978,975,975,975,975,975,975,975,975,975,975,975,975,975,975,975,975,973,973,973,973,973,973,973,973,973,973,973,973,975,978,978,978,978,975,975,975,975,975,975,975,973,973,973,970,970,970,970,970,970,973,973,973,973,973,973,973,973,973,973,973,973,973,973,973,973,973,973,973,973,973,970,970,970,970,970,970,970,970,970,970,970,970,970,967,967,967,967,967,970,970,970,970,970,970,970,970,970,970,970,970,967,967,967,967,967,964,964,964,964,964,964,964,967,964,964,967,967,967,964,964,964,962,962,962,962,962,962,962,962,962,962,964,962,962,962,962,962,959,959,959,959,959,959,959,959,959,959,959,959,959,962,962,962,962,962,962,959,959,959,959,959,959,959,959,959,959,956,956,956,956,956,956,956,956,956,959,956,956,956,956,956,956,956,956,956,956,956,956,956,954,954,951,951,951,951,951,951,951,954,954,954,954,954,954,954,951,951,951,954,954,954,954,954,954,954,951,951,951,948,948,948,948,948,948,946,946,946,946,946,946,946,946,946,946,946,946,946,948,948,948,948,946,946,946,946,946,946,946,946,946,946,946,946,946,946,946,946,946,946,946,946,946,946,946,946,946,943,943,943,943,943,943,943,946,946,946,946,946,946,946,946,946,946,946,946,946,943,943,943,943,940,938,938,940,940,940,940,940,940,940,940,940,940,940,940,938,938,938,940,940,940,940,940,940,940,938,938,935,935,935,935,935,935,935,0,0,0,0,0,0,0,0,0,0,0,0,0,0,0,0,0,0,0,0,0,0,0,0,0,0,0,0,0,0,0,0,0,0,0
0,0,0,0,1016,1016,1013,1013,1013,1013,1013,1010,1010,1010,1007,1007,1010,1010,1013,1013,1013,1013,1013,1010,1010,1010,1010,1010,1007,1007,1004,1001,1001,1001,1004,1004,1007,1007,1007,1007,1007,1007,1007,1007,1004,1001,1001,1001,1001,1001,1001,1001,1001,1001,1001,1001,1001,1001,1001,1001,1004,1004,1004,1007,1007,1007,1007,1004,1004,1001,1001,1001,1001,1001,1001,1001,1001,1001,1001,998,998,998,998,998,998,998,998,998,998,1001,1001,998,998,1001,998,998,998,998,998,998,998,998,998,998,998,998,998,998,998,1001,1001,998,998,998,995,995,995,998,995,995,995,995,995,998,995,995,995,995,992,992,992,992,992,992,992,992,992,992,992,992,992,992,992,992,992,992,992,992,992,992,992,992,992,992,992,992,992,992,992,992,992,989,989,989,989,989,989,989,989,989,989,989,987,987,987,987,987,987,987,987,987,987,989,987,987,989,989,989,989,989,989,989,989,989,989,989,987,987,987,987,987,987,987,987,987,984,984,984,987,984,984,987,987,987,984,984,987,987,987,984,984,984,984,984,984,984,984,984,981,981,981,981,981,981,978,978,978,978,981,981,978,978,978,975,975,975,809,809,809,809,809,809,807,805,805,803,802,800,798,794,794,794,792,792,792,794,796,798,798,800,803,803,805,809,809,813,815,817,978,978,975,973,970,970,973,973,973,973,970,970,970,973,973,970,970,973,973,973,973,973,973,970,970,970,970,970,970,970,970,975,975,973,973,975,973,973,973,973,973,973,973,973,970,970,970,970,970,970,970,970,970,970,970,970,970,970,970,973,973,973,973,970,970,970,970,970,970,970,970,970,970,970,970,970,970,970,970,970,970,970,970,967,967,967,967,964,964,964,964,967,964,964,964,967,967,967,967,967,967,967,967,967,964,964,964,964,962,962,962,962,962,962,964,964,964,964,964,964,964,962,962,962,962,959,959,959,959,959,962,962,962,962,962,959,959,959,959,959,959,959,959,959,956,956,956,956,956,956,959,959,959,959,959,959,959,959,959,959,959,959,959,959,956,956,956,956,956,954,951,951,951,951,954,954,951,951,956,954,954,954,954,954,954,954,954,956,956,956,956,954,954,951,951,948,948,948,948,948,948,948,948,948,951,948,948,951,951,948,948,951,951,951,951,951,951,951,951,948,948,948,948,946,946,946,946,946,946,946,946,946,946,946,946,946,946,946,946,946,946,946,946,946,946,946,946,946,946,946,946,943,943,943,943,943,943,946,946,946,943,943,946,943,943,943,943,943,943,943,943,940,940,940,940,940,943,943,943,943,943,943,943,943,943,943,943,943,943,943,943,940,940,938,938,938,938,938,940,940,938,938,938,938,938,938,938,938,935,935,935,938,938,938,938,938,938,938,935,935,935,933,933,933,933,933,935,0,0,0,0,0,0,0,0,0,0,0,0,0,0,0,0,0,0,0,0,0,0,0,0,0,0,0,0,0,0,0,0,0,0,0
0,0,0,0,1013,1013,1013,1010,1010,1010,1013,1010,1010,1010,1007,1007,1007,1010,1010,1010,1010,1010,1010,1010,1010,1010,1007,1001,1001,1001,998,998,998,998,998,998,1001,1001,1001,1004,1004,1004,1004,1001,1001,998,998,998,998,998,998,1001,1001,1001,1001,1001,1001,1001,998,998,1001,1001,1004,1004,1004,1004,1004,1001,1001,1001,1001,1001,1001,1001,1001,1001,1001,1001,998,998,998,998,998,998,995,995,995,995,998,998,998,998,998,998,998,998,995,995,998,998,998,995,995,995,995,995,995,995,995,998,998,995,995,995,992,992,992,992,995,995,995,995,995,995,992,992,992,992,989,989,989,989,989,989,989,989,989,989,989,992,992,989,989,989,989,989,989,989,989,989,989,989,989,989,989,989,989,989,989,989,989,989,989,989,989,989,989,989,989,989,987,987,987,987,987,987,987,987,987,987,987,987,987,987,984,984,984,987,987,987,987,987,989,987,987,987,987,987,984,984,984,984,984,984,984,984,984,984,984,984,984,984,984,984,984,984,984,984,984,984,981,981,981,981,981,981,981,981,981,981,978,978,978,978,978,978,978,978,978,978,978,975,975,975,975,975,973,811,811,811,811,809,807,805,805,803,802,800,798,796,794,794,792,792,792,794,796,798,798,800,803,803,807,809,809,815,817,817,817,975,975,973,970,970,970,970,970,970,967,967,970,970,970,967,967,970,970,973,970,970,970,970,970,970,967,967,967,967,967,970,973,970,970,970,970,970,970,973,973,973,970,970,970,970,970,970,970,967,967,967,967,967,967,967,967,967,970,970,970,970,970,970,970,970,967,967,967,967,967,967,967,967,967,967,967,967,967,967,967,967,967,964,964,964,962,962,962,962,964,964,962,962,962,962,962,962,964,964,964,964,964,964,962,962,962,962,962,962,962,962,962,962,962,962,962,962,962,962,962,962,962,959,959,959,959,959,959,959,959,959,959,959,959,959,959,959,959,959,959,956,956,956,956,956,956,956,956,956,956,954,954,954,956,956,956,956,956,956,956,956,956,956,956,954,954,951,951,951,951,951,951,951,951,951,948,948,951,951,951,951,951,951,951,951,951,954,954,954,954,951,951,948,948,948,948,948,946,946,946,946,946,946,946,946,946,948,948,948,948,948,948,948,948,948,948,948,948,948,946,946,946,946,946,943,943,943,943,943,943,943,946,946,943,943,943,943,943,943,946,946,946,943,943,946,946,940,940,938,938,940,940,940,940,940,940,940,943,943,940,940,940,940,940,940,940,940,940,940,940,940,940,938,938,940,940,940,940,940,940,938,938,938,940,940,940,940,940,940,938,938,938,938,938,938,938,938,938,938,938,938,938,938,935,935,935,935,935,935,935,935,935,935,935,938,938,935,935,935,933,933,930,930,930,930,0,0,0,0,0,0,0,0,0,0,0,0,0,0,0,0,0,0,0,0,0,0,0,0,0,0,0,0,0,0,0,0,0,0,0,0
0,0,0,0,1010,1010,1010,1010,1010,1010,1010,1010,1010,1010,1010,1007,1007,1007,1007,1007,1007,1007,1007,1007,1007,998,998,995,995,995,998,998,998,998,998,998,998,1001,1001,1001,1001,1001,1001,1001,998,998,998,998,998,998,998,998,998,998,998,998,998,998,998,998,998,998,1001,1001,1001,1001,1001,1001,1001,1001,1001,998,998,998,998,998,998,998,998,998,998,998,998,998,995,995,995,995,998,998,995,995,995,998,995,995,992,992,995,995,992,992,992,992,992,992,992,992,992,995,992,992,992,989,989,989,989,992,989,989,992,995,995,992,992,989,989,989,989,989,989,989,989,989,989,989,989,989,989,989,989,989,989,989,989,989,989,989,987,987,987,987,987,987,989,989,989,989,989,989,989,987,987,987,989,989,989,987,987,987,987,987,987,984,984,984,984,984,984,984,984,984,984,984,981,981,981,984,984,984,984,984,984,984,984,984,984,984,981,981,981,981,981,984,984,981,981,984,984,981,981,981,981,981,981,981,981,981,981,981,981,981,981,981,981,981,981,981,978,978,978,978,975,975,975,975,975,975,975,975,975,975,975,975,973,973,973,811,811,811,811,809,809,807,805,803,803,802,800,796,796,794,794,794,794,796,796,798,798,800,803,805,809,809,813,815,817,817,817,970,970,970,967,967,967,970,970,967,967,967,967,967,967,967,967,967,967,970,967,967,967,967,967,967,967,964,964,964,967,970,970,967,967,967,967,967,967,967,967,967,970,967,967,967,967,967,967,967,964,964,964,967,967,967,967,967,967,967,967,967,967,967,967,967,967,964,964,964,964,964,964,964,964,964,964,964,967,967,967,964,962,962,962,962,962,962,959,959,962,962,962,959,959,959,959,959,959,959,959,962,962,962,962,962,962,962,962,959,959,959,959,959,959,959,959,959,959,959,959,959,959,959,959,956,956,956,956,956,959,959,956,956,956,956,956,956,956,956,956,956,956,956,956,954,954,954,954,954,954,954,954,954,951,951,954,951,951,954,954,954,954,954,954,951,951,948,948,948,948,948,948,948,948,948,948,948,948,948,948,948,948,948,948,948,948,951,951,951,951,951,948,948,948,946,946,946,946,946,943,943,943,943,943,943,943,946,946,948,948,948,948,948,948,946,946,946,946,946,946,943,943,943,943,943,943,943,943,943,943,943,943,943,940,940,943,943,940,940,943,943,943,943,943,946,946,938,938,938,938,940,940,940,940,938,938,938,938,938,938,938,938,938,938,938,938,938,938,938,938,938,938,938,938,938,938,938,938,938,938,935,935,935,938,938,938,938,938,938,935,935,935,935,935,935,935,935,935,935,935,935,935,935,935,935,935,935,935,935,935,935,935,935,935,935,935,933,933,933,930,930,928,928,928,928,0,0,0,0,0,0,0,0,0,0,0,0,0,0,0,0,0,0,0,0,0,0,0,0,0,0,0,0,0,0,0,0,0,0,0,0
0,0,0,0,1004,1004,1004,1004,1007,1007,1007,1007,1007,1007,1001,1001,1001,1004,1004,1004,1004,1004,1004,1001,1001,998,998,995,995,995,998,998,998,998,998,998,998,998,998,998,998,998,998,995,995,995,995,995,995,995,995,995,995,995,998,998,998,998,995,995,995,995,995,998,998,998,998,998,998,998,998,998,998,995,995,995,998,998,998,995,995,995,995,992,992,992,992,992,995,992,992,992,992,992,992,992,989,989,992,992,992,989,989,989,989,989,989,989,989,989,989,989,987,987,987,989,989,989,989,989,989,989,989,989,989,989,989,989,989,989,989,989,989,989,989,989,989,987,987,989,989,989,989,989,989,989,989,987,987,987,987,987,987,987,987,987,987,987,987,987,987,984,984,987,987,987,987,987,987,987,984,984,984,981,981,981,981,981,981,981,981,981,981,981,981,978,978,981,981,981,981,981,981,978,978,981,981,981,981,978,978,978,981,981,978,978,981,981,978,978,978,978,978,978,978,978,978,978,978,978,978,978,978,978,978,978,978,978,978,978,978,975,975,975,975,975,975,975,975,975,975,975,975,975,973,973,973,967,813,813,811,811,811,809,807,805,803,803,800,798,796,796,794,794,794,796,798,798,800,803,805,807,809,809,813,815,817,817,817,967,967,967,967,967,967,967,967,967,967,967,967,967,967,964,964,964,967,967,967,967,967,967,967,967,964,964,964,964,964,967,967,967,967,967,967,964,964,967,964,964,964,964,964,964,964,964,964,964,962,962,964,964,964,964,964,964,967,967,967,967,964,964,964,964,962,962,962,962,959,959,959,959,962,962,962,962,962,962,964,962,962,962,959,959,959,959,959,959,959,959,959,959,959,959,959,959,959,959,959,959,959,962,959,959,959,959,959,959,959,959,959,959,959,956,956,956,956,956,956,956,956,956,956,956,956,956,956,956,956,956,956,956,954,954,954,954,954,954,954,954,954,954,954,954,954,954,954,954,954,951,951,951,951,948,948,948,948,951,951,951,951,951,951,948,948,948,948,948,948,948,948,948,948,948,948,948,948,946,946,946,946,946,946,946,946,948,948,948,948,948,946,946,946,946,946,946,943,943,943,940,940,943,943,943,943,943,943,943,943,943,946,946,946,946,946,946,943,943,943,940,940,940,940,940,940,940,940,940,940,938,938,940,938,938,938,940,938,938,940,940,943,938,938,938,938,938,938,938,938,938,938,938,938,938,938,938,935,935,935,935,935,935,935,935,935,935,935,935,935,935,935,935,935,935,935,935,935,935,935,933,933,933,933,935,935,935,935,935,933,933,935,933,933,933,933,933,935,935,935,935,935,933,933,933,933,933,933,933,933,933,933,933,933,933,930,930,930,930,928,928,925,925,925,928,0,0,0,0,0,0,0,0,0,0,0,0,0,0,0,0,0,0,0,0,0,0,0,0,0,0,0,0,0,0,0,0,0,0,0,0
0,0,0,0,1001,1001,1001,1001,1004,1004,1004,1004,1004,1001,998,998,998,1001,1001,1001,1001,1001,1001,1001,1001,998,998,998,995,995,998,995,995,995,995,995,995,995,995,998,998,995,992,992,992,992,992,992,992,992,992,995,995,995,995,995,995,995,995,995,995,992,992,995,995,995,995,995,995,995,995,995,995,995,995,995,995,995,995,995,992,992,995,992,992,989,989,989,989,989,989,989,989,989,989,989,989,989,989,989,989,989,989,989,989,989,989,989,989,987,987,987,987,987,987,987,987,987,987,987,987,987,987,984,984,984,984,987,987,987,987,987,987,987,989,987,987,987,987,987,987,987,987,987,987,987,987,987,987,984,984,984,984,984,984,984,984,984,984,984,984,981,981,984,984,984,984,984,984,984,981,981,981,981,978,978,978,978,978,978,978,978,978,981,978,978,978,978,978,978,978,978,978,978,978,978,975,975,978,978,978,978,978,978,978,978,978,978,975,975,975,975,978,975,975,975,975,975,975,975,975,975,975,975,975,975,975,975,975,975,975,975,973,973,975,973,973,973,973,973,973,973,973,973,970,967,967,967,813,813,811,811,811,811,809,807,805,803,802,800,798,796,796,796,796,796,798,798,800,803,805,807,809,809,815,817,817,819,819,967,967,967,967,967,967,967,967,967,967,967,964,964,964,964,964,964,964,964,967,964,964,964,964,964,964,962,962,962,964,964,964,964,964,964,964,964,964,964,962,962,962,962,959,959,959,962,962,962,962,962,962,962,962,962,962,962,964,964,964,964,962,962,962,962,962,962,959,959,959,959,959,959,959,959,959,959,959,959,959,959,959,959,959,959,959,959,956,956,956,956,956,956,956,956,956,956,956,956,956,956,956,956,956,956,959,959,959,956,956,956,956,956,956,956,956,956,956,956,956,956,956,954,954,954,954,954,954,954,954,954,954,954,951,951,951,951,951,951,951,951,951,951,951,951,951,951,951,951,951,948,948,948,948,946,946,946,946,946,946,948,948,948,948,948,948,948,948,948,948,948,946,946,948,946,946,946,946,946,946,946,946,946,943,943,943,943,943,943,943,943,946,946,946,943,943,943,943,943,940,940,940,940,940,940,940,940,940,940,940,940,940,940,943,943,943,943,940,940,940,938,938,938,938,938,938,938,938,938,938,938,938,938,938,938,938,938,938,938,938,938,938,935,935,935,935,935,935,935,935,935,935,935,935,935,935,935,935,935,933,933,933,935,935,935,935,935,935,935,935,935,933,933,933,933,933,933,933,933,933,930,930,930,930,933,933,933,933,933,930,930,933,930,930,930,930,930,933,933,933,933,933,933,933,930,930,930,930,930,930,928,928,928,930,930,928,928,928,928,928,925,925,925,925,925,0,0,0,0,0,0,0,0,0,0,0,0,0,0,0,0,0,0,0,0,0,0,0,0,0,0,0,0,0,0,0,0,0,0,0,0
0,0,0,0,1001,1001,1001,1001,1001,1001,1001,1001,1001,1001,998,998,998,998,1001,1001,1001,1001,998,998,998,995,992,992,992,992,995,995,995,992,992,992,992,992,992,992,992,989,989,989,989,989,989,989,989,989,989,989,989,989,989,992,992,995,992,992,992,989,989,992,992,992,992,992,992,992,992,992,992,992,989,989,992,992,992,989,989,989,992,989,989,989,989,987,987,987,987,987,987,987,989,989,989,989,989,987,987,987,987,987,989,989,987,987,987,987,987,987,987,984,984,987,987,987,987,987,984,984,984,981,981,981,981,984,984,984,987,987,987,987,987,987,987,987,987,987,987,987,987,987,987,987,987,984,984,984,984,981,981,981,984,981,981,981,981,981,981,978,978,981,981,981,981,978,978,978,978,978,978,978,978,978,978,978,978,978,978,978,978,978,978,978,978,978,978,975,975,975,975,975,975,975,975,975,975,975,975,975,975,975,978,978,975,975,975,975,975,975,975,975,975,975,975,973,973,973,973,973,973,973,973,975,973,973,973,973,973,975,973,973,973,973,973,973,973,973,970,970,970,970,967,964,964,964,815,815,811,811,811,811,809,809,807,805,803,802,800,800,798,798,798,798,798,800,802,803,805,807,809,811,815,817,819,819,819,819,964,964,964,964,964,964,964,964,964,964,962,962,964,962,962,964,964,964,964,964,964,964,964,964,962,962,962,962,962,962,962,964,964,964,962,962,962,962,962,962,959,959,959,959,959,959,959,959,959,959,959,959,959,959,959,959,959,962,959,959,959,959,959,959,959,959,959,959,956,956,956,956,956,956,956,956,956,956,959,956,956,956,956,956,956,956,956,956,956,956,956,954,954,954,954,956,956,956,954,954,956,956,956,954,954,954,956,956,956,956,956,956,954,954,954,954,954,954,954,954,954,954,954,954,951,951,954,954,954,954,954,951,951,951,951,948,948,948,948,948,948,948,948,948,948,948,948,948,948,948,948,948,946,946,946,946,946,946,943,943,946,946,946,948,946,946,946,946,946,946,946,946,946,946,946,946,946,946,943,943,943,943,940,938,938,940,940,940,940,940,940,943,940,940,940,940,940,940,940,938,938,938,938,938,938,938,938,940,940,940,940,940,940,940,940,940,940,938,938,938,938,938,938,938,935,935,938,938,938,938,938,935,935,935,935,935,935,935,935,935,935,933,933,933,933,933,933,933,933,933,933,935,933,933,933,933,933,933,933,933,933,933,933,933,933,933,933,933,933,933,930,930,930,930,930,930,930,930,930,928,928,930,930,930,930,930,930,930,930,930,930,930,930,930,928,928,930,930,930,930,930,930,930,928,928,928,928,928,925,925,925,925,925,925,925,928,925,925,925,925,925,923,923,923,0,0,0,0,0,0,0,0,0,0,0,0,0,0,0,0,0,0,0,0,0,0,0,0,0,0,0,0,0,0,0,0,0,0,0,0
0,0,0,0,1001,1001,1001,1001,1001,1001,1001,1001,1001,1001,1001,998,998,998,998,998,998,998,998,998,992,992,992,992,992,989,989,989,992,992,992,989,989,989,989,989,989,989,987,987,989,989,989,989,989,989,989,987,987,987,987,987,987,987,989,989,987,987,989,989,989,989,989,989,989,989,989,989,989,987,987,987,989,989,989,989,989,989,989,989,987,987,987,987,987,987,987,987,987,987,987,987,987,987,987,987,987,987,987,987,987,987,987,987,984,984,984,984,984,984,984,987,987,984,981,981,981,981,978,978,978,978,978,981,981,981,984,984,984,984,984,984,984,984,984,984,984,984,984,984,984,984,984,984,981,981,981,981,981,981,981,981,978,978,978,978,978,978,978,978,978,978,978,975,975,978,978,978,978,978,975,975,975,975,975,975,975,975,978,978,978,975,975,975,975,975,975,975,975,975,975,975,975,975,973,973,973,973,973,973,973,975,975,975,975,975,973,973,973,973,973,973,973,970,970,970,970,970,973,973,973,973,973,973,970,970,970,973,970,970,970,970,970,970,970,970,967,967,967,967,967,964,964,964,815,815,811,811,813,811,811,809,807,807,805,803,800,800,798,798,798,798,800,800,802,803,805,809,809,813,817,817,819,819,819,823,964,964,962,962,962,962,962,964,964,962,962,962,962,962,962,962,962,962,964,964,962,962,962,962,959,959,959,959,959,959,959,962,962,962,962,959,959,959,959,959,959,959,956,956,956,959,959,959,959,959,959,959,959,959,959,959,959,959,959,959,959,956,956,956,956,956,956,956,956,956,956,956,956,956,956,956,956,956,956,956,956,956,954,954,954,954,954,954,954,954,954,954,954,951,951,954,954,954,954,954,954,954,954,954,954,954,954,951,951,954,954,954,954,951,951,951,951,951,951,948,948,948,948,948,948,951,951,951,951,951,951,951,948,948,948,948,948,948,946,946,948,948,948,948,948,948,948,948,948,948,948,946,946,946,943,943,943,943,943,943,943,943,943,946,946,946,946,943,943,943,943,943,943,943,943,946,943,943,943,943,940,940,940,938,938,938,938,938,938,938,938,938,940,938,938,938,940,940,938,938,938,938,938,938,938,938,938,938,938,938,938,938,938,938,938,938,938,938,938,935,935,935,935,935,935,935,935,935,935,935,935,935,935,935,935,935,935,935,933,933,933,930,930,930,930,933,933,930,930,930,930,930,930,930,930,930,930,930,930,930,930,930,930,930,930,928,928,928,930,930,928,928,928,928,928,928,928,928,928,928,928,928,928,930,930,930,930,930,930,930,930,930,928,928,928,928,928,928,928,928,928,928,928,925,925,925,925,925,923,923,923,923,925,925,925,925,925,925,925,925,923,923,923,923,0,0,0,0,0,0,0,0,0,0,0,0,0,0,0,0,0,0,0,0,0,0,0,0,0,0,0,0,0,0,0,0,0,0,0,0
0,0,0,0,1001,998,998,998,998,1001,998,998,998,1001,998,998,995,995,998,998,998,995,995,992,992,992,992,989,989,989,989,989,989,989,989,989,989,987,987,987,987,987,987,987,987,987,987,987,987,987,987,987,987,987,987,987,987,987,987,987,987,987,987,987,987,987,987,987,987,987,987,987,987,987,987,987,984,984,987,984,984,987,987,987,987,984,984,984,984,984,984,984,984,984,984,987,984,984,984,984,984,984,984,984,984,984,984,984,981,981,981,981,984,981,981,984,984,981,978,978,978,978,978,978,978,978,978,978,978,978,981,978,978,978,978,978,978,978,978,981,981,981,981,981,981,981,981,981,981,981,978,978,978,978,978,978,978,975,975,975,975,975,975,975,975,975,975,975,975,975,975,975,975,975,975,975,975,975,975,975,975,975,975,975,975,975,975,975,975,975,973,973,973,973,973,973,973,973,970,970,970,970,970,970,970,973,973,970,970,973,973,970,970,973,970,970,970,970,967,967,967,967,967,967,967,967,970,967,967,967,967,970,967,967,970,967,967,967,967,967,967,967,967,967,967,964,962,962,962,817,817,817,813,813,811,809,809,807,805,803,802,802,800,800,800,800,800,802,803,803,807,809,809,813,817,819,819,821,821,823,823,959,959,959,959,959,962,962,962,959,959,959,959,959,959,959,959,959,962,962,959,959,959,959,959,956,956,956,959,959,959,959,956,956,959,959,959,956,956,956,956,956,956,956,956,956,956,956,956,956,956,956,956,956,956,956,956,956,956,956,956,956,954,954,956,956,956,956,956,956,956,956,956,954,954,954,954,954,954,954,954,954,954,954,954,954,951,951,951,951,951,951,951,951,951,951,954,951,951,951,951,951,951,951,948,948,948,948,948,948,948,948,948,948,948,948,948,948,948,948,948,948,948,948,948,948,948,948,948,948,948,948,948,948,946,946,946,946,946,946,946,946,946,946,946,946,946,946,946,946,946,946,946,943,943,943,943,943,940,940,943,943,943,943,943,943,943,943,943,940,940,943,943,943,943,943,943,940,940,940,940,938,938,938,938,938,938,938,938,938,938,938,938,938,938,938,938,938,938,938,938,935,935,935,935,935,935,935,935,935,935,935,935,935,933,933,933,933,933,935,935,933,933,935,933,933,933,935,935,933,933,933,933,933,933,933,933,933,933,930,930,930,930,930,930,930,930,930,930,928,928,928,928,928,928,928,928,928,928,928,928,930,930,928,928,928,928,928,925,925,928,928,928,928,928,928,928,928,928,928,928,928,928,928,928,928,928,928,928,928,928,928,928,925,925,925,925,925,925,925,925,925,925,925,925,923,923,923,923,923,923,923,923,923,923,923,923,923,923,923,920,920,920,920,0,0,0,0,0,0,0,0,0,0,0,0,0,0,0,0,0,0,0,0,0,0,0,0,0,0,0,0,0,0,0,0,0,0,0,0
0,0,0,0,998,998,998,998,998,998,998,998,998,998,995,995,995,995,995,995,992,992,992,992,992,992,989,989,989,989,989,989,989,989,989,989,987,987,987,987,987,987,987,987,987,987,987,987,987,987,987,987,987,987,987,987,987,987,987,987,984,984,984,987,987,987,987,987,987,987,987,987,984,984,984,984,981,981,981,981,981,981,981,984,984,984,981,981,981,984,984,981,981,981,984,984,984,981,981,981,984,981,981,984,984,984,981,981,981,981,981,981,981,981,981,981,981,978,978,978,978,978,978,975,975,978,978,978,978,978,978,978,978,975,975,975,975,975,975,975,975,975,975,978,981,978,978,978,978,978,978,978,978,975,975,975,975,975,975,975,975,975,975,975,975,975,975,975,975,975,975,973,973,973,973,973,973,973,973,973,973,973,973,973,973,973,973,973,973,973,973,973,970,970,970,970,970,970,970,970,970,970,967,967,970,970,970,970,967,967,967,967,967,967,967,967,967,967,967,967,967,964,964,964,964,964,964,964,967,967,967,967,967,967,967,967,964,964,964,964,964,962,962,962,964,962,959,956,956,956,817,817,815,813,811,811,809,809,807,805,803,802,802,802,802,802,802,802,803,805,807,809,809,813,819,819,821,823,823,823,825,959,959,959,959,959,959,959,959,956,956,956,956,956,956,956,956,956,959,959,956,956,956,956,956,956,956,956,959,956,956,956,956,956,956,956,956,956,956,956,954,954,954,954,956,956,956,956,956,956,956,954,954,954,954,954,954,954,954,954,954,954,954,954,954,954,954,954,954,954,954,954,954,954,951,951,951,951,951,954,951,951,951,951,951,951,948,948,948,948,948,948,948,948,948,951,951,951,948,948,948,948,948,948,948,948,946,946,946,948,948,946,946,946,946,948,946,946,946,946,946,946,946,946,946,946,946,946,948,948,946,946,946,946,946,943,943,943,943,943,943,943,943,943,943,943,943,946,946,943,943,943,943,940,940,940,940,940,940,940,940,940,940,940,940,940,938,938,938,938,938,940,940,940,940,940,940,940,938,938,938,938,935,935,935,935,935,935,935,935,935,935,935,935,935,935,935,935,935,935,935,935,935,935,935,935,933,933,933,933,933,933,933,930,930,930,930,930,930,930,930,930,933,933,933,933,933,933,933,933,933,933,933,933,930,930,930,930,930,928,928,928,928,930,928,928,928,928,928,925,925,925,925,925,925,928,928,928,928,928,928,928,928,928,925,925,925,925,925,925,925,925,925,925,925,925,925,925,925,925,925,928,928,928,928,928,928,928,925,925,925,925,925,925,923,923,925,925,925,925,923,923,923,923,923,920,920,920,920,920,920,920,920,923,920,920,920,920,918,918,918,918,918,918,0,0,0,0,0,0,0,0,0,0,0,0,0,0,0,0,0,0,0,0,0,0,0,0,0,0,0,0,0,0,0,0,0,0,0,0
0,0,0,0,998,998,998,998,998,998,998,995,995,995,992,992,992,992,992,992,989,989,989,989,989,989,989,989,989,989,989,987,987,987,987,987,987,987,987,984,984,984,984,984,984,984,984,984,984,984,984,984,984,984,984,984,984,984,984,984,981,981,981,984,984,984,984,984,984,984,984,987,984,984,984,981,981,981,981,981,981,981,981,981,981,981,978,978,978,978,978,978,978,978,978,978,978,978,978,978,978,978,978,978,981,981,981,981,978,978,978,978,978,978,978,978,978,978,975,975,975,975,975,975,975,975,978,978,975,975,975,975,975,975,975,975,975,975,975,975,975,973,973,973,975,975,975,975,975,978,975,975,975,973,973,973,973,973,973,973,973,973,973,973,973,970,970,970,970,973,973,970,970,970,970,970,970,970,970,970,970,970,970,970,970,970,970,967,967,970,970,970,970,970,970,970,967,967,967,967,967,967,967,967,967,967,967,967,964,964,964,964,964,964,964,964,964,964,964,964,964,964,964,964,962,962,962,962,964,964,964,964,964,964,964,964,962,962,962,962,962,962,962,962,962,959,959,956,956,956,819,819,817,815,813,813,811,809,809,807,803,803,802,802,802,802,802,802,803,805,807,809,809,815,819,819,823,825,825,825,825,956,956,956,956,956,956,956,956,954,954,954,954,954,954,954,954,956,956,956,956,954,954,954,954,954,954,954,954,954,954,951,951,954,954,954,954,954,954,954,954,954,951,951,954,954,954,954,954,954,954,951,951,951,951,951,951,951,951,951,951,954,951,951,951,954,954,954,951,951,951,951,951,951,948,948,948,948,948,951,951,951,951,951,951,948,948,948,948,948,948,948,948,948,948,948,948,948,948,948,946,946,946,946,946,946,946,946,946,946,946,946,943,943,943,943,943,943,946,943,943,946,946,943,943,943,943,943,946,943,943,943,943,943,943,940,940,940,940,940,940,940,940,940,940,940,940,940,940,940,940,940,940,940,938,938,938,938,938,938,938,938,938,938,938,938,935,935,935,935,935,935,938,938,938,938,938,938,938,935,935,935,935,935,935,935,935,933,933,933,933,930,930,930,930,930,930,930,933,933,933,933,933,933,933,933,933,933,930,930,928,928,928,928,928,928,928,928,928,930,930,928,928,930,930,930,930,933,930,930,930,930,930,930,928,928,928,928,928,928,928,925,925,928,928,928,928,925,925,925,925,925,925,925,925,925,925,925,925,925,925,925,925,925,925,923,923,923,923,923,923,923,923,923,925,925,925,925,925,925,925,925,925,925,925,925,925,925,923,923,923,923,923,923,923,923,923,923,923,923,920,920,920,920,920,920,920,920,918,918,918,918,918,920,918,918,918,918,918,915,915,915,915,918,0,0,0,0,0,0,0,0,0,0,0,0,0,0,0,0,0,0,0,0,0,0,0,0,0,0,0,0,0,0,0,0,0,0,0,0
0,0,0,0,998,998,998,998,998,995,995,995,995,995,992,992,992,992,992,989,989,989,987,987,987,987,987,987,989,989,989,987,987,987,987,987,984,984,984,984,984,984,981,981,981,981,981,978,978,978,981,981,981,984,984,984,981,981,984,981,978,978,978,981,981,981,981,981,981,981,981,981,978,978,978,978,978,978,978,978,978,978,978,981,981,978,978,975,975,975,978,975,975,975,978,978,978,978,978,978,978,978,978,978,978,978,978,978,978,978,975,975,975,975,975,975,975,975,975,975,975,975,975,975,975,975,975,975,975,975,975,975,973,973,973,973,973,973,973,973,973,970,970,970,970,970,970,970,970,970,975,973,973,973,970,970,970,970,970,970,970,970,970,970,970,970,970,967,967,970,970,970,970,967,967,967,967,967,967,967,967,967,967,967,967,967,967,967,967,967,967,967,967,967,967,967,967,967,964,964,964,964,964,964,964,964,964,964,962,962,964,962,962,962,962,959,959,959,959,964,962,962,962,962,962,962,959,959,962,962,962,962,962,962,962,959,959,959,959,959,959,959,959,959,959,956,956,956,956,956,821,821,817,817,815,813,813,811,811,809,805,803,802,802,802,802,802,803,803,805,807,809,815,819,819,821,823,825,825,825,825,954,954,954,956,954,954,954,954,951,951,951,951,951,951,951,954,954,954,954,954,951,951,951,951,948,948,948,951,951,951,951,951,951,951,951,948,948,951,951,951,951,948,948,951,951,951,951,951,951,951,948,948,948,948,948,948,948,948,948,948,948,948,951,951,951,951,951,951,948,948,948,948,948,948,948,948,948,948,948,948,948,948,948,948,948,946,946,946,946,946,946,946,946,946,946,946,946,946,946,946,946,946,943,943,943,943,940,940,940,940,940,943,943,943,940,940,940,940,940,940,943,943,940,940,940,940,940,943,940,940,940,940,940,940,938,938,940,938,938,938,938,938,938,938,938,938,938,938,938,938,938,938,938,938,938,938,938,938,938,938,935,935,935,935,933,933,933,933,933,933,933,933,935,935,938,938,935,935,933,933,933,933,933,933,933,933,933,933,930,930,930,930,930,930,930,930,930,930,930,930,930,930,930,930,930,930,928,928,928,928,928,925,925,925,925,925,925,928,928,928,928,928,928,928,928,928,930,930,928,928,928,928,928,928,928,928,925,925,925,925,925,925,925,925,925,925,925,925,925,925,923,923,923,923,923,923,923,923,923,920,920,920,920,920,920,920,920,920,920,923,923,923,923,923,923,923,923,923,925,925,925,925,925,923,923,923,923,920,920,920,920,920,920,920,920,920,920,920,920,920,920,920,920,920,920,918,918,918,918,918,918,918,918,918,918,918,915,915,915,915,915,915,915,0,0,0,0,0,0,0,0,0,0,0,0,0,0,0,0,0,0,0,0,0,0,0,0,0,0,0,0,0,0,0,0,0,0,0,0
0,0,0,998,995,995,998,995,995,995,992,992,992,992,992,992,992,992,992,989,987,987,984,984,984,984,984,984,987,987,987,984,984,984,984,984,984,984,984,981,981,981,981,981,978,978,978,978,978,978,978,978,978,981,981,978,978,978,978,975,975,975,975,975,978,978,978,978,978,978,978,978,978,975,975,975,975,975,978,978,978,978,978,978,978,978,978,975,975,975,975,975,975,975,975,975,975,975,975,975,975,975,975,975,975,975,975,975,975,975,975,975,973,973,973,973,973,973,973,973,973,975,975,975,975,975,975,975,973,973,973,973,973,973,970,970,970,970,970,970,970,970,970,967,967,967,967,967,967,967,967,967,967,967,967,967,967,967,967,967,967,967,967,967,967,967,967,967,967,967,967,967,967,967,967,967,967,964,964,964,964,964,964,964,964,964,964,964,964,964,964,964,964,964,964,964,964,964,964,964,964,962,962,962,962,962,959,959,959,959,962,959,959,959,959,959,956,956,956,959,956,956,959,959,959,959,959,959,959,959,959,959,959,959,956,956,956,956,956,956,956,956,956,956,956,956,954,954,954,954,823,823,821,817,817,815,813,813,811,809,807,803,803,803,802,802,802,803,805,807,809,809,815,819,819,821,825,825,825,825,825,951,951,951,951,948,948,951,951,948,948,948,948,948,948,948,948,951,951,951,951,948,948,948,948,948,948,948,951,951,951,948,948,948,948,948,948,948,948,948,948,948,948,948,948,948,948,948,948,948,948,948,948,948,948,948,948,948,946,946,946,946,946,946,946,946,946,948,948,946,946,946,948,946,946,946,946,946,946,946,946,946,946,946,946,946,946,946,946,946,943,943,943,946,946,946,946,946,946,946,943,943,943,943,943,940,940,940,940,940,940,940,940,940,940,940,938,938,938,938,938,938,938,940,938,938,938,938,938,938,938,938,938,938,938,938,935,935,935,935,938,938,938,938,938,938,938,938,938,935,935,935,935,935,935,935,935,935,935,935,935,933,933,933,933,933,930,930,933,930,930,933,933,933,933,933,933,933,933,930,930,930,930,930,930,930,930,930,930,930,928,928,928,928,928,928,928,928,928,928,928,928,928,928,928,928,928,928,928,928,925,925,925,925,925,925,925,925,925,925,925,925,925,925,925,925,925,925,925,925,925,925,925,925,925,925,925,923,923,923,923,923,923,923,925,925,925,925,925,923,923,923,923,923,920,920,920,923,923,920,918,918,918,918,918,918,918,918,918,920,920,920,920,920,920,920,923,923,923,923,923,925,925,923,923,920,920,918,918,918,918,918,918,918,918,918,920,920,920,918,918,918,918,918,918,918,918,918,915,915,915,915,915,915,915,915,915,915,913,913,913,913,913,913,0,0,0,0,0,0,0,0,0,0,0,0,0,0,0,0,0,0,0,0,0,0,0,0,0,0,0,0,0,0,0,0,0,0,0,0
0,0,0,995,995,995,995,992,992,992,989,989,989,989,989,989,989,989,981,981,981,981,981,981,981,981,978,978,978,978,981,981,981,981,981,984,981,981,981,981,981,978,978,978,978,978,978,975,975,975,975,978,978,978,978,975,975,975,975,973,973,973,973,973,973,975,975,975,975,975,975,975,975,975,975,975,975,975,975,973,973,975,975,975,978,978,975,975,973,973,975,975,973,973,975,975,975,975,973,973,975,975,975,975,975,975,975,973,973,973,973,973,970,970,970,970,970,970,970,970,970,973,973,973,973,973,973,973,973,970,970,970,970,967,967,970,970,967,967,967,970,970,967,967,967,967,967,967,967,967,964,964,967,967,964,964,964,964,964,964,964,964,964,964,964,967,967,967,967,967,967,967,967,964,964,964,964,964,962,962,962,962,959,959,962,964,962,962,962,962,962,962,962,962,962,962,962,962,962,962,962,962,959,959,959,959,959,959,959,959,959,959,959,956,956,956,956,956,956,956,956,956,956,956,956,956,956,956,956,956,956,956,956,956,956,954,954,954,956,956,954,954,954,956,956,954,954,954,954,954,823,823,821,819,817,817,815,815,813,811,809,805,803,803,803,803,803,803,805,809,809,813,817,819,819,821,825,825,825,827,827,948,948,948,948,948,948,946,946,948,946,946,946,948,948,948,948,948,948,948,946,946,946,946,946,946,946,946,948,948,948,948,948,948,948,948,946,946,948,948,946,946,946,946,946,946,946,946,946,946,946,946,946,946,946,946,946,946,946,946,946,946,946,946,943,943,943,943,943,943,946,946,946,946,946,946,946,946,946,946,946,946,946,946,946,943,943,943,943,940,940,940,940,943,943,943,943,943,940,940,940,940,940,940,940,938,938,938,938,938,938,938,938,938,938,938,938,938,938,938,938,938,938,938,935,935,938,938,938,935,935,935,935,935,935,935,935,935,935,935,935,935,935,935,935,935,935,935,935,933,930,930,930,933,930,930,933,933,933,933,933,930,930,930,930,930,930,930,930,930,930,930,930,930,930,930,928,928,928,928,928,928,928,928,928,928,928,928,928,928,928,928,928,928,928,925,925,925,925,928,928,928,925,925,925,925,925,925,925,925,925,925,923,923,923,923,925,925,923,923,925,925,925,923,923,923,925,923,923,923,923,925,923,923,923,923,923,920,920,920,920,920,920,920,923,920,920,920,920,920,920,920,920,920,920,918,918,920,920,918,918,918,918,918,918,918,918,918,918,918,918,918,918,918,918,918,920,920,920,920,920,923,923,920,920,918,918,918,918,918,918,918,918,918,918,918,918,918,918,918,918,918,918,915,915,915,915,915,915,915,915,915,915,913,913,913,913,913,910,910,910,910,910,910,0,0,0,0,0,0,0,0,0,0,0,0,0,0,0,0,0,0,0,0,0,0,0,0,0,0,0,0,0,0,0,0,0,0,0,0
0,0,0,992,992,992,992,992,992,992,989,987,987,987,978,978,978,978,978,978,981,981,981,978,978,978,978,978,978,978,978,978,978,978,978,981,978,978,978,978,978,978,975,975,978,975,975,975,975,975,975,975,975,973,973,973,973,973,973,970,970,970,970,970,970,973,973,973,973,973,973,973,973,973,973,973,973,973,973,970,970,970,970,970,970,970,973,973,970,970,973,970,970,970,970,973,973,973,970,970,970,973,973,973,973,973,973,973,970,970,970,970,967,967,967,967,967,967,967,967,967,967,967,970,970,970,970,970,970,967,967,967,967,967,967,967,967,967,967,967,967,967,967,967,967,967,967,964,964,964,964,964,964,964,964,964,964,964,964,964,964,964,964,964,964,964,964,964,964,964,964,964,964,964,964,964,962,962,962,962,962,959,959,959,959,962,962,959,959,959,959,959,959,959,959,959,959,962,962,959,959,959,959,956,956,956,956,956,956,956,956,956,956,956,956,956,956,956,956,956,954,954,954,954,954,954,954,954,954,956,956,956,956,956,954,954,954,954,954,954,954,954,954,954,954,954,951,951,951,951,823,823,823,821,819,817,817,815,815,813,809,807,805,803,803,803,803,805,807,809,811,813,817,819,819,821,825,827,827,827,946,946,946,946,946,946,946,946,946,946,946,943,943,946,946,946,946,946,946,946,946,946,943,943,943,946,946,946,948,948,948,946,946,946,946,946,946,946,946,946,946,946,943,943,943,943,943,943,943,943,946,946,946,943,943,946,943,943,943,943,943,943,943,943,940,940,943,940,940,943,940,940,943,943,943,943,943,943,943,943,943,943,943,943,943,940,940,940,940,940,938,938,938,938,940,940,938,938,938,938,938,938,938,938,938,935,935,938,935,935,935,935,935,935,935,938,938,935,935,935,935,935,935,933,933,935,935,935,935,935,935,935,935,935,935,935,933,933,935,935,935,935,935,935,935,935,935,933,933,933,930,930,930,930,928,928,928,928,928,928,928,928,925,925,928,928,928,928,928,928,928,928,928,928,928,928,928,928,928,925,925,925,925,928,928,928,928,928,928,925,925,925,925,925,925,925,925,925,925,925,925,925,923,923,925,925,923,923,923,923,923,923,923,923,923,923,923,923,923,923,923,923,923,923,923,923,923,920,920,920,920,920,920,920,923,920,920,920,920,920,918,918,918,920,918,918,918,918,918,918,918,918,918,918,918,918,918,918,918,918,915,915,915,915,918,918,918,918,915,915,915,915,915,915,915,915,918,918,918,918,918,918,918,918,918,918,918,915,915,915,915,915,915,915,915,915,915,915,915,915,915,915,915,915,915,915,915,915,915,915,913,913,913,910,910,910,910,910,908,908,908,908,910,910,0,0,0,0,0,0,0,0,0,0,0,0,0,0,0,0,0,0,0,0,0,0,0,0,0,0,0,0,0,0,0,0,0,0,0,0
0,0,0,989,987,987,989,989,989,989,987,984,978,975,975,978,975,975,975,975,978,978,978,978,975,975,975,975,975,975,975,975,975,975,978,978,975,975,978,975,975,975,975,975,975,975,975,975,975,973,973,973,973,970,970,970,970,970,970,970,970,970,967,967,970,967,967,970,970,970,970,970,970,970,970,970,970,970,970,970,970,967,967,967,967,967,967,967,967,967,970,970,970,970,970,970,970,970,970,970,970,970,970,970,970,970,970,970,967,967,967,967,967,967,967,964,964,964,967,967,967,967,967,967,967,967,967,967,967,967,967,967,964,964,964,964,964,964,964,964,964,964,964,964,964,964,964,964,964,962,962,962,962,962,962,962,962,962,962,962,962,962,962,962,964,964,964,964,964,962,962,962,962,962,962,962,962,962,959,959,959,959,956,956,956,959,959,956,956,959,959,959,959,956,956,956,959,959,959,956,956,956,956,956,956,956,954,954,956,956,956,956,956,956,954,954,954,954,954,954,954,954,954,954,951,951,954,954,954,954,954,954,954,954,954,954,954,954,954,954,954,954,954,954,954,951,951,948,948,948,823,823,823,821,819,817,817,815,815,813,811,807,807,805,803,803,805,805,809,809,811,815,817,819,819,821,825,827,827,827,946,946,946,946,943,943,943,943,943,943,943,943,943,943,943,943,946,946,943,943,943,943,943,943,943,943,943,943,946,946,946,943,943,943,943,943,943,943,943,943,943,943,943,943,940,940,940,940,940,943,943,943,943,940,940,943,940,940,940,940,940,940,940,940,938,938,940,940,940,940,940,940,940,940,940,940,940,940,940,940,940,940,940,940,938,938,938,938,938,938,938,938,938,938,938,938,938,938,935,935,935,935,935,935,935,935,935,933,933,933,933,933,935,935,935,935,935,935,935,935,935,935,935,933,933,933,933,933,933,930,930,933,933,933,935,933,933,933,933,933,933,933,933,933,933,933,933,930,930,930,928,928,928,928,928,928,925,925,925,925,925,923,923,925,925,925,925,925,925,928,928,925,925,925,925,925,925,925,925,925,925,925,925,925,925,925,925,925,925,925,925,925,925,925,925,925,923,923,923,923,923,920,920,923,923,923,923,923,923,923,923,920,920,920,920,920,920,920,920,920,920,920,923,920,920,920,920,920,918,918,918,918,918,918,918,918,920,920,918,918,918,918,918,918,918,918,918,918,918,918,915,915,915,915,915,915,915,915,915,915,915,915,915,915,915,915,915,915,915,915,913,913,913,913,913,913,915,915,915,915,915,915,915,915,915,915,915,915,915,915,915,915,915,915,915,913,913,915,915,913,913,915,913,913,913,915,913,913,913,910,910,910,910,908,908,908,908,908,908,908,908,908,908,908,0,0,0,0,0,0,0,0,0,0,0,0,0,0,0,0,0,0,0,0,0,0,0,0,0,0,0,0,0,0,0,0,0,0,0,0
0,0,0,987,987,987,987,987,987,987,987,978,978,975,975,975,975,975,973,973,975,975,975,975,975,975,975,975,973,973,973,973,973,973,975,975,975,975,975,973,973,975,973,973,975,973,973,973,973,973,973,973,973,970,970,967,967,967,967,967,967,967,967,967,967,967,967,967,967,967,967,967,967,967,967,967,967,967,967,967,967,967,967,967,964,964,964,964,967,967,967,967,967,967,967,967,967,967,967,967,967,967,967,967,967,967,967,967,967,964,964,964,964,964,964,964,964,964,964,964,964,964,964,964,967,964,964,964,964,964,964,964,964,964,964,964,964,964,964,964,964,964,962,962,962,962,962,962,962,962,959,959,959,959,959,959,962,962,959,959,959,959,959,959,959,959,959,959,962,959,959,959,959,959,959,962,959,959,959,959,959,956,956,956,956,956,956,954,954,954,954,956,956,956,956,956,956,956,956,956,956,954,954,954,954,954,951,951,951,951,954,954,954,954,954,954,954,954,954,954,951,951,951,951,951,951,951,951,951,951,951,951,951,951,951,951,951,951,951,951,951,951,951,951,951,951,946,946,948,946,825,825,823,823,821,819,817,817,815,813,811,809,809,807,805,805,805,807,809,811,815,817,819,819,819,823,825,827,827,827,943,943,943,943,943,943,943,940,940,943,943,943,943,943,943,943,943,943,943,943,940,940,940,940,940,940,940,943,943,943,943,943,943,943,940,940,940,940,940,940,940,940,940,940,940,940,940,940,940,940,940,940,940,938,938,938,938,938,938,938,938,938,938,938,938,938,938,938,938,940,938,938,938,938,938,938,938,938,940,938,938,938,938,938,938,938,938,935,935,935,935,935,935,935,935,935,935,935,933,933,933,935,935,933,933,933,933,930,930,933,933,933,933,933,933,933,935,933,933,933,933,933,933,930,930,930,930,930,930,930,930,930,930,930,933,933,933,933,933,933,933,930,930,930,930,930,930,930,930,928,928,928,928,928,925,925,925,923,923,923,923,923,923,923,923,923,923,923,923,925,925,925,925,925,925,925,925,925,925,925,925,923,923,923,923,920,920,923,923,923,923,923,923,923,923,923,920,920,920,920,920,920,920,920,920,920,920,920,920,920,920,920,918,918,918,918,918,918,915,915,915,918,918,918,918,918,918,918,918,918,918,918,918,918,918,915,915,915,915,918,915,915,915,915,915,915,915,915,915,915,915,915,915,915,915,913,913,913,913,915,915,915,915,915,915,915,915,915,913,913,913,913,913,913,913,913,913,915,915,915,913,913,913,913,913,913,913,915,915,913,913,913,913,913,913,913,913,913,913,913,913,913,910,910,910,913,910,910,908,908,908,908,908,908,906,906,908,908,906,906,906,908,908,908,0,0,0,0,0,0,0,0,0,0,0,0,0,0,0,0,0,0,0,0,0,0,0,0,0,0,0,0,0,0,0,0,0,0,0,0
0,0,0,984,984,981,981,984,984,984,984,978,978,973,973,975,975,975,973,973,975,975,975,975,973,973,973,970,970,970,970,970,970,970,973,973,973,973,973,970,970,973,973,973,973,973,973,973,973,970,970,970,970,967,967,967,967,967,967,967,967,967,964,964,964,964,964,964,964,964,964,964,964,964,964,964,964,964,964,964,964,964,964,964,964,964,964,964,964,964,964,964,964,964,964,964,964,967,967,967,964,964,964,964,964,964,964,964,964,964,964,964,964,964,964,964,962,962,964,964,964,962,962,964,964,964,964,964,964,964,962,962,962,962,962,962,962,962,962,959,959,959,959,959,959,956,956,959,959,956,956,956,956,956,959,959,959,956,956,956,956,956,956,956,956,956,956,956,956,956,956,956,956,956,956,956,956,956,956,956,956,956,954,954,954,954,954,951,951,951,951,954,954,954,954,954,954,954,954,954,954,954,954,954,954,951,948,948,951,951,951,951,951,951,951,951,951,951,951,951,951,951,948,948,946,946,948,948,948,948,948,948,948,948,948,948,948,948,948,948,948,948,948,948,948,946,946,946,946,943,829,827,825,823,823,821,819,817,817,815,811,811,809,809,807,807,807,809,809,811,815,817,819,819,819,825,825,827,827,827,943,943,943,943,940,940,940,940,940,940,940,940,940,940,940,940,940,940,938,938,938,938,940,940,940,938,938,940,943,940,940,940,940,940,940,940,940,940,940,938,938,938,938,938,938,938,938,938,938,938,938,938,938,935,935,935,935,935,935,935,938,938,938,938,935,935,935,935,935,935,935,935,935,935,935,935,935,935,935,935,935,935,935,935,935,935,935,933,933,933,933,933,933,933,933,933,935,933,930,930,933,933,933,930,930,930,930,930,930,930,930,930,930,930,933,933,933,930,930,930,930,930,928,928,928,928,928,928,928,928,928,930,930,928,928,928,928,930,930,930,930,930,928,928,928,928,928,928,928,928,928,925,925,925,925,923,920,920,920,920,920,920,920,920,923,923,920,920,920,920,923,923,923,923,923,923,923,923,923,923,923,923,923,920,920,920,920,918,918,920,920,920,920,920,920,920,918,918,918,920,920,918,918,920,920,920,920,918,918,920,918,918,915,915,915,915,913,913,913,915,915,915,915,915,915,915,915,918,915,915,915,915,915,915,915,915,915,915,915,915,915,915,915,915,915,915,915,915,915,915,915,915,913,913,913,913,913,913,913,913,913,913,913,913,913,913,913,913,910,910,910,910,913,913,913,913,913,913,913,913,910,910,910,910,910,910,910,910,910,913,910,910,910,910,910,910,910,910,910,910,910,910,908,908,910,910,910,908,908,906,906,908,906,906,903,903,906,906,906,906,903,903,906,906,0,0,0,0,0,0,0,0,0,0,0,0,0,0,0,0,0,0,0,0,0,0,0,0,0,0,0,0,0,0,0,0,0,0,0,0
0,0,0,981,981,981,981,981,981,981,978,978,975,970,970,973,970,970,970,970,970,973,973,973,970,970,967,967,970,970,967,967,967,970,970,970,970,970,970,970,970,973,970,970,970,973,970,970,970,970,970,970,967,967,967,964,964,964,964,964,964,964,964,964,964,964,962,962,964,964,964,964,964,964,964,964,964,964,964,964,964,964,964,964,964,962,962,964,962,962,962,962,962,964,962,962,962,962,962,962,962,962,962,962,962,962,964,964,964,964,964,964,964,964,964,962,959,959,962,962,962,962,962,962,962,962,962,962,962,959,959,959,959,959,959,959,962,959,959,956,956,956,956,956,956,956,956,956,956,956,956,956,956,956,956,956,956,956,956,956,954,954,954,954,954,954,954,954,954,954,954,954,954,951,951,954,954,954,954,954,954,954,954,951,951,951,951,951,951,951,951,951,954,954,954,951,951,951,951,951,951,951,951,951,951,948,948,948,948,948,948,948,948,948,948,951,948,948,948,948,948,948,948,946,946,946,946,946,946,946,946,946,946,946,946,946,946,946,946,946,946,946,946,946,946,946,943,943,943,943,831,827,825,825,823,823,819,819,817,815,813,811,811,809,809,807,807,809,809,811,815,817,819,819,821,825,827,827,827,827,943,943,940,940,938,938,938,938,938,938,938,938,938,938,938,938,938,938,935,935,935,935,935,935,935,938,938,938,938,938,938,938,938,938,938,938,938,938,938,938,938,938,938,938,938,938,938,938,938,938,938,938,933,933,933,933,935,935,935,935,935,935,935,935,935,933,933,933,933,935,933,933,935,935,933,933,933,933,933,933,933,933,930,930,933,933,933,930,930,930,930,930,930,930,930,930,933,930,930,930,930,930,930,930,930,930,930,928,928,928,928,928,928,928,930,930,930,928,928,928,928,928,925,925,925,925,925,925,925,925,925,928,928,928,925,925,925,925,925,928,928,928,928,928,928,925,925,925,925,925,925,925,923,923,923,920,918,918,918,920,920,920,920,920,920,920,920,920,920,920,920,920,920,920,920,920,920,920,920,920,920,920,920,920,920,920,918,918,918,918,918,918,918,918,918,918,918,918,918,918,918,918,918,918,918,918,918,915,915,918,915,915,913,913,913,913,910,910,910,913,913,913,915,915,915,915,915,915,915,915,915,915,915,915,913,913,913,913,913,913,913,913,913,915,915,915,915,913,913,913,913,913,910,910,910,910,910,910,910,910,913,913,913,913,913,910,910,910,908,908,908,908,908,908,908,908,908,910,910,908,908,908,908,908,908,908,908,908,908,908,908,908,908,908,908,908,908,908,908,908,908,908,908,908,906,906,906,903,903,903,903,903,901,901,901,901,903,901,901,901,901,901,901,901,0,0,0,0,0,0,0,0,0,0,0,0,0,0,0,0,0,0,0,0,0,0,0,0,0,0,0,0,0,0,0,0,0,0,0,0
0,0,0,981,981,981,981,978,978,978,978,975,975,970,970,970,970,970,967,967,970,970,970,970,967,967,967,967,970,967,967,967,967,967,967,967,967,967,967,967,967,970,970,970,970,970,967,967,967,967,967,964,964,964,964,962,962,964,964,964,964,964,964,964,964,962,962,962,962,962,962,962,962,962,962,962,962,962,962,962,962,962,962,962,962,962,962,962,962,962,959,959,959,962,959,959,959,959,959,959,956,956,959,956,956,962,962,962,962,962,962,962,962,962,962,959,956,956,959,959,959,959,959,959,962,959,959,959,959,959,959,959,956,956,959,959,959,959,956,956,954,954,956,954,954,954,954,954,954,954,954,954,954,954,954,954,954,954,954,954,954,954,951,951,951,954,954,951,951,951,951,951,951,951,948,948,948,948,951,951,951,951,951,951,948,948,948,948,948,948,948,951,951,951,951,948,948,948,948,948,948,946,946,946,946,946,946,946,946,946,946,946,946,946,946,946,946,946,946,946,946,946,946,946,943,943,943,943,943,943,943,943,943,943,943,943,943,943,943,943,943,943,943,943,943,943,943,943,943,835,833,829,827,825,825,823,821,819,817,815,813,811,811,809,809,809,809,809,809,811,817,817,819,819,821,825,827,829,827,827,943,943,938,938,938,938,935,935,935,935,938,938,938,938,938,935,935,935,935,935,935,935,935,935,935,935,935,935,938,938,938,938,938,938,935,935,938,938,938,938,938,938,935,935,935,935,935,935,935,935,935,935,930,930,930,930,933,933,933,933,933,933,933,933,933,933,933,933,933,933,930,930,933,933,933,933,930,930,930,930,930,930,930,928,928,928,928,930,930,930,930,930,928,928,928,928,930,930,928,928,928,928,928,928,928,928,928,928,928,928,928,928,928,928,928,928,928,928,928,928,928,925,925,925,923,923,923,923,925,925,925,925,925,925,923,923,923,923,923,923,923,923,925,925,925,925,923,923,923,923,923,923,920,920,920,920,918,918,918,918,918,918,918,918,918,918,918,918,918,918,918,918,918,918,918,918,918,918,918,918,918,918,918,918,918,918,918,915,915,918,915,915,915,915,915,915,915,915,915,918,918,915,915,918,915,915,915,915,915,915,915,913,913,913,910,910,910,910,910,910,910,910,910,913,913,913,913,913,913,913,913,913,913,913,910,910,910,910,910,910,910,910,910,910,910,913,913,913,910,910,913,910,910,910,910,910,910,910,910,910,910,910,910,910,910,908,908,908,908,908,908,908,906,906,906,906,908,908,908,908,908,908,908,906,906,906,906,906,908,906,906,906,906,906,906,906,906,906,906,906,906,906,906,906,906,903,903,903,901,901,901,901,901,901,898,898,901,901,898,898,898,898,898,898,0,0,0,0,0,0,0,0,0,0,0,0,0,0,0,0,0,0,0,0,0,0,0,0,0,0,0,0,0,0,0,0,0,0,0,0
0,0,0,978,978,978,978,978,975,975,975,975,973,967,967,967,967,967,967,967,967,967,967,967,967,967,967,967,967,967,967,967,967,967,964,964,964,967,967,967,967,967,967,967,967,967,964,964,964,962,959,959,959,959,962,959,959,962,962,962,962,962,962,962,962,959,959,959,959,959,959,959,959,959,959,962,962,962,959,959,959,959,959,959,959,959,959,962,959,959,959,959,959,959,956,956,956,956,956,956,954,954,956,956,956,956,956,956,959,959,959,959,956,956,956,956,954,954,956,956,956,956,956,956,956,956,956,956,956,956,956,956,956,956,956,956,956,956,956,954,954,954,954,954,951,951,951,951,951,951,951,951,951,951,951,951,951,948,948,951,951,951,948,948,948,951,951,951,951,951,951,951,948,948,948,948,948,946,946,946,946,948,948,948,946,946,948,948,948,948,948,948,951,948,946,946,946,946,946,946,946,946,946,943,943,943,943,943,943,943,943,943,943,946,946,946,946,943,943,943,943,943,943,943,943,943,943,943,943,940,940,940,940,940,940,940,940,940,938,938,940,940,940,938,938,938,938,940,940,833,833,831,829,827,827,825,823,821,819,815,813,813,811,811,811,811,811,811,811,813,817,819,819,821,825,825,829,829,827,827,829,943,938,935,935,935,935,935,935,935,935,935,935,935,935,935,935,935,935,935,935,935,935,935,933,933,933,933,935,935,935,935,935,935,935,935,935,935,935,935,935,935,935,935,935,935,935,935,933,933,933,930,930,930,928,928,930,930,930,930,930,933,933,930,930,930,930,930,930,930,930,930,930,928,928,928,930,928,928,928,928,928,928,928,928,928,928,928,928,928,928,928,928,928,928,928,928,928,928,928,928,928,928,925,925,925,925,925,925,928,925,925,925,925,928,928,928,925,925,925,925,925,923,923,923,923,923,923,923,923,923,923,925,923,920,920,920,920,920,920,920,920,920,920,923,923,920,920,920,920,920,920,920,920,920,918,918,918,918,918,918,918,918,918,918,918,918,918,918,918,918,918,918,918,918,918,915,915,915,915,915,915,915,915,915,915,915,913,913,915,915,915,913,913,915,915,915,915,915,915,915,913,913,913,915,913,913,913,913,913,913,910,910,910,910,908,908,908,908,908,908,908,908,910,910,910,910,908,908,910,908,908,908,908,908,908,908,908,908,908,908,908,908,908,908,908,908,910,910,910,910,910,910,910,910,908,908,908,910,910,910,908,908,908,908,908,908,906,906,906,906,906,906,906,906,906,906,906,906,906,906,906,906,906,903,903,903,906,906,906,906,903,903,906,903,903,903,903,903,903,903,903,903,901,901,903,901,901,898,898,898,898,898,898,898,898,898,898,898,898,896,896,896,898,0,0,0,0,0,0,0,0,0,0,0,0,0,0,0,0,0,0,0,0,0,0,0,0,0,0,0,0,0,0,0,0,0,0,0,0
0,0,0,978,978,978,978,975,975,975,975,975,967,967,967,967,964,964,964,964,964,967,967,964,964,964,964,964,964,964,964,964,964,964,964,964,964,964,964,964,964,964,964,964,964,964,959,959,959,959,956,956,956,956,956,956,956,959,959,959,959,959,959,959,956,956,956,956,956,956,956,956,956,956,956,959,959,959,956,956,956,956,956,956,956,956,959,959,956,956,956,956,956,956,954,954,954,954,954,954,954,954,954,954,954,954,956,956,956,954,954,954,954,954,954,954,954,954,954,954,954,954,954,954,954,954,954,954,954,954,954,954,954,954,954,954,954,954,954,954,951,951,951,951,951,951,948,948,948,951,948,948,948,948,948,948,946,946,948,948,946,946,946,946,946,948,948,948,948,948,948,948,948,946,946,946,946,946,946,946,946,946,946,946,946,946,946,946,946,946,946,948,946,946,946,946,946,943,943,943,943,943,943,943,943,943,943,943,943,943,943,943,943,943,943,943,943,943,943,943,940,940,940,940,940,940,940,940,938,938,938,938,938,938,938,938,938,938,938,938,938,938,938,938,938,938,938,938,938,833,833,831,829,827,827,827,825,823,821,817,815,813,813,811,811,811,811,811,813,815,817,819,819,821,825,827,829,829,829,829,829,938,938,935,935,935,935,935,933,933,935,933,933,933,933,933,933,933,933,933,933,933,933,933,933,933,933,933,935,935,933,933,933,933,933,933,933,933,933,933,933,933,933,933,933,933,933,933,930,930,930,928,928,928,928,928,928,928,930,930,930,930,930,928,928,928,928,928,928,928,928,928,928,928,928,928,928,928,928,928,928,928,928,928,925,925,925,925,925,925,925,925,925,925,925,925,925,925,925,925,925,925,925,925,925,925,925,925,925,925,925,925,925,925,925,925,925,925,925,923,923,923,923,920,920,920,920,920,923,923,920,920,920,920,918,918,918,918,918,918,918,918,918,918,918,918,918,918,918,918,918,918,918,918,918,918,918,918,918,915,915,915,915,915,915,915,915,915,915,915,915,915,915,915,915,915,913,913,913,913,913,913,913,913,913,913,913,910,910,913,913,913,910,910,910,913,913,913,913,913,913,910,910,910,910,910,910,910,910,910,910,910,908,908,908,908,908,908,908,908,908,908,908,908,908,908,908,908,908,908,908,908,908,908,908,908,906,906,906,906,906,906,906,906,906,906,906,906,906,906,908,908,908,908,908,908,908,908,908,908,908,908,908,908,908,906,906,906,906,906,906,906,903,903,903,903,903,903,903,903,903,903,903,903,903,903,903,903,903,903,903,901,901,903,901,901,898,898,901,901,901,901,901,901,901,901,898,898,898,898,896,896,896,896,896,896,896,896,896,896,896,896,896,896,0,0,0,0,0,0,0,0,0,0,0,0,0,0,0,0,0,0,0,0,0,0,0,0,0,0,0,0,0,0,0,0,0,0,0,0
0,0,0,975,975,975,975,975,975,973,973,973,967,967,967,964,964,964,964,964,964,964,964,962,962,962,962,962,962,962,964,964,964,964,964,964,964,962,962,964,964,962,962,962,964,959,956,956,956,956,954,954,956,956,956,956,956,956,956,956,956,956,956,956,954,954,954,954,954,954,956,956,956,956,956,956,956,956,956,956,956,956,954,954,954,954,956,956,956,956,954,954,954,954,954,954,954,954,954,954,951,951,951,954,954,954,954,954,954,951,951,951,948,948,948,948,951,951,951,951,951,951,954,951,951,951,951,954,954,954,951,951,954,954,951,951,948,948,951,951,951,951,951,951,948,948,948,948,948,948,948,948,948,946,946,946,946,946,946,946,946,946,943,943,946,946,946,946,946,946,946,946,946,946,946,943,943,943,943,943,943,943,943,943,943,946,946,946,946,946,946,946,946,946,946,943,943,943,943,943,943,940,940,940,940,940,940,940,940,940,940,940,940,940,940,943,943,940,940,940,938,938,938,938,938,938,938,938,938,935,935,935,935,935,935,935,938,935,935,935,935,935,935,935,935,935,935,935,935,833,833,831,829,829,827,827,825,825,823,817,815,813,813,811,811,811,811,811,813,815,817,819,819,821,825,827,831,831,829,829,829,935,935,935,935,933,933,933,933,933,933,933,933,933,933,930,930,930,930,930,930,930,928,928,930,930,930,930,933,933,930,928,928,928,928,928,930,930,930,930,930,930,930,930,930,930,930,928,928,928,928,928,928,928,928,928,928,928,928,928,928,928,928,928,928,928,928,925,925,925,925,925,925,925,925,925,925,925,925,925,925,925,925,925,925,925,925,923,923,920,920,920,920,918,918,920,923,923,923,923,923,923,923,923,923,923,923,923,923,920,920,920,920,920,920,920,920,923,923,923,920,920,920,920,920,918,918,918,920,920,918,918,918,918,918,918,918,918,918,918,918,918,915,915,918,915,915,915,915,915,915,915,915,915,915,915,915,915,915,915,915,915,915,915,915,915,913,913,915,915,915,913,913,913,913,910,910,910,910,910,910,910,910,910,910,910,910,910,910,910,910,910,910,910,910,910,910,910,910,908,908,908,908,908,908,908,908,908,908,908,908,908,908,908,908,908,906,906,908,908,908,906,906,908,908,906,906,906,906,906,906,906,906,906,906,906,906,906,906,906,906,903,903,903,903,903,903,903,903,906,906,906,906,906,906,906,906,906,906,908,908,906,906,906,906,906,903,903,903,903,903,903,903,903,903,903,901,901,901,901,901,901,901,901,901,901,901,901,903,901,901,901,901,901,898,898,898,898,896,896,898,898,898,898,898,898,898,898,896,896,896,894,894,896,894,894,894,894,894,894,894,894,894,894,0,0,0,0,0,0,0,0,0,0,0,0,0,0,0,0,0,0,0,0,0,0,0,0,0,0,0,0,0,0,0,0,0,0,0,0
0,0,0,973,973,973,975,973,973,970,967,967,967,964,964,964,964,964,964,964,964,964,962,959,959,959,962,959,959,959,962,962,962,962,962,959,959,956,956,959,959,959,956,956,959,956,954,954,956,956,954,954,954,954,954,954,954,956,956,956,956,956,956,956,954,954,954,954,954,954,954,954,954,954,954,954,954,954,954,954,954,954,954,954,954,954,954,954,954,954,954,954,954,954,951,951,951,951,951,951,948,948,948,951,951,951,948,948,948,948,948,948,948,948,948,948,948,948,948,948,948,948,951,951,948,948,951,951,951,951,951,951,951,951,948,948,948,948,948,948,948,948,951,948,948,946,946,946,946,946,946,946,946,946,946,946,946,946,946,943,943,943,943,943,943,943,943,943,946,946,946,946,946,946,943,943,943,943,943,940,940,943,943,943,943,943,943,943,943,943,943,946,943,943,943,943,943,940,940,940,940,938,938,938,938,938,938,938,938,938,938,938,938,940,940,940,940,940,938,938,938,938,938,935,935,935,935,935,935,935,935,935,935,935,935,935,935,935,935,935,935,935,935,935,935,935,935,935,935,935,833,831,831,829,829,827,827,825,825,821,817,817,815,813,813,813,813,813,813,817,817,819,819,821,827,827,831,831,831,831,835,837,935,933,933,930,930,930,930,930,930,930,930,930,930,928,928,928,928,925,925,925,925,925,928,928,928,928,928,928,928,925,925,925,925,925,925,925,925,928,928,928,928,928,928,928,928,928,928,928,925,925,925,925,925,928,928,928,928,928,928,928,928,928,928,925,925,925,925,925,925,923,923,923,923,923,923,923,923,923,923,923,923,923,923,923,923,923,920,920,920,918,918,918,918,918,918,920,920,920,920,920,920,920,920,920,920,920,920,920,918,918,918,918,918,918,918,918,920,920,920,920,920,918,918,918,918,918,918,918,918,918,918,915,915,915,915,915,915,915,915,915,915,915,915,913,913,913,913,910,910,910,913,913,913,913,915,915,915,913,913,913,913,913,913,913,913,913,913,913,913,910,910,910,910,910,908,908,908,908,908,908,908,908,908,908,908,908,908,908,908,908,908,908,908,908,908,908,908,908,906,906,906,906,906,906,906,906,906,906,906,906,906,906,906,906,906,906,906,906,906,906,906,906,906,906,906,906,903,903,903,903,903,903,903,903,906,906,906,903,903,901,901,901,901,901,901,901,901,903,903,903,903,903,903,903,903,903,906,906,906,903,903,906,906,903,903,903,903,903,901,901,901,901,903,903,901,901,901,901,901,901,901,898,898,898,898,901,901,901,901,901,901,898,898,898,896,896,896,896,896,896,896,898,896,896,896,896,896,896,894,894,894,894,894,894,891,891,891,891,891,891,891,894,0,0,0,0,0,0,0,0,0,0,0,0,0,0,0,0,0,0,0,0,0,0,0,0,0,0,0,0,0,0,0,0,0,0,0,0
0,0,0,973,973,973,973,970,970,967,964,964,964,964,962,962,959,959,962,962,962,962,959,959,956,956,959,959,956,956,959,959,959,959,959,959,959,956,956,956,956,954,954,954,956,954,954,954,954,954,954,954,954,954,954,954,954,954,954,954,954,954,954,954,951,951,951,951,951,951,954,954,954,954,954,954,954,954,954,954,951,951,951,951,951,951,951,951,951,954,951,951,951,951,948,948,948,948,948,948,948,948,948,951,948,948,948,948,948,946,946,946,946,946,946,946,946,946,946,946,946,946,946,948,948,948,948,948,948,948,946,946,948,948,946,946,946,946,946,946,946,946,946,946,946,946,943,943,946,946,943,943,943,943,943,943,943,943,943,943,940,940,943,943,943,943,943,943,943,943,940,940,943,943,940,940,940,940,940,940,940,940,940,940,940,940,940,940,940,940,940,940,940,940,940,940,940,940,938,938,938,938,938,935,935,938,935,935,938,935,935,935,935,938,938,938,938,938,938,938,935,935,935,935,935,935,935,935,935,933,933,935,933,933,933,933,933,933,933,933,933,933,933,933,933,933,933,933,933,933,933,833,831,831,829,829,827,827,825,821,819,817,815,813,813,813,813,813,813,817,817,819,819,825,827,829,833,833,833,833,835,835,930,930,930,928,928,928,928,928,928,928,928,928,928,925,925,925,925,923,923,923,923,923,923,923,925,925,928,928,925,925,925,923,923,923,923,923,923,923,923,923,925,925,925,925,925,925,925,925,925,923,923,923,923,925,925,925,925,925,925,925,925,925,925,925,925,925,925,923,923,923,923,923,920,920,920,920,920,920,920,920,920,920,920,923,923,920,918,918,918,918,918,918,915,915,918,918,918,918,920,920,920,918,918,918,918,918,918,918,918,918,918,918,918,918,915,915,918,918,918,918,918,918,918,918,918,918,915,915,915,915,915,915,915,913,913,915,915,915,915,913,913,913,913,910,910,910,910,910,910,910,910,910,910,913,913,913,913,910,910,910,910,910,910,910,908,908,910,910,910,910,910,908,908,908,908,908,906,906,906,908,908,906,906,906,906,906,906,906,906,906,906,906,906,906,908,906,906,906,906,906,903,903,903,903,903,906,906,906,906,903,903,906,906,906,903,903,906,906,906,906,906,906,906,903,903,903,903,903,903,903,903,903,901,901,903,903,903,901,901,901,901,898,898,898,898,898,898,901,901,901,901,901,898,898,901,901,901,901,901,901,901,903,903,901,901,901,901,901,898,898,901,901,901,901,898,898,898,898,898,898,898,896,896,898,898,898,898,898,898,898,898,898,896,896,896,896,896,896,896,896,896,896,896,896,896,896,896,894,894,894,891,891,891,891,891,891,891,891,889,889,889,0,0,0,0,0,0,0,0,0,0,0,0,0,0,0,0,0,0,0,0,0,0,0,0,0,0,0,0,0,0,0,0,0,0,0,0,0
