0,0,0,0,0,0,0,0,0,0,0,1427,1421,1421,1421,1421,1421,1421,1421,1421,1421,1427,1427,1427,1427,1421,1421,1415,1415,1415,1415,1415,1421,1421,1421,1421,1421,1421,1421,1421,1415,1415,1415,1415,1415,1415,1415,1415,1415,1421,1421,1421,1421,1421,1421,1421,1415,1415,1415,1415,1415,1415,1415,1415,1415,1415,1415,1415,1415,1410,1410,1404,1398,1398,1398,1398,1398,1398,1398,946,946,946,946,946,946,946,943,938,938,935,935,935,935,935,935,938,943,943,946,946,946,948,948,948,948,948,954,954,956,956,0,1398,1398,1398,1398,1398,1398,1398,1392,1392,1392,1392,1392,1392,1392,1392,1392,1392,1392,1392,1392,1392,1392,1392,1398,1398,1392,1392,1392,1392,1392,1392,1387,1387,1387,1387,1387,1387,1387,1381,1381,1381,1381,1381,1381,1381,1387,1387,1387,1387,1387,1387,1387,1387,1387,1387,1387,1387,1387,1387,1387,1387,1392,1101,1101,1101,1101,1101,1105,1105,1105,1105,1108,1112,1112,1115,1115,1115,1115,1115,1115,1115,1115,1112,1112,1115,1112,1108,1108,1105,1105,1101,1101,1101,0,0,0,0,0,0,0,0,703,703,703,703,703,701,701,700,698,698,697,694,693,693,691,690,688,688,688,688,690,691,693,694,696,697,698,700,701,703,704,706,707,708,710,711,0,0,0,0,0,0,0,0,0,1288,1288,1288,1288,1288,1288,1288,1288,1288,1292,1297,1297,1297,1302,1312,1333,1338,1349,1349,1349,1349,1349,1349,1349,1349,1349,1349,1349,1349,1349,1343,1343,1343,1343,1343,1343,1343,1343,1349,1343,1343,1343,1343,1349,1349,1343,1343,1343,1343,1338,1333,1333,1333,1333,1338,1338,1338,1338,1338,1338,1338,1338,1338,1333,1333,1333,1333,1333,1333,1333,1333,1333,1333,1333,1328,1328,1328,1328,1328,1328,1328,1328,1328,1328,1328,1328,1328,1322,1322,1322,1322,1322,1322,1322,1322,1322,1322,1317,1317,1322,1063,1063,1063,1063,1063,1063,1063,1063,1063,1063,1060,1060,1060,1063,1063,1063,1067,1070,1070,1073,1073,1073,1077,1312,1312,1312,1307,1307,1312,1312,1312,1312,1312,1307,1307,1307,1307,1307,1302,1302,1302,1302,1307,1307,1307,1307,1307,1302,1302,1302,1302,1302,1302,1302,1297,1297,1297,1297,1297,1297,1297,1297,1297,1297,1297,1297,1302,1302,1302,1297,1297,1302,1302,1302,1302,1302,1302,1302,1302,1302,1297,1297,1297,1297,1297,1297,1297,1292,1292,1292,1292,1292,1292,1292,1292,1292,1292,1292,1292,1288,1288,1288,1288,1288,1288,1288,1288,1288,1283,1283,1288,1283,1283,1278,1278,1278,1278,1278,1278,1278,1278,1278,1278,1278,1278,1278,1273,1273,1273,1278,1278,1278,1278,1278,1278,1278,1278,1278,1278,1278,1278,1278,1278,1278,1273,1273,1273,1273,1273,1273,1273,1273,1273,1273,1268,1268,1268,1268,1268,1268,1268,1268,1264,1264,1264,1264,1264,1264,1264,1264,1264,1264,1264,1264,1264,1264,1259,1259,1255,1250,1250,1250,1245,1245,1241,1241,1245,1245,1241,1241,1241,1241,1241,1241,1241,1250,1250,1250,1250,1255,1250,1250,1250,1112,1108,1108,1108,1119,1115,1115,1108,1105,1105,1101,1097,1094,1090,1084,1080,1073,1070,1067,1063,1063,1060,1057,1057,1054,1054,940,938,938,938,938,938,938,940,940,943,946,946,946,946,946,946,946,946,946,946,0,0,0,0,0,0,0,0,0,0,0,0,0,0,0,0,0,0,0,0,0,0,0,0,0,0,0,0,0,0,0,0,0,0
0,0,0,0,0,0,0,0,0,0,1404,1404,1404,1415,1415,1415,1410,1410,1415,1415,1415,1415,1415,1415,1415,1415,1415,1415,1410,1410,1415,1415,1415,1415,1415,1415,1415,1415,1415,1415,1415,1415,1415,1415,1415,1415,1415,1415,1415,1415,1415,1415,1415,1415,1415,1415,1415,1410,1410,1410,1410,1410,1410,1410,1410,1410,1410,1410,1410,1404,1398,1398,1398,1398,1398,1398,1398,1398,1398,946,946,946,946,946,946,946,943,940,940,938,935,935,935,935,935,938,943,943,946,946,948,948,951,954,954,954,954,956,956,956,0,1398,1398,1392,1392,1387,1387,1387,1392,1392,1392,1392,1392,1392,1387,1387,1387,1392,1392,1392,1387,1387,1387,1392,1392,1392,1392,1392,1392,1392,1392,1387,1387,1387,1387,1376,1376,1381,1381,1376,1376,1376,1381,1381,1381,1381,1381,1381,1381,1381,1381,1387,1387,1387,1387,1387,1387,1387,1387,1387,1387,1387,1090,1090,1097,1101,1101,1101,1101,1101,1101,1101,1105,1108,1108,1112,1112,1115,1115,1115,1115,1115,1115,1112,1112,1112,1112,1108,1105,1105,1105,1101,1097,1097,0,0,0,0,0,0,0,0,0,704,704,703,703,703,701,700,700,698,698,696,694,693,691,691,690,690,690,690,690,691,693,696,696,697,698,700,701,703,704,706,707,708,710,711,0,0,0,0,0,0,0,0,0,1292,1292,1292,1292,1288,1288,1288,1288,1292,1292,1297,1297,1302,1307,1312,1328,1328,1349,1349,1349,1343,1343,1343,1343,1343,1343,1343,1343,1343,1343,1343,1338,1338,1338,1338,1338,1338,1338,1338,1338,1338,1343,1343,1343,1343,1343,1338,1338,1338,1333,1333,1333,1333,1333,1333,1333,1333,1333,1338,1338,1333,1333,1333,1333,1333,1333,1333,1333,1333,1333,1328,1328,1328,1328,1328,1328,1328,1328,1322,1322,1322,1322,1322,1322,1322,1322,1322,1322,1322,1322,1322,1322,1322,1322,1317,1317,1322,1317,1317,1057,1057,1057,1063,1063,1063,1063,1063,1063,1063,1063,1063,1063,1063,1063,1063,1067,1067,1070,1070,1073,1077,1077,1077,1307,1307,1307,1302,1302,1307,1307,1307,1307,1307,1307,1307,1302,1302,1302,1302,1297,1297,1297,1297,1302,1297,1297,1297,1297,1297,1297,1297,1297,1297,1292,1292,1292,1292,1292,1292,1292,1292,1292,1292,1292,1292,1292,1292,1292,1292,1297,1297,1297,1292,1292,1292,1292,1292,1297,1292,1292,1292,1292,1292,1292,1292,1292,1292,1292,1292,1288,1288,1288,1288,1288,1288,1288,1288,1288,1288,1288,1288,1288,1288,1288,1288,1283,1283,1283,1283,1283,1283,1278,1278,1278,1278,1278,1278,1278,1278,1278,1278,1273,1273,1273,1273,1273,1273,1273,1273,1273,1273,1273,1273,1273,1273,1273,1273,1273,1273,1273,1273,1273,1273,1273,1273,1273,1273,1273,1273,1273,1268,1268,1268,1268,1268,1268,1264,1264,1264,1264,1264,1264,1264,1264,1264,1259,1259,1259,1259,1259,1259,1259,1259,1259,1259,1259,1259,1255,1250,1250,1245,1245,1245,1241,1241,1241,1241,1241,1241,1241,1241,1241,1241,1241,1241,1245,1245,1245,1245,1250,1250,1245,1245,1112,1108,1108,1108,1119,1115,1112,1108,1105,1101,1097,1094,1094,1087,1080,1080,1073,1070,1067,1063,1060,1057,1057,1054,1054,1050,938,938,938,938,938,938,938,940,940,943,946,946,946,946,946,946,946,946,946,946,0,0,0,0,0,0,0,0,0,0,0,0,0,0,0,0,0,0,0,0,0,0,0,0,0,0,0,0,0,0,0,0,0,0
0,0,0,0,0,0,0,0,0,0,1398,1398,1398,1410,1410,1410,1410,1410,1410,1410,1415,1415,1410,1410,1410,1410,1410,1404,1404,1404,1410,1410,1410,1410,1410,1415,1415,1410,1410,1410,1410,1410,1410,1410,1410,1410,1410,1410,1410,1410,1410,1410,1410,1410,1410,1410,1410,1410,1410,1410,1410,1404,1404,1410,1410,1410,1410,1404,1404,1398,1398,1398,1398,1398,1392,1392,1398,1392,1392,946,946,946,946,946,946,946,946,943,940,938,938,938,938,938,938,940,943,943,946,946,948,948,951,954,954,956,956,956,956,0,0,1387,1387,1387,1387,1387,1387,1387,1387,1387,1387,1387,1387,1387,1387,1387,1387,1387,1387,1387,1381,1381,1381,1387,1387,1387,1387,1387,1387,1387,1387,1387,1381,1381,1381,1376,1376,1376,1376,1376,1370,1370,1376,1376,1376,1376,1376,1376,1376,1376,1376,1381,1387,1084,1084,1387,1084,1084,1087,1087,1087,1087,1090,1090,1097,1097,1097,1097,1097,1101,1101,1101,1101,1105,1105,1108,1112,1112,1115,1115,1115,1115,1115,1115,1115,1112,1112,1108,1105,1105,1101,1101,1097,1097,1097,0,0,0,0,0,0,0,0,704,704,704,704,703,703,701,700,698,698,697,696,694,693,691,691,691,690,690,691,691,693,696,697,698,698,700,701,703,704,706,707,708,710,711,713,714,0,0,0,0,0,0,0,1292,1292,1292,1292,1288,1288,1292,1292,1292,1297,1297,1302,1307,1307,1312,1328,1328,1343,1343,1343,1343,1343,1343,1343,1343,1343,1343,1343,1343,1343,1338,1333,1333,1333,1333,1333,1328,1328,1333,1333,1333,1333,1333,1333,1333,1338,1333,1333,1328,1328,1328,1328,1328,1328,1328,1328,1328,1328,1333,1333,1333,1333,1333,1333,1333,1328,1328,1328,1328,1328,1328,1322,1322,1322,1322,1322,1322,1317,1317,1317,1317,1317,1317,1317,1317,1317,1317,1317,1317,1317,1317,1317,1317,1322,1317,1317,1322,1322,1054,1054,1054,1054,1054,1057,1057,1057,1060,1063,1063,1063,1063,1063,1063,1063,1063,1067,1067,1070,1073,1077,1077,1077,1077,1302,1302,1302,1302,1302,1302,1307,1307,1307,1302,1302,1302,1297,1297,1297,1297,1297,1297,1297,1297,1297,1297,1297,1297,1292,1292,1292,1292,1292,1292,1292,1292,1292,1292,1288,1288,1288,1288,1288,1288,1288,1288,1288,1292,1288,1288,1288,1283,1283,1283,1288,1288,1288,1288,1292,1292,1288,1288,1288,1288,1288,1288,1288,1288,1283,1283,1283,1283,1283,1283,1283,1283,1283,1283,1283,1283,1283,1283,1283,1283,1283,1283,1278,1278,1278,1278,1278,1278,1278,1273,1273,1273,1273,1273,1273,1273,1273,1273,1273,1273,1268,1268,1268,1268,1268,1268,1273,1268,1268,1273,1268,1268,1268,1268,1268,1273,1273,1273,1273,1273,1268,1268,1268,1268,1268,1268,1268,1268,1268,1268,1264,1264,1264,1264,1259,1259,1259,1264,1259,1259,1259,1259,1259,1259,1259,1259,1255,1255,1259,1259,1259,1259,1255,1255,1255,1250,1245,1245,1245,1245,1241,1241,1241,1241,1241,1241,1241,1236,1236,1241,1241,1241,1245,1245,1245,1245,1245,1245,1245,1245,1112,1108,1108,1123,1119,1115,1112,1105,1101,1097,1094,1090,1087,1084,1080,1077,1073,1070,1067,1063,1060,1057,1057,1054,1054,1050,938,938,938,938,938,938,940,940,940,943,946,946,946,946,946,946,946,946,946,946,0,0,0,0,0,0,0,0,0,0,0,0,0,0,0,0,0,0,0,0,0,0,0,0,0,0,0,0,0,0,0,0,0,0
0,0,0,0,0,0,0,0,0,0,1398,1398,1398,1404,1404,1410,1404,1404,1410,1410,1410,1404,1404,1404,1404,1404,1404,1404,1404,1404,1404,1404,1404,1404,1410,1410,1410,1410,1410,1404,1404,1404,1404,1410,1404,1404,1404,1404,1410,1404,1404,1410,1410,1410,1410,1404,1404,1404,1404,1404,1404,1404,1404,1404,1404,1404,1404,1398,1398,1392,1392,1392,1392,1392,1392,1392,1392,1392,1392,1398,1398,948,948,948,948,946,946,943,943,943,940,940,940,940,940,943,943,946,946,946,948,948,954,954,954,956,959,962,962,962,962,0,1387,1387,1387,1381,1381,1381,1387,1387,1387,1387,1387,1387,1381,1381,1381,1381,1381,1381,1376,1376,1376,1376,1381,1381,1376,1376,1381,1387,1381,1381,1381,1381,1376,1370,1370,1376,1370,1370,1370,1370,1370,1370,1370,1370,1370,1376,1376,1376,1080,1080,1080,1080,1080,1080,1080,1080,1080,1084,1084,1087,1087,1090,1094,1097,1097,1097,1097,1101,1097,1097,1097,1101,1105,1108,1112,1112,1115,1115,1115,1115,1115,1115,1115,1108,1108,1108,1105,1105,1101,1101,1097,1097,1090,1090,0,0,0,0,0,0,0,704,704,704,704,704,703,703,703,701,698,697,696,694,693,691,691,691,691,691,691,693,694,696,697,698,700,700,701,703,704,706,707,710,711,713,713,714,0,0,0,0,0,0,0,0,1292,1292,1292,1292,1292,1292,1292,1297,1297,1297,1302,1307,1307,1312,1322,1338,1343,1343,1343,1343,1338,1338,1338,1338,1338,1338,1338,1338,1338,1333,1328,1328,1328,1328,1328,1328,1328,1328,1328,1328,1328,1328,1328,1328,1328,1328,1328,1328,1328,1322,1322,1322,1322,1322,1322,1322,1328,1328,1328,1328,1328,1328,1328,1328,1322,1322,1322,1322,1322,1322,1317,1317,1317,1317,1317,1317,1312,1312,1312,1312,1312,1312,1312,1312,1312,1312,1312,1312,1312,1312,1312,1312,1317,1317,1317,1322,1047,1047,1047,1050,1050,1050,1054,1054,1054,1057,1057,1060,1060,1063,1063,1063,1063,1067,1067,1070,1070,1077,1080,1080,1080,1080,1302,1302,1297,1297,1297,1302,1302,1302,1302,1302,1302,1297,1297,1297,1297,1292,1292,1292,1292,1292,1292,1292,1292,1292,1292,1292,1292,1292,1288,1288,1288,1288,1288,1288,1288,1288,1288,1288,1288,1288,1288,1288,1288,1288,1288,1283,1283,1278,1278,1278,1278,1278,1278,1278,1283,1288,1288,1288,1288,1288,1283,1283,1278,1278,1278,1278,1278,1278,1278,1278,1278,1283,1278,1278,1278,1278,1278,1278,1273,1273,1278,1278,1278,1278,1273,1273,1278,1278,1273,1273,1273,1273,1273,1273,1273,1273,1273,1273,1273,1268,1268,1268,1268,1268,1268,1268,1268,1268,1268,1268,1268,1268,1264,1259,1259,1264,1259,1259,1268,1268,1268,1264,1264,1264,1264,1264,1264,1264,1264,1264,1264,1264,1264,1259,1255,1255,1259,1259,1259,1259,1255,1255,1255,1255,1255,1255,1255,1255,1255,1255,1255,1255,1250,1250,1250,1250,1245,1245,1245,1241,1236,1236,1236,1236,1236,1236,1236,1236,1236,1241,1241,1241,1241,1241,1241,1241,1241,1241,1241,1241,1241,1241,1245,1123,1119,1112,1108,1105,1101,1094,1090,1087,1084,1080,1080,1077,1073,1067,1063,1063,1060,1060,1057,1054,1054,938,938,938,940,940,940,940,940,943,943,943,943,943,943,946,946,946,946,946,946,946,0,0,0,0,0,0,0,0,0,0,0,0,0,0,0,0,0,0,0,0,0,0,0,0,0,0,0,0,0,0,0,0,0,0
0,0,0,0,0,0,0,0,0,0,1392,1392,1392,1398,1398,1404,1398,1398,1398,1398,1404,1404,1404,1404,1404,1404,1404,1398,1398,1398,1398,1398,1404,1404,1404,1404,1404,1404,1404,1398,1398,1398,1398,1398,1398,1398,1398,1398,1398,1398,1404,1404,1404,1404,1404,1404,1404,1398,1398,1398,1398,1398,1398,1398,1398,1398,1398,1392,1392,1392,1392,1392,1392,1392,1392,1392,1392,1392,1392,1392,1392,951,951,948,948,948,948,946,943,943,943,943,943,940,940,943,943,946,946,948,948,951,954,954,956,956,959,962,962,962,962,0,1387,1387,1376,1376,1376,1381,1387,1387,1381,1381,1381,1381,1381,1381,1381,1376,1376,1376,1370,1370,1370,1376,1376,1376,1376,1376,1376,1376,1376,1376,1376,1376,1376,1370,1370,1370,1370,1370,1365,1365,1365,1370,1370,1370,1370,1370,1376,1376,1080,1080,1080,1080,1080,1080,1080,1080,1080,1080,1084,1087,1087,1090,1090,1094,1094,1094,1094,1097,1097,1097,1097,1101,1105,1108,1112,1112,1115,1115,1115,1115,1115,1115,1115,1108,1108,1108,1105,1105,1101,1101,1097,1097,1090,1090,0,0,0,0,0,0,0,706,706,704,704,704,704,703,703,703,700,698,698,697,694,693,691,691,691,691,693,693,694,697,697,698,700,700,701,704,706,707,708,710,711,713,713,714,0,0,0,0,0,0,0,0,1297,1297,1292,1292,1292,1297,1297,1297,1297,1302,1302,1307,1307,1312,1322,1328,1338,1338,1338,1338,1333,1333,1333,1333,1333,1333,1333,1333,1333,1333,1328,1328,1328,1328,1328,1328,1328,1328,1328,1328,1328,1322,1322,1322,1322,1322,1322,1317,1317,1317,1317,1317,1317,1322,1322,1322,1322,1328,1328,1328,1328,1322,1322,1322,1322,1322,1322,1322,1317,1317,1317,1317,1317,1317,1317,1312,1312,1312,1312,1312,1312,1307,1307,1307,1307,1307,1307,1307,1307,1312,1312,1312,1312,1317,1317,1044,1044,1044,1047,1047,1047,1050,1050,1054,1054,1054,1057,1060,1060,1063,1063,1063,1067,1067,1067,1070,1070,1077,1080,1080,1080,1080,1297,1297,1292,1292,1292,1297,1297,1297,1292,1292,1297,1292,1292,1292,1292,1292,1292,1292,1292,1292,1292,1292,1292,1292,1288,1288,1288,1288,1288,1288,1288,1288,1288,1283,1283,1283,1283,1283,1283,1283,1283,1283,1283,1283,1283,1283,1278,1278,1273,1273,1273,1273,1273,1273,1273,1278,1278,1278,1283,1283,1278,1278,1273,1273,1273,1273,1278,1278,1278,1278,1278,1278,1278,1273,1273,1273,1273,1273,1273,1273,1273,1273,1273,1273,1273,1273,1273,1273,1273,1273,1268,1268,1268,1268,1268,1268,1268,1268,1268,1268,1268,1268,1268,1268,1264,1264,1264,1264,1264,1264,1264,1264,1259,1255,1255,1255,1255,1255,1255,1255,1255,1255,1259,1259,1259,1259,1259,1264,1259,1259,1259,1259,1259,1255,1255,1255,1255,1255,1255,1255,1255,1250,1250,1250,1255,1255,1250,1250,1255,1255,1255,1250,1250,1250,1245,1245,1245,1241,1241,1241,1236,1236,1236,1236,1236,1236,1236,1236,1236,1241,1241,1236,1236,1236,1236,1236,1236,1236,1236,1236,1236,1236,1241,1115,1115,1112,1105,1105,1097,1094,1090,1087,1084,1080,1077,1073,1070,1067,1063,1063,1060,1057,1057,1054,1054,938,938,940,940,940,940,940,940,943,943,943,943,943,943,946,946,946,946,946,946,946,948,0,0,0,0,0,0,0,0,0,0,0,0,0,0,0,0,0,0,0,0,0,0,0,0,0,0,0,0,0,0,0,0,0
0,0,0,0,0,0,0,0,0,0,1392,1392,1392,1398,1398,1398,1398,1398,1398,1398,1398,1398,1398,1398,1398,1398,1398,1398,1398,1398,1398,1398,1398,1398,1398,1398,1398,1398,1398,1392,1392,1392,1392,1392,1392,1392,1392,1392,1392,1392,1392,1398,1398,1398,1404,1404,1398,1398,1398,1398,1398,1392,1392,1392,1392,1392,1392,1392,1392,1387,1387,1387,1387,1387,1387,1387,1387,1387,1387,1392,1392,954,954,951,951,948,948,946,946,946,946,943,943,943,943,943,946,946,946,948,948,954,956,956,956,959,962,962,962,962,962,0,1370,1370,1370,1370,1370,1376,1376,1376,1376,1376,1376,1376,1370,1370,1370,1370,1370,1370,1370,1365,1365,1370,1370,1370,1370,1370,1370,1370,1370,1370,1370,1370,1370,1365,1365,1365,1365,1365,1365,1365,1365,1365,1370,1370,1370,1073,1073,1077,1077,1077,1077,1077,1077,1080,1080,1080,1080,1080,1080,1084,1087,1087,1087,1090,1090,1094,1094,1097,1097,1097,1097,1101,1105,1108,1112,1112,1115,1115,1115,1115,1115,1115,1115,1112,1108,1108,1105,1105,1101,1101,1097,1097,1094,1090,1090,0,0,0,0,0,0,706,706,706,706,706,704,704,704,703,701,700,698,697,696,694,693,693,693,693,693,693,694,697,697,698,700,700,703,704,706,707,708,710,711,713,714,714,0,0,0,0,0,0,0,0,1297,1297,1297,1297,1297,1297,1297,1297,1297,1302,1302,1307,1307,1312,1317,1322,1333,1333,1333,1333,1328,1328,1328,1328,1328,1328,1328,1328,1328,1328,1322,1322,1322,1322,1322,1322,1322,1322,1322,1322,1322,1322,1322,1322,1322,1317,1317,1317,1317,1312,1312,1312,1312,1312,1312,1317,1317,1322,1322,1322,1322,1317,1317,1317,1317,1317,1317,1317,1317,1312,1312,1312,1312,1312,1312,1312,1312,1312,1307,1307,1307,1307,1307,1307,1307,1307,1307,1307,1307,1307,1307,1307,1312,1312,1044,1044,1044,1044,1044,1044,1044,1044,1047,1050,1050,1054,1054,1057,1060,1063,1063,1063,1067,1067,1067,1070,1073,1080,1080,1080,1084,1084,1292,1292,1292,1292,1292,1292,1292,1292,1292,1292,1292,1292,1292,1292,1288,1288,1288,1288,1288,1288,1288,1288,1288,1288,1288,1288,1288,1288,1288,1283,1283,1283,1283,1278,1278,1278,1278,1278,1278,1278,1278,1283,1283,1283,1278,1278,1273,1273,1273,1273,1273,1273,1273,1273,1273,1273,1273,1273,1273,1273,1273,1273,1273,1273,1273,1273,1273,1273,1273,1273,1273,1273,1273,1273,1273,1273,1273,1268,1268,1268,1268,1268,1268,1268,1268,1268,1268,1268,1268,1268,1268,1268,1268,1268,1268,1268,1268,1264,1264,1264,1264,1264,1264,1264,1264,1264,1264,1264,1264,1264,1259,1259,1255,1250,1250,1250,1255,1255,1255,1255,1255,1255,1255,1255,1255,1255,1255,1255,1255,1255,1255,1250,1250,1250,1250,1250,1250,1250,1255,1250,1250,1250,1250,1250,1250,1250,1197,1189,1189,1185,1185,1185,1185,1185,1189,1245,1241,1241,1241,1241,1232,1232,1236,1236,1236,1236,1236,1236,1236,1236,1236,1236,1236,1236,1236,1236,1236,1236,1236,1236,1236,1236,1241,1112,1112,1105,1101,1101,1097,1094,1090,1084,1080,1080,1077,1073,1070,1067,1063,1063,1060,1057,1057,1054,943,940,940,943,943,943,940,940,943,943,943,943,943,943,943,946,946,946,946,946,946,948,948,0,0,0,0,0,0,0,0,0,0,0,0,0,0,0,0,0,0,0,0,0,0,0,0,0,0,0,0,0,0,0,0,0
0,0,0,0,0,0,0,0,0,0,1392,1392,1392,1392,1392,1398,1398,1398,1398,1398,1398,1398,1398,1392,1392,1392,1392,1392,1392,1392,1392,1392,1392,1392,1398,1392,1392,1392,1392,1392,1392,1387,1387,1387,1387,1387,1387,1387,1392,1392,1392,1392,1392,1392,1392,1392,1392,1392,1392,1392,1392,1392,1392,1392,1392,1387,1387,1387,1387,1387,1387,1387,1387,1387,1387,1387,1387,1387,1387,1387,1387,1387,954,954,954,951,948,946,946,946,946,943,943,943,943,943,946,946,948,948,948,954,956,956,956,962,962,962,962,962,962,1349,1349,1365,1365,1365,1365,1370,1370,1370,1370,1370,1370,1370,1370,1370,1370,1370,1365,1365,1365,1365,1365,1365,1365,1365,1365,1365,1365,1365,1365,1365,1365,1365,1365,1365,1365,1365,1365,1365,1359,1359,1359,1365,1365,1365,1073,1073,1073,1077,1077,1077,1077,1077,1077,1077,1080,1080,1080,1080,1080,1084,1087,1087,1087,1090,1090,1094,1094,1097,1097,1097,1097,1101,1105,1105,1112,1115,1115,1115,1115,1115,1119,1115,1115,1112,1112,1112,1108,1105,1101,1101,1101,1097,1094,1090,1090,0,0,0,0,0,0,706,706,706,706,706,706,706,704,704,703,701,700,698,697,696,696,694,694,694,694,694,696,697,697,698,700,700,703,704,707,707,710,711,713,713,714,714,0,0,0,0,0,0,0,0,1302,1302,1302,1302,1302,1302,1302,1302,1302,1302,1307,1307,1307,1312,1317,1322,1322,1328,1328,1328,1328,1328,1328,1328,1328,1328,1322,1322,1322,1322,1322,1322,1322,1317,1317,1317,1317,1317,1317,1317,1317,1317,1317,1317,1317,1317,1312,1312,1312,1312,1307,1307,1307,1307,1307,1312,1312,1312,1312,1317,1317,1317,1312,1312,1312,1312,1312,1312,1312,1312,1312,1312,1312,1312,1312,1307,1307,1307,1307,1307,1307,1307,1307,1302,1302,1302,1302,1302,1302,1302,1302,1307,1044,1044,1041,1041,1041,1041,1041,1044,1044,1044,1044,1047,1047,1050,1054,1057,1060,1063,1067,1067,1067,1067,1070,1070,1077,1080,1084,1084,1087,1292,1292,1292,1292,1288,1288,1288,1288,1288,1288,1288,1288,1288,1288,1288,1288,1288,1288,1288,1283,1283,1283,1283,1283,1283,1283,1283,1283,1283,1283,1283,1283,1278,1278,1278,1278,1278,1273,1273,1278,1278,1278,1278,1278,1278,1273,1273,1273,1273,1273,1273,1273,1273,1273,1273,1273,1273,1273,1273,1273,1273,1268,1268,1268,1268,1268,1273,1273,1273,1273,1273,1273,1273,1273,1273,1273,1273,1273,1268,1268,1268,1268,1268,1268,1268,1264,1264,1264,1264,1264,1264,1264,1264,1264,1264,1264,1264,1264,1264,1264,1259,1259,1259,1259,1259,1259,1259,1259,1259,1259,1259,1259,1255,1255,1250,1250,1250,1250,1250,1250,1250,1250,1250,1250,1250,1250,1250,1250,1250,1250,1250,1245,1245,1245,1245,1250,1250,1250,1250,1250,1250,1250,1250,1250,1250,1197,1193,1193,1189,1189,1185,1185,1185,1185,1185,1189,1185,1185,1185,1193,1232,1232,1232,1232,1232,1232,1232,1232,1232,1232,1236,1236,1232,1232,1232,1232,1232,1232,1236,1236,1236,1236,1236,1236,1108,1108,1105,1101,1097,1090,1087,1087,1084,1080,1077,1073,1070,1070,1063,1063,1063,1060,1060,1057,1054,943,940,940,943,943,943,943,943,943,943,943,943,943,943,943,943,946,946,946,946,946,948,948,0,0,0,0,0,0,0,0,0,0,0,0,0,0,0,0,0,0,0,0,0,0,0,0,0,0,0,0,0,0,0,0,0
0,0,0,0,0,0,0,0,0,0,1392,1392,1392,1392,1392,1398,1392,1392,1392,1392,1392,1392,1392,1392,1392,1392,1392,1392,1392,1392,1392,1392,1392,1392,1392,1392,1392,1392,1392,1387,1387,1387,1387,1387,1387,1387,1387,1387,1387,1387,1387,1387,1387,1387,1387,1387,1387,1387,1387,1387,1387,1387,1387,1387,1387,1387,1381,1381,1381,1381,1381,1381,1381,1381,1381,1381,1381,1381,1381,1381,1381,1381,956,956,954,954,951,948,948,948,946,946,943,943,943,943,946,946,948,948,951,956,959,959,959,962,962,964,964,964,964,1349,1349,1349,1359,1359,1365,1365,1365,1365,1365,1365,1365,1365,1359,1354,1354,1359,1365,1359,1359,1359,1359,1365,1365,1359,1359,1359,1359,1359,1359,1359,1359,1359,1359,1359,1359,1359,1359,1359,1359,1359,1359,1359,1077,1077,1073,1073,1073,1077,1077,1077,1077,1077,1077,1077,1080,1080,1080,1080,1080,1084,1087,1087,1090,1090,1090,1094,1094,1097,1097,1101,1101,1101,1105,1105,1112,1115,1115,1119,1119,1119,1119,1115,1115,1115,1112,1112,1108,1105,1105,1101,1101,1097,1094,1094,1094,0,0,0,0,0,0,706,706,707,707,707,707,707,706,706,704,703,701,700,698,697,697,696,694,694,694,694,696,697,698,700,701,701,703,704,707,707,710,713,713,714,716,716,0,0,0,0,0,0,0,0,1302,1302,1302,1302,1302,1302,1302,1302,1302,1302,1307,1307,1307,1312,1317,1317,1322,1322,1322,1322,1322,1322,1322,1322,1322,1322,1322,1322,1317,1317,1317,1317,1317,1312,1312,1312,1312,1312,1312,1312,1312,1312,1312,1312,1312,1312,1312,1307,1307,1307,1307,1307,1307,1307,1307,1307,1307,1312,1312,1312,1307,1307,1312,1312,1312,1312,1312,1312,1312,1307,1307,1307,1307,1307,1307,1307,1302,1302,1302,1302,1302,1302,1302,1302,1302,1302,1302,1302,1302,1302,1302,1038,1038,1038,1041,1041,1041,1041,1041,1041,1041,1041,1044,1047,1047,1047,1050,1057,1060,1063,1067,1070,1070,1070,1073,1077,1080,1084,1084,1087,1087,1292,1292,1292,1292,1288,1288,1288,1288,1288,1288,1283,1283,1283,1283,1283,1283,1283,1283,1283,1283,1283,1278,1278,1278,1278,1278,1278,1278,1278,1278,1278,1278,1278,1278,1273,1273,1273,1273,1273,1273,1273,1273,1273,1273,1273,1273,1273,1268,1268,1268,1268,1268,1268,1268,1268,1268,1268,1268,1268,1268,1268,1268,1264,1264,1264,1264,1264,1264,1264,1264,1268,1268,1268,1268,1268,1268,1268,1268,1268,1268,1268,1264,1264,1264,1264,1264,1264,1264,1259,1259,1259,1259,1259,1259,1259,1259,1259,1259,1259,1259,1259,1259,1255,1255,1255,1255,1255,1259,1255,1255,1255,1255,1255,1250,1245,1245,1245,1245,1245,1250,1245,1245,1245,1250,1250,1250,1245,1241,1241,1241,1236,1236,1236,1241,1245,1245,1245,1245,1250,1250,1250,1250,1241,1193,1193,1193,1189,1189,1189,1189,1185,1185,1189,1189,1189,1189,1185,1185,1193,1193,1193,1202,1202,1232,1227,1227,1227,1232,1223,1223,1232,1232,1232,1232,1232,1232,1232,1232,1232,1232,1232,1232,1094,1094,1097,1105,1105,1097,1094,1087,1084,1080,1080,1077,1073,1073,1070,1063,1063,1063,1060,1060,1060,1054,1054,940,938,938,940,940,940,940,940,943,943,943,943,943,943,943,943,946,946,946,946,946,946,948,0,0,0,0,0,0,0,0,0,0,0,0,0,0,0,0,0,0,0,0,0,0,0,0,0,0,0,0,0,0,0,0,0
0,0,0,0,0,0,0,0,0,0,0,1387,1387,1392,1392,1392,1392,1392,1392,1392,1387,1387,1392,1387,1387,1387,1392,1387,1387,1387,1387,1387,1387,1387,1387,1387,1387,1387,1387,1387,1381,1381,1381,1381,1381,1381,1381,1387,1387,1387,1387,1387,1387,1387,1387,1387,1387,1387,1387,1381,1381,1381,1376,1376,1376,1381,1381,1381,1376,1376,1381,1381,1381,1376,1376,1376,1376,1381,1376,1376,1370,1370,959,956,956,954,954,951,951,948,946,946,943,943,946,946,946,946,948,948,951,956,959,959,959,962,962,964,967,967,1349,1349,1349,1349,1354,1359,1359,1365,1359,1359,1359,1359,1359,1359,1354,1354,1354,1354,1359,1359,1359,1359,1359,1359,1359,1354,1354,1354,1354,1354,1354,1354,1354,1354,1354,1359,1359,1359,1359,1359,1359,1359,1359,1359,1077,1077,1073,1073,1073,1077,1077,1077,1077,1077,1077,1077,1077,1077,1077,1080,1080,1087,1087,1087,1090,1090,1090,1094,1094,1097,1097,1101,1101,1101,1105,1108,1112,1115,1115,1119,1119,1119,1119,1119,1115,1112,1112,1112,1108,1105,1105,1101,1101,1101,1097,1094,1094,0,0,0,0,0,0,706,706,708,710,710,708,708,707,707,704,703,701,700,698,698,697,697,696,696,696,696,697,698,698,700,703,704,704,707,708,708,711,713,714,716,716,717,0,0,0,0,0,0,0,0,1302,1302,1302,1302,1302,1302,1302,1302,1302,1302,1307,1307,1307,1312,1312,1312,1317,1312,1312,1312,1317,1317,1317,1317,1317,1317,1317,1317,1317,1317,1312,1312,1312,1312,1307,1307,1307,1307,1307,1307,1307,1307,1312,1312,1312,1307,1307,1307,1307,1302,1302,1302,1302,1302,1302,1302,1302,1307,1307,1307,1307,1307,1307,1307,1307,1307,1307,1307,1307,1307,1302,1302,1302,1302,1302,1302,1297,1297,1297,1297,1297,1297,1297,1297,1297,1297,1297,1297,1302,1302,1034,1034,1034,1038,1038,1038,1038,1041,1041,1041,1041,1041,1041,1044,1044,1047,1050,1057,1060,1063,1070,1070,1070,1073,1073,1077,1080,1084,1087,1090,1090,1090,1292,1292,1292,1283,1283,1283,1283,1283,1283,1283,1278,1278,1278,1278,1278,1278,1278,1278,1273,1273,1273,1273,1273,1273,1273,1273,1273,1273,1273,1273,1273,1273,1273,1273,1273,1268,1268,1268,1268,1268,1268,1273,1273,1273,1268,1268,1268,1268,1268,1268,1268,1268,1268,1268,1268,1268,1264,1264,1264,1264,1264,1264,1264,1264,1264,1259,1259,1264,1264,1259,1259,1259,1264,1264,1264,1264,1264,1268,1264,1264,1264,1259,1259,1259,1259,1255,1255,1255,1255,1255,1255,1255,1255,1255,1255,1255,1255,1255,1255,1255,1255,1255,1255,1255,1255,1255,1255,1255,1250,1250,1250,1250,1245,1245,1245,1245,1245,1245,1245,1245,1245,1245,1245,1245,1245,1241,1236,1236,1236,1236,1232,1232,1232,1236,1232,1232,1236,1206,1202,1202,1202,1197,1193,1193,1193,1189,1189,1189,1189,1189,1189,1189,1189,1189,1189,1189,1189,1193,1193,1193,1193,1202,1210,1214,1227,1227,1227,1223,1223,1227,1227,1227,1227,1227,1227,1227,1227,1227,1227,1227,1227,1094,1094,1097,1105,1101,1097,1094,1084,1084,1080,1077,1073,1073,1070,1067,1063,1063,1063,1060,1060,1057,1054,1054,940,938,938,940,940,940,940,940,943,943,943,943,946,946,943,943,946,946,946,946,946,946,0,0,0,0,0,0,0,0,0,0,0,0,0,0,0,0,0,0,0,0,0,0,0,0,0,0,0,0,0,0,0,0,0,0
0,0,0,0,0,0,0,0,0,0,0,1387,1387,1387,1387,1392,1392,1392,1387,1387,1387,1387,1387,1387,1387,1387,1387,1387,1381,1381,1381,1381,1387,1387,1387,1387,1387,1387,1387,1381,1381,1381,1381,1381,1381,1381,1381,1381,1381,1381,1381,1381,1381,1381,1376,1376,1376,1376,1376,1376,1376,1376,1370,1370,1370,1370,1370,1370,1370,1376,1376,1376,1376,1376,1376,1376,1376,1376,1376,1376,1370,1370,959,956,956,956,954,951,951,948,946,946,946,946,946,946,946,946,946,948,954,956,959,959,959,962,962,964,967,967,970,1349,1349,1349,1354,1359,1359,1359,1359,1359,1354,1354,1354,1354,1354,1349,1349,1354,1354,1354,1354,1354,1354,1354,1354,1354,1354,1354,1349,1349,1349,1354,1354,1354,1354,1354,1354,1354,1354,1354,1354,1354,1359,1073,1073,1073,1073,1073,1073,1073,1073,1073,1073,1073,1073,1077,1077,1077,1077,1077,1080,1084,1087,1087,1087,1090,1090,1094,1094,1097,1101,1101,1105,1105,1105,1108,1112,1115,1119,1119,1119,1119,1119,1119,1115,1112,1112,1112,1112,1108,1105,1105,1101,1101,1101,1101,0,0,0,0,0,0,0,0,0,710,710,711,710,708,708,708,707,703,703,701,700,700,698,697,697,697,697,697,697,698,700,701,704,704,706,707,708,711,713,714,716,716,717,717,0,0,0,0,0,0,0,0,1307,1307,1307,1302,1302,1302,1302,1302,1302,1302,1302,1307,1307,1312,1312,1312,1312,1312,1312,1312,1312,1312,1312,1312,1312,1312,1312,1312,1312,1312,1312,1307,1307,1307,1307,1307,1307,1307,1307,1307,1307,1307,1307,1307,1307,1307,1307,1302,1302,1302,1302,1302,1302,1302,1302,1302,1302,1302,1307,1302,1302,1302,1302,1302,1302,1302,1302,1297,1297,1297,1302,1297,1297,1297,1297,1297,1297,1297,1297,1297,1292,1292,1292,1292,1292,1292,1292,1297,1297,1031,1031,1031,1034,1034,1034,1034,1038,1038,1038,1038,1038,1041,1041,1044,1044,1047,1050,1057,1060,1063,1070,1070,1070,1073,1077,1080,1084,1087,1087,1090,1090,1090,1292,1292,1288,1283,1278,1278,1278,1278,1278,1273,1273,1273,1278,1273,1273,1273,1273,1268,1268,1273,1268,1268,1268,1268,1268,1268,1273,1268,1268,1273,1273,1273,1273,1268,1268,1268,1268,1268,1268,1268,1268,1268,1268,1268,1268,1268,1264,1264,1264,1264,1264,1264,1264,1264,1264,1264,1264,1264,1259,1259,1259,1259,1259,1255,1255,1255,1255,1255,1259,1255,1255,1255,1255,1255,1259,1264,1264,1264,1264,1264,1259,1259,1259,1255,1255,1255,1255,1255,1255,1255,1250,1250,1250,1250,1250,1250,1250,1250,1250,1250,1250,1250,1250,1250,1250,1250,1250,1250,1245,1245,1245,1245,1245,1245,1245,1245,1241,1241,1241,1241,1241,1241,1236,1236,1236,1236,1232,1232,1232,1232,1227,1223,1223,1223,1202,1202,1202,1197,1197,1197,1197,1197,1193,1193,1193,1189,1189,1189,1189,1189,1189,1189,1189,1189,1189,1189,1189,1193,1193,1193,1193,1206,1210,1214,1219,1223,1227,1219,1219,1223,1223,1223,1223,1223,1227,1227,1223,1223,1223,1223,1223,1097,1097,1097,1101,1101,1094,1090,1084,1080,1077,1077,1070,1070,1067,1063,1063,1060,1060,1060,1060,1057,1054,1054,940,938,938,940,940,940,940,940,940,943,943,943,946,946,943,943,946,946,946,946,946,946,0,0,0,0,0,0,0,0,0,0,0,0,0,0,0,0,0,0,0,0,0,0,0,0,0,0,0,0,0,0,0,0,0,0
0,0,0,0,0,0,0,0,0,0,0,1387,1387,1387,1387,1387,1387,1387,1387,1387,1381,1381,1387,1381,1381,1381,1381,1381,1381,1381,1381,1381,1381,1381,1381,1381,1381,1381,1381,1381,1381,1376,1376,1376,1376,1376,1376,1376,1376,1376,1376,1376,1376,1376,1376,1376,1376,1376,1376,1370,1370,1370,1370,1370,1370,1370,1370,1370,1370,1370,1370,1370,1370,1370,1370,1370,1370,1370,1370,1370,1370,1370,959,959,959,959,956,954,951,948,946,946,946,946,946,946,946,946,946,948,954,956,959,962,962,964,964,964,964,967,970,1349,1349,1349,1359,1359,1359,1359,1354,1354,1354,1349,1349,1349,1349,1349,1343,1343,1349,1349,1349,1349,1349,1349,1349,1349,1349,1349,1349,1349,1349,1349,1349,1349,1349,1349,1354,1349,1349,1349,1349,1354,1063,1063,1063,1063,1063,1063,1070,1070,1073,1073,1073,1073,1073,1073,1077,1077,1077,1077,1080,1084,1087,1087,1087,1090,1090,1094,1097,1101,1101,1105,1105,1105,1108,1108,1112,1115,1119,1119,1119,1119,1328,1119,1115,1105,1105,1105,1112,1108,1108,1105,1105,1105,1101,1101,0,0,0,0,0,0,0,0,0,0,713,713,711,710,710,708,708,706,703,701,700,700,698,697,697,697,697,697,697,698,700,701,704,704,706,707,710,713,714,716,717,717,717,719,720,0,0,0,0,0,0,0,0,1307,1307,1307,1302,1302,1302,1302,1302,1302,1302,1307,1307,1307,1307,1307,1307,1307,1307,1307,1307,1307,1307,1307,1312,1312,1312,1312,1307,1307,1307,1307,1307,1302,1302,1302,1302,1302,1302,1302,1302,1302,1302,1302,1302,1302,1302,1302,1302,1297,1297,1297,1297,1297,1297,1297,1297,1297,1297,1297,1297,1297,1297,1297,1297,1297,1297,1292,1292,1292,1292,1292,1292,1292,1292,1292,1292,1292,1292,1292,1292,1292,1292,1292,1292,1292,1292,1028,1028,1028,1031,1031,1031,1031,1031,1034,1034,1034,1034,1034,1038,1038,1041,1044,1044,1047,1050,1057,1063,1067,1070,1073,1073,1077,1077,1080,1084,1087,1087,1090,1090,1090,1094,1292,1283,1278,1273,1273,1273,1273,1273,1268,1268,1268,1268,1268,1268,1268,1268,1268,1268,1268,1268,1268,1268,1268,1268,1268,1268,1268,1268,1268,1268,1268,1268,1268,1268,1268,1264,1264,1264,1264,1264,1264,1264,1264,1264,1264,1259,1259,1259,1259,1259,1259,1259,1259,1259,1259,1259,1259,1255,1255,1255,1255,1255,1255,1255,1255,1255,1255,1255,1255,1255,1255,1255,1255,1255,1255,1255,1255,1255,1259,1255,1255,1255,1255,1250,1250,1250,1250,1250,1250,1250,1250,1250,1250,1250,1245,1245,1245,1245,1245,1245,1245,1245,1250,1245,1245,1245,1241,1241,1241,1241,1241,1236,1236,1236,1236,1236,1236,1236,1236,1236,1236,1232,1232,1232,1232,1232,1232,1227,1227,1227,1219,1202,1202,1202,1202,1197,1197,1197,1193,1193,1193,1193,1193,1193,1189,1189,1189,1189,1189,1189,1189,1189,1189,1189,1193,1197,1197,1197,1197,1206,1214,1214,1214,1219,1219,1223,1219,1219,1219,1219,1223,1223,1223,1223,1223,1223,1219,1219,1219,1219,1097,1097,1097,1097,1097,1094,1087,1084,1080,1077,1073,1070,1067,1063,1063,1060,1060,1060,1057,1057,1057,1063,938,938,938,938,940,940,940,940,940,940,943,943,943,946,946,943,943,946,946,946,946,948,948,0,0,0,0,0,0,0,0,0,0,0,0,0,0,0,0,0,0,0,0,0,0,0,0,0,0,0,0,0,0,0,0,0,0
0,0,0,0,0,0,0,0,0,0,0,1381,1381,1381,1381,1387,1387,1381,1381,1381,1376,1376,1381,1381,1381,1381,1381,1381,1376,1376,1376,1376,1376,1376,1376,1376,1376,1376,1376,1381,1376,1376,1376,1376,1376,1376,1376,1376,1376,1376,1376,1376,1370,1370,1370,1370,1370,1370,1370,1370,1370,1370,1365,1365,1370,1370,1365,1365,1365,1365,1365,1365,1359,1359,1365,1359,1359,1365,1365,1365,1365,959,959,959,959,959,959,954,954,951,948,948,946,946,946,946,946,946,948,948,954,956,959,962,964,964,964,964,964,967,967,967,967,1359,1359,1359,1354,1354,1349,1349,1349,1349,1343,1343,1343,1343,1343,1343,1343,1343,1343,1343,1343,1343,1349,1349,1349,1349,1349,1349,1349,1349,1349,1349,1349,1349,1349,1349,1349,1349,1349,1063,1063,1063,1063,1063,1063,1063,1063,1067,1070,1070,1070,1070,1073,1073,1077,1077,1077,1077,1080,1084,1087,1087,1087,1090,1090,1094,1097,1101,1101,1105,1105,1105,1108,1112,1115,1119,1119,1119,1123,1322,1328,1328,1322,1105,1105,1105,1112,1105,1105,1105,1105,1105,1105,0,0,0,0,0,0,0,0,0,0,0,714,714,713,713,713,710,708,707,703,703,701,700,700,698,698,697,697,697,698,698,700,703,704,706,707,708,711,714,714,716,717,717,719,719,720,0,0,0,0,0,0,0,0,1307,1307,1307,1307,1302,1302,1302,1302,1302,1302,1302,1302,1307,1307,1307,1307,1307,1307,1307,1307,1307,1307,1307,1307,1307,1307,1307,1307,1302,1302,1302,1302,1302,1302,1297,1297,1297,1302,1302,1302,1297,1297,1302,1302,1302,1302,1297,1297,1292,1292,1292,1292,1292,1292,1292,1292,1297,1292,1292,1292,1292,1292,1292,1292,1292,1292,1292,1292,1292,1292,1288,1288,1288,1288,1288,1288,1292,1292,1292,1288,1288,1288,1292,1292,1292,1028,1028,1028,1028,1031,1031,1031,1031,1031,1031,1031,1031,1034,1034,1038,1038,1041,1044,1044,1047,1054,1060,1063,1067,1073,1073,1077,1077,1080,1084,1084,1087,1090,1090,1090,1094,1094,1278,1278,1273,1273,1268,1268,1268,1268,1268,1268,1268,1268,1268,1268,1264,1264,1264,1264,1268,1268,1264,1264,1264,1264,1264,1268,1264,1264,1264,1264,1268,1264,1264,1264,1264,1264,1259,1259,1259,1259,1259,1259,1259,1259,1259,1255,1255,1255,1255,1255,1255,1255,1255,1255,1255,1255,1255,1255,1255,1255,1255,1250,1250,1250,1250,1250,1250,1250,1250,1250,1250,1250,1250,1250,1245,1245,1250,1250,1250,1245,1245,1245,1250,1250,1245,1245,1245,1245,1245,1245,1245,1245,1245,1245,1245,1245,1241,1241,1245,1245,1241,1241,1245,1241,1241,1241,1236,1236,1236,1232,1232,1232,1232,1232,1232,1232,1232,1232,1232,1232,1232,1227,1223,1223,1223,1223,1223,1223,1219,1210,1210,1202,1202,1202,1202,1197,1197,1197,1193,1193,1193,1189,1189,1189,1189,1189,1189,1189,1189,1189,1189,1189,1189,1189,1193,1202,1202,1202,1202,1210,1214,1214,1214,1219,1219,1214,1214,1214,1219,1219,1219,1219,1219,1219,1219,1219,1219,1219,1219,1219,1097,1097,1097,1097,1094,1090,1084,1084,1080,1077,1073,1067,1067,1063,1063,1060,1060,1060,1054,1054,1057,938,938,938,938,938,938,938,938,938,940,940,943,943,943,946,946,946,946,946,946,946,946,948,948,0,0,0,0,0,0,0,0,0,0,0,0,0,0,0,0,0,0,0,0,0,0,0,0,0,0,0,0,0,0,0,0,0,0
0,0,0,0,0,0,0,0,0,0,0,1381,1376,1376,1376,1381,1381,1381,1381,1376,1370,1370,1376,1376,1376,1381,1370,1370,1376,1376,1370,1370,1370,1370,1370,1376,1370,1370,1370,1376,1376,1376,1376,1376,1376,1370,1370,1370,1370,1370,1370,1370,1370,1370,1365,1365,1365,1365,1365,1365,1365,1365,1365,1365,1365,1365,1365,1365,1359,1359,1359,1359,1354,1354,1354,1354,1349,1349,1349,1349,1354,959,959,959,959,962,959,956,956,954,951,948,948,946,946,948,948,948,948,951,954,956,959,962,964,964,964,964,964,967,967,967,970,0,1359,1359,1354,1349,1349,1349,1349,1343,1343,1343,1343,1343,1338,1338,1338,1338,1338,1338,1343,1343,1343,1343,1343,1343,1343,1343,1343,1343,1338,1338,1054,1050,1050,1057,1060,1060,1060,1060,1063,1063,1063,1063,1063,1063,1063,1067,1067,1067,1067,1070,1070,1073,1073,1077,1077,1080,1080,1084,1087,1087,1090,1090,1094,1097,1097,1101,1101,1105,1105,1108,1108,1112,1115,1123,1123,1322,1322,1322,1322,1322,1322,1317,1317,1317,1312,1105,1105,1105,1105,1105,1105,0,0,0,0,0,0,0,0,0,0,716,714,714,714,713,713,710,708,707,704,704,703,701,701,700,698,698,698,698,698,700,701,703,706,707,708,710,713,714,716,716,717,719,719,719,720,720,0,0,0,0,0,0,0,1307,1307,1307,1307,1302,1302,1302,1297,1297,1297,1297,1297,1297,1297,1297,1302,1302,1302,1302,1302,1302,1302,1302,1302,1302,1302,1302,1302,1302,1302,1297,1297,1297,1297,1297,1297,1297,1297,1297,1297,1297,1297,1297,1297,1297,1297,1292,1292,1288,1288,1288,1288,1288,1288,1288,1292,1292,1292,1292,1292,1292,1292,1292,1288,1288,1288,1288,1288,1288,1288,1288,1288,1288,1288,1288,1288,1288,1288,1288,1288,1288,1288,1288,1292,1022,1022,1025,1028,1028,1028,1028,1028,1028,1028,1028,1028,1028,1031,1031,1034,1038,1041,1044,1044,1047,1054,1063,1067,1073,1077,1077,1077,1080,1080,1084,1084,1087,1090,1090,1094,1094,1097,1268,1268,1268,1268,1264,1264,1264,1264,1264,1264,1264,1264,1264,1264,1264,1259,1259,1264,1259,1259,1259,1259,1264,1264,1264,1264,1264,1264,1264,1264,1264,1264,1264,1264,1259,1259,1259,1259,1255,1255,1255,1255,1255,1255,1255,1255,1255,1255,1255,1250,1250,1255,1255,1250,1250,1250,1250,1250,1250,1250,1250,1250,1250,1245,1245,1245,1250,1250,1250,1250,1245,1245,1245,1241,1241,1241,1241,1241,1241,1241,1241,1241,1241,1241,1236,1236,1245,1245,1245,1241,1241,1241,1241,1241,1241,1241,1241,1241,1241,1241,1241,1241,1241,1241,1236,1236,1236,1236,1232,1232,1232,1227,1227,1227,1232,1227,1227,1227,1227,1223,1223,1223,1219,1219,1219,1214,1214,1210,1206,1206,1206,1202,1202,1202,1197,1197,1197,1197,1197,1197,1193,1189,1189,1189,1189,1189,1189,1189,1189,1193,1197,1197,1197,1197,1202,1206,1206,1206,1206,1210,1214,1214,1214,1214,1214,1214,1214,1214,1214,1214,1214,1214,1214,1219,1219,1214,1214,1214,1214,1214,1219,1097,1094,1094,1094,1090,1084,1080,1077,1073,1070,1067,1063,1063,1060,1057,1054,1054,1050,1050,938,938,938,938,938,938,938,938,938,938,938,940,943,943,943,946,946,946,946,946,946,946,946,948,948,0,0,0,0,0,0,0,0,0,0,0,0,0,0,0,0,0,0,0,0,0,0,0,0,0,0,0,0,0,0,0,0,0,0
0,0,0,0,0,0,0,0,0,0,0,0,1370,1370,1370,1370,1370,1370,1370,1370,1370,1370,1370,1370,1370,1370,1370,1370,1370,1370,1370,1370,1370,1370,1370,1370,1370,1370,1370,1370,1370,1370,1370,1370,1370,1370,1370,1370,1370,1370,1365,1365,1365,1365,1365,1359,1359,1359,1359,1359,1359,1359,1359,1359,1359,1359,1359,1359,1359,1359,1354,1354,1354,1354,1354,1354,1349,1349,1349,1349,1349,1343,962,959,959,962,962,959,956,956,954,951,948,948,948,948,948,948,948,951,956,956,959,962,964,964,964,964,967,967,967,970,970,981,1354,1354,1349,1343,1343,1343,1343,1343,1338,1338,1338,1338,1338,1333,1333,1333,1333,1333,1333,1338,1338,1338,1343,1343,1343,1343,1343,1338,1333,1057,1054,1050,1050,1057,1057,1060,1060,1060,1063,1063,1063,1060,1060,1063,1063,1063,1067,1067,1067,1067,1070,1073,1073,1077,1080,1080,1084,1087,1087,1087,1090,1090,1094,1097,1101,1101,1105,1105,1108,1108,1112,1115,1119,1123,1317,1317,1322,1322,1322,1322,1322,1317,1317,1317,1312,1105,1105,1105,1105,0,0,0,0,0,0,0,0,0,0,0,0,714,714,716,714,713,713,711,710,708,706,704,703,703,701,701,700,700,700,700,700,701,703,704,706,707,708,713,713,716,716,717,719,719,720,720,720,720,0,0,0,0,0,0,0,0,1307,1307,1307,1302,1302,1302,1297,1297,1297,1297,1297,1297,1297,1297,1297,1297,1297,1297,1297,1302,1302,1302,1297,1297,1297,1297,1297,1297,1297,1292,1292,1292,1292,1292,1292,1292,1292,1292,1292,1292,1292,1292,1292,1292,1292,1288,1288,1288,1288,1283,1283,1283,1283,1283,1288,1288,1288,1288,1288,1288,1288,1288,1288,1288,1288,1288,1283,1283,1283,1283,1283,1283,1288,1288,1288,1288,1288,1288,1288,1283,1283,1288,1019,1019,1019,1022,1025,1025,1025,1025,1028,1028,1028,1028,1028,1028,1028,1031,1034,1038,1041,1044,1044,1050,1054,1063,1070,1073,1077,1080,1080,1080,1080,1084,1087,1090,1090,1094,1094,1097,1101,1101,1264,1264,1264,1259,1259,1259,1259,1259,1259,1259,1259,1259,1259,1259,1259,1259,1259,1259,1259,1259,1259,1255,1255,1255,1259,1255,1255,1259,1259,1259,1259,1259,1259,1255,1255,1255,1255,1255,1255,1255,1255,1255,1255,1255,1250,1250,1255,1250,1250,1250,1250,1250,1250,1250,1250,1250,1250,1250,1250,1250,1245,1245,1241,1241,1245,1241,1241,1241,1245,1241,1241,1241,1241,1241,1236,1236,1236,1236,1236,1236,1236,1236,1241,1236,1236,1236,1241,1241,1241,1241,1241,1236,1236,1236,1236,1236,1236,1236,1236,1236,1236,1236,1236,1236,1232,1232,1232,1227,1227,1223,1223,1223,1223,1223,1227,1223,1223,1223,1219,1219,1214,1214,1214,1210,1206,1206,1206,1206,1202,1202,1202,1202,1202,1197,1197,1197,1197,1197,1197,1193,1193,1193,1193,1189,1189,1189,1189,1193,1197,1197,1197,1202,1202,1210,1210,1210,1210,1210,1210,1210,1210,1210,1210,1214,1214,1210,1210,1210,1210,1210,1214,1214,1214,1214,1214,1214,1214,1214,1214,1097,1097,1094,1094,1094,1090,1084,1080,1077,1073,1070,1063,1063,1060,1057,1054,1054,1050,1050,935,935,938,938,938,938,938,938,938,938,938,938,940,943,943,946,946,946,946,946,946,946,946,946,948,948,0,0,0,0,0,0,0,0,0,0,0,0,0,0,0,0,0,0,0,0,0,0,0,0,0,0,0,0,0,0,0,0,0,0
0,0,0,0,0,0,0,0,0,0,0,0,1365,1365,1370,1370,1370,1365,1365,1365,1359,1359,1365,1365,1365,1365,1365,1365,1365,1370,1370,1365,1365,1365,1365,1365,1365,1365,1365,1365,1365,1365,1365,1365,1365,1365,1370,1370,1370,1365,1365,1365,1359,1359,1354,1354,1354,1359,1359,1359,1359,1359,1359,1359,1359,1359,1354,1354,1354,1354,1349,1349,1349,1349,1349,1349,1349,1349,1349,1349,1349,1343,1343,964,964,964,962,962,959,956,956,954,951,948,948,948,951,951,951,951,954,956,959,964,964,967,967,967,967,970,970,970,981,981,1354,1354,1343,1343,1338,1338,1338,1338,1338,1338,1338,1333,1333,1333,1328,1328,1328,1328,1328,1333,1333,1338,1343,1343,1343,1343,1338,1322,1317,1057,1054,1054,1054,1054,1054,1057,1057,1057,1060,1060,1060,1060,1060,1063,1063,1063,1063,1067,1067,1067,1070,1073,1077,1077,1080,1084,1087,1087,1087,1090,1090,1094,1094,1097,1101,1101,1105,1108,1108,1112,1115,1119,1317,1317,1317,1317,1322,1322,1322,1322,1322,1317,1317,1317,1312,1312,1312,1307,1307,0,0,0,0,0,0,0,0,0,0,0,0,714,714,716,714,714,713,713,711,710,707,706,704,704,703,703,701,701,701,701,701,701,703,704,706,708,710,713,713,716,716,717,719,719,720,720,720,720,0,0,0,0,0,0,0,0,1307,1307,1302,1302,1302,1297,1297,1297,1297,1292,1292,1292,1292,1292,1292,1292,1292,1292,1292,1292,1292,1292,1292,1292,1292,1292,1292,1292,1292,1292,1292,1288,1288,1288,1288,1288,1288,1288,1288,1288,1288,1288,1288,1288,1288,1283,1283,1283,1283,1283,1283,1278,1278,1278,1283,1283,1283,1283,1283,1283,1283,1283,1283,1283,1283,1283,1283,1278,1278,1278,1278,1278,1283,1283,1283,1283,1288,1283,1283,1283,1283,1016,1016,1016,1019,1019,1022,1025,1025,1025,1025,1025,1025,1028,1028,1028,1028,1031,1031,1034,1038,1044,1047,1050,1054,1063,1070,1077,1080,1080,1080,1080,1084,1087,1087,1090,1090,1094,1097,1097,1101,1101,1259,1259,1259,1255,1255,1255,1255,1255,1255,1255,1255,1255,1255,1255,1255,1255,1255,1255,1255,1255,1255,1255,1255,1250,1250,1250,1250,1250,1255,1255,1255,1255,1255,1255,1255,1255,1250,1250,1250,1250,1250,1250,1250,1250,1250,1250,1250,1250,1250,1250,1250,1250,1250,1245,1245,1245,1245,1245,1245,1245,1241,1241,1241,1241,1241,1241,1241,1241,1241,1241,1241,1236,1236,1236,1236,1236,1236,1236,1236,1236,1236,1236,1236,1236,1236,1236,1236,1236,1236,1236,1236,1236,1236,1236,1236,1232,1232,1236,1236,1232,1232,1232,1232,1232,1232,1227,1227,1223,1223,1219,1219,1219,1219,1219,1219,1219,1219,1214,1214,1214,1210,1210,1210,1206,1202,1202,1206,1202,1202,1202,1202,1202,1202,1197,1197,1197,1197,1197,1197,1193,1193,1193,1193,1193,1193,1193,1193,1193,1197,1197,1202,1202,1206,1210,1210,1210,1210,1210,1210,1210,1210,1210,1210,1210,1210,1210,1210,1206,1206,1206,1210,1210,1214,1214,1214,1210,1210,1210,1210,1094,1094,1094,1094,1090,1090,1084,1080,1077,1070,1063,1063,1060,1060,1057,1050,1050,1050,1050,935,935,938,938,938,938,938,938,938,938,938,940,943,943,943,946,946,946,946,946,946,946,946,946,948,948,0,0,0,0,0,0,0,0,0,0,0,0,0,0,0,0,0,0,0,0,0,0,0,0,0,0,0,0,0,0,0,0,0,0
0,0,0,0,0,0,0,0,0,0,0,0,1365,1365,1365,1365,1365,1365,1359,1359,1354,1354,1349,1349,1349,1349,1359,1359,1365,1365,1365,1365,1365,1365,1365,1365,1359,1359,1359,1359,1359,1359,1365,1359,1359,1359,1365,1365,1365,1359,1354,1354,1354,1354,1349,1349,1349,1354,1354,1354,1354,1354,1354,1354,1354,1354,1349,1349,1349,1349,1343,1343,1343,1343,1343,1343,1343,1343,1343,1343,1343,1333,1333,967,967,964,962,962,959,959,956,954,954,951,951,951,951,951,951,954,954,956,959,964,964,967,967,967,967,967,967,970,970,0,1343,1343,1343,1333,1333,1333,1333,1333,1333,1333,1333,1333,1328,1328,1328,1328,1328,1328,1328,1333,1333,1333,1338,1338,1343,1338,1338,1050,1050,1054,1054,1054,1054,1054,1054,1054,1054,1054,1057,1057,1057,1060,1060,1060,1060,1063,1063,1063,1067,1070,1070,1073,1077,1077,1084,1084,1087,1087,1087,1090,1090,1094,1094,1097,1101,1101,1105,1108,1112,1112,1317,1312,1312,1312,1312,1317,1317,1317,1317,1317,1317,1317,1317,1312,1312,1312,1307,1307,1307,1307,1307,0,0,0,0,0,0,0,0,0,0,0,717,716,716,716,714,714,713,711,708,707,706,704,704,703,703,701,701,701,703,703,703,704,707,708,710,713,713,716,716,717,719,720,720,720,722,722,0,0,0,0,0,0,0,0,0,1302,1302,1302,1297,1297,1292,1292,1292,1292,1288,1288,1288,1288,1288,1288,1288,1288,1288,1288,1288,1288,1288,1288,1288,1288,1288,1288,1288,1288,1288,1288,1288,1288,1288,1288,1283,1283,1288,1288,1288,1288,1283,1283,1283,1283,1283,1283,1283,1278,1278,1278,1278,1278,1283,1283,1283,1278,1278,1278,1278,1278,1278,1278,1278,1278,1278,1278,1273,1273,1273,1273,1278,1278,1278,1283,1283,1283,1283,1283,1013,1013,1013,1013,1016,1016,1016,1022,1022,1022,1022,1025,1025,1025,1025,1028,1028,1031,1031,1034,1038,1041,1044,1050,1057,1063,1070,1084,1084,1084,1084,1084,1084,1087,1087,1090,1090,1094,1097,1101,1101,1255,1255,1255,1255,1255,1255,1255,1255,1250,1250,1250,1250,1250,1250,1250,1250,1250,1250,1250,1250,1250,1250,1250,1250,1245,1245,1245,1245,1245,1245,1245,1245,1250,1250,1250,1250,1250,1250,1250,1250,1250,1250,1250,1250,1250,1245,1245,1250,1250,1250,1250,1245,1245,1245,1245,1245,1241,1241,1241,1241,1241,1241,1236,1236,1236,1236,1236,1236,1236,1236,1236,1236,1236,1236,1232,1232,1232,1232,1232,1232,1232,1232,1232,1232,1232,1227,1227,1232,1232,1232,1232,1232,1232,1232,1227,1227,1232,1232,1232,1232,1227,1227,1232,1232,1227,1227,1223,1219,1219,1214,1214,1214,1214,1214,1214,1214,1214,1214,1214,1214,1210,1210,1210,1210,1206,1202,1202,1206,1202,1202,1202,1202,1202,1202,1197,1197,1197,1197,1197,1197,1193,1193,1197,1197,1197,1197,1197,1197,1197,1202,1202,1206,1206,1206,1210,1206,1206,1206,1206,1210,1206,1206,1210,1206,1206,1206,1206,1206,1202,1202,1202,1206,1206,1206,1206,1206,1206,1202,1202,1206,1094,1094,1094,1094,1090,1090,1084,1080,1073,1070,1063,1060,1057,1057,1054,1050,1044,1044,935,935,935,938,938,938,938,938,938,938,940,940,940,943,943,943,946,946,946,946,946,948,948,948,948,951,951,0,0,0,0,0,0,0,0,0,0,0,0,0,0,0,0,0,0,0,0,0,0,0,0,0,0,0,0,0,0,0,0,0,0
0,0,0,0,0,0,0,0,0,0,0,0,1365,1365,1365,1359,1359,1354,1349,1349,1349,1349,1349,1349,1349,1349,1349,1349,1349,1354,1359,1359,1359,1359,1359,1359,1359,1354,1354,1354,1354,1354,1354,1354,1354,1354,1359,1359,1359,1349,1349,1349,1349,1349,1349,1349,1349,1349,1349,1349,1354,1349,1349,1349,1349,1349,1349,1349,1343,1343,1343,1343,1343,1343,1343,1343,1343,1338,1338,1338,1338,1333,1333,1333,967,967,964,964,959,959,959,956,954,954,951,951,951,951,954,954,956,959,962,964,964,967,967,967,967,967,967,970,970,970,0,0,1338,1333,1328,1328,1328,1328,1328,1328,1328,1328,1322,1322,1322,1322,1322,1322,1328,1328,1328,1328,1333,1047,1044,1044,1047,1047,1050,1050,1050,1050,1050,1050,1050,1050,1050,1054,1054,1057,1057,1057,1060,1060,1060,1063,1063,1063,1067,1070,1073,1077,1077,1084,1084,1087,1087,1087,1090,1090,1090,1094,1097,1101,1101,1105,1105,1108,1112,1312,1312,1312,1312,1312,1312,1312,1312,1312,1312,1312,1312,1312,1312,1312,1312,1307,1307,1307,1302,1302,1302,0,0,0,0,0,0,0,0,0,0,0,719,717,716,716,714,714,713,711,710,708,707,706,706,704,703,703,703,703,703,703,704,704,707,708,710,713,713,716,717,719,720,720,722,722,722,723,0,0,0,0,0,0,0,0,0,1302,1302,1297,1292,1292,1292,1288,1288,1288,1288,1288,1288,1288,1288,1283,1283,1283,1283,1283,1283,1283,1283,1283,1283,1283,1283,1283,1283,1283,1283,1283,1283,1283,1283,1283,1283,1283,1283,1278,1278,1278,1278,1278,1278,1278,1278,1278,1278,1278,1273,1273,1273,1273,1278,1278,1278,1273,1273,1273,1273,1273,1273,1273,1273,1273,1273,1273,1273,1273,1273,1273,1273,1273,1273,1273,1273,1283,1283,1013,1013,1013,1013,1013,1013,1013,1013,1016,1016,1016,1016,1022,1022,1025,1025,1025,1028,1031,1034,1038,1041,1041,1044,1050,1057,1063,1087,1087,1087,1087,1087,1087,1087,1087,1087,1090,1090,1094,1097,1101,1101,1108,1255,1255,1255,1250,1250,1250,1250,1250,1250,1250,1250,1250,1245,1245,1245,1245,1245,1245,1245,1245,1245,1245,1245,1241,1241,1241,1241,1241,1241,1241,1241,1241,1241,1245,1245,1245,1245,1245,1245,1245,1245,1245,1245,1245,1245,1245,1245,1241,1241,1241,1241,1241,1241,1241,1236,1236,1236,1236,1236,1236,1236,1236,1236,1236,1236,1236,1232,1232,1232,1232,1232,1232,1232,1232,1232,1232,1232,1232,1232,1227,1227,1227,1227,1227,1223,1223,1227,1227,1227,1227,1223,1223,1227,1227,1223,1223,1223,1223,1223,1223,1223,1227,1227,1223,1219,1219,1214,1214,1210,1210,1210,1210,1210,1210,1210,1210,1210,1210,1210,1206,1206,1206,1206,1206,1202,1202,1202,1206,1202,1202,1202,1202,1202,1202,1197,1197,1197,1197,1197,1197,1197,1197,1197,1197,1197,1197,1197,1202,1202,1202,1206,1206,1206,1206,1206,1202,1202,1202,1202,1202,1202,1206,1206,1202,1202,1202,1202,1202,1202,1202,1202,1202,1202,1202,1202,1202,1197,1197,1202,1094,1090,1090,1090,1090,1087,1084,1077,1073,1063,1060,1060,1057,1054,1054,1050,1044,1044,935,935,935,938,938,938,938,938,938,938,940,940,940,943,943,943,943,943,946,946,946,948,948,948,948,954,954,0,0,0,0,0,0,0,0,0,0,0,0,0,0,0,0,0,0,0,0,0,0,0,0,0,0,0,0,0,0,0,0,0,0
0,0,0,0,0,0,0,0,0,0,0,0,1354,1354,1354,1354,1354,1354,1349,1349,1349,1349,1349,1349,1349,1349,1349,1349,1343,1343,1343,1349,1349,1349,1354,1354,1354,1349,1349,1349,1349,1349,1354,1349,1349,1349,1349,1354,1349,1349,1349,1349,1349,1349,1349,1349,1349,1349,1349,1349,1349,1349,1349,1349,1343,1343,1343,1343,1343,1343,1343,1343,1343,1343,1343,1343,1338,1333,1328,1328,1328,1328,1328,1328,1328,967,967,964,964,962,959,959,956,956,954,954,954,954,956,956,956,959,962,964,964,967,967,967,967,967,970,970,970,970,0,1338,1338,1328,1328,1328,1328,1328,1328,1328,1322,1322,1322,1322,1322,1322,1322,1322,1328,1328,1328,1044,1044,1044,1044,1044,1047,1047,1047,1047,1047,1050,1050,1050,1050,1050,1050,1054,1054,1054,1057,1057,1057,1060,1060,1063,1063,1067,1070,1070,1073,1077,1077,1084,1084,1087,1087,1087,1090,1090,1094,1097,1097,1101,1101,1105,1105,1302,1302,1307,1307,1307,1307,1307,1307,1307,1307,1307,1307,1307,1307,1307,1307,1307,1307,1307,1307,1302,1302,1302,1302,0,0,0,0,0,0,0,0,0,0,0,719,717,716,716,716,714,714,711,710,710,708,707,707,704,704,703,703,703,703,703,704,704,707,708,711,713,714,716,717,719,720,722,722,722,723,723,0,0,0,0,0,0,1034,1034,1028,1028,1302,1297,1288,1288,1288,1288,1288,1288,1288,1288,1283,1283,1283,1283,1283,1283,1283,1283,1283,1283,1283,1283,1283,1278,1278,1278,1278,1278,1278,1278,1278,1278,1278,1278,1278,1278,1278,1273,1273,1273,1273,1273,1273,1273,1273,1273,1273,1273,1273,1273,1268,1268,1273,1273,1273,1273,1273,1273,1273,1273,1273,1268,1268,1273,1273,1273,1268,1268,1268,1268,1268,1268,1268,1268,1273,1010,1010,1010,1010,1010,1010,1010,1010,1010,1013,1013,1013,1016,1016,1016,1022,1022,1025,1025,1028,1031,1034,1038,1041,1041,1044,1050,1094,1090,1090,1090,1090,1087,1087,1087,1087,1087,1090,1090,1094,1097,1101,1101,1105,1108,1250,1250,1250,1250,1250,1250,1250,1250,1250,1245,1245,1241,1241,1241,1241,1241,1241,1241,1241,1241,1241,1241,1241,1241,1236,1236,1236,1236,1236,1236,1236,1236,1236,1241,1236,1236,1236,1236,1236,1241,1241,1241,1241,1241,1236,1236,1236,1236,1236,1236,1236,1236,1236,1236,1236,1236,1232,1232,1236,1236,1236,1236,1236,1236,1232,1232,1232,1232,1232,1232,1232,1232,1232,1227,1227,1227,1227,1227,1227,1227,1227,1227,1227,1223,1223,1223,1219,1219,1214,1214,1214,1214,1214,1219,1219,1219,1219,1219,1219,1219,1219,1219,1219,1219,1214,1214,1210,1210,1210,1210,1210,1210,1210,1210,1210,1210,1210,1206,1206,1206,1206,1206,1206,1206,1202,1202,1202,1202,1202,1202,1202,1202,1202,1197,1197,1197,1197,1197,1197,1197,1197,1197,1197,1197,1197,1197,1197,1202,1202,1202,1202,1202,1202,1202,1202,1202,1202,1197,1197,1197,1197,1197,1197,1197,1202,1202,1202,1202,1202,1197,1197,1197,1197,1197,1197,1189,1189,1189,1189,1094,1090,1087,1087,1087,1084,1080,1077,1070,1063,1057,1057,1057,1054,1054,1050,1044,1044,938,938,938,938,938,938,938,940,938,938,940,940,940,940,940,943,943,943,943,946,946,948,948,948,948,954,954,0,0,0,0,0,0,0,0,0,0,0,0,0,0,0,0,0,0,0,0,0,0,0,0,0,0,0,0,0,0,0,0,0,0
0,0,0,0,0,0,0,0,0,0,0,0,1354,1349,1349,1349,1349,1349,1349,1349,1349,1349,1349,1343,1343,1343,1343,1343,1343,1333,1333,1343,1343,1343,1343,1343,1349,1349,1349,1349,1349,1349,1349,1349,1343,1343,1343,1349,1343,1343,1343,1343,1343,1343,1343,1343,1343,1343,1343,1343,1343,1343,1343,1343,1343,1343,1343,1343,1343,1343,1338,1338,1338,1338,1338,1338,1328,1328,1328,1328,1328,1322,1322,1322,978,975,973,967,967,967,962,962,959,956,956,956,956,956,956,956,959,959,962,964,964,967,967,967,970,970,970,970,973,973,0,1333,1333,1328,1322,1322,1322,1322,1322,1322,1322,1322,1322,1322,1322,1322,1322,1322,1328,1044,1044,1044,1044,1044,1044,1044,1044,1044,1044,1044,1044,1047,1050,1050,1050,1050,1050,1050,1054,1054,1057,1057,1057,1060,1060,1063,1063,1070,1070,1073,1073,1077,1077,1080,1084,1087,1087,1087,1090,1090,1090,1094,1097,1101,1101,1105,1292,1292,1302,1302,1302,1307,1307,1307,1307,1302,1302,1302,1302,1302,1302,1302,1307,1307,1302,1302,1302,1297,1297,1292,1292,1292,0,0,0,0,0,0,0,0,0,0,720,719,719,717,716,716,714,711,710,710,708,707,707,706,704,704,704,704,704,704,704,706,707,708,710,713,714,716,719,720,720,722,722,723,723,723,0,0,0,0,0,0,1031,1028,1028,1025,1025,1025,1025,1022,1022,1022,1288,1288,1283,1283,1283,1283,1283,1278,1278,1278,1278,1278,1278,1278,1278,1278,1278,1273,1273,1273,1273,1273,1273,1273,1273,1268,1268,1268,1268,1273,1273,1273,1273,1268,1268,1268,1268,1268,1268,1268,1268,1268,1268,1268,1268,1268,1273,1273,1273,1268,1268,1268,1268,1268,1268,1268,1268,1268,1268,1268,1268,1268,1268,1268,1268,1268,1268,1268,1007,1007,1007,1007,1007,1007,1007,1007,1007,1007,1010,1010,1013,1013,1016,1016,1022,1022,1025,1025,1028,1031,1034,1038,1041,1041,1044,1105,1101,1094,1094,1094,1090,1090,1090,1090,1090,1090,1090,1090,1094,1101,1101,1105,1105,1108,1245,1245,1245,1245,1245,1245,1245,1245,1245,1241,1241,1241,1241,1241,1241,1241,1241,1236,1236,1241,1236,1236,1236,1236,1236,1236,1236,1236,1236,1236,1236,1236,1236,1236,1236,1236,1236,1236,1236,1236,1236,1236,1236,1236,1236,1232,1232,1236,1236,1236,1236,1232,1232,1232,1232,1232,1232,1232,1232,1232,1232,1232,1232,1232,1232,1232,1227,1227,1227,1227,1227,1227,1227,1227,1223,1223,1223,1223,1223,1223,1223,1223,1223,1219,1219,1214,1210,1206,1206,1206,1206,1206,1206,1210,1214,1214,1214,1214,1214,1214,1214,1214,1210,1206,1206,1210,1206,1206,1206,1206,1206,1206,1206,1206,1206,1206,1206,1206,1206,1206,1206,1206,1206,1202,1202,1202,1202,1202,1202,1202,1202,1202,1202,1197,1197,1197,1197,1197,1197,1197,1197,1197,1197,1197,1197,1197,1197,1202,1202,1202,1202,1202,1197,1197,1197,1197,1197,1197,1193,1193,1193,1193,1193,1193,1193,1193,1193,1197,1197,1197,1197,1197,1197,1193,1193,1189,1189,1094,1094,1090,1090,1087,1087,1087,1084,1080,1073,1070,1063,1057,1057,1057,1054,1054,1050,1050,1050,938,938,938,940,940,938,938,940,938,938,940,940,940,940,940,940,943,943,943,946,946,948,948,948,951,954,954,0,0,0,0,0,0,0,0,0,0,0,0,0,0,0,0,0,0,0,0,0,0,0,0,0,0,0,0,0,0,0,0,0,0
0,0,0,0,0,0,0,0,0,0,0,0,1349,1349,1349,1349,1349,1349,1349,1349,1343,1343,1343,1338,1338,1343,1343,1343,1338,1328,1328,1338,1338,1333,1333,1333,1343,1343,1338,1338,1338,1343,1349,1343,1343,1343,1343,1343,1343,1338,1338,1338,1343,1343,1343,1343,1343,1343,1343,1343,1343,1343,1338,1338,1333,1333,1338,1338,1338,1338,1338,1338,1338,1338,1338,1338,1328,1328,1328,1322,1322,1322,1322,1317,978,975,973,970,970,967,967,964,962,962,956,956,956,956,956,956,959,962,964,964,964,967,967,970,970,970,973,973,973,973,0,1333,1333,1328,1322,1322,1317,1317,1317,1317,1317,1317,1317,1322,1322,1322,1322,1322,1038,1038,1038,1038,1041,1041,1041,1041,1044,1044,1044,1044,1044,1047,1047,1047,1047,1050,1050,1050,1054,1054,1057,1060,1060,1060,1063,1063,1067,1070,1073,1073,1073,1077,1077,1080,1084,1087,1087,1087,1090,1090,1090,1094,1097,1288,1288,1288,1292,1292,1302,1302,1302,1302,1302,1302,1302,1297,1297,1297,1297,1297,1297,1297,1297,1302,1302,1297,1297,1292,1292,1292,1292,1292,0,0,0,0,0,0,0,0,0,0,722,720,720,719,717,717,716,711,711,710,708,708,707,706,706,704,704,704,704,704,706,706,707,708,710,713,714,717,719,720,722,722,723,725,725,725,0,0,0,0,1028,1028,1028,1025,1025,1025,1025,1022,1022,1022,1022,1022,1022,1283,1283,1283,1283,1283,1283,1278,1278,1278,1278,1278,1278,1278,1273,1273,1273,1273,1273,1273,1268,1268,1268,1268,1268,1268,1268,1268,1268,1268,1268,1264,1264,1268,1264,1264,1264,1264,1268,1268,1268,1268,1268,1268,1264,1264,1268,1268,1268,1268,1268,1268,1264,1264,1264,1264,1264,1264,1264,1264,1264,1264,1259,1259,1259,1259,1268,1004,1004,1004,1004,1004,1004,1004,1004,1004,1007,1007,1007,1010,1010,1013,1016,1016,1022,1022,1025,1025,1028,1031,1034,1038,1041,1041,1108,1105,1101,1097,1097,1094,1094,1090,1090,1090,1090,1090,1090,1090,1094,1101,1105,1105,1108,1112,1245,1245,1241,1241,1241,1241,1241,1241,1241,1241,1236,1236,1236,1236,1236,1236,1236,1236,1236,1236,1236,1236,1236,1236,1236,1236,1236,1232,1232,1232,1232,1232,1232,1232,1232,1232,1232,1232,1232,1232,1232,1232,1232,1232,1232,1232,1232,1232,1232,1232,1232,1232,1232,1232,1227,1227,1227,1227,1227,1232,1232,1232,1232,1227,1227,1227,1227,1227,1223,1223,1223,1223,1223,1223,1219,1219,1219,1219,1219,1219,1219,1219,1219,1219,1214,1210,1206,1206,1206,1202,1202,1206,1206,1206,1206,1210,1210,1210,1210,1210,1210,1210,1210,1206,1206,1206,1202,1202,1202,1202,1202,1202,1202,1202,1202,1202,1202,1206,1206,1202,1202,1206,1206,1202,1202,1202,1202,1202,1202,1202,1197,1197,1197,1197,1197,1197,1197,1197,1197,1197,1197,1197,1197,1197,1197,1197,1197,1197,1197,1197,1193,1193,1193,1193,1193,1193,1193,1193,1189,1189,1189,1189,1189,1189,1189,1189,1189,1193,1193,1193,1193,1193,1193,1189,1185,1185,1185,1094,1094,1090,1090,1084,1084,1080,1077,1073,1070,1063,1063,1057,1057,1057,1057,1054,1054,1054,938,938,938,938,940,940,940,940,940,938,938,940,940,940,940,940,940,940,940,943,946,946,948,948,948,951,954,956,0,0,0,0,0,0,0,0,0,0,0,0,0,0,0,0,0,0,0,0,0,0,0,0,0,0,0,0,0,0,0,0,0,0
0,0,0,0,0,0,0,0,0,0,0,1338,1338,1343,1349,1349,1349,1349,1343,1343,1343,1343,1338,1338,1338,1338,1338,1338,1338,1328,1328,1328,1338,1333,1328,1328,1333,1338,1338,1338,1338,1338,1338,1338,1338,1338,1338,1338,1338,1338,1338,1338,1338,1338,1338,1338,1338,1338,1338,1333,1333,1333,1333,1333,1328,1328,1328,1328,1333,1333,1333,1333,1333,1333,1333,1333,1328,1328,1328,1322,1322,1322,1322,1317,1317,1317,975,975,970,970,967,964,962,962,959,959,959,959,959,959,962,962,964,964,964,967,967,970,970,970,973,973,975,975,0,1328,1328,1322,1317,1317,1317,1317,1312,1312,1312,1312,1317,1317,1322,1322,1038,1038,1038,1038,1038,1038,1038,1038,1038,1038,1041,1041,1041,1041,1041,1044,1047,1047,1047,1050,1050,1050,1054,1054,1057,1060,1060,1060,1063,1063,1067,1070,1073,1073,1077,1077,1077,1080,1084,1087,1087,1087,1090,1090,1094,1101,1283,1288,1288,1288,1292,1297,1297,1302,1297,1297,1297,1297,1297,1292,1292,1297,1297,1292,1292,1292,1292,1297,1297,1297,1292,1292,1292,1288,1288,1283,1283,0,0,0,0,0,0,0,0,0,0,722,720,720,719,719,719,714,711,710,710,708,708,707,707,706,704,704,706,706,706,706,707,708,710,713,714,717,719,720,722,723,725,725,727,0,0,0,0,0,1028,1028,1028,1025,1025,1022,1022,1022,1022,1022,1019,1019,1019,1019,1016,1016,1016,1016,1283,1278,1273,1273,1273,1273,1273,1268,1268,1268,1268,1268,1268,1268,1268,1268,1268,1268,1268,1264,1264,1264,1264,1264,1264,1264,1264,1264,1259,1259,1259,1264,1264,1264,1264,1264,1264,1264,1264,1264,1268,1268,1268,1268,1264,1264,1259,1259,1259,1259,1259,1259,1259,1259,1259,1259,1259,1259,1259,1259,1259,1004,1004,1004,1004,1004,1004,1004,1004,1004,1004,1004,1004,1007,1007,1010,1016,1016,1022,1022,1025,1028,1028,1031,1034,1038,1041,1041,1108,1108,1105,1101,1097,1094,1094,1094,1090,1090,1090,1090,1090,1090,1094,1101,1105,1108,1108,1115,1241,1241,1236,1236,1236,1236,1236,1236,1236,1236,1236,1236,1236,1236,1236,1232,1232,1232,1232,1232,1232,1232,1232,1232,1232,1232,1232,1232,1232,1232,1232,1232,1232,1232,1232,1232,1232,1232,1232,1232,1232,1232,1232,1227,1227,1227,1227,1227,1227,1227,1227,1227,1227,1227,1223,1223,1223,1223,1223,1227,1227,1227,1227,1223,1223,1223,1223,1223,1223,1219,1219,1219,1219,1219,1214,1214,1214,1214,1214,1214,1219,1219,1219,1219,1214,1210,1206,1206,1202,1202,1202,1206,1206,1206,1206,1206,1206,1206,1206,1210,1206,1206,1206,1206,1202,1202,1202,1202,1202,1202,1202,1202,1202,1202,1202,1202,1202,1202,1202,1202,1202,1202,1202,1202,1202,1202,1202,1202,1197,1197,1197,1197,1197,1197,1197,1197,1197,1197,1197,1197,1197,1197,1197,1197,1197,1197,1197,1197,1193,1193,1189,1189,1189,1189,1189,1189,1189,1189,1189,1185,1185,1185,1185,1185,1185,1185,1189,1189,1189,1189,1189,1189,1189,1185,1185,1185,1185,1185,1094,1094,1090,1084,1084,1077,1073,1070,1070,1063,1063,1057,1057,1057,1057,981,981,981,938,938,938,938,940,940,940,940,940,938,938,940,940,940,940,940,940,940,940,943,946,946,948,948,948,951,954,959,0,0,0,0,0,0,0,0,0,0,0,0,0,0,0,0,0,0,0,0,0,0,0,0,0,0,0,0,0,0,0,0,0,0
0,0,0,0,0,0,0,0,0,0,1333,1333,1333,1338,1338,1338,1343,1343,1338,1338,1338,1338,1338,1333,1333,1338,1338,1338,1333,1328,1328,1328,1328,1328,1328,1328,1328,1333,1333,1333,1333,1333,1333,1333,1333,1333,1333,1333,1333,1333,1333,1333,1333,1328,1328,1333,1333,1333,1333,1328,1328,1328,1328,1328,1328,1328,1328,1328,1328,1328,1328,1328,1328,1328,1328,1328,1328,1328,1328,1322,1322,1322,1322,1317,1317,1317,1317,970,970,970,967,964,962,962,959,959,959,959,959,959,962,962,964,964,967,967,967,970,973,973,975,975,975,975,0,1317,1317,1312,1312,1312,1312,1312,1312,1307,1307,1307,1312,1317,1317,1317,1031,1031,1034,1034,1034,1034,1038,1038,1038,1038,1038,1038,1038,1038,1038,1044,1044,1047,1047,1050,1050,1050,1054,1054,1057,1060,1060,1060,1063,1063,1070,1070,1073,1073,1077,1077,1077,1080,1084,1087,1087,1087,1090,1288,1283,1283,1283,1288,1288,1292,1292,1297,1297,1297,1297,1297,1297,1297,1292,1292,1292,1292,1292,1292,1288,1288,1292,1292,1292,1292,1292,1288,1288,1288,1288,1283,1283,0,0,0,0,0,0,0,0,0,0,722,720,720,720,720,719,717,716,711,710,710,708,708,707,707,706,706,706,706,707,707,708,710,711,713,714,717,719,722,722,723,725,727,727,0,0,0,0,0,1028,1028,1025,1025,1022,1019,1019,1019,1019,1019,1016,1016,1016,1019,1016,1013,1013,1013,1013,1278,1273,1268,1268,1268,1268,1268,1264,1264,1264,1264,1264,1268,1268,1264,1264,1264,1264,1264,1264,1264,1259,1259,1259,1259,1259,1259,1259,1259,1259,1259,1259,1259,1264,1264,1264,1264,1264,1264,1264,1264,1264,1264,1259,1259,1259,1255,1255,1255,1255,1255,1255,1255,1255,1255,1255,1255,1259,1259,1001,1001,1001,1001,1004,1004,1004,1004,1004,1004,1004,1004,1004,1007,1007,1010,1016,1016,1022,1022,1022,1025,1025,1031,1034,1041,1105,1105,1108,1108,1105,1101,1101,1097,1094,1094,1094,1090,1090,1090,1090,1090,1094,1105,1108,1108,1112,1241,1236,1236,1236,1236,1236,1236,1236,1236,1236,1236,1236,1232,1232,1232,1232,1232,1232,1232,1232,1232,1232,1227,1227,1232,1227,1227,1227,1227,1227,1227,1227,1232,1227,1227,1227,1227,1227,1227,1227,1227,1227,1227,1227,1223,1223,1223,1223,1223,1223,1223,1223,1219,1219,1223,1219,1219,1219,1219,1219,1223,1223,1223,1223,1219,1219,1219,1219,1219,1219,1219,1219,1219,1219,1214,1214,1214,1214,1214,1214,1214,1214,1214,1214,1210,1210,1206,1206,1202,1202,1202,1202,1202,1202,1202,1202,1206,1206,1206,1206,1206,1206,1202,1202,1202,1202,1202,1202,1202,1202,1202,1202,1202,1202,1202,1202,1202,1202,1202,1202,1202,1202,1202,1202,1202,1202,1202,1197,1197,1197,1197,1197,1197,1197,1197,1197,1197,1193,1193,1193,1193,1193,1197,1197,1197,1193,1193,1193,1193,1189,1189,1185,1185,1185,1185,1185,1185,1185,1189,1185,1185,1185,1185,1185,1185,1185,1185,1185,1189,1189,1185,1185,1185,1185,1185,1181,1181,1181,1181,1181,1185,1090,1090,1084,1073,1070,1070,1063,1063,1063,1057,1057,1057,981,981,981,938,938,938,938,938,940,940,940,940,938,938,938,940,938,938,940,940,940,940,940,943,946,946,946,948,948,948,954,959,0,0,0,0,0,0,0,0,0,0,0,0,0,0,0,0,0,0,0,0,0,0,0,0,0,0,0,0,0,0,0,0,0,0
0,0,0,0,0,0,0,0,0,0,1333,1333,1333,1333,1333,1333,1333,1333,1333,1333,1333,1333,1333,1333,1333,1333,1333,1333,1328,1328,1328,1328,1328,1322,1322,1322,1328,1328,1328,1328,1328,1328,1328,1328,1328,1328,1328,1328,1328,1322,1322,1322,1328,1322,1322,1322,1322,1328,1328,1328,1328,1328,1328,1322,1322,1322,1322,1322,1322,1322,1322,1322,1322,1322,1322,1322,1322,1322,1322,1322,1317,1317,1322,1317,1317,1317,0,0,973,973,967,964,964,964,962,962,962,962,962,962,962,962,964,964,967,967,970,970,973,973,975,978,978,978,981,1312,1312,1307,1307,1312,1307,1307,1307,1302,1302,1302,1307,1307,1034,1034,1031,1031,1034,1034,1034,1034,1034,1034,1038,1038,1038,1038,1038,1038,1038,1044,1044,1047,1047,1050,1050,1050,1054,1057,1057,1060,1060,1063,1063,1063,1067,1070,1073,1073,1073,1077,1077,1080,1084,1288,1288,1288,1288,1288,1288,1288,1288,1288,1288,1288,1288,1288,1288,1292,1292,1292,1292,1292,1288,1288,1288,1288,1288,1288,1288,1288,1288,1288,1288,1288,1288,1288,1288,1288,1283,1283,1283,0,0,0,0,0,0,0,0,0,0,0,722,720,720,720,720,719,717,716,711,711,710,710,708,707,707,706,706,706,707,707,708,710,711,713,714,717,719,722,723,725,727,727,728,0,0,0,0,1025,1022,1022,1022,1022,1019,1019,1019,1016,1016,1016,1016,1016,1016,1016,1013,1013,1013,1013,1013,1013,1268,1268,1268,1268,1268,1264,1264,1264,1264,1264,1264,1264,1264,1264,1264,1264,1259,1259,1259,1259,1259,1259,1259,1259,1255,1255,1255,1255,1255,1255,1255,1255,1255,1250,1250,1255,1259,1259,1259,1259,1259,1259,1255,1255,1255,1255,1255,1255,1255,1255,1255,1255,1255,1255,1255,1255,1255,1255,998,998,998,998,1001,1001,1001,1001,1001,1001,1001,1001,1004,1007,1007,1010,1016,1016,1022,1022,1022,1025,1025,1028,1031,1041,1105,1105,1108,1108,1105,1105,1101,1097,1097,1094,1094,1094,1090,1090,1090,1090,1094,1105,1108,1108,1112,1115,1236,1232,1232,1232,1232,1232,1232,1232,1232,1232,1232,1232,1232,1232,1232,1227,1227,1227,1227,1227,1227,1227,1227,1227,1223,1223,1223,1223,1223,1223,1227,1227,1223,1223,1223,1223,1223,1223,1223,1223,1223,1223,1219,1219,1219,1219,1219,1219,1219,1219,1219,1219,1214,1214,1214,1214,1214,1219,1219,1219,1219,1219,1219,1219,1219,1219,1214,1214,1214,1214,1214,1214,1214,1214,1210,1210,1210,1210,1210,1210,1210,1210,1210,1206,1206,1206,1202,1202,1202,1202,1202,1202,1202,1202,1202,1202,1202,1202,1202,1202,1202,1202,1202,1202,1202,1197,1197,1197,1197,1197,1197,1197,1202,1202,1197,1197,1197,1197,1197,1197,1197,1197,1197,1197,1197,1197,1197,1197,1197,1197,1197,1197,1197,1197,1197,1197,1193,1193,1189,1189,1189,1193,1193,1193,1193,1193,1189,1189,1185,1185,1185,1185,1185,1185,1185,1185,1185,1185,1185,1181,1181,1185,1185,1185,1185,1185,1185,1185,1185,1181,1181,1181,1181,1177,1177,1177,1177,1177,1177,1177,1185,1185,1070,1070,1067,1067,1063,1063,1063,1060,1060,981,981,981,981,987,938,938,938,938,940,938,938,938,938,938,938,938,938,938,940,940,940,940,940,943,943,946,946,948,948,948,951,959,0,0,0,0,0,0,0,0,0,0,0,0,0,0,0,0,0,0,0,0,0,0,0,0,0,0,0,0,0,0,0,0,0,0
0,0,0,0,0,0,0,0,0,0,1328,1328,1328,1328,1328,1328,1328,1328,1328,1328,1333,1333,1333,1328,1328,1328,1328,1322,1322,1322,1322,1322,1322,1322,1322,1322,1322,1322,1322,1322,1322,1322,1328,1322,1322,1322,1322,1322,1322,1322,1322,1322,1322,1317,1317,1317,1322,1322,1322,1322,1322,1322,1322,1322,1322,1322,1317,1317,1317,1317,1317,1317,1317,1317,1312,1312,1317,1317,1317,1317,1312,1312,1312,1312,1312,1312,1307,0,975,975,970,967,964,964,964,964,962,962,962,962,962,964,964,967,967,967,973,975,975,975,978,978,978,981,981,1312,1312,1307,1307,1307,1307,1307,1302,1302,1022,1019,1019,1022,1022,1022,1025,1031,1031,1031,1034,1034,1034,1034,1034,1034,1038,1038,1038,1038,1038,1044,1044,1047,1047,1050,1050,1050,1057,1057,1060,1060,1060,1063,1063,1063,1067,1067,1070,1073,1073,1077,1077,1288,1288,1283,1283,1288,1288,1288,1288,1288,1288,1288,1288,1288,1288,1288,1288,1288,1288,1283,1283,1288,1288,1288,1288,1288,1288,1288,1288,1283,1283,1288,1288,1288,1283,1283,1283,1283,1283,1283,1283,0,0,0,0,0,0,0,0,0,0,0,722,722,720,720,720,720,719,716,714,711,711,710,710,708,708,708,707,707,707,708,708,710,711,714,716,717,720,722,723,725,727,727,0,0,0,0,0,1022,1022,1022,1019,1016,1016,1016,1016,1016,1016,1016,1013,1013,1013,1013,1013,1013,1013,1013,1013,1010,1010,1010,1268,1268,1264,1264,1264,1264,1264,1264,1264,1264,1264,1259,1259,1259,1259,1255,1255,1255,1255,1255,1255,1255,1250,1250,1250,1250,1250,1250,1250,1250,1250,1250,1250,1250,1250,1250,1255,1255,1255,1255,1255,1255,1250,1250,1250,1250,1250,1250,1250,1250,1250,1255,1255,1255,1255,992,992,995,995,995,998,998,998,998,998,1001,1001,1001,1001,1007,1007,1013,1016,1019,1022,1022,1022,1025,1025,1025,1025,1108,1108,1108,1108,1108,1105,1105,1101,1101,1097,1097,1094,1094,1094,1094,1094,1094,1101,1108,1108,1112,1115,1115,1236,1232,1227,1227,1227,1227,1227,1227,1227,1232,1232,1232,1227,1227,1227,1223,1223,1223,1223,1223,1223,1223,1223,1223,1219,1219,1219,1219,1219,1223,1223,1223,1219,1219,1219,1219,1219,1219,1219,1219,1219,1219,1219,1219,1219,1214,1214,1219,1219,1214,1214,1214,1214,1214,1214,1214,1214,1214,1214,1214,1214,1214,1214,1214,1214,1214,1214,1214,1214,1214,1214,1214,1214,1210,1210,1206,1206,1206,1206,1206,1206,1206,1206,1206,1206,1206,1202,1202,1202,1202,1202,1202,1202,1202,1202,1202,1202,1202,1202,1202,1202,1202,1197,1197,1197,1197,1197,1197,1197,1197,1197,1197,1197,1197,1197,1197,1193,1193,1193,1193,1193,1193,1193,1197,1197,1197,1193,1193,1193,1193,1193,1193,1193,1193,1193,1193,1189,1189,1189,1189,1189,1189,1189,1189,1189,1189,1185,1185,1185,1185,1185,1185,1185,1185,1185,1181,1181,1185,1181,1181,1181,1181,1181,1181,1181,1181,1181,1181,1181,1181,1177,1177,1177,1173,1173,1169,1169,1173,1173,1173,1173,981,1067,1067,1067,1067,1063,1063,1063,981,981,981,981,984,984,940,940,940,938,938,938,938,938,938,938,938,938,938,938,938,938,938,940,940,940,943,943,946,946,946,948,948,951,959,0,0,0,0,0,0,0,0,0,0,0,0,0,0,0,0,0,0,0,0,0,0,0,0,0,0,0,0,0,0,0,0,0,0
0,0,0,0,0,0,0,0,0,0,1328,1328,1328,1322,1322,1322,1322,1322,1322,1322,1328,1328,1328,1328,1328,1322,1322,1322,1322,1322,1322,1322,1322,1317,1317,1317,1322,1317,1317,1322,1322,1322,1322,1317,1317,1317,1317,1317,1317,1317,1317,1317,1317,1317,1312,1312,1312,1317,1317,1317,1322,1322,1322,1322,1322,1317,1317,1312,1312,1312,1312,1312,1312,1312,1307,1307,1312,1312,1312,1312,1307,1307,1312,1307,1307,1307,1307,0,970,970,970,967,967,967,964,964,964,964,962,962,964,964,964,967,967,973,973,975,975,975,978,978,981,981,981,984,1307,1307,1307,1307,1025,1025,1025,1025,1022,1019,1019,1022,1022,1022,1022,1025,1025,1031,1031,1031,1034,1034,1034,1034,1034,1038,1038,1038,1038,1044,1044,1047,1047,1050,1050,1054,1057,1060,1060,1060,1060,1063,1063,1063,1063,1063,1067,1067,1073,1077,1283,1283,1283,1283,1283,1283,1283,1283,1283,1283,1283,1283,1283,1283,1283,1283,1283,1283,1283,1283,1283,1283,1283,1283,1283,1288,1288,1288,1283,1283,1283,1283,1283,1283,1283,1278,1278,1278,1278,1278,1278,0,0,0,0,0,0,0,0,0,0,0,722,722,720,720,720,720,719,717,714,713,711,711,710,710,708,708,708,708,708,708,708,710,711,714,716,717,720,722,723,725,727,727,0,0,0,0,0,1022,1022,1019,1019,1016,1016,1013,1013,1013,1013,1013,1013,1013,1013,1013,1010,1010,1010,1010,1010,1010,1007,1004,1004,1001,1001,1001,1001,1264,1264,1264,1264,1264,1264,1259,1259,1255,1255,1250,1250,1250,1250,1250,1250,1250,1245,1245,1250,1245,1245,1245,1245,1245,1245,1245,1245,1245,1245,1245,1250,1245,1245,1245,1250,1250,1250,1250,1250,1250,1250,1250,1250,1250,1250,1250,1255,992,992,992,992,992,992,992,992,992,992,995,995,998,998,1001,1001,1004,1007,1013,1019,1022,1025,1025,1025,1025,1025,1025,1025,1108,1108,1108,1108,1108,1108,1105,1105,1105,1101,1101,1101,1097,1097,1097,1094,1094,1101,1108,1112,1112,1115,1119,1232,1227,1223,1223,1223,1223,1223,1223,1227,1227,1227,1227,1223,1223,1223,1219,1219,1219,1219,1219,1219,1219,1219,1219,1219,1219,1219,1219,1219,1219,1219,1219,1219,1219,1214,1214,1214,1214,1214,1214,1214,1214,1214,1214,1214,1210,1210,1214,1214,1214,1214,1214,1210,1210,1210,1210,1210,1210,1210,1214,1210,1210,1210,1210,1210,1210,1210,1210,1210,1210,1210,1210,1210,1206,1206,1206,1202,1202,1202,1202,1202,1202,1202,1202,1202,1202,1202,1202,1202,1197,1197,1197,1197,1197,1197,1197,1197,1202,1197,1197,1197,1197,1197,1197,1197,1193,1193,1193,1193,1193,1193,1193,1197,1197,1193,1193,1193,1189,1189,1189,1189,1189,1189,1189,1189,1189,1193,1189,1189,1189,1189,1189,1185,1185,1189,1185,1185,1185,1185,1185,1185,1185,1185,1185,1185,1185,1185,1181,1181,1181,1181,1181,1181,1181,1181,1181,1181,1181,1181,1177,1177,1181,1181,1181,1181,1181,1181,1181,1181,1177,1173,1173,1169,1169,1169,1169,1169,1169,1169,1169,981,981,981,1063,1063,1063,1063,1063,981,981,981,981,981,987,940,938,938,938,938,938,938,938,938,938,938,938,938,938,938,938,938,938,940,940,940,943,943,946,946,946,948,948,951,962,964,0,0,0,0,0,0,0,0,0,0,0,0,0,0,0,0,0,0,0,0,0,0,0,0,0,0,0,0,0,0,0,0,0
0,0,0,0,0,0,0,0,0,0,1322,1322,1322,1322,1322,1322,1317,1317,1317,1317,1322,1322,1322,1322,1322,1322,1317,1317,1317,1317,1317,1317,1317,1317,1317,1317,1317,1312,1312,1317,1317,1317,1317,1312,1312,1312,1317,1317,1312,1312,1312,1312,1312,1312,1312,1307,1307,1312,1312,1312,1317,1317,1317,1317,1317,1312,1312,1307,1307,1307,1307,1307,1307,1307,1307,1307,1307,1307,1307,1307,1307,1307,1307,1302,1302,1302,0,0,0,0,975,970,970,970,967,967,967,964,964,964,964,964,967,967,970,973,973,975,975,975,978,978,981,981,984,984,1307,1307,1307,1025,1025,1025,1025,1025,1022,1022,1022,1022,1019,1019,1022,1025,1025,1031,1031,1031,1031,1031,1034,1034,1034,1034,1038,1038,1041,1044,1044,1047,1047,1050,1050,1054,1057,1060,1060,1060,1060,1063,1063,1063,1063,1063,1067,1067,1283,1283,1283,1283,1283,1283,1283,1278,1278,1283,1278,1278,1283,1283,1283,1283,1283,1278,1278,1278,1278,1278,1278,1278,1278,1278,1278,1278,1278,1278,1278,1283,1283,1283,1278,1278,1278,1278,1278,1278,1273,1273,1273,1273,1273,0,0,0,0,0,0,0,0,0,0,722,720,720,722,720,719,717,716,714,713,711,710,710,708,708,708,708,708,708,708,710,714,714,717,717,722,723,725,727,728,728,730,0,0,0,0,1022,1019,1016,1016,1016,1013,1013,1013,1013,1013,1010,1010,1010,1010,1010,1010,1010,1007,1007,1007,1007,1004,1001,1001,1001,1001,1001,998,998,998,1264,1264,1264,1259,1259,1255,1255,1250,1250,1250,1250,1250,1250,1245,1245,1245,1245,1245,1245,1245,1245,1245,1245,1245,1241,1241,1241,1241,1241,1245,1241,1241,1241,1241,1241,1245,1245,1245,1245,1245,1245,1245,1245,1245,1250,989,989,989,989,989,989,989,989,989,992,992,992,992,995,998,998,1001,1004,1007,1013,1019,1019,1022,1025,1025,1025,1025,1028,1028,1108,1108,1108,1108,1108,1108,1105,1105,1105,1105,1101,1101,1097,1097,1097,1101,1101,1105,1108,1115,1115,1115,1119,1227,1223,1219,1219,1219,1219,1219,1219,1219,1223,1223,1223,1219,1219,1219,1219,1219,1219,1214,1214,1219,1219,1219,1219,1214,1214,1214,1214,1214,1214,1214,1214,1214,1214,1214,1214,1214,1214,1214,1214,1210,1210,1210,1210,1210,1210,1210,1210,1210,1210,1210,1206,1206,1210,1206,1206,1206,1206,1210,1210,1210,1210,1210,1210,1206,1206,1206,1206,1206,1206,1206,1206,1206,1206,1202,1202,1202,1202,1202,1197,1197,1197,1197,1197,1197,1197,1197,1197,1197,1197,1197,1197,1197,1197,1197,1197,1197,1197,1197,1197,1197,1197,1197,1193,1193,1193,1193,1193,1193,1193,1193,1193,1193,1193,1193,1189,1189,1189,1185,1185,1185,1185,1185,1185,1185,1185,1185,1185,1185,1185,1185,1185,1181,1181,1181,1181,1181,1181,1181,1181,1181,1181,1181,1181,1181,1181,1181,1181,1181,1181,1181,1181,1181,1181,1181,1181,1181,1181,1177,1177,1177,1177,1177,1177,1177,1177,1177,1177,1177,1169,1169,1169,1169,1169,1169,1165,1165,1165,1165,1165,981,981,981,981,981,981,981,981,981,981,981,981,981,940,938,938,938,938,938,938,938,938,938,938,938,938,938,938,938,938,938,938,940,940,940,943,943,946,946,946,948,948,951,962,964,0,0,0,0,0,0,0,0,0,0,0,0,0,0,0,0,0,0,0,0,0,0,0,0,0,0,0,0,0,0,0,0,0
0,0,0,0,0,0,0,0,0,1322,1322,1322,1322,1322,1322,1317,1317,1312,1312,1317,1317,1317,1317,1317,1317,1317,1317,1312,1312,1317,1312,1312,1317,1312,1312,1312,1312,1312,1312,1312,1312,1312,1312,1307,1307,1307,1312,1312,1312,1312,1312,1312,1307,1307,1307,1307,1307,1307,1307,1312,1312,1317,1317,1317,1312,1307,1307,1307,1307,1307,1307,1307,1307,1307,1307,1307,1307,1307,1307,1307,1307,1307,1302,1302,1297,1297,0,0,0,975,975,973,973,973,970,970,967,967,964,964,964,967,967,967,970,973,975,975,975,975,978,978,981,981,984,984,989,1010,1010,1013,1022,1022,1022,1022,1022,1019,1019,1022,1019,1019,1022,1022,1028,1025,1025,1025,1031,1031,1034,1034,1034,1034,1038,1038,1041,1044,1044,1047,1050,1050,1050,1054,1057,1060,1060,1063,1063,1063,1063,1063,1063,1283,1278,1278,1283,1283,1283,1283,1278,1278,1278,1273,1273,1278,1273,1273,1278,1278,1278,1278,1278,1273,1273,1278,1273,1273,1273,1273,1273,1273,1273,1273,1273,1273,1273,1273,1273,1273,1273,1273,1273,1273,1273,1268,1268,1273,1273,1268,1268,0,0,0,0,0,0,0,0,0,0,722,722,722,722,722,720,719,717,716,714,713,711,710,710,708,708,708,708,710,710,710,713,714,717,719,722,723,725,727,728,730,730,0,0,0,0,1022,1019,1016,1016,1016,1013,1013,1013,1013,1010,1010,1010,1010,1010,1010,1007,1007,1007,1004,1004,1004,1001,1001,1001,1001,1001,998,998,995,995,995,995,1264,1259,1259,1255,1255,1250,1250,1250,1245,1245,1245,1245,1245,1245,1245,1241,1241,1241,1241,1241,1241,1241,1236,1236,1236,1236,1236,1241,1241,1241,1241,1241,1241,1241,1241,1241,1241,1241,1241,1241,1245,1245,987,987,987,987,987,987,989,987,987,989,989,989,989,992,992,995,998,1001,1004,1007,1013,1016,1019,1022,1025,1025,1025,1025,1028,1028,1227,1227,1223,1115,1112,1112,1108,1108,1105,1105,1105,1101,1101,1101,1101,1101,1105,1108,1112,1115,1115,1119,1227,1227,1223,1219,1219,1219,1219,1214,1214,1219,1219,1219,1219,1219,1219,1219,1219,1214,1214,1214,1214,1214,1214,1214,1214,1214,1214,1214,1214,1214,1214,1210,1210,1210,1210,1210,1210,1210,1210,1210,1210,1210,1206,1206,1206,1206,1206,1206,1206,1206,1206,1206,1206,1206,1206,1202,1202,1202,1206,1206,1210,1206,1206,1206,1206,1202,1202,1202,1197,1197,1197,1197,1202,1202,1202,1202,1202,1202,1202,1197,1197,1197,1197,1197,1193,1193,1193,1193,1197,1193,1193,1193,1197,1193,1193,1193,1193,1193,1193,1193,1193,1193,1193,1193,1193,1189,1189,1189,1189,1189,1189,1189,1193,1193,1189,1189,1189,1185,1185,1185,1185,1185,1185,1185,1181,1181,1181,1181,1181,1181,1177,1173,1173,1181,1177,1177,1177,1177,1177,1181,1181,1181,1181,1177,1177,1177,1177,1177,1177,1177,1177,1177,1177,1177,1177,1177,1177,1177,1177,1173,1173,1173,1173,1173,1173,1173,1173,1173,1173,1169,1169,1169,1169,1165,1165,1165,1165,1165,1165,1165,1165,981,981,981,981,981,981,981,981,981,981,978,978,981,940,938,938,938,938,938,938,938,938,938,938,938,938,938,938,938,938,938,938,940,940,940,943,946,946,946,946,948,948,951,962,964,0,0,0,0,0,0,0,0,0,0,0,0,0,0,0,0,0,0,0,0,0,0,0,0,0,0,0,0,0,0,0,0,0
0,0,0,0,0,0,0,0,0,1322,1322,1322,1322,1317,1317,1317,1312,1312,1312,1312,1312,1312,1312,1312,1312,1312,1312,1312,1312,1312,1312,1312,1312,1312,1312,1312,1312,1307,1307,1307,1307,1307,1307,1307,1302,1302,1307,1307,1307,1307,1307,1307,1307,1307,1302,1302,1307,1307,1307,1307,1307,1312,1312,1312,1312,1307,1307,1302,1302,1302,1302,1302,1302,1302,1302,1302,1302,1302,1302,1302,1302,1302,1302,1297,1297,1297,0,1292,0,975,975,975,973,973,973,970,970,967,967,967,967,967,967,967,970,973,975,975,975,978,978,981,981,984,987,987,989,1010,1010,1013,1019,1019,1019,1019,1019,1019,1019,1019,1019,1019,1022,1022,1025,1025,1025,1025,1031,1031,1034,1034,1034,1038,1038,1038,1041,1044,1047,1047,1050,1050,1050,1054,1057,1060,1060,1063,1063,1063,1063,1063,1278,1278,1278,1278,1278,1278,1278,1278,1273,1273,1273,1273,1273,1273,1268,1268,1273,1273,1273,1273,1273,1273,1273,1273,1268,1268,1268,1268,1268,1268,1268,1268,1268,1273,1273,1268,1268,1268,1268,1268,1268,1268,1268,1268,1268,1268,1273,1268,1268,0,0,0,0,0,0,0,0,0,0,0,722,722,722,722,720,719,717,716,714,714,713,711,710,710,710,710,710,710,710,711,713,716,717,720,722,723,725,727,728,730,730,0,0,0,0,1022,1019,1016,1016,1016,1013,1013,1013,1013,1010,1010,1010,1007,1007,1007,1007,1007,1004,1004,1001,1001,1001,1001,998,998,998,998,998,995,995,992,992,992,992,992,1255,1255,1250,1250,1250,1245,1245,1245,1241,1241,1241,1241,1236,1236,1236,1236,1236,1236,1236,1232,1232,1232,1232,1232,1236,1236,1236,1236,1236,1236,1241,1241,1241,1241,1236,1236,1241,1245,984,984,984,984,984,984,987,987,984,984,987,987,987,989,989,992,992,995,1001,1004,1007,1013,1016,1019,1019,1022,1025,1025,1025,1028,1028,1223,1223,1223,1115,1115,1115,1112,1108,1108,1108,1105,1105,1105,1105,1105,1105,1105,1108,1112,1115,1115,1115,1119,1223,1214,1214,1214,1214,1214,1214,1210,1210,1214,1214,1214,1214,1214,1214,1214,1214,1214,1214,1214,1214,1214,1214,1214,1210,1210,1214,1210,1210,1210,1210,1206,1206,1206,1206,1206,1206,1206,1206,1206,1206,1202,1202,1202,1202,1202,1202,1202,1202,1202,1202,1202,1202,1202,1202,1202,1202,1202,1202,1202,1202,1202,1202,1202,1202,1197,1197,1197,1193,1193,1193,1193,1193,1193,1193,1197,1197,1197,1197,1197,1193,1193,1193,1193,1193,1189,1189,1193,1189,1189,1193,1193,1193,1193,1193,1193,1193,1189,1189,1189,1185,1185,1185,1185,1185,1185,1185,1185,1185,1185,1185,1189,1185,1185,1185,1185,1185,1185,1181,1181,1181,1181,1181,1181,1177,1177,1177,1177,1177,1173,1169,1169,1173,1173,1173,1173,1173,1173,1177,1177,1177,1177,1177,1177,1173,1173,1177,1173,1173,1173,1173,1173,1173,1173,1173,1173,1173,1173,1173,1169,1169,1169,1169,1169,1169,1169,1169,1165,1165,1165,1165,1165,1165,1165,1165,1165,1165,1165,1165,1165,984,984,984,984,984,984,984,981,981,981,978,978,981,940,940,940,940,938,938,938,938,938,938,938,938,938,938,938,938,938,938,938,940,940,940,943,946,946,946,946,948,948,954,964,964,0,0,0,0,0,0,0,0,0,0,0,0,0,0,0,0,0,0,0,0,0,0,0,0,0,0,0,0,0,0,0,0,0
0,0,0,0,0,0,0,0,0,1322,1317,1317,1317,1317,1317,1317,1312,1312,1312,1312,1312,1307,1307,1307,1307,1307,1307,1312,1312,1312,1307,1307,1307,1307,1307,1307,1307,1307,1307,1307,1302,1302,1302,1302,1302,1302,1302,1307,1302,1302,1302,1302,1302,1302,1302,1302,1302,1302,1302,1307,1307,1307,1307,1307,1307,1302,1302,1302,1297,1297,1292,1292,1292,1292,1297,1302,1302,1302,1302,1302,1302,1302,1297,1297,1292,1292,1292,1292,0,0,978,975,975,973,973,973,973,970,967,967,967,967,967,967,970,973,975,975,975,978,978,981,981,984,987,987,989,1004,1010,1013,1016,1016,1016,1016,1019,1016,1016,1019,1019,1019,1022,1022,1025,1028,1028,1031,1031,1031,1034,1034,1038,1038,1038,1038,1041,1044,1047,1047,1050,1054,1054,1057,1057,1060,1063,1063,1063,1063,1063,1278,1278,1278,1273,1273,1278,1278,1278,1278,1273,1273,1268,1268,1268,1268,1268,1268,1268,1268,1268,1268,1268,1268,1268,1268,1268,1268,1268,1268,1268,1264,1264,1268,1268,1268,1268,1268,1268,1268,1268,1264,1264,1264,1264,1264,1264,1264,1268,1268,1268,0,0,0,0,0,0,0,0,0,0,0,722,722,723,722,722,720,719,717,716,714,713,711,711,710,710,710,710,710,710,714,714,717,719,720,723,725,725,727,730,730,731,733,0,0,0,1022,1019,1019,1016,1016,1013,1013,1013,1013,1010,1010,1010,1007,1007,1007,1004,1004,1004,1001,1001,998,998,998,998,998,998,995,995,992,992,992,992,992,992,992,992,992,992,1250,1250,1245,1245,1245,1241,1241,1241,1241,1236,1236,1232,1232,1232,1232,1232,1232,1232,1232,1232,1232,1236,1232,1232,1236,1236,1236,1236,1236,1236,1236,1236,1236,978,978,978,981,981,981,981,981,981,984,984,984,984,987,987,987,989,989,992,995,1001,1007,1010,1013,1016,1016,1019,1022,1025,1025,1025,1028,1223,1223,1223,1223,1119,1119,1115,1115,1112,1108,1108,1108,1105,1105,1105,1105,1105,1108,1108,1112,1115,1115,1115,1119,1214,1210,1210,1210,1210,1210,1206,1206,1206,1206,1210,1206,1206,1206,1206,1206,1210,1210,1210,1210,1210,1210,1210,1210,1210,1210,1210,1210,1206,1206,1206,1206,1206,1206,1206,1202,1202,1202,1202,1206,1202,1202,1202,1202,1202,1202,1202,1202,1202,1202,1197,1197,1197,1197,1197,1197,1197,1197,1197,1197,1197,1197,1197,1197,1197,1197,1193,1193,1189,1189,1189,1189,1189,1189,1189,1189,1189,1189,1193,1193,1189,1189,1189,1189,1189,1189,1189,1189,1189,1189,1189,1189,1189,1189,1189,1189,1185,1185,1185,1185,1185,1185,1185,1185,1185,1181,1181,1181,1181,1181,1185,1185,1185,1185,1181,1181,1181,1181,1181,1181,1181,1177,1177,1177,1173,1173,1173,1173,1173,1169,1169,1169,1169,1169,1169,1169,1169,1169,1169,1169,1173,1173,1173,1173,1169,1169,1173,1173,1169,1169,1169,1169,1169,1169,1169,1169,1169,1169,1169,1169,1169,1169,1169,1169,1169,1165,1165,1165,1161,1161,1161,1161,1161,1161,1161,1161,1161,1161,1161,1161,989,984,984,984,984,984,984,981,981,981,981,981,940,940,940,940,938,938,938,938,938,938,938,938,938,938,938,938,938,938,938,940,940,940,940,943,946,946,946,946,948,948,954,967,0,0,0,0,0,0,0,0,0,0,0,0,0,0,0,0,0,0,0,0,0,0,0,0,0,0,0,0,0,0,0,0,0,0
0,0,0,0,0,0,0,0,0,1317,1317,1317,1317,1317,1317,1312,1312,1307,1307,1307,1307,1307,1307,1307,1307,1307,1307,1307,1307,1307,1307,1307,1307,1307,1307,1307,1307,1307,1302,1302,1302,1302,1302,1302,1297,1297,1302,1302,1302,1302,1302,1302,1302,1302,1297,1297,1297,1297,1297,1302,1302,1302,1302,1307,1307,1302,1297,1297,1292,1292,1288,1288,1288,1292,1292,1292,1292,1297,1297,1297,1297,1292,1292,1292,1292,1288,1288,1288,1283,978,978,978,978,975,975,975,973,970,967,967,967,967,967,967,970,973,975,975,975,978,978,981,981,984,987,987,989,1001,1007,1010,1013,1013,1013,1013,1016,1013,1013,1019,1019,1019,1022,1022,1025,1028,1028,1031,1031,1034,1034,1038,1038,1038,1038,1038,1041,1044,1047,1050,1050,1054,1054,1057,1060,1063,1063,1067,1063,1063,1273,1273,1278,1273,1273,1273,1273,1273,1273,1273,1268,1268,1268,1268,1268,1264,1264,1264,1264,1264,1264,1264,1264,1264,1268,1268,1264,1264,1264,1264,1264,1264,1264,1264,1264,1268,1268,1264,1264,1264,1264,1264,1264,1264,1264,1264,1259,1259,1259,1264,1264,0,0,0,0,0,0,0,0,0,0,0,731,728,725,723,722,722,720,719,717,716,714,714,713,711,711,711,711,711,711,714,716,717,719,722,723,725,725,727,730,731,731,733,0,0,0,0,1019,1019,1019,1016,1016,1016,1013,1013,1010,1010,1010,1007,1004,1004,1001,1001,1001,1001,998,998,998,998,998,998,995,992,992,992,992,989,989,989,989,989,989,989,989,989,1245,1245,1245,1245,1241,1241,1241,1236,1232,1232,1232,1232,1232,1232,1232,1227,1227,1227,1227,1227,1232,1232,1232,1232,1232,1232,1236,1236,1236,1236,1236,978,978,975,975,978,978,978,978,978,978,981,981,981,984,987,987,987,989,989,992,995,1004,1007,1010,1013,1016,1016,1019,1022,1025,1025,1028,1219,1219,1219,1219,1119,1119,1119,1119,1115,1115,1112,1108,1108,1108,1108,1105,1105,1108,1108,1112,1115,1119,1119,1119,1119,1210,1206,1206,1206,1206,1206,1206,1206,1206,1206,1206,1206,1206,1202,1202,1202,1202,1202,1202,1206,1206,1206,1206,1206,1206,1206,1206,1206,1206,1202,1202,1202,1202,1202,1202,1202,1202,1202,1202,1202,1202,1202,1202,1202,1202,1202,1202,1202,1197,1197,1197,1197,1197,1197,1193,1193,1193,1193,1193,1193,1193,1193,1189,1189,1193,1193,1189,1189,1185,1185,1189,1185,1185,1189,1189,1189,1185,1185,1185,1185,1185,1185,1185,1185,1185,1185,1185,1185,1185,1185,1185,1185,1185,1185,1185,1185,1185,1185,1181,1181,1181,1181,1181,1181,1181,1181,1181,1181,1181,1181,1181,1181,1181,1181,1181,1181,1177,1177,1177,1177,1173,1173,1173,1173,1169,1169,1169,1169,1169,1169,1165,1165,1169,1169,1169,1169,1169,1169,1169,1169,1169,1169,1169,1169,1169,1169,1169,1169,1169,1165,1165,1165,1165,1165,1165,1165,1165,1165,1165,1165,1165,1165,1165,1165,1165,1161,1161,1161,1157,1157,1157,1157,1157,1157,1157,1157,1157,1157,1161,1161,989,989,987,987,987,987,987,984,984,984,984,984,940,940,940,938,938,938,938,938,938,938,938,938,938,938,938,938,938,938,938,940,940,940,940,943,946,946,946,946,948,948,954,967,0,0,0,0,0,0,0,0,0,0,0,0,0,0,0,0,0,0,0,0,0,0,0,0,0,0,0,0,0,0,0,0,0,0
0,0,0,0,0,0,0,0,0,1317,1302,1302,1302,1307,1312,1312,1307,1307,1307,1307,1307,1307,1307,1307,1307,1307,1307,1307,1307,1307,1307,1302,1302,1302,1302,1302,1302,1302,1302,1297,1297,1292,1292,1297,1297,1297,1297,1302,1297,1297,1297,1297,1297,1297,1292,1292,1292,1292,1292,1292,1297,1297,1297,1302,1297,1297,1292,1292,1292,1288,1288,1288,1288,1288,1288,1288,1288,1288,1288,1288,1288,1288,1288,1288,1288,1288,1283,1283,1283,1283,978,978,978,975,975,975,975,970,967,967,970,970,970,970,970,973,975,975,978,978,981,981,984,987,987,987,989,1001,1004,1007,1010,1010,1013,1013,1016,1013,1013,1019,1019,1019,1022,1025,1025,1028,1028,1031,1034,1034,1034,1038,1038,1038,1038,1044,1044,1047,1047,1050,1050,1054,1057,1060,1060,1063,1067,1070,1070,1264,1268,1268,1268,1268,1268,1268,1268,1268,1268,1268,1268,1264,1264,1264,1264,1264,1259,1259,1259,1264,1264,1264,1264,1264,1264,1264,1264,1264,1264,1264,1264,1259,1259,1264,1264,1264,1264,1264,1264,1264,1259,1259,1259,1259,1259,1259,1259,1259,1259,1255,1255,0,0,0,0,0,0,0,0,0,0,0,731,730,728,727,723,722,722,720,719,717,716,714,714,713,713,713,713,713,713,714,716,719,720,722,723,725,727,728,730,731,733,733,0,0,0,0,1022,1022,1022,1019,1016,1016,1016,1013,1013,1010,1007,1007,1004,1001,1001,1001,1001,998,998,998,998,995,995,992,992,992,992,989,989,989,989,989,989,989,989,989,989,984,981,981,1245,1245,1241,1241,1241,1236,1232,1232,1232,1232,1232,1227,1227,1227,1227,1227,1227,1227,1227,1227,1232,1232,1232,1232,1232,1232,1236,973,973,973,973,975,975,975,975,975,975,975,975,975,978,978,981,987,987,989,989,992,992,995,1001,1004,1007,1010,1013,1016,1016,1219,1219,1219,1214,1214,1214,1219,1219,1119,1119,1119,1119,1119,1115,1115,1112,1112,1108,1108,1108,1108,1108,1112,1112,1115,1119,1119,1119,1119,1206,1202,1202,1202,1202,1202,1202,1202,1202,1202,1202,1202,1202,1202,1202,1202,1202,1202,1202,1202,1202,1202,1202,1202,1202,1202,1197,1197,1197,1202,1202,1197,1197,1197,1197,1197,1197,1197,1197,1197,1197,1197,1197,1197,1197,1197,1197,1197,1197,1193,1193,1193,1193,1193,1189,1189,1189,1189,1189,1189,1189,1189,1189,1189,1189,1189,1189,1185,1185,1185,1185,1185,1185,1185,1185,1185,1185,1185,1181,1181,1181,1181,1181,1181,1181,1185,1185,1185,1185,1185,1185,1185,1185,1185,1185,1185,1181,1181,1181,1181,1181,1181,1181,1177,1177,1177,1177,1177,1177,1173,1173,1177,1177,1177,1177,1173,1173,1173,1173,1173,1173,1169,1169,1169,1169,1169,1169,1169,1169,1165,1165,1165,1169,1169,1169,1169,1169,1165,1165,1165,1165,1165,1165,1165,1165,1165,1169,1169,1165,1165,1165,1165,1165,1165,1161,1161,1161,1165,1161,1161,1161,1165,1165,1161,1161,1161,1161,1157,1157,1153,1153,1153,1153,1153,1153,1153,1153,1153,1153,989,989,989,989,989,989,989,989,987,987,987,987,938,938,938,938,938,938,938,938,938,938,938,938,938,938,938,938,938,938,938,938,940,940,940,943,943,946,946,946,948,948,951,962,970,0,0,0,0,0,0,0,0,0,0,0,0,0,0,0,0,0,0,0,0,0,0,0,0,0,0,0,0,0,0,0,0,0,0
0,0,0,0,0,0,0,0,0,0,1292,1292,1292,1292,1297,1297,1297,1297,1302,1307,1307,1302,1302,1302,1302,1302,1302,1302,1302,1302,1302,1302,1302,1302,1302,1302,1302,1297,1297,1292,1292,1292,1292,1292,1292,1292,1292,1292,1292,1292,1292,1292,1292,1292,1288,1288,1288,1288,1288,1292,1292,1292,1297,1288,1288,1288,1288,1288,1288,1288,1288,1283,1283,1283,1283,1283,1283,1283,1283,1283,1283,1283,1283,1283,1283,1283,1283,1283,1283,1283,981,981,981,978,975,975,975,970,970,970,970,970,970,970,973,975,975,975,978,978,981,981,984,987,989,992,992,998,1001,1004,1007,1010,1013,1013,1016,1013,1013,1019,1019,1022,1022,1025,1025,1028,1028,1031,1034,1034,1038,1038,1038,1038,1041,1044,1044,1047,1047,1047,1050,1054,1057,1060,1063,1067,1067,1264,1264,1264,1264,1264,1264,1264,1264,1264,1259,1259,1264,1264,1259,1259,1259,1259,1259,1259,1259,1259,1259,1259,1259,1259,1259,1259,1259,1259,1259,1259,1259,1259,1259,1259,1259,1259,1259,1264,1259,1259,1259,1259,1259,1255,1255,1255,1255,1259,1255,1255,1255,1250,1232,1232,0,0,0,0,0,0,0,0,0,0,731,730,730,728,727,723,722,722,720,719,717,716,714,714,713,713,713,713,714,716,717,719,720,722,725,725,727,728,730,731,733,733,0,0,0,1022,0,1022,1022,1022,1019,1019,1016,1016,1013,1010,1007,1007,1004,1001,1001,1001,1001,998,998,998,995,992,992,992,989,989,989,989,989,989,987,987,987,987,987,987,984,978,978,975,975,975,975,1241,1241,1236,1232,1232,1227,1227,1227,1227,1227,1227,1227,1227,1223,1223,1227,1227,1227,1227,1227,1227,1232,1232,970,970,970,970,973,973,973,973,973,973,973,973,973,975,978,978,981,984,987,989,989,992,992,995,1001,1004,1004,1010,1013,1013,1016,1219,1214,1214,1214,1214,1214,1214,1214,1214,1119,1119,1119,1119,1115,1115,1112,1112,1108,1108,1108,1108,1108,1112,1115,1119,1119,1119,1119,1119,1202,1197,1197,1202,1197,1197,1202,1202,1202,1202,1202,1202,1202,1197,1197,1197,1197,1197,1197,1197,1197,1197,1193,1193,1193,1193,1197,1197,1197,1197,1197,1197,1197,1197,1197,1193,1193,1193,1193,1193,1193,1193,1193,1193,1193,1193,1197,1193,1193,1189,1189,1185,1185,1185,1185,1185,1185,1185,1185,1185,1185,1185,1185,1185,1185,1185,1185,1185,1185,1185,1185,1185,1185,1185,1185,1185,1181,1181,1181,1181,1181,1181,1181,1181,1181,1181,1181,1181,1181,1181,1181,1181,1181,1181,1181,1181,1181,1181,1181,1177,1177,1177,1177,1177,1173,1173,1173,1173,1173,1173,1173,1173,1173,1173,1173,1173,1169,1169,1169,1169,1169,1169,1169,1169,1169,1169,1165,1165,1165,1165,1165,1165,1165,1165,1165,1165,1165,1165,1165,1165,1165,1161,1161,1161,1161,1161,1165,1165,1165,1165,1165,1165,1161,1161,1157,1157,1157,1157,1157,1157,1157,1161,1161,1161,1157,1157,1157,1153,1153,1153,1153,1153,1153,1153,1153,1149,1149,1149,992,992,989,989,989,989,989,989,989,989,989,989,989,935,935,935,938,938,938,938,938,938,938,938,938,938,938,938,938,938,938,938,938,940,940,943,943,946,946,948,948,948,948,964,964,967,0,0,0,0,0,0,0,0,0,0,0,0,0,0,0,0,0,0,0,0,0,0,0,0,0,0,0,0,0,0,0,0,0,0
