0,0,0,0,0,0,0,0,0,0,0,0,0,0,1564,1564,1564,1564,1557,1557,1557,1557,1557,1557,1557,1557,1550,1550,1550,1550,1550,1550,1550,1543,1543,1543,1543,1543,1543,1536,1536,1536,1536,1543,1543,1543,1543,1543,1543,1543,1543,1543,1543,1543,1543,1543,1543,1543,1543,1543,1543,1536,1529,1529,1529,1529,1529,1529,1529,1529,1529,1529,1529,1529,1529,1536,1536,1536,1536,1543,1543,1543,1550,1564,1564,1586,1586,1601,1609,1616,1616,1616,1616,1609,1609,1601,1601,1601,1594,1594,1586,1586,1586,1586,1586,1579,1572,1572,1564,1564,1564,1557,1557,1557,1550,1550,1550,1550,1557,1557,1557,1557,1564,1564,1564,1572,1572,1579,1579,1579,1586,1594,1594,1594,1601,1601,1601,1601,1601,1601,1609,1609,1616,1624,1624,1624,1632,1632,1632,1639,1639,1647,1655,1655,1655,1655,1655,1655,1655,1655,1663,1663,1663,1671,1680,1688,1688,1688,1696,1696,1696,1696,1696,1705,1713,1722,1722,1722,1731,1731,1731,1731,1739,1748,1748,1748,1748,1757,1757,1757,1757,1766,1766,1766,1766,1776,1785,1785,1794,1794,1794,1794,1785,1785,1785,1766,1766,0,0,0,0,0,1060,1057,1057,1057,1057,1057,1057,1054,1054,1050,1050,1050,1050,1050,1050,1050,1050,1050,1054,1057,1057,1063,1063,1063,1067,1067,1070,1073,0,0,0,1688,1688,1688,1688,1688,1688,1688,1688,1680,1680,1671,1671,1671,1663,1663,1663,1655,1655,1655,1655,1655,1655,1647,1647,1647,1647,1639,1639,1632,1632,1632,1632,1632,1624,1624,1624,1624,1624,1616,1616,1609,1609,1601,1601,1594,1594,1594,1594,1594,1586,1586,1579,1579,1579,1572,1572,1572,1572,1572,1564,1564,1564,1564,1564,1557,1557,1557,1550,1550,1543,1543,1543,1543,1543,1543,1543,1543,1543,1543,1543,1543,1543,1536,1529,1529,1523,1523,1523,1516,1516,1509,1509,1509,1509,1509,0,0,0,0,0,0,0,0,894,891,891,889,889,889,887,887,887,885,882,882,880,880,880,880,880,880,882,885,887,891,891,894,896,898,898,898,0,0,0,0,0,1427,1427,1427,1427,1427,1427,1421,1421,1421,1421,1415,1415,1415,1410,1404,1404,1404,1398,1398,1398,1398,1398,1398,1392,1392,1392,1387,1381,1381,1381,1381,1376,1376,1376,1376,1376,1370,1370,1370,1365,1365,1365,1365,1359,1354,1354,1354,1354,1354,1354,1349,1349,1349,1343,1338,1338,1338,1338,1333,1333,1333,1333,1333,1328,1328,1328,1322,1322,1317,1317,1312,1312,1312,1312,1312,1312,1307,1307,1307,1307,1307,1302,1302,1297,1292,1292,1292,1292,1288,1288,1288,1283,1283,1283,1283,1278,1278,1278,1278,1278,1273,1268,1268,1268,1268,1268,1264,1264,1264,1264,1259,1259,1259,1255,1255,1250,1245,1245,1245,1245,1245,1241,1241,1236,1236,1236,1236,1236,1232,1232,1232,1232,1227,1227,1223,1223,1223,1219,1219,1219,1219,1219,1219,1214,1214,1214,1210,1206,1206,1206,1202,1202,1202,1202,1197,1197,1197,1197,1197,1197,1193,1193,1193,1185,1185,1181,1181,1181,1181,1181,1181,1181,1181,1181,1181,1177,1177,1173,1173,1169,1169,1169,1169,1165,1165,1165,1165,1165,1165,1165,1165,1161,1161,1157,1157,1153,1153,1153,1153,1153,1153,1149,1149,1149,1149,1149,1145,1145,1141,1141,1141,1138,1138,1138,1134,1134,1134,1130,1130,1130,1126,1123,1123,1123,1123,1119,1119,1119,1119,1115,1112,1112,1112,0,0,0,0,0,0,0,0,0,0,0,0,0,0,0,0,0,0,0,0,0,0,0,0,0,0,0,0
0,0,0,0,0,0,0,0,0,0,0,0,0,0,1564,1564,1564,1564,1564,1557,1557,1557,1557,1557,1557,1557,1550,1550,1550,1550,1557,1557,1557,1550,1550,1543,1543,1543,1543,1543,1543,1536,1536,1543,1543,1543,1543,1543,1543,1543,1543,1543,1543,1543,1543,1543,1543,1543,1543,1543,1543,1536,1529,1529,1529,1529,1529,1529,1529,1529,1529,1529,1536,1536,1536,1536,1536,1536,1536,1543,1543,1543,1550,1557,1564,1572,1572,1594,1616,1616,1624,1624,1616,1616,1616,1609,1601,1601,1594,1594,1594,1594,1586,1586,1586,1586,1579,1572,1564,1564,1564,1557,1557,1557,1557,1557,1557,1557,1557,1557,1557,1564,1564,1564,1564,1572,1572,1579,1579,1586,1586,1594,1594,1601,1601,1601,1601,1601,1601,1609,1609,1609,1616,1624,1624,1624,1632,1632,1632,1639,1647,1647,1655,1655,1655,1655,1655,1655,1663,1663,1663,1663,1671,1680,1680,1688,1688,1688,1696,1696,1696,1696,1696,1705,1713,1713,1722,1722,1731,1731,1731,1731,1739,1748,1748,1748,1748,1757,1757,1757,1766,1766,1776,1776,1776,1785,1785,1785,1785,1794,1794,1794,1785,1785,1785,1766,1766,0,0,0,0,1050,1050,1057,1057,1057,1057,1057,1057,1054,1054,1050,1050,1050,1050,1050,1050,1050,1050,1054,1054,1057,1060,1063,1063,1067,1067,1067,1070,1073,0,0,0,0,1688,1688,1688,1688,1688,1688,1688,1680,1680,1680,1671,1671,1663,1663,1663,1655,1655,1655,1655,1655,1655,1655,1655,1647,1647,1639,1639,1632,1632,1632,1632,1632,1624,1624,1624,1624,1624,1616,1616,1616,1609,1601,1601,1601,1594,1594,1594,1594,1586,1586,1579,1579,1579,1579,1572,1572,1572,1572,1572,1564,1564,1564,1564,1564,1557,1557,1550,1550,1543,1543,1543,1543,1543,1543,1543,1550,1550,1543,1543,1543,1543,1536,1536,1529,1523,1523,1523,1516,1516,1516,1509,1509,1509,1516,0,0,0,0,0,0,0,0,891,891,891,889,889,889,889,887,887,887,882,882,880,880,880,880,880,882,882,885,887,891,894,894,896,898,898,898,0,0,0,0,0,1427,1427,1427,1427,1427,1427,1421,1421,1421,1421,1415,1415,1415,1410,1404,1404,1404,1404,1398,1398,1398,1398,1398,1392,1392,1392,1387,1387,1387,1387,1387,1381,1376,1376,1376,1376,1376,1376,1370,1370,1370,1365,1365,1365,1359,1354,1354,1354,1354,1354,1349,1349,1349,1343,1343,1338,1338,1338,1333,1333,1333,1333,1333,1333,1328,1328,1328,1322,1322,1317,1317,1317,1317,1317,1312,1312,1312,1312,1307,1307,1307,1302,1302,1302,1292,1292,1292,1292,1288,1288,1288,1283,1283,1283,1283,1283,1278,1278,1278,1278,1273,1273,1268,1268,1268,1268,1268,1268,1264,1264,1259,1259,1259,1255,1255,1250,1250,1250,1245,1245,1245,1241,1241,1236,1236,1236,1236,1236,1232,1232,1232,1232,1232,1227,1223,1223,1223,1223,1219,1219,1219,1219,1219,1219,1214,1214,1214,1206,1206,1206,1206,1202,1202,1202,1202,1202,1197,1197,1197,1197,1193,1193,1193,1185,1185,1185,1181,1181,1181,1181,1181,1181,1181,1181,1181,1181,1181,1177,1177,1173,1169,1169,1169,1169,1165,1165,1165,1165,1165,1165,1165,1161,1161,1161,1157,1153,1153,1153,1153,1153,1153,1153,1149,1149,1149,1149,1145,1145,1141,1141,1141,1138,1138,1138,1134,1134,1134,1134,1134,1130,1126,1126,1123,1123,1123,1123,1119,1119,1119,1115,1115,1115,1115,0,0,0,0,0,0,0,0,0,0,0,0,0,0,0,0,0,0,0,0,0,0,0,0,0,0,0,0
0,0,0,0,0,0,0,0,0,0,0,0,0,0,1564,1564,1564,1564,1564,1564,1564,1557,1557,1557,1557,1557,1557,1557,1557,1557,1557,1557,1557,1550,1550,1550,1550,1543,1543,1543,1543,1543,1543,1543,1543,1543,1543,1543,1543,1543,1543,1543,1543,1543,1543,1543,1543,1543,1543,1543,1543,1536,1536,1529,1529,1536,1536,1536,1536,1536,1536,1536,1536,1536,1536,1536,1536,1536,1536,1543,1543,1543,1550,1557,1564,1564,1572,1572,1616,1616,1624,1624,1624,1616,1616,1609,1601,1601,1594,1594,1594,1594,1586,1586,1586,1586,1579,1572,1572,1564,1564,1557,1557,1557,1557,1557,1557,1557,1557,1557,1557,1564,1564,1564,1564,1572,1572,1572,1579,1586,1594,1594,1594,1601,1601,1601,1601,1601,1601,1609,1609,1609,1616,1624,1624,1624,1632,1632,1639,1639,1639,1639,1647,1655,1655,1655,1655,1663,1663,1663,1663,1663,1671,1680,1680,1688,1688,1688,1688,1696,1696,1696,1696,1705,1705,1713,1722,1722,1731,1731,1731,1731,1739,1739,1748,1748,1748,1757,1757,1757,1757,1766,1776,1776,1776,1785,1785,1785,1785,1794,1794,1794,1785,1785,1785,1776,1776,0,0,0,0,1050,1050,1060,1060,1060,1060,1057,1057,1054,1054,1050,1050,1050,1050,1050,1050,1050,1050,1054,1057,1057,1060,1063,1067,1067,1067,1070,1073,1073,0,0,0,1688,1688,1688,1688,1688,1688,1688,1688,1688,1680,1680,1671,1671,1671,1663,1663,1663,1663,1663,1655,1655,1655,1655,1655,1655,1647,1639,1639,1632,1632,1632,1632,1632,1624,1624,1624,1624,1624,1616,1616,1616,1609,1601,1601,1601,1601,1594,1594,1594,1586,1586,1586,1586,1579,1579,1579,1572,1572,1572,1572,1564,1564,1564,1564,1564,1557,1557,1557,1557,1550,1550,1543,1543,1543,1543,1543,1550,1550,1550,1543,1543,1543,1543,1536,1536,1529,1529,1523,1516,1516,1516,1516,1509,1509,0,0,0,0,0,0,0,0,0,891,891,891,891,891,889,889,887,887,887,885,885,882,882,880,880,880,882,882,885,889,894,894,896,898,898,898,898,901,0,0,0,0,1427,1427,1427,1427,1427,1427,1427,1421,1421,1421,1415,1415,1415,1410,1404,1404,1404,1404,1404,1404,1398,1398,1398,1398,1392,1392,1392,1392,1387,1387,1387,1387,1381,1381,1381,1381,1376,1376,1370,1370,1370,1370,1370,1365,1365,1359,1359,1354,1354,1354,1349,1349,1349,1349,1343,1343,1338,1338,1338,1333,1333,1333,1333,1333,1333,1328,1328,1322,1322,1317,1317,1317,1317,1317,1317,1312,1312,1312,1312,1307,1307,1302,1302,1302,1302,1297,1292,1292,1292,1288,1288,1283,1283,1283,1283,1283,1283,1283,1278,1278,1273,1273,1273,1268,1268,1268,1268,1268,1264,1264,1259,1259,1259,1255,1255,1255,1250,1250,1250,1250,1245,1245,1241,1236,1236,1236,1236,1236,1232,1232,1232,1232,1232,1227,1227,1223,1223,1223,1223,1219,1219,1219,1219,1219,1214,1214,1214,1210,1210,1210,1206,1206,1202,1202,1202,1202,1202,1197,1197,1197,1197,1197,1197,1193,1189,1185,1185,1181,1181,1181,1181,1181,1181,1181,1181,1181,1177,1177,1173,1169,1169,1169,1169,1169,1165,1165,1165,1165,1165,1165,1165,1161,1161,1161,1161,1157,1157,1157,1157,1153,1153,1153,1149,1149,1149,1149,1145,1145,1141,1141,1141,1138,1138,1138,1134,1134,1134,1134,1134,1130,1130,1126,1126,1126,1123,1123,1123,1123,1119,1119,1115,1115,1115,0,0,0,0,0,0,0,0,0,0,0,0,0,0,0,0,0,0,0,0,0,0,0,0,0,0,0,0
0,0,0,0,0,0,0,0,0,0,0,0,0,0,1564,1564,1564,1564,1564,1564,1564,1557,1557,1557,1557,1557,1557,1557,1557,1557,1557,1557,1557,1557,1557,1550,1550,1550,1543,1543,1543,1543,1543,1543,1543,1543,1543,1543,1543,1543,1543,1543,1543,1543,1543,1543,1543,1543,1543,1543,1543,1536,1536,1536,1536,1536,1536,1536,1536,1536,1536,1536,1536,1536,1536,1536,1543,1543,1543,1543,1543,1543,1550,1557,1557,1564,1572,1572,1616,1616,1624,1624,1624,1624,1616,1609,1601,1601,1594,1594,1594,1594,1586,1586,1586,1586,1586,1579,1572,1572,1564,1564,1564,1564,1557,1557,1557,1557,1557,1564,1564,1564,1564,1564,1572,1572,1572,1572,1586,1586,1586,1594,1594,1601,1601,1601,1601,1601,1601,1609,1609,1616,1616,1624,1624,1624,1632,1632,1639,1639,1639,1639,1647,1655,1655,1655,1655,1663,1663,1663,1663,1663,1671,1671,1680,1688,1688,1688,1688,1696,1696,1696,1696,1705,1705,1713,1722,1722,1731,1731,1731,1731,1739,1739,1748,1748,1748,1757,1757,1757,1757,1766,1776,1776,1776,1785,1785,1785,1794,1794,1794,1794,1785,1785,1794,1785,1785,1794,0,0,0,0,1063,1060,1060,1060,1060,1057,1057,1054,1054,1050,1050,1050,1050,1050,1050,1054,1054,1054,1057,1057,1060,1063,1067,1067,1067,1073,1073,1077,0,0,0,1688,1688,1688,1688,1688,1688,1688,1688,1688,1688,1680,1680,1680,1671,1671,1663,1663,1663,1663,1663,1655,1655,1655,1655,1655,1647,1639,1639,1632,1632,1632,1632,1632,1624,1624,1624,1624,1624,1616,1616,1616,1609,1601,1601,1601,1601,1601,1594,1594,1594,1594,1586,1586,1579,1579,1579,1579,1572,1572,1572,1572,1572,1572,1572,1564,1564,1564,1557,1557,1550,1550,1543,1543,1543,1543,1543,1550,1550,1550,1543,1543,1543,1543,1543,1536,1536,1536,1523,1523,1516,1516,1516,1516,1516,1516,0,0,0,0,0,0,0,0,894,894,891,891,891,889,889,887,887,887,885,885,882,882,882,882,882,882,882,887,889,894,894,896,898,898,898,898,898,0,0,0,0,0,1433,1433,1427,1427,1427,1427,1427,1421,1421,1421,1415,1415,1415,1410,1404,1404,1404,1404,1404,1404,1398,1398,1398,1398,1398,1392,1392,1392,1387,1387,1387,1387,1381,1381,1381,1376,1376,1376,1370,1370,1370,1370,1370,1365,1359,1359,1359,1354,1354,1354,1349,1349,1349,1343,1343,1338,1338,1338,1333,1333,1333,1333,1333,1333,1328,1328,1322,1322,1322,1322,1317,1317,1317,1317,1312,1312,1312,1312,1312,1307,1307,1302,1302,1297,1297,1292,1292,1292,1292,1288,1288,1288,1288,1288,1283,1283,1283,1278,1278,1273,1273,1273,1268,1268,1268,1268,1268,1264,1264,1264,1259,1259,1255,1255,1255,1255,1250,1250,1250,1250,1250,1245,1245,1245,1241,1236,1236,1236,1236,1232,1232,1232,1227,1227,1223,1223,1223,1223,1223,1223,1219,1219,1219,1214,1214,1214,1214,1210,1210,1210,1206,1206,1202,1202,1202,1202,1197,1197,1197,1197,1197,1197,1197,1197,1189,1185,1185,1185,1185,1185,1181,1181,1181,1181,1181,1177,1177,1173,1169,1169,1169,1169,1169,1165,1165,1165,1165,1165,1165,1165,1165,1165,1161,1161,1157,1157,1157,1157,1157,1153,1153,1153,1149,1149,1149,1145,1145,1141,1141,1141,1138,1138,1138,1138,1134,1134,1134,1134,1130,1130,1130,1126,1126,1126,1126,1123,1123,1123,1119,1119,1119,1119,0,0,0,0,0,0,0,0,0,0,0,0,0,0,0,0,0,0,0,0,0,0,0,0,0,0,0,0
0,0,0,0,0,0,0,0,0,0,0,0,0,0,1564,1564,1564,1564,1564,1564,1564,1564,1564,1557,1557,1557,1550,1550,1557,1557,1557,1564,1564,1557,1557,1557,1557,1550,1543,1543,1543,1543,1543,1550,1550,1550,1550,1543,1543,1543,1543,1543,1543,1543,1543,1543,1543,1543,1543,1543,1543,1536,1536,1536,1536,1536,1536,1536,1536,1536,1536,1536,1543,1536,1536,1536,1543,1543,1543,1543,1543,1543,1557,1557,1557,1564,1572,1579,1616,1616,1624,1624,1624,1624,1616,1609,1601,1601,1594,1586,1586,1586,1594,1586,1586,1594,1586,1586,1579,1572,1572,1564,1564,1564,1564,1564,1557,1557,1557,1557,1564,1564,1564,1564,1572,1572,1572,1572,1586,1586,1586,1594,1594,1594,1601,1601,1601,1601,1601,1609,1609,1616,1616,1624,1624,1624,1632,1632,1639,1639,1647,1647,1647,1655,1655,1655,1655,1663,1663,1663,1663,1663,1671,1671,1680,1680,1688,1688,1688,1688,1696,1696,1696,1705,1705,1713,1722,1722,1722,1731,1731,1731,1739,1739,1748,1748,1748,1757,1757,1757,1766,1766,1776,1776,1776,1785,1785,1785,1794,1794,1794,1794,1794,1794,1794,1785,1785,1794,0,0,0,0,1063,1063,1060,1060,1060,1060,1057,1054,1054,1054,1050,1050,1050,1050,1050,1054,1054,1057,1060,1060,1063,1063,1067,1067,1067,1073,1073,1077,1077,0,1688,1688,1688,1688,1688,1688,1688,1688,1688,1688,1688,1680,1680,1680,1671,1671,1663,1663,1663,1663,1663,1655,1655,1655,1655,1655,1647,1647,1639,1632,1632,1632,1632,1632,1624,1624,1624,1624,1624,1624,1616,1616,1609,1609,1601,1601,1601,1601,1601,1594,1594,1594,1586,1586,1586,1579,1579,1579,1579,1572,1572,1572,1572,1572,1572,1564,1564,1564,1557,1557,1557,1550,1550,1550,1550,1543,1543,1550,1550,1543,1543,1543,1543,1543,1543,1536,1536,1536,1523,1523,1516,1516,1516,1516,1516,1516,0,0,0,0,0,0,0,896,896,894,894,894,891,889,889,889,887,887,887,885,885,882,882,882,882,882,882,887,889,894,894,896,898,898,898,898,898,0,0,0,0,1439,1439,1433,1433,1433,1433,1427,1427,1427,1421,1421,1421,1415,1415,1410,1410,1410,1410,1410,1404,1404,1404,1404,1398,1398,1398,1392,1392,1392,1392,1392,1387,1387,1381,1381,1381,1381,1376,1376,1376,1376,1370,1370,1370,1365,1365,1359,1359,1359,1354,1354,1349,1349,1349,1343,1343,1343,1338,1338,1333,1333,1333,1333,1333,1333,1333,1328,1328,1322,1322,1322,1317,1317,1317,1317,1317,1312,1312,1312,1312,1307,1307,1307,1302,1297,1297,1292,1292,1292,1292,1292,1288,1288,1288,1288,1283,1283,1283,1283,1283,1278,1278,1273,1273,1273,1268,1268,1268,1268,1268,1264,1264,1259,1259,1255,1255,1255,1250,1250,1250,1250,1250,1250,1245,1245,1241,1241,1236,1236,1236,1232,1232,1232,1227,1227,1227,1223,1223,1223,1223,1223,1219,1219,1219,1219,1214,1214,1214,1214,1214,1210,1210,1206,1206,1206,1202,1202,1202,1202,1202,1197,1197,1197,1197,1197,1189,1189,1185,1185,1185,1185,1185,1185,1181,1181,1181,1181,1181,1177,1177,1173,1169,1169,1169,1169,1169,1169,1169,1165,1165,1165,1165,1165,1165,1161,1161,1157,1157,1157,1153,1153,1153,1153,1149,1149,1149,1149,1145,1145,1145,1141,1141,1138,1138,1138,1138,1138,1134,1134,1130,1130,1130,1126,1126,1126,1126,1123,1123,1123,1119,1119,1119,1119,0,0,0,0,0,0,0,0,0,0,0,0,0,0,0,0,0,0,0,0,0,0,0,0,0,0,0,0
0,0,0,0,0,0,0,0,0,0,0,0,0,0,1564,1564,1564,1564,1564,1564,1564,1564,1564,1557,1557,1557,1550,1550,1557,1557,1557,1564,1564,1557,1557,1557,1557,1550,1550,1550,1543,1543,1543,1550,1550,1550,1550,1543,1543,1543,1543,1543,1543,1543,1543,1543,1543,1543,1543,1543,1543,1543,1543,1536,1536,1536,1536,1536,1536,1543,1543,1536,1536,1543,1543,1543,1543,1543,1543,1543,1543,1550,1557,1557,1564,1564,1572,1579,1616,1616,1624,1624,1632,1624,1616,1616,1601,1601,1594,1586,1586,1586,1594,1586,1586,1594,1594,1586,1579,1579,1572,1572,1572,1564,1564,1564,1564,1564,1557,1557,1564,1564,1564,1564,1572,1572,1579,1579,1586,1586,1586,1594,1594,1594,1601,1601,1601,1601,1609,1609,1609,1616,1624,1624,1632,1632,1632,1632,1639,1639,1647,1647,1647,1655,1655,1663,1663,1663,1663,1663,1671,1671,1671,1671,1680,1680,1688,1688,1688,1688,1696,1696,1696,1705,1705,1713,1722,1722,1722,1731,1731,1731,1739,1739,1748,1748,1748,1757,1757,1757,1766,1766,1776,1776,1776,1785,1785,1785,1794,1794,1794,1794,1785,1785,1794,1785,1785,0,0,0,0,0,1063,1063,1060,1060,1060,1060,1057,1054,1054,1054,1050,1050,1050,1054,1054,1054,1057,1057,1060,1060,1063,1063,1067,1067,1067,1073,1077,0,0,0,0,1688,1688,1688,1688,1696,1688,1688,1688,1688,1688,1680,1680,1680,1671,1671,1663,1663,1663,1663,1663,1655,1655,1655,1655,1655,1655,1647,1639,1632,1632,1632,1632,1632,1632,1632,1624,1624,1624,1624,1616,1616,1609,1609,1609,1601,1601,1601,1601,1594,1594,1594,1594,1594,1586,1586,1586,1579,1579,1579,1572,1572,1572,1572,1572,1564,1564,1564,1564,1557,1557,1550,1550,1550,1550,1543,1543,1550,1550,1543,1543,1543,1543,1550,1543,1536,1536,1536,1523,1523,1516,1516,1516,1516,1516,1516,0,0,0,0,0,0,0,896,896,894,894,894,894,891,889,889,889,887,887,885,885,885,882,882,882,885,885,887,889,894,896,898,901,901,901,901,0,0,0,0,0,1439,1439,1439,1433,1433,1433,1433,1427,1427,1421,1421,1421,1421,1415,1415,1415,1415,1415,1410,1410,1410,1410,1404,1398,1398,1398,1398,1392,1392,1392,1392,1392,1387,1387,1387,1387,1381,1376,1376,1376,1376,1370,1370,1370,1365,1365,1365,1359,1359,1359,1354,1354,1349,1349,1349,1343,1343,1343,1338,1338,1338,1333,1333,1333,1333,1333,1333,1328,1328,1328,1322,1322,1322,1322,1322,1317,1317,1312,1312,1312,1307,1307,1307,1302,1297,1297,1297,1292,1292,1292,1292,1288,1288,1288,1288,1288,1283,1283,1283,1283,1278,1278,1273,1273,1273,1268,1268,1268,1268,1268,1264,1264,1264,1259,1255,1255,1255,1255,1250,1250,1250,1250,1250,1245,1245,1245,1245,1236,1236,1236,1236,1232,1232,1232,1227,1227,1223,1223,1223,1223,1223,1219,1219,1219,1219,1219,1214,1214,1214,1214,1214,1210,1206,1206,1206,1202,1202,1202,1202,1202,1202,1197,1197,1197,1197,1197,1193,1193,1189,1185,1185,1185,1185,1185,1181,1181,1181,1181,1177,1177,1177,1173,1169,1169,1169,1169,1169,1169,1169,1165,1165,1165,1165,1165,1161,1161,1161,1157,1157,1153,1153,1153,1149,1149,1149,1149,1149,1149,1145,1145,1145,1141,1141,1138,1138,1138,1138,1134,1134,1134,1130,1130,1130,1126,1126,1126,1123,1123,1123,1119,1119,1119,1119,0,0,0,0,0,0,0,0,0,0,0,0,0,0,0,0,0,0,0,0,0,0,0,0,0,0,0,0
0,0,0,0,0,0,0,0,0,0,0,0,0,0,1564,1564,1564,1564,1564,1564,1564,1564,1564,1557,1557,1557,1550,1550,1557,1557,1557,1557,1557,1550,1550,1557,1557,1550,1550,1550,1543,1543,1543,1550,1550,1550,1550,1550,1543,1543,1543,1543,1543,1543,1543,1543,1550,1550,1550,1550,1543,1543,1543,1543,1543,1536,1536,1543,1543,1543,1536,1536,1536,1536,1536,1536,1536,1536,1543,1550,1550,1550,1557,1564,1564,1564,1572,1579,1616,1616,1624,1624,1632,1624,1616,1616,1601,1601,1594,1594,1594,1594,1594,1594,1594,1594,1594,1586,1579,1579,1564,1564,1572,1564,1564,1564,1564,1564,1564,1564,1564,1564,1572,1572,1572,1572,1579,1579,1586,1586,1586,1594,1594,1594,1601,1601,1601,1601,1609,1609,1609,1624,1624,1624,1632,1632,1632,1639,1639,1639,1647,1647,1647,1655,1655,1663,1663,1671,1671,1671,1671,1671,1671,1671,1680,1680,1688,1688,1688,1688,1696,1696,1696,1705,1705,1722,1722,1722,1722,1731,1731,1731,1739,1739,1748,1748,1748,1757,1757,1757,1766,1766,1776,1776,1776,1776,1785,1785,1794,1794,1794,1794,1785,1785,1794,1776,1776,0,0,0,0,0,0,1063,1063,1063,1060,1060,1057,1057,1054,1054,1054,1054,1054,1054,1054,1054,1057,1057,1060,1060,1063,1063,1067,1067,1070,1073,1077,1077,0,0,0,1696,1696,1696,1696,1696,1696,1688,1688,1688,1688,1688,1680,1680,1671,1671,1663,1663,1663,1663,1663,1663,1663,1655,1655,1655,1655,1647,1639,1632,1632,1632,1632,1632,1632,1632,1624,1624,1624,1624,1624,1616,1609,1609,1609,1609,1601,1601,1601,1601,1594,1594,1594,1594,1594,1586,1586,1579,1579,1579,1572,1572,1572,1572,1572,1564,1564,1564,1564,1557,1557,1550,1550,1550,1550,1543,1543,1550,1550,1550,1550,1550,1550,1550,1543,1543,1536,1536,1523,1523,1516,1516,1516,1516,1516,1516,1516,0,0,0,0,0,0,898,896,896,894,894,894,891,889,889,889,887,887,887,885,885,885,885,885,885,885,887,889,894,896,901,901,901,901,901,0,0,0,0,0,1439,1439,1439,1433,1433,1433,1433,1427,1427,1427,1427,1421,1421,1421,1415,1415,1415,1415,1415,1410,1410,1410,1410,1404,1398,1398,1398,1398,1392,1392,1392,1392,1387,1387,1387,1387,1387,1381,1381,1376,1376,1376,1370,1370,1370,1365,1365,1365,1365,1359,1359,1354,1354,1354,1349,1349,1349,1343,1343,1343,1343,1333,1333,1333,1333,1333,1333,1333,1328,1328,1328,1322,1322,1322,1322,1317,1317,1312,1312,1312,1307,1307,1307,1302,1297,1297,1297,1292,1292,1292,1292,1292,1292,1292,1288,1288,1288,1283,1283,1283,1278,1278,1273,1273,1273,1273,1273,1273,1268,1268,1268,1268,1268,1259,1255,1255,1255,1255,1255,1250,1250,1250,1250,1245,1245,1245,1245,1236,1236,1236,1236,1232,1232,1232,1232,1232,1227,1227,1227,1227,1223,1223,1223,1219,1219,1219,1219,1219,1214,1214,1214,1210,1210,1210,1206,1202,1202,1202,1202,1202,1202,1202,1202,1197,1197,1197,1193,1193,1189,1189,1185,1185,1185,1185,1181,1181,1181,1181,1177,1177,1177,1177,1173,1169,1169,1169,1169,1169,1169,1165,1165,1165,1165,1165,1161,1161,1161,1161,1157,1157,1153,1153,1149,1149,1149,1149,1149,1149,1145,1145,1145,1141,1141,1138,1138,1138,1138,1134,1134,1134,1130,1130,1130,1126,1126,1126,1126,1123,1123,1123,1119,1119,1119,0,0,0,0,0,0,0,0,0,0,0,0,0,0,0,0,0,0,0,0,0,0,0,0,0,0,0,0
0,0,0,0,0,0,0,0,0,0,0,0,0,0,1564,1564,1564,1564,1564,1564,1564,1564,1564,1564,1564,1564,1557,1557,1557,1557,1557,1557,1557,1550,1550,1557,1557,1550,1550,1550,1550,1550,1550,1550,1550,1557,1557,1550,1550,1543,1543,1543,1543,1543,1543,1550,1550,1550,1550,1550,1543,1543,1543,1543,1543,1536,1536,1543,1543,1543,1536,1536,1536,1536,1536,1536,1536,1536,1543,1550,1550,1557,1557,1564,1564,1564,1572,1572,1601,1616,1624,1624,1936,1926,1926,1926,1601,1601,1594,1594,1894,1894,1894,1894,1894,1601,1594,1594,1586,1579,1564,1564,1572,1564,1564,1564,1564,1564,1564,1564,1564,1564,1572,1572,1572,1572,1579,1579,1586,1586,1586,1594,1594,1594,1601,1601,1601,1601,1609,1609,1616,1624,1624,1632,1632,1632,1639,1639,1639,1639,1647,1647,1647,1655,1655,1663,1663,1671,1671,1671,1671,1671,1671,1671,1680,1688,1688,1688,1688,1696,1696,1696,1696,1705,1705,1722,1722,1731,1731,1731,1731,1739,1739,1739,1748,1748,1757,1757,1757,1757,1766,1766,1776,1776,1776,1776,1785,1785,1794,1794,1794,1794,1794,1794,1794,1776,1776,0,0,0,0,0,0,1063,1063,1063,1063,1060,1057,1057,1057,1054,1054,1054,1054,1054,1054,1054,1057,1057,1060,1060,1063,1063,1067,1067,1073,1073,1077,1077,0,0,0,1696,1696,1696,1696,1696,1696,1696,1696,1688,1688,1688,1688,1680,1680,1671,1671,1671,1671,1671,1663,1663,1663,1663,1663,1655,1655,1655,1639,1639,1639,1639,1639,1632,1632,1632,1632,1624,1624,1624,1624,1616,1609,1609,1609,1609,1601,1601,1601,1601,1601,1601,1594,1594,1594,1586,1586,1586,1586,1579,1579,1572,1572,1572,1572,1572,1564,1564,1564,1564,1564,1550,1550,1550,1550,1550,1550,1557,1557,1550,1550,1550,1550,1550,1543,1543,1543,1536,1529,1523,1523,1516,1516,1516,1516,1516,1516,0,0,0,0,0,0,898,896,896,896,896,894,891,891,889,889,889,887,887,885,885,885,885,885,885,885,887,889,894,896,901,901,901,901,901,0,0,0,0,0,1439,1439,1439,1433,1433,1439,1433,1433,1427,1427,1427,1421,1421,1421,1421,1415,1415,1415,1415,1415,1410,1410,1404,1404,1404,1398,1398,1398,1398,1392,1392,1392,1387,1387,1387,1387,1381,1381,1381,1376,1376,1376,1376,1370,1370,1370,1365,1365,1365,1365,1359,1359,1354,1354,1354,1349,1349,1343,1343,1343,1343,1333,1333,1338,1338,1333,1333,1333,1333,1328,1328,1328,1328,1322,1322,1322,1317,1317,1312,1312,1312,1307,1307,1302,1302,1297,1297,1292,1292,1292,1292,1292,1292,1292,1292,1292,1288,1288,1283,1283,1278,1278,1273,1273,1273,1273,1268,1268,1268,1268,1268,1268,1264,1259,1255,1255,1255,1255,1255,1250,1250,1250,1250,1250,1250,1250,1245,1241,1236,1236,1236,1236,1232,1232,1232,1232,1232,1227,1227,1227,1223,1223,1223,1223,1219,1219,1219,1219,1214,1214,1214,1214,1210,1210,1206,1202,1202,1202,1202,1202,1202,1202,1202,1197,1197,1197,1193,1193,1193,1189,1185,1185,1185,1185,1181,1181,1181,1181,1177,1177,1177,1177,1173,1173,1169,1169,1169,1169,1169,1165,1165,1165,1165,1165,1165,1161,1161,1161,1161,1157,1153,1153,1153,1149,1149,1149,1149,1149,1149,1149,1145,1145,1141,1138,1138,1138,1138,1134,1134,1134,1134,1134,1134,1130,1126,1126,1126,1126,1123,1123,1123,1123,1123,0,0,0,0,0,0,0,0,0,0,0,0,0,0,0,0,0,0,0,0,0,0,0,0,0,0,0,0
0,0,0,0,0,0,0,0,0,0,0,0,0,0,1564,1564,1564,1564,1564,1564,1564,1564,1564,1564,1564,1564,1564,1564,1564,1564,1564,1564,1564,1550,1550,1557,1557,1550,1550,1550,1550,1550,1550,1550,1550,1557,1557,1550,1550,1543,1543,1543,1543,1550,1550,1550,1557,1557,1557,1557,1550,1543,1543,1543,1543,1536,1536,1543,1543,1543,1536,1536,1536,1536,1543,1543,1543,1543,1550,1557,1557,1557,1557,1564,1564,1564,1572,1572,1594,1624,1624,1936,1936,1936,1926,1915,1915,1915,1894,1883,1883,1894,1894,1894,1894,1894,1883,1601,1594,1586,1572,1572,1572,1564,1564,1564,1564,1564,1564,1564,1564,1572,1572,1572,1572,1572,1579,1579,1579,1586,1594,1594,1594,1594,1601,1601,1601,1609,1609,1609,1616,1624,1624,1632,1632,1632,1639,1639,1639,1639,1647,1647,1647,1655,1655,1663,1663,1671,1671,1680,1680,1671,1671,1680,1680,1688,1688,1688,1688,1696,1696,1696,1696,1705,1705,1722,1722,1731,1731,1731,1731,1739,1739,1748,1748,1748,1757,1757,1757,1757,1766,1766,1776,1776,1776,1785,1785,1794,1794,1794,1794,1794,1794,1794,1794,0,0,0,0,0,0,0,0,1063,1063,1063,1063,1060,1057,1057,1057,1054,1054,1054,1054,1054,1054,1054,1057,1057,1060,1063,1063,1063,1067,1067,1073,1073,1073,1077,1077,1077,0,1705,1705,1696,1696,1696,1696,1696,1696,1696,1688,1688,1688,1688,1680,1680,1680,1680,1671,1671,1671,1663,1663,1663,1663,1655,1655,1655,1647,1647,1639,1639,1639,1639,1632,1632,1632,1632,1624,1624,1624,1616,1609,1609,1624,1616,1609,1609,1601,1601,1601,1601,1594,1594,1594,1594,1594,1586,1586,1586,1579,1579,1579,1572,1572,1572,1564,1564,1564,1564,1557,1557,1557,1557,1550,1550,1550,1557,1557,1550,1550,1550,1550,1550,1543,1543,1543,1543,1529,1529,1523,1523,1516,1516,1516,1516,1516,0,0,0,0,0,0,898,898,896,896,896,896,894,891,891,889,889,887,887,887,887,885,885,885,887,887,889,891,896,898,901,903,903,903,903,0,0,0,0,0,1439,1439,1439,1439,1439,1439,1439,1433,1433,1427,1427,1427,1421,1421,1421,1421,1415,1415,1415,1415,1415,1410,1404,1404,1404,1398,1398,1398,1398,1392,1392,1392,1387,1387,1387,1387,1381,1381,1381,1376,1376,1376,1376,1370,1370,1370,1370,1370,1370,1365,1365,1365,1359,1359,1354,1354,1349,1349,1349,1349,1343,1343,1343,1338,1338,1338,1333,1333,1333,1328,1328,1328,1328,1328,1322,1322,1317,1317,1312,1312,1312,1312,1307,1307,1302,1302,1302,1297,1297,1297,1297,1292,1292,1292,1292,1292,1288,1288,1288,1283,1278,1278,1273,1273,1273,1273,1268,1268,1268,1268,1268,1268,1264,1259,1259,1259,1255,1255,1255,1255,1250,1250,1250,1250,1250,1250,1245,1245,1241,1241,1236,1236,1232,1232,1232,1232,1232,1227,1227,1227,1223,1223,1223,1223,1223,1219,1219,1219,1214,1214,1214,1214,1210,1210,1210,1202,1202,1202,1202,1197,1197,1197,1202,1202,1197,1197,1193,1193,1193,1189,1185,1185,1185,1185,1181,1181,1181,1181,1177,1177,1177,1177,1173,1173,1169,1169,1169,1169,1169,1169,1169,1165,1165,1165,1165,1165,1161,1161,1161,1157,1157,1153,1153,1149,1149,1149,1149,1149,1149,1149,1149,1145,1141,1138,1138,1138,1138,1134,1134,1134,1134,1134,1134,1130,1130,1130,1126,1126,1126,1123,1123,1123,1123,0,0,0,0,0,0,0,0,0,0,0,0,0,0,0,0,0,0,0,0,0,0,0,0,0,0,0,0
0,0,0,0,0,0,0,0,0,0,0,0,0,0,1572,1564,1564,1564,1564,1564,1564,1564,1564,1564,1564,1564,1564,1564,1564,1564,1564,1564,1564,1550,1550,1557,1557,1557,1550,1550,1550,1550,1550,1550,1550,1557,1557,1557,1557,1550,1543,1543,1550,1550,1557,1557,1557,1557,1557,1550,1550,1543,1543,1543,1543,1543,1543,1543,1543,1543,1543,1536,1536,1536,1543,1543,1543,1543,1550,1557,1557,1557,1557,1564,1564,1564,1572,1579,1594,1616,1616,1959,1959,1947,1915,1904,1904,1894,1894,1883,1883,1883,1883,1894,1883,1883,1883,1883,1883,1586,1572,1572,1572,1564,1564,1572,1572,1572,1572,1572,1572,1572,1572,1572,1572,1579,1579,1579,1579,1586,1594,1594,1594,1594,1601,1601,1601,1609,1609,1609,1616,1616,1624,1624,1632,1632,1639,1639,1639,1647,1647,1647,1647,1655,1655,1663,1663,1671,1671,1680,1680,1680,1680,1680,1680,1688,1688,1696,1696,1696,1696,1696,1705,1705,1713,1722,1722,1731,1731,1731,1731,1739,1739,1748,1748,1748,1757,1757,1757,1757,1766,1766,1766,1776,1776,1785,1785,1794,1794,1794,1794,1794,1794,1794,1794,0,0,0,0,0,0,0,0,0,1063,1063,1063,1060,1060,1060,1057,1057,1054,1054,1054,1054,1054,1057,1057,1060,1060,1063,1063,1067,1067,1070,1073,1073,1073,1077,1077,1077,0,1705,1705,1705,1705,1696,1696,1696,1696,1696,1696,1688,1688,1688,1680,1680,1680,1680,1680,1671,1671,1663,1663,1663,1663,1655,1655,1655,1647,1647,1647,1647,1647,1639,1639,1632,1632,1632,1632,1624,1624,1616,1616,1616,1616,1624,1616,1609,1609,1601,1601,1601,1594,1594,1594,1594,1594,1594,1594,1586,1586,1586,1586,1579,1579,1572,1572,1572,1572,1564,1557,1557,1557,1557,1550,1550,1550,1557,1550,1550,1550,1550,1550,1550,1543,1543,1543,1543,1529,1529,1523,1523,1516,1516,1516,1516,1516,0,0,0,0,0,0,898,898,896,896,896,896,894,894,891,891,889,889,887,887,887,887,887,887,887,887,889,891,896,898,901,903,903,903,906,0,0,0,0,0,1439,1439,1439,1439,1439,1439,1439,1439,1433,1433,1433,1427,1421,1421,1421,1421,1421,1415,1415,1415,1415,1410,1404,1404,1404,1404,1398,1398,1398,1392,1392,1392,1387,1387,1387,1387,1387,1381,1381,1376,1376,1376,1376,1370,1370,1370,1370,1370,1370,1370,1365,1365,1365,1359,1354,1354,1354,1349,1349,1349,1349,1349,1343,1343,1338,1338,1333,1333,1333,1333,1328,1328,1328,1328,1322,1322,1317,1317,1317,1312,1312,1312,1312,1307,1307,1302,1302,1297,1297,1297,1297,1297,1292,1292,1292,1292,1288,1288,1288,1283,1283,1278,1278,1273,1273,1273,1273,1273,1268,1268,1268,1268,1268,1264,1259,1259,1255,1255,1255,1255,1255,1250,1250,1250,1250,1250,1245,1245,1245,1241,1241,1236,1236,1232,1232,1232,1232,1232,1227,1227,1227,1227,1223,1223,1223,1223,1219,1219,1214,1214,1214,1214,1214,1214,1210,1202,1202,1202,1202,1197,1197,1197,1202,1202,1197,1197,1197,1193,1193,1189,1189,1185,1185,1185,1185,1181,1181,1181,1177,1177,1177,1177,1173,1173,1169,1169,1173,1169,1169,1169,1169,1169,1169,1165,1165,1165,1161,1161,1157,1157,1157,1153,1153,1153,1149,1149,1149,1149,1149,1149,1149,1145,1141,1138,1138,1138,1138,1134,1134,1134,1134,1134,1134,1130,1130,1130,1126,1126,1126,1126,1123,1123,1123,0,0,0,0,0,0,0,0,0,0,0,0,0,0,0,0,0,0,0,0,0,0,0,0,0,0,0,0
0,0,0,0,0,0,0,0,0,0,0,0,0,0,1572,1572,1572,1572,1564,1564,1564,1564,1564,1564,1564,1564,1564,1564,1564,1564,1564,1564,1564,1557,1557,1557,1557,1557,1557,1550,1550,1550,1550,1550,1550,1550,1557,1557,1557,1550,1550,1550,1550,1557,1557,1557,1557,1557,1557,1550,1550,1550,1550,1550,1550,1550,1550,1550,1550,1550,1543,1543,1536,1536,1543,1543,1543,1550,1550,1557,1557,1564,1564,1564,1564,1572,1572,1579,1594,1616,1616,1624,1959,1915,1904,1894,1894,1894,1883,1883,1883,1883,1883,1883,1883,1883,1883,1883,1873,1873,1873,1873,1572,1564,1564,1572,1572,1572,1572,1572,1572,1572,1572,1572,1579,1579,1579,1579,1579,1586,1594,1594,1594,1594,1601,1601,1601,1609,1609,1609,1616,1616,1624,1624,1632,1632,1639,1639,1639,1647,1647,1655,1655,1655,1663,1663,1663,1671,1671,1680,1680,1680,1680,1680,1688,1688,1696,1696,1696,1696,1705,1705,1705,1705,1713,1722,1722,1731,1731,1731,1731,1739,1739,1748,1748,1748,1757,1757,1757,1757,1766,1766,1766,1776,1776,1785,1785,1794,1794,1794,1794,1794,1794,1794,1794,0,0,0,0,0,0,0,0,0,1063,1063,1063,1060,1060,1060,1057,1057,1057,1054,1054,1054,1054,1057,1057,1060,1060,1063,1063,1067,1067,1070,1073,1073,1073,1077,1077,1077,0,0,1713,1713,1705,1705,1705,1696,1696,1696,1696,1696,1688,1688,1680,1680,1680,1680,1688,1671,1671,1671,1663,1663,1663,1655,1655,1655,1655,1655,1655,1647,1647,1647,1639,1639,1632,1632,1632,1632,1624,1624,1616,1616,1616,1616,1609,1609,1609,1601,1601,1601,1601,1601,1601,1594,1594,1594,1594,1594,1586,1586,1586,1579,1579,1572,1572,1572,1572,1564,1564,1564,1557,1557,1550,1550,1550,1557,1550,1550,1550,1550,1550,1550,1550,1543,1543,1536,1536,1529,1523,1523,1516,1516,1516,1516,0,0,0,0,0,0,0,898,898,896,896,896,896,894,894,891,891,889,889,887,887,887,887,887,887,887,887,889,891,896,898,901,903,903,906,906,0,0,0,0,1439,1439,1439,1439,1439,1439,1439,1439,1439,1433,1433,1433,1427,1427,1421,1421,1421,1421,1415,1415,1415,1415,1410,1410,1404,1404,1404,1398,1398,1398,1392,1392,1392,1392,1387,1387,1387,1387,1381,1381,1376,1376,1376,1376,1370,1370,1370,1370,1370,1370,1370,1370,1370,1365,1359,1354,1354,1354,1354,1349,1349,1349,1349,1343,1343,1343,1338,1333,1333,1333,1333,1328,1328,1328,1328,1322,1322,1317,1317,1317,1312,1312,1312,1312,1307,1307,1307,1302,1302,1302,1297,1297,1297,1292,1292,1292,1292,1288,1288,1288,1283,1283,1278,1278,1273,1273,1273,1273,1273,1273,1273,1268,1268,1268,1264,1259,1259,1259,1255,1255,1255,1255,1255,1250,1250,1250,1250,1245,1245,1245,1241,1241,1236,1236,1236,1236,1232,1232,1232,1232,1227,1227,1227,1223,1223,1223,1219,1219,1219,1219,1214,1214,1214,1214,1214,1210,1206,1206,1206,1202,1202,1197,1197,1202,1202,1197,1197,1193,1193,1193,1193,1189,1189,1185,1185,1185,1181,1181,1181,1181,1177,1177,1177,1177,1173,1173,1173,1173,1173,1173,1169,1169,1169,1169,1165,1165,1161,1161,1161,1157,1157,1157,1153,1153,1153,1153,1149,1149,1149,1149,1149,1149,1145,1141,1141,1138,1138,1138,1134,1134,1134,1134,1134,1134,1134,1130,1130,1130,1126,1126,1126,1126,1123,1123,0,0,0,0,0,0,0,0,0,0,0,0,0,0,0,0,0,0,0,0,0,0,0,0,0,0,0,0
0,0,0,0,0,0,0,0,0,0,0,0,0,0,1572,1572,1572,1572,1564,1564,1564,1564,1564,1564,1564,1564,1564,1564,1564,1564,1564,1564,1564,1564,1564,1557,1557,1557,1557,1550,1550,1550,1550,1550,1550,1550,1557,1557,1557,1557,1557,1557,1557,1557,1557,1557,1557,1557,1557,1550,1550,1550,1550,1550,1550,1550,1550,1550,1550,1550,1543,1543,1543,1543,1550,1550,1543,1543,1550,1557,1557,1564,1564,1564,1564,1572,1572,1579,1594,1616,1616,1616,1904,1904,1883,1883,1883,1873,1873,1873,1873,1873,1873,1883,1883,1883,1883,1883,1873,1873,1873,1873,1564,1564,1564,1572,1572,1572,1572,1572,1572,1572,1572,1572,1579,1579,1579,1579,1586,1594,1594,1594,1594,1594,1601,1601,1601,1609,1609,1609,1616,1616,1624,1624,1632,1639,1639,1639,1639,1647,1655,1655,1655,1655,1663,1663,1663,1671,1671,1680,1688,1688,1688,1688,1688,1688,1696,1696,1696,1696,1705,1705,1705,1713,1722,1722,1731,1731,1731,1731,1739,1739,1739,1748,1748,1748,1757,1757,1757,1757,1766,1766,1766,1776,1776,1785,1794,1794,1794,1804,1804,1804,1794,1794,1804,0,0,0,0,0,0,0,0,0,0,1063,1063,1063,1060,1060,1060,1057,1057,1054,1054,1057,1057,1057,1057,1060,1063,1063,1067,1067,1067,1070,1073,1073,1073,1077,1077,1077,0,1731,1722,1722,1713,1705,1705,1696,1696,1696,1696,1696,1688,1688,1688,1688,1688,1688,1688,1688,1688,1671,1671,1671,1663,1663,1663,1663,1655,1655,1655,1647,1647,1647,1639,1639,1639,1632,1632,1632,1624,1624,1616,1616,1616,1616,1609,1609,1609,1601,1601,1601,1601,1601,1601,1594,1594,1594,1594,1594,1586,1586,1586,1586,1579,1579,1572,1572,1572,1572,1564,1564,1564,1557,1557,1557,1557,1557,1557,1550,1550,1550,1550,1550,1550,1543,1543,1536,1536,1529,1529,1523,1516,1516,1516,1516,0,0,0,0,0,0,0,898,898,896,896,896,896,896,894,891,891,889,889,887,887,887,887,887,887,887,889,891,891,896,898,903,903,906,906,0,0,0,0,0,1439,1439,1439,1439,1439,1439,1439,1439,1439,1439,1433,1433,1427,1427,1421,1421,1421,1421,1421,1415,1415,1415,1410,1410,1404,1404,1404,1404,1398,1398,1392,1392,1392,1392,1387,1387,1387,1387,1381,1381,1376,1376,1376,1376,1370,1370,1370,1370,1370,1370,1370,1370,1370,1365,1365,1354,1354,1354,1354,1354,1349,1349,1349,1349,1349,1343,1338,1338,1333,1333,1333,1333,1333,1328,1328,1328,1322,1322,1317,1317,1312,1312,1312,1312,1307,1307,1307,1302,1302,1302,1302,1302,1297,1292,1292,1292,1292,1288,1288,1288,1288,1283,1283,1278,1278,1273,1273,1273,1273,1273,1273,1268,1268,1268,1264,1264,1264,1259,1259,1255,1255,1255,1255,1250,1250,1250,1250,1245,1245,1245,1245,1245,1241,1236,1236,1236,1236,1232,1232,1232,1227,1227,1227,1223,1223,1223,1219,1219,1219,1219,1214,1214,1214,1214,1214,1214,1210,1206,1206,1206,1202,1202,1202,1202,1202,1197,1197,1193,1193,1193,1193,1189,1189,1185,1185,1185,1181,1181,1181,1181,1177,1177,1177,1177,1173,1173,1173,1173,1173,1173,1169,1169,1169,1169,1165,1165,1161,1161,1161,1157,1157,1157,1153,1153,1153,1153,1153,1153,1149,1149,1149,1149,1145,1145,1141,1138,1138,1138,1138,1138,1138,1138,1138,1134,1134,1134,1134,1134,1130,1130,1130,1126,1123,1123,0,0,0,0,0,0,0,0,0,0,0,0,0,0,0,0,0,0,0,0,0,0,0,0,0,0,0,0
0,0,0,0,0,0,0,0,0,0,0,0,0,0,1572,1572,1572,1572,1564,1564,1564,1564,1564,1564,1564,1572,1572,1572,1564,1564,1564,1564,1564,1564,1564,1564,1564,1564,1564,1557,1557,1557,1557,1557,1557,1557,1557,1557,1557,1557,1557,1557,1557,1564,1557,1557,1557,1557,1557,1557,1557,1557,1557,1550,1550,1550,1550,1550,1550,1550,1550,1543,1543,1543,1543,1550,1543,1543,1557,1557,1557,1557,1557,1564,1564,1564,1572,1579,1594,1609,1609,1609,1904,1904,1863,1863,1853,1853,1843,1843,1863,1873,1873,1873,1873,1873,1873,1663,1663,1663,1671,1671,1688,1688,1572,1572,1572,1572,1572,1572,1572,1572,1572,1572,1572,1579,1579,1586,1586,1594,1594,1594,1594,1601,1601,1601,1601,1609,1609,1609,1616,1624,1632,1632,1632,1639,1639,1639,1639,1647,1655,1655,1655,1655,1663,1663,1663,1671,1671,1680,1688,1688,1688,1688,1688,1696,1696,1696,1696,1696,1705,1705,1713,1713,1722,1731,1731,1731,1731,1739,1739,1739,1739,1748,1748,1748,1757,1757,1757,1757,1766,1766,1766,1776,1776,1785,1794,1794,1804,1804,1804,1804,1804,1804,1804,0,0,0,0,0,0,0,0,0,0,1067,1063,1063,1063,1060,1060,1060,1057,1057,1057,1057,1057,1057,1057,1060,1063,1063,1067,1067,1067,1070,1073,1073,1073,1073,1077,1077,1073,1731,1731,1722,1722,1713,1705,1705,1705,1696,1696,1696,1696,1688,1688,1688,1688,1688,1688,1688,1680,1680,1680,1680,1671,1663,1663,1663,1655,1655,1655,1655,1655,1647,1647,1639,1639,1639,1632,1632,1632,1624,1624,1624,1624,1624,1616,1616,1609,1609,1601,1601,1601,1601,1601,1601,1594,1594,1594,1594,1594,1594,1586,1586,1586,1579,1572,1572,1572,1572,1564,1564,1564,1564,1564,1557,1557,1564,1557,1557,1557,1557,1550,1550,1550,1543,1543,1536,1536,1529,1529,1523,1523,1516,1516,1516,0,0,0,0,0,0,0,898,898,898,898,896,896,896,894,891,891,889,889,887,887,887,887,887,887,887,889,891,894,898,901,906,906,906,908,0,0,0,0,0,1439,1439,1439,1445,1445,1439,1439,1439,1439,1439,1439,1433,1427,1427,1421,1421,1421,1421,1421,1415,1415,1415,1410,1410,1404,1404,1404,1404,1398,1398,1398,1398,1392,1392,1392,1387,1387,1387,1381,1381,1381,1376,1376,1376,1376,1376,1376,1370,1370,1370,1370,1370,1370,1365,1359,1359,1354,1354,1354,1354,1354,1349,1349,1349,1349,1343,1343,1338,1338,1333,1333,1333,1333,1328,1328,1328,1328,1322,1317,1317,1317,1317,1317,1312,1312,1312,1307,1307,1302,1302,1302,1302,1297,1297,1292,1292,1292,1292,1288,1288,1288,1283,1283,1278,1278,1273,1273,1273,1273,1273,1273,1268,1268,1268,1264,1264,1264,1259,1259,1259,1259,1255,1255,1255,1250,1250,1250,1250,1250,1250,1245,1245,1241,1241,1236,1236,1236,1236,1232,1232,1227,1227,1227,1223,1223,1223,1219,1219,1219,1219,1214,1214,1214,1214,1214,1214,1210,1210,1206,1202,1202,1202,1202,1202,1202,1197,1197,1197,1197,1193,1193,1189,1189,1185,1185,1185,1181,1181,1181,1181,1177,1177,1177,1177,1177,1173,1173,1173,1173,1173,1173,1169,1169,1169,1165,1165,1161,1161,1161,1157,1157,1157,1153,1153,1153,1153,1153,1153,1149,1149,1149,1149,1149,1145,1141,1141,1138,1138,1138,1138,1138,1138,1138,1134,1134,1134,1134,1134,1134,1130,1130,1126,1126,1126,0,0,0,0,0,0,0,0,0,0,0,0,0,0,0,0,0,0,0,0,0,0,0,0,0,0,0,0
0,0,0,0,0,0,0,0,0,0,0,0,0,0,1572,1572,1572,1572,1572,1572,1572,1572,1572,1572,1572,1572,1572,1572,1564,1564,1564,1564,1564,1564,1564,1564,1564,1564,1557,1557,1557,1557,1557,1564,1564,1557,1557,1557,1557,1557,1557,1557,1557,1564,1557,1557,1557,1557,1557,1557,1557,1557,1557,1557,1557,1557,1557,1557,1550,1550,1550,1543,1543,1543,1543,1550,1550,1550,1557,1557,1557,1557,1557,1564,1564,1564,1572,1579,1586,1594,1601,1601,1843,1843,1843,1843,1843,1833,1813,1813,1833,1833,1863,1688,1680,1680,1671,1663,1663,1663,1671,1671,1680,1680,1579,1572,1572,1572,1572,1572,1572,1572,1572,1572,1572,1579,1579,1586,1586,1594,1594,1594,1594,1601,1601,1601,1609,1609,1609,1609,1624,1624,1632,1632,1632,1639,1639,1639,1639,1647,1655,1655,1655,1655,1663,1663,1663,1671,1671,1680,1680,1688,1688,1688,1688,1696,1696,1696,1696,1705,1705,1705,1713,1722,1722,1731,1731,1731,1731,1739,1739,1748,1748,1748,1748,1757,1757,1757,1757,1757,1766,1766,1766,1776,1785,1785,1794,1794,1804,1804,1804,1804,1804,1804,0,0,0,0,0,0,0,0,0,0,0,1067,1067,1063,1063,1063,1060,1060,1057,1057,1057,1057,1057,1057,1057,1060,1063,1063,1063,1067,1067,1067,1070,1070,1070,1070,1073,1073,1073,1731,1731,1722,1722,1713,1705,1705,1705,1696,1696,1696,1696,1696,1688,1688,1688,1688,1688,1688,1680,1680,1680,1680,1671,1671,1663,1663,1663,1655,1655,1655,1655,1655,1655,1655,1639,1639,1632,1632,1632,1624,1624,1624,1624,1624,1624,1616,1609,1609,1609,1609,1601,1601,1601,1601,1601,1594,1594,1594,1594,1594,1594,1586,1586,1586,1579,1572,1572,1572,1572,1572,1564,1564,1564,1557,1557,1564,1557,1557,1557,1557,1557,1550,1550,1550,1543,1543,1536,1529,1529,1529,1523,1523,1523,0,0,0,0,0,0,0,0,898,898,898,898,898,896,896,896,891,891,889,889,887,887,887,887,887,887,889,889,891,896,898,903,906,906,906,908,0,0,0,0,0,1445,1445,1445,1445,1445,1445,1445,1439,1439,1439,1439,1433,1433,1427,1427,1421,1421,1421,1421,1415,1415,1415,1410,1410,1404,1404,1404,1404,1404,1398,1398,1398,1392,1392,1392,1392,1392,1387,1387,1381,1381,1376,1376,1376,1376,1376,1376,1376,1370,1370,1370,1370,1370,1365,1359,1359,1354,1354,1354,1354,1354,1349,1349,1349,1349,1349,1343,1338,1338,1333,1333,1333,1333,1333,1328,1328,1328,1322,1322,1322,1322,1322,1317,1312,1312,1312,1307,1307,1307,1307,1302,1302,1302,1297,1297,1292,1292,1292,1288,1288,1288,1283,1283,1278,1278,1273,1273,1273,1273,1273,1273,1273,1268,1268,1268,1268,1268,1264,1264,1259,1259,1259,1255,1255,1255,1255,1250,1250,1250,1250,1250,1245,1241,1241,1236,1236,1236,1236,1232,1232,1227,1227,1227,1227,1227,1223,1223,1219,1219,1219,1219,1214,1214,1214,1214,1214,1210,1210,1206,1202,1202,1202,1202,1202,1202,1197,1197,1197,1197,1193,1193,1193,1189,1185,1185,1185,1181,1181,1181,1181,1181,1181,1181,1177,1177,1177,1177,1173,1173,1173,1173,1173,1169,1169,1169,1169,1165,1165,1161,1157,1157,1157,1153,1153,1153,1153,1153,1153,1149,1149,1149,1149,1149,1145,1141,1141,1138,1138,1138,1138,1138,1138,1138,1138,1138,1134,1134,1134,1134,1134,1130,1130,1126,1126,0,0,0,0,0,0,0,0,0,0,0,0,0,0,0,0,0,0,0,0,0,0,0,0,0,0,0,0
0,0,0,0,0,0,0,0,0,0,0,0,0,0,1572,1572,1579,1572,1572,1572,1572,1572,1572,1572,1572,1572,1572,1572,1572,1572,1572,1572,1572,1572,1564,1564,1564,1564,1557,1557,1557,1557,1557,1557,1557,1564,1564,1564,1564,1564,1564,1564,1564,1564,1564,1557,1557,1557,1557,1557,1557,1557,1564,1564,1564,1557,1557,1557,1557,1550,1550,1550,1550,1550,1550,1550,1550,1557,1557,1557,1557,1557,1557,1564,1564,1564,1579,1579,1579,1579,1594,1594,1833,1833,1833,1823,1823,1813,1813,1804,1804,1804,1813,1688,1680,1680,1671,1663,1663,1671,1680,1680,1680,1680,1579,1579,1572,1572,1572,1572,1572,1572,1572,1572,1579,1579,1579,1586,1586,1594,1594,1594,1601,1601,1601,1601,1609,1616,1616,1616,1624,1632,1632,1632,1632,1639,1639,1639,1639,1647,1655,1655,1655,1655,1663,1663,1671,1671,1671,1680,1680,1688,1688,1688,1688,1696,1696,1696,1696,1705,1705,1705,1713,1722,1722,1731,1731,1731,1731,1739,1748,1748,1748,1748,1757,1757,1757,1757,1757,1766,1766,1776,1776,1785,1785,1794,1794,1804,1804,1804,1804,1804,1804,1804,0,0,0,0,0,0,0,0,0,0,1073,1070,1070,1067,1063,1063,1060,1060,1060,1057,1057,1057,1057,1057,1057,1060,1060,1063,1063,1063,1063,1063,1067,1067,1067,1067,1067,1067,1067,1054,1731,1731,1722,1713,1713,1713,1705,1705,1696,1696,1696,1696,1696,1688,1688,1688,1688,1688,1680,1680,1680,1680,1671,1671,1671,1663,1663,1663,1655,1655,1655,1655,1647,1647,1647,1647,1639,1639,1632,1632,1624,1624,1624,1624,1624,1616,1609,1609,1609,1609,1601,1601,1601,1601,1601,1594,1594,1594,1594,1594,1594,1586,1586,1586,1586,1579,1579,1572,1572,1572,1564,1564,1564,1564,1564,1564,1564,1557,1557,1557,1557,1550,1550,1550,1550,1543,1543,1536,1536,1529,1523,1523,1523,0,0,0,0,0,0,0,0,901,901,898,898,898,896,896,896,891,891,891,889,889,889,889,887,887,889,889,889,894,896,901,903,906,906,906,908,0,0,0,0,0,1445,1445,1452,1445,1445,1445,1445,1445,1439,1439,1439,1439,1433,1427,1427,1421,1421,1421,1421,1421,1415,1415,1410,1410,1404,1404,1404,1404,1404,1404,1398,1398,1398,1392,1392,1392,1392,1392,1392,1381,1381,1381,1381,1376,1376,1376,1376,1376,1376,1370,1370,1370,1370,1365,1359,1359,1354,1354,1354,1354,1354,1354,1349,1349,1349,1349,1343,1343,1338,1338,1333,1333,1333,1333,1328,1328,1328,1322,1322,1322,1322,1322,1322,1317,1317,1312,1312,1307,1307,1307,1302,1302,1302,1297,1297,1297,1292,1292,1292,1288,1288,1288,1283,1283,1283,1283,1278,1273,1273,1273,1273,1273,1268,1268,1268,1268,1268,1264,1264,1259,1259,1259,1259,1255,1255,1255,1250,1250,1250,1250,1250,1245,1245,1241,1241,1236,1236,1236,1232,1232,1232,1227,1227,1227,1227,1223,1223,1223,1219,1219,1219,1219,1219,1214,1214,1214,1210,1210,1206,1206,1206,1206,1202,1202,1202,1197,1197,1197,1197,1193,1193,1193,1193,1189,1185,1185,1185,1181,1181,1181,1181,1181,1181,1177,1177,1177,1177,1177,1177,1173,1173,1173,1169,1169,1169,1169,1165,1165,1165,1161,1161,1157,1157,1157,1153,1153,1153,1153,1149,1149,1149,1149,1149,1149,1145,1141,1141,1141,1138,1138,1138,1138,1138,1138,1138,1134,1134,1134,1134,1134,1130,1130,1126,1126,0,0,0,0,0,0,0,0,0,0,0,0,0,0,0,0,0,0,0,0,0,0,0,0,0,0,0,0
0,0,0,0,0,0,0,0,0,0,0,0,0,0,1572,1572,1579,1572,1572,1572,1572,1572,1572,1572,1572,1572,1572,1572,1572,1572,1572,1572,1572,1572,1572,1564,1564,1564,1564,1557,1557,1557,1557,1557,1557,1564,1564,1564,1564,1564,1564,1564,1564,1564,1564,1564,1557,1557,1557,1557,1557,1557,1564,1564,1564,1564,1564,1564,1564,1564,1564,1557,1550,1550,1557,1557,1557,1557,1557,1557,1557,1557,1557,1564,1564,1564,1572,1572,1579,1579,1594,1594,1813,1813,1813,1813,1813,1804,1804,1804,1804,1804,1731,1705,1688,1688,1688,1688,1688,1688,1688,1688,1680,1680,1609,1579,1579,1579,1579,1579,1579,1572,1572,1579,1579,1586,1586,1594,1594,1594,1594,1601,1601,1601,1601,1609,1616,1616,1624,1624,1624,1632,1632,1632,1632,1639,1639,1639,1639,1647,1655,1655,1655,1655,1663,1663,1671,1671,1671,1680,1680,1688,1688,1688,1688,1696,1696,1696,1696,1705,1705,1705,1713,1722,1722,1722,1731,1731,1731,1739,1748,1748,1748,1748,1757,1757,1757,1757,1757,1766,1766,1776,1776,1785,1785,1794,1794,1794,1804,1804,1804,1804,1804,0,0,0,0,0,0,0,0,0,0,0,1067,1067,1067,1067,1063,1063,1060,1060,1060,1057,1057,1057,1057,1057,1057,1057,1060,1060,1063,1063,1063,1063,1063,1063,1063,1060,1060,1060,1060,1054,1054,1054,1722,1713,1713,1713,1705,1705,1705,1705,1696,1696,1696,1696,1688,1688,1688,1688,1688,1680,1680,1680,1671,1671,1671,1663,1663,1663,1655,1655,1655,1655,1647,1647,1647,1647,1639,1639,1632,1632,1624,1624,1624,1624,1624,1624,1616,1609,1609,1609,1601,1601,1601,1601,1601,1601,1594,1594,1594,1594,1594,1586,1586,1586,1586,1579,1579,1579,1572,1572,1572,1564,1564,1564,1564,1564,1564,1557,1557,1557,1557,1550,1550,1550,1550,1543,1543,1536,1536,1536,1543,1543,0,0,0,0,0,0,0,0,0,901,901,901,898,898,898,896,896,891,891,891,889,889,889,889,889,889,889,889,891,894,898,903,906,906,906,908,908,0,0,0,0,0,1445,1445,1452,1452,1445,1445,1445,1445,1439,1439,1439,1439,1433,1427,1427,1427,1427,1421,1421,1421,1421,1415,1415,1410,1410,1410,1410,1404,1404,1404,1404,1398,1398,1398,1392,1392,1392,1392,1392,1387,1381,1381,1381,1376,1376,1376,1376,1376,1376,1376,1370,1370,1370,1365,1359,1359,1354,1354,1354,1354,1354,1354,1354,1349,1349,1349,1343,1343,1343,1338,1338,1333,1333,1333,1333,1328,1328,1328,1322,1322,1322,1322,1322,1322,1317,1312,1312,1307,1307,1307,1307,1307,1302,1297,1297,1297,1292,1292,1292,1288,1288,1288,1288,1288,1283,1283,1278,1273,1273,1273,1273,1273,1273,1268,1268,1268,1268,1264,1264,1259,1259,1259,1259,1255,1255,1255,1250,1250,1250,1250,1250,1245,1245,1245,1241,1241,1236,1236,1236,1232,1232,1232,1232,1232,1232,1227,1227,1223,1223,1219,1219,1219,1219,1219,1219,1214,1214,1210,1210,1210,1210,1206,1202,1202,1202,1197,1197,1197,1197,1197,1197,1193,1193,1193,1189,1185,1185,1185,1185,1181,1181,1181,1181,1181,1177,1177,1177,1177,1177,1173,1173,1173,1173,1169,1169,1169,1165,1165,1165,1161,1161,1157,1157,1157,1153,1153,1153,1153,1149,1149,1149,1149,1149,1149,1145,1145,1141,1141,1141,1138,1138,1138,1138,1138,1138,1134,1134,1134,1134,1134,1134,1130,1126,1126,0,0,0,0,0,0,0,0,0,0,0,0,0,0,0,0,0,0,0,0,0,0,0,0,0,0,0,0
0,0,0,0,0,0,0,0,0,0,0,0,0,0,1579,1579,1579,1572,1572,1572,1572,1572,1572,1572,1572,1572,1572,1572,1572,1572,1572,1572,1572,1572,1572,1564,1564,1564,1564,1564,1564,1564,1564,1564,1564,1564,1564,1564,1564,1564,1564,1564,1564,1564,1564,1564,1557,1557,1557,1557,1557,1564,1564,1564,1564,1564,1564,1564,1564,1564,1564,1564,1564,1564,1564,1557,1557,1557,1557,1557,1557,1557,1557,1564,1564,1564,1572,1572,1572,1572,1564,1564,1813,1804,1804,1804,1804,1804,1804,1794,1794,1794,1731,1713,1696,1696,1688,1688,1688,1688,1688,1680,1680,1671,1671,1586,1579,1579,1579,1579,1579,1579,1579,1579,1586,1586,1594,1594,1594,1594,1594,1601,1601,1601,1601,1609,1616,1616,1624,1624,1624,1632,1632,1632,1632,1639,1639,1639,1639,1647,1655,1655,1655,1655,1663,1671,1671,1671,1671,1680,1680,1688,1688,1688,1688,1696,1696,1696,1696,1705,1705,1705,1713,1722,1722,1722,1731,1731,1731,1739,1748,1748,1748,1748,1757,1757,1757,1757,1757,1766,1766,1776,1776,1785,1785,1794,1794,1794,1804,1804,1804,1804,1804,0,0,0,0,0,0,0,0,0,0,1063,1063,1067,1063,1063,1063,1060,1060,1060,1057,1057,1057,1057,1057,1057,1057,1057,1060,1060,1060,1063,1060,1060,1060,1060,1057,1050,1050,1050,1047,1047,1047,1047,1722,1713,1713,1713,1713,1705,1050,1050,1050,1696,1696,1696,1688,1688,1688,1688,1688,1680,1680,1680,1671,1671,1671,1663,1663,1655,1655,1655,1655,1655,1647,1647,1647,1647,1639,1639,1632,1632,1632,1624,1624,1624,1624,1624,1616,1616,1609,1609,1609,1609,1601,1601,1601,1601,1594,1594,1594,1594,1594,1586,1586,1586,1586,1579,1579,1579,1572,1572,1572,1564,1564,1564,1564,1564,1564,1564,1557,1557,1557,1550,1550,1550,1543,1543,1543,1536,1536,1543,1543,1543,1543,0,0,0,0,0,0,0,906,903,901,901,898,898,898,896,896,896,891,891,889,889,889,889,889,889,889,889,891,894,898,903,906,906,908,908,908,0,0,0,0,0,1464,1458,1458,1458,1452,1445,1445,1445,1445,1439,1439,1439,1439,1433,1433,1427,1427,1427,1421,1421,1421,1415,1415,1415,1410,1410,1410,1410,1410,1404,1404,1404,1398,1398,1398,1392,1392,1392,1392,1387,1387,1381,1381,1376,1376,1376,1376,1376,1376,1376,1370,1370,1370,1365,1359,1359,1359,1354,1354,1354,1354,1354,1354,1354,1349,1349,1349,1343,1343,1338,1338,1333,1333,1333,1333,1333,1328,1328,1328,1328,1328,1322,1322,1322,1317,1312,1312,1312,1307,1307,1307,1307,1307,1302,1302,1302,1292,1292,1292,1288,1288,1288,1288,1288,1288,1288,1283,1278,1278,1278,1278,1273,1273,1273,1268,1268,1268,1264,1264,1264,1259,1259,1259,1259,1255,1255,1255,1250,1250,1250,1250,1250,1245,1245,1245,1241,1236,1236,1236,1236,1232,1232,1232,1232,1232,1227,1227,1223,1223,1223,1219,1219,1219,1219,1219,1214,1214,1214,1210,1210,1210,1206,1206,1202,1202,1202,1202,1197,1197,1197,1197,1193,1193,1193,1189,1185,1185,1185,1185,1181,1181,1181,1181,1181,1181,1181,1177,1177,1177,1173,1173,1173,1173,1169,1169,1169,1165,1165,1165,1161,1161,1161,1157,1157,1157,1153,1153,1153,1153,1149,1149,1149,1149,1149,1145,1145,1145,1145,1141,1141,1138,1138,1138,1138,1138,1134,1134,1134,1134,1134,1134,1130,1126,1126,0,0,0,0,0,0,0,0,0,0,0,0,0,0,0,0,0,0,0,0,0,0,0,0,0,0,0,0
0,0,0,0,0,0,0,0,0,0,0,0,0,0,1579,1579,1579,1572,1572,1572,1572,1572,1572,1572,1572,1572,1572,1572,1572,1572,1572,1572,1572,1579,1572,1572,1572,1572,1564,1564,1564,1564,1564,1564,1564,1564,1564,1564,1564,1572,1564,1564,1564,1564,1564,1564,1564,1564,1557,1557,1564,1564,1564,1564,1564,1564,1564,1564,1564,1564,1564,1564,1564,1564,1564,1564,1564,1557,1557,1557,1557,1557,1557,1557,1557,1564,1572,1572,1572,1572,1564,1564,1804,1804,1794,1794,1794,1794,1794,1794,1785,1785,1731,1722,1705,1696,1696,1688,1688,1688,1688,1680,1671,1663,1632,1586,1579,1579,1586,1579,1579,1579,1579,1579,1586,1586,1594,1594,1594,1594,1601,1601,1601,1601,1601,1609,1616,1616,1624,1624,1624,1632,1632,1632,1632,1639,1639,1639,1639,1647,1647,1655,1655,1655,1663,1671,1671,1680,1680,1680,1680,1688,1688,1688,1688,1696,1696,1696,1705,1705,1705,1713,1722,1722,1722,1731,1731,1731,1731,1739,1748,1748,1748,1748,1757,1757,1757,1757,1757,1766,1766,1776,1776,1785,1785,1794,1794,1794,1804,1804,1804,1804,1804,0,0,0,0,0,0,0,0,1063,1063,1063,1063,1063,1063,1060,1060,1060,1057,1057,1057,1057,1057,1054,1054,1054,1057,1057,1057,1057,1057,1060,1057,1054,1050,1041,1041,1041,1041,1041,1041,1041,1041,1041,1041,1041,1047,1047,1047,1047,1047,1047,1047,1047,1696,1696,1688,1688,1688,1688,1688,1680,1680,1680,1671,1671,1671,1663,1663,1655,1655,1647,1647,1647,1647,1647,1647,1647,1639,1639,1632,1632,1632,1624,1624,1624,1624,1624,1616,1616,1616,1609,1609,1609,1609,1601,1601,1601,1601,1594,1594,1594,1594,1594,1586,1586,1586,1586,1579,1579,1579,1579,1572,1572,1572,1572,1572,1572,1572,1572,1564,1564,1557,1557,1557,1550,1543,1543,1543,1543,1543,1543,1543,1543,1543,0,0,0,0,0,0,0,906,903,901,901,898,898,898,896,896,896,891,891,889,889,889,889,889,889,889,889,891,896,903,906,906,908,908,908,908,0,0,0,0,0,1470,1464,1464,1458,1458,1452,1452,1445,1445,1445,1439,1439,1439,1439,1433,1433,1433,1427,1427,1421,1421,1415,1415,1415,1410,1410,1410,1410,1410,1404,1404,1404,1398,1398,1398,1392,1392,1392,1392,1387,1387,1387,1387,1381,1376,1376,1376,1376,1376,1376,1370,1370,1365,1365,1365,1359,1359,1359,1359,1359,1359,1354,1354,1354,1349,1349,1349,1349,1349,1343,1338,1338,1338,1338,1333,1333,1328,1328,1328,1328,1328,1322,1322,1322,1317,1317,1312,1312,1312,1307,1307,1307,1307,1302,1302,1302,1297,1292,1292,1292,1292,1288,1288,1288,1288,1288,1283,1283,1283,1278,1278,1273,1273,1273,1273,1268,1268,1268,1268,1264,1264,1264,1259,1259,1259,1255,1255,1255,1250,1250,1250,1250,1245,1245,1245,1241,1241,1236,1236,1236,1236,1232,1232,1232,1232,1227,1227,1227,1223,1223,1223,1219,1219,1219,1219,1214,1214,1214,1210,1210,1210,1210,1206,1206,1202,1202,1202,1202,1197,1197,1197,1193,1193,1193,1189,1189,1185,1185,1185,1185,1185,1185,1185,1181,1181,1181,1181,1181,1181,1177,1177,1177,1173,1169,1169,1169,1165,1165,1165,1165,1165,1161,1161,1157,1157,1157,1153,1153,1153,1153,1149,1149,1149,1149,1149,1149,1145,1145,1141,1141,1138,1138,1138,1138,1138,1134,1134,1134,1134,1134,1134,1130,1126,1126,0,0,0,0,0,0,0,0,0,0,0,0,0,0,0,0,0,0,0,0,0,0,0,0,0,0,0,0
0,0,0,0,0,0,0,0,0,0,0,0,0,0,1586,1579,1579,1572,1572,1572,1572,1572,1572,1572,1579,1579,1579,1572,1572,1572,1572,1572,1572,1572,1572,1572,1572,1572,1564,1564,1564,1564,1564,1564,1564,1564,1564,1572,1572,1572,1572,1572,1572,1572,1564,1564,1564,1564,1564,1564,1564,1564,1564,1564,1564,1564,1564,1564,1564,1564,1564,1564,1564,1564,1564,1564,1564,1557,1557,1557,1557,1557,1557,1557,1557,1564,1572,1572,1572,1572,1572,1804,1804,1794,1794,1794,1794,1794,1794,1794,1785,1785,1731,1722,1713,1696,1696,1688,1688,1688,1688,1680,1671,1663,1601,1594,1586,1586,1586,1586,1586,1579,1579,1586,1594,1594,1594,1594,1594,1594,1601,1601,1601,1601,1601,1609,1616,1616,1624,1624,1632,1632,1632,1632,1632,1639,1639,1639,1639,1647,1647,1655,1655,1655,1663,1671,1671,1680,1680,1680,1680,1688,1688,1688,1688,1696,1696,1696,1705,1705,1705,1713,1722,1722,1722,1731,1731,1731,1731,1739,1748,1757,1757,1757,1757,1757,1757,1757,1757,1766,1766,1766,1766,1785,1794,1794,1804,1804,1804,1804,1804,1804,0,0,0,0,0,0,0,1050,1050,1060,1060,1060,1057,1057,1057,1054,1050,1050,1050,1050,1057,1057,1057,1054,1054,1050,1050,1050,1050,1050,1054,1054,1050,1050,1044,1038,1038,1038,1038,1038,1038,1038,1038,1038,1038,1038,1038,1038,1038,1041,1041,1041,1041,1038,1034,1034,1688,1688,1688,1688,1688,1680,1680,1680,1680,1671,1671,1671,1663,1655,1655,1647,1019,1019,1016,1016,1647,1647,1647,1647,1647,1632,1632,1632,1624,1624,1624,1624,1616,1616,1616,1616,1609,1609,1609,1609,1601,1601,1601,1601,1601,1594,1594,1594,1594,1586,1586,1586,1586,1579,1579,1579,1572,1572,1572,1572,1572,1572,1572,1572,1564,1564,1564,1557,1557,1550,1543,1543,1543,1543,1543,1543,1543,1543,1543,0,0,0,0,0,0,908,906,906,903,901,898,898,898,898,896,896,894,891,891,889,889,889,889,889,891,891,894,898,903,906,906,908,908,908,908,0,0,0,0,0,1470,1464,1464,1458,1458,1452,1452,1445,1445,1445,1445,1439,1439,1439,1433,1433,1433,1433,1427,1427,1427,1421,1421,1415,1415,1415,1415,1410,1410,1404,1404,1404,1398,1398,1398,1392,1392,1398,1392,1392,1387,1387,1387,1381,1381,1376,1376,1376,1376,1376,1370,1370,1365,1365,1365,1359,1359,1359,1359,1359,1359,1354,1354,1354,1354,1354,1349,1349,1349,1343,1343,1343,1338,1338,1333,1333,1328,1328,1328,1328,1328,1328,1328,1322,1322,1317,1317,1312,1312,1312,1312,1307,1307,1307,1307,1302,1302,1292,1292,1292,1292,1288,1288,1288,1288,1288,1288,1283,1283,1283,1278,1278,1273,1273,1273,1273,1268,1268,1268,1264,1264,1264,1264,1259,1259,1255,1255,1255,1255,1250,1250,1250,1245,1245,1245,1245,1241,1241,1236,1236,1236,1236,1232,1232,1232,1227,1227,1227,1227,1223,1223,1223,1219,1219,1219,1214,1214,1214,1210,1210,1214,1210,1206,1206,1206,1202,1202,1202,1202,1197,1197,1197,1197,1197,1193,1189,1189,1189,1185,1185,1185,1185,1185,1185,1181,1181,1181,1181,1181,1177,1177,1177,1173,1173,1169,1169,1169,1165,1165,1165,1165,1165,1161,1161,1157,1157,1157,1157,1153,1153,1153,1149,1149,1149,1149,1149,1149,1149,1145,1141,1141,1141,1138,1138,1138,1138,1138,1134,1134,1134,1134,1134,1126,1126,0,0,0,0,0,0,0,0,0,0,0,0,0,0,0,0,0,0,0,0,0,0,0,0,0,0,0,0
0,0,0,0,0,0,0,0,0,0,0,0,0,0,1586,1586,1579,1579,1572,1572,1572,1572,1572,1572,1572,1579,1579,1572,1572,1572,1572,1572,1572,1572,1572,1572,1572,1564,1564,1564,1564,1564,1564,1572,1572,1572,1572,1572,1572,1572,1572,1572,1572,1572,1564,1564,1564,1564,1564,1564,1564,1564,1564,1564,1564,1564,1564,1564,1564,1564,1564,1564,1564,1564,1564,1564,1564,1564,1557,1557,1557,1557,1557,1564,1564,1564,1572,1572,1572,1572,1564,1564,1804,1794,1794,1794,1785,1785,1785,1785,1785,1776,1757,1731,1713,1696,1696,1696,1688,1688,1688,1680,1671,1663,1601,1594,1594,1594,1594,1586,1586,1586,1586,1586,1586,1586,1594,1594,1594,1594,1594,1601,1601,1601,1609,1616,1616,1616,1624,1624,1632,1632,1632,1632,1632,1639,1639,1647,1647,1647,1647,1655,1655,1655,1663,1671,1671,1680,1680,1680,1688,1688,1688,1688,1688,1696,1696,1705,1705,1705,1705,1713,1722,1722,1722,1731,1731,1731,1739,1739,1748,1757,1757,1757,1757,1757,1757,1757,1757,1757,1757,1766,1766,1785,1794,1804,1804,1804,1804,1804,0,0,0,0,0,0,1050,1050,1050,1050,1050,1057,1057,1054,1047,1044,1044,1044,1044,1044,1044,1044,1050,1054,1054,1050,1050,1050,1050,1047,1047,1047,1047,1047,1047,1047,1044,1038,1038,1038,1038,1038,1034,1034,1034,1034,1034,1034,1034,1031,1031,1034,1034,1034,1034,1031,1031,1031,1031,1031,1019,1025,1025,1025,1025,1680,1680,1671,1671,1663,1663,1013,1013,1016,1016,1016,1016,1016,1013,1013,1010,1010,1001,1001,1632,1632,1624,1624,1624,1616,1616,1616,1616,1616,1609,1609,1609,1609,1601,1601,1601,1601,1601,1594,1594,1594,1594,1594,1594,1586,1586,1586,1579,1579,1572,1572,1572,1572,1572,1572,1572,1572,1564,1564,1564,1564,1557,1550,1550,1550,1550,1543,1543,1543,1543,1543,1543,1543,0,0,0,0,0,908,906,906,903,901,898,898,898,898,896,896,894,894,891,891,889,889,889,889,891,891,894,898,903,906,906,908,908,908,908,0,0,0,0,0,1470,1464,1464,1458,1458,1452,1445,1445,1445,1445,1445,1439,1439,1439,1439,1439,1433,1433,1433,1427,1427,1421,1421,1421,1415,1415,1415,1410,1410,1410,1410,1404,1404,1398,1398,1398,1398,1398,1392,1392,1392,1392,1392,1387,1381,1381,1381,1376,1376,1376,1370,1370,1370,1370,1365,1365,1365,1365,1359,1359,1359,1354,1354,1354,1354,1354,1349,1349,1349,1349,1343,1343,1338,1338,1333,1333,1328,1328,1328,1328,1328,1328,1328,1322,1322,1317,1317,1312,1312,1312,1312,1312,1312,1307,1307,1307,1302,1297,1292,1292,1292,1288,1288,1288,1288,1288,1288,1283,1283,1283,1278,1278,1278,1273,1273,1273,1273,1268,1268,1268,1264,1264,1264,1264,1259,1259,1259,1255,1255,1250,1250,1250,1250,1245,1245,1245,1241,1241,1241,1236,1236,1236,1236,1232,1232,1232,1232,1227,1227,1227,1223,1223,1219,1219,1219,1214,1214,1214,1214,1214,1214,1210,1210,1210,1206,1206,1206,1202,1202,1202,1202,1197,1197,1197,1193,1193,1189,1189,1185,1185,1185,1185,1185,1185,1181,1181,1181,1181,1181,1177,1177,1177,1173,1173,1173,1169,1169,1169,1165,1165,1165,1165,1165,1161,1161,1161,1161,1157,1157,1153,1153,1153,1149,1149,1149,1149,1149,1149,1145,1141,1141,1141,1138,1138,1138,1138,1138,1134,1134,1134,1134,1134,1130,1130,0,0,0,0,0,0,0,0,0,0,0,0,0,0,0,0,0,0,0,0,0,0,0,0,0,0,0,0
0,0,0,0,0,0,0,0,0,0,0,0,0,0,1594,1586,1579,1579,1572,1572,1572,1572,1572,1572,1572,1579,1579,1579,1579,1579,1572,1572,1572,1572,1572,1572,1572,1564,1564,1564,1564,1564,1564,1564,1564,1572,1572,1572,1572,1572,1572,1572,1572,1572,1564,1564,1564,1564,1564,1564,1564,1564,1564,1564,1564,1564,1564,1564,1564,1564,1564,1564,1564,1564,1564,1564,1564,1564,1564,1564,1564,1564,1564,1564,1564,1572,1572,1572,1572,1572,1564,1557,1557,1785,1776,1776,1776,1776,1785,1776,1776,1766,1722,1722,1713,1705,1696,1696,1688,1688,1688,1680,1680,1663,1639,1609,1594,1594,1594,1586,1586,1586,1586,1586,1586,1586,1594,1594,1594,1594,1594,1601,1601,1609,1609,1616,1616,1616,1624,1632,1632,1632,1632,1632,1632,1639,1647,1647,1647,1647,1647,1655,1655,1655,1663,1671,1680,1680,1680,1680,1688,1688,1688,1688,1688,1696,1696,1705,1705,1705,1713,1713,1722,1722,1722,1731,1731,1731,1739,1739,1748,1757,1757,1757,1757,1757,1748,1748,1748,1748,1757,1766,1766,1766,1766,1766,1028,1028,0,1038,1044,1044,1041,1038,1038,1044,1041,1041,1050,1038,1038,1050,1034,1034,1041,1038,1038,1038,1041,1041,1041,1041,1041,1050,1054,1050,1047,1047,1047,1047,1044,1041,1041,1041,1041,1041,1041,1038,1038,1034,1034,1034,1031,1031,1031,1031,1031,1031,1028,1025,1025,1028,1013,1013,1013,1013,1013,1028,1028,1019,1019,0,1022,1022,1022,1019,1019,1013,1013,1013,1010,1010,1010,1013,1013,1010,1010,1013,1013,1010,1007,1004,1001,1001,1001,1632,1624,1624,1624,1616,1616,1609,1609,1609,1609,1609,1609,1609,1609,1601,1601,1601,1594,1594,1594,1594,1594,1594,1594,1586,1586,1586,1579,1579,1572,1572,1572,1572,1572,1572,1572,1572,1564,1564,1564,1564,1557,1550,1550,1550,1550,1550,1543,1543,1543,1543,1543,1543,0,0,0,0,0,908,906,906,903,901,901,901,898,898,898,896,896,894,891,891,891,891,891,891,891,894,896,898,903,906,906,908,908,908,910,0,0,0,0,0,1464,1464,1464,1458,1458,1452,1445,1445,1445,1445,1445,1445,1439,1439,1439,1439,1439,1433,1433,1427,1427,1421,1421,1421,1421,1421,1415,1415,1415,1410,1410,1404,1404,1398,1398,1398,1398,1398,1392,1392,1392,1392,1392,1387,1387,1381,1381,1376,1376,1376,1370,1370,1370,1370,1370,1370,1365,1365,1365,1359,1359,1354,1354,1354,1354,1354,1349,1349,1349,1349,1343,1343,1338,1338,1333,1333,1333,1333,1333,1328,1328,1328,1328,1322,1322,1317,1317,1317,1312,1312,1312,1312,1312,1307,1307,1307,1302,1302,1292,1292,1292,1292,1292,1288,1288,1288,1288,1288,1288,1283,1283,1278,1278,1278,1273,1273,1273,1273,1268,1268,1264,1264,1264,1264,1259,1259,1259,1255,1255,1255,1250,1250,1250,1245,1245,1245,1245,1241,1241,1236,1236,1236,1236,1236,1232,1232,1232,1232,1227,1227,1227,1227,1219,1219,1219,1214,1214,1214,1214,1214,1214,1210,1210,1210,1210,1206,1206,1202,1202,1202,1202,1197,1197,1197,1193,1193,1193,1189,1189,1185,1185,1185,1185,1185,1181,1181,1181,1181,1181,1177,1177,1177,1177,1173,1173,1173,1169,1169,1169,1165,1165,1165,1165,1165,1165,1165,1161,1161,1157,1153,1153,1153,1149,1149,1149,1149,1149,1149,1145,1145,1145,1141,1141,1138,1138,1138,1138,1134,1134,1134,1134,1134,1130,1130,0,0,0,0,0,0,0,0,0,0,0,0,0,0,0,0,0,0,0,0,0,0,0,0,0,0,0,0
0,0,0,0,0,0,0,0,0,0,0,0,0,0,1594,1586,1586,1579,1579,1579,1572,1572,1572,1572,1579,1586,1586,1586,1579,1572,1572,1572,1572,1572,1572,1572,1572,1572,1564,1564,1564,1564,1572,1564,1564,1572,1572,1572,1572,1572,1572,1572,1572,1572,1572,1564,1564,1564,1564,1564,1564,1564,1564,1564,1564,1564,1564,1564,1564,1564,1564,1564,1564,1564,1564,1564,1564,1564,1564,1564,1564,1564,1564,1564,1564,1572,1579,1579,1579,1572,1564,1557,1557,1757,1757,1757,1757,1757,1757,1766,1766,1739,1722,1722,1713,1705,1696,1696,1696,1696,1688,1688,1688,1663,1639,1609,1601,1594,1594,1586,1586,1586,1586,1586,1594,1594,1594,1594,1594,1594,1594,1601,1601,1609,1609,1616,1616,1616,1624,1624,1632,1632,1632,1632,1639,1647,1647,1647,1647,1647,1647,1655,1655,1663,1671,1671,1680,1680,1680,1688,1688,1688,1688,1688,1688,1696,1696,1705,1705,1705,1713,1713,1722,1722,1722,1731,1731,1731,1739,1748,1748,1757,1757,1757,1757,1748,1739,1739,1739,1748,1748,1748,1025,1010,0,0,0,1028,1028,1038,1038,1038,1038,1038,1038,1038,1034,1034,1038,1034,1034,1050,1028,1028,1028,1034,1034,1034,1034,1038,1038,1038,1038,1050,1044,1044,1044,1041,1041,1041,1041,1038,1038,1034,1034,1034,1034,1034,1031,1031,1034,1034,1028,1028,1028,1028,1028,1025,1025,1022,1022,1019,1010,1010,1010,1010,1010,1010,1010,1019,1019,0,1022,1022,1019,1007,1007,1007,1007,1004,1004,1007,1007,1010,1010,1007,1004,1004,1004,1004,1001,998,998,998,1001,1001,1001,1004,1004,1004,1004,1001,1001,1001,1001,1001,1609,1609,1609,1601,1601,1601,1594,1594,1594,1594,1594,1594,1594,1594,1586,1586,1586,1586,1579,1572,1572,1572,1572,1572,1572,1572,1572,1564,1564,1564,1557,1557,1557,1557,1550,1550,1550,1550,1550,1543,1543,1543,0,0,0,0,0,908,908,906,903,903,901,901,898,898,898,896,896,894,894,891,891,891,891,891,891,894,896,898,903,906,908,908,908,910,910,0,0,0,0,0,1464,1464,1464,1458,1458,1458,1452,1452,1445,1445,1445,1445,1439,1439,1439,1439,1439,1439,1433,1433,1427,1427,1421,1421,1421,1421,1415,1415,1415,1410,1410,1410,1404,1404,1404,1398,1398,1398,1398,1392,1392,1392,1392,1387,1387,1387,1387,1381,1381,1376,1376,1376,1370,1370,1370,1370,1370,1365,1365,1365,1359,1354,1354,1354,1354,1354,1349,1349,1349,1349,1343,1343,1343,1338,1333,1333,1333,1333,1333,1328,1328,1328,1328,1322,1322,1317,1317,1317,1317,1312,1312,1312,1312,1307,1307,1307,1302,1302,1292,1292,1292,1292,1292,1288,1288,1288,1288,1288,1288,1288,1283,1283,1283,1278,1278,1273,1273,1273,1268,1268,1268,1268,1264,1264,1264,1259,1259,1259,1255,1255,1255,1255,1250,1250,1250,1245,1245,1241,1241,1241,1241,1236,1236,1236,1232,1232,1232,1232,1232,1227,1227,1227,1219,1219,1219,1214,1214,1214,1214,1214,1214,1214,1210,1210,1210,1210,1210,1206,1202,1202,1202,1197,1197,1197,1197,1193,1193,1189,1189,1189,1189,1185,1185,1185,1185,1185,1181,1181,1181,1181,1181,1177,1177,1177,1177,1177,1169,1169,1169,1169,1165,1165,1165,1165,1165,1165,1161,1161,1161,1157,1157,1153,1153,1153,1149,1149,1149,1149,1149,1149,1145,1141,1141,1138,1138,1138,1138,1134,1134,1134,1134,1134,1134,1134,0,0,0,0,0,0,0,0,0,0,0,0,0,0,0,0,0,0,0,0,0,0,0,0,0,0,0,0
0,0,0,0,0,0,0,0,0,0,0,0,0,0,1594,1586,1586,1579,1579,1572,1572,1572,1572,1579,1586,1586,1579,1579,1572,1572,1572,1572,1572,1572,1572,1572,1572,1572,1572,1572,1572,1572,1572,1572,1572,1572,1572,1572,1572,1572,1572,1572,1572,1572,1572,1572,1564,1564,1564,1572,1564,1564,1564,1564,1564,1572,1564,1564,1564,1564,1564,1564,1564,1564,1564,1564,1564,1564,1564,1564,1564,1564,1564,1564,1564,1572,1579,1579,1586,1586,1586,1572,1572,1757,1748,1748,1739,1739,1739,1757,1748,1731,1722,1722,1722,1705,1705,1696,1696,1696,1688,1688,1688,1680,1647,1601,1601,1594,1594,1586,1586,1586,1586,1594,1594,1594,1594,1594,1594,1601,1601,1601,1601,1609,1609,1616,1616,1624,1624,1624,1632,1632,1632,1632,1639,1647,1647,1655,1655,1655,1655,1655,1655,1663,1671,1671,1680,1680,1680,1688,1688,1688,1688,1696,1696,1696,1696,1705,1705,1705,1713,1713,1722,1722,1722,1731,1731,1731,1739,1748,1748,1757,1757,1757,1748,1748,1731,1722,1025,1025,1025,1025,0,0,0,0,0,1028,1028,1028,1034,1034,1038,1034,1034,1034,1031,1028,1028,1025,1025,1025,1025,1025,1025,1025,1025,1025,1031,1031,1034,1034,1038,1057,1044,1044,1044,1041,1041,1041,1041,1038,1038,1034,1034,1034,1025,1025,1022,1019,1019,1031,1025,1025,1025,1025,1025,1022,1019,1010,1004,1004,1007,1007,1007,1007,1007,1007,1007,1013,1013,1001,1013,1013,1004,1001,1001,998,998,1001,998,998,1001,1001,1001,1004,1001,1001,1001,1001,998,998,998,998,998,1001,1001,1004,1001,1001,1001,1001,998,998,998,998,998,998,998,995,989,989,1594,1594,1601,1594,1594,1594,1594,1594,1594,1594,1586,1586,1579,1579,1572,1572,1572,1572,1572,1572,1572,1572,1564,1564,1564,1557,1557,1557,1550,1550,1550,1550,1550,1543,1543,1543,1543,0,0,0,0,0,906,906,903,903,901,901,901,898,898,896,896,896,894,891,891,891,891,894,894,896,896,898,903,906,908,910,910,910,910,0,0,0,0,0,1464,1464,1464,1458,1458,1458,1452,1452,1445,1445,1445,1445,1439,1439,1439,1439,1439,1439,1433,1433,1427,1427,1421,1421,1421,1421,1421,1415,1415,1415,1410,1410,1410,1410,1404,1404,1398,1398,1398,1392,1392,1392,1392,1387,1387,1387,1387,1381,1381,1381,1376,1376,1376,1370,1370,1370,1370,1365,1365,1365,1359,1359,1354,1354,1354,1354,1354,1349,1349,1349,1349,1343,1343,1338,1338,1338,1333,1333,1333,1328,1328,1328,1328,1328,1322,1322,1322,1317,1317,1317,1312,1312,1312,1307,1307,1307,1307,1307,1292,1292,1292,1292,1292,1288,1288,1288,1288,1288,1288,1288,1283,1283,1283,1283,1278,1278,1273,1273,1273,1273,1268,1268,1268,1264,1264,1264,1259,1259,1255,1255,1255,1255,1255,1250,1250,1245,1245,1241,1241,1241,1241,1236,1236,1236,1236,1232,1232,1232,1232,1232,1227,1227,1223,1219,1219,1219,1214,1214,1214,1214,1214,1214,1214,1214,1210,1210,1210,1206,1206,1202,1202,1197,1197,1197,1197,1193,1193,1189,1189,1189,1189,1185,1185,1185,1185,1185,1181,1181,1181,1181,1181,1177,1177,1177,1177,1177,1177,1169,1169,1169,1169,1169,1165,1165,1165,1165,1165,1165,1161,1157,1157,1157,1153,1153,1153,1153,1149,1149,1149,1149,1149,1145,1141,1141,1138,1138,1138,1138,1138,1138,1134,1134,1134,1134,0,0,0,0,0,0,0,0,0,0,0,0,0,0,0,0,0,0,0,0,0,0,0,0,0,0,0,0
0,0,0,0,0,0,0,0,0,0,0,0,0,0,1594,1586,1586,1586,1586,1572,1572,1579,1579,1579,1586,1579,1579,1579,1572,1572,1572,1572,1572,1572,1572,1572,1572,1572,1572,1572,1572,1572,1572,1572,1572,1572,1572,1572,1572,1572,1572,1572,1572,1572,1572,1572,1564,1564,1572,1572,1572,1564,1564,1564,1572,1572,1572,1564,1564,1564,1564,1564,1564,1564,1564,1572,1564,1564,1564,1564,1564,1564,1564,1564,1572,1572,1579,1586,1586,1594,1594,1594,1594,1748,1739,1731,1731,1731,1731,1731,1731,1731,1722,1713,1713,1713,1705,1696,1696,1696,1688,1688,1688,1688,1680,1601,1601,1594,1594,1586,1586,1586,1586,1594,1594,1594,1594,1594,1594,1601,1601,1601,1601,1609,1616,1616,1624,1624,1624,1624,1632,1632,1632,1639,1647,1647,1655,1655,1655,1655,1655,1663,1663,1663,1671,1671,1680,1680,1688,1688,1688,1688,1688,1696,1696,1696,1705,1705,1705,1705,1713,1713,1722,1722,1731,1731,1731,1739,1748,1757,1757,1757,1757,1757,1748,1748,1722,1025,1025,1025,1025,1025,1010,1010,1013,1013,1016,1025,1025,1025,1028,1028,1038,1031,1031,1031,1025,1022,1022,1010,1010,1016,1016,1016,1016,1019,1016,1013,1013,1013,1034,1034,1034,1001,1001,995,1001,1001,1004,1004,1004,1001,1001,1001,1004,1001,1001,1001,1001,1001,1004,1007,1019,1019,1019,1019,1019,1010,1007,1004,1001,1001,1001,1001,1001,1001,1001,1001,1001,1001,1001,1001,992,992,989,989,992,987,987,992,998,998,998,998,995,995,992,992,992,992,995,995,995,998,998,1004,1004,1004,1001,1001,1001,998,998,998,978,978,978,995,995,992,987,987,984,984,978,978,1594,1594,1594,1594,1594,1586,1586,1586,1586,1579,1572,1572,1572,1579,1579,1572,1572,1572,1564,1564,1564,1564,1564,1557,1557,1557,1557,1550,1550,1543,1543,1536,1536,1536,0,1529,0,906,906,906,906,906,903,903,901,901,898,898,896,896,896,894,894,894,894,894,894,896,898,901,903,906,908,910,910,910,913,915,0,0,0,0,1464,1464,1464,1458,1458,1458,1452,1452,1445,1445,1445,1445,1445,1439,1439,1439,1439,1439,1433,1433,1433,1427,1427,1427,1421,1421,1421,1415,1415,1415,1415,1415,1410,1410,1410,1404,1404,1398,1398,1398,1398,1392,1392,1392,1392,1387,1387,1381,1381,1381,1376,1376,1376,1376,1370,1370,1370,1370,1365,1365,1359,1359,1354,1354,1354,1354,1354,1349,1349,1349,1349,1349,1343,1343,1338,1338,1333,1333,1333,1333,1328,1328,1328,1328,1328,1322,1322,1322,1322,1317,1317,1312,1312,1312,1312,1307,1307,1307,1302,1297,1297,1292,1292,1292,1292,1292,1292,1288,1288,1288,1288,1288,1283,1283,1278,1278,1273,1273,1273,1273,1273,1268,1268,1264,1264,1264,1259,1259,1255,1255,1255,1255,1255,1255,1250,1250,1250,1245,1241,1241,1241,1241,1236,1236,1236,1232,1232,1232,1232,1232,1232,1227,1223,1223,1223,1219,1219,1219,1214,1214,1214,1214,1214,1214,1214,1210,1210,1210,1206,1206,1202,1202,1197,1197,1197,1193,1193,1193,1193,1189,1189,1189,1185,1185,1185,1185,1185,1181,1181,1181,1181,1181,1181,1181,1177,1177,1177,1169,1169,1169,1169,1169,1169,1165,1165,1165,1165,1165,1161,1157,1157,1157,1153,1153,1153,1153,1149,1149,1149,1149,1149,1145,1141,1141,1138,1138,1138,1138,1138,1138,1134,1134,1134,1134,0,0,0,0,0,0,0,0,0,0,0,0,0,0,0,0,0,0,0,0,0,0,0,0,0,0,0,0
0,0,0,0,0,0,0,0,0,0,0,0,0,0,1594,1594,1586,1586,1586,1586,1579,1579,1579,1586,1586,1579,1579,1579,1572,1572,1572,1572,1572,1572,1572,1572,1572,1572,1572,1572,1572,1572,1572,1572,1572,1579,1579,1579,1579,1579,1572,1572,1572,1572,1572,1572,1564,1564,1572,1572,1572,1572,1572,1572,1572,1572,1572,1572,1564,1564,1564,1564,1564,1564,1572,1572,1572,1564,1564,1564,1564,1564,1564,1564,1572,1572,1579,1579,1586,1594,1594,1601,1601,1601,1722,1722,1722,1722,1722,1722,1722,1722,1722,1713,1713,1713,1705,1705,1696,1696,1696,1688,1688,1688,1680,1616,1601,1601,1594,1594,1586,1586,1586,1594,1594,1594,1594,1594,1601,1601,1601,1601,1601,1609,1616,1616,1624,1624,1624,1632,1632,1632,1632,1639,1647,1647,1655,1655,1655,1655,1663,1663,1663,1663,1671,1671,1680,1680,1680,1688,1688,1688,1688,1696,1696,1696,1705,1705,1705,1705,1713,1713,1722,1731,1731,1731,1731,1739,1757,1757,1766,1766,1766,1766,1722,1722,1722,1022,1022,1022,1022,1010,1010,1010,1013,1013,1016,1016,1016,1016,1016,1013,1013,1019,1013,1013,1016,1016,1016,1010,1010,1013,1013,1013,1013,1010,1010,1010,1010,1010,1010,1010,1001,1001,1001,995,1001,1001,1001,1001,1001,1001,1001,1001,1001,998,998,1001,1001,1001,1004,1004,1004,1004,1004,1004,1001,1001,1001,998,998,998,998,998,998,998,995,995,992,992,995,992,992,989,984,984,984,984,984,984,987,989,989,992,989,989,987,987,984,984,984,984,992,989,987,987,1004,1001,1001,1001,998,998,995,978,978,978,978,992,992,992,987,987,984,984,975,973,973,973,967,1586,1586,1586,1586,1586,1586,1586,1572,1572,1572,1572,1572,1572,1572,1564,1564,1564,1564,1564,1564,1557,1557,1557,1557,1550,1550,1543,1543,1536,1529,1529,1529,1529,0,906,906,906,903,903,906,903,903,903,901,898,896,896,896,894,894,894,894,896,896,898,898,903,906,908,910,910,913,913,915,915,0,0,0,0,0,1464,1464,1458,1458,1458,1452,1452,1452,1445,1445,1445,1445,1439,1439,1439,1439,1439,1439,1433,1433,1427,1427,1427,1427,1421,1421,1421,1415,1415,1415,1415,1410,1410,1410,1410,1404,1404,1398,1398,1398,1398,1392,1392,1392,1392,1387,1387,1381,1381,1381,1376,1376,1376,1376,1370,1370,1370,1365,1365,1365,1359,1359,1354,1354,1354,1354,1354,1349,1349,1349,1349,1343,1343,1343,1338,1333,1333,1333,1333,1328,1328,1328,1328,1328,1328,1322,1322,1322,1322,1317,1312,1312,1312,1312,1312,1307,1307,1302,1297,1297,1292,1292,1292,1292,1292,1292,1292,1288,1288,1288,1288,1288,1283,1283,1278,1273,1273,1273,1273,1273,1268,1268,1264,1264,1264,1264,1259,1259,1255,1255,1255,1255,1255,1250,1250,1250,1250,1245,1245,1245,1241,1241,1236,1236,1236,1232,1232,1232,1232,1232,1227,1227,1223,1223,1219,1219,1219,1219,1214,1214,1214,1214,1214,1214,1210,1210,1210,1206,1206,1202,1202,1202,1197,1197,1197,1193,1193,1193,1189,1189,1189,1185,1185,1185,1185,1181,1181,1181,1181,1181,1181,1181,1181,1177,1177,1177,1177,1173,1169,1169,1169,1169,1169,1165,1165,1165,1165,1161,1161,1161,1157,1153,1153,1153,1153,1153,1153,1149,1149,1149,1145,1141,1141,1138,1138,1138,1138,1138,1138,1138,1138,1138,1138,0,0,0,0,0,0,0,0,0,0,0,0,0,0,0,0,0,0,0,0,0,0,0,0,0,0,0,0
0,0,0,0,0,0,0,0,0,0,0,0,0,0,1594,1594,1594,1586,1586,1586,1586,1586,1586,1586,1586,1586,1586,1586,1579,1579,1579,1579,1579,1579,1572,1572,1572,1579,1579,1579,1579,1586,1586,1586,1586,1579,1579,1579,1579,1579,1572,1572,1572,1572,1572,1572,1572,1572,1572,1572,1572,1572,1572,1572,1572,1572,1572,1572,1564,1564,1564,1564,1564,1564,1572,1572,1572,1572,1572,1572,1572,1572,1572,1572,1572,1572,1579,1579,1586,1594,1594,1601,1601,1601,1713,1713,1713,1722,1722,1722,1722,1722,1722,1713,1713,1713,1713,1705,1705,1696,1696,1688,1688,1696,1680,1632,1609,1601,1594,1594,1586,1586,1594,1594,1594,1594,1594,1594,1601,1601,1601,1601,1601,1609,1616,1624,1624,1624,1624,1632,1632,1632,1632,1639,1647,1647,1655,1655,1655,1655,1663,1663,1663,1663,1663,1671,1671,1671,1680,1688,1688,1696,1696,1696,1696,1696,1705,1705,1705,1705,1713,1713,1722,1731,1731,1731,1739,1739,1757,1766,1776,1776,1010,1010,1001,1004,1004,1004,1010,1010,1007,1007,1007,1010,1010,1010,1010,1010,1010,1010,1007,1007,1007,1004,1004,1007,1007,1007,1007,1007,1007,1010,1010,1010,1010,1007,1007,1004,1001,1001,1001,998,998,998,995,995,995,998,998,998,998,998,998,998,995,995,998,998,998,998,1001,1001,1001,1004,1001,998,995,992,992,992,992,989,989,992,989,989,987,987,987,987,992,989,989,989,984,984,984,984,984,984,987,987,987,987,987,987,984,984,981,978,978,975,975,975,975,975,978,998,998,1001,998,998,995,978,975,975,978,978,981,981,984,984,987,981,970,970,967,967,967,967,964,1586,1586,1586,1586,1586,1572,1572,1572,1572,1572,1572,1572,1564,967,967,964,964,1564,1557,1557,956,956,956,948,948,948,1536,1529,1529,1529,1529,0,906,906,906,903,903,906,903,903,903,901,898,898,896,896,896,896,896,896,896,898,898,901,903,906,908,910,913,915,915,915,915,0,0,0,0,0,1464,1464,1464,1458,1458,1452,1452,1452,1452,1445,1445,1445,1445,1439,1439,1439,1439,1439,1433,1433,1427,1427,1427,1427,1421,1421,1421,1415,1415,1415,1415,1415,1415,1410,1410,1404,1404,1398,1398,1398,1392,1392,1392,1392,1392,1392,1387,1387,1387,1381,1376,1376,1376,1376,1370,1370,1370,1365,1365,1365,1365,1359,1359,1354,1354,1354,1354,1349,1349,1349,1349,1343,1343,1343,1338,1338,1333,1333,1333,1328,1328,1328,1328,1328,1328,1322,1322,1322,1322,1317,1317,1312,1312,1312,1312,1307,1307,1307,1307,1297,1297,1297,1292,1292,1292,1292,1292,1288,1288,1288,1288,1288,1283,1283,1278,1278,1278,1278,1273,1273,1268,1268,1268,1264,1264,1264,1264,1259,1259,1259,1255,1255,1255,1255,1250,1250,1250,1245,1245,1250,1241,1241,1241,1236,1236,1232,1232,1232,1232,1232,1232,1227,1227,1223,1223,1219,1219,1219,1219,1214,1214,1214,1214,1214,1214,1210,1210,1206,1206,1202,1202,1202,1202,1197,1197,1197,1193,1193,1189,1189,1189,1185,1185,1185,1185,1181,1181,1181,1181,1181,1181,1181,1181,1181,1181,1177,1177,1173,1169,1169,1169,1169,1169,1169,1169,1165,1165,1161,1161,1161,1157,1153,1153,1153,1153,1153,1153,1149,1149,1149,1145,1145,1141,1141,1138,1138,1138,1138,1138,1138,1138,1138,1138,0,0,0,0,0,0,0,0,0,0,0,0,0,0,0,0,0,0,0,0,0,0,0,0,0,0,0,0
0,0,0,0,0,0,0,0,0,0,0,0,0,0,1594,1594,1594,1594,1594,1586,1586,1586,1586,1594,1594,1586,1586,1586,1579,1579,1579,1579,1579,1579,1586,1579,1579,1586,1586,1586,1586,1586,1594,1586,1586,1586,1579,1579,1579,1579,1572,1572,1572,1572,1572,1572,1572,1572,1572,1572,1579,1579,1579,1579,1572,1572,1572,1572,1572,1572,1572,1572,1572,1572,1572,1572,1572,1572,1572,1572,1572,1572,1572,1572,1572,1572,1579,1579,1586,1594,1594,1594,1601,1601,1713,1713,1713,1722,1722,1722,1722,1722,1722,1722,1722,1713,1713,1705,1705,1705,1696,1696,1696,1696,1688,1688,1616,1594,1594,1594,1586,1586,1594,1594,1594,1594,1594,1601,1601,1601,1601,1609,1609,1616,1616,1624,1624,1624,1632,1632,1632,1632,1632,1639,1647,1655,1655,1655,1655,1663,1663,1663,1663,1663,1663,1671,1671,1671,1671,1671,1696,1696,1696,1696,1705,1705,1705,1705,1705,1705,1004,1001,1001,1004,1004,1007,1001,1001,1004,1001,1001,1004,1010,1010,1001,1001,1001,1001,1004,1001,1001,1001,1001,1007,1007,1004,1004,1004,1004,1004,1001,1001,1001,1001,1001,1001,1004,1001,1001,1004,1007,1004,1004,1007,1007,1004,1004,1001,998,998,998,995,995,995,995,995,995,995,995,995,995,995,995,995,995,992,992,995,995,995,995,995,998,998,992,987,987,987,987,987,987,984,984,987,987,984,978,978,978,978,981,978,978,978,981,981,984,984,984,984,981,981,984,978,978,978,978,978,978,975,973,973,973,973,970,964,956,956,959,964,964,998,970,970,973,970,970,978,975,975,978,956,956,970,967,964,964,964,967,967,964,964,964,1586,1586,1586,1579,1572,1572,1572,1572,1572,1564,959,959,962,962,959,959,1557,954,954,954,951,948,946,946,1536,1529,1529,1529,1529,940,938,906,906,906,906,906,903,903,903,901,898,898,896,896,896,896,896,896,896,898,898,901,903,906,908,910,913,915,915,915,915,0,0,0,0,0,1464,1464,1464,1464,1464,1458,1458,1452,1452,1452,1445,1445,1445,1445,1439,1439,1439,1439,1439,1433,1433,1427,1427,1427,1421,1421,1421,1421,1415,1415,1415,1415,1415,1415,1410,1410,1404,1404,1398,1398,1392,1392,1392,1392,1392,1392,1387,1387,1387,1381,1381,1376,1376,1376,1376,1376,1370,1370,1370,1365,1365,1359,1359,1354,1354,1354,1354,1349,1349,1349,1349,1349,1343,1343,1343,1338,1338,1338,1333,1333,1333,1328,1328,1328,1328,1328,1328,1322,1322,1317,1317,1317,1312,1312,1312,1307,1307,1307,1307,1307,1302,1297,1297,1292,1292,1292,1292,1292,1288,1288,1288,1288,1288,1283,1283,1278,1278,1278,1273,1273,1273,1268,1268,1268,1268,1268,1268,1264,1264,1264,1259,1259,1255,1255,1250,1250,1250,1245,1245,1250,1241,1241,1241,1236,1236,1236,1236,1236,1232,1232,1232,1232,1227,1227,1223,1223,1219,1219,1219,1219,1219,1214,1214,1214,1214,1210,1210,1206,1206,1202,1202,1202,1202,1197,1197,1197,1197,1197,1189,1189,1193,1189,1185,1185,1185,1185,1185,1185,1185,1181,1181,1181,1181,1181,1181,1177,1177,1173,1169,1169,1169,1169,1169,1169,1169,1165,1165,1161,1161,1161,1157,1153,1153,1153,1153,1153,1153,1149,1149,1149,1145,1145,1141,1141,1138,1138,1138,1138,1138,1138,1138,1138,1138,0,0,0,0,0,0,0,0,0,0,0,0,0,0,0,0,0,0,0,0,0,0,0,0,0,0,0,0
0,0,0,0,0,0,0,0,0,0,0,0,0,0,1594,1594,1594,1594,1594,1586,1586,1594,1594,1594,1594,1586,1586,1586,1579,1579,1579,1579,1586,1586,1586,1586,1586,1586,1586,1586,1586,1594,1594,1594,1586,1586,1586,1579,1579,1579,1572,1572,1572,1579,1579,1572,1572,1572,1572,1579,1579,1579,1579,1586,1586,1579,1579,1579,1572,1572,1572,1572,1572,1572,1572,1572,1572,1572,1572,1572,1572,1572,1572,1572,1572,1572,1579,1579,1586,1594,1594,1594,1601,1601,1722,1722,1722,1722,1722,1722,1722,1722,1722,1722,1722,1722,1722,1713,1705,1705,1705,1696,1696,1696,1696,1696,1696,1594,1594,1594,1594,1594,1594,1594,1594,1594,1601,1601,1601,1601,1601,1609,1609,1616,1616,1616,1624,1624,1632,1632,1632,1632,1639,1647,1647,1655,1655,1655,1663,1663,1663,1663,1663,1663,1663,1663,1663,1663,1663,1671,1696,1696,1696,1696,1001,1001,1705,1001,1001,1001,1001,1001,1001,1004,1001,1001,1001,1001,1001,1001,1001,1001,1001,998,998,998,998,998,998,995,995,998,998,1001,998,998,998,1001,1001,998,998,995,995,995,998,998,1001,1001,1001,1001,1001,1001,1001,1004,1007,1004,1004,1001,998,998,995,992,992,992,992,992,992,995,992,992,995,995,995,992,992,989,989,989,989,987,987,987,978,978,975,975,975,975,975,975,981,978,978,978,978,978,975,975,975,975,975,973,970,967,967,978,981,981,978,978,975,975,975,973,970,970,973,973,973,973,970,967,964,962,959,959,956,956,956,956,956,956,964,962,962,962,959,959,964,967,975,956,956,967,962,962,962,964,964,964,962,959,956,951,951,951,951,1579,1579,1579,1579,1572,962,959,959,959,956,954,954,954,954,954,951,951,948,946,943,943,940,940,943,943,940,938,938,906,906,906,906,906,906,903,903,898,898,898,898,898,898,898,898,898,901,901,903,906,908,910,913,915,915,915,915,915,0,0,0,0,1464,1464,1464,1464,1464,1464,1458,1458,1458,1452,1452,1445,1445,1445,1445,1439,1439,1439,1439,1439,1433,1433,1433,1427,1427,1427,1421,1421,1421,1421,1421,1415,1415,1415,1415,1415,1410,1404,1404,1398,1398,1398,1392,1392,1392,1392,1392,1387,1387,1387,1381,1381,1381,1376,1376,1376,1376,1370,1370,1370,1370,1370,1365,1365,1359,1359,1354,1354,1349,1349,1349,1349,1349,1349,1349,1343,1343,1338,1338,1333,1333,1333,1333,1328,1328,1328,1328,1328,1322,1322,1317,1317,1317,1317,1312,1312,1312,1307,1307,1302,1302,1302,1297,1297,1292,1292,1292,1292,1292,1292,1288,1288,1288,1288,1283,1283,1278,1278,1278,1273,1273,1273,1268,1268,1268,1268,1268,1268,1268,1264,1264,1259,1259,1255,1255,1255,1250,1250,1250,1250,1250,1245,1245,1241,1241,1236,1236,1236,1236,1236,1236,1232,1232,1232,1232,1227,1223,1223,1219,1219,1219,1219,1214,1214,1214,1214,1210,1210,1206,1206,1206,1202,1202,1202,1197,1197,1197,1197,1197,1189,1189,1193,1189,1189,1189,1185,1185,1185,1185,1185,1185,1181,1181,1181,1181,1181,1177,1173,1173,1173,1169,1169,1169,1169,1169,1165,1165,1165,1161,1161,1161,1157,1153,1153,1153,1153,1153,1153,1149,1149,1149,1145,1145,1141,1141,1138,1138,1138,1138,1138,1138,1138,1138,1138,0,0,0,0,0,0,0,0,0,0,0,0,0,0,0,0,0,0,0,0,0,0,0,0,0,0,0,0
0,0,0,0,0,0,0,0,0,0,0,0,0,0,1594,1594,1594,1594,1594,1586,1586,1594,1594,1594,1594,1594,1594,1586,1586,1586,1586,1586,1586,1586,1586,1586,1586,1586,1586,1586,1586,1594,1594,1594,1586,1586,1586,1586,1579,1579,1579,1572,1572,1579,1579,1572,1572,1572,1572,1579,1579,1586,1586,1586,1586,1579,1579,1579,1572,1572,1572,1572,1572,1572,1572,1572,1572,1572,1572,1572,1572,1572,1572,1572,1572,1572,1579,1579,1586,1594,1594,1601,1601,1601,1705,1705,1713,1722,1722,1722,1722,1722,1722,1722,1731,1722,1722,1722,1713,1705,1705,1696,1696,1696,1696,1696,1696,1601,1594,1594,1594,1594,1594,1594,1594,1594,1601,1601,1601,1601,1601,1609,1609,1616,1616,1616,1624,1624,1632,1632,1632,1632,1639,1639,1647,1647,1655,1655,1663,1663,1663,1663,1663,1663,1663,1663,1663,1663,1663,1671,1696,1696,1696,998,998,998,998,998,998,998,998,998,998,998,998,998,998,998,1001,998,998,1001,998,992,992,995,995,995,992,992,995,995,995,995,992,992,992,995,992,992,992,989,989,989,992,992,989,989,992,995,995,995,995,995,998,998,998,989,989,989,989,989,987,987,987,987,987,987,987,989,992,992,992,992,992,989,987,987,987,984,981,981,975,970,970,970,973,973,973,973,973,973,973,973,973,975,973,973,970,970,973,967,967,967,967,970,973,973,970,964,964,964,964,967,967,967,967,967,970,967,964,962,959,959,956,956,956,954,951,951,951,951,954,954,954,954,956,956,956,956,956,956,956,964,962,959,959,962,962,962,954,951,951,948,948,948,948,951,951,951,940,959,959,956,954,954,954,951,951,951,951,951,948,946,946,943,943,940,938,938,940,940,940,938,938,906,906,906,906,906,906,903,903,901,898,898,898,898,898,898,898,898,901,901,903,906,908,910,913,915,915,915,915,0,0,0,0,0,1464,1464,1464,1464,1464,1464,1464,1458,1458,1452,1452,1445,1445,1445,1445,1439,1439,1439,1439,1439,1439,1439,1433,1433,1433,1427,1421,1421,1421,1421,1421,1415,1415,1415,1415,1415,1410,1410,1404,1404,1398,1398,1398,1392,1392,1392,1392,1387,1387,1387,1387,1381,1381,1381,1381,1376,1376,1376,1370,1370,1370,1370,1365,1365,1365,1359,1354,1354,1354,1354,1349,1349,1349,1349,1349,1349,1343,1343,1338,1338,1333,1333,1333,1328,1328,1328,1328,1328,1328,1322,1322,1322,1317,1317,1312,1312,1312,1307,1307,1302,1302,1302,1297,1297,1297,1297,1297,1292,1292,1292,1288,1288,1288,1288,1283,1283,1278,1278,1278,1273,1273,1273,1273,1268,1268,1268,1268,1268,1268,1264,1264,1259,1259,1259,1255,1255,1250,1250,1250,1250,1250,1245,1245,1245,1245,1241,1236,1236,1236,1236,1236,1236,1232,1232,1232,1227,1223,1223,1219,1219,1219,1219,1214,1214,1214,1214,1214,1210,1210,1206,1206,1202,1202,1202,1202,1197,1197,1197,1197,1189,1189,1193,1189,1189,1189,1185,1185,1185,1185,1185,1185,1181,1181,1181,1181,1181,1177,1173,1173,1173,1169,1169,1169,1169,1169,1165,1165,1165,1161,1161,1161,1157,1153,1153,1153,1153,1153,1153,1153,1149,1149,1149,1149,1145,1145,1141,1141,1138,1138,1138,1138,1138,1138,1138,0,0,0,0,0,0,0,0,0,0,0,0,0,0,0,0,0,0,0,0,0,0,0,0,0,0,0,0
0,0,0,0,0,0,0,0,0,0,0,0,0,0,1601,1594,1594,1594,1594,1594,1594,1594,1594,1594,1594,1594,1594,1586,1586,1586,1586,1594,1594,1594,1594,1586,1586,1594,1586,1586,1586,1586,1586,1594,1586,1586,1586,1586,1579,1579,1579,1579,1579,1579,1579,1579,1579,1579,1579,1586,1586,1586,1586,1586,1586,1579,1579,1579,1579,1579,1579,1579,1579,1572,1572,1572,1572,1572,1572,1572,1572,1579,1579,1579,1572,1572,1572,1579,1586,1594,1594,1601,1601,1601,1705,1705,1713,1713,1722,1722,1722,1722,1731,1731,1731,1722,1722,1722,1722,1713,1705,1705,1705,1696,1696,1696,1688,1601,1601,1601,1594,1594,1594,1594,1594,1594,1601,1601,1601,1601,1601,1609,1609,1616,1616,1624,1624,1624,1632,1632,1632,1632,1639,1639,1647,1647,1655,1655,1663,1663,1663,1663,1663,1663,1663,1663,1663,1663,1663,1663,998,998,998,998,998,998,998,998,998,998,995,995,992,992,992,995,998,998,998,998,998,998,989,989,989,989,989,989,989,992,995,995,992,992,992,992,992,989,989,989,987,984,981,981,978,978,978,978,978,978,978,978,995,959,959,959,998,978,978,978,987,984,984,981,981,984,978,970,970,989,978,978,989,989,989,978,978,981,975,973,970,967,967,967,967,967,967,970,970,970,967,967,967,967,967,970,967,967,967,967,967,967,964,964,964,970,967,967,967,964,959,956,956,956,951,951,951,948,948,951,951,954,954,954,954,954,954,954,948,948,948,948,951,948,946,946,940,940,946,948,948,954,954,959,959,956,956,959,962,959,948,948,948,948,948,946,940,938,938,938,940,940,940,956,954,951,948,948,948,948,946,946,946,943,940,940,940,938,935,935,938,938,938,938,938,908,908,908,906,906,906,906,901,901,898,898,898,898,898,898,898,898,901,901,903,906,908,910,913,913,915,915,915,0,0,0,0,0,1464,1464,1464,1464,1464,1464,1464,1458,1458,1452,1452,1445,1445,1445,1445,1445,1439,1439,1439,1439,1439,1439,1439,1433,1433,1433,1427,1427,1421,1421,1421,1421,1415,1415,1415,1415,1410,1410,1410,1404,1398,1398,1398,1398,1392,1392,1392,1392,1387,1387,1387,1387,1387,1381,1381,1376,1376,1376,1370,1370,1370,1370,1365,1365,1365,1365,1359,1354,1354,1354,1354,1354,1349,1349,1349,1349,1343,1343,1338,1338,1338,1333,1333,1333,1328,1328,1328,1328,1328,1322,1322,1322,1317,1317,1312,1312,1312,1307,1307,1307,1302,1302,1302,1302,1297,1297,1297,1292,1292,1292,1288,1288,1288,1288,1288,1288,1283,1283,1278,1273,1273,1273,1273,1273,1273,1273,1273,1268,1268,1268,1264,1259,1259,1259,1255,1255,1255,1250,1250,1250,1250,1250,1250,1250,1245,1241,1236,1236,1236,1236,1236,1232,1232,1232,1232,1232,1227,1223,1223,1223,1219,1219,1214,1214,1214,1214,1214,1210,1210,1206,1206,1206,1206,1202,1202,1197,1197,1197,1197,1197,1193,1193,1193,1189,1185,1185,1185,1185,1185,1185,1185,1185,1181,1181,1181,1181,1177,1177,1177,1173,1173,1169,1169,1169,1169,1169,1165,1165,1165,1165,1161,1161,1157,1157,1153,1153,1153,1153,1153,1153,1153,1149,1149,1145,1145,1145,1141,1141,1141,1138,1138,1138,1138,1138,0,0,0,0,0,0,0,0,0,0,0,0,0,0,0,0,0,0,0,0,0,0,0,0,0,0,0,0
0,0,0,0,0,0,0,0,0,0,0,0,0,0,1601,1601,1594,1594,1594,1594,1594,1594,1594,1594,1594,1594,1594,1586,1586,1594,1594,1594,1594,1594,1594,1594,1594,1594,1586,1586,1586,1586,1586,1586,1586,1586,1586,1586,1579,1579,1579,1579,1579,1586,1586,1579,1579,1579,1586,1586,1586,1586,1594,1586,1586,1586,1586,1586,1579,1579,1579,1579,1579,1572,1572,1572,1572,1572,1572,1572,1572,1579,1579,1572,1572,1572,1572,1579,1586,1586,1594,1601,1601,1601,1601,1696,1713,1713,1722,1722,1722,1722,1731,1731,1731,1731,1731,1731,1722,1713,1713,1713,1705,1705,1696,1696,1688,1609,1601,1601,1594,1594,1594,1594,1594,1594,1601,1601,1601,1601,1601,1609,1609,1616,1616,1624,1624,1624,1632,1632,1632,1632,1639,1639,1647,1655,1655,1655,1663,1663,1663,1663,1663,1663,1663,1663,1663,975,975,0,0,0,995,995,995,995,995,998,995,987,981,981,978,978,978,978,981,981,992,987,987,987,981,981,981,984,984,984,987,989,992,992,992,992,992,989,989,989,987,984,984,981,978,978,978,978,975,975,973,973,973,956,956,959,959,959,959,973,973,975,973,967,967,967,967,984,970,967,967,967,967,967,967,967,970,970,973,975,970,967,967,964,964,964,964,964,967,967,967,967,964,964,964,964,967,967,962,962,964,964,964,964,962,962,962,964,964,962,959,956,956,954,951,948,948,948,948,948,948,948,951,951,951,951,951,951,948,948,943,943,943,943,946,943,940,940,938,938,938,935,935,935,951,954,954,951,948,946,946,946,946,943,943,943,943,940,938,935,935,933,933,935,930,930,940,946,946,946,943,943,946,943,943,940,938,935,935,935,935,935,933,933,935,933,910,908,908,908,908,906,906,906,901,901,898,898,898,898,898,898,898,898,901,903,906,908,908,910,913,913,915,915,915,0,0,0,0,1464,1464,1464,1464,1464,1464,1464,1464,1464,1458,1452,1452,1452,1452,1445,1445,1445,1445,1445,1439,1439,1439,1439,1439,1439,1433,1433,1433,1427,1421,1421,1421,1421,1421,1415,1415,1415,1415,1410,1410,1404,1404,1398,1398,1398,1392,1392,1392,1392,1392,1392,1392,1392,1387,1387,1387,1381,1381,1376,1370,1370,1370,1370,1365,1365,1365,1365,1359,1359,1354,1354,1354,1354,1349,1349,1349,1349,1343,1343,1338,1338,1338,1333,1333,1333,1333,1333,1328,1328,1328,1322,1322,1322,1317,1317,1312,1312,1312,1312,1307,1307,1307,1302,1302,1302,1302,1297,1297,1297,1292,1292,1292,1288,1288,1288,1288,1288,1288,1288,1278,1278,1273,1273,1273,1273,1273,1273,1273,1268,1268,1268,1268,1264,1259,1259,1255,1255,1255,1255,1255,1255,1250,1250,1250,1250,1245,1241,1236,1236,1236,1236,1236,1232,1232,1232,1232,1232,1227,1223,1223,1223,1219,1219,1214,1214,1214,1214,1214,1214,1210,1210,1210,1206,1206,1202,1202,1202,1202,1202,1202,1197,1197,1193,1193,1189,1185,1185,1185,1185,1185,1185,1185,1185,1181,1181,1181,1181,1177,1177,1177,1173,1173,1169,1169,1169,1169,1169,1165,1165,1165,1165,1165,1161,1161,1157,1157,1157,1153,1153,1153,1153,1153,1149,1149,1149,1149,1149,1145,1141,1141,1141,1138,1138,1138,1138,0,0,0,0,0,0,0,0,0,0,0,0,0,0,0,0,0,0,0,0,0,0,0,0,0,0,0,0
0,0,0,0,0,0,0,0,0,0,0,0,0,0,1601,1601,1601,1594,1594,1594,1594,1601,1601,1594,1594,1594,1594,1594,1594,1594,1594,1594,1594,1594,1594,1594,1594,1594,1586,1586,1586,1586,1586,1586,1586,1586,1586,1586,1586,1586,1579,1579,1579,1586,1586,1586,1586,1586,1586,1594,1594,1594,1594,1594,1594,1586,1586,1586,1586,1586,1579,1579,1579,1572,1572,1572,1572,1572,1572,1572,1572,1579,1579,1572,1572,1572,1579,1579,1579,1586,1601,1601,1601,1601,1601,1696,1713,1713,1722,1722,1722,1731,1731,1731,1731,1731,1731,1731,1731,1722,1722,1713,1705,1705,1696,1696,1696,1688,1609,1609,1601,1601,1594,1594,1601,1601,1601,1601,1601,1601,1601,1609,1609,1616,1616,1616,1624,1624,1632,1632,1632,1632,1639,1639,1647,1655,1655,1663,1663,1663,1663,1663,1663,1663,978,978,975,975,975,975,973,973,989,989,989,995,995,995,995,973,973,973,975,975,975,975,975,975,975,978,978,975,975,975,975,978,978,978,984,987,989,989,989,989,989,989,989,989,987,981,978,978,975,975,975,975,973,973,967,967,959,956,956,959,959,956,956,962,962,967,967,964,964,964,964,964,964,964,964,964,964,964,964,964,967,970,967,967,967,964,964,962,962,962,962,962,962,959,959,959,959,956,956,956,956,954,954,954,954,954,948,946,946,954,954,956,956,956,956,954,954,951,948,946,946,946,946,946,946,946,948,946,946,946,946,946,943,940,940,940,938,938,940,940,938,938,935,935,935,935,933,933,930,930,930,933,938,935,935,935,943,943,943,940,940,935,935,935,933,930,930,933,928,928,928,928,928,930,928,928,930,930,935,928,928,935,935,935,933,930,930,930,930,930,910,908,908,908,908,906,906,906,901,901,898,898,898,898,898,898,898,898,901,903,908,908,910,913,915,915,915,915,918,0,0,0,0,1464,1464,1464,1464,1464,1464,1464,1464,1464,1458,1452,1452,1452,1452,1452,1445,1445,1445,1445,1439,1439,1439,1439,1439,1433,1433,1433,1433,1433,1427,1421,1421,1421,1421,1421,1415,1415,1415,1410,1410,1410,1404,1398,1398,1398,1398,1392,1392,1392,1392,1392,1392,1392,1392,1387,1387,1381,1381,1376,1376,1370,1370,1370,1370,1370,1370,1365,1365,1359,1354,1354,1354,1354,1354,1349,1349,1349,1343,1343,1343,1338,1338,1333,1333,1333,1333,1333,1328,1328,1328,1328,1322,1322,1322,1317,1317,1312,1312,1312,1307,1307,1307,1307,1302,1302,1302,1297,1297,1297,1292,1292,1292,1292,1288,1288,1288,1288,1288,1283,1278,1278,1278,1273,1273,1273,1273,1273,1273,1273,1273,1273,1268,1264,1259,1259,1255,1255,1255,1255,1255,1255,1250,1250,1250,1250,1250,1245,1241,1236,1236,1236,1236,1236,1232,1232,1232,1232,1227,1227,1227,1223,1223,1223,1219,1219,1219,1219,1214,1214,1210,1210,1210,1206,1206,1202,1202,1202,1202,1202,1202,1197,1197,1193,1193,1193,1189,1185,1185,1185,1185,1185,1185,1185,1181,1181,1181,1181,1177,1177,1177,1173,1173,1173,1169,1169,1169,1169,1165,1165,1165,1165,1165,1161,1161,1157,1157,1157,1153,1153,1153,1153,1153,1153,1149,1149,1149,1149,1145,1145,1141,1141,1138,1138,1138,1138,0,0,0,0,0,0,0,0,0,0,0,0,0,0,0,0,0,0,0,0,0,0,0,0,0,0,0,0
