0,0,0,0,0,0,0,0,1241,1232,1232,1227,1227,1236,1236,1232,1232,1232,1232,1232,1232,1232,1232,1232,1236,1236,1232,1232,1232,1232,1232,1236,1236,1236,1236,1236,1241,1236,1236,1236,1241,1241,1241,1236,1236,1236,1232,1232,1232,1236,1236,1236,1236,1236,1236,1236,1236,1236,1236,1232,1232,1236,1236,1236,1236,1236,1236,1236,1236,1236,1236,1236,1232,1232,1227,1227,978,978,975,973,973,970,967,964,964,964,964,964,964,964,967,967,970,973,973,975,975,978,978,981,984,984,987,989,989,995,998,1001,1001,1001,1004,1004,1007,1010,1013,1013,1013,1019,1022,1022,1022,1022,1022,1022,1022,1028,1223,1223,1223,1223,1223,1223,1223,1223,1227,1227,1227,1223,1223,1223,1223,1223,1223,1223,1223,1223,1223,1223,1223,1223,1219,1219,1223,1223,1223,1223,1223,1223,1223,1223,1223,1223,1223,1223,1223,1223,1223,1223,1223,1219,1219,1219,1219,1223,1223,1223,1223,1223,1223,1219,1219,1219,1219,1219,1219,1223,1223,1227,1223,1223,1223,1223,1223,1223,0,0,0,0,0,0,0,0,0,0,0,0,722,722,722,720,720,717,714,713,711,710,710,708,708,708,707,707,706,706,707,708,713,713,714,714,716,717,720,720,723,727,727,728,728,730,0,0,0,1010,1010,1010,1010,1010,1010,1007,1007,1004,1004,1001,1001,998,998,995,992,992,989,989,989,989,989,987,984,984,981,978,978,978,978,975,975,975,975,975,975,975,975,975,973,973,970,970,967,967,967,967,1223,1219,1219,1219,1214,1214,1214,1210,1210,1210,1210,1210,1210,1210,1210,1210,1210,1210,1214,1214,964,964,967,967,970,970,973,970,970,970,970,970,970,973,973,975,978,981,984,987,987,989,992,998,1001,1001,1004,1007,1010,1019,1019,1197,1197,1202,1202,1202,1202,1202,1115,1115,1115,1115,1112,1112,1108,1108,1108,1105,1105,1105,1105,1105,1105,1105,1108,1108,1112,1112,1115,1115,1202,1202,1202,1197,1197,1197,1197,1202,1202,1202,1202,1202,1197,1197,1197,1197,1197,1197,1197,1197,1197,1197,1197,1197,1197,1197,1197,1197,1197,1197,1197,1197,1197,1197,1197,1197,1197,1197,1197,1193,1193,1193,1193,1193,1189,1189,1193,1193,1193,1193,1193,1193,1193,1193,1193,1193,1193,1193,1193,1189,1189,1193,1193,1193,1193,1193,1193,1193,1193,1193,1189,1189,1193,1193,1193,1193,1189,1189,1189,1189,1189,1189,1189,1189,1189,1189,1189,1189,1189,1189,1189,1189,1189,1189,1189,1189,1189,1185,1185,1185,1185,1185,1185,1185,1185,1185,1185,1185,1185,1185,1185,1185,1181,1181,1181,1181,1181,1181,1181,1181,1181,1181,1181,1181,1181,1181,1185,1181,1181,1181,1181,1181,1181,1181,1181,1181,1181,1177,1177,1177,1177,1177,1177,1181,1177,1177,1181,1181,1181,1181,1181,1181,1177,1177,1177,1177,1173,1173,1173,1173,1177,1173,1173,1173,1173,1173,1169,1169,1173,1173,1173,1173,1173,1177,1177,1173,1173,1173,1173,1169,1169,1067,1063,1063,1067,1063,1060,1057,1057,1054,1054,1054,1054,938,938,938,938,938,938,938,938,938,938,938,938,938,938,938,938,940,943,943,943,946,946,946,946,948,948,951,954,956,962,964,967,970,970,970,970,967,967,964,962,959,956,956,0,0,0,0,0,0,0,0,0,0,0,0,0,0,0,0,0,0,0,0,0,0,0,0,0,0,0,0,0,0,0,0,0,0
0,0,0,0,0,0,0,0,0,1232,1232,1227,1227,1232,1232,1232,1232,1227,1227,1227,1227,1227,1227,1227,1232,1232,1232,1227,1227,1227,1232,1232,1232,1232,1232,1232,1236,1232,1232,1232,1232,1232,1232,1232,1232,1232,1227,1227,1227,1227,1227,1227,1227,1232,1232,1232,1232,1232,1232,1232,1232,1232,1232,1232,1232,1232,1232,1232,1232,1232,1232,1232,1232,1232,1227,1227,978,978,975,975,973,973,967,964,964,964,964,964,964,964,967,967,970,973,973,975,975,978,981,981,984,987,987,989,992,995,998,1001,1001,1004,1004,1004,1007,1010,1013,1013,1013,1019,1022,1022,1022,1022,1022,1022,1022,1227,1227,1223,1223,1223,1223,1223,1223,1223,1223,1227,1223,1223,1223,1223,1219,1219,1219,1219,1219,1219,1219,1219,1219,1219,1214,1214,1214,1219,1219,1219,1219,1219,1219,1219,1219,1219,1219,1219,1219,1219,1219,1219,1219,1219,1219,1219,1219,1219,1219,1219,1219,1219,1214,1214,1214,1214,1214,1214,1219,1219,1219,1219,1219,1219,1219,1219,1214,1214,0,0,0,0,0,0,0,0,0,0,0,0,723,722,722,722,720,717,716,714,713,711,710,710,710,708,708,708,707,707,708,710,713,713,714,716,717,719,720,722,723,727,728,728,730,730,0,736,0,0,0,1013,1010,1010,1010,1007,1007,1007,1004,1004,1001,1001,998,995,992,992,989,989,989,989,989,984,981,981,978,978,978,975,975,975,975,975,975,973,973,975,973,973,970,970,970,967,967,967,967,964,964,964,1219,1219,1214,1210,1210,1210,1210,1210,1206,1206,1206,1206,1206,1206,1206,951,951,956,964,964,964,964,967,967,970,970,970,970,970,970,970,970,973,975,978,981,984,987,987,992,995,998,1001,1001,1004,1007,1010,1019,1193,1193,1197,1197,1197,1197,1197,1202,1119,1119,1115,1115,1115,1112,1108,1108,1108,1105,1105,1105,1105,1105,1105,1108,1108,1112,1115,1115,1115,1115,1197,1197,1197,1197,1197,1193,1193,1193,1193,1193,1193,1197,1193,1193,1197,1197,1197,1193,1193,1197,1193,1193,1193,1193,1193,1197,1193,1193,1193,1193,1193,1193,1193,1193,1193,1193,1193,1193,1193,1189,1189,1189,1189,1189,1185,1185,1185,1189,1189,1189,1189,1193,1193,1193,1193,1193,1193,1189,1189,1189,1189,1189,1189,1189,1189,1189,1189,1189,1185,1185,1189,1189,1189,1189,1189,1189,1189,1189,1185,1185,1185,1185,1185,1185,1185,1185,1185,1185,1185,1185,1185,1185,1185,1185,1185,1185,1185,1185,1181,1181,1181,1181,1181,1181,1181,1181,1181,1181,1181,1181,1181,1181,1181,1181,1181,1181,1181,1177,1177,1177,1177,1181,1181,1181,1181,1181,1177,1177,1177,1181,1181,1177,1177,1177,1177,1177,1177,1173,1169,1169,1173,1173,1173,1173,1173,1173,1177,1177,1181,1177,1177,1177,1177,1173,1173,1173,1169,1169,1169,1169,1169,1169,1169,1169,1169,1169,1169,1169,1169,1169,1169,1169,1169,1173,1173,1173,1173,1169,1169,1169,1169,1169,1063,1063,1063,1063,1063,1057,1057,1054,1054,1054,1054,938,938,938,938,938,938,938,938,938,938,938,938,938,938,938,938,940,943,943,946,946,946,946,946,948,948,951,954,956,962,967,967,970,970,970,967,967,964,962,959,956,956,956,0,0,0,0,0,0,0,0,0,0,0,0,0,0,0,0,0,0,0,0,0,0,0,0,0,0,0,0,0,0,0,0,0,0
0,0,0,0,0,0,0,0,1232,1232,1232,1232,1232,1227,1227,1227,1227,1223,1223,1227,1223,1223,1223,1223,1227,1227,1227,1227,1227,1227,1227,1227,1227,1227,1227,1227,1227,1227,1227,1227,1223,1223,1223,1223,1223,1223,1219,1219,1219,1223,1223,1223,1223,1223,1227,1227,1232,1232,1232,1227,1227,1227,1227,1227,1227,1227,1227,1227,1227,1227,1227,1227,1227,1227,1227,1227,978,978,975,975,973,973,967,967,964,964,964,964,964,964,967,967,970,973,975,975,975,978,981,981,984,987,989,992,992,995,998,1001,1001,1004,1004,1007,1010,1010,1013,1013,1016,1019,1019,1022,1022,1022,1022,1214,1219,1219,1219,1223,1223,1223,1223,1223,1223,1223,1223,1223,1223,1219,1219,1219,1214,1214,1214,1219,1219,1219,1219,1219,1219,1219,1214,1214,1214,1214,1214,1214,1214,1214,1214,1214,1214,1214,1214,1214,1214,1214,1214,1214,1214,1214,1219,1219,1219,1214,1214,1214,1214,1210,1210,1210,1210,1214,1214,1214,1214,1214,1214,1219,1214,1214,1214,1210,1210,1210,0,0,0,0,0,0,0,0,0,0,0,0,723,722,722,722,722,719,717,714,713,711,710,710,710,708,708,708,708,708,708,710,713,713,714,716,719,720,720,722,725,728,728,730,730,730,736,736,739,742,0,1013,1010,1010,1010,1010,1010,1007,1007,1004,1004,1001,998,998,995,992,989,989,989,989,989,984,981,978,978,978,975,975,975,975,975,973,973,973,973,973,973,970,970,970,967,967,967,964,964,964,962,962,962,1214,1214,1210,1206,1206,1206,1206,1202,1202,1202,1202,1202,1206,1206,951,951,954,959,962,962,962,964,964,964,964,964,964,967,967,970,970,973,973,975,981,984,987,989,992,995,998,1001,1001,1004,1007,1013,1181,1189,1193,1193,1197,1197,1197,1197,1197,1119,1119,1119,1119,1115,1115,1112,1108,1108,1108,1105,1105,1105,1105,1105,1108,1112,1115,1115,1119,1115,1115,1197,1197,1193,1193,1189,1189,1189,1189,1189,1189,1189,1189,1189,1189,1189,1189,1189,1189,1189,1189,1189,1189,1189,1189,1189,1193,1193,1193,1193,1193,1189,1189,1189,1189,1189,1193,1193,1193,1193,1189,1189,1189,1189,1185,1185,1185,1185,1185,1189,1185,1185,1189,1189,1189,1189,1185,1185,1189,1185,1185,1185,1185,1185,1185,1185,1185,1185,1185,1185,1185,1185,1185,1185,1185,1185,1185,1185,1185,1185,1185,1185,1181,1181,1181,1181,1181,1181,1181,1181,1181,1181,1181,1181,1181,1181,1181,1181,1181,1181,1181,1181,1181,1181,1181,1181,1181,1181,1177,1177,1177,1177,1181,1181,1177,1177,1177,1177,1177,1177,1177,1177,1177,1177,1177,1173,1173,1173,1173,1173,1173,1173,1177,1177,1173,1173,1173,1173,1169,1169,1169,1169,1169,1169,1169,1169,1173,1173,1173,1177,1177,1173,1173,1173,1173,1173,1173,1169,1169,1169,1169,1169,1169,1165,1165,1165,1165,1165,1165,1165,1165,1165,1165,1169,1169,1169,1169,1169,1169,1169,1169,1169,1169,1063,1063,1063,1063,1063,1060,1060,1057,1057,1057,1054,938,938,938,938,938,938,938,938,938,938,938,938,938,938,938,938,940,943,943,946,946,946,946,948,948,948,951,954,956,962,964,967,967,967,967,967,964,962,959,959,956,954,954,0,0,0,0,0,0,0,0,0,0,0,0,0,0,0,0,0,0,0,0,0,0,0,0,0,0,0,0,0,0,0,0,0,0
0,0,0,0,0,0,0,0,1227,1227,1227,1227,1227,1223,1223,1223,1223,1223,1223,1223,1223,1223,1223,1223,1223,1223,1223,1223,1223,1223,1227,1227,1227,1227,1223,1223,1223,1223,1219,1219,1219,1219,1219,1219,1219,1219,1214,1214,1219,1219,1219,1219,1219,1219,1223,1223,1223,1227,1227,1227,1227,1227,1227,1223,1223,1223,1223,1223,1223,1223,1223,1223,1223,1219,1219,1219,1219,975,975,975,975,973,970,967,967,964,964,964,964,964,967,967,970,973,975,975,975,978,978,984,984,987,989,992,992,995,998,1001,1004,1004,1007,1007,1010,1010,1013,1013,1016,1019,1019,1022,1022,1022,1210,1214,1214,1214,1219,1219,1219,1214,1214,1219,1219,1219,1219,1223,1219,1219,1214,1214,1214,1214,1214,1214,1214,1214,1214,1214,1214,1214,1214,1214,1214,1210,1210,1210,1214,1214,1214,1214,1214,1214,1214,1210,1210,1210,1214,1214,1214,1214,1214,1214,1214,1214,1214,1214,1210,1206,1206,1206,1206,1210,1210,1210,1210,1214,1214,1214,1210,1210,1210,1206,1202,1197,1197,0,0,0,0,0,0,0,0,0,0,0,723,722,722,722,722,720,719,716,713,713,711,710,710,710,708,708,708,708,710,710,713,713,714,716,719,720,720,722,725,728,730,730,730,733,736,739,739,742,0,0,1010,1010,1010,1010,1010,1010,1007,1007,1007,1004,1001,998,995,992,992,989,989,989,987,984,981,978,978,978,975,975,975,975,975,973,973,970,970,970,970,970,970,967,967,967,964,964,964,964,962,959,956,956,956,956,956,956,1206,1206,1202,1202,1197,1197,1202,951,951,951,951,954,959,959,959,959,962,959,959,962,962,962,962,964,967,970,970,973,975,981,984,984,989,992,995,998,1001,1001,1004,1181,1181,1181,1189,1189,1193,1193,1193,1193,1193,1193,1119,1119,1119,1119,1119,1119,1115,1112,1112,1108,1108,1108,1108,1108,1108,1108,1112,1115,1119,1119,1119,1197,1193,1193,1189,1189,1189,1185,1185,1185,1185,1185,1185,1185,1185,1185,1185,1185,1185,1185,1189,1185,1185,1185,1185,1185,1185,1189,1189,1189,1189,1185,1185,1185,1185,1185,1185,1185,1189,1189,1189,1185,1185,1185,1185,1185,1185,1185,1185,1185,1185,1185,1185,1185,1185,1185,1185,1185,1185,1185,1185,1181,1181,1185,1185,1185,1181,1181,1181,1181,1181,1181,1181,1181,1181,1181,1181,1181,1181,1181,1181,1181,1181,1181,1181,1181,1181,1181,1181,1177,1177,1177,1177,1177,1177,1177,1177,1173,1173,1173,1173,1173,1173,1173,1177,1177,1177,1177,1177,1173,1173,1173,1173,1173,1173,1173,1173,1173,1173,1173,1173,1169,1169,1173,1173,1169,1169,1169,1169,1169,1169,1169,1169,1169,1169,1169,1169,1169,1169,1165,1165,1165,1165,1165,1165,1165,1165,1169,1169,1173,1173,1173,1169,1169,1169,1169,1169,1169,1165,1165,1165,1165,1165,1165,1165,1165,1165,1165,1165,1165,1165,1165,1165,1165,1165,1165,1165,1165,1165,1165,1165,1165,1165,1165,1063,1060,1060,1060,1057,1057,1057,1057,1057,1057,938,938,938,938,938,938,938,938,938,938,938,938,938,938,938,938,938,938,940,943,946,946,946,948,948,948,948,951,954,956,962,964,967,967,967,967,967,964,962,959,959,956,954,954,0,0,0,0,0,0,0,0,0,0,0,0,0,0,0,0,0,0,0,0,0,0,0,0,0,0,0,0,0,0,0,0,0,0
0,0,0,0,0,0,0,0,1227,1227,1227,1227,1223,1219,1219,1219,1219,1219,1219,1219,1219,1219,1219,1219,1219,1219,1219,1219,1219,1219,1223,1223,1223,1223,1219,1219,1219,1219,1219,1219,1214,1214,1214,1214,1214,1214,1214,1214,1214,1214,1219,1219,1219,1219,1223,1219,1219,1223,1223,1219,1219,1219,1219,1223,1223,1223,1223,1223,1223,1223,1219,1219,1219,1219,1214,1214,1214,1214,975,975,975,975,973,970,967,967,967,967,967,967,967,970,973,973,975,975,975,978,978,981,984,987,989,992,995,995,998,1001,1004,1004,1007,1010,1010,1010,1013,1013,1016,1210,1210,1210,1210,1210,1210,1214,1214,1214,1214,1214,1214,1210,1210,1210,1210,1214,1214,1219,1219,1219,1214,1210,1210,1210,1210,1210,1210,1210,1210,1210,1214,1210,1210,1210,1210,1210,1210,1210,1210,1210,1210,1210,1210,1210,1210,1210,1210,1210,1210,1210,1210,1210,1210,1210,1214,1210,1210,1210,1206,1206,1202,1202,1206,1206,1206,1206,1206,1210,1210,1210,1210,1210,1206,1202,1193,1193,1193,0,0,0,0,0,0,0,0,0,0,0,723,722,722,722,722,722,720,716,714,713,713,711,710,710,710,708,708,708,710,711,713,713,714,717,719,720,720,723,725,728,730,731,731,734,736,739,739,742,0,0,0,0,1013,1013,1010,1010,1007,1007,1007,1004,1001,998,995,992,992,989,989,989,987,984,981,978,978,978,975,975,975,975,973,973,970,970,970,970,967,967,967,967,964,964,964,964,964,962,959,959,956,956,954,954,954,954,954,954,1202,1202,1197,1197,951,951,951,951,951,956,956,956,959,959,959,956,956,956,959,959,962,962,964,970,970,973,975,981,984,984,989,992,995,998,1001,1001,1004,1181,1185,1185,1189,1189,1193,1193,1193,1193,1193,1193,1193,1119,1119,1119,1119,1119,1115,1115,1112,1112,1108,1108,1108,1108,1108,1112,1112,1115,1119,1119,1119,1193,1189,1185,1185,1185,1185,1185,1185,1185,1185,1185,1185,1185,1185,1185,1181,1181,1181,1181,1181,1181,1181,1185,1185,1185,1185,1185,1185,1185,1185,1185,1181,1181,1181,1181,1181,1181,1185,1185,1185,1185,1185,1185,1185,1185,1185,1181,1181,1181,1181,1181,1181,1181,1181,1181,1181,1181,1181,1181,1181,1181,1181,1181,1181,1181,1181,1177,1177,1177,1177,1177,1177,1177,1177,1181,1181,1181,1177,1177,1177,1177,1181,1177,1177,1177,1177,1177,1173,1173,1173,1173,1173,1173,1173,1173,1173,1169,1169,1169,1169,1169,1169,1169,1173,1173,1173,1173,1173,1173,1173,1169,1169,1169,1169,1169,1169,1169,1169,1169,1169,1169,1169,1169,1169,1169,1165,1165,1165,1169,1169,1169,1169,1165,1165,1165,1165,1165,1165,1165,1165,1165,1165,1165,1165,1165,1165,1169,1169,1169,1169,1169,1169,1165,1165,1165,1165,1165,1165,1161,1161,1161,1161,1161,1161,1161,1161,1161,1157,1157,1157,1157,1153,1153,1153,1157,1157,1157,1157,1161,1161,1165,1161,1161,1060,1060,1060,1060,1057,1057,1057,1054,1054,1057,938,938,938,938,938,938,938,938,938,938,938,938,938,938,938,938,938,938,940,943,946,946,946,948,948,948,951,951,956,959,964,967,967,967,967,967,964,962,959,959,956,956,954,954,0,0,0,0,0,0,0,0,0,0,0,0,0,0,0,0,0,0,0,0,0,0,0,0,0,0,0,0,0,0,0,0,0,0
0,0,0,0,0,0,0,0,1227,1223,1223,1223,1219,1214,1214,1214,1214,1214,1214,1214,1214,1219,1214,1214,1219,1219,1219,1219,1219,1219,1219,1219,1219,1219,1219,1219,1219,1219,1214,1214,1214,1214,1214,1214,1214,1214,1214,1214,1214,1214,1214,1214,1214,1214,1219,1219,1219,1219,1214,1214,1214,1214,1214,1214,1214,1214,1214,1214,1219,1219,1214,1214,1214,1214,1214,1210,1210,1210,975,975,975,975,975,973,970,967,967,967,967,967,967,970,973,973,975,975,975,978,981,981,984,987,989,989,992,995,998,1001,1004,1004,1007,1010,1010,1010,1013,1013,1013,1210,1210,1210,1210,1210,1210,1210,1210,1210,1210,1210,1210,1206,1206,1206,1206,1210,1210,1210,1210,1210,1210,1210,1210,1210,1210,1210,1210,1210,1210,1210,1210,1210,1210,1210,1210,1206,1206,1206,1206,1206,1206,1206,1206,1206,1206,1202,1202,1202,1206,1206,1206,1206,1206,1210,1210,1206,1206,1206,1202,1202,1202,1202,1202,1202,1202,1202,1202,1206,1210,1210,1206,1206,1206,1202,1193,1189,1181,1181,0,0,0,0,0,0,0,0,0,0,723,723,723,723,723,722,720,717,716,713,713,713,711,710,710,710,710,710,710,711,713,713,714,717,720,720,722,723,728,730,730,733,733,736,736,738,739,0,0,0,0,0,0,0,1193,1010,1010,1010,1010,1007,1004,998,998,995,992,992,989,989,987,984,981,978,978,978,975,975,975,975,973,973,970,970,967,967,967,967,964,964,964,964,964,964,962,962,959,959,956,956,954,954,954,954,954,954,954,954,951,951,948,948,948,948,951,956,956,956,956,956,956,956,956,956,956,959,959,962,964,970,973,975,978,978,984,984,987,992,995,998,1001,1181,1181,1181,1185,1185,1189,1189,1193,1193,1193,1189,1189,1189,1193,1123,1119,1119,1119,1119,1119,1115,1115,1112,1112,1108,1108,1112,1112,1112,1115,1119,1119,1119,1123,1189,1185,1185,1185,1185,1185,1181,1181,1181,1181,1185,1181,1181,1181,1181,1181,1181,1181,1181,1181,1181,1181,1181,1181,1181,1181,1181,1181,1181,1181,1181,1181,1181,1181,1181,1181,1181,1181,1181,1181,1181,1181,1181,1181,1181,1181,1181,1181,1181,1181,1181,1181,1181,1181,1181,1181,1177,1177,1177,1181,1177,1177,1177,1177,1177,1177,1173,1173,1173,1177,1173,1173,1177,1177,1177,1177,1177,1173,1173,1177,1177,1177,1173,1173,1177,1177,1173,1169,1169,1169,1169,1169,1169,1169,1169,1169,1169,1169,1169,1169,1169,1169,1169,1169,1169,1169,1169,1169,1169,1169,1169,1169,1169,1165,1165,1165,1165,1165,1169,1169,1165,1165,1165,1165,1165,1161,1161,1165,1165,1165,1165,1165,1165,1165,1165,1165,1165,1165,1161,1161,1161,1161,1161,1161,1161,1161,1165,1161,1161,1161,1165,1165,1161,1161,1161,1161,1161,1161,1157,1157,1161,1157,1157,1157,1157,1157,1157,1157,1157,1153,1153,1153,1153,1153,1153,1153,1153,1153,1157,1157,1161,1161,1161,1063,1063,1063,1063,1057,1057,1057,1054,1054,938,938,938,938,938,938,938,938,938,938,938,938,938,938,938,938,938,938,938,940,943,943,946,946,948,948,948,951,954,956,962,964,967,967,967,967,964,962,962,959,959,956,956,954,954,0,0,0,0,0,0,0,0,0,0,0,0,0,0,0,0,0,0,0,0,0,0,0,0,0,0,0,0,0,0,0,0,0,0
0,0,0,0,0,0,0,0,1223,1219,1219,1219,1214,1214,1214,1214,1214,1214,1214,1214,1214,1214,1214,1214,1219,1214,1214,1214,1214,1219,1219,1214,1214,1214,1214,1214,1214,1214,1210,1210,1210,1210,1210,1210,1210,1210,1210,1210,1210,1210,1214,1214,1214,1214,1214,1214,1214,1214,1214,1210,1210,1210,1210,1210,1210,1210,1214,1214,1214,1214,1210,1210,1210,1210,1210,1210,1206,1206,978,978,978,978,975,973,973,970,970,967,967,967,970,970,973,973,975,975,975,978,981,981,984,987,989,989,992,995,998,1001,1001,1004,1004,1010,1010,1010,1010,1013,1206,1206,1206,1206,1210,1210,1210,1210,1210,1210,1206,1206,1206,1202,1202,1202,1202,1202,1206,1206,1206,1206,1206,1206,1206,1210,1210,1210,1210,1210,1210,1210,1206,1202,1202,1206,1206,1202,1202,1202,1202,1202,1202,1202,1202,1206,1202,1202,1202,1202,1202,1202,1202,1202,1202,1206,1206,1202,1202,1202,1202,1197,1197,1197,1197,1197,1202,1202,1202,1202,1202,1202,1202,1202,1197,1197,1193,1189,1181,1181,0,0,0,0,0,0,0,0,0,0,0,723,723,723,723,722,722,719,716,714,713,713,711,711,710,710,710,710,711,713,713,714,716,719,720,720,722,723,728,730,730,733,733,736,736,738,741,0,0,0,0,0,0,0,1189,1189,1189,1189,1010,1010,1004,998,998,995,992,992,992,989,987,984,981,978,978,978,975,975,975,975,973,973,970,967,967,967,964,964,964,964,962,962,962,962,962,959,956,956,956,956,954,954,954,954,954,951,951,951,951,951,948,948,948,948,948,954,954,954,954,954,954,954,954,954,954,956,959,962,964,970,973,975,978,978,984,984,984,989,995,995,998,1181,1181,1185,1185,1185,1185,1185,1185,1189,1189,1185,1185,1185,1185,1123,1123,1123,1123,1119,1119,1119,1115,1115,1112,1112,1112,1112,1112,1115,1115,1119,1119,1123,1123,1126,1181,1181,1181,1181,1181,1181,1181,1181,1181,1181,1181,1181,1181,1181,1177,1177,1177,1177,1177,1177,1177,1177,1177,1177,1177,1177,1177,1181,1181,1181,1177,1177,1177,1177,1177,1177,1177,1177,1181,1181,1181,1181,1181,1181,1181,1177,1177,1177,1177,1177,1177,1177,1177,1177,1177,1173,1173,1173,1177,1173,1173,1173,1173,1177,1173,1173,1173,1169,1169,1169,1169,1169,1169,1169,1169,1169,1169,1169,1173,1173,1169,1169,1169,1169,1169,1169,1169,1169,1169,1169,1169,1169,1169,1169,1169,1169,1165,1165,1165,1165,1165,1165,1169,1169,1169,1169,1169,1165,1165,1165,1165,1165,1165,1165,1165,1165,1165,1165,1165,1165,1161,1161,1161,1161,1157,1157,1161,1161,1161,1161,1161,1161,1161,1165,1161,1161,1161,1161,1157,1157,1157,1157,1157,1157,1157,1157,1157,1157,1157,1161,1161,1161,1161,1157,1157,1157,1157,1153,1153,1157,1153,1153,1157,1157,1157,1157,1157,1157,1153,1153,1149,1149,1149,1149,1149,1153,1153,1153,1153,1153,1153,989,989,989,989,989,989,989,989,989,938,938,938,938,938,938,938,938,938,938,938,938,938,938,938,938,938,938,938,938,940,940,943,946,946,948,948,948,951,954,959,962,964,967,967,967,967,964,962,962,959,959,956,956,954,954,0,0,0,0,0,0,0,0,0,0,0,0,0,0,0,0,0,0,0,0,0,0,0,0,0,0,0,0,0,0,0,0,0,0
0,0,0,0,0,0,0,0,1219,1219,1214,1214,1214,1210,1210,1210,1210,1210,1210,1210,1210,1214,1214,1214,1219,1214,1214,1214,1214,1214,1214,1214,1214,1210,1210,1210,1210,1210,1210,1210,1210,1210,1210,1210,1210,1210,1210,1210,1210,1210,1210,1210,1210,1210,1210,1210,1210,1210,1210,1210,1210,1210,1210,1210,1210,1210,1210,1210,1210,1210,1210,1210,1210,1206,1206,1206,1202,1202,1202,981,981,978,978,975,975,973,973,970,970,970,970,970,973,973,975,975,978,978,981,984,984,987,989,992,995,998,998,1001,1001,1001,1004,1010,1010,1010,1010,1197,1197,1206,1206,1206,1206,1210,1206,1206,1206,1206,1206,1206,1202,1202,1202,1197,1197,1197,1202,1202,1202,1202,1202,1202,1206,1206,1202,1202,1202,1202,1206,1202,1202,1202,1202,1202,1202,1197,1197,1197,1197,1197,1197,1197,1197,1202,1197,1197,1197,1197,1197,1197,1197,1197,1197,1197,1197,1197,1197,1197,1197,1197,1197,1197,1197,1197,1197,1197,1197,1197,1197,1197,1197,1197,1197,1197,1193,1193,1185,1185,1193,0,0,0,0,0,0,0,0,0,0,0,725,725,723,723,722,722,719,716,714,714,713,711,711,711,711,711,711,713,713,714,716,719,720,720,722,723,728,730,730,733,736,738,739,739,741,0,0,0,0,0,0,1189,1189,1189,1189,1189,1185,1185,1185,998,995,992,992,992,992,989,987,987,984,981,978,978,978,975,975,975,973,973,970,967,967,967,964,964,964,962,962,959,959,959,956,956,956,956,954,954,954,954,954,951,951,951,951,951,951,948,948,946,946,948,948,951,951,951,951,951,951,951,951,951,954,956,959,962,964,970,973,975,978,978,981,984,984,989,995,995,998,1177,1177,1181,1181,1181,1181,1181,1181,1185,1185,1181,1181,1181,1181,1123,1123,1123,1123,1123,1119,1119,1119,1115,1115,1112,1112,1112,1112,1115,1115,1119,1119,1123,1126,1126,1181,1177,1177,1177,1181,1181,1181,1181,1181,1181,1181,1177,1177,1177,1177,1177,1173,1173,1173,1173,1173,1173,1173,1173,1173,1173,1177,1173,1173,1173,1173,1173,1173,1173,1173,1173,1173,1173,1173,1177,1173,1173,1173,1177,1173,1173,1173,1173,1173,1169,1169,1169,1169,1169,1169,1169,1169,1169,1169,1169,1169,1169,1169,1169,1169,1169,1169,1169,1169,1165,1165,1165,1165,1165,1165,1169,1165,1165,1169,1169,1165,1165,1165,1165,1165,1165,1165,1165,1165,1169,1169,1169,1169,1169,1165,1165,1165,1165,1165,1165,1165,1165,1165,1165,1165,1165,1165,1165,1161,1161,1161,1161,1161,1161,1161,1161,1161,1161,1161,1161,1157,1157,1157,1157,1157,1157,1157,1157,1157,1157,1157,1157,1157,1157,1157,1157,1153,1153,1157,1157,1153,1153,1153,1153,1153,1153,1153,1153,1153,1153,1157,1157,1157,1157,1157,1153,1153,1153,1153,1153,1153,1153,1153,1153,1153,1153,1153,1153,1149,1149,1149,1149,1149,1149,1149,1149,1149,1153,1153,1153,992,989,989,989,989,989,989,989,989,0,938,938,938,938,938,938,938,938,938,938,938,938,938,938,938,938,938,938,938,938,938,940,943,946,946,948,948,948,951,954,959,962,964,964,964,964,964,964,962,962,959,959,956,956,956,956,0,0,0,0,0,0,0,0,0,0,0,0,0,0,0,0,0,0,0,0,0,0,0,0,0,0,0,0,0,0,0,0,0,0
0,0,0,0,0,0,0,0,1219,1219,1214,1214,1214,1210,1210,1210,1206,1206,1206,1206,1210,1210,1210,1210,1214,1210,1210,1210,1210,1214,1210,1210,1210,1210,1210,1206,1206,1206,1206,1206,1210,1210,1210,1210,1210,1210,1206,1206,1206,1206,1206,1210,1210,1210,1210,1210,1210,1210,1206,1206,1206,1206,1206,1206,1206,1206,1210,1210,1210,1210,1210,1210,1206,1206,1202,1202,1197,1197,1197,1197,981,981,978,975,975,973,973,970,970,970,970,973,973,973,975,975,978,978,981,984,984,989,989,995,995,998,998,1001,1001,1001,1004,1010,1010,1193,1197,1193,1193,1202,1202,1202,1206,1206,1206,1206,1206,1202,1202,1202,1202,1197,1197,1197,1197,1197,1197,1197,1197,1197,1197,1197,1197,1202,1197,1197,1197,1197,1197,1197,1197,1197,1197,1197,1197,1197,1197,1197,1197,1197,1197,1197,1197,1197,1197,1193,1193,1193,1197,1193,1193,1193,1193,1193,1197,1197,1197,1197,1197,1197,1197,1197,1197,1197,1197,1193,1193,1193,1193,1193,1193,1193,1193,1189,1189,1189,1185,1185,1189,0,0,0,0,0,0,0,0,0,0,0,725,725,725,725,723,722,719,717,716,714,713,713,711,711,711,713,713,713,714,716,717,720,720,720,722,725,730,730,731,733,736,738,739,739,741,0,0,0,0,0,0,1189,1189,1189,1185,1185,1185,1181,1181,1181,995,992,992,992,989,989,989,987,987,984,981,981,978,975,975,975,975,973,970,970,967,967,964,964,962,962,959,959,956,956,956,956,954,954,954,954,951,951,951,951,948,948,948,948,948,946,946,946,946,946,946,951,948,948,948,948,948,951,951,951,954,956,956,959,967,975,975,978,978,981,981,981,981,1177,1177,1177,1177,1173,1173,1177,1177,1177,1173,1173,1173,1173,1181,1177,1177,1177,1177,1126,1126,1123,1123,1123,1123,1123,1119,1119,1115,1115,1115,1115,1115,1115,1119,1119,1123,1126,1126,1177,1173,1173,1177,1177,1177,1177,1177,1177,1177,1177,1177,1177,1177,1177,1173,1173,1173,1169,1169,1169,1169,1169,1169,1169,1169,1169,1169,1169,1169,1169,1169,1169,1169,1169,1169,1169,1169,1169,1169,1169,1169,1169,1169,1169,1169,1169,1169,1169,1169,1169,1169,1169,1169,1169,1169,1169,1169,1169,1169,1165,1165,1169,1169,1169,1165,1165,1165,1165,1165,1165,1165,1165,1165,1165,1165,1165,1165,1165,1165,1165,1165,1165,1161,1161,1161,1161,1161,1161,1161,1161,1161,1165,1165,1165,1165,1165,1165,1165,1165,1165,1165,1165,1161,1161,1161,1161,1161,1161,1157,1157,1157,1157,1157,1157,1157,1157,1157,1157,1157,1157,1153,1153,1153,1153,1153,1153,1153,1153,1153,1153,1153,1153,1153,1153,1153,1153,1153,1153,1153,1153,1153,1149,1149,1149,1149,1149,1149,1149,1149,1153,1153,1153,1153,1153,1153,1153,1153,1149,1149,1149,1149,1149,1149,1149,1153,1149,1149,1149,1149,1149,1149,1149,1149,1149,1149,1149,1149,1153,1153,992,992,989,989,989,989,989,989,989,989,0,935,935,935,935,935,938,938,938,935,935,938,938,938,938,938,938,938,938,938,938,938,940,943,946,946,948,948,948,951,954,959,962,964,964,964,964,964,964,962,962,959,959,956,956,956,956,0,0,0,0,0,0,0,0,0,0,0,0,0,0,0,0,0,0,0,0,0,0,0,0,0,0,0,0,0,0,0,0,0,0
0,0,0,0,0,0,0,1210,1210,1210,1210,1210,1210,1206,1206,1206,1202,1202,1202,1202,1206,1206,1206,1210,1210,1210,1206,1206,1210,1210,1210,1206,1206,1206,1206,1206,1202,1202,1206,1206,1210,1210,1210,1210,1210,1210,1206,1206,1206,1206,1206,1206,1206,1206,1206,1206,1206,1206,1206,1202,1202,1206,1206,1206,1206,1206,1206,1206,1206,1206,1206,1206,1206,1202,1202,1197,1197,1197,1193,1193,981,981,978,975,975,973,973,973,973,973,973,973,975,975,975,975,978,978,981,984,984,987,989,995,995,995,998,1001,1001,1001,1193,1193,1193,1193,1193,1193,1193,1197,1197,1197,1197,1202,1202,1202,1197,1197,1197,1197,1197,1197,1197,1197,1193,1193,1193,1193,1193,1193,1193,1193,1193,1193,1193,1193,1197,1197,1197,1193,1193,1193,1193,1193,1193,1193,1193,1193,1193,1193,1193,1193,1193,1193,1193,1193,1193,1193,1193,1193,1193,1193,1193,1193,1193,1193,1193,1193,1193,1193,1193,1193,1193,1193,1193,1193,1193,1193,1193,1189,1189,1193,1189,1185,1185,1185,1185,1185,1181,1181,0,0,0,0,0,0,0,0,0,0,727,727,725,725,723,723,720,719,717,716,714,713,713,713,713,713,713,714,714,716,717,720,720,722,723,727,730,730,731,733,736,738,739,739,0,0,0,0,0,0,0,1189,1189,1185,1185,1185,1185,1181,1181,1181,1181,992,992,989,989,989,989,987,987,987,984,981,981,978,978,978,975,973,970,970,967,967,964,964,962,962,959,959,956,956,954,954,954,954,954,951,951,948,948,948,948,946,946,946,946,946,946,946,946,946,946,948,946,946,948,948,948,951,951,951,954,956,956,959,967,973,975,978,978,978,981,981,981,1169,1169,1173,1173,1173,1173,1173,1173,1173,1169,1169,1173,1173,1169,1169,1169,1173,1169,1169,1126,1126,1126,1123,1123,1123,1123,1119,1119,1115,1115,1115,1115,1119,1119,1119,1123,1126,1130,1169,1169,1169,1169,1173,1173,1173,1173,1173,1173,1173,1173,1173,1173,1169,1169,1169,1169,1169,1169,1169,1169,1169,1169,1169,1169,1169,1169,1169,1169,1169,1169,1165,1165,1165,1165,1165,1165,1169,1169,1165,1165,1165,1165,1169,1169,1165,1165,1165,1165,1165,1165,1165,1165,1165,1165,1165,1165,1165,1165,1165,1165,1165,1165,1165,1165,1165,1165,1165,1165,1165,1161,1161,1161,1161,1161,1161,1161,1161,1161,1161,1161,1161,1157,1157,1157,1157,1157,1157,1157,1157,1157,1161,1161,1161,1161,1161,1161,1161,1161,1161,1161,1161,1157,1157,1157,1157,1157,1157,1157,1153,1153,1153,1153,1153,1153,1153,1153,1157,1157,1157,1153,1153,1153,1153,1153,1153,1153,1153,1153,1149,1149,1153,1149,1149,1149,1149,1149,1149,1149,1149,1149,1149,1145,1145,1145,1145,1149,1149,1149,1145,1145,1145,1149,1149,1149,1149,1145,1145,1149,1149,1149,1149,1149,1149,1149,1149,1149,1145,1145,1145,1145,1145,1145,1145,1149,1149,1149,1149,1149,992,992,989,989,989,989,989,989,989,989,0,935,935,935,935,935,935,935,935,935,935,935,935,935,935,935,935,938,938,938,938,938,940,943,943,946,946,948,948,951,956,959,962,964,964,964,964,964,962,962,959,959,959,959,956,956,956,0,0,0,0,0,0,0,0,0,0,0,0,0,0,0,0,0,0,0,0,0,0,0,0,0,0,0,0,0,0,0,0,0,0
0,0,0,0,0,0,0,1210,1206,1206,1206,1202,1202,1202,1202,1202,1197,1197,1197,1197,1202,1202,1202,1206,1206,1206,1202,1202,1202,1206,1202,1202,1202,1202,1202,1202,1202,1202,1202,1202,1206,1206,1206,1206,1206,1206,1202,1202,1202,1202,1202,1202,1202,1202,1202,1202,1202,1202,1202,1202,1202,1202,1202,1197,1197,1197,1197,1197,1197,1202,1197,1197,1197,1197,1197,1197,1193,1193,1193,1189,984,984,981,978,975,975,973,973,973,973,973,973,975,975,975,975,978,978,981,984,984,987,989,995,995,995,998,1001,1001,1001,1189,1189,1189,1189,1193,1193,1193,1193,1193,1193,1193,1197,1197,1197,1197,1197,1197,1197,1197,1193,1193,1193,1193,1193,1193,1189,1189,1189,1189,1189,1193,1193,1193,1193,1193,1193,1193,1189,1189,1193,1193,1189,1189,1189,1189,1189,1189,1189,1189,1189,1189,1193,1193,1189,1189,1193,1193,1193,1193,1189,1189,1189,1189,1189,1189,1189,1189,1189,1189,1189,1189,1189,1189,1189,1189,1189,1189,1189,1189,1189,1189,1185,1185,1185,1181,1181,1181,1181,0,0,0,0,0,0,0,0,0,0,0,727,727,725,725,722,720,720,719,717,716,714,714,714,714,714,714,714,714,716,719,720,720,722,723,727,730,730,731,734,736,738,739,739,0,0,0,0,0,0,0,1185,1185,1185,1181,1181,1181,1181,1181,1181,1181,1181,1181,989,989,989,989,987,987,987,984,984,981,978,978,978,975,975,973,970,967,967,964,964,962,962,959,956,956,956,954,954,954,954,951,951,948,948,946,946,946,943,943,943,943,943,943,943,943,943,943,946,946,946,946,946,948,948,951,951,954,956,959,962,967,973,975,978,978,978,981,984,1165,1165,1165,1169,1169,1169,1169,1169,1169,1169,1169,1169,1169,1169,1169,1169,1169,1165,1165,1165,1130,1130,1130,1126,1126,1126,1123,1123,1119,1115,1115,1115,1119,1119,1119,1119,1123,1126,1130,1165,1165,1165,1169,1169,1169,1169,1169,1169,1169,1169,1169,1169,1169,1169,1169,1165,1165,1165,1165,1165,1165,1165,1165,1165,1165,1165,1165,1165,1165,1165,1165,1165,1165,1165,1165,1165,1165,1161,1161,1161,1161,1165,1165,1165,1165,1165,1165,1161,1161,1161,1161,1161,1161,1161,1161,1161,1161,1161,1161,1161,1161,1161,1161,1161,1161,1161,1161,1161,1161,1161,1161,1157,1157,1157,1157,1157,1157,1153,1153,1153,1153,1153,1153,1153,1153,1153,1153,1153,1153,1153,1153,1157,1157,1157,1157,1157,1157,1157,1157,1157,1157,1157,1153,1153,1153,1153,1153,1153,1153,1153,1153,1153,1153,1153,1153,1153,1153,1153,1153,1153,1153,1153,1153,1153,1149,1149,1149,1149,1149,1149,1149,1149,1145,1145,1145,1145,1145,1145,1145,1145,1145,1145,1141,1141,1141,1141,1141,1149,1141,1141,1141,1141,1141,1141,1141,1141,1145,1145,1145,1145,1145,1145,1145,1145,1149,1145,1141,1141,1141,1145,1145,1145,1145,1145,1149,1149,1149,1149,1149,1149,992,992,989,989,989,989,989,989,0,0,0,935,935,935,935,935,935,935,935,935,935,935,935,935,935,935,938,938,938,938,938,940,943,943,946,946,948,948,951,954,959,962,964,964,967,964,964,962,962,959,959,959,959,956,956,956,0,0,0,0,0,0,0,0,0,0,0,0,0,0,0,0,0,0,0,0,0,0,0,0,0,0,0,0,0,0,0,0,0,0
0,0,0,0,0,0,0,1202,1202,1202,1202,1197,1197,1197,1197,1197,1197,1193,1193,1197,1197,1197,1197,1197,1197,1202,1197,1197,1197,1197,1197,1197,1197,1197,1197,1197,1197,1197,1197,1197,1202,1202,1206,1206,1202,1202,1202,1202,1202,1197,1197,1197,1197,1197,1197,1197,1197,1197,1197,1193,1193,1193,1193,1193,1193,1193,1197,1197,1197,1197,1197,1197,1197,1193,1193,1193,1189,1189,1189,1189,984,984,984,978,978,975,975,975,973,973,975,975,975,975,978,978,978,981,981,984,987,989,989,995,995,995,998,998,1001,1185,1185,1189,1189,1189,1193,1193,1193,1189,1189,1189,1185,1185,1193,1193,1193,1193,1193,1193,1193,1193,1193,1193,1189,1189,1189,1189,1189,1189,1189,1189,1189,1185,1185,1189,1189,1189,1189,1189,1189,1189,1185,1185,1185,1185,1185,1185,1185,1185,1185,1185,1185,1189,1189,1185,1185,1189,1189,1189,1185,1185,1185,1185,1185,1185,1185,1185,1185,1185,1189,1189,1189,1185,1185,1185,1185,1185,1185,1185,1185,1189,1185,1181,1181,1181,1177,1177,1177,1173,1173,0,0,0,0,0,0,0,0,0,0,728,727,727,727,722,722,720,719,717,716,714,714,714,714,714,714,714,716,717,720,720,720,722,723,728,730,730,733,734,736,738,738,739,0,0,0,0,0,0,0,1181,1181,1181,1181,1181,1181,1177,1177,1177,1177,1177,1177,1177,989,989,989,989,987,987,984,984,981,981,981,978,978,975,973,970,967,967,964,964,962,962,959,956,956,956,954,954,954,951,951,948,948,946,946,943,943,943,943,940,940,940,940,940,940,940,940,943,943,943,943,946,946,948,951,951,954,959,962,964,967,973,975,978,978,981,981,1165,1165,1165,1165,1169,1169,1169,1169,1169,1169,1169,1165,1165,1165,1165,1165,1165,1165,1165,1161,1153,1141,1134,1130,1130,1130,1126,1126,1123,1119,1119,1119,1119,1119,1119,1119,1119,1123,1130,1134,1161,1165,1165,1165,1165,1165,1165,1169,1169,1169,1165,1165,1165,1165,1165,1165,1165,1165,1165,1165,1165,1161,1161,1165,1161,1161,1161,1165,1165,1165,1165,1165,1165,1165,1161,1161,1161,1161,1161,1161,1157,1157,1157,1161,1161,1161,1161,1161,1161,1157,1157,1157,1157,1157,1157,1157,1157,1161,1161,1161,1161,1157,1157,1157,1157,1157,1157,1157,1157,1157,1157,1153,1153,1153,1153,1153,1153,1153,1153,1153,1153,1153,1153,1153,1153,1153,1153,1153,1149,1149,1149,1153,1153,1153,1153,1153,1153,1153,1153,1153,1153,1153,1153,1153,1153,1153,1153,1153,1149,1149,1149,1149,1149,1149,1149,1149,1149,1149,1149,1149,1149,1149,1149,1149,1149,1149,1149,1149,1149,1145,1145,1145,1145,1141,1141,1141,1141,1141,1141,1141,1141,1141,1141,1141,1138,1138,1138,1138,1138,1138,1138,1138,1138,1138,1138,1138,1138,1138,1138,1145,1145,1145,1138,1138,1141,1141,1145,1138,1138,1141,1141,1145,1145,1145,1145,1145,1145,1149,1149,1149,995,992,992,989,989,989,989,989,989,0,0,0,935,935,935,935,935,935,935,935,935,935,935,935,935,935,935,935,935,935,938,938,940,943,943,946,946,948,948,951,954,959,962,967,967,967,964,964,964,962,962,959,959,959,959,956,956,0,0,0,0,0,0,0,0,0,0,0,0,0,0,0,0,0,0,0,0,0,0,0,0,0,0,0,0,0,0,0,0,0,0
0,0,0,0,0,0,0,1202,1197,1197,1197,1197,1193,1193,1193,1193,1193,1193,1193,1193,1193,1193,1193,1197,1197,1197,1197,1197,1197,1197,1193,1193,1193,1193,1193,1193,1193,1193,1193,1193,1197,1197,1197,1197,1197,1197,1197,1197,1197,1197,1197,1197,1197,1197,1197,1193,1193,1193,1189,1189,1185,1185,1189,1189,1193,1193,1193,1193,1193,1193,1193,1193,1193,1193,1193,1189,1185,1185,1185,1185,987,987,987,984,978,975,975,975,975,975,975,975,975,978,978,978,981,981,984,987,987,989,989,995,995,995,998,998,1185,1185,1185,1185,1185,1185,1189,1189,1189,1185,1185,1185,1185,1185,1185,1189,1189,1189,1189,1189,1189,1189,1189,1189,1185,1185,1185,1185,1185,1185,1185,1181,1181,1181,1181,1181,1185,1185,1185,1181,1181,1185,1181,1181,1181,1181,1181,1181,1181,1181,1181,1181,1181,1181,1181,1181,1181,1181,1185,1185,1181,1181,1185,1181,1181,1181,1185,1185,1185,1185,1185,1185,1185,1181,1181,1185,1185,1181,1181,1185,1185,1185,1185,1181,1181,1177,1177,1177,1173,1173,1173,0,0,0,0,0,0,0,0,0,0,0,728,728,727,723,722,720,719,717,716,716,716,714,714,714,714,716,716,717,720,720,722,722,727,728,731,731,733,734,736,738,738,741,0,0,0,0,0,0,1181,1181,1181,1181,1177,1177,1177,1177,1177,1177,1177,1177,1177,1173,1173,1173,1173,1173,989,987,984,984,981,981,981,978,978,975,973,970,967,967,967,964,964,964,962,959,956,956,954,954,951,951,948,948,946,946,943,943,943,940,940,938,938,938,938,938,938,938,938,940,940,940,940,943,946,948,951,951,956,959,962,964,967,973,975,978,978,981,1165,1165,1165,1165,1165,1165,1169,1169,1169,1169,1165,1165,1165,1165,1165,1165,1165,1165,1161,1161,1157,1153,1141,1138,1134,1134,1130,1130,1130,1126,1123,1119,1119,1119,1119,1119,1119,1123,1123,1130,1138,1153,1157,1161,1161,1161,1165,1165,1165,1165,1165,1161,1161,1161,1161,1161,1161,1161,1161,1161,1161,1161,1161,1161,1161,1157,1157,1157,1161,1161,1161,1161,1161,1161,1161,1161,1161,1157,1157,1157,1157,1153,1153,1157,1157,1153,1153,1157,1157,1157,1157,1157,1157,1157,1157,1157,1153,1153,1157,1157,1157,1157,1157,1153,1153,1153,1153,1153,1153,1153,1157,1153,1153,1153,1153,1153,1153,1149,1149,1149,1149,1149,1149,1153,1149,1149,1149,1149,1149,1149,1149,1149,1149,1149,1149,1149,1149,1149,1149,1149,1149,1149,1149,1149,1145,1145,1149,1149,1149,1149,1145,1145,1145,1149,1145,1145,1145,1145,1145,1145,1145,1145,1145,1145,1149,1149,1149,1145,1145,1145,1145,1141,1141,1141,1141,1138,1138,1138,1138,1138,1138,1138,1138,1138,1138,1138,1138,1138,1138,1138,1138,1134,1134,1134,1134,1134,1134,1134,1134,1134,1134,1134,1134,1134,1134,1134,1138,1138,1138,1138,1138,1138,1141,1141,1145,1145,1145,1145,1149,1149,1149,995,992,992,989,989,989,989,989,989,0,0,0,935,935,935,935,938,935,935,935,935,935,935,935,935,935,935,935,935,935,935,938,940,943,943,946,948,948,948,951,954,959,962,967,967,967,964,964,962,962,962,959,959,959,959,959,959,0,0,0,0,0,0,0,0,0,0,0,0,0,0,0,0,0,0,0,0,0,0,0,0,0,0,0,0,0,0,0,0,0,0
0,0,0,0,0,0,0,1197,1193,1193,1193,1193,1193,1193,1193,1193,1189,1189,1189,1189,1189,1189,1189,1189,1189,1193,1193,1193,1193,1193,1193,1193,1189,1189,1189,1189,1189,1189,1189,1189,1193,1193,1193,1193,1193,1197,1193,1193,1193,1193,1193,1193,1193,1193,1193,1193,1185,1185,1185,1185,1185,1185,1185,1185,1189,1189,1189,1189,1193,1193,1189,1189,1189,1185,1185,1185,1181,1181,1185,1185,1185,987,987,987,984,984,981,978,975,975,975,978,978,978,978,978,981,981,984,987,989,989,992,995,995,995,995,998,1181,1181,1181,1185,1185,1185,1185,1185,1185,1185,1181,1181,1181,1181,1181,1185,1185,1185,1185,1185,1185,1185,1185,1185,1181,1181,1181,1181,1181,1181,1181,1181,1181,1181,1181,1181,1181,1181,1181,1181,1181,1181,1181,1181,1181,1181,1181,1181,1177,1177,1177,1177,1177,1177,1177,1177,1177,1177,1177,1177,1177,1181,1181,1181,1181,1181,1181,1181,1181,1181,1181,1181,1181,1181,1181,1181,1181,1181,1181,1181,1181,1181,1181,1177,1177,1173,1173,1169,1169,1165,1165,1165,0,0,0,0,0,0,0,0,0,0,730,728,727,725,723,722,722,720,719,717,716,716,716,716,716,716,716,717,720,720,722,723,727,728,730,731,733,734,736,738,738,739,0,0,0,0,0,0,1181,1181,1177,1177,1177,1173,1173,1173,1173,1177,1177,1173,1173,1173,1173,1173,1169,1169,1169,1165,1165,984,981,978,978,978,978,975,973,973,970,967,967,967,964,964,962,959,959,956,954,954,951,951,948,946,946,943,943,940,940,940,938,935,935,935,935,935,935,935,935,938,940,940,940,943,943,948,951,954,956,959,962,964,967,970,973,978,978,981,1161,1161,1165,1165,1165,1165,1165,1165,1165,1165,1165,1165,1161,1161,1161,1161,1161,1161,1161,1161,1157,1149,1141,1138,1134,1134,1134,1130,1130,1126,1123,1119,1119,1123,1123,1123,1123,1123,1130,1138,1141,1149,1153,1157,1157,1157,1161,1157,1157,1157,1161,1161,1157,1157,1157,1157,1157,1157,1157,1157,1157,1157,1157,1153,1153,1153,1153,1153,1157,1157,1157,1157,1161,1161,1157,1157,1157,1157,1153,1153,1153,1153,1153,1153,1153,1153,1153,1153,1153,1153,1153,1153,1153,1153,1153,1153,1153,1153,1153,1153,1153,1153,1153,1153,1153,1153,1153,1153,1153,1153,1153,1153,1149,1149,1149,1149,1149,1149,1149,1149,1149,1149,1149,1149,1149,1149,1149,1149,1149,1145,1145,1145,1145,1145,1145,1145,1145,1145,1145,1145,1145,1145,1145,1145,1141,1141,1141,1141,1141,1141,1145,1145,1145,1145,1145,1141,1141,1141,1141,1141,1141,1141,1141,1141,1145,1145,1145,1145,1141,1141,1141,1138,1138,1138,1138,1138,1138,1138,1138,1138,1138,1134,1134,1134,1138,1134,1134,1134,1134,1134,1134,1134,1134,1134,1134,1134,1134,1130,1130,1130,1134,1134,1134,1130,1130,1134,1134,1138,1134,1134,1134,1134,1138,1141,1141,1141,1141,1149,1149,995,995,995,992,992,989,989,989,989,0,989,0,0,0,938,938,938,938,938,935,935,935,935,935,935,935,935,935,935,935,935,935,935,938,938,943,946,946,948,948,948,951,956,959,962,967,967,967,964,964,962,962,962,959,959,959,959,959,959,0,0,0,0,0,0,0,0,0,0,0,0,0,0,0,0,0,0,0,0,0,0,0,0,0,0,0,0,0,0,0,0,0,0
0,0,0,0,0,0,0,1189,1189,1189,1193,1193,1189,1189,1189,1189,1189,1185,1185,1185,1185,1185,1185,1185,1185,1189,1189,1189,1189,1189,1189,1189,1185,1185,1185,1185,1185,1185,1185,1185,1185,1185,1185,1185,1189,1189,1189,1193,1193,1193,1193,1193,1193,1193,1189,1189,1185,1185,1185,1181,1181,1181,1181,1181,1185,1185,1185,1185,1185,1185,1185,1185,1185,1181,1181,1181,1181,1181,1181,1181,1181,987,987,987,987,984,984,981,981,978,978,978,978,978,978,981,981,981,984,987,989,989,992,995,995,995,995,1181,1181,1181,1181,1181,1181,1181,1181,1181,1181,1181,1181,1181,1177,1177,1177,1181,1181,1181,1181,1181,1181,1181,1181,1181,1181,1181,1177,1177,1177,1177,1177,1177,1177,1177,1177,1177,1177,1177,1177,1177,1177,1177,1181,1181,1177,1177,1177,1177,1177,1177,1177,1177,1177,1177,1177,1177,1177,1177,1177,1173,1173,1173,1173,1177,1177,1177,1181,1181,1181,1181,1181,1181,1177,1177,1177,1177,1177,1177,1177,1177,1177,1177,1177,1173,1173,1173,1169,1169,1165,1165,1165,1165,0,0,0,0,0,0,0,0,0,733,730,730,727,725,723,723,722,720,720,719,719,717,717,716,716,716,716,720,720,720,722,723,728,730,730,731,733,736,738,738,738,739,0,0,0,0,0,0,1177,1177,1169,1169,1169,1169,1173,1169,1169,1169,1169,1169,1169,1169,1169,1169,1165,1165,1165,1165,1165,1161,1161,978,978,978,978,975,975,973,970,967,967,967,967,964,964,962,959,956,954,954,954,951,948,946,943,940,938,933,933,935,935,933,930,930,930,930,933,933,933,935,938,940,940,943,943,948,951,954,959,959,964,964,967,970,973,978,978,1157,1157,1161,1161,1161,1161,1165,1165,1165,1161,1161,1161,1161,1157,1157,1157,1157,1157,1157,1157,1157,1153,1149,1145,1138,1134,1134,1134,1134,1130,1130,1123,1123,1123,1123,1123,1123,1126,1126,1130,1138,1141,1145,1149,1153,1157,1157,1157,1157,1157,1157,1157,1157,1153,1153,1153,1153,1153,1153,1153,1153,1153,1153,1153,1153,1153,1153,1153,1153,1153,1153,1153,1153,1153,1153,1153,1153,1153,1153,1153,1153,1153,1149,1149,1153,1153,1149,1149,1149,1149,1149,1149,1149,1149,1149,1149,1149,1149,1149,1149,1153,1153,1149,1149,1149,1149,1149,1149,1149,1149,1149,1149,1149,1149,1149,1145,1145,1145,1145,1145,1145,1145,1145,1145,1145,1145,1145,1145,1145,1145,1145,1145,1141,1141,1141,1141,1141,1141,1141,1141,1141,1141,1141,1141,1138,1138,1138,1138,1138,1138,1138,1138,1138,1138,1145,1141,1141,1138,1138,1138,1138,1138,1138,1138,1138,1138,1138,1141,1141,1141,1138,1138,1138,1138,1138,1138,1134,1134,1134,1134,1134,1134,1134,1134,1134,1134,1134,1134,1134,1134,1130,1130,1134,1130,1130,1130,1130,1130,1126,1126,1126,1130,1134,1130,1130,1130,1130,1130,1130,1134,1134,1134,1134,1138,1138,1138,1138,1141,1141,1001,995,995,995,995,992,989,989,989,989,0,0,0,0,0,938,938,935,935,935,935,935,935,935,935,935,935,935,935,935,935,935,935,935,938,938,943,946,948,948,948,948,951,956,962,964,967,967,967,967,964,964,964,964,962,962,959,959,959,959,0,0,0,0,0,0,0,0,0,0,0,0,0,0,0,0,0,0,0,0,0,0,0,0,0,0,0,0,0,0,0,0,0,0
0,0,0,0,0,0,0,1189,1189,1189,1189,1189,1189,1189,1189,1185,1185,1185,1181,1181,1181,1185,1185,1185,1185,1185,1185,1189,1185,1185,1185,1185,1181,1181,1181,1181,1181,1181,1181,1181,1181,1185,1185,1185,1185,1185,1185,1185,1189,1185,1185,1185,1185,1185,1185,1185,1181,1181,1181,1181,1181,1181,1181,1181,1181,1181,1181,1181,1181,1185,1185,1181,1181,1181,1181,1181,1181,1181,1181,1181,1181,1181,989,987,987,987,987,984,984,981,981,981,981,981,981,981,981,981,984,987,989,989,992,995,995,995,998,1181,1181,1181,1181,1181,1181,1181,1177,1177,1177,1177,1177,1177,1177,1177,1177,1177,1177,1177,1177,1177,1177,1181,1181,1181,1177,1177,1177,1177,1173,1173,1173,1173,1173,1173,1173,1173,1173,1173,1173,1173,1173,1177,1177,1177,1177,1177,1177,1173,1173,1173,1173,1173,1173,1173,1173,1177,1173,1173,1173,1169,1169,1169,1169,1173,1173,1173,1173,1173,1177,1177,1177,1177,1177,1173,1173,1173,1173,1173,1173,1173,1169,1169,1169,1169,1169,1169,1165,1165,1165,1165,1161,1157,1157,0,0,0,0,0,0,0,0,733,733,731,728,727,725,723,722,720,720,720,719,719,719,717,717,719,719,720,720,722,723,725,728,730,730,733,736,738,738,738,738,0,0,0,0,0,0,0,1173,1173,1169,1169,1165,1165,1169,1165,1165,1165,1165,1169,1169,1165,1165,1165,1165,1165,1165,1161,1161,1161,1161,1161,978,978,978,975,975,973,970,970,967,967,967,964,964,962,959,956,956,954,954,951,948,946,943,940,933,928,928,928,928,928,928,928,928,928,928,930,930,935,938,938,940,943,943,948,951,954,959,962,964,964,967,973,975,1157,1157,1157,1157,1157,1157,1157,1161,1161,1161,1161,1161,1157,1157,1157,1157,1153,1153,1157,1157,1157,1153,1153,1153,1149,1145,1138,1138,1134,1134,1134,1134,1130,1126,1123,1123,1123,1123,1123,1126,1126,1134,1138,1141,1145,1149,1149,1153,1153,1153,1153,1153,1153,1153,1153,1153,1153,1153,1153,1153,1149,1149,1149,1149,1149,1149,1149,1149,1149,1149,1149,1149,1149,1149,1149,1149,1153,1149,1149,1149,1149,1149,1149,1149,1149,1149,1149,1149,1149,1149,1149,1149,1149,1149,1149,1149,1145,1145,1145,1145,1145,1149,1149,1149,1149,1149,1149,1145,1145,1145,1145,1145,1145,1145,1145,1145,1141,1141,1141,1141,1141,1141,1141,1145,1145,1145,1145,1145,1145,1145,1141,1141,1141,1141,1141,1141,1141,1141,1141,1138,1138,1138,1138,1138,1138,1138,1138,1134,1134,1134,1134,1138,1138,1138,1134,1134,1138,1134,1134,1138,1138,1138,1138,1138,1138,1134,1134,1134,1134,1134,1134,1134,1134,1134,1134,1134,1134,1134,1134,1134,1134,1134,1134,1134,1134,1134,1134,1134,1130,1130,1130,1130,1130,1130,1130,1130,1130,1130,1130,1126,1123,1123,1123,1123,1126,1126,1126,1126,1126,1130,1130,1130,1130,1130,1134,1134,1138,1138,1138,1001,1001,1001,998,998,998,998,992,992,992,989,989,0,0,0,0,0,938,935,935,935,935,935,935,935,935,935,935,935,935,935,935,935,935,935,935,938,938,943,946,948,948,951,951,954,959,964,967,967,967,967,967,967,964,964,964,962,962,959,959,959,959,0,0,0,0,0,0,0,0,0,0,0,0,0,0,0,0,0,0,0,0,0,0,0,0,0,0,0,0,0,0,0,0,0,0
0,0,0,0,0,0,0,1185,1185,1185,1185,1189,1189,1185,1185,1181,1181,1181,1181,1181,1181,1181,1181,1181,1181,1185,1185,1185,1185,1181,1181,1181,1181,1177,1177,1177,1177,1177,1177,1177,1181,1181,1181,1181,1181,1181,1181,1181,1181,1185,1185,1185,1185,1185,1185,1185,1181,1181,1181,1181,1181,1181,1181,1181,1181,1181,1181,1181,1181,1181,1181,1181,1181,1181,1181,1177,1177,1177,1177,1177,1177,1177,987,987,987,987,987,987,987,984,984,981,981,981,984,984,984,984,987,987,989,992,992,995,995,998,998,998,1181,1177,1177,1177,1177,1177,1177,1177,1173,1173,1177,1177,1173,1173,1173,1173,1173,1173,1173,1173,1177,1177,1177,1177,1177,1173,1173,1169,1169,1169,1169,1169,1169,1169,1169,1169,1169,1169,1169,1169,1169,1173,1173,1177,1173,1173,1173,1173,1173,1169,1169,1169,1169,1169,1173,1169,1169,1169,1169,1169,1169,1165,1165,1169,1169,1169,1173,1173,1169,1169,1169,1169,1169,1169,1169,1169,1169,1169,1165,1165,1165,1165,1165,1165,1165,1165,1165,1165,1161,1161,1157,1157,1149,1149,0,0,0,0,0,0,0,733,733,731,731,728,727,723,723,722,720,720,720,720,719,719,719,719,719,720,722,722,723,727,728,730,731,733,738,738,738,739,739,742,0,0,0,0,0,0,1173,1169,1165,1165,1161,1161,1165,1165,1161,1161,1161,1165,1165,1161,1161,1161,1161,1161,1161,1161,1161,1161,1161,1161,1161,1157,978,975,975,973,970,970,970,967,967,964,964,964,962,959,956,954,954,951,948,943,940,933,928,928,928,925,925,925,925,925,925,925,925,928,930,935,935,938,940,943,943,948,951,956,959,962,964,964,967,970,1157,1157,1157,1153,1153,1153,1157,1157,1157,1157,1157,1157,1157,1153,1153,1153,1153,1153,1153,1153,1153,1153,1153,1153,1149,1149,1145,1138,1138,1138,1138,1134,1134,1134,1130,1126,1126,1126,1126,1126,1126,1130,1134,1138,1141,1141,1145,1149,1149,1149,1149,1149,1149,1149,1149,1149,1149,1149,1149,1149,1149,1149,1145,1145,1149,1149,1149,1149,1149,1149,1149,1149,1145,1145,1149,1145,1145,1149,1145,1145,1145,1145,1145,1145,1145,1145,1145,1145,1145,1145,1145,1145,1145,1145,1145,1145,1145,1141,1141,1141,1141,1141,1141,1141,1141,1145,1145,1145,1145,1141,1141,1141,1141,1141,1141,1141,1141,1141,1138,1138,1138,1138,1138,1141,1141,1141,1141,1141,1141,1141,1141,1138,1138,1138,1138,1138,1138,1138,1138,1138,1138,1138,1138,1134,1134,1134,1134,1134,1134,1134,1134,1134,1134,1138,1134,1134,1134,1134,1134,1134,1134,1134,1134,1134,1134,1134,1134,1130,1130,1130,1130,1130,1130,1130,1130,1130,1134,1130,1130,1130,1130,1130,1130,1130,1130,1130,1130,1130,1130,1126,1126,1126,1126,1126,1126,1126,1126,1126,1126,1123,1123,1123,1119,1119,1119,1119,1123,1123,1123,1123,1123,1123,1126,1126,1126,1007,1007,1130,1004,1004,1001,1001,1004,1001,998,998,998,995,992,992,989,989,0,0,0,0,0,935,935,935,935,935,935,935,935,935,935,935,935,935,935,935,935,935,935,935,938,938,940,943,946,948,951,951,954,962,964,967,967,967,967,967,967,967,964,964,962,962,962,959,959,959,0,0,0,0,0,0,0,0,0,0,0,0,0,0,0,0,0,0,0,0,0,0,0,0,0,0,0,0,0,0,0,0,0,0
0,0,0,0,0,0,0,1185,1185,1185,1185,1185,1181,1181,1181,1177,1177,1177,1177,1177,1177,1177,1177,1177,1177,1181,1181,1181,1181,1181,1181,1181,1177,1177,1177,1177,1177,1177,1177,1177,1177,1177,1177,1177,1177,1177,1181,1181,1181,1181,1181,1181,1181,1181,1181,1181,1181,1181,1181,1181,1177,1177,1177,1177,1177,1177,1177,1177,1181,1181,1181,1177,1177,1177,1177,1177,1177,1177,1177,1177,1177,1177,987,987,987,987,987,987,987,987,984,981,981,981,984,984,984,987,987,989,989,992,995,995,995,998,998,998,1177,1177,1173,1173,1173,1173,1169,1169,1169,1169,1173,1173,1169,1169,1169,1169,1169,1169,1169,1169,1173,1173,1173,1173,1173,1173,1169,1169,1169,1165,1165,1165,1165,1165,1165,1165,1165,1165,1165,1165,1165,1165,1169,1173,1169,1169,1169,1169,1169,1169,1165,1165,1165,1165,1169,1169,1169,1169,1165,1165,1165,1165,1165,1165,1165,1165,1165,1165,1165,1165,1165,1165,1165,1165,1165,1165,1165,1165,1165,1165,1165,1165,1165,1165,1165,1165,1165,1161,1161,1161,1157,1157,1149,1149,0,0,0,0,0,0,0,734,733,733,731,731,727,727,725,723,722,722,720,720,720,720,720,720,720,720,722,723,725,728,730,730,733,733,738,739,739,739,741,742,0,0,0,0,0,0,0,1165,1161,1161,1161,1161,1161,1161,1161,1161,1161,1161,1161,1157,1157,1157,1157,1157,1157,1157,1157,1161,1161,1161,1157,1157,1157,1153,1153,1153,973,970,970,967,967,967,964,964,962,959,956,956,954,951,948,943,930,928,925,925,925,925,923,923,923,923,923,923,925,925,928,933,935,938,940,943,946,948,951,956,959,962,964,964,967,970,1153,1153,1153,1153,1153,1153,1153,1153,1153,1153,1153,1153,1153,1153,1149,1149,1149,1149,1149,1149,1153,1153,1149,1149,1149,1145,1141,1138,1138,1138,1138,1134,1134,1134,1130,1130,1130,1126,1126,1130,1134,1134,1138,1138,1138,1141,1145,1145,1145,1149,1149,1149,1149,1149,1149,1149,1149,1145,1145,1145,1145,1145,1145,1145,1145,1145,1145,1145,1145,1145,1145,1145,1141,1141,1145,1141,1141,1145,1141,1141,1141,1141,1141,1141,1141,1141,1145,1145,1145,1141,1141,1141,1141,1141,1141,1141,1141,1141,1138,1138,1138,1138,1138,1138,1138,1138,1138,1138,1138,1138,1138,1138,1138,1141,1138,1138,1138,1138,1138,1138,1138,1138,1138,1138,1138,1138,1138,1138,1138,1138,1138,1138,1134,1134,1138,1134,1134,1134,1134,1134,1134,1134,1134,1130,1130,1130,1130,1130,1130,1130,1130,1130,1134,1134,1134,1134,1134,1134,1134,1130,1130,1130,1130,1130,1130,1134,1130,1130,1126,1126,1126,1126,1126,1126,1126,1126,1130,1130,1126,1126,1126,1126,1126,1126,1126,1130,1126,1126,1123,1123,1123,1123,1123,1123,1123,1123,1123,1123,1123,1123,1119,1119,1119,1119,1115,1115,1119,1119,1119,1119,1123,1123,1123,1123,1010,1007,1004,1004,1004,1004,1004,1004,1004,1001,1001,1001,998,995,992,992,992,992,0,0,0,0,0,935,935,935,935,935,935,935,935,935,933,933,935,935,935,935,935,935,935,935,938,938,938,940,946,946,948,951,956,964,967,970,970,970,967,967,967,967,964,964,962,962,962,959,959,0,0,0,0,0,0,0,0,0,0,0,0,0,0,0,0,0,0,0,0,0,0,0,0,0,0,0,0,0,0,0,0,0,0,0
0,0,0,0,0,0,0,1185,1181,1181,1181,1181,1181,1181,1177,1173,1173,1169,1169,1173,1173,1177,1177,1177,1177,1177,1177,1177,1177,1177,1177,1177,1177,1177,1173,1173,1173,1173,1173,1173,1173,1173,1173,1173,1173,1173,1177,1177,1177,1177,1181,1181,1181,1181,1181,1181,1177,1177,1177,1177,1177,1177,1177,1177,1177,1177,1177,1177,1177,1177,1177,1173,1173,1177,1173,1173,1173,1173,1173,1173,1173,1173,1173,987,987,987,987,987,987,987,984,981,981,981,984,984,984,987,987,989,989,992,995,995,995,998,998,1001,1169,1169,1169,1169,1169,1169,1165,1165,1165,1165,1169,1169,1169,1165,1165,1169,1165,1165,1165,1165,1169,1169,1169,1169,1169,1169,1165,1165,1165,1165,1165,1165,1165,1165,1165,1165,1161,1161,1161,1161,1165,1165,1165,1165,1165,1165,1165,1165,1165,1165,1165,1165,1165,1165,1165,1165,1165,1165,1165,1161,1161,1161,1161,1161,1161,1161,1161,1165,1161,1161,1161,1161,1161,1161,1161,1161,1161,1161,1161,1161,1161,1161,1161,1161,1161,1161,1161,1161,1161,1157,1157,1153,1149,1149,0,0,0,0,0,0,734,734,734,733,733,731,728,727,725,723,722,722,722,722,720,720,720,720,722,722,722,723,725,730,730,733,734,738,738,739,739,741,741,742,0,0,0,0,0,0,0,1153,1153,1153,1153,1157,1157,1157,1157,1157,1157,1157,1157,1153,1153,1153,1153,1153,1153,1153,1153,1153,1153,1157,1157,1153,1153,1153,1153,1149,1149,975,975,970,967,967,967,964,962,959,959,956,954,954,951,925,920,920,923,923,923,923,920,920,923,923,923,923,925,925,928,933,935,940,940,943,946,948,954,956,959,962,962,962,1149,1149,1149,1149,1149,1149,1149,1149,1149,1149,1149,1149,1149,1149,1149,1149,1149,1149,1149,1149,1149,1149,1149,1149,1149,1145,1145,1145,1141,1138,1138,1138,1138,1134,1134,1134,1134,1130,1130,1130,1130,1130,1134,1134,1138,1138,1138,1141,1141,1141,1141,1141,1141,1141,1141,1145,1141,1141,1141,1141,1141,1141,1141,1141,1141,1141,1141,1141,1141,1141,1141,1141,1141,1141,1141,1141,1141,1141,1141,1141,1138,1138,1138,1138,1138,1138,1138,1141,1141,1141,1141,1141,1141,1141,1141,1138,1138,1138,1138,1138,1138,1134,1134,1134,1134,1134,1134,1130,1130,1134,1134,1134,1134,1134,1138,1138,1138,1134,1134,1134,1134,1134,1134,1138,1138,1138,1138,1138,1138,1138,1138,1138,1138,1134,1134,1134,1134,1134,1134,1134,1130,1130,1130,1130,1130,1130,1126,1126,1126,1126,1126,1126,1126,1126,1130,1130,1130,1130,1130,1130,1130,1126,1126,1126,1126,1126,1126,1126,1126,1123,1123,1123,1123,1123,1123,1123,1123,1126,1126,1126,1126,1126,1126,1123,1123,1123,1123,1126,1123,1123,1123,1123,1123,1123,1123,1123,1123,1123,1123,1123,1119,1119,1119,1119,1115,1115,1112,1112,1115,1119,1119,1119,1123,1123,1123,1123,1010,1007,1004,1004,1004,1004,1004,1004,1004,1004,1001,1001,1001,1001,998,998,1001,0,0,0,0,0,0,935,935,935,935,935,935,935,935,935,933,933,933,933,935,935,935,935,935,935,938,938,938,940,943,946,946,948,948,964,967,970,970,970,967,967,967,967,964,964,964,962,962,959,959,0,0,0,0,0,0,0,0,0,0,0,0,0,0,0,0,0,0,0,0,0,0,0,0,0,0,0,0,0,0,0,0,0,0,0
0,0,0,0,0,0,0,1181,1177,1177,1181,1177,1177,1173,1169,1169,1169,1169,1169,1169,1169,1173,1173,1173,1173,1173,1177,1177,1173,1173,1173,1173,1173,1173,1173,1173,1169,1169,1169,1169,1169,1169,1169,1169,1169,1169,1169,1169,1169,1173,1177,1177,1177,1177,1177,1177,1177,1177,1177,1173,1173,1173,1177,1177,1173,1173,1173,1173,1177,1173,1173,1173,1173,1173,1173,1173,1173,1169,1169,1169,1169,1169,1169,987,987,987,987,987,987,987,984,984,984,984,984,984,987,987,989,989,992,992,995,995,998,998,998,1001,1165,1165,1165,1165,1165,1165,1161,1161,1161,1165,1165,1165,1165,1161,1161,1165,1165,1165,1165,1165,1165,1165,1165,1165,1165,1165,1165,1165,1165,1165,1165,1161,1161,1161,1161,1161,1161,1161,1161,1161,1161,1161,1161,1161,1161,1161,1161,1165,1161,1161,1161,1161,1165,1165,1165,1161,1161,1161,1161,1161,1161,1161,1161,1161,1161,1157,1157,1157,1161,1161,1157,1157,1157,1157,1157,1157,1157,1157,1157,1157,1157,1157,1157,1161,1161,1161,1161,1157,1157,1153,1153,1149,1145,1145,0,0,0,0,0,0,734,734,734,733,733,733,731,728,727,725,723,723,722,722,722,722,722,722,722,722,722,723,728,730,731,733,734,738,739,739,739,741,742,742,0,0,0,0,0,0,0,1149,1149,1149,1149,1149,1149,1149,1149,1153,1153,1153,1153,1153,1153,1149,1149,1149,1149,1149,1153,1153,1153,1153,1153,1153,1153,1149,1149,1149,1149,1145,978,973,970,967,967,967,964,962,959,956,913,913,913,915,915,918,918,920,920,920,918,918,920,920,920,923,925,925,928,933,935,940,943,943,946,948,951,956,959,962,962,962,1149,1149,1149,1149,1149,1149,1145,1145,1145,1145,1145,1145,1145,1145,1145,1145,1141,1141,1145,1145,1145,1145,1145,1145,1141,1141,1141,1141,1138,1138,1138,1138,1138,1134,1134,1134,1134,1130,1130,1130,1130,1130,1134,1134,1134,1138,1138,1138,1138,1138,1138,1138,1138,1138,1138,1138,1138,1138,1141,1141,1138,1138,1138,1138,1138,1138,1138,1138,1141,1141,1138,1138,1138,1138,1138,1138,1138,1138,1138,1138,1138,1138,1134,1134,1134,1134,1134,1138,1138,1141,1138,1138,1138,1138,1138,1134,1134,1134,1134,1134,1134,1134,1134,1134,1134,1130,1130,1130,1130,1130,1130,1130,1130,1130,1130,1130,1130,1130,1130,1134,1134,1134,1134,1134,1134,1134,1134,1134,1134,1134,1134,1134,1134,1134,1130,1130,1130,1130,1130,1130,1126,1126,1126,1126,1126,1126,1126,1126,1126,1126,1126,1126,1126,1126,1126,1126,1126,1126,1126,1126,1126,1123,1123,1123,1123,1123,1123,1123,1123,1123,1123,1123,1119,1119,1123,1123,1123,1123,1123,1123,1123,1123,1123,1123,1119,1119,1119,1123,1123,1119,1119,1119,1119,1119,1119,1119,1119,1119,1119,1119,1119,1119,1115,1115,1115,1112,1112,1112,1112,1115,1115,1119,1119,1123,1004,1004,1007,1010,1010,1007,1007,1007,1004,1004,1004,1004,1001,1001,998,998,1001,1001,1004,0,0,1019,1019,0,0,935,935,935,935,935,935,935,935,933,933,933,933,933,935,935,935,935,935,935,935,938,938,938,943,943,946,946,948,964,970,970,970,970,970,967,967,967,967,964,962,962,962,959,959,0,0,0,0,0,0,0,0,0,0,0,0,0,0,0,0,0,0,0,0,0,0,0,0,0,0,0,0,0,0,0,0,0,0,0
0,0,0,0,0,0,0,1181,1177,1177,1177,1177,1169,1169,1165,1165,1165,1165,1165,1165,1169,1169,1169,1169,1169,1173,1173,1173,1169,1169,1169,1169,1169,1169,1169,1169,1169,1165,1165,1165,1165,1165,1165,1165,1165,1165,1169,1169,1169,1169,1173,1173,1177,1173,1173,1173,1173,1173,1169,1169,1169,1169,1169,1169,1169,1173,1173,1173,1173,1169,1169,1169,1169,1169,1169,1169,1169,1169,1169,1165,1165,1165,1161,987,987,987,987,987,987,987,987,984,984,984,984,987,987,987,989,989,992,992,995,998,998,1001,1001,1001,1001,1001,1165,1161,1161,1161,1157,1157,1161,1161,1161,1161,1161,1161,1161,1161,1161,1161,1161,1161,1165,1161,1161,1165,1165,1165,1161,1161,1161,1161,1161,1161,1161,1161,1161,1161,1161,1157,1157,1157,1157,1157,1157,1157,1161,1161,1161,1161,1161,1161,1161,1161,1161,1161,1161,1161,1161,1161,1157,1157,1157,1157,1157,1157,1157,1157,1153,1153,1157,1157,1153,1153,1153,1153,1157,1157,1157,1157,1157,1157,1157,1153,1153,1153,1153,1153,1153,1157,1153,1153,1149,1145,1145,1145,0,0,0,0,0,0,734,734,734,734,733,733,731,730,728,727,725,723,723,722,722,722,722,722,722,722,723,725,730,730,733,734,734,738,739,739,739,741,742,742,0,0,0,0,0,0,0,1149,1149,1149,1149,1149,1149,1149,1149,1149,1145,1145,1149,1149,1149,1149,1149,1149,1149,1149,1149,1149,1149,1153,1149,1149,1149,1149,1149,1145,1145,1145,1141,1141,970,967,967,967,962,962,959,906,906,910,910,913,913,915,915,915,915,915,915,915,918,918,920,920,923,925,928,933,938,940,943,943,946,948,951,956,959,962,964,1138,1138,1141,1145,1145,1145,1145,1145,1145,1145,1145,1145,1141,1141,1141,1141,1141,1141,1141,1141,1141,1141,1141,1141,1141,1138,1138,1138,1138,1138,1138,1138,1138,1138,1134,1134,1134,1134,1130,1130,1130,1130,1130,1130,1134,1134,1134,1134,1138,1138,1134,1134,1134,1134,1134,1134,1134,1134,1134,1134,1134,1134,1134,1138,1138,1138,1138,1138,1138,1138,1138,1138,1138,1138,1138,1134,1134,1134,1134,1134,1134,1134,1134,1134,1130,1130,1130,1130,1134,1134,1134,1134,1134,1130,1130,1130,1130,1130,1130,1130,1130,1130,1130,1130,1130,1130,1126,1126,1126,1126,1126,1126,1126,1126,1126,1126,1126,1123,1123,1123,1126,1126,1126,1130,1130,1130,1130,1130,1134,1130,1130,1130,1130,1130,1130,1126,1126,1126,1123,1123,1123,1123,1123,1123,1123,1123,1123,1123,1123,1123,1123,1123,1123,1123,1123,1123,1123,1123,1123,1123,1123,1123,1123,1123,1123,1123,1123,1123,1119,1119,1119,1119,1119,1119,1119,1115,1115,1119,1119,1119,1119,1119,1119,1119,1119,1119,1115,1115,1119,1119,1119,1119,1119,1115,1115,1115,1115,1115,1115,1115,1115,1115,1115,1112,1112,1112,1112,1108,1108,1108,1112,1115,1115,1115,1115,1004,1004,1007,1010,1010,1007,1007,1007,1010,1101,1101,1101,1101,1101,998,998,1001,1001,1007,1007,1016,1019,1019,0,0,935,935,935,933,933,935,933,933,933,933,933,935,935,935,935,935,935,935,935,935,935,938,938,940,943,946,946,948,967,970,970,970,970,970,967,967,967,964,964,962,962,959,959,959,0,0,0,0,0,0,0,0,0,0,0,0,0,0,0,0,0,0,0,0,0,0,0,0,0,0,0,0,0,0,0,0,0,0,0
0,0,0,0,0,0,0,1177,1177,1177,1177,1169,1165,1165,1161,1161,1165,1165,1165,1165,1165,1165,1165,1165,1165,1165,1169,1169,1165,1165,1165,1165,1165,1165,1165,1165,1165,1165,1165,1165,1165,1165,1165,1161,1161,1165,1165,1165,1165,1165,1173,1173,1173,1169,1169,1169,1165,1165,1165,1165,1165,1165,1165,1165,1165,1169,1169,1169,1169,1165,1165,1165,1165,1165,1165,1165,1165,1165,1165,1165,1161,1161,1161,1161,989,989,989,989,989,989,987,987,987,987,987,987,987,989,989,989,992,995,998,998,998,1001,1001,1001,1001,1001,1153,1153,1153,1153,1153,1157,1157,1157,1161,1161,1161,1157,1157,1157,1157,1157,1157,1157,1157,1157,1161,1161,1161,1161,1161,1161,1161,1161,1161,1157,1157,1157,1157,1157,1157,1157,1157,1153,1153,1153,1153,1153,1157,1157,1157,1157,1157,1157,1157,1157,1157,1157,1157,1153,1153,1153,1153,1153,1153,1153,1153,1157,1153,1153,1153,1153,1153,1153,1153,1149,1149,1153,1153,1153,1153,1153,1153,1153,1153,1153,1153,1149,1149,1149,1149,1149,1149,1149,1145,1141,1141,0,0,0,0,0,0,0,738,736,736,734,733,733,733,731,728,728,727,725,723,722,722,722,722,722,722,722,723,725,730,731,733,734,736,738,739,739,741,742,742,744,0,0,0,0,0,1145,1145,1145,1145,1145,1145,1145,1145,1145,1145,1145,1145,1145,1141,1141,1141,1145,1145,1145,1149,1149,1149,1149,1149,1149,1145,1145,1145,1145,1145,1145,1145,1145,1141,1141,1138,1138,1141,967,906,906,906,906,906,908,908,913,913,910,910,910,910,913,913,913,915,918,918,920,923,925,928,933,938,940,943,943,946,948,951,956,959,962,964,1138,1138,1138,1138,1138,1141,1141,1141,1141,1141,1141,1141,1141,1141,1141,1141,1138,1138,1138,1138,1138,1138,1138,1138,1138,1138,1138,1138,1138,1138,1138,1138,1138,1134,1134,1134,1134,1130,1130,1130,1126,1126,1130,1130,1134,1134,1134,1134,1134,1134,1134,1134,1134,1134,1134,1134,1134,1134,1134,1134,1134,1134,1134,1134,1134,1134,1134,1134,1134,1134,1134,1134,1134,1134,1130,1130,1130,1130,1130,1130,1130,1130,1130,1130,1126,1126,1126,1126,1126,1130,1130,1130,1126,1126,1126,1126,1126,1126,1126,1126,1126,1126,1126,1126,1126,1126,1126,1123,1123,1123,1123,1123,1123,1123,1123,1123,1123,1123,1123,1123,1123,1119,1119,1126,1126,1126,1126,1126,1126,1126,1126,1126,1126,1126,1126,1123,1123,1123,1123,1119,1119,1119,1119,1119,1119,1123,1119,1119,1119,1119,1119,1119,1119,1119,1119,1119,1119,1119,1119,1119,1119,1123,1119,1119,1119,1119,1119,1119,1119,1115,1115,1115,1115,1115,1112,1112,1112,1115,1115,1115,1115,1115,1119,1119,1115,1115,1112,1112,1115,1115,1115,1115,1115,1115,1115,1112,1112,1112,1112,1112,1112,1112,1112,1112,1112,1112,1108,1108,1108,1108,1108,1112,1112,1112,1108,1007,1007,1010,1010,1010,1010,1007,1007,1010,1101,1101,1097,1097,1097,1097,1001,1001,1001,1004,1004,1010,1013,1013,1022,935,935,935,935,933,933,933,933,933,933,933,933,933,933,935,935,935,935,935,935,935,935,938,938,940,940,943,946,948,967,970,970,970,970,970,967,967,967,964,964,962,962,959,956,956,0,0,0,0,0,0,0,0,0,0,0,0,0,0,0,0,0,0,0,0,0,0,0,0,0,0,0,0,0,0,0,0,0,0,0
0,0,0,0,0,0,0,1177,1173,1169,1169,1161,1161,1161,1161,1161,1165,1161,1161,1161,1161,1165,1165,1161,1161,1165,1165,1165,1165,1165,1165,1165,1161,1161,1161,1161,1161,1161,1161,1161,1161,1161,1161,1161,1161,1161,1161,1161,1161,1161,1165,1165,1165,1165,1165,1165,1161,1161,1161,1161,1161,1161,1161,1161,1165,1165,1165,1165,1165,1161,1157,1157,1161,1161,1161,1161,1161,1161,1161,1161,1161,1157,1157,1157,992,992,992,992,989,989,987,987,987,987,987,987,987,989,989,989,992,995,998,998,1001,1001,1001,1004,1004,1004,1149,1149,1149,1149,1149,1149,1153,1153,1157,1157,1157,1157,1157,1157,1157,1157,1157,1157,1157,1153,1153,1153,1153,1153,1157,1157,1157,1157,1157,1153,1153,1153,1153,1153,1153,1153,1153,1153,1153,1153,1149,1149,1153,1153,1153,1153,1153,1153,1153,1153,1153,1149,1149,1149,1149,1153,1149,1149,1149,1149,1153,1153,1149,1149,1149,1149,1149,1149,1149,1149,1149,1149,1149,1149,1149,1149,1149,1149,1149,1149,1149,1149,1149,1149,1149,1145,1145,1145,1141,1141,1141,0,0,0,0,0,0,0,738,738,736,734,734,734,734,731,730,728,727,725,723,722,722,722,722,722,722,722,723,725,730,733,734,734,738,739,739,739,741,742,742,0,0,0,0,0,0,1141,1141,1141,1145,1145,1145,1145,1145,1145,1145,1141,1141,1141,1141,1141,1141,1141,1141,1145,1145,1145,1145,1145,1145,1145,1141,1141,1141,1141,1141,1141,1141,1141,1141,1138,1138,1138,1138,903,903,903,906,906,910,908,908,910,910,908,908,908,908,910,913,913,915,915,918,920,923,925,928,935,938,940,943,943,946,948,948,956,959,1134,1134,1134,1134,1134,1138,1138,1138,1138,1138,1138,1138,1138,1138,1138,1138,1138,1138,1134,1134,1134,1134,1134,1138,1138,1138,1134,1134,1134,1134,1134,1134,1134,1134,1134,1134,1134,1130,1130,1130,1126,1126,1126,1126,1126,1126,1130,1130,1134,1134,1134,1134,1130,1130,1130,1130,1130,1130,1130,1130,1130,1130,1130,1130,1130,1130,1130,1130,1130,1134,1134,1130,1130,1130,1130,1130,1126,1126,1126,1126,1126,1126,1126,1126,1126,1126,1126,1123,1123,1126,1126,1126,1126,1126,1126,1123,1123,1123,1123,1123,1123,1123,1126,1123,1123,1123,1123,1123,1123,1123,1123,1123,1123,1123,1123,1123,1123,1123,1123,1123,1119,1119,1119,1119,1119,1119,1119,1119,1119,1123,1126,1123,1123,1123,1123,1123,1123,1119,1119,1119,1119,1119,1119,1119,1119,1119,1119,1119,1119,1119,1119,1119,1119,1119,1119,1119,1119,1119,1115,1115,1115,1115,1115,1119,1119,1119,1115,1115,1115,1115,1115,1112,1112,1112,1112,1112,1112,1112,1112,1112,1112,1112,1112,1112,1112,1112,1112,1112,1112,1112,1112,1112,1112,1112,1112,1112,1112,1112,1108,1108,1108,1108,1108,1112,1112,1112,1112,1112,1108,1108,1108,1108,1108,1108,1108,1108,1010,1010,1010,1010,1010,1013,1010,1010,1097,1097,1097,1097,1097,1097,1097,1097,1001,1001,1001,1004,1004,1010,1013,1016,1022,935,935,935,933,933,933,933,933,933,933,933,933,933,933,935,935,935,935,935,935,935,935,938,938,938,940,940,943,946,970,970,970,970,970,970,967,967,967,964,964,962,959,959,956,956,0,0,0,0,0,0,0,0,0,0,0,0,0,0,0,0,0,0,0,0,0,0,0,0,0,0,0,0,0,0,0,0,0,0,0
0,0,0,0,0,0,0,1173,1169,1165,1161,1157,1157,1157,1157,1157,1161,1161,1161,1161,1161,1161,1161,1157,1157,1157,1161,1161,1161,1161,1161,1161,1161,1161,1161,1161,1161,1161,1161,1161,1161,1157,1157,1157,1157,1157,1157,1157,1161,1161,1161,1161,1161,1161,1161,1161,1161,1157,1157,1157,1157,1157,1157,1157,1157,1157,1161,1161,1157,1157,1153,1153,1157,1157,1161,1161,1161,1161,1161,1157,1157,1157,1153,1153,995,995,992,992,989,989,989,987,987,987,987,987,987,989,989,989,992,995,998,998,1001,1001,1004,1004,1004,1007,1145,1145,1145,1149,1149,1149,1149,1149,1153,1153,1153,1153,1153,1153,1153,1153,1153,1153,1153,1149,1149,1149,1149,1149,1149,1149,1149,1149,1153,1153,1153,1149,1149,1149,1149,1149,1149,1149,1149,1149,1149,1149,1149,1149,1149,1149,1149,1149,1149,1149,1149,1145,1145,1149,1149,1149,1149,1149,1149,1149,1149,1149,1145,1145,1145,1145,1145,1149,1149,1149,1149,1149,1149,1149,1149,1149,1149,1149,1149,1149,1149,1145,1145,1145,1145,1145,1145,1141,1138,1138,1141,0,0,0,0,0,0,0,0,738,738,736,734,734,734,733,730,730,728,727,725,723,722,722,722,722,722,722,723,730,730,733,734,734,738,739,739,739,741,742,742,0,0,0,0,0,0,1141,1141,1141,1141,1141,1141,1141,1141,1141,1141,1138,1138,1138,1138,1138,1138,1138,1138,1141,1141,1141,1141,1138,1138,1141,1138,1138,1138,1138,1138,1138,1138,1141,1141,1138,1138,1138,903,903,903,903,906,906,908,908,908,908,908,908,908,908,908,908,910,913,913,915,918,920,923,925,928,935,938,940,940,943,943,946,948,1126,1126,1130,1130,1130,1134,1134,1134,1134,1134,1134,1134,1134,1130,1130,1130,1134,1134,1134,1134,1134,1134,1134,1134,1134,1134,1134,1134,1134,1134,1134,1134,1134,1134,1134,1134,1134,1130,1130,1130,1130,1126,1126,1126,1126,1126,1126,1126,1126,1126,1130,1130,1130,1130,1126,1126,1126,1126,1126,1126,1126,1126,1126,1126,1126,1126,1126,1126,1126,1126,1126,1126,1126,1126,1126,1126,1126,1126,1123,1123,1123,1123,1123,1123,1123,1123,1123,1123,1123,1123,1123,1123,1123,1123,1123,1123,1123,1123,1123,1123,1123,1123,1123,1123,1123,1123,1123,1123,1123,1123,1123,1123,1123,1123,1123,1123,1123,1123,1119,1119,1119,1119,1119,1119,1119,1115,1115,1119,1119,1115,1115,1119,1119,1119,1119,1119,1119,1119,1119,1119,1115,1115,1115,1115,1115,1115,1115,1115,1115,1115,1119,1115,1115,1115,1115,1115,1115,1115,1115,1112,1112,1112,1112,1112,1112,1112,1112,1112,1112,1112,1112,1112,1112,1108,1108,1108,1108,1112,1108,1108,1108,1108,1108,1108,1108,1108,1108,1108,1108,1108,1108,1108,1108,1108,1108,1108,1108,1108,1108,1108,1108,1108,1108,1108,1108,1108,1108,1108,1108,1108,1108,1105,1105,1105,1105,1105,1105,1105,1010,1010,1013,1013,1013,1013,1013,1013,1094,1094,1097,1097,1094,1094,1094,1094,1094,1094,1004,1004,1004,1010,1010,1010,1016,1016,935,935,933,933,933,933,933,933,933,933,933,933,933,935,935,935,935,935,935,935,935,938,938,938,938,940,943,946,970,970,970,970,970,967,967,967,964,964,964,962,959,959,956,956,0,0,0,0,0,0,0,0,0,0,0,0,0,0,0,0,0,0,0,0,0,0,0,0,0,0,0,0,0,0,0,0,0,0,0
0,0,0,0,0,0,0,1169,1165,1165,1157,1157,1157,1153,1153,1153,1157,1157,1157,1157,1157,1157,1157,1157,1157,1157,1157,1157,1157,1157,1157,1157,1157,1157,1157,1157,1157,1157,1157,1157,1157,1157,1157,1153,1153,1153,1153,1153,1157,1157,1157,1161,1157,1157,1157,1157,1157,1153,1153,1153,1153,1153,1153,1153,1153,1153,1153,1149,1149,1149,1149,1149,1153,1153,1157,1157,1153,1153,1157,1153,1153,1153,1149,1149,995,995,995,995,992,989,989,987,987,987,987,987,989,989,989,992,992,995,998,998,1001,1001,1004,1007,1007,1010,1013,1145,1145,1145,1149,1149,1149,1149,1149,1149,1149,1149,1149,1149,1149,1149,1149,1149,1149,1149,1149,1149,1149,1149,1149,1149,1149,1149,1149,1149,1149,1149,1149,1149,1149,1149,1149,1149,1149,1149,1149,1149,1149,1149,1149,1149,1145,1145,1145,1145,1145,1141,1141,1145,1145,1149,1145,1145,1145,1145,1145,1145,1145,1145,1145,1145,1145,1145,1145,1145,1145,1145,1145,1145,1145,1145,1145,1145,1145,1145,1145,1145,1145,1145,1145,1141,1141,1134,1130,1130,1130,0,0,0,0,0,0,0,0,739,739,738,736,736,734,733,731,731,728,727,727,723,723,722,722,722,722,723,725,728,730,731,733,734,738,739,739,739,741,742,744,747,747,0,0,0,0,1141,1138,1134,1134,1138,1138,1138,1138,1138,1138,1138,1138,1134,1134,1138,1134,1134,1134,1138,1138,1138,1138,1134,1134,1134,1134,1134,1138,1138,1138,1138,1138,1138,1138,898,896,896,898,901,903,903,903,906,906,906,906,906,906,906,906,906,906,908,910,910,913,915,918,920,923,925,930,935,938,940,940,943,943,946,1126,1126,1126,1126,1126,1130,1130,1130,1130,1130,1130,1130,1130,1126,1126,1126,1126,1126,1126,1126,1130,1130,1130,1130,1130,1134,1134,1134,1130,1130,1130,1130,1130,1130,1130,1130,1130,1130,1130,1126,1126,1126,1123,1123,1123,1123,1123,1123,1123,1123,1126,1126,1126,1126,1126,1123,1123,1123,1123,1123,1123,1123,1123,1123,1123,1123,1123,1123,1119,1119,1123,1123,1123,1123,1123,1123,1123,1123,1123,1123,1123,1123,1123,1123,1123,1123,1123,1123,1123,1123,1123,1123,1123,1123,1123,1123,1123,1123,1123,1123,1119,1119,1119,1119,1119,1119,1119,1119,1119,1119,1119,1119,1119,1119,1119,1119,1119,1119,1119,1119,1119,1119,1119,1115,1115,1115,1112,1112,1115,1115,1112,1112,1115,1115,1115,1112,1112,1112,1115,1115,1115,1112,1112,1112,1115,1115,1115,1115,1112,1112,1115,1115,1115,1115,1115,1112,1112,1112,1112,1112,1112,1108,1108,1108,1108,1108,1108,1108,1108,1108,1108,1108,1108,1108,1108,1105,1105,1108,1108,1108,1108,1108,1108,1108,1108,1108,1108,1108,1105,1105,1105,1105,1105,1105,1105,1108,1108,1108,1108,1108,1108,1105,1105,1105,1105,1105,1105,1105,1108,1108,1108,1108,1105,1101,1101,1101,1105,1105,1105,1010,1010,1013,1013,1013,1013,1013,1013,1094,1094,1094,1094,1094,1094,1094,1094,1094,1094,1094,1007,1007,1007,1007,1007,1013,933,933,933,933,933,933,933,933,933,933,933,933,933,933,935,935,935,935,935,935,935,935,938,938,938,938,940,943,948,967,970,970,970,970,967,967,967,964,964,962,962,959,956,956,956,0,0,0,0,0,0,0,0,0,0,0,0,0,0,0,0,0,0,0,0,0,0,0,0,0,0,0,0,0,0,0,0,0,0,0
0,0,0,0,0,0,0,1165,1161,1161,1157,1157,1157,1153,1153,1153,1157,1157,1157,1153,1153,1153,1153,1153,1153,1149,1149,1153,1153,1153,1153,1153,1153,1153,1153,1153,1153,1157,1157,1153,1153,1153,1153,1153,1149,1149,1149,1149,1153,1153,1153,1157,1153,1153,1153,1153,1153,1149,1149,1149,1149,1153,1149,1149,1149,1149,1153,1149,1149,1149,1149,1149,1149,1149,1153,1149,1149,1149,1149,1149,1149,1145,1145,1145,995,995,995,995,992,992,989,989,987,987,987,989,989,989,989,992,995,995,998,1001,1001,1004,1004,1007,1007,1010,1013,1145,1145,1145,1145,1145,1149,1149,1149,1149,1149,1149,1149,1145,1145,1145,1145,1145,1145,1145,1145,1145,1145,1145,1145,1145,1145,1145,1145,1145,1145,1145,1145,1145,1145,1149,1149,1145,1145,1145,1145,1145,1145,1145,1145,1145,1141,1141,1141,1141,1141,1138,1138,1141,1141,1145,1141,1141,1141,1141,1141,1141,1141,1141,1141,1141,1141,1141,1141,1141,1141,1138,1138,1138,1141,1138,1138,1141,1141,1141,1141,1141,1141,1141,1141,1138,1138,1130,1130,1130,1130,0,0,0,0,0,0,0,0,739,739,739,738,738,736,734,733,731,730,728,727,725,723,723,723,723,723,723,725,728,731,731,733,738,739,739,739,741,742,744,744,747,747,0,0,0,0,0,1134,1134,1134,1134,1134,1134,1134,1134,1134,1134,1134,1134,1134,1134,1134,1134,1134,1134,1134,1134,1134,1134,1134,1134,1134,1134,1130,1130,1134,1134,1134,1134,1134,896,896,896,896,901,901,901,903,903,903,903,903,903,903,903,903,906,906,906,910,910,913,915,918,920,923,925,928,935,938,940,940,943,943,946,1123,1123,1123,1123,1123,1126,1126,1130,1126,1123,1123,1123,1123,1123,1123,1123,1126,1123,1123,1123,1123,1123,1123,1123,1126,1130,1130,1130,1130,1126,1126,1126,1126,1126,1126,1126,1126,1126,1126,1123,1123,1123,1123,1123,1123,1123,1123,1123,1123,1123,1123,1123,1123,1123,1123,1123,1123,1123,1119,1119,1123,1123,1119,1119,1119,1119,1119,1119,1119,1119,1119,1119,1123,1123,1123,1123,1123,1123,1119,1119,1119,1119,1119,1119,1119,1119,1119,1119,1119,1119,1119,1119,1119,1119,1119,1119,1119,1119,1119,1119,1119,1119,1119,1119,1119,1119,1119,1119,1119,1119,1119,1119,1119,1119,1115,1115,1115,1115,1115,1115,1115,1115,1115,1115,1112,1112,1112,1112,1112,1112,1112,1112,1112,1112,1112,1108,1108,1108,1108,1108,1108,1112,1108,1108,1112,1112,1112,1112,1108,1108,1112,1112,1108,1108,1108,1108,1108,1108,1108,1108,1108,1108,1108,1108,1108,1108,1108,1105,1105,1108,1105,1105,1105,1105,1105,1105,1105,1105,1105,1105,1105,1105,1105,1105,1105,1105,1105,1105,1105,1105,1105,1105,1105,1105,1097,1097,1097,1105,1105,1105,1105,1105,1101,1101,1101,1101,1101,1101,1101,1101,1101,1101,1101,1101,1101,1101,1101,1101,1105,1010,1010,1013,1013,1013,1013,1013,1013,1094,1094,1094,1094,1094,1094,1094,1094,1094,1094,1094,1090,1007,1007,1007,1007,1010,933,933,933,933,933,933,933,933,930,930,933,933,935,935,935,935,935,935,935,935,935,935,938,938,938,938,940,943,967,967,967,967,967,967,967,964,964,962,962,962,959,956,956,956,956,0,0,0,0,0,0,0,0,0,0,0,0,0,0,0,0,0,0,0,0,0,0,0,0,0,0,0,0,0,0,0,0,0,0,0
0,0,0,0,0,0,0,1161,1157,1157,1157,1153,1153,1153,1149,1149,1153,1153,1153,1149,1149,1149,1149,1149,1149,1149,1149,1149,1149,1149,1149,1149,1149,1149,1149,1149,1149,1149,1149,1149,1149,1149,1149,1149,1149,1149,1149,1149,1153,1153,1153,1153,1153,1149,1149,1149,1149,1149,1149,1149,1149,1149,1149,1149,1149,1149,1149,1145,1145,1149,1145,1145,1145,1145,1145,1145,1145,1145,1149,1149,1149,1141,1141,1141,1141,998,998,998,995,992,992,989,989,989,989,989,989,989,989,992,995,998,998,1001,1001,1004,1004,1007,1010,1013,1013,1141,1141,1141,1145,1145,1145,1145,1145,1145,1145,1145,1145,1145,1145,1145,1145,1145,1145,1141,1141,1141,1141,1145,1145,1145,1145,1145,1145,1145,1145,1141,1141,1145,1145,1145,1145,1145,1145,1145,1145,1145,1145,1145,1145,1141,1141,1138,1138,1141,1138,1138,1138,1138,1138,1141,1138,1138,1138,1138,1138,1138,1138,1138,1138,1138,1138,1138,1138,1138,1134,1134,1134,1134,1134,1134,1134,1134,1138,1138,1138,1138,1138,1138,1134,1134,1130,1130,1126,1126,1123,1119,1119,0,0,0,0,0,0,741,739,739,739,739,736,734,733,731,730,728,728,727,723,723,723,723,723,723,725,728,730,731,733,738,739,739,739,741,742,746,746,747,749,0,0,0,0,0,1134,1130,1130,1130,1130,1130,1130,1130,1130,1134,1134,1134,1134,1130,1130,1130,1130,1130,1130,1130,1130,1130,1130,1130,1130,1130,1130,1130,1130,1130,1134,1134,896,896,896,896,896,898,898,898,901,903,903,903,901,901,901,903,903,903,906,906,908,910,913,915,918,920,923,925,928,933,935,940,943,943,943,1123,1123,1123,1123,1123,1123,1123,1123,1123,1123,1119,1119,1119,1119,1119,1119,1119,1123,1123,1123,1123,1123,1123,1123,1123,1123,1123,1123,1126,1126,1126,1123,1123,1123,1123,1123,1123,1123,1123,1123,1123,1123,1123,1119,1119,1119,1119,1119,1119,1119,1119,1119,1119,1119,1119,1119,1119,1119,1119,1115,1115,1119,1119,1119,1119,1115,1115,1115,1115,1115,1115,1115,1115,1115,1115,1119,1119,1119,1119,1119,1115,1115,1115,1115,1115,1115,1115,1119,1115,1115,1119,1119,1119,1119,1119,1119,1119,1119,1119,1115,1115,1115,1115,1115,1115,1115,1115,1115,1115,1115,1115,1115,1115,1115,1115,1112,1112,1112,1112,1112,1112,1112,1112,1112,1112,1112,1108,1108,1108,1108,1108,1108,1108,1108,1108,1108,1108,1108,1108,1108,1108,1108,1108,1108,1108,1108,1108,1108,1108,1108,1108,1108,1108,1105,1105,1105,1108,1108,1108,1108,1108,1105,1105,1105,1105,1105,1105,1105,1105,1105,1105,1105,1105,1101,1101,1101,1101,1101,1101,1101,1101,1101,1105,1105,1105,1105,1105,1105,1105,1101,1101,1101,1101,1101,1097,1097,1097,1097,1097,1097,1101,1101,1097,1097,1097,1097,1097,1097,1094,1094,1097,1097,1097,1097,1097,1097,1097,1097,1097,1010,1010,1013,1013,1013,1013,1013,1013,1094,1090,1090,1090,1094,1094,1090,1090,1090,1090,1090,1090,1090,1007,1007,1007,1007,1007,935,935,933,933,933,933,933,933,930,930,933,933,933,935,935,935,935,935,935,935,935,935,938,938,938,938,940,946,967,967,967,967,967,967,967,964,962,962,959,959,956,956,956,954,954,0,0,0,0,0,0,0,0,0,0,0,0,0,0,0,0,0,0,0,0,0,0,0,0,0,0,0,0,0,0,0,0,0,0,0
0,0,0,0,0,0,0,1153,1153,1153,1149,1149,1149,1149,1149,1149,1149,1149,1149,1149,1149,1149,1149,1149,1149,1149,1149,1149,1149,1149,1149,1149,1149,1145,1145,1145,1145,1145,1149,1149,1149,1149,1149,1149,1149,1149,1149,1149,1149,1149,1149,1149,1149,1149,1149,1149,1149,1145,1145,1145,1145,1149,1149,1145,1145,1145,1145,1145,1145,1145,1145,1145,1145,1145,1145,1145,1145,1145,1145,1145,1145,1141,1138,1138,1001,1001,998,998,995,995,992,989,989,989,989,989,989,989,992,992,995,998,998,1001,1001,1004,1007,1010,1010,1013,1013,1141,1141,1141,1145,1145,1145,1145,1145,1145,1145,1141,1141,1141,1141,1141,1141,1141,1141,1141,1138,1138,1138,1138,1141,1141,1141,1141,1141,1141,1141,1141,1141,1141,1141,1141,1141,1141,1141,1141,1141,1138,1138,1141,1141,1141,1138,1138,1138,1138,1138,1138,1138,1138,1138,1138,1138,1138,1138,1138,1134,1134,1134,1134,1134,1134,1134,1134,1134,1134,1134,1130,1130,1130,1134,1130,1130,1130,1134,1134,1134,1134,1134,1134,1130,1130,1130,1126,1126,1126,1123,1119,1115,1115,0,0,0,0,0,741,741,741,741,739,738,736,734,733,731,730,728,727,725,723,723,723,723,725,727,730,730,731,734,738,739,739,741,741,744,746,746,747,749,0,0,0,0,0,0,1130,1130,1130,1130,1130,1130,1130,1130,1130,1130,1130,1130,1130,1130,1130,1130,1130,1130,1130,1126,1126,1126,1126,1126,1126,1130,1130,1130,1130,1130,1130,894,894,894,894,894,896,898,898,898,901,901,901,901,901,901,901,903,903,906,906,908,910,913,915,920,923,925,928,928,933,935,938,943,946,1123,1123,1123,1119,1119,1119,1119,1119,1119,1119,1119,1115,1115,1115,1115,1115,1119,1119,1119,1119,1119,1119,1119,1119,1119,1119,1119,1119,1119,1119,1119,1119,1123,1123,1119,1119,1119,1119,1119,1119,1119,1119,1119,1119,1119,1119,1115,1115,1115,1119,1119,1119,1119,1119,1119,1115,1115,1115,1115,1115,1112,1112,1115,1115,1115,1115,1115,1115,1112,1112,1112,1112,1112,1112,1112,1112,1112,1115,1112,1112,1112,1112,1112,1112,1112,1112,1112,1108,1108,1108,1108,1112,1115,1115,1115,1115,1115,1115,1115,1115,1115,1115,1115,1115,1115,1112,1112,1112,1112,1112,1108,1108,1108,1108,1112,1112,1108,1108,1108,1108,1108,1108,1108,1108,1108,1108,1108,1108,1108,1108,1105,1105,1105,1105,1105,1105,1105,1105,1105,1105,1105,1105,1105,1105,1105,1105,1105,1105,1105,1105,1105,1105,1105,1105,1105,1105,1105,1105,1105,1105,1105,1105,1105,1101,1101,1101,1101,1101,1101,1101,1101,1101,1101,1097,1097,1097,1097,1097,1097,1097,1101,1101,1097,1097,1097,1097,1097,1097,1097,1101,1097,1097,1097,1094,1094,1094,1094,1094,1094,1094,1094,1094,1094,1094,1097,1094,1094,1094,1094,1094,1094,1094,1094,1094,1094,1097,1094,1094,1094,1094,1010,1010,1013,1013,1013,1013,1013,1013,1087,1087,1087,1087,1090,1090,1090,1090,1090,1090,1090,1090,1090,1090,1090,1007,1004,1004,935,935,935,933,933,933,933,930,930,930,930,933,933,933,933,935,935,935,935,935,935,938,938,938,938,938,940,940,967,967,967,967,967,967,964,964,962,962,959,959,956,956,956,954,954,0,0,0,0,0,0,0,0,0,0,0,0,0,0,0,0,0,0,0,0,0,0,0,0,0,0,0,0,0,0,0,0,0,0,0
0,0,0,0,0,0,0,1149,1149,1149,1149,1149,1149,1145,1145,1145,1149,1149,1149,1145,1145,1145,1145,1145,1145,1145,1145,1145,1145,1145,1145,1145,1145,1145,1145,1141,1141,1145,1145,1145,1145,1145,1145,1145,1141,1141,1141,1141,1141,1141,1141,1145,1145,1145,1145,1145,1145,1145,1145,1145,1145,1145,1145,1145,1145,1145,1145,1145,1145,1145,1141,1141,1141,1141,1141,1141,1141,1141,1138,1138,1138,1134,1130,1130,1130,1001,1001,1001,998,998,995,992,989,989,989,989,989,989,992,995,998,998,998,1001,1001,1004,1007,1007,1010,1013,1013,1141,1141,1141,1145,1145,1141,1141,1141,1141,1138,1138,1138,1138,1138,1138,1138,1138,1138,1138,1138,1134,1134,1134,1138,1138,1138,1138,1138,1138,1138,1138,1138,1138,1138,1138,1138,1138,1134,1134,1134,1134,1134,1134,1134,1134,1134,1134,1134,1134,1134,1134,1134,1134,1134,1134,1134,1134,1134,1134,1134,1134,1130,1130,1130,1130,1130,1130,1130,1130,1130,1130,1130,1130,1130,1130,1130,1130,1130,1130,1130,1130,1130,1130,1130,1126,1126,1126,1123,1123,1119,1119,1115,1115,0,0,0,0,0,744,741,741,741,741,739,738,736,734,733,731,730,728,727,725,725,725,725,727,727,730,730,731,734,738,739,739,741,744,746,747,747,747,749,0,0,0,0,0,0,1126,1126,1126,1126,1126,1126,1126,1126,1126,1126,1126,1126,1126,1126,1126,1126,1126,1126,1126,1123,1123,1123,1126,1123,1123,1126,1126,1126,887,887,889,889,889,891,891,894,896,896,896,896,896,896,898,898,898,898,901,901,903,903,906,908,910,913,915,920,923,925,928,928,933,935,938,1119,1119,1119,1119,1119,1119,1119,1119,1119,1119,1115,1115,1115,1115,1115,1115,1115,1115,1115,1115,1115,1115,1115,1119,1119,1119,1119,1119,1119,1119,1119,1119,1119,1119,1115,1115,1115,1119,1115,1115,1119,1115,1115,1115,1119,1119,1119,1115,1115,1115,1115,1115,1112,1112,1112,1115,1112,1112,1112,1112,1112,1112,1112,1112,1112,1112,1112,1112,1112,1112,1112,1108,1108,1108,1108,1108,1108,1108,1112,1112,1112,1112,1108,1108,1108,1108,1108,1108,1108,1108,1108,1108,1108,1108,1108,1108,1108,1112,1112,1112,1112,1108,1108,1108,1108,1108,1108,1108,1108,1108,1108,1108,1108,1108,1108,1108,1108,1108,1108,1108,1108,1105,1105,1105,1105,1105,1105,1105,1105,1105,1105,1105,1105,1105,1105,1105,1105,1105,1101,1101,1101,1101,1101,1101,1101,1101,1101,1101,1101,1101,1101,1101,1101,1101,1101,1101,1101,1097,1097,1101,1101,1101,1101,1101,1101,1097,1097,1097,1097,1097,1097,1097,1097,1097,1097,1094,1094,1097,1097,1097,1097,1097,1097,1097,1094,1094,1094,1094,1094,1094,1094,1094,1094,1094,1094,1094,1094,1094,1094,1094,1094,1094,1094,1094,1094,1090,1090,1090,1090,1094,1094,1094,1094,1094,1094,1094,1094,1094,1090,1090,1094,1010,1010,1013,1013,1013,1013,1016,1016,1016,1019,1084,1084,1087,1090,1090,1087,1087,1090,1090,1090,1090,1090,1087,1087,1087,1004,1004,1004,935,935,933,933,933,933,930,930,930,930,933,933,933,933,935,935,935,935,935,935,938,938,938,938,938,940,940,967,967,967,967,967,967,964,962,959,959,959,959,956,956,954,954,954,0,0,0,0,0,0,0,0,0,0,0,0,0,0,0,0,0,0,0,0,0,0,0,0,0,0,0,0,0,0,0,0,0,0,0
0,0,0,0,0,0,1149,1149,1149,1149,1145,1145,1141,1141,1141,1141,1145,1145,1145,1145,1145,1145,1145,1145,1145,1145,1145,1145,1141,1141,1141,1141,1141,1141,1141,1141,1141,1141,1141,1141,1141,1141,1141,1141,1138,1138,1134,1134,1134,1134,1134,1138,1138,1138,1141,1141,1141,1145,1141,1141,1141,1141,1141,1141,1141,1141,1141,1141,1141,1138,1138,1141,1138,1138,1138,1141,1138,1134,1134,1134,1134,1130,1126,1126,1126,1001,1001,1001,1001,1001,998,992,992,992,992,992,992,992,995,995,998,998,1001,1001,1001,1004,1007,1007,1010,1013,1013,1134,1134,1134,1138,1141,1141,1138,1138,1138,1134,1134,1134,1134,1138,1134,1134,1134,1134,1134,1134,1134,1130,1130,1134,1130,1130,1134,1134,1134,1134,1134,1134,1134,1134,1134,1134,1134,1130,1130,1130,1130,1134,1134,1134,1134,1130,1130,1130,1130,1134,1130,1130,1130,1130,1130,1130,1130,1130,1130,1130,1130,1130,1130,1130,1130,1130,1130,1130,1130,1130,1130,1126,1126,1126,1126,1126,1126,1126,1126,1126,1126,1126,1126,1126,1126,1123,1123,1123,1119,1119,1115,1115,1115,0,0,0,0,0,744,742,742,742,741,741,739,738,734,733,731,731,730,728,727,727,727,727,727,728,730,730,733,736,739,739,739,741,746,746,747,747,749,750,750,0,0,0,0,0,1126,1123,1123,1123,1123,1123,1123,1123,1123,1123,1123,1126,1123,1123,1123,1126,1123,1123,1123,1119,1119,1123,1123,1123,1123,1123,1123,1123,887,887,889,889,889,889,891,891,891,894,894,896,896,896,896,896,898,898,898,901,903,903,906,908,910,913,918,920,923,925,928,930,933,933,938,1115,1115,1119,1119,1119,1119,1119,1119,1119,1119,1115,1115,1115,1112,1112,1112,1112,1112,1115,1115,1115,1115,1115,1115,1115,1115,1115,1115,1115,1115,1115,1115,1115,1115,1115,1112,1112,1112,1108,1108,1108,1112,1112,1112,1115,1115,1115,1112,1112,1108,1108,1108,1108,1108,1108,1108,1108,1108,1108,1108,1108,1108,1108,1108,1108,1108,1108,1108,1108,1108,1108,1108,1108,1108,1108,1108,1108,1108,1108,1108,1108,1108,1108,1108,1108,1108,1108,1108,1105,1105,1105,1105,1105,1105,1105,1105,1105,1105,1105,1105,1108,1105,1105,1108,1108,1108,1108,1108,1108,1105,1105,1105,1105,1105,1105,1105,1105,1105,1105,1105,1105,1101,1101,1101,1101,1101,1101,1101,1101,1101,1101,1101,1101,1101,1101,1101,1101,1101,1101,1101,1101,1097,1097,1097,1097,1097,1097,1097,1097,1097,1097,1097,1097,1097,1094,1094,1094,1094,1094,1094,1097,1097,1097,1097,1097,1097,1094,1094,1094,1094,1097,1094,1094,1094,1094,1094,1094,1094,1094,1094,1094,1094,1094,1094,1090,1090,1090,1090,1090,1090,1090,1090,1090,1090,1090,1090,1090,1090,1090,1090,1090,1090,1090,1090,1090,1090,1090,1090,1090,1090,1090,1090,1090,1090,1090,1090,1090,1090,1090,1090,1090,1010,1010,1013,1013,1013,1016,1016,1016,1016,1016,1080,1080,1084,1087,1087,1087,1087,1087,1087,1090,1087,1087,1087,1087,1084,1084,1004,1004,935,935,933,933,933,933,933,933,930,930,933,933,933,933,933,935,935,935,935,935,938,938,938,938,938,940,956,964,967,967,967,967,967,964,962,959,959,956,956,956,954,954,951,951,0,0,0,0,0,0,0,0,0,0,0,0,0,0,0,0,0,0,0,0,0,0,0,0,0,0,0,0,0,0,0,0,0,0,0
0,0,0,0,0,0,1145,1145,1145,1145,1141,1141,1138,1138,1134,1134,1138,1138,1141,1141,1141,1141,1145,1141,1141,1141,1141,1141,1141,1141,1138,1138,1141,1141,1141,1138,1138,1138,1138,1138,1138,1138,1138,1134,1134,1134,1134,1134,1134,1134,1134,1134,1134,1134,1138,1138,1138,1138,1138,1138,1138,1138,1138,1138,1138,1138,1138,1138,1138,1138,1138,1138,1134,1134,1134,1138,1134,1134,1134,1134,1130,1130,1126,1126,1126,1007,1007,1004,1001,1001,998,995,992,992,992,992,992,992,995,998,998,1001,1001,1001,1001,1004,1007,1010,1010,1013,1013,1130,1130,1130,1134,1138,1134,1134,1134,1134,1134,1130,1130,1130,1134,1134,1130,1130,1130,1130,1130,1130,1130,1130,1130,1126,1126,1126,1126,1130,1130,1130,1130,1130,1130,1130,1130,1130,1126,1126,1130,1130,1130,1130,1130,1130,1130,1130,1130,1130,1126,1126,1126,1126,1130,1126,1126,1126,1126,1130,1126,1126,1126,1126,1126,1123,1123,1126,1126,1126,1126,1126,1126,1126,1126,1123,1123,1126,1126,1123,1123,1123,1123,1123,1123,1123,1123,1123,1119,1119,1119,1115,1115,1115,0,0,0,0,0,744,742,742,742,742,741,741,739,736,734,733,731,730,728,728,727,727,727,727,728,730,730,733,736,739,739,739,741,746,747,747,749,750,750,750,0,0,0,0,0,0,1119,1119,1119,1119,1119,1119,1119,1119,1119,1119,1119,1119,1119,1119,1119,1119,1119,1119,1119,1119,1119,1119,1119,1119,1119,1119,887,887,887,887,887,889,889,889,889,889,891,889,889,889,889,894,894,896,896,896,901,901,903,906,908,910,913,918,923,923,925,928,930,933,933,1112,1112,1112,1112,1115,1115,1115,1115,1115,1115,1115,1115,1115,1112,1112,1112,1112,1112,1112,1112,1112,1112,1112,1112,1112,1112,1112,1112,1112,1112,1112,1112,1112,1112,1112,1115,1112,1108,1108,1108,1108,1108,1108,1108,1108,1108,1112,1112,1108,1108,1108,1108,1108,1108,1108,1108,1108,1108,1108,1108,1108,1108,1108,1108,1108,1108,1108,1108,1108,1108,1108,1108,1105,1105,1105,1105,1105,1105,1105,1105,1105,1105,1105,1105,1105,1105,1105,1105,1105,1101,1101,1101,1101,1101,1101,1101,1101,1105,1105,1101,1101,1101,1101,1105,1105,1105,1101,1101,1105,1105,1105,1105,1101,1101,1101,1105,1105,1105,1105,1101,1101,1101,1101,1101,1101,1097,1097,1097,1097,1097,1097,1097,1097,1097,1097,1097,1097,1097,1097,1097,1097,1097,1097,1097,1097,1097,1097,1097,1097,1097,1097,1097,1097,1097,1094,1094,1094,1090,1090,1094,1094,1094,1094,1094,1097,1094,1094,1094,1094,1094,1094,1094,1090,1090,1094,1094,1090,1090,1090,1090,1090,1090,1090,1090,1090,1087,1087,1090,1087,1087,1087,1087,1087,1087,1087,1087,1087,1087,1087,1087,1087,1090,1090,1090,1087,1087,1090,1090,1087,1087,1087,1087,1087,1087,1087,1090,1090,1090,1090,1087,1087,1087,1007,1007,1010,1013,1013,1016,1016,1016,1016,1016,1080,1080,1080,1084,1087,1087,1087,1087,1087,1087,1087,1087,1087,1087,1084,1084,1084,1004,935,935,935,933,933,933,933,933,933,933,933,933,933,933,933,935,935,935,935,935,938,938,938,938,938,940,948,964,967,967,967,964,964,964,962,959,959,956,954,954,954,951,951,951,0,0,0,0,0,0,0,0,0,0,0,0,0,0,0,0,0,0,0,0,0,0,0,0,0,0,0,0,0,0,0,0,0,0,0
0,0,0,0,0,0,1141,1141,1138,1138,1138,1138,1134,1134,1134,1134,1134,1138,1138,1134,1134,1134,1134,1138,1138,1138,1138,1138,1138,1138,1138,1138,1138,1138,1138,1138,1138,1138,1138,1134,1134,1134,1134,1134,1134,1130,1130,1130,1134,1130,1130,1130,1134,1134,1134,1134,1134,1138,1138,1138,1134,1134,1134,1134,1134,1134,1134,1134,1134,1134,1134,1134,1134,1134,1134,1134,1134,1134,1130,1130,1130,1130,1126,1123,1123,1010,1007,1004,1004,1004,1001,998,995,995,992,992,992,995,995,998,998,1001,1001,1001,1001,1004,1007,1010,1010,1013,1013,1126,1126,1126,1126,1126,1130,1130,1130,1130,1130,1130,1130,1130,1130,1130,1126,1126,1126,1126,1126,1126,1126,1126,1126,1126,1126,1123,1123,1123,1126,1126,1126,1126,1126,1126,1126,1126,1123,1123,1126,1126,1126,1126,1126,1126,1126,1126,1126,1123,1123,1123,1123,1123,1123,1123,1123,1123,1126,1126,1123,1123,1123,1123,1123,1123,1123,1123,1123,1126,1126,1126,1126,1126,1123,1123,1123,1123,1123,1123,1123,1123,1123,1123,1123,1119,1119,1119,1119,1119,1119,1115,1115,1115,0,0,0,0,0,746,744,744,744,744,742,741,741,738,736,734,733,730,730,728,728,728,728,728,730,730,731,733,736,739,739,741,744,746,747,747,749,750,750,750,0,0,0,0,0,0,1119,1119,1115,1115,1115,1115,1115,1112,1112,1112,1112,1112,1112,1112,1115,1115,1115,1115,1115,1115,1115,1115,1115,1119,1119,1119,885,885,885,885,887,887,887,887,887,887,887,887,887,887,889,889,889,891,894,896,901,901,903,906,908,908,910,918,923,925,925,930,930,933,1105,1108,1108,1108,1108,1112,1112,1112,1112,1112,1112,1112,1112,1112,1108,1108,1108,1108,1108,1108,1108,1108,1108,1108,1108,1108,1108,1108,1108,1108,1108,1108,1108,1108,1108,1108,1108,1108,1108,1108,1105,1105,1105,1105,1105,1105,1105,1105,1105,1105,1105,1105,1105,1105,1105,1105,1105,1105,1105,1105,1105,1105,1105,1105,1105,1105,1105,1105,1105,1105,1105,1105,1105,1105,1105,1105,1105,1105,1105,1105,1105,1105,1105,1105,1105,1105,1105,1105,1105,1101,1101,1097,1097,1097,1097,1097,1101,1101,1101,1101,1101,1097,1097,1097,1097,1094,1094,1094,1097,1101,1101,1101,1101,1097,1097,1101,1101,1101,1101,1097,1097,1101,1101,1097,1097,1097,1094,1094,1097,1094,1094,1094,1094,1094,1094,1094,1094,1094,1094,1094,1094,1094,1094,1094,1094,1094,1094,1094,1094,1094,1094,1094,1094,1094,1094,1094,1090,1090,1090,1090,1090,1090,1090,1090,1090,1094,1090,1090,1090,1090,1090,1090,1090,1090,1090,1090,1090,1090,1090,1090,1090,1090,1090,1090,1090,1087,1087,1087,1087,1087,1084,1084,1084,1084,1084,1084,1084,1084,1087,1084,1084,1084,1084,1087,1087,1084,1084,1087,1087,1087,1084,1084,1087,1087,1087,1087,1087,1084,1084,1084,1084,1084,1087,1007,1007,1010,1013,1013,1016,1016,1016,1016,1080,1080,1080,1080,1084,1087,1087,1087,1087,1087,1087,1087,1087,1087,1084,1084,1084,1084,1004,938,935,935,933,933,933,933,933,933,933,933,933,933,935,935,935,935,935,935,935,938,938,938,938,938,940,948,964,967,967,967,964,964,964,962,959,959,956,954,954,951,951,948,948,0,0,0,0,0,0,0,0,0,0,0,0,0,0,0,0,0,0,0,0,0,0,0,0,0,0,0,0,0,0,0,0,0,0,0
0,0,0,0,0,0,1138,1138,1138,1138,1134,1134,1134,1134,1130,1130,1134,1134,1134,1134,1134,1134,1134,1130,1130,1130,1134,1134,1134,1134,1134,1134,1138,1138,1138,1134,1134,1134,1134,1134,1134,1134,1134,1130,1130,1130,1130,1130,1130,1130,1130,1130,1130,1130,1130,1130,1130,1134,1134,1134,1130,1130,1130,1130,1130,1130,1130,1130,1130,1130,1130,1130,1130,1130,1126,1126,1130,1130,1130,1126,1126,1126,1123,1123,1123,1119,1007,1004,1004,1004,1001,998,998,995,992,992,992,995,995,998,998,1001,1001,1001,1004,1007,1010,1010,1013,1013,1013,1016,1126,1126,1126,1126,1126,1126,1126,1130,1126,1126,1126,1126,1126,1126,1123,1123,1123,1123,1123,1123,1123,1123,1123,1123,1123,1123,1123,1123,1126,1126,1126,1123,1123,1123,1123,1119,1119,1119,1123,1123,1123,1123,1123,1123,1123,1123,1123,1123,1119,1119,1119,1119,1119,1119,1119,1119,1119,1119,1119,1123,1123,1119,1119,1119,1119,1123,1123,1123,1123,1123,1123,1123,1119,1119,1119,1119,1119,1119,1119,1119,1119,1119,1119,1119,1119,1119,1115,1115,1115,1112,1108,1108,0,1097,0,0,0,746,744,744,744,744,742,741,739,738,738,734,734,731,730,728,728,728,728,728,730,730,733,734,736,739,739,741,746,747,747,749,750,750,752,752,0,0,0,0,0,0,1115,1115,1115,1115,1115,1112,1112,1112,1108,1108,1108,1108,1108,1108,1108,1108,1108,1112,1115,1115,1115,1115,1115,1115,1115,885,885,885,885,885,885,885,885,885,887,887,887,887,887,887,887,889,889,889,894,896,901,903,903,906,908,908,910,920,925,925,925,1108,1105,1105,1105,1108,1108,1108,1108,1108,1108,1108,1108,1108,1108,1108,1108,1108,1108,1108,1108,1108,1108,1108,1108,1108,1108,1108,1108,1108,1108,1108,1108,1105,1105,1105,1101,1101,1101,1101,1101,1105,1105,1105,1105,1105,1105,1105,1105,1101,1101,1101,1101,1101,1101,1101,1105,1101,1101,1101,1101,1101,1101,1101,1101,1101,1105,1105,1105,1105,1105,1105,1101,1101,1101,1101,1101,1101,1101,1101,1101,1101,1101,1101,1101,1101,1101,1101,1101,1101,1101,1101,1101,1101,1097,1097,1097,1097,1097,1097,1097,1097,1097,1101,1097,1097,1097,1094,1094,1094,1094,1094,1094,1094,1094,1097,1097,1097,1097,1097,1097,1097,1097,1097,1097,1097,1097,1094,1094,1094,1094,1094,1094,1094,1094,1094,1094,1094,1094,1094,1094,1094,1094,1094,1090,1090,1090,1090,1090,1090,1090,1090,1090,1094,1094,1094,1090,1090,1090,1090,1090,1087,1087,1087,1087,1087,1087,1084,1084,1084,1084,1087,1087,1087,1090,1090,1090,1090,1090,1090,1090,1090,1090,1090,1087,1087,1087,1090,1087,1087,1087,1087,1084,1084,1084,1084,1084,1084,1080,1080,1080,1084,1084,1080,1080,1080,1080,1084,1084,1080,1080,1080,1080,1080,1080,1080,1084,1084,1087,1080,1080,1080,1080,1077,1077,1077,1007,1007,1007,1010,1013,1016,1016,1016,1016,1016,1080,1080,1080,1080,1084,1084,1084,1084,1087,1087,1087,1087,1084,1084,1084,1080,1080,1080,1084,938,938,938,935,935,933,933,933,933,933,933,933,933,933,935,935,935,935,935,935,938,938,938,938,938,940,948,964,967,967,967,967,964,962,962,959,959,956,954,954,951,951,948,948,0,0,0,0,0,0,0,0,0,0,0,0,0,0,0,0,0,0,0,0,0,0,0,0,0,0,0,0,0,0,0,0,0,0,0
