0,0,0,0,0,0,0,0,0,0,0,0,0,0,946,946,946,946,946,946,946,946,946,946,946,946,946,948,951,951,951,954,954,954,956,956,956,962,964,964,967,967,967,1134,1134,1134,1134,1134,1134,1134,1134,1134,1134,1134,1134,1130,1130,1130,1130,1130,1130,1130,1130,1126,1126,1126,1130,1126,1126,1126,1126,1126,1126,1126,1126,1126,1126,1126,1126,1126,1126,1126,1126,1126,1126,1126,1126,1126,1126,1126,1126,1130,1130,1130,1126,1126,1123,1123,1123,1119,1119,1119,1123,1123,0,0,0,0,0,0,0,0,0,0,0,0,686,684,684,683,682,680,679,679,678,676,676,675,675,675,675,675,675,676,676,678,680,682,683,683,684,686,687,690,691,691,693,694,696,696,696,0,0,0,0,0,0,1115,1115,1115,1115,1115,1115,1115,1115,1115,1115,1115,1115,1115,1115,1115,1115,1115,1112,1112,1112,1112,1112,1108,1108,1112,1112,1108,1108,1112,1112,1112,1112,1108,1108,1108,1112,1108,1108,1108,1108,1105,1105,1105,1108,1112,1108,1108,1108,1108,1105,1101,1101,1101,943,940,938,938,935,935,935,933,930,928,928,925,923,920,920,918,915,913,913,913,913,910,910,910,910,910,908,908,906,906,901,901,901,901,901,901,903,903,903,903,903,903,906,906,908,910,915,918,918,920,923,925,925,928,930,930,930,933,1097,1097,1094,1094,1094,1094,1094,1097,1097,1097,1097,1097,1097,1097,1097,1097,1097,1097,1097,1097,1097,1097,1094,1094,1094,1094,1094,1094,1094,1094,1090,1090,1090,1090,1090,1090,1090,1090,1090,1094,1090,1090,1090,1090,1090,1090,1090,1087,1087,1090,1090,1090,1087,1087,1090,1090,1090,1090,1087,1087,1090,1090,1090,1090,1090,1090,1090,1094,1094,1094,1094,1094,1090,1090,1090,1090,1090,1090,1090,1090,1090,1090,1087,1087,1087,1090,1087,1087,1087,1087,1087,1087,1087,1087,1087,1087,1087,1087,1087,1087,1084,1084,1084,1084,1084,1084,1084,1084,1084,1080,1080,1084,1084,1084,1084,1084,1084,1084,1080,1080,1084,1080,1080,1084,1084,1084,1084,1080,1080,1080,1077,1077,1077,1077,1073,1073,1077,1077,1077,1073,1073,1073,1073,1073,1073,1073,1073,1073,1077,1073,1073,1070,1070,1070,1067,1067,1067,1067,1067,1067,1067,1067,1067,1067,1067,1067,1067,1067,1067,1073,1073,1073,1070,1070,1070,1067,1067,1067,1067,1067,1067,1067,1067,1067,1067,1067,1067,1063,1063,1063,1063,1063,1063,1060,1060,1060,1060,1060,1060,1060,1060,1060,1060,1060,1060,1060,1057,1057,1060,1060,1060,1060,1060,1060,1060,1060,1060,1060,1060,1063,1060,1060,1060,1063,959,954,954,954,959,959,962,962,962,962,0,0,0,0,0,889,889,887,887,887,889,889,889,889,889,889,889,889,889,889,889,889,889,889,889,889,889,891,891,894,894,894,896,898,898,898,898,901,906,915,925,925,925,925,925,925,925,925,925,923,923,920,920,918,918,918,915,910,908,906,906,906,906,903,901,901,898,898,896,891,889,887,887,885,885,885,882,882,882,882,880,871,869,869,867,867,864,862,862,860,860,856,854,851,849,847,845,843,841,841,0,0,0,0,0,0,0,0,0,0,0,0,0,0,0,0,0,0,0,0,0,0,0,0,0,0,0,0,0,0,0,0,0,0,0,0,0,0
0,0,0,0,0,0,0,0,0,0,0,0,0,946,946,946,946,946,946,948,946,946,946,946,946,946,946,948,951,951,951,954,954,954,956,956,959,964,964,967,967,967,967,1130,1130,1130,1126,1126,1130,1130,1134,1134,1134,1134,1130,1130,1130,1130,1126,1126,1126,1123,1123,1123,1123,1126,1126,1126,1126,1126,1126,1126,1123,1123,1123,1123,1123,1123,1123,1119,1119,1123,1123,1119,1119,1123,1123,1123,1123,1123,1123,1126,1126,1126,1126,1123,1123,1123,1119,1119,1119,1119,1119,1119,0,0,0,0,0,0,0,0,0,0,0,0,687,687,686,684,683,682,680,680,678,678,676,676,675,675,675,675,675,676,676,679,680,682,683,683,686,687,688,690,691,691,693,694,696,696,696,0,0,0,0,0,0,1112,1112,1115,1115,1112,1112,1112,1112,1112,1115,1115,1115,1115,1115,1115,1112,1112,1112,1108,1108,1108,1108,1105,1105,1108,1108,1105,1105,1108,1108,1108,1105,1105,1105,1108,1108,1105,1105,1105,1105,1105,1105,1105,1105,1105,1105,1105,1105,1105,1101,1101,1101,1101,1101,943,938,938,935,935,935,933,933,930,928,925,923,923,920,918,915,913,913,913,910,910,910,910,910,908,906,901,901,898,898,898,898,898,898,898,898,898,901,901,903,903,906,908,910,913,915,918,918,920,923,925,928,928,930,930,930,1090,1090,1090,1094,1094,1094,1090,1090,1094,1094,1094,1090,1090,1094,1094,1094,1094,1094,1094,1094,1094,1090,1090,1090,1090,1090,1090,1090,1090,1090,1090,1090,1090,1090,1090,1090,1087,1087,1087,1087,1090,1090,1090,1087,1087,1090,1090,1087,1087,1087,1087,1087,1087,1087,1087,1087,1087,1087,1084,1084,1084,1080,1080,1084,1084,1084,1084,1087,1087,1090,1087,1087,1087,1087,1087,1087,1084,1084,1084,1087,1087,1087,1087,1087,1084,1084,1084,1084,1084,1080,1080,1084,1084,1084,1080,1080,1080,1080,1080,1080,1080,1080,1080,1080,1080,1080,1080,1080,1080,1080,1077,1077,1080,1080,1080,1080,1080,1080,1080,1080,1080,1080,1080,1080,1080,1080,1080,1080,1077,1077,1077,1077,1077,1077,1073,1073,1073,1073,1073,1073,1073,1070,1070,1073,1073,1073,1070,1070,1073,1073,1070,1070,1067,1067,1067,1063,1063,1063,1067,1067,1067,1067,1067,1067,1067,1067,1067,1067,1067,1067,1067,1067,1067,1067,1067,1067,1067,1067,1067,1067,1067,1067,1067,1067,1067,1067,1063,1063,1063,1063,1063,1063,1063,1063,1060,1060,1057,1057,1057,1057,1057,1057,1060,1060,1060,1057,1057,1057,1057,1057,1057,1057,1057,1057,1057,1057,1057,1057,1057,1057,1057,1057,1054,1054,962,959,959,959,959,959,962,962,962,964,964,0,0,1050,0,0,0,889,887,887,887,887,889,889,887,887,887,889,889,889,889,887,887,887,889,889,889,889,891,891,894,894,894,896,896,896,898,898,901,906,925,925,925,925,925,925,925,925,925,925,925,923,920,920,918,918,915,913,910,908,906,906,906,903,901,901,898,898,896,891,889,889,887,887,885,885,885,882,882,880,878,878,871,869,869,867,867,864,860,860,858,858,856,854,851,847,845,845,841,839,839,0,0,0,0,0,0,0,0,0,0,0,0,0,0,0,0,0,0,0,0,0,0,0,0,0,0,0,0,0,0,0,0,0,0,0,0,0,0
0,0,0,0,0,0,0,0,0,0,0,0,0,946,946,946,946,946,946,948,946,946,946,946,948,948,948,948,951,951,954,954,954,954,956,959,962,964,964,964,964,967,967,1130,1130,1130,1126,1126,1126,1126,1126,1126,1126,1126,1130,1130,1126,1126,1123,1123,1123,1119,1119,1119,1123,1126,1123,1123,1123,1123,1123,1126,1123,1123,1123,1123,1123,1123,1119,1119,1119,1119,1123,1119,1119,1119,1119,1119,1119,1119,1119,1123,1123,1123,1123,1119,1119,1119,1119,1115,1115,1115,1115,1115,0,0,0,0,0,0,0,0,0,0,0,0,0,687,687,686,683,682,680,680,678,678,676,676,675,675,675,675,675,676,676,679,680,682,683,684,686,687,688,690,691,691,694,694,696,697,697,0,0,0,0,0,0,1112,1112,1112,1112,1112,1112,1112,1112,1112,1112,1112,1112,1112,1112,1112,1112,1108,1108,1108,1108,1105,1105,1105,1105,1105,1105,1105,1105,1105,1105,1105,1101,1101,1105,1105,1105,1105,1105,1105,1105,1105,1105,1105,1105,1105,1101,1101,1101,1101,1101,1101,1097,1097,1097,1097,938,935,935,935,935,933,933,930,928,925,923,923,920,918,915,913,913,913,910,910,908,908,903,901,898,898,898,896,896,896,896,896,896,896,896,896,898,901,901,903,906,908,910,913,915,918,918,920,923,925,925,928,930,930,1090,1090,1090,1090,1090,1090,1090,1090,1090,1090,1090,1090,1090,1087,1087,1090,1090,1090,1090,1090,1090,1090,1090,1090,1087,1087,1087,1090,1090,1090,1087,1087,1087,1087,1087,1087,1087,1084,1084,1084,1084,1087,1087,1087,1087,1087,1087,1087,1084,1084,1084,1084,1084,1084,1084,1084,1084,1084,1084,1084,1080,1080,1080,1080,1080,1080,1080,1084,1084,1084,1084,1084,1084,1084,1084,1084,1084,1080,1080,1080,1080,1080,1084,1080,1080,1080,1080,1080,1080,1080,1080,1080,1080,1080,1080,1080,1080,1077,1077,1077,1077,1080,1080,1080,1080,1080,1077,1077,1077,1077,1077,1077,1077,1077,1077,1077,1077,1077,1080,1077,1077,1077,1077,1077,1077,1077,1077,1077,1077,1077,1077,1077,1077,1077,1073,1073,1070,1070,1070,1070,1070,1070,1067,1067,1070,1070,1070,1070,1070,1070,1070,1070,1067,1067,1067,1067,1063,1063,1063,1063,1067,1067,1063,1063,1067,1063,1063,1067,1067,1067,1063,1063,1063,1060,1060,1060,1067,1063,1063,1067,1067,1067,1063,1063,1063,1063,1063,1060,1060,1060,1060,1060,1060,1060,1060,1060,1060,1057,1057,1057,1054,1054,1054,1054,1054,1054,1054,1054,1054,1054,1054,1054,1054,1057,1057,1054,1054,1054,1054,1054,1054,1054,959,959,959,959,959,959,959,959,962,964,964,964,964,1050,1050,1050,1050,1044,0,887,887,887,887,887,887,887,887,887,887,887,887,887,887,887,887,887,887,887,887,889,889,889,891,891,894,894,896,896,896,898,898,901,903,925,925,925,925,925,928,925,925,925,925,925,923,920,918,918,918,915,913,910,908,906,906,903,903,901,901,898,896,894,891,889,887,887,887,885,885,885,882,882,880,878,875,871,869,869,867,867,864,860,860,858,856,856,854,849,847,845,843,841,839,839,0,0,0,0,0,0,0,0,0,0,0,0,0,0,0,0,0,0,0,0,0,0,0,0,0,0,0,0,0,0,0,0,0,0,0,0,0,0
0,0,0,0,0,0,0,0,0,0,0,0,0,0,0,946,946,946,946,951,948,948,948,948,948,948,948,951,951,951,954,954,954,954,956,959,962,964,964,964,964,964,964,1126,1126,1123,1123,1126,1123,1123,1123,1123,1126,1126,1123,1123,1123,1123,1119,1119,1119,1119,1119,1119,1119,1123,1123,1123,1123,1123,1123,1123,1119,1119,1119,1119,1119,1119,1119,1119,1119,1119,1119,1119,1115,1115,1115,1115,1115,1115,1115,1119,1119,1119,1119,1119,1119,1119,1115,1115,1112,1112,1112,1112,0,0,0,0,0,0,0,0,0,0,0,0,0,691,688,686,684,682,680,680,679,678,678,676,676,676,676,676,676,676,676,679,682,682,683,684,687,687,690,690,691,693,694,696,696,697,698,0,0,0,0,0,0,0,1101,1101,1112,1108,1108,1108,1108,1108,1108,1108,1108,1108,1112,1112,1108,1108,1105,1105,1105,1105,1101,1101,1101,1101,1101,1101,1101,1105,1105,1105,1101,1101,1101,1101,1101,1101,1101,1101,1101,1105,1101,1101,1101,1101,1101,1101,1101,1101,1097,1097,1097,1097,1097,1094,1094,935,935,935,935,933,933,930,928,928,925,923,920,918,915,913,913,910,910,908,906,903,896,896,896,896,896,896,894,894,894,894,894,894,894,894,896,898,898,903,906,910,910,915,915,918,918,920,923,925,925,928,935,1090,1090,1087,1087,1087,1087,1087,1087,1087,1087,1087,1087,1087,1087,1087,1087,1087,1087,1084,1084,1084,1084,1084,1084,1084,1087,1087,1087,1087,1087,1087,1087,1087,1084,1084,1084,1084,1084,1084,1084,1080,1080,1084,1084,1084,1084,1084,1084,1080,1080,1080,1080,1080,1080,1080,1080,1080,1080,1080,1080,1080,1080,1080,1080,1080,1080,1080,1080,1080,1080,1080,1080,1080,1080,1080,1080,1080,1080,1077,1077,1080,1080,1080,1080,1080,1080,1077,1077,1077,1077,1077,1077,1077,1077,1077,1077,1077,1077,1077,1077,1077,1077,1077,1077,1077,1077,1077,1077,1077,1077,1077,1073,1073,1073,1073,1073,1077,1073,1073,1077,1077,1073,1073,1073,1070,1070,1070,1073,1073,1073,1073,1073,1070,1070,1073,1073,1070,1067,1067,1067,1067,1067,1067,1067,1067,1070,1070,1070,1070,1070,1070,1070,1067,1067,1063,1063,1063,1063,1063,1063,1063,1063,1063,1063,1063,1063,1063,1063,1063,1063,1063,1060,1060,1060,1057,1057,1057,1057,1057,1060,1063,1063,1063,1063,1063,1063,1063,1060,1057,1057,1060,1060,1060,1060,1060,1060,1057,1057,1054,1054,1054,1054,1054,1050,1050,1050,1050,1054,1054,1054,1050,1050,1050,1054,1054,1054,1054,1054,1054,1050,1050,1050,1050,959,959,959,959,959,959,959,962,962,967,967,967,967,1050,1050,1044,1044,1044,1041,0,887,885,885,887,887,887,887,887,887,887,887,887,887,887,887,887,887,887,887,889,889,889,889,891,894,894,896,896,896,898,898,901,903,923,923,928,928,928,925,925,925,925,925,923,923,920,918,918,915,915,913,908,906,906,903,903,903,901,901,896,894,894,889,889,887,887,887,885,885,882,882,882,880,878,875,871,869,867,864,864,862,860,858,856,856,854,851,849,845,845,843,841,839,839,0,0,0,0,0,0,0,0,0,0,0,0,0,0,0,0,0,0,0,0,0,0,0,0,0,0,0,0,0,0,0,0,0,0,0,0,0,0
0,0,0,0,0,0,0,0,0,0,0,0,0,0,0,946,946,946,946,951,948,948,948,951,951,951,951,951,951,954,954,954,954,956,959,959,962,964,964,964,964,964,1119,1119,1119,1119,1119,1123,1123,1123,1119,1119,1123,1123,1123,1123,1119,1119,1119,1119,1115,1115,1115,1115,1119,1119,1119,1119,1119,1119,1119,1119,1115,1115,1115,1115,1115,1119,1115,1115,1115,1115,1115,1115,1112,1112,1112,1115,1112,1112,1112,1115,1115,1115,1119,1115,1115,1115,1115,1112,1112,1108,1108,1108,0,0,0,0,0,0,0,0,0,0,0,0,0,0,688,686,684,683,682,682,680,679,678,676,676,676,676,676,676,678,678,682,682,682,683,684,687,688,690,691,691,693,694,696,696,697,698,0,0,0,0,0,0,0,1101,1101,1108,1108,1105,1105,1105,1105,1105,1105,1105,1105,1105,1108,1105,1105,1105,1105,1105,1101,1101,1101,1101,1101,1101,1101,1101,1101,1101,1101,1101,1097,1097,1097,1097,1101,1101,1101,1101,1101,1101,1101,1101,1101,1097,1097,1097,1097,1097,1094,1094,1094,1094,1094,1094,1090,1090,935,935,933,933,930,930,928,925,923,920,918,915,913,913,910,910,908,903,901,894,894,894,894,894,894,894,894,894,894,894,891,891,894,894,896,896,901,906,910,913,915,918,920,920,920,923,923,925,1087,1087,1087,1087,1087,1087,1087,1087,1087,1087,1087,1087,1084,1084,1084,1087,1087,1087,1087,1084,1084,1084,1084,1080,1080,1080,1080,1084,1084,1087,1087,1087,1087,1084,1084,1084,1084,1084,1084,1084,1080,1080,1080,1080,1084,1084,1080,1080,1080,1080,1080,1077,1077,1077,1077,1077,1077,1080,1080,1080,1077,1077,1077,1077,1077,1077,1077,1077,1077,1077,1077,1077,1077,1077,1077,1080,1077,1077,1077,1077,1077,1077,1077,1077,1077,1077,1077,1077,1077,1077,1077,1073,1073,1073,1073,1077,1077,1077,1073,1073,1073,1073,1073,1077,1073,1073,1073,1073,1073,1073,1073,1073,1073,1070,1070,1070,1070,1070,1070,1067,1067,1067,1067,1070,1070,1067,1067,1067,1067,1067,1067,1073,1070,1070,1070,1070,1070,1067,1063,1063,1063,1063,1067,1067,1067,1067,1067,1067,1067,1067,1067,1067,1067,1063,1063,1063,1063,1063,1063,1063,1063,1063,1063,1063,1063,1063,1063,1063,1063,1063,1063,1063,1063,1057,1057,1057,1057,1057,1057,1057,1057,1057,1060,1060,1063,1060,1060,1060,1060,1057,1057,1057,1057,1057,1057,1057,1057,1057,1054,1054,1054,1050,1050,1050,1050,1050,1050,1050,1050,1050,1050,1050,1050,1050,1050,1050,1050,1050,1050,1054,1054,1050,1050,1050,956,956,959,959,962,962,962,962,962,964,967,967,967,967,1050,1047,1044,1041,1041,1041,1041,885,885,885,885,887,887,887,887,887,887,887,887,887,887,887,887,887,887,887,889,889,889,889,891,891,894,894,896,896,896,898,898,901,908,923,925,925,925,925,925,925,925,923,923,920,918,918,915,915,913,910,908,906,906,903,903,901,901,898,896,894,889,889,889,887,887,887,885,882,882,880,880,878,878,873,871,869,864,862,862,860,858,856,854,854,851,849,849,845,845,841,841,837,837,0,0,0,0,0,0,0,0,0,0,0,0,0,0,0,0,0,0,0,0,0,0,0,0,0,0,0,0,0,0,0,0,0,0,0,0,0,0
0,0,0,0,0,0,0,0,0,0,0,0,0,0,0,0,946,946,946,951,951,951,951,951,951,951,951,951,951,951,954,954,956,956,959,962,964,964,964,964,964,964,1119,1119,1119,1119,1119,1123,1119,1119,1119,1119,1119,1119,1119,1119,1119,1119,1115,1115,1115,1112,1112,1112,1112,1119,1119,1119,1115,1115,1115,1115,1115,1112,1112,1112,1112,1115,1112,1112,1108,1108,1112,1112,1108,1108,1108,1112,1108,1108,1108,1108,1108,1112,1112,1112,1112,1115,1112,1108,1108,1108,1105,1105,1105,0,0,0,0,0,0,0,0,0,0,0,0,696,691,688,686,684,682,682,680,679,678,676,676,676,676,676,676,678,678,680,682,682,683,684,687,688,690,691,691,694,694,696,696,697,698,0,0,0,0,0,0,0,1105,1105,1105,1105,1105,1105,1105,1105,1105,1101,1101,1101,1101,1101,1101,1101,1101,1101,1101,1101,1097,1097,1097,1101,1097,1097,1097,1097,1097,1097,1097,1094,1094,1097,1097,1097,1097,1097,1097,1101,1101,1101,1101,1097,1097,1097,1094,1094,1094,1094,1090,1090,1090,1090,1090,1090,1090,1090,1090,935,933,933,930,928,925,923,923,918,915,913,913,910,910,903,896,887,887,889,891,891,891,891,891,891,891,891,891,891,891,894,894,894,896,901,908,910,913,915,918,920,920,920,923,923,925,1087,1087,1084,1084,1087,1087,1087,1087,1087,1084,1084,1084,1084,1080,1080,1080,1080,1080,1084,1084,1080,1080,1077,1077,1077,1077,1077,1080,1080,1080,1080,1084,1084,1080,1080,1080,1080,1080,1080,1080,1080,1080,1080,1080,1080,1080,1080,1080,1077,1077,1077,1077,1077,1077,1077,1077,1077,1077,1077,1077,1077,1077,1077,1077,1077,1077,1077,1077,1077,1077,1077,1073,1073,1077,1077,1077,1073,1073,1077,1077,1077,1077,1073,1073,1073,1073,1073,1073,1073,1073,1073,1073,1073,1073,1073,1073,1073,1073,1073,1073,1070,1070,1070,1070,1070,1070,1073,1073,1073,1070,1070,1070,1070,1070,1067,1067,1067,1067,1067,1067,1067,1067,1063,1063,1067,1063,1063,1063,1063,1063,1063,1067,1063,1063,1067,1067,1067,1063,1063,1063,1063,1063,1063,1063,1063,1063,1063,1067,1067,1067,1067,1067,1067,1063,1063,1063,1063,1063,1063,1063,1060,1060,1063,1063,1063,1060,1060,1063,1060,1060,1060,1060,1057,1057,1054,1054,1054,1054,1054,1054,1054,1054,1054,1054,1054,1054,1060,1057,1057,1057,1054,1054,1054,1054,1054,1054,1054,1054,1054,1050,1050,1050,1047,1047,1047,1047,1047,1047,1047,1047,1047,1047,1047,1047,1047,1050,1050,1050,1050,1050,1050,1050,1050,1050,956,956,959,962,964,962,962,962,964,967,967,967,967,967,1047,1044,1044,1041,1041,1041,1041,885,885,885,885,887,887,887,887,887,887,887,887,887,887,887,887,887,887,887,887,887,889,889,891,891,894,894,896,896,896,898,898,901,908,923,925,925,925,925,925,925,923,923,920,918,918,915,915,915,913,908,906,906,903,903,901,901,898,898,896,894,889,889,887,887,887,885,882,882,882,880,880,878,878,873,871,869,862,860,860,858,858,856,854,854,851,849,849,845,845,841,839,837,837,0,0,0,0,0,0,0,0,0,0,0,0,0,0,0,0,0,0,0,0,0,0,0,0,0,0,0,0,0,0,0,0,0,0,0,0,0,0
0,0,0,0,0,0,0,0,0,0,0,0,0,0,0,0,0,951,951,951,951,951,951,951,951,951,951,951,951,951,954,954,956,956,959,962,962,964,964,964,962,962,1115,1115,1115,1119,1119,1119,1119,1115,1115,1115,1115,1115,1115,1115,1115,1115,1115,1115,1112,1112,1108,1108,1108,1108,1108,1108,1108,1108,1108,1112,1112,1108,1105,1105,1108,1108,1108,1105,1105,1105,1108,1108,1105,1105,1105,1105,1108,1105,1105,1105,1105,1105,1105,1108,1108,1112,1112,1108,1108,1105,1105,1101,1101,1101,0,0,0,0,0,0,0,0,0,0,0,696,694,691,690,686,684,683,682,679,678,676,676,676,676,676,676,678,678,680,682,683,683,684,687,688,690,691,691,693,694,696,696,698,698,700,0,0,0,0,0,0,1105,1105,1105,1105,1101,1101,1101,1101,1101,1101,1097,1097,1097,1097,1097,1097,1097,1097,1097,1097,1097,1097,1097,1097,1097,1097,1097,1097,1097,1097,1094,1090,1090,1094,1094,1090,1090,1090,1090,1097,1097,1097,1097,1094,1094,1094,1094,1090,1090,1090,1090,1090,1090,1087,1087,1087,1087,1087,1087,1087,1087,933,930,930,928,925,923,918,915,913,913,910,910,894,889,887,887,887,889,889,889,889,889,891,891,891,891,891,891,894,894,894,896,901,910,913,915,915,918,918,918,920,923,923,925,1077,1077,1080,1080,1080,1080,1084,1084,1084,1080,1080,1080,1080,1080,1080,1080,1080,1077,1077,1077,1077,1077,1077,1073,1073,1073,1077,1077,1077,1077,1077,1077,1080,1077,1077,1077,1080,1077,1077,1077,1077,1077,1077,1077,1080,1080,1077,1077,1073,1073,1073,1073,1073,1073,1073,1073,1073,1073,1073,1077,1077,1073,1073,1073,1073,1073,1073,1073,1073,1073,1073,1073,1073,1073,1073,1073,1073,1070,1070,1070,1073,1073,1070,1070,1070,1070,1070,1070,1070,1073,1073,1070,1070,1073,1070,1070,1070,1070,1070,1070,1070,1070,1070,1070,1070,1070,1070,1070,1070,1070,1067,1067,1067,1067,1067,1067,1067,1067,1067,1067,1063,1063,1063,1063,1060,1060,1060,1060,1060,1060,1060,1063,1063,1063,1063,1063,1063,1063,1060,1060,1060,1063,1063,1063,1060,1060,1060,1060,1060,1063,1060,1060,1063,1057,1057,1060,1060,1060,1060,1060,1060,1060,1060,1060,1060,1060,1060,1060,1060,1060,1057,1057,1054,1054,1054,1054,1054,1054,1054,1054,1054,1054,1054,1050,1050,1054,1054,1050,1050,1054,1054,1054,1054,1050,1050,1054,1054,1050,1050,1050,1050,1050,1047,1047,1047,1047,1047,1047,1047,1047,1047,1047,1044,1044,1047,1047,1047,1050,1047,1047,1047,1047,1047,1047,956,956,962,962,964,964,964,964,964,967,967,967,967,1041,1044,1044,1041,1041,1041,1041,1041,885,885,885,887,887,887,887,887,887,887,887,887,887,889,887,887,887,887,887,887,887,887,889,889,891,894,896,896,896,898,898,901,903,913,923,925,925,925,925,923,923,923,923,920,918,918,915,915,915,910,908,906,906,903,903,901,898,898,898,896,894,889,889,887,887,885,885,882,882,882,880,880,878,878,873,871,864,862,860,858,856,856,854,854,851,851,849,847,845,841,839,839,837,837,0,0,0,0,0,0,0,0,0,0,0,0,0,0,0,0,0,0,0,0,0,0,0,0,0,0,0,0,0,0,0,0,0,0,0,0,0,0
0,0,0,0,0,0,0,0,0,0,0,0,0,0,0,0,0,0,956,954,954,954,954,954,954,954,951,951,951,951,954,954,956,956,962,962,962,964,964,962,962,962,1112,1112,1112,1112,1115,1115,1115,1112,1112,1112,1112,1115,1112,1112,1112,1112,1112,1108,1108,1108,1105,1105,1105,1105,1105,1105,1101,1101,1101,1105,1105,1105,1105,1105,1108,1105,1105,1105,1105,1105,1105,1105,1105,1105,1105,1105,1105,1105,1105,1105,1105,1105,1105,1105,1105,1105,1105,1105,1105,1105,1101,1101,1101,1101,1101,0,0,0,0,0,0,0,0,0,0,696,694,693,691,690,688,683,683,680,679,676,676,676,676,676,678,679,680,682,683,683,683,686,687,688,690,691,693,693,694,696,696,698,698,700,0,0,0,0,0,0,0,1101,1101,1101,1101,1097,1097,1097,1097,1097,1094,1094,1094,1094,1094,1094,1094,1094,1094,1094,1094,1094,1094,1094,1094,1094,1094,1094,1094,1094,1090,1090,1090,1090,1090,1090,1087,1087,1087,1090,1090,1090,1090,1090,1090,1090,1090,1090,1090,1090,1087,1087,1087,1087,1087,1087,1087,1087,1087,1087,1084,933,933,930,928,925,923,923,918,915,913,910,889,889,887,887,885,885,887,887,887,887,887,889,889,891,891,891,891,894,894,894,896,901,910,913,915,915,918,915,915,918,923,1080,1077,1077,1077,1077,1077,1080,1080,1080,1080,1080,1080,1080,1080,1077,1077,1077,1077,1077,1077,1077,1077,1073,1073,1073,1073,1073,1073,1073,1073,1073,1073,1077,1077,1077,1077,1077,1077,1077,1077,1077,1077,1077,1077,1077,1077,1077,1077,1077,1077,1073,1073,1073,1073,1073,1070,1070,1070,1070,1070,1070,1070,1067,1067,1070,1070,1070,1070,1070,1073,1073,1073,1070,1070,1070,1070,1070,1070,1070,1067,1067,1070,1067,1067,1067,1067,1067,1067,1067,1067,1067,1070,1067,1067,1067,1070,1070,1067,1067,1067,1070,1070,1070,1067,1067,1067,1067,1067,1067,1067,1067,1067,1067,1067,1063,1063,1063,1063,1063,1063,1063,1063,1063,1063,1060,1057,1057,1057,1057,1057,1057,1060,1060,1060,1060,1060,1060,1060,1057,1057,1060,1057,1057,1060,1060,1060,1060,1060,1060,1057,1057,1057,1057,1057,1057,1057,1057,1057,1057,1057,1057,1057,1057,1057,1057,1057,1057,1057,1057,1057,1057,1054,1054,1054,1050,1050,1054,1054,1054,1050,1050,1050,1050,1050,1050,1047,1047,1047,1047,1044,1044,1047,1050,1050,1050,1050,1050,1047,1047,1047,1047,1050,1047,1047,1047,1047,1044,1044,1044,1044,1044,1044,1044,1044,1044,1044,1044,1044,1044,1044,1047,1047,1047,1047,1047,1047,959,959,962,962,964,964,964,964,964,967,967,967,1038,1038,1041,1041,1041,1038,1038,1038,1038,1038,887,887,887,887,887,887,887,887,887,887,887,887,889,887,887,887,887,887,887,887,887,889,889,891,894,896,896,896,898,898,901,906,918,923,923,925,923,923,923,923,923,920,918,918,918,915,913,913,908,908,906,906,903,903,898,898,898,898,896,894,887,887,887,887,885,885,882,882,882,880,880,878,875,873,871,862,860,858,858,856,854,854,851,849,849,849,847,845,841,839,837,837,837,0,0,0,0,0,0,0,0,0,0,0,0,0,0,0,0,0,0,0,0,0,0,0,0,0,0,0,0,0,0,0,0,0,0,0,0,0,0
0,0,0,0,0,0,0,0,0,0,0,0,0,0,0,0,0,0,956,954,954,954,954,954,954,954,951,951,951,951,954,954,956,956,959,962,962,962,964,962,962,962,1112,1112,1108,1108,1108,1112,1108,1108,1108,1108,1108,1108,1108,1108,1108,1108,1108,1108,1108,1105,1105,1105,1105,1105,1105,1101,1101,1101,1101,1105,1101,1101,1097,1097,1105,1105,1105,1101,1101,1101,1105,1101,1101,1101,1101,1101,1101,1101,1101,1101,1101,1101,1101,1101,1105,1105,1105,1105,1105,1101,1101,1101,1101,1101,1101,0,0,0,0,0,0,0,0,0,0,696,694,694,693,691,690,683,683,680,679,678,676,676,676,676,678,679,680,682,683,683,683,686,688,688,690,691,694,694,696,696,697,698,698,701,0,0,0,0,0,0,0,1101,1101,1094,1094,1094,1094,1094,1097,1097,1094,1090,1090,1090,1090,1090,1090,1090,1090,1090,1090,1090,1090,1090,1090,1090,1090,1090,1090,1090,1090,1090,1090,1090,1087,1087,1087,1087,1087,1087,1087,1087,1087,1087,1087,1087,1087,1087,1087,1087,1084,1084,1084,1084,1084,1084,1084,1084,1084,1080,1080,1080,1077,930,928,925,923,923,918,915,913,887,887,887,887,885,885,885,885,887,887,887,887,887,887,889,889,891,891,891,894,894,896,901,910,913,913,915,918,915,915,918,1077,1077,1077,1073,1073,1077,1077,1077,1077,1077,1077,1077,1077,1077,1077,1077,1077,1077,1073,1073,1073,1073,1073,1073,1070,1070,1070,1070,1070,1070,1073,1073,1073,1073,1073,1073,1073,1073,1073,1077,1077,1077,1077,1073,1073,1073,1073,1077,1077,1073,1073,1073,1073,1070,1070,1070,1070,1067,1067,1067,1067,1067,1067,1067,1067,1067,1067,1070,1067,1067,1070,1070,1070,1067,1067,1067,1070,1067,1067,1067,1067,1067,1063,1063,1063,1063,1063,1063,1067,1067,1067,1067,1067,1067,1067,1067,1067,1067,1067,1067,1067,1067,1067,1067,1067,1067,1067,1063,1063,1063,1063,1063,1063,1063,1063,1063,1063,1063,1060,1060,1063,1063,1063,1060,1060,1057,1054,1054,1054,1054,1054,1054,1057,1057,1057,1057,1057,1057,1057,1057,1057,1057,1057,1057,1057,1057,1057,1057,1057,1057,1057,1054,1054,1054,1054,1054,1054,1054,1057,1057,1057,1057,1057,1057,1057,1057,1054,1054,1054,1054,1054,1054,1050,1050,1050,1050,1050,1050,1050,1050,1050,1050,1050,1050,1047,1047,1047,1047,1044,1044,1041,1041,1041,1041,1041,1044,1044,1044,1044,1044,1044,1044,1044,1044,1044,1044,1044,1044,1044,1041,1041,1041,1041,1044,1044,1041,1041,1044,1044,1041,1041,1041,1044,1044,1041,1041,1041,962,962,962,964,964,964,964,964,964,967,967,1038,1038,1038,1038,1041,1041,1038,1038,1038,1038,1038,887,887,887,887,887,887,887,887,887,887,887,889,889,887,887,887,887,887,887,887,887,889,889,891,894,896,896,896,898,901,903,908,918,923,923,925,923,923,920,920,920,920,918,918,918,915,913,913,908,908,906,906,903,901,898,898,896,896,894,891,885,885,885,885,882,882,882,882,882,880,880,878,875,871,864,862,860,858,856,856,854,851,851,849,847,845,845,845,839,837,837,835,835,0,0,0,0,0,0,0,0,0,0,0,0,0,0,0,0,0,0,0,0,0,0,0,0,0,0,0,0,0,0,0,0,0,0,0,0,0,0
0,0,0,0,0,0,0,0,0,0,0,0,0,0,0,0,975,970,959,956,954,954,954,954,954,954,954,954,951,951,954,954,954,956,959,962,962,962,964,964,964,964,964,1108,1108,1105,1105,1108,1108,1105,1105,1105,1108,1105,1105,1108,1108,1108,1108,1105,1105,1105,1101,1101,1101,1101,1101,1101,1097,1097,1101,1101,1101,1097,1097,1097,1097,1097,1097,1097,1097,1101,1101,1101,1101,1101,1101,1101,1101,1101,1097,1097,1097,1097,1097,1097,1101,1101,1101,1101,1101,1101,1097,1097,1097,1097,1101,0,0,0,0,0,0,0,0,0,0,696,696,696,696,693,690,687,684,683,680,679,678,678,676,676,678,680,680,682,682,683,684,686,688,688,690,693,694,694,696,696,698,700,700,701,703,704,0,0,0,0,0,1101,1101,1090,1090,1090,1090,1090,1090,1094,1090,1090,1090,1087,1087,1087,1087,1087,1084,1084,1087,1087,1087,1087,1087,1087,1090,1090,1090,1090,1090,1087,1087,1087,1087,1084,1084,1084,1084,1084,1084,1084,1084,1087,1087,1087,1087,1084,1084,1084,1080,1080,1080,1080,1080,1080,1080,1080,1080,1080,1080,1080,1077,1073,930,925,925,923,923,915,915,885,885,885,882,882,882,882,882,882,885,885,885,887,887,887,889,891,891,891,894,894,896,901,910,913,913,915,918,915,915,1073,1073,1073,1073,1070,1070,1073,1073,1073,1073,1073,1073,1073,1077,1077,1073,1073,1073,1073,1073,1073,1073,1070,1070,1070,1070,1070,1070,1067,1067,1070,1070,1070,1070,1070,1070,1073,1070,1070,1070,1073,1073,1073,1073,1073,1073,1073,1073,1073,1073,1073,1073,1070,1070,1070,1070,1070,1067,1067,1067,1067,1067,1067,1067,1067,1067,1067,1067,1067,1063,1063,1067,1067,1067,1067,1067,1067,1067,1067,1063,1063,1063,1063,1063,1060,1060,1060,1063,1060,1060,1063,1063,1063,1063,1063,1063,1063,1063,1063,1063,1063,1063,1063,1063,1063,1063,1063,1063,1063,1063,1060,1060,1063,1060,1060,1063,1060,1060,1060,1060,1060,1060,1060,1060,1060,1060,1054,1054,1054,1054,1054,1054,1054,1054,1054,1054,1054,1054,1054,1054,1057,1057,1054,1054,1054,1054,1054,1054,1054,1057,1057,1054,1054,1054,1050,1050,1054,1050,1050,1054,1054,1054,1054,1054,1054,1054,1054,1054,1054,1054,1050,1050,1047,1047,1047,1047,1047,1047,1050,1050,1050,1050,1050,1050,1047,1047,1044,1044,1044,1044,1041,1041,1041,1041,1041,1041,1041,1038,1038,1041,1041,1041,1041,1044,1044,1044,1044,1044,1041,1041,1041,1041,1041,1041,1041,1041,1041,1041,1041,1041,1038,1038,1041,1038,1038,1038,1038,1038,1038,964,964,964,964,964,967,967,967,967,1034,1034,1034,1034,1034,1041,1038,1038,1038,1031,1031,1038,1038,887,887,887,887,887,887,887,887,887,887,889,889,889,887,887,887,887,887,887,887,889,889,891,891,896,896,898,898,901,903,908,918,923,923,923,923,920,920,920,920,920,918,918,915,913,913,910,908,908,906,906,903,901,898,898,896,896,894,887,885,885,885,885,882,882,882,882,880,878,878,875,873,869,864,862,860,858,856,854,851,851,849,847,847,845,845,841,839,837,835,835,835,0,0,0,0,0,0,0,0,0,0,0,0,0,0,0,0,0,0,0,0,0,0,0,0,0,0,0,0,0,0,0,0,0,0,0,0,0,0
0,0,0,0,0,0,0,0,0,0,0,0,0,0,0,975,975,970,962,956,956,954,954,954,954,954,954,954,954,954,954,954,954,956,959,962,962,964,964,967,967,967,970,978,1101,1101,1101,1101,1105,1101,1101,1101,1105,1105,1105,1105,1105,1105,1105,1101,1101,1101,1097,1097,1097,1097,1097,1097,1097,1097,1097,1097,1097,1094,1094,1094,1094,1097,1097,1094,1094,1094,1097,1097,1101,1101,1101,1101,1101,1097,1097,1097,1094,1094,1094,1094,1097,1097,1097,1097,1097,1097,1094,1094,1094,1094,1094,0,0,0,0,0,0,0,0,0,0,696,696,694,694,693,690,688,687,684,682,679,679,679,676,676,678,680,680,682,682,683,684,686,688,688,690,693,694,694,696,697,698,700,701,703,703,704,0,0,0,0,0,0,0,1087,1087,1090,1087,1087,1087,1087,1087,1087,1087,1087,1087,1087,1084,1084,1084,1084,1084,1087,1087,1087,1087,1087,1087,1087,1087,1087,1087,1087,1087,1084,1084,1080,1080,1080,1080,1080,1080,1080,1080,1084,1084,1084,1084,1080,1080,1080,1077,1077,1077,1077,1077,1077,1077,1077,1077,1077,1077,1077,1073,1073,1073,925,925,878,878,878,878,882,882,882,880,880,880,880,880,880,882,882,882,885,885,887,889,891,891,894,894,894,896,901,903,908,913,1077,1073,1073,1073,1073,1073,1070,1070,1067,1067,1070,1070,1070,1070,1070,1070,1073,1073,1073,1073,1073,1073,1073,1070,1070,1070,1070,1067,1067,1067,1067,1067,1067,1067,1067,1067,1067,1067,1067,1067,1070,1070,1070,1070,1067,1067,1067,1067,1067,1067,1067,1070,1070,1070,1070,1070,1070,1070,1070,1067,1067,1067,1067,1067,1067,1067,1067,1063,1063,1063,1063,1063,1063,1063,1063,1063,1063,1063,1063,1063,1063,1063,1063,1063,1063,1063,1060,1060,1060,1057,1057,1060,1060,1060,1060,1060,1060,1060,1060,1063,1063,1060,1060,1060,1060,1060,1060,1060,1060,1060,1060,1060,1060,1060,1057,1057,1057,1057,1057,1057,1057,1057,1057,1057,1057,1060,1060,1060,1057,1054,1054,1054,1054,1054,1054,1050,1050,1050,1050,1050,1050,1050,1054,1054,1054,1057,1054,1054,1054,1054,1054,1050,1050,1050,1054,1054,1054,1054,1050,1050,1050,1050,1050,1050,1054,1054,1054,1054,1054,1054,1050,1050,1050,1050,1047,1047,1044,1044,1044,1044,1047,1047,1047,1047,1047,1047,1047,1047,1044,1044,1044,1044,1044,1041,1041,1038,1038,1038,1038,1038,1038,1038,1038,1038,1038,1041,1041,1041,1041,1041,1041,1041,1041,1041,1038,1038,1038,1038,1041,1041,1041,1041,1041,1041,1038,1038,1038,1038,1038,1034,1034,1031,1031,964,964,964,964,964,967,967,967,967,1031,1031,1034,1034,1034,1038,1038,1031,1031,1028,1028,1028,1028,885,885,885,885,887,887,887,887,889,889,889,889,889,889,889,887,887,887,889,889,889,889,891,891,894,896,896,898,901,906,910,918,923,923,923,920,920,920,920,920,920,918,915,913,913,910,910,908,908,906,903,903,903,901,898,896,896,894,887,885,885,885,882,880,880,880,880,880,878,878,875,871,867,864,862,860,856,856,854,851,851,849,847,845,845,841,839,837,837,835,835,835,0,0,0,0,0,0,0,0,0,0,0,0,0,0,0,0,0,0,0,0,0,0,0,0,0,0,0,0,0,0,0,0,0,0,0,0,0,0
0,0,0,0,0,0,0,0,0,0,0,0,0,0,0,975,975,970,967,959,959,956,956,956,954,954,954,954,954,954,954,954,956,959,962,962,964,964,967,967,970,970,970,978,1097,1097,1097,1097,1101,1097,1097,1101,1101,1101,1101,1101,1101,1101,1101,1101,1101,1097,1094,1094,1094,1094,1094,1094,1094,1094,1094,1094,1094,1094,1094,1094,1094,1094,1094,1094,1094,1094,1094,1094,1094,1097,1094,1094,1097,1097,1094,1094,1094,1094,1090,1090,1094,1094,1090,1090,1094,1094,1090,1090,1090,1090,1090,1094,0,0,0,0,0,0,0,0,0,696,696,694,694,693,690,688,687,686,684,682,680,680,679,679,679,680,682,682,683,684,686,686,688,688,690,693,694,696,696,697,698,701,701,703,703,704,707,0,0,0,0,0,0,1087,1084,1084,1084,1087,1087,1087,1087,1087,1087,1087,1087,1084,1084,1080,1080,1080,1080,1084,1084,1084,1084,1084,1084,1084,1084,1084,1084,1084,1084,1080,1080,1080,1077,1077,1077,1077,1077,1077,1077,1080,1080,1080,1080,1080,1080,1080,1077,1077,1077,1077,1077,1077,1077,1077,1073,1073,1073,1073,1073,1070,1070,878,878,878,878,875,875,878,878,880,880,880,880,880,880,880,880,882,882,885,885,887,889,891,891,894,896,896,898,901,903,906,1073,1073,1070,1070,1070,1070,1070,1070,1067,1067,1067,1067,1067,1067,1067,1070,1070,1070,1070,1070,1070,1070,1070,1070,1070,1070,1070,1067,1067,1067,1067,1067,1063,1063,1063,1067,1067,1067,1067,1067,1067,1067,1067,1067,1067,1063,1063,1063,1063,1063,1067,1067,1067,1070,1070,1070,1070,1067,1067,1067,1067,1067,1067,1067,1067,1067,1067,1063,1063,1063,1063,1063,1060,1060,1060,1060,1060,1060,1060,1060,1060,1063,1063,1063,1060,1060,1060,1060,1057,1057,1057,1057,1057,1057,1057,1057,1057,1057,1057,1057,1057,1057,1057,1057,1057,1057,1054,1054,1057,1057,1057,1057,1057,1057,1057,1057,1054,1054,1054,1054,1054,1054,1054,1054,1054,1054,1054,1057,1057,1054,1054,1054,1054,1054,1054,1050,1050,1050,1050,1050,1050,1050,1050,1050,1050,1054,1054,1050,1050,1050,1050,1050,1050,1047,1047,1047,1047,1050,1050,1050,1050,1050,1050,1050,1050,1050,1050,1050,1050,1050,1050,1047,1047,1047,1047,1044,1044,1041,1041,1041,1044,1044,1044,1044,1044,1044,1044,1044,1044,1044,1041,1041,1041,1041,1041,1038,1038,1038,1038,1038,1038,1038,1038,1038,1038,1038,1038,1038,1038,1041,1041,1038,1038,1038,1038,1038,1038,1038,1038,1038,1038,1038,1038,1041,1038,1038,1038,1038,1034,1031,1028,1028,959,959,964,964,964,967,967,964,964,964,1031,1028,1028,1031,1031,1031,1031,1028,1028,1028,1028,1028,1028,1028,1028,885,885,885,887,887,887,887,889,889,889,889,889,889,889,889,889,889,889,889,889,889,891,891,894,894,896,896,898,906,910,920,923,923,923,920,920,918,918,918,918,915,915,913,910,908,908,906,906,906,903,901,901,898,898,896,896,894,889,885,885,885,882,880,880,880,880,880,878,875,873,869,864,864,862,860,856,856,854,849,849,847,845,845,843,841,839,837,837,835,835,835,0,0,0,0,0,0,0,0,0,0,0,0,0,0,0,0,0,0,0,0,0,0,0,0,0,0,0,0,0,0,0,0,0,0,0,0,0,0
0,0,0,0,0,0,0,0,0,0,0,0,0,0,0,0,975,970,967,962,962,959,956,956,956,954,954,954,954,954,954,956,959,959,962,964,964,964,967,970,973,973,973,978,1097,1097,1097,1097,1097,1097,1097,1097,1097,1097,1097,1101,1101,1101,1101,1097,1097,1094,1094,1094,1094,1094,1094,1094,1094,1094,1094,1094,1094,1094,1090,1090,1094,1094,1094,1090,1090,1090,1094,1090,1090,1090,1090,1090,1094,1094,1090,1090,1090,1090,1090,1090,1090,1090,1087,1087,1090,1090,1090,1087,1087,1087,1087,1090,0,0,0,0,0,0,0,0,0,697,696,696,696,693,691,690,688,686,684,682,682,680,680,680,680,680,682,682,683,684,686,686,687,688,693,693,696,696,697,698,700,701,703,704,706,707,707,0,0,0,0,0,0,0,1084,1084,1080,1080,1080,1080,1080,1087,1084,1084,1084,1084,1080,1080,1077,1077,1077,1077,1080,1080,1080,1080,1080,1080,1084,1080,1080,1080,1080,1080,1080,1077,1077,1077,1077,1077,1077,1077,1077,1077,1080,1077,1077,1077,1077,1077,1077,1077,1077,1077,1077,1077,1073,1073,1073,1073,1073,1073,1073,1070,1070,878,878,875,875,875,875,875,875,873,873,873,875,878,878,878,880,880,882,885,885,887,889,891,894,896,896,896,898,901,903,906,1073,1073,1070,1070,1070,1067,1067,1067,1067,1063,1063,1063,1063,1067,1067,1067,1067,1067,1067,1067,1067,1067,1067,1067,1067,1067,1067,1067,1063,1063,1063,1063,1063,1063,1063,1063,1063,1063,1063,1067,1067,1067,1063,1063,1060,1060,1060,1063,1063,1063,1063,1063,1067,1067,1067,1067,1067,1067,1067,1067,1067,1067,1067,1063,1063,1063,1063,1063,1063,1063,1060,1060,1057,1057,1057,1057,1057,1057,1057,1057,1057,1057,1057,1060,1057,1057,1057,1060,1057,1057,1057,1057,1054,1054,1054,1054,1054,1054,1054,1054,1054,1054,1054,1054,1054,1054,1054,1054,1054,1054,1054,1054,1054,1054,1054,1054,1054,1054,1054,1054,1054,1050,1050,1050,1050,1050,1050,1054,1054,1050,1050,1050,1050,1050,1050,1050,1047,1047,1047,1047,1050,1047,1047,1050,1050,1050,1050,1047,1047,1047,1047,1047,1047,1047,1047,1044,1044,1044,1044,1047,1044,1044,1047,1047,1050,1050,1047,1047,1050,1047,1047,1047,1047,1044,1044,1044,1041,1041,1041,1041,1041,1041,1041,1041,1041,1041,1041,1041,1041,1041,1041,1041,1041,1041,1038,1038,1038,1038,1038,1038,1038,1038,1038,1038,1038,1038,1038,1038,1038,1038,1038,1038,1038,1038,1038,1034,1034,1034,1038,1038,1038,1038,1038,1038,1038,1038,1034,1034,1031,1028,1028,1028,959,959,964,964,964,967,967,964,964,964,1031,1028,1028,1028,1028,1028,1028,1028,1025,1025,1025,1025,1025,1025,1025,1025,887,887,887,887,887,887,887,887,889,889,889,889,889,889,889,889,889,889,889,889,891,891,894,894,896,896,898,903,910,920,923,923,920,920,918,918,918,918,918,915,913,910,910,908,908,906,906,903,903,901,901,898,896,896,896,894,889,885,885,885,880,880,880,880,880,878,875,875,871,864,864,862,860,860,856,854,851,849,849,847,845,845,843,841,839,837,837,835,835,835,0,0,0,0,0,0,0,0,0,0,0,0,0,0,0,0,0,0,0,0,0,0,0,0,0,0,0,0,0,0,0,0,0,0,0,0,0,0
0,0,0,0,0,0,0,0,0,0,0,0,0,0,0,0,975,970,967,962,962,959,959,956,956,954,954,954,954,954,954,956,959,959,962,964,964,967,970,970,973,973,973,978,1094,1094,1094,1094,1094,1094,1094,1094,1094,1097,1097,1097,1097,1097,1097,1094,1094,1094,1090,1090,1090,1090,1090,1090,1094,1094,1094,1090,1090,1090,1090,1090,1090,1090,1090,1090,1090,1090,1090,1090,1090,1090,1090,1090,1090,1090,1090,1090,1087,1087,1087,1090,1090,1090,1087,1087,1087,1087,1087,1087,1087,1084,1084,1084,0,0,0,0,0,0,0,0,0,0,696,696,696,693,693,691,690,687,686,683,682,682,680,680,680,682,682,682,683,684,686,687,687,688,693,693,696,696,697,698,700,701,703,704,706,707,707,708,0,0,0,0,0,0,1080,1080,1077,1077,1077,1077,1077,1080,1080,1080,1080,1080,1080,1077,1077,1077,1077,1077,1077,1077,1077,1080,1080,1080,1080,1080,1080,1080,1080,1080,1080,1077,1077,1077,1077,1077,1077,1073,1073,1077,1077,1077,1077,1077,1077,1077,1073,1073,1073,1073,1073,1073,1073,1073,1070,1070,1070,1070,1073,1073,875,875,875,875,873,873,873,873,873,873,873,873,873,873,875,875,878,880,882,882,885,887,891,891,896,896,898,898,901,901,901,903,1070,1070,1067,1067,1067,1067,1067,1063,1063,1063,1063,1063,1063,1063,1063,1063,1063,1063,1063,1063,1063,1063,1063,1063,1063,1063,1063,1063,1063,1060,1060,1063,1063,1060,1060,1063,1063,1060,1060,1063,1063,1063,1060,1060,1057,1057,1057,1057,1057,1057,1060,1060,1063,1063,1063,1063,1063,1063,1063,1063,1063,1063,1063,1063,1063,1063,1063,1060,1060,1060,1060,1057,1057,1054,1054,1054,1054,1054,1054,1054,1054,1057,1057,1057,1057,1057,1057,1057,1054,1054,1054,1054,1054,1054,1054,1054,1054,1054,1054,1054,1054,1054,1054,1054,1050,1050,1050,1054,1054,1054,1054,1054,1054,1054,1054,1050,1050,1050,1050,1050,1050,1050,1050,1050,1050,1050,1050,1050,1050,1050,1050,1050,1050,1050,1050,1047,1047,1047,1047,1047,1047,1044,1044,1047,1047,1047,1047,1044,1044,1044,1044,1044,1044,1041,1041,1041,1041,1041,1041,1041,1041,1041,1041,1041,1041,1041,1041,1041,1041,1041,1041,1041,1041,1041,1041,1041,1041,1038,1038,1038,1038,1038,1041,1041,1041,1041,1041,1041,1041,1041,1038,1038,1038,1038,1038,1038,1034,1034,1034,1034,1034,1034,1034,1034,1034,1034,1034,1034,1034,1034,1028,1028,1034,1034,1034,1034,1034,1034,1034,1034,1034,1034,1034,1034,1034,1034,1031,1031,1031,1028,1028,1028,1025,962,962,964,964,967,967,964,964,956,956,1028,1028,1025,1025,1025,1025,1025,1025,1025,1025,1022,1022,1022,1022,1022,887,887,887,887,887,887,887,887,889,889,889,889,889,889,889,889,889,889,889,891,891,891,894,894,894,896,898,898,920,920,920,923,920,920,918,918,918,918,915,915,913,910,908,908,906,906,906,903,903,901,898,896,896,896,896,894,889,887,885,885,880,880,880,878,878,878,875,871,864,864,862,862,860,858,856,854,851,849,849,847,845,845,843,841,841,837,837,835,835,835,0,0,0,0,0,0,0,0,0,0,0,0,0,0,0,0,0,0,0,0,0,0,0,0,0,0,0,0,0,0,0,0,0,0,0,0,0,0
0,0,0,0,0,0,0,0,0,0,0,0,0,0,0,0,0,973,970,967,964,959,959,956,956,956,956,954,954,954,956,956,959,962,962,964,964,967,970,973,973,973,973,978,0,1090,1090,1094,1094,1094,1094,1094,1094,1094,1094,1094,1094,1094,1094,1094,1094,1090,1090,1090,1090,1090,1090,1090,1090,1090,1090,1087,1087,1090,1090,1087,1087,1090,1090,1090,1087,1087,1087,1087,1087,1087,1087,1087,1087,1087,1087,1087,1087,1087,1087,1087,1087,1087,1087,1087,1087,1087,1087,1084,1084,1084,1084,1084,0,0,0,0,0,0,0,0,0,697,696,696,697,694,693,691,691,687,686,684,683,682,680,680,680,682,682,682,683,686,687,687,687,688,691,693,696,696,697,700,701,703,704,704,706,707,708,708,0,0,0,0,0,0,1077,1077,1077,1077,1077,1077,1077,1077,1077,1077,1077,1077,1077,1077,1077,1077,1077,1077,1077,1073,1073,1077,1077,1077,1077,1077,1077,1077,1077,1077,1077,1077,1077,1077,1077,1077,1073,1073,1073,1073,1073,1073,1070,1070,1073,1073,1073,1073,1070,1070,1073,1070,1070,1070,1070,1070,1067,1067,1067,869,869,869,873,873,873,871,871,871,871,871,871,871,871,873,875,875,875,878,880,882,885,887,889,891,896,896,898,898,901,901,898,898,1067,1067,1063,1063,1063,1063,1063,1060,1060,1060,1060,1060,1060,1060,1060,1060,1060,1060,1060,1060,1060,1060,1060,1060,1060,1060,1060,1060,1060,1057,1057,1060,1060,1060,1060,1060,1060,1060,1060,1060,1060,1060,1057,1054,1054,1054,1054,1054,1054,1054,1054,1054,1063,1060,1060,1060,1060,1060,1063,1060,1060,1063,1060,1060,1060,1060,1060,1060,1057,1057,1057,1057,1054,1054,1054,1054,1054,1054,1054,1054,1054,1054,1054,1054,1054,1054,1054,1054,1050,1050,1050,1050,1050,1050,1050,1050,1050,1050,1050,1050,1050,1050,1050,1050,1050,1050,1050,1050,1050,1050,1050,1050,1050,1050,1050,1050,1050,1050,1050,1050,1050,1050,1047,1047,1047,1047,1047,1047,1047,1047,1047,1047,1047,1047,1047,1047,1044,1044,1044,1044,1044,1044,1044,1044,1044,1044,1044,1044,1041,1041,1041,1041,1041,1041,1038,1038,1038,1038,1038,1038,1038,1038,1038,1038,1041,1041,1041,1041,1041,1041,1038,1038,1041,1038,1038,1038,1038,1038,1038,1038,1034,1034,1038,1038,1038,1034,1034,1034,1038,1038,1038,1038,1038,1038,1034,1034,1034,1031,1031,1034,1031,1031,1031,1031,1031,1031,1031,1031,1028,1028,1028,1028,1028,1028,1031,1031,1031,1034,1034,1031,1031,1031,1031,1031,1031,1031,1028,1028,1028,1028,1028,1025,959,959,962,964,964,967,967,967,964,956,956,1025,1025,1025,1025,1025,1025,1025,1022,1022,1022,1022,1022,1019,1019,1022,1022,887,887,887,887,887,887,887,889,889,889,889,889,889,889,889,889,889,891,891,891,891,891,894,894,894,896,898,918,918,920,920,920,918,918,918,918,918,915,913,910,908,908,908,906,906,903,903,901,901,898,896,894,894,894,891,889,887,885,882,880,880,880,878,878,878,875,869,864,862,862,862,858,858,854,851,851,849,849,847,845,845,843,841,839,839,837,837,835,835,0,0,0,0,0,0,0,0,0,0,0,0,0,0,0,0,0,0,0,0,0,0,0,0,0,0,0,0,0,0,0,0,0,0,0,0,0,0
0,0,0,0,0,0,0,0,0,0,0,0,0,0,0,0,0,0,0,967,964,962,959,956,956,956,956,956,956,956,956,959,959,962,964,964,964,970,973,973,973,973,973,978,0,1090,1090,1094,1094,1094,1094,1094,1094,1094,1094,1094,1094,1094,1094,1094,1094,1090,1090,1090,1090,1090,1090,1090,1090,1090,1090,1087,1087,1090,1090,1087,1087,1090,1090,1090,1087,1087,1087,1087,1087,1087,1087,1087,1087,1087,1087,1087,1087,1087,1087,1087,1087,1087,1084,1084,1084,1084,1084,1084,1084,1084,1080,1080,1080,0,0,0,0,0,0,0,0,697,697,697,697,694,693,691,691,688,686,684,683,682,680,680,680,682,682,682,683,686,687,687,687,690,691,693,696,696,698,700,701,703,704,706,707,707,708,708,0,0,0,0,0,0,1073,1073,1073,1073,1073,1077,1077,1077,1077,1077,1077,1077,1077,1077,1073,1073,1073,1073,1073,1073,1073,1073,1073,1073,1073,1073,1073,1073,1073,1073,1073,1073,1073,1073,1073,1073,1073,1070,1070,1070,1067,1067,1067,1067,1067,1067,1067,1067,1067,1067,1067,1067,1067,1067,1067,1067,1067,1067,867,867,867,867,869,869,871,869,869,869,869,869,869,869,869,871,873,873,875,878,880,882,885,887,889,891,896,896,896,898,901,898,898,898,1063,1063,1063,1063,1063,1060,1060,1060,1060,1060,1060,1060,1060,1060,1060,1057,1057,1057,1054,1054,1057,1057,1057,1057,1057,1057,1057,1057,1057,1054,1054,1057,1057,1057,1057,1057,1057,1054,1054,1057,1057,1057,1054,1050,1050,1050,1050,1050,1050,1050,1050,1050,1057,1057,1057,1057,1057,1057,1060,1060,1060,1060,1060,1060,1060,1060,1057,1057,1054,1054,1054,1054,1054,1054,1054,1050,1050,1050,1050,1050,1050,1050,1050,1050,1050,1050,1050,1050,1050,1050,1050,1050,1050,1050,1050,1050,1050,1050,1050,1050,1050,1050,1047,1047,1047,1047,1047,1047,1047,1047,1047,1047,1047,1047,1047,1050,1047,1047,1047,1047,1047,1047,1047,1047,1044,1044,1044,1044,1044,1044,1044,1044,1044,1044,1044,1044,1041,1041,1041,1041,1044,1041,1041,1041,1041,1041,1041,1041,1041,1041,1041,1041,1038,1038,1034,1034,1034,1034,1038,1038,1038,1038,1038,1038,1038,1038,1038,1038,1038,1038,1038,1038,1038,1038,1034,1034,1034,1034,1034,1034,1034,1034,1034,1034,1034,1031,1031,1031,1031,1034,1031,1031,1031,1034,1034,1034,1031,1031,1031,1031,1028,1028,1028,1028,1028,1028,1028,1028,1025,1025,1025,1025,1025,1025,1028,1028,1028,1031,1028,1028,1028,1028,1028,1028,1028,1028,1028,1028,1028,1025,1025,1025,959,959,962,964,964,967,967,967,967,959,959,1025,1025,1025,1025,1022,1022,1019,1019,1019,1019,1019,1019,1019,1019,1022,1022,889,887,887,887,887,887,887,887,887,889,889,889,889,889,889,889,889,891,891,891,891,891,891,891,891,896,918,918,918,920,920,920,918,918,918,918,915,913,910,908,908,908,906,903,903,901,898,898,896,896,894,894,891,891,891,889,885,882,880,880,880,878,878,875,875,873,869,864,862,860,858,858,856,854,851,849,849,847,847,845,845,843,841,839,837,837,837,835,835,0,0,0,0,0,0,0,0,0,0,0,0,0,0,0,0,0,0,0,0,0,0,0,0,0,0,0,0,0,0,0,0,0,0,0,0,0,0
0,0,0,0,0,0,0,0,0,0,0,0,0,0,0,0,0,0,0,0,0,0,0,0,0,0,0,0,0,0,0,0,0,0,0,0,0,0,0,0,0,0,0,0,0,0,0,0,0,0,0,0,0,0,0,0,0,0,0,0,0,0,0,0,0,0,0,0,0,0,0,0,0,0,0,0,0,0,0,0,0,0,0,0,0,0,0,0,0,0,0,0,0,0,0,0,0,0,1084,1084,1084,1084,1084,1084,1084,1084,1080,1080,1080,0,0,0,0,0,0,0,0,697,697,697,697,694,693,693,691,688,687,686,684,683,682,682,682,682,683,683,686,686,687,687,687,691,691,693,696,696,698,700,701,703,704,706,707,708,708,708,0,0,0,0,0,0,1073,1073,1073,1073,1073,1077,1077,1077,1077,1077,1077,1077,1077,1077,1073,1073,1073,1073,1070,1070,1070,1070,1070,1070,1070,1070,1070,1073,1070,1070,1070,1070,1070,1073,1070,1070,1070,1067,1067,1067,1067,1067,1063,1063,1067,1067,1063,1063,1063,1063,1067,1067,1067,1067,1063,1063,1070,0,864,864,864,867,867,867,867,869,869,867,867,867,869,869,869,869,873,873,875,878,880,882,885,887,889,891,896,896,896,896,898,898,898,1063,1063,1060,1060,1060,1060,1057,1057,1057,1054,1054,1057,1057,1057,1057,1057,1054,1054,1054,1050,1050,1054,1054,1054,1054,1054,1054,1054,1054,1054,1050,1050,1054,1054,1054,1054,1054,1054,1050,1050,1054,1054,1054,1050,1050,1050,1050,1050,1050,1050,1050,1050,1050,1054,1050,1050,1050,1050,1054,1054,1054,1054,1057,1057,1057,1054,1054,1054,1054,1054,1054,1054,1050,1050,1050,1050,1050,1050,1050,1050,1050,1050,1050,1050,1050,1050,1050,1050,1047,1047,1047,1047,1047,1047,1047,1047,1047,1047,1047,1047,1047,1047,1047,1047,1047,1047,1047,1047,1047,1047,1044,1044,1044,1044,1044,1044,1044,1044,1044,1044,1044,1044,1044,1044,1041,1041,1041,1041,1041,1041,1041,1041,1041,1041,1041,1044,1041,1041,1041,1041,1041,1041,1041,1038,1038,1038,1038,1038,1038,1038,1038,1038,1038,1034,1034,1031,1031,1034,1034,1034,1034,1038,1034,1034,1034,1034,1034,1034,1034,1038,1034,1034,1034,1034,1034,1034,1034,1034,1034,1034,1031,1031,1028,1028,1031,1031,1031,1031,1031,1031,1028,1028,1031,1031,1031,1031,1031,1028,1028,1028,1028,1028,1028,1028,1028,1028,1028,1028,1025,1025,1025,1025,1025,1025,1025,1025,1025,1025,1022,1022,1025,1028,1025,1025,1025,1025,1025,1025,1025,1025,1025,1025,1025,959,959,962,964,964,967,967,967,967,967,967,1022,1019,1019,1019,1019,1019,1016,1016,1016,1016,1016,1019,1016,1016,1019,1019,889,887,887,887,887,887,887,887,887,887,889,889,889,889,889,891,891,891,891,891,891,891,891,891,891,891,891,923,923,923,920,920,918,918,918,918,915,910,908,908,906,906,906,903,903,901,898,898,894,894,891,891,891,891,889,887,885,882,880,878,878,878,875,875,871,871,869,864,862,860,858,858,856,854,851,849,849,847,847,845,845,841,841,839,837,837,837,835,835,0,0,0,0,0,0,0,0,0,0,0,0,0,0,0,0,0,0,0,0,0,0,0,0,0,0,0,0,0,0,0,0,0,0,0,0,0,0
0,0,0,0,0,0,0,0,0,0,0,0,0,0,0,0,0,0,0,0,0,0,0,0,0,0,0,0,0,0,0,0,0,0,0,0,0,0,0,0,0,0,0,0,0,0,0,0,0,0,0,0,0,0,0,0,0,0,0,0,0,0,0,0,0,0,0,0,0,0,0,0,0,0,0,0,0,0,0,0,0,0,0,0,0,0,0,0,0,0,0,0,0,0,0,0,0,0,0,0,0,0,0,0,0,0,0,0,0,0,0,0,0,0,0,0,0,0,0,0,0,0,0,0,0,0,0,0,0,0,0,0,0,0,0,0,0,0,0,0,0,0,0,0,0,0,0,0,0,0,0,0,0,0,0,0,0,0,0,0,0,0,0,0,0,0,0,0,0,0,0,0,0,0,0,0,0,0,1073,1073,1070,1070,1070,1070,1070,1070,1070,1070,1070,1073,1070,1070,1070,1070,1070,1073,1070,1070,1070,1067,1067,1067,1067,1067,1063,1063,1067,1067,1063,1063,1063,1063,1067,1067,1067,1067,1063,1063,0,0,864,864,864,867,867,867,867,869,869,867,867,867,869,869,869,869,873,873,875,878,880,882,885,887,889,891,896,896,896,896,898,898,898,1060,1060,1057,1057,1057,1054,1054,1054,1054,1050,1050,1054,1054,1054,1054,1054,1050,1050,1050,1050,1050,1050,1050,1054,1050,1050,1050,1050,1050,1050,1050,1050,1054,1054,1050,1050,1050,1050,1050,1050,1050,1050,1050,1047,1047,1047,1047,1047,1047,1047,1047,1047,1047,1050,1050,1050,1050,1050,1050,1050,1050,1054,1054,1054,1054,1054,1054,1050,1050,1050,1050,1050,1050,1050,1050,1050,1050,1050,1047,1047,1047,1047,1047,1047,1047,1047,1047,1047,1044,1044,1044,1044,1044,1044,1044,1044,1044,1047,1044,1044,1047,1047,1047,1047,1047,1047,1047,1044,1044,1044,1044,1041,1041,1041,1041,1041,1041,1041,1044,1044,1041,1041,1041,1041,1041,1041,1038,1038,1038,1041,1041,1041,1041,1041,1041,1041,1038,1038,1038,1038,1038,1038,1038,1038,1038,1038,1038,1038,1038,1038,1038,1038,1034,1031,1031,1028,1028,1031,1031,1031,1031,1034,1034,1034,1031,1031,1031,1031,1031,1031,1031,1031,1031,1031,1031,1028,1028,1028,1028,1031,1031,1031,1028,1028,1028,1028,1028,1028,1028,1028,1028,1028,1028,1028,1028,1028,1028,1028,1025,1025,1025,1025,1025,1025,1025,1025,1025,1028,1025,1022,1022,1022,1022,1022,1022,1022,1022,1022,1019,1019,1019,1019,1025,1025,1022,1022,1025,1025,1025,1025,1025,1025,1022,1022,962,962,964,964,967,967,967,967,967,967,1022,1016,1016,1016,1016,1016,1016,1016,1016,1016,1016,1016,1016,1016,1019,1019,891,889,889,889,889,887,887,887,887,887,887,887,889,889,889,889,891,891,891,891,889,889,889,889,889,889,889,0,923,923,923,920,920,918,918,918,913,910,908,906,906,906,906,903,901,898,896,896,894,891,889,889,889,889,889,887,882,880,880,878,878,875,875,873,871,871,869,864,862,860,856,856,854,854,851,851,849,849,847,845,845,841,841,839,839,837,837,835,835,0,0,0,0,0,0,0,0,0,0,0,0,0,0,0,0,0,0,0,0,0,0,0,0,0,0,0,0,0,0,0,0,0,0,0,0,0,0
0,0,0,0,0,0,0,0,0,0,0,0,0,0,0,0,0,0,0,0,0,0,0,0,0,0,0,0,0,0,0,0,0,0,0,0,0,0,0,0,0,0,0,0,0,0,0,0,0,0,0,0,0,0,0,0,0,0,0,0,0,0,0,0,0,0,0,0,0,0,0,0,0,0,0,0,0,0,0,0,0,0,0,0,0,0,0,0,0,0,0,0,0,0,0,0,0,0,0,0,0,0,0,0,0,0,0,0,0,0,0,0,0,0,0,0,0,0,0,0,0,0,0,0,0,0,0,0,0,0,0,0,0,0,0,0,0,0,0,0,0,0,0,0,0,0,0,0,0,0,0,0,0,0,0,0,0,0,0,0,0,0,0,0,0,0,0,0,0,0,0,0,0,0,0,0,0,0,0,0,0,0,0,0,0,0,0,0,0,0,0,0,0,0,0,0,0,0,0,0,0,0,0,0,0,0,0,0,0,0,0,0,0,0,0,0,0,0,0,0,0,0,0,0,0,0,0,0,0,0,0,0,0,0,0,0,0,0,0,0,0,0,0,0,0,0,896,896,896,896,898,898,0,1060,1060,1057,1057,1057,1054,1054,1054,1054,1050,1050,1054,1054,1054,1054,1054,1050,1050,1050,1050,1050,1050,1050,1054,1050,1050,1050,1050,1050,1050,1050,1050,1054,1054,1050,1050,1050,1050,1050,1050,1050,1050,1050,1047,1047,1047,1047,1047,1047,1047,1047,1047,1047,1050,1050,1050,1050,1050,1050,1050,1050,1050,1050,1050,1050,1050,1050,1050,1050,1050,1050,1050,1050,1047,1047,1047,1047,1047,1047,1044,1044,1044,1044,1044,1044,1044,1044,1044,1041,1041,1041,1044,1044,1044,1044,1041,1041,1044,1041,1041,1044,1044,1044,1044,1044,1044,1044,1041,1041,1041,1041,1041,1041,1041,1041,1041,1041,1041,1038,1038,1041,1038,1038,1038,1038,1038,1038,1038,1038,1038,1038,1038,1038,1038,1038,1038,1034,1034,1038,1038,1038,1034,1034,1034,1034,1038,1034,1034,1034,1038,1034,1034,1034,1028,1028,1028,1028,1028,1028,1028,1031,1031,1031,1031,1031,1031,1031,1031,1028,1028,1028,1028,1028,1028,1028,1028,1028,1028,1028,1028,1028,1028,1028,1028,1028,1025,1025,1025,1025,1025,1025,1025,1025,1025,1025,1025,1025,1025,1025,1025,1022,1022,1022,1022,1022,1022,1022,1025,1022,1022,1022,1022,1022,1022,1022,1022,1022,1019,1019,1016,1016,1016,1016,1016,1019,1022,1022,1022,1025,1025,1022,1022,1022,1022,962,962,964,964,967,967,967,967,967,967,1016,1013,1013,1013,1013,1013,1013,1013,1013,1016,1016,1016,1016,1016,1019,1019,891,891,891,891,891,887,887,887,887,887,887,887,887,887,889,889,889,889,889,889,889,889,889,889,889,889,0,0,0,0,933,923,920,918,918,915,913,908,908,906,906,903,903,901,898,898,894,894,894,891,889,889,889,889,885,885,882,880,878,878,875,875,873,873,873,871,864,862,862,860,856,856,854,854,851,851,849,847,845,845,843,841,841,839,839,837,837,835,835,0,0,0,0,0,0,0,0,0,0,0,0,0,0,0,0,0,0,0,0,0,0,0,0,0,0,0,0,0,0,0,0,0,0,0,0,0,0
0,0,0,0,0,0,0,0,0,0,0,0,0,0,0,0,0,0,0,0,0,0,0,0,0,0,0,0,0,0,0,0,0,0,0,0,0,0,0,0,0,0,0,0,0,0,0,0,0,0,0,0,0,0,0,0,0,0,0,0,0,0,0,0,0,0,0,0,0,0,0,0,0,0,0,0,0,0,0,0,0,0,0,0,0,0,0,0,0,0,0,0,0,0,0,0,0,0,0,0,0,0,0,0,0,0,0,0,0,0,0,0,0,0,0,0,0,0,0,0,0,0,0,0,0,0,0,0,0,0,0,0,0,0,0,0,0,0,0,0,0,0,0,0,0,0,0,0,0,0,0,0,0,0,0,0,0,0,0,0,0,0,0,0,0,0,0,0,0,0,0,0,0,0,0,0,0,0,0,0,0,0,0,0,0,0,0,0,0,0,0,0,0,0,0,0,0,0,0,0,0,0,0,0,0,0,0,0,0,0,0,0,0,0,0,0,0,0,0,0,0,0,0,0,0,0,0,0,0,0,0,0,0,0,0,0,0,0,0,0,0,0,0,0,0,0,0,0,0,0,0,0,0,0,0,0,0,0,0,0,0,0,0,0,0,0,0,0,0,0,0,0,0,0,0,0,0,0,0,0,0,0,0,0,0,0,0,0,0,0,0,0,0,0,0,0,0,0,0,0,0,0,0,0,0,0,0,0,0,0,0,0,0,1050,1050,1050,1050,1050,1050,1050,1050,1050,1050,1050,1050,1050,1047,1047,1047,1047,1047,1047,1044,1044,1044,1044,1044,1044,1044,1044,1044,1041,1041,1041,1044,1044,1044,1044,1041,1041,1044,1041,1041,1044,1044,1044,1044,1044,1044,1044,1041,1041,1041,1041,1041,1041,1041,1041,1041,1041,1041,1038,1038,1034,1034,1034,1031,1031,1031,1031,1034,1034,1038,1038,1038,1038,1038,1038,1034,1034,1034,1034,1034,1034,1034,1034,1034,1034,1034,1034,1034,1034,1031,1031,1031,1031,1028,1028,1028,1028,1028,1028,1028,1028,1028,1028,1028,1028,1028,1028,1028,1028,1028,1028,1028,1028,1025,1025,1028,1025,1025,1025,1025,1028,1028,1025,1025,1025,1025,1025,1025,1022,1022,1022,1022,1022,1025,1025,1025,1025,1025,1025,1022,1022,1016,1016,1016,1016,1016,1016,1016,1016,1019,1019,1019,1019,1019,1019,1019,1019,1016,1016,1016,1016,1016,1016,1016,1016,1016,1019,1022,1022,1019,1019,1016,1016,1016,962,962,964,964,967,967,967,967,967,967,1013,1013,1013,1013,1013,1013,1013,1013,1013,1013,1013,1016,1016,1016,1019,1019,896,894,894,894,891,889,887,887,887,887,887,885,885,887,887,887,889,889,889,889,889,889,889,887,887,0,0,0,0,0,935,928,920,918,918,915,913,908,908,906,903,903,903,901,898,898,894,894,891,889,889,887,887,887,885,880,880,878,878,875,875,875,873,871,871,869,864,862,860,860,856,856,854,854,851,851,849,847,845,845,843,841,841,839,839,837,837,835,835,0,0,0,0,0,0,0,0,0,0,0,0,0,0,0,0,0,0,0,0,0,0,0,0,0,0,0,0,0,0,0,0,0,0,0,0,0,0
0,0,0,0,0,0,0,0,0,0,0,0,0,0,0,0,0,0,0,0,0,0,0,0,0,0,0,0,0,0,0,0,0,0,0,0,0,0,0,0,0,0,0,0,0,0,0,0,0,0,0,0,0,0,0,0,0,0,0,0,0,0,0,0,0,0,0,0,0,0,0,0,0,0,0,0,0,0,0,0,0,0,0,0,0,0,0,0,0,0,0,0,0,0,0,0,0,0,0,0,0,0,0,0,0,0,0,0,0,0,0,0,0,0,0,0,0,0,0,0,0,0,0,0,0,0,0,0,0,0,0,0,0,0,0,0,0,0,0,0,0,0,0,0,0,0,0,0,0,0,0,0,0,0,0,0,0,0,0,0,0,0,0,0,0,0,0,0,0,0,0,0,0,0,0,0,0,0,0,0,0,0,0,0,0,0,0,0,0,0,0,0,0,0,0,0,0,0,0,0,0,0,0,0,0,0,0,0,0,0,0,0,0,0,0,0,0,0,0,0,0,0,0,0,0,0,0,0,0,0,0,0,0,0,0,0,0,0,0,0,0,0,0,0,0,0,0,0,0,0,0,0,0,0,0,0,0,0,0,0,0,0,0,0,0,0,0,0,0,0,0,0,0,0,0,0,0,0,0,0,0,0,0,0,0,0,0,0,0,0,0,0,0,0,0,0,0,0,0,0,0,0,0,0,0,0,0,0,0,0,0,0,0,0,0,0,0,0,0,0,0,0,0,0,0,0,0,0,0,0,0,0,0,0,0,0,0,0,0,0,0,0,0,0,0,0,0,0,0,0,0,0,0,0,0,0,0,0,0,0,0,0,0,0,0,0,0,0,0,0,0,0,1038,1034,1034,1034,1031,1031,1031,1031,1034,1034,1038,1038,1038,1038,1038,1038,1034,1034,1034,1034,1034,1034,1034,1034,1034,1034,1034,1034,1034,1034,1031,1031,1031,1031,1031,1028,1028,1028,1028,1028,1028,1028,1028,1028,1028,1028,1028,1028,1028,1028,1028,1028,1028,1028,1025,1025,1025,1025,1025,1025,1025,1025,1025,1022,1022,1022,1022,1022,1022,1019,1019,1019,1022,1022,1022,1022,1025,1025,1022,1022,1022,1019,1016,1016,1016,1016,1016,1016,1016,1016,1016,1016,1016,1016,1016,1016,1016,1016,1013,1013,1013,1013,1016,1016,1016,1016,1016,1013,1013,1016,1016,1016,1016,1016,1016,1016,964,964,964,967,967,967,967,967,1010,1010,1010,1010,1010,1010,1013,1013,1013,1013,1013,1013,1016,1016,1016,896,896,894,894,894,894,894,891,889,889,887,887,887,885,885,885,885,887,887,887,887,887,887,887,887,887,887,0,0,0,0,0,0,0,0,0,918,918,913,910,908,906,903,901,901,901,898,898,896,894,891,889,889,887,887,885,882,880,880,878,875,875,875,871,871,871,869,864,862,862,860,858,856,856,854,854,851,851,849,849,847,845,843,841,839,837,837,837,837,835,835,0,0,0,0,0,0,0,0,0,0,0,0,0,0,0,0,0,0,0,0,0,0,0,0,0,0,0,0,0,0,0,0,0,0,0,0,0,0
0,0,0,0,0,0,0,0,0,0,0,0,0,0,0,0,0,0,0,0,0,0,0,0,0,0,0,0,0,0,0,0,0,0,0,0,0,0,0,0,0,0,0,0,0,0,0,0,0,0,0,0,0,0,0,0,0,0,0,0,0,0,0,0,0,0,0,0,0,0,0,0,0,0,0,0,0,0,0,0,0,0,0,0,0,0,0,0,0,0,0,0,0,0,0,0,0,0,0,0,0,0,0,0,0,0,0,0,0,0,0,0,0,0,0,0,0,0,0,0,0,0,0,0,0,0,0,0,0,0,0,0,0,0,0,0,0,0,0,0,0,0,0,0,0,0,0,0,0,0,0,0,0,0,0,0,0,0,0,0,0,0,0,0,0,0,0,0,0,0,0,0,0,0,0,0,0,0,0,0,0,0,0,0,0,0,0,0,0,0,0,0,0,0,0,0,0,0,0,0,0,0,0,0,0,0,0,0,0,0,0,0,0,0,0,0,0,0,0,0,0,0,0,0,0,0,0,0,0,0,0,0,0,0,0,0,0,0,0,0,0,0,0,0,0,0,0,0,0,0,0,0,0,0,0,0,0,0,0,0,0,0,0,0,0,0,0,0,0,0,0,0,0,0,0,0,0,0,0,0,0,0,0,0,0,0,0,0,0,0,0,0,0,0,0,0,0,0,0,0,0,0,0,0,0,0,0,0,0,0,0,0,0,0,0,0,0,0,0,0,0,0,0,0,0,0,0,0,0,0,0,0,0,0,0,0,0,0,0,0,0,0,0,0,0,0,0,0,0,0,0,0,0,0,0,0,0,0,0,0,0,0,0,0,0,0,0,0,0,0,0,0,0,0,0,0,0,0,0,0,0,0,0,0,0,0,0,0,0,0,0,0,0,0,0,0,0,0,0,0,0,0,0,0,0,0,0,0,0,0,0,0,0,0,0,0,0,0,0,0,0,0,0,0,0,0,0,0,1025,1025,1025,1025,1025,1025,1025,1022,1022,1022,1022,1022,1022,1019,1019,1019,1022,1022,1022,1022,1025,1025,1022,1022,1022,1019,1016,1016,1016,1016,1016,1016,1019,1019,1016,1016,1016,1016,1016,1016,1016,1016,1013,1013,1013,1013,1016,1016,1016,1016,1016,1013,1013,1013,1013,1013,1013,1013,1016,0,0,967,964,964,964,964,964,967,0,1010,1010,1010,1010,1010,1013,1010,1010,1013,1013,1013,0,0,0,0,896,894,894,894,894,894,894,891,891,889,887,887,885,885,882,882,885,885,885,885,885,885,885,885,882,882,0,0,0,0,0,0,0,0,0,0,0,913,910,908,906,903,901,901,901,898,898,896,896,894,889,889,887,887,885,882,880,878,878,875,873,873,871,871,871,869,864,862,862,860,858,856,856,854,854,851,851,849,849,847,845,843,839,839,837,837,837,837,835,835,0,0,0,0,0,0,0,0,0,0,0,0,0,0,0,0,0,0,0,0,0,0,0,0,0,0,0,0,0,0,0,0,0,0,0,0,0,0
0,0,0,0,0,0,0,0,0,0,0,0,0,0,0,0,0,0,0,0,0,0,0,0,0,0,0,0,0,0,0,0,0,0,0,0,0,0,0,0,0,0,0,0,0,0,0,0,0,0,0,0,0,0,0,0,0,0,0,0,0,0,0,0,0,0,0,0,0,0,0,0,0,0,0,0,0,0,0,0,0,0,0,0,0,0,0,0,0,0,0,0,0,0,0,0,0,0,0,0,0,0,0,0,0,0,0,0,0,0,0,0,0,0,0,0,0,0,0,0,0,0,0,0,0,0,0,0,0,0,0,0,0,0,0,0,0,0,0,0,0,0,0,0,0,0,0,0,0,0,0,0,0,0,0,0,0,0,0,0,0,0,0,0,0,0,0,0,0,0,0,0,0,0,0,0,0,0,0,0,0,0,0,0,0,0,0,0,0,0,0,0,0,0,0,0,0,0,0,0,0,0,0,0,0,0,0,0,0,0,0,0,0,0,0,0,0,0,0,0,0,0,0,0,0,0,0,0,0,0,0,0,0,0,0,0,0,0,0,0,0,0,0,0,0,0,0,0,0,0,0,0,0,0,0,0,0,0,0,0,0,0,0,0,0,0,0,0,0,0,0,0,0,0,0,0,0,0,0,0,0,0,0,0,0,0,0,0,0,0,0,0,0,0,0,0,0,0,0,0,0,0,0,0,0,0,0,0,0,0,0,0,0,0,0,0,0,0,0,0,0,0,0,0,0,0,0,0,0,0,0,0,0,0,0,0,0,0,0,0,0,0,0,0,0,0,0,0,0,0,0,0,0,0,0,0,0,0,0,0,0,0,0,0,0,0,0,0,0,0,0,0,0,0,0,0,0,0,0,0,0,0,0,0,0,0,0,0,0,0,0,0,0,0,0,0,0,0,0,0,0,0,0,0,0,0,0,0,0,0,0,0,0,0,0,0,0,0,0,0,0,0,0,0,0,0,0,0,0,0,0,0,0,0,0,0,0,0,0,0,0,0,0,0,0,0,0,0,0,0,0,0,0,0,0,0,0,0,0,0,0,0,0,0,0,0,0,0,0,0,0,0,0,0,0,0,0,0,0,0,1013,1013,1013,1013,1013,1013,1016,0,0,967,964,964,964,964,964,0,0,1013,1010,1010,1010,1010,1013,1010,1010,1013,1016,0,0,0,0,0,896,896,896,896,896,896,896,894,894,891,889,889,887,885,882,882,882,882,882,882,882,882,882,882,880,880,0,0,0,0,0,0,0,0,0,0,0,0,0,908,906,903,901,901,901,898,898,896,896,894,891,889,887,887,882,880,878,878,878,875,873,873,871,869,869,869,864,862,862,860,858,856,856,854,854,851,851,851,849,847,845,843,839,839,837,837,837,837,835,835,0,0,0,0,0,0,0,0,0,0,0,0,0,0,0,0,0,0,0,0,0,0,0,0,0,0,0,0,0,0,0,0,0,0,0,0,0,0
0,0,0,0,0,0,0,0,0,0,0,0,0,0,0,0,0,0,0,0,0,0,0,0,0,0,0,0,0,0,0,0,0,0,0,0,0,0,0,0,0,0,0,0,0,0,0,0,0,0,0,0,0,0,0,0,0,0,0,0,0,0,0,0,0,0,0,0,0,0,0,0,0,0,0,0,0,0,0,0,0,0,0,0,0,0,0,0,0,0,0,0,0,0,0,0,0,0,0,0,0,0,0,0,0,0,0,0,0,0,0,0,0,0,0,0,0,0,0,0,0,0,0,0,0,0,0,0,0,0,0,0,0,0,0,0,0,0,0,0,0,0,0,0,0,0,0,0,0,0,0,0,0,0,0,0,0,0,0,0,0,0,0,0,0,0,0,0,0,0,0,0,0,0,0,0,0,0,0,0,0,0,0,0,0,0,0,0,0,0,0,0,0,0,0,0,0,0,0,0,0,0,0,0,0,0,0,0,0,0,0,0,0,0,0,0,0,0,0,0,0,0,0,0,0,0,0,0,0,0,0,0,0,0,0,0,0,0,0,0,0,0,0,0,0,0,0,0,0,0,0,0,0,0,0,0,0,0,0,0,0,0,0,0,0,0,0,0,0,0,0,0,0,0,0,0,0,0,0,0,0,0,0,0,0,0,0,0,0,0,0,0,0,0,0,0,0,0,0,0,0,0,0,0,0,0,0,0,0,0,0,0,0,0,0,0,0,0,0,0,0,0,0,0,0,0,0,0,0,0,0,0,0,0,0,0,0,0,0,0,0,0,0,0,0,0,0,0,0,0,0,0,0,0,0,0,0,0,0,0,0,0,0,0,0,0,0,0,0,0,0,0,0,0,0,0,0,0,0,0,0,0,0,0,0,0,0,0,0,0,0,0,0,0,0,0,0,0,0,0,0,0,0,0,0,0,0,0,0,0,0,0,0,0,0,0,0,0,0,0,0,0,0,0,0,0,0,0,0,0,0,0,0,0,0,0,0,0,0,0,0,0,0,0,0,0,0,0,0,0,0,0,0,0,0,0,0,0,0,0,0,0,0,0,0,0,0,0,0,0,0,0,0,0,0,0,0,0,0,0,0,0,0,0,0,0,0,0,0,0,0,0,0,0,0,0,0,0,0,0,0,0,0,0,0,0,0,0,0,0,0,0,0,0,0,0,0,0,0,0,0,0,0,0,0,0,0,882,882,882,882,882,882,882,882,882,880,880,0,0,0,0,0,0,0,0,0,0,0,0,0,0,0,903,901,901,901,898,898,898,896,894,891,889,887,887,882,880,878,878,878,875,873,873,871,869,869,869,867,864,862,860,860,856,856,854,854,854,854,851,851,849,845,845,841,839,837,837,837,835,833,833,0,0,0,0,0,0,0,0,0,0,0,0,0,0,0,0,0,0,0,0,0,0,0,0,0,0,0,0,0,0,0,0,0,0,0,0,0,0
0,0,0,0,0,0,0,0,0,0,0,0,0,0,0,0,0,0,0,0,0,0,0,0,0,0,0,0,0,0,0,0,0,0,0,0,0,0,0,0,0,0,0,0,0,0,0,0,0,0,0,0,0,0,0,0,0,0,0,0,0,0,0,0,0,0,0,0,0,0,0,0,0,0,0,0,0,0,0,0,0,0,0,0,0,0,0,0,0,0,0,0,0,0,0,0,0,0,0,0,0,0,0,0,0,0,0,0,0,0,0,0,0,0,0,0,0,0,0,0,0,0,0,0,0,0,0,0,0,0,0,0,0,0,0,0,0,0,0,0,0,0,0,0,0,0,0,0,0,0,0,0,0,0,0,0,0,0,0,0,0,0,0,0,0,0,0,0,0,0,0,0,0,0,0,0,0,0,0,0,0,0,0,0,0,0,0,0,0,0,0,0,0,0,0,0,0,0,0,0,0,0,0,0,0,0,0,0,0,0,0,0,0,0,0,0,0,0,0,0,0,0,0,0,0,0,0,0,0,0,0,0,0,0,0,0,0,0,0,0,0,0,0,0,0,0,0,0,0,0,0,0,0,0,0,0,0,0,0,0,0,0,0,0,0,0,0,0,0,0,0,0,0,0,0,0,0,0,0,0,0,0,0,0,0,0,0,0,0,0,0,0,0,0,0,0,0,0,0,0,0,0,0,0,0,0,0,0,0,0,0,0,0,0,0,0,0,0,0,0,0,0,0,0,0,0,0,0,0,0,0,0,0,0,0,0,0,0,0,0,0,0,0,0,0,0,0,0,0,0,0,0,0,0,0,0,0,0,0,0,0,0,0,0,0,0,0,0,0,0,0,0,0,0,0,0,0,0,0,0,0,0,0,0,0,0,0,0,0,0,0,0,0,0,0,0,0,0,0,0,0,0,0,0,0,0,0,0,0,0,0,0,0,0,0,0,0,0,0,0,0,0,0,0,0,0,0,0,0,0,0,0,0,0,0,0,0,0,0,0,0,0,0,0,0,0,0,0,0,0,0,0,0,0,0,0,0,0,0,0,0,0,0,0,0,0,0,0,0,0,0,0,0,0,0,0,0,0,0,0,0,0,0,0,0,0,0,0,0,0,0,0,0,0,0,0,0,0,0,0,0,0,0,0,0,0,0,0,0,0,0,0,0,0,0,0,0,0,0,0,0,0,0,0,0,0,0,0,0,0,0,0,0,0,0,0,0,0,0,0,0,0,0,0,0,0,0,0,0,0,0,0,0,0,0,0,0,0,0,0,0,0,0,0,0,0,0,0,0,0,0,0,0,0,0,871,869,869,867,864,862,862,860,856,856,854,854,854,854,851,851,851,847,845,841,841,839,837,837,835,833,833,0,0,0,0,0,0,0,0,0,0,0,0,0,0,0,0,0,0,0,0,0,0,0,0,0,0,0,0,0,0,0,0,0,0,0,0,0,0
0,0,0,0,0,0,0,0,0,0,0,0,0,0,0,0,0,0,0,0,0,0,0,0,0,0,0,0,0,0,0,0,0,0,0,0,0,0,0,0,0,0,0,0,0,0,0,0,0,0,0,0,0,0,0,0,0,0,0,0,0,0,0,0,0,0,0,0,0,0,0,0,0,0,0,0,0,0,0,0,0,0,0,0,0,0,0,0,0,0,0,0,0,0,0,0,0,0,0,0,0,0,0,0,0,0,0,0,0,0,0,0,0,0,0,0,0,0,0,0,0,0,0,0,0,0,0,0,0,0,0,0,0,0,0,0,0,0,0,0,0,0,0,0,0,0,0,0,0,0,0,0,0,0,0,0,0,0,0,0,0,0,0,0,0,0,0,0,0,0,0,0,0,0,0,0,0,0,0,0,0,0,0,0,0,0,0,0,0,0,0,0,0,0,0,0,0,0,0,0,0,0,0,0,0,0,0,0,0,0,0,0,0,0,0,0,0,0,0,0,0,0,0,0,0,0,0,0,0,0,0,0,0,0,0,0,0,0,0,0,0,0,0,0,0,0,0,0,0,0,0,0,0,0,0,0,0,0,0,0,0,0,0,0,0,0,0,0,0,0,0,0,0,0,0,0,0,0,0,0,0,0,0,0,0,0,0,0,0,0,0,0,0,0,0,0,0,0,0,0,0,0,0,0,0,0,0,0,0,0,0,0,0,0,0,0,0,0,0,0,0,0,0,0,0,0,0,0,0,0,0,0,0,0,0,0,0,0,0,0,0,0,0,0,0,0,0,0,0,0,0,0,0,0,0,0,0,0,0,0,0,0,0,0,0,0,0,0,0,0,0,0,0,0,0,0,0,0,0,0,0,0,0,0,0,0,0,0,0,0,0,0,0,0,0,0,0,0,0,0,0,0,0,0,0,0,0,0,0,0,0,0,0,0,0,0,0,0,0,0,0,0,0,0,0,0,0,0,0,0,0,0,0,0,0,0,0,0,0,0,0,0,0,0,0,0,0,0,0,0,0,0,0,0,0,0,0,0,0,0,0,0,0,0,0,0,0,0,0,0,0,0,0,0,0,0,0,0,0,0,0,0,0,0,0,0,0,0,0,0,0,0,0,0,0,0,0,0,0,0,0,0,0,0,0,0,0,0,0,0,0,0,0,0,0,0,0,0,0,0,0,0,0,0,0,0,0,0,0,0,0,0,0,0,0,0,0,0,0,0,0,0,0,0,0,0,0,0,0,0,0,0,0,0,0,0,0,0,0,0,0,0,0,0,0,0,0,0,0,0,0,0,0,0,0,0,0,0,0,0,0,0,0,0,0,0,0,0,0,0,0,0,0,0,0,0,0,0,0,0,0,0,0,0,0,0,0,0,0,0,0,0,0,0,0,0,0,0,0,0,0,0,0,0,0,0,0,0,0,0,0,0,0,0,0,0,0,0,0,0
0,0,0,0,0,0,0,0,0,0,0,0,0,0,0,0,0,0,0,0,0,0,0,0,0,0,0,0,0,0,0,0,0,0,0,0,0,0,0,0,0,0,0,0,0,0,0,0,0,0,0,0,0,0,0,0,0,0,0,0,0,0,0,0,0,0,0,0,0,0,0,0,0,0,0,0,0,0,0,0,0,0,0,0,0,0,0,0,0,0,0,0,0,0,0,0,0,0,0,0,0,0,0,0,0,0,0,0,0,0,0,0,0,0,0,0,0,0,0,0,0,0,0,0,0,0,0,0,0,0,0,0,0,0,0,0,0,0,0,0,0,0,0,0,0,0,0,0,0,0,0,0,0,0,0,0,0,0,0,0,0,0,0,0,0,0,0,0,0,0,0,0,0,0,0,0,0,0,0,0,0,0,0,0,0,0,0,0,0,0,0,0,0,0,0,0,0,0,0,0,0,0,0,0,0,0,0,0,0,0,0,0,0,0,0,0,0,0,0,0,0,0,0,0,0,0,0,0,0,0,0,0,0,0,0,0,0,0,0,0,0,0,0,0,0,0,0,0,0,0,0,0,0,0,0,0,0,0,0,0,0,0,0,0,0,0,0,0,0,0,0,0,0,0,0,0,0,0,0,0,0,0,0,0,0,0,0,0,0,0,0,0,0,0,0,0,0,0,0,0,0,0,0,0,0,0,0,0,0,0,0,0,0,0,0,0,0,0,0,0,0,0,0,0,0,0,0,0,0,0,0,0,0,0,0,0,0,0,0,0,0,0,0,0,0,0,0,0,0,0,0,0,0,0,0,0,0,0,0,0,0,0,0,0,0,0,0,0,0,0,0,0,0,0,0,0,0,0,0,0,0,0,0,0,0,0,0,0,0,0,0,0,0,0,0,0,0,0,0,0,0,0,0,0,0,0,0,0,0,0,0,0,0,0,0,0,0,0,0,0,0,0,0,0,0,0,0,0,0,0,0,0,0,0,0,0,0,0,0,0,0,0,0,0,0,0,0,0,0,0,0,0,0,0,0,0,0,0,0,0,0,0,0,0,0,0,0,0,0,0,0,0,0,0,0,0,0,0,0,0,0,0,0,0,0,0,0,0,0,0,0,0,0,0,0,0,0,0,0,0,0,0,0,0,0,0,0,0,0,0,0,0,0,0,0,0,0,0,0,0,0,0,0,0,0,0,0,0,0,0,0,0,0,0,0,0,0,0,0,0,0,0,0,0,0,0,0,0,0,0,0,0,0,0,0,0,0,0,0,0,0,0,0,0,0,0,0,0,0,0,0,0,0,0,0,0,0,0,0,0,0,0,0,0,0,0,0,0,0,0,0,0,0,0,0,0,0,0,0,0,0,0,0,0,0,0,0,0,0,0,0,0,0,0,0,0,0,0,0,0,0,0,0,0,0,0,0,0,0,0,0,0,0,0,0,0,0,0,0,0
0,0,0,0,0,0,0,0,0,0,0,0,0,0,0,0,0,0,0,0,0,0,0,0,0,0,0,0,0,0,0,0,0,0,0,0,0,0,0,0,0,0,0,0,0,0,0,0,0,0,0,0,0,0,0,0,0,0,0,0,0,0,0,0,0,0,0,0,0,0,0,0,0,0,0,0,0,0,0,0,0,0,0,0,0,0,0,0,0,0,0,0,0,0,0,0,0,0,0,0,0,0,0,0,0,0,0,0,0,0,0,0,0,0,0,0,0,0,0,0,0,0,0,0,0,0,0,0,0,0,0,0,0,0,0,0,0,0,0,0,0,0,0,0,0,0,0,0,0,0,0,0,0,0,0,0,0,0,0,0,0,0,0,0,0,0,0,0,0,0,0,0,0,0,0,0,0,0,0,0,0,0,0,0,0,0,0,0,0,0,0,0,0,0,0,0,0,0,0,0,0,0,0,0,0,0,0,0,0,0,0,0,0,0,0,0,0,0,0,0,0,0,0,0,0,0,0,0,0,0,0,0,0,0,0,0,0,0,0,0,0,0,0,0,0,0,0,0,0,0,0,0,0,0,0,0,0,0,0,0,0,0,0,0,0,0,0,0,0,0,0,0,0,0,0,0,0,0,0,0,0,0,0,0,0,0,0,0,0,0,0,0,0,0,0,0,0,0,0,0,0,0,0,0,0,0,0,0,0,0,0,0,0,0,0,0,0,0,0,0,0,0,0,0,0,0,0,0,0,0,0,0,0,0,0,0,0,0,0,0,0,0,0,0,0,0,0,0,0,0,0,0,0,0,0,0,0,0,0,0,0,0,0,0,0,0,0,0,0,0,0,0,0,0,0,0,0,0,0,0,0,0,0,0,0,0,0,0,0,0,0,0,0,0,0,0,0,0,0,0,0,0,0,0,0,0,0,0,0,0,0,0,0,0,0,0,0,0,0,0,0,0,0,0,0,0,0,0,0,0,0,0,0,0,0,0,0,0,0,0,0,0,0,0,0,0,0,0,0,0,0,0,0,0,0,0,0,0,0,0,0,0,0,0,0,0,0,0,0,0,0,0,0,0,0,0,0,0,0,0,0,0,0,0,0,0,0,0,0,0,0,0,0,0,0,0,0,0,0,0,0,0,0,0,0,0,0,0,0,0,0,0,0,0,0,0,0,0,0,0,0,0,0,0,0,0,0,0,0,0,0,0,0,0,0,0,0,0,0,0,0,0,0,0,0,0,0,0,0,0,0,0,0,0,0,0,0,0,0,0,0,0,0,0,0,0,0,0,0,0,0,0,0,0,0,0,0,0,0,0,0,0,0,0,0,0,0,0,0,0,0,0,0,0,0,0,0,0,0,0,0,0,0,0,0,0,0,0,0,0,0,0,0,0,0,0,0,0,0,0,0,0,0,0,0,0,0,0,0,0,0,0,0,0,0,0,0,0,0,0
0,0,0,0,0,0,0,0,0,0,0,0,0,0,0,0,0,0,0,0,0,0,0,0,0,0,0,0,0,0,0,0,0,0,0,0,0,0,0,0,0,0,0,0,0,0,0,0,0,0,0,0,0,0,0,0,0,0,0,0,0,0,0,0,0,0,0,0,0,0,0,0,0,0,0,0,0,0,0,0,0,0,0,0,0,0,0,0,0,0,0,0,0,0,0,0,0,0,0,0,0,0,0,0,0,0,0,0,0,0,0,0,0,0,0,0,0,0,0,0,0,0,0,0,0,0,0,0,0,0,0,0,0,0,0,0,0,0,0,0,0,0,0,0,0,0,0,0,0,0,0,0,0,0,0,0,0,0,0,0,0,0,0,0,0,0,0,0,0,0,0,0,0,0,0,0,0,0,0,0,0,0,0,0,0,0,0,0,0,0,0,0,0,0,0,0,0,0,0,0,0,0,0,0,0,0,0,0,0,0,0,0,0,0,0,0,0,0,0,0,0,0,0,0,0,0,0,0,0,0,0,0,0,0,0,0,0,0,0,0,0,0,0,0,0,0,0,0,0,0,0,0,0,0,0,0,0,0,0,0,0,0,0,0,0,0,0,0,0,0,0,0,0,0,0,0,0,0,0,0,0,0,0,0,0,0,0,0,0,0,0,0,0,0,0,0,0,0,0,0,0,0,0,0,0,0,0,0,0,0,0,0,0,0,0,0,0,0,0,0,0,0,0,0,0,0,0,0,0,0,0,0,0,0,0,0,0,0,0,0,0,0,0,0,0,0,0,0,0,0,0,0,0,0,0,0,0,0,0,0,0,0,0,0,0,0,0,0,0,0,0,0,0,0,0,0,0,0,0,0,0,0,0,0,0,0,0,0,0,0,0,0,0,0,0,0,0,0,0,0,0,0,0,0,0,0,0,0,0,0,0,0,0,0,0,0,0,0,0,0,0,0,0,0,0,0,0,0,0,0,0,0,0,0,0,0,0,0,0,0,0,0,0,0,0,0,0,0,0,0,0,0,0,0,0,0,0,0,0,0,0,0,0,0,0,0,0,0,0,0,0,0,0,0,0,0,0,0,0,0,0,0,0,0,0,0,0,0,0,0,0,0,0,0,0,0,0,0,0,0,0,0,0,0,0,0,0,0,0,0,0,0,0,0,0,0,0,0,0,0,0,0,0,0,0,0,0,0,0,0,0,0,0,0,0,0,0,0,0,0,0,0,0,0,0,0,0,0,0,0,0,0,0,0,0,0,0,0,0,0,0,0,0,0,0,0,0,0,0,0,0,0,0,0,0,0,0,0,0,0,0,0,0,0,0,0,0,0,0,0,0,0,0,0,0,0,0,0,0,0,0,0,0,0,0,0,0,0,0,0,0,0,0,0,0,0,0,0,0,0,0,0,0,0,0,0,0,0,0,0,0,0,0,0,0,0,0,0,0,0
0,0,0,0,0,0,0,0,0,0,0,0,0,0,0,0,0,0,0,0,0,0,0,0,0,0,0,0,0,0,0,0,0,0,0,0,0,0,0,0,0,0,0,0,0,0,0,0,0,0,0,0,0,0,0,0,0,0,0,0,0,0,0,0,0,0,0,0,0,0,0,0,0,0,0,0,0,0,0,0,0,0,0,0,0,0,0,0,0,0,0,0,0,0,0,0,0,0,0,0,0,0,0,0,0,0,0,0,0,0,0,0,0,0,0,0,0,0,0,0,0,0,0,0,0,0,0,0,0,0,0,0,0,0,0,0,0,0,0,0,0,0,0,0,0,0,0,0,0,0,0,0,0,0,0,0,0,0,0,0,0,0,0,0,0,0,0,0,0,0,0,0,0,0,0,0,0,0,0,0,0,0,0,0,0,0,0,0,0,0,0,0,0,0,0,0,0,0,0,0,0,0,0,0,0,0,0,0,0,0,0,0,0,0,0,0,0,0,0,0,0,0,0,0,0,0,0,0,0,0,0,0,0,0,0,0,0,0,0,0,0,0,0,0,0,0,0,0,0,0,0,0,0,0,0,0,0,0,0,0,0,0,0,0,0,0,0,0,0,0,0,0,0,0,0,0,0,0,0,0,0,0,0,0,0,0,0,0,0,0,0,0,0,0,0,0,0,0,0,0,0,0,0,0,0,0,0,0,0,0,0,0,0,0,0,0,0,0,0,0,0,0,0,0,0,0,0,0,0,0,0,0,0,0,0,0,0,0,0,0,0,0,0,0,0,0,0,0,0,0,0,0,0,0,0,0,0,0,0,0,0,0,0,0,0,0,0,0,0,0,0,0,0,0,0,0,0,0,0,0,0,0,0,0,0,0,0,0,0,0,0,0,0,0,0,0,0,0,0,0,0,0,0,0,0,0,0,0,0,0,0,0,0,0,0,0,0,0,0,0,0,0,0,0,0,0,0,0,0,0,0,0,0,0,0,0,0,0,0,0,0,0,0,0,0,0,0,0,0,0,0,0,0,0,0,0,0,0,0,0,0,0,0,0,0,0,0,0,0,0,0,0,0,0,0,0,0,0,0,0,0,0,0,0,0,0,0,0,0,0,0,0,0,0,0,0,0,0,0,0,0,0,0,0,0,0,0,0,0,0,0,0,0,0,0,0,0,0,0,0,0,0,0,0,0,0,0,0,0,0,0,0,0,0,0,0,0,0,0,0,0,0,0,0,0,0,0,0,0,0,0,0,0,0,0,0,0,0,0,0,0,0,0,0,0,0,0,0,0,0,0,0,0,0,0,0,0,0,0,0,0,0,0,0,0,0,0,0,0,0,0,0,0,0,0,0,0,0,0,0,0,0,0,0,0,0,0,0,0,0,0,0,0,0,0,0,0,0,0,0,0,0,0,0,0,0,0,0,0,0,0,0,0,0,0,0,0,0,0,0
0,0,0,0,0,0,0,0,0,0,0,0,0,0,0,0,0,0,0,0,0,0,0,0,0,0,0,0,0,0,0,0,0,0,0,0,0,0,0,0,0,0,0,0,0,0,0,0,0,0,0,0,0,0,0,0,0,0,0,0,0,0,0,0,0,0,0,0,0,0,0,0,0,0,0,0,0,0,0,0,0,0,0,0,0,0,0,0,0,0,0,0,0,0,0,0,0,0,0,0,0,0,0,0,0,0,0,0,0,0,0,0,0,0,0,0,0,0,0,0,0,0,0,0,0,0,0,0,0,0,0,0,0,0,0,0,0,0,0,0,0,0,0,0,0,0,0,0,0,0,0,0,0,0,0,0,0,0,0,0,0,0,0,0,0,0,0,0,0,0,0,0,0,0,0,0,0,0,0,0,0,0,0,0,0,0,0,0,0,0,0,0,0,0,0,0,0,0,0,0,0,0,0,0,0,0,0,0,0,0,0,0,0,0,0,0,0,0,0,0,0,0,0,0,0,0,0,0,0,0,0,0,0,0,0,0,0,0,0,0,0,0,0,0,0,0,0,0,0,0,0,0,0,0,0,0,0,0,0,0,0,0,0,0,0,0,0,0,0,0,0,0,0,0,0,0,0,0,0,0,0,0,0,0,0,0,0,0,0,0,0,0,0,0,0,0,0,0,0,0,0,0,0,0,0,0,0,0,0,0,0,0,0,0,0,0,0,0,0,0,0,0,0,0,0,0,0,0,0,0,0,0,0,0,0,0,0,0,0,0,0,0,0,0,0,0,0,0,0,0,0,0,0,0,0,0,0,0,0,0,0,0,0,0,0,0,0,0,0,0,0,0,0,0,0,0,0,0,0,0,0,0,0,0,0,0,0,0,0,0,0,0,0,0,0,0,0,0,0,0,0,0,0,0,0,0,0,0,0,0,0,0,0,0,0,0,0,0,0,0,0,0,0,0,0,0,0,0,0,0,0,0,0,0,0,0,0,0,0,0,0,0,0,0,0,0,0,0,0,0,0,0,0,0,0,0,0,0,0,0,0,0,0,0,0,0,0,0,0,0,0,0,0,0,0,0,0,0,0,0,0,0,0,0,0,0,0,0,0,0,0,0,0,0,0,0,0,0,0,0,0,0,0,0,0,0,0,0,0,0,0,0,0,0,0,0,0,0,0,0,0,0,0,0,0,0,0,0,0,0,0,0,0,0,0,0,0,0,0,0,0,0,0,0,0,0,0,0,0,0,0,0,0,0,0,0,0,0,0,0,0,0,0,0,0,0,0,0,0,0,0,0,0,0,0,0,0,0,0,0,0,0,0,0,0,0,0,0,0,0,0,0,0,0,0,0,0,0,0,0,0,0,0,0,0,0,0,0,0,0,0,0,0,0,0,0,0,0,0,0,0,0,0,0,0,0,0,0,0,0,0,0,0,0,0,0,0,0,0,0
0,0,0,0,0,0,0,0,0,0,0,0,0,0,0,0,0,0,0,0,0,0,0,0,0,0,0,0,0,0,0,0,0,0,0,0,0,0,0,0,0,0,0,0,0,0,0,0,0,0,0,0,0,0,0,0,0,0,0,0,0,0,0,0,0,0,0,0,0,0,0,0,0,0,0,0,0,0,0,0,0,0,0,0,0,0,0,0,0,0,0,0,0,0,0,0,0,0,0,0,0,0,0,0,0,0,0,0,0,0,0,0,0,0,0,0,0,0,0,0,0,0,0,0,0,0,0,0,0,0,0,0,0,0,0,0,0,0,0,0,0,0,0,0,0,0,0,0,0,0,0,0,0,0,0,0,0,0,0,0,0,0,0,0,0,0,0,0,0,0,0,0,0,0,0,0,0,0,0,0,0,0,0,0,0,0,0,0,0,0,0,0,0,0,0,0,0,0,0,0,0,0,0,0,0,0,0,0,0,0,0,0,0,0,0,0,0,0,0,0,0,0,0,0,0,0,0,0,0,0,0,0,0,0,0,0,0,0,0,0,0,0,0,0,0,0,0,0,0,0,0,0,0,0,0,0,0,0,0,0,0,0,0,0,0,0,0,0,0,0,0,0,0,0,0,0,0,0,0,0,0,0,0,0,0,0,0,0,0,0,0,0,0,0,0,0,0,0,0,0,0,0,0,0,0,0,0,0,0,0,0,0,0,0,0,0,0,0,0,0,0,0,0,0,0,0,0,0,0,0,0,0,0,0,0,0,0,0,0,0,0,0,0,0,0,0,0,0,0,0,0,0,0,0,0,0,0,0,0,0,0,0,0,0,0,0,0,0,0,0,0,0,0,0,0,0,0,0,0,0,0,0,0,0,0,0,0,0,0,0,0,0,0,0,0,0,0,0,0,0,0,0,0,0,0,0,0,0,0,0,0,0,0,0,0,0,0,0,0,0,0,0,0,0,0,0,0,0,0,0,0,0,0,0,0,0,0,0,0,0,0,0,0,0,0,0,0,0,0,0,0,0,0,0,0,0,0,0,0,0,0,0,0,0,0,0,0,0,0,0,0,0,0,0,0,0,0,0,0,0,0,0,0,0,0,0,0,0,0,0,0,0,0,0,0,0,0,0,0,0,0,0,0,0,0,0,0,0,0,0,0,0,0,0,0,0,0,0,0,0,0,0,0,0,0,0,0,0,0,0,0,0,0,0,0,0,0,0,0,0,0,0,0,0,0,0,0,0,0,0,0,0,0,0,0,0,0,0,0,0,0,0,0,0,0,0,0,0,0,0,0,0,0,0,0,0,0,0,0,0,0,0,0,0,0,0,0,0,0,0,0,0,0,0,0,0,0,0,0,0,0,0,0,0,0,0,0,0,0,0,0,0,0,0,0,0,0,0,0,0,0,0,0,0,0,0,0,0,0,0,0,0,0,0,0,0,0,0,0,0
0,0,0,0,0,0,0,0,0,0,0,0,0,0,0,0,0,0,0,0,0,0,0,0,0,0,0,0,0,0,0,0,0,0,0,0,0,0,0,0,0,0,0,0,0,0,0,0,0,0,0,0,0,0,0,0,0,0,0,0,0,0,0,0,0,0,0,0,0,0,0,0,0,0,0,0,0,0,0,0,0,0,0,0,0,0,0,0,0,0,0,0,0,0,0,0,0,0,0,0,0,0,0,0,0,0,0,0,0,0,0,0,0,0,0,0,0,0,0,0,0,0,0,0,0,0,0,0,0,0,0,0,0,0,0,0,0,0,0,0,0,0,0,0,0,0,0,0,0,0,0,0,0,0,0,0,0,0,0,0,0,0,0,0,0,0,0,0,0,0,0,0,0,0,0,0,0,0,0,0,0,0,0,0,0,0,0,0,0,0,0,0,0,0,0,0,0,0,0,0,0,0,0,0,0,0,0,0,0,0,0,0,0,0,0,0,0,0,0,0,0,0,0,0,0,0,0,0,0,0,0,0,0,0,0,0,0,0,0,0,0,0,0,0,0,0,0,0,0,0,0,0,0,0,0,0,0,0,0,0,0,0,0,0,0,0,0,0,0,0,0,0,0,0,0,0,0,0,0,0,0,0,0,0,0,0,0,0,0,0,0,0,0,0,0,0,0,0,0,0,0,0,0,0,0,0,0,0,0,0,0,0,0,0,0,0,0,0,0,0,0,0,0,0,0,0,0,0,0,0,0,0,0,0,0,0,0,0,0,0,0,0,0,0,0,0,0,0,0,0,0,0,0,0,0,0,0,0,0,0,0,0,0,0,0,0,0,0,0,0,0,0,0,0,0,0,0,0,0,0,0,0,0,0,0,0,0,0,0,0,0,0,0,0,0,0,0,0,0,0,0,0,0,0,0,0,0,0,0,0,0,0,0,0,0,0,0,0,0,0,0,0,0,0,0,0,0,0,0,0,0,0,0,0,0,0,0,0,0,0,0,0,0,0,0,0,0,0,0,0,0,0,0,0,0,0,0,0,0,0,0,0,0,0,0,0,0,0,0,0,0,0,0,0,0,0,0,0,0,0,0,0,0,0,0,0,0,0,0,0,0,0,0,0,0,0,0,0,0,0,0,0,0,0,0,0,0,0,0,0,0,0,0,0,0,0,0,0,0,0,0,0,0,0,0,0,0,0,0,0,0,0,0,0,0,0,0,0,0,0,0,0,0,0,0,0,0,0,0,0,0,0,0,0,0,0,0,0,0,0,0,0,0,0,0,0,0,0,0,0,0,0,0,0,0,0,0,0,0,0,0,0,0,0,0,0,0,0,0,0,0,0,0,0,0,0,0,0,0,0,0,0,0,0,0,0,0,0,0,0,0,0,0,0,0,0,0,0,0,0,0,0,0,0,0,0,0,0,0,0,0,0,0,0,0,0,0,0,0,0
0,0,0,0,0,0,0,0,0,0,0,0,0,0,0,0,0,0,0,0,0,0,0,0,0,0,0,0,0,0,0,0,0,0,0,0,0,0,0,0,0,0,0,0,0,0,0,0,0,0,0,0,0,0,0,0,0,0,0,0,0,0,0,0,0,0,0,0,0,0,0,0,0,0,0,0,0,0,0,0,0,0,0,0,0,0,0,0,0,0,0,0,0,0,0,0,0,0,0,0,0,0,0,0,0,0,0,0,0,0,0,0,0,0,0,0,0,0,0,0,0,0,0,0,0,0,0,0,0,0,0,0,0,0,0,0,0,0,0,0,0,0,0,0,0,0,0,0,0,0,0,0,0,0,0,0,0,0,0,0,0,0,0,0,0,0,0,0,0,0,0,0,0,0,0,0,0,0,0,0,0,0,0,0,0,0,0,0,0,0,0,0,0,0,0,0,0,0,0,0,0,0,0,0,0,0,0,0,0,0,0,0,0,0,0,0,0,0,0,0,0,0,0,0,0,0,0,0,0,0,0,0,0,0,0,0,0,0,0,0,0,0,0,0,0,0,0,0,0,0,0,0,0,0,0,0,0,0,0,0,0,0,0,0,0,0,0,0,0,0,0,0,0,0,0,0,0,0,0,0,0,0,0,0,0,0,0,0,0,0,0,0,0,0,0,0,0,0,0,0,0,0,0,0,0,0,0,0,0,0,0,0,0,0,0,0,0,0,0,0,0,0,0,0,0,0,0,0,0,0,0,0,0,0,0,0,0,0,0,0,0,0,0,0,0,0,0,0,0,0,0,0,0,0,0,0,0,0,0,0,0,0,0,0,0,0,0,0,0,0,0,0,0,0,0,0,0,0,0,0,0,0,0,0,0,0,0,0,0,0,0,0,0,0,0,0,0,0,0,0,0,0,0,0,0,0,0,0,0,0,0,0,0,0,0,0,0,0,0,0,0,0,0,0,0,0,0,0,0,0,0,0,0,0,0,0,0,0,0,0,0,0,0,0,0,0,0,0,0,0,0,0,0,0,0,0,0,0,0,0,0,0,0,0,0,0,0,0,0,0,0,0,0,0,0,0,0,0,0,0,0,0,0,0,0,0,0,0,0,0,0,0,0,0,0,0,0,0,0,0,0,0,0,0,0,0,0,0,0,0,0,0,0,0,0,0,0,0,0,0,0,0,0,0,0,0,0,0,0,0,0,0,0,0,0,0,0,0,0,0,0,0,0,0,0,0,0,0,0,0,0,0,0,0,0,0,0,0,0,0,0,0,0,0,0,0,0,0,0,0,0,0,0,0,0,0,0,0,0,0,0,0,0,0,0,0,0,0,0,0,0,0,0,0,0,0,0,0,0,0,0,0,0,0,0,0,0,0,0,0,0,0,0,0,0,0,0,0,0,0,0,0,0,0,0,0,0,0,0,0,0,0,0,0,0,0,0,0,0,0
