0,0,0,0,0,0,0,0,0,0,0,0,0,1477,1477,1477,1477,1470,1470,1470,1470,1464,1464,1464,1464,1470,1470,1470,1470,1470,1464,1464,1470,1470,1477,1477,1483,1483,1483,1489,1489,1489,1496,2053,2053,2040,2028,2016,2016,2016,2016,2016,2016,2016,2005,2005,2005,2005,1993,1981,1970,1970,1970,1970,1970,1496,1496,1496,1496,1489,1489,1489,1489,1489,1489,1489,1496,1503,1503,1503,1503,1509,1509,1509,1509,1509,1516,1516,1516,1523,1523,1523,1529,1536,1536,1536,1543,1543,1543,1550,1557,1564,1564,1564,1564,1572,1572,1572,1572,1579,1586,1586,1586,1586,1594,1594,1594,1594,1601,1601,1609,1616,1616,1624,1624,1624,1632,1632,1632,1632,1632,1639,1639,1639,1647,1647,1655,1655,1663,1663,1663,1663,1680,1680,1688,1688,1688,1688,1688,1688,1688,1696,1696,1696,1705,1713,1713,1722,1722,1722,1731,1731,1731,1731,1731,1731,1731,1731,1731,1722,1722,1722,1713,1713,1713,1705,1696,1688,1688,0,0,0,0,0,0,0,1044,1044,1041,1038,1038,1038,1034,1034,1034,1034,1034,1034,1034,1034,1038,1041,1041,1044,1047,1047,1047,1047,1050,1050,1050,0,1616,1616,1616,1624,1624,1616,1616,1616,1616,1616,1609,1609,1601,1601,1601,1601,1594,1594,1594,1594,1594,1594,1586,1586,1579,1579,1579,1572,1572,1564,1564,1564,1564,1564,1564,1557,1557,1557,1557,1557,1550,1550,1543,1543,1543,1543,1543,1536,1536,1536,1536,1529,1529,1523,1516,1516,1516,1509,1509,1509,1509,1509,1509,1509,1509,1509,1509,1503,1503,1503,1496,1489,1489,1489,1483,1483,1483,1477,1477,1470,1470,1470,1470,1470,1464,1464,1464,1464,1464,1458,1458,1458,1458,1452,1452,1452,1452,1452,0,0,0,0,0,0,887,887,887,887,887,885,885,882,882,880,880,878,873,873,873,873,873,873,875,878,878,880,882,885,887,889,889,889,891,0,0,0,0,0,1376,1376,1376,1376,1376,1376,1376,1376,1370,1370,1370,1370,1365,1365,1359,1359,1359,1354,1354,1354,1354,1349,1349,1349,1349,1349,1349,1349,1343,1343,1343,1343,1343,1338,1338,1333,1333,1333,1328,1328,1328,1328,1322,1322,1317,1317,1317,1312,1312,1312,1312,1307,1307,1307,1307,1307,1302,1302,1297,1297,1292,1292,1292,1288,1288,1288,1288,1288,1283,1283,1283,1278,1278,1273,1273,1273,1273,1268,1268,1268,1264,1264,1264,1264,1259,1259,1259,1255,1255,1255,1255,1250,1250,1250,1250,1250,1250,1250,1245,1245,1241,1241,1236,1236,1232,1232,1232,1232,1227,1227,1223,1223,1223,1219,1219,1219,1219,1219,1214,1214,1214,1210,1210,1210,1210,1206,1206,1202,1202,1202,1197,1197,1197,1193,1193,1193,1193,1189,1189,1185,1185,1185,1185,1181,1181,1181,1181,1181,1177,1177,1177,1173,1173,1173,1169,1169,1169,1165,1165,1165,1165,1165,1161,1161,1161,1157,1157,1153,1153,1153,1153,1149,1149,1149,1145,1145,1145,1145,1141,1141,1141,1138,1138,1134,1134,1134,1134,1134,1130,1130,1130,1130,1130,1130,1126,1123,1123,1123,1123,1119,1119,1119,1119,1119,1115,1115,1115,1112,1112,1112,1108,1108,1108,1105,1105,1105,1105,1105,1105,1101,1101,1097,1097,1097,1094,1094,1094,1094,1094,1090,1090,1090,1090,1090,1090,1090,1087,1087,1084,1084,1080,1080,1080,1077,1077,1077,1077,1077,1077,1077,1073,1073,1070,1070,1067,1067,1067,1067,1063,1063,1063,0,0,0,0,0,0,0,0,0,0,0,0,0,0,0,0,0,0,0,0,0,0,0,0,0,0,0,0,0
0,0,0,0,0,0,0,0,0,0,0,0,0,1477,1477,1477,1477,1470,1470,1470,1470,1464,1464,1464,1470,1470,1470,1470,1470,1470,1464,1464,1470,1470,1477,1477,1483,1483,1483,1489,1489,1489,1489,2053,2053,2040,2028,2028,2028,2016,2016,2016,2016,2016,2005,2005,2005,2005,1993,1981,1970,1970,1970,1981,1981,1496,1496,1496,1496,1496,1489,1489,1489,1489,1489,1496,1496,1503,1503,1503,1509,1509,1509,1509,1509,1509,1516,1529,1529,1523,1523,1523,1529,1536,1536,1536,1543,1543,1543,1550,1557,1564,1564,1564,1564,1572,1572,1572,1572,1579,1586,1586,1586,1586,1594,1594,1594,1594,1601,1601,1609,1616,1616,1624,1624,1624,1632,1632,1632,1632,1632,1639,1639,1647,1647,1647,1655,1655,1663,1663,1663,1663,1680,1680,1688,1688,1688,1688,1688,1688,1696,1696,1696,1696,1705,1713,1713,1722,1722,1722,1731,1731,1731,1731,1739,1739,1731,1731,1731,1722,1722,1722,1713,1713,1713,1705,1696,1688,1688,0,0,0,0,0,0,0,1044,1041,1041,1038,1038,1038,1038,1034,1034,1034,1034,1034,1034,1034,1038,1041,1041,1044,1047,1047,1047,1047,1047,1050,1632,0,1624,1624,1624,1624,1624,1624,1616,1616,1616,1616,1609,1609,1601,1601,1601,1601,1601,1594,1594,1594,1594,1594,1586,1586,1579,1579,1579,1572,1572,1572,1564,1564,1564,1564,1564,1557,1557,1557,1557,1557,1550,1550,1550,1550,1543,1543,1543,1543,1536,1536,1529,1529,1529,1523,1523,1516,1516,1509,1509,1509,1509,1509,1509,1509,1509,1509,1509,1509,1503,1503,1496,1489,1489,1489,1483,1483,1483,1483,1477,1477,1470,1470,1470,1470,1470,1470,1470,1464,1464,1464,1458,1458,1458,1452,1452,1458,1452,1452,0,0,0,0,0,0,887,887,887,887,887,885,885,882,882,880,880,878,875,873,873,873,873,873,875,878,878,880,882,885,887,889,889,889,891,0,0,0,0,1392,1387,1376,1376,1376,1376,1376,1376,1376,1370,1370,1370,1370,1370,1365,1365,1359,1359,1354,1354,1354,1354,1354,1349,1349,1349,1349,1349,1349,1343,1343,1343,1343,1343,1338,1333,1333,1333,1333,1328,1328,1328,1328,1322,1322,1317,1317,1317,1312,1312,1312,1312,1307,1307,1307,1307,1307,1302,1302,1297,1297,1292,1292,1292,1292,1288,1288,1288,1288,1288,1283,1283,1278,1278,1278,1273,1273,1273,1273,1273,1268,1268,1268,1268,1264,1264,1259,1259,1255,1255,1255,1255,1250,1250,1250,1250,1250,1250,1250,1245,1245,1241,1241,1236,1236,1232,1232,1232,1232,1227,1227,1223,1223,1223,1219,1219,1219,1219,1219,1214,1214,1214,1214,1210,1210,1210,1210,1202,1202,1202,1202,1197,1197,1197,1193,1193,1193,1193,1193,1189,1189,1185,1185,1185,1181,1181,1181,1181,1181,1177,1177,1177,1177,1173,1173,1169,1169,1169,1169,1165,1165,1165,1165,1165,1165,1161,1161,1157,1157,1153,1153,1153,1149,1149,1149,1145,1145,1145,1145,1141,1141,1141,1138,1138,1138,1134,1134,1134,1134,1130,1130,1130,1130,1130,1130,1126,1123,1123,1123,1123,1123,1119,1119,1119,1119,1115,1115,1115,1115,1112,1112,1112,1108,1108,1108,1108,1105,1105,1105,1105,1105,1101,1101,1101,1097,1097,1097,1094,1094,1094,1090,1090,1090,1090,1090,1090,1090,1090,1087,1087,1084,1084,1080,1080,1080,1080,1077,1077,1077,1077,1077,1073,1073,1070,1070,1067,1067,1067,1067,1063,1063,1063,0,0,0,0,0,0,0,0,0,0,0,0,0,0,0,0,0,0,0,0,0,0,0,0,0,0,0,0,0
0,0,0,0,0,0,0,0,0,0,0,0,0,1477,1477,1477,1477,1470,1470,1470,1470,1464,1464,1464,1470,1470,1470,1470,1470,1470,1470,1470,1470,1470,1477,1483,1483,1483,1483,1483,1483,1489,1489,2016,2016,2016,2040,2040,2040,2028,2028,2016,2016,2016,2016,2005,2005,2005,1993,1981,1981,1981,1981,1981,1981,1496,1496,1496,1496,1496,1489,1489,1489,1489,1496,1496,1496,1503,1503,1509,1509,1509,1509,1509,1509,1509,1516,1529,1529,1529,1536,1536,1536,1536,1536,1536,1543,1543,1543,1557,1564,1564,1564,1564,1564,1572,1572,1572,1572,1579,1586,1586,1586,1586,1594,1594,1594,1594,1594,1601,1609,1616,1624,1624,1624,1624,1632,1632,1632,1632,1632,1639,1647,1647,1647,1647,1655,1655,1663,1663,1663,1663,1680,1680,1688,1688,1688,1688,1688,1696,1696,1696,1696,1705,1713,1713,1713,1722,1722,1722,1731,1731,1731,1739,1739,1739,1739,1731,1731,1722,1722,1722,1713,1713,1713,1705,1696,1688,1688,0,0,0,0,0,0,1044,1044,1041,1041,1038,1038,1038,1038,1034,1034,1034,1034,1034,1034,1038,1038,1041,1044,1044,1047,1047,1047,1047,1050,1050,0,0,1632,1624,1624,1624,1624,1624,1624,1616,1616,1616,1609,1609,1609,1601,1601,1601,1601,1594,1594,1594,1594,1594,1586,1586,1586,1579,1579,1572,1572,1572,1572,1564,1564,1564,1564,1557,1557,1557,1557,1557,1557,1550,1550,1550,1543,1543,1543,1543,1536,1536,1529,1529,1529,1523,1523,1523,1516,1516,1516,1509,1509,1509,1509,1509,1509,1509,1503,1503,1503,1503,1496,1489,1489,1489,1489,1483,1483,1483,1477,1477,1470,1470,1470,1470,1470,1470,1470,1464,1464,1464,1464,1458,1458,1452,1452,1458,1458,1458,0,0,0,0,0,889,887,887,887,887,887,885,885,882,882,880,880,875,875,873,873,873,873,875,875,878,878,880,882,885,887,889,889,889,0,0,0,0,0,1387,1387,1376,1376,1376,1376,1376,1376,1376,1370,1370,1370,1370,1370,1365,1365,1359,1359,1359,1359,1354,1354,1354,1354,1349,1349,1349,1349,1349,1349,1343,1343,1343,1343,1338,1333,1333,1333,1333,1328,1328,1328,1328,1322,1322,1322,1317,1317,1312,1312,1312,1312,1307,1307,1307,1307,1307,1302,1302,1302,1297,1297,1292,1292,1292,1288,1288,1288,1288,1288,1283,1283,1278,1278,1278,1273,1273,1273,1273,1273,1268,1268,1268,1268,1268,1264,1264,1259,1259,1255,1255,1255,1250,1250,1250,1250,1250,1250,1250,1245,1245,1241,1241,1241,1236,1236,1232,1232,1232,1227,1227,1223,1223,1223,1219,1219,1219,1219,1219,1219,1214,1214,1214,1210,1210,1210,1210,1202,1202,1202,1202,1197,1197,1197,1197,1193,1193,1193,1193,1189,1189,1189,1185,1185,1185,1185,1185,1181,1181,1181,1177,1177,1177,1173,1173,1173,1173,1169,1169,1165,1165,1165,1165,1165,1165,1161,1161,1157,1157,1153,1153,1153,1153,1149,1149,1149,1149,1145,1145,1145,1141,1141,1138,1138,1138,1134,1134,1134,1134,1130,1130,1134,1134,1130,1130,1130,1126,1126,1123,1123,1123,1119,1119,1119,1119,1115,1115,1115,1112,1112,1112,1112,1108,1108,1108,1108,1105,1105,1105,1105,1105,1101,1101,1101,1101,1097,1097,1094,1094,1094,1094,1090,1090,1090,1090,1090,1090,1090,1087,1087,1084,1084,1080,1080,1080,1077,1077,1077,1077,1077,1077,1073,1073,1070,1070,1067,1067,1067,1067,1067,1063,1063,0,0,0,0,0,0,0,0,0,0,0,0,0,0,0,0,0,0,0,0,0,0,0,0,0,0,0,0,0
0,0,0,0,0,0,0,0,0,0,0,0,0,1477,1477,1477,1477,1477,1477,1477,1470,1464,1464,1470,1470,1470,1470,1470,1470,1470,1470,1470,1470,1470,1477,1483,1483,1483,1489,1483,1483,1483,2028,2028,2016,2016,2028,2028,2040,2028,2028,2028,2016,2016,2016,2005,2005,2005,1993,1993,1993,1981,1981,1981,1981,1503,1503,1503,1496,1496,1489,1489,1489,1489,1489,1496,1503,1503,1503,1509,1509,1509,1509,1509,1509,1509,1516,1529,1529,1536,1536,1536,1536,1536,1543,1543,1543,1550,1550,1557,1564,1564,1564,1564,1572,1572,1572,1572,1572,1579,1586,1586,1594,1594,1594,1594,1594,1594,1594,1601,1616,1616,1616,1624,1624,1632,1632,1632,1632,1632,1639,1639,1647,1647,1655,1655,1655,1655,1663,1663,1663,1663,1680,1680,1688,1688,1688,1688,1688,1696,1696,1705,1705,1705,1713,1713,1713,1722,1722,1722,1731,1731,1731,1739,1739,1739,1739,1731,1731,1722,1722,1722,1722,1713,1713,1705,1696,1696,0,0,0,0,0,1050,1050,1044,1044,1041,1041,1038,1038,1038,1038,1034,1034,1034,1034,1034,1034,1038,1038,1041,1044,1044,1047,1047,1047,1050,1050,1050,0,1632,1632,1632,1632,1624,1624,1624,1624,1616,1616,1616,1616,1609,1609,1601,1601,1601,1601,1594,1594,1594,1594,1594,1594,1586,1586,1586,1586,1579,1579,1572,1572,1564,1564,1564,1564,1557,1557,1557,1557,1557,1557,1557,1550,1550,1543,1543,1543,1543,1536,1536,1536,1529,1529,1523,1523,1523,1523,1516,1516,1516,1509,1509,1509,1509,1509,1509,1503,1503,1503,1503,1496,1489,1489,1489,1489,1489,1489,1483,1483,1477,1477,1477,1477,1470,1470,1464,1464,1464,1464,1464,1464,1458,1458,1452,1452,1458,1458,0,0,0,0,0,891,889,887,887,887,887,887,885,885,882,882,880,880,875,875,873,873,873,873,875,875,878,880,882,885,885,887,889,889,889,0,0,0,0,0,1387,1387,1387,1387,1381,1376,1376,1376,1376,1370,1370,1370,1370,1370,1365,1365,1365,1359,1359,1359,1354,1354,1354,1354,1349,1349,1349,1349,1349,1349,1343,1343,1343,1343,1338,1333,1333,1333,1333,1328,1328,1328,1328,1328,1322,1322,1317,1317,1317,1312,1312,1312,1312,1307,1307,1307,1307,1302,1302,1302,1297,1297,1292,1292,1292,1292,1288,1288,1288,1288,1288,1283,1283,1278,1278,1278,1273,1273,1273,1273,1268,1268,1268,1268,1268,1264,1264,1259,1259,1255,1255,1255,1255,1250,1250,1250,1250,1250,1250,1245,1245,1241,1241,1241,1236,1236,1232,1232,1232,1227,1227,1223,1223,1223,1219,1219,1219,1219,1219,1219,1219,1214,1214,1214,1214,1210,1210,1206,1202,1202,1202,1202,1202,1197,1197,1197,1197,1197,1193,1193,1189,1189,1189,1185,1185,1185,1185,1181,1181,1181,1181,1181,1177,1173,1173,1173,1173,1169,1169,1165,1165,1165,1165,1165,1165,1161,1161,1157,1157,1153,1153,1153,1153,1153,1149,1149,1149,1145,1145,1145,1141,1141,1141,1141,1138,1138,1134,1134,1134,1134,1134,1134,1134,1130,1130,1130,1126,1126,1123,1123,1123,1119,1119,1119,1119,1115,1115,1115,1112,1112,1112,1112,1108,1108,1108,1105,1105,1105,1105,1105,1105,1105,1101,1101,1101,1097,1097,1094,1094,1094,1094,1090,1090,1090,1090,1090,1090,1090,1087,1087,1084,1084,1080,1080,1080,1077,1077,1077,1077,1077,1077,1073,1073,1070,1070,1067,1067,1067,1067,1067,1063,1063,0,0,0,0,0,0,0,0,0,0,0,0,0,0,0,0,0,0,0,0,0,0,0,0,0,0,0,0,0
0,0,0,0,0,0,0,0,0,0,0,0,0,1477,1477,1477,1477,1477,1477,1477,1470,1464,1464,1470,1477,1477,1470,1470,1470,1470,1470,1470,1470,1470,1477,1483,1483,1483,1489,1483,1483,1483,2028,2028,2028,2040,2028,2028,2028,2028,2028,2028,2016,2016,2016,2005,2005,2005,1993,1993,1993,1993,1981,1981,1993,1509,1509,1503,1503,1496,1496,1489,1489,1489,1489,1496,1503,1503,1503,1509,1509,1509,1509,1509,1516,1516,1523,1523,1523,1536,1536,1536,1536,1536,1536,1543,1543,1550,1550,1557,1564,1564,1564,1572,1572,1572,1572,1572,1579,1579,1586,1594,1594,1594,1594,1594,1594,1594,1601,1601,1609,1616,1616,1624,1624,1632,1632,1632,1632,1632,1639,1639,1647,1647,1647,1655,1655,1655,1663,1663,1663,1663,1680,1680,1688,1688,1688,1688,1696,1696,1696,1705,1705,1705,1713,1713,1722,1722,1722,1731,1731,1731,1731,1739,1739,1739,1739,1731,1731,1731,1722,1722,1722,1722,1722,1713,1696,1696,1696,0,0,0,1050,1050,1050,1047,1044,1044,1041,1041,1038,1038,1038,1038,1034,1034,1034,1034,1038,1038,1038,1041,1044,1047,1047,1050,1050,1050,1050,1050,0,1632,1632,1632,1632,1632,1624,1624,1624,1624,1616,1616,1616,1616,1609,1601,1601,1601,1601,1594,1594,1594,1594,1594,1594,1586,1586,1586,1586,1579,1579,1579,1579,1572,1564,1564,1564,1564,1564,1564,1557,1557,1557,1557,1557,1550,1550,1543,1543,1543,1536,1536,1536,1536,1529,1529,1529,1523,1523,1516,1516,1516,1516,1509,1509,1509,1509,1509,1509,1503,1503,1503,1496,1489,1489,1489,1489,1483,1483,1483,1483,1477,1477,1477,1477,1470,1470,1464,1464,1464,1464,1464,1464,1464,1458,1458,1458,1458,1458,0,0,0,0,0,891,889,887,887,887,887,887,887,885,885,882,882,880,875,875,873,873,875,875,875,878,878,880,882,885,887,889,889,889,889,0,0,0,0,1398,1392,1387,1387,1387,1381,1381,1381,1376,1376,1370,1370,1370,1370,1370,1365,1365,1365,1365,1365,1359,1354,1354,1354,1354,1354,1349,1349,1349,1349,1349,1349,1343,1343,1338,1338,1333,1333,1333,1333,1328,1328,1328,1328,1328,1328,1322,1317,1317,1317,1312,1312,1312,1312,1307,1307,1307,1307,1307,1307,1302,1297,1297,1292,1292,1292,1292,1292,1292,1288,1288,1288,1288,1283,1283,1278,1278,1273,1273,1273,1273,1273,1268,1268,1268,1268,1264,1264,1264,1259,1259,1255,1255,1255,1250,1250,1250,1250,1250,1250,1245,1245,1241,1241,1241,1236,1236,1236,1232,1232,1232,1227,1227,1223,1223,1219,1219,1219,1219,1219,1219,1219,1214,1214,1214,1214,1210,1210,1206,1202,1202,1202,1202,1202,1197,1197,1197,1197,1197,1193,1193,1193,1189,1189,1189,1185,1185,1185,1181,1181,1181,1181,1181,1177,1173,1173,1173,1173,1169,1169,1169,1165,1165,1165,1165,1165,1161,1161,1161,1157,1157,1157,1153,1153,1153,1149,1149,1149,1145,1145,1145,1141,1141,1141,1141,1138,1138,1138,1134,1134,1134,1134,1134,1134,1134,1130,1130,1130,1126,1126,1123,1123,1123,1123,1119,1119,1119,1115,1115,1115,1115,1112,1112,1108,1105,1105,1105,1105,1105,1105,1105,1105,1105,1101,1101,1101,1097,1097,1097,1094,1094,1094,1094,1094,1090,1090,1090,1090,1090,1090,1087,1087,1084,1084,1084,1080,1077,1077,1077,1077,1077,1077,1077,1073,1070,1070,1067,1067,1067,1067,1067,1067,1067,0,0,0,0,0,0,0,0,0,0,0,0,0,0,0,0,0,0,0,0,0,0,0,0,0,0,0,0,0
0,0,0,0,0,0,0,0,0,0,0,0,0,1483,1477,1477,1477,1477,1477,1477,1470,1470,1470,1470,1470,1470,1464,1464,1470,1470,1470,1470,1470,1477,1477,1483,1483,1483,1489,1489,1483,1483,2028,2028,2028,2040,2028,2028,2028,2040,2028,2028,2016,2016,2016,2005,2005,2005,1993,1993,1993,1993,1993,1993,1993,1993,1509,1509,1503,1503,1496,1489,1489,1489,1496,1496,1503,1503,1503,1503,1509,1509,1509,1509,1516,1516,1516,1523,1523,1536,1536,1536,1536,1536,1536,1543,1543,1550,1550,1557,1557,1564,1564,1564,1572,1572,1579,1579,1579,1586,1594,1594,1594,1594,1594,1594,1601,1601,1601,1601,1609,1616,1616,1616,1624,1632,1632,1632,1632,1632,1639,1639,1647,1647,1647,1655,1655,1655,1663,1663,1663,1663,1671,1680,1688,1688,1688,1688,1696,1696,1696,1705,1705,1713,1713,1722,1722,1722,1722,1731,1731,1731,1739,1739,1739,1739,1739,1731,1731,1731,1722,1722,1722,1722,1722,1713,1713,1713,1713,0,0,0,1050,1050,1050,1047,1047,1044,1041,1041,1041,1038,1038,1038,1034,1034,1034,1038,1038,1038,1041,1044,1044,1047,1047,1047,1050,1050,1050,0,0,0,1632,1632,1632,1632,1624,1624,1624,1624,1616,1616,1616,1616,1609,1601,1601,1601,1601,1594,1594,1594,1594,1594,1586,1586,1586,1586,1586,1586,1586,1579,1572,1572,1564,1564,1564,1564,1564,1564,1557,1557,1557,1557,1557,1550,1550,1550,1543,1543,1543,1536,1536,1536,1536,1529,1529,1523,1523,1516,1516,1516,1516,1509,1509,1509,1509,1509,1509,1503,1503,1503,1496,1496,1489,1489,1489,1483,1483,1483,1483,1477,1477,1477,1477,1477,1470,1470,1464,1464,1464,1464,1464,1464,1458,1458,1458,1458,1458,0,0,0,0,0,891,891,887,887,887,887,887,885,885,885,882,882,878,875,875,875,875,875,875,875,878,880,880,882,887,887,889,889,889,0,0,0,0,0,1398,1392,1392,1392,1387,1387,1387,1381,1376,1376,1376,1370,1370,1370,1370,1370,1365,1365,1365,1365,1365,1359,1359,1354,1354,1354,1349,1349,1349,1349,1349,1349,1343,1343,1338,1338,1333,1333,1333,1333,1333,1328,1328,1328,1328,1328,1322,1322,1317,1317,1312,1312,1312,1312,1307,1307,1307,1307,1307,1307,1302,1302,1302,1297,1297,1292,1292,1292,1292,1288,1288,1288,1288,1283,1283,1283,1278,1278,1278,1273,1273,1273,1268,1268,1268,1268,1268,1264,1264,1259,1259,1255,1255,1255,1255,1250,1250,1250,1250,1250,1245,1245,1241,1241,1241,1236,1236,1236,1232,1232,1232,1232,1227,1223,1223,1223,1223,1219,1219,1219,1219,1219,1219,1214,1214,1214,1214,1210,1206,1202,1202,1202,1202,1202,1197,1197,1197,1197,1197,1197,1193,1193,1193,1189,1189,1185,1185,1185,1181,1181,1181,1181,1181,1177,1173,1173,1173,1173,1173,1169,1169,1169,1165,1165,1165,1165,1161,1161,1161,1157,1157,1157,1153,1153,1153,1153,1149,1149,1145,1145,1145,1141,1141,1141,1141,1138,1138,1138,1138,1134,1134,1134,1134,1134,1134,1130,1130,1130,1126,1126,1123,1123,1123,1123,1119,1119,1119,1119,1115,1115,1112,1112,1112,1108,1105,1105,1105,1105,1105,1105,1105,1105,1105,1105,1105,1101,1097,1097,1097,1097,1097,1094,1094,1094,1094,1094,1090,1090,1090,1090,1087,1087,1084,1080,1080,1080,1080,1080,1077,1077,1077,1077,1077,1073,1073,1070,1067,1067,1067,1067,1067,1067,1067,0,0,0,0,0,0,0,0,0,0,0,0,0,0,0,0,0,0,0,0,0,0,0,0,0,0,0,0,0
0,0,0,0,0,0,0,0,0,0,0,0,0,1483,1483,1483,1483,1477,1477,1477,1470,1470,1470,1470,1470,1470,1464,1464,1470,1470,1470,1470,1477,1477,1483,1483,1483,1489,1489,1489,1489,1496,2040,2040,2040,2040,2040,2040,2040,2040,2040,2028,2016,2016,2016,2016,2005,2005,1993,1993,1993,2005,2005,2005,2005,2005,1503,1503,1503,1503,1496,1489,1489,1489,1496,1496,1503,1503,1503,1503,1509,1509,1509,1509,1516,1516,1516,1523,1529,1536,1536,1536,1536,1536,1543,1543,1543,1550,1550,1557,1557,1557,1564,1564,1572,1572,1572,1579,1579,1579,1594,1594,1594,1594,1594,1594,1601,1601,1601,1601,1609,1616,1616,1616,1624,1632,1632,1632,1632,1632,1639,1639,1647,1647,1647,1655,1655,1655,1663,1663,1663,1671,1671,1680,1688,1688,1688,1696,1696,1696,1696,1705,1705,1713,1713,1722,1722,1722,1722,1731,1731,1731,1731,1739,1739,1739,1739,1739,1731,1731,1722,1722,1722,1722,1722,1713,1713,1713,1713,0,0,0,1050,1050,1050,1047,1047,1044,1044,1041,1041,1041,1038,1038,1038,1038,1038,1038,1038,1038,1041,1044,1044,1047,1047,1047,1050,1050,1050,0,0,0,1632,1632,1632,1632,1624,1624,1624,1624,1624,1616,1616,1616,1616,1609,1601,1601,1601,1594,1594,1594,1594,1594,1586,1586,1586,1586,1586,1586,1586,1579,1572,1572,1572,1564,1564,1564,1564,1564,1557,1557,1557,1557,1557,1557,1550,1550,1543,1543,1543,1543,1536,1536,1536,1529,1529,1529,1529,1523,1523,1516,1516,1516,1509,1509,1509,1509,1509,1509,1509,1503,1503,1503,1496,1489,1489,1489,1483,1483,1483,1483,1483,1477,1477,1477,1477,1470,1464,1464,1464,1464,1464,1464,1458,1458,1458,1458,0,0,0,0,0,0,891,891,889,889,887,887,887,885,885,885,882,882,878,875,875,875,875,875,875,878,878,880,882,885,887,889,889,889,891,0,0,0,0,0,1398,1398,1392,1392,1392,1392,1392,1381,1381,1376,1376,1370,1370,1370,1370,1370,1370,1365,1365,1365,1365,1359,1359,1359,1354,1354,1354,1349,1349,1349,1349,1349,1343,1343,1343,1338,1333,1333,1333,1333,1333,1328,1328,1328,1328,1328,1322,1322,1322,1317,1312,1312,1312,1312,1312,1307,1307,1307,1307,1307,1307,1302,1302,1297,1297,1292,1292,1292,1292,1292,1288,1288,1288,1283,1283,1283,1283,1278,1278,1273,1273,1273,1268,1268,1268,1268,1268,1268,1264,1264,1259,1259,1255,1255,1255,1255,1250,1250,1250,1250,1245,1245,1245,1241,1241,1236,1236,1236,1236,1232,1232,1232,1227,1227,1227,1223,1223,1223,1219,1219,1219,1219,1219,1219,1214,1214,1214,1210,1210,1206,1206,1202,1202,1202,1202,1197,1197,1197,1197,1197,1197,1197,1193,1193,1189,1189,1185,1185,1185,1185,1181,1181,1181,1177,1173,1173,1173,1173,1173,1169,1169,1169,1169,1169,1165,1165,1165,1161,1161,1161,1157,1157,1153,1153,1153,1153,1149,1149,1145,1145,1145,1145,1145,1141,1141,1145,1138,1138,1138,1138,1134,1134,1134,1134,1134,1130,1130,1130,1126,1126,1123,1123,1123,1123,1119,1119,1119,1119,1119,1115,1112,1112,1112,1108,1108,1108,1105,1105,1105,1105,1105,1105,1105,1105,1105,1101,1097,1097,1097,1097,1097,1094,1094,1094,1094,1094,1090,1090,1090,1090,1087,1087,1084,1080,1080,1080,1080,1080,1080,1077,1077,1077,1073,1073,1070,1070,1067,1067,1067,1067,1067,1067,1067,0,0,0,0,0,0,0,0,0,0,0,0,0,0,0,0,0,0,0,0,0,0,0,0,0,0,0,0,0
0,0,0,0,0,0,0,0,0,0,0,0,0,1483,1483,1483,1483,1477,1477,1477,1477,1470,1470,1477,1477,1470,1464,1464,1470,1464,1464,1470,1477,1477,1483,1483,1483,1489,1496,1489,1489,1496,2040,2040,2040,2053,2053,2053,2053,2053,2040,2028,2016,2016,2016,2016,2005,2005,2005,2005,2005,2005,2005,2005,1993,1993,1503,1503,1503,1503,1496,1496,1496,1489,1489,1496,1496,1496,1496,1503,1509,1509,1509,1509,1516,1516,1516,1523,1523,1536,1536,1536,1536,1543,1543,1550,1550,1550,1557,1557,1557,1557,1564,1564,1572,1572,1572,1579,1579,1579,1586,1586,1594,1594,1594,1601,1601,1601,1601,1609,1609,1616,1616,1616,1624,1632,1632,1632,1632,1639,1639,1639,1647,1647,1647,1655,1655,1663,1663,1663,1671,1671,1671,1680,1688,1688,1688,1696,1696,1696,1705,1705,1705,1713,1722,1722,1722,1722,1722,1731,1731,1731,1731,1739,1739,1739,1739,1731,1731,1731,1722,1722,1722,1722,1722,1713,1713,1713,1713,1713,0,1050,1050,1050,1050,1047,1047,1044,1044,1041,1041,1041,1041,1038,1038,1038,1038,1038,1038,1041,1041,1044,1044,1047,1050,1050,1050,1050,1054,0,0,0,1632,1632,1632,1632,1624,1624,1624,1624,1624,1624,1624,1624,1616,1609,1609,1609,1601,1601,1601,1594,1594,1594,1594,1594,1594,1594,1586,1586,1586,1579,1579,1572,1572,1572,1564,1564,1564,1564,1564,1564,1564,1557,1557,1557,1557,1557,1550,1550,1543,1543,1536,1536,1536,1536,1536,1529,1529,1529,1523,1516,1516,1516,1509,1509,1509,1509,1509,1509,1503,1503,1503,1503,1496,1489,1489,1489,1489,1483,1483,1483,1483,1483,1477,1477,1477,1470,1464,1464,1464,1464,1464,1464,1458,1458,1458,1458,0,0,0,0,0,0,891,891,889,889,887,887,887,887,885,885,882,882,878,878,875,875,875,878,878,878,878,880,882,885,887,889,889,889,891,0,0,0,0,0,1398,1398,1392,1392,1392,1392,1392,1387,1381,1381,1376,1376,1376,1376,1370,1370,1370,1370,1365,1365,1365,1359,1359,1359,1354,1354,1354,1349,1349,1349,1349,1349,1343,1343,1343,1338,1333,1333,1333,1333,1333,1328,1328,1328,1328,1328,1322,1322,1322,1317,1317,1312,1312,1312,1312,1312,1307,1307,1307,1307,1307,1302,1302,1302,1297,1297,1292,1292,1292,1292,1292,1288,1288,1288,1283,1283,1283,1278,1278,1273,1273,1273,1268,1268,1268,1268,1268,1268,1264,1264,1264,1259,1255,1255,1255,1255,1255,1250,1250,1250,1245,1245,1245,1241,1241,1236,1236,1236,1236,1236,1232,1232,1227,1227,1227,1223,1223,1223,1219,1219,1219,1219,1219,1219,1214,1214,1214,1214,1210,1206,1206,1206,1202,1202,1202,1202,1197,1197,1197,1197,1197,1197,1193,1193,1189,1189,1185,1185,1185,1185,1181,1181,1181,1177,1173,1173,1173,1173,1177,1169,1169,1169,1169,1169,1165,1165,1165,1161,1161,1161,1161,1161,1157,1153,1153,1153,1149,1149,1145,1145,1145,1145,1145,1145,1145,1145,1141,1138,1138,1138,1134,1134,1134,1134,1134,1130,1130,1130,1126,1126,1123,1123,1123,1123,1119,1119,1119,1119,1119,1115,1112,1112,1112,1108,1108,1108,1108,1105,1105,1105,1105,1105,1105,1105,1105,1101,1101,1101,1097,1097,1097,1094,1094,1094,1094,1094,1090,1090,1090,1087,1087,1087,1084,1080,1080,1080,1080,1080,1080,1077,1077,1077,1073,1073,1070,1070,1067,1067,1067,1067,1067,1067,1067,0,0,0,0,0,0,0,0,0,0,0,0,0,0,0,0,0,0,0,0,0,0,0,0,0,0,0,0,0
0,0,0,0,0,0,0,0,0,0,0,0,0,1483,1483,1483,1483,1477,1477,1477,1477,1477,1477,1477,1477,1470,1470,1470,1470,1464,1464,1477,1477,1483,1483,1483,1483,1489,1496,1496,1496,1503,1503,2053,2053,2053,2053,2053,2053,2053,2040,2028,2028,2016,2016,2016,2016,2005,2005,2005,2005,2005,2005,2005,1993,1993,1503,1503,1503,1503,1503,1496,1496,1489,1489,1496,1496,1496,1496,1503,1509,1509,1516,1516,1516,1516,1523,1523,1523,1536,1536,1536,1536,1543,1543,1550,1550,1550,1557,1557,1557,1564,1564,1564,1572,1572,1579,1579,1579,1579,1586,1586,1594,1594,1594,1601,1601,1601,1601,1601,1609,1616,1616,1616,1624,1632,1632,1639,1639,1639,1639,1639,1647,1647,1655,1655,1663,1663,1663,1663,1671,1671,1680,1680,1688,1688,1688,1696,1696,1696,1696,1705,1705,1705,1713,1722,1722,1722,1731,1731,1731,1731,1731,1739,1739,1739,1739,1731,1731,1731,1731,1722,1722,1722,1722,1722,1713,1713,1713,1713,0,1050,1050,1050,1047,1047,1047,1047,1044,1044,1041,1041,1041,1041,1038,1038,1038,1038,1041,1041,1044,1044,1047,1047,1050,1050,1050,1050,1050,0,0,0,1632,1632,1632,1632,1632,1624,1624,1624,1624,1624,1624,1624,1624,1624,1616,1616,1609,1601,1601,1594,1594,1594,1594,1594,1594,1594,1594,1594,1586,1586,1579,1572,1572,1572,1564,1564,1564,1564,1564,1564,1564,1564,1557,1557,1557,1550,1550,1550,1550,1543,1536,1536,1536,1536,1536,1529,1529,1529,1523,1523,1516,1516,1516,1509,1509,1509,1509,1509,1503,1503,1503,1503,1496,1489,1489,1489,1489,1483,1483,1483,1483,1483,1483,1477,1477,1470,1464,1464,1464,1464,1464,1464,1464,1458,1458,1458,0,0,0,0,0,0,891,889,889,889,887,887,887,887,885,885,882,882,878,878,875,875,875,878,878,878,880,880,882,887,889,889,891,891,891,0,0,0,0,0,1398,1398,1392,1392,1392,1392,1392,1381,1381,1381,1376,1376,1376,1376,1376,1370,1370,1370,1370,1370,1365,1365,1359,1359,1354,1354,1354,1354,1349,1349,1349,1349,1343,1343,1343,1343,1338,1333,1333,1333,1333,1333,1328,1328,1328,1328,1322,1322,1322,1317,1317,1312,1312,1312,1312,1312,1307,1307,1307,1307,1307,1302,1302,1302,1297,1297,1292,1292,1292,1292,1292,1288,1288,1288,1288,1283,1283,1278,1278,1278,1273,1273,1273,1268,1268,1268,1268,1268,1268,1264,1264,1259,1259,1259,1255,1255,1255,1250,1250,1250,1250,1245,1245,1245,1241,1241,1241,1236,1236,1236,1232,1232,1227,1227,1227,1223,1223,1223,1219,1219,1219,1219,1219,1219,1214,1214,1214,1214,1210,1210,1206,1206,1202,1202,1202,1202,1202,1197,1197,1197,1197,1197,1193,1193,1189,1189,1185,1185,1185,1185,1185,1181,1181,1177,1177,1177,1177,1177,1177,1169,1169,1169,1169,1169,1165,1165,1165,1165,1165,1161,1161,1161,1157,1157,1157,1157,1153,1149,1149,1149,1149,1145,1145,1145,1145,1145,1141,1141,1138,1138,1134,1134,1134,1134,1134,1130,1130,1130,1126,1126,1123,1123,1123,1123,1123,1119,1119,1119,1119,1115,1112,1112,1112,1108,1108,1108,1108,1108,1108,1108,1105,1105,1105,1105,1105,1101,1101,1101,1097,1097,1097,1094,1094,1094,1094,1094,1090,1090,1090,1087,1087,1087,1084,1080,1080,1080,1080,1080,1080,1077,1077,1077,1077,1073,1073,1070,1070,1067,1067,1067,1067,1067,1067,0,0,0,0,0,0,0,0,0,0,0,0,0,0,0,0,0,0,0,0,0,0,0,0,0,0,0,0,0
0,0,0,0,0,0,0,0,0,0,0,0,0,1483,1483,1483,1483,1477,1477,1477,1477,1477,1477,1477,1477,1477,1470,1470,1470,1477,1477,1477,1483,1483,1483,1483,1483,1489,1496,1503,1503,1503,1503,2040,2040,2040,2053,2053,2053,2053,2040,2028,2028,2016,2016,2016,2016,2016,2005,2005,2005,2005,2005,2005,2005,2005,1503,1503,1503,1503,1503,1496,1496,1496,1496,1496,1496,1496,1496,1503,1503,1509,1516,1516,1516,1516,1516,1523,1523,1536,1536,1543,1543,1543,1543,1550,1550,1550,1557,1557,1557,1564,1564,1564,1572,1572,1579,1579,1579,1586,1586,1594,1594,1594,1594,1601,1601,1601,1601,1601,1609,1616,1616,1616,1624,1632,1639,1639,1639,1639,1639,1639,1647,1647,1655,1655,1663,1663,1663,1671,1671,1680,1680,1688,1688,1688,1688,1696,1696,1696,1696,1705,1705,1705,1713,1722,1722,1722,1731,1731,1731,1731,1731,1739,1739,1739,1739,1739,1731,1731,1731,1731,1722,1722,1722,1722,1722,1722,1722,1722,0,1050,1050,1047,1047,1047,1047,1047,1044,1044,1044,1041,1041,1038,1038,1038,1038,1038,1041,1041,1044,1047,1047,1050,1050,1050,1050,1050,1050,0,0,0,1632,1632,1632,1632,1632,1632,1624,1624,1624,1624,1624,1624,1624,1624,1616,1616,1616,1609,1601,1601,1594,1594,1594,1594,1594,1594,1594,1594,1586,1586,1579,1572,1572,1572,1564,1564,1564,1564,1564,1564,1564,1564,1557,1557,1557,1550,1550,1543,1543,1543,1543,1536,1536,1536,1536,1536,1529,1529,1523,1523,1516,1516,1516,1509,1509,1509,1509,1509,1509,1503,1503,1503,1496,1489,1489,1489,1489,1483,1483,1483,1483,1483,1483,1483,1483,1470,1464,1464,1464,1464,1464,1464,1464,1464,1464,1464,1464,0,0,0,0,0,891,889,889,889,887,887,887,887,887,885,885,882,878,878,878,878,878,878,878,880,880,882,882,887,889,889,891,891,894,0,0,0,0,0,1398,1392,1392,1392,1392,1392,1392,1381,1381,1381,1376,1376,1376,1376,1376,1376,1370,1370,1370,1370,1370,1365,1365,1359,1354,1354,1354,1354,1349,1349,1349,1349,1349,1343,1343,1343,1338,1333,1333,1333,1333,1333,1328,1328,1328,1328,1328,1322,1322,1322,1317,1312,1312,1312,1312,1312,1312,1312,1307,1307,1307,1302,1302,1302,1302,1297,1292,1292,1292,1292,1292,1288,1288,1288,1288,1283,1283,1278,1278,1278,1273,1273,1273,1273,1268,1268,1268,1268,1268,1264,1264,1259,1259,1259,1255,1255,1255,1250,1250,1250,1250,1245,1245,1245,1245,1241,1236,1236,1236,1236,1236,1232,1232,1232,1227,1227,1223,1223,1223,1223,1219,1219,1219,1219,1219,1214,1214,1214,1214,1210,1210,1206,1206,1202,1202,1202,1202,1202,1197,1197,1197,1197,1193,1193,1193,1189,1189,1189,1185,1185,1185,1181,1181,1181,1177,1177,1177,1177,1177,1173,1173,1169,1169,1169,1165,1165,1165,1165,1165,1165,1165,1161,1161,1157,1157,1157,1153,1149,1149,1149,1149,1149,1145,1145,1145,1145,1141,1141,1138,1138,1134,1134,1134,1134,1134,1130,1130,1130,1126,1126,1126,1126,1123,1123,1123,1119,1119,1119,1119,1115,1112,1112,1112,1108,1108,1108,1108,1108,1108,1108,1108,1105,1105,1105,1105,1101,1101,1101,1097,1097,1097,1094,1094,1094,1094,1094,1090,1090,1090,1090,1087,1087,1084,1080,1080,1080,1080,1080,1080,1080,1080,1080,1077,1077,1073,1073,1070,1067,1067,1067,1067,1067,1067,0,0,0,0,0,0,0,0,0,0,0,0,0,0,0,0,0,0,0,0,0,0,0,0,0,0,0,0,0
0,0,0,0,0,0,0,0,0,0,0,0,0,1483,1483,1483,1483,1483,1477,1477,1477,1477,1477,1477,1477,1477,1470,1470,1470,1477,1477,1477,1477,1483,1483,1483,1483,1489,1496,1503,1503,1503,1503,2028,2028,2028,2053,2053,2053,2053,2040,2040,2028,2016,2016,2016,2016,2016,2016,2016,2016,2016,2005,2005,2005,2005,2016,1509,1503,1503,1503,1496,1496,1496,1496,1496,1496,1496,1496,1503,1503,1509,1516,1516,1516,1516,1516,1523,1529,1536,1536,1543,1543,1543,1543,1550,1550,1557,1557,1557,1557,1564,1564,1564,1572,1572,1579,1579,1579,1586,1586,1594,1594,1601,1601,1601,1601,1601,1601,1609,1616,1616,1616,1624,1624,1632,1632,1639,1639,1639,1639,1647,1647,1647,1655,1655,1663,1663,1663,1671,1671,1680,1680,1688,1688,1688,1696,1696,1696,1696,1696,1705,1705,1705,1713,1722,1722,1731,1731,1731,1731,1731,1739,1739,1739,1748,1739,1739,1739,1731,1731,1731,1731,1731,1722,1722,1722,1722,1722,1722,1731,1047,1047,1047,1047,1047,1047,1047,1047,1044,1044,1044,1041,1038,1038,1038,1038,1038,1041,1044,1044,1047,1047,1050,1050,1050,1050,1050,1050,0,0,0,1639,1632,1632,1632,1632,1632,1624,1624,1624,1624,1624,1624,1624,1624,1624,1616,1616,1609,1601,1601,1601,1594,1594,1594,1594,1594,1594,1594,1586,1586,1579,1572,1572,1572,1572,1572,1564,1564,1564,1564,1564,1557,1557,1557,1557,1557,1550,1543,1543,1543,1543,1536,1536,1536,1536,1536,1536,1536,1529,1523,1523,1523,1516,1516,1509,1509,1509,1509,1509,1503,1503,1503,1496,1496,1489,1489,1489,1483,1483,1483,1483,1483,1483,1483,1483,1470,1470,1470,1464,1464,1464,1464,1464,1464,1464,1464,1464,0,0,0,0,0,891,889,889,889,887,887,887,887,887,885,885,882,878,878,878,878,878,878,878,880,880,882,882,887,889,891,894,894,894,0,0,0,0,0,1398,1392,1392,1392,1392,1392,1392,1387,1381,1381,1381,1376,1376,1376,1376,1376,1370,1370,1370,1370,1370,1370,1365,1359,1359,1354,1354,1354,1349,1349,1349,1349,1349,1343,1343,1343,1343,1338,1333,1333,1333,1333,1333,1333,1328,1328,1328,1322,1322,1322,1317,1317,1317,1317,1312,1312,1312,1312,1307,1307,1307,1307,1302,1302,1302,1297,1292,1292,1292,1292,1292,1288,1288,1288,1288,1288,1283,1283,1278,1278,1273,1273,1273,1273,1268,1268,1268,1268,1268,1268,1264,1264,1259,1259,1255,1255,1255,1255,1250,1250,1250,1245,1245,1245,1245,1241,1236,1236,1236,1236,1236,1232,1232,1232,1227,1227,1227,1223,1223,1223,1219,1219,1219,1219,1219,1214,1214,1214,1214,1210,1210,1206,1206,1202,1202,1202,1202,1202,1197,1197,1197,1197,1193,1193,1193,1189,1189,1189,1185,1185,1185,1181,1181,1181,1181,1177,1177,1177,1177,1177,1173,1173,1169,1169,1169,1165,1165,1165,1165,1165,1165,1161,1161,1161,1157,1157,1153,1153,1149,1149,1149,1149,1149,1145,1145,1145,1145,1141,1138,1138,1138,1138,1134,1134,1134,1134,1130,1130,1130,1130,1126,1126,1123,1123,1123,1123,1119,1119,1119,1119,1115,1112,1112,1108,1108,1108,1108,1108,1108,1108,1108,1105,1105,1105,1105,1101,1101,1101,1097,1097,1097,1094,1094,1094,1094,1094,1090,1090,1090,1090,1090,1087,1084,1080,1080,1080,1080,1080,1080,1080,1080,1080,1077,1077,1077,1073,1073,1070,1070,1067,1067,1067,1067,0,0,0,0,0,0,0,0,0,0,0,0,0,0,0,0,0,0,0,0,0,0,0,0,0,0,0,0,0
0,0,0,0,0,0,0,0,0,0,0,0,0,1483,1483,1483,1483,1483,1477,1477,1477,1477,1483,1483,1477,1477,1477,1477,1477,1477,1477,1477,1477,1483,1483,1483,1483,1489,1496,1503,1503,1509,1509,1509,2028,2028,2053,2053,2053,2053,2053,2040,2040,2028,2028,2028,2028,2016,2016,2016,2016,2016,2016,2005,2005,2005,1509,1509,1509,1503,1503,1503,1496,1496,1496,1496,1496,1496,1496,1503,1503,1509,1516,1516,1516,1516,1523,1523,1529,1536,1536,1543,1543,1543,1543,1550,1550,1557,1557,1557,1564,1564,1564,1564,1572,1572,1579,1579,1579,1586,1594,1594,1594,1601,1601,1601,1601,1609,1609,1609,1616,1616,1616,1624,1624,1632,1632,1639,1639,1639,1639,1647,1647,1647,1655,1655,1663,1663,1663,1671,1680,1680,1680,1688,1688,1688,1696,1696,1696,1696,1696,1705,1705,1705,1713,1722,1722,1731,1731,1731,1731,1731,1731,1739,1739,1748,1739,1739,1739,1739,1731,1731,1731,1731,1731,1731,1731,1722,1722,1731,1731,0,1047,1047,1047,1047,1047,1047,1047,1047,1044,1044,1044,1038,1038,1041,1041,1041,1041,1044,1044,1047,1047,1050,1050,1050,1050,1050,1050,0,0,0,1639,1632,1632,1632,1632,1632,1624,1624,1624,1624,1624,1624,1624,1624,1624,1624,1616,1609,1601,1601,1601,1601,1594,1594,1594,1594,1594,1594,1586,1579,1579,1579,1572,1572,1572,1572,1564,1564,1564,1564,1564,1557,1557,1557,1557,1557,1550,1550,1550,1543,1543,1543,1536,1536,1536,1536,1536,1536,1529,1523,1523,1523,1516,1516,1516,1509,1509,1509,1509,1509,1509,1503,1496,1496,1489,1489,1489,1483,1483,1483,1483,1483,1483,1483,1483,1477,1470,1470,1470,1470,1464,1464,1464,1464,1464,1464,1464,0,0,0,0,0,891,889,889,889,889,887,887,887,887,885,885,882,880,878,878,878,878,878,878,880,880,882,882,887,891,891,894,894,894,0,0,0,0,0,1392,1392,1392,1392,1392,1392,1392,1392,1387,1381,1381,1381,1376,1376,1376,1376,1370,1370,1370,1370,1370,1370,1365,1359,1359,1354,1354,1354,1354,1349,1349,1349,1349,1349,1343,1343,1343,1338,1333,1333,1333,1333,1333,1333,1328,1328,1328,1328,1322,1322,1317,1317,1317,1317,1317,1312,1312,1312,1312,1307,1307,1307,1302,1302,1302,1297,1292,1292,1292,1292,1292,1292,1288,1288,1288,1288,1283,1283,1278,1278,1273,1273,1273,1273,1273,1273,1268,1268,1268,1268,1264,1264,1259,1255,1255,1255,1255,1255,1250,1250,1250,1250,1245,1245,1245,1241,1236,1236,1236,1236,1236,1232,1232,1232,1232,1232,1227,1227,1223,1223,1219,1219,1219,1219,1219,1214,1214,1214,1214,1210,1210,1210,1206,1202,1202,1202,1202,1202,1197,1197,1197,1197,1197,1197,1193,1193,1189,1189,1185,1185,1185,1185,1181,1181,1181,1177,1177,1177,1177,1177,1173,1173,1173,1169,1169,1165,1165,1165,1165,1165,1165,1161,1161,1161,1161,1157,1153,1153,1149,1149,1149,1149,1149,1145,1145,1145,1145,1141,1138,1138,1138,1138,1134,1134,1134,1134,1130,1130,1130,1130,1126,1126,1123,1123,1123,1119,1119,1119,1119,1119,1115,1112,1112,1112,1112,1108,1108,1108,1108,1108,1108,1105,1105,1105,1105,1101,1101,1101,1097,1097,1097,1094,1094,1094,1094,1094,1090,1090,1090,1090,1090,1087,1084,1080,1080,1080,1080,1080,1080,1080,1080,1080,1077,1077,1077,1077,1073,1073,1070,1070,1070,1067,1067,0,0,0,0,0,0,0,0,0,0,0,0,0,0,0,0,0,0,0,0,0,0,0,0,0,0,0,0,0
0,0,0,0,0,0,0,0,0,0,0,0,0,1483,1483,1483,1483,1483,1483,1483,1477,1477,1483,1483,1477,1477,1483,1483,1477,1477,1477,1477,1483,1483,1483,1483,1483,1489,1496,1503,1509,1509,1509,1509,1509,2065,2065,2053,2053,2053,2053,2040,2040,2028,2028,2028,2028,2016,2016,2016,2016,2016,2016,1993,1993,1993,1509,1509,1503,1503,1503,1503,1496,1496,1496,1496,1496,1496,1496,1503,1503,1509,1516,1516,1516,1516,1523,1523,1529,1536,1536,1543,1543,1543,1550,1550,1550,1557,1557,1557,1564,1564,1564,1564,1572,1572,1579,1579,1579,1586,1594,1594,1594,1601,1601,1601,1601,1609,1616,1616,1616,1624,1624,1624,1624,1632,1632,1639,1639,1639,1647,1647,1647,1647,1655,1655,1663,1663,1663,1671,1680,1680,1680,1688,1688,1688,1696,1696,1696,1696,1696,1705,1705,1705,1713,1713,1722,1731,1731,1731,1731,1731,1731,1739,1739,1739,1739,1739,1739,1731,1731,1731,1731,1731,1731,1731,1731,1731,1731,1731,1731,1047,1047,1047,1047,1047,1047,1047,1047,1047,1044,1044,1044,1044,1041,1041,1041,1041,1041,1044,1044,1047,1050,1050,1050,1050,1050,1054,1057,0,0,0,1639,1632,1632,1632,1632,1632,1632,1632,1624,1624,1624,1624,1624,1624,1624,1624,1616,1609,1601,1601,1601,1601,1601,1594,1594,1601,1594,1594,1586,1579,1579,1579,1572,1572,1572,1572,1572,1564,1564,1564,1564,1564,1564,1557,1557,1557,1557,1557,1550,1543,1543,1543,1543,1543,1536,1536,1536,1536,1529,1529,1529,1523,1516,1516,1516,1516,1509,1509,1509,1509,1509,1503,1496,1496,1489,1489,1489,1489,1489,1489,1483,1483,1483,1483,1483,1477,1477,1470,1470,1470,1470,1464,1464,1464,1464,1464,1464,0,0,0,0,889,889,889,889,889,889,887,887,887,887,885,885,882,880,880,878,878,878,878,878,880,880,882,885,889,891,894,894,896,896,0,0,0,0,0,1392,1392,1392,1392,1392,1392,1392,1392,1387,1381,1381,1381,1376,1376,1376,1376,1376,1370,1370,1370,1370,1370,1365,1359,1359,1354,1354,1354,1354,1349,1349,1349,1349,1349,1343,1343,1338,1338,1338,1333,1333,1333,1333,1333,1328,1328,1328,1328,1322,1322,1317,1317,1317,1317,1317,1317,1312,1312,1312,1307,1307,1307,1302,1302,1302,1297,1292,1292,1292,1292,1292,1292,1288,1288,1288,1288,1283,1283,1283,1278,1278,1278,1273,1273,1273,1273,1268,1268,1268,1268,1264,1264,1259,1255,1255,1255,1255,1255,1250,1250,1250,1250,1250,1250,1245,1245,1241,1241,1236,1236,1236,1232,1232,1232,1232,1232,1227,1227,1223,1223,1219,1219,1219,1219,1219,1214,1214,1214,1214,1214,1210,1210,1206,1206,1202,1202,1202,1202,1202,1197,1197,1197,1197,1197,1193,1193,1189,1189,1189,1185,1185,1185,1181,1181,1181,1181,1181,1177,1177,1177,1173,1173,1173,1169,1169,1165,1165,1165,1165,1165,1165,1161,1161,1161,1161,1157,1153,1153,1149,1149,1149,1149,1149,1149,1145,1145,1145,1141,1138,1138,1138,1138,1134,1134,1134,1134,1134,1134,1130,1130,1126,1126,1123,1123,1123,1119,1119,1119,1119,1119,1115,1115,1115,1112,1112,1112,1108,1108,1108,1108,1108,1105,1105,1105,1101,1101,1101,1101,1097,1097,1097,1094,1094,1094,1094,1094,1090,1090,1090,1090,1090,1087,1084,1080,1080,1080,1080,1080,1080,1080,1080,1080,1077,1077,1077,1077,1077,1073,1073,1070,1070,1067,1067,0,0,0,0,0,0,0,0,0,0,0,0,0,0,0,0,0,0,0,0,0,0,0,0,0,0,0,0,0
0,0,0,0,0,0,0,0,0,0,0,0,0,1483,1483,1483,1483,1483,1483,1483,1483,1483,1483,1483,1483,1483,1483,1483,1483,1483,1477,1477,1483,1483,1483,1483,1483,1489,1496,1503,1503,1509,1509,1509,1509,2065,2065,2053,2053,2053,2040,2040,2040,2028,2028,2028,2028,2016,2016,2016,2005,2005,2005,1993,1993,1993,1516,1516,1503,1503,1503,1503,1503,1503,1503,1503,1496,1496,1496,1503,1503,1509,1516,1516,1516,1516,1523,1523,1529,1536,1536,1543,1543,1543,1550,1550,1550,1557,1557,1557,1564,1564,1564,1564,1572,1572,1579,1579,1579,1586,1594,1594,1594,1601,1601,1601,1601,1609,1616,1616,1624,1624,1624,1624,1632,1632,1632,1632,1639,1639,1647,1647,1655,1655,1655,1655,1663,1663,1671,1671,1680,1688,1688,1688,1688,1688,1696,1696,1696,1696,1696,1705,1705,1705,1713,1713,1722,1731,1731,1731,1731,1731,1731,1739,1739,1739,1739,1739,1739,1731,1731,1731,1731,1731,1731,1731,1731,1722,1722,1722,1722,1047,1047,1047,1047,1047,1047,1047,1047,1047,1044,1044,1044,1044,1041,1041,1041,1041,1041,1044,1047,1047,1050,1050,1054,1054,1054,1057,1057,0,0,0,0,1639,1639,1639,1632,1632,1632,1632,1632,1632,1624,1624,1624,1624,1624,1624,1616,1616,1609,1609,1601,1601,1601,1601,1601,1601,1594,1594,1586,1586,1586,1579,1579,1572,1572,1572,1572,1564,1564,1564,1564,1564,1564,1557,1557,1557,1557,1557,1550,1543,1543,1543,1543,1543,1536,1536,1536,1536,1529,1529,1529,1523,1523,1523,1516,1516,1516,1516,1509,1509,1509,1503,1496,1496,1496,1489,1489,1489,1489,1489,1489,1489,1483,1483,1483,1477,1477,1477,1470,1470,1470,1470,1464,1464,1464,1464,0,0,0,0,0,889,889,889,889,889,889,887,887,887,887,885,885,882,882,880,880,878,878,880,880,880,882,882,885,889,891,894,896,896,896,0,0,0,0,0,1392,1392,1392,1392,1392,1392,1392,1392,1392,1387,1381,1381,1376,1376,1376,1376,1376,1376,1370,1370,1370,1370,1365,1359,1359,1354,1354,1354,1354,1354,1349,1349,1349,1349,1349,1343,1338,1338,1338,1333,1333,1333,1333,1333,1333,1328,1328,1328,1328,1322,1322,1317,1317,1317,1317,1317,1312,1312,1312,1307,1307,1307,1302,1302,1302,1302,1297,1297,1297,1292,1292,1292,1292,1292,1288,1288,1288,1283,1283,1283,1278,1278,1273,1273,1273,1273,1268,1268,1268,1268,1264,1264,1259,1259,1255,1255,1255,1255,1255,1250,1250,1250,1250,1250,1245,1245,1241,1241,1236,1236,1236,1236,1232,1232,1232,1232,1227,1227,1223,1223,1219,1219,1219,1219,1214,1214,1214,1214,1214,1214,1210,1210,1210,1210,1206,1206,1202,1202,1202,1202,1197,1197,1197,1197,1193,1193,1193,1193,1189,1189,1185,1185,1185,1181,1181,1181,1181,1177,1177,1173,1173,1173,1173,1169,1169,1165,1165,1165,1165,1165,1165,1165,1161,1161,1161,1157,1153,1153,1153,1149,1149,1149,1149,1149,1145,1145,1145,1141,1138,1138,1138,1138,1134,1134,1134,1134,1134,1134,1134,1130,1130,1130,1126,1123,1123,1123,1119,1119,1119,1119,1115,1115,1115,1115,1112,1112,1112,1108,1108,1108,1108,1105,1105,1105,1101,1101,1101,1101,1101,1097,1097,1094,1094,1094,1094,1094,1090,1090,1090,1090,1090,1090,1087,1084,1084,1084,1084,1080,1080,1080,1080,1080,1077,1077,1077,1077,1077,1073,1073,1073,1070,1070,1070,0,0,0,0,0,0,0,0,0,0,0,0,0,0,0,0,0,0,0,0,0,0,0,0,0,0,0,0,0
0,0,0,0,0,0,0,0,0,0,0,0,0,1483,1483,1483,1483,1483,1483,1483,1483,1483,1483,1483,1483,1483,1483,1483,1483,1483,1477,1477,1483,1483,1483,1483,1483,1489,1496,1503,1503,1509,1509,1509,1509,2053,2053,2040,2040,2040,2040,2040,2040,2028,2028,2028,2028,2028,2016,2016,2005,1970,1970,1970,1970,1516,1516,1516,1509,1509,1509,1503,1503,1503,1503,1503,1503,1503,1503,1503,1503,1509,1516,1516,1516,1516,1523,1523,1529,1536,1536,1543,1543,1543,1550,1550,1550,1557,1557,1564,1564,1564,1564,1564,1572,1572,1579,1579,1586,1594,1594,1601,1601,1601,1601,1601,1601,1616,1616,1616,1624,1624,1624,1624,1632,1632,1632,1632,1639,1639,1647,1647,1647,1655,1655,1655,1663,1663,1671,1671,1680,1688,1688,1688,1688,1688,1696,1696,1696,1696,1696,1705,1705,1713,1722,1722,1722,1731,1731,1731,1731,1731,1731,1739,1748,1748,1748,1748,1739,1739,1739,1739,1731,1731,1731,1731,1731,1722,1722,1722,0,1047,1047,1047,1047,1047,1047,1047,1044,1044,1044,1044,1044,1044,1041,1041,1041,1041,1041,1044,1047,1047,1050,1050,1054,1057,1057,1060,1060,0,0,0,0,1639,1639,1639,1632,1632,1632,1632,1632,1632,1632,1632,1624,1624,1624,1624,1616,1616,1609,1609,1609,1609,1601,1601,1601,1601,1601,1594,1586,1586,1586,1579,1579,1579,1579,1572,1572,1564,1564,1564,1564,1564,1564,1557,1557,1557,1557,1543,1543,1543,1543,1543,1543,1543,1536,1536,1536,1536,1536,1529,1529,1529,1523,1523,1516,1516,1516,1516,1516,1509,1509,1503,1503,1496,1496,1489,1489,1489,1489,1489,1489,1489,1483,1483,1483,1483,1477,1477,1477,1477,1470,1470,1464,1464,1464,1464,0,0,0,0,0,0,889,889,889,889,889,887,887,887,887,887,885,882,880,880,880,878,878,880,880,880,882,882,885,889,891,894,896,896,896,0,0,0,0,0,1392,1392,1392,1392,1392,1392,1392,1392,1392,1387,1381,1381,1376,1376,1376,1376,1376,1376,1370,1370,1370,1370,1365,1359,1359,1354,1354,1354,1354,1354,1354,1349,1349,1349,1349,1338,1338,1333,1333,1333,1333,1333,1333,1333,1333,1333,1328,1328,1328,1322,1322,1322,1317,1317,1317,1317,1312,1312,1312,1312,1307,1307,1302,1302,1302,1302,1297,1297,1292,1292,1292,1292,1292,1292,1288,1288,1288,1288,1283,1283,1278,1278,1273,1273,1273,1273,1273,1268,1268,1268,1268,1268,1264,1259,1259,1255,1255,1255,1255,1250,1250,1250,1250,1250,1250,1245,1241,1241,1241,1241,1236,1236,1236,1232,1232,1232,1227,1227,1227,1223,1223,1219,1219,1219,1214,1214,1214,1214,1214,1214,1214,1210,1210,1210,1206,1206,1206,1202,1202,1202,1197,1197,1197,1197,1193,1193,1193,1193,1189,1189,1189,1185,1185,1181,1181,1181,1181,1177,1177,1173,1173,1173,1173,1169,1169,1169,1165,1165,1165,1165,1165,1165,1161,1161,1157,1157,1153,1153,1153,1149,1149,1149,1149,1149,1145,1145,1145,1141,1141,1138,1138,1138,1138,1134,1134,1134,1134,1134,1134,1130,1130,1130,1126,1123,1123,1123,1123,1119,1119,1119,1119,1115,1115,1115,1115,1112,1112,1112,1108,1108,1108,1105,1105,1105,1105,1105,1105,1101,1101,1101,1101,1097,1094,1094,1094,1094,1094,1090,1090,1090,1090,1090,1087,1087,1087,1084,1084,1084,1080,1080,1080,1080,1077,1077,1077,1077,1077,1077,1073,1073,1073,1070,1070,0,0,0,0,0,0,0,0,0,0,0,0,0,0,0,0,0,0,0,0,0,0,0,0,0,0,0,0,0
0,0,0,0,0,0,0,0,0,0,0,0,0,1483,1483,1483,1483,1483,1483,1483,1483,1483,1483,1483,1483,1483,1483,1483,1483,1483,1483,1483,1483,1483,1483,1483,1489,1489,1496,1503,1509,1509,1509,1509,1509,1509,2053,2040,2016,2016,2040,2040,2040,2028,2028,2028,2028,2016,2005,2005,1981,1959,1959,1959,0,0,1516,1516,1509,1509,1509,1503,1503,1503,1503,1503,1503,1503,1503,1503,1509,1509,1516,1516,1516,1516,1523,1529,1536,1536,1536,1543,1543,1543,1550,1550,1557,1557,1557,1564,1564,1564,1564,1572,1572,1579,1586,1586,1594,1594,1594,1594,1601,1601,1601,1601,1609,1616,1616,1624,1624,1632,1632,1632,1632,1632,1639,1639,1639,1647,1647,1647,1647,1655,1655,1655,1663,1663,1671,1671,1680,1688,1688,1688,1688,1688,1696,1696,1696,1696,1696,1705,1713,1722,1722,1722,1722,1731,1731,1731,1731,1731,1739,1739,1748,1748,1748,1748,1748,1739,1739,1739,1731,1731,1731,1731,1731,1722,1722,1722,0,1047,1047,1047,1047,1047,1047,1047,1044,1044,1044,1044,1044,1044,1041,1041,1041,1041,1041,1044,1047,1047,1050,1050,1054,1057,1057,1060,1060,0,0,0,0,1647,1647,1639,1639,1632,1632,1632,1632,1632,1632,1632,1624,1624,1624,1616,1616,1616,1609,1609,1609,1609,1609,1601,1601,1601,1601,1594,1586,1586,1586,1579,1579,1579,1579,1572,1572,1572,1564,1564,1564,1564,1564,1557,1557,1557,1557,1543,1543,1543,1543,1543,1543,1543,1536,1536,1536,1536,1536,1536,1529,1529,1523,1523,1523,1523,1516,1516,1516,1516,1509,1509,1503,1503,1496,1496,1489,1489,1489,1489,1489,1489,1483,1483,1483,1483,1477,1477,1477,1477,1470,1470,1464,1464,1458,1458,0,0,0,0,0,0,889,889,889,889,889,887,887,887,887,887,885,882,880,880,880,880,880,880,880,880,882,882,887,889,894,896,896,896,896,0,0,0,0,0,1392,1392,1392,1392,1392,1392,1392,1392,1392,1387,1387,1381,1376,1376,1376,1376,1376,1376,1370,1370,1370,1370,1365,1365,1359,1354,1354,1354,1354,1354,1354,1349,1349,1349,1349,1338,1338,1333,1333,1333,1333,1333,1333,1333,1333,1333,1333,1328,1328,1328,1322,1322,1322,1317,1317,1317,1317,1312,1312,1312,1307,1307,1302,1302,1302,1302,1297,1297,1292,1292,1292,1292,1292,1292,1288,1288,1288,1288,1283,1283,1283,1278,1278,1273,1273,1273,1273,1273,1268,1268,1268,1268,1264,1264,1259,1259,1255,1255,1255,1250,1250,1250,1250,1250,1250,1245,1241,1241,1241,1241,1236,1236,1236,1232,1232,1232,1227,1227,1227,1223,1223,1219,1219,1219,1214,1214,1214,1214,1214,1214,1214,1210,1210,1210,1206,1206,1206,1202,1202,1202,1202,1197,1197,1197,1197,1197,1193,1193,1193,1189,1189,1185,1185,1185,1181,1181,1181,1181,1177,1177,1177,1173,1173,1169,1169,1169,1165,1165,1165,1165,1165,1165,1161,1161,1157,1157,1157,1153,1153,1153,1149,1149,1149,1149,1149,1149,1145,1145,1141,1138,1138,1138,1138,1134,1134,1134,1134,1134,1134,1134,1130,1130,1126,1126,1123,1123,1123,1119,1119,1119,1119,1119,1115,1115,1115,1115,1112,1112,1108,1108,1108,1108,1105,1105,1105,1105,1105,1101,1101,1101,1101,1097,1097,1094,1094,1094,1094,1094,1090,1090,1090,1090,1090,1090,1087,1087,1084,1084,1080,1080,1080,1080,1077,1077,1077,1077,1077,1077,1077,1077,1077,1073,1073,0,0,0,0,0,0,0,0,0,0,0,0,0,0,0,0,0,0,0,0,0,0,0,0,0,0,0,0,0
0,0,0,0,0,0,0,0,0,0,0,0,0,1483,1483,1483,1489,1483,1483,1483,1483,1483,1483,1483,1483,1483,1483,1483,1483,1483,1483,1483,1483,1483,1483,1483,1489,1489,1496,1503,1509,1509,1509,1509,1509,1509,2040,2040,2016,720,720,2040,2040,2028,2028,2028,2028,2016,1993,1981,1970,1959,1959,1959,1915,1915,1516,1516,1509,1509,1509,1509,1509,1509,1503,1503,1503,1503,1509,1509,1509,1509,1516,1516,1516,1516,1523,1529,1529,1536,1536,1543,1543,1543,1550,1550,1557,1564,1564,1564,1564,1572,1572,1572,1572,1579,1586,1594,1594,1594,1594,1594,1601,1601,1601,1601,1609,1616,1624,1624,1632,1632,1632,1632,1632,1632,1639,1639,1639,1647,1647,1647,1647,1655,1655,1655,1663,1663,1671,1671,1680,1680,1688,1688,1688,1688,1696,1696,1696,1705,1705,1713,1713,1722,1722,1722,1722,1731,1731,1731,1731,1731,1739,1739,1748,1748,1748,1748,1748,1748,1748,1748,1739,1739,1739,1731,1731,1722,1713,1713,0,1047,1047,1047,1047,1050,1047,1047,1044,1044,1044,1044,1044,1044,1041,1041,1041,1041,1044,1044,1044,1047,1050,1054,1054,1057,1057,1060,0,0,0,0,1655,1655,1647,1647,1639,1639,1639,1632,1632,1632,1632,1632,1632,1624,1624,1616,1616,1616,1609,1609,1609,1609,1616,1609,1609,1601,1601,1594,1594,1586,1586,1579,1579,1579,1579,1572,1572,1572,1572,1572,1564,1564,1564,1564,1564,1557,1557,1543,1543,1543,1543,1543,1543,1543,1543,1536,1536,1536,1536,1536,1529,1529,1529,1529,1523,1523,1523,1516,1516,1516,1509,1509,1503,1503,1503,1496,1496,1489,1489,1489,1489,1489,1483,1483,1483,1483,1483,1477,1477,1477,1470,1470,1464,1464,1458,1458,0,0,0,0,0,0,889,889,889,889,889,887,887,887,887,885,885,882,880,880,880,878,878,880,880,880,882,882,887,889,894,896,896,896,896,0,0,0,0,0,1392,1392,1392,1392,1392,1392,1392,1392,1392,1387,1387,1381,1376,1376,1376,1376,1376,1376,1370,1370,1370,1370,1365,1365,1359,1359,1359,1354,1354,1354,1354,1349,1349,1349,1349,1343,1338,1338,1338,1338,1333,1333,1333,1333,1333,1333,1333,1333,1328,1328,1322,1322,1322,1317,1317,1312,1312,1312,1312,1312,1307,1307,1307,1307,1302,1302,1302,1297,1297,1292,1292,1292,1292,1292,1288,1288,1288,1288,1283,1283,1283,1278,1278,1273,1273,1273,1273,1273,1273,1268,1268,1268,1268,1264,1264,1259,1255,1255,1255,1250,1250,1250,1250,1250,1250,1245,1245,1245,1241,1241,1241,1236,1236,1232,1232,1232,1227,1227,1227,1223,1223,1223,1223,1219,1219,1214,1214,1214,1214,1214,1214,1214,1210,1210,1210,1206,1206,1206,1202,1202,1202,1197,1197,1197,1197,1197,1197,1193,1193,1189,1189,1185,1185,1185,1181,1181,1181,1181,1177,1177,1177,1177,1173,1169,1169,1169,1165,1165,1165,1165,1165,1165,1161,1161,1157,1157,1157,1153,1153,1153,1153,1153,1149,1149,1149,1149,1145,1145,1141,1138,1138,1138,1138,1138,1134,1134,1134,1134,1134,1134,1134,1130,1130,1126,1123,1123,1123,1123,1123,1119,1119,1119,1119,1119,1115,1115,1112,1112,1108,1108,1108,1108,1105,1105,1105,1105,1105,1105,1101,1101,1101,1101,1097,1097,1097,1097,1094,1094,1094,1090,1090,1090,1090,1090,1087,1087,1084,1084,1080,1080,1080,1080,1077,1077,1077,1077,1077,1077,1077,1073,1073,1073,1073,0,0,0,0,0,0,0,0,0,0,0,0,0,0,0,0,0,0,0,0,0,0,0,0,0,0,0,0,0
0,0,0,0,0,0,0,0,0,0,0,0,0,1483,1483,1489,1489,1483,1483,1483,1483,1483,1483,1483,1483,1483,1483,1483,1483,1483,1483,1483,1483,1483,1483,1483,1489,1489,1496,1496,1503,1503,1503,1509,1509,1509,722,722,722,720,720,2053,2040,2040,2040,2016,2005,1981,1981,1970,1970,1959,1959,1915,1915,1915,1516,1516,1509,1509,1509,1509,1509,1509,1503,1503,1509,1509,1509,1509,1509,1509,1516,1516,1516,1516,1523,1529,1529,1536,1536,1543,1543,1550,1550,1557,1557,1564,1564,1564,1564,1572,1572,1572,1579,1586,1594,1594,1594,1594,1594,1594,1594,1601,1601,1601,1609,1616,1624,1624,1632,1632,1632,1632,1632,1632,1639,1639,1639,1647,1647,1647,1655,1655,1655,1655,1663,1663,1671,1671,1680,1680,1688,1688,1688,1688,1696,1696,1705,1705,1705,1713,1722,1722,1722,1722,1731,1731,1731,1731,1731,1739,1739,1748,1748,1748,1757,1748,1748,1748,1748,1748,1739,1739,1739,1731,1731,1722,1705,1705,1705,0,1047,1047,1047,1050,1047,1047,1044,1044,1044,1044,1041,1041,1041,1041,1041,1041,1041,1044,1044,1047,1050,1050,1057,1057,1060,1060,0,1067,0,0,0,1655,1655,1647,1647,1639,1639,1632,1632,1632,1632,1632,1624,1624,1624,1624,1616,1616,1616,1616,1616,1616,1616,1609,1609,1601,1601,1594,1594,1594,1586,1586,1579,1579,1579,1579,1579,1572,1572,1572,1564,1564,1564,1564,1564,1557,1557,1550,1550,1543,1543,1543,1543,1543,1543,1536,1536,1536,1536,1536,1536,1529,1529,1529,1529,1529,1523,1523,1516,1516,1509,1509,1509,1503,1503,1496,1496,1496,1489,1489,1489,1489,1489,1483,1483,1483,1483,1483,1477,1477,1477,1470,1464,1464,1464,1464,0,0,0,0,0,0,889,889,889,889,889,887,887,887,887,885,885,882,880,880,880,878,878,880,880,880,882,887,889,889,894,896,896,898,898,0,0,0,0,1392,1392,1392,1392,1392,1392,1392,1392,1392,1392,1387,1387,1381,1381,1381,1381,1376,1376,1376,1370,1370,1370,1365,1365,1365,1359,1359,1359,1354,1354,1354,1354,1349,1349,1349,1349,1343,1338,1338,1338,1338,1333,1333,1333,1333,1333,1333,1333,1333,1333,1328,1328,1322,1322,1317,1317,1312,1312,1312,1312,1312,1307,1307,1307,1307,1302,1302,1302,1297,1297,1297,1292,1292,1292,1292,1288,1288,1288,1288,1283,1283,1283,1278,1278,1273,1273,1273,1273,1273,1273,1273,1268,1268,1268,1264,1264,1259,1259,1255,1255,1255,1255,1250,1250,1250,1250,1245,1245,1245,1245,1241,1241,1236,1236,1236,1236,1232,1232,1232,1227,1227,1223,1223,1223,1219,1219,1219,1214,1214,1214,1214,1214,1214,1210,1210,1210,1210,1206,1206,1202,1202,1202,1202,1197,1197,1197,1197,1197,1197,1193,1193,1189,1189,1185,1185,1181,1181,1181,1181,1177,1177,1177,1177,1173,1173,1169,1169,1169,1169,1165,1165,1165,1165,1165,1165,1157,1157,1157,1153,1153,1153,1153,1153,1153,1149,1149,1149,1149,1145,1145,1141,1138,1138,1138,1138,1134,1134,1134,1134,1134,1134,1134,1130,1130,1126,1126,1126,1123,1123,1123,1123,1119,1119,1119,1119,1119,1119,1115,1115,1112,1108,1108,1108,1105,1105,1105,1105,1105,1105,1105,1105,1101,1101,1097,1097,1097,1097,1094,1094,1094,1094,1094,1090,1090,1090,1090,1090,1084,1084,1080,1080,1080,1080,1077,1077,1077,1077,1077,1077,1077,1073,1073,1073,1073,0,0,0,0,0,0,0,0,0,0,0,0,0,0,0,0,0,0,0,0,0,0,0,0,0,0,0,0,0
0,0,0,0,0,0,0,0,0,0,0,0,0,1483,1483,1489,1483,1483,1483,1483,1483,1483,1483,1483,1483,1483,1483,1483,1483,1483,1483,1483,1483,1483,1483,1483,1489,1489,1496,1496,1503,1503,1503,1509,1509,722,722,722,722,722,722,722,723,723,2016,2016,2005,1981,1981,1970,1970,1970,1915,1915,1915,1915,1516,1516,1516,1516,1516,1509,1509,1509,1509,1509,1509,1509,1509,1509,1509,1509,1516,1516,1516,1523,1523,1529,1529,1536,1543,1543,1550,1557,1557,1557,1557,1564,1564,1564,1564,1572,1572,1572,1579,1586,1594,1594,1594,1594,1594,1594,1594,1601,1601,1609,1616,1616,1616,1624,1624,1632,1632,1632,1632,1632,1639,1639,1647,1647,1647,1655,1655,1655,1655,1663,1663,1663,1671,1671,1680,1688,1688,1688,1688,1696,1696,1705,1705,1713,1713,1722,1722,1722,1722,1722,1731,1731,1731,1731,1731,1739,1739,1748,1748,1757,1757,1757,1757,1748,1748,1748,1748,1739,1739,1731,1731,1722,1696,1696,1696,1050,1050,1050,1050,1050,1047,1047,1047,1044,1044,1044,1041,1041,1041,1041,1041,1041,1041,1044,1044,1047,1050,1050,1057,1057,1060,1063,1067,1067,0,0,0,1655,1655,1647,1647,1639,1639,1639,1639,1632,1632,1632,1624,1624,1624,1624,1616,1616,1616,1616,1616,1616,1616,1616,1609,1609,1601,1594,1594,1594,1586,1586,1579,1579,1579,1579,1579,1572,1572,1572,1572,1564,1564,1564,1564,1564,1557,1557,1557,1550,1550,1543,1543,1543,1543,1536,1536,1536,1536,1536,1536,1529,1529,1529,1529,1529,1523,1516,1516,1516,1516,1509,1509,1509,1503,1496,1496,1496,1496,1496,1489,1489,1489,1489,1483,1483,1483,1483,1477,1477,1477,1470,1464,1464,1464,1464,0,0,0,0,0,0,889,889,889,889,889,887,887,887,887,885,885,885,882,880,880,880,880,880,880,882,882,887,889,889,894,896,896,898,0,0,0,0,0,1392,1392,1392,1392,1392,1392,1392,1392,1392,1392,1387,1387,1381,1381,1381,1381,1381,1376,1376,1376,1376,1370,1365,1365,1365,1359,1359,1359,1359,1354,1354,1354,1349,1349,1349,1349,1343,1343,1338,1338,1338,1338,1338,1333,1333,1333,1333,1333,1333,1333,1328,1328,1322,1322,1317,1317,1317,1312,1312,1312,1312,1312,1307,1307,1307,1307,1302,1302,1302,1297,1297,1297,1297,1292,1292,1292,1288,1288,1288,1288,1283,1283,1278,1278,1278,1273,1273,1273,1273,1273,1273,1268,1268,1268,1264,1264,1259,1259,1255,1255,1255,1255,1250,1250,1250,1250,1250,1245,1245,1245,1241,1241,1236,1236,1236,1236,1232,1232,1232,1227,1227,1227,1227,1223,1223,1219,1219,1219,1219,1214,1214,1214,1214,1214,1210,1210,1210,1206,1206,1202,1202,1202,1202,1197,1197,1197,1197,1197,1197,1193,1193,1189,1189,1185,1185,1181,1181,1181,1181,1177,1177,1177,1177,1177,1173,1173,1169,1169,1169,1169,1165,1165,1165,1165,1165,1161,1161,1157,1157,1153,1153,1153,1153,1153,1149,1149,1149,1149,1145,1145,1141,1141,1138,1138,1138,1134,1134,1134,1134,1134,1134,1134,1130,1130,1126,1126,1126,1126,1123,1123,1123,1123,1119,1119,1119,1119,1119,1115,1115,1112,1108,1108,1108,1105,1105,1105,1105,1105,1105,1105,1105,1105,1101,1101,1097,1097,1097,1097,1094,1094,1094,1094,1090,1090,1090,1090,1090,1087,1084,1080,1080,1080,1080,1080,1080,1080,1077,1077,1077,1073,1073,1073,1073,1073,0,0,0,0,0,0,0,0,0,0,0,0,0,0,0,0,0,0,0,0,0,0,0,0,0,0,0,0,0
0,0,0,0,0,0,0,0,0,0,0,0,0,1483,1483,1483,1483,1483,1489,1483,1483,1483,1483,1483,1483,1483,1483,1483,1483,1483,1483,1483,1483,1483,1489,1489,1489,1489,1496,1496,1503,1503,1503,1509,1509,722,722,722,722,722,722,722,723,723,2016,2016,2016,1993,1993,1993,1804,1804,1804,1804,1523,1523,1523,1516,1516,1516,1516,1509,1509,1509,1509,1509,1509,1509,1509,1509,1509,1516,1516,1516,1523,1523,1529,1529,1529,1536,1543,1543,1550,1557,1557,1557,1557,1564,1564,1564,1564,1572,1572,1572,1579,1586,1594,1594,1594,1594,1594,1594,1594,1601,1601,1609,1616,1616,1616,1624,1624,1632,1632,1632,1632,1632,1639,1647,1647,1655,1655,1655,1655,1655,1655,1663,1663,1671,1671,1671,1680,1688,1688,1688,1696,1696,1705,1705,1705,1713,1713,1722,1722,1722,1722,1722,1731,1731,1731,1731,1739,1739,1748,1748,1757,1757,1757,1757,1757,1757,1757,1748,1748,1739,1739,1722,1722,1705,1688,1688,0,0,0,1050,1050,1050,1050,1050,1047,1044,1044,1044,1041,1041,1041,1041,1041,1041,1044,1044,1044,1047,1050,1050,1057,1060,1063,1067,1067,1067,0,1671,1655,1655,1655,1655,1647,1647,1639,1639,1632,1632,1632,1632,1632,1624,1624,1624,1616,1616,1616,1616,1616,1616,1616,1616,1609,1609,1609,1601,1594,1594,1586,1586,1579,1579,1579,1579,1579,1572,1572,1579,1572,1572,1564,1564,1564,1564,1557,1557,1557,1550,1550,1543,1543,1543,1543,1543,1543,1536,1536,1536,1536,1529,1529,1529,1529,1529,1523,1516,1516,1516,1516,1509,1509,1509,1503,1503,1496,1496,1496,1496,1496,1489,1489,1489,1483,1483,1483,1483,1483,1477,1477,1470,1464,1464,1464,1464,0,0,0,0,0,0,889,889,889,889,889,887,887,887,887,885,885,882,882,880,880,880,880,880,880,882,885,887,889,889,891,896,896,898,0,0,0,0,0,1398,1398,1398,1398,1398,1398,1392,1392,1392,1392,1387,1387,1387,1387,1381,1381,1381,1381,1376,1376,1376,1370,1365,1365,1365,1365,1359,1359,1359,1354,1354,1354,1354,1349,1349,1349,1343,1343,1338,1338,1338,1338,1338,1338,1338,1333,1333,1333,1333,1333,1328,1328,1328,1322,1322,1317,1317,1317,1312,1312,1312,1312,1312,1307,1307,1307,1307,1302,1302,1302,1297,1297,1297,1292,1292,1292,1292,1288,1288,1288,1288,1283,1283,1278,1278,1273,1273,1273,1273,1273,1273,1273,1268,1268,1268,1264,1259,1259,1259,1255,1255,1255,1250,1250,1250,1250,1250,1245,1245,1245,1241,1241,1236,1236,1236,1236,1236,1232,1232,1232,1227,1227,1227,1227,1223,1219,1219,1219,1219,1214,1214,1214,1214,1214,1214,1210,1210,1206,1206,1206,1202,1202,1202,1197,1197,1197,1197,1197,1197,1193,1193,1193,1189,1189,1185,1185,1185,1181,1181,1177,1177,1177,1177,1177,1177,1173,1173,1169,1169,1169,1169,1165,1165,1165,1165,1161,1161,1157,1157,1157,1157,1153,1153,1153,1153,1149,1149,1149,1145,1145,1145,1141,1141,1141,1138,1138,1138,1134,1134,1134,1134,1134,1130,1130,1130,1126,1126,1126,1126,1123,1123,1123,1123,1119,1119,1119,1119,1115,1115,1112,1108,1108,1108,1108,1108,1105,1105,1105,1105,1105,1105,1105,1105,1101,1101,1101,1101,1101,1097,1094,1094,1094,1094,1090,1090,1090,1090,1087,1087,1084,1084,1080,1080,1080,1080,1080,1077,1077,1077,1073,1073,1073,1073,1073,0,0,0,0,0,0,0,0,0,0,0,0,0,0,0,0,0,0,0,0,0,0,0,0,0,0,0,0,0
0,0,0,0,0,0,0,0,0,0,0,0,0,1483,1483,1483,1483,1483,1489,1483,1483,1483,1483,1483,1483,1483,1483,1489,1489,1483,1483,1489,1489,1489,1489,1489,1489,1489,1496,1496,1503,1503,1503,733,733,733,723,722,722,722,723,725,727,727,1776,2016,2016,2016,2028,1804,1804,1804,1804,1804,1766,1523,1523,1523,1516,1516,1509,1509,1509,1509,1509,1509,1509,1509,1509,1509,1509,1516,1516,1523,1523,1529,1529,1536,1536,1536,1543,1543,1550,1557,1557,1557,1564,1564,1564,1564,1572,1572,1572,1572,1579,1586,1594,1594,1594,1594,1594,1594,1601,1601,1601,1609,1616,1616,1624,1624,1624,1632,1632,1632,1632,1639,1639,1647,1647,1655,1655,1655,1655,1655,1663,1663,1663,1671,1671,1671,1680,1688,1688,1688,1696,1696,1705,1705,1705,1713,1713,1722,1722,1722,1722,1722,1731,1731,1731,1731,1739,1739,1748,1748,1757,1757,1757,1757,1757,1757,1757,1757,1748,1748,1739,1722,1722,1705,1688,1688,0,0,0,1054,1050,1050,1050,1050,1047,1047,1044,1044,1041,1041,1041,1041,1041,1044,1044,1044,1047,1047,1050,1050,1057,1063,1063,1067,1067,1067,1067,1671,1671,1655,1655,1655,1647,1647,1639,1639,1632,1632,1632,1632,1632,1624,1624,1624,1624,1616,1616,1616,1616,1616,1616,1616,1609,1609,1601,1601,1594,1594,1586,1586,1586,1586,1586,1579,1579,1579,1579,1579,1579,1572,1564,1564,1564,1557,1557,1557,1557,1550,1550,1550,1543,1543,1543,1543,1543,1543,1536,1536,1536,1536,1536,1529,1529,1529,1523,1523,1516,1516,1516,1516,1509,1509,1503,1503,1503,1503,1496,1496,1496,1489,1489,1489,1489,1483,1483,1483,1483,1477,1477,1470,1464,1464,1464,1464,0,0,0,0,0,0,891,889,889,889,889,889,887,887,887,885,885,882,882,880,880,880,880,880,882,882,885,887,891,891,891,896,896,896,0,0,0,0,0,1404,1398,1398,1398,1398,1398,1398,1392,1392,1392,1387,1387,1387,1387,1387,1381,1381,1381,1381,1376,1376,1370,1370,1365,1365,1365,1359,1359,1359,1354,1354,1354,1354,1349,1349,1349,1349,1343,1343,1343,1338,1338,1338,1338,1338,1338,1333,1333,1333,1333,1333,1328,1328,1328,1322,1322,1317,1317,1312,1312,1312,1312,1312,1312,1307,1307,1307,1307,1302,1302,1297,1297,1297,1292,1292,1292,1292,1288,1288,1288,1283,1283,1278,1278,1278,1273,1273,1273,1273,1273,1273,1273,1268,1268,1268,1268,1264,1259,1259,1255,1255,1255,1255,1250,1250,1250,1250,1245,1245,1245,1241,1241,1236,1236,1236,1236,1236,1232,1232,1232,1232,1232,1232,1227,1223,1223,1219,1219,1219,1219,1214,1214,1214,1214,1214,1214,1210,1210,1206,1206,1202,1202,1202,1197,1197,1197,1197,1197,1197,1193,1193,1193,1193,1189,1189,1189,1185,1181,1181,1181,1177,1177,1177,1177,1177,1173,1173,1169,1169,1169,1169,1165,1165,1165,1165,1161,1161,1161,1157,1157,1157,1153,1153,1153,1153,1149,1149,1149,1145,1145,1145,1141,1141,1141,1141,1138,1138,1134,1134,1134,1134,1134,1130,1130,1130,1126,1126,1126,1126,1123,1123,1123,1123,1119,1119,1119,1119,1115,1115,1112,1112,1108,1108,1108,1108,1105,1105,1105,1105,1105,1105,1105,1105,1101,1101,1101,1101,1101,1097,1094,1094,1094,1094,1090,1090,1090,1090,1087,1087,1084,1084,1084,1080,1080,1080,1080,1077,1077,1077,1077,1073,1073,1073,1073,0,0,0,0,0,0,0,0,0,0,0,0,0,0,0,0,0,0,0,0,0,0,0,0,0,0,0,0,0
0,0,0,0,0,0,0,0,0,0,0,0,0,1489,1489,1489,1483,1483,1489,1483,1483,1483,1483,1483,1483,1483,1483,1489,1483,1483,1489,1489,1489,1489,1489,1489,1496,1496,1496,1496,1503,1509,1509,731,731,733,771,767,767,725,725,725,727,1785,1776,1776,1776,1794,1794,1794,1785,1776,1766,1766,1766,1523,1523,1523,1516,1516,1509,1509,1509,1509,1509,1509,1509,1509,1509,1516,1516,1516,1516,1523,1529,1529,1529,1536,1536,1536,1543,1543,1550,1557,1557,1557,1557,1564,1564,1564,1572,1572,1572,1579,1586,1586,1594,1594,1594,1594,1594,1594,1601,1601,1601,1609,1616,1616,1624,1624,1624,1632,1632,1632,1639,1639,1639,1647,1647,1655,1655,1655,1655,1655,1663,1663,1663,1671,1671,1671,1680,1688,1688,1688,1696,1696,1705,1705,1713,1713,1722,1722,1722,1722,1722,1731,1731,1731,1731,1739,1739,1748,1748,1757,1757,1757,1757,1757,1757,1757,1757,1757,1757,1748,1748,1748,1748,0,0,0,0,0,0,1054,1054,1050,1050,1050,1050,1047,1044,1044,1044,1044,1044,1041,1041,1044,1044,1047,1047,1047,1050,1054,1057,1063,1063,1063,1063,1067,1067,1671,1671,1663,1655,1655,1655,1647,1639,1639,1632,1632,1632,1632,1632,1624,1624,1624,1624,1624,1624,1624,1624,1616,1616,1616,1609,1609,1601,1601,1601,1594,1594,1586,1586,1586,1586,1579,1579,1579,1579,1579,1579,1572,1572,1564,1564,1557,1557,1557,1557,1550,1550,1550,1543,1543,1543,1543,1543,1543,1536,1536,1536,1536,1536,1529,1529,1529,1523,1523,1523,1516,1516,1516,1516,1509,1509,1503,1503,1503,1503,1496,1496,1496,1489,1489,1489,1483,1483,1483,1483,1477,1470,1470,1464,1464,1464,1464,0,0,0,0,0,0,891,889,889,889,889,889,887,887,887,885,885,882,882,880,880,880,880,882,882,885,887,889,891,891,891,896,896,896,0,0,0,0,0,1404,1404,1398,1398,1398,1398,1398,1392,1392,1392,1392,1392,1387,1387,1387,1381,1381,1381,1381,1376,1376,1370,1370,1370,1365,1365,1365,1359,1359,1354,1354,1354,1354,1354,1349,1349,1349,1349,1349,1343,1343,1343,1338,1338,1338,1338,1333,1333,1333,1333,1333,1328,1328,1328,1322,1322,1317,1317,1317,1312,1312,1312,1312,1312,1307,1307,1307,1307,1302,1302,1297,1297,1297,1292,1292,1292,1292,1288,1288,1288,1283,1283,1278,1278,1278,1273,1273,1273,1273,1273,1273,1273,1273,1268,1268,1264,1259,1259,1259,1255,1255,1255,1255,1250,1250,1250,1250,1250,1245,1245,1241,1241,1236,1236,1236,1236,1236,1232,1232,1232,1232,1232,1232,1227,1223,1223,1219,1219,1219,1219,1214,1214,1214,1214,1214,1214,1210,1210,1210,1206,1202,1202,1202,1202,1202,1197,1197,1197,1197,1193,1193,1193,1193,1189,1189,1189,1185,1185,1181,1181,1181,1181,1177,1177,1177,1177,1173,1173,1169,1169,1169,1169,1165,1165,1165,1165,1165,1161,1161,1161,1157,1157,1153,1153,1153,1149,1149,1149,1149,1145,1145,1145,1141,1141,1141,1138,1138,1138,1138,1134,1134,1134,1134,1130,1130,1130,1126,1126,1126,1123,1123,1123,1123,1119,1119,1119,1119,1115,1115,1115,1112,1112,1108,1108,1108,1108,1105,1105,1105,1105,1105,1105,1105,1101,1101,1101,1101,1101,1097,1094,1094,1094,1094,1090,1090,1090,1090,1087,1087,1084,1084,1084,1080,1080,1080,1080,1080,1077,1077,1077,1077,1073,1073,1073,0,0,0,0,0,0,0,0,0,0,0,0,0,0,0,0,0,0,0,0,0,0,0,0,0,0,0,0,0
0,0,0,0,0,0,0,0,0,0,0,0,0,1489,1489,1489,1489,1489,1489,1483,1483,1483,1483,1483,1483,1483,1483,1483,1483,1483,1483,1483,1483,1489,1489,1489,1496,1496,1496,1496,1503,1509,1509,730,730,733,771,767,767,1776,1776,728,728,1776,1776,1776,1794,1794,1776,1776,1776,1766,1766,1757,1757,1757,1523,1523,1523,1516,1516,1516,1509,1509,1509,1509,1509,1509,1509,1516,1516,1516,1516,1523,1529,1529,1529,1536,1536,1536,1543,1543,1550,1557,1557,1557,1557,1564,1564,1564,1564,1572,1579,1579,1586,1594,1594,1594,1594,1594,1594,1601,1601,1601,1601,1609,1616,1616,1624,1624,1632,1632,1632,1632,1639,1639,1639,1647,1647,1647,1655,1655,1655,1655,1663,1663,1671,1671,1671,1680,1680,1688,1688,1696,1696,1696,1705,1705,1713,1713,1722,1722,1722,1722,1722,1731,1731,1731,1731,1739,1748,1748,1748,1757,1757,1757,1757,1757,1757,1757,1757,1757,1748,1748,1748,1739,1739,0,0,0,0,0,0,1060,1054,1054,1050,1050,1050,1047,1044,1044,1044,1044,1044,1041,1041,1044,1044,1044,1044,1047,1050,1050,1060,1060,1063,1060,1060,1067,1067,1025,1025,1025,1025,1655,1655,1655,1639,1639,1632,1632,1632,1632,1632,1632,1632,1624,1624,1624,1624,1624,1624,1616,1616,1616,1609,1609,1609,1601,1601,1001,1001,1594,1594,1594,1586,1586,1586,1579,1579,1586,1579,1572,1572,1564,1564,1557,1557,1557,1557,1557,1557,1550,1550,1543,1543,1543,1536,1536,1536,1536,1536,1536,1536,1529,1529,1529,1529,1523,1523,1516,1516,1516,1516,1509,1509,1503,1503,1503,1503,1496,1496,1496,1489,1489,1489,1483,1483,1483,1483,1477,1470,1470,1464,1464,1464,1464,0,0,0,0,0,891,891,889,889,889,889,889,889,887,887,887,885,885,882,880,880,880,880,882,882,885,887,889,891,891,896,896,896,898,0,0,0,0,0,1410,1410,1404,1404,1398,1398,1398,1392,1392,1392,1392,1392,1387,1387,1387,1381,1381,1381,1381,1376,1376,1370,1370,1370,1370,1365,1365,1365,1359,1359,1359,1354,1354,1354,1349,1349,1349,1349,1349,1349,1343,1343,1343,1343,1338,1338,1333,1333,1333,1333,1333,1328,1328,1328,1322,1322,1317,1317,1317,1312,1312,1312,1312,1312,1307,1307,1307,1307,1307,1302,1302,1297,1297,1292,1292,1292,1292,1288,1288,1288,1288,1283,1283,1283,1278,1278,1278,1273,1273,1273,1273,1273,1273,1268,1268,1264,1259,1259,1259,1255,1255,1255,1255,1255,1255,1250,1250,1250,1245,1245,1241,1241,1241,1241,1236,1236,1236,1236,1232,1232,1232,1232,1232,1227,1227,1223,1223,1219,1219,1219,1214,1214,1214,1214,1214,1214,1214,1210,1210,1206,1206,1202,1202,1202,1202,1197,1197,1197,1197,1197,1197,1193,1193,1193,1189,1189,1185,1185,1181,1181,1181,1181,1181,1177,1177,1177,1173,1173,1169,1169,1169,1169,1169,1165,1165,1165,1165,1165,1161,1161,1161,1157,1157,1153,1153,1149,1149,1149,1149,1145,1145,1145,1145,1141,1141,1138,1138,1138,1138,1134,1134,1134,1134,1130,1130,1130,1126,1126,1126,1123,1123,1123,1119,1119,1119,1119,1119,1115,1115,1115,1112,1112,1112,1108,1108,1108,1105,1105,1105,1105,1105,1105,1105,1101,1101,1101,1101,1101,1097,1094,1094,1094,1090,1090,1090,1090,1090,1090,1087,1087,1087,1084,1084,1080,1080,1080,1080,1080,1077,1077,1077,1077,1073,1073,0,0,0,0,0,0,0,0,0,0,0,0,0,0,0,0,0,0,0,0,0,0,0,0,0,0,0,0,0
0,0,0,0,0,0,0,0,0,0,0,0,0,1489,1489,1489,1489,1489,1489,1489,1483,1483,1483,1483,1483,1483,1483,1483,1483,1483,1483,1483,1483,1489,1489,1489,1496,1496,1496,1496,1503,1509,1509,730,730,1516,771,767,767,1776,1776,1776,1776,1776,1766,1766,1766,1776,1776,1766,1766,1757,1757,1757,1757,1757,1757,1523,1523,1516,1516,1516,1509,1509,1509,1509,1509,1509,1509,1516,1516,1516,1523,1523,1529,1529,1529,1536,1536,1543,1543,1543,1550,1557,1557,1557,1557,1564,1564,1564,1564,1572,1579,1579,1586,1586,1594,1594,1594,1594,1594,1601,1601,1601,1609,1616,1616,1616,1624,1624,1632,1632,1639,1639,1639,1639,1639,1647,1647,1647,1655,1655,1655,1655,1663,1663,1671,1671,1671,1680,1680,1688,1688,1696,1696,1696,1705,1705,1705,1713,1713,1722,1722,1722,1722,1731,1731,1731,1731,1739,1748,1748,1748,1757,1757,1757,1757,1757,1757,1757,1757,1757,1748,1748,1748,1739,1739,0,0,0,0,0,0,1060,1054,1054,1050,1050,1050,1047,1047,1044,1044,1044,1044,1041,1041,1044,1044,1044,1044,1047,1047,1050,1057,1060,1057,1057,1060,1060,1028,1028,1025,1025,1025,1025,1025,1025,1025,1639,1632,1632,1632,1632,1632,1632,1632,1013,1010,1010,1010,1007,1007,1624,1624,1616,1609,1609,1609,1001,1001,1001,998,995,995,992,992,992,989,989,989,987,987,1572,1572,1564,1564,1557,1557,1543,1543,1550,1550,1550,1550,1543,1543,1543,964,962,962,1536,1536,1536,1536,1529,1529,1529,1529,1516,1516,1516,1516,1516,1516,1509,1509,1503,1503,1503,1503,1503,1496,1489,1489,1489,1489,1489,1489,1483,1483,1477,1477,1470,1464,1464,1464,1464,0,0,0,0,0,889,889,891,889,889,889,889,889,889,887,887,885,885,882,880,880,880,880,880,882,885,889,891,894,894,896,896,896,898,0,0,0,0,0,1410,1410,1410,1404,1398,1398,1398,1398,1392,1392,1392,1392,1392,1387,1387,1387,1381,1381,1381,1376,1376,1370,1370,1370,1370,1370,1365,1365,1365,1365,1359,1359,1354,1354,1349,1349,1354,1349,1349,1349,1349,1349,1343,1343,1338,1338,1333,1333,1333,1333,1333,1328,1328,1328,1322,1322,1322,1317,1317,1317,1312,1312,1312,1312,1307,1307,1307,1307,1302,1302,1302,1297,1297,1297,1292,1292,1292,1292,1292,1288,1288,1283,1283,1283,1278,1278,1278,1273,1273,1273,1273,1273,1273,1268,1268,1264,1259,1259,1259,1259,1255,1255,1255,1255,1255,1250,1250,1250,1250,1245,1241,1241,1241,1241,1236,1236,1236,1236,1232,1232,1232,1232,1232,1227,1227,1223,1223,1219,1219,1219,1214,1214,1214,1214,1214,1214,1214,1210,1210,1206,1206,1206,1202,1202,1202,1197,1197,1197,1197,1197,1197,1193,1193,1193,1193,1193,1185,1185,1181,1181,1181,1181,1181,1181,1177,1177,1177,1173,1173,1173,1169,1169,1169,1169,1165,1165,1165,1165,1161,1161,1161,1157,1157,1153,1153,1153,1153,1149,1149,1149,1145,1145,1145,1145,1141,1141,1138,1138,1138,1134,1134,1134,1134,1134,1130,1130,1126,1126,1126,1123,1123,1123,1119,1119,1119,1119,1119,1119,1115,1115,1115,1112,1112,1108,1108,1108,1108,1105,1105,1105,1105,1105,1105,1101,1101,1101,1101,1101,1097,1094,1094,1094,1090,1090,1090,1090,1090,1090,1090,1087,1087,1084,1084,1080,1080,1080,1080,1080,1077,1077,1077,1077,1073,1073,0,0,0,0,0,0,0,0,0,0,0,0,0,0,0,0,0,0,0,0,0,0,0,0,0,0,0,0,0
0,0,0,0,0,0,0,0,0,0,0,0,0,1489,1489,1489,1489,1489,1489,1489,1489,1483,1483,1489,1483,1483,1483,1483,1483,1483,1483,1483,1483,1483,1489,1489,1496,1496,1496,1496,1503,1509,1509,1509,1509,1509,1516,1516,1776,1776,1776,1776,1776,1776,1766,1766,1766,1766,1766,1766,1766,1757,1757,1757,1757,1748,1739,1739,1739,1523,1523,1516,1516,1509,1509,1516,1516,1516,1516,1516,1516,1523,1523,1523,1529,1529,1536,1536,1536,1543,1543,1550,1550,1557,1557,1557,1564,1564,1564,1564,1564,1572,1579,1579,1586,1586,1594,1594,1594,1601,1601,1601,1601,1601,1609,1616,1616,1616,1624,1624,1624,1624,1624,1624,1632,1639,1639,1647,1647,1647,1655,1655,1655,1655,1663,1663,1671,1671,1671,1680,1680,1688,1688,1696,1696,1696,1705,1705,1705,1713,1713,1722,1722,1722,1722,1731,1731,1731,1739,1739,1748,1748,1757,1757,1757,1757,1757,1757,1757,1757,1757,1757,1748,1748,1748,1748,1748,0,0,0,0,0,0,1060,1054,1054,1050,1050,1050,1047,1047,1044,1044,1044,1044,1041,1041,1044,1044,1044,1044,1047,1047,1047,1050,1050,1047,1041,1038,1034,1031,1028,1025,1025,1025,1025,1025,1022,1022,1022,1019,1019,1019,1019,1019,1016,1016,1013,1010,1010,1010,1007,1007,1007,1007,1007,1004,1004,1001,1001,998,998,998,989,989,989,989,989,989,989,989,987,984,981,981,975,975,975,975,1543,1543,1550,1550,987,987,1543,970,967,964,962,962,959,951,951,956,1536,1536,1529,1529,1516,1516,1516,1516,1516,1516,1509,1509,1509,1503,1503,1503,1503,1496,1489,1489,1489,1489,1489,1489,1483,1483,1483,1483,1477,1470,1464,1464,0,0,0,0,0,0,889,889,889,889,889,889,889,889,889,887,887,885,885,882,882,882,882,880,880,882,887,889,891,894,896,896,896,898,898,0,0,0,0,0,1410,1410,1410,1404,1404,1398,1398,1398,1398,1392,1392,1392,1392,1392,1392,1387,1387,1381,1381,1381,1376,1370,1370,1370,1370,1370,1370,1370,1365,1365,1359,1359,1354,1354,1354,1354,1354,1349,1349,1349,1349,1349,1343,1343,1338,1338,1338,1333,1333,1333,1333,1328,1328,1328,1328,1322,1322,1322,1322,1317,1317,1312,1312,1312,1307,1307,1307,1307,1302,1302,1302,1297,1297,1297,1292,1292,1292,1292,1292,1288,1288,1288,1283,1283,1283,1278,1278,1278,1273,1273,1273,1273,1273,1268,1268,1264,1259,1259,1259,1259,1259,1255,1255,1255,1255,1255,1250,1250,1250,1245,1241,1241,1241,1241,1236,1236,1236,1236,1232,1232,1232,1232,1232,1227,1227,1223,1223,1219,1219,1219,1219,1219,1219,1214,1214,1214,1214,1210,1210,1210,1206,1206,1202,1202,1202,1197,1197,1197,1197,1197,1197,1197,1193,1193,1193,1193,1189,1185,1185,1181,1181,1181,1181,1181,1181,1177,1177,1173,1173,1173,1169,1169,1169,1169,1165,1165,1165,1165,1161,1161,1161,1157,1157,1153,1153,1153,1153,1149,1149,1149,1149,1149,1145,1145,1141,1141,1138,1138,1138,1134,1134,1134,1134,1134,1134,1130,1126,1126,1126,1123,1123,1123,1119,1119,1119,1119,1119,1119,1119,1115,1115,1112,1112,1112,1108,1108,1108,1105,1105,1105,1105,1105,1105,1101,1101,1101,1101,1101,1097,1097,1094,1094,1094,1090,1090,1090,1090,1090,1090,1087,1087,1084,1084,1080,1080,1080,1080,1080,1080,1077,1077,1077,1077,1077,0,0,0,0,0,0,0,0,0,0,0,0,0,0,0,0,0,0,0,0,0,0,0,0,0,0,0,0,0
0,0,0,0,0,0,0,0,0,0,0,0,0,1489,1489,1489,1489,1489,1489,1489,1489,1489,1489,1489,1483,1483,1483,1483,1483,1483,1483,1483,1483,1483,1489,1489,1489,1496,1496,1503,1503,1509,1509,1509,1509,1509,1516,1516,1776,1776,1776,1785,1785,1776,1766,1766,1766,1766,1766,1757,1757,1757,1757,1757,1748,1748,1739,1739,1739,1757,1523,1516,1516,1516,1516,1516,1516,1516,1516,1516,1516,1523,1523,1529,1529,1536,1536,1536,1543,1543,1543,1550,1550,1557,1557,1557,1564,1564,1564,1572,1572,1572,1579,1579,1586,1586,1594,1594,1594,1601,1601,1601,1601,1601,1609,1616,1616,1616,1624,1624,1624,1624,1624,1624,1632,1639,1639,1647,1647,1647,1655,1655,1655,1663,1663,1663,1671,1671,1671,1680,1680,1688,1688,1696,1696,1696,1705,1705,1705,1713,1713,1722,1722,1722,1722,1731,1731,1739,1739,1739,1748,1748,1757,1757,1757,1757,1766,1757,1757,1757,1757,1757,1748,1748,1748,1748,0,0,0,0,0,0,0,1057,1054,1054,1050,1050,1050,1047,1047,1044,1044,1044,1044,1041,1041,1044,1044,1044,1044,1047,1047,1047,1047,1044,1041,1041,1038,1034,1031,1028,1025,1025,1025,1025,1025,1022,1022,1022,1019,1019,1019,1019,1016,1016,1016,1013,1013,1010,1010,1010,1007,1007,1007,1004,1004,1001,1001,998,998,992,992,989,989,989,989,989,989,989,989,987,984,981,978,978,975,975,975,975,975,975,975,981,978,975,967,967,964,964,962,959,951,951,954,954,954,954,954,1523,1523,1516,1509,1509,1509,1509,1509,1509,1503,1503,1503,1503,1496,1489,1489,1489,1489,1489,1489,1489,1483,1483,1483,1477,1477,0,0,0,0,0,0,0,0,889,889,889,891,889,889,889,889,889,887,887,887,885,882,882,882,882,880,880,882,887,889,891,894,896,896,898,898,898,0,0,0,0,0,1410,1410,1410,1410,1404,1404,1398,1398,1398,1398,1392,1392,1392,1392,1392,1387,1387,1387,1381,1381,1376,1376,1376,1370,1370,1370,1370,1370,1365,1365,1365,1359,1359,1354,1354,1354,1354,1354,1349,1349,1349,1349,1343,1343,1338,1338,1338,1338,1333,1333,1333,1328,1328,1328,1328,1328,1322,1322,1322,1322,1317,1317,1312,1312,1307,1307,1307,1307,1307,1302,1302,1297,1297,1297,1292,1292,1292,1292,1292,1288,1288,1288,1288,1288,1283,1283,1278,1278,1273,1273,1273,1273,1273,1268,1268,1268,1264,1264,1259,1259,1259,1259,1255,1255,1255,1255,1250,1250,1250,1250,1245,1241,1241,1241,1236,1236,1236,1236,1232,1232,1232,1232,1232,1227,1227,1227,1223,1223,1219,1219,1219,1219,1219,1214,1214,1214,1214,1214,1214,1210,1210,1206,1202,1202,1202,1197,1197,1197,1197,1197,1197,1197,1197,1197,1193,1193,1193,1185,1185,1181,1181,1181,1181,1181,1181,1177,1177,1177,1173,1173,1169,1169,1169,1169,1169,1165,1165,1165,1161,1161,1161,1157,1157,1153,1153,1153,1153,1149,1149,1149,1149,1149,1145,1145,1145,1141,1138,1138,1138,1134,1134,1134,1134,1134,1134,1130,1130,1130,1130,1126,1123,1123,1123,1123,1119,1119,1119,1119,1119,1115,1115,1115,1112,1112,1112,1112,1108,1105,1105,1105,1105,1105,1105,1101,1101,1105,1101,1101,1097,1094,1094,1094,1094,1090,1090,1090,1090,1090,1090,1087,1087,1084,1084,1084,1084,1080,1080,1080,1080,1077,1077,1077,1077,1077,0,0,0,0,0,0,0,0,0,0,0,0,0,0,0,0,0,0,0,0,0,0,0,0,0,0,0,0,0
0,0,0,0,0,0,0,0,0,0,0,0,0,1489,1489,1489,1489,1496,1489,1489,1489,1489,1489,1489,1489,1483,1483,1489,1489,1489,1489,1483,1483,1489,1489,1489,1489,1496,1496,1503,1503,1509,1509,1509,1509,1509,1516,1516,1785,1785,1785,1785,1785,1776,1766,1766,1766,1766,1766,1757,1757,1757,1757,1748,1748,1739,1739,1739,1739,1739,1529,1516,1516,1516,1516,1516,1516,1516,1516,1516,1516,1523,1523,1529,1536,1536,1536,1543,1543,1543,1543,1550,1557,1557,1557,1557,1564,1564,1564,1564,1572,1572,1579,1579,1586,1586,1594,1594,1594,1601,1601,1601,1609,1609,1616,1616,1616,1616,1624,1624,1624,1624,1632,1632,1632,1639,1639,1647,1647,1647,1655,1655,1655,1663,1663,1663,1671,1671,1671,1680,1680,1688,1696,1696,1696,1696,1705,1705,1705,1713,1713,1722,1722,1722,1731,1731,1731,1739,1739,1739,1748,1748,1757,1757,1757,1766,1766,1766,1757,1757,1757,1757,1748,1748,1748,1748,0,0,0,0,0,0,1060,1057,1054,1054,1050,1050,1050,1047,1047,1044,1044,1044,1044,1044,1044,1044,1044,1044,1044,1047,1044,1041,1041,1038,1038,1038,1038,1034,1034,1028,1028,1028,1025,1025,1025,1022,1022,1022,1022,1022,1019,1019,1016,1016,1016,1013,1013,1010,1010,1010,1007,1007,1007,1004,1004,1001,1001,998,998,992,992,989,989,989,989,989,989,989,987,987,984,981,978,978,978,975,975,975,975,975,973,970,970,970,967,964,964,964,962,959,954,954,954,954,954,954,954,1523,1523,1516,1509,1509,1509,1509,1509,1509,1509,1503,1503,1509,1503,1489,1489,1489,1489,1489,1489,1483,1483,1483,1483,1477,1477,0,0,0,0,0,0,0,889,889,889,889,889,889,889,889,889,889,887,887,887,885,882,882,882,882,882,882,882,887,889,891,894,896,896,898,898,898,0,0,0,0,0,1415,1410,1410,1410,1404,1404,1398,1398,1398,1398,1398,1398,1392,1392,1392,1387,1387,1387,1381,1381,1376,1376,1376,1376,1370,1370,1370,1370,1365,1365,1365,1359,1359,1354,1354,1354,1354,1354,1349,1349,1349,1349,1343,1343,1338,1338,1338,1333,1333,1333,1333,1333,1328,1328,1328,1328,1322,1322,1322,1322,1317,1317,1312,1312,1312,1307,1307,1307,1307,1302,1302,1302,1297,1297,1292,1292,1292,1292,1292,1292,1292,1288,1288,1288,1288,1283,1283,1283,1278,1278,1273,1273,1268,1268,1268,1268,1264,1264,1264,1259,1259,1259,1255,1255,1255,1255,1255,1250,1250,1250,1245,1241,1241,1241,1236,1236,1236,1236,1232,1232,1232,1232,1232,1227,1227,1227,1227,1223,1219,1219,1219,1219,1219,1214,1214,1214,1214,1214,1214,1210,1210,1206,1206,1202,1202,1202,1197,1197,1197,1197,1197,1197,1197,1197,1193,1193,1193,1189,1185,1185,1181,1181,1181,1181,1181,1177,1177,1177,1173,1173,1169,1169,1169,1169,1169,1165,1165,1165,1161,1161,1161,1157,1153,1153,1153,1153,1153,1153,1149,1149,1149,1149,1145,1145,1145,1141,1138,1138,1138,1134,1134,1134,1134,1134,1134,1134,1130,1130,1130,1126,1123,1123,1123,1123,1119,1119,1119,1119,1119,1119,1115,1115,1115,1112,1112,1112,1108,1105,1105,1105,1105,1105,1105,1105,1105,1101,1101,1101,1097,1094,1094,1094,1094,1090,1090,1090,1090,1090,1090,1087,1087,1087,1084,1084,1084,1084,1080,1080,1080,1080,1080,1077,1077,1077,0,0,0,0,0,0,0,0,0,0,0,0,0,0,0,0,0,0,0,0,0,0,0,0,0,0,0,0,0
0,0,0,0,0,0,0,0,0,0,0,0,0,1496,1496,1496,1496,1496,1489,1489,1489,1489,1483,1483,1489,1489,1489,1489,1489,1489,1489,1489,1489,1489,1489,1489,1496,1496,1496,1503,1503,1509,1509,1509,1509,1509,1509,1785,1785,1785,1785,1785,1785,1776,1776,1766,1766,1766,1757,1757,1757,1757,1757,1748,1748,1739,1739,1739,1739,1739,1529,1523,1516,1516,1516,1516,1516,1516,1516,1516,1516,1523,1523,1529,1536,1536,1536,1543,1543,1543,1543,1550,1557,1557,1557,1557,1564,1564,1564,1564,1572,1572,1579,1579,1579,1586,1594,1594,1594,1601,1601,1601,1609,1609,1616,1616,1616,1616,1624,1632,1632,1639,1639,1639,1647,1639,1639,1647,1647,1655,1655,1655,1655,1655,1663,1663,1663,1671,1671,1680,1680,1688,1696,1696,1696,1705,1705,1705,1705,1713,1722,1722,1722,1722,1731,1731,1731,1739,1739,1748,1748,1757,1757,1766,1766,1766,1766,1766,1757,1757,1757,1757,1748,1748,1757,1757,1757,0,0,0,0,0,1060,1057,1054,1054,1050,1050,1050,1047,1047,1047,1044,1044,1044,1044,1044,1044,1041,1041,1041,1041,1038,1038,1038,1038,1038,1034,1034,1034,1031,1028,1028,1028,1025,1025,1025,1022,1022,1022,1022,1022,1019,1019,1019,1016,1016,1013,1013,1013,1010,1010,1010,1007,1007,1007,1004,1001,1001,998,998,995,995,989,989,989,989,989,987,987,987,987,984,981,981,978,978,975,975,975,975,973,973,970,967,967,967,964,964,962,962,959,956,956,954,954,954,954,954,954,954,951,951,1509,1509,1509,1509,1509,1509,1509,1516,1509,1509,1509,1489,1489,1489,1489,1489,1483,1483,1483,1483,1477,1477,0,0,0,0,0,0,0,889,889,889,889,889,889,889,889,889,889,887,887,887,885,882,882,882,882,882,882,882,887,889,891,896,896,898,898,898,898,0,0,0,0,1415,1415,1410,1410,1410,1404,1404,1398,1398,1398,1398,1398,1398,1392,1392,1392,1387,1387,1387,1381,1381,1376,1376,1376,1376,1370,1370,1370,1370,1365,1365,1365,1359,1359,1354,1354,1354,1354,1354,1349,1349,1349,1349,1343,1343,1338,1338,1338,1333,1333,1333,1333,1333,1328,1328,1328,1328,1328,1328,1322,1322,1322,1317,1312,1312,1312,1307,1307,1307,1307,1302,1302,1302,1297,1297,1297,1292,1292,1292,1292,1292,1292,1288,1288,1288,1288,1288,1283,1283,1278,1278,1273,1273,1268,1268,1268,1268,1264,1264,1264,1264,1259,1259,1255,1255,1255,1255,1255,1250,1250,1250,1245,1241,1241,1241,1236,1236,1236,1236,1232,1232,1232,1232,1232,1227,1227,1227,1227,1223,1223,1219,1219,1219,1219,1219,1214,1214,1214,1214,1214,1214,1210,1206,1206,1202,1202,1202,1202,1197,1197,1197,1197,1197,1197,1197,1193,1193,1193,1189,1185,1185,1181,1181,1181,1181,1181,1177,1177,1177,1177,1173,1173,1169,1169,1169,1169,1169,1165,1165,1161,1161,1161,1157,1153,1153,1153,1153,1153,1153,1153,1149,1149,1149,1149,1145,1145,1141,1138,1138,1138,1134,1134,1134,1134,1134,1134,1134,1130,1130,1130,1126,1123,1123,1123,1123,1123,1119,1119,1119,1119,1119,1115,1115,1115,1112,1112,1112,1112,1108,1108,1105,1105,1105,1105,1105,1105,1101,1101,1101,1097,1094,1094,1094,1094,1090,1090,1090,1090,1090,1090,1087,1087,1087,1084,1084,1084,1084,1080,1080,1080,1080,1080,1080,1080,0,0,0,0,0,0,0,0,0,0,0,0,0,0,0,0,0,0,0,0,0,0,0,0,0,0,0,0,0,0
0,0,0,0,0,0,0,0,0,0,0,0,0,1503,1496,1496,1496,1496,1496,1489,1489,1489,1483,1483,1489,1489,1489,1489,1489,1489,1489,1489,1489,1489,1489,1489,1496,1496,1496,1503,1509,1509,1509,1509,1509,1509,1509,1785,1785,1785,1785,1785,1785,1785,1776,1766,1766,1766,1757,1757,1757,1757,1757,1748,1748,1739,1739,1739,1739,1739,1529,1523,1516,1516,1516,1516,1516,1516,1523,1523,1523,1529,1529,1529,1536,1536,1536,1543,1543,1543,1550,1550,1557,1557,1557,1557,1564,1564,1564,1564,1572,1572,1572,1579,1579,1586,1594,1594,1594,1601,1601,1601,1609,1609,1616,1616,1624,1624,1624,1632,1632,1632,1639,1639,1647,1647,1647,1647,1655,1655,1655,1655,1655,1655,1663,1663,1663,1671,1671,1680,1688,1688,1696,1696,1696,1705,1705,1705,1713,1713,1722,1722,1722,1722,1731,1731,1731,1739,1739,1748,1748,1757,1757,1757,1766,1766,1766,1766,1766,1757,1757,1757,1757,1757,1757,1757,1757,0,0,0,0,0,1060,1057,1057,1054,1050,1050,1047,1047,1044,1044,1044,1044,1044,1044,1044,1044,1041,1041,1041,1041,1038,1038,1038,1038,1034,1034,1034,1031,1031,1025,1025,1025,1025,1025,1025,1022,1022,1022,1022,1022,1019,1019,1019,1016,1013,1013,1013,1010,1010,1010,1010,1007,1007,1007,1004,1001,1001,998,998,995,995,992,989,989,989,989,987,987,987,987,984,981,981,978,978,975,975,975,975,973,973,970,967,967,967,964,964,962,962,959,956,956,956,954,954,954,954,951,948,948,948,946,943,943,940,940,935,935,935,935,1509,1509,1509,1496,1489,1489,1489,1489,1489,1483,1483,1483,1483,0,0,0,0,0,0,0,889,889,889,889,889,889,889,889,889,889,887,887,887,885,882,882,882,882,882,882,885,887,889,891,896,896,898,898,898,0,0,0,0,0,1415,1415,1410,1410,1410,1404,1404,1398,1398,1398,1398,1398,1398,1392,1392,1392,1392,1387,1387,1381,1381,1376,1376,1376,1376,1370,1370,1370,1370,1370,1370,1365,1365,1359,1359,1354,1354,1354,1354,1349,1349,1349,1349,1343,1343,1338,1338,1338,1333,1333,1333,1333,1333,1328,1328,1328,1328,1328,1328,1322,1322,1322,1317,1312,1312,1312,1307,1307,1307,1307,1307,1302,1302,1302,1297,1297,1297,1292,1292,1292,1292,1292,1288,1288,1288,1288,1288,1283,1283,1283,1278,1278,1273,1273,1273,1268,1268,1264,1264,1264,1264,1259,1259,1255,1255,1255,1255,1250,1250,1250,1250,1250,1245,1245,1241,1241,1236,1236,1236,1232,1232,1232,1232,1232,1227,1227,1227,1227,1223,1223,1223,1223,1219,1219,1219,1219,1219,1214,1214,1214,1214,1210,1210,1206,1206,1202,1202,1202,1197,1197,1197,1197,1197,1197,1197,1193,1193,1189,1189,1185,1185,1185,1181,1181,1181,1181,1181,1177,1177,1177,1173,1173,1169,1169,1169,1165,1165,1165,1165,1161,1161,1161,1157,1157,1157,1153,1153,1153,1153,1153,1153,1149,1149,1149,1149,1145,1145,1141,1138,1138,1138,1138,1134,1134,1134,1134,1134,1134,1134,1130,1130,1126,1123,1123,1123,1123,1123,1119,1119,1119,1119,1119,1115,1115,1115,1115,1112,1112,1108,1108,1108,1105,1105,1105,1105,1105,1105,1101,1101,1101,1097,1097,1097,1094,1090,1090,1090,1090,1090,1090,1090,1090,1087,1084,1084,1084,1084,1084,1080,1080,1080,1080,1080,1080,0,0,0,0,0,0,0,0,0,0,0,0,0,0,0,0,0,0,0,0,0,0,0,0,0,0,0,0,0,0
0,0,0,0,0,0,0,0,0,0,0,0,0,1503,1503,1503,1496,1496,1496,1489,1489,1489,1483,1483,1489,1489,1489,1489,1489,1489,1489,1489,1489,1489,1489,1489,1496,1503,1503,1503,1509,1509,1509,1509,1509,1516,1516,1785,1785,1794,1794,1785,1785,1785,1785,1776,1766,1766,1766,1757,1757,1757,1757,1748,1748,1748,1739,1731,1731,1731,1523,1523,1523,1523,1523,1523,1523,1523,1523,1523,1523,1529,1536,1536,1536,1536,1536,1543,1543,1543,1550,1557,1557,1557,1557,1564,1564,1564,1564,1572,1572,1572,1572,1579,1579,1586,1594,1594,1594,1601,1601,1601,1609,1609,1616,1616,1624,1624,1624,1632,1632,1632,1639,1639,1647,1647,1647,1647,1655,1655,1655,1655,1655,1655,1663,1663,1663,1671,1671,1680,1688,1688,1696,1696,1696,1705,1705,1705,1713,1713,1722,1722,1722,1731,1731,1731,1731,1739,1748,1748,1748,1757,1757,1757,1766,1766,1766,1766,1766,1757,1757,1757,1757,1757,1757,1757,1757,0,0,0,0,0,1060,1057,1057,1054,1050,1050,1047,1047,1044,1044,1044,1044,1044,1044,1044,1044,1044,1041,1041,1041,1038,1038,1038,1034,1034,1034,1034,1031,1028,1025,1025,1025,1025,1025,1025,1022,1022,1022,1022,1022,1019,1019,1019,1016,1013,1013,1013,1010,1010,1010,1007,1007,1007,1004,1004,1001,1001,998,998,995,995,995,992,989,989,989,987,987,987,987,984,981,981,978,978,975,975,975,975,973,973,970,967,967,967,964,964,962,962,959,956,956,956,954,954,954,954,951,948,948,946,946,943,940,940,938,935,935,935,935,935,933,933,933,1489,1489,1489,1489,1489,1496,1496,1496,1496,0,0,0,0,0,0,0,0,889,889,889,889,889,889,889,889,889,887,887,885,882,882,882,882,882,882,882,885,887,889,891,894,896,898,898,898,0,0,0,0,0,1410,1410,1410,1410,1410,1404,1404,1398,1398,1398,1398,1392,1392,1392,1392,1392,1387,1387,1387,1381,1381,1376,1376,1376,1376,1370,1370,1370,1370,1370,1370,1365,1365,1365,1359,1354,1354,1354,1354,1349,1349,1349,1349,1343,1343,1338,1338,1338,1338,1338,1333,1333,1333,1333,1333,1328,1328,1328,1328,1322,1322,1322,1317,1312,1312,1312,1307,1307,1307,1307,1307,1302,1302,1302,1297,1297,1297,1297,1292,1292,1292,1292,1288,1288,1288,1288,1288,1283,1283,1283,1278,1278,1278,1273,1273,1268,1268,1268,1268,1268,1264,1264,1259,1255,1255,1255,1255,1250,1250,1250,1250,1250,1245,1245,1245,1241,1241,1236,1236,1236,1232,1232,1232,1232,1232,1232,1232,1227,1227,1223,1223,1223,1219,1219,1219,1219,1219,1214,1214,1214,1214,1210,1210,1206,1206,1202,1202,1202,1197,1197,1197,1197,1197,1197,1197,1197,1193,1189,1189,1185,1185,1185,1185,1185,1181,1181,1181,1181,1177,1177,1173,1173,1169,1169,1169,1165,1165,1165,1165,1161,1161,1161,1157,1157,1157,1153,1153,1153,1153,1153,1153,1153,1149,1149,1149,1145,1145,1141,1141,1138,1138,1138,1134,1134,1134,1134,1134,1134,1134,1130,1130,1126,1123,1123,1123,1123,1123,1123,1123,1119,1119,1119,1119,1115,1115,1112,1112,1112,1112,1108,1108,1105,1105,1105,1105,1105,1105,1101,1101,1101,1097,1097,1097,1094,1094,1090,1090,1090,1090,1090,1090,1090,1087,1087,1087,1087,1087,1084,1084,1084,1084,1080,1080,1080,0,0,0,0,0,0,0,0,0,0,0,0,0,0,0,0,0,0,0,0,0,0,0,0,0,0,0,0,0,0
0,0,0,0,0,0,0,0,0,0,0,0,0,1503,1503,1503,1496,1496,1496,1489,1489,1489,1483,1483,1489,1489,1489,1489,1489,1489,1489,1489,1489,1489,1489,1496,1496,1503,1503,1509,1509,1509,1509,1509,1509,1516,1794,1794,1794,1794,1794,1794,1794,1785,1785,1776,1766,1766,1766,1757,1757,1757,1757,1757,1748,1748,1739,1731,1731,1731,1523,1523,1523,1523,1523,1523,1523,1523,1523,1523,1523,1529,1529,1536,1536,1536,1536,1536,1543,1543,1550,1557,1557,1557,1557,1564,1564,1564,1564,1572,1572,1572,1572,1579,1579,1586,1594,1594,1594,1594,1601,1601,1601,1616,1616,1616,1624,1624,1632,1632,1632,1632,1639,1639,1647,1647,1647,1647,1655,1655,1655,1655,1655,1655,1663,1663,1663,1671,1671,1680,1688,1696,1696,1696,1696,1705,1705,1705,1713,1713,1722,1722,1722,1731,1731,1739,1739,1739,1748,1748,1748,1757,1757,1757,1766,1766,1766,1766,1766,1766,1766,1757,1757,1757,1757,1757,1757,0,0,0,0,0,1063,1057,1057,1054,1050,1050,1050,1047,1047,1044,1044,1041,1041,1041,1041,1044,1044,1041,1041,1041,1038,1038,1038,1034,1034,1034,1034,1031,1028,1028,1025,1025,1025,1025,1025,1022,1022,1022,1022,1019,1019,1019,1019,1016,1013,1013,1013,1010,1010,1010,1007,1007,1007,1004,1004,1001,1001,998,998,995,995,995,995,992,989,989,989,987,987,987,984,981,978,978,978,975,975,975,973,973,970,970,967,967,967,964,964,962,962,959,956,956,956,956,954,954,954,951,948,948,946,946,943,940,940,938,935,935,935,935,935,933,933,933,1489,1489,923,923,1489,1503,1503,1503,1509,0,0,0,0,0,0,0,891,891,889,889,889,889,889,889,889,887,887,887,885,882,882,882,882,882,882,882,885,887,889,891,894,896,898,898,898,0,0,0,0,1415,1410,1410,1410,1410,1410,1404,1404,1398,1398,1398,1398,1392,1392,1392,1392,1392,1387,1387,1387,1381,1381,1376,1376,1376,1376,1370,1370,1370,1370,1370,1365,1365,1365,1365,1359,1359,1354,1354,1354,1349,1349,1349,1349,1343,1343,1338,1338,1338,1338,1338,1338,1333,1333,1333,1333,1333,1328,1328,1328,1322,1322,1322,1317,1317,1312,1312,1307,1307,1307,1307,1307,1302,1302,1302,1297,1297,1297,1297,1292,1292,1292,1292,1292,1292,1288,1288,1288,1283,1283,1283,1278,1278,1278,1278,1273,1273,1268,1268,1268,1268,1264,1264,1264,1259,1259,1255,1255,1255,1250,1250,1250,1250,1250,1245,1245,1241,1241,1236,1236,1236,1232,1232,1232,1232,1232,1232,1232,1227,1227,1227,1223,1223,1219,1219,1219,1219,1219,1214,1214,1214,1214,1210,1210,1206,1206,1202,1202,1202,1197,1197,1197,1197,1197,1197,1197,1197,1197,1193,1189,1189,1185,1185,1185,1185,1185,1181,1181,1181,1181,1177,1173,1173,1169,1169,1169,1165,1165,1165,1165,1161,1161,1161,1157,1157,1157,1153,1153,1153,1153,1153,1153,1149,1149,1149,1149,1145,1145,1141,1138,1138,1138,1138,1134,1134,1134,1134,1134,1134,1134,1130,1130,1126,1126,1126,1123,1123,1123,1123,1123,1119,1119,1119,1119,1115,1115,1112,1112,1112,1112,1108,1108,1108,1105,1105,1105,1105,1105,1105,1101,1101,1101,1097,1097,1094,1094,1094,1090,1090,1090,1090,1090,1090,1090,1087,1087,1087,1087,1084,1084,1084,1080,1080,1080,1080,0,0,0,0,0,0,0,0,0,0,0,0,0,0,0,0,0,0,0,0,0,0,0,0,0,0,0,0,0,0
0,0,0,0,0,0,0,0,0,0,0,0,0,1503,1503,1503,1503,1503,1503,1503,1496,1489,1489,1489,1489,1489,1489,1489,1489,1489,1489,1489,1489,1489,1496,1496,1496,1503,1503,1509,1509,1509,1509,1509,1516,1516,1516,1794,1794,1794,1794,1794,1794,1785,1785,1776,1766,1766,1766,1766,1757,1757,1757,1757,1748,1748,1748,1739,1731,1731,1731,1523,1523,1523,1523,1523,1523,1523,1523,1523,1523,1529,1529,1536,1536,1543,1536,1536,1543,1543,1550,1550,1557,1557,1557,1564,1564,1564,1564,1572,1572,1572,1579,1579,1586,1586,1594,1594,1594,1594,1601,1601,1601,1616,1616,1616,1624,1624,1632,1632,1632,1632,1639,1639,1647,1647,1647,1655,1655,1655,1655,1663,1663,1663,1663,1663,1671,1671,1680,1688,1688,1696,1696,1696,1696,1705,1705,1705,1713,1713,1722,1722,1722,1731,1731,1739,1739,1739,1748,1748,1748,1757,1757,1757,1766,1766,1766,1766,1766,1766,1766,1757,1757,1757,1757,1757,1757,0,0,0,0,0,1060,1057,1057,1054,1050,1050,1050,1047,1047,1044,1044,1041,1041,1041,1041,1044,1044,1044,1044,1041,1038,1038,1038,1034,1034,1034,1034,1034,1031,1028,1028,1025,1025,1025,1025,1022,1022,1022,1022,1019,1019,1019,1019,1016,1013,1013,1013,1010,1010,1010,1007,1007,1004,1004,1001,1001,1001,998,998,998,998,995,995,992,989,989,989,989,987,987,984,981,978,978,978,978,975,975,973,973,970,970,967,967,967,964,964,962,962,959,956,956,956,956,954,954,954,948,948,948,946,946,943,940,940,938,938,935,935,935,933,933,930,928,928,925,923,923,923,925,925,1509,1509,0,0,0,0,0,0,0,891,891,889,889,889,889,889,889,889,887,887,887,885,882,882,882,882,882,885,885,887,887,889,891,894,898,898,898,0,0,0,0,0,1415,1415,1415,1410,1410,1410,1410,1404,1398,1398,1398,1398,1398,1398,1392,1392,1392,1387,1387,1387,1381,1381,1376,1376,1376,1376,1376,1370,1370,1370,1370,1365,1365,1365,1365,1365,1359,1359,1354,1354,1349,1349,1349,1349,1349,1343,1343,1343,1343,1338,1338,1338,1338,1338,1333,1333,1333,1333,1328,1328,1322,1322,1322,1322,1317,1312,1312,1312,1312,1312,1307,1307,1307,1302,1302,1297,1297,1297,1297,1292,1292,1292,1292,1292,1292,1288,1288,1288,1288,1283,1283,1278,1278,1278,1278,1273,1273,1268,1268,1268,1268,1268,1268,1264,1264,1259,1255,1255,1255,1255,1250,1250,1250,1250,1245,1245,1245,1241,1241,1236,1236,1236,1232,1232,1232,1232,1232,1232,1232,1227,1227,1223,1223,1223,1223,1219,1219,1219,1219,1214,1214,1214,1210,1210,1206,1206,1202,1202,1202,1197,1197,1197,1197,1197,1197,1197,1197,1197,1193,1189,1189,1185,1185,1185,1185,1185,1185,1181,1181,1181,1181,1177,1173,1169,1169,1169,1165,1165,1165,1165,1165,1161,1161,1161,1157,1157,1153,1153,1153,1153,1153,1153,1149,1149,1149,1149,1145,1145,1141,1138,1138,1138,1138,1134,1134,1134,1134,1134,1134,1134,1134,1130,1126,1126,1126,1123,1123,1123,1123,1123,1123,1119,1119,1119,1115,1115,1112,1112,1112,1112,1112,1108,1108,1108,1108,1105,1105,1105,1105,1105,1101,1101,1101,1097,1097,1094,1094,1094,1094,1090,1090,1090,1090,1090,1087,1087,1087,1087,1087,1084,1084,1080,1080,1080,1080,0,0,0,0,0,0,0,0,0,0,0,0,0,0,0,0,0,0,0,0,0,0,0,0,0,0,0,0,0,0
