0,0,0,0,0,0,0,0,0,0,0,0,0,0,1757,1757,1757,1757,1757,1757,1757,1757,1748,1748,1748,1739,1739,1739,1748,1748,1748,1748,1757,1757,1757,1757,1757,1757,1757,1748,1748,1748,1748,1748,1748,1748,1748,1748,1748,1748,1748,1748,1748,1748,1739,1739,1739,1739,0,0,0,0,0,0,0,0,0,0,0,0,894,889,889,887,887,887,885,882,882,882,885,885,885,885,887,887,887,889,891,894,894,896,896,898,898,901,901,901,901,901,901,0,0,0,0,0,0,821,821,819,819,819,819,817,815,813,811,811,807,805,803,803,802,802,800,798,796,796,794,794,789,787,783,781,781,781,780,778,774,773,771,771,769,767,766,766,764,761,759,755,754,754,752,750,750,749,747,746,746,741,738,738,736,736,734,734,733,731,727,725,725,723,722,722,720,720,717,717,716,714,710,710,710,708,707,707,706,706,668,668,667,666,664,664,663,663,662,662,661,661,661,659,658,655,655,654,654,652,650,648,647,646,646,644,643,642,642,642,641,640,638,638,637,637,637,637,638,640,640,640,640,641,643,644,646,647,648,649,650,650,653,655,657,658,659,661,662,686,686,686,686,687,687,688,688,693,696,696,697,700,703,704,704,706,708,713,713,714,716,720,722,723,727,727,733,733,734,736,739,739,742,742,746,752,754,754,754,754,757,761,764,764,767,767,769,769,773,774,776,0,0,0,0,0,0,0,0,0,1655,1655,1655,1655,1655,1655,1655,1663,1663,1663,1663,1663,1663,1663,1655,1655,1655,1655,1655,1655,1655,1655,1663,1655,1655,1655,1655,1655,1655,1655,1655,1647,1647,1647,1639,1639,1639,1639,1639,1639,1639,1639,0,0,0,0,0,0,0,0,992,992,989,989,987,984,984,984,981,981,981,978,978,981,981,981,981,984,989,992,992,998,998,1001,1001,0,0,0,0,0,1572,1572,1572,1572,1572,1572,1564,1557,1557,1557,1557,1550,1550,1550,1550,1550,1543,1543,1543,1536,1536,1529,1529,1523,1523,1523,1523,1523,1523,1523,1516,1516,1516,1516,1509,1509,1509,1509,1503,1496,1496,1496,1496,1489,1489,1489,1483,1483,1483,1477,1477,1477,1470,1470,1470,1470,1470,1464,1464,1464,1464,1464,1458,1458,1458,1458,1452,1445,1445,1445,1445,1439,1439,1439,1439,1433,1433,1427,1427,1427,1421,1421,1421,1421,1415,1415,1415,1415,1410,1410,1410,1410,1404,1404,1398,1398,1398,1398,1392,1392,1392,1392,1392,1387,1387,1381,1381,1376,1376,1376,1376,1370,1370,1370,1370,1365,1365,1365,1365,1359,1359,1354,1354,1354,1354,1349,1349,1349,1349,1343,1343,1343,1338,1338,1333,1333,1333,1333,1333,1328,1322,1322,1322,1322,1322,1317,1317,1317,1317,1317,1312,1312,1312,1312,1307,1307,1307,1307,1307,1297,1297,1297,1292,1292,1288,1288,1288,1288,1288,1283,1283,1283,1278,1278,1273,1273,1268,1268,1268,1268,1268,1268,1264,1264,1264,1259,1259,1259,1255,1255,1255,1255,1255,1250,1250,1250,1255,1169,1165,1165,1161,1157,1153,1153,1153,1149,1149,1149,1108,1108,0,0,1094,0,0,1080,1080,1080,1080,1080,1080,0,0,0,0,0,0,0,0,0,0,0,0,0,0,0,0,0,0,0,0,0,0,0,0,0,0,0,0,0,0,0
0,0,0,0,0,0,0,0,0,0,0,0,0,0,1757,1757,1757,1757,1757,1757,1757,1757,1757,1748,1748,1739,1739,1739,1748,1748,1748,1757,1757,1757,1757,1757,1757,1757,1757,1757,1757,1757,1757,1757,1748,1748,1757,1757,1757,1757,1757,1757,1748,1748,1748,1748,1739,1739,0,0,0,0,0,0,0,0,0,0,0,0,894,894,889,889,889,887,887,885,0,0,885,885,885,887,887,887,887,889,891,894,894,896,896,898,901,901,901,901,903,898,898,0,0,0,0,0,0,0,821,819,819,819,819,817,815,815,813,811,807,805,805,803,802,802,800,798,796,796,796,792,790,789,787,785,783,783,781,780,776,774,773,773,771,769,769,767,766,762,761,759,755,754,754,752,752,749,749,747,746,741,739,739,738,736,736,734,734,733,728,727,727,725,723,722,722,720,719,717,716,714,710,710,710,708,708,707,706,706,704,703,703,703,664,664,663,663,662,662,661,661,661,659,658,658,655,654,654,653,652,649,648,647,646,644,644,643,643,643,641,641,638,638,637,637,637,638,638,640,640,640,640,641,643,644,646,647,648,649,650,652,654,655,658,659,659,661,684,684,686,686,686,687,687,688,690,696,696,697,698,701,704,704,704,707,711,713,713,716,717,720,723,723,727,728,731,733,734,736,739,739,742,742,747,752,754,754,754,757,757,761,764,766,767,767,769,771,774,774,0,0,0,0,1647,1647,1647,1647,1647,1647,1655,1655,1655,1655,1655,1655,1655,1655,1655,1655,1663,1655,1655,1655,1655,1647,1647,1655,1655,1655,1655,1655,1655,1647,1647,1647,1647,1647,1647,1647,1647,1647,1647,1639,1639,1639,1639,1639,1632,1632,1632,1632,1632,0,0,0,0,0,0,0,992,992,992,989,989,987,987,984,984,981,981,981,981,981,981,981,981,989,989,992,992,995,998,1001,1001,0,0,0,0,0,1572,1572,1572,1572,1572,1572,1564,1557,1557,1557,1557,1557,1550,1550,1550,1550,1550,1543,1543,1536,1536,1529,1529,1523,1523,1523,1523,1523,1523,1523,1516,1516,1516,1516,1509,1509,1509,1503,1503,1503,1496,1496,1496,1496,1489,1489,1489,1483,1483,1483,1483,1477,1477,1470,1470,1470,1470,1464,1464,1464,1464,1464,1458,1458,1458,1458,1452,1452,1445,1445,1445,1445,1439,1439,1439,1439,1433,1433,1427,1427,1427,1421,1421,1421,1415,1415,1415,1415,1410,1410,1410,1410,1404,1404,1398,1398,1398,1398,1398,1392,1392,1392,1392,1392,1387,1381,1381,1376,1376,1376,1376,1376,1370,1370,1370,1370,1370,1365,1365,1365,1359,1359,1354,1354,1354,1349,1349,1349,1349,1349,1343,1343,1338,1338,1333,1333,1333,1333,1333,1328,1322,1322,1322,1322,1322,1317,1317,1317,1317,1317,1312,1312,1312,1312,1312,1307,1307,1307,1307,1302,1297,1297,1292,1292,1288,1288,1288,1288,1288,1283,1283,1283,1278,1278,1278,1273,1273,1268,1268,1268,1268,1268,1268,1268,1268,1264,1259,1259,1255,1255,1255,1255,1250,1250,1250,1250,1255,1169,1165,1165,1161,1157,1153,1153,1153,1153,1108,1108,1108,1105,1105,1094,1094,1094,0,1080,1080,1080,1080,1080,1080,0,0,0,0,0,0,0,0,0,0,0,0,0,0,0,0,0,0,0,0,0,0,0,0,0,0,0,0,0,0,0
0,0,0,0,0,0,0,0,0,0,0,0,0,0,1757,1757,1757,1757,1757,1757,1757,1757,1757,1757,1757,1748,1748,1748,1748,1748,1748,1757,1757,1757,1757,1757,1757,1757,1757,1757,1757,1757,1757,1757,1748,1748,1757,1757,1757,1757,1757,1757,1748,1748,1739,1739,1722,1705,1705,1705,0,0,0,0,0,0,0,0,0,0,896,894,891,891,889,889,887,0,0,0,0,887,887,887,887,887,887,889,894,894,896,896,898,898,901,901,901,901,901,898,898,0,0,0,0,0,0,0,0,819,819,821,819,817,815,815,813,811,809,807,805,803,803,802,800,800,798,796,796,792,790,789,787,785,785,783,781,780,776,774,773,773,771,771,769,769,767,764,764,761,759,755,754,754,752,750,749,749,747,744,742,741,741,739,736,736,734,733,733,728,728,725,725,723,722,722,720,717,716,714,711,710,710,708,708,707,706,706,704,703,703,703,698,697,697,697,696,694,662,661,659,659,658,658,657,655,655,654,653,652,648,647,647,646,646,644,643,643,642,641,640,638,638,637,637,638,638,640,640,641,641,642,643,644,646,647,648,649,650,653,654,657,658,659,659,666,684,684,686,686,686,687,687,688,690,696,696,697,698,703,704,704,706,707,711,713,713,716,717,722,723,723,727,731,731,733,734,738,739,741,744,746,747,752,754,755,755,755,757,761,764,766,767,767,769,774,0,0,0,0,0,0,1647,1639,1639,1639,1647,1647,1647,1647,1647,1655,1655,1655,1647,1647,1647,1647,1655,1655,1647,1647,1647,1647,1647,1647,1655,1647,1647,1647,1647,1647,1647,1647,1647,1647,1639,1639,1639,1639,1639,1639,1639,1639,1639,1632,1632,1632,1632,1632,1632,0,0,0,0,0,0,0,992,992,992,992,992,989,987,987,984,984,981,981,981,981,981,981,981,989,989,992,995,995,998,1001,1001,0,0,0,0,0,1579,1579,1579,1572,1572,1572,1572,1564,1564,1564,1557,1557,1557,1550,1550,1550,1550,1543,1543,1543,1536,1536,1529,1529,1529,1523,1523,1523,1523,1523,1516,1516,1516,1516,1509,1509,1509,1503,1503,1503,1496,1496,1496,1496,1496,1489,1489,1489,1483,1483,1483,1483,1477,1477,1470,1470,1470,1470,1464,1464,1464,1464,1464,1458,1458,1458,1452,1452,1452,1445,1445,1445,1445,1445,1439,1439,1439,1433,1427,1427,1427,1421,1421,1421,1415,1415,1415,1415,1410,1410,1410,1410,1404,1404,1404,1398,1398,1398,1398,1392,1392,1392,1392,1392,1387,1387,1381,1376,1376,1376,1376,1376,1376,1370,1370,1370,1370,1370,1365,1365,1359,1359,1354,1354,1354,1349,1349,1349,1349,1349,1343,1343,1343,1338,1338,1338,1333,1333,1333,1328,1328,1328,1322,1322,1322,1317,1317,1317,1317,1317,1312,1312,1312,1312,1312,1307,1307,1307,1302,1302,1297,1297,1292,1292,1288,1288,1288,1288,1288,1283,1283,1283,1283,1278,1278,1273,1273,1273,1273,1273,1268,1268,1268,1268,1268,1264,1264,1259,1255,1255,1255,1255,1250,1250,1250,1250,1245,1169,1165,1165,1153,1149,1149,1123,1119,1112,1108,1108,1108,1105,1101,1094,1094,1094,1094,1080,1080,1080,1080,1077,1077,0,0,0,0,0,0,0,0,0,0,0,0,0,0,0,0,0,0,0,0,0,0,0,0,0,0,0,0,0,0,0
0,0,0,0,0,0,0,0,0,0,0,0,0,0,1757,1757,1757,1757,1757,1757,1757,1757,1757,1748,1748,1748,1748,1748,1748,1757,1757,1757,1757,1757,1757,1757,1757,1757,1757,1757,1757,1757,1748,1748,1748,1748,1748,1748,1748,1757,1757,1757,1748,1739,1739,1739,1722,1705,1705,1705,0,0,0,0,0,0,0,0,0,0,0,894,894,894,891,891,887,0,0,0,0,887,887,887,887,887,887,889,894,896,896,896,898,898,901,901,901,901,901,898,898,0,0,0,0,0,0,0,0,819,819,821,819,819,817,817,817,815,811,807,807,805,803,803,802,800,798,798,796,792,792,790,789,787,787,785,783,781,780,776,774,773,773,771,771,769,767,766,766,764,759,757,755,755,754,752,750,750,749,746,744,742,741,739,738,738,736,734,733,731,728,727,725,725,723,722,720,719,717,716,713,711,710,710,708,708,707,706,704,703,703,701,698,697,697,697,696,694,694,661,659,659,658,658,657,657,657,655,654,653,649,648,647,646,646,644,644,643,642,642,641,640,640,640,640,640,640,640,640,641,641,642,643,644,646,647,648,649,650,653,654,657,661,663,663,666,684,684,686,686,687,687,687,688,691,696,697,698,700,703,704,704,706,707,711,714,714,716,722,722,723,725,727,731,731,734,736,739,739,741,742,744,750,752,754,755,755,755,757,759,762,766,0,0,0,0,0,0,0,0,0,1647,1639,1639,1632,1632,1639,1647,1647,1639,1639,1639,1639,1639,1639,1639,1647,1647,1647,1647,1647,1647,1647,1639,1639,1647,1647,1639,1639,1647,1647,1639,1639,1639,1639,1639,1639,1639,1639,1639,1639,1639,1632,1632,1632,1632,1632,1624,1624,1632,1632,0,0,0,0,0,0,0,0,995,995,992,992,992,989,989,987,987,984,984,984,981,981,981,984,989,989,992,995,998,998,1001,1001,0,0,0,0,0,1579,1579,1579,1579,1572,1572,1572,1564,1564,1564,1564,1564,1557,1557,1557,1550,1550,1543,1543,1543,1543,1536,1536,1529,1529,1529,1523,1523,1523,1523,1523,1516,1516,1516,1509,1509,1509,1503,1503,1503,1503,1496,1496,1496,1496,1489,1489,1489,1483,1483,1483,1483,1477,1477,1470,1470,1470,1470,1470,1464,1464,1464,1464,1458,1458,1458,1458,1452,1452,1452,1445,1445,1445,1445,1439,1439,1439,1433,1433,1427,1427,1421,1421,1421,1421,1415,1415,1415,1415,1410,1410,1410,1410,1404,1404,1404,1398,1398,1398,1398,1392,1392,1392,1392,1387,1387,1381,1376,1376,1376,1376,1376,1376,1370,1370,1370,1370,1370,1370,1365,1359,1359,1354,1354,1354,1354,1349,1349,1349,1349,1343,1343,1343,1343,1338,1338,1333,1333,1333,1333,1328,1328,1328,1328,1322,1317,1317,1317,1317,1317,1312,1312,1312,1312,1312,1312,1307,1307,1302,1302,1297,1297,1292,1292,1292,1292,1288,1288,1288,1288,1283,1283,1283,1283,1278,1273,1273,1273,1273,1273,1273,1268,1268,1268,1268,1264,1264,1264,1259,1255,1255,1255,1250,1250,1250,1250,1241,1241,1169,1165,1149,1145,1119,1119,1112,1112,1108,1108,1108,1105,1101,1097,1094,1094,1094,1080,1080,1080,1080,1077,1077,0,0,0,0,0,0,0,0,0,0,0,0,0,0,0,0,0,0,0,0,0,0,0,0,0,0,0,0,0,0,0
0,0,0,0,0,0,0,0,0,0,0,0,0,0,1757,1757,1757,1757,1757,1757,1757,1757,1757,1748,1748,1748,1748,1748,1757,1757,1757,1757,1757,1757,1757,1757,1757,1757,1757,1757,1757,1757,1748,1748,1748,1748,1748,1748,1748,1748,1748,1748,1748,1739,1739,1739,1731,1722,1713,1713,1713,0,0,0,0,0,0,0,0,0,0,894,894,894,894,894,889,0,0,0,0,887,887,0,0,887,887,889,894,896,896,896,0,0,0,903,903,901,901,898,898,0,0,0,0,0,0,0,1713,817,817,825,819,819,817,817,817,811,811,811,807,805,805,803,802,802,800,798,794,794,792,790,789,789,789,787,785,783,781,780,776,774,774,773,773,771,769,767,766,766,762,759,757,757,755,754,752,750,750,746,746,742,742,741,739,738,738,736,734,733,731,728,727,725,723,723,722,720,719,716,714,714,711,711,710,708,707,707,706,703,703,701,698,698,698,697,697,696,694,693,690,688,688,659,659,687,687,687,654,653,649,648,647,647,646,644,644,644,643,643,641,641,641,640,640,640,640,640,641,641,642,642,643,646,647,648,648,649,650,655,655,663,664,667,667,667,671,684,686,686,687,687,687,688,696,696,697,698,700,704,704,704,707,708,711,714,714,716,720,723,723,725,728,731,731,734,738,739,741,741,742,744,752,752,754,754,755,757,757,759,761,0,0,0,0,0,0,0,0,0,0,1647,1639,1639,1632,1632,1639,1639,1639,1639,1632,1632,1632,1632,1632,1632,1632,1632,1639,1639,1639,1639,1639,1639,1639,1639,1639,1639,1639,1639,1639,1639,1639,1639,1639,1639,1632,1632,1632,1632,1632,1632,1632,1632,1632,1632,1624,1624,1624,1616,1616,0,0,0,0,0,0,0,0,998,995,995,995,992,992,989,989,987,987,984,984,984,981,981,984,989,989,992,995,998,998,1001,1001,1004,0,0,0,0,1579,1579,1579,1572,1572,1572,1572,1572,1564,1564,1564,1564,1564,1557,1557,1550,1550,1543,1543,1543,1543,1543,1536,1536,1529,1529,1523,1523,1523,1523,1523,1516,1516,1516,1516,1509,1509,1503,1503,1503,1503,1503,1496,1496,1496,1496,1489,1489,1483,1483,1483,1483,1483,1477,1477,1477,1477,1470,1470,1464,1464,1464,1464,1464,1464,1458,1458,1458,1452,1452,1452,1445,1445,1445,1445,1439,1439,1433,1433,1433,1427,1427,1421,1421,1421,1415,1415,1415,1415,1415,1410,1410,1410,1404,1404,1404,1404,1398,1398,1398,1398,1398,1392,1392,1392,1387,1381,1376,1376,1376,1376,1376,1376,1370,1370,1370,1370,1370,1370,1365,1365,1359,1359,1354,1354,1354,1354,1349,1349,1349,1349,1343,1343,1343,1338,1338,1333,1333,1333,1333,1328,1328,1328,1328,1322,1317,1317,1317,1317,1317,1312,1312,1312,1312,1312,1312,1307,1307,1302,1302,1297,1297,1292,1292,1292,1292,1288,1288,1288,1288,1288,1288,1283,1283,1278,1278,1278,1278,1273,1273,1273,1273,1273,1268,1268,1268,1264,1264,1259,1259,1255,1255,1255,1250,1250,1245,1241,1241,1130,1130,1130,1123,1119,1115,1112,1108,1108,1108,1105,1105,1097,1094,1090,1090,1080,1080,1080,1077,1077,1073,1073,0,0,0,0,0,0,0,0,0,0,0,0,0,0,0,0,0,0,0,0,0,0,0,0,0,0,0,0,0,0,0
0,0,0,0,0,0,0,0,0,0,0,0,0,0,1766,1766,1757,1757,1757,1757,1757,1757,1757,1748,1748,1748,1748,1748,1757,1757,1757,1757,1757,1757,1757,1757,1757,1757,1757,1757,1748,1748,1748,1748,1739,1739,1739,1739,1739,1739,1748,1748,1739,1731,1731,1731,1722,1722,1722,1713,1713,0,0,0,0,0,0,0,0,0,0,0,894,894,894,894,889,887,887,0,0,887,0,0,0,887,889,889,894,896,896,896,0,0,0,903,903,903,903,898,898,0,0,0,0,0,0,0,1705,817,817,1705,1705,1705,1713,1713,1713,1722,813,811,807,805,805,803,803,802,800,798,794,792,792,790,789,789,789,787,787,783,781,781,780,778,776,774,773,771,769,769,767,766,762,762,761,759,757,755,754,752,752,749,747,744,744,741,741,739,738,736,734,733,731,728,728,727,725,723,722,720,720,716,716,714,713,713,711,710,708,707,706,703,703,701,700,698,698,697,697,696,694,693,690,688,688,688,687,687,687,687,686,686,649,648,647,647,646,644,644,644,643,642,641,641,641,641,640,640,640,641,641,642,642,643,644,647,649,649,649,650,654,657,657,664,666,667,668,670,671,686,686,686,687,687,687,691,696,696,697,698,700,704,704,706,708,710,711,713,714,717,720,723,725,727,731,731,733,734,738,739,741,742,744,746,750,750,754,754,755,755,757,757,761,0,0,0,0,0,0,0,0,0,0,1632,1632,1632,1632,1632,1632,1632,1632,1632,1632,1632,1632,1632,1632,1632,1632,1632,1639,1639,1632,1632,1632,1639,1639,1639,1639,1632,1632,1632,1632,1632,1632,1632,1632,1632,1632,1632,1632,1632,1632,1624,1616,1616,1624,1624,1616,1609,1609,1616,1616,0,0,0,0,0,0,0,0,998,998,998,995,992,992,992,989,989,987,987,984,984,984,984,987,989,992,995,995,1001,1001,1004,1004,1004,1007,0,0,0,0,1579,1579,1572,1572,1572,1572,1572,1572,1572,1564,1564,1564,1564,1557,1550,1550,1543,1543,1543,1543,1543,1536,1536,1529,1529,1523,1523,1523,1523,1523,1516,1516,1516,1516,1509,1509,1503,1503,1503,1503,1503,1496,1496,1496,1496,1489,1489,1483,1483,1483,1483,1483,1477,1477,1477,1477,1470,1470,1470,1470,1464,1464,1464,1464,1464,1458,1458,1458,1452,1452,1445,1445,1445,1445,1445,1439,1439,1439,1433,1433,1427,1427,1421,1421,1421,1415,1415,1415,1415,1415,1410,1410,1404,1404,1404,1404,1398,1398,1398,1398,1398,1392,1392,1392,1387,1381,1381,1376,1376,1376,1376,1376,1376,1376,1370,1370,1370,1370,1365,1365,1359,1359,1354,1354,1354,1354,1349,1349,1349,1349,1349,1343,1343,1343,1338,1333,1333,1333,1333,1328,1328,1328,1328,1322,1317,1317,1317,1317,1317,1312,1312,1312,1312,1312,1312,1307,1307,1302,1302,1297,1297,1297,1292,1292,1292,1292,1292,1292,1288,1288,1288,1288,1283,1283,1278,1278,1278,1278,1273,1273,1273,1273,1268,1268,1268,1264,1264,1259,1259,1259,1255,1255,1250,1250,1245,1245,1134,1134,1126,1126,1119,1115,1112,1112,1108,1108,1108,1105,1101,1094,1087,1087,1087,1080,1080,1077,1077,1073,1073,1073,0,0,0,0,0,0,0,0,0,0,0,0,0,0,0,0,0,0,0,0,0,0,0,0,0,0,0,0,0,0,0
0,0,0,0,0,0,0,0,0,0,0,0,0,0,1757,1757,1757,1757,1757,1757,1757,1757,1757,1748,1748,1748,1748,1748,1748,1748,1748,1757,1757,1748,1748,1748,1748,1757,1757,1748,1748,1748,1739,1739,1739,1739,1739,1739,1739,1739,1748,1739,1739,1731,1722,1722,1722,1722,1722,1713,1713,0,0,0,0,0,0,0,0,0,0,0,894,894,894,894,891,887,887,887,887,0,0,0,0,887,889,889,894,896,896,898,898,0,0,903,903,903,903,901,901,0,0,0,0,0,0,1722,1705,1705,1713,1705,1705,1705,1705,1705,1705,1705,1705,809,809,807,807,805,803,802,802,798,794,792,792,790,790,789,789,787,787,785,783,781,781,778,776,774,774,773,771,771,769,766,764,762,761,759,757,755,754,752,752,750,749,746,746,744,741,739,738,736,734,733,733,730,728,728,727,725,723,722,722,717,716,714,713,713,711,710,710,708,707,704,703,703,701,698,698,698,697,697,694,693,691,690,688,688,687,687,687,686,686,684,682,680,680,648,646,646,644,644,643,642,641,641,641,641,641,641,641,641,641,642,643,644,646,649,650,650,654,655,664,664,666,666,667,668,670,671,671,675,686,687,687,688,688,691,696,696,697,698,703,704,706,707,708,710,713,713,714,719,720,725,725,727,730,731,733,734,739,739,741,742,744,746,750,750,752,754,755,755,757,757,0,0,0,0,0,0,0,0,0,0,1624,1624,1624,1624,1624,1624,1624,1632,1624,1624,1624,1624,1624,1624,1624,1624,1624,1624,1632,1632,1632,1632,1632,1632,1624,1624,1624,1632,1632,1624,1624,1624,1624,1632,1624,1624,1624,1624,1624,1624,1624,1616,1616,1616,1616,1609,1609,1609,1609,1609,1609,1632,0,0,0,0,0,0,1001,1001,998,998,995,995,992,992,992,989,989,987,987,987,984,984,987,992,992,998,998,1001,1001,1004,1004,1004,1007,0,0,0,0,1572,1572,1572,1572,1572,1572,1572,1572,1572,1564,1564,1564,1564,1557,1550,1550,1543,1543,1543,1543,1543,1536,1536,1529,1529,1529,1523,1523,1523,1523,1516,1516,1516,1516,1516,1509,1509,1503,1503,1503,1503,1496,1496,1496,1496,1489,1489,1483,1483,1483,1483,1483,1483,1483,1483,1483,1477,1470,1470,1470,1470,1464,1464,1464,1464,1458,1458,1458,1452,1452,1445,1445,1445,1445,1445,1439,1439,1433,1433,1433,1427,1427,1427,1421,1421,1421,1415,1415,1415,1415,1410,1410,1410,1404,1404,1404,1404,1404,1398,1398,1398,1398,1392,1392,1387,1381,1381,1376,1376,1376,1376,1376,1376,1376,1370,1370,1370,1370,1365,1365,1359,1359,1354,1354,1354,1354,1349,1349,1349,1349,1349,1349,1349,1343,1343,1338,1333,1333,1333,1333,1328,1328,1328,1322,1322,1317,1317,1317,1317,1317,1312,1312,1312,1312,1312,1307,1307,1307,1302,1302,1297,1297,1297,1292,1292,1292,1292,1292,1292,1288,1288,1288,1288,1283,1278,1278,1278,1278,1273,1273,1273,1273,1268,1268,1268,1268,1264,1264,1259,1259,1255,1255,1250,1250,1250,1130,1130,1130,1126,1123,1115,1112,1108,1108,1108,1105,1105,1101,1097,1090,1087,1080,1080,1077,1077,1077,1073,1070,1070,1070,0,0,0,0,0,0,0,0,0,0,0,0,0,0,0,0,0,0,0,0,0,0,0,0,0,0,0,0,0,0,0
0,0,0,0,0,0,0,0,0,0,0,0,0,1748,1748,1748,1748,1757,1757,1757,1748,1748,1748,1748,1748,1739,1739,1739,1739,1739,1739,1739,1739,1739,1739,1739,1739,1739,1739,1739,1739,1739,1739,1731,1731,1731,1739,1739,1731,1731,1731,1731,1731,1722,1722,1722,1722,1722,1722,1713,1713,1713,0,0,0,0,0,0,0,0,0,0,898,898,896,896,894,891,887,887,887,0,0,0,0,0,889,894,894,896,896,898,898,0,0,903,903,0,0,0,908,913,0,0,0,0,0,1722,1705,1705,1705,1705,1705,1705,1705,1705,1705,1696,1696,1696,1663,1663,1663,1663,1680,1688,1696,794,794,794,792,790,790,789,789,789,787,785,783,783,781,778,778,776,774,773,773,771,769,766,764,764,762,761,759,757,755,754,754,752,750,750,746,746,744,741,739,738,736,734,733,731,730,728,727,727,725,723,722,719,717,716,714,714,713,711,711,710,708,706,704,703,703,701,700,698,698,697,696,693,691,690,688,688,687,687,687,686,684,683,682,680,679,679,646,646,646,644,643,642,641,641,641,641,641,641,641,641,641,642,644,646,648,650,653,654,655,657,663,664,666,667,670,670,671,671,672,675,687,687,687,688,690,693,696,696,697,698,704,704,707,708,710,711,713,713,714,722,722,725,727,728,730,733,733,736,739,739,741,742,744,746,747,749,752,754,755,755,0,0,0,0,0,0,0,0,0,0,1601,1601,1616,1624,1624,1624,1624,1624,1624,1624,1624,1616,1616,1624,1624,1624,1616,1616,1616,1616,1624,1624,1616,1616,1624,1624,1616,1616,1616,1616,1616,1616,1624,1624,1624,1624,1616,1616,1616,1616,1616,1616,1616,1616,1609,1609,1609,1609,1601,1601,1601,1601,1601,1609,0,0,0,0,0,0,1001,1001,1001,998,998,995,992,992,992,989,989,989,987,987,987,987,989,992,992,995,998,1001,1001,1004,1004,1007,0,0,0,0,0,1572,1572,1572,1572,1572,1572,1572,1572,1572,1572,1564,1564,1564,1557,1550,1550,1543,1543,1543,1543,1543,1536,1536,1536,1529,1529,1523,1523,1523,1523,1523,1516,1516,1516,1516,1509,1509,1509,1509,1509,1503,1503,1503,1496,1496,1489,1489,1489,1483,1483,1483,1483,1483,1483,1483,1483,1477,1477,1470,1470,1470,1464,1464,1464,1464,1458,1458,1458,1458,1452,1452,1445,1445,1445,1445,1439,1439,1433,1433,1433,1433,1427,1427,1421,1421,1421,1421,1415,1415,1415,1410,1410,1410,1410,1404,1404,1404,1404,1404,1398,1398,1398,1392,1392,1387,1387,1381,1381,1381,1381,1376,1376,1376,1376,1376,1370,1370,1370,1370,1365,1365,1365,1359,1359,1354,1354,1354,1354,1354,1349,1349,1349,1349,1349,1343,1343,1338,1333,1333,1333,1333,1328,1328,1328,1322,1317,1317,1317,1317,1312,1312,1312,1312,1312,1312,1312,1307,1307,1302,1302,1302,1297,1297,1297,1297,1292,1292,1292,1292,1292,1288,1288,1288,1283,1283,1283,1278,1278,1273,1273,1273,1273,1268,1268,1268,1268,1264,1264,1264,1259,1255,1255,1255,1250,1250,1134,1130,1130,1126,1119,1115,1108,1108,1108,1105,1105,1105,1101,1097,1090,1084,1077,1077,1077,1077,1070,1070,1067,1067,1067,0,0,0,0,0,0,0,0,0,0,0,0,0,0,0,0,0,0,0,0,0,0,0,0,0,0,0,0,0,0,0
0,0,0,0,0,0,0,0,0,0,0,0,0,1731,1731,1731,1731,1748,1739,1739,1739,1748,1748,1748,1748,1731,1731,1739,1739,1739,1731,1731,1731,1731,1731,1731,1731,1731,1731,1739,1739,1739,1731,1731,1731,1731,1731,1731,1722,1722,1731,1722,1722,1722,1722,1722,1722,1722,1722,1713,1713,1713,0,0,0,0,0,0,0,0,0,0,901,898,898,898,896,894,891,891,887,0,0,0,0,0,889,894,894,894,896,898,898,0,0,0,0,0,0,0,0,913,0,0,0,0,0,0,1696,1696,1705,1705,1705,1705,1705,1696,1696,1696,1696,1688,1688,1663,1663,1671,1680,1688,1696,1696,1696,1696,790,790,790,789,787,787,787,785,785,783,781,778,778,776,776,774,773,771,769,767,766,766,764,762,761,759,755,754,754,752,750,750,747,746,744,742,741,739,736,736,734,733,733,730,728,727,725,725,723,722,719,717,716,716,713,713,711,710,708,707,706,704,703,703,700,700,698,697,696,694,691,690,688,688,687,687,687,686,684,683,682,680,679,678,676,646,646,644,643,641,641,641,641,641,641,641,641,641,641,643,646,650,653,653,654,655,657,659,663,664,666,667,670,670,671,671,672,675,688,688,688,690,691,694,694,696,697,698,704,704,707,710,710,711,713,713,714,720,722,727,727,728,730,733,734,736,739,741,741,742,744,747,747,749,752,754,755,755,0,0,0,0,0,1594,1594,0,1594,1594,1601,1601,1616,1616,1624,1624,1616,1616,1616,1616,1609,1609,1609,1616,1616,1616,1609,1609,1609,1609,1616,1609,1609,1609,1616,1616,1616,1609,1609,1609,1609,1609,1609,1609,1609,1609,1609,1609,1616,1609,1609,1609,1609,1609,1601,1601,1601,1601,1601,1601,1601,1594,1594,1609,0,0,0,0,0,0,1004,1004,1001,1001,998,995,995,992,992,989,989,989,987,987,989,989,989,992,992,995,1001,1004,1004,1007,1007,1010,0,0,0,0,0,1572,1572,1572,1572,1564,1564,1564,1564,1564,1564,1557,1557,1557,1557,1550,1550,1550,1550,1543,1543,1543,1543,1543,1536,1536,1529,1523,1523,1523,1523,1523,1516,1516,1516,1516,1509,1509,1509,1509,1509,1503,1503,1503,1496,1496,1496,1489,1489,1489,1489,1483,1483,1483,1483,1483,1483,1477,1477,1470,1470,1470,1464,1464,1464,1464,1464,1458,1458,1458,1458,1452,1452,1452,1445,1445,1439,1439,1439,1439,1433,1433,1427,1427,1421,1421,1421,1421,1421,1421,1415,1415,1410,1410,1410,1410,1410,1404,1404,1404,1398,1398,1398,1392,1392,1387,1387,1381,1381,1381,1381,1376,1376,1376,1376,1376,1370,1370,1370,1370,1365,1365,1365,1365,1359,1354,1354,1354,1354,1354,1354,1349,1349,1349,1349,1349,1343,1338,1338,1333,1333,1333,1333,1333,1328,1322,1322,1322,1317,1317,1312,1312,1312,1312,1312,1312,1307,1307,1307,1302,1302,1302,1302,1297,1297,1297,1292,1292,1292,1292,1292,1288,1288,1288,1283,1283,1283,1278,1278,1278,1273,1273,1273,1273,1268,1268,1268,1268,1264,1264,1264,1264,1259,1255,1138,1134,1134,1130,1126,1123,1115,1112,1108,1108,1108,1105,1105,1105,1097,1094,1087,1080,1077,1077,1077,1077,1070,1070,1067,1067,1067,0,0,0,0,0,0,0,0,0,0,0,0,0,0,0,0,0,0,0,0,0,0,0,0,0,0,0,0,0,0,0
0,0,0,0,0,0,0,0,0,0,0,0,0,1722,1722,1722,1722,1722,1739,1739,1739,1739,1739,1739,1748,1731,1731,1739,1731,1731,1731,1731,1722,1722,1722,1722,1731,1731,1731,1731,1731,1731,1731,1722,1722,1731,1731,1722,1722,1722,1722,1722,1722,1722,1713,1713,1722,1722,1722,1722,1713,1713,0,0,0,0,0,0,0,0,0,0,903,901,901,901,898,896,894,891,887,887,887,887,887,889,889,894,894,894,896,898,898,901,903,0,0,0,0,0,0,0,915,0,0,0,0,0,1696,1696,1696,1696,1696,1696,1705,1696,1696,1696,1696,1688,1688,1671,1671,1671,1680,1688,1688,1688,1688,1688,1688,1680,789,789,787,787,787,785,785,783,781,778,778,776,776,774,773,773,771,769,767,767,766,764,762,761,759,755,754,754,752,750,749,747,746,746,742,741,739,738,734,734,734,731,730,728,727,725,723,722,722,719,717,716,714,713,713,711,710,708,707,704,704,703,703,701,700,698,697,694,693,691,690,690,688,688,687,687,686,683,682,680,679,678,676,675,675,675,641,641,641,641,641,641,641,641,641,641,641,653,653,654,654,654,655,657,658,659,663,664,666,670,670,671,671,672,672,675,690,690,691,691,693,694,694,697,697,698,704,704,707,710,711,713,713,714,716,720,723,727,728,730,731,734,734,736,739,741,741,742,747,747,747,749,752,754,0,0,0,0,0,0,0,1586,1586,1586,1586,1594,1601,1601,1609,1609,1616,1609,1609,1609,1609,1609,1609,1609,1609,1609,1609,1609,1601,1601,1601,1601,1609,1609,1609,1609,1609,1609,1609,1609,1609,1609,1609,1601,1601,1601,1601,1601,1601,1601,1601,1601,1601,1601,1601,1601,1601,1601,1601,1601,1594,1594,1594,1586,1586,1601,0,0,0,0,0,1007,1004,1004,1004,1001,1001,998,998,995,995,992,992,989,989,989,989,989,989,992,995,995,1001,1007,1007,1010,1010,1010,0,0,0,0,1564,1564,1564,1564,1564,1564,1564,1557,1557,1557,1557,1557,1550,1550,1550,1550,1550,1550,1550,1550,1543,1543,1543,1543,1543,1536,1536,1529,1529,1523,1523,1523,1516,1516,1516,1516,1516,1509,1509,1509,1509,1503,1503,1503,1496,1496,1496,1489,1489,1489,1489,1489,1483,1483,1483,1483,1483,1483,1477,1477,1470,1470,1470,1464,1464,1464,1464,1464,1464,1458,1458,1452,1452,1452,1445,1445,1445,1439,1439,1439,1433,1433,1427,1427,1427,1427,1427,1421,1421,1421,1415,1415,1410,1410,1410,1410,1410,1404,1404,1404,1404,1398,1398,1398,1392,1392,1387,1381,1381,1381,1381,1381,1381,1376,1376,1376,1376,1370,1370,1370,1370,1365,1365,1365,1359,1359,1354,1354,1354,1354,1354,1354,1349,1349,1349,1349,1343,1338,1338,1333,1333,1333,1333,1333,1328,1328,1328,1328,1322,1317,1312,1312,1312,1312,1312,1312,1307,1307,1307,1307,1302,1302,1302,1302,1297,1297,1297,1292,1292,1292,1292,1292,1288,1288,1283,1283,1283,1278,1278,1278,1273,1273,1273,1273,1273,1268,1268,1268,1268,1268,1268,1264,1138,1134,1134,1134,1130,1126,1126,1115,1112,1108,1105,1105,1105,1101,1101,1101,1094,1090,1084,1080,1077,1077,1077,1077,1073,1070,1070,1070,1070,0,0,0,0,0,0,0,0,0,0,0,0,0,0,0,0,0,0,0,0,0,0,0,0,0,0,0,0,0,0,0
0,0,0,0,0,0,0,0,0,0,0,0,0,1722,1722,1722,1722,1722,1739,1739,1739,1739,1731,1731,1731,1731,1731,1731,1731,1722,1722,1722,1722,1722,1722,1722,1722,1722,1722,1722,1722,1722,1722,1722,1722,1722,1722,1722,1713,1713,1713,1713,1713,1713,1713,1713,1713,1713,1713,1722,1713,1713,0,0,0,0,0,0,0,0,0,0,0,901,901,901,898,896,896,894,889,889,889,889,889,889,891,894,894,894,896,898,898,901,903,903,906,0,0,0,0,0,915,0,0,0,0,0,0,1705,1696,1696,1696,1696,1696,1696,1696,1688,1688,1688,1688,1680,1680,1680,1680,1680,1680,1680,1688,1688,1688,1680,1680,1680,1680,1655,787,787,787,785,781,778,778,778,776,774,774,773,771,769,767,767,766,764,764,761,759,757,755,754,754,752,749,749,747,747,744,744,742,739,736,736,734,734,731,731,728,727,725,723,722,719,719,716,714,714,713,711,711,710,708,706,704,703,703,701,700,698,698,697,694,693,691,691,690,688,687,687,686,683,683,682,680,678,676,675,675,667,667,641,641,641,641,641,641,641,641,641,654,654,654,655,655,655,657,658,659,661,663,664,667,668,670,671,672,672,672,675,690,690,691,691,693,696,696,697,698,703,706,706,708,710,713,713,714,716,716,722,725,727,728,730,733,734,736,738,739,741,741,742,746,747,747,749,0,0,0,0,0,0,0,0,0,1586,1586,1586,1586,1601,1601,1601,1601,1609,1609,1609,1609,1609,1609,1601,1601,1601,1601,1601,1609,1601,1601,1601,1601,1601,1609,1609,1609,1609,1609,1609,1609,1609,1609,1601,1601,1601,1601,1601,1601,1601,1594,1594,1594,1594,1594,1586,1586,1586,1594,1594,1594,1594,1594,1586,1586,1586,1586,1594,0,0,0,0,0,1007,1004,1004,1004,1004,1001,1001,998,998,995,992,992,989,989,989,989,989,992,992,995,1001,1004,1007,1007,1010,1013,1013,0,0,0,1557,1557,1557,1557,1557,1564,1557,1557,1557,1557,1557,1557,1550,1550,1550,1550,1550,1543,1543,1550,1550,1543,1543,1543,1543,1543,1536,1536,1529,1529,1523,1523,1523,1523,1523,1516,1516,1516,1516,1516,1509,1509,1503,1503,1503,1496,1496,1496,1489,1489,1489,1489,1489,1489,1483,1483,1489,1483,1483,1477,1477,1470,1470,1470,1470,1464,1464,1464,1464,1464,1458,1458,1452,1452,1452,1452,1445,1445,1439,1439,1439,1439,1433,1433,1433,1427,1427,1427,1421,1421,1421,1415,1415,1415,1410,1410,1410,1410,1410,1404,1404,1404,1404,1398,1398,1392,1392,1392,1387,1387,1387,1387,1381,1381,1381,1376,1376,1376,1370,1370,1370,1370,1365,1365,1365,1359,1359,1354,1354,1354,1354,1354,1354,1349,1349,1349,1349,1343,1343,1338,1333,1333,1333,1333,1333,1328,1328,1328,1328,1322,1322,1317,1317,1317,1312,1312,1312,1307,1307,1307,1307,1307,1302,1302,1302,1297,1297,1297,1297,1292,1292,1292,1292,1288,1288,1283,1283,1283,1278,1278,1273,1273,1273,1273,1273,1273,1268,1268,1268,1268,1268,1268,1268,1138,1134,1134,1130,1130,1126,1123,1115,1112,1108,1105,1105,1105,1101,1101,1097,1094,1090,1084,1080,1077,1077,1077,1077,1073,1070,1070,1070,1070,0,0,0,0,0,0,0,0,0,0,0,0,0,0,0,0,0,0,0,0,0,0,0,0,0,0,0,0,0,0,0
0,0,0,0,0,0,0,0,0,0,0,0,0,1713,1713,1713,1713,1722,1722,1731,1731,1731,1722,1722,1722,1722,1713,1713,1713,1713,1713,1722,1713,1713,1713,1713,1722,1722,1722,1722,1722,1722,1722,1722,1722,1722,1722,1722,1713,1713,1705,1696,1696,1713,1705,1705,1713,1713,1713,1713,1705,1705,0,0,0,0,0,0,0,0,0,0,0,0,906,903,901,898,896,896,896,889,889,891,891,891,891,896,896,896,896,898,898,901,903,906,906,908,910,910,913,913,915,915,0,0,0,0,0,1705,1696,1696,1696,1696,1696,1688,1688,1688,1688,1680,1680,1680,1680,1680,1680,1680,1680,1680,1680,1688,1680,1671,1671,1663,1655,1655,1655,1647,1647,781,781,778,778,778,776,774,774,773,773,769,767,767,766,766,764,762,761,757,757,755,754,752,750,750,749,747,746,746,744,741,738,738,738,734,734,733,731,728,728,728,727,722,720,717,716,714,714,713,711,710,708,707,707,706,704,703,701,700,698,698,697,694,693,693,691,690,688,687,686,684,684,683,680,679,676,672,671,668,667,664,663,662,661,661,661,661,659,659,655,655,655,655,655,655,657,658,659,661,663,666,667,668,671,671,672,672,674,675,675,691,693,693,694,696,697,698,700,703,707,707,708,710,713,714,714,716,720,723,725,727,728,730,733,734,734,739,739,741,741,741,746,747,747,749,0,0,0,0,0,0,0,0,1586,1586,1586,1594,1601,1601,1601,1601,1601,1601,1601,1601,1601,1601,1601,1601,1601,1601,1601,1601,1601,1601,1601,1601,1601,1601,1601,1601,1601,1601,1601,1601,1601,1601,1601,1601,1601,1594,1594,1594,1594,1594,1594,1586,1586,1586,1586,1586,1586,1586,1586,1586,1586,1586,1586,1586,1586,1586,1586,1586,1586,0,0,0,0,1007,1007,1007,1004,1004,1004,1001,1001,998,998,995,992,992,992,992,992,992,992,995,995,1001,1004,1007,1007,1010,1013,1013,0,0,0,1550,1550,1550,1550,1557,1557,1557,1550,1550,1550,1550,1550,1550,1550,1550,1543,1543,1543,1543,1543,1543,1543,1543,1543,1543,1543,1543,1536,1536,1529,1529,1523,1523,1523,1523,1523,1523,1516,1516,1516,1516,1509,1503,1503,1503,1496,1496,1496,1496,1489,1489,1489,1489,1489,1489,1489,1483,1483,1483,1477,1477,1470,1470,1470,1470,1470,1464,1464,1464,1464,1458,1458,1452,1452,1452,1452,1445,1445,1439,1439,1439,1439,1439,1433,1433,1433,1427,1427,1427,1421,1421,1421,1415,1415,1415,1410,1410,1410,1410,1404,1404,1404,1404,1398,1398,1398,1392,1392,1392,1387,1387,1387,1387,1387,1381,1381,1376,1376,1370,1370,1370,1370,1365,1365,1365,1365,1359,1359,1354,1354,1354,1354,1354,1354,1354,1349,1349,1349,1343,1343,1338,1338,1333,1333,1333,1333,1328,1328,1328,1328,1322,1322,1317,1317,1312,1312,1312,1312,1307,1307,1307,1307,1307,1302,1302,1302,1302,1297,1297,1292,1292,1292,1292,1288,1288,1283,1283,1283,1278,1278,1273,1273,1273,1273,1273,1273,1273,1268,1268,1268,1268,1268,1138,1138,1134,1134,1130,1130,1126,1123,1112,1108,1108,1105,1105,1101,1097,1097,1094,1090,1087,1084,1080,1080,1077,1077,1077,1077,1073,1073,1073,1073,0,0,0,0,0,0,0,0,0,0,0,0,0,0,0,0,0,0,0,0,0,0,0,0,0,0,0,0,0,0,0
0,0,0,0,0,0,0,0,0,0,0,0,0,1705,1705,1705,1705,1705,1705,1713,1713,1722,1713,1713,1713,1705,1705,1705,1705,1705,1713,1713,1713,1713,1713,1713,1713,1713,1713,1713,1713,1713,1713,1713,1713,1713,1713,1696,1696,1696,1696,1696,1696,1705,1705,1705,1705,1705,1705,1705,1696,1671,1671,0,0,0,0,0,0,0,0,0,0,0,906,903,903,901,898,896,896,896,891,891,891,891,894,896,896,896,896,898,901,903,903,906,908,910,910,913,913,913,915,915,0,0,0,0,0,0,1696,1696,1688,1688,1688,1688,1688,1680,1680,1680,1680,1680,1680,1671,1671,1671,1671,1671,1680,1680,1671,1671,1663,1663,1655,1647,1647,1647,1647,1647,1647,778,778,778,776,776,774,774,773,767,767,766,766,766,764,762,761,757,757,755,755,754,752,752,750,749,747,747,744,742,741,739,738,736,736,734,733,731,730,728,728,727,722,719,717,716,716,714,711,711,708,708,708,706,706,704,703,703,703,698,697,697,696,694,693,691,691,688,686,684,684,683,682,679,676,672,671,668,667,664,664,662,662,661,661,661,659,657,657,657,657,657,657,657,658,659,659,661,664,666,667,670,670,672,674,674,674,675,675,693,693,693,696,696,697,698,700,703,707,707,708,714,714,716,717,717,720,723,725,727,728,730,733,734,734,739,739,739,741,741,746,747,747,0,0,0,0,0,0,0,0,1579,1579,1586,1594,1594,1594,1594,1594,1601,1601,1601,1601,1601,1601,1601,1601,1594,1594,1594,1594,1594,1594,1594,1594,1594,1594,1594,1601,1594,1594,1594,1601,1594,1594,1594,1594,1594,1594,1586,1586,1586,1586,1586,1586,1586,1586,1579,1579,1579,1579,1579,1579,1579,1579,1579,1579,1579,1579,1579,1579,1586,1586,1594,0,0,0,1007,1007,1007,1004,1004,1004,1001,1001,1001,998,998,995,992,992,992,992,992,992,995,995,1004,1004,1007,1007,1010,1013,0,0,0,0,1550,1550,1550,1550,1550,1550,1550,1550,1550,1550,1550,1550,1543,1543,1543,1543,1543,1543,1543,1543,1543,1543,1543,1543,1543,1536,1536,1536,1529,1529,1529,1523,1523,1523,1523,1523,1523,1516,1516,1516,1516,1509,1509,1503,1503,1496,1496,1496,1496,1489,1489,1489,1489,1489,1489,1489,1483,1483,1483,1477,1477,1470,1470,1470,1470,1470,1464,1464,1464,1464,1464,1458,1458,1452,1452,1452,1445,1445,1445,1439,1439,1439,1439,1439,1433,1433,1433,1427,1427,1427,1421,1421,1421,1415,1415,1415,1410,1410,1410,1404,1404,1404,1404,1398,1398,1398,1398,1398,1392,1392,1392,1387,1387,1387,1387,1381,1376,1376,1376,1376,1370,1370,1370,1370,1365,1365,1365,1359,1359,1359,1354,1354,1354,1354,1354,1349,1349,1349,1349,1343,1343,1338,1338,1333,1333,1333,1328,1328,1328,1328,1322,1322,1317,1317,1312,1312,1312,1312,1307,1307,1307,1307,1307,1307,1302,1302,1302,1297,1297,1297,1292,1292,1288,1288,1288,1288,1283,1283,1278,1278,1278,1273,1273,1273,1273,1273,1273,1273,1268,1268,1268,1138,1138,1134,1134,1134,1130,1126,1123,1115,1112,1108,1105,1105,1101,1097,1097,1094,1094,1090,1087,1080,1080,1080,1077,1077,1077,1077,1077,1073,1073,1073,0,0,0,0,0,0,0,0,0,0,0,0,0,0,0,0,0,0,0,0,0,0,0,0,0,0,0,0,0,0,0
0,0,0,0,0,0,0,0,0,0,0,0,0,1705,1705,1705,1696,1696,1705,1705,1705,1705,1705,1705,1696,1696,1696,1696,1705,1705,1705,1705,1705,1705,1705,1705,1705,1713,1713,1713,1713,1713,1713,1713,1705,1705,1705,1696,1696,1688,1688,1696,1696,1696,1696,1696,1696,1696,1705,1696,1696,1663,1647,1647,1647,1647,0,0,0,0,0,0,0,0,906,906,903,903,901,898,896,896,894,894,894,894,894,896,896,896,896,898,901,903,906,906,908,908,910,913,913,913,913,915,0,0,0,0,0,0,1688,1688,1688,1688,1680,1680,1680,1680,1680,1680,1671,1671,1671,1671,1671,1671,1671,1671,1671,1671,1663,1663,1663,1663,1655,1647,1647,1647,1647,1647,1647,1632,1632,1632,774,774,774,774,773,767,767,766,766,766,764,762,761,757,757,755,754,754,752,750,750,749,747,747,746,744,742,741,739,738,738,736,734,733,731,730,728,728,723,722,720,719,717,714,714,714,710,708,708,707,706,704,704,703,703,701,700,698,697,696,694,693,691,690,687,686,686,683,682,680,676,672,671,670,668,666,664,663,662,661,661,661,659,657,657,657,657,658,658,658,658,659,661,662,664,666,668,670,670,672,674,675,675,676,676,694,694,694,696,697,697,698,700,703,704,708,708,714,714,716,717,719,722,723,725,727,728,730,731,734,734,736,739,739,739,742,746,0,0,0,0,0,0,0,0,0,1594,1579,1579,1586,1594,1594,1594,1594,1594,1594,1594,1594,1594,1594,1594,1594,1594,1594,1594,1594,1594,1594,1594,1594,1586,1586,1586,1586,1594,1586,1586,1586,1594,1586,1586,1586,1586,1586,1586,1579,1579,1579,1579,1579,1579,1579,1579,1579,1579,1572,1572,1572,1572,1572,1572,1572,1572,1572,1572,1572,1572,1572,1579,1594,1601,0,0,0,1010,1007,1007,1007,1004,1004,1001,1001,1001,998,995,995,992,992,992,995,995,995,998,1004,1007,1010,1010,1013,1013,0,0,0,0,1550,1543,1543,1543,1543,1543,1543,1543,1543,1543,1543,1543,1543,1543,1543,1536,1536,1543,1543,1543,1543,1543,1543,1543,1536,1536,1529,1529,1523,1523,1523,1523,1523,1523,1523,1523,1523,1516,1516,1516,1516,1509,1509,1503,1503,1503,1496,1496,1496,1496,1489,1489,1489,1489,1489,1489,1483,1483,1483,1477,1477,1470,1470,1470,1470,1470,1464,1464,1464,1464,1464,1458,1458,1458,1458,1452,1445,1445,1445,1445,1439,1439,1439,1439,1433,1433,1433,1427,1427,1427,1427,1421,1421,1421,1415,1415,1415,1410,1410,1404,1404,1404,1404,1398,1398,1398,1398,1398,1398,1392,1392,1392,1392,1387,1387,1381,1381,1376,1376,1376,1370,1370,1370,1370,1370,1365,1365,1365,1359,1359,1359,1354,1354,1354,1354,1349,1349,1349,1349,1343,1343,1338,1338,1333,1333,1333,1328,1328,1328,1328,1322,1322,1322,1317,1312,1312,1312,1312,1307,1307,1307,1307,1307,1307,1307,1302,1302,1297,1297,1292,1292,1292,1288,1288,1288,1288,1283,1283,1283,1278,1278,1273,1273,1273,1273,1273,1273,1273,1273,1268,1141,1138,1138,1134,1134,1134,1130,1126,1123,1115,1112,1108,1105,1105,1101,1097,1094,1090,1090,1090,1087,1080,1080,1077,1077,1077,1077,1077,1077,1077,1077,1077,0,0,0,0,0,0,0,0,0,0,0,0,0,0,0,0,0,0,0,0,0,0,0,0,0,0,0,0,0,0,0
0,0,0,0,0,0,0,0,0,0,0,0,0,1696,1696,1696,1696,1696,1696,1696,1696,1688,1688,1688,1688,1688,1688,1688,1696,1696,1696,1696,1696,1705,1705,1705,1705,1696,1696,1696,1696,1705,1705,1696,1696,1696,1696,1696,1696,1688,1688,1688,1696,1696,1696,1696,1696,1696,1696,1688,1688,1663,1647,1647,1647,1647,0,0,0,0,0,0,0,0,910,906,903,903,901,898,896,896,896,896,896,896,896,896,896,896,898,901,901,903,906,906,908,908,910,913,913,913,913,0,0,0,0,0,0,1688,1688,1688,1688,1680,1680,1680,1680,1671,1671,1671,1671,1671,1671,1663,1663,1663,1663,1663,1663,1663,1663,1663,1655,1655,1655,1647,1647,1647,1639,1639,1632,1632,1632,1632,1632,1624,1624,769,769,769,767,767,767,766,766,764,764,759,759,755,754,754,752,750,750,749,747,747,746,744,742,741,741,739,738,738,734,733,733,733,730,728,725,723,722,719,719,717,716,716,710,710,708,708,707,706,704,704,704,703,701,698,697,697,696,693,693,691,688,687,686,683,682,680,676,672,671,671,670,666,664,663,663,662,661,661,659,657,657,657,657,658,658,658,659,661,661,662,664,666,668,670,671,674,675,675,676,676,676,687,693,694,696,697,698,700,701,703,704,707,713,714,716,716,717,722,722,723,725,727,728,731,731,734,734,736,738,738,739,742,0,0,0,0,0,0,1586,1586,1586,1586,1586,1594,1594,1594,1594,1594,1594,1586,1586,1586,1586,1586,1586,1586,1586,1586,1586,1586,1586,1586,1586,1586,1586,1586,1586,1586,1579,1579,1579,1579,1579,1579,1579,1579,1579,1579,1572,1572,1572,1579,1572,1572,1572,1572,1572,1572,1572,1572,1572,1572,1572,1572,1572,1572,1572,1572,1572,1572,1564,1557,1557,1557,1579,1594,1601,0,0,0,1010,1007,1007,1007,1004,1004,1004,1001,1001,998,995,995,995,995,995,995,995,995,1001,1004,1007,1010,1010,1013,1013,1013,0,0,0,1543,1543,1543,1543,1543,1543,1543,1543,1543,1543,1543,1536,1536,1536,1536,1536,1536,1536,1536,1536,1536,1536,1536,1536,1529,1529,1529,1523,1523,1523,1523,1523,1523,1523,1516,1516,1516,1516,1516,1516,1509,1509,1509,1509,1503,1503,1503,1496,1496,1496,1496,1496,1489,1489,1489,1489,1483,1483,1477,1477,1477,1477,1470,1470,1470,1470,1470,1464,1464,1464,1464,1464,1458,1458,1458,1452,1452,1452,1445,1445,1445,1439,1439,1439,1433,1433,1433,1427,1427,1427,1427,1421,1421,1421,1421,1415,1415,1410,1410,1404,1404,1404,1404,1404,1404,1404,1398,1398,1398,1392,1392,1392,1392,1392,1387,1381,1381,1376,1376,1376,1376,1370,1370,1370,1370,1370,1365,1365,1359,1359,1359,1354,1354,1354,1354,1349,1349,1349,1349,1343,1343,1338,1338,1333,1333,1333,1333,1333,1328,1328,1328,1328,1322,1322,1317,1312,1312,1312,1307,1307,1307,1307,1307,1307,1307,1307,1307,1302,1302,1292,1292,1292,1292,1288,1288,1288,1283,1283,1283,1278,1278,1273,1273,1273,1273,1273,1273,1273,1145,1141,1138,1138,1138,1134,1134,1130,1130,1123,1119,1115,1108,1108,1105,1101,1097,1094,1094,1090,1090,1090,1084,1080,1080,1077,1077,1077,1077,1077,1077,1077,1077,1077,0,0,0,0,0,0,0,0,0,0,0,0,0,0,0,0,0,0,0,0,0,0,0,0,0,0,0,0,0,0,0
0,0,0,0,0,0,0,0,0,0,0,0,0,1688,1688,1688,1688,1688,1688,1696,1688,1688,1688,1688,1688,1688,1688,1688,1688,1696,1696,1696,1696,1696,1696,1688,1688,1688,1688,1680,1680,1680,1688,1688,1688,1696,1696,1688,1688,1688,1688,1688,1688,1688,1688,1688,1688,1688,1688,1680,1663,1655,1655,1647,1647,1647,1647,0,0,0,0,0,0,0,910,906,903,903,903,901,901,898,896,896,896,896,898,898,898,898,898,901,901,903,906,906,908,908,910,913,913,913,913,0,0,0,0,0,0,1688,1680,1680,1671,1671,1671,1671,1671,1663,1663,1663,1663,1663,1663,1663,1655,1655,1655,1655,1655,1663,1655,1655,1655,1647,1647,1647,1639,1639,1632,1632,1632,1632,1632,1632,1632,1624,1624,1624,1624,767,767,767,767,766,766,764,764,766,761,755,755,754,752,752,750,749,749,747,747,746,744,742,741,739,739,738,736,734,733,733,730,728,727,725,723,722,720,719,716,716,714,714,710,708,708,708,706,704,704,703,701,698,697,697,696,693,693,691,690,688,687,684,684,684,686,671,671,671,670,667,666,664,664,662,662,661,661,659,658,658,658,658,658,659,659,661,661,662,664,666,668,670,671,675,675,676,678,678,684,687,693,696,696,697,698,700,701,703,706,707,714,714,716,717,719,720,722,723,723,727,728,730,730,733,736,738,738,738,739,0,0,0,0,0,0,0,1579,1579,1579,1579,1579,1579,1579,1579,1579,1586,1586,1586,1586,1586,1586,1586,1579,1579,1579,1586,1586,1579,1579,1579,1579,1579,1579,1579,1572,1572,1572,1572,1572,1572,1572,1572,1572,1572,1572,1572,1572,1572,1572,1572,1572,1572,1572,1572,1572,1572,1564,1564,1564,1564,1564,1564,1564,1557,1557,1564,1557,1557,1550,1550,1550,1543,1543,0,0,1543,0,0,0,1007,1007,1007,1004,1004,1004,1004,1001,1001,998,998,995,995,995,995,998,998,1004,1007,1007,1010,1010,1013,1013,1016,0,0,0,1543,1536,1536,1536,1536,1536,1536,1536,1536,1536,1536,1529,1529,1529,1529,1529,1529,1536,1536,1536,1536,1536,1529,1529,1529,1523,1523,1523,1523,1523,1516,1516,1516,1516,1516,1516,1516,1516,1509,1509,1509,1509,1509,1503,1503,1503,1503,1496,1496,1496,1496,1496,1489,1489,1489,1489,1489,1483,1477,1477,1477,1477,1477,1470,1470,1470,1470,1464,1464,1464,1464,1464,1458,1458,1458,1458,1452,1452,1445,1445,1445,1439,1439,1439,1439,1433,1433,1433,1433,1427,1427,1427,1427,1421,1421,1421,1415,1415,1410,1410,1404,1404,1404,1404,1404,1404,1398,1398,1398,1398,1392,1392,1392,1392,1392,1387,1381,1376,1376,1376,1376,1370,1370,1370,1370,1370,1370,1365,1365,1359,1359,1354,1354,1354,1354,1349,1349,1349,1349,1343,1343,1343,1338,1333,1333,1333,1333,1328,1328,1328,1328,1328,1322,1322,1317,1312,1312,1312,1312,1312,1312,1312,1312,1307,1307,1307,1307,1302,1302,1297,1292,1292,1292,1292,1288,1288,1288,1283,1283,1283,1278,1278,1278,1273,1273,1273,1273,1149,1145,1141,1138,1138,1134,1134,1134,1130,1126,1123,1115,1112,1108,1105,1105,1101,1097,1094,1094,1090,1090,1090,1084,1080,1080,1080,1080,1077,1077,1077,1077,1077,1077,1077,0,0,0,0,0,0,0,0,0,0,0,0,0,0,0,0,0,0,0,0,0,0,0,0,0,0,0,0,0,0,0
0,0,0,0,0,0,0,0,0,0,0,0,0,1680,1680,1680,1671,1671,1680,1688,1680,1680,1671,1671,1688,1680,1680,1688,1688,1688,1688,1688,1688,1688,1688,1688,1688,1680,1680,1680,1680,1680,1680,1680,1680,1680,1680,1688,1688,1680,1680,1680,1688,1688,1680,1680,1680,1680,1671,1671,1663,1655,1655,1655,1655,1647,1647,0,0,0,0,0,0,0,0,0,0,903,903,903,901,901,898,898,898,898,898,898,898,898,901,901,903,903,906,908,908,910,910,913,913,913,913,0,0,0,0,0,0,1688,1680,1680,1663,1655,1655,1663,1663,1663,1663,1663,1655,1655,1655,1655,1655,1655,1655,1655,1655,1655,1647,1647,1647,1647,1647,1647,1639,1639,1632,1632,1632,1632,1632,1632,1624,1624,1624,1624,1624,1624,1624,1624,1616,1616,1616,1616,1609,755,755,755,755,754,752,752,750,750,749,747,747,746,744,742,741,739,739,738,736,734,733,733,730,728,727,727,725,723,722,720,717,717,716,714,714,710,708,708,708,707,704,704,703,700,698,697,696,694,693,691,690,688,687,687,686,686,686,671,671,671,670,668,667,666,664,663,663,662,661,659,659,659,659,659,659,659,661,661,662,662,664,667,668,670,672,676,676,678,679,680,684,694,694,696,697,697,698,700,703,704,706,707,714,714,716,717,719,720,722,723,723,727,728,730,730,733,736,0,0,0,0,0,0,0,1579,1579,1579,1579,1579,1572,1572,1579,1579,1572,1572,1572,1579,1579,1579,1572,1572,1579,1579,1579,1572,1572,1572,1579,1579,1572,1572,1572,1572,1572,1572,1564,1564,1564,1564,1564,1564,1564,1564,1557,1557,1564,1564,1564,1564,1564,1564,1564,1564,1564,1564,1564,1564,1564,1557,1557,1557,1557,1557,1557,1557,1550,1550,1550,1550,1550,1550,1543,1543,1543,1543,0,0,0,0,0,0,1007,1007,1007,1007,1007,1004,1004,1004,1001,1001,998,998,998,998,998,1001,1001,1004,1007,1007,1010,1010,1013,1013,1013,0,0,0,0,1529,1529,1529,1529,1529,1529,1529,1529,1529,1523,1523,1523,1523,1523,1523,1523,1529,1529,1529,1529,1529,1523,1523,1523,1523,1523,1523,1516,1516,1516,1516,1516,1516,1516,1516,1516,1509,1509,1509,1509,1509,1509,1503,1503,1503,1503,1496,1496,1496,1496,1496,1496,1489,1489,1489,1489,1483,1483,1477,1477,1477,1477,1477,1477,1470,1470,1470,1464,1464,1464,1464,1464,1458,1458,1458,1452,1452,1452,1445,1445,1445,1439,1439,1439,1439,1433,1433,1433,1433,1433,1427,1427,1427,1421,1421,1415,1415,1410,1410,1410,1404,1404,1404,1404,1404,1404,1398,1398,1398,1398,1392,1392,1392,1392,1387,1381,1381,1376,1376,1376,1376,1370,1370,1370,1370,1370,1370,1365,1365,1359,1359,1354,1354,1354,1349,1349,1349,1349,1343,1343,1343,1338,1333,1333,1333,1333,1328,1328,1328,1328,1328,1322,1322,1317,1312,1312,1312,1312,1312,1312,1312,1312,1312,1307,1307,1307,1302,1302,1297,1292,1292,1292,1292,1292,1288,1288,1283,1283,1283,1283,1278,1278,1278,1278,1278,1273,1149,1145,1141,1138,1138,1134,1134,1134,1130,1126,1119,1115,1112,1108,1105,1105,1101,1097,1094,1094,1090,1090,1090,1084,1080,1080,1080,1080,1077,1077,1077,1077,1077,1077,1077,0,0,0,0,0,0,0,0,0,0,0,0,0,0,0,0,0,0,0,0,0,0,0,0,0,0,0,0,0,0,0
0,0,0,0,0,0,0,0,0,0,0,0,0,1671,1671,1671,1671,1671,1671,1680,1680,1680,1671,1671,1680,1680,1680,1680,1688,1688,1688,1688,1688,1688,1688,1680,1680,1680,1671,1671,1671,1671,1671,1671,1671,1671,1671,1671,1671,1671,1671,1671,1671,1671,1671,1671,1671,1671,1671,1663,1663,1655,1655,1655,1655,1647,1647,0,0,0,0,0,0,0,0,0,0,0,906,903,903,901,901,901,898,898,898,898,898,901,903,903,903,906,906,908,908,910,910,913,913,913,913,0,0,0,0,0,0,0,1680,1680,1663,1655,1655,1655,1655,1655,1655,1655,1655,1655,1655,1655,1655,1655,1647,1647,1647,1647,1647,1639,1639,1639,1639,1639,1639,1632,1632,1632,1632,1632,1624,1624,1624,1624,1624,1624,1624,1624,1624,1616,1616,1616,0,0,0,0,0,755,755,754,752,750,750,749,749,747,746,744,744,742,741,739,739,738,736,734,734,733,731,730,728,727,727,723,723,722,719,717,717,716,714,714,710,710,708,708,708,706,704,703,700,698,698,696,696,693,693,691,688,687,686,686,686,687,674,671,670,670,668,667,666,664,663,662,661,661,659,659,659,659,659,659,661,661,662,663,666,667,668,671,672,676,676,678,679,680,680,696,696,696,697,698,700,703,704,704,706,708,714,716,716,717,719,722,722,722,723,727,728,728,736,736,736,736,0,0,1572,0,0,1572,1572,1572,1572,1572,1572,1572,1572,1572,1572,1572,1572,1572,1572,1572,1572,1564,1564,1564,1564,1564,1572,1572,1572,1572,1572,1572,1572,1572,1572,1572,1564,1564,1564,1557,1557,1557,1557,1557,1557,1557,1557,1557,1557,1557,1557,1557,1557,1557,1557,1557,1557,1557,1557,1557,1557,1557,1550,1550,1550,1550,1550,1550,1550,1550,1543,1543,1543,1536,1536,1536,1536,0,0,1523,0,0,0,1010,1010,1010,1007,1007,1007,1004,1004,1001,1001,1001,998,998,998,998,1001,1001,1004,1007,1007,1010,1010,1013,1013,1013,0,0,0,0,1523,1523,1523,1523,1523,1523,1523,1523,1523,1523,1523,1523,1523,1523,1523,1523,1523,1523,1523,1523,1523,1523,1523,1523,1516,1516,1516,1516,1516,1516,1516,1516,1509,1509,1509,1509,1509,1509,1509,1503,1503,1503,1503,1503,1503,1496,1496,1496,1496,1496,1496,1496,1489,1489,1489,1489,1483,1483,1477,1477,1477,1477,1477,1470,1470,1470,1470,1464,1464,1464,1464,1464,1464,1464,1464,1458,1452,1452,1445,1445,1445,1439,1439,1439,1439,1439,1433,1433,1433,1433,1433,1427,1427,1421,1421,1415,1415,1415,1410,1410,1410,1410,1410,1404,1404,1404,1404,1398,1398,1398,1392,1392,1392,1392,1387,1387,1381,1381,1376,1376,1376,1376,1370,1370,1370,1370,1370,1370,1365,1365,1359,1359,1354,1354,1349,1349,1349,1349,1343,1343,1343,1338,1338,1333,1333,1333,1333,1328,1328,1328,1328,1328,1322,1317,1317,1317,1317,1312,1312,1312,1312,1312,1312,1307,1307,1307,1307,1307,1302,1292,1292,1292,1292,1292,1288,1288,1288,1288,1288,1288,1283,1283,1278,1278,1278,1278,1149,1141,1141,1138,1138,1134,1134,1134,1130,1123,1115,1115,1112,1108,1105,1105,1101,1097,1094,1094,1090,1090,1090,1084,1080,1080,1080,1080,1077,1077,1077,1077,1077,1077,1077,0,0,0,0,0,0,0,0,0,0,0,0,0,0,0,0,0,0,0,0,0,0,0,0,0,0,0,0,0,0,0
0,0,0,0,0,0,0,0,0,0,0,0,0,1671,1671,1663,1663,1663,1663,1671,1671,1671,1671,1671,1680,1680,1680,1680,1680,1680,1680,1671,1671,1671,1671,1671,1671,1671,1663,1663,1671,1671,1671,1671,1671,1671,1671,1671,1671,1663,1663,1663,1663,1663,1663,1663,1663,1663,1663,1663,1663,1655,1647,1647,1647,1647,1639,1639,0,0,0,0,0,0,0,0,0,0,906,903,903,903,903,903,901,901,901,901,901,901,903,903,903,906,906,908,908,910,913,913,913,913,915,0,0,0,0,0,0,0,0,0,1639,1639,1639,1647,1647,1639,1639,1647,1647,1647,1647,1647,1647,1647,1639,1639,1639,1639,1632,1632,1632,1632,1632,1632,1632,1632,1632,1632,1632,1624,1624,1624,1624,1624,1624,1616,1616,1616,1616,1616,1616,1616,1609,1609,0,0,0,754,754,754,752,750,750,749,749,747,746,744,744,742,741,741,739,739,738,736,734,733,731,730,728,727,727,725,723,722,720,720,717,717,716,714,711,711,710,708,708,707,706,703,701,700,700,698,697,696,694,691,691,688,687,687,686,682,675,674,672,671,668,668,666,664,663,663,661,661,659,659,659,659,659,659,661,661,662,664,666,667,668,671,674,676,678,679,679,680,682,698,698,698,700,700,700,703,704,704,708,710,714,716,716,716,719,720,720,722,722,727,0,0,0,0,0,0,0,0,0,1572,1572,1572,1564,1564,1564,1564,1564,1564,1564,1572,1572,1564,1564,1564,1564,1564,1564,1564,1564,1564,1564,1564,1564,1564,1564,1564,1564,1572,1564,1564,1564,1564,1564,1557,1557,1557,1557,1557,1557,1557,1557,1550,1550,1550,1550,1557,1550,1550,1550,1550,1550,1550,1550,1550,1550,1550,1550,1550,1550,1550,1550,1550,1550,1543,1543,1543,1536,1536,1536,1529,1529,1529,1523,1523,1523,1523,1516,0,1016,1010,1010,1010,1010,1010,1007,1007,1004,1004,1001,1001,1001,1001,1001,1001,1001,1001,1004,1007,1010,1010,1013,1013,1013,1013,0,0,0,0,1516,1516,1523,1523,1523,1523,1523,1523,1516,1516,1516,1516,1516,1516,1516,1516,1516,1516,1516,1516,1516,1516,1516,1516,1509,1509,1509,1509,1509,1509,1509,1509,1509,1509,1503,1503,1503,1503,1503,1503,1503,1503,1503,1503,1503,1496,1496,1496,1496,1496,1496,1489,1489,1489,1489,1489,1483,1483,1477,1477,1477,1477,1470,1470,1470,1470,1464,1464,1464,1464,1464,1464,1464,1464,1464,1458,1452,1452,1452,1445,1445,1445,1439,1439,1439,1439,1433,1433,1433,1433,1433,1427,1427,1421,1421,1415,1415,1415,1410,1410,1410,1410,1410,1404,1404,1404,1404,1398,1398,1398,1398,1392,1392,1392,1392,1387,1387,1381,1381,1376,1376,1376,1370,1370,1370,1370,1370,1370,1365,1365,1359,1359,1354,1354,1354,1349,1349,1349,1349,1349,1343,1338,1338,1338,1338,1333,1333,1333,1328,1328,1328,1328,1328,1322,1317,1317,1317,1312,1312,1312,1312,1312,1312,1312,1307,1307,1307,1307,1302,1292,1292,1292,1292,1292,1288,1288,1288,1288,1288,1288,1283,1283,1283,1283,1278,1278,1145,1141,1138,1138,1138,1134,1134,1134,1130,1123,1115,1112,1108,1108,1105,1101,1097,1097,1094,1094,1090,1090,1090,1084,1080,1077,1077,1077,1077,1073,1073,1077,1077,1077,1077,0,0,0,0,0,0,0,0,0,0,0,0,0,0,0,0,0,0,0,0,0,0,0,0,0,0,0,0,0,0,0
0,0,0,0,0,0,0,0,0,0,0,0,0,1663,1663,1663,1663,1663,1663,1663,1663,1663,1663,1671,1671,1671,1671,1671,1671,1671,1671,1663,1663,1663,1663,1663,1663,1663,1663,1663,1663,1663,1663,1663,1663,1663,1663,1663,1663,1663,1663,1663,1663,1663,1663,1655,1655,1655,1663,1655,1655,1655,1647,1647,1647,1647,1639,1639,0,0,0,0,0,0,0,0,0,0,910,908,903,903,903,903,901,901,901,901,901,901,903,903,903,906,906,908,908,910,913,913,915,915,915,0,0,0,0,0,0,0,0,0,1632,1632,1632,1632,1632,1632,1632,1639,1639,1639,1639,1639,1639,1639,1632,1632,1632,1632,1624,1624,1624,1624,1624,1624,1624,1624,1624,1624,1624,1624,1624,1624,1624,1624,1624,1616,1616,1616,1616,1616,1601,1601,1609,1609,1601,1594,1594,1594,1594,1594,750,750,750,750,749,747,747,744,744,742,741,741,739,739,738,736,734,733,731,730,728,728,727,725,725,723,722,722,720,719,717,714,713,713,710,710,708,708,707,704,703,701,701,701,698,697,696,691,691,691,688,687,686,682,678,676,674,674,671,670,668,666,664,664,662,661,661,659,659,659,659,661,661,662,662,664,667,667,670,671,675,678,678,679,679,680,682,701,701,701,701,701,701,704,704,706,708,714,714,714,716,716,719,720,720,722,722,0,0,0,0,0,0,0,0,1564,1572,1572,1564,1564,1564,1564,1564,1564,1564,1564,1564,1564,1564,1564,1557,1557,1557,1557,1557,1557,1557,1557,1557,1557,1557,1557,1557,1557,1557,1557,1557,1550,1550,1557,1557,1557,1550,1550,1550,1550,1550,1550,1550,1550,1550,1550,1550,1550,1550,1550,1550,1550,1550,1550,1550,1550,1550,1550,1543,1543,1543,1543,1543,1543,1543,1536,1536,1536,1529,1529,1529,1529,1523,1523,1523,1516,1516,1516,0,0,0,1016,1013,1013,1013,1010,1010,1007,1007,1004,1004,1001,1001,1001,1001,1001,1001,1004,1007,1010,1010,1013,1013,1013,1013,1013,0,0,0,1516,1516,1516,1516,1516,1516,1516,1516,1516,1516,1516,1516,1516,1516,1509,1509,1509,1509,1509,1509,1516,1509,1509,1509,1509,1509,1509,1503,1503,1509,1503,1503,1503,1503,1503,1503,1503,1496,1496,1496,1496,1496,1496,1503,1496,1496,1496,1496,1496,1496,1496,1489,1489,1489,1489,1483,1483,1483,1483,1483,1477,1477,1477,1470,1470,1470,1470,1464,1464,1464,1464,1464,1464,1464,1464,1464,1464,1458,1452,1452,1445,1445,1445,1445,1439,1439,1439,1439,1433,1433,1433,1433,1427,1427,1421,1421,1415,1415,1415,1415,1415,1410,1410,1410,1410,1404,1404,1404,1398,1398,1398,1398,1392,1392,1392,1392,1392,1392,1387,1381,1376,1376,1376,1376,1376,1370,1370,1370,1370,1370,1365,1359,1359,1354,1354,1354,1349,1349,1349,1349,1349,1343,1343,1343,1338,1338,1333,1333,1333,1333,1328,1328,1328,1328,1322,1322,1317,1317,1312,1312,1312,1312,1312,1312,1312,1307,1307,1307,1302,1302,1292,1292,1292,1292,1292,1292,1292,1288,1288,1288,1288,1288,1288,1283,1283,1283,1138,1138,1141,1138,1138,1138,1134,1134,1130,1126,1123,1115,1112,1108,1105,1105,1101,1097,1097,1094,1094,1094,1090,1080,1080,1080,1077,1077,1077,1073,1073,1073,1073,1073,1077,1077,0,0,0,0,0,0,0,0,0,0,0,0,0,0,0,0,0,0,0,0,0,0,0,0,0,0,0,0,0,0,0
0,0,0,0,0,0,0,0,0,0,0,0,0,1655,1655,1655,1655,1655,1655,1663,1663,1663,1663,1663,1663,1663,1663,1663,1663,1663,1663,1663,1663,1655,1655,1655,1655,1655,1655,1655,1655,1655,1655,1655,1655,1663,1663,1663,1663,1663,1663,1663,1655,1655,1655,1647,1647,1655,1655,1655,1655,1655,1647,1647,1647,1647,1639,1639,0,0,0,0,0,0,0,0,0,0,910,910,906,906,906,903,903,903,903,903,903,903,903,903,903,906,908,910,910,913,913,913,915,915,0,0,0,0,0,0,0,0,0,0,1632,1624,1624,1632,1624,1624,1624,1624,1624,1632,1632,1632,1632,1632,1632,1632,1632,1624,1624,1624,1624,1624,1624,1624,1624,1624,1624,1624,1624,1624,1624,1624,1624,1624,1624,1616,1616,1616,1616,1609,1601,1601,1601,1601,1601,1594,1594,1594,1594,1594,1594,1601,1594,1594,1594,744,744,744,741,741,741,741,739,739,739,736,734,733,733,731,730,728,728,727,725,725,723,722,722,720,719,716,714,713,713,710,710,710,708,706,704,703,703,701,701,698,697,696,694,693,691,688,686,683,679,676,675,674,671,670,668,666,666,664,664,663,661,661,661,661,661,661,662,663,664,666,667,668,670,671,675,678,678,679,679,680,680,701,701,701,701,703,703,704,706,708,708,714,714,714,716,717,719,720,720,722,0,0,0,0,0,0,0,0,0,0,1564,1564,1564,1557,1557,1557,1557,1557,1557,1557,1557,1557,1557,1557,1550,1550,1550,1550,1550,1550,1550,1550,1550,1550,1550,1550,1557,1550,1550,1550,1550,1550,1550,1543,1543,1543,1550,1550,1550,1550,1550,1550,1550,1550,1543,1543,1543,1543,1543,1543,1543,1543,1543,1543,1543,1543,1543,1543,1543,1543,1543,1543,1536,1536,1536,1529,1529,1529,1523,1523,1523,1523,1523,1516,1516,1516,1509,1509,1509,0,0,1016,1016,1016,1013,1013,1013,1013,1010,1007,1004,1004,1004,1001,1001,1001,1001,1004,1007,1010,1010,1013,1013,1013,1013,1013,0,0,0,0,1509,1509,1516,1516,1516,1516,1516,1516,1516,1509,1509,1509,1509,1509,1509,1509,1509,1509,1509,1509,1509,1509,1503,1503,1503,1503,1503,1503,1503,1503,1503,1503,1503,1496,1496,1496,1496,1496,1496,1496,1496,1496,1496,1496,1496,1489,1489,1489,1489,1489,1489,1489,1483,1483,1483,1483,1477,1477,1477,1477,1477,1477,1477,1477,1470,1470,1470,1464,1464,1464,1464,1464,1464,1464,1464,1464,1458,1452,1452,1445,1445,1445,1445,1445,1439,1439,1439,1433,1433,1433,1433,1427,1427,1421,1421,1421,1421,1415,1415,1415,1415,1410,1410,1410,1410,1404,1404,1398,1398,1398,1398,1398,1398,1392,1392,1392,1392,1387,1387,1381,1376,1376,1376,1376,1370,1370,1370,1370,1370,1365,1365,1359,1359,1354,1354,1354,1349,1349,1349,1349,1349,1343,1343,1343,1343,1338,1333,1333,1333,1328,1328,1328,1328,1328,1322,1322,1322,1317,1317,1312,1312,1312,1312,1312,1307,1307,1307,1302,1302,1297,1297,1292,1292,1292,1292,1292,1288,1288,1288,1288,1288,1288,1288,1283,1283,1138,1138,1141,1138,1138,1138,1134,1134,1130,1126,1115,1112,1108,1108,1105,1105,1101,1097,1094,1094,1094,1090,1090,1080,1080,1080,1080,1077,1077,1073,1073,1073,1073,1073,1073,1073,0,0,0,0,0,0,0,0,0,0,0,0,0,0,0,0,0,0,0,0,0,0,0,0,0,0,0,0,0,0,0
0,0,0,0,0,0,0,0,0,0,0,0,0,1655,1655,1655,1655,1655,1655,1655,1655,1663,1663,1663,1663,1663,1663,1663,1655,1655,1663,1655,1655,1655,1647,1647,1647,1647,1647,1647,1639,1639,1655,1655,1655,1655,1655,1655,1655,1655,1655,1655,1647,1647,1647,1647,1647,1647,1647,1647,1647,1647,1639,1639,1639,1639,1632,1632,0,0,0,0,0,0,0,0,0,0,913,913,910,908,906,906,903,903,903,903,903,903,903,906,906,906,908,910,913,913,913,915,915,918,0,0,0,0,0,0,0,0,0,0,1624,1624,1624,1624,1624,1624,1624,1624,1624,1624,1624,1624,1624,1624,1624,1624,1624,1616,1616,1616,1616,1616,1616,1616,1616,1616,1616,1624,1616,1616,1616,1616,1616,1616,1616,1616,1616,1616,1616,1609,1601,1601,1601,1601,1601,1594,1594,1594,1594,1594,1601,1601,1594,1594,0,0,741,741,741,741,741,741,739,739,739,739,736,734,733,731,730,728,728,727,727,725,723,722,722,720,719,717,714,714,713,713,711,710,710,706,704,704,704,703,701,701,698,697,696,694,693,688,687,684,680,678,676,675,674,671,670,667,666,664,664,663,662,661,661,661,661,662,663,664,664,666,668,668,671,672,676,678,678,679,679,680,680,703,703,703,703,703,704,704,706,707,708,713,713,714,716,717,719,720,720,722,0,0,0,0,0,1564,1564,1564,1564,1564,1564,1557,1557,1550,1550,1550,1550,1550,1550,1550,1550,1550,1550,1550,1543,1543,1550,1550,1550,1543,1543,1550,1543,1543,1543,1543,1550,1543,1543,1543,1543,1543,1543,1543,1543,1536,1536,1536,1536,1543,1543,1543,1543,1543,1543,1543,1543,1543,1543,1543,1543,1543,1543,1543,1543,1543,1543,1543,1543,1536,1536,1536,1529,1529,1523,1523,1523,1523,1523,1523,1523,1523,1523,1516,1516,1516,1509,1503,1503,1503,0,1016,1016,1016,1013,1013,1013,1013,1013,1010,1007,1007,1007,1004,1004,1004,1004,1004,1007,1010,1013,1013,1013,1016,1013,1013,0,0,0,0,1509,1509,1509,1516,1509,1509,1509,1509,1509,1509,1509,1509,1503,1503,1503,1503,1503,1503,1503,1503,1503,1496,1496,1496,1496,1496,1496,1496,1496,1496,1496,1496,1496,1496,1496,1489,1489,1489,1489,1489,1489,1489,1489,1489,1489,1489,1489,1489,1489,1489,1483,1483,1483,1483,1477,1477,1477,1477,1477,1477,1477,1477,1477,1470,1470,1470,1470,1464,1464,1464,1464,1464,1464,1464,1464,1464,1464,1458,1452,1452,1445,1445,1445,1445,1445,1439,1439,1439,1433,1433,1433,1427,1427,1421,1421,1421,1421,1415,1415,1415,1415,1415,1415,1410,1410,1410,1404,1404,1398,1398,1398,1398,1398,1392,1392,1392,1392,1392,1387,1381,1376,1376,1376,1376,1370,1370,1370,1370,1370,1370,1365,1359,1359,1354,1354,1354,1349,1349,1349,1349,1349,1349,1343,1343,1343,1338,1333,1333,1333,1328,1328,1328,1328,1328,1328,1322,1322,1317,1317,1312,1312,1312,1312,1312,1307,1307,1307,1302,1302,1302,1297,1297,1292,1292,1292,1292,1292,1292,1288,1288,1288,1288,1288,1283,1149,1145,1141,1141,1141,1138,1138,1134,1130,1126,1123,1112,1108,1105,1105,1105,1101,1101,1097,1094,1094,1094,1090,1090,1080,1080,1080,1080,1077,1073,1073,1073,1073,1070,1070,1073,1073,0,0,0,0,0,0,0,0,0,0,0,0,0,0,0,0,0,0,0,0,0,0,0,0,0,0,0,0,0,0,0
0,0,0,0,0,0,0,0,0,0,0,0,0,1655,1655,1655,1655,1655,1655,1655,1655,1655,1655,1655,1655,1655,1655,1655,1655,1655,1655,1647,1647,1647,1647,1639,1639,1639,1639,1632,1632,1632,1632,1632,1639,1647,1647,1655,1655,1647,1647,1647,1647,1639,1639,1639,1639,1639,1639,1639,1639,1639,1639,1639,1624,1624,1624,1624,1624,0,0,0,0,0,0,0,0,0,913,913,913,910,910,908,906,906,903,903,903,903,903,906,906,908,910,913,913,913,915,915,918,918,920,920,0,0,0,0,0,0,0,0,1624,1616,1616,1624,1616,1616,1616,1616,1616,1616,1624,1616,1616,1616,1616,1616,1609,1609,1609,1609,1616,1609,1609,1609,1616,1616,1616,1616,1616,1616,1616,1616,1616,1616,1616,1616,1616,1616,1609,1609,1601,1601,1594,1594,1594,1594,1594,1594,1594,1594,1594,1594,1594,1594,1594,0,0,1572,1572,741,741,741,739,739,739,739,738,734,733,731,731,730,728,727,727,725,723,723,722,720,719,719,716,714,714,713,713,711,710,708,706,706,704,703,703,701,700,698,697,696,693,688,687,684,682,679,678,676,675,672,671,670,667,666,664,664,664,662,662,662,663,663,664,664,666,667,668,670,671,672,676,676,678,679,679,680,682,703,703,703,703,703,704,704,706,707,708,711,713,713,714,0,0,0,0,0,0,0,0,0,0,1564,1564,1557,1557,1557,1557,1557,1557,1550,1550,1550,1550,1550,1543,1543,1550,1543,1543,1543,1543,1543,1543,1543,1543,1543,1543,1543,1543,1543,1543,1543,1543,1543,1543,1543,1543,1543,1543,1536,1536,1536,1536,1536,1536,1536,1536,1536,1536,1536,1543,1536,1536,1536,1536,1536,1536,1536,1536,1536,1536,1536,1536,1536,1536,1529,1529,1529,1529,1523,1523,1523,1523,1523,1523,1523,1523,1523,1516,1516,1516,1516,1509,1503,1503,0,1016,1016,1016,1016,1016,1016,1013,1013,1013,1010,1010,1007,1007,1004,1004,1004,1004,1004,1007,1010,1013,1013,1013,1016,1016,1016,0,0,0,0,1503,1503,1503,1509,1503,1503,1503,1503,1503,1503,1503,1503,1503,1503,1503,1496,1496,1496,1496,1496,1489,1489,1489,1489,1489,1489,1489,1489,1489,1489,1489,1489,1489,1489,1489,1489,1483,1483,1483,1483,1483,1483,1483,1483,1483,1483,1483,1483,1477,1477,1477,1477,1477,1477,1477,1477,1477,1477,1477,1477,1470,1470,1470,1470,1470,1464,1464,1464,1464,1464,1464,1464,1464,1464,1464,1464,1458,1458,1452,1452,1445,1445,1445,1445,1445,1439,1439,1439,1439,1433,1433,1427,1427,1421,1421,1421,1421,1421,1415,1415,1415,1415,1415,1415,1410,1410,1404,1404,1398,1398,1398,1398,1398,1392,1392,1392,1392,1392,1387,1381,1381,1376,1376,1376,1376,1376,1370,1370,1370,1370,1365,1365,1359,1359,1359,1354,1354,1354,1349,1349,1349,1349,1343,1343,1343,1338,1333,1333,1333,1333,1328,1328,1328,1328,1328,1322,1322,1322,1317,1312,1312,1312,1312,1312,1307,1307,1307,1307,1302,1302,1297,1297,1292,1292,1292,1292,1292,1292,1292,1292,1288,1288,1288,1153,1149,1145,1145,1141,1141,1138,1134,1134,1130,1123,1115,1112,1108,1105,1105,1105,1101,1101,1097,1094,1094,1094,1090,1090,1077,1077,1077,1077,1077,1073,1073,1073,1073,1070,1070,1073,1073,0,0,0,0,0,0,0,0,0,0,0,0,0,0,0,0,0,0,0,0,0,0,0,0,0,0,0,0,0,0,0
0,0,0,0,0,0,0,0,0,0,0,0,0,1647,1647,1647,1655,1655,1655,1655,1655,1647,1647,1647,1647,1647,1647,1647,1647,1647,1647,1639,1639,1639,1639,1632,1632,1632,1632,1632,1632,1632,1632,1632,1639,1639,1639,1647,1647,1639,1639,1639,1639,1632,1632,1632,1632,1632,1632,1632,1632,1632,1632,1632,1624,1624,1624,1624,1624,1624,0,0,0,0,0,0,0,0,913,913,913,913,910,910,908,906,906,903,903,903,906,906,906,908,910,913,913,915,915,915,918,918,920,920,923,0,0,0,0,0,0,0,1616,1616,1616,1616,1616,1609,1609,1609,1616,1616,1616,1616,1616,1616,1616,1609,1609,1601,1601,1601,1601,1601,1601,1601,1609,1609,1609,1609,1609,1609,1609,1609,1609,1609,1609,1609,1609,1609,1601,1601,1594,1594,1594,1594,1594,1594,1594,1594,1594,1594,1594,1594,1594,1594,1594,1579,1572,1572,0,0,0,1572,1572,739,739,739,739,734,734,731,731,730,728,727,727,725,725,723,722,722,719,719,716,716,714,714,713,713,710,708,707,707,706,704,704,703,701,700,698,697,696,690,688,684,682,680,678,676,676,674,671,670,668,666,666,664,664,662,662,662,663,664,664,666,666,667,670,670,671,672,676,676,678,679,679,682,682,703,703,703,703,703,704,704,706,707,710,711,713,713,714,714,0,0,0,0,0,0,0,0,0,1557,1557,1550,1550,1550,1550,1550,1550,1550,1543,1543,1543,1543,1543,1543,1543,1536,1536,1543,1536,1536,1536,1536,1536,1536,1536,1536,1536,1536,1536,1536,1536,1536,1536,1536,1536,1536,1536,1536,1536,1536,1536,1529,1529,1529,1529,1529,1529,1529,1529,1523,1523,1529,1529,1529,1529,1529,1536,1536,1529,1529,1529,1529,1529,1523,1523,1523,1523,1516,1516,1516,1516,1516,1516,1516,1516,1516,1516,1509,1509,1509,1509,1503,1503,1503,0,1019,1016,1016,1016,1016,1016,1016,1013,1013,1010,1010,1007,1007,1004,1004,1007,1007,1010,1013,1016,1016,1016,1016,1016,1016,0,0,0,0,1496,1496,1496,1496,1496,1496,1496,1496,1496,1496,1496,1496,1496,1496,1496,1496,1496,1496,1489,1489,1489,1483,1483,1483,1483,1483,1483,1483,1483,1483,1483,1483,1489,1489,1483,1483,1483,1477,1477,1477,1477,1477,1477,1477,1477,1470,1470,1477,1470,1470,1470,1470,1470,1470,1470,1470,1470,1470,1470,1470,1470,1470,1470,1470,1470,1464,1464,1464,1464,1464,1464,1464,1464,1464,1464,1464,1458,1458,1452,1452,1445,1445,1445,1445,1445,1439,1439,1439,1439,1433,1433,1427,1427,1421,1421,1421,1421,1421,1421,1421,1415,1415,1415,1415,1415,1410,1410,1404,1404,1398,1398,1398,1398,1398,1398,1392,1392,1392,1392,1387,1381,1381,1376,1376,1376,1376,1376,1376,1370,1370,1370,1365,1365,1359,1359,1354,1354,1354,1354,1354,1349,1349,1349,1343,1343,1338,1333,1333,1333,1333,1333,1328,1328,1328,1328,1328,1322,1322,1322,1317,1312,1312,1312,1312,1307,1307,1307,1307,1307,1302,1302,1297,1297,1297,1292,1292,1292,1292,1292,1292,1292,1288,1149,1149,1149,1145,1145,1141,1141,1138,1134,1130,1126,1115,1112,1108,1108,1105,1105,1105,1105,1101,1097,1097,1094,1094,1094,1090,1077,1077,1077,1077,1077,1077,1073,1073,1073,1073,1073,1073,1073,0,0,0,0,0,0,0,0,0,0,0,0,0,0,0,0,0,0,0,0,0,0,0,0,0,0,0,0,0,0,0
0,0,0,0,0,0,0,0,0,0,0,0,0,1639,1639,1632,1632,1632,1632,1647,1647,1647,1647,1647,1647,1639,1639,1639,1639,1639,1639,1632,1632,1632,1632,1632,1624,1624,1632,1632,1632,1632,1632,1632,1632,1632,1632,1632,1632,1632,1632,1632,1632,1632,1632,1632,1632,1624,1624,1624,1624,1632,1624,1624,1624,1624,1624,1624,1616,1616,0,0,0,0,0,0,0,0,915,915,913,913,913,910,908,906,906,906,906,906,906,906,906,908,910,913,913,915,915,915,915,920,920,920,923,0,0,0,0,0,0,1624,1616,1616,1609,1609,1609,1601,1601,1601,1609,1609,1609,1609,1609,1609,1609,1601,1601,1601,1601,1601,1601,1601,1594,1594,1594,1594,1601,1601,1601,1601,1601,1601,1601,1609,1609,1601,1601,1601,1601,1601,1594,1594,1586,1586,1594,1594,1594,1594,1594,1594,1594,1594,1594,1586,1579,1579,1572,1572,1572,1572,1572,1572,1572,0,0,1564,1557,734,734,734,734,730,728,728,727,725,725,723,722,722,719,719,716,716,714,714,713,713,710,710,708,707,706,704,704,703,703,701,698,697,696,693,691,686,682,680,679,678,676,675,672,671,670,667,666,666,666,664,664,664,664,664,666,667,667,668,670,671,672,675,676,678,678,680,680,682,683,688,693,703,703,703,704,704,706,707,711,713,713,714,714,714,0,0,0,0,0,0,0,0,0,1550,1550,1543,1543,1543,1543,1543,1543,1543,1543,1543,1543,1536,1536,1536,1536,1536,1536,1536,1536,1536,1536,1536,1536,1529,1529,1529,1529,1529,1529,1529,1529,1529,1536,1536,1536,1529,1529,1529,1529,1523,1523,1523,1523,1523,1523,1523,1523,1523,1523,1523,1523,1523,1523,1523,1523,1529,1529,1529,1523,1523,1523,1523,1523,1516,1516,1516,1516,1509,1509,1509,1509,1509,1509,1509,1509,1516,1509,1509,1509,1509,1509,1503,1503,1503,0,1019,1016,1016,1016,1016,1016,1016,1016,1013,1013,1013,1010,1010,1007,1007,1010,1010,1013,1013,1019,1019,1019,1019,1016,1016,0,0,0,0,1489,1489,1489,1489,1489,1489,1489,1489,1496,1496,1496,1496,1489,1489,1496,1496,1489,1489,1489,1489,1483,1483,1477,1477,1477,1477,1477,1477,1477,1483,1483,1483,1483,1483,1477,1477,1477,1477,1477,1470,1470,1470,1470,1470,1470,1470,1470,1470,1470,1470,1470,1470,1464,1464,1470,1464,1464,1470,1470,1470,1470,1464,1464,1464,1464,1464,1464,1464,1464,1464,1464,1458,1458,1458,1458,1458,1458,1452,1452,1452,1445,1445,1445,1445,1445,1445,1439,1439,1439,1433,1433,1433,1427,1427,1427,1421,1421,1421,1421,1421,1421,1421,1421,1415,1415,1410,1410,1404,1404,1398,1398,1398,1398,1398,1398,1398,1392,1392,1392,1387,1381,1381,1376,1376,1376,1376,1376,1376,1370,1370,1370,1365,1365,1365,1365,1365,1354,1354,1354,1354,1354,1349,1349,1349,1343,1343,1338,1333,1333,1333,1333,1333,1333,1333,1328,1328,1322,1322,1322,1317,1312,1312,1312,1312,1312,1307,1307,1307,1307,1307,1302,1302,1302,1297,1297,1297,1292,1292,1292,1292,1292,1149,1149,1149,1153,1145,1145,1141,1138,1138,1134,1130,1123,1115,1112,1108,1108,1105,1105,1105,1101,1101,1101,1097,1094,1094,1094,1090,1080,1080,1077,1077,1077,1077,1073,1073,1073,1073,1073,1073,1073,0,0,0,0,0,0,0,0,0,0,0,0,0,0,0,0,0,0,0,0,0,0,0,0,0,0,0,0,0,0,0
0,0,0,0,0,0,0,0,0,0,0,0,0,1632,1624,1624,1624,1624,1624,1624,1624,1639,1632,1632,1639,1632,1632,1632,1632,1632,1632,1632,1632,1632,1624,1624,1624,1624,1624,1624,1624,1624,1624,1624,1624,1624,1624,1624,1624,1624,1624,1624,1624,1624,1624,1624,1624,1624,1624,1624,1624,1624,1624,1624,1624,1624,1624,1624,1609,1609,0,0,0,0,0,0,0,0,915,915,913,913,913,910,910,908,906,906,906,906,906,906,906,908,910,913,913,915,915,915,915,920,920,920,923,925,0,0,0,0,0,1624,1609,1609,1601,1601,1594,1594,1594,1594,1601,1601,1601,1609,1609,1601,1601,1601,1594,1594,1594,1594,1594,1594,1594,1594,1594,1586,1586,1586,1586,1594,1594,1594,1601,1601,1601,1601,1601,1594,1594,1594,1586,1586,1586,1586,1586,1586,1586,1586,1586,1594,1586,1586,1586,1586,1579,1572,1572,1572,1572,1572,1572,1572,1572,1572,1564,1564,1557,1557,1557,1543,728,728,728,728,727,727,723,723,722,720,719,719,716,716,714,714,713,713,710,710,708,708,707,704,704,703,703,701,700,698,697,694,693,691,691,682,680,679,676,675,672,671,671,668,668,667,666,664,664,664,664,664,666,667,668,670,670,671,672,675,676,678,679,680,682,682,683,687,693,701,701,703,704,704,706,707,711,713,713,714,714,714,1236,1236,0,0,0,0,0,0,1557,1550,1550,1543,1543,1543,1543,1543,1543,1543,1536,1536,1536,1536,1536,1536,1536,1529,1529,1536,1529,1529,1529,1529,1529,1529,1523,1523,1523,1523,1523,1523,1523,1523,1523,1523,1523,1523,1523,1523,1523,1516,1516,1516,1516,1523,1523,1523,1516,1516,1516,1516,1516,1523,1523,1523,1523,1523,1523,1516,1516,1516,1516,1516,1516,1516,1509,1509,1509,1509,1509,1509,1509,1509,1509,1509,1509,1509,1509,1503,1503,1509,1509,1503,1503,0,0,1019,1019,1019,1019,1016,1016,1016,1016,1016,1013,1013,1013,1010,1010,1010,1010,1013,1013,1013,1019,1019,1019,1022,1019,1019,0,0,0,0,1489,1483,1483,1483,1483,1483,1483,1489,1489,1489,1483,1483,1489,1489,1489,1489,1489,1483,1483,1483,1477,1477,1477,1470,1470,1477,1477,1477,1477,1477,1470,1470,1477,1477,1470,1470,1470,1470,1470,1470,1470,1470,1470,1470,1470,1470,1470,1470,1464,1464,1464,1464,1464,1464,1464,1464,1464,1464,1464,1464,1464,1464,1464,1464,1464,1464,1464,1464,1458,1458,1458,1458,1458,1458,1458,1452,1452,1452,1452,1452,1445,1445,1445,1445,1445,1445,1439,1439,1439,1439,1433,1433,1433,1427,1427,1427,1427,1427,1421,1421,1421,1421,1421,1415,1415,1410,1410,1410,1404,1398,1398,1398,1398,1398,1398,1398,1398,1398,1392,1392,1387,1387,1381,1376,1376,1376,1376,1376,1376,1370,1370,1370,1370,1370,1365,1365,1365,1359,1359,1354,1354,1354,1349,1349,1343,1343,1338,1333,1333,1333,1333,1333,1333,1333,1328,1328,1328,1328,1322,1317,1317,1312,1312,1312,1312,1307,1307,1307,1307,1307,1302,1302,1302,1297,1297,1297,1292,1292,1292,1292,1292,1149,1149,1153,1153,1149,1145,1141,1138,1134,1130,1126,1119,1112,1112,1108,1108,1105,1105,1105,1101,1101,1101,1101,1094,1094,1094,1090,1090,1090,1077,1077,1077,1077,1073,1073,1073,1073,1077,1073,1073,0,0,0,0,0,0,0,0,0,0,0,0,0,0,0,0,0,0,0,0,0,0,0,0,0,0,0,0,0,0,0
0,0,0,0,0,0,0,0,0,0,0,0,0,1624,1624,1624,1624,1624,1624,1624,1624,1632,1632,1632,1632,1632,1632,1632,1624,1624,1632,1624,1624,1624,1624,1624,1624,1624,1624,1624,1624,1624,1624,1624,1624,1616,1616,1616,1616,1616,1616,1616,1616,1616,1624,1624,1624,1616,1616,1601,1601,1624,1624,1624,1616,1616,1616,1609,1601,1601,0,0,0,0,0,0,0,0,915,915,913,913,913,910,910,908,908,906,906,906,906,906,908,910,913,913,913,915,915,918,918,920,920,920,923,923,0,0,0,0,0,0,1601,1601,1594,1594,1586,1586,1586,1586,1594,1594,1594,1594,1594,1601,1594,1594,1594,1594,1594,1594,1594,1586,1586,1579,1579,1579,1579,1579,1579,1579,1579,1579,1594,1594,1594,1594,1594,1586,1586,1586,1586,1579,1579,1579,1579,1579,1579,1579,1586,1586,1586,1586,1586,1579,1572,1572,1572,1572,1572,1572,1572,1572,1572,1572,1564,1564,1557,1557,1557,1543,1536,1536,1536,1529,723,723,723,723,722,720,719,719,716,716,716,714,714,713,710,710,708,708,707,706,704,704,703,701,700,698,697,697,694,691,690,682,680,679,678,676,674,672,671,670,670,667,667,666,666,666,666,666,667,668,668,670,671,671,672,675,676,678,679,680,682,683,684,687,690,700,700,703,698,698,706,708,711,713,713,714,714,1236,1236,1236,1236,0,0,0,0,0,1557,1543,1543,1536,1536,1536,1536,1536,1536,1536,1536,1536,1536,1536,1536,1529,1529,1529,1529,1529,1529,1523,1523,1523,1523,1523,1523,1523,1516,1516,1516,1516,1516,1516,1516,1516,1516,1516,1516,1516,1516,1509,1509,1509,1509,1516,1516,1516,1516,1516,1516,1509,1509,1516,1516,1516,1516,1516,1516,1509,1509,1509,1503,1503,1503,1503,1503,1503,1503,1496,1496,1503,1503,1503,1503,1503,1503,1503,1503,1496,1496,1503,1503,1503,1509,1509,0,1019,1019,1019,1019,1019,1019,1019,1016,1016,1016,1016,1013,1013,1010,1010,1010,1013,1013,1013,1022,1022,1022,1022,1022,1022,1022,0,0,0,1489,1477,1477,1483,1477,1477,1477,1477,1483,1477,1477,1477,1477,1477,1477,1477,1483,1477,1477,1477,1470,1470,1470,1470,1470,1470,1470,1470,1470,1470,1470,1470,1470,1470,1470,1470,1470,1470,1470,1470,1470,1470,1470,1470,1470,1464,1464,1464,1464,1464,1464,1464,1458,1458,1464,1458,1458,1458,1458,1458,1458,1458,1458,1458,1458,1458,1458,1458,1458,1458,1452,1452,1452,1458,1452,1452,1452,1445,1445,1445,1445,1445,1445,1445,1445,1439,1439,1439,1439,1433,1433,1433,1433,1433,1427,1427,1427,1427,1421,1421,1421,1421,1421,1421,1415,1415,1415,1410,1410,1404,1404,1404,1404,1398,1398,1398,1398,1398,1392,1392,1387,1387,1381,1376,1376,1376,1376,1376,1376,1376,1370,1370,1370,1370,1370,1365,1365,1365,1359,1359,1354,1354,1349,1349,1349,1343,1338,1338,1333,1333,1333,1333,1333,1333,1333,1328,1328,1328,1322,1317,1317,1312,1312,1312,1312,1312,1307,1307,1307,1307,1307,1307,1302,1302,1297,1297,1292,1292,1292,1292,1292,1157,1153,1153,1149,1149,1145,1141,1138,1130,1126,1123,1119,1112,1112,1108,1108,1105,1105,1105,1105,1105,1105,1101,1097,1094,1094,1090,1090,1090,0,1077,1077,1077,1077,1077,1077,1077,1077,1077,1077,0,0,0,0,0,0,0,0,0,0,0,0,0,0,0,0,0,0,0,0,0,0,0,0,0,0,0,0,0,0,0
0,0,0,0,0,0,0,0,0,0,0,0,0,1616,1616,1616,1616,1616,1616,1616,1624,1624,1624,1624,1632,1632,1632,1624,1624,1624,1624,1624,1624,1624,1616,1616,1616,1616,1616,1616,1616,1616,1616,1616,1616,1616,1616,1609,1609,1609,1609,1609,1609,1616,1616,1616,1616,1616,1616,1601,1601,1601,1601,1601,1601,1601,1601,1601,1594,1586,1586,0,0,0,0,0,0,0,915,915,913,913,913,913,913,910,908,908,906,906,906,908,908,910,913,913,915,915,918,918,920,920,923,923,923,923,0,0,0,0,0,0,1601,1594,1594,1586,1586,1586,1586,1586,1586,1586,1586,1586,1586,1594,1594,1586,1586,1586,1586,1586,1586,1579,1579,1579,1572,1572,1572,1572,1572,1572,1572,1579,1579,1579,1579,1579,1586,1586,1579,1579,1579,1579,1579,1579,1579,1579,1579,1579,1579,1579,1579,1579,1579,1579,1572,1572,1572,1572,1572,1572,1572,1572,1572,1564,1564,1564,1557,1557,1550,1543,1536,1536,1536,1529,1523,1523,1523,722,722,722,720,720,717,716,716,714,714,713,710,708,708,707,707,707,706,704,703,701,700,698,697,697,697,691,690,683,682,680,678,676,675,674,672,671,670,670,668,668,668,667,667,667,668,668,670,671,671,672,674,675,678,678,679,682,683,683,686,687,690,697,698,698,698,698,708,713,713,714,714,714,714,1236,1236,1236,1236,1241,1245,1245,0,0,1536,1536,1536,1536,1536,1536,1536,1529,1529,1529,1529,1529,1529,1529,1529,1529,1523,1523,1523,1523,1523,1523,1523,1523,1523,1516,1516,1516,1516,1516,1516,1516,1516,1516,1516,1516,1509,1509,1509,1509,1509,1503,1503,1503,1503,1509,1509,1509,1509,1509,1509,1503,1503,1503,1503,1503,1503,1503,1503,1503,1503,1503,1503,1496,1496,1496,1496,1496,1496,1496,1496,1496,1496,1496,1496,1496,1496,1496,1496,1496,1496,1496,1496,1496,0,0,0,0,1019,1019,1022,1019,1019,1019,1019,1016,1016,1016,1013,1013,1013,1013,1013,1013,1013,1019,1022,1022,1022,1025,1025,1025,1025,0,0,1470,1470,1470,1470,1477,1470,1470,1470,1470,1470,1470,1470,1470,1470,1470,1470,1470,1470,1470,1464,1464,1464,1464,1464,1464,1464,1464,1464,1464,1464,1464,1464,1464,1464,1464,1464,1464,1464,1464,1464,1464,1464,1464,1464,1464,1464,1464,1464,1464,1464,1464,1458,1458,1458,1452,1452,1452,1452,1452,1452,1452,1452,1452,1452,1452,1452,1452,1452,1452,1452,1452,1452,1452,1452,1452,1452,1445,1445,1445,1445,1445,1445,1439,1439,1439,1439,1439,1439,1439,1433,1433,1433,1433,1433,1433,1427,1427,1427,1427,1421,1421,1421,1421,1421,1421,1415,1415,1410,1410,1410,1410,1404,1404,1404,1404,1404,1398,1398,1398,1392,1392,1392,1387,1381,1381,1381,1376,1376,1376,1376,1376,1370,1370,1370,1370,1370,1365,1365,1365,1359,1359,1354,1354,1354,1349,1349,1349,1343,1343,1338,1333,1333,1333,1333,1333,1333,1333,1328,1328,1322,1322,1317,1312,1312,1312,1312,1312,1312,1312,1307,1307,1307,1307,1302,1302,1297,1297,1297,1297,1292,1292,1292,1157,1153,1153,1149,1149,1145,1141,1134,1126,1123,1119,1119,1112,1112,1108,1108,1105,1105,1105,1105,1105,1105,1101,1097,1094,1094,1094,1094,1094,1101,1101,1084,1084,1084,1080,1080,1077,1077,1077,1077,0,0,0,0,0,0,0,0,0,0,0,0,0,0,0,0,0,0,0,0,0,0,0,0,0,0,0,0,0,0,0
0,0,0,0,0,0,0,0,0,0,0,0,1609,1609,1609,1609,1609,1616,1616,1616,1616,1616,1616,1616,1616,1616,1616,1616,1616,1616,1616,1616,1616,1616,1616,1616,1609,1609,1609,1609,1609,1609,1609,1609,1609,1609,1609,1609,1609,1609,1609,1609,1609,1609,1609,1616,1616,1609,1609,1601,1601,1601,1601,1594,1594,1594,1594,1594,1594,1586,1586,0,0,0,0,0,0,0,0,915,915,915,913,913,913,910,910,908,906,906,908,908,908,910,913,913,915,915,918,918,920,920,923,923,925,925,0,0,0,0,0,0,1594,1594,1586,1586,1579,1579,1579,1579,1579,1579,1579,1579,1579,1579,1579,1579,1579,1579,1586,1579,1579,1572,1572,1572,1572,1572,1572,1572,1572,1572,1572,1572,1572,1572,1572,1572,1572,1572,1572,1572,1579,1579,1572,1572,1572,1572,1572,1572,1572,1572,1579,1579,1572,1572,1572,1572,1572,1572,1572,1572,1572,1572,1572,1564,1564,1557,1557,1550,1543,1543,1536,1529,1529,1529,1523,1523,1523,1529,1529,720,720,720,720,716,716,716,714,713,710,708,708,707,707,707,706,704,703,701,700,698,697,697,697,694,693,683,682,680,679,678,676,675,672,671,671,670,668,668,668,668,667,667,668,670,670,671,671,672,674,676,678,679,680,683,684,684,686,687,691,693,698,698,698,0,0,0,0,0,0,1236,1236,1236,1236,1236,1236,1241,1245,1245,1250,1250,1536,1536,1529,1523,1523,1523,1523,1529,1529,1529,1523,1523,1523,1523,1523,1523,1516,1516,1516,1516,1516,1516,1516,1516,1516,1516,1516,1509,1509,1509,1509,1509,1509,1509,1509,1509,1509,1503,1503,1503,1503,1496,1496,1496,1496,1503,1503,1503,1503,1503,1503,1496,1496,1496,1496,1496,1496,1496,1496,1496,1496,1496,1496,1496,1496,1496,1489,1489,1489,1489,1489,1489,1489,1496,1496,1496,1489,1489,1489,1489,1483,1483,1483,1496,0,0,0,0,1019,1019,1022,1022,1022,1022,1022,1019,1016,1016,1016,1013,1013,1013,1013,1013,1016,1019,1022,1025,1025,1025,1028,1028,1028,0,0,1470,1470,1470,1470,1470,1470,1470,1470,1470,1464,1464,1464,1464,1464,1470,1470,1470,1470,1464,1464,1458,1458,1458,1458,1464,1464,1464,1464,1464,1464,1464,1464,1458,1458,1458,1458,1458,1458,1458,1458,1458,1458,1458,1458,1458,1458,1464,1464,1458,1458,1458,1458,1452,1452,1452,1445,1445,1445,1445,1445,1445,1445,1445,1445,1445,1445,1445,1445,1445,1445,1445,1445,1445,1445,1445,1445,1445,1439,1439,1439,1439,1439,1439,1439,1439,1439,1439,1433,1433,1433,1427,1427,1427,1427,1427,1427,1427,1427,1427,1427,1421,1421,1421,1421,1415,1415,1415,1410,1410,1410,1410,1410,1410,1404,1404,1404,1398,1398,1398,1398,1392,1392,1392,1387,1381,1381,1376,1376,1376,1376,1376,1376,1370,1370,1370,1370,1370,1365,1365,1359,1359,1354,1354,1354,1349,1349,1349,1343,1343,1338,1338,1338,1338,1333,1333,1333,1328,1328,1328,1322,1322,1317,1317,1312,1312,1312,1312,1312,1312,1312,1312,1307,1307,1307,1302,1297,1297,1297,1297,1297,1292,1161,1157,1153,1153,1153,1149,1145,1138,1130,1126,1123,1119,1119,1112,1112,1108,1108,1105,1105,1105,1105,1105,1105,1105,1097,1097,1097,1097,1097,1101,1101,1101,1101,1090,1087,1084,1084,1080,1080,1077,1077,0,0,0,0,0,0,0,0,0,0,0,0,0,0,0,0,0,0,0,0,0,0,0,0,0,0,0,0,0,0,0
0,0,0,0,0,0,0,0,0,0,0,0,1609,1609,1609,1609,1609,1609,1609,1609,1609,1609,1609,1616,1616,1609,1609,1601,1601,1601,1601,1609,1609,1609,1609,1609,1609,1601,1601,1601,1601,1601,1601,1601,1601,1601,1601,1601,1601,1601,1601,1601,1601,1609,1609,1609,1609,1609,1609,1601,1601,1601,1601,1594,1594,1594,1594,1586,1586,1572,1572,0,0,0,0,0,0,0,0,915,915,915,913,913,913,910,910,908,908,908,908,908,908,910,913,913,915,915,918,918,920,920,923,923,925,925,0,0,0,0,0,0,1594,1586,1586,1579,1579,1572,1572,1572,1572,1572,1572,1572,1572,1572,1572,1572,1572,1572,1579,1579,1579,1572,1572,1572,1572,1572,1572,1572,1572,1572,1572,1572,1572,1564,1564,1564,1564,1564,1564,1564,1564,1564,1564,1572,1572,1572,1572,1572,1572,1572,1572,1572,1572,1572,1564,1564,1564,1564,1564,1572,1572,1572,1564,1564,1564,1557,1550,1550,1543,1543,1536,1529,1529,1529,1523,1523,1529,1529,1529,1536,0,0,0,0,0,0,0,714,711,710,707,707,707,707,706,704,704,703,700,700,698,697,697,694,693,690,682,682,679,679,678,676,674,674,671,671,670,668,668,668,668,668,670,670,671,671,672,674,675,676,679,680,682,683,684,686,687,687,691,693,0,0,0,0,0,0,0,0,0,1236,1236,1236,1236,1236,1236,1241,1245,1245,1250,1250,1250,1523,1523,1523,1523,1523,1516,1516,1516,1516,1516,1516,1516,1516,1516,1516,1516,1516,1516,1509,1509,1509,1509,1509,1509,1509,1509,1509,1509,1509,1509,1503,1503,1503,1503,1503,1503,1496,1496,1496,1496,1489,1489,1489,1489,1503,1496,1496,1496,1503,1496,1496,1496,1496,1496,1496,1496,1496,1496,1496,1496,1496,1496,1489,1489,1489,1489,1489,1489,1483,1483,1489,1489,1489,1489,1483,1483,1489,1483,1483,1477,1470,1470,0,0,0,0,0,0,1025,1025,1025,1025,1025,1025,1022,1019,1019,1016,1016,1016,1013,1013,1013,1016,1019,1022,1025,1025,1025,1028,1031,1031,1041,0,1464,1464,1464,1464,1464,1464,1464,1464,1464,1458,1458,1458,1458,1458,1458,1458,1458,1464,1452,1452,1452,1452,1452,1452,1452,1452,1452,1452,1458,1458,1458,1458,1458,1458,1458,1452,1452,1452,1452,1452,1452,1452,1452,1458,1452,1452,1458,1458,1452,1452,1452,1452,1445,1445,1445,1445,1445,1445,1445,1445,1445,1445,1445,1439,1439,1439,1439,1439,1439,1439,1439,1445,1445,1445,1445,1439,1439,1439,1439,1439,1433,1433,1433,1439,1433,1433,1433,1433,1433,1427,1421,1421,1421,1421,1421,1421,1421,1421,1421,1421,1421,1421,1421,1421,1415,1415,1415,1410,1410,1410,1410,1410,1410,1404,1404,1404,1398,1398,1398,1398,1392,1392,1392,1387,1381,1381,1381,1376,1376,1376,1376,1376,1370,1370,1370,1370,1370,1365,1365,1359,1359,1354,1354,1354,1349,1349,1349,1349,1343,1343,1338,1338,1338,1338,1333,1333,1328,1328,1328,1328,1322,1322,1317,1317,1312,1312,1312,1312,1312,1312,1312,1312,1307,1307,1307,1302,1297,1297,1297,1297,1292,1161,1157,1153,1153,1153,1149,1145,1138,1130,1126,1123,1123,1119,1115,1112,1112,1108,1108,1108,1108,1108,1108,1108,1108,1108,1105,1101,1101,1105,1101,1101,1101,1101,1097,1094,1090,1090,1084,1080,1077,1077,0,0,0,0,0,0,0,0,0,0,0,0,0,0,0,0,0,0,0,0,0,0,0,0,0,0,0,0,0,0,0
0,0,0,0,0,0,0,0,0,0,0,0,1601,1601,1601,1601,1601,1609,1609,1601,1601,1609,1609,1609,1609,1609,1601,1601,1601,1594,1594,1594,1601,1601,1601,1601,1601,1601,1601,1601,1601,1601,1601,1601,1601,1601,1601,1601,1601,1601,1594,1594,1594,1594,1594,1594,1594,1594,1594,1594,1594,1594,1601,1594,1594,1594,1594,1586,1579,1572,1572,0,0,0,0,0,0,0,0,918,915,915,915,913,913,910,910,908,908,908,908,908,910,913,913,913,915,915,918,920,920,920,923,925,925,925,0,0,0,0,0,0,1586,1586,1579,1572,1572,1572,1572,1572,1572,1572,1572,1564,1564,1572,1572,1572,1572,1572,1572,1572,1572,1572,1572,1564,1564,1564,1564,1564,1564,1564,1564,1564,1564,1564,1564,1564,1564,1564,1564,1564,1564,1557,1557,1557,1557,1557,1564,1564,1564,1564,1564,1564,1557,1557,1557,1557,1557,1557,1557,1564,1564,1564,1557,1557,1557,1550,1550,1543,1543,1536,1536,1529,1529,1529,1523,1523,1529,1529,1536,1536,1536,0,0,0,0,0,0,0,0,0,707,707,707,706,706,706,704,703,701,700,698,698,697,696,693,690,682,682,680,679,678,676,675,675,672,671,670,670,670,670,668,668,670,670,671,671,672,674,675,676,679,680,682,683,684,686,687,688,690,691,0,0,0,0,0,0,0,0,0,1236,1236,1236,1236,1236,1236,1245,1245,1245,1245,1245,1245,1516,1516,1516,1516,1516,1516,1516,1516,1509,1509,1509,1509,1509,1503,1503,1509,1509,1509,1503,1503,1509,1503,1503,1503,1503,1503,1503,1503,1496,1496,1496,1496,1496,1496,1496,1496,1489,1489,1489,1489,1489,1489,1489,1489,1496,1496,1496,1496,1496,1496,1496,1489,1489,1489,1489,1489,1489,1489,1489,1489,1489,1489,1489,1489,1483,1483,1483,1483,1483,1483,1483,1483,1483,1483,1477,1477,1470,1470,1470,1470,1470,1470,1470,0,0,0,0,0,1028,1028,1028,1028,1025,1025,1025,1022,1019,1016,1016,1016,1016,1016,1016,1019,1019,1022,1025,1025,1028,1028,1038,1041,1041,0,1458,1458,1458,1458,1458,1458,1458,1458,1458,1452,1452,1452,1452,1452,1452,1452,1452,1452,1452,1445,1445,1445,1452,1445,1445,1445,1445,1445,1445,1445,1445,1445,1452,1445,1445,1445,1445,1445,1445,1445,1445,1445,1445,1452,1452,1452,1452,1452,1452,1452,1445,1445,1445,1445,1445,1445,1445,1445,1439,1439,1439,1439,1439,1439,1439,1439,1439,1433,1433,1439,1439,1439,1439,1439,1445,1439,1439,1439,1439,1433,1433,1433,1433,1433,1433,1427,1427,1427,1427,1421,1421,1421,1421,1415,1415,1415,1415,1415,1415,1415,1421,1421,1421,1421,1415,1415,1415,1410,1410,1410,1410,1404,1404,1404,1404,1398,1398,1398,1398,1392,1392,1392,1392,1392,1387,1387,1381,1376,1376,1376,1376,1376,1370,1370,1370,1370,1370,1370,1365,1359,1359,1354,1354,1354,1349,1349,1349,1349,1349,1343,1343,1343,1338,1338,1333,1333,1333,1328,1328,1328,1328,1322,1317,1317,1312,1312,1312,1312,1312,1312,1312,1312,1307,1307,1307,1302,1302,1297,1297,1297,1297,1165,1157,1157,1153,1149,1145,1141,1134,1130,1126,1123,1123,1119,1115,1115,1112,1112,1108,1108,1112,1112,1115,1115,1112,1112,1108,1105,1105,1105,1101,1101,1101,1101,1097,1094,1094,1090,1084,1080,1077,1077,0,0,0,0,0,0,0,0,0,0,0,0,0,0,0,0,0,0,0,0,0,0,0,0,0,0,0,0,0,0,0
0,0,0,0,0,0,0,0,0,0,0,0,1601,1601,1601,1601,1601,1601,1601,1601,1601,1601,1601,1601,1601,1601,1601,1594,1594,1594,1594,1594,1594,1594,1594,1594,1594,1594,1601,1601,1601,1601,1594,1594,1594,1594,1586,1586,1586,1594,1586,1586,1586,1586,1586,1586,1594,1594,1586,1586,1586,1586,1586,1579,1579,1579,1579,1579,1579,1572,1572,1572,0,0,0,0,0,0,0,923,918,918,915,915,915,913,913,913,913,908,908,910,910,913,915,915,915,915,918,920,920,923,923,925,925,925,925,0,0,0,0,0,1586,1579,1572,1572,1572,1564,1564,1572,1564,1564,1564,1564,1564,1564,1564,1564,1564,1564,1564,1564,1564,1564,1564,1564,1564,1564,1564,1564,1564,1557,1557,1557,1557,1557,1557,1557,1557,1557,1557,1557,1557,1557,1550,1550,1557,1557,1557,1550,1550,1550,1550,1557,1550,1550,1550,1550,1550,1550,1550,1550,1550,1550,1550,1550,1550,1543,1543,1543,1536,1536,1536,1529,1529,1529,1529,1529,1529,1529,1536,1536,0,0,0,0,0,0,0,0,0,0,707,707,707,706,706,706,706,706,703,700,698,698,697,694,693,690,683,682,682,679,678,676,676,675,674,671,671,670,670,670,670,670,670,671,671,672,674,675,675,676,679,682,683,684,686,686,687,688,690,691,0,0,0,0,0,0,0,0,0,1236,1236,1236,1236,1236,1236,1245,1245,1245,1245,1245,1245,1509,1509,1509,1509,1509,1509,1509,1509,1503,1503,1509,1503,1503,1496,1496,1496,1496,1496,1496,1496,1503,1503,1503,1503,1503,1503,1503,1503,1496,1496,1496,1496,1496,1489,1489,1489,1489,1489,1489,1489,1489,1489,1489,1489,1496,1489,1489,1489,1489,1489,1489,1489,1489,1489,1489,1489,1489,1489,1489,1489,1489,1483,1483,1483,1483,1477,1477,1477,1477,1477,1477,1477,1470,1470,1470,1470,1470,1470,1470,1464,1464,1464,1464,0,0,0,0,0,0,1031,1028,1028,1028,1025,1025,1022,1019,1019,1016,1016,1016,1016,1016,1019,1019,1025,1025,1028,1028,1031,1038,1041,1041,1445,1445,1445,1452,1452,1452,1452,1452,1452,1452,1452,1445,1445,1445,1445,1445,1445,1445,1445,1445,1445,1445,1445,1445,1445,1445,1445,1445,1445,1445,1445,1445,1445,1445,1439,1439,1445,1445,1445,1445,1445,1445,1445,1445,1445,1445,1445,1445,1445,1445,1445,1445,1439,1439,1439,1439,1439,1439,1439,1439,1439,1439,1439,1433,1433,1433,1433,1433,1427,1427,1433,1433,1433,1439,1439,1439,1433,1433,1433,1433,1427,1427,1427,1427,1427,1427,1421,1421,1421,1421,1415,1415,1415,1415,1415,1415,1415,1415,1415,1415,1415,1415,1415,1415,1415,1415,1415,1410,1410,1410,1410,1404,1404,1404,1404,1398,1398,1398,1398,1392,1392,1392,1392,1392,1392,1387,1387,1381,1381,1376,1376,1376,1376,1376,1370,1370,1370,1370,1370,1365,1359,1359,1354,1354,1354,1354,1349,1349,1349,1349,1343,1343,1343,1338,1338,1333,1333,1333,1333,1328,1328,1328,1322,1322,1317,1312,1312,1312,1312,1312,1312,1312,1312,1307,1307,1307,1302,1302,1302,1302,1302,1302,1165,1161,1157,1153,1149,1145,1141,1134,1130,1126,1126,1123,1119,1115,1115,1112,1112,1108,1108,1112,1112,1119,1119,1119,1119,1112,1108,1108,1105,1101,1101,1101,1097,1097,1094,1094,1090,1080,1080,1073,1073,0,0,0,0,0,0,0,0,0,0,0,0,0,0,0,0,0,0,0,0,0,0,0,0,0,0,0,0,0,0,0
0,0,0,0,0,0,0,0,0,0,0,0,1594,1594,1601,1601,1601,1601,1601,1594,1594,1601,1601,1601,1601,1601,1594,1594,1594,1586,1586,1594,1594,1586,1586,1594,1586,1586,1594,1594,1594,1594,1594,1586,1586,1586,1586,1579,1579,1579,1579,1579,1579,1579,1579,1579,1586,1586,1579,1579,1579,1579,1572,1572,1572,1572,1572,1572,1572,1564,1564,1557,1557,0,0,0,0,0,0,923,923,920,918,918,918,915,915,913,913,913,910,910,910,913,913,913,915,915,918,920,923,923,923,925,925,925,925,0,0,0,0,0,0,1572,1572,1564,1564,1564,1564,1564,1564,1557,1557,1557,1557,1557,1557,1557,1557,1557,1564,1564,1564,1564,1564,1564,1557,1557,1557,1557,1557,1557,1557,1557,1557,1550,1550,1557,1557,1557,1550,1550,1557,1550,1550,1550,1550,1550,1550,1550,1550,1543,1543,1543,1543,1543,1543,1543,1543,1543,1543,1543,1543,1543,1543,1543,1543,1543,1543,1543,1536,1536,1536,1529,1529,1529,1529,1529,1529,1529,1536,1536,1536,1536,0,0,0,0,0,0,0,0,707,707,706,706,706,706,704,704,703,703,700,698,698,694,693,688,687,683,682,680,679,678,676,675,675,674,671,671,671,670,670,670,671,671,672,672,674,675,676,678,680,682,683,684,686,686,687,688,690,691,0,0,0,0,0,0,0,0,0,1236,1236,1236,1236,1236,1236,1245,1245,1245,1250,1250,1250,1503,1503,1503,1503,1503,1503,1496,1496,1496,1496,1496,1496,1489,1489,1496,1496,1489,1489,1489,1489,1496,1496,1496,1496,1496,1496,1496,1489,1489,1489,1489,1489,1489,1489,1489,1489,1489,1489,1489,1489,1483,1483,1483,1483,1489,1483,1483,1483,1483,1483,1483,1483,1483,1483,1489,1489,1489,1483,1483,1483,1483,1483,1477,1477,1477,1470,1470,1470,1470,1470,1470,1470,1470,1470,1464,1464,1464,1464,1464,1464,1464,1464,1464,1464,0,0,0,0,0,1031,1031,1028,1028,1028,1025,1022,1022,1019,1016,1016,1016,1016,1016,1019,1022,1025,1028,1028,1031,1034,1038,1038,0,1445,1445,1445,1445,1445,1452,1452,1452,1445,1445,1445,1445,1445,1445,1439,1439,1439,1439,1439,1439,1439,1439,1439,1439,1439,1439,1439,1439,1439,1439,1439,1439,1439,1439,1439,1439,1439,1433,1433,1433,1433,1439,1439,1439,1439,1439,1439,1439,1439,1445,1439,1439,1439,1439,1439,1439,1439,1439,1433,1433,1433,1433,1427,1427,1427,1427,1427,1427,1421,1421,1421,1421,1427,1433,1433,1433,1433,1433,1433,1427,1421,1421,1421,1421,1421,1421,1421,1415,1415,1415,1415,1410,1410,1410,1410,1410,1410,1410,1410,1410,1410,1415,1415,1415,1410,1410,1410,1410,1410,1410,1410,1404,1404,1404,1398,1398,1398,1398,1392,1392,1392,1392,1392,1392,1392,1387,1387,1387,1381,1376,1376,1376,1376,1376,1370,1370,1370,1370,1370,1365,1359,1359,1354,1354,1354,1354,1354,1349,1349,1349,1343,1343,1343,1338,1338,1338,1333,1333,1333,1333,1328,1328,1328,1322,1317,1317,1317,1312,1312,1312,1312,1312,1312,1307,1307,1307,1302,1302,1302,1302,1302,1302,1165,1161,1157,1153,1149,1145,1138,1134,1130,1126,1126,1123,1119,1115,1115,1115,1112,1112,1112,1115,1115,1119,1119,1119,1119,1112,1108,1108,1105,1101,1101,1097,1097,1094,1094,1090,1087,1080,1080,1073,1073,0,0,0,0,0,0,0,0,0,0,0,0,0,0,0,0,0,0,0,0,0,0,0,0,0,0,0,0,0,0,0
0,0,0,0,0,0,0,0,0,0,0,0,1594,1594,1594,1594,1594,1594,1594,1594,1594,1601,1601,1601,1594,1594,1594,1594,1586,1586,1586,1586,1586,1572,1572,1586,1572,1572,1586,1586,1586,1586,1572,1572,1579,1579,1579,1579,1579,1579,1572,1572,1572,1572,1572,1572,1572,1572,1579,1579,1572,1572,1572,1572,1572,1572,1572,1564,1564,1564,1557,1557,1557,0,0,0,0,0,0,925,925,923,920,920,920,915,915,913,913,913,913,913,913,913,913,913,915,915,920,920,923,923,925,925,925,925,925,0,0,0,0,0,1564,1564,1564,1564,1557,1557,1557,1557,1557,1557,1557,1550,1550,1550,1550,1550,1550,1550,1550,1550,1557,1557,1557,1557,1557,1557,1557,1550,1550,1550,1550,1543,1543,1550,1550,1550,1550,1550,1550,1550,1550,1550,1543,1543,1543,1543,1543,1543,1543,1543,1543,1543,1543,1536,1536,1536,1536,1536,1536,1536,1536,1536,1536,1536,1536,1536,1536,1536,1536,1536,1536,1536,1529,1529,1529,1529,1529,1529,1529,1536,1529,1523,1523,1523,0,0,0,0,0,0,707,707,706,706,706,706,704,704,0,0,0,0,698,694,693,688,687,686,683,682,680,679,678,676,675,675,674,672,671,671,671,671,671,671,672,672,674,676,676,678,680,682,684,684,686,686,687,688,690,691,0,0,0,0,0,0,0,0,0,1236,1236,1236,1236,1236,1236,1245,1245,1250,1250,1250,1250,1496,1496,1496,1496,1496,1496,1496,1496,1496,1496,1496,1489,1489,1489,1489,1489,1489,1489,1489,1489,1489,1489,1489,1489,1489,1489,1489,1489,1489,1489,1489,1483,1483,1483,1483,1483,1483,1483,1483,1483,1483,1483,1483,1483,1483,1477,1477,1477,1477,1477,1477,1477,1477,1477,1483,1483,1483,1483,1477,1477,1477,1470,1470,1470,1470,1470,1470,1470,1464,1464,1464,1464,1464,1464,1464,1464,1464,1464,1464,1464,1464,1464,1464,1464,0,0,0,0,0,1034,1034,1031,1031,1028,1028,1025,1022,1019,1016,1016,1016,1016,1016,1019,1022,1025,1028,1031,1034,1038,1038,1038,0,1445,1445,1439,1439,1445,1445,1445,1445,1445,1445,1445,1439,1439,1439,1439,1439,1439,1439,1439,1439,1439,1439,1439,1439,1439,1439,1439,1439,1439,1439,1439,1433,1433,1433,1433,1433,1433,1433,1433,1433,1433,1433,1427,1427,1427,1433,1439,1439,1439,1439,1439,1439,1433,1433,1433,1433,1433,1433,1433,1433,1433,1427,1427,1427,1427,1421,1421,1421,1421,1415,1415,1421,1421,1421,1421,1427,1427,1427,1421,1421,1421,1421,1415,1415,1415,1415,1415,1410,1410,1415,1410,1404,1404,1404,1404,1404,1404,1404,1404,1410,1410,1410,1415,1415,1410,1410,1410,1404,1404,1404,1398,1398,1398,1398,1398,1398,1398,1392,1392,1392,1392,1392,1392,1392,1387,1387,1387,1387,1381,1381,1376,1376,1376,1376,1370,1370,1370,1370,1370,1365,1365,1359,1359,1354,1354,1354,1354,1349,1349,1349,1349,1349,1343,1338,1338,1338,1333,1333,1333,1333,1333,1333,1328,1328,1322,1322,1317,1317,1317,1312,1312,1312,1312,1307,1307,1307,1307,1307,1307,1302,1302,1302,1165,1157,1153,1153,1145,1141,1138,1134,1130,1126,1126,1123,1119,1119,1115,1115,1115,1115,1119,1123,1123,1126,1126,1123,1123,1115,1108,1108,1101,1101,1097,1094,1094,1094,1090,1087,1084,1077,1077,1073,1073,0,0,0,0,0,0,0,0,0,0,0,0,0,0,0,0,0,0,0,0,0,0,0,0,0,0,0,0,0,0,0
