0,0,0,0,0,0,0,0,0,0,0,0,1616,1616,1609,1609,1601,1601,1609,1609,1609,1609,1616,1616,1609,1609,1609,1601,1601,1601,1601,1601,1601,1601,1601,1601,1601,1601,1601,1601,1601,1594,1594,1601,1601,1601,1594,1594,1601,1594,1594,1601,1601,1601,1601,1601,1601,1601,1601,1601,1594,1594,1601,1601,1601,1601,1601,1601,1601,1601,1594,1594,1594,1594,1586,1586,1586,1594,0,0,0,0,0,0,0,0,923,923,920,918,915,915,913,913,913,913,913,913,915,915,918,920,923,923,925,925,928,928,928,930,930,930,930,0,0,0,0,0,1579,1579,1579,1586,1586,1586,1586,1586,1579,1579,1579,1579,1579,1579,1579,1572,1572,1579,1572,1572,1579,1579,1579,1572,1572,1572,1579,1579,1579,1572,1572,1572,1572,1572,1572,1572,1572,1572,1572,1572,1572,1572,1572,1572,1572,1572,1572,1572,1572,1572,1564,1564,1564,1564,1564,1564,1564,1564,1564,1564,1564,1564,1564,1564,1557,1557,1557,1550,1550,1543,1543,734,734,734,733,733,733,731,731,722,720,720,719,717,717,716,714,714,714,713,711,710,710,710,708,708,707,703,701,701,700,698,698,682,682,682,680,680,679,679,678,676,676,675,674,671,670,668,668,668,668,668,670,670,670,671,674,678,679,680,680,682,682,683,684,686,686,701,704,706,706,704,704,707,0,0,0,0,0,0,0,1245,1245,1245,1245,1250,1245,1245,1245,1250,1536,1529,1529,1523,1523,1523,1523,1523,1523,1523,1516,1516,1516,1516,1516,1516,1516,1516,1516,1516,1516,1516,1516,1509,1509,1509,1509,1509,1509,1509,1509,1509,1509,1509,1509,1509,1509,1509,1509,1509,1509,1509,1509,1509,1509,1509,1503,1503,1503,1503,1503,1503,1503,1503,1503,1503,1503,1503,1503,1503,1503,1496,1496,1496,1496,1496,1496,1496,1496,1496,1496,1496,1496,1496,1496,1496,1489,1489,1489,1489,1489,1483,1483,0,0,0,1041,1028,1025,1025,1022,1022,1019,1016,1016,1016,1013,1013,1013,1013,1013,1013,1013,1013,1016,1019,1022,1025,1025,1025,1028,1028,1028,1464,1464,1464,1470,1470,1470,1470,1470,1470,1470,1470,1470,1477,1470,1470,1470,1470,1470,1477,1477,1470,1470,1470,1470,1470,1470,1470,1470,1470,1470,1470,1470,1470,1470,1470,1464,1464,1464,1464,1464,1464,1470,1470,1470,1464,1464,1464,1464,1464,1464,1464,1464,1464,1464,1464,1458,1458,1458,1458,1452,1452,1452,1452,1458,1458,1458,1458,1458,1452,1452,1452,1452,1452,1445,1445,1445,1445,1445,1445,1445,1445,1445,1445,1439,1439,1439,1439,1439,1439,1439,1439,1439,1433,1433,1427,1427,1421,1421,1421,1421,1421,1421,1421,1415,1415,1415,1415,1410,1410,1404,1404,1404,1398,1398,1398,1392,1392,1392,1392,1387,1387,1387,1387,1381,1376,1376,1370,1370,1370,1370,1370,1370,1365,1365,1359,1359,1359,1354,1354,1354,1354,1354,1349,1349,1349,1349,1349,1343,1338,1338,1333,1333,1333,1333,1328,1328,1328,1328,1328,1322,1322,1317,1317,1312,1312,1307,1307,1307,1307,1307,1302,1302,1302,1297,1297,1297,1292,1292,1292,1288,1288,1288,1288,1283,1283,1283,1153,1149,1145,1141,1134,1130,1126,1126,1123,1119,1115,1112,1108,1105,1105,1101,1101,1101,1097,1097,1094,1090,1090,1090,1090,1108,1108,0,0,1070,1070,1070,0,0,0,0,0,0,0,0,0,0,0,0,0,0,0,0,0,0,0,0,0,0,0,0,0,0,0,0,0,0,0
0,0,0,0,0,0,0,0,0,0,0,0,1609,1609,1601,1601,1601,1601,1601,1601,1601,1601,1609,1609,1609,1601,1601,1601,1601,1594,1594,1594,1594,1594,1601,1594,1594,1594,1594,1594,1594,1594,1594,1594,1594,1594,1594,1594,1594,1594,1594,1594,1594,1594,1594,1601,1601,1601,1594,1594,1594,1594,1594,1594,1594,1594,1601,1601,1594,1594,1594,1594,1594,1586,1586,1586,1586,1586,0,0,0,0,0,0,0,0,923,923,923,918,918,918,915,913,913,913,915,915,915,918,920,920,923,923,925,925,928,928,928,930,930,930,930,0,0,0,0,0,1572,1572,1572,1572,1572,1572,1572,1572,1572,1572,1572,1572,1572,1572,1572,1572,1572,1572,1572,1572,1572,1572,1572,1572,1564,1564,1564,1564,1564,1564,1572,1564,1564,1572,1564,1564,1564,1564,1572,1572,1572,1564,1564,1564,1564,1564,1564,1564,1564,1564,1564,1564,1564,1564,1564,1557,1557,1557,1557,1557,1557,1557,1557,1557,1557,1550,1550,1550,1543,1543,1543,1543,1543,1543,1543,1543,1536,1536,1536,1523,719,719,719,717,717,716,714,714,714,713,711,710,710,710,710,708,707,703,701,701,700,698,698,697,683,682,682,680,680,679,678,676,676,676,672,671,670,670,668,668,668,668,670,670,671,672,675,678,679,680,680,682,683,684,686,687,687,688,703,704,704,704,704,0,0,0,0,0,0,0,1245,1245,1245,1245,1245,1250,1250,1245,1245,1250,1516,1516,1516,1516,1516,1516,1516,1516,1516,1516,1516,1516,1516,1516,1516,1509,1509,1509,1509,1509,1509,1509,1509,1509,1509,1509,1509,1509,1509,1509,1509,1509,1503,1503,1503,1503,1503,1503,1503,1509,1503,1503,1503,1503,1503,1503,1496,1496,1496,1496,1496,1496,1496,1496,1496,1496,1496,1496,1496,1496,1489,1489,1489,1496,1496,1496,1496,1496,1496,1496,1489,1489,1489,1489,1489,1489,1489,1489,1489,1483,1483,1483,1483,0,0,0,1028,1028,1028,1025,1025,1022,1022,1019,1016,1016,1016,1013,1013,1013,1013,1013,1013,1016,1016,1022,1025,1028,1028,1028,1028,1028,1464,1464,1464,1464,1464,1464,1470,1470,1470,1470,1470,1470,1470,1464,1464,1464,1470,1470,1470,1470,1470,1470,1470,1470,1464,1464,1464,1464,1464,1464,1464,1464,1470,1464,1464,1464,1464,1464,1464,1458,1458,1464,1464,1464,1464,1464,1464,1464,1464,1464,1464,1464,1464,1464,1458,1458,1458,1458,1452,1452,1452,1452,1452,1452,1452,1452,1452,1452,1452,1445,1445,1445,1445,1445,1445,1445,1445,1445,1445,1445,1439,1439,1439,1439,1439,1439,1439,1439,1439,1439,1439,1439,1439,1433,1433,1427,1427,1421,1421,1421,1421,1421,1421,1421,1415,1415,1415,1415,1410,1410,1410,1404,1404,1404,1398,1398,1398,1392,1392,1392,1392,1392,1387,1387,1381,1376,1376,1370,1370,1370,1370,1370,1370,1365,1365,1365,1365,1365,1359,1354,1354,1354,1354,1349,1349,1349,1349,1349,1343,1338,1338,1333,1333,1333,1333,1328,1328,1328,1328,1328,1322,1322,1322,1317,1312,1312,1307,1307,1307,1307,1307,1302,1302,1302,1302,1297,1297,1292,1292,1292,1292,1288,1288,1288,1288,1288,1153,1149,1149,1145,1141,1134,1126,1126,1123,1123,1115,1112,1108,1108,1105,1105,1101,1101,1101,1101,1101,1094,1094,1094,1097,1105,1108,1108,0,0,1070,1070,1070,0,0,0,0,0,0,0,0,0,0,0,0,0,0,0,0,0,0,0,0,0,0,0,0,0,0,0,0,0,0,0
0,0,0,0,0,0,0,0,0,0,0,0,1601,1601,1594,1594,1594,1594,1594,1594,1594,1594,1594,1594,1601,1601,1594,1594,1594,1594,1594,1594,1594,1594,1594,1594,1594,1594,1594,1594,1594,1594,1594,1586,1586,1586,1586,1586,1586,1586,1586,1586,1594,1594,1594,1594,1594,1594,1594,1594,1594,1594,1594,1594,1594,1594,1594,1594,1586,1586,1586,1586,1586,1586,1579,1579,1586,1586,0,0,0,0,0,0,0,0,0,925,923,920,918,918,915,913,913,913,915,915,915,918,920,920,923,923,925,928,928,928,930,930,933,933,933,0,0,0,0,0,1572,1572,1572,1572,1572,1572,1572,1572,1564,1564,1564,1564,1564,1564,1564,1572,1572,1572,1572,1572,1564,1564,1564,1564,1564,1557,1557,1557,1557,1557,1557,1557,1557,1564,1564,1564,1564,1564,1564,1564,1564,1564,1564,1564,1564,1557,1557,1557,1557,1557,1557,1557,1557,1557,1557,1557,1557,1557,1557,1557,1557,1557,1557,1557,1550,1550,1543,1543,1543,1543,1543,1536,1536,1536,1536,1536,1536,1536,1536,1523,1523,1516,1516,717,717,717,717,716,714,713,711,710,710,710,710,708,707,703,703,701,700,698,698,697,684,683,682,682,680,680,679,676,676,676,672,671,671,670,670,670,670,670,670,670,671,672,675,678,679,679,680,682,683,684,686,687,688,688,693,703,704,706,0,0,0,0,0,0,0,1245,1245,1245,1245,1245,1245,1250,1250,1250,1250,1250,1255,1516,1516,1516,1516,1516,1516,1516,1516,1516,1509,1509,1509,1509,1509,1509,1509,1509,1509,1509,1509,1509,1509,1509,1503,1503,1503,1503,1503,1503,1503,1503,1503,1503,1503,1496,1496,1496,1496,1503,1496,1496,1496,1496,1496,1496,1496,1496,1496,1496,1496,1496,1496,1496,1496,1496,1496,1496,1496,1489,1489,1489,1489,1489,1483,1483,1489,1489,1489,1489,1489,1489,1489,1489,1483,1483,1483,1483,1483,1477,1477,1477,1477,1477,0,1038,1038,1031,1028,1025,1025,1025,1022,1022,1019,1016,1016,1016,1016,1016,1013,1013,1016,1016,1019,1022,1025,1028,1028,1028,1028,1028,1464,1464,1464,1464,1464,1464,1464,1464,1464,1464,1464,1464,1464,1464,1464,1464,1464,1464,1464,1464,1470,1470,1470,1464,1464,1464,1464,1464,1464,1458,1458,1464,1464,1464,1464,1464,1458,1458,1458,1458,1458,1458,1452,1452,1458,1458,1458,1458,1464,1464,1458,1458,1458,1458,1452,1452,1452,1452,1452,1445,1445,1445,1445,1445,1445,1445,1452,1452,1445,1445,1445,1445,1445,1445,1445,1445,1439,1439,1439,1439,1439,1439,1439,1439,1439,1439,1439,1439,1439,1439,1439,1439,1439,1433,1433,1427,1421,1421,1421,1421,1421,1421,1421,1421,1415,1415,1415,1415,1410,1410,1410,1404,1404,1404,1404,1398,1398,1392,1392,1392,1392,1392,1387,1387,1381,1376,1376,1376,1376,1370,1370,1370,1370,1370,1365,1365,1365,1365,1359,1354,1354,1354,1354,1354,1354,1349,1349,1349,1343,1338,1338,1333,1333,1333,1333,1328,1328,1328,1328,1328,1322,1322,1322,1317,1312,1312,1312,1307,1307,1307,1307,1307,1307,1307,1302,1302,1297,1292,1292,1292,1292,1288,1288,1288,1288,1288,1153,1149,1149,1145,1138,1130,1126,1123,1123,1119,1115,1112,1108,1108,1105,1105,1101,1101,1101,1101,1101,1097,1097,1101,1108,1108,1108,1108,0,0,1070,1070,1070,0,0,0,0,0,0,0,0,0,0,0,0,0,0,0,0,0,0,0,0,0,0,0,0,0,0,0,0,0,0,0
0,0,0,0,0,0,0,0,0,0,0,0,1586,1586,1586,1586,1594,1594,1594,1594,1594,1594,1594,1594,1594,1594,1586,1586,1586,1586,1586,1586,1586,1586,1586,1586,1586,1594,1594,1586,1579,1579,1586,1586,1579,1579,1579,1579,1579,1579,1579,1586,1586,1586,1586,1586,1586,1594,1586,1586,1586,1586,1586,1586,1579,1579,1586,1579,1579,1579,1579,1579,1579,1579,1579,1579,1579,1579,0,0,0,0,0,0,0,0,0,928,925,923,920,920,915,915,915,915,915,915,918,920,923,923,923,925,925,928,930,930,930,933,933,933,933,0,0,0,0,0,1557,1557,1557,1564,1564,1564,1564,1564,1564,1557,1557,1557,1557,1557,1564,1564,1564,1564,1564,1564,1564,1564,1557,1557,1557,1550,1550,1550,1550,1550,1550,1550,1550,1550,1557,1557,1557,1557,1557,1564,1564,1564,1557,1557,1557,1557,1557,1550,1550,1557,1550,1550,1550,1557,1557,1550,1550,1550,1550,1550,1550,1550,1550,1550,1550,1550,1543,1543,1543,1536,1536,1536,1536,1536,1536,1536,1536,1536,1536,1523,1523,1516,1516,1516,1516,719,719,716,714,713,711,710,710,710,710,708,707,703,703,701,700,698,698,697,686,683,682,682,682,680,680,678,678,678,674,672,671,671,670,670,670,670,670,671,671,674,675,678,679,679,680,683,684,686,687,688,690,691,693,703,704,0,0,0,0,0,0,1241,1241,1241,1241,1245,1245,1245,1245,1250,1250,1250,1250,1250,1255,1503,1503,1509,1509,1509,1509,1509,1509,1509,1509,1509,1509,1509,1509,1509,1509,1509,1509,1509,1509,1509,1503,1503,1503,1503,1503,1503,1496,1496,1496,1496,1496,1496,1496,1496,1496,1496,1496,1496,1496,1496,1489,1489,1489,1489,1489,1489,1489,1489,1489,1489,1489,1489,1489,1489,1489,1489,1489,1489,1483,1483,1483,1483,1483,1483,1483,1483,1483,1483,1477,1477,1483,1483,1477,1477,1477,1477,1477,1477,1477,1477,1477,1477,0,1034,1034,1031,1028,1028,1028,1025,1025,1022,1022,1019,1016,1016,1016,1016,1016,1016,1016,1019,1019,1022,1025,1028,1028,1031,1031,1464,1464,1464,1464,1464,1458,1458,1464,1464,1464,1464,1464,1464,1464,1458,1458,1458,1458,1458,1458,1458,1458,1458,1452,1452,1458,1458,1458,1458,1458,1458,1458,1458,1458,1458,1458,1458,1458,1458,1458,1452,1452,1452,1452,1452,1452,1452,1458,1458,1458,1458,1458,1458,1458,1452,1452,1445,1445,1445,1445,1445,1445,1445,1445,1445,1445,1445,1445,1445,1445,1445,1445,1439,1439,1439,1439,1439,1439,1439,1433,1433,1433,1433,1433,1439,1433,1433,1433,1433,1433,1433,1433,1433,1433,1433,1427,1427,1421,1421,1421,1421,1421,1421,1421,1415,1415,1415,1415,1415,1415,1410,1410,1410,1410,1410,1404,1404,1398,1398,1392,1392,1392,1392,1392,1387,1381,1381,1376,1376,1376,1376,1370,1370,1370,1370,1370,1365,1365,1365,1359,1354,1354,1354,1354,1354,1354,1349,1349,1349,1343,1343,1338,1338,1333,1333,1333,1333,1328,1328,1328,1328,1328,1322,1322,1317,1312,1312,1312,1312,1307,1307,1307,1307,1307,1307,1302,1302,1302,1297,1297,1297,1292,1292,1288,1288,1288,1157,1149,1149,1149,1141,1134,1126,1123,1123,1123,1119,1115,1112,1108,1108,1105,1105,1101,1101,1101,1101,1101,1094,1094,1101,1105,1105,1105,1105,1105,1105,1077,1077,1077,0,0,0,0,0,0,0,0,0,0,0,0,0,0,0,0,0,0,0,0,0,0,0,0,0,0,0,0,0,0,0
0,0,0,0,0,0,0,0,0,0,0,0,1579,1579,1579,1579,1579,1579,1579,1586,1586,1586,1586,1579,1579,1586,1579,1579,1579,1579,1579,1579,1579,1579,1579,1579,1579,1579,1586,1579,1579,1579,1579,1579,1579,1579,1579,1579,1579,1579,1579,1579,1579,1572,1572,1572,1572,1586,1579,1579,1579,1579,1579,1579,1572,1572,1572,1572,1572,1572,1572,1572,1572,1572,1572,1572,1572,1572,0,0,0,0,0,0,0,0,0,933,928,925,923,920,915,915,915,915,915,915,918,920,923,923,923,925,925,928,930,930,933,933,933,933,935,0,0,0,0,0,1557,1557,1557,1557,1557,1557,1557,1557,1557,1557,1557,1557,1550,1550,1550,1557,1557,1557,1557,1557,1557,1557,1550,1550,1550,1550,1543,1543,1543,1543,1550,1550,1550,1550,1550,1550,1543,1543,1543,1550,1550,1557,1550,1550,1550,1550,1550,1543,1543,1550,1543,1543,1543,1543,1550,1543,1543,1543,1543,1543,1543,1543,1543,1543,1543,1543,1543,1543,1543,1536,1536,1536,1536,1536,1529,1529,1529,1529,1529,1523,1523,1516,1516,1516,1516,1516,1509,1509,713,713,713,711,711,711,710,708,708,703,703,703,701,700,700,698,686,683,683,683,682,682,680,678,678,678,675,672,671,671,670,670,670,670,671,671,671,674,675,678,679,680,682,683,686,686,687,688,691,693,693,0,0,0,0,0,0,0,0,1241,1241,1241,1241,1245,1245,1245,1250,1250,1255,1255,1255,1255,1503,1503,1503,1503,1509,1509,1509,1503,1503,1509,1503,1503,1503,1503,1503,1503,1503,1503,1503,1503,1503,1503,1496,1496,1496,1496,1496,1489,1489,1489,1489,1489,1489,1489,1489,1489,1489,1489,1496,1496,1496,1489,1489,1489,1489,1489,1489,1489,1489,1489,1489,1483,1483,1483,1483,1483,1483,1483,1483,1483,1483,1483,1483,1483,1477,1477,1477,1477,1477,1477,1470,1470,1470,1470,1470,1470,1470,1470,1470,1470,1470,1470,1470,0,0,1034,1034,1031,1031,1028,1028,1028,1025,1025,1022,1022,1019,1019,1016,1016,1016,1016,1016,1019,1019,1022,1025,1031,1031,1031,1031,1041,1458,1458,1458,1458,1458,1458,1458,1458,1458,1458,1458,1458,1458,1458,1458,1458,1458,1458,1452,1452,1452,1452,1452,1452,1445,1445,1452,1452,1452,1452,1452,1452,1458,1458,1452,1452,1445,1445,1445,1445,1445,1445,1445,1445,1445,1452,1452,1452,1452,1452,1452,1445,1445,1445,1445,1445,1445,1445,1439,1439,1439,1439,1439,1439,1445,1445,1445,1445,1445,1439,1439,1439,1439,1439,1439,1433,1433,1433,1433,1433,1433,1433,1433,1433,1433,1433,1433,1433,1433,1433,1427,1427,1427,1427,1427,1421,1421,1421,1421,1421,1421,1415,1415,1415,1415,1415,1415,1415,1410,1410,1410,1410,1410,1410,1404,1404,1398,1398,1392,1392,1392,1392,1392,1387,1387,1381,1376,1376,1376,1376,1376,1376,1370,1370,1370,1365,1365,1365,1359,1354,1354,1354,1354,1354,1354,1354,1354,1349,1349,1343,1343,1338,1333,1333,1333,1333,1333,1333,1328,1328,1328,1322,1322,1317,1312,1312,1312,1312,1307,1307,1307,1307,1307,1307,1307,1302,1302,1297,1297,1297,1292,1292,1288,1288,1157,1157,1149,1145,1145,1141,1130,1126,1123,1123,1123,1119,1115,1115,1112,1108,1108,1105,1105,1101,1101,1101,1101,1094,1094,1101,1105,1105,1105,1108,1105,1105,1094,1080,1080,0,0,0,0,0,0,0,0,0,0,0,0,0,0,0,0,0,0,0,0,0,0,0,0,0,0,0,0,0,0,0
0,0,0,0,0,0,0,0,0,0,0,0,1572,1572,1572,1572,1572,1579,1572,1572,1579,1579,1572,1572,1572,1572,1572,1572,1564,1564,1572,1572,1572,1572,1572,1572,1572,1572,1579,1579,1572,1572,1572,1572,1579,1572,1572,1572,1572,1572,1572,1572,1564,1564,1564,1564,1564,1579,1572,1572,1572,1572,1579,1572,1572,1572,1572,1564,1564,1564,1564,1564,1564,1564,1564,1564,1564,1564,0,0,0,0,0,0,0,0,0,933,928,928,925,923,918,918,918,918,915,915,918,920,923,923,923,925,925,928,930,930,933,933,935,935,935,935,935,0,0,0,1557,1557,1557,1557,1557,1557,1557,1550,1550,1550,1550,1550,1543,1543,1543,1550,1550,1543,1543,1543,1543,1543,1543,1543,1543,1543,1543,1543,1543,1543,1543,1543,1543,1543,1550,1550,1543,1543,1543,1543,1550,1543,1543,1543,1543,1543,1543,1543,1543,1543,1543,1543,1543,1543,1543,1543,1543,1543,1543,1543,1543,1543,1543,1543,1543,1543,1543,1536,1536,1536,1536,1536,1529,1529,1523,1523,1523,1523,1523,1516,1516,1516,1516,1516,1509,1509,1509,1509,1509,713,713,713,0,0,0,0,708,704,704,703,703,701,701,700,698,686,683,683,682,682,680,680,680,678,675,674,672,671,671,671,671,671,671,671,672,674,676,678,679,680,682,683,686,687,688,690,691,693,693,0,0,0,0,0,0,0,0,1241,1241,1241,1241,1245,1245,1245,1250,1250,1255,1255,1255,1259,1264,1503,1496,1496,1503,1503,1503,1496,1496,1496,1496,1496,1496,1496,1496,1496,1496,1496,1496,1496,1496,1496,1496,1489,1489,1489,1489,1489,1489,1489,1489,1489,1483,1483,1483,1483,1483,1483,1489,1489,1489,1489,1483,1483,1489,1489,1489,1483,1483,1483,1489,1483,1483,1483,1483,1477,1477,1477,1477,1477,1477,1477,1477,1477,1470,1470,1470,1470,1470,1470,1470,1470,1470,1470,1470,1464,1464,1464,1464,1464,1464,1470,1470,1470,0,0,1034,1031,1031,1028,1028,1028,1028,1025,1025,1025,1022,1019,1019,1016,1016,1016,1016,1019,1019,1022,1028,1031,1034,1034,1038,1041,1458,1458,1458,1452,1452,1452,1452,1452,1452,1452,1452,1452,1452,1452,1452,1452,1452,1452,1445,1445,1445,1445,1445,1445,1445,1445,1445,1445,1445,1445,1445,1452,1452,1452,1452,1445,1445,1445,1445,1445,1445,1445,1445,1445,1445,1445,1445,1445,1445,1445,1445,1439,1439,1439,1439,1439,1439,1439,1439,1439,1439,1433,1433,1433,1439,1439,1439,1439,1439,1433,1433,1433,1433,1433,1433,1427,1427,1427,1427,1427,1427,1421,1421,1427,1427,1427,1427,1427,1427,1427,1421,1421,1421,1421,1421,1421,1421,1415,1415,1415,1415,1415,1415,1415,1415,1415,1410,1410,1410,1410,1410,1410,1410,1410,1404,1404,1398,1398,1398,1392,1392,1392,1392,1387,1387,1381,1381,1376,1376,1376,1376,1376,1376,1370,1370,1370,1370,1365,1365,1359,1354,1354,1354,1354,1354,1354,1354,1349,1349,1343,1343,1338,1338,1338,1333,1333,1333,1333,1328,1328,1328,1322,1322,1317,1317,1317,1312,1312,1312,1312,1307,1307,1307,1307,1307,1302,1302,1297,1297,1297,1292,1292,1292,1153,1153,1149,1145,1141,1141,1134,1130,1126,1123,1123,1123,1119,1119,1115,1112,1112,1108,1108,1105,1101,1101,1101,1101,1101,1101,1105,1105,1105,1101,1101,1101,1101,1094,1087,1087,0,0,0,0,0,0,0,0,0,0,0,0,0,0,0,0,0,0,0,0,0,0,0,0,0,0,0,0,0,0,0
0,0,0,0,0,0,0,0,0,0,0,0,1572,1572,1572,1572,1572,1572,1572,1572,1572,1572,1564,1564,1564,1564,1564,1557,1557,1557,1557,1564,1564,1564,1564,1564,1564,1564,1564,1572,1572,1572,1572,1572,1572,1572,1572,1572,1572,1572,1572,1572,1564,1564,1564,1564,1564,1564,1564,1572,1572,1572,1572,1572,1564,1564,1564,1564,1557,1557,1557,1564,1564,1564,1564,1564,1564,1557,1557,0,0,0,0,0,0,0,0,933,928,928,925,925,918,918,918,918,918,918,920,920,923,923,923,925,925,928,930,930,933,933,935,935,935,933,933,0,0,0,0,0,1550,1550,1550,1550,1550,1550,1550,1543,1543,1543,1543,1543,1543,1536,1536,1543,1543,1543,1543,1543,1536,1536,1536,1536,1536,1536,1536,1536,1536,1543,1536,1536,1543,1543,1536,1536,1536,1536,1543,1536,1536,1536,1536,1536,1536,1529,1529,1536,1536,1536,1536,1536,1536,1536,1536,1536,1536,1536,1536,1536,1536,1536,1536,1536,1536,1536,1536,1529,1529,1529,1529,1529,1523,1523,1523,1523,1516,1516,1516,1516,1516,1516,1509,1509,1509,1509,1509,1509,0,0,0,0,0,0,0,704,704,704,703,701,701,698,693,687,684,684,683,682,682,680,680,678,676,675,674,672,671,671,671,671,671,671,672,675,676,678,679,680,682,684,687,688,688,690,691,693,693,694,0,0,0,0,0,0,0,1241,1241,1241,1245,1245,1245,1250,1250,1255,1255,1255,1259,1259,1264,1496,1496,1496,1496,1496,1496,1489,1489,1489,1489,1489,1489,1489,1489,1489,1489,1489,1489,1489,1489,1489,1489,1489,1489,1489,1489,1489,1489,1483,1483,1483,1483,1483,1483,1483,1483,1483,1483,1483,1483,1483,1477,1477,1483,1483,1483,1477,1477,1477,1483,1477,1477,1477,1477,1477,1477,1470,1470,1470,1470,1470,1470,1470,1470,1470,1470,1470,1470,1464,1464,1464,1464,1464,1464,1464,1464,1464,1464,1458,1458,1464,1464,1470,1470,0,1034,1034,1031,1031,1031,1028,1028,1028,1025,1025,1025,1022,1022,1019,1016,1016,1019,1019,1019,1022,1028,1034,1034,1038,1038,1041,1041,1452,1452,1452,1452,1445,1445,1445,1445,1445,1445,1445,1445,1445,1445,1445,1445,1445,1445,1445,1445,1445,1445,1445,1445,1439,1439,1439,1439,1439,1439,1439,1439,1439,1439,1445,1439,1439,1439,1439,1439,1439,1439,1439,1439,1439,1439,1439,1439,1439,1439,1439,1439,1439,1439,1433,1433,1433,1433,1433,1433,1427,1427,1433,1433,1433,1433,1433,1433,1427,1427,1427,1427,1427,1427,1427,1427,1421,1421,1421,1421,1421,1421,1421,1421,1421,1427,1421,1421,1421,1421,1421,1421,1421,1421,1415,1415,1415,1415,1415,1415,1415,1415,1415,1410,1410,1410,1410,1404,1404,1404,1404,1404,1404,1404,1398,1398,1398,1392,1392,1392,1392,1392,1392,1387,1387,1381,1376,1376,1376,1376,1376,1376,1376,1370,1370,1370,1370,1365,1359,1359,1354,1354,1354,1354,1354,1349,1349,1349,1349,1343,1343,1338,1338,1333,1333,1333,1333,1328,1328,1328,1322,1322,1317,1317,1317,1312,1312,1312,1312,1312,1307,1307,1307,1307,1302,1302,1302,1302,1302,1302,1292,1292,1145,1145,1145,1141,1138,1138,1134,1130,1126,1123,1123,1123,1119,1119,1115,1115,1112,1108,1108,1108,1105,1105,1105,1105,1105,1105,1105,1105,1105,1101,1101,1101,1101,1094,1090,1090,0,0,0,0,0,0,0,0,0,0,0,0,0,0,0,0,0,0,0,0,0,0,0,0,0,0,0,0,0,0,0
0,0,0,0,0,0,0,0,0,0,0,0,1572,1572,1564,1564,1564,1564,1564,1564,1572,1564,1564,1557,1557,1557,1557,1550,1550,1550,1550,1557,1557,1557,1557,1557,1557,1564,1564,1564,1564,1564,1564,1572,1572,1572,1572,1572,1572,1564,1564,1564,1564,1557,1557,1550,1550,1557,1557,1564,1564,1564,1564,1564,1564,1564,1557,1557,1557,1557,1557,1557,1557,1557,1557,1557,1557,1557,1557,0,0,0,0,0,0,0,0,0,930,930,928,928,925,920,920,920,918,918,920,920,923,923,923,925,928,928,930,930,933,933,935,935,935,933,933,935,0,0,0,0,1550,1543,1543,1543,1543,1543,1543,1543,1543,1536,1536,1536,1536,1529,1529,1536,1536,1536,1536,1536,1536,1536,1536,1536,1536,1536,1536,1536,1536,1536,1536,1536,1536,1536,1536,1536,1536,1536,1536,1536,1529,1529,1529,1529,1529,1529,1529,1529,1529,1529,1529,1529,1529,1529,1529,1529,1529,1529,1529,1529,1529,1529,1529,1529,1529,1529,1529,1523,1523,1523,1523,1523,1516,1516,1516,1516,1516,1516,1516,1516,1516,1516,1509,1509,1509,1509,1509,0,0,0,0,0,0,0,0,706,706,704,703,703,701,698,693,688,686,686,684,683,682,682,680,679,678,676,675,674,672,672,672,672,672,672,674,675,676,678,679,680,683,686,687,688,690,690,691,693,693,694,0,0,0,0,0,0,0,0,1236,1236,1241,1245,1245,1250,1250,1255,1255,1255,1259,1259,1264,1489,1489,1489,1489,1489,1489,1489,1489,1483,1483,1483,1483,1483,1483,1483,1477,1477,1477,1477,1483,1483,1483,1483,1483,1483,1483,1483,1483,1483,1483,1477,1477,1477,1477,1477,1477,1477,1477,1477,1483,1477,1477,1477,1477,1477,1477,1477,1470,1470,1477,1470,1470,1470,1470,1470,1470,1470,1470,1470,1470,1470,1464,1464,1464,1464,1464,1464,1464,1464,1464,1464,1464,1458,1458,1458,1458,1458,1458,1452,1452,1458,1458,1458,1458,0,1034,0,1034,1031,1031,1031,1028,1028,1028,1025,1025,1025,1022,1022,1019,1019,1022,1022,1022,1025,1028,1034,1034,1038,1041,1041,1041,0,1452,1452,1445,1445,1439,1439,1445,1445,1439,1439,1445,1439,1439,1439,1439,1439,1439,1439,1439,1439,1439,1439,1439,1439,1439,1439,1439,1439,1439,1439,1433,1433,1433,1433,1433,1427,1427,1433,1433,1433,1433,1433,1433,1433,1433,1433,1433,1433,1433,1433,1427,1427,1433,1427,1427,1427,1427,1427,1421,1421,1421,1421,1421,1421,1421,1421,1421,1421,1421,1421,1421,1421,1421,1421,1421,1415,1415,1415,1415,1415,1415,1421,1421,1421,1421,1421,1421,1421,1421,1415,1415,1415,1415,1415,1415,1410,1410,1410,1404,1404,1404,1404,1404,1404,1404,1404,1404,1404,1404,1404,1404,1404,1404,1398,1398,1398,1392,1392,1392,1392,1392,1387,1387,1387,1381,1381,1376,1376,1376,1376,1376,1376,1370,1370,1370,1370,1365,1359,1359,1354,1354,1354,1354,1354,1349,1349,1349,1349,1343,1343,1338,1338,1333,1333,1333,1333,1333,1328,1328,1328,1322,1322,1322,1317,1312,1312,1312,1312,1312,1307,1307,1307,1307,1307,1302,1302,1302,1302,1302,1292,1292,1297,1145,1145,1141,1138,1138,1134,1130,1126,1126,1123,1123,1119,1119,1119,1115,1115,1112,1112,1112,1112,1108,1108,1108,1108,1108,1108,1105,1105,1097,1097,1097,1097,1097,1094,1094,0,0,0,0,0,0,0,0,0,0,0,0,0,0,0,0,0,0,0,0,0,0,0,0,0,0,0,0,0,0,0
0,0,0,0,0,0,0,0,0,0,0,0,1564,1564,1564,1564,1564,1557,1557,1557,1557,1557,1557,1557,1557,1557,1557,1550,1550,1550,1550,1550,1550,1550,1550,1550,1550,1557,1550,1550,1557,1543,1543,1550,1550,1557,1564,1564,1564,1564,1564,1557,1557,1550,1550,1550,1550,1557,1557,1557,1557,1557,1557,1557,1557,1557,1557,1550,1550,1550,1550,1550,1550,1550,1550,1550,1557,1550,1550,0,0,0,0,0,0,0,0,0,930,930,930,930,925,925,923,923,920,920,920,923,923,923,923,925,928,928,930,930,933,933,935,935,935,935,935,935,0,0,0,0,0,1543,1543,1543,1543,1543,1543,1536,1536,1536,1529,1529,1529,1529,1529,1529,1529,1529,1529,1536,1536,1536,1529,1529,1529,1529,1529,1529,1529,1529,1529,1529,1523,1523,1529,1529,1523,1523,1523,1529,1529,1523,1523,1523,1523,1523,1523,1523,1523,1523,1523,1523,1516,1516,1529,1523,1523,1523,1523,1523,1523,1523,1523,1523,1523,1523,1523,1516,1516,1516,1516,1516,1516,1516,1516,1516,1516,1509,1509,1509,1509,1509,1509,1509,1509,1509,1509,1516,1516,0,0,0,0,0,0,0,0,0,704,704,704,0,688,687,686,686,684,683,682,682,680,679,678,676,675,675,674,672,672,672,672,674,675,675,676,678,679,680,683,686,687,688,690,691,693,693,694,694,0,0,0,0,0,0,0,0,1236,1236,1241,1245,1245,1250,1250,1255,1259,1259,1259,1259,1489,1483,1483,1489,1483,1483,1483,1483,1483,1483,1483,1477,1477,1477,1477,1477,1477,1477,1470,1470,1470,1470,1470,1477,1477,1477,1477,1477,1477,1477,1477,1477,1470,1470,1470,1470,1470,1470,1477,1477,1477,1477,1470,1470,1470,1470,1470,1470,1470,1470,1470,1464,1464,1464,1464,1464,1464,1464,1464,1464,1464,1464,1464,1464,1464,1458,1458,1458,1458,1458,1458,1458,1458,1452,1452,1452,1452,1452,1452,1452,1445,1445,1452,1458,1458,0,0,1034,1034,1031,1031,1034,1031,1028,1028,1025,1025,1025,1022,1022,1022,1022,1022,1022,1022,1025,1031,1034,1038,1038,1041,1041,1041,1044,1445,1445,1445,1439,1439,1439,1439,1439,1439,1439,1439,1439,1439,1439,1439,1439,1439,1439,1439,1439,1439,1433,1433,1433,1433,1433,1433,1433,1433,1427,1427,1427,1427,1427,1427,1427,1421,1421,1421,1427,1427,1427,1427,1427,1427,1427,1427,1427,1427,1427,1427,1427,1427,1421,1421,1421,1421,1415,1415,1415,1415,1415,1415,1421,1421,1421,1421,1421,1421,1421,1415,1415,1415,1415,1415,1415,1415,1415,1415,1415,1415,1415,1415,1415,1415,1415,1415,1415,1415,1415,1415,1415,1410,1410,1410,1410,1404,1404,1398,1398,1398,1398,1398,1398,1398,1398,1398,1398,1404,1404,1404,1404,1404,1398,1398,1398,1392,1392,1392,1392,1392,1387,1387,1387,1381,1381,1381,1376,1376,1376,1376,1376,1376,1370,1370,1370,1370,1365,1359,1354,1354,1354,1354,1354,1354,1349,1349,1349,1343,1343,1343,1338,1338,1333,1333,1333,1333,1328,1328,1328,1328,1322,1322,1322,1317,1312,1312,1312,1312,1312,1307,1307,1307,1307,1307,1302,1302,1302,1302,1292,1288,1145,1145,1145,1141,1138,1138,1134,1130,1130,1126,1123,1123,1123,1119,1119,1115,1115,1112,1112,1115,1115,1115,1115,1115,1115,1112,1108,1105,1101,1097,1094,1094,1094,1094,1094,1094,0,0,0,0,0,0,0,0,0,0,0,0,0,0,0,0,0,0,0,0,0,0,0,0,0,0,0,0,0,0,0
0,0,0,0,0,0,0,0,0,0,0,0,1564,1564,1564,1557,1557,1550,1550,1550,1550,1550,1550,1550,1550,1550,1550,1550,1543,1543,1543,1550,1550,1550,1550,1550,1550,1550,1550,1550,1543,1543,1543,1543,1543,1550,1550,1550,1550,1550,1557,1557,1557,1550,1550,1543,1543,1550,1550,1550,1550,1557,1557,1550,1550,1550,1550,1543,1543,1543,1543,1543,1550,1550,1543,1543,1543,1543,1543,1543,0,0,0,0,0,0,0,0,933,930,930,930,928,928,925,923,923,923,923,923,923,923,925,925,928,930,930,930,933,933,935,935,935,935,935,938,0,0,0,0,0,1536,1536,1536,1536,1536,1536,1529,1529,1529,1529,1529,1529,1523,1523,1529,1529,1529,1529,1529,1529,1529,1529,1529,1529,1529,1529,1529,1529,1529,1523,1523,1523,1523,1523,1523,1523,1516,1516,1523,1523,1516,1516,1516,1516,1516,1516,1516,1516,1516,1516,1516,1516,1516,1509,1509,1509,1509,1516,1516,1516,1516,1516,1516,1516,1516,1516,1516,1516,1516,1516,1516,1509,1509,1509,1509,1509,1509,1509,1509,1509,1509,1509,1509,1509,1509,1509,1509,1516,1516,0,0,0,0,0,0,0,0,0,0,0,0,688,687,686,686,686,684,683,682,682,680,678,676,676,675,675,675,674,674,674,674,675,676,676,678,680,682,683,686,687,688,690,691,693,693,694,694,0,0,0,0,0,0,0,0,1236,1236,1241,1245,1245,1250,1250,1255,1259,1259,1259,1259,1483,1483,1483,1483,1483,1477,1477,1477,1477,1477,1477,1477,1470,1470,1470,1470,1470,1470,1470,1470,1470,1470,1470,1470,1470,1470,1470,1470,1470,1470,1470,1470,1470,1464,1464,1464,1464,1464,1470,1470,1470,1470,1470,1470,1470,1470,1470,1464,1464,1464,1464,1464,1464,1458,1458,1458,1458,1458,1464,1458,1458,1458,1458,1452,1452,1458,1452,1452,1458,1458,1452,1452,1452,1452,1452,1445,1445,1445,1445,1445,1445,1445,1445,0,1445,0,0,1038,1038,1034,1034,1034,1034,1028,1028,1028,1025,1025,1025,1022,1022,1022,1022,1022,1025,1028,1031,1034,1038,1041,1041,1041,1044,1044,1445,1445,1439,1433,1433,1433,1433,1433,1433,1433,1433,1433,1433,1433,1433,1433,1433,1433,1433,1433,1433,1433,1427,1427,1427,1427,1427,1427,1427,1427,1427,1427,1421,1421,1421,1421,1421,1421,1421,1421,1421,1421,1421,1421,1421,1421,1421,1421,1421,1421,1421,1421,1421,1421,1415,1415,1415,1415,1415,1415,1415,1415,1415,1415,1415,1415,1415,1415,1415,1415,1415,1415,1415,1415,1415,1410,1410,1410,1410,1410,1410,1410,1410,1410,1410,1410,1410,1410,1410,1410,1410,1410,1410,1404,1404,1404,1398,1398,1398,1398,1392,1392,1392,1392,1392,1392,1392,1392,1392,1398,1398,1398,1398,1398,1398,1392,1392,1392,1392,1387,1387,1387,1387,1381,1381,1376,1376,1376,1376,1376,1376,1376,1376,1370,1370,1370,1370,1365,1359,1359,1359,1354,1354,1354,1354,1354,1349,1349,1349,1343,1343,1343,1338,1333,1333,1333,1333,1328,1328,1328,1328,1328,1322,1322,1322,1317,1317,1317,1312,1312,1307,1307,1307,1307,1307,1307,1302,1302,1302,1292,1141,1141,1141,1141,1141,1138,1134,1134,1130,1130,1126,1126,1123,1123,1119,1119,1115,1115,1119,1119,1119,1126,1123,1123,1115,1115,1112,1108,1105,1101,1094,1094,1094,1094,1094,1090,1090,0,0,0,0,0,0,0,0,0,0,0,0,0,0,0,0,0,0,0,0,0,0,0,0,0,0,0,0,0,0,0
0,0,0,0,0,0,0,0,0,0,0,0,1564,1557,1557,1550,1550,1543,1543,1543,1543,1543,1543,1543,1550,1550,1543,1543,1543,1543,1543,1543,1543,1543,1543,1543,1543,1543,1543,1543,1543,1536,1536,1536,1536,1543,1543,1543,1543,1543,1543,1543,1543,1543,1543,1543,1543,1543,1543,1550,1550,1550,1550,1550,1543,1543,1543,1543,1543,1543,1543,1543,1543,1543,1543,1543,1543,1543,1536,1536,0,0,0,0,0,0,0,0,0,933,933,930,930,928,925,923,923,925,925,923,923,923,925,925,928,930,933,933,935,935,935,938,938,938,940,940,0,0,0,0,0,1536,1536,1536,1536,1529,1529,1523,1523,1523,1523,1523,1523,1523,1523,1523,1523,1529,1523,1523,1523,1523,1523,1523,1529,1523,1523,1523,1523,1523,1516,1516,1516,1516,1516,1516,1516,1516,1516,1516,1516,1516,1516,1516,1516,1516,1516,1516,1516,1516,1509,1509,1509,1509,1509,1509,1509,1509,1509,1509,1509,1516,1516,1516,1516,1509,1509,1509,1509,1509,1509,1509,1509,1509,1503,1503,1509,1503,1503,1503,1503,1509,1503,1503,1503,1503,1509,1509,1516,1516,0,0,0,0,0,0,0,0,0,0,0,0,690,690,688,686,686,686,684,684,682,682,679,678,676,676,676,675,675,675,675,675,676,676,678,679,682,683,684,686,687,688,690,691,693,694,694,696,697,0,0,0,0,0,0,0,1236,1236,1241,1245,1245,1250,1250,1255,1259,1259,1259,1259,1259,1477,1477,1477,1477,1470,1470,1470,1470,1470,1470,1470,1470,1470,1470,1470,1464,1464,1464,1464,1464,1464,1464,1464,1464,1464,1464,1464,1464,1464,1464,1464,1464,1464,1464,1464,1464,1464,1464,1464,1464,1464,1464,1464,1464,1464,1464,1464,1464,1458,1458,1458,1458,1452,1452,1452,1452,1452,1452,1452,1452,1452,1452,1452,1452,1452,1452,1452,1452,1452,1452,1445,1445,1445,1445,1445,1445,1445,1445,1439,1439,1439,1439,0,1421,1421,0,1038,1038,1034,1034,1038,1034,1034,1031,1028,1028,1025,1025,1025,1025,1025,1025,1025,1025,1028,1034,1038,1038,1041,1044,1044,1044,1044,1050,1439,1439,1427,1427,1427,1427,1427,1427,1427,1427,1427,1427,1427,1427,1427,1427,1427,1427,1427,1427,1427,1421,1421,1421,1421,1421,1421,1421,1421,1421,1421,1421,1421,1421,1415,1415,1415,1415,1415,1415,1415,1415,1415,1415,1415,1415,1415,1421,1421,1421,1421,1421,1415,1415,1415,1415,1415,1410,1410,1415,1410,1410,1410,1410,1410,1410,1410,1410,1410,1410,1410,1410,1410,1410,1410,1410,1410,1410,1404,1404,1404,1404,1404,1404,1410,1404,1404,1404,1404,1404,1404,1404,1404,1398,1398,1398,1398,1398,1392,1392,1392,1392,1392,1392,1392,1392,1392,1392,1392,1392,1392,1392,1392,1392,1392,1392,1392,1392,1387,1387,1387,1387,1381,1381,1376,1376,1376,1376,1376,1376,1370,1370,1370,1370,1370,1370,1365,1359,1359,1359,1354,1354,1354,1354,1354,1349,1349,1349,1343,1343,1343,1338,1338,1333,1333,1333,1333,1328,1328,1328,1328,1328,1328,1322,1322,1317,1317,1317,1312,1312,1312,1307,1307,1307,1307,1302,1302,1302,1292,1141,1141,1141,1141,1141,1138,1134,1134,1130,1130,1126,1126,1123,1123,1119,1119,1119,1119,1119,1123,1126,1126,1126,1123,1119,1115,1112,1108,1105,1101,1094,1094,1094,1094,1094,1090,1090,0,0,0,0,0,0,0,0,0,0,0,0,0,0,0,0,0,0,0,0,0,0,0,0,0,0,0,0,0,0,0
0,0,0,0,0,0,0,0,0,0,0,0,1557,1557,1550,1543,1543,1543,1543,1543,1543,1543,1543,1543,1543,1543,1543,1543,1543,1543,1543,1543,1543,1543,1543,1543,1543,1543,1543,1543,1543,1536,1536,1536,1536,1543,1543,1543,1543,1543,1543,1543,1543,1536,1536,1536,1536,1543,1543,1543,1543,1543,1543,1543,1536,1536,1536,1543,1536,1536,1536,1536,1543,1543,1536,1536,1536,1536,1536,1536,1536,0,0,0,0,0,0,0,0,0,930,930,930,928,928,925,925,925,925,923,923,923,925,925,930,933,933,933,935,935,935,938,938,940,940,940,943,0,0,0,0,1536,1529,1529,1529,1523,1523,1516,1516,1516,1516,1516,1516,1516,1516,1523,1523,1523,1523,1523,1523,1523,1516,1516,1523,1523,1516,1516,1516,1516,1516,1516,1516,1516,1509,1509,1509,1509,1509,1509,1509,1509,1509,1509,1509,1509,1509,1509,1509,1509,1509,1509,1509,1503,1503,1503,1503,1503,1503,1503,1503,1503,1509,1503,1503,1503,1503,1503,1503,1503,1503,1503,1509,1503,1503,1503,1503,1503,1503,1503,1503,1503,1503,1496,1496,1496,1496,1509,1516,1516,0,0,0,0,0,0,0,0,0,0,0,0,690,690,690,688,688,687,687,684,683,682,682,679,678,676,676,676,676,675,675,675,676,678,678,680,680,683,684,686,687,690,690,691,693,694,696,696,697,0,0,0,0,0,0,0,1241,1241,1245,1245,1250,1250,1250,1255,1259,1259,1259,1259,1259,1470,1470,1470,1470,1464,1464,1464,1464,1464,1464,1464,1464,1464,1464,1464,1464,1464,1464,1464,1464,1464,1458,1458,1458,1458,1458,1458,1458,1458,1458,1458,1458,1458,1458,1458,1458,1458,1464,1464,1464,1458,1458,1458,1458,1458,1458,1458,1458,1452,1452,1452,1452,1452,1445,1445,1445,1445,1445,1445,1445,1445,1445,1445,1445,1445,1445,1445,1445,1445,1445,1445,1445,1439,1439,1439,1439,1439,1439,1439,1433,1433,1421,1421,1421,1421,1415,0,1038,1034,1034,1038,1038,1034,1034,1031,1028,1028,1025,1025,1025,1025,1025,1025,1025,1028,1034,1038,1041,1041,1044,1044,1047,1050,1050,1427,1427,1427,1421,1421,1421,1421,1421,1421,1421,1421,1421,1421,1421,1421,1421,1421,1421,1421,1421,1421,1421,1415,1415,1421,1421,1421,1421,1421,1421,1421,1415,1415,1415,1410,1410,1415,1410,1410,1410,1410,1410,1415,1410,1410,1415,1415,1415,1415,1415,1415,1415,1415,1415,1410,1410,1410,1404,1404,1404,1404,1404,1404,1404,1404,1404,1404,1404,1404,1404,1404,1404,1404,1404,1404,1404,1404,1404,1398,1398,1398,1398,1398,1398,1398,1398,1398,1398,1398,1404,1398,1398,1398,1398,1398,1392,1392,1392,1392,1392,1387,1387,1387,1387,1387,1387,1392,1392,1392,1392,1387,1387,1387,1387,1387,1387,1387,1392,1387,1381,1381,1381,1381,1381,1376,1376,1376,1376,1376,1376,1370,1370,1370,1370,1370,1365,1365,1359,1359,1359,1354,1354,1354,1349,1349,1349,1349,1349,1343,1343,1343,1338,1338,1333,1333,1333,1333,1328,1328,1328,1328,1328,1328,1322,1322,1317,1317,1317,1317,1312,1312,1312,1307,1307,1307,1302,1302,1149,1145,1141,1141,1141,1141,1138,1138,1134,1134,1130,1130,1126,1126,1123,1123,1119,1119,1119,1119,1123,1123,1126,1126,1126,1123,1119,1115,1112,1108,1105,1101,1097,1094,1090,1090,1090,1090,1090,0,0,0,0,0,0,0,0,0,0,0,0,0,0,0,0,0,0,0,0,0,0,0,0,0,0,0,0,0,0,0
0,0,0,0,0,0,0,0,0,0,0,0,1557,1550,1543,1543,1543,1543,1543,1543,1543,1543,1543,1543,1543,1543,1543,1543,1543,1536,1536,1536,1536,1543,1543,1543,1543,1543,1543,1529,1529,1529,1529,1529,1529,1536,1536,1536,1536,1536,1536,1536,1536,1536,1529,1529,1529,1529,1529,1529,1536,1536,1536,1536,1536,1536,1536,1536,1536,1536,1536,1536,1536,1536,1536,1536,1536,1529,1529,1529,1536,0,0,0,0,0,0,0,0,0,930,930,930,928,928,925,925,925,925,925,925,925,925,925,930,933,933,933,935,935,938,938,938,940,940,940,943,0,0,0,0,1509,1509,1509,1509,1516,1516,1516,1516,1516,1509,1509,1509,1516,1516,1516,1516,1516,1516,1516,1516,1516,1516,1516,1516,1516,1516,1509,1509,1509,1509,1509,1509,1509,1509,1509,1503,1503,1503,1503,1503,1503,1503,1503,1503,1509,1503,1503,1503,1503,1503,1503,1503,1496,1496,1496,1496,1496,1496,1496,1496,1496,1496,1496,1496,1496,1496,1496,1496,1496,1496,1503,1503,1503,1503,1503,1503,1503,1496,1496,1496,1496,1496,1496,1489,1489,1496,1509,1509,1516,1516,0,0,0,0,0,0,0,0,0,0,0,691,691,690,690,690,688,687,686,684,684,683,679,679,678,676,676,676,676,676,676,676,678,679,680,680,683,684,687,687,690,690,691,693,694,696,696,0,0,0,0,0,0,0,0,1241,1241,1245,1245,1250,1250,1255,1259,1259,1259,1264,1264,1264,1470,1470,1470,1470,1464,1464,1464,1464,1464,1464,1464,1464,1458,1458,1458,1458,1458,1458,1458,1458,1458,1458,1458,1452,1452,1458,1452,1452,1452,1452,1452,1452,1452,1452,1445,1445,1445,1452,1452,1452,1452,1452,1452,1452,1452,1452,1452,1452,1452,1445,1445,1445,1445,1445,1445,1445,1445,1445,1445,1445,1445,1445,1445,1445,1445,1445,1445,1439,1439,1439,1439,1439,1439,1439,1439,1433,1433,1439,1439,1433,1427,1421,1421,1415,1415,1415,1038,1038,1038,1038,1038,1038,1038,1034,1031,1028,1028,1028,1025,1025,1025,1025,1025,1028,1031,1034,1038,1041,1044,1047,1047,1047,1050,1050,1421,1421,1421,1421,1421,1421,1421,1421,1421,1421,1421,1421,1421,1421,1421,1415,1415,1415,1415,1415,1415,1415,1415,1415,1415,1415,1415,1415,1415,1415,1415,1415,1415,1410,1410,1410,1410,1410,1410,1410,1410,1410,1410,1410,1410,1410,1410,1410,1410,1410,1410,1404,1404,1404,1404,1404,1404,1404,1404,1404,1404,1404,1404,1404,1398,1398,1398,1398,1398,1398,1398,1398,1398,1404,1398,1398,1398,1398,1392,1392,1392,1392,1392,1392,1398,1398,1398,1398,1398,1398,1398,1398,1392,1392,1392,1392,1392,1392,1387,1387,1387,1387,1387,1387,1387,1387,1387,1387,1387,1387,1387,1387,1387,1381,1381,1381,1381,1381,1381,1376,1376,1381,1381,1376,1376,1376,1376,1376,1376,1376,1370,1370,1370,1370,1370,1365,1365,1359,1359,1354,1354,1354,1354,1349,1349,1349,1349,1349,1349,1343,1343,1343,1338,1338,1333,1333,1333,1333,1333,1328,1328,1328,1328,1328,1322,1322,1322,1322,1317,1312,1312,1312,1312,1307,1307,1307,1307,1149,1145,1145,1141,1141,1141,1138,1138,1134,1134,1134,1130,1126,1126,1123,1123,1119,1119,1119,1119,1123,1126,1126,1126,1126,1119,1119,1115,1112,1108,1105,1097,1094,1090,1090,1090,1084,1084,1090,0,0,0,0,0,0,0,0,0,0,0,0,0,0,0,0,0,0,0,0,0,0,0,0,0,0,0,0,0,0,0
0,0,0,0,0,0,0,0,0,0,0,0,1550,1550,1543,1536,1536,1536,1536,1536,1536,1536,1543,1543,1543,1543,1543,1543,1536,1536,1536,1536,1536,1536,1536,1536,1536,1543,1543,1529,1529,1523,1523,1529,1529,1536,1536,1529,1529,1529,1529,1523,1523,1523,1523,1523,1523,1523,1523,1523,1523,1523,1529,1529,1529,1529,1529,1529,1529,1529,1529,1529,1536,1523,1523,1523,1516,1516,1523,1523,1523,0,0,0,0,0,0,0,0,0,933,933,933,933,928,928,925,925,925,925,925,925,925,928,930,933,935,935,935,935,938,938,938,940,940,940,946,0,0,0,0,1509,1509,1509,1509,1509,1503,1503,1509,1509,1509,1509,1509,1509,1509,1509,1509,1509,1509,1516,1516,1509,1509,1509,1509,1509,1509,1509,1509,1509,1509,1509,1509,1509,1503,1503,1503,1496,1496,1496,1496,1496,1496,1496,1496,1503,1496,1496,1496,1496,1496,1496,1489,1489,1489,1489,1489,1496,1489,1489,1489,1489,1496,1496,1496,1489,1489,1489,1489,1489,1489,1489,1496,1496,1496,1496,1496,1496,1496,1489,1489,1489,1489,1489,1489,1489,1489,1489,1509,1516,1516,0,0,0,0,0,0,0,0,0,0,0,691,691,691,690,690,688,688,687,686,686,684,683,680,680,678,676,676,676,676,676,678,678,679,680,682,683,686,687,688,690,690,691,694,696,697,697,698,0,0,0,0,0,0,0,1245,1245,1250,1250,1250,1255,1255,1259,1259,1264,1264,1264,1264,1464,1464,1464,1464,1464,1464,1458,1458,1458,1458,1458,1458,1458,1458,1452,1452,1452,1452,1452,1452,1452,1452,1452,1452,1452,1452,1452,1452,1452,1452,1452,1452,1445,1445,1445,1445,1445,1445,1445,1445,1445,1445,1445,1445,1445,1445,1445,1445,1445,1445,1445,1445,1439,1439,1439,1439,1439,1439,1439,1439,1439,1439,1439,1439,1439,1439,1439,1439,1439,1433,1433,1433,1433,1433,1433,1433,1433,1433,1433,1427,1421,1415,1415,1415,1415,0,0,1038,1038,1038,1038,1038,1038,1034,1031,1031,1028,1028,1028,1028,1028,1028,1028,1028,1031,1034,1038,1041,1044,1047,1050,1050,1054,1054,1415,1415,1415,1415,1415,1415,1415,1415,1415,1415,1415,1415,1415,1415,1415,1415,1415,1410,1410,1410,1410,1410,1410,1410,1410,1410,1410,1415,1415,1415,1415,1415,1410,1410,1404,1404,1404,1404,1404,1404,1404,1404,1404,1404,1404,1404,1404,1404,1404,1398,1398,1398,1398,1398,1398,1398,1398,1398,1398,1398,1398,1398,1398,1398,1398,1398,1398,1398,1398,1398,1398,1398,1398,1398,1392,1392,1392,1392,1392,1392,1387,1387,1387,1387,1392,1392,1392,1392,1392,1392,1392,1392,1392,1392,1392,1387,1387,1387,1387,1387,1381,1381,1381,1381,1381,1381,1381,1381,1381,1376,1376,1376,1376,1376,1376,1376,1376,1376,1376,1376,1370,1370,1370,1370,1370,1370,1370,1370,1370,1370,1370,1370,1370,1365,1365,1365,1359,1359,1354,1354,1354,1354,1354,1349,1349,1349,1349,1349,1349,1349,1343,1343,1343,1338,1338,1333,1333,1333,1333,1333,1328,1328,1328,1328,1322,1322,1322,1322,1317,1312,1312,1312,1312,1307,1307,1307,1307,1149,1149,1149,1145,1141,1141,1141,1138,1134,1134,1130,1130,1126,1126,1123,1123,1123,1123,1123,1123,1123,1126,1126,1126,1123,1119,1115,1112,1108,1105,1101,1097,1094,1090,1087,1087,1073,1073,0,0,0,0,0,0,0,0,0,0,0,0,0,0,0,0,0,0,0,0,0,0,0,0,0,0,0,0,0,0,0,0
0,0,0,0,0,0,0,0,0,0,0,0,1543,1543,1536,1536,1536,1529,1529,1529,1536,1536,1536,1536,1536,1536,1536,1536,1536,1536,1536,1536,1536,1536,1536,1536,1536,1536,1536,1536,1536,1516,1516,1529,1529,1529,1529,1529,1523,1523,1523,1516,1516,1516,1516,1516,1516,1516,1516,1516,1516,1516,1516,1516,1516,1516,1516,1516,1523,1523,1523,1516,1516,1516,1516,1516,1509,1509,1516,1516,1516,1516,1516,0,0,0,0,0,0,0,935,933,933,933,930,928,928,928,925,925,925,925,925,928,930,933,935,935,935,935,938,938,940,943,943,943,946,0,0,0,0,0,1503,1503,1503,1503,1503,1503,1496,1496,1503,1503,1503,1503,1503,1503,1503,1503,1503,1509,1509,1509,1509,1509,1509,1509,1509,1503,1503,1509,1503,1503,1503,1503,1496,1496,1489,1489,1496,1496,1496,1496,1489,1489,1489,1489,1489,1489,1489,1489,1489,1489,1489,1489,1489,1489,1489,1489,1489,1489,1489,1489,1489,1496,1489,1489,1489,1489,1489,1489,1489,1489,1489,1489,1489,1489,1489,1489,1489,1489,1489,1489,1483,1483,1483,1483,1483,1489,1509,1516,0,0,0,0,0,0,0,0,0,0,0,0,693,693,691,690,690,690,688,688,687,686,686,683,682,680,679,679,678,678,678,678,679,679,679,680,682,683,686,687,688,690,691,693,696,697,697,697,698,0,0,0,0,0,0,0,0,1255,1255,1255,1255,1255,1255,1259,1259,1264,1264,1264,1264,1264,1458,1458,1458,1458,1458,1458,1458,1458,1458,1452,1452,1452,1445,1445,1445,1445,1445,1445,1445,1445,1445,1445,1445,1445,1445,1445,1445,1445,1445,1439,1439,1439,1439,1439,1439,1439,1445,1445,1439,1439,1439,1439,1439,1439,1439,1445,1445,1445,1445,1439,1439,1439,1439,1439,1439,1439,1439,1439,1439,1439,1439,1439,1439,1439,1433,1433,1433,1433,1433,1427,1427,1427,1427,1427,1427,1427,1427,1427,1421,1415,1410,1410,1410,1410,1410,1038,1038,1038,1038,1038,1038,1038,1038,1034,1034,1031,1028,1028,1028,1028,1028,1028,1028,1031,1034,1038,1041,1047,1050,1050,1050,1050,1050,1410,1410,1410,1410,1410,1410,1410,1410,1410,1410,1410,1410,1410,1410,1410,1410,1410,1404,1404,1404,1404,1404,1404,1404,1404,1404,1404,1404,1410,1404,1404,1410,1404,1404,1398,1398,1398,1398,1398,1398,1398,1398,1398,1398,1398,1398,1398,1398,1398,1392,1392,1392,1392,1392,1392,1392,1392,1392,1392,1392,1392,1392,1398,1398,1398,1398,1398,1392,1392,1392,1392,1392,1392,1392,1392,1387,1387,1387,1387,1387,1387,1381,1381,1381,1381,1381,1387,1387,1387,1387,1387,1387,1387,1381,1381,1381,1381,1381,1381,1381,1381,1376,1376,1376,1376,1376,1376,1376,1376,1376,1376,1376,1376,1376,1370,1370,1370,1370,1370,1370,1370,1370,1370,1365,1365,1359,1359,1370,1370,1370,1365,1365,1365,1365,1359,1359,1359,1354,1354,1354,1354,1354,1354,1349,1349,1349,1349,1349,1349,1349,1349,1343,1343,1338,1338,1338,1333,1333,1333,1333,1333,1328,1328,1328,1328,1322,1322,1322,1317,1317,1312,1312,1312,1312,1307,1307,1307,1149,1149,1149,1149,1145,1145,1141,1138,1134,1130,1130,1126,1123,1123,1123,1123,1123,1123,1123,1123,1123,1126,1126,1123,1119,1115,1112,1108,1105,1101,1101,1094,1090,1087,1087,1084,1073,1073,0,0,0,0,0,0,0,0,0,0,0,0,0,0,0,0,0,0,0,0,0,0,0,0,0,0,0,0,0,0,0,0
0,0,0,0,0,0,0,0,0,0,0,0,1536,1536,1529,1516,1516,1516,1516,1523,1529,1529,1529,1529,1536,1529,1529,1536,1529,1529,1529,1529,1529,1529,1529,1523,1523,1516,1516,1529,1529,1516,1516,1523,1529,1523,1523,1523,1516,1516,1516,1516,1516,1509,1509,1516,1516,1516,1516,1516,1509,1509,1509,1509,1509,1509,1516,1516,1516,1516,1516,1516,1516,1516,1516,1516,1509,1509,1509,1509,1516,1516,1516,0,0,0,0,0,0,0,0,933,933,933,930,930,928,928,925,925,925,925,925,928,930,933,935,935,935,938,938,940,940,943,943,946,946,946,946,0,0,0,1489,1489,1496,1496,1496,1496,1496,1496,1496,1489,1489,1496,1496,1496,1496,1496,1496,1503,1503,1503,1503,1503,1503,1496,1496,1496,1496,1503,1496,1496,1496,1489,1489,1489,1489,1489,1489,1489,1489,1489,1489,1489,1489,1489,1489,1489,1489,1489,1489,1489,1489,1483,1483,1483,1483,1489,1489,1489,1489,1489,1489,1489,1489,1483,1483,1483,1483,1483,1483,1483,1483,1483,1483,1483,1483,1483,1483,1483,1483,1483,1483,1483,1483,1483,1483,1483,1509,0,0,0,0,0,0,0,0,0,0,0,0,0,693,693,691,691,691,690,690,688,687,687,686,683,682,682,680,679,679,679,679,679,679,679,680,680,682,684,686,687,688,691,693,696,697,697,698,698,698,0,0,0,0,0,0,0,0,1255,1255,1255,1255,1255,1259,1259,1259,1264,1264,1264,1264,1264,1458,1452,1452,1452,1452,1452,1452,1452,1452,1452,1445,1445,1445,1439,1439,1439,1439,1439,1439,1439,1439,1439,1439,1439,1439,1439,1439,1439,1439,1439,1439,1439,1439,1433,1433,1433,1439,1439,1439,1439,1439,1439,1439,1439,1439,1439,1433,1433,1433,1439,1439,1439,1433,1433,1433,1433,1433,1433,1433,1433,1433,1433,1433,1433,1427,1427,1427,1427,1427,1421,1421,1421,1421,1421,1421,1421,1421,1421,1415,1415,1410,1410,1410,1410,1410,1038,1038,1038,1041,1041,1041,1038,1038,1038,1034,1031,1028,1028,1028,1028,1028,1028,1031,1034,1038,1041,1044,1047,1050,1050,1050,1050,1054,1410,1410,1410,1410,1410,1404,1404,1404,1404,1404,1404,1404,1404,1404,1404,1404,1404,1404,1404,1398,1398,1398,1398,1398,1398,1404,1404,1404,1404,1404,1404,1404,1398,1398,1398,1398,1398,1398,1392,1392,1392,1392,1392,1392,1392,1392,1392,1392,1392,1392,1387,1387,1392,1392,1392,1392,1392,1392,1392,1392,1392,1392,1392,1392,1392,1392,1392,1392,1392,1392,1392,1387,1387,1387,1387,1381,1381,1381,1381,1381,1381,1376,1376,1376,1376,1376,1381,1381,1381,1381,1381,1381,1381,1381,1381,1376,1376,1376,1376,1376,1376,1376,1370,1370,1370,1370,1370,1370,1370,1370,1370,1370,1370,1370,1370,1370,1370,1370,1370,1370,1365,1365,1365,1365,1359,1359,1359,1359,1359,1359,1359,1365,1359,1359,1359,1354,1354,1354,1354,1354,1354,1354,1354,1349,1349,1349,1349,1349,1349,1349,1349,1343,1343,1338,1338,1338,1333,1333,1333,1333,1333,1333,1328,1328,1328,1322,1322,1322,1317,1317,1317,1312,1312,1312,1307,1307,1307,1149,1149,1149,1149,1145,1145,1141,1138,1134,1130,1126,1126,1123,1123,1123,1123,1123,1123,1123,1123,1126,1126,1123,1123,1115,1112,1108,1108,1101,1097,1097,1090,1087,1084,1084,1077,1070,1070,0,0,0,0,0,0,0,0,0,0,0,0,0,0,0,0,0,0,0,0,0,0,0,0,0,0,0,0,0,0,0,0
0,0,0,0,0,0,0,0,0,0,0,0,1536,1529,1523,1516,1516,1516,1516,1516,1523,1523,1529,1529,1523,1523,1523,1523,1516,1516,1523,1523,1523,1523,1523,1523,1523,1516,1516,1523,1516,1516,1516,1516,1523,1523,1516,1516,1516,1516,1509,1509,1509,1509,1509,1509,1509,1509,1509,1503,1503,1503,1503,1503,1503,1503,1509,1509,1509,1509,1509,1509,1509,1509,1509,1516,1516,1516,1509,1509,1509,1516,1516,0,0,0,0,0,0,0,0,0,935,933,933,930,928,928,928,928,925,925,928,928,933,933,935,935,938,938,940,940,943,943,943,946,946,946,0,0,0,0,1489,1489,1489,1489,1489,1489,1489,1489,1489,1489,1489,1489,1489,1489,1489,1489,1489,1489,1489,1489,1489,1489,1489,1489,1489,1489,1489,1489,1489,1489,1489,1483,1483,1483,1483,1483,1483,1483,1483,1483,1483,1483,1483,1483,1483,1483,1483,1483,1483,1483,1483,1483,1483,1483,1483,1483,1483,1483,1483,1483,1483,1483,1483,1483,1483,1483,1483,1483,1483,1477,1477,1477,1477,1483,1477,1477,1477,1477,1477,1470,1470,1470,1477,1477,1477,1477,0,0,0,0,0,0,0,0,0,0,0,0,0,0,0,694,693,693,693,691,691,690,688,688,687,684,683,682,680,680,680,680,680,680,680,680,680,682,684,686,688,688,691,691,693,696,697,697,698,698,698,0,0,0,0,0,0,0,1264,1259,1259,1259,1259,1259,1259,1259,1259,1264,1264,1264,1264,1264,1452,1452,1452,1452,1445,1445,1445,1445,1445,1445,1439,1439,1439,1439,1439,1439,1439,1439,1439,1439,1439,1439,1433,1433,1433,1439,1433,1433,1433,1433,1433,1433,1433,1433,1433,1433,1439,1439,1439,1433,1433,1433,1433,1433,1433,1433,1433,1427,1427,1427,1427,1427,1427,1433,1433,1427,1427,1433,1427,1427,1427,1427,1433,1427,1427,1427,1421,1421,1421,1421,1421,1421,1421,1421,1421,1421,1421,1415,1415,1410,1404,1404,1398,1398,1398,1041,1041,1041,1041,1041,1041,1041,1038,1038,1034,1031,1031,1028,1028,1031,1031,1031,1031,1034,1038,1044,1044,1047,1050,1050,1050,1050,1054,1398,1398,1398,1398,1404,1404,1404,1404,1404,1404,1404,1404,1404,1398,1398,1398,1398,1398,1398,1398,1398,1398,1398,1398,1398,1398,1398,1398,1398,1398,1398,1398,1398,1392,1392,1392,1392,1392,1392,1392,1392,1392,1392,1392,1392,1392,1387,1387,1392,1387,1387,1387,1387,1387,1387,1381,1381,1387,1387,1387,1387,1387,1387,1387,1387,1387,1387,1387,1387,1387,1387,1387,1381,1381,1381,1376,1376,1381,1376,1376,1376,1376,1370,1370,1376,1376,1376,1376,1376,1376,1381,1376,1376,1376,1376,1376,1370,1370,1370,1370,1370,1370,1370,1370,1370,1370,1370,1370,1370,1370,1370,1370,1365,1365,1365,1365,1365,1359,1359,1359,1359,1354,1354,1354,1354,1354,1354,1354,1354,1354,1354,1354,1354,1354,1354,1354,1354,1354,1354,1354,1354,1354,1349,1349,1349,1349,1349,1349,1349,1343,1343,1343,1343,1343,1338,1338,1338,1333,1333,1333,1333,1333,1328,1328,1328,1322,1322,1322,1322,1317,1317,1312,1312,1312,1312,1312,1312,1312,1149,1149,1149,1145,1145,1141,1138,1134,1130,1126,1126,1123,1123,1123,1123,1123,1123,1126,1126,1126,1126,1123,1119,1115,1112,1108,1105,1097,1094,1094,1090,1084,1084,1080,1073,1067,1067,0,0,0,0,0,0,0,0,0,0,0,0,0,0,0,0,0,0,0,0,0,0,0,0,0,0,0,0,0,0,0,0
0,0,0,0,0,0,0,0,0,0,0,1523,1523,1516,1516,1516,1516,1516,1516,1516,1516,1516,1509,1509,1509,1509,1509,1516,1509,1509,1516,1516,1516,1516,1516,1516,1516,1516,1516,1516,1516,1516,1516,1516,1516,1516,1516,1509,1509,1509,1509,1509,1509,1503,1503,1503,1503,1509,1503,1503,1503,1503,1503,1503,1503,1503,1503,1503,1509,1509,1509,1509,1503,1503,1503,1509,1509,1509,1509,1509,1509,1509,1509,1509,0,0,0,0,0,0,0,0,935,935,933,933,930,930,930,928,928,928,928,928,933,935,935,935,938,938,940,940,943,943,946,946,946,948,0,0,0,0,1483,1483,1483,1483,1483,1483,1483,1483,1489,1489,1489,1483,1483,1483,1483,1483,1483,1483,1483,1483,1483,1483,1483,1483,1483,1483,1483,1489,1489,1483,1483,1483,1483,1483,1483,1483,1483,1477,1477,1483,1477,1477,1483,1483,1483,1483,1483,1477,1477,1477,1477,1477,1477,1477,1477,1483,1483,1483,1483,1483,1477,1477,1477,1477,1477,1477,1477,1477,1477,1477,1477,1477,1477,1477,1470,1470,1470,1470,1470,1470,1464,1464,1464,1464,1464,1464,0,0,0,0,0,0,0,0,0,0,0,0,0,0,0,0,694,694,693,693,691,691,690,688,687,686,683,683,682,680,680,680,680,680,680,680,680,682,684,687,688,690,693,693,694,696,697,697,698,698,0,0,0,0,0,0,0,0,1259,1259,1259,1259,1259,1259,1259,1264,1264,1264,1268,1268,1268,1273,1439,1439,1439,1439,1439,1439,1439,1439,1439,1439,1439,1439,1433,1433,1433,1433,1433,1433,1433,1433,1433,1433,1433,1433,1433,1433,1433,1433,1433,1433,1433,1433,1433,1433,1433,1433,1439,1433,1433,1433,1427,1427,1427,1427,1427,1427,1427,1427,1421,1421,1421,1421,1421,1421,1421,1421,1421,1427,1427,1421,1421,1421,1421,1421,1421,1421,1421,1421,1415,1415,1415,1415,1415,1415,1415,1415,1415,1410,1410,1404,1398,1398,1392,1392,1392,1387,1041,1041,1041,1041,1041,1041,1041,1038,1038,1034,1031,1031,1031,1031,1031,1031,1034,1038,1041,1044,1047,1050,1050,1050,1050,1054,1054,1387,1392,1392,1398,1398,1398,1398,1398,1398,1398,1398,1398,1398,1398,1398,1398,1398,1398,1398,1398,1398,1392,1392,1392,1392,1398,1398,1398,1398,1392,1392,1392,1392,1392,1387,1387,1387,1387,1387,1392,1387,1387,1387,1387,1387,1387,1387,1387,1387,1381,1381,1387,1381,1381,1381,1381,1381,1381,1381,1381,1381,1381,1381,1381,1381,1381,1381,1381,1381,1376,1376,1376,1376,1381,1376,1376,1376,1376,1376,1376,1370,1370,1370,1370,1370,1370,1370,1376,1376,1376,1376,1376,1376,1370,1370,1370,1370,1370,1365,1365,1365,1365,1365,1365,1365,1365,1365,1365,1365,1365,1365,1359,1359,1359,1359,1359,1359,1354,1354,1359,1354,1354,1354,1354,1354,1354,1354,1354,1354,1354,1354,1349,1349,1349,1349,1349,1349,1349,1349,1354,1349,1349,1349,1349,1349,1349,1349,1349,1343,1343,1343,1343,1343,1343,1343,1338,1338,1333,1333,1333,1333,1333,1328,1328,1328,1328,1322,1322,1322,1317,1317,1317,1312,1312,1312,1312,1312,1312,1145,1145,1145,1145,1141,1138,1134,1130,1126,1123,1123,1123,1123,1123,1123,1123,1126,1126,1126,1126,1126,1123,1115,1115,1108,1105,1105,1097,1094,1090,1087,1084,1080,1080,1070,1067,1067,0,0,0,0,0,0,0,0,0,0,0,0,0,0,0,0,0,0,0,0,0,0,0,0,0,0,0,0,0,0,0,0
0,0,0,0,0,0,0,0,0,0,0,1516,1516,1516,1516,1516,1516,1516,1516,1516,1509,1509,1503,1496,1496,1503,1503,1509,1509,1509,1509,1509,1509,1509,1509,1509,1509,1509,1509,1503,1503,1509,1509,1509,1509,1509,1509,1509,1509,1503,1503,1503,1503,1503,1503,1503,1503,1503,1503,1503,1496,1496,1496,1496,1496,1503,1503,1503,1503,1503,1503,1503,1496,1489,1489,1509,1509,1503,1503,1503,1503,1503,1503,1503,0,0,0,0,0,0,0,0,0,938,933,933,930,930,930,930,930,928,928,930,933,935,935,938,938,938,940,943,943,943,946,948,948,948,0,0,0,0,1483,1483,1483,1483,1483,1483,1483,1483,1483,1483,1483,1483,1483,1477,1477,1477,1477,1477,1477,1477,1477,1477,1477,1483,1483,1483,1477,1477,1483,1477,1477,1477,1477,1477,1477,1477,1477,1477,1477,1477,1477,1477,1477,1477,1477,1477,1477,1477,1470,1470,1477,1477,1477,1477,1477,1477,1477,1477,1477,1477,1477,1470,1470,1470,1470,1470,1470,1470,1470,1470,1464,1464,1470,1470,1464,1464,1464,1464,1464,1464,1458,1458,1458,1458,1458,1464,1464,0,0,0,0,0,0,0,0,0,0,0,0,0,0,0,696,696,694,693,693,691,690,690,688,686,684,683,683,682,680,680,680,680,682,682,682,683,686,687,688,690,693,693,694,696,697,698,700,700,700,0,0,0,0,0,0,0,1259,1259,1259,1259,1259,1259,1264,1264,1264,1268,1268,1268,1268,1273,1439,1439,1439,1439,1439,1439,1439,1439,1439,1433,1433,1433,1433,1433,1433,1433,1427,1427,1433,1433,1433,1433,1433,1433,1427,1427,1427,1427,1427,1427,1427,1427,1427,1427,1427,1427,1433,1433,1433,1427,1427,1427,1427,1427,1427,1421,1421,1421,1421,1421,1421,1415,1415,1415,1415,1415,1415,1415,1415,1415,1421,1421,1421,1415,1415,1415,1415,1415,1415,1415,1415,1415,1415,1415,1415,1410,1410,1410,1404,1404,1398,1392,1387,1387,1387,1387,1044,1044,1044,1044,1044,1044,1041,1041,1038,1038,1034,1034,1034,1034,1034,1034,1034,1038,1041,1047,1047,1050,1050,1050,1050,1387,1387,1387,1392,1392,1392,1398,1398,1398,1392,1392,1392,1392,1392,1392,1392,1392,1392,1392,1392,1392,1392,1392,1392,1392,1392,1392,1392,1392,1392,1392,1392,1392,1387,1387,1387,1387,1387,1387,1387,1387,1387,1387,1387,1387,1387,1387,1381,1381,1381,1381,1381,1381,1381,1376,1376,1381,1376,1376,1376,1376,1376,1376,1376,1376,1376,1376,1376,1376,1376,1376,1376,1376,1376,1376,1376,1376,1370,1370,1376,1376,1376,1370,1370,1370,1370,1370,1370,1370,1370,1370,1370,1370,1370,1370,1370,1365,1365,1365,1365,1365,1359,1359,1359,1365,1365,1365,1365,1365,1365,1359,1359,1359,1359,1359,1359,1359,1359,1359,1354,1354,1354,1354,1349,1349,1349,1349,1349,1349,1349,1349,1349,1349,1349,1349,1349,1349,1349,1349,1349,1349,1349,1349,1349,1349,1343,1343,1343,1343,1343,1343,1343,1343,1343,1343,1343,1338,1338,1338,1338,1338,1333,1333,1333,1328,1328,1328,1328,1328,1322,1322,1322,1322,1317,1317,1312,1312,1312,1312,1312,1145,1145,1145,1145,1141,1138,1134,1130,1126,1123,1123,1123,1123,1123,1123,1126,1126,1126,1126,1126,1126,1119,1115,1108,1105,1097,1097,1094,1090,1090,1084,1080,1077,1070,1067,1063,1063,0,0,0,0,0,0,0,0,0,0,0,0,0,0,0,0,0,0,0,0,0,0,0,0,0,0,0,0,0,0,0,0
0,0,0,0,0,0,0,0,0,0,0,1509,1509,1509,1509,1509,1509,1509,1503,1503,1503,1503,1503,1496,1496,1503,1503,1503,1503,1503,1503,1503,1503,1503,1503,1503,1503,1503,1489,1489,1496,1503,1503,1503,1503,1503,1503,1503,1503,1496,1496,1496,1496,1496,1496,1496,1503,1503,1503,1503,1496,1496,1496,1496,1496,1496,1503,1503,1496,1496,1496,1496,1496,1489,1489,1496,1496,1503,1496,1496,1483,1483,1483,1483,1483,0,0,0,0,0,0,0,0,940,938,933,933,930,930,930,930,930,930,930,933,935,938,938,940,940,943,943,943,946,948,951,951,954,954,0,0,0,1483,1470,1470,1477,1477,1477,1477,1477,1477,1477,1483,1483,1477,1477,1477,1477,1470,1470,1470,1477,1470,1470,1470,1477,1477,1470,1470,1470,1470,1470,1470,1470,1470,1477,1470,1470,1470,1470,1470,1470,1470,1470,1470,1470,1470,1470,1470,1470,1470,1470,1470,1470,1470,1470,1470,1470,1470,1470,1470,1470,1464,1464,1464,1464,1464,1464,1464,1464,1464,1464,1464,1464,1464,1464,1464,1458,1458,1458,1458,1458,1452,1452,1452,1452,1458,1458,1458,0,0,0,0,0,0,0,0,0,0,0,0,0,0,0,697,697,694,694,693,693,691,690,688,686,686,684,683,682,682,682,682,682,682,682,683,683,686,687,688,690,691,693,694,696,697,698,700,700,700,0,0,0,0,0,0,0,0,1259,1259,1259,1259,1259,1264,1264,1264,1268,1268,1268,1273,1273,1439,1433,1433,1433,1433,1433,1433,1433,1433,1433,1433,1433,1433,1433,1427,1427,1427,1427,1427,1427,1427,1427,1427,1427,1421,1421,1421,1421,1421,1421,1421,1421,1421,1421,1421,1421,1427,1427,1427,1421,1421,1421,1421,1421,1421,1421,1421,1421,1415,1415,1415,1415,1415,1415,1415,1415,1415,1410,1410,1410,1410,1410,1404,1404,1410,1410,1410,1410,1410,1410,1410,1410,1410,1410,1410,1404,1404,1404,1404,1398,1398,1392,1387,1387,1387,1387,1047,1047,1047,1044,1044,1044,1041,1041,1041,1038,1038,1038,1034,1034,1038,1038,1038,1038,1041,1047,1047,1050,1050,1050,1050,1387,1387,1387,1387,1387,1392,1392,1392,1392,1392,1392,1392,1381,1381,1381,1381,1381,1387,1392,1392,1392,1392,1392,1392,1392,1392,1392,1392,1392,1392,1392,1381,1381,1381,1381,1381,1381,1381,1381,1381,1381,1381,1381,1381,1381,1381,1381,1376,1376,1376,1376,1376,1376,1376,1376,1376,1376,1376,1376,1376,1376,1376,1376,1376,1370,1370,1370,1370,1370,1370,1370,1370,1370,1370,1370,1370,1370,1370,1370,1370,1365,1365,1365,1365,1365,1365,1365,1365,1365,1365,1365,1365,1365,1365,1365,1365,1359,1359,1359,1359,1359,1354,1354,1359,1359,1359,1359,1354,1354,1354,1354,1354,1354,1354,1354,1354,1354,1354,1354,1354,1354,1349,1349,1349,1349,1349,1349,1349,1343,1343,1343,1343,1343,1343,1343,1343,1343,1343,1343,1343,1343,1343,1343,1338,1338,1333,1333,1343,1343,1343,1338,1338,1338,1338,1338,1338,1338,1333,1333,1333,1333,1333,1333,1333,1328,1328,1328,1328,1328,1328,1322,1322,1322,1317,1317,1317,1317,1312,1312,1317,1145,1145,1145,1141,1138,1134,1130,1126,1123,1123,1123,1123,1123,1123,1126,1126,1126,1130,1130,1130,1126,1115,1112,1108,1105,1097,1094,1090,1087,1084,1084,1080,1077,1067,1067,1063,1063,0,0,0,0,0,0,0,0,0,0,0,0,0,0,0,0,0,0,0,0,0,0,0,0,0,0,0,0,0,0,0,0
0,0,0,0,0,0,0,0,0,0,0,1503,1503,1509,1509,1503,1503,1503,1503,1503,1503,1503,1496,1496,1496,1496,1496,1503,1503,1503,1503,1503,1503,1503,1496,1496,1496,1496,1489,1489,1496,1496,1489,1489,1489,1496,1496,1496,1496,1489,1489,1496,1496,1489,1489,1496,1496,1496,1496,1496,1489,1489,1489,1489,1489,1496,1496,1496,1489,1489,1489,1489,1489,1489,1489,1489,1489,1489,1489,1483,1483,1483,1483,1483,1483,1483,0,0,0,0,0,0,0,940,938,935,933,933,933,933,933,933,933,933,933,935,938,938,940,940,943,943,946,946,948,951,951,951,954,954,0,1470,1470,1470,1470,1470,1470,1477,1477,1477,1477,1477,1477,1477,1470,1470,1470,1470,1470,1464,1464,1470,1464,1464,1464,1464,1470,1464,1464,1464,1464,1464,1464,1464,1470,1470,1470,1464,1464,1464,1464,1464,1464,1464,1464,1464,1464,1464,1464,1464,1464,1464,1464,1464,1464,1464,1464,1464,1464,1464,1464,1464,1464,1458,1458,1458,1458,1458,1458,1458,1458,1458,1458,1458,1458,1458,1458,1458,1458,1458,1452,1452,1445,1445,1452,1452,1149,1145,1145,1145,0,0,0,0,0,0,0,0,0,0,0,0,0,0,698,697,696,696,694,693,691,691,690,688,686,686,684,683,683,682,682,682,682,683,683,684,686,687,690,690,691,693,694,697,697,698,700,700,700,701,0,0,0,0,0,0,0,1259,1259,1259,1264,1264,1264,1264,1264,1268,1268,1268,1273,1273,1278,1433,1433,1433,1433,1433,1433,1427,1427,1427,1427,1421,1421,1421,1427,1421,1421,1421,1421,1421,1421,1421,1421,1421,1415,1415,1415,1415,1415,1415,1415,1415,1421,1415,1415,1415,1421,1421,1415,1415,1415,1415,1415,1415,1415,1415,1415,1415,1415,1410,1410,1410,1410,1410,1410,1410,1410,1404,1404,1404,1404,1404,1404,1404,1404,1404,1404,1404,1404,1404,1410,1404,1404,1404,1404,1398,1398,1398,1398,1398,1392,1392,1387,1387,1387,1387,1050,1050,1050,1047,1047,1047,1044,1044,1041,1041,1038,1038,1038,1038,1038,1038,1038,1041,1041,1047,1047,1050,1050,1050,1050,1381,1381,1381,1381,1381,1387,1387,1392,1392,1392,1387,1381,1381,1381,1381,1381,1376,1376,1381,1381,1381,1387,1387,1387,1387,1387,1387,1387,1387,1387,1381,1381,1376,1376,1376,1376,1376,1376,1376,1376,1376,1381,1381,1376,1376,1376,1376,1376,1376,1376,1376,1376,1376,1376,1370,1370,1376,1376,1376,1370,1370,1370,1370,1370,1370,1370,1370,1370,1370,1370,1370,1365,1365,1365,1365,1365,1365,1365,1365,1365,1365,1359,1359,1354,1354,1359,1359,1359,1359,1365,1359,1359,1359,1359,1359,1359,1359,1354,1354,1354,1354,1354,1354,1354,1354,1354,1354,1354,1354,1354,1349,1349,1354,1354,1349,1349,1349,1349,1349,1349,1349,1349,1343,1343,1343,1343,1343,1343,1338,1338,1343,1343,1343,1343,1338,1338,1338,1338,1338,1343,1343,1338,1338,1338,1333,1333,1333,1328,1328,1328,1333,1333,1333,1333,1333,1333,1333,1333,1333,1333,1333,1333,1333,1333,1328,1328,1328,1328,1328,1328,1322,1322,1322,1322,1322,1322,1317,1317,1317,1317,1145,1145,1145,1138,1134,1134,1130,1126,1123,1123,1123,1123,1123,1123,1126,1126,1126,1126,1126,1126,1123,1115,1112,1105,1101,1094,1090,1087,1084,1080,1080,1073,1070,1067,1063,1063,1063,0,0,0,0,0,0,0,0,0,0,0,0,0,0,0,0,0,0,0,0,0,0,0,0,0,0,0,0,0,0,0,0
0,0,0,0,0,0,0,0,0,0,0,1503,1503,1503,1503,1496,1496,1496,1489,1489,1496,1496,1496,1496,1496,1496,1496,1489,1489,1496,1496,1496,1496,1496,1496,1496,1496,1496,1489,1489,1489,1489,1489,1489,1489,1489,1489,1489,1489,1489,1489,1489,1489,1489,1489,1489,1483,1483,1483,1483,1483,1483,1483,1483,1489,1489,1489,1489,1483,1483,1483,1483,1483,1483,1477,1477,1483,1483,1483,1483,1483,1483,1483,1483,1483,1483,1483,0,0,0,0,0,0,940,940,938,935,933,933,933,933,933,933,933,933,935,938,938,940,943,943,946,946,946,948,954,951,951,954,954,0,0,1470,1470,1470,1470,1470,1470,1470,1470,1470,1470,1470,1470,1464,1464,1464,1464,1464,1464,1464,1464,1464,1464,1464,1464,1464,1464,1464,1464,1464,1464,1458,1458,1458,1458,1458,1458,1464,1464,1464,1464,1464,1464,1464,1464,1464,1464,1464,1464,1458,1458,1464,1464,1458,1458,1458,1458,1458,1452,1452,1452,1452,1452,1452,1452,1452,1452,1452,1452,1452,1452,1452,1452,1452,1452,1452,1452,1452,1445,1445,1445,1445,1445,1445,1445,1145,1145,1145,1145,1145,1145,1145,1145,1145,0,0,0,0,0,0,0,0,703,700,698,697,696,694,693,693,691,691,690,688,686,686,684,683,683,683,683,683,683,684,684,686,687,690,691,691,694,696,697,698,701,701,701,701,701,0,0,0,0,0,0,0,0,1259,1259,1264,1264,1264,1264,1268,1268,1268,1273,1278,1278,1278,1433,1427,1427,1427,1421,1421,1421,1427,1421,1421,1421,1421,1421,1421,1421,1415,1415,1421,1421,1415,1415,1415,1415,1415,1415,1415,1415,1415,1415,1415,1415,1415,1415,1415,1415,1415,1415,1415,1415,1410,1410,1415,1415,1410,1410,1410,1410,1410,1410,1410,1410,1410,1410,1404,1404,1404,1404,1404,1404,1404,1404,1398,1398,1398,1398,1398,1398,1398,1398,1392,1392,1398,1398,1398,1398,1398,1398,1398,1392,1392,1392,1387,1387,1387,1387,0,1050,1050,1050,1050,1050,1047,1047,1044,1041,1041,1038,1038,1038,1038,1038,1041,1041,1044,1047,1050,1050,1050,1050,1050,1376,1376,1376,1381,1381,1381,1381,1387,1387,1381,1381,1381,1376,1376,1376,1376,1376,1376,1376,1376,1376,1376,1376,1376,1376,1381,1381,1381,1381,1381,1381,1376,1376,1376,1376,1376,1376,1376,1376,1376,1376,1376,1376,1376,1376,1376,1370,1370,1370,1376,1370,1370,1370,1370,1370,1370,1370,1370,1370,1365,1365,1370,1370,1370,1365,1365,1365,1365,1365,1365,1365,1365,1359,1359,1359,1365,1365,1359,1359,1359,1354,1354,1354,1354,1354,1354,1354,1354,1349,1349,1354,1354,1354,1354,1354,1354,1354,1354,1354,1354,1354,1354,1354,1349,1349,1354,1354,1349,1349,1349,1349,1349,1349,1349,1349,1349,1349,1349,1349,1343,1343,1338,1338,1338,1338,1338,1338,1338,1338,1338,1338,1338,1338,1338,1338,1333,1333,1338,1338,1338,1338,1338,1338,1333,1333,1333,1328,1328,1328,1328,1328,1328,1328,1322,1322,1328,1328,1328,1328,1328,1328,1333,1333,1210,1210,1210,1210,1206,1206,1206,1206,1322,1322,1322,1322,1322,1322,1322,1322,1141,1141,1141,1141,1134,1130,1130,1126,1126,1123,1123,1123,1123,1123,1123,1126,1126,1126,1126,1126,1126,1119,1115,1112,1105,1101,1094,1090,1084,1080,1080,1077,1070,1067,1063,1063,1060,1060,0,0,0,0,0,0,0,0,0,0,0,0,0,0,0,0,0,0,0,0,0,0,0,0,0,0,0,0,0,0,0,0
0,0,0,0,0,0,0,0,0,0,0,1503,1503,1496,1496,1489,1483,1483,1483,1483,1489,1489,1489,1489,1489,1489,1489,1489,1489,1489,1489,1489,1489,1489,1489,1489,1489,1489,1489,1489,1489,1489,1483,1483,1483,1483,1483,1483,1489,1483,1483,1489,1489,1489,1483,1483,1477,1477,1477,1483,1483,1483,1483,1483,1489,1483,1483,1483,1483,1477,1477,1477,1477,1483,1477,1477,1477,1483,1483,1477,1477,1477,1483,1477,1477,1477,1464,1464,0,0,0,0,0,943,940,940,938,935,935,933,933,933,933,933,935,935,938,940,943,943,943,946,946,948,951,954,954,954,954,954,0,0,1464,1464,1464,1464,1464,1464,1464,1464,1464,1464,1464,1464,1464,1464,1464,1464,1458,1458,1458,1458,1458,1458,1458,1458,1458,1458,1452,1452,1458,1458,1452,1452,1452,1452,1452,1452,1452,1452,1458,1458,1458,1458,1458,1458,1458,1458,1458,1458,1458,1458,1458,1458,1458,1458,1458,1458,1452,1452,1452,1452,1452,1445,1445,1445,1445,1452,1452,1452,1452,1452,1445,1445,1445,1445,1445,1445,1445,1439,1439,1439,1439,1439,1445,1445,1145,1145,1145,1145,1145,1145,1145,1145,1145,0,0,0,0,0,0,0,0,703,700,698,697,697,696,694,693,691,691,690,688,687,686,684,684,684,684,683,683,684,684,686,687,688,690,691,693,693,696,697,700,701,701,701,701,701,0,0,0,0,0,0,0,0,1259,1259,1264,1264,1264,1264,1268,1268,1273,1273,1278,1278,1278,1278,1427,1421,1415,1415,1415,1415,1415,1415,1415,1415,1415,1415,1415,1415,1415,1415,1415,1415,1415,1415,1415,1410,1410,1410,1410,1410,1410,1410,1410,1410,1415,1410,1410,1410,1410,1410,1410,1410,1410,1410,1410,1410,1410,1404,1404,1404,1404,1404,1404,1404,1404,1404,1404,1398,1398,1398,1398,1398,1398,1398,1398,1398,1398,1398,1398,1398,1392,1392,1392,1392,1392,1392,1392,1392,1392,1392,1392,1392,1392,1387,1387,1387,1381,1381,1381,0,1050,1050,1050,1050,1047,1047,1044,1041,1041,1041,1041,1038,1038,1041,1041,1041,1044,1050,1050,1050,1050,1054,1054,1376,1376,1376,1376,1376,1376,1376,1376,1381,1381,1381,1376,1376,1376,1370,1370,1370,1370,1370,1370,1370,1370,1370,1370,1370,1370,1370,1370,1370,1376,1376,1376,1376,1370,1370,1370,1376,1370,1370,1376,1376,1376,1376,1376,1370,1370,1370,1370,1370,1370,1370,1370,1370,1365,1365,1365,1365,1365,1365,1359,1359,1359,1365,1365,1359,1359,1359,1359,1359,1359,1359,1359,1359,1359,1359,1359,1354,1354,1354,1354,1349,1349,1349,1349,1349,1349,1349,1349,1349,1349,1349,1349,1349,1349,1349,1349,1349,1349,1349,1349,1349,1349,1349,1349,1349,1349,1349,1349,1349,1349,1349,1349,1349,1349,1343,1343,1343,1343,1338,1338,1338,1333,1333,1333,1333,1333,1333,1333,1333,1333,1333,1333,1333,1333,1333,1333,1333,1333,1333,1333,1333,1333,1333,1328,1328,1328,1328,1322,1322,1322,1322,1322,1322,1322,1322,1322,1322,1322,1328,1328,1328,1328,1328,1210,1210,1210,1210,1206,1206,1206,1206,1206,1202,1202,1202,1202,1202,1202,1202,0,1138,1138,1138,1134,1130,1126,1126,1123,1123,1123,1123,1123,1123,1123,1126,1126,1126,1126,1123,1123,1115,1112,1108,1101,1097,1090,1087,1084,1080,1077,1073,1070,1063,1063,1060,1060,1060,0,0,0,0,0,0,0,0,0,0,0,0,0,0,0,0,0,0,0,0,0,0,0,0,0,0,0,0,0,0,0,0
0,0,0,0,0,0,0,0,0,0,0,1503,1496,1489,1483,1477,1477,1477,1470,1470,1477,1483,1489,1489,1489,1483,1483,1477,1477,1483,1483,1483,1483,1483,1483,1483,1483,1483,1483,1483,1483,1483,1483,1477,1477,1477,1477,1477,1483,1483,1483,1483,1483,1483,1483,1477,1477,1470,1470,1477,1477,1477,1477,1477,1483,1477,1477,1477,1477,1470,1470,1477,1477,1477,1477,1477,1477,1477,1483,1477,1477,1477,1477,1477,1470,1470,1458,1452,1452,0,0,0,0,943,943,940,938,938,938,935,935,935,933,933,935,935,938,940,943,943,943,946,946,948,951,954,954,954,954,954,956,0,1464,1464,1464,1464,1464,1464,1464,1458,1458,1458,1458,1458,1458,1458,1458,1458,1458,1458,1458,1458,1458,1458,1458,1458,1458,1452,1452,1452,1452,1452,1452,1452,1445,1445,1445,1445,1445,1445,1445,1445,1445,1452,1452,1452,1452,1452,1458,1458,1458,1458,1458,1458,1458,1452,1452,1452,1452,1452,1445,1445,1445,1445,1439,1439,1439,1445,1445,1445,1445,1445,1439,1439,1439,1439,1439,1439,1439,1439,1439,1439,1439,1439,1145,1145,1145,1145,1145,1149,1149,1145,1145,1145,1145,0,0,0,0,0,0,0,0,0,700,698,698,697,696,694,693,693,691,691,690,688,687,686,686,684,684,684,684,684,684,686,687,688,690,691,693,693,697,698,700,701,703,703,703,703,0,0,0,0,0,0,0,0,1259,1259,1264,1264,1264,1268,1268,1268,1273,1278,1278,1278,1278,1278,1415,1415,1415,1415,1410,1410,1410,1410,1410,1410,1410,1410,1410,1415,1415,1415,1415,1415,1410,1410,1410,1410,1410,1410,1404,1404,1404,1404,1404,1404,1404,1404,1404,1404,1410,1404,1404,1404,1404,1404,1404,1410,1404,1404,1398,1398,1398,1398,1398,1398,1398,1398,1398,1398,1392,1392,1392,1392,1392,1392,1392,1392,1392,1392,1392,1392,1392,1387,1387,1387,1387,1387,1387,1387,1387,1387,1387,1392,1387,1387,1381,1381,1376,1376,1376,0,1054,1054,1054,1050,1050,1047,1044,1044,1041,1041,1041,1038,1038,1041,1041,1044,1044,1050,1050,1054,1054,1054,1054,1370,1370,1370,1370,1370,1370,1376,1376,1376,1376,1376,1370,1370,1370,1370,1370,1370,1370,1370,1370,1370,1365,1365,1365,1365,1365,1365,1365,1365,1370,1370,1370,1370,1370,1370,1370,1370,1370,1370,1370,1370,1370,1370,1370,1370,1370,1365,1365,1365,1365,1365,1365,1359,1359,1359,1359,1359,1359,1359,1354,1354,1354,1359,1359,1359,1354,1354,1354,1354,1354,1354,1354,1354,1354,1354,1354,1354,1349,1349,1349,1349,1349,1349,1343,1343,1349,1349,1349,1343,1343,1343,1349,1343,1343,1343,1343,1343,1349,1349,1349,1349,1349,1349,1349,1349,1349,1349,1343,1343,1343,1343,1343,1343,1343,1338,1338,1338,1338,1338,1333,1333,1333,1333,1333,1333,1333,1333,1333,1328,1328,1328,1333,1333,1328,1328,1328,1328,1328,1328,1333,1328,1328,1328,1328,1328,1322,1322,1322,1322,1322,1322,1322,1322,1317,1317,1322,1317,1317,1317,1317,1317,1328,1210,1210,1210,1206,1206,1206,1206,1202,1202,1202,1202,1202,1202,1197,1197,1197,1197,1193,1138,1138,1134,1130,1126,1126,1126,1123,1123,1123,1123,1123,1123,1126,1126,1126,1126,1126,1123,1119,1112,1105,1101,1097,1094,1090,1084,1080,1077,1073,1070,1067,1063,1063,1060,1060,1060,0,0,0,0,0,0,0,0,0,0,0,0,0,0,0,0,0,0,0,0,0,0,0,0,0,0,0,0,0,0,0,0
0,0,0,0,0,0,0,0,0,0,0,1483,1483,1477,1477,1470,1470,1470,1470,1470,1470,1470,1477,1483,1470,1470,1470,1470,1470,1470,1470,1470,1470,1470,1477,1477,1477,1477,1477,1477,1483,1483,1483,1477,1477,1477,1477,1477,1477,1477,1477,1477,1477,1477,1477,1470,1470,1464,1464,1464,1470,1470,1470,1470,1470,1470,1470,1470,1470,1470,1470,1470,1470,1470,1470,1470,1470,1470,1470,1470,1470,1470,1464,1464,1464,1458,1452,1452,1452,0,0,0,0,946,943,943,940,938,938,935,935,935,935,935,935,935,938,940,943,943,943,946,946,951,951,954,954,954,954,956,956,0,0,1464,1464,1464,1464,1458,1458,1458,1458,1458,1458,1458,1458,1458,1458,1458,1458,1452,1452,1452,1452,1452,1452,1452,1452,1452,1445,1445,1445,1445,1445,1445,1445,1445,1439,1439,1439,1439,1439,1439,1439,1445,1445,1445,1445,1445,1445,1445,1445,1445,1445,1445,1445,1439,1439,1439,1439,1439,1439,1439,1439,1439,1439,1439,1439,1439,1439,1439,1439,1439,1439,1433,1433,1433,1439,1439,1439,1439,1439,1439,1439,1439,1141,1141,1141,1141,1141,1145,1145,1145,1141,1141,1145,0,0,0,0,0,0,0,0,0,700,698,698,697,697,696,694,693,693,691,691,688,687,686,686,684,684,684,684,684,684,686,687,688,690,691,693,694,697,700,701,703,703,703,703,0,0,0,0,0,0,0,0,0,1264,1264,1264,1264,1268,1268,1268,1268,1273,1278,1283,1278,1278,1283,1415,1410,1410,1410,1410,1404,1404,1404,1404,1404,1404,1404,1404,1410,1410,1410,1410,1410,1410,1410,1404,1404,1404,1404,1398,1398,1398,1398,1398,1398,1398,1398,1398,1398,1404,1404,1404,1404,1398,1398,1398,1398,1398,1398,1398,1398,1398,1398,1398,1392,1392,1392,1392,1392,1392,1392,1392,1392,1392,1392,1392,1392,1392,1392,1387,1387,1381,1381,1381,1381,1381,1381,1381,1381,1387,1387,1387,1381,1381,1376,1376,1376,1370,1370,1370,0,1057,1057,1054,1054,1054,1050,1047,1044,1044,1041,1041,1041,1041,1041,1041,1044,1047,1050,1054,1054,1054,1057,1057,1370,1370,1370,1370,1370,1370,1370,1370,1370,1370,1370,1370,1365,1365,1365,1365,1365,1365,1365,1365,1365,1359,1359,1359,1359,1359,1365,1365,1365,1365,1365,1365,1365,1359,1359,1359,1365,1365,1365,1359,1359,1359,1365,1365,1365,1365,1365,1365,1365,1359,1359,1359,1359,1359,1354,1354,1354,1354,1354,1354,1354,1354,1354,1354,1354,1354,1354,1354,1354,1354,1349,1349,1349,1349,1349,1349,1349,1343,1343,1343,1338,1338,1343,1343,1343,1343,1343,1343,1338,1338,1338,1343,1338,1338,1338,1338,1338,1343,1338,1338,1343,1343,1343,1343,1343,1343,1343,1338,1338,1338,1338,1338,1338,1338,1338,1333,1333,1333,1333,1333,1333,1328,1328,1328,1328,1328,1328,1328,1328,1328,1328,1328,1328,1328,1328,1328,1328,1328,1328,1328,1328,1322,1322,1322,1322,1322,1317,1317,1317,1317,1317,1317,1317,1317,1317,1317,1317,1312,1312,1312,1312,1328,1210,1210,1210,1206,1206,1206,1206,1202,1202,1202,1202,1197,1197,1197,1193,1193,1193,1193,1138,1138,1134,1130,1126,1126,1123,1123,1123,1123,1123,1123,1126,1126,1126,1126,1123,1123,1123,1112,1108,1105,1097,1094,1090,1084,1080,1080,1077,1073,1070,1063,1063,1060,1060,1060,1060,0,0,0,0,0,0,0,0,0,0,0,0,0,0,0,0,0,0,0,0,0,0,0,0,0,0,0,0,0,0,0,0
0,0,0,0,0,0,0,0,0,0,0,1477,1477,1477,1470,1470,1470,1470,1464,1464,1464,1464,1470,1470,1470,1470,1464,1464,1464,1464,1464,1464,1464,1464,1470,1477,1470,1470,1470,1470,1477,1477,1477,1470,1470,1470,1470,1470,1477,1477,1477,1477,1477,1470,1470,1464,1464,1464,1464,1464,1464,1464,1464,1464,1470,1464,1464,1464,1464,1464,1464,1464,1464,1464,1470,1470,1464,1464,1470,1464,1464,1464,1458,1452,1452,1452,1445,1445,1445,0,0,0,0,946,946,943,943,940,940,938,938,938,935,935,938,938,940,940,943,943,946,946,948,951,951,954,954,954,956,956,956,0,0,0,1458,1458,1458,1458,1452,1452,1452,1452,1452,1452,1452,1452,1452,1452,1452,1452,1452,1452,1452,1452,1452,1445,1445,1445,1439,1439,1439,1439,1439,1439,1439,1439,1433,1433,1433,1433,1433,1439,1439,1439,1439,1439,1439,1439,1439,1439,1439,1439,1439,1439,1439,1439,1433,1433,1433,1433,1433,1439,1433,1433,1433,1433,1433,1433,1433,1433,1433,1433,1433,1433,1433,1433,1433,1433,1433,1433,1433,1433,1134,1134,1138,1138,1138,1138,1141,1145,1145,1141,1141,1141,1145,0,0,0,0,0,0,0,0,0,700,698,698,698,697,696,694,693,693,693,691,688,687,687,686,686,684,684,684,684,684,686,687,688,690,691,693,694,697,700,701,703,703,703,703,704,0,0,0,0,0,0,0,0,1264,1264,1268,1268,1268,1268,1268,1273,1278,1278,1283,1283,1283,1283,1410,1410,1404,1404,1404,1398,1398,1398,1398,1398,1398,1398,1398,1404,1404,1404,1398,1398,1398,1398,1398,1398,1398,1392,1392,1392,1392,1392,1392,1392,1392,1392,1392,1392,1398,1398,1398,1398,1398,1398,1392,1392,1392,1392,1392,1392,1392,1392,1392,1392,1392,1392,1387,1387,1387,1387,1387,1387,1387,1387,1387,1387,1387,1381,1381,1381,1376,1376,1376,1376,1376,1376,1381,1381,1381,1381,1381,1381,1376,1376,1376,1370,1370,1370,1370,0,1060,1057,1057,1054,1054,1050,1050,1047,1044,1044,1041,1041,1041,1041,1044,1044,1047,1050,1054,1054,1054,1057,1057,1365,1365,1365,1365,1365,1365,1365,1365,1365,1365,1365,1365,1365,1359,1359,1359,1359,1359,1359,1359,1359,1359,1359,1354,1354,1359,1359,1359,1359,1359,1359,1359,1359,1354,1354,1354,1354,1354,1349,1349,1354,1354,1359,1359,1359,1359,1359,1359,1359,1354,1354,1354,1354,1354,1354,1354,1354,1349,1349,1349,1349,1349,1349,1349,1349,1349,1349,1349,1349,1349,1349,1349,1349,1349,1343,1343,1343,1343,1343,1338,1338,1338,1338,1338,1338,1338,1338,1338,1338,1333,1333,1333,1333,1333,1338,1333,1333,1338,1333,1333,1333,1333,1333,1333,1338,1338,1338,1333,1333,1333,1333,1333,1333,1333,1333,1333,1333,1333,1328,1328,1328,1328,1328,1328,1328,1328,1328,1328,1328,1328,1328,1328,1328,1328,1322,1322,1322,1322,1322,1322,1322,1322,1317,1317,1317,1317,1312,1312,1312,1312,1317,1312,1312,1312,1312,1312,1307,1307,1307,1307,1307,1307,1210,1210,1210,1206,1206,1206,1206,1202,1202,1202,1197,1197,1197,1193,1193,1185,1185,1141,1141,1138,1134,1130,1126,1126,1123,1123,1123,1123,1123,1123,1126,1126,1126,1126,1123,1123,1119,1108,1105,1101,1097,1094,1087,1080,1080,1077,1073,1070,1063,1063,1060,1057,1057,1057,1057,0,0,0,0,0,0,0,0,0,0,0,0,0,0,0,0,0,0,0,0,0,0,0,0,0,0,0,0,0,0,0,0
0,0,0,0,0,0,0,0,0,0,0,1470,1470,1470,1464,1464,1464,1464,1464,1464,1464,1464,1464,1470,1470,1470,1464,1464,1464,1464,1464,1464,1464,1464,1470,1470,1464,1464,1464,1464,1470,1470,1470,1464,1464,1464,1464,1464,1470,1470,1470,1470,1470,1470,1464,1464,1464,1458,1458,1458,1458,1464,1464,1464,1464,1464,1464,1464,1464,1464,1464,1464,1464,1464,1464,1464,1464,1464,1458,1458,1458,1458,1452,1445,1445,1452,1445,1445,1445,0,0,0,0,0,943,943,943,943,943,940,938,938,935,935,938,938,940,940,943,946,946,946,948,951,951,951,954,954,954,954,954,0,0,0,1458,1458,1458,1452,1452,1445,1445,1445,1445,1445,1445,1445,1445,1445,1445,1445,1439,1439,1445,1445,1445,1439,1439,1439,1439,1439,1433,1433,1433,1439,1433,1433,1433,1433,1433,1433,1433,1433,1433,1433,1433,1433,1433,1433,1439,1433,1433,1433,1433,1433,1433,1427,1427,1427,1433,1433,1433,1433,1433,1433,1433,1427,1427,1427,1427,1427,1427,1427,1427,1427,1427,1427,1427,1433,1433,1433,1433,1433,1134,1134,1134,1138,1138,1138,1141,1145,1141,1141,1141,1145,1149,0,0,0,0,0,0,0,0,0,0,698,698,698,697,697,696,694,694,693,691,690,688,687,687,686,686,686,684,684,684,686,687,690,691,693,693,696,698,700,703,703,703,703,703,704,704,0,0,0,0,0,0,0,1268,1268,1268,1268,1268,1268,1273,1273,1278,1283,1283,1283,1283,1283,1404,1404,1398,1398,1398,1392,1392,1392,1392,1392,1392,1392,1392,1392,1398,1392,1392,1392,1392,1392,1392,1392,1387,1387,1392,1387,1387,1387,1387,1387,1387,1387,1392,1392,1398,1398,1398,1398,1392,1392,1392,1392,1387,1387,1387,1387,1387,1387,1387,1387,1381,1381,1381,1381,1381,1381,1381,1381,1381,1381,1381,1381,1376,1376,1376,1376,1376,1376,1370,1370,1376,1376,1376,1376,1376,1376,1376,1376,1376,1370,1370,1365,1365,1365,1365,0,1060,1060,1060,1057,1054,1050,1050,1050,1047,1044,1044,1044,1044,1044,1044,1047,1047,1050,1054,1054,1057,1057,1057,1359,1359,1359,1359,1359,1359,1359,1359,1359,1359,1359,1359,1359,1359,1354,1354,1354,1354,1354,1354,1354,1354,1354,1354,1354,1354,1354,1354,1354,1354,1354,1354,1354,1349,1349,1349,1349,1349,1343,1343,1349,1349,1349,1354,1354,1354,1354,1354,1354,1349,1349,1349,1349,1349,1349,1349,1349,1349,1349,1349,1349,1349,1349,1343,1343,1343,1343,1343,1343,1343,1343,1343,1343,1343,1338,1338,1338,1338,1338,1338,1333,1333,1333,1333,1333,1333,1333,1333,1333,1333,1333,1333,1333,1333,1333,1333,1333,1333,1333,1333,1333,1333,1328,1328,1328,1328,1328,1328,1333,1328,1328,1328,1328,1328,1328,1328,1328,1328,1328,1328,1328,1328,1322,1322,1322,1322,1322,1322,1322,1322,1322,1322,1322,1322,1322,1322,1322,1322,1317,1317,1312,1312,1317,1317,1312,1312,1312,1312,1312,1312,1312,1312,1307,1307,1307,1307,1307,1302,1302,1302,1302,1302,1297,1206,1206,1206,1206,1206,1206,1202,1202,1202,1197,1189,1189,1193,1193,1185,1157,1141,1141,1138,1134,1130,1130,1126,1126,1126,1126,1123,1123,1126,1126,1126,1126,1123,1119,1119,1112,1105,1105,1097,1094,1090,1084,1080,1077,1077,1073,1070,1063,1060,1060,1057,1054,1054,1054,0,0,0,0,0,0,0,0,0,0,0,0,0,0,0,0,0,0,0,0,0,0,0,0,0,0,0,0,0,0,0,0
0,0,0,0,0,0,0,0,0,0,0,1470,1470,1464,1464,1464,1464,1464,1464,1464,1464,1464,1464,1464,1464,1464,1464,1464,1464,1464,1470,1464,1464,1464,1464,1464,1458,1458,1458,1458,1458,1458,1464,1464,1458,1458,1464,1464,1464,1464,1464,1464,1464,1464,1464,1464,1458,1458,1458,1458,1458,1458,1458,1458,1458,1458,1458,1458,1458,1458,1458,1458,1458,1458,1458,1458,1458,1458,1452,1452,1452,1445,1445,1439,1439,1439,1439,1439,1439,0,0,0,0,0,943,943,946,943,943,940,940,940,935,935,938,938,940,940,943,946,946,948,948,951,951,951,954,954,954,954,954,0,0,0,1452,0,1452,1445,1439,1439,1439,1439,1439,1439,1439,1439,1439,1439,1439,1439,1439,1439,1439,1439,1439,1433,1433,1439,1433,1433,1433,1433,1433,1433,1433,1433,1427,1427,1427,1427,1427,1427,1427,1427,1433,1427,1427,1427,1433,1433,1433,1427,1427,1427,1427,1421,1421,1421,1421,1421,1421,1427,1427,1427,1427,1427,1421,1421,1421,1421,1421,1421,1421,1427,1427,1427,1427,1427,1433,1433,1134,1134,1134,1134,1134,1134,1134,1134,1138,1141,1138,1138,1138,1145,1145,0,0,0,0,0,0,0,0,0,0,0,698,698,698,697,697,696,694,693,693,691,690,688,687,686,686,686,686,686,686,687,688,690,691,693,694,696,698,701,703,704,704,704,704,704,704,0,0,0,0,0,0,0,0,1273,1273,1273,1268,1268,1273,1278,1278,1283,1283,1288,1283,1283,1398,1398,1392,1392,1392,1392,1392,1392,1392,1392,1392,1392,1392,1392,1392,1392,1387,1387,1387,1387,1387,1387,1381,1381,1381,1381,1381,1381,1381,1387,1387,1387,1387,1387,1392,1392,1392,1392,1387,1387,1387,1387,1387,1387,1381,1381,1381,1381,1381,1381,1381,1381,1381,1381,1381,1381,1376,1376,1376,1376,1376,1376,1370,1370,1370,1370,1370,1370,1370,1370,1370,1370,1370,1370,1370,1370,1370,1370,1370,1365,1365,1359,1359,1365,1365,0,1060,1060,1060,1057,1054,1054,1050,1050,1050,1047,1047,1044,1044,1044,1047,1047,1050,1050,1054,1054,1057,1060,1060,1359,1359,1354,1354,1354,1354,1359,1359,1359,1359,1359,1359,1359,1354,1354,1354,1354,1354,1354,1354,1354,1354,1349,1349,1349,1349,1349,1349,1349,1349,1354,1349,1349,1349,1349,1343,1343,1343,1343,1343,1343,1343,1343,1343,1343,1343,1343,1349,1349,1343,1343,1343,1343,1349,1349,1343,1343,1349,1349,1343,1343,1343,1343,1338,1338,1338,1338,1338,1338,1338,1338,1338,1333,1333,1333,1333,1333,1333,1333,1333,1333,1333,1333,1333,1333,1333,1333,1333,1333,1333,1333,1328,1328,1328,1328,1328,1328,1328,1328,1328,1328,1322,1322,1322,1322,1322,1322,1322,1322,1322,1322,1322,1328,1328,1328,1328,1328,1322,1322,1322,1322,1322,1322,1322,1317,1317,1317,1317,1312,1312,1312,1317,1317,1317,1312,1312,1312,1312,1312,1312,1307,1307,1307,1307,1307,1312,1307,1307,1307,1307,1312,1307,1307,1302,1302,1302,1302,1302,1297,1297,1297,1297,1297,1292,1210,1210,1210,1210,1206,1206,1202,1202,1197,1189,1189,1193,1193,1193,1157,1141,1138,1138,1134,1134,1130,1126,1126,1126,1126,1123,1123,1126,1126,1126,1126,1123,1115,1115,1108,1105,1105,1097,1094,1087,1084,1080,1077,1073,1070,1067,1063,1060,1057,1054,1054,1054,1054,0,0,0,0,0,0,0,0,0,0,0,0,0,0,0,0,0,0,0,0,0,0,0,0,0,0,0,0,0,0,0,0
0,0,0,0,0,0,0,0,0,0,0,1464,1464,1464,1464,1464,1464,1464,1458,1458,1458,1458,1458,1458,1458,1458,1458,1458,1458,1464,1464,1464,1464,1464,1458,1458,1458,1458,1452,1452,1452,1452,1452,1458,1458,1458,1458,1458,1458,1458,1458,1458,1458,1458,1464,1458,1458,1458,1458,1458,1458,1458,1452,1452,1458,1458,1452,1452,1458,1452,1452,1458,1458,1458,1458,1452,1452,1452,1445,1445,1445,1445,1439,1439,1439,1433,1433,1433,1433,1433,0,0,0,0,943,943,946,946,946,943,940,940,940,940,940,940,940,940,943,946,946,948,948,951,951,951,954,954,954,954,956,956,0,0,0,0,1433,1433,1433,1433,1433,1433,1433,1433,1433,1433,1433,1433,1433,1433,1433,1433,1433,1433,1433,1427,1427,1433,1433,1427,1427,1427,1427,1427,1427,1427,1427,1427,1427,1427,1427,1427,1427,1427,1427,1415,1415,1421,1421,1421,1427,1427,1421,1421,1421,1421,1415,1415,1415,1421,1421,1421,1421,1421,1421,1421,1421,1421,1421,1421,1421,1421,1421,1421,1421,1427,1427,1427,1427,1130,1130,1134,1134,1134,1134,1134,1134,1134,1134,1138,1134,1134,1134,1130,1130,0,0,0,0,0,0,0,0,0,0,0,0,700,700,698,697,697,696,694,693,691,690,688,688,687,687,686,686,686,686,687,688,690,693,694,696,697,698,701,703,704,704,704,704,706,706,0,0,0,0,0,0,0,1278,1278,1273,1273,1273,1273,1273,1278,1283,1283,1283,1288,1288,1288,1392,1392,1392,1392,1392,1387,1387,1387,1387,1387,1387,1387,1387,1387,1387,1387,1387,1381,1381,1381,1381,1381,1376,1376,1376,1376,1376,1376,1376,1376,1376,1381,1381,1387,1387,1387,1387,1387,1381,1381,1381,1381,1381,1381,1381,1376,1376,1376,1376,1376,1376,1376,1376,1376,1376,1376,1376,1376,1376,1370,1370,1370,1365,1365,1370,1370,1370,1370,1370,1370,1370,1370,1365,1365,1365,1365,1365,1365,1365,1365,1365,1359,1359,1359,1359,1354,1060,1060,1060,1057,1057,1054,1050,1050,1050,1050,1047,1047,1047,1047,1047,1050,1050,1054,1054,1057,1057,1060,1060,1354,1354,1354,1354,1354,1354,1354,1354,1354,1354,1354,1354,1354,1354,1349,1349,1349,1349,1354,1349,1349,1349,1349,1349,1349,1349,1349,1349,1349,1349,1349,1349,1349,1343,1343,1338,1338,1338,1338,1338,1338,1343,1343,1343,1343,1343,1338,1338,1338,1338,1338,1338,1338,1338,1343,1343,1343,1343,1343,1343,1338,1338,1338,1338,1333,1333,1333,1333,1333,1333,1333,1333,1333,1333,1333,1333,1333,1333,1333,1333,1328,1328,1328,1328,1328,1328,1328,1328,1328,1328,1328,1328,1328,1328,1328,1328,1328,1328,1328,1328,1322,1317,1317,1317,1322,1322,1317,1317,1317,1317,1317,1322,1317,1317,1322,1322,1322,1317,1317,1317,1317,1317,1312,1312,1312,1312,1317,1312,1312,1312,1312,1312,1312,1312,1312,1312,1312,1312,1307,1307,1307,1307,1307,1307,1307,1307,1307,1307,1307,1307,1307,1307,1302,1302,1302,1302,1297,1297,1292,1292,1297,1292,1292,1292,1292,1214,1214,1214,1206,1206,1202,1202,1202,1189,1189,1197,1197,1197,1141,1138,1138,1134,1134,1134,1130,1130,1126,1126,1126,1126,1126,1126,1126,1126,1126,1123,1112,1112,1105,1105,1101,1097,1090,1084,1080,1080,1077,1073,1070,1063,1060,1057,1054,1054,1050,1050,1054,0,0,0,0,0,0,0,0,0,0,0,0,0,0,0,0,0,0,0,0,0,0,0,0,0,0,0,0,0,0,0,0
0,0,0,0,0,0,0,0,0,0,0,1464,1464,1464,1464,1458,1458,1458,1458,1458,1458,1458,1458,1439,1439,1439,1439,1439,1439,1439,1458,1458,1458,1458,1458,1452,1452,1452,1445,1445,1445,1445,1445,1445,1452,1452,1458,1458,1458,1458,1458,1458,1458,1452,1452,1452,1452,1452,1452,1452,1452,1452,1452,1452,1452,1452,1445,1445,1452,1452,1452,1452,1452,1452,1452,1452,1445,1445,1439,1439,1439,1439,1439,1439,1439,1433,1433,1433,1433,1433,0,0,0,0,946,946,946,946,946,946,943,943,940,940,940,940,943,943,946,946,946,948,951,951,954,954,954,956,956,956,956,0,0,1415,1415,0,1427,1427,1427,1427,1427,1427,1433,1433,1433,1433,1433,1427,1427,1427,1427,1427,1427,1427,1427,1421,1421,1427,1427,1421,1421,1421,1421,1421,1421,1421,1421,1421,1421,1421,1421,1421,1421,1415,1415,1415,1415,1415,1415,1415,1415,1415,1415,1415,1415,1415,1410,1410,1410,1415,1415,1415,1415,1415,1421,1415,1415,1415,1415,1421,1421,1421,1421,1421,1421,1119,1119,1123,1126,1126,1126,1130,1130,1130,1130,1130,1130,1130,1134,1134,1134,1134,1134,1130,1130,0,0,0,0,0,0,0,0,0,0,0,0,703,703,700,700,698,697,697,693,691,691,690,688,687,687,687,686,686,687,687,688,691,693,696,696,697,698,701,703,704,704,706,706,707,0,0,0,0,0,0,0,0,1278,1278,1278,1278,1273,1273,1278,1283,1283,1283,1288,1288,1288,1288,1387,1387,1387,1387,1387,1387,1381,1381,1381,1387,1381,1381,1381,1387,1387,1381,1381,1381,1381,1381,1376,1376,1376,1376,1376,1376,1376,1370,1370,1376,1376,1370,1370,1376,1381,1381,1381,1381,1376,1376,1376,1376,1376,1376,1376,1376,1376,1376,1376,1376,1376,1376,1376,1376,1376,1376,1370,1370,1370,1370,1370,1370,1365,1365,1365,1365,1365,1365,1365,1365,1365,1365,1365,1359,1359,1359,1359,1359,1359,1359,1359,1354,1354,1354,1354,1354,1063,1063,1063,1060,1060,1057,1054,1054,1050,1050,1050,1050,1050,1050,1050,1050,1054,1054,1054,1057,1060,1063,1063,1349,1349,1349,1349,1349,1349,1349,1349,1349,1349,1349,1349,1349,1349,1349,1349,1349,1349,1349,1349,1349,1349,1343,1343,1343,1343,1343,1349,1349,1349,1349,1349,1343,1338,1338,1333,1333,1333,1333,1333,1338,1338,1338,1338,1338,1338,1338,1338,1338,1333,1333,1333,1333,1333,1333,1338,1338,1338,1338,1338,1338,1338,1338,1333,1333,1333,1333,1333,1333,1333,1333,1333,1333,1333,1328,1328,1328,1328,1328,1328,1328,1328,1328,1328,1328,1328,1328,1328,1328,1328,1328,1322,1322,1322,1328,1322,1322,1322,1328,1322,1322,1317,1312,1312,1317,1317,1317,1317,1312,1312,1317,1317,1312,1312,1312,1312,1312,1312,1312,1312,1312,1312,1312,1312,1312,1312,1312,1312,1307,1307,1307,1307,1307,1307,1307,1307,1307,1307,1307,1302,1302,1302,1302,1302,1302,1302,1302,1302,1302,1302,1302,1302,1297,1297,1297,1297,1297,1292,1292,1292,1292,1292,1292,1292,1227,1227,1219,1214,1214,1206,1202,1202,1202,1197,1197,1197,1197,1197,1138,1138,1138,1134,1134,1134,1134,1130,1130,1130,1130,1126,1126,1130,1130,1126,1123,1119,1108,1105,1105,1101,1101,1094,1090,1084,1080,1077,1077,1073,1063,1057,1057,1054,1054,1050,1050,1050,1050,0,0,0,0,0,0,0,0,0,0,0,0,0,0,0,0,0,0,0,0,0,0,0,0,0,0,0,0,0,0,0,0
0,0,0,0,0,0,0,0,0,0,0,1458,1458,1464,1464,1458,1458,1458,1458,1458,1458,1452,1452,1439,1439,1439,1439,1439,1439,1439,1452,1452,1452,1452,1452,1452,1445,1445,1445,1445,1445,1445,1445,1445,1452,1452,1452,1452,1452,1452,1452,1452,1452,1445,1445,1445,1445,1445,1445,1445,1445,1445,1445,1445,1445,1445,1445,1445,1445,1445,1445,1445,1445,1445,1445,1445,1439,1439,1439,1439,1439,1439,1439,1439,1433,1433,1433,1433,1433,1433,0,0,0,0,0,946,946,946,946,946,946,943,943,943,943,943,943,943,946,946,946,951,951,954,954,954,956,956,956,956,956,0,1410,1415,1415,1415,1421,1421,1421,1421,1421,1421,1427,1427,1427,1427,1427,1427,1421,1421,1421,1421,1421,1421,1421,1415,1415,1415,1415,1415,1415,1415,1415,1415,1421,1421,1421,1421,1421,1421,1421,1421,1421,1415,1415,1415,1415,1415,1415,1415,1415,1415,1415,1410,1410,1410,1410,1410,1410,1410,1410,1410,1415,1415,1415,1415,1415,1415,1415,1415,1415,1415,1415,1421,1119,1119,1119,1123,1123,1126,1126,1130,1130,1130,1130,1130,1130,1130,1130,1130,1130,1130,1130,1130,1130,1130,0,0,0,0,0,0,0,0,0,0,0,704,704,701,700,700,698,697,697,694,693,691,690,688,687,687,687,687,687,687,688,691,693,696,696,698,700,701,703,704,706,706,707,708,0,0,0,0,0,0,0,0,1283,1283,1278,1278,1278,1278,1278,1283,1283,1283,1288,1288,1288,1387,1387,1387,1387,1387,1387,1381,1381,1381,1381,1381,1376,1376,1376,1376,1381,1376,1376,1376,1376,1376,1376,1370,1370,1370,1370,1370,1370,1370,1370,1370,1370,1370,1370,1376,1376,1376,1376,1376,1376,1376,1376,1376,1376,1376,1376,1370,1370,1370,1370,1370,1370,1370,1370,1370,1370,1370,1370,1365,1365,1365,1365,1365,1359,1359,1359,1359,1359,1359,1359,1359,1359,1359,1359,1354,1354,1354,1354,1354,1354,1354,1354,1354,1354,1354,1354,1063,1063,1063,1063,1063,1063,1057,1054,1054,1054,1054,1050,1050,1050,1050,1050,1054,1054,1054,1057,1060,1063,1063,1063,1343,1343,1343,1343,1343,1343,1343,1343,1343,1343,1349,1349,1349,1343,1343,1343,1343,1343,1349,1343,1343,1343,1343,1338,1338,1338,1338,1338,1343,1343,1343,1343,1343,1338,1333,1333,1333,1333,1333,1333,1333,1333,1333,1333,1333,1333,1333,1333,1333,1333,1333,1333,1328,1328,1328,1328,1328,1328,1328,1333,1333,1333,1333,1333,1333,1333,1333,1333,1328,1328,1328,1328,1328,1328,1328,1328,1322,1322,1322,1322,1322,1322,1322,1322,1328,1322,1322,1322,1322,1322,1322,1322,1322,1322,1322,1322,1322,1322,1322,1317,1312,1312,1312,1312,1312,1312,1312,1312,1312,1312,1312,1312,1312,1312,1307,1307,1307,1307,1307,1307,1307,1307,1307,1307,1307,1307,1307,1307,1307,1307,1307,1307,1307,1307,1307,1307,1307,1302,1302,1302,1297,1297,1297,1297,1297,1302,1302,1302,1297,1297,1297,1297,1292,1292,1292,1292,1292,1292,1292,1292,1292,1292,1292,1292,1227,1227,1219,1219,1214,1206,1202,1202,1202,1197,1197,1197,1138,1138,1138,1138,1134,1134,1134,1134,1134,1134,1130,1130,1130,1130,1130,1126,1126,1123,1119,1112,1105,1105,1101,1101,1097,1090,1087,1084,1080,1077,1077,1073,1060,1057,1054,1054,1054,1050,1050,1050,1050,0,0,0,0,0,0,0,0,0,0,0,0,0,0,0,0,0,0,0,0,0,0,0,0,0,0,0,0,0,0,0,0
0,0,0,0,0,0,0,0,0,0,0,1458,1458,1458,1458,1458,1458,1452,1452,1452,1452,1452,1452,1439,1439,1439,1439,1439,1439,1439,1445,1452,1445,1445,1445,1445,1445,1445,1439,1439,1439,1439,1439,1439,1445,1445,1452,1452,1452,1452,1452,1452,1445,1445,1445,1445,1445,1445,1439,1439,1445,1439,1439,1439,1439,1439,1439,1439,1439,1439,1439,1439,1439,1439,1439,1439,1439,1439,1439,1433,1433,1433,1433,1433,1433,1433,1427,1427,1427,1427,0,0,0,0,0,0,954,951,948,946,946,946,943,943,943,943,943,946,946,946,946,948,951,954,954,954,956,956,956,956,956,0,1410,1410,1410,1415,1415,1421,1415,1415,1415,1421,1421,1421,1421,1421,1421,1421,1421,1415,1415,1415,1415,1415,1415,1415,1415,1415,1415,1415,1415,1415,1415,1415,1415,1415,1415,1415,1415,1415,1415,1415,1415,1415,1415,1415,1415,1410,1410,1410,1410,1410,1410,1410,1404,1404,1404,1404,1404,1404,1410,1410,1410,1410,1415,1415,1415,1415,1415,1105,1105,1112,1112,1112,1115,1115,1119,1119,1119,1123,1126,1126,1130,1130,1130,1130,1130,1130,1130,1130,1130,1126,1126,1126,1126,1126,0,0,0,0,0,0,0,0,0,0,0,707,706,704,701,700,698,698,697,697,694,693,691,690,690,687,687,687,687,687,688,693,694,696,697,698,700,701,704,706,706,707,708,708,0,0,0,0,0,0,0,0,1283,1283,1283,1283,1278,1278,1283,1283,1283,1288,1288,1292,1292,1387,1387,1387,1381,1381,1381,1376,1376,1376,1376,1376,1376,1376,1376,1376,1376,1376,1376,1376,1370,1370,1370,1370,1370,1370,1370,1370,1370,1370,1370,1370,1370,1370,1370,1370,1370,1370,1370,1370,1370,1370,1370,1370,1370,1370,1370,1370,1365,1365,1365,1365,1365,1365,1365,1365,1365,1365,1365,1359,1359,1359,1359,1354,1354,1354,1354,1359,1354,1354,1359,1359,1354,1354,1354,1354,1354,1349,1349,1349,1354,1354,1349,1349,1349,1349,1349,1063,1063,1063,1063,1063,1063,1060,1057,1054,1054,1054,1054,1054,1050,1050,1054,1054,1054,1057,1060,1063,1063,1067,1067,1343,1343,1338,1338,1338,1338,1338,1338,1338,1338,1338,1338,1338,1338,1338,1338,1338,1338,1338,1338,1338,1338,1338,1333,1333,1333,1333,1333,1333,1338,1338,1338,1338,1333,1333,1333,1333,1328,1328,1328,1328,1328,1333,1333,1333,1333,1333,1328,1328,1328,1328,1328,1328,1328,1328,1328,1328,1328,1328,1328,1328,1333,1333,1328,1328,1328,1328,1328,1328,1328,1328,1328,1322,1322,1322,1322,1317,1317,1317,1317,1317,1317,1317,1317,1317,1317,1317,1317,1317,1317,1317,1317,1317,1317,1317,1317,1317,1312,1312,1312,1312,1307,1307,1307,1307,1307,1307,1307,1307,1307,1307,1312,1307,1307,1307,1307,1307,1307,1307,1302,1302,1302,1302,1302,1302,1302,1302,1302,1302,1302,1302,1302,1302,1302,1302,1302,1302,1297,1297,1297,1292,1292,1292,1292,1292,1297,1297,1297,1297,1297,1297,1292,1292,1292,1292,1288,1288,1292,1288,1288,1288,1288,1236,1232,1232,1227,1223,1219,1214,1206,1202,1202,1202,1197,1197,1197,1138,1138,1138,1138,1134,1134,1134,1134,1134,1134,1130,1130,1130,1130,1126,1126,1126,1123,1115,1112,1105,1105,1101,1097,1094,1087,1084,1080,1077,1073,1073,1063,1057,1057,1054,1054,1054,1050,1050,1050,1054,0,0,0,0,0,0,0,0,0,0,0,0,0,0,0,0,0,0,0,0,0,0,0,0,0,0,0,0,0,0,0,0
