0,0,0,0,0,0,0,0,0,0,0,0,0,0,0,0,0,0,0,0,0,0,0,0,0,807,807,807,805,805,805,805,805,805,805,805,807,807,807,805,805,809,809,809,807,807,807,807,809,809,807,807,807,809,809,807,805,805,807,813,811,811,809,807,807,807,805,803,803,805,805,805,805,805,807,805,803,803,803,803,803,803,803,803,803,803,805,805,805,805,805,805,805,805,805,805,805,807,807,807,805,805,805,805,805,803,803,803,803,805,805,805,805,807,807,807,807,807,807,807,807,807,809,809,807,807,807,807,805,800,798,798,802,802,803,803,805,805,805,803,803,802,802,802,800,800,800,802,802,802,803,802,802,803,803,803,803,805,805,805,805,805,807,809,809,809,809,811,809,805,805,807,805,805,805,805,805,805,803,803,803,803,803,803,807,807,807,809,807,807,807,805,805,805,805,805,805,809,805,803,803,803,803,803,803,803,805,807,807,805,803,803,802,802,802,802,802,802,802,805,805,803,803,805,805,805,803,803,803,803,803,803,803,803,802,802,803,803,807,805,805,805,803,803,803,803,802,802,800,796,796,796,796,800,802,802,803,803,803,803,803,805,805,807,809,811,813,813,815,817,819,821,821,825,827,829,829,831,833,833,837,873,873,875,875,878,880,882,887,889,889,894,896,898,903,906,910,910,915,918,920,923,923,925,925,925,925,930,933,935,938,943,946,948,948,948,951,954,0,0,0,0,0,1579,1572,1572,1579,1572,1572,1572,1564,1557,1557,1557,1557,1550,1550,1550,1550,1550,1543,1543,1543,1543,1543,1536,1536,1529,1523,1523,1523,1523,1516,1516,1516,1516,1509,1509,1509,1503,1496,1496,1496,1496,1496,1496,1489,1489,1489,1489,1489,1483,1483,1477,1477,1470,1470,1470,1470,1464,1464,1464,1464,1464,1458,1458,1452,1452,1445,1445,1445,1445,1439,1439,1439,1439,1433,1433,1433,1433,1427,1427,1427,1427,1421,1421,1421,1421,1421,1421,1415,1415,1415,1410,1410,1410,1404,1404,1398,1398,1398,1398,1398,1392,1392,1392,1392,1392,1387,1381,1381,1381,1376,1376,1376,1376,1370,1370,1370,1370,1370,1365,1365,1365,1359,1359,1359,1354,1354,1354,1354,1349,1349,1349,1343,1343,1343,1338,1338,1338,1333,1333,1333,1333,1333,1328,1328,1328,1322,1322,1317,1317,1312,1312,1312,1312,1312,1312,1307,1307,1307,1307,1307,1302,1297,1297,1297,1292,1292,1288,1288,1288,1288,1283,1283,1278,1278,1273,1273,1273,1273,1273,1273,1268,1268,1268,1268,1268,1268,1264,1259,1259,1259,1255,1255,1255,1250,1250,1250,1250,1250,1245,1245,1241,1241,1236,1236,1236,1236,1232,1232,1232,1232,1227,1227,1227,1223,1223,1219,1219,1219,1214,1214,1214,1214,1214,1214,1210,1210,1210,1206,1206,1206,1206,1202,1202,1202,1202,1197,1197,1197,1197,1197,1193,1189,1189,1185,1185,1185,1181,1181,1181,1181,1181,1181,1181,1181,1177,1177,1173,1173,1169,1169,1169,1169,1169,1165,1165,1161,1161,1161,1161,1161,1067,1063,1063,1060,1060,1057,1057,1054,1054,1054,1050,1050,1050,1047,1047,0,0,0,0,0,0,0,0,0,0,0,0,0,0,0,0,0,0,0,0,0,0,0,0,0,0,0,0,0,0,0,0
0,0,0,0,0,0,0,0,0,0,0,0,0,0,0,0,0,0,0,0,0,0,0,0,0,803,803,805,803,803,803,803,803,802,800,800,798,798,803,802,802,803,803,803,805,805,805,805,809,807,805,803,803,803,803,802,802,800,800,805,807,802,802,803,802,802,802,802,802,802,803,803,803,803,803,802,800,798,798,798,798,800,798,798,802,802,802,802,802,802,802,802,803,802,802,803,803,803,803,802,802,800,800,802,802,802,802,802,803,803,802,800,800,802,803,803,803,803,803,803,803,803,807,805,802,802,803,803,802,798,796,796,798,798,798,796,796,798,798,798,798,798,798,800,800,798,798,798,796,796,798,800,798,798,800,800,800,802,803,803,803,803,803,803,802,802,802,798,798,802,802,803,803,803,803,803,802,802,802,802,802,802,802,802,803,803,805,807,803,803,803,803,803,802,802,802,802,802,802,800,800,800,800,802,802,800,800,802,802,802,800,800,800,800,800,800,798,798,800,800,802,802,802,802,803,802,802,802,802,802,802,800,800,800,796,796,798,798,800,802,802,802,802,800,800,800,798,796,796,796,796,794,794,796,798,798,800,800,802,802,803,803,803,807,807,809,811,813,815,817,819,819,821,825,827,827,831,837,864,869,871,873,873,875,875,878,880,882,887,887,889,894,896,901,903,908,910,913,915,918,920,923,923,925,925,925,928,930,933,935,938,943,946,948,951,951,954,954,959,0,0,0,0,1579,1579,1579,1579,1572,1572,1572,1564,1564,1564,1557,1557,1557,1550,1550,1550,1550,1543,1543,1543,1543,1543,1536,1536,1529,1529,1523,1523,1523,1523,1516,1516,1516,1516,1516,1509,1503,1496,1496,1496,1496,1496,1496,1489,1489,1489,1489,1489,1489,1483,1477,1477,1470,1470,1470,1470,1464,1464,1464,1464,1464,1464,1458,1458,1452,1452,1445,1445,1445,1445,1439,1439,1439,1439,1433,1433,1433,1427,1427,1427,1427,1421,1421,1421,1421,1421,1421,1415,1415,1415,1415,1410,1410,1404,1404,1398,1398,1398,1398,1398,1392,1392,1392,1392,1392,1387,1387,1381,1381,1381,1376,1376,1376,1376,1370,1370,1370,1370,1370,1365,1365,1365,1359,1359,1354,1354,1354,1354,1349,1349,1349,1349,1343,1343,1343,1338,1338,1333,1333,1333,1333,1333,1328,1328,1328,1322,1322,1322,1317,1317,1317,1312,1312,1312,1312,1307,1307,1307,1307,1307,1307,1302,1302,1297,1292,1292,1292,1288,1288,1288,1288,1288,1283,1278,1278,1273,1273,1273,1273,1273,1268,1268,1268,1268,1268,1268,1264,1259,1259,1259,1255,1255,1255,1250,1250,1250,1250,1250,1245,1245,1245,1241,1236,1236,1236,1236,1236,1232,1232,1232,1227,1227,1227,1223,1223,1223,1219,1219,1214,1214,1214,1214,1214,1214,1210,1210,1210,1206,1206,1206,1206,1206,1202,1202,1202,1197,1197,1197,1197,1197,1193,1193,1189,1189,1185,1185,1185,1181,1181,1181,1181,1181,1181,1181,1177,1177,1173,1173,1169,1169,1169,1169,1169,1165,1165,1161,1161,1165,1165,1063,1063,1063,1063,1060,1057,1057,1057,1054,1054,1050,1050,1047,1044,1044,1044,0,0,0,0,0,0,0,0,0,0,0,0,0,0,0,0,0,0,0,0,0,0,0,0,0,0,0,0,0,0,0,0
0,0,0,0,0,0,0,0,0,0,0,0,0,0,0,0,0,0,0,0,0,0,0,0,0,800,800,802,802,802,802,802,802,800,798,796,796,798,800,800,800,800,800,800,803,802,802,802,805,805,802,800,798,798,798,798,798,796,796,796,796,796,796,796,798,800,800,800,800,800,802,802,802,802,802,800,798,796,796,796,796,796,796,796,800,800,800,800,796,796,794,794,794,794,796,800,802,802,802,800,800,798,798,798,798,798,798,798,802,802,800,798,798,798,798,800,800,800,800,800,802,796,796,798,790,790,800,800,800,796,794,794,794,794,792,792,792,794,794,794,794,796,796,798,798,796,796,796,794,794,794,794,794,794,796,796,798,800,800,800,800,800,796,796,794,794,794,796,796,796,800,802,802,802,802,800,798,798,798,798,798,800,800,800,798,798,798,798,800,800,800,800,800,800,800,796,794,794,794,796,796,796,796,796,796,794,794,792,792,796,796,796,796,796,794,792,792,794,796,796,798,796,796,798,798,798,800,800,800,800,800,798,798,796,796,796,796,796,796,798,798,798,798,798,798,798,798,796,796,796,796,794,792,792,794,796,798,798,798,800,802,803,803,805,807,809,811,811,813,817,817,819,819,823,827,827,858,860,864,867,869,871,873,875,875,878,882,882,887,887,889,894,896,901,903,908,910,913,918,920,923,923,925,925,925,925,928,930,933,935,938,940,946,948,951,954,954,956,956,0,0,0,0,0,1579,1579,1579,1579,1572,1572,1572,1564,1564,1564,1564,1557,1557,1557,1550,1550,1550,1543,1543,1543,1543,1536,1536,1529,1529,1529,1523,1523,1523,1516,1516,1516,1516,1516,1516,1509,1503,1503,1496,1496,1496,1496,1496,1489,1489,1489,1489,1489,1483,1477,1477,1470,1470,1470,1470,1470,1464,1464,1464,1464,1464,1464,1458,1458,1452,1452,1445,1445,1445,1439,1439,1439,1439,1439,1433,1433,1433,1427,1427,1427,1421,1421,1421,1421,1421,1421,1415,1415,1415,1415,1410,1410,1410,1404,1398,1398,1398,1398,1398,1392,1392,1392,1392,1392,1387,1387,1387,1381,1381,1376,1376,1376,1376,1376,1370,1370,1370,1370,1365,1365,1365,1359,1359,1359,1354,1354,1354,1349,1349,1349,1349,1343,1343,1343,1338,1338,1338,1333,1333,1333,1333,1328,1328,1328,1328,1322,1322,1322,1317,1317,1312,1312,1312,1312,1312,1307,1307,1307,1307,1307,1302,1302,1297,1297,1292,1292,1288,1288,1288,1288,1288,1283,1283,1278,1278,1273,1273,1273,1273,1273,1268,1268,1268,1268,1268,1264,1259,1259,1259,1255,1255,1255,1255,1250,1250,1250,1250,1245,1245,1245,1241,1236,1236,1236,1236,1236,1236,1232,1232,1232,1227,1227,1223,1223,1223,1219,1219,1219,1214,1214,1214,1214,1214,1210,1210,1210,1210,1206,1206,1206,1206,1202,1202,1202,1197,1197,1197,1197,1197,1193,1193,1189,1189,1185,1185,1185,1181,1181,1181,1181,1181,1181,1177,1177,1177,1173,1173,1173,1169,1169,1169,1169,1165,1161,1157,1157,1157,1063,1063,1063,1060,1060,1060,1057,1054,1054,1054,1050,1050,1047,1044,1041,1041,1041,0,0,0,0,0,0,0,0,0,0,0,0,0,0,0,0,0,0,0,0,0,0,0,0,0,0,0,0,0,0,0,0
0,0,0,0,0,0,0,0,0,0,0,0,0,0,0,0,0,0,0,0,0,0,0,0,0,798,798,800,800,800,800,800,800,798,798,796,796,796,798,796,796,794,794,790,790,798,796,790,790,800,800,796,796,796,796,796,796,796,794,794,794,794,794,794,796,798,798,798,798,800,800,798,798,798,798,796,794,794,794,794,794,794,794,794,794,796,796,796,794,794,792,792,790,790,792,792,794,792,792,796,796,796,796,796,796,796,794,794,796,798,796,796,794,794,794,796,796,796,796,796,796,792,789,789,787,787,789,789,789,792,792,792,790,790,789,789,789,789,789,790,790,792,794,794,794,794,794,794,792,792,792,790,790,790,790,790,790,794,794,796,794,790,790,790,790,792,792,792,792,792,794,796,796,796,794,794,796,794,794,794,794,796,794,794,792,792,792,789,789,789,789,789,789,794,794,792,792,794,794,794,794,792,790,790,790,790,790,790,790,790,792,792,792,792,790,790,790,790,790,790,790,792,792,792,792,792,790,790,790,790,794,794,794,794,794,794,794,794,794,794,796,794,794,796,796,796,794,794,794,794,794,792,790,790,792,794,796,796,796,798,800,802,803,805,807,809,811,811,813,817,817,819,819,823,827,858,858,860,862,867,869,871,873,875,875,878,882,885,887,889,891,894,896,898,903,908,913,915,918,923,923,925,925,925,925,925,928,933,935,935,938,940,946,948,951,954,956,956,956,0,0,0,0,0,1579,1579,1579,1579,1572,1572,1572,1572,1564,1564,1564,1564,1557,1557,1550,1550,1550,1550,1543,1543,1543,1543,1536,1529,1529,1529,1523,1523,1523,1523,1523,1516,1516,1516,1516,1509,1503,1503,1496,1496,1496,1496,1496,1489,1489,1489,1489,1489,1483,1477,1477,1470,1470,1470,1470,1470,1464,1464,1464,1464,1464,1464,1464,1464,1458,1452,1445,1445,1445,1445,1439,1439,1439,1439,1433,1433,1433,1427,1427,1427,1421,1421,1421,1421,1421,1421,1421,1415,1415,1415,1410,1410,1410,1404,1404,1398,1398,1398,1398,1398,1392,1392,1392,1392,1392,1387,1387,1381,1381,1376,1376,1376,1376,1376,1376,1370,1370,1370,1370,1365,1365,1359,1359,1359,1354,1354,1354,1354,1349,1349,1349,1349,1343,1343,1343,1338,1338,1333,1333,1333,1333,1328,1328,1328,1328,1328,1328,1322,1317,1317,1317,1317,1312,1312,1312,1312,1307,1307,1307,1307,1302,1302,1302,1297,1292,1292,1292,1292,1288,1288,1288,1283,1283,1278,1278,1273,1273,1273,1273,1273,1273,1268,1268,1268,1268,1264,1264,1264,1259,1255,1255,1255,1255,1250,1250,1250,1250,1250,1250,1245,1241,1241,1236,1236,1236,1236,1236,1236,1232,1232,1232,1227,1227,1223,1223,1219,1219,1219,1219,1214,1214,1214,1214,1214,1214,1210,1210,1210,1210,1206,1206,1202,1202,1202,1197,1197,1197,1197,1197,1193,1193,1193,1189,1189,1185,1185,1181,1181,1181,1181,1181,1181,1177,1177,1177,1173,1173,1173,1173,1169,1169,1169,1070,1067,1067,1067,1070,1070,1063,1063,1060,1060,1057,1054,1054,1054,1050,1050,1050,1047,1044,1041,1041,1041,0,0,0,0,0,0,0,0,0,0,0,0,0,0,0,0,0,0,0,0,0,0,0,0,0,0,0,0,0,0,0,0
0,0,0,0,0,0,0,0,0,0,0,0,0,0,0,0,0,0,0,0,0,0,0,0,0,794,794,798,798,798,798,798,796,796,794,794,794,794,794,794,794,790,789,789,789,789,789,789,789,789,790,792,794,792,792,794,792,792,792,792,790,790,790,792,792,794,796,796,796,798,796,796,796,792,792,792,792,789,789,789,792,792,792,792,792,794,794,794,792,792,790,789,789,790,789,789,790,790,790,790,792,792,792,792,792,794,794,794,794,794,794,794,790,790,790,790,790,790,790,790,790,785,785,787,787,787,785,783,783,787,789,789,787,787,787,787,785,785,787,787,787,789,790,792,792,792,792,792,790,790,790,789,789,789,787,787,787,785,785,787,787,785,783,783,785,785,785,785,785,789,790,790,790,790,790,790,792,792,792,792,792,792,790,789,789,789,789,787,787,783,783,787,787,787,787,789,789,789,789,789,789,789,789,789,789,789,789,789,789,789,790,790,790,789,789,789,789,787,787,787,787,787,789,787,787,787,787,787,787,787,789,789,789,792,792,792,792,790,790,790,792,790,790,790,792,792,792,792,792,794,792,790,790,790,790,792,794,794,796,796,800,802,803,807,807,809,811,811,813,817,817,819,819,854,854,858,858,860,862,864,867,869,873,875,875,880,885,887,889,891,894,896,896,898,906,910,913,915,918,920,923,925,925,925,928,928,930,933,935,935,938,940,946,951,954,954,956,956,956,0,0,0,0,0,1579,1579,1579,1579,1572,1572,1572,1572,1572,1572,1572,1564,1564,1557,1550,1550,1550,1550,1550,1543,1543,1543,1536,1536,1529,1529,1523,1523,1523,1523,1523,1516,1516,1516,1516,1509,1503,1503,1496,1496,1496,1496,1496,1496,1489,1489,1489,1489,1483,1483,1477,1477,1477,1470,1470,1470,1470,1470,1464,1464,1464,1464,1464,1464,1458,1452,1452,1445,1445,1445,1445,1439,1439,1439,1433,1433,1433,1427,1427,1427,1427,1421,1421,1421,1421,1421,1421,1415,1415,1415,1410,1410,1410,1404,1404,1398,1398,1398,1398,1398,1398,1392,1392,1392,1392,1392,1387,1381,1381,1381,1376,1376,1376,1376,1376,1376,1370,1370,1370,1370,1365,1365,1359,1359,1354,1354,1354,1354,1354,1349,1349,1349,1343,1343,1343,1343,1338,1333,1333,1333,1333,1333,1328,1328,1328,1328,1328,1322,1322,1322,1317,1317,1317,1312,1312,1312,1307,1307,1307,1307,1302,1302,1302,1297,1297,1292,1292,1292,1292,1288,1288,1283,1283,1283,1278,1273,1273,1273,1273,1273,1273,1268,1268,1268,1268,1264,1264,1264,1259,1255,1255,1255,1255,1250,1250,1250,1250,1250,1250,1245,1241,1241,1241,1236,1236,1236,1236,1236,1232,1232,1232,1227,1227,1223,1223,1219,1219,1219,1219,1214,1214,1214,1214,1214,1214,1210,1210,1210,1210,1206,1206,1202,1202,1202,1197,1197,1197,1197,1197,1193,1193,1193,1189,1189,1185,1185,1185,1181,1181,1181,1181,1181,1181,1177,1177,1173,1173,1173,1173,1173,1073,1070,1070,1067,1067,1067,1067,1063,1063,1060,1057,1057,1054,1054,1050,1050,1050,1047,1047,1044,1044,1041,1041,1041,0,0,0,0,0,0,0,0,0,0,0,0,0,0,0,0,0,0,0,0,0,0,0,0,0,0,0,0,0,0,0,0
0,0,0,0,0,0,0,0,0,0,0,0,0,0,0,0,0,0,0,0,0,0,0,0,792,792,790,790,792,792,794,794,794,792,792,790,790,790,789,789,789,789,789,789,789,789,787,787,787,787,787,790,790,790,790,792,790,790,790,789,789,787,787,787,789,789,792,794,794,794,794,794,785,783,783,783,781,781,783,783,783,787,787,787,789,790,790,789,789,789,789,787,787,787,787,787,789,789,789,789,789,789,789,787,783,783,783,794,790,790,790,790,789,789,789,789,789,787,787,787,785,783,783,783,785,785,783,783,783,783,783,783,785,783,783,783,783,783,783,783,785,785,785,785,785,785,787,789,787,787,787,787,787,785,783,781,781,781,781,781,783,781,780,780,781,781,781,781,781,781,783,783,783,789,787,787,789,789,790,789,789,789,787,787,787,787,785,785,783,783,783,783,783,783,783,787,787,787,787,787,787,785,785,787,787,787,787,787,787,787,789,787,787,787,785,785,787,785,785,785,783,783,783,783,783,783,783,783,785,785,785,787,785,785,787,785,785,787,785,785,785,787,787,787,787,787,789,787,787,790,789,789,789,789,789,790,792,794,794,796,798,800,803,807,807,809,811,811,813,817,817,819,854,854,854,858,858,860,862,864,867,869,873,875,878,880,885,887,889,891,894,896,898,906,910,913,915,915,918,920,923,925,925,925,928,928,930,933,935,938,938,943,946,951,954,954,956,956,956,0,0,0,0,0,1586,1579,1579,1579,1579,1572,1572,1572,1572,1572,1572,1564,1564,1557,1550,1550,1550,1550,1543,1543,1543,1543,1536,1536,1529,1529,1529,1523,1523,1523,1523,1516,1516,1516,1516,1509,1509,1503,1503,1496,1496,1496,1496,1496,1489,1489,1489,1489,1483,1483,1477,1477,1477,1470,1470,1470,1470,1470,1470,1464,1464,1464,1464,1464,1458,1452,1452,1445,1445,1445,1445,1439,1439,1439,1433,1433,1433,1427,1427,1427,1427,1427,1421,1421,1421,1421,1421,1415,1415,1415,1415,1410,1410,1404,1404,1404,1404,1398,1398,1398,1398,1398,1398,1392,1392,1392,1392,1387,1387,1381,1381,1376,1376,1376,1376,1376,1376,1376,1370,1370,1365,1365,1365,1359,1359,1354,1354,1354,1354,1354,1349,1349,1343,1343,1343,1343,1338,1333,1333,1333,1333,1333,1328,1328,1328,1328,1328,1328,1322,1322,1322,1317,1317,1317,1312,1312,1307,1307,1307,1307,1307,1302,1302,1302,1297,1297,1292,1292,1292,1288,1288,1288,1283,1283,1278,1273,1273,1273,1273,1273,1273,1268,1268,1268,1264,1264,1259,1259,1259,1255,1255,1255,1255,1255,1255,1250,1250,1250,1250,1245,1241,1241,1241,1236,1236,1236,1236,1236,1236,1232,1232,1232,1227,1227,1223,1223,1219,1219,1219,1219,1214,1214,1214,1214,1214,1214,1214,1210,1210,1210,1206,1202,1202,1202,1197,1197,1197,1197,1197,1197,1193,1193,1193,1189,1189,1185,1185,1185,1185,1181,1181,1181,1181,1177,1169,1169,1173,1177,1173,1173,1073,1070,1067,1067,1067,1067,1067,1063,1060,1060,1054,1054,1054,1050,1050,1050,1047,1044,1044,1041,1041,1038,1038,1038,0,0,0,0,0,0,0,0,0,0,0,0,0,0,0,0,0,0,0,0,0,0,0,0,0,0,0,0,0,0,0,0
0,0,0,0,0,0,0,0,0,0,0,0,0,0,0,0,0,0,0,0,0,0,0,0,789,789,787,787,787,787,787,792,790,790,789,789,789,787,785,785,785,783,780,780,780,783,783,781,781,783,787,787,789,789,789,789,789,789,789,787,787,785,785,783,781,781,781,781,780,780,781,781,781,781,781,781,781,781,781,781,781,783,783,783,783,783,785,785,785,785,787,785,785,785,785,785,787,787,787,787,787,787,781,781,778,774,774,778,778,778,778,781,787,787,785,785,785,783,783,785,783,781,781,781,781,781,781,781,781,781,781,781,781,781,781,781,781,781,781,781,781,781,780,780,780,780,780,783,783,783,783,785,785,781,780,780,780,778,778,778,778,778,778,778,778,778,780,780,780,780,780,780,780,781,780,780,785,787,787,787,781,781,780,780,780,783,783,781,781,781,781,781,781,781,781,783,783,783,783,783,783,783,783,785,785,785,787,785,785,785,785,783,783,785,783,783,785,783,781,781,781,781,781,780,780,781,780,780,781,781,781,781,781,781,781,781,781,781,781,780,780,783,783,785,785,785,783,783,783,783,785,785,787,787,789,789,792,792,794,796,798,800,802,805,807,809,811,811,813,817,817,849,851,854,854,858,858,860,862,864,867,869,873,875,878,882,885,887,889,891,894,898,901,906,910,913,915,918,920,923,923,925,925,928,928,930,930,935,935,938,940,943,948,951,954,954,956,956,956,0,0,0,0,0,1586,1579,1579,1579,1579,1572,1572,1572,1572,1572,1572,1564,1564,1557,1550,1550,1550,1550,1543,1543,1543,1543,1536,1536,1536,1529,1529,1529,1523,1523,1523,1516,1516,1516,1516,1509,1509,1503,1503,1503,1496,1496,1496,1496,1496,1496,1489,1489,1483,1483,1483,1477,1477,1470,1470,1470,1470,1470,1470,1464,1464,1464,1464,1464,1464,1458,1452,1452,1445,1445,1445,1445,1439,1439,1439,1433,1433,1427,1427,1427,1427,1427,1427,1421,1421,1421,1421,1421,1415,1415,1415,1415,1410,1410,1404,1404,1404,1404,1398,1398,1398,1398,1398,1398,1392,1392,1392,1387,1387,1381,1381,1376,1376,1376,1376,1376,1376,1376,1376,1370,1370,1365,1365,1359,1354,1354,1354,1354,1354,1354,1349,1349,1343,1343,1343,1343,1338,1333,1333,1333,1333,1333,1328,1328,1328,1328,1328,1328,1322,1322,1322,1322,1322,1317,1312,1312,1312,1307,1307,1307,1307,1302,1302,1302,1302,1297,1297,1292,1292,1292,1288,1288,1288,1283,1278,1278,1273,1273,1273,1273,1273,1268,1268,1268,1264,1264,1259,1259,1259,1255,1255,1255,1255,1255,1255,1250,1250,1250,1250,1245,1241,1241,1241,1236,1236,1236,1236,1236,1236,1232,1232,1232,1232,1227,1227,1223,1223,1219,1219,1219,1219,1219,1219,1214,1214,1214,1214,1210,1210,1210,1206,1202,1202,1202,1197,1197,1197,1197,1197,1197,1193,1193,1193,1193,1189,1185,1185,1185,1185,1181,1181,1181,1181,1177,1169,1169,1077,1077,1073,1070,1070,1067,1067,1063,1063,1063,1063,1060,1057,1057,1054,1050,1050,1047,1047,1047,1044,1041,1041,1041,1038,1038,1034,1034,0,0,0,0,0,0,0,0,0,0,0,0,0,0,0,0,0,0,0,0,0,0,0,0,0,0,0,0,0,0,0,0
0,0,0,0,0,0,0,0,0,0,0,0,0,0,0,0,0,0,0,0,0,0,0,785,785,781,781,780,780,778,774,774,778,778,787,787,787,783,783,780,780,776,776,778,778,778,778,778,781,781,783,783,785,785,785,785,785,785,785,785,785,783,781,781,780,780,780,778,776,776,776,776,778,780,780,780,780,780,780,780,780,780,780,780,780,778,778,774,774,776,776,780,780,781,781,781,781,780,774,774,774,774,774,776,776,774,774,776,776,776,774,774,774,780,780,781,781,781,781,781,780,780,780,780,780,780,778,778,778,778,778,780,780,780,780,780,780,780,780,778,778,778,776,776,776,776,776,776,774,774,776,776,778,778,778,778,776,773,773,774,774,776,776,776,776,776,776,776,776,776,776,776,776,778,776,776,774,774,774,774,780,780,778,778,778,778,778,780,780,780,780,778,778,780,780,780,780,778,778,780,780,780,780,780,783,783,785,783,783,783,780,780,780,781,781,781,781,781,780,780,780,780,780,778,778,780,780,780,778,778,778,778,776,776,776,776,776,778,778,778,778,778,778,778,780,780,780,780,781,781,783,783,785,787,787,789,790,790,792,796,798,798,802,805,807,809,811,813,815,843,847,849,851,854,854,858,858,860,862,864,867,869,873,875,878,882,885,887,891,894,896,898,903,906,908,913,913,918,920,923,925,925,928,930,930,930,933,935,938,938,940,946,948,951,954,956,956,956,959,0,0,0,0,0,1586,1579,1579,1579,1579,1572,1572,1572,1572,1572,1572,1564,1564,1557,1557,1557,1550,1550,1550,1543,1543,1543,1543,1536,1536,1536,1529,1529,1523,1523,1523,1516,1516,1516,1509,1509,1509,1503,1503,1503,1496,1496,1496,1496,1496,1496,1489,1489,1489,1489,1483,1483,1477,1477,1477,1470,1470,1470,1470,1464,1464,1464,1464,1464,1464,1458,1452,1452,1445,1445,1445,1445,1439,1439,1439,1439,1433,1433,1433,1433,1433,1427,1427,1427,1427,1421,1421,1421,1421,1415,1415,1415,1415,1410,1410,1404,1404,1404,1404,1398,1398,1398,1398,1398,1392,1392,1392,1392,1387,1381,1381,1381,1376,1376,1376,1376,1376,1376,1376,1370,1370,1365,1365,1359,1354,1354,1354,1354,1354,1354,1349,1349,1349,1349,1343,1343,1338,1333,1333,1333,1333,1333,1328,1328,1328,1328,1328,1328,1328,1328,1328,1328,1322,1317,1312,1312,1312,1307,1307,1307,1307,1302,1302,1302,1302,1297,1297,1292,1292,1292,1288,1288,1288,1288,1283,1278,1278,1273,1273,1273,1273,1268,1268,1268,1264,1264,1264,1264,1259,1259,1259,1255,1255,1255,1255,1250,1250,1250,1250,1245,1241,1241,1241,1236,1236,1236,1236,1236,1236,1232,1232,1232,1232,1227,1227,1227,1223,1219,1219,1219,1219,1219,1219,1219,1214,1214,1214,1210,1210,1210,1206,1202,1202,1202,1202,1202,1197,1197,1197,1197,1193,1193,1193,1193,1189,1185,1185,1185,1185,1185,1181,1181,1181,1177,1077,1077,1077,1073,1073,1070,1070,1067,1067,1063,1060,1060,1057,1057,1054,1054,1050,1047,1047,1044,1044,1041,1041,1041,1038,1038,1038,1038,1034,1034,0,0,0,0,0,0,0,0,0,0,0,0,0,0,0,0,0,0,0,0,0,0,0,0,0,0,0,0,0,0,0,0
0,0,0,0,0,0,0,0,0,0,0,0,0,0,0,0,0,0,0,0,0,0,0,780,780,780,776,774,774,773,771,769,769,773,774,774,774,774,774,774,774,774,774,774,774,774,776,774,774,776,774,774,780,780,781,781,781,781,781,781,781,781,778,778,778,778,776,776,776,776,776,776,776,776,776,778,778,778,778,778,778,776,776,774,774,774,774,773,773,773,773,773,773,774,774,774,773,773,773,773,771,771,773,774,773,773,773,774,774,773,773,771,771,773,773,773,773,774,776,778,778,778,776,776,778,778,776,776,776,776,776,778,778,778,778,778,778,778,778,776,776,776,774,774,774,774,774,774,773,773,774,774,774,774,774,774,773,771,771,771,771,773,773,774,774,774,774,774,774,773,773,773,773,773,773,773,771,769,769,769,769,773,773,773,776,776,776,776,778,778,778,778,778,778,776,776,776,774,774,776,776,776,778,778,780,781,783,780,776,776,778,776,776,776,778,778,780,780,778,778,776,776,776,776,776,776,778,776,776,776,776,774,774,774,774,774,774,774,774,774,774,776,776,776,774,774,776,776,778,780,783,783,785,787,787,789,790,790,792,794,796,798,798,805,807,811,811,821,837,843,847,849,851,851,854,856,858,860,862,864,869,869,873,875,878,882,885,887,891,894,898,901,903,906,908,910,913,915,920,923,925,925,928,930,933,933,933,935,938,938,940,946,948,951,954,956,956,959,959,0,0,0,0,0,1586,1579,1579,1579,1579,1572,1572,1572,1572,1572,1572,1564,1564,1564,1557,1557,1557,1550,1550,1550,1543,1543,1543,1543,1543,1536,1536,1529,1529,1523,1523,1523,1516,1516,1509,1509,1509,1509,1503,1503,1503,1496,1496,1496,1496,1496,1496,1489,1489,1489,1489,1483,1483,1477,1477,1477,1470,1470,1470,1470,1470,1464,1464,1464,1464,1458,1452,1452,1452,1445,1445,1445,1439,1439,1439,1439,1433,1433,1433,1433,1433,1427,1427,1427,1427,1421,1421,1421,1421,1415,1415,1415,1415,1415,1410,1410,1404,1404,1404,1404,1398,1398,1398,1398,1398,1392,1392,1392,1387,1387,1381,1381,1381,1376,1376,1376,1376,1376,1376,1370,1370,1365,1365,1359,1354,1354,1354,1354,1354,1354,1349,1349,1349,1349,1343,1343,1338,1333,1333,1333,1333,1333,1333,1328,1328,1328,1328,1328,1328,1328,1328,1328,1322,1317,1312,1312,1312,1307,1307,1307,1307,1302,1302,1302,1302,1297,1297,1292,1292,1292,1288,1288,1288,1288,1283,1283,1278,1273,1273,1273,1273,1273,1268,1268,1264,1264,1264,1264,1259,1259,1259,1259,1255,1255,1255,1255,1250,1250,1250,1250,1245,1241,1241,1241,1236,1236,1236,1236,1236,1232,1232,1232,1232,1227,1227,1227,1223,1219,1219,1219,1219,1219,1219,1219,1214,1214,1214,1214,1210,1210,1206,1202,1202,1202,1202,1202,1197,1197,1197,1197,1193,1193,1193,1193,1189,1189,1189,1185,1185,1185,1080,1077,1077,1077,1077,1077,1073,1070,1070,1070,1067,1067,1063,1063,1060,1060,1057,1057,1054,1054,1050,1047,1044,1041,1041,1041,1041,1038,1038,1038,1034,1034,1034,1034,0,0,0,0,0,0,0,0,0,0,0,0,0,0,0,0,0,0,0,0,0,0,0,0,0,0,0,0,0,0,0,0
0,0,0,0,0,0,0,0,0,0,0,0,0,0,0,0,0,0,0,0,0,0,0,780,778,778,774,773,771,769,767,767,767,769,771,767,767,773,773,771,771,771,771,771,771,771,773,773,773,773,771,769,769,767,767,769,778,774,774,778,778,776,774,774,774,774,774,774,774,774,774,774,774,774,774,776,776,776,776,776,774,773,773,773,773,771,771,771,769,769,771,769,769,769,769,769,769,769,771,771,769,769,769,771,769,769,767,767,767,771,769,769,769,769,771,771,771,771,771,769,767,767,774,774,774,776,774,774,776,774,774,774,773,773,771,771,769,769,771,774,774,774,774,774,774,773,773,771,769,769,771,769,769,769,769,769,771,771,771,771,771,771,771,773,773,773,773,773,773,771,771,771,769,769,769,769,769,769,767,767,767,767,767,767,767,769,769,773,773,774,773,773,773,773,771,771,773,773,773,773,773,773,773,773,774,774,774,774,771,771,773,773,773,773,773,773,774,774,774,774,774,774,774,774,774,774,774,774,774,774,774,773,773,773,773,771,771,771,771,771,771,771,773,773,774,774,774,776,778,778,780,780,781,785,787,789,790,790,792,794,796,798,798,827,827,827,831,833,837,841,845,849,851,851,854,856,858,860,862,864,869,871,873,878,880,882,887,889,891,894,898,901,903,903,906,908,910,915,920,923,928,928,930,933,933,935,935,938,938,940,943,948,948,951,954,956,956,959,959,0,0,0,0,1586,1586,1579,1579,1579,1579,1572,1572,1572,1572,1572,1572,1564,1564,1557,1557,1557,1550,1550,1550,1550,1543,1543,1543,1543,1543,1536,1536,1536,1529,1523,1523,1523,1516,1516,1509,1509,1509,1509,1503,1503,1503,1496,1496,1496,1496,1496,1496,1496,1489,1489,1489,1489,1483,1483,1483,1477,1470,1470,1470,1470,1470,1464,1464,1464,1464,1458,1458,1452,1452,1445,1445,1445,1445,1445,1439,1439,1439,1439,1439,1433,1433,1433,1433,1427,1427,1427,1421,1421,1421,1415,1415,1415,1415,1415,1415,1410,1410,1410,1404,1404,1398,1398,1398,1398,1398,1392,1392,1392,1392,1387,1381,1381,1381,1376,1376,1376,1376,1376,1376,1370,1370,1365,1365,1359,1354,1354,1354,1354,1354,1354,1349,1349,1349,1349,1349,1343,1343,1338,1338,1333,1333,1333,1333,1333,1328,1328,1328,1328,1328,1328,1328,1328,1322,1317,1312,1312,1312,1307,1307,1307,1307,1307,1307,1302,1302,1302,1297,1292,1292,1292,1292,1288,1288,1288,1283,1283,1283,1278,1278,1273,1273,1273,1268,1268,1264,1264,1264,1264,1259,1259,1259,1259,1255,1255,1255,1255,1250,1250,1250,1250,1245,1245,1241,1241,1241,1236,1236,1236,1236,1236,1232,1232,1232,1227,1227,1227,1223,1223,1219,1219,1219,1219,1219,1219,1219,1214,1214,1210,1210,1210,1206,1206,1202,1202,1202,1202,1197,1197,1197,1197,1197,1193,1193,1193,1189,1189,1189,1185,1185,1080,1080,1077,1077,1077,1077,1077,1073,1070,1067,1067,1067,1067,1063,1060,1057,1057,1054,1054,1054,1054,1050,1047,1041,1041,1041,1041,1038,1038,1038,1038,1034,1034,1031,1031,0,0,0,0,0,0,0,0,0,0,0,0,0,0,0,0,0,0,0,0,0,0,0,0,0,0,0,0,0,0,0,0
0,0,0,0,0,0,0,0,0,0,0,0,0,773,769,769,0,0,0,0,0,0,773,771,771,771,769,769,769,767,767,766,766,767,766,766,767,767,767,769,769,769,769,769,769,769,771,769,769,769,769,767,766,766,766,767,766,766,767,769,769,771,771,773,773,774,773,773,774,774,773,773,773,774,774,774,774,774,774,774,771,769,769,769,769,769,769,767,767,767,767,767,767,767,767,767,767,767,767,767,767,767,767,767,767,767,764,764,764,766,766,766,767,767,769,769,767,767,767,766,766,766,766,766,766,766,771,771,773,773,773,771,771,769,769,767,767,767,767,767,767,767,767,767,773,766,766,766,766,767,767,767,767,767,767,767,767,767,769,769,769,769,769,771,771,771,769,769,769,767,767,767,767,767,767,767,767,767,766,766,766,766,766,766,766,766,766,764,764,764,764,769,769,769,769,769,769,771,769,769,769,769,766,766,767,767,767,767,767,767,769,767,767,764,764,767,767,769,771,771,771,771,771,771,771,773,771,771,769,766,766,766,766,767,767,767,767,766,764,764,766,767,767,769,771,771,773,774,776,778,780,780,781,783,785,789,790,790,792,794,796,796,827,827,829,831,833,835,837,841,845,849,851,851,854,858,858,860,864,867,869,871,873,878,880,885,887,889,894,896,898,901,903,903,906,908,908,913,920,928,930,930,933,933,933,935,935,938,940,940,943,948,951,954,956,956,956,959,959,0,0,0,0,1586,1586,1579,1579,1579,1579,1572,1572,1572,1572,1572,1564,1564,1557,1557,1550,1550,1550,1550,1550,1550,1543,1543,1543,1543,1543,1536,1536,1536,1529,1523,1523,1523,1523,1516,1516,1516,1509,1509,1509,1503,1503,1503,1496,1496,1496,1496,1496,1496,1496,1489,1489,1489,1489,1483,1483,1477,1477,1477,1470,1470,1470,1464,1464,1464,1464,1458,1458,1452,1452,1445,1445,1445,1445,1445,1445,1439,1439,1439,1439,1439,1439,1433,1433,1433,1427,1427,1421,1421,1421,1421,1415,1415,1415,1415,1415,1410,1410,1410,1404,1404,1398,1398,1398,1398,1398,1398,1392,1392,1392,1392,1387,1381,1381,1381,1381,1376,1376,1376,1376,1376,1370,1370,1365,1359,1354,1354,1354,1354,1354,1354,1349,1349,1349,1349,1349,1349,1343,1338,1338,1333,1333,1333,1333,1333,1333,1333,1328,1328,1328,1328,1328,1328,1322,1317,1312,1312,1312,1312,1307,1307,1307,1307,1307,1302,1302,1302,1297,1292,1292,1292,1292,1288,1288,1288,1283,1283,1283,1278,1278,1278,1273,1273,1273,1268,1268,1268,1264,1264,1264,1259,1259,1259,1259,1255,1255,1255,1255,1250,1250,1250,1245,1245,1241,1241,1241,1241,1236,1236,1236,1236,1232,1232,1232,1227,1227,1227,1223,1223,1223,1223,1219,1219,1219,1219,1219,1214,1214,1210,1210,1210,1206,1206,1202,1202,1202,1202,1197,1197,1197,1197,1197,1193,1193,1193,1193,1189,1189,1189,1189,1080,1080,1080,1080,1077,1073,1073,1070,1067,1067,1067,1063,1063,1060,1057,1057,1057,1054,1054,1050,1050,1050,1041,1041,1038,1038,1038,1038,1038,1038,1034,1034,1028,1028,1031,0,0,0,0,0,0,0,0,0,0,0,0,0,0,0,0,0,0,0,0,0,0,0,0,0,0,0,0,0,0,0,0
0,0,0,0,0,0,0,0,0,0,0,766,766,766,766,769,0,0,0,0,0,0,769,767,767,767,767,767,767,767,766,766,766,766,764,764,766,766,766,767,767,767,767,767,767,767,767,767,767,767,766,766,766,764,764,764,764,764,766,766,766,767,767,769,771,773,773,773,773,771,771,771,771,771,771,771,771,771,769,769,769,767,767,767,767,767,767,766,766,767,767,766,766,766,766,766,766,766,766,766,766,766,766,766,766,766,762,762,762,762,764,764,764,764,764,764,764,764,764,764,764,764,764,764,762,762,764,766,766,771,769,767,767,767,766,766,764,764,764,764,764,764,766,764,764,764,762,762,762,762,762,766,766,766,766,766,766,766,767,767,766,766,767,767,767,766,766,766,767,766,766,764,764,764,764,764,764,764,764,764,764,764,764,764,764,764,762,761,761,761,761,762,762,762,764,766,767,766,764,764,764,766,764,762,762,762,766,766,766,766,766,762,762,762,762,762,761,761,762,764,764,767,771,761,761,761,761,761,761,762,762,762,764,762,762,766,764,762,762,762,764,766,767,767,769,769,771,773,776,778,780,781,781,783,785,787,789,790,792,794,796,796,827,829,831,833,833,835,839,843,845,849,851,851,854,858,860,862,864,867,869,871,875,878,882,885,887,889,894,896,898,901,903,903,906,906,908,908,923,930,933,933,933,935,935,935,935,940,943,943,946,948,954,954,956,956,959,959,959,0,0,0,0,0,1586,1586,1579,1579,1579,1572,1572,1572,1572,1572,1564,1564,1557,1557,1550,1550,1550,1550,1550,1550,1543,1543,1543,1543,1543,1536,1536,1536,1529,1523,1523,1523,1523,1516,1516,1516,1516,1516,1509,1509,1509,1509,1503,1503,1503,1496,1496,1496,1496,1496,1489,1489,1489,1483,1483,1477,1477,1477,1470,1470,1470,1470,1470,1470,1464,1458,1458,1452,1452,1452,1445,1445,1445,1445,1445,1445,1439,1439,1439,1439,1439,1439,1433,1433,1433,1427,1427,1421,1421,1421,1421,1415,1415,1415,1415,1410,1410,1410,1410,1404,1404,1398,1398,1398,1398,1398,1392,1392,1392,1392,1387,1381,1381,1381,1381,1381,1376,1376,1376,1376,1370,1370,1370,1365,1359,1354,1354,1354,1354,1354,1354,1354,1349,1349,1349,1349,1343,1338,1338,1333,1333,1333,1333,1333,1333,1333,1328,1328,1328,1328,1328,1328,1322,1317,1312,1312,1312,1312,1307,1307,1307,1307,1307,1302,1302,1302,1297,1292,1292,1292,1292,1288,1288,1288,1288,1283,1283,1278,1278,1278,1273,1273,1273,1268,1268,1268,1264,1264,1264,1264,1259,1259,1259,1255,1255,1255,1255,1250,1250,1250,1250,1245,1245,1241,1241,1241,1236,1236,1236,1236,1232,1232,1232,1232,1227,1227,1223,1223,1223,1223,1223,1219,1219,1219,1219,1219,1214,1214,1210,1210,1206,1206,1206,1202,1202,1202,1197,1197,1197,1197,1197,1197,1193,1193,1193,1189,1189,1189,1084,1084,1080,1080,1080,1077,1073,1073,1070,1067,1067,1063,1063,1060,1060,1057,1054,1054,1050,1050,1050,1050,1050,1041,1041,1038,1038,1038,1038,1038,1038,1034,1031,1028,1028,0,0,0,0,0,0,0,0,0,0,0,0,0,0,0,0,0,0,0,0,0,0,0,0,0,0,0,0,0,0,0,0,0
0,0,0,0,0,0,0,0,0,0,0,766,764,764,764,764,0,0,0,0,0,0,767,766,766,766,766,766,767,767,766,764,762,762,761,761,762,762,762,764,764,766,766,766,766,766,766,766,766,766,764,764,764,762,761,761,762,762,762,762,764,764,762,761,761,761,761,766,767,767,767,767,767,767,767,767,767,766,766,766,766,766,764,764,764,764,764,766,766,766,766,766,766,766,766,764,764,764,764,764,764,766,764,764,762,762,762,761,761,761,761,761,761,761,762,761,761,761,761,762,761,759,759,761,761,761,762,762,761,761,761,761,762,766,764,761,761,761,761,762,761,761,764,761,761,762,761,761,761,761,761,761,761,764,764,764,764,764,766,766,764,764,764,766,762,762,762,762,764,764,762,762,762,762,762,762,762,762,764,764,764,762,762,762,761,761,761,761,759,759,761,761,761,761,762,762,762,762,762,761,761,761,761,759,759,759,761,762,762,762,762,762,762,761,761,761,761,761,761,761,761,755,755,759,759,759,759,759,759,761,759,759,761,761,761,762,761,761,761,761,762,764,766,766,767,769,769,771,774,778,780,781,781,783,785,787,789,789,792,794,796,825,829,831,831,833,835,837,841,843,845,849,851,851,854,858,860,862,867,867,869,871,875,880,882,885,887,889,894,896,898,901,903,903,906,906,906,906,938,935,935,935,935,935,935,935,935,940,943,943,946,951,954,956,956,959,959,962,962,964,0,0,0,0,1586,1586,1579,1579,1579,1572,1572,1572,1572,1572,1564,1564,1557,1557,1550,1550,1550,1550,1550,1550,1543,1543,1543,1543,1543,1536,1536,1536,1529,1529,1523,1523,1523,1516,1516,1516,1516,1516,1516,1509,1509,1509,1503,1503,1503,1496,1496,1496,1496,1496,1489,1489,1489,1489,1489,1483,1477,1477,1477,1470,1470,1470,1470,1470,1464,1464,1458,1452,1452,1452,1445,1445,1445,1445,1445,1445,1439,1439,1439,1439,1439,1439,1433,1433,1433,1427,1427,1421,1421,1421,1421,1415,1415,1415,1415,1415,1410,1410,1410,1404,1404,1404,1398,1398,1398,1398,1398,1392,1392,1392,1387,1387,1381,1381,1381,1381,1376,1376,1376,1376,1370,1370,1370,1365,1359,1359,1359,1354,1354,1354,1354,1354,1349,1349,1349,1349,1343,1343,1338,1338,1333,1333,1333,1333,1333,1333,1328,1328,1328,1328,1328,1328,1322,1317,1312,1312,1312,1312,1312,1307,1307,1307,1307,1302,1302,1302,1297,1297,1292,1292,1292,1292,1288,1288,1288,1288,1283,1283,1278,1278,1278,1273,1273,1273,1268,1268,1268,1268,1264,1264,1264,1259,1259,1259,1255,1255,1255,1255,1250,1250,1250,1250,1245,1245,1241,1241,1236,1236,1236,1236,1232,1232,1232,1232,1232,1227,1223,1223,1223,1223,1223,1219,1219,1219,1219,1219,1214,1214,1210,1210,1210,1206,1206,1202,1202,1202,1197,1197,1197,1197,1197,1197,1193,1189,1189,1189,1189,1080,1080,1084,1080,1080,1080,1077,1073,1073,1070,1067,1063,1063,1063,1060,1057,1054,1054,1054,1050,1050,1047,1044,1041,1038,1038,1038,1038,1038,1034,1034,1034,1034,1031,1028,1028,0,0,0,0,0,0,0,0,0,0,0,0,0,0,0,0,0,0,0,0,0,0,0,0,0,0,0,0,0,0,0,0,0
0,0,0,0,0,0,0,0,0,0,766,764,764,764,764,0,0,0,0,0,0,0,764,764,764,764,764,766,766,766,764,764,762,762,761,761,761,761,761,762,762,764,764,764,764,764,764,764,764,764,762,762,762,761,759,755,755,757,759,761,761,761,761,759,755,755,755,755,755,755,762,762,764,764,766,764,764,764,764,762,762,762,761,761,761,761,761,759,759,761,761,764,764,764,764,762,762,762,762,762,762,762,762,762,761,761,759,759,759,759,759,759,759,759,761,759,759,761,761,759,759,759,754,754,755,755,755,755,755,757,755,755,757,757,757,757,757,757,757,757,757,759,759,757,757,759,759,759,759,759,759,759,759,761,761,761,761,761,762,762,761,759,759,761,761,761,761,761,762,762,761,761,761,761,761,759,759,759,761,761,761,761,761,761,759,759,759,759,757,757,757,757,757,757,757,759,761,761,759,759,759,759,759,757,757,757,757,759,761,761,761,759,759,759,759,759,759,757,757,759,757,755,755,757,755,755,755,757,757,755,755,759,759,757,757,759,759,759,759,759,761,762,764,766,766,767,769,771,774,778,780,781,781,783,785,787,789,789,815,819,821,827,829,831,831,833,835,837,841,843,847,849,851,851,854,858,860,862,864,867,871,873,878,882,885,887,887,889,894,894,898,901,903,903,906,906,906,906,940,935,935,935,935,935,935,938,938,940,943,943,946,951,954,956,956,959,959,962,962,964,0,0,0,0,0,1586,1586,1579,1579,1579,1579,1572,1572,1572,1564,1564,1564,1557,1557,1550,1550,1550,1550,1550,1543,1543,1543,1543,1543,1536,1536,1529,1529,1529,1523,1523,1523,1523,1516,1516,1516,1516,1516,1509,1509,1509,1509,1503,1503,1503,1496,1496,1496,1496,1489,1489,1489,1489,1489,1483,1483,1477,1477,1477,1470,1470,1470,1470,1464,1464,1464,1458,1458,1458,1452,1445,1445,1445,1445,1445,1445,1445,1439,1439,1439,1439,1439,1439,1433,1433,1427,1421,1421,1421,1421,1415,1415,1415,1415,1415,1415,1410,1410,1404,1404,1404,1398,1398,1398,1398,1398,1398,1392,1392,1392,1387,1387,1381,1381,1381,1376,1376,1376,1376,1370,1370,1370,1365,1359,1359,1359,1359,1354,1354,1354,1354,1354,1349,1349,1349,1343,1343,1338,1338,1333,1333,1333,1333,1333,1333,1333,1328,1328,1328,1328,1328,1322,1317,1317,1317,1312,1312,1312,1307,1307,1307,1307,1307,1302,1302,1297,1297,1292,1292,1292,1292,1292,1288,1288,1288,1288,1283,1283,1278,1278,1278,1278,1273,1273,1268,1268,1268,1264,1264,1264,1264,1264,1259,1259,1255,1255,1255,1255,1250,1250,1250,1250,1245,1245,1241,1236,1236,1236,1236,1232,1232,1232,1232,1232,1227,1227,1227,1227,1223,1223,1223,1223,1219,1219,1214,1214,1214,1210,1210,1210,1206,1206,1202,1202,1202,1197,1197,1197,1197,1197,1197,1193,1189,1189,1193,1193,1080,1080,1084,1080,1080,1077,1077,1073,1073,1070,1067,1063,1063,1063,1060,1057,1054,1054,1054,1050,1047,1044,1044,1041,1038,1038,1038,1038,1038,1034,1034,1034,1031,1031,1028,1028,0,0,0,0,0,0,0,0,0,0,0,0,0,0,0,0,0,0,0,0,0,0,0,0,0,0,0,0,0,0,0,0,0
0,0,0,0,0,0,0,0,0,766,766,764,762,761,761,761,0,757,757,757,757,0,764,762,761,761,762,764,766,764,762,762,761,759,759,759,759,759,759,761,761,761,761,761,761,761,759,759,761,761,759,759,755,755,754,754,754,754,754,754,754,755,755,755,754,754,754,754,752,752,752,752,754,755,761,761,761,761,761,759,757,757,757,755,755,755,755,755,759,759,759,761,761,761,761,759,759,759,759,761,761,761,759,759,759,759,757,757,757,757,757,757,757,757,757,757,757,757,757,754,754,754,752,752,754,752,752,752,752,752,752,754,754,754,754,754,754,754,754,754,755,757,757,754,754,757,757,757,755,755,757,755,755,754,754,755,755,755,757,757,757,755,755,759,759,757,757,759,759,759,759,757,757,757,759,757,757,757,759,759,757,757,757,755,754,754,754,754,754,754,754,754,754,754,755,757,755,755,757,757,757,755,754,750,750,752,754,755,759,757,757,757,757,757,757,757,757,755,755,755,755,754,754,754,754,754,754,754,754,754,754,754,755,755,755,755,757,759,759,759,761,762,764,764,766,767,769,769,774,778,780,780,780,781,783,787,811,813,817,821,823,825,829,831,833,833,835,839,841,843,845,849,851,851,856,858,860,862,864,869,871,873,878,882,885,887,887,889,891,894,896,901,903,903,906,906,906,946,940,940,940,940,938,938,938,938,938,943,943,946,948,951,954,956,959,959,962,962,964,964,970,0,0,0,0,1594,1586,1586,1579,1579,1579,1572,1572,1572,1572,1564,1564,1557,1557,1550,1550,1550,1550,1550,1543,1543,1543,1543,1543,1536,1536,1529,1529,1529,1529,1523,1523,1523,1523,1516,1516,1516,1516,1516,1516,1509,1509,1503,1503,1503,1503,1496,1496,1496,1489,1489,1489,1489,1483,1483,1477,1477,1477,1470,1470,1470,1470,1470,1464,1464,1464,1458,1458,1458,1452,1452,1445,1445,1445,1445,1445,1445,1439,1439,1439,1439,1439,1439,1433,1433,1427,1421,1421,1421,1421,1415,1415,1415,1415,1415,1415,1415,1410,1410,1404,1404,1398,1398,1398,1398,1398,1398,1398,1392,1392,1392,1387,1381,1381,1381,1376,1376,1376,1376,1376,1370,1370,1365,1365,1359,1359,1359,1359,1354,1354,1354,1354,1354,1349,1349,1349,1343,1343,1338,1338,1338,1333,1333,1333,1333,1333,1333,1328,1328,1328,1328,1322,1317,1317,1317,1312,1312,1312,1312,1307,1307,1307,1307,1307,1302,1302,1297,1297,1292,1292,1292,1292,1288,1288,1288,1288,1283,1283,1283,1278,1278,1278,1273,1273,1268,1268,1268,1264,1264,1264,1264,1264,1259,1259,1259,1259,1255,1255,1250,1250,1250,1250,1245,1245,1241,1236,1236,1236,1236,1232,1232,1232,1232,1232,1227,1227,1227,1227,1223,1223,1223,1223,1219,1219,1214,1214,1214,1210,1210,1210,1210,1206,1202,1202,1202,1202,1202,1202,1197,1197,1197,1193,1193,1193,1193,1084,1084,1084,1080,1080,1080,1077,1077,1073,1073,1070,1067,1060,1060,1057,1057,1054,1054,1050,1050,1047,1047,1044,1041,1041,1038,1038,1038,1038,1038,1034,1034,1034,1031,1028,1028,1028,0,0,0,0,0,0,0,0,0,0,0,0,0,0,0,0,0,0,0,0,0,0,0,0,0,0,0,0,0,0,0,0,0
0,0,0,0,0,0,0,0,0,766,766,764,761,761,761,757,757,757,755,755,755,755,754,754,754,754,754,759,761,757,757,759,759,757,757,757,757,757,757,757,757,757,757,755,755,754,754,755,755,755,755,754,754,754,752,752,750,750,750,750,749,749,750,752,752,752,752,750,750,749,749,749,749,749,749,747,747,752,757,755,755,754,754,754,754,754,754,754,754,757,755,755,755,754,754,754,754,755,757,757,757,757,757,757,757,755,755,757,755,755,754,754,755,755,754,754,754,754,754,754,754,754,752,752,752,750,750,750,749,749,749,750,750,750,752,752,750,750,750,750,749,747,746,746,750,750,752,752,750,749,749,749,749,749,749,752,752,754,754,755,754,752,752,752,752,752,752,752,754,755,754,754,754,754,754,752,752,752,750,750,750,750,750,750,750,749,749,750,750,750,750,750,750,750,752,754,752,752,752,752,752,752,752,749,749,750,749,749,750,755,755,755,755,755,754,754,754,754,752,752,754,752,752,752,752,750,750,752,752,752,752,752,752,754,754,754,755,757,759,759,761,762,764,764,766,767,769,769,774,778,780,780,780,781,783,811,811,813,817,819,821,825,829,831,833,835,837,839,841,843,845,849,851,854,856,858,860,862,867,867,871,875,880,882,885,887,887,889,891,894,896,901,903,903,906,906,948,946,943,943,940,940,940,938,938,940,940,943,946,946,951,954,954,956,959,959,962,964,964,967,970,0,0,0,0,1601,1594,1586,1586,1579,1579,1572,1572,1572,1572,1564,1564,1557,1557,1550,1550,1550,1550,1550,1543,1543,1543,1543,1543,1536,1536,1529,1529,1529,1529,1529,1523,1523,1523,1523,1516,1516,1516,1516,1516,1509,1509,1509,1503,1503,1503,1496,1496,1496,1489,1489,1489,1489,1483,1483,1477,1477,1477,1470,1470,1470,1470,1470,1470,1464,1464,1464,1464,1458,1458,1452,1445,1445,1445,1445,1445,1445,1439,1439,1439,1439,1439,1439,1433,1433,1427,1427,1421,1421,1421,1415,1415,1415,1415,1415,1415,1415,1410,1410,1410,1404,1404,1398,1398,1398,1398,1398,1398,1392,1392,1392,1387,1387,1387,1381,1381,1376,1376,1376,1376,1370,1370,1365,1365,1365,1365,1359,1359,1354,1354,1354,1354,1354,1349,1349,1349,1343,1343,1343,1338,1338,1338,1333,1333,1333,1333,1333,1328,1328,1328,1328,1322,1322,1317,1317,1312,1312,1312,1312,1312,1307,1307,1307,1307,1302,1302,1302,1302,1297,1292,1292,1292,1292,1288,1288,1288,1288,1283,1283,1283,1278,1278,1278,1273,1273,1268,1268,1268,1264,1264,1264,1264,1259,1259,1259,1259,1255,1255,1255,1255,1250,1250,1245,1245,1241,1241,1236,1236,1236,1232,1232,1232,1232,1232,1227,1227,1227,1227,1227,1223,1223,1223,1219,1219,1219,1214,1214,1214,1210,1210,1210,1210,1206,1202,1202,1202,1202,1202,1197,1197,1197,1197,1197,1197,0,0,1084,1084,1080,1080,1077,1073,1073,1073,1073,1070,1067,1060,1057,1057,1054,1054,1050,1050,1047,1047,1044,1041,1041,1041,1038,1038,1038,1038,1034,1034,1031,1031,1028,1028,1028,1028,0,0,0,0,0,0,0,0,0,0,0,0,0,0,0,0,0,0,0,0,0,0,0,0,0,0,0,0,0,0,0,0,0
0,0,0,0,0,0,0,0,0,0,766,764,761,761,757,757,755,755,755,754,754,754,754,754,752,752,749,749,752,752,752,754,755,754,754,755,755,754,754,754,752,752,752,752,752,750,750,752,754,754,752,752,752,752,750,750,749,749,747,747,747,747,747,749,750,750,750,750,750,749,749,749,747,747,747,747,747,749,747,747,747,749,752,750,750,752,752,749,749,746,744,744,747,747,747,747,749,749,752,752,752,752,757,757,757,754,754,754,754,752,750,749,749,750,750,750,750,750,750,752,752,752,752,750,750,750,749,749,749,747,747,749,747,747,750,749,747,747,746,746,744,744,742,742,744,744,744,744,747,747,746,746,746,747,747,747,749,749,750,750,750,749,749,749,749,747,747,747,741,741,742,742,747,746,746,747,746,746,746,742,741,741,742,742,742,746,746,746,747,747,747,747,747,747,749,749,750,749,749,749,749,749,749,749,749,749,749,749,749,750,750,750,750,752,752,752,754,752,750,750,747,747,747,750,747,747,749,749,750,750,749,749,750,752,752,754,754,757,757,759,761,762,762,764,766,767,769,769,773,776,778,780,780,809,811,811,813,813,817,819,821,823,827,831,833,835,837,839,841,843,845,849,854,854,856,858,860,864,867,867,871,875,880,882,885,887,887,889,889,889,896,901,903,906,954,948,948,946,943,943,943,940,940,938,938,940,940,943,946,946,951,954,956,959,959,962,962,964,964,967,0,0,0,0,0,1601,1594,1586,1586,1579,1579,1579,1572,1572,1572,1572,1572,1564,1557,1557,1557,1557,1550,1550,1543,1543,1543,1543,1543,1536,1536,1529,1529,1529,1529,1529,1523,1523,1523,1523,1516,1516,1516,1516,1516,1509,1509,1509,1503,1503,1503,1496,1496,1496,1489,1489,1489,1489,1483,1483,1483,1477,1477,1470,1470,1470,1470,1470,1470,1464,1464,1464,1464,1458,1458,1452,1452,1452,1445,1445,1445,1445,1445,1445,1445,1439,1439,1439,1439,1433,1433,1427,1427,1421,1421,1421,1415,1415,1415,1415,1415,1415,1415,1410,1410,1404,1404,1404,1398,1398,1398,1398,1398,1392,1392,1392,1392,1387,1387,1381,1381,1376,1376,1376,1376,1376,1370,1370,1370,1365,1365,1359,1359,1359,1359,1354,1354,1354,1349,1349,1349,1343,1343,1343,1343,1338,1338,1333,1333,1333,1333,1333,1328,1328,1328,1328,1322,1322,1317,1317,1312,1312,1312,1312,1312,1307,1307,1307,1307,1307,1302,1302,1302,1297,1297,1292,1292,1292,1288,1288,1288,1288,1288,1283,1283,1283,1278,1278,1273,1273,1268,1268,1268,1268,1264,1264,1264,1264,1264,1259,1259,1255,1255,1255,1255,1250,1250,1245,1245,1241,1241,1236,1236,1236,1236,1236,1232,1232,1232,1232,1232,1232,1227,1227,1223,1223,1223,1219,1219,1219,1214,1214,1214,1214,1210,1210,1210,1206,1206,1206,1202,1202,1202,1197,1197,1197,1197,1197,1084,1084,1080,1080,1080,1077,1077,1073,1070,1070,1067,1067,1067,1063,1060,1057,1057,1054,1054,1050,1050,1047,1044,1041,1041,1041,1038,1038,1038,1034,1034,1034,1031,1031,1028,1028,1028,1028,1028,0,0,0,0,0,0,0,0,0,0,0,0,0,0,0,0,0,0,0,0,0,0,0,0,0,0,0,0,0,0,0,0,0
0,0,0,0,0,0,0,0,0,0,766,764,764,761,761,759,755,755,754,754,752,752,752,752,752,750,749,749,746,746,746,749,750,752,752,752,752,750,749,747,747,747,747,747,747,747,747,747,750,749,749,749,749,750,749,747,747,747,747,746,746,747,747,747,749,750,749,749,749,747,747,747,747,746,746,746,746,746,744,744,744,746,746,744,744,747,747,744,742,742,742,742,746,746,746,746,747,747,746,746,747,746,746,746,746,746,746,746,747,747,746,746,747,747,747,747,747,747,747,747,749,749,750,749,749,749,749,747,747,746,746,747,746,746,746,744,744,744,742,742,742,742,741,741,742,742,742,742,742,742,742,744,744,744,744,744,744,746,746,746,746,747,747,746,746,746,744,741,741,741,741,741,741,741,741,744,742,742,742,742,741,741,742,742,742,742,742,742,742,742,744,744,744,744,746,747,746,746,746,746,746,746,746,747,747,747,747,747,747,747,747,749,749,747,744,744,746,750,747,747,746,746,747,747,747,747,747,747,749,749,749,749,749,749,750,752,752,755,757,759,761,762,762,764,766,767,767,769,769,774,778,780,807,809,811,813,813,815,817,819,821,823,827,831,833,835,837,839,841,843,847,849,854,856,860,862,864,864,867,869,871,875,880,882,885,887,887,887,887,887,898,903,954,954,954,951,951,946,943,943,943,943,940,940,940,940,940,943,946,948,951,956,956,959,959,962,962,964,967,967,0,0,0,0,0,1601,1601,1594,1586,1586,1579,1579,1579,1572,1572,1572,1572,1564,1557,1557,1557,1557,1550,1550,1550,1543,1543,1543,1543,1536,1536,1536,1529,1529,1529,1529,1523,1523,1523,1523,1516,1516,1516,1516,1516,1509,1509,1509,1503,1503,1503,1496,1496,1496,1496,1489,1489,1489,1483,1483,1483,1477,1477,1470,1470,1470,1470,1470,1470,1464,1464,1464,1464,1464,1458,1458,1452,1452,1452,1445,1445,1445,1445,1445,1445,1439,1439,1439,1439,1433,1433,1427,1427,1421,1421,1421,1415,1415,1415,1415,1415,1415,1415,1410,1410,1404,1404,1404,1398,1398,1398,1398,1398,1392,1392,1392,1392,1387,1387,1381,1381,1381,1376,1376,1376,1376,1370,1370,1370,1365,1365,1365,1359,1359,1359,1354,1354,1354,1354,1349,1349,1349,1343,1343,1343,1343,1338,1338,1338,1338,1333,1333,1328,1328,1328,1328,1322,1322,1322,1317,1312,1312,1312,1312,1312,1312,1307,1307,1307,1307,1307,1302,1302,1297,1297,1292,1292,1292,1288,1288,1288,1288,1288,1288,1283,1283,1278,1278,1273,1273,1268,1268,1268,1268,1268,1268,1264,1264,1264,1259,1259,1255,1255,1255,1255,1250,1250,1245,1245,1241,1241,1241,1241,1236,1236,1236,1236,1236,1236,1232,1232,1232,1227,1223,1223,1223,1223,1219,1219,1219,1214,1214,1214,1214,1214,1214,1210,1206,1206,1206,1202,1202,1202,1202,1197,1197,1197,1084,1084,1084,1080,1080,1077,1077,1073,1070,1067,1067,1067,1067,1067,1063,1060,1057,1057,1054,1054,1050,1047,1047,1044,1041,1041,1041,1038,1038,1038,1034,1034,1034,1031,1028,1028,1028,1028,1028,1028,0,0,0,0,0,0,0,0,0,0,0,0,0,0,0,0,0,0,0,0,0,0,0,0,0,0,0,0,0,0,0,0,0
0,0,0,0,0,0,0,0,0,0,766,766,766,761,761,759,759,759,754,752,752,752,752,752,750,749,747,746,744,744,742,742,742,742,746,746,746,746,746,744,744,744,746,746,746,742,742,742,746,746,746,746,746,747,747,746,746,746,746,746,746,746,746,746,746,747,747,747,747,747,746,746,746,744,744,742,742,742,742,742,742,742,742,742,742,741,741,739,739,741,741,741,742,744,744,744,744,746,744,744,742,742,742,742,741,741,742,742,742,742,744,744,744,746,744,744,744,744,744,744,742,742,744,739,736,736,734,734,734,734,742,742,742,742,744,742,742,742,741,741,741,741,739,739,739,741,739,739,741,741,741,741,741,741,741,741,741,742,744,739,739,744,746,744,744,741,739,739,738,736,736,739,741,741,741,742,742,742,742,741,741,741,741,741,741,741,741,741,741,741,741,741,739,739,741,739,739,739,742,742,742,742,742,742,744,742,742,742,742,742,742,742,744,742,738,736,736,736,741,741,741,742,742,742,744,746,746,746,747,747,747,747,749,749,750,752,752,755,757,759,761,762,764,764,766,767,767,767,769,774,803,805,807,809,811,813,813,815,817,819,821,823,827,833,833,837,839,841,843,843,847,849,854,856,860,862,864,867,869,869,873,875,880,882,885,887,887,887,887,887,887,954,954,954,954,951,951,946,946,946,943,943,943,940,940,940,940,943,946,948,951,956,956,959,959,962,962,964,967,970,0,0,0,0,0,1601,1601,1594,1594,1594,1579,1579,1579,1572,1572,1572,1572,1572,1564,1564,1557,1557,1557,1550,1550,1543,1543,1543,1543,1543,1536,1536,1536,1529,1529,1529,1523,1523,1523,1523,1516,1516,1516,1516,1509,1509,1509,1503,1503,1503,1503,1496,1496,1496,1496,1489,1489,1489,1483,1483,1483,1477,1477,1477,1477,1470,1470,1470,1470,1464,1464,1464,1464,1464,1458,1458,1458,1452,1452,1452,1445,1445,1445,1445,1445,1439,1439,1439,1439,1433,1433,1433,1427,1421,1421,1421,1415,1415,1415,1415,1415,1415,1415,1415,1410,1410,1404,1404,1404,1398,1398,1398,1398,1392,1392,1392,1392,1387,1387,1387,1381,1381,1381,1376,1376,1376,1370,1370,1370,1365,1365,1365,1359,1359,1359,1354,1354,1354,1354,1354,1349,1349,1343,1343,1343,1343,1343,1338,1338,1338,1338,1333,1333,1333,1328,1328,1322,1322,1322,1317,1317,1317,1312,1312,1312,1312,1307,1307,1307,1307,1307,1307,1302,1302,1297,1297,1292,1292,1292,1292,1288,1288,1288,1288,1283,1283,1283,1278,1273,1273,1268,1268,1268,1268,1268,1268,1264,1264,1264,1264,1259,1255,1255,1255,1255,1250,1250,1250,1250,1245,1245,1241,1241,1236,1236,1236,1236,1236,1236,1232,1232,1232,1227,1223,1223,1223,1223,1219,1219,1219,1219,1214,1214,1214,1214,1214,1210,1210,1206,1206,1202,1202,1202,1202,1202,1202,1080,1080,1080,1080,1080,1077,1077,1073,1070,1067,1067,1067,1067,1063,1063,1063,1057,1057,1054,1054,1050,1050,1047,1047,1044,1041,1041,1041,1038,1038,1038,1038,1034,1031,1028,1028,1028,1028,1028,1028,1028,0,0,0,0,0,0,0,0,0,0,0,0,0,0,0,0,0,0,0,0,0,0,0,0,0,0,0,0,0,0,0,0,0
0,0,0,0,0,0,0,0,0,0,766,766,766,764,764,762,761,759,755,752,752,752,752,750,750,749,747,746,744,742,742,741,739,739,739,739,739,739,739,739,742,742,742,742,742,742,741,741,742,742,744,746,746,746,746,746,746,744,744,744,744,744,741,741,744,746,746,746,746,746,746,744,744,742,741,741,741,741,741,741,741,741,741,741,741,739,739,738,738,739,739,739,739,742,742,744,744,744,742,742,741,741,741,741,739,739,739,739,739,739,741,741,741,742,742,742,741,741,741,741,739,738,738,738,734,734,733,733,733,733,733,738,738,738,738,738,738,739,739,738,738,738,738,738,738,738,738,738,739,739,739,739,739,739,736,736,734,734,736,739,739,741,742,742,741,741,739,739,738,736,736,738,738,738,739,741,741,741,741,739,739,739,739,739,739,739,739,738,738,738,738,736,736,736,736,736,736,736,736,739,739,739,739,739,739,738,736,736,739,739,738,738,739,739,736,734,734,736,738,736,736,738,738,738,741,744,744,744,744,746,746,747,747,749,750,750,752,754,757,759,761,762,764,764,766,767,767,767,800,800,802,805,807,809,811,813,813,815,817,819,823,825,829,833,833,837,839,841,843,843,845,849,856,858,860,862,864,867,869,871,875,878,882,885,885,887,887,887,887,887,954,954,954,954,954,954,951,948,946,946,943,943,943,943,943,940,940,946,946,948,951,956,956,959,959,962,964,964,967,970,0,0,0,0,0,1601,1601,1594,1594,1586,1586,1579,1579,1579,1579,1572,1572,1572,1572,1564,1564,1564,1557,1550,1550,1550,1543,1543,1543,1543,1543,1536,1536,1536,1529,1529,1523,1523,1523,1523,1516,1516,1516,1516,1509,1509,1509,1503,1503,1503,1503,1496,1496,1496,1496,1489,1489,1489,1483,1483,1483,1477,1477,1477,1477,1470,1470,1470,1470,1464,1464,1464,1464,1464,1464,1458,1458,1458,1452,1452,1445,1445,1445,1445,1445,1445,1439,1439,1439,1439,1433,1433,1427,1427,1427,1421,1421,1421,1421,1415,1415,1415,1415,1415,1410,1410,1410,1404,1404,1398,1398,1398,1398,1392,1392,1392,1392,1387,1387,1387,1387,1381,1381,1381,1376,1376,1376,1370,1370,1370,1370,1365,1365,1359,1359,1359,1354,1354,1354,1354,1349,1349,1349,1349,1343,1343,1343,1343,1338,1338,1338,1333,1333,1333,1328,1328,1328,1322,1322,1317,1317,1317,1312,1312,1312,1312,1307,1307,1307,1307,1307,1307,1302,1302,1297,1297,1292,1292,1292,1292,1292,1288,1288,1288,1283,1283,1283,1278,1278,1273,1273,1273,1268,1268,1268,1268,1264,1264,1264,1264,1259,1255,1255,1255,1255,1255,1250,1250,1250,1245,1245,1245,1241,1241,1241,1241,1236,1236,1236,1236,1232,1232,1227,1227,1227,1223,1223,1219,1219,1219,1219,1214,1214,1214,1214,1214,1210,1206,1206,1206,1202,1202,1202,1202,1077,1073,1073,1077,1077,1080,1077,1077,1073,1070,1070,1067,1067,1063,1063,1063,1063,1060,1057,1057,1054,1050,1050,1050,1047,1047,1044,1041,1041,1041,1041,1041,1038,1038,1034,1031,1028,1028,1028,1028,1028,1028,1028,0,0,0,0,0,0,0,0,0,0,0,0,0,0,0,0,0,0,0,0,0,0,0,0,0,0,0,0,0,0,0,0,0
0,0,0,0,0,0,0,0,0,0,0,0,0,0,0,0,0,0,0,754,752,752,752,750,749,746,744,742,742,741,741,738,738,736,736,736,736,736,736,738,739,739,739,739,739,739,739,739,741,741,741,742,741,741,744,744,744,742,742,742,742,742,741,741,741,742,742,744,744,744,744,742,741,741,739,738,738,738,738,739,739,739,738,738,739,738,738,734,734,736,734,734,734,738,739,739,739,739,739,739,739,739,738,738,738,736,736,736,736,736,739,739,739,738,736,734,734,736,736,736,734,733,733,733,733,733,733,733,733,733,733,734,734,734,734,734,734,736,738,736,736,736,736,736,736,734,734,736,736,736,738,738,736,736,734,734,733,733,733,733,733,733,733,736,736,738,736,736,736,734,734,736,736,736,738,739,739,739,739,739,738,738,738,738,738,738,738,736,736,736,736,736,736,734,734,734,734,734,734,734,734,736,736,734,734,734,734,734,736,736,734,734,734,734,734,733,733,734,734,734,734,736,736,736,736,738,739,739,741,742,744,746,747,747,750,750,752,754,757,759,762,762,764,764,766,767,767,767,800,800,802,803,807,809,811,813,815,815,817,819,823,825,829,833,835,839,839,841,843,843,845,849,856,858,860,862,864,867,869,871,875,878,882,885,885,887,885,885,885,0,0,0,956,956,954,954,954,951,948,946,946,946,943,943,943,943,943,946,948,948,954,956,956,959,962,962,964,964,967,967,0,0,0,0,0,1601,1601,1594,1594,1586,1586,1579,1579,1579,1579,1572,1572,1572,1572,1572,1564,1564,1557,1550,1550,1550,1550,1543,1543,1543,1543,1536,1536,1536,1536,1536,1529,1523,1523,1523,1516,1516,1516,1516,1516,1509,1509,1509,1509,1503,1503,1503,1496,1496,1496,1489,1489,1489,1483,1483,1483,1483,1477,1477,1477,1477,1470,1470,1470,1470,1464,1464,1464,1464,1464,1464,1458,1458,1458,1452,1445,1445,1445,1445,1445,1445,1439,1439,1439,1439,1433,1433,1433,1427,1427,1421,1421,1421,1421,1415,1415,1415,1415,1415,1415,1410,1410,1410,1404,1404,1398,1398,1398,1398,1392,1392,1392,1387,1387,1387,1387,1381,1381,1381,1381,1376,1376,1376,1370,1370,1370,1365,1365,1365,1359,1359,1359,1359,1354,1354,1349,1349,1349,1349,1349,1343,1343,1343,1343,1343,1338,1333,1333,1333,1328,1328,1328,1328,1328,1322,1322,1317,1312,1312,1312,1312,1307,1307,1307,1307,1307,1307,1302,1302,1297,1297,1297,1292,1292,1292,1292,1288,1288,1288,1288,1283,1283,1283,1278,1273,1273,1273,1273,1273,1268,1268,1268,1264,1264,1264,1259,1259,1259,1255,1255,1255,1250,1250,1250,1245,1245,1245,1241,1241,1241,1241,1241,1236,1236,1236,1232,1232,1227,1227,1227,1223,1223,1223,1219,1219,1219,1214,1214,1214,1214,1214,1210,1206,1206,1202,1202,1202,1202,1077,1077,1073,1073,1073,1073,1067,1067,1067,1070,1067,1067,1063,1063,1063,1063,1060,1060,1060,1057,1054,1050,1050,1050,1047,1047,1044,1044,1041,1041,1041,1041,1041,1038,1038,1034,1034,1028,1028,1028,1028,1028,1028,1028,0,0,0,0,0,0,0,0,0,0,0,0,0,0,0,0,0,0,0,0,0,0,0,0,0,0,0,0,0,0,0,0,0
0,0,0,0,0,0,0,0,0,0,0,0,0,0,0,0,0,0,0,754,752,752,752,750,747,746,744,742,741,739,738,738,738,736,736,736,736,736,736,736,738,738,738,738,738,738,738,738,738,736,736,736,734,734,739,739,739,739,739,739,741,739,738,736,736,734,734,738,736,736,738,738,738,738,738,736,736,736,736,736,738,736,736,736,736,736,736,733,733,731,731,733,733,733,733,733,733,733,733,733,738,739,738,736,736,736,736,736,734,734,736,736,736,734,734,733,733,733,733,731,731,731,731,731,731,730,730,730,730,730,730,730,730,730,730,733,733,733,733,733,733,733,733,733,733,733,733,733,733,734,734,734,733,731,731,731,730,730,731,731,731,731,730,730,731,731,731,733,733,733,733,734,734,734,736,738,738,738,738,738,736,736,736,736,736,736,734,734,734,734,734,733,733,733,733,733,733,731,731,731,731,733,731,730,730,731,731,731,731,731,731,731,731,731,733,733,733,733,733,733,733,733,734,734,734,734,738,738,739,739,741,744,746,747,750,752,752,754,755,757,762,762,764,766,767,767,796,798,800,800,802,803,807,809,811,813,815,817,819,819,823,825,829,833,835,839,839,841,843,845,847,851,856,858,860,862,864,867,869,871,875,878,882,885,885,885,885,885,0,0,0,0,956,956,956,954,954,954,951,948,946,946,946,943,943,943,943,948,948,948,954,956,956,959,962,964,964,964,967,967,0,0,0,0,0,1601,1601,1601,1601,1586,1586,1586,1579,1579,1579,1572,1572,1572,1572,1572,1572,1564,1557,1557,1550,1550,1550,1550,1543,1543,1543,1543,1536,1536,1536,1536,1529,1523,1523,1523,1516,1516,1516,1516,1516,1509,1509,1509,1509,1503,1503,1503,1496,1496,1496,1496,1489,1489,1483,1483,1483,1483,1477,1477,1477,1477,1470,1470,1470,1470,1464,1464,1464,1464,1464,1464,1464,1458,1458,1452,1445,1445,1445,1445,1445,1445,1439,1439,1439,1439,1439,1433,1433,1427,1427,1421,1421,1421,1421,1415,1415,1415,1415,1415,1415,1410,1410,1410,1404,1404,1398,1398,1398,1398,1392,1392,1392,1392,1387,1387,1387,1387,1387,1381,1381,1381,1376,1376,1376,1370,1370,1370,1365,1365,1359,1359,1359,1359,1354,1354,1354,1349,1349,1349,1349,1349,1349,1343,1343,1343,1338,1338,1333,1333,1333,1333,1328,1328,1328,1322,1322,1322,1312,1312,1312,1312,1307,1307,1307,1307,1307,1307,1302,1297,1297,1297,1297,1292,1292,1292,1292,1288,1288,1288,1288,1283,1283,1283,1278,1273,1273,1273,1273,1273,1273,1273,1268,1268,1268,1264,1264,1259,1259,1255,1255,1255,1250,1250,1250,1250,1250,1245,1245,1241,1241,1241,1241,1241,1236,1236,1232,1232,1227,1227,1227,1223,1223,1223,1219,1219,1219,1219,1214,1214,1214,1214,1210,1206,1206,1202,1202,1202,1080,1077,1077,1073,1073,1073,1070,1067,1067,1067,1067,1067,1063,1063,1063,1063,1060,1060,1057,1057,1057,1054,1050,1050,1050,1047,1044,1044,1041,1041,1041,1038,1038,1038,1038,1034,1031,1028,1028,1028,1025,1025,1025,1028,1028,0,0,0,0,0,0,0,0,0,0,0,0,0,0,0,0,0,0,0,0,0,0,0,0,0,0,0,0,0,0,0,0,0
0,0,0,0,0,0,0,0,0,0,0,0,0,0,0,0,0,0,0,0,0,752,752,749,747,744,744,741,739,739,738,738,736,734,734,734,734,734,734,734,734,734,734,736,736,736,734,734,733,733,731,731,731,731,733,733,733,736,734,734,736,736,734,733,733,730,730,731,731,731,731,734,734,733,733,734,734,733,733,733,734,734,733,733,733,733,733,731,730,730,730,730,730,728,728,728,728,728,728,728,728,730,730,731,734,734,734,734,734,734,734,736,734,733,733,731,731,731,731,728,728,730,730,728,728,728,728,728,728,728,728,728,728,728,728,728,728,728,728,728,728,730,730,731,731,731,731,730,730,728,728,728,728,728,727,727,727,727,727,728,728,728,727,727,728,728,728,730,730,730,730,733,733,733,733,734,734,734,734,733,733,733,731,731,731,731,731,731,731,731,733,730,730,730,728,728,730,728,728,728,728,730,730,728,728,728,727,727,727,727,727,727,727,728,730,730,730,730,730,730,731,731,733,733,733,734,736,738,738,739,741,742,746,747,750,752,752,754,754,757,762,764,764,766,767,794,796,798,800,802,802,803,805,809,811,813,815,817,819,821,823,825,829,833,839,839,841,841,843,845,849,854,856,858,860,862,862,864,869,871,873,873,882,885,885,885,0,0,0,0,0,0,956,954,954,954,954,954,954,951,948,946,946,943,943,943,943,948,948,948,954,956,959,962,962,964,964,967,967,970,0,0,0,0,0,1609,1601,1601,1601,1594,1594,1586,1586,1579,1579,1579,1579,1572,1572,1572,1572,1564,1557,1550,1550,1550,1550,1550,1550,1550,1543,1543,1543,1543,1536,1536,1529,1523,1523,1523,1523,1516,1516,1516,1516,1516,1509,1509,1509,1503,1503,1503,1496,1496,1496,1496,1489,1489,1489,1489,1483,1483,1483,1483,1477,1477,1470,1470,1470,1470,1464,1464,1464,1464,1464,1464,1464,1464,1458,1452,1452,1445,1445,1445,1445,1445,1439,1439,1439,1439,1439,1433,1433,1433,1427,1427,1421,1421,1421,1421,1415,1415,1415,1415,1415,1415,1410,1410,1410,1404,1404,1398,1398,1398,1392,1392,1392,1392,1392,1392,1387,1387,1387,1387,1381,1381,1376,1376,1376,1370,1370,1370,1370,1365,1365,1365,1359,1359,1359,1354,1354,1354,1349,1349,1349,1349,1349,1343,1343,1343,1343,1338,1333,1333,1333,1333,1328,1328,1328,1328,1322,1322,1317,1312,1312,1312,1312,1312,1307,1307,1307,1307,1302,1297,1297,1297,1297,1297,1292,1292,1292,1292,1288,1288,1288,1283,1283,1283,1278,1278,1278,1273,1273,1273,1273,1273,1268,1268,1268,1264,1264,1259,1259,1255,1255,1255,1250,1250,1250,1250,1250,1250,1245,1245,1245,1245,1241,1241,1236,1236,1232,1232,1227,1227,1227,1227,1223,1223,1219,1219,1219,1219,1219,1214,1214,1214,1206,1206,1206,1202,1202,1084,1080,1077,1073,1073,1070,1070,1067,1067,1067,1067,1067,1067,1063,1063,1063,1063,1060,1060,1057,1057,1057,1054,1050,1050,1047,1044,1044,1041,1041,1038,1038,1038,1038,1038,1034,1034,1031,1028,1028,1028,1025,1025,1025,1028,1028,1070,0,0,0,0,0,0,0,0,0,0,0,0,0,0,0,0,0,0,0,0,0,0,0,0,0,0,0,0,0,0,0,0
0,0,0,0,0,0,0,0,0,0,0,0,0,0,0,0,0,0,0,0,0,0,752,749,747,744,744,741,739,739,738,738,734,734,734,733,733,731,731,731,733,733,733,733,730,730,730,728,728,728,728,727,727,728,728,728,728,731,731,731,731,731,728,727,727,728,728,727,727,728,728,728,730,730,730,731,725,725,725,728,725,725,730,730,728,728,731,728,728,727,727,727,727,727,727,727,727,728,728,727,727,728,728,728,728,728,728,730,730,731,731,733,731,731,728,728,728,728,728,728,728,728,727,727,727,727,725,725,725,725,725,725,725,725,725,725,727,727,727,725,725,727,728,728,728,728,728,728,728,727,725,725,725,725,723,723,723,723,723,723,723,723,723,723,725,727,727,727,727,728,728,728,720,720,720,731,733,733,728,728,730,730,728,728,728,728,728,728,728,728,728,727,727,727,727,727,727,727,727,727,727,727,727,727,727,727,725,723,723,723,725,723,723,725,727,727,727,728,728,728,730,730,731,731,733,733,736,736,738,739,741,742,746,747,749,750,750,750,754,757,781,785,785,789,790,794,796,798,800,800,802,803,805,809,811,813,817,819,819,821,823,825,829,835,839,841,841,843,845,847,849,854,856,856,858,860,860,862,864,869,873,873,0,0,0,0,0,0,0,0,0,0,954,954,954,954,954,954,954,954,951,948,946,946,946,946,946,948,948,948,954,956,959,962,962,964,964,967,970,970,0,0,0,0,0,1609,1601,1601,1601,1594,1594,1586,1586,1579,1579,1579,1579,1572,1572,1572,1572,1564,1557,1550,1550,1550,1550,1550,1550,1550,1543,1543,1543,1543,1536,1536,1536,1523,1523,1523,1523,1516,1516,1516,1516,1516,1516,1509,1509,1503,1503,1503,1496,1496,1496,1496,1489,1489,1489,1489,1489,1489,1483,1483,1477,1477,1470,1470,1470,1470,1470,1464,1464,1464,1464,1464,1464,1464,1458,1458,1452,1445,1445,1445,1445,1445,1445,1439,1439,1439,1439,1439,1433,1433,1427,1427,1421,1421,1421,1421,1421,1421,1415,1415,1415,1415,1415,1415,1410,1410,1404,1398,1398,1398,1392,1392,1392,1392,1392,1392,1392,1387,1387,1387,1381,1381,1376,1376,1376,1370,1370,1370,1370,1365,1365,1365,1359,1359,1359,1354,1354,1354,1349,1349,1349,1349,1349,1349,1349,1343,1343,1338,1338,1333,1333,1333,1328,1328,1328,1328,1328,1322,1317,1317,1312,1312,1312,1312,1312,1307,1307,1307,1302,1297,1297,1297,1297,1297,1292,1292,1292,1292,1288,1288,1288,1283,1283,1283,1278,1278,1278,1273,1273,1273,1273,1273,1268,1268,1268,1268,1264,1259,1259,1255,1255,1255,1250,1250,1250,1250,1250,1250,1245,1245,1245,1245,1241,1241,1236,1236,1236,1232,1232,1227,1227,1227,1227,1223,1219,1219,1219,1219,1219,1214,1214,1210,1206,1206,1202,1202,1080,1080,1077,1073,1073,1070,1070,1067,1067,1067,1067,1067,1067,1063,1063,1063,1063,1060,1060,1057,1057,1057,1054,1054,1050,1050,1047,1044,1041,1041,1041,1038,1038,1038,1038,1038,1028,1028,1031,1028,1028,1028,1028,1073,1073,1073,1070,1070,0,0,0,0,0,0,0,0,0,0,0,0,0,0,0,0,0,0,0,0,0,0,0,0,0,0,0,0,0,0,0,0
0,0,0,0,0,0,0,0,0,0,0,0,0,0,0,0,0,0,0,0,0,0,750,750,747,747,742,741,739,739,738,738,734,734,733,733,731,731,731,730,728,727,727,728,727,727,725,725,725,725,723,723,723,725,725,725,727,728,728,728,728,728,727,723,723,723,723,725,725,723,723,725,728,727,727,723,723,723,723,723,722,722,723,725,725,725,728,727,727,725,725,725,725,725,723,723,723,727,727,725,725,727,727,728,727,727,727,727,725,725,723,723,727,727,725,725,727,727,727,725,723,723,725,725,723,723,723,723,723,722,722,722,722,723,723,723,723,725,723,723,723,723,723,725,727,725,725,725,725,725,723,723,723,723,723,723,722,722,722,720,719,719,719,719,720,722,725,725,725,725,725,720,719,717,717,717,719,719,720,720,720,722,722,722,725,725,725,725,723,723,723,723,723,723,722,722,722,722,722,723,723,723,723,725,725,725,723,720,720,720,722,720,720,722,723,723,723,725,725,725,728,728,730,731,731,733,734,736,738,739,739,741,744,746,749,750,750,750,754,781,781,783,783,785,789,794,794,798,800,800,802,803,805,809,811,815,817,819,821,823,825,827,829,837,841,841,841,843,845,847,849,851,854,856,858,860,860,860,860,869,0,0,0,0,0,0,0,0,0,0,0,0,954,954,954,954,954,954,954,954,951,948,946,946,946,946,946,948,948,951,954,956,959,962,962,967,967,967,970,973,0,0,0,0,0,1609,1601,1601,1594,1594,1594,1586,1586,1579,1579,1579,1579,1572,1572,1572,1572,1564,1564,1557,1557,1557,1557,1550,1550,1550,1550,1543,1543,1543,1543,1536,1536,1529,1523,1523,1523,1523,1516,1516,1516,1516,1516,1509,1509,1509,1509,1503,1496,1496,1496,1496,1496,1489,1489,1489,1489,1489,1483,1483,1483,1477,1477,1470,1470,1470,1470,1464,1464,1464,1464,1464,1464,1464,1458,1452,1452,1445,1445,1445,1445,1445,1445,1439,1439,1439,1439,1439,1433,1433,1433,1427,1427,1421,1421,1421,1421,1421,1415,1415,1415,1415,1415,1415,1415,1410,1404,1404,1398,1398,1398,1392,1392,1392,1392,1392,1392,1387,1387,1387,1381,1381,1376,1376,1376,1370,1370,1370,1370,1365,1365,1365,1359,1359,1359,1354,1354,1354,1354,1349,1349,1349,1349,1349,1349,1343,1343,1338,1338,1333,1333,1333,1333,1328,1328,1328,1328,1322,1317,1317,1312,1312,1312,1312,1312,1307,1307,1307,1302,1302,1297,1297,1297,1297,1292,1292,1292,1292,1288,1288,1288,1288,1288,1283,1278,1278,1278,1273,1273,1273,1273,1273,1273,1268,1268,1268,1264,1259,1259,1259,1255,1255,1255,1255,1250,1250,1250,1250,1245,1245,1245,1245,1245,1241,1241,1236,1236,1232,1232,1232,1227,1227,1227,1223,1223,1219,1219,1219,1214,1214,1214,1080,1080,1084,1080,1080,1077,1077,1073,1073,1073,1070,1070,1067,1067,1067,1067,1067,1067,1063,1063,1063,1063,1060,1060,1057,1054,1054,1054,1050,1050,1050,1047,1044,1041,1041,1041,1038,1038,1038,1038,1028,1028,1028,1031,1031,1031,1073,1073,1073,1070,1070,1070,1070,0,0,0,0,0,0,0,0,0,0,0,0,0,0,0,0,0,0,0,0,0,0,0,0,0,0,0,0,0,0,0,0
0,0,0,0,0,0,0,0,0,0,0,0,0,0,0,0,0,0,0,0,0,0,0,794,742,742,742,739,739,739,738,736,734,734,733,733,731,730,730,730,728,727,727,723,723,722,722,722,722,722,722,722,722,723,722,722,723,727,727,722,720,720,727,722,722,722,722,722,722,722,722,722,725,722,722,722,722,722,722,722,720,720,722,723,723,723,723,727,725,723,723,723,723,723,723,722,722,723,725,723,723,723,723,725,723,722,722,725,723,723,720,719,719,720,720,720,723,723,723,723,720,720,722,720,720,722,722,722,722,722,722,722,722,722,722,722,722,722,720,720,720,719,719,720,720,722,722,722,722,723,722,722,722,722,722,722,720,720,719,719,717,717,717,717,717,716,716,719,719,723,719,719,717,716,716,716,717,717,716,716,717,720,720,720,722,723,723,723,722,722,722,722,722,722,720,719,719,719,719,720,720,720,720,722,723,722,719,717,717,719,719,719,719,720,720,722,722,723,725,725,727,727,728,730,731,733,734,736,738,739,739,741,742,744,749,750,750,780,780,781,781,783,783,783,789,792,794,798,800,802,802,803,805,809,811,815,817,819,821,823,825,827,829,835,841,841,843,845,847,849,851,851,854,856,858,860,860,860,860,869,0,0,0,0,0,0,0,0,0,0,0,0,0,956,956,956,956,956,956,954,951,951,948,946,946,946,946,948,948,951,954,956,959,962,964,967,967,970,970,975,0,0,0,0,0,1609,1601,1601,1594,1594,1594,1586,1586,1579,1579,1579,1579,1572,1572,1572,1572,1564,1564,1557,1557,1557,1557,1557,1550,1550,1550,1550,1543,1543,1543,1543,1536,1536,1523,1523,1523,1523,1523,1516,1516,1516,1516,1516,1516,1509,1509,1503,1503,1503,1503,1496,1496,1489,1489,1489,1489,1489,1489,1483,1483,1483,1477,1470,1470,1470,1470,1470,1464,1464,1464,1464,1464,1464,1464,1452,1452,1445,1445,1445,1445,1445,1445,1439,1439,1439,1439,1439,1439,1433,1433,1427,1427,1421,1421,1421,1421,1421,1415,1415,1415,1415,1415,1415,1415,1410,1404,1404,1398,1398,1398,1398,1392,1392,1392,1392,1392,1392,1392,1387,1381,1381,1376,1376,1376,1370,1370,1370,1370,1370,1365,1365,1365,1365,1359,1354,1354,1354,1354,1354,1349,1349,1349,1349,1349,1349,1343,1343,1338,1338,1333,1333,1333,1328,1328,1328,1328,1328,1322,1317,1317,1317,1312,1312,1312,1307,1307,1307,1302,1302,1302,1302,1302,1297,1297,1292,1292,1292,1288,1288,1288,1288,1288,1288,1283,1278,1278,1278,1273,1273,1273,1273,1273,1268,1268,1268,1264,1264,1259,1259,1259,1255,1255,1255,1255,1250,1250,1250,1250,1250,1245,1245,1245,1241,1241,1236,1236,1232,1232,1232,1232,1227,1227,1223,1223,1223,1219,1219,1214,1214,1214,1080,1080,1080,1080,1080,1077,1077,1073,1073,1073,1070,1067,1067,1067,1067,1067,1067,1063,1063,1063,1063,1060,1060,1057,1054,1054,1054,1054,1050,1050,1047,1044,1044,1041,1041,1041,1041,1038,1038,1038,1022,1022,1022,1077,1077,1077,1077,1073,1073,1070,1070,1070,1070,0,0,0,0,0,0,0,0,0,0,0,0,0,0,0,0,0,0,0,0,0,0,0,0,0,0,0,0,0,0,0,0
0,0,0,0,0,0,0,0,0,0,0,0,0,0,0,0,0,0,0,0,0,0,0,794,794,744,744,739,739,739,738,736,736,734,733,733,731,730,730,730,727,725,723,722,722,720,720,719,719,719,719,720,722,722,722,722,722,719,719,719,716,716,719,720,720,720,722,722,722,720,720,720,722,720,719,719,719,719,719,719,719,720,720,720,720,720,722,723,722,722,720,720,720,722,722,720,720,720,722,722,720,716,716,722,720,719,717,717,720,720,719,717,717,717,719,717,717,716,716,719,719,719,719,719,719,719,719,719,720,719,719,719,720,720,720,719,719,719,717,717,717,716,716,713,713,716,719,719,720,720,720,720,720,720,720,719,719,719,717,716,716,716,716,716,714,714,714,716,716,716,716,716,716,716,716,716,716,716,716,716,716,716,716,716,716,716,722,719,719,719,719,719,720,720,717,717,717,717,717,719,719,719,719,719,719,719,716,716,716,716,717,716,716,717,717,719,720,722,723,723,725,727,727,728,731,733,734,736,738,739,739,741,741,742,749,750,778,780,780,781,781,783,783,783,789,792,794,798,800,802,802,803,805,809,811,815,817,819,821,823,825,827,829,835,841,843,843,845,847,849,851,851,854,856,858,858,860,860,0,0,0,0,0,0,0,0,0,0,0,0,0,0,0,956,956,956,956,956,956,956,954,951,951,948,948,948,948,951,951,951,954,956,959,964,967,970,970,970,973,975,981,0,0,0,0,1609,1601,1601,1594,1594,1594,1586,1586,1586,1579,1579,1579,1579,1572,1572,1564,1564,1564,1557,1557,1557,1557,1557,1550,1550,1550,1550,1543,1543,1543,1543,1536,1536,1529,1529,1523,1523,1523,1516,1516,1516,1516,1516,1516,1509,1509,1503,1503,1503,1503,1496,1496,1489,1489,1489,1489,1489,1489,1489,1483,1483,1477,1477,1470,1470,1470,1470,1470,1464,1464,1464,1464,1464,1464,1458,1452,1452,1445,1445,1445,1445,1445,1445,1445,1439,1439,1439,1439,1439,1433,1427,1427,1421,1421,1421,1421,1421,1421,1415,1415,1415,1415,1415,1415,1415,1410,1404,1398,1398,1398,1398,1398,1392,1392,1392,1392,1392,1392,1387,1381,1381,1376,1376,1376,1376,1370,1370,1370,1370,1370,1365,1365,1365,1365,1359,1359,1354,1354,1354,1354,1349,1349,1349,1349,1349,1343,1343,1338,1338,1333,1333,1333,1333,1328,1328,1328,1328,1322,1322,1322,1317,1317,1312,1312,1312,1307,1307,1302,1302,1302,1302,1302,1297,1297,1297,1292,1292,1292,1288,1288,1288,1288,1288,1283,1283,1278,1278,1273,1273,1273,1273,1273,1268,1268,1268,1264,1264,1264,1259,1259,1255,1255,1255,1255,1250,1250,1250,1250,1250,1250,1245,1245,1245,1241,1236,1236,1232,1232,1232,1232,1232,1227,1227,1223,1223,1219,1219,1214,1214,1084,1080,1080,1080,1080,1077,1077,1073,1073,1070,1070,1067,1067,1067,1067,1063,1063,1067,1063,1063,1063,1063,1060,1060,1057,1054,1054,1054,1050,1050,1047,1044,1044,1041,1041,1041,1041,1041,1038,1038,1038,1019,1019,1077,1077,1077,1077,1077,1073,1073,1070,1070,1070,1070,0,0,0,0,0,0,0,0,0,0,0,0,0,0,0,0,0,0,0,0,0,0,0,0,0,0,0,0,0,0,0,0
0,0,0,0,0,0,0,0,0,0,0,0,0,0,0,0,0,0,0,0,0,0,0,794,794,798,746,744,739,739,739,736,736,734,734,731,730,728,728,730,727,725,723,722,720,719,719,717,717,717,717,717,717,717,717,719,719,717,716,716,716,716,716,717,720,720,720,720,720,719,719,719,717,716,716,717,716,716,716,717,717,717,719,719,719,716,716,719,719,717,717,714,714,716,716,714,710,710,710,714,714,711,710,710,710,710,714,714,716,716,717,716,716,716,714,714,714,713,713,713,713,713,713,716,716,717,717,717,717,717,717,717,717,717,719,716,716,717,716,716,714,711,711,711,711,710,710,713,714,716,717,716,714,714,714,714,714,714,714,714,713,713,714,713,713,713,713,713,711,711,711,713,713,713,713,713,713,714,713,713,713,713,714,713,713,713,713,713,713,714,714,714,714,716,714,714,714,714,714,714,716,716,716,716,716,716,714,714,714,714,714,714,714,716,716,717,719,720,722,722,725,727,727,728,730,733,734,736,738,739,739,739,741,742,767,773,776,778,780,780,781,783,783,783,789,794,798,800,802,802,802,803,805,809,811,815,817,819,821,823,825,827,831,837,841,843,845,847,849,849,851,851,854,856,858,858,858,858,0,0,0,0,0,0,0,0,0,0,0,0,0,0,0,956,956,959,959,959,956,956,954,954,951,951,951,951,951,951,951,954,956,956,959,964,967,970,970,973,975,978,981,0,0,0,0,0,1609,1601,1594,1594,1594,1586,1586,1586,1579,1579,1579,1579,1572,1572,1564,1564,1564,1564,1564,1557,1557,1557,1550,1550,1550,1550,1543,1543,1543,1543,1536,1536,1529,1529,1523,1523,1523,1516,1516,1516,1516,1516,1516,1509,1509,1503,1503,1503,1503,1496,1496,1489,1489,1489,1489,1489,1489,1489,1483,1483,1477,1477,1470,1470,1470,1470,1470,1470,1470,1464,1464,1464,1464,1458,1452,1452,1445,1445,1445,1445,1445,1445,1445,1445,1439,1439,1439,1439,1433,1433,1427,1421,1421,1421,1421,1421,1415,1415,1415,1415,1415,1415,1415,1415,1410,1410,1404,1398,1398,1398,1398,1398,1398,1398,1392,1392,1392,1392,1381,1381,1376,1376,1376,1376,1370,1370,1370,1370,1370,1370,1365,1365,1365,1365,1359,1359,1354,1354,1354,1354,1354,1349,1349,1349,1343,1343,1338,1338,1333,1333,1333,1333,1328,1328,1328,1328,1328,1322,1322,1317,1317,1317,1312,1312,1307,1307,1307,1307,1302,1302,1302,1297,1297,1297,1292,1292,1292,1288,1288,1288,1288,1283,1283,1283,1278,1278,1273,1273,1273,1273,1273,1268,1268,1268,1268,1268,1264,1264,1259,1259,1255,1255,1255,1250,1250,1250,1250,1250,1250,1245,1245,1245,1241,1236,1236,1236,1232,1232,1232,1232,1232,1227,1227,1223,1219,1214,1210,1210,1084,1080,1080,1080,1080,1077,1077,1073,1073,1070,1067,1067,1067,1067,1067,1063,1063,1067,1063,1063,1063,1063,1060,1060,1057,1054,1054,1054,1050,1050,1047,1044,1044,1041,1041,1041,1041,1041,1038,1038,1038,1019,1019,1077,1077,1077,1077,1077,1073,1073,1073,1073,1070,1070,0,0,0,0,0,0,0,0,0,0,0,0,0,0,0,0,0,0,0,0,0,0,0,0,0,0,0,0,0,0,0,0
0,0,0,0,0,0,0,0,0,0,0,0,0,0,0,803,802,802,802,802,802,800,798,794,794,798,746,744,741,739,738,736,736,734,734,731,730,728,728,728,728,727,725,722,720,719,719,717,717,717,716,716,716,716,714,711,711,711,713,713,713,713,714,714,717,717,714,713,713,711,711,710,710,711,711,713,713,713,713,714,716,716,716,714,714,713,713,714,716,716,714,713,713,713,716,711,710,710,710,711,711,711,708,708,708,710,710,710,710,710,710,714,711,711,711,711,711,710,710,711,711,710,710,710,710,710,711,714,716,716,714,714,716,716,714,714,714,714,714,711,710,710,710,710,710,710,710,710,710,710,713,713,713,710,710,710,710,710,710,710,711,711,713,711,711,711,711,711,710,710,710,710,711,711,711,711,711,711,711,711,710,710,710,711,711,711,711,711,711,710,710,710,710,711,711,711,713,713,713,713,714,711,711,711,711,711,713,711,711,711,713,713,714,714,716,717,719,720,720,722,723,725,727,728,730,733,734,734,738,738,739,739,741,767,767,771,774,776,778,780,781,783,783,783,789,794,798,800,802,802,803,803,807,809,811,815,817,819,821,825,825,829,833,837,841,843,845,847,849,849,851,851,854,854,856,858,858,0,0,0,0,0,0,1655,1655,1655,0,0,0,0,0,0,0,0,959,959,959,959,959,956,956,954,954,951,951,951,951,954,954,954,956,959,962,964,967,970,970,973,978,981,981,0,0,0,0,0,1609,1601,1601,1594,1586,1586,1586,1586,1579,1579,1579,1579,1579,1572,1572,1564,1564,1564,1564,1564,1557,1557,1557,1550,1550,1550,1550,1543,1543,1543,1543,1536,1529,1529,1523,1523,1523,1523,1516,1516,1516,1516,1516,1509,1509,1509,1509,1509,1503,1503,1496,1496,1489,1489,1489,1489,1489,1489,1483,1483,1477,1477,1470,1470,1470,1470,1470,1470,1470,1470,1464,1464,1464,1464,1452,1452,1452,1445,1445,1445,1445,1445,1445,1445,1439,1439,1439,1439,1433,1433,1427,1421,1421,1421,1421,1421,1415,1415,1415,1415,1415,1415,1415,1415,1415,1410,1404,1398,1398,1398,1398,1398,1398,1398,1392,1392,1392,1392,1387,1381,1381,1376,1376,1376,1370,1370,1370,1370,1370,1370,1370,1365,1365,1365,1365,1359,1359,1354,1354,1354,1354,1349,1349,1349,1349,1343,1343,1338,1333,1333,1333,1333,1333,1328,1328,1328,1328,1322,1322,1317,1317,1317,1312,1312,1312,1307,1307,1307,1302,1302,1302,1297,1297,1297,1292,1292,1292,1292,1292,1292,1292,1283,1283,1283,1278,1278,1273,1273,1273,1273,1273,1268,1268,1268,1268,1268,1264,1264,1259,1259,1255,1255,1255,1255,1250,1250,1250,1250,1250,1250,1245,1245,1241,1236,1236,1236,1232,1232,1232,1232,1232,1227,1227,1223,1219,1214,1210,1084,1080,1080,1080,1080,1080,1077,1077,1073,1073,1070,1067,1067,1067,1067,1067,1067,1067,1067,1063,1063,1063,1063,1060,1060,1057,1054,1054,1054,1050,1050,1047,1044,1044,1041,1041,1041,1041,1041,1038,1038,1038,1077,1077,1077,1077,1077,1077,1077,1073,1073,1073,1073,1070,1070,0,0,0,0,0,0,0,0,0,0,0,0,0,0,0,0,0,0,0,0,0,0,0,0,0,0,0,0,0,0,0,0
0,0,0,0,0,0,0,0,0,0,0,0,0,0,0,803,802,802,800,800,800,800,794,794,796,798,798,800,744,739,738,736,736,734,733,733,731,730,730,728,728,727,725,722,719,719,717,716,716,716,716,714,714,714,711,710,708,708,707,707,707,707,708,711,710,710,711,711,710,710,710,710,710,710,710,710,711,711,711,711,711,711,711,710,710,710,708,708,711,713,711,710,710,710,711,710,710,710,710,710,710,710,708,707,707,708,708,708,708,708,708,710,710,710,710,710,710,708,708,708,708,708,707,707,707,707,708,708,708,708,711,711,711,710,710,708,708,708,708,708,708,708,708,708,708,708,708,708,708,708,708,710,710,708,707,706,706,706,706,706,706,710,711,710,710,710,711,710,710,708,708,708,710,710,710,710,710,710,710,710,708,708,708,708,710,708,708,704,704,706,706,707,707,707,708,710,710,711,710,710,710,710,710,710,710,710,711,711,711,711,711,711,713,713,714,716,717,719,720,720,722,725,727,728,730,733,734,734,736,738,739,739,767,767,767,771,773,776,778,780,781,783,783,785,789,796,798,800,802,803,803,805,807,809,813,817,819,821,823,825,827,831,835,837,839,841,843,847,849,849,851,851,854,854,856,856,856,0,0,0,0,0,1655,1655,1655,1655,0,0,0,0,0,0,0,0,959,959,959,959,959,956,956,956,954,954,954,954,954,954,954,956,956,959,962,964,967,970,970,975,978,981,981,0,0,0,0,0,1601,1601,1601,1594,1586,1586,1579,1579,1579,1579,1579,1579,1579,1572,1572,1572,1564,1564,1564,1564,1564,1557,1557,1550,1550,1550,1550,1550,1543,1543,1543,1536,1529,1529,1529,1523,1523,1523,1516,1516,1516,1516,1516,1516,1516,1509,1509,1509,1509,1503,1496,1496,1489,1489,1489,1489,1489,1489,1489,1489,1483,1483,1477,1477,1470,1470,1470,1470,1470,1470,1464,1464,1464,1464,1458,1452,1452,1452,1445,1445,1445,1445,1445,1445,1445,1439,1439,1439,1433,1433,1427,1427,1421,1421,1421,1421,1421,1415,1415,1415,1415,1415,1415,1415,1415,1410,1404,1404,1398,1398,1398,1398,1398,1398,1392,1392,1392,1392,1387,1381,1381,1376,1376,1376,1376,1370,1370,1370,1370,1370,1370,1370,1370,1365,1365,1359,1359,1354,1354,1354,1354,1349,1349,1349,1349,1343,1343,1338,1333,1333,1333,1333,1333,1328,1328,1328,1328,1328,1322,1322,1317,1317,1317,1312,1312,1307,1307,1307,1302,1302,1302,1297,1297,1297,1292,1292,1292,1292,1292,1292,1292,1288,1283,1283,1278,1278,1273,1273,1273,1273,1273,1268,1268,1268,1268,1268,1264,1264,1259,1259,1255,1255,1255,1255,1250,1250,1250,1250,1250,1250,1245,1245,1241,1241,1236,1236,1236,1232,1232,1232,1232,1232,1232,1227,1223,1219,1219,1084,1080,1080,1080,1080,1077,1077,1077,1073,1073,1073,1067,1067,1067,1067,1067,1067,1067,1067,1063,1063,1063,1063,1060,1057,1054,1054,1054,1054,1050,1047,1047,1044,1044,1041,1041,1041,1041,1041,1038,1038,1077,1077,1077,1077,1077,1077,1077,1077,1073,1073,1073,1073,1073,0,0,0,0,0,0,0,0,0,0,0,0,0,0,0,0,0,0,0,0,0,0,0,0,0,0,0,0,0,0,0,0,0
0,0,0,0,0,0,0,0,0,0,0,0,0,0,0,803,802,802,800,800,798,796,794,794,794,794,792,792,800,739,738,736,734,734,733,733,731,731,731,730,728,727,725,722,719,719,717,716,716,716,714,714,713,711,710,708,707,707,706,704,704,704,704,704,706,707,707,710,708,708,708,708,708,708,708,708,708,708,708,708,708,707,707,707,707,708,706,706,707,707,708,708,707,707,708,708,708,707,707,708,708,707,706,706,706,707,707,707,707,703,703,701,701,707,707,708,707,707,707,708,706,706,706,706,706,706,706,706,706,707,706,704,704,704,706,706,706,706,706,707,707,707,707,708,707,707,707,706,706,706,706,706,706,706,704,704,704,704,704,704,704,708,708,710,710,710,710,708,708,707,706,706,708,708,708,707,707,707,707,708,706,706,706,706,706,704,704,704,704,704,704,704,704,704,704,707,707,704,704,706,707,707,707,708,708,708,710,710,710,710,710,711,711,713,714,716,717,719,720,720,722,725,727,728,730,733,734,734,736,764,764,766,766,767,767,771,773,774,778,780,781,783,783,787,790,796,798,800,802,803,803,805,809,811,815,817,819,821,823,827,827,831,833,835,839,839,843,845,847,849,851,851,851,854,854,1647,0,1647,0,0,0,1655,1655,1655,1655,1655,0,0,0,0,0,0,0,0,962,962,962,962,962,959,959,956,954,954,954,954,954,956,956,956,956,959,962,964,967,970,970,975,978,981,981,0,0,0,0,0,1601,1601,1601,1594,1594,1586,1579,1579,1579,1579,1579,1579,1579,1572,1572,1572,1564,1564,1564,1564,1564,1557,1557,1550,1550,1550,1550,1550,1543,1543,1543,1536,1536,1536,1529,1529,1523,1523,1523,1516,1516,1516,1516,1516,1516,1509,1509,1509,1503,1503,1496,1496,1496,1489,1489,1489,1489,1489,1489,1489,1483,1483,1483,1477,1470,1470,1470,1470,1470,1470,1464,1464,1464,1464,1464,1458,1452,1452,1445,1445,1445,1445,1445,1445,1445,1439,1439,1433,1433,1427,1427,1427,1421,1421,1421,1421,1415,1415,1415,1415,1415,1415,1415,1415,1415,1410,1410,1404,1398,1398,1398,1398,1398,1398,1392,1392,1392,1392,1387,1381,1381,1376,1376,1376,1376,1376,1370,1370,1370,1370,1370,1370,1370,1365,1365,1359,1359,1354,1354,1354,1354,1349,1349,1349,1349,1343,1343,1338,1333,1333,1333,1333,1333,1328,1328,1328,1328,1328,1328,1322,1322,1317,1317,1317,1312,1307,1307,1307,1307,1307,1302,1302,1302,1297,1297,1292,1292,1292,1292,1292,1288,1288,1283,1283,1278,1278,1278,1273,1273,1273,1273,1268,1268,1268,1268,1268,1264,1264,1259,1259,1259,1255,1255,1255,1250,1250,1250,1250,1250,1250,1250,1245,1241,1241,1236,1236,1236,1236,1232,1232,1232,1232,1232,1232,1227,1223,1223,1084,1080,1080,1080,1080,1077,1077,1077,1077,1073,1073,1070,1070,1073,1070,1067,1067,1067,1067,1063,1063,1063,1060,1060,1057,1054,1054,1054,1050,1050,1047,1047,1044,1044,1041,1041,1041,1041,1041,1041,1077,1077,1077,1077,1077,1077,1077,1077,1077,1073,1073,1001,1001,1001,0,0,0,0,0,0,0,0,0,0,0,0,0,0,0,0,0,0,0,0,0,0,0,0,0,0,0,0,0,0,0,0,0
0,0,0,0,0,0,0,0,0,0,0,0,0,0,0,0,0,802,802,800,798,796,794,794,794,794,792,792,792,738,738,736,734,734,734,733,733,731,731,730,728,727,725,723,720,719,717,716,716,716,714,713,711,710,710,708,707,706,706,704,704,704,703,703,703,704,704,706,706,706,706,707,707,707,707,707,707,707,707,706,706,706,706,704,704,706,704,704,704,704,706,706,706,706,707,707,707,706,706,707,707,707,706,704,704,704,704,704,703,701,700,700,700,700,701,701,701,704,706,706,704,704,703,703,704,704,704,704,704,704,703,703,701,701,701,701,701,703,703,703,706,706,707,707,706,706,706,706,704,704,704,704,703,703,703,703,703,703,703,703,704,704,704,707,707,707,708,707,706,704,704,704,707,707,706,703,703,704,704,706,703,701,701,701,704,703,701,701,701,701,703,701,700,700,703,704,704,703,703,703,703,703,701,701,706,706,708,708,708,708,710,710,711,713,714,716,717,719,720,720,723,727,728,730,731,733,734,734,761,761,764,766,766,767,769,771,773,774,778,780,781,783,785,789,792,796,798,800,802,803,805,807,811,813,817,817,819,821,825,827,829,831,833,835,837,839,841,845,847,849,851,851,851,851,1647,1647,1647,1647,1647,1647,1655,1655,1655,1655,1655,1655,0,0,0,0,0,0,0,0,964,964,964,964,962,962,959,956,956,954,954,954,954,956,956,956,959,959,962,964,967,970,970,975,978,981,981,0,0,0,0,0,1601,1601,1601,1601,1594,1594,1586,1586,1586,1579,1579,1579,1579,1572,1572,1572,1564,1564,1564,1564,1564,1557,1557,1550,1550,1550,1550,1550,1543,1543,1543,1536,1536,1536,1536,1529,1523,1523,1523,1523,1516,1516,1516,1516,1516,1516,1509,1503,1503,1503,1496,1496,1496,1489,1489,1489,1489,1489,1489,1489,1483,1483,1483,1477,1477,1470,1470,1470,1470,1470,1464,1464,1464,1464,1464,1458,1452,1452,1445,1445,1445,1445,1445,1445,1445,1439,1439,1433,1433,1427,1427,1421,1421,1421,1421,1421,1415,1415,1415,1415,1415,1415,1415,1415,1415,1410,1410,1404,1404,1398,1398,1398,1398,1398,1398,1392,1392,1392,1392,1387,1381,1381,1376,1376,1376,1376,1376,1370,1370,1370,1370,1370,1370,1365,1365,1365,1359,1354,1354,1354,1354,1349,1349,1349,1349,1343,1343,1338,1338,1333,1333,1333,1333,1328,1328,1328,1328,1328,1328,1322,1322,1322,1317,1317,1312,1307,1307,1307,1307,1307,1307,1302,1302,1302,1297,1292,1292,1292,1292,1292,1288,1288,1288,1288,1283,1283,1278,1273,1273,1273,1273,1268,1268,1268,1268,1268,1264,1264,1259,1259,1259,1255,1255,1255,1250,1250,1250,1250,1250,1250,1250,1245,1245,1241,1236,1236,1236,1236,1232,1232,1232,1232,1232,1232,1227,1223,1223,1084,1084,1080,1080,1080,1080,1077,1077,1077,1077,1077,1073,1073,1073,1073,1070,1067,1067,1067,1063,1063,1063,1060,1060,1057,1054,1054,1054,1050,1050,1050,1047,1047,1047,1044,1044,1044,1044,1044,1044,1077,1077,1077,1077,1077,1077,1077,1010,1010,1007,1004,1001,1001,1001,0,0,0,0,0,0,0,0,0,0,0,0,0,0,0,0,0,0,0,0,0,0,0,0,0,0,0,0,0,0,0,0,0
0,0,0,0,0,0,0,0,0,0,0,0,0,0,0,0,0,803,803,802,800,800,794,794,794,794,792,790,789,789,789,734,734,733,733,733,731,731,730,730,728,727,725,723,720,719,717,716,716,716,714,713,711,710,708,707,706,704,704,703,703,703,701,701,701,701,703,703,704,704,704,704,703,703,703,703,704,704,704,704,704,704,703,703,703,703,703,703,703,703,701,701,703,703,704,704,704,704,704,703,703,703,704,704,703,703,703,701,701,698,698,700,700,700,700,700,701,703,704,704,703,703,703,701,701,701,701,703,701,701,701,700,698,698,698,698,698,698,697,697,698,703,706,704,704,704,703,703,703,701,701,701,701,701,701,701,701,701,701,701,701,701,700,700,701,698,698,698,698,703,701,701,698,698,704,700,700,700,700,701,701,701,701,701,701,703,701,700,700,700,700,701,697,697,700,700,700,700,700,700,700,700,698,698,700,700,700,703,707,707,708,708,710,711,713,716,716,719,720,720,723,728,728,730,731,733,759,759,759,761,764,766,767,767,769,771,773,774,778,780,781,785,787,790,792,796,798,800,802,803,805,807,811,815,817,819,819,821,825,827,829,831,833,835,837,839,841,847,847,849,849,1632,1632,1639,1639,1639,1639,1639,1639,1647,1647,1647,1647,1647,1647,1655,0,0,0,0,0,0,0,0,964,964,964,964,962,962,959,956,956,956,954,954,954,956,956,956,959,959,962,964,967,970,973,975,978,981,981,0,0,0,0,0,1601,1601,1601,1601,1601,1594,1586,1586,1586,1586,1579,1579,1579,1572,1572,1572,1564,1564,1564,1564,1564,1557,1557,1550,1550,1550,1550,1550,1543,1543,1543,1543,1536,1536,1536,1529,1529,1523,1523,1523,1516,1516,1516,1516,1516,1516,1509,1503,1503,1503,1496,1496,1496,1489,1489,1489,1489,1489,1489,1489,1483,1483,1483,1477,1477,1470,1470,1470,1470,1470,1464,1464,1464,1464,1464,1458,1458,1452,1452,1445,1445,1445,1445,1445,1439,1439,1439,1433,1433,1427,1427,1421,1421,1421,1421,1421,1421,1421,1421,1421,1421,1421,1415,1415,1415,1410,1410,1404,1404,1404,1398,1398,1398,1398,1398,1392,1392,1392,1392,1392,1381,1381,1376,1376,1376,1376,1376,1370,1370,1370,1370,1370,1370,1370,1370,1365,1359,1354,1354,1354,1354,1349,1349,1349,1349,1343,1343,1343,1338,1333,1333,1333,1333,1333,1328,1328,1328,1328,1328,1328,1322,1322,1317,1317,1312,1312,1312,1307,1307,1307,1307,1302,1302,1302,1297,1292,1292,1292,1292,1292,1288,1288,1288,1288,1283,1283,1278,1273,1273,1273,1273,1273,1273,1268,1268,1268,1264,1264,1259,1259,1259,1259,1255,1255,1255,1250,1250,1250,1250,1250,1250,1250,1245,1241,1241,1236,1236,1236,1232,1232,1232,1232,1232,1232,1232,1232,1084,1084,1080,1080,1080,1080,1080,1080,1077,1077,1080,1077,1077,1077,1073,1073,1070,1067,1067,1063,1063,1063,1063,1060,1060,1057,1054,1054,1054,1050,1050,1050,1050,1047,1047,1047,1084,1084,1044,1044,1077,1077,1077,1077,1077,1077,1077,1010,1010,1010,1007,1004,1004,1004,1004,0,0,0,0,0,0,0,0,0,0,0,0,0,0,0,0,0,0,0,0,0,0,0,0,0,0,0,0,0,0,0,0,0
0,0,0,0,0,0,0,0,0,0,0,0,0,0,0,0,0,803,803,803,802,800,796,794,794,792,790,789,789,783,781,780,776,733,731,731,731,730,728,728,728,727,725,723,722,720,717,717,716,716,714,713,711,710,708,707,706,704,703,703,703,701,700,700,700,700,700,701,701,701,701,698,698,698,698,698,698,700,703,703,703,701,701,701,701,700,700,700,700,700,698,698,698,700,700,698,698,698,698,700,700,700,703,701,701,700,700,698,698,697,697,697,697,697,697,697,697,697,697,697,697,697,698,698,697,697,697,697,697,696,696,697,696,694,694,696,696,696,694,694,696,696,693,693,696,700,700,700,698,698,698,698,698,698,698,698,698,700,698,697,697,696,696,696,694,694,694,694,694,694,694,693,693,698,700,698,698,698,698,698,698,698,697,697,697,701,698,698,698,697,697,697,696,696,697,696,693,693,696,696,697,697,697,697,698,698,700,701,704,706,708,708,710,711,713,716,716,719,720,720,723,728,728,752,752,752,754,757,759,761,764,766,766,767,767,769,773,774,778,781,783,785,787,790,792,796,798,800,802,803,805,809,811,815,817,819,819,821,825,827,829,831,833,835,837,839,0,0,1624,1624,1632,1632,1632,1632,1632,1632,1639,1639,1639,1639,1639,1639,1639,1639,1639,1647,0,0,0,0,0,0,0,0,964,964,964,964,962,962,962,959,956,956,956,954,954,956,956,959,959,962,962,964,967,970,973,975,978,981,981,0,0,0,0,0,1601,1601,1601,1601,1601,1601,1594,1594,1594,1586,1586,1579,1579,1579,1579,1572,1572,1572,1572,1564,1564,1564,1557,1557,1550,1550,1550,1550,1543,1543,1543,1543,1543,1543,1536,1536,1529,1529,1523,1523,1523,1523,1516,1516,1516,1516,1516,1509,1509,1503,1503,1496,1496,1496,1489,1489,1489,1489,1489,1489,1483,1483,1483,1477,1477,1470,1470,1470,1470,1470,1464,1464,1464,1464,1464,1458,1458,1452,1452,1445,1445,1445,1445,1439,1439,1439,1439,1433,1427,1427,1427,1421,1421,1421,1421,1421,1421,1421,1421,1421,1421,1421,1415,1415,1415,1410,1410,1404,1404,1404,1398,1398,1398,1398,1398,1392,1392,1392,1392,1392,1381,1381,1381,1376,1376,1376,1376,1376,1376,1370,1370,1370,1370,1370,1370,1365,1359,1359,1354,1354,1354,1354,1349,1349,1349,1349,1343,1343,1338,1338,1333,1333,1333,1333,1333,1328,1328,1328,1328,1328,1322,1322,1322,1317,1312,1312,1312,1312,1307,1307,1307,1307,1307,1302,1302,1297,1297,1292,1292,1292,1288,1288,1288,1288,1283,1283,1278,1278,1273,1273,1273,1273,1273,1268,1268,1268,1268,1264,1259,1259,1259,1259,1255,1255,1255,1250,1250,1250,1250,1250,1245,1245,1245,1241,1241,1241,1236,1236,1236,1236,1236,1236,1232,1232,1232,1232,1232,1080,1080,1080,1080,1080,1080,1080,1080,1080,1080,1077,1077,1077,1073,1073,1070,1067,1067,1063,1063,1063,1063,1060,1060,1057,1054,1054,1054,1050,1050,1050,1050,1050,1050,1080,1084,1084,1080,1080,1080,1077,1077,1077,1077,1077,1077,1010,1010,1010,1010,1007,1007,1004,1004,0,0,0,0,0,0,0,0,0,0,0,0,0,0,0,0,0,0,0,0,0,0,0,0,0,0,0,0,0,0,0,0,0
