0,0,0,0,0,0,0,0,0,0,0,0,0,0,1503,1503,1489,1489,1489,1489,1483,1483,1483,1483,1483,1477,1477,1477,1477,1470,1470,1470,1470,1470,1464,1464,1464,1464,1464,1464,1464,1458,1458,1458,1458,1458,1458,1452,1452,1458,1458,1458,1458,1458,1452,1452,1452,1458,1458,1464,1464,1470,1470,1470,2016,2016,2016,2005,2005,2005,1993,1993,1981,1981,1970,1970,1970,1959,1959,1959,1959,1936,1936,1936,1936,1936,1470,1470,1470,1470,1464,1464,1464,1464,1458,1458,1458,1458,1458,1464,1464,1464,1470,1477,1483,1483,1483,1489,1489,1496,1496,1503,1503,1503,1509,1509,1509,1509,1516,1516,1516,1523,1529,1529,1529,1529,1536,1536,1543,1543,1543,1550,1550,1557,1557,1564,1564,1564,1572,1572,1572,1572,1572,1579,1579,1586,1586,1594,1594,1594,1594,1601,1601,1601,1601,1609,1616,1616,1616,1624,1624,1624,1632,1632,1632,1639,1639,1647,1647,1655,1655,1655,1663,1663,1663,1663,1671,1671,1671,1680,1680,1680,1680,1688,1688,1696,1696,1696,1696,1688,1688,1688,1688,1688,1688,1680,1680,1671,1671,1671,1663,1663,1663,1663,1663,1655,1647,1647,0,0,0,0,0,0,1028,1028,1028,1025,1025,1025,1025,1022,1022,1019,1019,1022,1022,1022,1022,1022,1025,1025,1028,1028,1031,1031,1034,1038,0,0,0,1572,1572,1572,1572,1572,1572,1572,1572,1564,1564,1564,1564,1564,1564,1557,1550,1550,1543,1543,1543,1543,1543,1536,1536,1529,1529,1529,1523,1523,1516,1516,1516,1516,1516,1516,1509,1509,1509,1503,1503,1503,1496,1489,1489,1489,1489,1489,1483,1483,1483,1483,1483,1483,1483,1483,1483,1477,1477,1470,1470,1464,1464,1464,1458,1458,1458,1458,1458,1452,1452,1445,1445,1439,1439,1433,1433,1433,1433,1439,1433,1433,1433,1427,1427,1427,1421,1421,1421,1421,1415,1415,1410,1410,1410,1410,1410,1410,1410,1410,1410,1410,1410,1415,0,0,0,0,873,871,871,871,869,869,869,867,864,862,862,862,860,860,858,856,856,856,856,858,858,860,862,864,864,867,869,869,869,869,869,0,0,0,0,1328,1328,1328,1328,1328,1322,1322,1317,1317,1317,1317,1317,1312,1312,1312,1312,1312,1312,1312,1307,1307,1307,1292,1292,1292,1292,1292,1292,1288,1288,1288,1288,1288,1288,1283,1283,1278,1273,1273,1273,1273,1273,1273,1273,1268,1268,1268,1268,1264,1259,1255,1255,1255,1250,1250,1250,1250,1255,1255,1250,1250,1245,1245,1241,1236,1236,1236,1236,1236,1232,1232,1232,1232,1232,1232,1232,1227,1227,1227,1223,1223,1223,1223,1219,1214,1214,1214,1210,1210,1210,1206,1206,1202,1202,1202,1202,1202,1197,1197,1197,1193,1193,1193,1189,1189,1185,1185,1185,1185,1185,1181,1181,1181,1181,1177,1173,1173,1173,1169,1169,1169,1169,1169,1169,1169,1165,1165,1165,1165,1161,1161,1157,1153,1153,1153,1153,1153,1149,1149,1149,1149,1149,1149,1149,1145,1145,1141,1141,1138,1138,1138,1138,1138,1134,1134,1134,1134,1130,1130,1130,1130,1126,1123,1123,1123,1123,1119,1119,1119,1119,1119,1115,1115,1112,1112,1108,1108,1108,1108,1108,1105,1105,1105,1105,1105,1105,1101,1101,1097,1097,1097,1094,1094,1094,1090,1090,1090,1087,1087,1084,1084,1084,1080,1080,1080,1080,1077,1077,1077,1073,1070,1067,1067,1067,1067,1063,1063,1060,1060,1060,1057,1057,1054,1054,1050,1050,1050,1047,1047,0,0,0,0,0,0,0,0,0,0,0,0,0,0,0,0,0,0,0,0,0,0,0,0,0,0,0,0
0,0,0,0,0,0,0,0,0,0,0,0,0,0,1503,1503,1489,1489,1489,1489,1483,1483,1483,1483,1483,1483,1477,1477,1477,1477,1470,1470,1470,1470,1470,1470,1464,1464,1464,1464,1464,1464,1458,1458,1458,1458,1458,1452,1452,1458,1458,1458,1458,1458,1452,1452,1458,1458,1464,1464,1470,1470,1470,1470,2016,2016,2016,2005,2005,2005,1993,1993,1981,1981,1970,1970,1970,1959,1959,1959,1959,1947,1936,1936,1947,1947,1470,1470,1470,1470,1464,1464,1464,1464,1458,1458,1458,1458,1458,1464,1464,1464,1470,1483,1483,1483,1489,1489,1489,1496,1496,1503,1503,1509,1509,1509,1509,1516,1516,1516,1516,1523,1529,1529,1529,1529,1536,1536,1536,1543,1543,1550,1550,1557,1557,1564,1564,1564,1572,1572,1572,1572,1572,1579,1579,1586,1586,1594,1594,1594,1594,1594,1601,1601,1601,1609,1616,1616,1616,1624,1624,1624,1624,1632,1639,1639,1639,1647,1647,1655,1655,1655,1663,1663,1663,1663,1663,1671,1680,1688,1688,1688,1688,1688,1696,1696,1696,1696,1696,1696,1688,1688,1688,1688,1688,1680,1680,1671,1671,1671,1663,1663,1663,1663,1663,1655,1655,1655,0,0,0,0,0,1034,1028,1028,1028,1028,1028,1025,1025,1022,1022,1022,1022,1022,1022,1022,1022,1022,1025,1025,1031,1031,1034,1038,1038,1038,0,0,0,1572,1572,1572,1572,1572,1572,1572,1572,1564,1564,1564,1564,1564,1564,1557,1550,1550,1543,1543,1543,1543,1543,1536,1536,1536,1529,1529,1523,1523,1516,1516,1516,1516,1516,1516,1509,1509,1509,1503,1503,1503,1496,1489,1489,1489,1489,1489,1483,1483,1483,1483,1483,1483,1483,1483,1483,1477,1477,1477,1470,1464,1464,1464,1458,1458,1458,1458,1458,1452,1452,1445,1445,1439,1439,1433,1433,1433,1433,1439,1433,1433,1433,1433,1427,1427,1427,1427,1427,1421,1415,1415,1415,1410,1410,1410,1410,1410,1410,1404,1404,1410,1410,0,0,0,0,0,873,871,871,869,869,869,869,867,864,862,862,862,860,858,858,858,858,858,858,858,860,860,862,864,867,869,871,869,869,869,869,0,0,0,0,0,1328,1328,1328,1328,1322,1322,1317,1317,1322,1317,1317,1312,1312,1312,1312,1312,1307,1307,1307,1307,1307,1297,1297,1297,1292,1292,1292,1292,1288,1288,1288,1288,1288,1283,1283,1278,1273,1273,1273,1273,1278,1273,1273,1268,1268,1268,1264,1264,1259,1255,1255,1255,1250,1250,1250,1255,1255,1255,1250,1250,1245,1245,1241,1236,1236,1236,1236,1236,1232,1232,1232,1232,1232,1232,1232,1227,1227,1227,1223,1223,1223,1223,1219,1214,1214,1214,1214,1214,1210,1206,1206,1206,1202,1202,1202,1202,1197,1197,1197,1193,1193,1193,1189,1189,1185,1185,1185,1185,1185,1185,1185,1181,1181,1177,1177,1173,1173,1173,1169,1169,1169,1169,1169,1169,1165,1165,1165,1165,1165,1161,1157,1157,1153,1153,1153,1153,1149,1149,1149,1149,1149,1149,1149,1145,1145,1145,1141,1138,1138,1138,1138,1138,1138,1134,1134,1134,1130,1130,1130,1130,1126,1123,1123,1123,1123,1119,1119,1119,1119,1119,1115,1115,1115,1115,1112,1112,1112,1108,1108,1108,1105,1105,1105,1105,1105,1101,1101,1097,1097,1097,1094,1094,1094,1094,1090,1090,1090,1090,1087,1087,1087,1084,1084,1080,1080,1077,1077,1077,1073,1070,1067,1067,1067,1067,1063,1063,1063,1060,1060,1057,1057,1054,1054,1054,1050,1050,1047,1047,0,0,0,0,0,0,0,0,0,0,0,0,0,0,0,0,0,0,0,0,0,0,0,0,0,0,0,0
0,0,0,0,0,0,0,0,0,0,0,0,0,0,1496,1496,1489,1489,1489,1489,1483,1483,1483,1483,1483,1483,1483,1483,1477,1477,1470,1470,1470,1470,1470,1464,1464,1464,1464,1464,1464,1464,1458,1458,1458,1458,1458,1458,1458,1458,1458,1458,1458,1458,1458,1458,1458,1458,1464,1464,1470,1470,1470,1470,2016,2016,2016,2005,2005,2005,1993,1993,1981,1981,1981,1970,1970,1959,1959,1959,1959,1959,1947,1947,1947,1947,1470,1470,1470,1470,1464,1464,1464,1464,1458,1458,1458,1458,1458,1464,1464,1470,1483,1483,1483,1489,1489,1489,1489,1496,1496,1503,1503,1509,1509,1509,1509,1516,1516,1516,1516,1523,1529,1529,1529,1529,1536,1536,1536,1543,1543,1550,1550,1557,1557,1564,1564,1572,1572,1572,1572,1572,1579,1579,1579,1586,1594,1594,1594,1594,1594,1594,1601,1601,1601,1609,1616,1616,1616,1624,1624,1624,1624,1632,1639,1639,1639,1647,1647,1655,1655,1655,1663,1663,1663,1663,1663,1671,1680,1688,1688,1688,1688,1696,1696,1696,1696,1696,1696,1696,1696,1696,1696,1688,1688,1680,1680,1680,1680,1663,1663,1663,1663,1663,1663,1663,1655,1655,0,0,0,0,0,1034,1031,1031,1031,1028,1028,1025,1025,1025,1022,1022,1022,1022,1022,1022,1022,1022,1025,1031,1031,1034,1034,1038,1038,1041,0,0,0,1572,1572,1572,1572,1572,1572,1572,1572,1564,1564,1564,1557,1557,1557,1557,1550,1550,1543,1543,1543,1543,1543,1536,1536,1536,1536,1536,1529,1529,1523,1516,1516,1516,1516,1516,1509,1509,1509,1509,1503,1503,1496,1489,1489,1489,1489,1489,1489,1483,1483,1483,1483,1483,1483,1483,1483,1483,1477,1477,1477,1464,1464,1464,1464,1464,1458,1458,1458,1458,1452,1452,1445,1445,1439,1439,1439,1433,1433,1439,1439,1439,1433,1433,1427,1427,1427,1427,1427,1427,1421,1415,1415,1415,1415,1410,1410,1410,1410,1404,1404,1410,1410,0,0,0,0,0,0,871,871,869,869,869,869,867,864,862,862,862,860,858,858,858,858,858,858,860,860,860,862,867,869,869,871,871,869,869,869,0,0,0,0,0,1333,1333,1328,1328,1322,1322,1317,1317,1322,1317,1317,1312,1312,1312,1312,1312,1307,1307,1307,1307,1302,1297,1297,1297,1297,1297,1292,1292,1292,1292,1288,1288,1288,1283,1283,1283,1273,1273,1273,1273,1273,1273,1273,1268,1268,1268,1264,1264,1259,1255,1255,1255,1255,1255,1255,1255,1255,1250,1250,1250,1245,1245,1241,1236,1236,1236,1236,1232,1232,1232,1232,1232,1232,1232,1232,1232,1227,1227,1223,1223,1223,1223,1219,1219,1219,1214,1214,1214,1214,1210,1206,1206,1206,1202,1202,1202,1202,1197,1197,1197,1193,1193,1189,1189,1185,1185,1185,1185,1185,1185,1185,1181,1181,1177,1177,1173,1173,1173,1169,1169,1169,1169,1169,1169,1165,1165,1165,1165,1165,1161,1157,1157,1153,1153,1153,1153,1149,1149,1149,1149,1149,1149,1149,1145,1145,1145,1141,1141,1138,1138,1138,1138,1138,1134,1134,1134,1130,1130,1130,1130,1126,1123,1123,1123,1123,1123,1119,1119,1119,1119,1119,1119,1115,1115,1115,1112,1112,1112,1108,1108,1105,1105,1105,1105,1105,1101,1101,1101,1101,1101,1097,1097,1094,1094,1094,1090,1090,1090,1090,1087,1087,1084,1084,1080,1080,1080,1077,1077,1073,1070,1067,1067,1067,1067,1063,1063,1063,1060,1060,1060,1057,1054,1054,1054,1050,1050,1050,1050,0,0,0,0,0,0,0,0,0,0,0,0,0,0,0,0,0,0,0,0,0,0,0,0,0,0,0,0
0,0,0,0,0,0,0,0,0,0,0,0,0,0,1496,1496,1489,1489,1489,1489,1483,1483,1483,1483,1483,1483,1483,1483,1483,1477,1477,1470,1470,1470,1470,1464,1464,1464,1464,1464,1464,1464,1458,1458,1458,1464,1458,1458,1458,1458,1458,1458,1458,1458,1458,1458,1458,1464,1464,1464,1470,1470,1470,1470,1477,2016,2016,2005,2005,2005,1993,1993,1981,1981,1981,1970,1970,1959,1959,1959,1959,1959,1936,1936,1947,1947,1470,1470,1470,1470,1464,1464,1464,1464,1458,1458,1458,1458,1458,1464,1464,1470,1483,1483,1483,1489,1489,1489,1489,1496,1496,1503,1503,1509,1509,1509,1509,1516,1516,1516,1516,1523,1529,1529,1529,1529,1536,1536,1543,1543,1543,1550,1550,1557,1557,1564,1564,1572,1572,1572,1572,1572,1579,1579,1579,1586,1594,1594,1594,1594,1594,1601,1601,1601,1601,1616,1616,1616,1616,1624,1624,1624,1632,1632,1639,1647,1647,1647,1655,1655,1655,1655,1663,1663,1663,1663,1671,1671,1680,1688,1688,1688,1688,1696,1696,1696,1696,1696,1696,1696,1696,1696,1696,1688,1688,1680,1680,1680,1688,1663,1663,1663,1671,1663,1663,1663,1663,1663,0,0,0,0,0,0,1034,1031,1031,1031,1028,1028,1025,1025,1025,1022,1022,1022,1022,1022,1025,1025,1025,1028,1034,1034,1038,1038,1034,1034,0,0,0,1572,1572,1572,1572,1572,1572,1572,1572,1564,1564,1564,1557,1557,1557,1557,1550,1550,1543,1543,1543,1543,1543,1536,1536,1536,1536,1536,1536,1529,1523,1516,1516,1516,1516,1516,1509,1509,1509,1509,1503,1503,1496,1496,1496,1489,1489,1489,1489,1489,1483,1483,1483,1483,1483,1483,1483,1483,1477,1477,1470,1470,1464,1464,1464,1464,1464,1458,1458,1458,1452,1452,1445,1439,1439,1439,1439,1433,1433,1439,1439,1439,1439,1433,1433,1433,1433,1433,1427,1427,1421,1415,1415,1415,1415,1415,1410,1410,1410,1410,1410,1410,0,0,0,0,0,0,0,873,871,871,869,869,869,867,864,862,862,860,860,858,858,858,858,858,858,860,860,862,864,867,869,869,871,871,869,869,869,0,0,0,0,1338,1333,1333,1328,1328,1322,1322,1322,1322,1322,1322,1317,1317,1317,1312,1312,1312,1312,1307,1307,1307,1302,1302,1302,1297,1297,1297,1297,1297,1292,1292,1288,1288,1288,1283,1283,1283,1278,1273,1273,1273,1273,1273,1273,1268,1268,1273,1268,1268,1268,1259,1255,1255,1255,1255,1255,1255,1250,1250,1250,1250,1245,1245,1236,1236,1236,1236,1232,1232,1232,1232,1232,1232,1232,1232,1232,1232,1232,1227,1223,1223,1223,1223,1219,1219,1219,1219,1214,1214,1214,1210,1210,1206,1206,1206,1202,1202,1202,1197,1197,1197,1193,1193,1189,1189,1185,1185,1185,1185,1185,1185,1185,1185,1181,1177,1177,1177,1173,1173,1173,1169,1169,1169,1169,1169,1169,1169,1165,1165,1161,1161,1161,1161,1157,1157,1153,1153,1153,1149,1149,1149,1149,1149,1149,1145,1145,1145,1141,1141,1138,1138,1138,1138,1138,1134,1134,1134,1134,1130,1130,1130,1126,1123,1123,1123,1123,1123,1119,1119,1119,1119,1119,1119,1115,1115,1115,1115,1115,1112,1108,1108,1105,1105,1105,1105,1105,1105,1105,1101,1101,1101,1101,1101,1097,1094,1094,1090,1090,1090,1090,1087,1087,1084,1084,1084,1084,1080,1080,1077,1073,1073,1073,1067,1067,1067,1063,1063,1063,1063,1063,1060,1057,1054,1054,1054,1050,1050,1050,1050,0,0,0,0,0,0,0,0,0,0,0,0,0,0,0,0,0,0,0,0,0,0,0,0,0,0,0,0
0,0,0,0,0,0,0,0,0,0,0,0,0,0,1496,1496,1496,1489,1489,1489,1483,1483,1483,1483,1483,1483,1483,1483,1483,1483,1477,1470,1470,1470,1470,1470,1464,1464,1464,1464,1464,1464,1464,1464,1464,1464,1464,1464,1452,1452,1458,1458,1458,1458,1458,1458,1458,1464,1464,1464,1470,1470,1470,1477,1477,1477,2005,2005,2005,2005,1993,1993,1981,1981,1981,1970,1970,1970,1970,1970,1959,1959,1936,1936,1959,1959,1959,1477,1477,1470,1470,1470,1464,1464,1458,1458,1458,1458,1458,1464,1464,1483,1483,1483,1489,1489,1489,1496,1496,1503,1503,1509,1509,1509,1509,1509,1509,1516,1516,1516,1516,1523,1529,1529,1529,1536,1536,1536,1543,1543,1543,1550,1550,1557,1564,1564,1564,1572,1572,1572,1572,1572,1579,1579,1579,1586,1594,1594,1594,1594,1594,1601,1601,1601,1609,1616,1616,1616,1616,1624,1624,1632,1632,1639,1639,1647,1647,1647,1655,1655,1655,1663,1663,1663,1663,1663,1671,1671,1680,1688,1688,1688,1688,1696,1696,1696,1696,1696,1696,1696,1696,1696,1696,1688,1688,1688,1688,1688,1688,1680,1680,1671,1671,1671,1663,1663,1663,1663,0,0,0,0,0,1038,1034,1034,1031,1031,1028,1028,1025,1025,1025,1025,1022,1022,1025,1025,1025,1025,1025,1028,1034,1034,1038,1034,1034,1034,0,0,0,0,1579,1572,1572,1572,1572,1572,1572,1572,1564,1564,1557,1557,1557,1557,1550,1550,1550,1550,1543,1543,1543,1543,1543,1536,1536,1536,1536,1529,1523,1523,1523,1516,1516,1516,1509,1509,1509,1509,1503,1503,1503,1503,1496,1489,1489,1489,1489,1489,1483,1483,1483,1483,1483,1483,1483,1483,1477,1477,1470,1470,1464,1464,1464,1464,1464,1458,1458,1458,1458,1452,1445,1439,1439,1439,1439,1439,1439,1439,1439,1439,1433,1433,1433,1433,1433,1433,1427,1427,1427,1421,1421,1415,1415,1415,1410,1410,1410,1410,1410,0,0,0,0,0,0,0,0,873,871,871,869,869,869,867,864,862,862,860,860,858,858,858,858,858,858,860,862,862,864,867,869,869,871,871,871,873,0,0,0,0,0,1338,1333,1333,1328,1328,1328,1322,1322,1322,1322,1322,1317,1317,1312,1312,1312,1312,1312,1307,1307,1307,1302,1302,1302,1302,1302,1302,1297,1297,1292,1292,1288,1288,1288,1288,1283,1283,1283,1278,1273,1273,1273,1273,1273,1268,1268,1273,1268,1268,1268,1259,1259,1255,1255,1255,1255,1255,1250,1250,1250,1250,1245,1245,1236,1236,1236,1236,1232,1232,1232,1232,1232,1232,1232,1232,1232,1232,1232,1227,1227,1227,1227,1223,1219,1219,1219,1219,1214,1214,1214,1214,1210,1210,1206,1206,1202,1202,1202,1197,1197,1197,1197,1193,1189,1189,1189,1189,1185,1185,1185,1185,1185,1185,1181,1181,1181,1177,1177,1173,1173,1169,1169,1169,1169,1169,1169,1169,1165,1165,1161,1161,1161,1161,1157,1157,1153,1153,1153,1149,1149,1149,1149,1149,1149,1145,1145,1145,1141,1141,1141,1138,1138,1138,1138,1134,1134,1134,1134,1130,1130,1130,1126,1123,1123,1123,1123,1123,1123,1119,1119,1119,1119,1119,1115,1115,1115,1115,1115,1112,1112,1112,1108,1108,1105,1105,1105,1105,1105,1105,1105,1101,1101,1101,1097,1094,1094,1090,1090,1090,1090,1090,1087,1087,1087,1084,1080,1080,1080,1077,1077,1077,1073,1070,1067,1067,1063,1063,1063,1063,1063,1060,1057,1057,1054,1054,1050,1050,1050,1050,0,0,0,0,0,0,0,0,0,0,0,0,0,0,0,0,0,0,0,0,0,0,0,0,0,0,0,0
0,0,0,0,0,0,0,0,0,0,0,0,0,0,1496,1496,1496,1489,1489,1489,1483,1483,1483,1483,1483,1483,1483,1483,1483,1483,1477,1477,1477,1470,1470,1470,1464,1464,1464,1470,1464,1464,1464,1464,1464,1464,1464,1464,1452,1452,1458,1458,1458,1458,1458,1458,1458,1464,1464,1464,1477,1477,1477,1477,1477,1477,2005,2005,2005,2005,1993,1993,1993,1981,1981,1981,1970,1970,1970,1970,1970,1959,1947,1947,1959,1959,1959,1970,1470,1470,1470,1470,1464,1464,1458,1458,1458,1458,1458,1464,1470,1483,1483,1483,1489,1489,1489,1496,1496,1503,1503,1509,1509,1509,1509,1509,1509,1509,1516,1516,1516,1516,1529,1529,1536,1536,1536,1536,1543,1543,1543,1550,1557,1564,1564,1564,1564,1572,1572,1572,1572,1572,1579,1579,1579,1586,1594,1594,1594,1601,1601,1601,1601,1601,1609,1616,1616,1616,1624,1624,1632,1632,1632,1639,1639,1647,1647,1647,1647,1655,1655,1655,1663,1663,1663,1671,1671,1680,1680,1688,1688,1688,1696,1696,1696,1696,1705,1705,1705,1696,1696,1696,1696,1688,1688,1688,1688,1688,1688,1680,1680,1671,1671,1671,1663,1663,1655,1655,0,0,0,0,0,1038,1038,1034,1031,1031,1028,1028,1025,1025,1025,1022,1022,1022,1025,1025,1025,1025,1028,1028,1034,1034,1038,1034,1034,1034,0,0,0,0,1586,1572,1572,1572,1572,1572,1572,1572,1564,1564,1564,1557,1557,1557,1550,1550,1550,1550,1543,1543,1543,1543,1543,1536,1536,1536,1536,1536,1523,1523,1523,1516,1516,1516,1509,1509,1509,1509,1509,1503,1503,1503,1503,1496,1489,1489,1489,1489,1489,1483,1483,1483,1483,1483,1483,1483,1477,1477,1470,1470,1464,1464,1464,1464,1464,1464,1458,1458,1458,1452,1452,1445,1439,1439,1439,1439,1439,1439,1439,1439,1433,1433,1433,1433,1433,1433,1427,1427,1427,1421,1421,1421,1415,1415,1410,1410,1410,1410,0,0,0,0,0,0,0,0,0,873,871,871,871,871,869,869,867,864,862,860,860,858,858,858,858,860,860,862,862,864,864,869,869,869,871,871,871,873,0,0,0,0,0,1338,1333,1333,1333,1328,1328,1328,1322,1322,1322,1322,1317,1317,1312,1312,1312,1312,1312,1312,1307,1307,1307,1302,1302,1302,1302,1302,1297,1297,1297,1292,1288,1288,1288,1288,1288,1283,1283,1278,1278,1273,1273,1273,1273,1273,1273,1273,1273,1268,1268,1259,1259,1259,1255,1255,1255,1255,1250,1250,1250,1250,1250,1250,1250,1241,1241,1236,1232,1232,1232,1232,1232,1232,1232,1232,1232,1232,1232,1227,1227,1227,1227,1223,1219,1219,1219,1219,1214,1214,1214,1214,1210,1210,1206,1206,1202,1202,1202,1202,1202,1197,1197,1197,1189,1189,1189,1189,1185,1185,1185,1185,1185,1185,1181,1181,1181,1177,1177,1173,1173,1173,1173,1173,1169,1169,1169,1169,1165,1165,1165,1161,1161,1161,1157,1157,1153,1153,1153,1149,1149,1149,1149,1149,1149,1145,1145,1145,1141,1141,1141,1141,1138,1138,1138,1134,1134,1134,1134,1134,1134,1130,1130,1123,1123,1123,1123,1123,1123,1119,1119,1119,1119,1119,1119,1119,1115,1115,1115,1115,1112,1112,1108,1108,1105,1105,1108,1105,1105,1105,1105,1101,1101,1101,1097,1094,1094,1094,1090,1090,1090,1090,1087,1087,1087,1084,1080,1080,1080,1077,1077,1077,1077,1073,1067,1067,1067,1067,1063,1063,1063,1063,1060,1057,1054,1054,1054,1050,1050,1050,0,0,0,0,0,0,0,0,0,0,0,0,0,0,0,0,0,0,0,0,0,0,0,0,0,0,0,0
0,0,0,0,0,0,0,0,0,0,0,0,0,0,1496,1496,1496,1489,1489,1489,1489,1483,1483,1483,1483,1483,1483,1483,1483,1483,1477,1477,1477,1477,1470,1470,1464,1464,1464,1464,1464,1470,1464,1464,1470,1464,1464,1464,1452,1452,1452,1458,1458,1458,1458,1458,1458,1464,1464,1464,1470,1483,1477,1477,1477,1477,1993,1993,1993,1993,1993,1981,1981,1981,1981,1981,1970,1970,1970,1970,1970,1970,1970,1970,1959,1959,1970,1970,1477,1477,1477,1470,1470,1464,1464,1464,1464,1464,1464,1477,1477,1483,1483,1483,1489,1489,1489,1496,1496,1503,1503,1509,1509,1509,1509,1509,1509,1509,1516,1516,1516,1516,1523,1529,1529,1536,1536,1536,1543,1543,1543,1550,1557,1564,1564,1564,1564,1572,1572,1572,1572,1579,1579,1586,1586,1586,1594,1594,1594,1601,1601,1601,1601,1609,1609,1616,1616,1624,1624,1624,1632,1632,1632,1639,1639,1647,1647,1647,1647,1655,1655,1655,1663,1663,1671,1671,1680,1680,1680,1688,1688,1688,1696,1696,1696,1705,1705,1705,1705,1705,1696,1696,1696,1696,1696,1688,1688,1688,1688,1680,1680,1680,1671,1671,1663,1663,1655,1655,0,0,0,0,0,0,1038,1034,1034,1034,1031,1028,1025,1025,1025,1022,1022,1025,1025,1025,1025,1025,1028,1028,1034,1034,1038,1034,1034,1034,0,0,0,0,1586,1579,1579,1579,1579,1572,1572,1572,1572,1564,1564,1557,1557,1557,1550,1550,1550,1550,1550,1550,1543,1543,1543,1536,1536,1536,1536,1536,1523,1516,1516,1516,1516,1516,1509,1509,1509,1509,1509,1509,1503,1503,1503,1503,1489,1489,1489,1489,1489,1483,1483,1483,1483,1483,1483,1483,1477,1477,1470,1470,1464,1464,1464,1464,1464,1464,1458,1458,1458,1452,1452,1445,1439,1439,1439,1439,1439,1439,1439,1439,1433,1433,1433,1433,1433,1433,1433,1427,1427,1421,1421,1421,1415,1415,1410,1410,1410,0,0,0,0,0,0,0,0,0,0,873,871,871,871,869,869,869,867,864,862,862,860,860,860,860,860,860,860,862,862,864,867,869,869,869,871,873,873,875,0,0,0,0,0,1349,1333,1333,1333,1333,1333,1328,1328,1328,1322,1322,1322,1317,1317,1317,1312,1312,1312,1312,1312,1307,1307,1307,1307,1307,1307,1302,1302,1297,1297,1292,1292,1288,1288,1288,1288,1288,1283,1278,1278,1273,1273,1273,1273,1273,1273,1273,1273,1268,1268,1264,1259,1259,1255,1255,1255,1255,1250,1250,1250,1250,1250,1250,1250,1245,1241,1241,1236,1236,1236,1232,1232,1232,1232,1232,1232,1232,1232,1232,1227,1227,1227,1223,1219,1219,1219,1219,1214,1214,1214,1214,1210,1210,1210,1210,1202,1202,1202,1202,1202,1197,1197,1197,1193,1193,1189,1189,1189,1189,1189,1185,1185,1185,1185,1181,1181,1177,1177,1173,1173,1169,1169,1169,1173,1169,1169,1169,1169,1165,1165,1165,1161,1161,1161,1161,1157,1153,1153,1153,1149,1149,1149,1149,1145,1145,1145,1145,1141,1141,1141,1138,1138,1134,1134,1134,1134,1134,1130,1130,1130,1130,1130,1123,1123,1126,1123,1123,1123,1119,1119,1119,1119,1119,1119,1115,1115,1115,1115,1115,1112,1108,1108,1108,1105,1105,1108,1105,1105,1105,1105,1101,1101,1101,1097,1094,1094,1094,1094,1094,1094,1090,1087,1087,1087,1084,1080,1080,1080,1077,1077,1077,1077,1073,1067,1067,1063,1063,1063,1063,1063,1060,1060,1057,1057,1054,1054,1054,1054,1054,0,0,0,0,0,0,0,0,0,0,0,0,0,0,0,0,0,0,0,0,0,0,0,0,0,0,0,0
0,0,0,0,0,0,0,0,0,0,0,0,0,0,1496,1496,1496,1489,1489,1489,1489,1489,1483,1483,1483,1483,1483,1483,1477,1477,1477,1477,1477,1477,1470,1470,1470,1470,1470,1464,1464,1470,1464,1464,1470,1464,1464,1464,1458,1452,1452,1458,1458,1458,1458,1458,1458,1464,1464,1464,1470,1483,1483,1483,1483,1489,1993,1993,1993,1993,1993,1981,1981,1981,1981,1981,1970,1970,1970,1970,1970,1970,1970,1970,1970,1970,1959,1959,1489,1477,1477,1477,1470,1470,1464,1464,1464,1464,1464,1477,1477,1483,1483,1483,1483,1489,1489,1496,1496,1503,1503,1509,1509,1509,1509,1509,1509,1516,1516,1516,1516,1516,1523,1529,1529,1536,1536,1536,1543,1543,1543,1550,1557,1564,1564,1564,1564,1572,1572,1579,1579,1579,1586,1586,1586,1594,1594,1594,1594,1601,1601,1601,1601,1609,1616,1616,1624,1624,1624,1632,1632,1632,1639,1639,1639,1647,1647,1647,1655,1655,1663,1663,1663,1663,1671,1671,1680,1680,1680,1688,1688,1688,1696,1696,1705,1705,1705,1713,1713,1705,1696,1696,1696,1696,1696,1688,1688,1688,1688,1680,1680,1680,1680,1671,1663,1663,1663,0,0,0,0,0,0,0,1038,1034,1034,1034,1031,1028,1028,1025,1025,1025,1025,1025,1025,1025,1025,1025,1028,1031,1034,1034,1038,1034,1034,1034,0,0,0,1586,1586,1579,1579,1579,1579,1579,1579,1572,1572,1564,1564,1564,1557,1557,1557,1557,1557,1550,1550,1550,1543,1543,1543,1536,1536,1536,1536,1536,1523,1516,1516,1516,1516,1516,1516,1509,1509,1509,1509,1509,1509,1509,1503,1503,1496,1489,1489,1489,1489,1483,1483,1483,1483,1483,1483,1483,1477,1477,1470,1470,1464,1464,1464,1464,1464,1464,1458,1458,1458,1452,1452,1445,1439,1439,1439,1439,1439,1439,1439,1439,1439,1439,1433,1433,1433,1433,1433,1433,1427,1427,1427,1421,1415,1415,1415,1410,1410,1415,0,0,0,0,0,0,0,0,0,873,871,871,869,869,869,869,867,864,862,862,860,860,860,860,860,860,860,862,862,864,867,869,869,871,871,875,875,878,0,0,0,0,0,1349,1338,1338,1333,1333,1333,1328,1328,1328,1322,1322,1328,1317,1317,1317,1317,1312,1312,1312,1312,1312,1307,1307,1307,1307,1307,1302,1302,1297,1297,1292,1292,1292,1292,1288,1288,1288,1283,1278,1278,1278,1278,1273,1273,1273,1273,1273,1268,1268,1268,1264,1259,1259,1259,1255,1255,1255,1255,1250,1250,1250,1250,1250,1250,1250,1250,1241,1236,1236,1236,1236,1236,1236,1236,1232,1232,1232,1232,1232,1227,1227,1227,1223,1223,1219,1219,1219,1219,1214,1214,1214,1210,1210,1210,1210,1206,1202,1202,1202,1202,1197,1197,1197,1193,1193,1193,1189,1189,1189,1189,1189,1185,1185,1185,1181,1181,1177,1177,1173,1173,1169,1169,1169,1173,1169,1169,1169,1169,1165,1165,1165,1165,1165,1161,1161,1157,1157,1153,1153,1149,1149,1149,1149,1145,1145,1145,1145,1145,1141,1141,1138,1138,1134,1134,1134,1134,1134,1130,1130,1130,1130,1130,1130,1126,1126,1123,1123,1123,1119,1119,1119,1119,1119,1119,1115,1115,1115,1115,1115,1112,1108,1108,1108,1105,1105,1108,1105,1105,1105,1105,1101,1101,1101,1097,1094,1094,1094,1094,1094,1094,1090,1087,1087,1087,1084,1080,1080,1080,1080,1077,1077,1077,1073,1070,1070,1063,1063,1063,1063,1063,1060,1060,1057,1057,1054,1054,1054,1054,1054,0,0,0,0,0,0,0,0,0,0,0,0,0,0,0,0,0,0,0,0,0,0,0,0,0,0,0,0
0,0,0,0,0,0,0,0,0,0,0,0,0,0,1496,1496,1496,1496,1489,1489,1489,1489,1483,1483,1483,1483,1483,1483,1477,1477,1477,1477,1477,1477,1477,1477,1470,1470,1470,1470,1470,1470,1470,1470,1470,1464,1464,1464,1458,1452,1452,1458,1458,1458,1458,1458,1458,1464,1464,1464,1477,1483,1483,1483,1483,1489,1489,1993,1993,1993,1993,1993,1993,1993,1981,1981,1981,1981,1981,1970,1970,1970,1970,1970,1959,1959,1959,1959,1489,1483,1483,1483,1477,1470,1464,1464,1464,1464,1464,1483,1483,1483,1483,1483,1483,1489,1489,1489,1496,1503,1503,1509,1509,1509,1509,1509,1516,1516,1516,1516,1516,1516,1523,1529,1536,1536,1536,1536,1543,1543,1543,1550,1564,1564,1564,1564,1564,1572,1572,1579,1586,1586,1586,1594,1594,1594,1594,1594,1594,1601,1601,1601,1601,1609,1616,1616,1624,1624,1624,1632,1632,1632,1639,1639,1647,1647,1647,1647,1655,1655,1663,1663,1663,1663,1671,1671,1680,1680,1680,1688,1688,1688,1696,1696,1705,1705,1705,1713,1713,1713,1705,1696,1696,1696,1696,1688,1688,1688,1688,1680,1680,1680,1680,1671,1663,1663,1663,0,0,0,0,0,0,0,1038,1034,1034,1034,1034,1028,1028,1025,1025,1025,1025,1025,1025,1025,1025,1025,1028,1031,1034,1034,1038,1038,1038,1038,0,0,0,1586,1586,1579,1579,1586,1586,1579,1579,1572,1572,1572,1564,1564,1564,1557,1557,1557,1557,1557,1557,1550,1550,1543,1543,1543,1543,1536,1536,1536,1523,1516,1516,1516,1516,1516,1516,1516,1509,1509,1509,1509,1509,1509,1509,1503,1496,1496,1489,1489,1489,1483,1483,1483,1483,1483,1483,1483,1477,1477,1470,1464,1464,1464,1464,1464,1464,1464,1458,1458,1458,1452,1452,1445,1445,1439,1439,1439,1439,1445,1439,1439,1439,1439,1433,1433,1433,1433,1433,1433,1427,1427,1427,1421,1421,1421,1415,1415,1415,1415,0,0,0,0,0,0,0,0,0,873,871,871,869,869,869,869,867,864,862,860,860,860,860,860,860,860,860,862,864,864,867,869,871,871,873,875,878,878,0,0,0,0,1349,1349,1349,1343,1333,1333,1333,1328,1328,1328,1328,1328,1322,1322,1317,1317,1317,1317,1317,1312,1312,1312,1312,1312,1307,1307,1307,1307,1302,1297,1297,1292,1292,1292,1288,1288,1288,1288,1288,1283,1283,1278,1278,1273,1273,1273,1273,1268,1268,1268,1268,1264,1264,1259,1259,1259,1255,1255,1255,1255,1250,1250,1250,1250,1250,1250,1250,1245,1236,1236,1236,1236,1236,1236,1236,1232,1232,1232,1232,1232,1232,1227,1227,1227,1223,1219,1219,1219,1219,1214,1214,1214,1214,1214,1210,1210,1210,1202,1202,1202,1202,1197,1197,1197,1193,1193,1193,1193,1189,1189,1189,1189,1189,1185,1185,1181,1181,1181,1177,1177,1177,1173,1173,1173,1173,1169,1169,1169,1169,1165,1165,1165,1165,1165,1161,1161,1157,1157,1153,1153,1149,1149,1149,1149,1145,1145,1145,1145,1145,1145,1141,1141,1138,1134,1134,1134,1134,1134,1134,1134,1134,1134,1130,1130,1126,1126,1126,1123,1123,1123,1119,1119,1119,1119,1119,1119,1119,1115,1115,1115,1115,1112,1112,1108,1108,1108,1108,1105,1105,1105,1105,1101,1101,1101,1097,1097,1094,1094,1094,1094,1094,1090,1087,1087,1087,1084,1080,1080,1080,1080,1077,1077,1077,1077,1073,1070,1067,1067,1063,1063,1063,1063,1063,1060,1057,1057,1054,1054,1054,1054,0,0,0,0,0,0,0,0,0,0,0,0,0,0,0,0,0,0,0,0,0,0,0,0,0,0,0,0
0,0,0,0,0,0,0,0,0,0,0,0,0,0,1496,1496,1496,1496,1489,1489,1489,1489,1483,1483,1483,1483,1483,1483,1477,1477,1477,1477,1477,1477,1477,1477,1477,1477,1470,1470,1470,1470,1464,1464,1470,1464,1464,1464,1458,1458,1458,1458,1458,1458,1458,1458,1458,1464,1464,1464,1477,1483,1483,1483,1483,1489,1496,2005,2005,2005,2005,1993,1993,1993,1981,1981,1981,1981,1981,1970,1970,1970,1970,1970,1959,1959,1959,1959,1489,1489,1483,1483,1477,1470,1470,1464,1464,1470,1470,1483,1483,1483,1483,1483,1489,1489,1489,1489,1496,1503,1503,1509,1509,1509,1509,1509,1516,1516,1516,1516,1516,1516,1523,1529,1536,1536,1536,1536,1536,1543,1543,1564,1564,1564,1564,1564,1564,1572,1572,1579,1586,1586,1586,1594,1594,1594,1594,1594,1601,1601,1601,1601,1601,1609,1616,1616,1624,1624,1624,1632,1632,1632,1639,1647,1647,1647,1647,1647,1655,1655,1663,1663,1663,1663,1671,1680,1680,1688,1688,1688,1688,1688,1696,1696,1705,1705,1713,1713,1713,1713,1705,1705,1696,1696,1696,1688,1688,1688,1688,1688,1688,1680,1680,1671,1671,1663,1663,1671,0,0,0,0,0,0,1038,1034,1034,1034,1034,1028,1028,1025,1025,1025,1025,1025,1025,1025,1025,1025,1028,1031,1034,1034,1038,1038,1038,1038,0,0,0,1594,1586,1586,1586,1586,1586,1586,1579,1572,1572,1572,1572,1564,1564,1564,1564,1564,1557,1557,1557,1557,1550,1550,1543,1543,1543,1536,1536,1536,1529,1523,1523,1523,1516,1516,1516,1516,1516,1516,1509,1509,1509,1509,1509,1503,1496,1496,1496,1489,1489,1483,1483,1483,1483,1483,1483,1483,1483,1477,1470,1464,1464,1464,1464,1464,1464,1464,1464,1458,1458,1458,1452,1445,1445,1445,1445,1439,1439,1445,1445,1439,1439,1439,1439,1439,1439,1433,1433,1433,1427,1427,1427,1427,1421,1421,1415,1415,1415,1415,0,0,0,0,0,0,0,0,0,871,871,871,871,869,869,869,867,864,862,860,860,860,860,860,860,860,860,862,864,864,867,869,871,871,873,875,0,0,0,0,0,1349,1349,1349,1349,1349,1338,1338,1333,1333,1328,1328,1328,1328,1322,1322,1322,1322,1317,1317,1317,1317,1312,1312,1312,1312,1307,1307,1307,1307,1302,1297,1297,1297,1292,1292,1288,1288,1288,1288,1288,1288,1283,1283,1278,1273,1273,1273,1273,1268,1268,1268,1268,1264,1264,1264,1259,1259,1259,1255,1255,1255,1255,1255,1255,1250,1250,1250,1250,1245,1241,1236,1236,1236,1236,1236,1236,1232,1232,1232,1232,1232,1232,1232,1227,1227,1223,1219,1219,1219,1219,1214,1214,1214,1214,1214,1210,1210,1210,1202,1202,1202,1202,1202,1197,1197,1197,1197,1193,1193,1189,1189,1189,1185,1185,1185,1185,1185,1181,1181,1181,1177,1177,1177,1173,1173,1173,1173,1169,1169,1169,1165,1165,1165,1165,1165,1161,1161,1161,1157,1153,1153,1153,1149,1149,1149,1145,1145,1145,1145,1145,1145,1145,1141,1141,1138,1138,1138,1138,1134,1134,1134,1134,1134,1130,1130,1126,1126,1126,1123,1123,1123,1123,1123,1119,1119,1119,1119,1119,1115,1115,1115,1115,1112,1112,1108,1108,1108,1108,1105,1105,1105,1105,1101,1101,1101,1101,1097,1097,1097,1094,1094,1094,1090,1090,1087,1087,1084,1084,1080,1080,1080,1077,1077,1077,1077,1073,1073,1070,1067,1063,1063,1063,1063,1063,1060,1057,1057,1057,1054,1054,1054,0,0,0,0,0,0,0,0,0,0,0,0,0,0,0,0,0,0,0,0,0,0,0,0,0,0,0,0
0,0,0,0,0,0,0,0,0,0,0,0,0,0,1496,1496,1496,1496,1489,1489,1489,1489,1483,1483,1483,1483,1477,1477,1477,1477,1477,1477,1477,1477,1477,1477,1477,1477,1477,1477,1470,1470,1464,1464,1470,1464,1464,1464,1458,1458,1458,1458,1458,1458,1458,1458,1458,1464,1464,1464,1477,1483,1483,1489,1489,1489,1496,2016,2016,2016,2005,2005,1993,1993,1981,1981,1981,1981,1981,1981,1970,1970,1970,1959,1959,1959,1959,1959,1959,1489,1483,1483,1477,1477,1477,1477,1477,1477,1477,1483,1483,1483,1483,1483,1489,1489,1489,1496,1496,1503,1503,1509,1509,1509,1509,1509,1516,1516,1516,1516,1516,1516,1529,1536,1536,1536,1536,1536,1536,1543,1557,1564,1564,1564,1564,1564,1572,1572,1572,1579,1586,1586,1586,1594,1594,1594,1594,1601,1601,1601,1601,1601,1609,1609,1616,1616,1624,1624,1624,1632,1632,1632,1639,1647,1647,1647,1655,1655,1655,1663,1663,1663,1663,1671,1671,1680,1680,1688,1688,1688,1688,1688,1696,1705,1705,1705,1713,1722,1713,1713,1713,1705,1705,1696,1696,1688,1688,1688,1688,1688,1688,1688,1680,1680,1671,1671,1663,1663,0,0,0,0,0,0,1038,1034,1034,1034,1031,1028,1028,1025,1025,1025,1025,1025,1025,1025,1025,1025,1028,1031,1034,1038,1038,1038,1038,1038,0,0,0,1594,1594,1586,1586,1586,1586,1586,1579,1579,1572,1572,1572,1564,1564,1564,1564,1564,1557,1557,1557,1557,1550,1550,1550,1543,1543,1536,1536,1536,1529,1523,1523,1523,1523,1523,1516,1516,1516,1516,1516,1516,1509,1509,1509,1509,1503,1496,1496,1489,1489,1483,1483,1483,1483,1483,1483,1483,1483,1477,1470,1464,1464,1464,1464,1464,1464,1458,1458,1458,1458,1458,1458,1452,1452,1445,1445,1445,1445,1445,1445,1445,1439,1439,1439,1439,1439,1439,1439,1433,1427,1427,1427,1427,1421,1421,1415,1415,1415,0,0,0,0,0,0,0,0,0,0,871,871,871,871,869,869,869,867,864,862,860,860,860,860,860,860,860,860,862,864,864,867,869,871,871,873,875,0,0,0,0,1343,1343,1349,1349,1349,1349,1343,1343,1333,1333,1333,1333,1328,1328,1328,1328,1322,1322,1322,1317,1317,1317,1312,1312,1312,1312,1307,1307,1307,1307,1302,1297,1297,1297,1292,1292,1292,1292,1288,1288,1288,1288,1288,1283,1283,1273,1273,1273,1273,1273,1268,1268,1268,1268,1264,1264,1264,1259,1259,1255,1255,1255,1255,1255,1255,1255,1250,1250,1250,1245,1245,1236,1236,1236,1236,1236,1236,1232,1232,1232,1232,1232,1232,1227,1227,1227,1223,1219,1219,1219,1219,1214,1214,1214,1214,1214,1210,1210,1210,1202,1202,1202,1202,1202,1197,1197,1197,1197,1197,1193,1189,1189,1189,1185,1185,1185,1185,1185,1181,1181,1181,1181,1177,1177,1173,1173,1173,1173,1169,1169,1169,1169,1165,1165,1165,1165,1161,1161,1161,1157,1157,1153,1153,1153,1153,1149,1149,1149,1149,1149,1145,1145,1145,1141,1141,1138,1138,1138,1138,1134,1134,1134,1134,1134,1130,1130,1126,1126,1126,1123,1123,1123,1123,1123,1123,1119,1119,1119,1119,1119,1119,1115,1115,1112,1112,1112,1108,1108,1108,1108,1105,1105,1105,1101,1101,1101,1101,1097,1097,1097,1097,1094,1094,1094,1090,1087,1087,1084,1084,1080,1080,1080,1080,1080,1077,1077,1077,1077,1077,1070,1067,1067,1063,1063,1063,1063,1060,1060,1057,1057,1057,1057,0,0,0,0,0,0,0,0,0,0,0,0,0,0,0,0,0,0,0,0,0,0,0,0,0,0,0,0
0,0,0,0,0,0,0,0,0,0,0,0,0,0,1496,1496,1496,1496,1489,1489,1489,1489,1483,1483,1483,1483,1477,1477,1477,1477,1477,1477,1483,1477,1477,1477,1477,1477,1477,1477,1470,1464,1464,1470,1470,1464,1464,1464,1464,1458,1458,1458,1458,1458,1458,1458,1458,1464,1464,1464,1477,1477,1483,1483,1483,1489,1489,2016,2016,2016,2005,2005,2005,2005,2005,1993,1981,1981,1981,1981,1970,1970,1970,1959,1959,1959,1959,1959,1489,1489,1483,1483,1483,1483,1477,1477,1477,1477,1477,1483,1483,1489,1489,1489,1489,1489,1489,1489,1496,1496,1503,1509,1509,1509,1516,1516,1516,1516,1516,1516,1516,1516,1529,1536,1536,1536,1536,1543,1543,1543,1557,1564,1564,1564,1564,1564,1572,1572,1572,1579,1586,1586,1586,1594,1594,1594,1594,1594,1601,1601,1601,1601,1609,1609,1616,1616,1624,1624,1632,1632,1632,1639,1639,1647,1647,1647,1655,1655,1655,1663,1663,1663,1671,1671,1680,1680,1680,1688,1688,1688,1688,1696,1696,1705,1705,1713,1713,1722,1722,1722,1713,1713,1705,1705,1696,1696,1696,1688,1688,1688,1688,1688,1680,1680,1671,1671,1663,1663,1671,0,0,0,0,0,1038,1038,1034,1034,1031,1028,1028,1025,1025,1025,1025,1025,1025,1025,1025,1028,1031,1031,1034,1038,1038,1038,1038,1038,0,0,0,1594,1594,1586,1586,1586,1586,1586,1586,1579,1579,1579,1572,1572,1564,1564,1564,1564,1557,1557,1557,1557,1550,1550,1550,1543,1543,1536,1536,1536,1536,1523,1523,1523,1523,1523,1516,1516,1516,1516,1516,1516,1516,1509,1509,1509,1503,1496,1496,1489,1489,1489,1489,1489,1489,1489,1483,1483,1483,1477,1470,1464,1464,1464,1464,1464,1464,1458,1458,1458,1458,1458,1458,1452,1452,1452,1452,1445,1445,1452,1445,1445,1445,1445,1439,1439,1439,1439,1439,1433,1427,1427,1427,1427,1421,1421,1415,1415,1421,0,0,0,0,0,0,0,0,0,0,871,871,869,869,871,869,869,867,867,862,862,862,860,860,860,860,860,862,862,864,867,869,869,871,873,875,0,0,0,0,0,1338,1338,1349,1349,1349,1349,1343,1343,1338,1338,1333,1333,1333,1328,1328,1328,1328,1328,1322,1322,1322,1322,1317,1312,1312,1312,1312,1307,1307,1307,1302,1297,1297,1297,1297,1292,1292,1292,1288,1288,1288,1288,1288,1288,1283,1278,1278,1278,1273,1268,1268,1268,1268,1268,1268,1264,1264,1264,1259,1259,1255,1255,1255,1255,1255,1255,1255,1255,1250,1245,1245,1236,1236,1236,1236,1236,1236,1236,1236,1236,1232,1232,1232,1227,1227,1227,1223,1219,1219,1219,1219,1214,1214,1214,1214,1214,1214,1210,1210,1206,1202,1202,1202,1202,1197,1197,1197,1197,1197,1193,1193,1189,1189,1185,1185,1185,1185,1185,1181,1181,1181,1181,1181,1177,1177,1177,1173,1173,1169,1169,1169,1169,1165,1165,1165,1165,1165,1161,1161,1157,1157,1157,1153,1153,1153,1149,1149,1149,1149,1149,1145,1145,1145,1141,1141,1138,1138,1138,1138,1134,1134,1134,1134,1134,1134,1130,1130,1126,1126,1126,1123,1123,1123,1123,1123,1119,1119,1119,1119,1119,1119,1115,1115,1115,1112,1112,1108,1108,1108,1108,1105,1105,1105,1105,1101,1101,1101,1097,1097,1097,1097,1094,1094,1094,1090,1090,1087,1084,1084,1080,1080,1080,1080,1080,1077,1077,1077,1077,1077,1070,1070,1067,1067,1067,1063,1063,1060,1060,1060,1057,1057,1057,0,0,0,0,0,0,0,0,0,0,0,0,0,0,0,0,0,0,0,0,0,0,0,0,0,0,0,0
0,0,0,0,0,0,0,0,0,0,0,0,0,0,1496,1496,1496,1496,1489,1489,1489,1489,1489,1483,1483,1483,1483,1483,1477,1477,1477,1477,1483,1477,1477,1477,1477,1470,1470,1470,1464,1464,1464,1464,1470,1464,1464,1464,1464,1464,1458,1458,1458,1458,1458,1458,1458,1464,1464,1464,1470,1477,1483,1483,1483,1483,1483,2028,2028,2016,2005,2005,2005,2005,2005,1993,1981,1981,1981,1981,1970,1970,1970,1959,1959,1959,1959,1959,1489,1483,1483,1483,1483,1483,1483,1477,1477,1477,1477,1483,1483,1489,1489,1489,1489,1489,1489,1489,1496,1496,1503,1509,1509,1509,1516,1516,1516,1516,1523,1523,1523,1529,1529,1536,1536,1536,1536,1543,1543,1543,1557,1564,1564,1564,1564,1572,1572,1572,1579,1579,1586,1586,1586,1594,1594,1594,1594,1594,1601,1601,1601,1609,1609,1616,1616,1624,1624,1632,1632,1632,1632,1639,1639,1647,1647,1647,1655,1655,1655,1663,1663,1663,1663,1671,1671,1671,1680,1688,1688,1688,1688,1696,1696,1705,1713,1713,1713,1722,1722,1722,1713,1713,1713,1705,1705,1696,1696,1696,1688,1688,1688,1688,1680,1680,1671,1671,1671,1671,1671,0,0,0,0,0,1038,1038,1034,1034,1031,1028,1028,1025,1025,1025,1025,1025,1025,1025,1028,1031,1031,1034,1034,1038,1038,1038,1038,1041,0,0,0,1594,1594,1586,1586,1594,1586,1586,1586,1579,1579,1579,1572,1572,1564,1564,1564,1564,1564,1564,1557,1557,1550,1550,1550,1543,1543,1536,1536,1536,1536,1536,1529,1529,1523,1523,1523,1523,1516,1516,1516,1516,1516,1509,1509,1509,1503,1503,1496,1496,1489,1489,1489,1489,1489,1489,1489,1483,1483,1477,1470,1470,1470,1470,1464,1464,1464,1464,1458,1458,1458,1458,1458,1458,1452,1452,1452,1452,1452,1445,1445,1445,1445,1445,1439,1439,1439,1439,1439,1433,1433,1433,1427,1427,1427,1421,1421,1421,1421,1415,1410,1410,0,0,0,0,0,0,0,871,871,869,869,869,869,869,867,867,862,862,862,862,860,860,860,862,862,862,864,867,869,871,873,873,875,0,0,0,0,0,1338,1338,1343,1343,1343,1343,1343,1343,1338,1338,1333,1333,1333,1333,1328,1328,1328,1328,1322,1322,1322,1322,1317,1317,1312,1312,1312,1312,1307,1307,1302,1302,1297,1297,1297,1292,1292,1292,1288,1288,1288,1288,1288,1288,1283,1283,1278,1278,1273,1268,1268,1268,1268,1268,1268,1268,1268,1264,1264,1259,1259,1259,1259,1255,1255,1255,1255,1255,1250,1245,1245,1245,1245,1241,1236,1236,1236,1236,1236,1236,1232,1232,1232,1227,1227,1227,1223,1223,1219,1219,1219,1219,1214,1214,1214,1214,1214,1210,1210,1206,1202,1202,1202,1202,1197,1197,1197,1197,1197,1197,1193,1193,1189,1185,1185,1185,1185,1185,1185,1185,1185,1181,1181,1181,1177,1177,1173,1173,1169,1169,1169,1169,1169,1165,1165,1165,1165,1165,1161,1161,1157,1157,1153,1153,1153,1153,1149,1149,1149,1149,1145,1145,1145,1141,1141,1138,1138,1138,1138,1138,1134,1134,1134,1134,1134,1130,1130,1130,1126,1126,1123,1123,1123,1123,1123,1123,1119,1119,1119,1119,1119,1119,1115,1115,1112,1112,1108,1108,1108,1108,1105,1105,1105,1105,1101,1101,1101,1097,1097,1097,1094,1094,1094,1094,1090,1090,1090,1087,1084,1080,1080,1080,1080,1080,1077,1077,1077,1077,1077,1073,1070,1067,1067,1067,1063,1063,1060,1060,1060,1060,1057,1057,0,0,0,0,0,0,0,0,0,0,0,0,0,0,0,0,0,0,0,0,0,0,0,0,0,0,0,0
0,0,0,0,0,0,0,0,0,0,0,0,0,0,1496,1496,1496,1496,1489,1489,1489,1489,1489,1483,1483,1483,1483,1483,1483,1483,1477,1477,1477,1477,1477,1477,1470,1470,1470,1470,1464,1464,1464,1464,1464,1464,1464,1464,1464,1464,1458,1458,1458,1458,1458,1464,1464,1464,1464,1470,1470,1477,1483,1483,1483,1483,1483,2028,2028,2016,2005,2005,2005,2005,2005,1993,1993,1993,1981,1981,1970,1970,1970,1959,1959,1959,1959,1959,1489,1483,1483,1483,1483,1483,1483,1477,1477,1477,1477,1483,1483,1489,1489,1489,1489,1489,1489,1489,1496,1496,1503,1509,1509,1516,1516,1516,1516,1523,1523,1523,1523,1529,1536,1536,1536,1536,1536,1543,1543,1543,1557,1564,1564,1564,1564,1572,1572,1572,1572,1579,1579,1579,1586,1594,1594,1594,1601,1601,1601,1601,1601,1609,1609,1616,1616,1624,1624,1632,1632,1632,1632,1639,1639,1647,1647,1655,1655,1655,1655,1663,1663,1663,1663,1671,1671,1671,1680,1688,1688,1688,1688,1696,1705,1705,1713,1713,1713,1722,1722,1722,1713,1713,1713,1705,1705,1696,1696,1696,1696,1688,1688,1688,1688,1688,1680,1680,1680,1680,0,0,0,0,0,0,1038,1038,1034,1034,1031,1031,1028,1028,1025,1025,1025,1025,1025,1028,1028,1031,1034,1034,1038,1038,1038,1038,1038,1038,0,0,0,1594,1594,1594,1594,1594,1594,1594,1586,1579,1579,1579,1572,1572,1572,1564,1564,1564,1564,1564,1557,1557,1557,1550,1550,1543,1543,1543,1536,1536,1536,1536,1536,1529,1529,1529,1523,1523,1523,1516,1516,1516,1516,1509,1509,1509,1503,1503,1496,1496,1496,1489,1489,1489,1489,1489,1489,1489,1483,1483,1477,1470,1470,1470,1470,1470,1470,1464,1458,1458,1458,1458,1458,1458,1458,1452,1452,1452,1452,1445,1445,1445,1445,1445,1445,1445,1439,1439,1439,1433,1433,1433,1433,1427,1427,1421,1421,1421,1421,1415,1410,1410,0,0,0,0,0,0,0,0,871,869,869,869,869,869,867,867,864,862,862,862,860,860,860,862,862,862,864,867,869,871,873,873,875,0,0,0,0,0,1343,1343,1343,1343,1343,1343,1343,1343,1338,1338,1338,1333,1333,1333,1328,1328,1328,1328,1322,1322,1322,1322,1317,1317,1312,1312,1312,1312,1307,1307,1302,1302,1302,1297,1292,1292,1292,1292,1292,1288,1288,1288,1288,1288,1288,1283,1283,1278,1278,1273,1273,1268,1268,1268,1268,1268,1268,1268,1264,1264,1264,1259,1259,1259,1255,1255,1255,1255,1250,1245,1245,1245,1245,1241,1236,1236,1236,1236,1236,1236,1236,1232,1232,1232,1232,1227,1227,1223,1219,1219,1219,1219,1219,1214,1214,1214,1214,1210,1210,1206,1206,1202,1202,1202,1202,1197,1197,1197,1197,1197,1193,1193,1189,1189,1189,1185,1185,1185,1185,1185,1185,1181,1181,1181,1177,1177,1173,1169,1169,1169,1169,1169,1169,1169,1165,1165,1165,1165,1161,1161,1157,1157,1157,1153,1153,1153,1153,1149,1149,1149,1145,1145,1145,1141,1141,1138,1138,1138,1138,1138,1138,1138,1134,1134,1134,1134,1130,1130,1126,1126,1123,1123,1123,1123,1123,1123,1119,1119,1119,1119,1119,1119,1115,1115,1115,1112,1108,1108,1108,1108,1105,1105,1105,1105,1101,1101,1101,1101,1101,1097,1094,1094,1094,1094,1094,1090,1090,1087,1087,1084,1084,1084,1080,1080,1080,1080,1077,1077,1077,1073,1070,1070,1067,1067,1067,1063,1063,1063,1063,1060,1060,1060,0,0,0,0,0,0,0,0,0,0,0,0,0,0,0,0,0,0,0,0,0,0,0,0,0,0,0,0
0,0,0,0,0,0,0,0,0,0,0,0,0,0,1496,1496,1496,1496,1489,1489,1489,1489,1489,1483,1483,1483,1483,1483,1483,1483,1477,1477,1477,1477,1477,1477,1470,1470,1470,1470,1464,1464,1464,1464,1464,1464,1464,1464,1464,1464,1458,1458,1458,1458,1464,1464,1464,1464,1470,1470,1477,1477,1483,1483,1483,1483,1483,1483,2028,2028,2016,2005,2005,2005,2005,2005,2005,1993,1981,1981,1970,1970,1970,1959,1959,1959,1959,1959,1483,1483,1483,1483,1483,1483,1483,1477,1477,1477,1477,1477,1483,1489,1489,1489,1489,1489,1489,1489,1496,1496,1503,1509,1509,1516,1516,1523,1523,1523,1523,1523,1529,1536,1536,1536,1536,1543,1543,1543,1543,1550,1557,1564,1564,1564,1564,1572,1572,1572,1572,1579,1579,1579,1579,1586,1594,1594,1601,1601,1601,1601,1601,1609,1609,1616,1616,1624,1624,1632,1632,1632,1632,1639,1639,1647,1655,1655,1655,1655,1655,1663,1663,1663,1663,1671,1671,1680,1688,1688,1688,1688,1688,1696,1705,1705,1713,1713,1722,1722,1722,1722,1722,1713,1713,1705,1705,1696,1696,1696,1696,1688,1688,1688,1688,1688,1680,1671,1671,1680,0,0,0,0,0,0,0,1038,1038,1034,1034,1031,1028,1028,1025,1025,1025,1025,1028,1028,1031,1034,1034,1034,1038,1038,1038,1038,1038,1038,0,0,0,1594,1594,1594,1594,1594,1594,1594,1586,1579,1579,1579,1572,1572,1572,1564,1564,1564,1564,1564,1557,1557,1557,1557,1550,1543,1543,1543,1543,1543,1543,1536,1536,1536,1536,1529,1523,1523,1523,1516,1516,1516,1516,1516,1509,1509,1509,1503,1496,1496,1496,1496,1489,1489,1489,1489,1489,1489,1483,1483,1477,1470,1470,1470,1470,1470,1470,1464,1458,1458,1458,1458,1458,1458,1458,1458,1452,1452,1452,1452,1452,1445,1445,1445,1445,1445,1439,1439,1439,1433,1433,1433,1433,1427,1427,1421,1421,1421,1415,1404,1404,1410,0,0,0,0,0,0,0,0,871,869,869,869,869,869,867,867,864,862,862,862,862,862,862,862,862,862,864,867,869,871,873,875,875,0,0,0,0,0,1343,1343,1343,1343,1343,1343,1343,1343,1343,1338,1338,1333,1333,1333,1328,1328,1328,1328,1322,1322,1322,1322,1317,1317,1317,1312,1312,1312,1307,1307,1302,1302,1302,1297,1292,1292,1292,1292,1292,1288,1288,1288,1288,1288,1288,1288,1283,1283,1278,1273,1273,1268,1268,1268,1268,1268,1268,1268,1268,1264,1264,1264,1259,1259,1259,1255,1255,1255,1250,1245,1245,1245,1245,1245,1241,1236,1236,1236,1236,1236,1236,1232,1232,1232,1232,1227,1227,1223,1219,1219,1219,1219,1219,1214,1214,1214,1214,1210,1210,1210,1206,1206,1202,1202,1202,1197,1197,1197,1197,1197,1197,1193,1193,1193,1189,1189,1189,1189,1185,1185,1185,1185,1181,1181,1181,1177,1177,1169,1169,1169,1169,1169,1169,1169,1165,1165,1165,1165,1165,1161,1161,1157,1157,1157,1153,1153,1153,1153,1149,1149,1145,1145,1145,1145,1145,1141,1141,1138,1138,1138,1138,1138,1134,1134,1134,1130,1130,1130,1126,1126,1126,1126,1123,1123,1123,1123,1123,1123,1119,1119,1119,1119,1115,1115,1115,1112,1108,1108,1108,1108,1105,1105,1105,1105,1105,1105,1101,1101,1101,1097,1094,1094,1094,1094,1094,1090,1090,1090,1087,1087,1084,1084,1080,1080,1080,1080,1080,1077,1077,1073,1073,1073,1070,1070,1067,1067,1063,1063,1063,1060,1060,1060,0,0,0,0,0,0,0,0,0,0,0,0,0,0,0,0,0,0,0,0,0,0,0,0,0,0,0,0
0,0,0,0,0,0,0,0,0,0,0,0,0,0,1496,1496,1496,1496,1489,1489,1489,1489,1489,1489,1483,1483,1489,1489,1483,1483,1483,1483,1483,1477,1477,1477,1470,1470,1470,1470,1470,1464,1464,1464,1464,1464,1464,1464,1464,1464,1464,1464,1464,1464,1464,1464,1464,1464,1477,1477,1477,1477,1483,1483,1483,1483,1483,2028,2028,2016,2016,2016,2016,2016,2005,2005,2005,1993,1981,1981,1970,1970,1970,1959,1959,1959,1959,1959,1483,1483,1483,1483,1483,1483,1483,1477,1477,1477,1477,1477,1483,1489,1489,1489,1489,1489,1489,1489,1489,1503,1509,1509,1516,1516,1516,1523,1523,1523,1529,1529,1536,1536,1536,1543,1543,1543,1543,1543,1543,1550,1557,1564,1564,1572,1572,1572,1572,1572,1579,1579,1579,1579,1579,1586,1594,1594,1601,1601,1601,1601,1609,1616,1616,1616,1624,1624,1624,1632,1632,1632,1639,1647,1647,1647,1655,1655,1655,1663,1663,1663,1663,1663,1663,1671,1671,1680,1688,1688,1688,1688,1696,1705,1705,1705,1713,1722,1722,1722,1722,1722,1722,1713,1713,1705,1705,1696,1696,1696,1696,1696,1696,1688,1688,1688,1680,1671,1671,0,0,0,0,0,0,0,0,1038,1038,1034,1034,1031,1028,1028,1028,1025,1025,1025,1028,1028,1031,1034,1034,1034,1038,1038,1038,1038,1038,1038,0,0,0,1594,1594,1586,1586,1594,1594,1586,1586,1579,1579,1579,1572,1572,1572,1564,1564,1564,1564,1557,1557,1557,1550,1550,1550,1550,1550,1543,1543,1543,1543,1536,1536,1536,1536,1536,1529,1523,1523,1516,1516,1516,1516,1516,1509,1509,1509,1503,1496,1496,1496,1496,1489,1489,1496,1489,1489,1489,1483,1483,1483,1477,1477,1477,1477,1470,1470,1470,1464,1464,1464,1464,1464,1458,1458,1458,1458,1452,1452,1458,1452,1452,1445,1445,1445,1445,1439,1439,1439,1439,1433,1433,1433,1433,1427,1427,1421,1421,1415,1404,1404,0,0,0,0,0,0,0,0,875,871,869,869,871,869,869,867,864,864,862,862,862,862,862,862,862,862,864,867,869,871,873,873,875,875,0,0,0,0,0,1343,1343,1343,1343,1343,1343,1343,1343,1343,1338,1338,1333,1333,1333,1328,1328,1328,1328,1322,1322,1322,1322,1322,1317,1317,1317,1312,1312,1307,1307,1307,1302,1302,1297,1292,1292,1292,1292,1292,1288,1288,1288,1288,1288,1288,1288,1283,1283,1278,1278,1278,1273,1273,1273,1273,1268,1268,1268,1268,1268,1268,1264,1264,1259,1259,1255,1255,1255,1250,1245,1245,1245,1245,1245,1241,1236,1236,1236,1236,1236,1236,1236,1232,1232,1232,1227,1227,1223,1219,1219,1219,1219,1219,1219,1219,1214,1214,1214,1210,1210,1206,1206,1202,1202,1202,1197,1197,1197,1197,1197,1197,1193,1193,1193,1189,1189,1189,1189,1185,1185,1185,1185,1185,1181,1181,1181,1177,1173,1169,1169,1169,1169,1169,1169,1169,1165,1165,1165,1165,1161,1161,1157,1157,1157,1157,1153,1153,1153,1149,1149,1145,1145,1145,1145,1145,1141,1141,1141,1138,1138,1138,1138,1138,1134,1134,1130,1130,1130,1130,1126,1126,1126,1126,1123,1123,1123,1123,1123,1123,1119,1119,1119,1115,1115,1115,1112,1112,1108,1108,1108,1108,1105,1105,1105,1105,1105,1101,1101,1101,1097,1097,1094,1094,1094,1094,1090,1090,1090,1090,1087,1087,1084,1084,1080,1080,1080,1080,1077,1077,1073,1073,1073,1070,1070,1067,1067,1063,1063,1063,1063,1063,1063,0,0,0,0,0,0,0,0,0,0,0,0,0,0,0,0,0,0,0,0,0,0,0,0,0,0,0,0
0,0,0,0,0,0,0,0,0,0,0,0,0,0,1496,1496,1503,1496,1489,1489,1489,1489,1489,1489,1489,1489,1489,1489,1489,1489,1489,1483,1483,1483,1483,1477,1477,1477,1477,1477,1470,1470,1470,1470,1470,1464,1464,1470,1464,1464,1464,1464,1464,1464,1464,1464,1464,1470,1477,1477,1477,1477,1483,1483,1483,1483,1483,2028,2028,2016,2016,2016,2016,2016,2005,2005,2005,1993,1981,1981,1970,1970,1970,1959,1959,1959,1959,1959,1959,1489,1489,1489,1477,1477,1477,1477,1477,1477,1477,1483,1483,1489,1489,1489,1489,1489,1489,1489,1489,1503,1509,1509,1516,1516,1516,1516,1523,1523,1523,1529,1536,1536,1536,1536,1543,1543,1543,1543,1543,1557,1564,1564,1564,1572,1572,1572,1572,1572,1579,1579,1586,1586,1586,1586,1594,1594,1601,1601,1601,1601,1609,1609,1616,1616,1624,1624,1624,1632,1632,1632,1639,1647,1647,1655,1655,1655,1655,1663,1663,1663,1663,1663,1671,1671,1680,1680,1688,1688,1688,1688,1696,1705,1705,1705,1713,1722,1722,1722,1722,1722,1722,1713,1713,1705,1705,1696,1696,1696,1696,1696,1696,1688,1688,1688,1680,1680,0,0,0,0,0,0,0,0,0,1038,1038,1034,1034,1031,1028,1028,1028,1028,1025,1025,1028,1031,1031,1034,1034,1034,1038,1038,1038,1038,1038,1038,0,0,0,1594,1586,1586,1586,1594,1594,1586,1586,1579,1579,1579,1572,1572,1572,1564,1564,1564,1564,1557,1557,1557,1550,1550,1550,1550,1550,1543,1543,1543,1543,1536,1536,1536,1536,1536,1529,1523,1523,1523,1516,1516,1516,1516,1509,1509,1509,1503,1503,1496,1496,1496,1489,1489,1496,1489,1489,1489,1483,1483,1483,1477,1477,1477,1477,1477,1477,1470,1470,1470,1464,1464,1464,1458,1458,1458,1458,1452,1452,1452,1452,1452,1452,1445,1445,1445,1445,1439,1439,1439,1439,1439,1439,1433,1433,1427,1421,1421,1415,1415,0,0,0,0,0,0,0,0,880,875,873,871,871,871,869,869,867,864,864,862,862,862,862,862,862,862,862,864,867,869,871,873,873,875,875,0,0,0,0,0,1349,1349,1349,1343,1343,1343,1343,1343,1338,1338,1338,1333,1333,1333,1328,1328,1328,1328,1322,1322,1322,1322,1322,1317,1317,1317,1312,1312,1307,1307,1307,1302,1302,1302,1297,1292,1292,1292,1292,1292,1292,1288,1288,1288,1288,1288,1288,1283,1283,1278,1278,1278,1273,1273,1273,1273,1268,1268,1268,1268,1268,1264,1264,1264,1259,1259,1255,1255,1250,1250,1250,1245,1245,1245,1241,1241,1241,1236,1236,1236,1236,1236,1232,1232,1232,1227,1227,1223,1223,1219,1219,1219,1219,1219,1219,1214,1214,1214,1214,1210,1210,1206,1206,1206,1202,1202,1202,1202,1197,1197,1197,1197,1193,1193,1189,1189,1189,1189,1185,1185,1185,1185,1185,1181,1181,1181,1177,1177,1173,1169,1169,1169,1169,1169,1169,1165,1165,1165,1165,1165,1161,1161,1157,1157,1157,1153,1153,1153,1149,1149,1149,1149,1145,1145,1145,1141,1141,1141,1141,1138,1138,1138,1138,1138,1134,1130,1130,1130,1130,1126,1126,1126,1126,1123,1123,1123,1123,1123,1123,1119,1119,1119,1115,1115,1115,1112,1112,1108,1108,1108,1108,1105,1105,1105,1105,1105,1105,1101,1101,1097,1097,1097,1094,1094,1094,1094,1090,1090,1090,1090,1087,1087,1084,1084,1080,1080,1080,1077,1077,1077,1073,1073,1070,1070,1070,1067,1067,1063,1063,1063,1063,1063,0,0,0,0,0,0,0,0,0,0,0,0,0,0,0,0,0,0,0,0,0,0,0,0,0,0,0,0
0,0,0,0,0,0,0,0,0,0,0,0,0,0,1503,1503,1503,1503,1489,1489,1489,1489,1489,1489,1489,1489,1489,1489,1489,1489,1489,1489,1483,1483,1483,1477,1477,1477,1477,1477,1470,1470,1470,1470,1470,1470,1470,1470,1464,1464,1464,1464,1464,1464,1464,1464,1464,1470,1477,1483,1483,1483,1483,1483,1483,1477,1477,1477,2028,2028,2028,2016,2016,2016,2016,2005,2005,1993,1993,1993,1981,1970,1970,1970,1970,1959,1959,1959,1959,1483,1483,1483,1477,1477,1477,1477,1477,1477,1477,1477,1483,1489,1489,1489,1489,1489,1489,1489,1496,1503,1509,1509,1516,1516,1516,1516,1523,1523,1523,1529,1536,1536,1536,1536,1543,1543,1543,1543,1543,1557,1564,1564,1564,1572,1572,1572,1572,1572,1579,1579,1586,1586,1586,1594,1594,1601,1601,1601,1601,1609,1609,1609,1616,1624,1624,1632,1632,1632,1632,1639,1647,1647,1655,1655,1655,1655,1655,1663,1663,1663,1663,1663,1671,1671,1680,1688,1688,1688,1688,1696,1705,1705,1705,1713,1713,1722,1722,1722,1722,1722,1722,1722,1713,1705,1705,1705,1696,1696,1696,1696,1696,1688,1688,1688,1688,0,0,0,0,0,0,0,0,0,0,1038,1038,1034,1034,1031,1028,1028,1028,1028,1028,1028,1028,1031,1031,1034,1034,1034,1038,1038,1041,1038,1038,1041,0,0,0,1594,1586,1586,1594,1594,1594,1594,1586,1586,1586,1579,1579,1572,1572,1564,1564,1564,1564,1557,1557,1557,1557,1557,1550,1550,1550,1543,1543,1543,1543,1536,1536,1536,1536,1536,1536,1529,1523,1523,1516,1516,1516,1516,1509,1509,1509,1503,1503,1503,1503,1496,1496,1496,1496,1489,1489,1489,1483,1483,1483,1483,1483,1483,1483,1477,1477,1477,1470,1470,1470,1464,1464,1458,1458,1458,1458,1452,1452,1452,1452,1452,1452,1445,1445,1445,1445,1439,1439,1439,1439,1439,1439,1433,1433,1427,1427,1421,1415,1415,1415,0,0,0,0,0,0,0,878,878,878,875,873,871,869,867,864,864,862,862,862,862,862,862,862,862,864,864,867,869,871,873,875,875,878,0,0,0,0,0,1349,1349,1349,1349,1349,1349,1343,1343,1338,1338,1338,1333,1333,1333,1328,1328,1328,1328,1328,1328,1322,1322,1322,1317,1317,1317,1312,1312,1312,1307,1307,1307,1302,1302,1297,1292,1292,1292,1292,1292,1292,1288,1288,1288,1288,1288,1288,1288,1283,1278,1278,1278,1273,1273,1273,1273,1268,1268,1268,1268,1268,1264,1264,1264,1259,1259,1255,1255,1250,1250,1250,1250,1245,1245,1245,1245,1241,1241,1236,1236,1236,1236,1236,1232,1232,1232,1227,1227,1223,1223,1223,1219,1219,1219,1219,1214,1214,1214,1214,1214,1210,1206,1206,1206,1202,1202,1202,1202,1202,1197,1197,1197,1197,1193,1189,1189,1189,1189,1185,1185,1185,1185,1185,1181,1181,1181,1181,1177,1173,1173,1169,1169,1169,1169,1169,1165,1165,1165,1165,1165,1165,1161,1161,1157,1157,1153,1153,1153,1153,1149,1149,1149,1149,1149,1145,1145,1145,1141,1141,1141,1138,1138,1138,1138,1138,1134,1134,1134,1130,1126,1126,1126,1126,1123,1123,1123,1123,1123,1123,1123,1119,1119,1119,1115,1115,1112,1112,1112,1108,1108,1108,1108,1105,1105,1105,1105,1105,1105,1101,1101,1101,1097,1097,1094,1094,1094,1094,1090,1090,1090,1090,1087,1084,1084,1080,1080,1080,1077,1077,1077,1073,1073,1070,1070,1070,1067,1067,1067,1063,1063,1063,1063,0,0,0,0,0,0,0,0,0,0,0,0,0,0,0,0,0,0,0,0,0,0,0,0,0,0,0,0
0,0,0,0,0,0,0,0,0,0,0,0,0,0,1503,1503,1503,1503,1496,1496,1496,1489,1489,1489,1489,1489,1489,1489,1489,1489,1489,1489,1483,1483,1483,1477,1477,1477,1477,1477,1470,1470,1470,1470,1470,1470,1470,1470,1470,1470,1470,1464,1464,1464,1464,1464,1464,1470,1477,1483,1483,1483,1483,1483,1483,1477,1477,1477,2028,2028,2028,2016,2016,2016,2016,2005,2005,1993,1993,1993,1981,1970,1970,1970,1970,1970,1970,1970,1970,1483,1483,1483,1477,1477,1477,1477,1477,1477,1477,1477,1483,1489,1489,1489,1489,1489,1489,1496,1496,1503,1509,1509,1516,1516,1516,1523,1523,1523,1529,1529,1536,1536,1536,1536,1543,1543,1543,1543,1550,1557,1564,1564,1564,1572,1572,1572,1572,1572,1579,1579,1586,1586,1586,1594,1601,1601,1601,1601,1601,1601,1624,1624,1624,1624,1632,1632,1632,1632,1639,1639,1647,1647,1655,1655,1655,1655,1655,1663,1663,1663,1663,1663,1671,1671,1680,1688,1688,1688,1688,1696,1705,1705,1705,1713,1722,1722,1722,1722,1722,1722,1722,1722,1713,1705,1705,1705,1696,1696,1696,1696,1696,1688,1688,1688,1680,1680,0,0,0,0,0,0,0,0,0,1038,1038,1034,1034,1034,1031,1031,1028,1028,1028,1028,1031,1031,1031,1034,1034,1034,1038,1038,1041,1041,1041,1041,0,0,0,1594,1586,1586,1594,1594,1594,1594,1594,1586,1586,1586,1579,1572,1572,1564,1564,1564,1564,1557,1557,1557,1557,1557,1550,1550,1550,1543,1543,1543,1543,1543,1543,1536,1536,1536,1536,1529,1523,1523,1523,1516,1516,1516,1509,1509,1509,1509,1509,1503,1503,1503,1503,1503,1496,1496,1489,1489,1483,1483,1483,1483,1483,1483,1483,1477,1477,1477,1470,1470,1470,1464,1464,1464,1458,1458,1458,1458,1458,1458,1458,1452,1452,1452,1445,1445,1445,1439,1439,1439,1439,1439,1439,1439,1433,1433,1427,1427,1421,1415,1415,0,0,0,0,0,0,0,878,878,878,875,873,871,869,867,864,864,862,862,862,862,862,862,862,862,864,867,869,869,873,875,875,878,880,880,0,0,0,0,1349,1349,1349,1349,1349,1349,1343,1343,1343,1338,1338,1333,1333,1333,1328,1328,1328,1328,1328,1328,1322,1322,1322,1322,1322,1317,1312,1312,1312,1307,1307,1307,1302,1302,1302,1297,1297,1292,1292,1292,1292,1292,1288,1288,1288,1288,1288,1288,1283,1283,1278,1278,1273,1273,1273,1273,1273,1268,1268,1268,1268,1268,1264,1264,1264,1259,1255,1255,1250,1250,1250,1250,1250,1250,1245,1245,1245,1241,1241,1241,1236,1236,1236,1232,1232,1232,1227,1227,1227,1223,1223,1223,1219,1219,1219,1214,1214,1214,1214,1214,1210,1206,1206,1206,1206,1202,1202,1202,1202,1202,1197,1197,1197,1193,1193,1189,1189,1189,1185,1185,1185,1185,1185,1185,1181,1181,1181,1177,1177,1177,1173,1169,1169,1169,1169,1169,1169,1165,1165,1165,1165,1161,1161,1157,1157,1153,1153,1153,1153,1149,1149,1149,1149,1149,1149,1145,1145,1145,1141,1141,1141,1138,1138,1138,1138,1138,1134,1134,1134,1130,1126,1126,1126,1123,1123,1123,1123,1123,1123,1123,1119,1119,1119,1115,1115,1112,1112,1112,1108,1108,1108,1108,1105,1105,1105,1105,1105,1105,1101,1101,1101,1097,1097,1094,1094,1094,1094,1094,1090,1090,1090,1087,1084,1084,1080,1080,1080,1077,1077,1077,1077,1073,1073,1070,1070,1070,1067,1067,1063,1063,1063,1063,0,0,0,0,0,0,0,0,0,0,0,0,0,0,0,0,0,0,0,0,0,0,0,0,0,0,0,0
0,0,0,0,0,0,0,0,0,0,0,0,0,0,1509,1503,1503,1503,1503,1496,1496,1489,1489,1489,1489,1489,1489,1489,1489,1489,1489,1489,1489,1483,1483,1477,1477,1477,1477,1477,1470,1470,1477,1477,1470,1470,1470,1470,1470,1470,1470,1464,1464,1470,1464,1464,1470,1470,1477,1477,1483,1483,1483,1483,1483,1483,1483,1483,2040,2040,2028,2016,2016,2016,2016,2005,2005,1993,1993,1993,1981,1981,1981,1981,1970,1970,1970,1970,1970,1483,1483,1483,1483,1483,1483,1483,1483,1483,1483,1483,1489,1489,1489,1489,1489,1489,1496,1496,1496,1503,1509,1509,1516,1516,1516,1523,1523,1523,1523,1529,1536,1536,1536,1536,1543,1543,1543,1550,1557,1557,1564,1564,1564,1572,1572,1572,1572,1572,1579,1586,1586,1594,1594,1594,1601,1601,1601,1601,1601,1601,1616,1616,1624,1624,1624,1632,1632,1632,1632,1639,1639,1655,1655,1655,1655,1655,1663,1663,1663,1663,1663,1671,1671,1680,1680,1688,1688,1688,1696,1696,1705,1705,1713,1713,1722,1722,1722,1722,1722,1722,1722,1722,1713,1705,1705,1705,1696,1696,1696,1696,1696,1696,1688,1688,1680,1680,0,0,0,0,0,0,0,0,0,1038,1038,1034,1034,1034,1034,1031,1031,1028,1028,1031,1031,1031,1031,1034,1034,1038,1038,1038,1041,1041,1044,1044,0,0,0,1594,1594,1594,1594,1594,1594,1594,1594,1594,1586,1586,1579,1572,1572,1564,1564,1564,1564,1564,1557,1557,1557,1557,1550,1550,1550,1543,1543,1543,1543,1543,1543,1536,1536,1536,1536,1529,1529,1523,1523,1516,1516,1516,1516,1509,1509,1509,1509,1509,1503,1503,1503,1503,1496,1496,1496,1489,1489,1483,1483,1483,1483,1483,1483,1483,1477,1477,1477,1470,1470,1464,1464,1464,1458,1458,1458,1458,1458,1458,1458,1452,1452,1452,1445,1445,1445,1439,1439,1439,1439,1439,1439,1439,1439,1433,1427,1427,1421,1415,1415,0,0,0,0,0,0,878,878,875,875,875,873,871,871,869,864,864,864,862,862,862,862,862,862,864,864,869,869,871,873,875,878,878,878,880,0,0,0,0,0,1354,1349,1349,1349,1349,1343,1343,1343,1338,1338,1333,1333,1333,1333,1328,1328,1328,1328,1328,1328,1322,1322,1322,1317,1317,1312,1312,1312,1312,1307,1307,1307,1302,1302,1302,1297,1292,1292,1292,1292,1292,1292,1292,1288,1288,1288,1288,1283,1283,1283,1278,1278,1273,1273,1273,1273,1273,1268,1268,1268,1268,1264,1264,1264,1259,1255,1255,1255,1250,1250,1250,1250,1250,1245,1245,1245,1241,1241,1241,1236,1236,1236,1232,1232,1232,1232,1232,1227,1223,1223,1223,1219,1219,1219,1214,1214,1214,1214,1214,1214,1210,1206,1206,1206,1202,1202,1202,1202,1202,1197,1197,1197,1197,1193,1189,1189,1189,1185,1185,1185,1185,1185,1185,1185,1181,1181,1181,1177,1177,1177,1173,1169,1169,1169,1169,1169,1169,1165,1165,1165,1161,1161,1157,1157,1153,1153,1153,1153,1153,1153,1149,1149,1149,1149,1149,1149,1145,1145,1145,1141,1141,1138,1138,1138,1138,1134,1134,1134,1130,1130,1130,1126,1126,1126,1123,1123,1123,1123,1119,1119,1119,1115,1115,1115,1112,1112,1112,1108,1108,1108,1108,1108,1108,1105,1105,1105,1105,1101,1101,1101,1097,1097,1094,1094,1094,1094,1094,1090,1090,1090,1090,1087,1084,1084,1080,1080,1080,1077,1077,1077,1073,1073,1070,1070,1070,1067,1067,1063,1063,1063,1063,0,0,0,0,0,0,0,0,0,0,0,0,0,0,0,0,0,0,0,0,0,0,0,0,0,0,0,0
0,0,0,0,0,0,0,0,0,0,0,0,0,0,1509,1509,1509,1509,1503,1496,1496,1489,1489,1489,1489,1489,1489,1489,1489,1489,1489,1489,1489,1483,1483,1483,1477,1477,1477,1477,1477,1477,1477,1477,1470,1470,1477,1477,1470,1470,1470,1464,1464,1470,1464,1464,1470,1470,1470,1477,1477,1483,1483,1483,1483,1483,1483,1483,1483,2028,2028,2028,2016,2016,2016,2005,2005,1993,1993,2005,1993,1981,1981,1981,1981,1970,1970,1970,1970,1483,1483,1483,1483,1483,1483,1483,1483,1483,1483,1483,1489,1489,1489,1489,1489,1496,1496,1496,1496,1503,1509,1509,1516,1516,1516,1516,1523,1523,1523,1529,1529,1536,1536,1536,1543,1543,1543,1543,1557,1564,1564,1564,1572,1572,1572,1572,1572,1572,1579,1586,1594,1594,1594,1601,1601,1601,1601,1601,1601,1601,1609,1616,1624,1624,1624,1632,1632,1632,1632,1639,1639,1655,1655,1655,1655,1655,1663,1663,1663,1663,1671,1671,1680,1680,1688,1688,1688,1696,1696,1705,1705,1705,1713,1722,1722,1722,1722,1722,1722,1722,1722,1722,1713,1713,1705,1705,1696,1696,1696,1696,1696,1696,1688,1688,1680,1680,0,0,0,0,0,0,0,0,0,1041,1038,1038,1038,1034,1034,1031,1031,1028,1028,1028,1031,1031,1031,1034,1034,1038,1038,1041,1044,1044,1044,1044,0,0,0,1594,1594,1594,1594,1594,1594,1594,1594,1594,1594,1586,1579,1579,1572,1564,1564,1564,1564,1564,1557,1557,1557,1564,1557,1557,1550,1550,1543,1543,1543,1543,1543,1543,1543,1543,1536,1536,1529,1529,1523,1516,1516,1516,1516,1509,1509,1509,1509,1509,1503,1503,1503,1503,1496,1496,1496,1489,1489,1489,1483,1483,1483,1483,1483,1483,1483,1477,1477,1477,1470,1470,1464,1464,1458,1458,1458,1458,1458,1464,1458,1458,1458,1452,1445,1445,1445,1439,1439,1439,1439,1439,1439,1439,1439,1433,1427,1427,1421,1415,1415,0,0,0,0,0,0,878,875,875,875,875,873,871,871,869,869,867,864,862,862,862,862,862,862,864,864,869,871,871,875,875,878,878,878,880,0,0,0,0,1359,1354,1354,1349,1349,1349,1343,1343,1343,1338,1338,1333,1333,1333,1333,1333,1328,1328,1328,1328,1328,1322,1322,1322,1317,1317,1312,1312,1312,1312,1307,1307,1307,1302,1302,1302,1302,1297,1292,1292,1292,1292,1292,1292,1292,1288,1288,1288,1288,1283,1283,1278,1278,1278,1273,1273,1273,1273,1268,1268,1268,1268,1264,1264,1259,1259,1255,1255,1255,1250,1250,1250,1250,1250,1250,1250,1245,1245,1241,1241,1236,1236,1236,1236,1236,1232,1232,1232,1227,1223,1223,1223,1219,1219,1219,1214,1214,1214,1214,1214,1214,1210,1206,1206,1206,1206,1206,1202,1202,1202,1202,1202,1197,1197,1193,1193,1189,1189,1185,1185,1185,1185,1185,1185,1185,1185,1181,1181,1181,1181,1173,1173,1169,1169,1169,1169,1169,1169,1165,1165,1165,1165,1161,1161,1157,1157,1153,1153,1153,1153,1153,1149,1149,1149,1149,1149,1149,1149,1145,1145,1141,1141,1138,1138,1138,1138,1134,1134,1134,1130,1130,1130,1126,1126,1126,1123,1123,1123,1123,1119,1119,1119,1115,1115,1115,1112,1112,1112,1112,1108,1108,1108,1108,1108,1108,1105,1105,1105,1101,1101,1101,1097,1097,1094,1094,1094,1094,1094,1090,1090,1090,1087,1084,1084,1084,1080,1080,1080,1080,1077,1077,1077,1073,1073,1073,1070,1070,1067,1067,1067,1067,1067,0,0,0,0,0,0,0,0,0,0,0,0,0,0,0,0,0,0,0,0,0,0,0,0,0,0,0,0
0,0,0,0,0,0,0,0,0,0,0,0,0,0,1509,1509,1509,1509,1503,1503,1503,1503,1496,1496,1496,1496,1496,1496,1496,1496,1483,1483,1483,1477,1477,1483,1483,1483,1483,1483,1477,1477,1483,1477,1477,1477,1477,1477,1477,1477,1477,1470,1470,1470,1470,1464,1464,1470,1470,1470,1477,1483,1483,1483,1483,1489,1483,1483,1483,2028,2028,2028,2016,2016,2016,2016,2005,2005,2005,2005,2005,1993,1981,1981,1981,1970,1970,1959,1959,1489,1489,1489,1489,1489,1489,1483,1483,1483,1483,1483,1489,1489,1489,1496,1496,1496,1496,1503,1503,1503,1509,1509,1509,1516,1516,1516,1523,1523,1529,1529,1529,1536,1536,1536,1543,1543,1543,1543,1557,1564,1564,1564,1572,1572,1572,1572,1572,1579,1586,1586,1594,1594,1594,1601,1601,1601,1601,1601,1601,1601,1609,1616,1624,1624,1624,1624,1632,1632,1639,1639,1647,1655,1655,1655,1655,1663,1663,1663,1663,1663,1671,1680,1680,1688,1688,1688,1696,1696,1696,1705,1705,1713,1713,1722,1722,1722,1722,1731,1731,1722,1722,1722,1713,1713,1705,1705,1696,1696,1696,1696,1696,1696,1688,1688,1680,1680,0,0,0,0,0,0,0,0,1044,1041,1038,1038,1038,1034,1034,1031,1028,1028,1028,1028,1031,1031,1031,1034,1034,1038,1041,1041,1044,1044,1044,1044,0,0,0,1601,1601,1594,1594,1594,1594,1594,1594,1594,1594,1586,1579,1579,1572,1564,1564,1564,1564,1564,1564,1557,1557,1564,1557,1557,1550,1550,1543,1543,1543,1543,1543,1543,1543,1543,1536,1536,1529,1529,1529,1523,1516,1516,1516,1516,1509,1509,1509,1509,1503,1503,1503,1503,1503,1496,1496,1496,1489,1489,1489,1483,1483,1483,1483,1483,1483,1483,1477,1477,1477,1470,1464,1464,1458,1458,1458,1458,1458,1464,1464,1458,1458,1458,1458,1452,1445,1439,1439,1439,1439,1439,1439,1439,1439,1433,1433,1433,1427,1427,1427,0,0,0,0,0,0,878,875,875,875,875,873,871,871,869,867,867,864,864,862,862,862,862,862,864,864,869,871,873,878,878,878,878,880,880,0,0,0,0,1359,1354,1354,1354,1349,1349,1349,1349,1343,1338,1338,1333,1333,1333,1333,1333,1333,1328,1328,1328,1328,1328,1322,1322,1317,1317,1317,1312,1312,1312,1307,1307,1307,1307,1302,1302,1302,1297,1297,1297,1292,1292,1292,1292,1292,1292,1292,1288,1288,1288,1283,1283,1278,1278,1278,1273,1273,1273,1268,1268,1268,1268,1264,1264,1259,1259,1255,1255,1255,1250,1250,1250,1250,1250,1250,1250,1245,1245,1245,1241,1241,1241,1236,1236,1236,1236,1232,1232,1232,1227,1227,1223,1223,1219,1219,1214,1214,1214,1214,1214,1214,1210,1210,1210,1206,1206,1206,1206,1202,1202,1202,1202,1197,1197,1197,1193,1189,1189,1185,1185,1185,1185,1185,1185,1185,1185,1185,1181,1181,1181,1173,1173,1169,1169,1169,1169,1169,1169,1165,1165,1165,1165,1165,1161,1157,1157,1157,1157,1153,1153,1153,1153,1153,1153,1149,1149,1149,1149,1149,1145,1145,1141,1138,1138,1138,1138,1134,1134,1134,1134,1130,1130,1126,1126,1126,1123,1123,1123,1123,1123,1119,1119,1119,1119,1115,1112,1112,1112,1112,1112,1108,1108,1108,1108,1108,1108,1105,1105,1105,1105,1101,1097,1097,1094,1094,1094,1094,1094,1090,1090,1090,1087,1084,1084,1084,1080,1080,1080,1080,1080,1077,1077,1073,1073,1073,1070,1070,1067,1067,1067,1067,1067,0,0,0,0,0,0,0,0,0,0,0,0,0,0,0,0,0,0,0,0,0,0,0,0,0,0,0,0
0,0,0,0,0,0,0,0,0,0,0,0,0,0,1509,1509,1509,1509,1503,1503,1503,1503,1503,1496,1496,1496,1496,1489,1489,1489,1483,1483,1483,1477,1477,1483,1483,1483,1483,1483,1483,1483,1483,1477,1477,1477,1477,1477,1477,1477,1477,1470,1470,1470,1464,1464,1464,1470,1470,1470,1483,1483,1483,1489,1489,1489,1489,1489,1489,2040,2040,2028,2016,2016,2005,2005,2005,1993,1993,2005,2005,1993,1981,1981,1981,1970,1970,1959,1959,1489,1489,1489,1496,1496,1489,1489,1489,1489,1489,1489,1489,1489,1489,1496,1496,1496,1496,1503,1503,1503,1509,1509,1509,1516,1516,1516,1516,1523,1523,1529,1536,1536,1536,1543,1543,1550,1550,1550,1557,1564,1564,1564,1572,1572,1572,1572,1579,1579,1586,1594,1594,1594,1594,1594,1601,1601,1601,1601,1601,1601,1609,1616,1616,1624,1624,1624,1632,1632,1639,1647,1647,1655,1655,1655,1663,1663,1663,1663,1663,1663,1671,1680,1680,1688,1688,1688,1696,1696,1705,1705,1713,1713,1713,1722,1722,1722,1722,1731,1731,1731,1722,1722,1722,1713,1713,1705,1705,1705,1696,1696,1696,1696,1688,1688,1688,1688,0,0,0,0,0,0,0,0,1044,1041,1041,1038,1038,1034,1034,1031,1028,1028,1028,1028,1031,1031,1031,1034,1034,1038,1041,1044,1047,1044,1044,1044,1044,0,1601,1601,1601,1601,1601,1594,1594,1594,1594,1594,1594,1586,1579,1579,1572,1572,1572,1564,1564,1564,1564,1564,1564,1564,1557,1557,1550,1550,1550,1543,1543,1543,1543,1543,1543,1543,1536,1536,1536,1536,1529,1523,1516,1516,1516,1516,1509,1509,1509,1509,1509,1509,1503,1503,1503,1503,1503,1496,1489,1489,1489,1483,1483,1483,1483,1483,1483,1483,1483,1483,1477,1470,1464,1464,1464,1458,1458,1458,1458,1464,1464,1458,1458,1458,1458,1452,1445,1445,1445,1439,1439,1439,1439,1439,1439,1433,1433,1433,1433,1427,1427,1427,1427,0,0,0,0,878,875,875,875,875,873,871,871,869,867,867,864,864,862,862,862,862,862,864,864,869,871,875,878,878,878,880,880,882,0,0,0,0,1359,1354,1354,1354,1354,1349,1349,1349,1349,1343,1338,1338,1333,1333,1333,1333,1333,1333,1328,1328,1328,1328,1328,1322,1322,1317,1317,1312,1312,1312,1312,1307,1307,1307,1302,1302,1302,1297,1297,1297,1297,1297,1292,1292,1292,1292,1292,1288,1288,1288,1288,1283,1283,1278,1278,1273,1273,1273,1268,1268,1268,1268,1264,1264,1259,1259,1255,1255,1255,1255,1250,1250,1250,1250,1250,1250,1245,1245,1245,1241,1241,1241,1241,1236,1236,1236,1232,1232,1232,1227,1227,1223,1223,1219,1219,1219,1219,1219,1214,1214,1214,1210,1210,1210,1206,1206,1206,1202,1202,1202,1202,1202,1197,1197,1197,1193,1189,1189,1185,1185,1185,1185,1185,1185,1185,1185,1185,1181,1181,1181,1177,1173,1173,1169,1169,1169,1169,1169,1165,1165,1165,1165,1165,1161,1161,1161,1157,1157,1157,1153,1153,1153,1153,1153,1153,1153,1153,1149,1149,1149,1145,1145,1141,1138,1138,1138,1138,1138,1134,1134,1130,1130,1130,1126,1126,1126,1123,1123,1123,1123,1119,1119,1119,1119,1115,1115,1115,1115,1112,1112,1112,1108,1108,1108,1108,1108,1105,1105,1105,1105,1105,1097,1097,1097,1094,1094,1094,1094,1090,1090,1090,1087,1087,1087,1084,1080,1080,1080,1080,1080,1077,1077,1073,1073,1073,1070,1070,1067,1067,1067,1067,1067,0,0,0,0,0,0,0,0,0,0,0,0,0,0,0,0,0,0,0,0,0,0,0,0,0,0,0,0
0,0,0,0,0,0,0,0,0,0,0,0,0,0,1509,1509,1509,1509,1509,1503,1503,1503,1503,1496,1496,1496,1496,1489,1489,1489,1489,1489,1489,1483,1483,1483,1483,1483,1483,1483,1483,1483,1477,1477,1477,1477,1470,1470,1470,1470,1470,1470,1470,1470,1464,1464,1464,1470,1470,1470,1483,1483,1483,1489,1489,1489,1489,1489,1489,1489,2053,2053,2040,2016,2005,2005,2005,1993,1993,2005,2005,1993,1981,1981,1981,1970,1970,1959,1959,1959,1496,1496,1496,1496,1496,1489,1489,1489,1489,1489,1489,1496,1496,1496,1496,1496,1503,1503,1503,1503,1509,1509,1509,1516,1516,1516,1516,1523,1523,1529,1536,1536,1543,1543,1550,1550,1550,1557,1557,1564,1564,1564,1572,1572,1572,1579,1579,1579,1586,1594,1594,1594,1594,1594,1601,1601,1601,1601,1601,1609,1609,1616,1616,1624,1624,1632,1632,1632,1639,1647,1647,1647,1655,1655,1655,1655,1663,1663,1663,1663,1671,1671,1680,1688,1688,1696,1696,1696,1705,1705,1713,1713,1713,1722,1722,1722,1722,1731,1731,1731,1731,1722,1722,1722,1713,1713,1705,1705,1705,1696,1696,1696,1688,1688,1688,1688,0,0,0,0,0,0,0,0,1044,1041,1041,1038,1038,1038,1034,1034,1031,1028,1028,1028,1031,1031,1031,1034,1034,1038,1041,1044,1047,1047,1047,1047,1047,0,0,1601,1601,1601,1601,1601,1594,1594,1594,1594,1594,1594,1586,1579,1579,1579,1572,1572,1572,1572,1572,1572,1564,1564,1557,1557,1557,1550,1550,1543,1543,1543,1543,1543,1543,1543,1536,1536,1536,1536,1529,1523,1516,1516,1516,1516,1509,1509,1509,1509,1509,1509,1509,1509,1509,1509,1503,1503,1496,1489,1489,1489,1483,1483,1483,1483,1483,1483,1483,1483,1483,1477,1470,1470,1464,1458,1458,1458,1458,1464,1464,1464,1464,1458,1458,1458,1445,1445,1445,1445,1439,1439,1439,1439,1439,1433,1433,1433,1433,1433,1421,1421,1421,1421,0,0,0,878,878,878,875,875,875,873,871,869,869,867,867,864,864,864,862,862,862,864,867,869,873,875,878,878,878,880,880,882,0,0,0,0,0,1354,1354,1354,1354,1349,1349,1349,1349,1343,1343,1338,1333,1333,1333,1333,1333,1333,1333,1328,1328,1328,1328,1322,1322,1317,1317,1312,1312,1312,1312,1307,1307,1307,1307,1302,1302,1297,1297,1297,1297,1297,1292,1292,1292,1292,1292,1288,1288,1288,1288,1288,1283,1283,1278,1278,1273,1273,1268,1268,1268,1268,1264,1264,1259,1259,1255,1255,1255,1255,1255,1255,1250,1250,1250,1250,1250,1245,1245,1241,1241,1241,1241,1236,1236,1236,1236,1236,1232,1232,1227,1223,1223,1219,1219,1219,1219,1214,1214,1214,1214,1210,1210,1210,1210,1206,1206,1202,1202,1202,1202,1197,1197,1197,1197,1193,1189,1189,1185,1185,1185,1185,1185,1185,1185,1185,1185,1185,1181,1181,1177,1177,1173,1173,1169,1169,1169,1169,1169,1165,1165,1165,1165,1161,1161,1161,1157,1157,1153,1153,1157,1153,1153,1153,1153,1153,1153,1149,1149,1149,1145,1145,1141,1141,1138,1138,1138,1138,1138,1134,1134,1130,1130,1130,1126,1126,1123,1123,1123,1123,1119,1119,1119,1119,1115,1115,1115,1115,1115,1115,1115,1112,1112,1108,1108,1108,1105,1105,1105,1105,1101,1101,1097,1097,1094,1094,1094,1094,1094,1090,1090,1087,1084,1084,1084,1084,1084,1080,1080,1080,1080,1077,1077,1077,1073,1073,1070,1070,1067,1067,1067,1067,0,0,0,0,0,0,0,0,0,0,0,0,0,0,0,0,0,0,0,0,0,0,0,0,0,0,0,0
0,0,0,0,0,0,0,0,0,0,0,0,0,0,1509,1509,1509,1509,1509,1503,1503,1503,1503,1503,1496,1496,1489,1489,1489,1489,1489,1489,1483,1483,1483,1489,1483,1483,1483,1483,1483,1483,1477,1477,1477,1477,1470,1470,1470,1470,1470,1470,1470,1470,1464,1464,1464,1470,1470,1483,1483,1483,1483,1489,1489,1489,1489,1489,1489,1489,1489,2053,2053,2016,2016,2005,2005,2005,2005,2005,2005,1993,1981,1981,1981,1981,1970,1970,1959,1959,1509,1503,1503,1496,1496,1489,1489,1489,1489,1489,1489,1496,1496,1496,1503,1503,1503,1503,1503,1509,1509,1509,1516,1516,1523,1523,1523,1523,1529,1529,1529,1536,1543,1543,1550,1550,1557,1557,1557,1564,1564,1564,1572,1572,1579,1579,1579,1579,1586,1594,1594,1594,1594,1601,1601,1601,1601,1601,1609,1609,1616,1616,1624,1624,1624,1632,1632,1632,1639,1647,1647,1647,1655,1655,1655,1655,1663,1663,1663,1663,1671,1671,1680,1688,1688,1696,1696,1696,1705,1705,1713,1713,1713,1722,1722,1722,1722,1731,1731,1731,1731,1722,1722,1722,1713,1713,1705,1705,1705,1696,1696,1696,1696,1688,1688,1688,0,0,0,0,0,0,0,0,1044,1041,1041,1038,1038,1038,1034,1031,1028,1028,1028,1028,1031,1031,1034,1038,1038,1038,1044,1044,1047,1047,1047,1047,1047,0,1601,1601,1601,1601,1601,1601,1601,1601,1594,1594,1594,1594,1594,1586,1586,1579,1572,1572,1572,1564,1564,1564,1564,1564,1564,1557,1557,1550,1550,1550,1550,1550,1550,1543,1543,1543,1536,1536,1536,1536,1529,1523,1523,1523,1516,1516,1516,1509,1509,1509,1509,1509,1509,1509,1509,1509,1503,1503,1496,1496,1489,1489,1483,1483,1483,1483,1483,1483,1483,1483,1483,1483,1470,1470,1464,1464,1458,1458,1458,1464,1464,1464,1464,1464,1464,1458,1458,1445,1445,1445,1445,1439,1439,1439,1439,1433,1433,1433,1433,1433,1421,1421,1421,1421,0,0,0,878,878,878,875,875,875,873,871,871,869,869,869,864,864,864,862,862,864,864,867,869,875,878,878,880,880,880,880,882,0,0,0,0,0,1354,1354,1354,1354,1349,1349,1349,1349,1349,1343,1343,1338,1338,1333,1333,1333,1333,1333,1328,1328,1328,1328,1322,1322,1317,1317,1317,1312,1312,1312,1312,1307,1307,1307,1307,1302,1302,1297,1297,1297,1297,1292,1292,1292,1292,1292,1292,1288,1288,1288,1288,1283,1283,1278,1278,1273,1273,1273,1268,1268,1268,1268,1268,1259,1259,1259,1255,1255,1255,1255,1255,1255,1255,1250,1250,1250,1250,1245,1245,1241,1241,1241,1236,1236,1236,1236,1236,1232,1227,1227,1227,1223,1219,1219,1219,1219,1214,1214,1214,1214,1214,1210,1210,1210,1206,1206,1202,1202,1202,1202,1197,1197,1197,1197,1193,1193,1189,1185,1185,1185,1185,1185,1185,1185,1185,1185,1185,1181,1181,1181,1177,1173,1173,1173,1173,1173,1169,1169,1169,1165,1165,1165,1161,1161,1161,1161,1157,1153,1153,1157,1153,1153,1153,1153,1153,1153,1149,1149,1149,1149,1145,1145,1141,1141,1138,1138,1138,1134,1134,1134,1134,1130,1130,1130,1126,1126,1123,1123,1123,1119,1119,1119,1119,1119,1115,1115,1115,1115,1115,1115,1112,1112,1112,1108,1108,1105,1105,1105,1105,1101,1101,1097,1097,1094,1094,1094,1094,1094,1090,1090,1087,1084,1084,1084,1084,1084,1080,1080,1080,1080,1080,1077,1077,1073,1073,1070,1070,1067,1067,1067,1067,0,0,0,0,0,0,0,0,0,0,0,0,0,0,0,0,0,0,0,0,0,0,0,0,0,0,0,0
0,0,0,0,0,0,0,0,0,0,0,0,0,0,1509,1509,1509,1509,1509,1503,1503,1503,1496,1496,1496,1496,1489,1489,1489,1489,1489,1489,1483,1483,1483,1489,1489,1489,1489,1483,1483,1483,1477,1477,1477,1477,1477,1477,1470,1470,1477,1470,1470,1470,1470,1464,1464,1470,1470,1483,1483,1483,1483,1489,1489,1489,1489,1489,1489,1489,1489,2053,2053,2016,2016,2005,2005,2005,2005,2005,2005,1993,1993,1993,1981,1981,1970,1970,1959,1959,1509,1509,1509,1503,1503,1496,1496,1489,1489,1489,1496,1496,1496,1503,1503,1503,1503,1509,1509,1509,1509,1509,1516,1516,1523,1523,1523,1523,1529,1529,1529,1536,1543,1543,1550,1550,1557,1557,1557,1564,1564,1564,1572,1572,1579,1579,1579,1586,1586,1594,1594,1594,1594,1594,1601,1601,1601,1609,1609,1609,1616,1624,1624,1624,1624,1632,1632,1632,1639,1647,1647,1655,1655,1655,1655,1663,1663,1663,1663,1663,1671,1680,1688,1688,1688,1696,1696,1696,1705,1705,1713,1713,1713,1722,1722,1722,1722,1722,1731,1731,1731,1722,1722,1722,1713,1713,1705,1705,1705,1696,1696,1696,1696,1696,1688,1688,0,0,0,0,0,0,0,0,1044,1041,1041,1041,1038,1038,1034,1031,1028,1028,1028,1028,1031,1031,1034,1038,1038,1041,1044,1044,1047,1047,1047,1050,0,1601,1601,1601,1601,1601,1601,1601,1601,1601,1601,1601,1594,1594,1594,1586,1586,1579,1572,1572,1572,1564,1564,1564,1564,1564,1564,1557,1557,1550,1550,1550,1550,1550,1550,1550,1543,1543,1536,1536,1536,1536,1536,1523,1523,1523,1523,1516,1516,1509,1509,1509,1509,1509,1509,1509,1509,1509,1503,1503,1496,1496,1489,1489,1489,1483,1483,1483,1483,1483,1483,1483,1483,1483,1470,1470,1464,1464,1464,1464,1464,1464,1464,1464,1464,1464,1464,1464,1464,1452,1445,1445,1445,1439,1439,1439,1439,1433,1433,1433,1433,1433,1427,1421,1421,1421,0,0,0,878,878,878,875,875,875,873,871,871,869,869,869,864,864,864,864,864,864,867,869,871,875,878,880,880,880,880,880,882,0,0,0,0,0,1354,1354,1354,1354,1354,1354,1354,1354,1349,1343,1343,1338,1338,1333,1333,1333,1333,1333,1328,1328,1328,1328,1322,1322,1322,1317,1317,1317,1312,1312,1312,1312,1307,1307,1307,1307,1302,1297,1297,1297,1297,1297,1292,1292,1292,1292,1292,1288,1288,1288,1288,1283,1283,1278,1278,1273,1273,1273,1273,1268,1268,1268,1268,1259,1259,1259,1255,1255,1255,1255,1255,1255,1255,1250,1250,1250,1250,1250,1245,1241,1241,1236,1236,1236,1236,1236,1236,1232,1227,1227,1227,1223,1223,1223,1223,1219,1219,1219,1214,1214,1214,1214,1214,1210,1210,1206,1206,1206,1202,1202,1202,1197,1197,1197,1193,1193,1189,1185,1185,1185,1185,1185,1185,1185,1185,1185,1185,1181,1181,1181,1177,1173,1173,1173,1169,1169,1169,1169,1169,1169,1165,1165,1165,1161,1161,1161,1157,1157,1157,1157,1153,1153,1153,1153,1153,1153,1149,1149,1149,1149,1145,1141,1141,1138,1138,1138,1138,1134,1134,1134,1134,1134,1130,1130,1126,1126,1123,1123,1123,1119,1119,1119,1119,1119,1115,1115,1115,1115,1115,1115,1112,1112,1112,1112,1108,1105,1105,1105,1105,1101,1101,1101,1097,1097,1094,1094,1094,1094,1090,1090,1087,1084,1084,1087,1084,1084,1084,1084,1080,1080,1080,1077,1077,1077,1073,1073,1070,1070,1067,1067,1070,0,0,0,0,0,0,0,0,0,0,0,0,0,0,0,0,0,0,0,0,0,0,0,0,0,0,0,0
0,0,0,0,0,0,0,0,0,0,0,0,0,0,1509,1509,1509,1503,1503,1503,1503,1503,1496,1496,1496,1496,1489,1489,1489,1489,1489,1489,1489,1489,1489,1489,1489,1483,1483,1483,1483,1483,1483,1483,1483,1483,1477,1477,1483,1470,1470,1470,1470,1470,1470,1470,1470,1470,1470,1483,1483,1483,1483,1489,1489,1489,1489,1489,1489,1489,1489,2053,2053,2028,2016,2005,2005,2016,2016,2005,2005,1993,1993,1993,1981,1981,1970,1970,1970,1970,1509,1509,1509,1509,1503,1503,1496,1496,1489,1489,1489,1489,1496,1503,1503,1503,1509,1509,1509,1509,1509,1509,1516,1516,1523,1523,1523,1523,1529,1536,1536,1536,1543,1550,1550,1550,1557,1557,1557,1564,1564,1572,1572,1579,1586,1586,1586,1586,1586,1594,1594,1594,1594,1594,1601,1601,1609,1609,1616,1616,1616,1624,1624,1624,1624,1632,1632,1632,1639,1639,1647,1655,1655,1655,1663,1663,1663,1663,1663,1671,1671,1680,1688,1688,1688,1696,1696,1705,1705,1705,1705,1713,1713,1713,1722,1722,1722,1722,1731,1731,1731,1722,1722,1722,1713,1713,1713,1713,1705,1705,1705,1696,1696,1696,1696,1688,1688,0,0,0,0,0,0,0,1044,1041,1041,1041,1038,1038,1034,1031,1031,1028,1028,1031,1031,1034,1034,1038,1041,1041,1044,1044,1047,1047,1047,1047,1601,0,1601,1601,1601,1601,1601,1601,1601,1601,1594,1594,1594,1594,1594,1586,1586,1579,1572,1572,1572,1572,1572,1564,1564,1564,1564,1564,1557,1557,1557,1550,1550,1550,1550,1550,1550,1543,1543,1536,1536,1536,1536,1536,1529,1529,1529,1523,1516,1516,1509,1509,1509,1509,1509,1509,1509,1509,1509,1503,1503,1496,1489,1489,1489,1489,1489,1489,1483,1483,1483,1483,1483,1483,1477,1470,1470,1464,1464,1464,1464,1464,1464,1464,1464,1464,1464,1464,1464,1458,1452,1452,1445,1445,1439,1439,1439,1433,1433,1433,1433,1433,1433,1421,1421,1421,0,0,878,878,878,878,878,875,875,873,871,871,869,869,869,867,864,864,864,864,864,867,869,871,875,878,880,880,880,880,882,885,0,0,0,0,0,1354,1354,1359,1359,1354,1354,1354,1354,1349,1343,1343,1343,1343,1338,1338,1333,1333,1333,1328,1328,1328,1328,1322,1322,1322,1322,1317,1317,1312,1312,1312,1312,1312,1312,1307,1307,1307,1302,1302,1302,1302,1297,1297,1292,1292,1292,1292,1288,1288,1288,1288,1283,1283,1283,1278,1278,1273,1273,1273,1268,1268,1268,1264,1264,1259,1259,1255,1255,1255,1255,1255,1255,1255,1250,1250,1250,1250,1250,1245,1241,1241,1236,1236,1236,1236,1236,1236,1232,1232,1227,1227,1223,1223,1223,1223,1219,1219,1219,1219,1214,1214,1214,1214,1214,1210,1206,1206,1206,1202,1202,1202,1197,1197,1197,1193,1193,1193,1189,1189,1185,1185,1185,1185,1185,1185,1185,1185,1181,1181,1181,1177,1177,1173,1173,1169,1169,1169,1169,1169,1169,1165,1165,1165,1161,1161,1161,1157,1157,1157,1157,1153,1153,1153,1153,1153,1149,1149,1149,1149,1145,1145,1141,1141,1138,1138,1138,1138,1134,1134,1134,1134,1134,1134,1130,1130,1130,1126,1126,1123,1123,1123,1119,1119,1119,1119,1119,1119,1119,1119,1119,1115,1115,1112,1112,1108,1108,1105,1105,1105,1105,1101,1101,1097,1097,1094,1094,1094,1094,1094,1090,1087,1084,1084,1087,1084,1084,1084,1084,1080,1080,1080,1080,1077,1077,1077,1073,1070,1070,1067,1067,1070,0,0,0,0,0,0,0,0,0,0,0,0,0,0,0,0,0,0,0,0,0,0,0,0,0,0,0,0
0,0,0,0,0,0,0,0,0,0,0,0,0,0,1509,1509,1509,1503,1503,1503,1503,1496,1496,1496,1496,1489,1489,1489,1489,1489,1489,1489,1489,1489,1489,1489,1489,1483,1483,1483,1483,1483,1483,1483,1483,1483,1477,1477,1483,1470,1470,1470,1470,1470,1470,1470,1470,1470,1470,1483,1483,1483,1483,1489,1489,1489,1489,1489,1489,1489,1489,2040,2040,2028,2016,2016,2016,2016,2016,2005,2005,2005,1993,1993,1993,1981,1981,1970,1970,1970,1509,1509,1509,1509,1503,1503,1496,1496,1489,1489,1489,1489,1496,1503,1503,1503,1503,1509,1509,1509,1516,1516,1516,1523,1523,1523,1529,1529,1529,1536,1536,1543,1543,1550,1550,1557,1557,1564,1564,1564,1564,1572,1572,1579,1586,1586,1586,1594,1594,1594,1594,1594,1594,1594,1601,1601,1609,1616,1616,1624,1624,1624,1624,1624,1632,1632,1632,1632,1639,1639,1647,1655,1655,1655,1663,1663,1663,1663,1671,1671,1680,1680,1688,1688,1688,1696,1696,1705,1705,1705,1705,1713,1713,1713,1722,1722,1722,1722,1731,1731,1731,1731,1731,1722,1722,1713,1713,1713,1705,1705,1705,1705,1696,1696,1696,1688,1688,0,0,0,0,0,0,1047,1044,1041,1041,1041,1038,1034,1034,1031,1031,1031,1031,1031,1031,1034,1034,1038,1041,1041,1044,1044,1047,1047,1047,0,0,0,1601,1601,1601,1601,1601,1601,1601,1601,1594,1594,1594,1594,1594,1586,1586,1579,1572,1572,1572,1572,1572,1564,1564,1564,1564,1564,1564,1557,1557,1557,1557,1557,1550,1550,1550,1543,1543,1543,1536,1536,1536,1536,1529,1529,1529,1523,1516,1516,1509,1509,1509,1509,1509,1509,1509,1509,1509,1503,1503,1496,1489,1489,1489,1489,1489,1489,1483,1483,1483,1483,1483,1483,1477,1477,1470,1464,1464,1464,1464,1464,1464,1464,1464,1464,1464,1464,1464,1464,1464,1452,1445,1445,1445,1439,1439,1433,1433,1427,1427,1433,1433,0,0,878,0,0,878,878,878,878,878,875,875,873,871,871,869,869,869,867,867,867,864,864,867,867,869,871,875,880,880,882,882,882,885,887,0,0,0,0,1365,1354,1354,1359,1359,1354,1354,1354,1354,1349,1349,1349,1343,1343,1343,1343,1338,1338,1338,1328,1328,1328,1328,1328,1322,1322,1322,1317,1317,1317,1317,1312,1312,1312,1312,1307,1307,1307,1302,1302,1302,1302,1297,1297,1292,1292,1292,1292,1288,1288,1288,1288,1283,1283,1283,1278,1278,1278,1273,1273,1273,1268,1268,1264,1264,1264,1259,1259,1259,1259,1255,1255,1255,1255,1250,1250,1250,1250,1250,1245,1241,1241,1236,1236,1236,1236,1236,1236,1232,1232,1232,1227,1227,1223,1223,1223,1223,1219,1219,1219,1214,1214,1214,1214,1214,1214,1210,1206,1206,1202,1202,1202,1197,1197,1197,1197,1193,1193,1193,1189,1185,1185,1185,1185,1185,1185,1185,1185,1185,1181,1181,1177,1177,1173,1173,1173,1169,1169,1169,1169,1169,1165,1165,1165,1161,1161,1161,1161,1161,1157,1157,1153,1153,1153,1153,1153,1149,1149,1149,1149,1145,1145,1141,1141,1141,1138,1138,1138,1138,1138,1138,1134,1134,1134,1134,1130,1130,1126,1126,1123,1123,1123,1123,1119,1119,1119,1119,1119,1119,1119,1119,1115,1115,1112,1112,1108,1108,1108,1105,1105,1105,1105,1101,1101,1097,1097,1097,1094,1094,1094,1090,1087,1087,1087,1087,1087,1087,1087,1084,1084,1080,1080,1080,1080,1077,1077,1073,1070,1070,1067,1067,1067,0,0,0,0,0,0,0,0,0,0,0,0,0,0,0,0,0,0,0,0,0,0,0,0,0,0,0,0
0,0,0,0,0,0,0,0,0,0,0,0,0,0,1516,1509,1509,1509,1503,1503,1503,1496,1496,1496,1496,1489,1489,1489,1489,1489,1489,1489,1489,1489,1489,1489,1483,1483,1483,1483,1483,1483,1483,1483,1483,1483,1483,1483,1483,1483,1483,1483,1483,1483,1477,1470,1470,1477,1477,1483,1483,1483,1483,1489,1489,1496,1489,1489,1489,1496,1496,2040,2040,2028,2016,2016,2016,2016,2016,2005,2005,2005,1993,1993,1993,1981,1981,1981,1981,1981,1516,1516,1516,1516,1509,1509,1496,1496,1496,1496,1496,1496,1496,1496,1503,1503,1503,1509,1509,1509,1516,1516,1516,1523,1529,1529,1529,1529,1529,1536,1536,1543,1543,1557,1557,1557,1557,1564,1564,1564,1564,1572,1572,1579,1586,1586,1586,1594,1594,1594,1594,1594,1594,1601,1601,1601,1609,1616,1624,1624,1624,1624,1624,1624,1632,1632,1632,1632,1639,1639,1647,1655,1655,1655,1655,1663,1663,1663,1671,1671,1680,1680,1688,1688,1696,1696,1696,1705,1705,1705,1705,1713,1713,1713,1722,1722,1722,1731,1731,1731,1731,1731,1731,1722,1722,1722,1722,1713,1713,1705,1705,1705,1696,1696,1696,1688,1688,0,0,0,0,0,0,1047,1041,1041,1041,1038,1038,1034,1034,1031,1031,1031,1031,1031,1034,1034,1034,1038,1041,1041,1044,1047,1047,1047,1047,1047,0,1601,1601,1601,1601,1601,1601,1601,1601,1601,1601,1601,1594,1594,1594,1594,1586,1579,1579,1579,1579,1572,1572,1572,1564,1564,1564,1564,1564,1564,1557,1557,1557,1557,1550,1550,1550,1543,1543,1543,1536,1536,1536,1536,1529,1529,1529,1523,1523,1516,1516,1509,1509,1516,1509,1509,1509,1509,1509,1509,1503,1496,1496,1489,1489,1489,1489,1489,1483,1483,1483,1483,1483,1483,1477,1477,1470,1464,1464,1464,1464,1464,1464,1464,1464,1464,1464,1464,1464,1464,1464,1458,1452,1445,1445,1439,1439,1433,1433,1427,1427,1433,1433,0,0,0,0,0,878,878,880,880,878,878,875,873,873,871,871,869,869,869,867,867,867,867,867,869,871,871,875,878,880,880,880,882,885,0,0,0,0,1370,1365,1359,1359,1365,1365,1359,1354,1354,1354,1354,1349,1349,1349,1349,1343,1343,1343,1338,1338,1333,1333,1333,1328,1328,1328,1328,1322,1322,1322,1317,1317,1317,1317,1312,1312,1312,1307,1307,1302,1302,1302,1302,1297,1297,1297,1292,1292,1292,1288,1288,1288,1288,1283,1283,1283,1283,1278,1278,1273,1273,1273,1268,1268,1264,1264,1264,1264,1259,1259,1259,1259,1255,1255,1255,1255,1255,1255,1250,1250,1245,1241,1241,1236,1236,1236,1236,1236,1236,1232,1232,1232,1227,1227,1223,1223,1223,1223,1219,1219,1219,1214,1214,1214,1214,1214,1214,1210,1206,1206,1202,1202,1202,1197,1197,1197,1197,1197,1197,1193,1193,1185,1185,1185,1185,1185,1185,1185,1181,1181,1181,1181,1181,1177,1177,1173,1173,1169,1169,1169,1169,1169,1165,1165,1165,1165,1165,1161,1161,1161,1157,1157,1157,1153,1153,1153,1153,1149,1149,1149,1149,1149,1145,1141,1141,1141,1138,1138,1138,1138,1138,1138,1134,1134,1134,1134,1134,1130,1130,1126,1123,1123,1123,1123,1119,1119,1119,1119,1119,1119,1119,1119,1115,1115,1112,1112,1112,1108,1108,1105,1105,1105,1105,1101,1101,1101,1097,1097,1094,1094,1094,1094,1090,1090,1090,1090,1090,1090,1087,1087,1084,1084,1080,1080,1080,1077,1077,1073,1070,1070,1067,1067,1067,0,0,0,0,0,0,0,0,0,0,0,0,0,0,0,0,0,0,0,0,0,0,0,0,0,0,0,0
0,0,0,0,0,0,0,0,0,0,0,0,0,0,1516,1509,1509,1509,1509,1503,1503,1496,1496,1496,1496,1489,1489,1489,1489,1489,1489,1489,1489,1489,1489,1489,1483,1483,1483,1483,1483,1483,1483,1483,1483,1483,1483,1483,1483,1483,1483,1483,1477,1477,1483,1483,1483,1483,1483,1483,1489,1489,1489,1489,1496,1496,1489,1489,1489,1503,1503,2040,2040,2028,2016,2016,2016,2016,2016,2005,2005,2005,2005,2005,2005,1993,1993,1993,1993,1993,1993,1516,1516,1516,1516,1509,1509,1503,1496,1496,1496,1496,1496,1496,1503,1503,1509,1509,1509,1509,1516,1516,1523,1529,1529,1529,1529,1536,1536,1536,1543,1543,1557,1557,1557,1557,1557,1564,1564,1564,1572,1572,1579,1579,1586,1586,1586,1594,1594,1594,1594,1594,1594,1601,1601,1609,1609,1616,1624,1624,1624,1624,1624,1632,1632,1632,1632,1632,1639,1639,1647,1655,1655,1655,1655,1663,1663,1663,1671,1671,1680,1680,1688,1688,1696,1696,1696,1705,1705,1705,1705,1713,1713,1713,1722,1722,1722,1731,1731,1731,1731,1731,1731,1722,1722,1722,1722,1713,1713,1713,1705,1705,1705,1705,1705,1696,1696,0,0,0,0,0,0,1047,1041,1041,1041,1038,1034,1034,1034,1031,1031,1031,1031,1031,1034,1034,1038,1038,1041,1044,1044,1047,1047,1047,1047,1047,0,1609,1601,1601,1601,1609,1609,1609,1601,1601,1601,1601,1594,1594,1594,1586,1586,1579,1579,1579,1579,1572,1572,1572,1572,1564,1564,1564,1564,1564,1557,1557,1557,1557,1557,1550,1550,1550,1543,1543,1536,1536,1536,1536,1529,1529,1529,1523,1523,1516,1516,1516,1516,1516,1516,1509,1509,1509,1509,1509,1503,1503,1496,1489,1489,1489,1489,1489,1483,1483,1483,1483,1483,1483,1483,1477,1470,1464,1464,1464,1464,1464,1464,1464,1464,1464,1464,1464,1464,1464,1464,1458,1458,1452,1445,1445,1439,1433,1427,1421,1421,1427,1433,0,0,0,0,0,880,880,880,880,878,878,875,873,873,871,871,869,869,869,869,869,867,867,869,869,871,873,875,878,880,880,880,882,0,0,0,0,0,1370,1370,1365,1365,1365,1365,1359,1354,1354,1354,1349,1349,1349,1349,1349,1343,1343,1338,1338,1338,1333,1333,1333,1328,1328,1328,1328,1328,1328,1322,1322,1317,1317,1317,1312,1312,1312,1312,1307,1307,1302,1302,1302,1302,1297,1297,1292,1292,1292,1288,1288,1288,1283,1283,1283,1283,1278,1278,1278,1273,1273,1273,1273,1268,1268,1268,1264,1264,1259,1259,1259,1259,1259,1255,1255,1255,1255,1255,1250,1250,1245,1245,1241,1241,1241,1236,1236,1236,1236,1232,1232,1232,1232,1227,1227,1227,1223,1223,1219,1219,1219,1219,1219,1214,1214,1214,1214,1210,1210,1210,1206,1202,1202,1202,1202,1197,1197,1197,1197,1193,1193,1189,1185,1185,1185,1185,1185,1185,1181,1181,1181,1181,1181,1181,1177,1177,1173,1173,1169,1169,1169,1169,1169,1165,1165,1165,1165,1161,1161,1161,1161,1157,1157,1153,1153,1153,1153,1153,1149,1149,1149,1149,1145,1141,1141,1141,1141,1138,1138,1138,1138,1138,1134,1134,1134,1134,1134,1134,1130,1130,1130,1123,1123,1123,1123,1119,1119,1119,1119,1119,1119,1119,1115,1115,1115,1112,1112,1108,1108,1108,1105,1105,1105,1105,1101,1101,1097,1097,1097,1097,1094,1094,1094,1094,1094,1090,1090,1090,1090,1087,1084,1084,1084,1080,1080,1077,1077,1077,1073,1070,1070,1067,1067,0,0,0,0,0,0,0,0,0,0,0,0,0,0,0,0,0,0,0,0,0,0,0,0,0,0,0,0
0,0,0,0,0,0,0,0,0,0,0,0,0,0,1516,1516,1509,1509,1509,1503,1503,1496,1489,1489,1489,1496,1496,1496,1496,1489,1489,1489,1489,1489,1489,1489,1483,1483,1483,1483,1483,1483,1483,1483,1483,1483,1483,1483,1483,1483,1483,1483,1477,1477,1477,1477,1477,1477,1483,1483,1489,1489,1489,1496,1496,1503,1503,1503,1503,1509,1509,2040,2040,2028,2016,2016,2016,2016,2016,2005,2005,2005,2005,2005,2005,1993,1993,1993,1993,2005,2005,1516,1516,1516,1516,1509,1509,1503,1503,1503,1496,1496,1496,1496,1503,1509,1509,1509,1509,1509,1516,1523,1523,1529,1529,1529,1536,1536,1536,1536,1543,1543,1557,1557,1557,1557,1564,1564,1564,1564,1572,1572,1579,1579,1579,1586,1586,1594,1594,1594,1594,1601,1601,1601,1601,1609,1609,1616,1624,1624,1624,1624,1624,1632,1632,1632,1632,1632,1639,1639,1647,1647,1655,1655,1655,1663,1663,1663,1671,1671,1680,1680,1688,1688,1696,1696,1696,1705,1705,1705,1705,1705,1713,1713,1722,1722,1722,1731,1731,1731,1731,1731,1731,1731,1731,1722,1722,1722,1713,1713,1713,1713,1713,1705,1705,1696,1696,0,0,0,0,0,0,1047,1044,1041,1041,1038,1034,1034,1031,1031,1031,1031,1031,1034,1034,1034,1038,1038,1041,1041,1044,1047,1047,1047,1047,1047,0,1609,1609,1609,1609,1609,1609,1609,1601,1601,1601,1601,1594,1594,1594,1586,1586,1579,1579,1579,1579,1579,1572,1572,1572,1572,1564,1564,1564,1564,1564,1564,1557,1557,1557,1550,1550,1550,1543,1543,1543,1536,1536,1536,1536,1529,1529,1529,1523,1516,1516,1516,1516,1516,1516,1509,1509,1509,1509,1509,1503,1503,1496,1489,1489,1489,1489,1489,1483,1483,1483,1483,1483,1483,1483,1477,1477,1470,1470,1464,1464,1470,1470,1470,1464,1464,1464,1464,1464,1464,1464,1458,1458,1452,1445,1445,1439,1433,1427,1421,1421,1427,0,0,0,0,0,887,882,880,880,880,878,878,875,873,873,871,871,869,869,869,869,869,869,869,869,869,871,873,875,880,882,882,882,885,0,0,0,0,1370,1370,1370,1365,1365,1365,1365,1359,1359,1354,1354,1349,1349,1349,1349,1349,1343,1343,1338,1338,1338,1333,1333,1333,1328,1328,1328,1328,1328,1328,1328,1322,1322,1322,1322,1317,1312,1312,1312,1312,1307,1307,1302,1302,1302,1297,1297,1292,1292,1292,1292,1288,1288,1283,1283,1283,1283,1278,1278,1278,1273,1273,1273,1273,1268,1268,1268,1264,1264,1259,1259,1259,1259,1259,1255,1255,1255,1255,1250,1250,1250,1250,1245,1241,1241,1241,1236,1236,1236,1236,1232,1232,1232,1232,1232,1227,1227,1227,1223,1223,1219,1219,1219,1219,1219,1219,1214,1214,1214,1210,1210,1206,1206,1202,1202,1202,1197,1197,1197,1197,1197,1193,1193,1189,1189,1185,1185,1185,1185,1181,1181,1181,1181,1181,1177,1177,1173,1173,1173,1169,1169,1169,1169,1169,1165,1165,1165,1165,1161,1161,1161,1161,1157,1157,1153,1153,1153,1153,1153,1153,1149,1149,1149,1145,1141,1141,1141,1141,1138,1138,1138,1138,1138,1138,1134,1134,1134,1134,1134,1130,1130,1130,1123,1123,1123,1123,1123,1119,1119,1119,1119,1119,1119,1115,1115,1115,1112,1112,1108,1108,1108,1105,1105,1105,1105,1105,1101,1101,1097,1097,1097,1094,1094,1094,1094,1094,1094,1090,1090,1090,1087,1087,1084,1084,1080,1080,1080,1077,1077,1073,1073,1070,1070,1070,0,0,0,0,0,0,0,0,0,0,0,0,0,0,0,0,0,0,0,0,0,0,0,0,0,0,0,0
0,0,0,0,0,0,0,0,0,0,0,0,0,0,1516,1516,1509,1509,1509,1503,1503,1496,1489,1489,1489,1496,1496,1496,1496,1489,1489,1489,1489,1489,1489,1489,1483,1483,1483,1483,1483,1483,1483,1483,1483,1483,1483,1483,1483,1483,1483,1483,1477,1477,1477,1477,1477,1477,1483,1489,1489,1489,1489,1496,1496,1503,1503,1503,1503,1509,1509,2040,2040,2028,2016,2016,2016,2016,2016,2005,2005,2005,2005,2005,2005,1993,1993,1993,1993,1993,1993,1516,1516,1516,1516,1509,1509,1509,1503,1503,1496,1496,1496,1496,1503,1509,1509,1509,1509,1516,1523,1529,1529,1529,1529,1529,1536,1536,1536,1536,1543,1543,1550,1557,1557,1557,1564,1564,1564,1564,1572,1572,1579,1579,1579,1586,1586,1594,1594,1594,1594,1601,1601,1601,1601,1609,1616,1624,1624,1624,1624,1624,1632,1632,1632,1639,1639,1639,1639,1639,1647,1647,1655,1655,1655,1663,1663,1671,1680,1680,1680,1688,1688,1688,1696,1696,1696,1705,1705,1705,1705,1705,1713,1713,1722,1722,1731,1731,1731,1731,1731,1731,1731,1731,1731,1731,1722,1722,1722,1722,1722,1713,1713,1713,1713,1713,1713,0,0,0,0,0,1050,1047,1044,1041,1041,1038,1034,1034,1031,1031,1031,1034,1034,1034,1034,1038,1038,1041,1041,1041,1044,1047,1047,1047,1047,1044,0,1609,1609,1609,1609,1616,1616,1609,1609,1601,1601,1601,1594,1594,1594,1594,1586,1579,1579,1579,1579,1579,1572,1572,1572,1572,1564,1564,1564,1564,1564,1564,1564,1557,1557,1550,1550,1550,1550,1543,1543,1543,1536,1536,1529,1529,1529,1523,1523,1516,1516,1509,1509,1516,1516,1509,1509,1509,1509,1509,1503,1503,1496,1489,1489,1489,1489,1489,1489,1483,1483,1483,1483,1483,1483,1477,1477,1470,1470,1464,1464,1470,1470,1470,1470,1464,1464,1464,1464,1464,1464,1458,1458,1452,1445,1445,1439,1433,1433,1421,1421,0,0,0,0,0,0,887,885,880,880,880,878,878,875,875,873,871,871,869,869,869,869,869,869,869,869,869,871,873,878,882,885,885,885,0,0,0,0,0,1370,1370,1370,1370,1370,1370,1365,1365,1359,1354,1354,1354,1349,1349,1349,1349,1349,1343,1343,1338,1338,1338,1333,1333,1328,1328,1328,1328,1328,1328,1328,1328,1322,1322,1322,1317,1312,1312,1312,1312,1307,1307,1307,1302,1302,1297,1297,1297,1292,1292,1292,1288,1288,1288,1283,1283,1283,1283,1278,1278,1273,1273,1273,1273,1268,1268,1268,1268,1264,1264,1264,1264,1259,1259,1255,1255,1255,1255,1250,1250,1250,1250,1245,1241,1241,1241,1241,1236,1236,1236,1232,1232,1232,1232,1232,1232,1227,1227,1227,1223,1223,1219,1219,1219,1214,1214,1214,1210,1210,1210,1210,1210,1206,1202,1202,1202,1202,1197,1197,1197,1197,1197,1193,1193,1193,1189,1185,1185,1185,1185,1185,1181,1181,1181,1177,1177,1173,1173,1173,1169,1169,1169,1169,1169,1165,1165,1165,1165,1161,1161,1161,1157,1157,1157,1153,1153,1153,1153,1153,1153,1149,1149,1149,1145,1145,1145,1141,1141,1141,1141,1138,1138,1138,1138,1138,1134,1134,1134,1134,1134,1130,1130,1123,1123,1123,1123,1123,1119,1119,1119,1119,1119,1119,1119,1115,1115,1115,1112,1112,1108,1108,1108,1105,1105,1105,1105,1101,1101,1101,1101,1097,1097,1097,1097,1094,1094,1094,1090,1090,1090,1087,1087,1084,1084,1080,1080,1080,1077,1077,1073,1073,1070,1070,1070,0,0,0,0,0,0,0,0,0,0,0,0,0,0,0,0,0,0,0,0,0,0,0,0,0,0,0,0
