0,0,0,0,0,0,0,0,0,0,0,1255,1250,1250,1255,1255,1250,1250,1255,1255,1255,1250,1250,1250,1255,1259,1255,1255,1255,1255,1255,1250,1250,1250,1250,1250,1250,1245,1245,1245,1245,1245,1245,1250,1250,1255,1255,1255,1250,1250,1250,1250,1250,1250,1250,1250,1250,1250,1250,1250,1250,1250,1250,1250,1245,1245,1250,1250,1245,1245,1250,1250,1245,1245,1245,1245,1245,1245,1245,1245,1245,1245,1245,1245,1241,1241,1241,1241,1241,1241,1241,1241,1241,1241,1236,1236,1236,1236,1236,1236,1232,1232,1232,1232,998,998,998,995,995,992,992,992,992,992,992,992,992,995,995,998,998,1001,1001,1004,1010,1013,1013,1016,1016,1022,1022,1025,1028,1223,1223,1223,1223,1223,1223,1223,1223,1219,1219,1219,1219,1219,1219,1219,1219,1223,1223,1223,1223,1223,1223,1223,1219,1219,1219,1219,1214,1214,1214,1219,1219,1219,1219,1219,1219,1214,1214,1214,1214,1214,1214,1214,1210,1210,1210,1214,1214,1214,1214,1214,1214,1214,1214,1214,1214,1210,1210,1214,1210,1210,1210,1210,1210,1210,1210,1210,1210,1210,1210,1210,1210,1210,1210,1210,1210,1210,1210,1210,1210,1206,1206,1202,1202,1202,1206,0,0,0,0,0,0,0,0,0,0,0,746,746,744,742,742,741,738,736,734,734,733,731,731,730,728,728,730,730,730,731,738,738,739,739,739,742,744,747,747,749,749,749,749,0,0,0,0,0,0,0,1193,1193,1193,1189,1189,1189,1189,1189,1189,1189,1189,1189,1189,1189,1185,1185,1181,1181,1181,1181,1177,1177,992,987,987,987,984,984,981,978,978,978,975,975,973,970,967,967,964,964,967,964,959,956,940,940,940,940,940,938,938,938,940,940,938,938,940,940,943,943,943,946,948,954,959,962,964,967,970,973,975,978,981,981,1169,1169,1169,1169,1169,1169,1169,1169,1169,1169,1169,1169,1169,1169,1169,1169,1169,1169,1169,1169,1169,1165,1165,1161,1161,1153,1149,1145,1141,1138,1138,1138,1138,1134,1134,1134,1134,1134,1138,1138,1138,1149,1149,1153,1157,1161,1165,1161,1161,1161,1161,1157,1157,1153,1153,1153,1153,1153,1157,1157,1157,1157,1157,1157,1153,1153,1153,1149,1149,1149,1149,1149,1149,1149,1149,1149,1149,1149,1149,1149,1149,1149,1149,1149,1149,1149,1149,1149,1153,1153,1153,1153,1149,1149,1149,1149,1149,1149,1149,1149,1149,1149,1149,1149,1149,1149,1149,1149,1145,1145,1145,1145,1145,1145,1145,1145,1145,1145,1145,1145,1145,1145,1145,1145,1145,1141,1141,1141,1138,1138,1138,1138,1138,1138,1134,1134,1134,1134,1134,1134,1134,1130,1130,1130,1130,1130,1130,1126,1126,1126,1130,1130,1130,1134,1134,1134,1134,1134,1130,1130,1130,1126,1126,1126,1126,1126,1126,1126,1126,1126,1126,1126,1126,1126,1126,1123,1123,1123,1123,1123,1123,1123,1123,1119,1119,1119,1119,1119,1119,1115,1115,1115,1115,1119,1115,1115,1115,1115,1115,1115,1112,1112,1112,1112,1112,1108,1108,1108,1108,1108,1108,1007,1007,1007,1007,1007,1010,1010,1013,1108,1108,1108,1108,1108,1105,1105,1101,998,998,995,995,995,1105,0,938,938,938,935,933,933,933,933,933,933,933,933,933,933,935,935,935,935,935,935,935,935,935,935,935,938,938,938,0,0,0,0,0,0,0,0,0,0,0,0,0,0,0,0,0,0,0,0,0,0,0,0,0,0,0,0,0,0,0,0,0,0
0,0,0,0,0,0,0,0,0,0,0,1250,1250,1250,1250,1250,1250,1250,1250,1250,1250,1250,1250,1250,1250,1255,1250,1250,1250,1250,1250,1250,1250,1250,1245,1245,1245,1241,1241,1236,1236,1236,1241,1245,1245,1245,1245,1245,1245,1250,1245,1245,1245,1245,1245,1245,1250,1250,1250,1250,1250,1245,1245,1245,1245,1245,1245,1245,1245,1245,1245,1245,1245,1245,1241,1241,1241,1241,1241,1241,1241,1241,1241,1241,1241,1241,1236,1236,1241,1236,1236,1236,1236,1232,1232,1232,1232,1232,1232,1232,1227,1227,1227,1227,998,998,998,995,995,992,992,992,992,992,992,995,995,995,998,998,1001,1001,1004,1010,1013,1013,1013,1013,1013,1022,1022,1025,1025,1223,1223,1223,1223,1223,1223,1219,1219,1219,1219,1219,1219,1219,1219,1214,1214,1219,1219,1219,1219,1219,1219,1219,1219,1219,1219,1219,1210,1210,1210,1214,1214,1214,1214,1214,1214,1214,1214,1214,1210,1210,1210,1210,1210,1210,1210,1210,1206,1206,1210,1210,1210,1210,1210,1210,1210,1210,1210,1210,1210,1206,1206,1206,1206,1206,1202,1202,1206,1206,1206,1206,1206,1206,1206,1206,1206,1206,1206,1206,1202,1202,1202,1202,1197,1197,1197,0,0,0,0,0,0,0,0,0,0,0,746,746,744,742,742,741,739,738,736,734,734,733,731,730,730,730,730,730,731,733,738,739,739,739,741,742,746,747,747,749,749,750,750,0,0,0,0,0,0,1185,1185,1185,1185,1185,1185,1185,1185,1185,1185,1185,1185,1185,1185,1185,1181,1181,1181,1181,1181,1177,1177,1177,1177,1177,987,987,987,984,984,981,978,978,975,975,975,970,970,967,967,967,967,964,959,940,938,938,938,938,938,938,938,938,938,938,938,938,938,938,940,940,943,943,948,954,959,962,964,967,970,973,975,978,1165,1165,1165,1165,1165,1165,1165,1165,1165,1165,1165,1165,1165,1165,1165,1165,1165,1165,1165,1165,1165,1165,1165,1165,1161,1161,1157,1153,1149,1149,1145,1141,1141,1138,1138,1138,1138,1134,1134,1134,1138,1138,1141,1149,1149,1153,1153,1157,1157,1157,1157,1157,1153,1153,1153,1153,1153,1153,1153,1153,1153,1153,1153,1153,1149,1149,1145,1145,1149,1149,1149,1149,1149,1149,1149,1145,1145,1145,1145,1145,1145,1145,1145,1145,1149,1149,1149,1149,1149,1149,1149,1149,1149,1149,1149,1149,1145,1145,1145,1145,1145,1145,1145,1145,1149,1149,1145,1145,1145,1145,1145,1141,1141,1141,1141,1141,1141,1141,1141,1141,1141,1141,1141,1138,1138,1138,1138,1138,1138,1138,1138,1138,1134,1134,1134,1134,1134,1134,1130,1130,1134,1130,1130,1126,1126,1126,1126,1126,1126,1123,1123,1123,1123,1123,1126,1126,1126,1130,1126,1126,1126,1126,1126,1123,1123,1123,1123,1123,1123,1123,1123,1123,1123,1123,1123,1123,1123,1123,1123,1123,1123,1119,1119,1119,1119,1119,1115,1115,1115,1115,1115,1112,1112,1112,1112,1115,1115,1112,1112,1112,1112,1112,1108,1108,1108,1108,1108,1108,1108,1108,1105,1097,1097,1004,1004,1010,1010,1010,1013,1013,1019,1108,1108,1105,1105,1108,1105,1105,1105,1105,1105,1105,1105,1105,1105,1105,938,938,938,935,935,933,933,933,933,930,930,930,930,933,933,933,935,935,935,935,935,935,935,935,935,938,938,938,0,0,0,0,0,0,0,0,0,0,0,0,0,0,0,0,0,0,0,0,0,0,0,0,0,0,0,0,0,0,0,0,0,0
0,0,0,0,0,0,0,0,0,0,1250,1250,1245,1245,1245,1245,1245,1245,1245,1245,1250,1250,1250,1250,1250,1250,1250,1250,1250,1250,1245,1245,1245,1245,1245,1245,1241,1241,1241,1236,1232,1232,1236,1236,1236,1241,1241,1245,1241,1241,1241,1241,1241,1245,1241,1241,1241,1245,1245,1245,1245,1245,1245,1245,1245,1245,1245,1245,1241,1241,1241,1241,1241,1241,1236,1236,1236,1236,1236,1236,1236,1236,1236,1236,1232,1232,1232,1232,1232,1232,1232,1232,1232,1232,1232,1232,1232,1232,1227,1227,1227,1223,1223,1227,1001,1001,998,998,995,992,992,995,995,992,992,995,995,998,998,998,1001,1001,1004,1010,1013,1013,1013,1013,1013,1022,1022,1025,1214,1214,1214,1219,1219,1219,1219,1219,1219,1214,1214,1214,1214,1214,1214,1214,1214,1214,1214,1214,1214,1214,1214,1214,1214,1214,1214,1214,1210,1210,1210,1214,1214,1214,1214,1210,1210,1210,1210,1210,1210,1210,1210,1210,1206,1206,1206,1206,1206,1206,1206,1206,1206,1206,1210,1210,1210,1210,1210,1210,1206,1202,1202,1202,1202,1202,1202,1197,1197,1202,1202,1202,1202,1202,1202,1202,1202,1202,1202,1202,1202,1197,1197,1197,1197,1197,1197,1197,0,0,0,0,0,0,0,0,0,0,747,746,746,746,746,742,741,739,738,736,734,734,733,731,730,730,731,731,733,733,738,739,739,739,742,744,746,747,749,749,749,750,750,0,0,0,0,0,0,1181,1181,1181,1181,1181,1181,1181,1181,1181,1181,1181,1181,1181,1181,1181,1181,1181,1181,1181,1177,1177,1177,1177,1177,1177,1177,1173,1173,984,984,981,981,978,978,978,975,970,970,967,967,967,967,964,938,935,935,935,938,935,935,935,935,935,935,938,938,938,938,938,940,940,943,943,948,954,959,962,967,967,970,973,975,978,1165,1165,1165,1165,1165,1165,1165,1165,1165,1165,1161,1161,1161,1161,1165,1161,1161,1161,1161,1161,1161,1161,1161,1161,1157,1157,1157,1153,1149,1149,1145,1145,1141,1141,1138,1138,1138,1138,1138,1138,1138,1138,1149,1149,1153,1153,1153,1153,1153,1153,1153,1153,1153,1153,1149,1149,1149,1149,1153,1153,1153,1149,1149,1149,1145,1145,1141,1141,1141,1145,1145,1145,1145,1145,1145,1145,1145,1141,1141,1141,1141,1141,1141,1145,1145,1145,1145,1145,1145,1145,1145,1145,1145,1145,1145,1141,1141,1141,1141,1145,1145,1145,1145,1145,1145,1145,1145,1141,1141,1141,1138,1138,1138,1138,1138,1138,1141,1141,1141,1141,1138,1138,1138,1138,1138,1138,1138,1134,1134,1134,1134,1134,1134,1134,1134,1130,1130,1130,1126,1126,1130,1130,1126,1126,1126,1126,1126,1126,1126,1123,1123,1123,1123,1123,1123,1123,1123,1123,1126,1126,1126,1123,1123,1123,1123,1123,1123,1123,1123,1119,1119,1123,1123,1119,1119,1119,1119,1119,1119,1119,1119,1115,1115,1115,1115,1115,1115,1112,1112,1112,1112,1108,1108,1108,1108,1112,1112,1108,1108,1108,1108,1108,1108,1108,1108,1108,1108,1105,1105,1105,1101,1004,1004,1004,1004,1010,1010,1010,1013,1105,1105,1105,1105,1105,1105,1105,1105,1105,1105,1105,1105,1105,1105,1105,1105,1105,938,938,938,935,935,933,933,933,933,930,930,930,930,933,933,933,935,935,935,935,935,935,935,935,935,938,938,938,0,0,0,0,0,0,0,0,0,0,0,0,0,0,0,0,0,0,0,0,0,0,0,0,0,0,0,0,0,0,0,0,0,0
0,0,0,0,0,0,0,0,0,0,1245,1245,1245,1245,1245,1245,1245,1245,1245,1245,1245,1245,1245,1245,1245,1245,1245,1245,1245,1245,1245,1245,1245,1241,1241,1241,1236,1236,1236,1232,1232,1232,1232,1236,1236,1241,1241,1241,1241,1241,1236,1236,1236,1236,1236,1236,1236,1241,1245,1241,1241,1241,1241,1241,1241,1241,1241,1241,1241,1241,1236,1236,1236,1236,1236,1232,1232,1232,1232,1232,1232,1232,1232,1232,1232,1232,1227,1227,1227,1232,1227,1227,1227,1227,1227,1227,1227,1227,1223,1223,1219,1219,1214,1214,1001,1001,1001,1001,1001,995,995,995,995,995,995,995,995,998,998,1001,1001,1004,1007,1010,1013,1013,1016,1016,1019,1022,1022,1022,1214,1214,1214,1219,1219,1219,1214,1214,1214,1214,1214,1214,1214,1214,1210,1210,1210,1210,1210,1210,1210,1210,1210,1210,1210,1210,1210,1210,1210,1210,1210,1210,1210,1210,1210,1210,1210,1206,1206,1210,1210,1206,1206,1206,1206,1206,1206,1202,1202,1202,1202,1202,1202,1202,1202,1202,1202,1202,1206,1206,1202,1202,1202,1202,1202,1197,1197,1197,1197,1197,1202,1197,1197,1197,1197,1197,1197,1197,1197,1197,1197,1197,1197,1197,1193,1193,1193,1193,1193,1193,0,0,0,0,0,0,0,0,747,747,747,747,746,744,742,741,739,738,736,734,733,733,731,731,731,731,733,733,738,739,739,741,742,744,747,747,749,750,750,752,752,0,0,0,0,0,0,1177,1177,1181,1181,1181,1181,1181,1181,1181,1181,1181,1181,1181,1181,1181,1181,1177,1177,1177,1177,1177,1177,1177,1177,1177,1177,1173,1173,1173,1169,1165,1165,978,978,978,975,973,970,967,967,928,928,928,928,930,930,935,935,935,935,935,935,935,935,935,935,938,938,938,938,940,940,943,948,954,962,964,964,967,970,973,1165,1165,1165,1165,1161,1161,1161,1161,1161,1161,1161,1161,1161,1161,1161,1161,1161,1157,1157,1157,1157,1157,1157,1157,1157,1157,1157,1153,1153,1153,1149,1149,1145,1145,1141,1141,1138,1138,1138,1138,1138,1138,1141,1141,1149,1149,1149,1149,1149,1149,1149,1149,1149,1145,1145,1149,1149,1149,1149,1149,1149,1149,1149,1145,1145,1141,1141,1141,1141,1141,1141,1145,1145,1145,1145,1145,1141,1141,1141,1141,1141,1141,1138,1138,1141,1141,1141,1141,1141,1141,1141,1141,1141,1141,1141,1141,1141,1141,1138,1138,1138,1138,1141,1141,1141,1141,1141,1141,1141,1138,1138,1138,1138,1138,1138,1138,1134,1134,1138,1138,1138,1138,1138,1138,1138,1134,1134,1134,1134,1134,1134,1134,1134,1134,1130,1130,1130,1126,1126,1126,1126,1126,1126,1126,1123,1123,1123,1123,1123,1123,1123,1123,1123,1123,1119,1119,1119,1119,1119,1119,1119,1119,1119,1123,1123,1119,1119,1119,1119,1119,1119,1119,1119,1119,1119,1119,1115,1115,1115,1115,1115,1115,1112,1112,1112,1112,1112,1112,1112,1112,1108,1108,1108,1108,1108,1108,1108,1108,1108,1108,1108,1108,1108,1108,1105,1105,1105,1105,1105,1105,1105,1105,1101,1004,1004,1007,1010,1010,1010,1013,1016,1105,1105,1105,1105,1105,1105,1105,1105,1105,1105,1101,1101,1101,1105,1105,1105,1105,1105,1101,938,938,935,933,933,933,933,930,930,930,930,933,935,935,935,935,935,935,935,935,935,938,938,938,938,938,0,0,0,0,0,0,0,0,0,0,0,0,0,0,0,0,0,0,0,0,0,0,0,0,0,0,0,0,0,0,0,0,0,0
0,0,0,0,0,0,0,0,0,0,1241,1241,1241,1236,1236,1241,1241,1241,1241,1241,1241,1241,1241,1236,1232,1232,1241,1241,1241,1241,1245,1241,1241,1236,1236,1236,1232,1232,1232,1232,1232,1232,1232,1232,1232,1236,1236,1236,1236,1236,1236,1232,1232,1232,1232,1232,1232,1232,1232,1232,1236,1236,1236,1236,1236,1236,1236,1236,1236,1236,1232,1232,1232,1232,1232,1227,1227,1227,1232,1232,1227,1227,1227,1227,1227,1227,1223,1223,1223,1223,1219,1219,1219,1219,1223,1227,1223,1223,1223,1223,1219,1214,1214,1214,1214,1004,1001,1001,1001,1001,1001,998,998,998,998,998,998,998,1001,1001,1001,1004,1007,1010,1013,1013,1016,1016,1019,1022,1022,1022,1210,1210,1210,1214,1214,1214,1214,1210,1210,1210,1210,1210,1210,1210,1210,1210,1210,1210,1210,1210,1210,1210,1210,1210,1210,1210,1206,1206,1206,1206,1206,1206,1206,1206,1206,1206,1206,1202,1202,1206,1206,1202,1202,1202,1202,1202,1202,1197,1197,1197,1197,1197,1197,1197,1197,1197,1197,1202,1202,1202,1197,1197,1197,1197,1197,1197,1197,1197,1197,1197,1197,1197,1197,1197,1197,1193,1193,1193,1193,1193,1193,1193,1193,1193,1189,1189,1193,1193,1193,1193,0,0,0,0,0,0,0,0,752,750,749,747,746,744,742,742,741,741,739,738,736,733,731,731,731,733,733,736,738,739,739,741,742,744,747,747,752,752,752,755,755,0,0,0,0,0,1177,1177,1177,1177,1177,1177,1177,1177,1177,1177,1177,1177,1177,1177,1177,1177,1177,1177,1173,1173,1173,1173,1173,1173,1173,1173,1173,1173,1173,1169,1165,1165,1165,1165,1165,1161,975,975,973,973,928,928,928,928,928,930,930,930,928,928,930,933,933,933,935,935,935,935,938,938,938,940,940,943,951,956,962,964,964,967,1165,1165,1165,1161,1161,1161,1161,1161,1157,1157,1157,1157,1157,1157,1157,1157,1157,1157,1157,1153,1153,1153,1153,1153,1153,1153,1153,1153,1153,1153,1149,1149,1149,1149,1145,1145,1141,1141,1141,1138,1138,1138,1138,1138,1141,1145,1149,1149,1149,1145,1145,1145,1145,1145,1145,1141,1141,1141,1145,1145,1145,1145,1145,1145,1145,1141,1141,1141,1138,1138,1138,1138,1138,1141,1141,1141,1141,1141,1141,1141,1138,1138,1138,1138,1138,1138,1138,1138,1138,1138,1138,1138,1138,1138,1138,1138,1138,1138,1138,1134,1134,1134,1134,1134,1134,1134,1138,1138,1138,1138,1138,1138,1138,1134,1134,1134,1134,1134,1134,1134,1134,1134,1134,1134,1134,1130,1130,1130,1130,1126,1126,1130,1130,1130,1130,1130,1126,1126,1126,1126,1123,1123,1123,1123,1123,1123,1123,1123,1123,1123,1123,1119,1119,1119,1119,1119,1119,1119,1119,1119,1115,1115,1119,1115,1115,1115,1115,1115,1115,1115,1115,1119,1119,1115,1115,1115,1115,1115,1112,1112,1112,1112,1112,1112,1108,1108,1108,1112,1112,1108,1108,1108,1108,1108,1108,1108,1108,1108,1108,1108,1108,1108,1108,1105,1105,1105,1105,1105,1105,1105,1105,1105,1105,1105,1010,1010,1010,1010,1013,1013,1013,1013,1101,1101,1101,1101,1101,1101,1101,1105,1101,1101,1101,1101,1101,1101,1101,1105,1105,1101,1101,1101,1101,935,935,933,933,933,933,930,930,930,930,933,935,935,935,935,935,935,935,935,935,938,938,938,938,938,0,0,0,0,0,0,0,0,0,0,0,0,0,0,0,0,0,0,0,0,0,0,0,0,0,0,0,0,0,0,0,0,0,0
0,0,0,0,0,0,0,0,0,0,1236,1236,1236,1236,1236,1236,1236,1236,1232,1232,1236,1236,1232,1232,1232,1232,1232,1232,1232,1232,1236,1241,1236,1232,1232,1232,1232,1232,1232,1227,1227,1227,1227,1227,1227,1232,1232,1232,1232,1232,1232,1232,1232,1232,1227,1227,1227,1227,1227,1227,1227,1227,1227,1227,1232,1232,1232,1232,1232,1232,1232,1227,1227,1232,1227,1223,1223,1223,1227,1227,1227,1223,1223,1223,1223,1223,1219,1219,1214,1214,1214,1214,1214,1214,1214,1214,1219,1219,1219,1214,1214,1214,1210,1210,1210,1210,1004,1004,1004,1001,1001,1001,998,998,998,998,998,998,1001,1001,1004,1007,1007,1010,1013,1013,1016,1016,1019,1022,1022,1206,1206,1206,1210,1210,1210,1210,1210,1210,1206,1206,1210,1210,1210,1206,1206,1206,1206,1206,1206,1206,1206,1206,1202,1202,1202,1206,1202,1202,1202,1202,1206,1202,1202,1202,1202,1202,1202,1202,1202,1202,1202,1197,1197,1197,1197,1197,1197,1197,1197,1197,1197,1197,1197,1197,1197,1197,1197,1197,1197,1197,1197,1197,1197,1197,1197,1197,1197,1197,1197,1197,1197,1197,1193,1193,1193,1193,1193,1193,1193,1193,1193,1193,1193,1193,1189,1189,1185,1185,1193,1193,0,0,0,0,0,0,0,0,0,0,749,749,747,746,744,742,741,741,739,739,738,734,734,734,734,734,734,738,739,739,741,742,746,746,747,749,752,752,754,755,0,0,0,0,0,0,1173,1173,1173,1177,1177,1177,1177,1173,1173,1173,1173,1173,1173,1173,1173,1173,1173,1169,1169,1169,1169,1169,1169,1173,1173,1173,1173,1169,1169,1169,1165,1165,1165,1165,1165,1161,978,975,975,920,920,925,925,928,928,928,928,928,928,928,928,928,928,928,930,933,935,935,938,938,938,940,940,943,954,956,962,962,964,1165,1161,1161,1161,1161,1161,1157,1157,1157,1157,1157,1153,1153,1153,1153,1153,1153,1153,1153,1153,1153,1153,1153,1153,1149,1149,1149,1149,1149,1153,1149,1149,1145,1145,1145,1141,1141,1141,1141,1141,1138,1138,1138,1138,1138,1141,1141,1141,1145,1141,1141,1145,1141,1141,1145,1141,1141,1141,1141,1141,1141,1141,1141,1141,1141,1141,1141,1138,1138,1138,1138,1138,1138,1138,1138,1138,1138,1138,1138,1138,1138,1138,1134,1134,1134,1134,1134,1134,1134,1134,1134,1134,1134,1138,1138,1138,1134,1134,1134,1134,1130,1130,1130,1130,1130,1134,1134,1134,1134,1134,1134,1134,1134,1134,1134,1130,1130,1130,1130,1130,1130,1130,1130,1130,1130,1126,1126,1126,1126,1126,1123,1123,1126,1126,1126,1130,1126,1126,1123,1123,1123,1123,1123,1123,1123,1123,1123,1123,1119,1119,1119,1119,1119,1119,1119,1119,1119,1119,1115,1115,1115,1115,1115,1115,1112,1112,1112,1112,1112,1112,1108,1108,1112,1115,1112,1112,1112,1112,1112,1108,1108,1108,1108,1108,1108,1108,1108,1108,1108,1108,1108,1108,1105,1105,1108,1105,1105,1105,1105,1105,1105,1105,1105,1105,1105,1101,1101,1101,1101,1101,1101,1101,1101,1101,1101,1010,1010,1010,1013,1013,1013,1013,1016,1097,1097,1097,1097,1097,1097,1097,1097,1097,1097,1101,1097,1097,1097,1097,1097,1097,1094,1094,1094,1090,1090,938,938,935,933,933,933,930,930,933,933,935,935,935,935,935,935,935,935,935,935,935,938,938,938,0,0,0,0,0,0,0,0,0,0,0,0,0,0,0,0,0,0,0,0,0,0,0,0,0,0,0,0,0,0,0,0,0,0
0,0,0,0,0,0,0,0,0,0,1236,1236,1236,1232,1232,1232,1232,1232,1232,1232,1232,1232,1232,1232,1232,1232,1232,1232,1232,1232,1232,1236,1232,1232,1232,1232,1227,1227,1227,1227,1227,1227,1227,1223,1223,1227,1227,1227,1227,1227,1227,1227,1227,1227,1227,1227,1227,1227,1227,1227,1227,1227,1227,1227,1227,1227,1227,1232,1227,1227,1227,1227,1227,1227,1227,1219,1219,1219,1223,1223,1223,1223,1223,1223,1223,1219,1219,1214,1214,1214,1214,1214,1214,1214,1214,1214,1214,1214,1214,1210,1210,1210,1210,1206,1206,1206,1010,1010,1007,1004,1004,1001,1001,998,998,998,998,998,1001,1001,1004,1007,1010,1013,1013,1013,1016,1019,1019,1022,1022,1197,1197,1197,1197,1210,1210,1206,1206,1206,1202,1202,1206,1206,1206,1206,1206,1206,1206,1202,1202,1202,1202,1202,1202,1202,1202,1202,1202,1197,1197,1197,1197,1197,1197,1202,1202,1197,1197,1197,1197,1197,1197,1197,1197,1197,1197,1197,1193,1193,1193,1193,1193,1193,1193,1193,1193,1193,1193,1193,1197,1197,1197,1193,1193,1193,1193,1193,1193,1193,1193,1193,1193,1193,1193,1193,1193,1193,1189,1189,1189,1189,1189,1189,1189,1185,1185,1185,1181,1181,1181,0,0,0,0,0,0,0,0,0,0,0,750,749,749,747,746,744,742,741,741,739,739,736,736,734,734,736,736,739,739,739,741,742,746,747,747,749,752,752,754,755,0,0,0,0,0,0,1173,1173,1173,1173,1173,1173,1173,1173,1169,1169,1169,1169,1169,1169,1169,1169,1169,1169,1165,1165,1165,1165,1169,1169,1169,1169,1169,1169,1169,1165,1165,1165,1165,1165,1165,1165,1165,1165,920,920,920,925,925,925,925,925,925,925,925,925,925,925,925,928,928,930,933,935,938,938,938,940,943,946,954,956,962,962,1161,1161,1157,1157,1157,1157,1157,1153,1153,1153,1153,1153,1153,1153,1153,1153,1153,1153,1153,1153,1153,1153,1149,1149,1149,1149,1149,1149,1149,1149,1149,1149,1145,1145,1145,1145,1141,1141,1141,1141,1138,1138,1138,1138,1138,1138,1138,1141,1141,1141,1141,1138,1138,1138,1138,1138,1141,1138,1138,1138,1138,1138,1138,1138,1138,1138,1138,1138,1138,1138,1138,1138,1138,1138,1134,1134,1134,1134,1134,1134,1134,1134,1134,1134,1134,1134,1134,1130,1130,1130,1134,1130,1130,1130,1130,1134,1134,1134,1134,1134,1130,1126,1126,1130,1130,1130,1130,1130,1130,1130,1130,1130,1130,1126,1126,1126,1126,1126,1126,1126,1126,1126,1126,1126,1126,1126,1126,1123,1123,1123,1123,1123,1123,1123,1123,1123,1123,1123,1123,1123,1123,1119,1119,1119,1119,1119,1119,1119,1119,1119,1119,1119,1119,1119,1115,1115,1115,1115,1115,1115,1115,1115,1112,1112,1112,1112,1112,1108,1108,1108,1108,1108,1108,1108,1108,1108,1108,1108,1108,1108,1108,1105,1105,1105,1105,1105,1105,1105,1105,1105,1105,1105,1105,1105,1105,1105,1105,1105,1105,1105,1105,1105,1105,1101,1101,1101,1097,1097,1097,1097,1097,1097,1097,1097,1097,1097,1101,1101,1016,1016,1016,1016,1016,1097,1094,1094,1094,1094,1094,1094,1094,1094,1094,1094,1094,1094,1094,1094,1094,1094,1090,1087,1087,1087,1087,938,938,938,935,935,935,933,933,933,930,930,933,933,933,933,935,935,935,935,935,935,935,938,938,938,0,0,0,0,0,0,0,0,0,0,0,0,0,0,0,0,0,0,0,0,0,0,0,0,0,0,0,0,0,0,0,0,0,0
0,0,0,0,0,0,0,0,0,0,1236,1236,1232,1232,1232,1232,1232,1232,1232,1232,1232,1232,1232,1227,1227,1232,1227,1227,1227,1227,1227,1227,1227,1227,1227,1227,1227,1227,1227,1227,1227,1223,1223,1223,1223,1223,1223,1223,1223,1227,1227,1227,1223,1223,1223,1223,1223,1223,1223,1223,1223,1223,1223,1223,1223,1223,1223,1223,1223,1223,1223,1223,1223,1223,1223,1219,1219,1219,1219,1219,1219,1219,1214,1214,1219,1219,1219,1214,1214,1219,1219,1214,1214,1214,1210,1210,1214,1210,1210,1210,1210,1210,1206,1206,1010,1010,1013,1013,1010,1007,1007,1001,1001,1001,1001,1001,1001,1001,1001,1001,1004,1007,1010,1013,1013,1013,1016,1019,1019,1019,1022,1193,1193,1193,1193,1197,1197,1197,1197,1202,1202,1202,1197,1197,1197,1197,1202,1202,1202,1202,1197,1197,1202,1197,1197,1197,1197,1197,1197,1197,1197,1197,1197,1197,1197,1197,1197,1197,1197,1197,1197,1193,1193,1193,1193,1193,1193,1193,1193,1193,1193,1193,1193,1193,1193,1193,1193,1193,1193,1193,1193,1193,1193,1193,1193,1193,1193,1189,1189,1189,1189,1193,1189,1189,1189,1189,1189,1189,1189,1189,1185,1185,1185,1185,1185,1185,1181,1181,1181,1181,1181,0,0,0,0,0,0,0,0,0,0,0,750,750,749,749,746,746,744,742,741,741,739,738,738,736,736,736,738,739,739,739,742,746,746,747,747,749,752,754,755,757,759,0,0,0,0,0,1173,1169,1169,1173,1169,1169,1169,1169,1169,1165,1165,1165,1165,1165,1165,1165,1165,1165,1165,1165,1165,1165,1165,1165,1165,1165,1165,1165,1165,1165,1161,1161,1161,1161,1165,1165,1165,918,918,918,918,923,923,923,923,923,923,923,923,923,923,925,925,928,928,930,933,935,938,938,940,943,946,948,954,956,959,959,1157,1157,1157,1157,1157,1153,1153,1153,1153,1149,1149,1149,1149,1149,1149,1149,1149,1149,1149,1149,1149,1149,1145,1145,1149,1145,1145,1145,1145,1145,1145,1145,1141,1141,1141,1141,1138,1138,1138,1138,1138,1138,1138,1138,1138,1138,1138,1138,1138,1138,1138,1138,1138,1138,1138,1138,1138,1138,1138,1138,1138,1138,1138,1138,1138,1138,1138,1138,1138,1134,1134,1134,1134,1134,1134,1134,1134,1134,1134,1134,1134,1134,1134,1134,1130,1130,1130,1130,1130,1130,1130,1126,1126,1126,1126,1130,1130,1130,1130,1130,1126,1123,1123,1126,1126,1126,1126,1126,1126,1126,1126,1123,1123,1123,1123,1123,1123,1123,1123,1123,1126,1126,1126,1123,1123,1123,1123,1123,1123,1123,1123,1123,1123,1123,1123,1123,1119,1119,1119,1119,1119,1119,1119,1119,1119,1115,1115,1119,1115,1115,1115,1115,1115,1115,1115,1115,1115,1112,1112,1112,1112,1112,1108,1108,1108,1108,1108,1108,1108,1108,1105,1105,1105,1105,1105,1105,1105,1105,1105,1105,1105,1105,1105,1105,1105,1105,1101,1101,1101,1105,1105,1101,1101,1101,1101,1101,1101,1101,1101,1101,1101,1101,1101,1101,1097,1097,1097,1094,1094,1094,1094,1094,1094,1094,1094,1097,1101,1016,1016,1016,1016,1016,1016,1094,1094,1090,1090,1090,1087,1087,1090,1087,1087,1087,1087,1090,1087,1087,1087,1087,1087,1084,1084,1084,1084,938,938,938,938,935,935,933,930,930,930,930,930,930,933,933,935,935,938,938,938,938,938,938,938,938,0,0,0,0,0,0,0,0,0,0,0,0,0,0,0,0,0,0,0,0,0,0,0,0,0,0,0,0,0,0,0,0,0,0
0,0,0,0,0,0,0,0,0,0,1232,1227,1227,1227,1227,1227,1227,1227,1227,1227,1227,1227,1227,1227,1227,1227,1227,1227,1227,1227,1223,1223,1223,1223,1223,1223,1223,1223,1223,1223,1223,1223,1219,1219,1223,1219,1219,1219,1223,1223,1223,1223,1223,1223,1223,1219,1219,1219,1219,1219,1219,1219,1219,1219,1219,1219,1214,1214,1214,1214,1219,1214,1214,1219,1219,1214,1214,1214,1214,1214,1214,1214,1214,1214,1214,1214,1214,1214,1214,1214,1214,1214,1214,1210,1210,1210,1210,1210,1210,1210,1206,1206,1206,1206,1010,1010,1013,1013,1010,1010,1007,1004,1004,1001,1001,1001,1001,1001,1001,1004,1007,1007,1010,1013,1013,1013,1016,1019,1019,1019,1022,1193,1193,1193,1193,1193,1193,1193,1193,1193,1193,1193,1193,1197,1197,1197,1202,1202,1202,1197,1197,1197,1197,1197,1197,1197,1197,1197,1197,1197,1197,1193,1193,1197,1197,1197,1193,1193,1193,1193,1193,1193,1189,1189,1189,1189,1193,1189,1189,1189,1189,1189,1189,1189,1189,1189,1189,1189,1189,1189,1189,1189,1189,1189,1189,1189,1189,1189,1189,1189,1189,1189,1185,1185,1185,1185,1185,1181,1181,1185,1185,1185,1185,1185,1185,1181,1181,1181,1181,1181,1177,1177,0,0,0,0,0,0,0,0,0,0,750,750,750,750,749,746,744,742,741,741,739,739,738,738,738,738,738,739,739,741,742,746,747,747,749,752,752,754,757,757,759,0,0,0,0,0,0,1165,1165,1165,1165,1165,1165,1165,1165,1165,1165,1165,1165,1161,1161,1161,1161,1161,1161,1161,1161,1161,1161,1165,1161,1161,1165,1161,1161,1161,1161,1161,1161,1161,1161,1161,913,913,915,915,918,920,920,920,918,918,920,920,920,920,923,923,925,925,928,930,933,935,938,938,940,943,948,951,954,954,956,959,1153,1153,1153,1153,1153,1153,1153,1149,1149,1149,1149,1149,1149,1149,1149,1149,1149,1149,1149,1149,1149,1149,1145,1145,1145,1145,1145,1141,1141,1145,1141,1141,1141,1138,1138,1138,1138,1138,1138,1138,1138,1138,1138,1138,1134,1134,1134,1134,1138,1138,1134,1134,1138,1138,1138,1138,1134,1134,1134,1134,1134,1134,1134,1134,1134,1134,1134,1134,1134,1134,1134,1134,1134,1134,1130,1130,1130,1130,1130,1130,1130,1130,1130,1130,1126,1126,1126,1126,1126,1126,1126,1126,1126,1126,1126,1130,1130,1126,1126,1123,1123,1123,1123,1123,1123,1123,1123,1123,1123,1123,1123,1119,1119,1119,1119,1119,1119,1119,1119,1119,1119,1119,1119,1119,1123,1119,1119,1119,1119,1119,1119,1119,1119,1119,1119,1119,1115,1115,1115,1115,1115,1115,1115,1115,1115,1112,1112,1115,1115,1112,1112,1112,1112,1112,1112,1112,1112,1112,1108,1108,1108,1108,1108,1108,1108,1108,1108,1105,1105,1105,1105,1105,1105,1101,1101,1101,1101,1101,1101,1101,1101,1101,1101,1101,1101,1101,1101,1101,1101,1101,1101,1097,1097,1097,1097,1097,1101,1101,1097,1097,1101,1101,1101,1097,1094,1094,1094,1094,1094,1094,1094,1094,1094,1094,1094,1097,1101,1016,1016,1016,1016,1016,1016,1094,1090,1087,1087,1087,1084,1084,1084,1084,1084,1084,1084,1084,1084,1084,1084,1084,1084,1084,1084,1084,1084,1084,940,940,938,938,935,933,930,930,930,930,930,930,933,933,935,935,938,938,938,938,938,938,938,938,0,0,0,0,0,0,0,0,0,0,0,0,0,0,0,0,0,0,0,0,0,0,0,0,0,0,0,0,0,0,0,0,0,0
0,0,0,0,0,0,0,0,0,0,1227,1227,1219,1219,1223,1223,1223,1223,1223,1223,1223,1223,1223,1223,1223,1223,1223,1223,1223,1219,1219,1219,1219,1219,1219,1219,1219,1219,1219,1223,1223,1219,1219,1219,1219,1219,1219,1219,1219,1219,1219,1219,1219,1219,1219,1214,1214,1214,1214,1219,1219,1214,1214,1214,1214,1214,1214,1214,1214,1214,1214,1214,1214,1214,1214,1210,1210,1210,1210,1214,1214,1214,1210,1210,1214,1214,1214,1210,1210,1210,1210,1210,1210,1210,1206,1206,1206,1206,1206,1206,1206,1206,1202,1197,1197,1197,1013,1013,1010,1010,1010,1007,1004,1004,1004,1004,1001,1001,1004,1004,1007,1010,1010,1013,1013,1013,1016,1019,1019,1019,1022,1193,1193,1189,1189,1193,1193,1193,1193,1193,1189,1189,1193,1193,1193,1193,1193,1197,1197,1193,1193,1193,1193,1193,1193,1193,1193,1193,1193,1193,1193,1189,1189,1193,1193,1193,1193,1193,1193,1193,1189,1189,1185,1185,1185,1189,1189,1185,1185,1185,1189,1189,1185,1185,1185,1185,1185,1185,1185,1185,1185,1185,1185,1185,1185,1185,1185,1181,1181,1181,1185,1185,1181,1181,1181,1177,1177,1177,1177,1177,1177,1177,1177,1181,1181,1181,1181,1181,1177,1177,1177,1177,0,0,0,0,0,0,0,0,0,0,752,752,750,750,750,747,744,742,741,741,739,739,739,738,738,738,739,739,741,741,746,747,747,749,750,754,755,757,757,759,761,0,0,0,0,0,0,1165,1165,1165,1161,1161,1161,1161,1161,1161,1161,1161,1161,1161,1161,1157,1157,1157,1157,1157,1157,1157,1161,1161,1161,1161,1161,1157,1157,1161,1161,1161,1161,1161,1161,1161,910,910,913,915,915,918,918,918,915,915,918,918,918,918,920,923,923,925,925,928,933,935,938,940,940,946,948,951,951,954,954,1149,1149,1149,1149,1149,1153,1149,1149,1149,1145,1145,1145,1145,1145,1145,1145,1145,1149,1149,1149,1149,1149,1149,1145,1145,1141,1141,1141,1138,1138,1141,1141,1141,1138,1138,1138,1138,1138,1138,1138,1138,1138,1138,1134,1134,1130,1130,1130,1130,1134,1134,1134,1134,1134,1134,1134,1134,1134,1134,1134,1134,1134,1130,1130,1130,1130,1130,1134,1134,1134,1130,1130,1130,1130,1130,1130,1130,1130,1130,1130,1130,1126,1126,1126,1126,1126,1126,1123,1123,1123,1123,1123,1123,1123,1123,1123,1126,1123,1123,1123,1123,1119,1119,1119,1119,1119,1123,1119,1119,1119,1119,1119,1119,1119,1119,1119,1115,1115,1115,1115,1115,1115,1115,1115,1115,1115,1115,1115,1119,1119,1115,1115,1115,1115,1115,1115,1112,1112,1112,1112,1112,1112,1112,1112,1112,1112,1108,1108,1112,1112,1112,1108,1108,1108,1108,1108,1108,1108,1108,1108,1108,1108,1108,1105,1105,1108,1105,1105,1105,1105,1105,1101,1101,1101,1101,1097,1097,1097,1097,1097,1097,1097,1097,1097,1097,1094,1094,1094,1097,1097,1097,1097,1097,1094,1094,1094,1094,1094,1094,1094,1094,1097,1094,1094,1094,1094,1094,1094,1090,1090,1090,1090,1090,1090,1090,1094,1097,1101,1016,1016,1016,1016,1016,1016,1094,1090,1087,1087,1084,1084,1084,1084,1084,1084,1084,1084,1084,1084,1084,1084,1084,1084,1080,1080,1084,1084,943,943,940,938,938,938,935,933,930,930,930,933,933,933,933,933,935,935,935,935,938,938,938,938,938,0,0,0,0,0,0,0,0,0,0,0,0,0,0,0,0,0,0,0,0,0,0,0,0,0,0,0,0,0,0,0,0,0,0
0,0,0,0,0,0,0,0,0,1219,1219,1214,1214,1214,1219,1219,1219,1219,1219,1219,1219,1219,1219,1223,1223,1219,1219,1219,1219,1219,1219,1219,1219,1219,1219,1219,1219,1219,1219,1219,1214,1214,1214,1214,1214,1214,1214,1219,1219,1219,1214,1214,1219,1219,1214,1214,1214,1214,1214,1214,1214,1214,1214,1214,1214,1214,1214,1214,1214,1214,1214,1214,1214,1214,1210,1210,1210,1210,1210,1210,1206,1206,1206,1206,1210,1210,1210,1210,1210,1206,1206,1206,1206,1206,1206,1206,1202,1202,1202,1202,1197,1197,1197,1197,1197,1197,1013,1013,1013,1010,1010,1010,1007,1007,1004,1004,1004,1004,1004,1007,1007,1010,1010,1013,1013,1013,1016,1019,1019,1019,1022,1022,1193,1189,1189,1189,1189,1189,1189,1189,1189,1189,1189,1189,1189,1189,1189,1189,1189,1189,1189,1189,1193,1193,1193,1193,1193,1189,1189,1193,1193,1189,1189,1189,1193,1189,1189,1189,1189,1189,1189,1185,1185,1185,1185,1185,1185,1185,1185,1185,1185,1185,1181,1181,1181,1181,1181,1181,1181,1181,1181,1181,1181,1181,1181,1181,1181,1181,1181,1181,1181,1181,1181,1181,1181,1177,1177,1177,1173,1173,1173,1177,1177,1177,1177,1177,1177,1177,1173,1173,1173,1173,0,0,0,0,0,0,0,0,0,0,0,752,752,752,752,747,746,744,742,741,741,739,739,739,739,739,739,739,741,741,746,747,747,749,750,754,755,757,757,761,761,0,0,0,0,0,0,1165,1161,1161,1161,1161,1161,1157,1157,1157,1157,1157,1157,1157,1157,1157,1157,1157,1157,1153,1153,1153,1157,1157,1157,1157,1157,1153,1153,1157,1157,1149,1149,1153,903,903,908,910,910,913,913,915,915,915,915,915,915,915,915,918,918,920,923,925,925,928,933,935,938,940,943,946,948,948,951,951,954,1141,1141,1141,1145,1145,1145,1145,1141,1141,1145,1145,1141,1141,1141,1141,1141,1141,1145,1145,1145,1145,1145,1145,1141,1141,1138,1138,1138,1138,1138,1138,1138,1138,1138,1134,1134,1134,1134,1134,1134,1134,1134,1134,1134,1134,1130,1126,1126,1126,1126,1126,1126,1126,1130,1130,1130,1130,1130,1130,1130,1130,1126,1126,1126,1126,1126,1126,1126,1126,1126,1130,1130,1130,1130,1130,1126,1126,1126,1126,1126,1126,1126,1123,1123,1123,1123,1123,1123,1119,1119,1119,1119,1119,1123,1123,1123,1123,1123,1123,1119,1119,1119,1115,1115,1115,1115,1115,1115,1115,1115,1115,1115,1115,1115,1115,1115,1112,1112,1112,1112,1112,1112,1112,1112,1112,1112,1112,1112,1112,1112,1112,1112,1115,1112,1112,1112,1112,1108,1108,1108,1108,1108,1108,1108,1108,1108,1108,1108,1108,1108,1108,1108,1105,1105,1105,1105,1105,1105,1105,1105,1105,1105,1105,1105,1105,1105,1105,1105,1101,1097,1097,1097,1097,1097,1097,1097,1094,1094,1094,1094,1094,1094,1094,1094,1094,1094,1094,1094,1094,1094,1094,1094,1094,1094,1094,1094,1094,1094,1094,1094,1094,1094,1094,1094,1094,1094,1090,1090,1090,1090,1090,1090,1087,1087,1090,1090,1094,1016,1016,1016,1016,1016,1016,1016,1090,1087,1084,1084,1080,1080,1080,1080,1080,1080,1080,1084,1084,1084,1084,1084,1080,1080,1080,1080,1084,1084,943,943,943,940,938,938,938,935,935,933,933,930,930,930,930,930,933,935,935,935,938,938,935,935,938,0,0,0,0,0,0,0,0,0,0,0,0,0,0,0,0,0,0,0,0,0,0,0,0,0,0,0,0,0,0,0,0,0,0
0,0,0,0,0,0,0,0,0,1214,1214,1214,1210,1210,1214,1214,1214,1214,1219,1219,1219,1219,1219,1219,1219,1214,1214,1214,1214,1214,1214,1214,1214,1214,1214,1214,1214,1214,1219,1214,1214,1214,1214,1214,1214,1214,1214,1214,1214,1214,1214,1214,1214,1214,1214,1214,1210,1210,1210,1210,1210,1210,1210,1210,1210,1210,1210,1210,1214,1214,1214,1214,1214,1210,1210,1206,1206,1206,1206,1206,1206,1206,1202,1202,1197,1197,1202,1206,1206,1206,1206,1202,1202,1202,1202,1202,1197,1197,1197,1197,1197,1197,1197,1193,1193,1193,1193,1013,1013,1013,1013,1010,1010,1007,1007,1007,1004,1004,1007,1007,1010,1010,1013,1013,1013,1013,1016,1019,1019,1019,1022,1022,1185,1185,1185,1185,1185,1185,1185,1185,1185,1185,1185,1185,1181,1181,1185,1185,1185,1185,1185,1185,1185,1185,1189,1185,1185,1181,1181,1189,1189,1185,1185,1189,1189,1189,1185,1185,1185,1185,1185,1181,1181,1181,1181,1181,1185,1181,1181,1181,1181,1181,1181,1181,1177,1177,1177,1177,1177,1177,1177,1173,1173,1173,1173,1173,1173,1173,1177,1177,1177,1177,1177,1177,1177,1173,1173,1173,1173,1169,1169,1173,1173,1173,1173,1173,1173,1173,1169,1169,1169,1169,1169,0,0,0,0,0,0,0,0,0,0,754,754,752,752,749,747,744,742,742,741,741,739,739,739,739,739,739,741,741,746,747,747,749,752,754,755,757,757,761,761,0,0,0,0,0,0,1161,1157,1157,1157,1157,1157,1153,1153,1153,1153,1153,1153,1149,1149,1149,1153,1153,1153,1153,1153,1153,1153,1153,1153,1149,1149,1149,1149,1153,1153,1149,1149,1153,903,903,908,908,910,913,913,915,915,913,913,913,913,913,915,915,918,918,923,925,925,928,933,935,938,940,943,943,948,948,948,951,1138,1138,1138,1138,1141,1141,1141,1141,1141,1141,1138,1138,1138,1138,1138,1138,1138,1138,1138,1138,1138,1138,1138,1138,1138,1138,1138,1134,1134,1134,1134,1134,1134,1134,1134,1134,1130,1130,1134,1134,1134,1134,1134,1130,1130,1130,1126,1126,1126,1126,1126,1126,1123,1123,1126,1126,1126,1126,1126,1126,1126,1123,1123,1123,1123,1123,1123,1123,1123,1123,1123,1123,1123,1123,1123,1126,1126,1123,1123,1123,1123,1123,1123,1123,1123,1123,1123,1119,1119,1119,1119,1119,1119,1119,1119,1119,1119,1119,1119,1119,1115,1115,1115,1115,1112,1112,1112,1112,1112,1112,1112,1112,1112,1112,1112,1112,1112,1108,1108,1108,1108,1108,1108,1108,1108,1108,1108,1108,1108,1108,1108,1108,1108,1108,1108,1108,1108,1108,1108,1108,1108,1108,1108,1105,1105,1108,1108,1105,1105,1105,1105,1105,1105,1105,1105,1105,1105,1105,1105,1105,1101,1101,1101,1101,1101,1101,1101,1101,1101,1097,1097,1097,1094,1094,1094,1094,1094,1094,1094,1094,1094,1094,1090,1090,1090,1090,1090,1090,1090,1090,1090,1090,1090,1090,1090,1090,1090,1090,1090,1090,1087,1087,1090,1090,1090,1090,1090,1087,1087,1087,1087,1087,1084,1084,1084,1087,1087,1013,1013,1016,1016,1016,1016,1016,1016,1016,1087,1084,1080,1080,1080,1080,1080,1080,1080,1080,1084,1084,1084,1084,1084,1080,1080,1080,1080,943,943,943,943,943,943,940,940,938,935,935,933,933,930,930,930,928,928,930,933,935,935,938,938,935,935,0,0,0,0,0,0,0,0,0,0,0,0,0,0,0,0,0,0,0,0,0,0,0,0,0,0,0,0,0,0,0,0,0,0,0
0,0,0,0,0,0,0,0,0,1210,1210,1210,1210,1210,1210,1210,1210,1210,1210,1210,1214,1214,1214,1214,1214,1214,1214,1214,1214,1214,1214,1214,1214,1214,1214,1214,1214,1214,1214,1214,1214,1210,1210,1214,1214,1214,1214,1214,1214,1214,1214,1214,1214,1210,1210,1210,1206,1206,1206,1206,1206,1206,1206,1206,1206,1206,1206,1206,1210,1210,1210,1210,1210,1206,1206,1202,1202,1202,1202,1202,1202,1202,1197,1197,1197,1197,1197,1197,1197,1197,1197,1197,1197,1197,1197,1197,1197,1197,1197,1197,1193,1193,1193,1193,1193,1193,1193,1193,1013,1013,1013,1010,1010,1007,1007,1007,1007,1007,1007,1010,1010,1013,1013,1013,1013,1016,1019,1022,1022,1022,1022,1025,1025,1185,1185,1185,1185,1185,1181,1181,1181,1181,1181,1181,1181,1181,1181,1181,1181,1181,1181,1181,1181,1181,1181,1181,1181,1181,1181,1185,1185,1185,1185,1185,1185,1185,1181,1181,1181,1181,1181,1181,1181,1177,1177,1177,1181,1181,1177,1177,1177,1177,1177,1177,1177,1177,1177,1177,1177,1173,1173,1173,1173,1169,1169,1169,1169,1169,1169,1169,1169,1173,1173,1173,1169,1169,1169,1169,1165,1165,1165,1169,1169,1169,1169,1169,1169,1165,1165,1165,1161,1161,1161,1161,0,0,0,0,0,0,0,0,0,754,754,754,754,750,749,747,744,742,741,741,741,739,739,739,741,741,741,741,746,747,747,749,754,754,755,757,757,761,762,764,766,0,0,0,0,1161,1157,1149,1149,1149,1149,1149,1149,1149,1149,1149,1149,1149,1149,1145,1145,1149,1149,1149,1149,1149,1149,1149,1149,1149,1149,1149,1149,1149,1149,1149,1149,906,906,906,906,908,908,910,910,910,910,910,910,913,913,913,913,915,915,918,920,925,928,930,935,938,938,940,940,943,948,948,948,1138,1138,1138,1138,1138,1138,1138,1138,1138,1138,1138,1138,1134,1134,1134,1134,1134,1134,1134,1138,1138,1138,1134,1134,1134,1134,1134,1134,1130,1130,1130,1130,1130,1130,1134,1134,1130,1130,1130,1134,1130,1130,1130,1130,1130,1130,1126,1123,1123,1123,1123,1123,1123,1123,1123,1123,1123,1123,1123,1123,1123,1123,1123,1123,1123,1123,1123,1119,1119,1119,1119,1123,1123,1123,1119,1119,1119,1119,1119,1119,1119,1119,1119,1119,1119,1119,1119,1119,1115,1115,1115,1115,1115,1115,1115,1115,1115,1115,1115,1115,1115,1112,1112,1112,1112,1112,1108,1108,1108,1108,1108,1112,1108,1108,1112,1108,1108,1108,1108,1108,1108,1108,1108,1108,1108,1108,1108,1108,1108,1108,1108,1108,1108,1108,1105,1105,1105,1105,1105,1105,1105,1105,1105,1105,1105,1105,1105,1105,1105,1105,1105,1105,1105,1101,1101,1101,1101,1101,1101,1097,1097,1097,1097,1097,1097,1097,1097,1097,1097,1097,1094,1094,1094,1094,1094,1094,1094,1090,1090,1090,1090,1090,1090,1090,1090,1090,1090,1090,1090,1090,1087,1087,1087,1087,1087,1087,1087,1087,1087,1087,1087,1084,1084,1087,1084,1084,1087,1084,1084,1084,1084,1084,1084,1080,1080,1080,1084,1084,1013,1013,1016,1016,1016,1016,1016,1016,1016,1080,1080,1077,1077,1077,1080,1077,1077,1080,1080,1080,956,956,954,954,948,948,948,946,943,943,943,943,943,943,940,940,940,938,935,935,933,930,930,930,928,928,930,933,0,0,0,0,0,0,0,0,0,0,0,0,0,0,0,0,0,0,0,0,0,0,0,0,0,0,0,0,0,0,0,0,0,0,0,0,0,0,0,0,0
0,0,0,0,0,0,0,0,0,1210,1210,1210,1210,1210,1210,1210,1210,1206,1206,1206,1210,1210,1210,1210,1210,1210,1210,1210,1210,1210,1210,1210,1210,1210,1210,1214,1210,1210,1210,1210,1210,1210,1210,1210,1210,1210,1210,1210,1210,1210,1210,1210,1210,1206,1206,1206,1206,1202,1202,1202,1202,1202,1202,1202,1202,1206,1206,1206,1206,1206,1206,1206,1206,1202,1202,1202,1197,1197,1197,1197,1197,1197,1197,1197,1193,1193,1193,1193,1193,1193,1193,1193,1193,1193,1193,1197,1197,1197,1197,1197,1193,1193,1193,1193,1193,1193,1193,1193,1193,1193,1013,1013,1010,1010,1010,1007,1007,1007,1007,1010,1010,1013,1013,1013,1016,1016,1019,1022,1022,1022,1025,1025,1025,1181,1181,1181,1181,1181,1181,1177,1177,1177,1177,1177,1177,1177,1177,1181,1181,1181,1181,1181,1181,1181,1181,1177,1177,1177,1177,1173,1173,1177,1177,1181,1181,1181,1181,1177,1177,1177,1177,1177,1177,1177,1177,1177,1177,1177,1177,1177,1177,1177,1173,1173,1173,1173,1173,1173,1173,1169,1169,1169,1169,1165,1165,1165,1165,1165,1169,1165,1165,1169,1169,1169,1165,1165,1165,1165,1165,1165,1165,1165,1165,1165,1165,1165,1165,1165,1165,1161,1161,1161,1161,1161,0,0,0,0,0,0,0,0,0,757,755,754,754,752,752,750,749,744,742,741,741,741,741,741,741,741,741,746,747,747,749,750,754,754,757,757,759,761,762,764,766,0,0,0,0,0,1145,1145,1145,1145,1149,1149,1149,1149,1145,1145,1149,1145,1145,1145,1145,1145,1145,1145,1145,1145,1145,1145,1145,1145,1145,1145,1145,1145,1145,1145,903,903,903,906,906,906,906,906,906,908,908,908,910,910,910,910,913,915,915,918,920,925,928,933,935,938,938,940,940,943,948,948,1138,1138,1138,1138,1138,1138,1138,1138,1134,1134,1134,1130,1130,1130,1130,1130,1130,1130,1130,1130,1130,1130,1130,1130,1130,1130,1130,1130,1130,1126,1126,1126,1126,1126,1126,1126,1126,1126,1126,1126,1126,1126,1126,1126,1126,1123,1123,1123,1123,1123,1123,1123,1123,1123,1119,1119,1119,1119,1119,1119,1119,1119,1119,1119,1119,1119,1119,1119,1119,1119,1115,1115,1119,1119,1119,1119,1119,1119,1119,1115,1115,1112,1112,1115,1115,1115,1115,1115,1115,1112,1112,1112,1112,1112,1112,1112,1112,1112,1115,1115,1115,1112,1112,1112,1112,1108,1108,1108,1108,1108,1108,1108,1108,1108,1108,1108,1108,1108,1108,1108,1108,1108,1105,1105,1105,1105,1105,1105,1105,1105,1105,1105,1105,1105,1105,1105,1105,1105,1105,1105,1105,1105,1101,1101,1101,1101,1101,1101,1101,1101,1101,1101,1101,1101,1101,1097,1097,1097,1097,1097,1097,1097,1094,1094,1094,1094,1097,1097,1094,1094,1094,1090,1090,1090,1090,1090,1090,1090,1090,1090,1090,1087,1087,1087,1087,1087,1087,1087,1087,1084,1084,1084,1084,1084,1084,1084,1084,1084,1084,1084,1084,1080,1080,1080,1084,1080,1080,1080,1080,1080,1080,1080,1080,1080,1080,1080,1080,1080,1080,1013,1013,1013,1016,1016,1016,1013,1013,1013,1077,1077,1077,1077,1077,1077,1077,1077,1077,1077,959,956,954,954,954,948,948,948,946,943,943,943,943,943,943,943,943,943,940,938,935,935,933,930,930,928,928,0,0,0,0,0,0,0,0,0,0,0,0,0,0,0,0,0,0,0,0,0,0,0,0,0,0,0,0,0,0,0,0,0,0,0,0,0,0,0,0,0,0,0
0,0,0,0,0,0,0,0,1210,1210,1210,1210,1210,1210,1206,1206,1206,1202,1202,1202,1202,1202,1206,1206,1206,1210,1206,1206,1206,1210,1210,1210,1210,1210,1210,1210,1210,1210,1210,1210,1206,1206,1206,1206,1206,1210,1206,1206,1206,1206,1206,1206,1206,1202,1202,1202,1202,1202,1202,1202,1202,1202,1202,1202,1202,1202,1202,1202,1197,1197,1197,1197,1197,1197,1197,1197,1197,1197,1197,1197,1197,1197,1193,1193,1193,1193,1189,1189,1189,1189,1189,1189,1189,1193,1193,1193,1193,1193,1193,1193,1193,1193,1189,1189,1189,1185,1181,1181,1181,1016,1016,1016,1013,1013,1010,1010,1010,1010,1010,1010,1013,1013,1013,1016,1016,1016,1019,1022,1022,1025,1028,1025,1025,1181,1181,1181,1181,1181,1177,1177,1177,1177,1173,1173,1173,1173,1177,1177,1177,1177,1177,1177,1177,1177,1177,1177,1177,1173,1169,1169,1169,1173,1169,1169,1169,1173,1177,1177,1177,1173,1173,1173,1177,1173,1173,1173,1173,1173,1173,1169,1169,1169,1169,1169,1169,1169,1169,1169,1165,1165,1165,1165,1165,1165,1165,1165,1165,1165,1165,1165,1165,1165,1165,1165,1165,1165,1165,1165,1161,1161,1161,1161,1161,1161,1161,1161,1161,1161,1161,1161,1161,1161,1157,1157,1157,0,0,0,0,0,0,0,0,757,757,755,754,754,752,752,750,747,744,742,741,741,741,741,741,741,742,746,747,747,749,750,754,754,757,757,761,762,764,764,0,0,0,0,0,0,1141,1141,1141,1145,1145,1145,1145,1145,1145,1145,1145,1145,1145,1141,1141,1141,1141,1141,1141,1141,1141,1141,1145,1145,1145,1145,1145,1145,1145,1145,903,903,903,903,903,903,903,906,906,908,908,908,908,908,910,910,910,913,918,920,923,925,930,933,935,938,940,940,943,946,1134,1134,1134,1134,1134,1134,1134,1134,1134,1134,1134,1130,1126,1126,1126,1126,1130,1130,1130,1130,1130,1130,1126,1126,1126,1123,1123,1123,1126,1126,1126,1126,1126,1126,1126,1123,1123,1123,1123,1123,1123,1123,1123,1123,1123,1123,1123,1123,1123,1119,1119,1119,1119,1119,1119,1119,1119,1119,1119,1115,1115,1115,1115,1115,1115,1115,1115,1115,1115,1115,1115,1112,1112,1112,1115,1115,1115,1115,1115,1115,1115,1112,1112,1112,1112,1108,1108,1108,1108,1108,1108,1108,1108,1108,1112,1112,1112,1108,1108,1108,1108,1108,1108,1108,1108,1108,1108,1108,1108,1108,1108,1108,1105,1105,1105,1105,1108,1108,1105,1105,1108,1105,1105,1105,1105,1105,1105,1105,1105,1105,1105,1105,1105,1105,1105,1105,1105,1105,1101,1101,1101,1101,1101,1101,1097,1097,1097,1097,1097,1097,1101,1097,1097,1097,1097,1097,1097,1097,1097,1097,1094,1094,1094,1094,1094,1094,1094,1094,1094,1094,1094,1090,1090,1090,1087,1087,1090,1090,1090,1090,1087,1087,1087,1087,1084,1084,1084,1084,1084,1084,1084,1084,1080,1080,1080,1080,1080,1080,1080,1080,1080,1084,1080,1080,1080,1080,1077,1077,1077,1077,1077,1077,1077,1077,1077,1077,1077,1077,1077,1077,1077,1013,1013,1013,1016,1016,1016,1013,1013,1013,1077,1077,1077,1077,1077,1077,1077,1077,1077,1077,956,954,951,951,954,951,951,948,946,946,946,946,946,946,946,946,946,946,943,943,940,938,935,935,930,928,928,0,0,0,0,0,0,0,0,0,0,0,0,0,0,0,0,0,0,0,0,0,0,0,0,0,0,0,0,0,0,0,0,0,0,0,0,0,0,0,0,0,0,0
0,0,0,0,0,0,0,0,1210,1206,1206,1206,1206,1206,1206,1202,1202,1202,1202,1202,1202,1202,1202,1202,1206,1206,1206,1206,1206,1206,1206,1206,1206,1206,1206,1206,1206,1206,1206,1202,1202,1202,1202,1197,1197,1202,1202,1202,1202,1202,1202,1202,1202,1202,1197,1197,1197,1197,1197,1197,1197,1197,1197,1197,1197,1197,1197,1197,1197,1197,1197,1197,1197,1197,1197,1197,1197,1193,1193,1193,1193,1193,1193,1193,1189,1189,1185,1185,1185,1185,1185,1185,1185,1189,1189,1189,1189,1193,1193,1193,1189,1189,1185,1185,1185,1181,1181,1181,1181,0,1013,1013,1013,1013,1013,1010,1010,1010,1010,1010,1013,1013,1013,1016,1016,1019,1019,1022,1025,1028,1028,1028,1028,1177,1177,1177,1177,1177,1177,1177,1169,1165,1165,1169,1173,1173,1173,1173,1177,1177,1177,1177,1177,1173,1173,1173,1169,1169,1165,1165,1165,1169,1169,1169,1169,1169,1173,1173,1173,1173,1173,1173,1173,1169,1169,1169,1169,1169,1169,1165,1165,1165,1165,1169,1165,1165,1165,1165,1165,1165,1165,1165,1165,1165,1165,1165,1165,1165,1165,1165,1165,1165,1165,1165,1165,1165,1161,1161,1161,1161,1161,1157,1157,1157,1157,1157,1157,1161,1161,1161,1157,1157,1157,1157,1157,0,0,0,0,0,0,0,0,757,757,755,754,754,754,752,750,749,746,744,742,742,742,742,742,742,742,747,747,749,750,752,754,755,757,757,762,762,764,764,0,0,0,0,0,0,1141,1141,1141,1141,1141,1141,1141,1141,1141,1141,1141,1141,1141,1141,1141,1141,1138,1138,1138,1138,1141,1141,1141,1141,1141,1141,1141,1145,1145,901,901,901,901,901,903,903,903,903,903,906,906,906,908,908,910,910,910,913,918,923,925,928,930,933,935,938,943,943,946,946,1134,1134,1130,1130,1130,1130,1130,1130,1130,1126,1126,1123,1123,1123,1123,1123,1123,1123,1123,1123,1126,1123,1123,1123,1123,1123,1123,1123,1123,1123,1123,1123,1123,1123,1123,1123,1123,1123,1123,1119,1119,1119,1119,1119,1119,1119,1119,1115,1115,1119,1119,1119,1119,1119,1119,1119,1115,1115,1115,1115,1112,1112,1112,1112,1112,1112,1112,1112,1112,1112,1112,1112,1108,1108,1112,1112,1112,1112,1112,1112,1112,1112,1108,1108,1108,1108,1108,1108,1108,1105,1105,1105,1105,1108,1108,1108,1108,1108,1108,1105,1105,1105,1108,1108,1108,1108,1105,1105,1105,1105,1105,1105,1105,1105,1105,1105,1105,1105,1105,1105,1105,1105,1105,1105,1105,1105,1101,1101,1101,1101,1101,1101,1101,1101,1101,1101,1101,1101,1097,1097,1097,1097,1097,1097,1094,1094,1094,1094,1094,1094,1094,1094,1094,1097,1097,1094,1094,1094,1094,1094,1094,1094,1090,1090,1090,1090,1090,1090,1090,1090,1090,1090,1087,1087,1084,1084,1087,1087,1087,1087,1084,1084,1084,1084,1080,1080,1080,1080,1080,1080,1080,1080,1080,1080,1080,1080,1080,1080,1080,1080,1080,1080,1077,1077,1077,1073,1073,1073,1073,1070,1070,1077,1077,1077,1073,1073,1073,1073,1073,1073,1077,1013,1013,1013,1016,1016,1013,1013,1013,1080,1077,1077,1073,1073,1073,1073,1073,1073,1073,1077,956,954,951,951,954,951,951,948,946,946,946,946,946,946,946,946,948,948,948,946,946,943,940,938,933,928,928,0,0,0,0,0,0,0,0,0,0,0,0,0,0,0,0,0,0,0,0,0,0,0,0,0,0,0,0,0,0,0,0,0,0,0,0,0,0,0,0,0,0,0
0,0,0,0,0,0,0,0,1202,1202,1202,1202,1202,1202,1202,1197,1197,1197,1197,1197,1197,1197,1197,1197,1202,1202,1197,1197,1197,1202,1197,1197,1197,1197,1197,1206,1202,1202,1197,1197,1197,1197,1197,1193,1193,1197,1197,1197,1197,1197,1197,1197,1197,1197,1197,1197,1197,1197,1197,1197,1197,1197,1197,1197,1197,1197,1197,1193,1193,1193,1193,1193,1193,1193,1193,1193,1193,1193,1193,1193,1193,1193,1189,1189,1189,1185,1185,1181,1181,1181,1181,1181,1181,1185,1185,1181,1181,1189,1189,1189,1185,1185,1181,1181,1181,1181,1181,1181,1181,1177,0,1016,1016,1016,1013,1013,1013,1013,1013,1013,1013,1013,1016,1016,1016,1019,1022,1022,1025,1028,1028,1028,1028,1177,1177,1177,1177,1177,1169,1165,1165,1165,1165,1165,1165,1165,1165,1173,1173,1173,1173,1173,1173,1169,1169,1169,1165,1165,1165,1165,1165,1165,1165,1165,1165,1165,1165,1169,1169,1165,1165,1165,1165,1165,1169,1165,1165,1165,1165,1165,1165,1165,1165,1165,1165,1165,1165,1165,1161,1161,1161,1161,1161,1161,1161,1161,1161,1161,1161,1161,1161,1161,1161,1161,1161,1161,1161,1161,1157,1157,1157,1157,1157,1157,1157,1157,1157,1157,1161,1157,1157,1157,1153,1153,1157,0,0,0,0,0,0,0,0,759,757,757,755,755,754,752,752,750,747,746,744,744,744,744,744,744,744,747,747,750,750,754,755,755,757,759,762,762,764,764,767,0,0,0,0,0,1141,1141,1141,1141,1141,1141,1138,1138,1138,1138,1138,1141,1141,1138,1138,1138,1138,1138,1138,1138,1138,1138,1141,1141,1141,1141,1141,896,896,898,898,898,898,898,901,901,901,901,901,903,906,906,908,908,910,910,913,915,920,923,925,928,930,933,935,938,943,943,946,1123,1123,1126,1130,1130,1130,1130,1130,1130,1126,1123,1123,1123,1123,1123,1123,1123,1123,1123,1123,1123,1123,1123,1123,1123,1123,1119,1119,1119,1119,1119,1119,1119,1119,1119,1119,1119,1119,1119,1119,1119,1119,1115,1115,1115,1115,1115,1115,1112,1112,1115,1115,1115,1115,1115,1115,1115,1115,1112,1112,1112,1112,1112,1108,1108,1108,1112,1108,1108,1108,1108,1108,1108,1108,1108,1108,1108,1108,1108,1108,1108,1108,1108,1108,1108,1108,1105,1105,1105,1105,1105,1105,1105,1105,1105,1105,1105,1105,1105,1105,1105,1105,1105,1105,1105,1105,1105,1105,1105,1105,1105,1105,1105,1101,1101,1101,1101,1101,1101,1101,1101,1105,1105,1101,1101,1101,1101,1101,1101,1097,1097,1097,1097,1097,1097,1097,1097,1097,1097,1094,1094,1094,1094,1094,1094,1094,1094,1090,1090,1090,1090,1090,1090,1090,1090,1090,1090,1094,1090,1090,1090,1090,1090,1090,1090,1090,1090,1090,1090,1090,1087,1084,1084,1084,1084,1084,1084,1084,1084,1084,1080,1080,1080,1080,1080,1077,1077,1077,1077,1077,1080,1080,1080,1080,1077,1077,1077,1077,1077,1077,1077,1077,1077,1077,1073,1073,1070,1070,1070,1070,1070,1070,1070,1070,1070,1073,1073,1073,1073,1073,1073,1073,1013,1013,1013,1016,1016,1013,1013,1016,1080,1077,1073,1073,1070,1070,1070,1070,1070,1070,1070,959,956,954,954,954,951,951,948,948,946,946,946,946,946,946,948,948,948,948,948,948,946,946,943,938,938,948,0,0,0,0,0,0,0,0,0,0,0,0,0,0,0,0,0,0,0,0,0,0,0,0,0,0,0,0,0,0,0,0,0,0,0,0,0,0,0,0,0,0,0
0,0,0,0,0,0,0,0,1202,1202,1202,1202,1197,1197,1197,1197,1197,1197,1197,1197,1197,1197,1197,1197,1197,1197,1197,1197,1197,1197,1197,1197,1189,1189,1193,1193,1193,1193,1193,1193,1193,1193,1193,1193,1193,1193,1193,1193,1193,1197,1197,1197,1197,1197,1193,1193,1193,1193,1193,1193,1193,1193,1193,1193,1193,1193,1193,1193,1189,1189,1189,1189,1189,1185,1185,1189,1189,1189,1189,1189,1189,1189,1189,1185,1185,1181,1181,1181,1181,1181,1181,1181,1181,1181,1181,1181,1181,1185,1185,1185,1185,1181,1181,1181,1181,1181,1177,1177,1177,1177,1025,1016,1016,1016,1016,1016,1013,1013,1013,1013,1013,1013,1016,1016,1016,1019,1022,1022,1025,1028,1028,1028,1028,1177,1177,1173,1173,1169,1169,1165,1165,1165,1165,1165,1165,1165,1165,1169,1169,1169,1169,1169,1169,1165,1165,1165,1165,1165,1165,1165,1161,1161,1165,1165,1161,1161,1161,1165,1165,1165,1165,1165,1165,1165,1161,1161,1161,1165,1165,1161,1161,1161,1161,1161,1161,1161,1161,1161,1161,1157,1157,1157,1157,1157,1161,1157,1157,1161,1161,1161,1161,1161,1161,1161,1161,1157,1157,1157,1153,1153,1153,1153,1153,1153,1153,1153,1153,1153,1153,1153,1149,1149,1149,1149,1149,0,0,0,0,0,0,0,761,759,759,757,755,755,754,752,752,750,749,747,746,746,746,746,746,746,746,747,747,750,750,754,755,755,757,761,762,762,766,766,767,0,0,0,0,0,0,1138,1138,1138,1138,1138,1138,1134,1134,1134,1134,1138,1138,1134,1134,1134,1134,1134,1134,1134,1134,1134,1141,1141,1141,896,896,896,896,896,896,896,896,898,898,898,898,898,898,901,903,903,906,908,910,910,913,918,920,923,928,928,930,933,935,938,943,1119,1119,1119,1123,1123,1126,1126,1126,1126,1123,1123,1123,1123,1119,1119,1119,1119,1119,1119,1119,1119,1119,1119,1119,1119,1119,1119,1119,1119,1119,1115,1115,1115,1115,1115,1115,1115,1115,1115,1115,1115,1115,1115,1115,1115,1115,1115,1112,1112,1112,1112,1112,1112,1112,1112,1112,1112,1112,1112,1112,1112,1112,1108,1108,1108,1108,1108,1108,1108,1108,1108,1108,1108,1105,1105,1108,1105,1105,1105,1105,1105,1105,1105,1105,1105,1105,1105,1105,1105,1105,1105,1105,1101,1101,1101,1101,1101,1101,1101,1101,1097,1097,1101,1101,1101,1101,1101,1105,1105,1105,1105,1105,1101,1101,1101,1097,1097,1097,1097,1097,1097,1097,1097,1101,1101,1097,1097,1097,1097,1097,1097,1094,1094,1094,1094,1094,1094,1094,1094,1094,1090,1090,1090,1090,1090,1090,1090,1090,1090,1090,1090,1087,1087,1087,1090,1087,1087,1087,1087,1087,1087,1087,1090,1087,1087,1087,1087,1087,1087,1087,1087,1084,1084,1084,1084,1080,1080,1080,1080,1080,1080,1080,1080,1080,1077,1077,1077,1077,1073,1073,1073,1073,1077,1077,1077,1077,1077,1077,1077,1077,1073,1073,1073,1073,1073,1073,1073,1073,1070,1070,1070,1070,1067,1067,1067,1067,1067,1067,1067,1067,1067,1070,1070,1073,1016,1013,1013,1013,1016,1013,1013,1016,1016,1077,1073,1070,1070,1067,1067,1067,1067,1067,1067,959,956,954,954,954,951,951,948,948,948,948,948,948,948,948,948,948,948,948,948,948,948,948,946,946,946,948,0,0,0,0,0,0,0,0,0,0,0,0,0,0,0,0,0,0,0,0,0,0,0,0,0,0,0,0,0,0,0,0,0,0,0,0,0,0,0,0,0,0,0
0,0,0,0,0,0,0,0,1197,1197,1197,1197,1197,1193,1193,1193,1193,1193,1193,1193,1193,1193,1193,1193,1193,1193,1193,1189,1189,1189,1189,1189,1185,1185,1193,1193,1193,1193,1193,1193,1193,1193,1189,1189,1189,1189,1189,1189,1193,1193,1193,1193,1193,1193,1193,1193,1193,1193,1193,1193,1193,1193,1193,1193,1193,1189,1189,1189,1185,1185,1185,1185,1185,1185,1185,1189,1189,1189,1185,1185,1185,1185,1185,1181,1181,1181,1181,1181,1181,1181,1181,1181,1181,1181,1181,1181,1181,1181,1181,1181,1181,1181,1177,1177,1177,1177,1177,1177,1177,1177,1025,1025,1022,1019,1019,1019,1016,1013,1013,1013,1013,1013,1016,1016,1016,1019,1022,1022,1025,1028,1028,1028,1028,1173,1173,1173,1169,1169,1165,1165,1165,1161,1161,1161,1161,1161,1161,1165,1165,1165,1165,1165,1165,1165,1165,1161,1161,1161,1161,1161,1161,1161,1161,1161,1161,1157,1157,1157,1161,1161,1161,1161,1161,1161,1161,1161,1161,1161,1161,1157,1157,1161,1161,1161,1161,1157,1157,1157,1157,1157,1153,1153,1157,1157,1157,1157,1157,1157,1157,1157,1157,1157,1157,1157,1157,1157,1157,1153,1153,1149,1149,1149,1149,1149,1149,1149,1149,1149,1149,1149,1145,1145,1145,1145,1145,0,0,0,0,0,0,0,761,759,759,759,757,755,754,752,752,752,750,747,747,747,746,746,746,746,747,747,749,750,752,754,755,755,757,761,762,764,766,767,767,769,0,0,0,0,0,1138,1138,1138,1138,1134,1134,1134,1134,1134,1134,1134,1134,1134,1134,1134,1134,1134,1134,1134,1134,1134,1134,894,894,894,894,896,894,894,894,894,894,894,894,894,896,896,896,898,901,901,906,908,910,913,915,918,920,923,928,928,930,935,938,1115,1115,1115,1119,1119,1123,1123,1123,1123,1123,1123,1119,1119,1119,1119,1119,1119,1119,1119,1119,1119,1119,1115,1115,1115,1115,1115,1115,1115,1115,1115,1115,1115,1115,1112,1112,1112,1112,1112,1112,1112,1112,1108,1108,1108,1108,1108,1112,1112,1108,1108,1108,1108,1108,1108,1108,1108,1108,1108,1108,1108,1108,1108,1108,1108,1108,1108,1108,1108,1105,1105,1105,1105,1105,1105,1105,1105,1105,1105,1105,1105,1105,1105,1105,1105,1105,1105,1105,1105,1105,1105,1105,1105,1105,1101,1101,1101,1101,1097,1097,1097,1097,1097,1097,1094,1094,1094,1097,1097,1101,1101,1101,1101,1101,1101,1101,1097,1097,1097,1097,1097,1097,1094,1094,1094,1094,1094,1094,1090,1090,1090,1094,1094,1094,1094,1094,1094,1094,1094,1090,1090,1090,1087,1087,1087,1087,1087,1087,1087,1087,1087,1087,1087,1087,1087,1087,1087,1084,1084,1084,1084,1084,1084,1080,1080,1080,1080,1080,1084,1084,1084,1084,1084,1084,1080,1080,1080,1080,1080,1080,1080,1080,1080,1077,1077,1077,1077,1077,1073,1073,1070,1070,1070,1070,1073,1073,1073,1077,1073,1073,1073,1073,1073,1073,1070,1070,1070,1070,1070,1070,1070,1067,1067,1067,1067,1067,1067,1067,1067,1063,1063,1063,1063,1063,1063,1067,1013,1013,1013,1013,1013,1013,1013,1016,1016,1073,1070,1067,1067,1067,1067,1067,1067,1067,1067,959,956,954,954,954,951,951,948,948,948,948,948,948,948,948,948,948,948,948,948,948,948,948,948,948,948,948,1047,1041,1041,0,0,0,0,0,0,0,0,0,0,0,0,0,0,0,0,0,0,0,0,0,0,0,0,0,0,0,0,0,0,0,0,0,0,0,0,0,0,0,0
0,0,0,0,0,0,0,0,1197,1197,1197,1193,1189,1189,1189,1193,1193,1193,1193,1193,1193,1189,1189,1189,1189,1193,1193,1189,1189,1189,1189,1189,1185,1185,1189,1189,1189,1189,1189,1189,1189,1189,1189,1189,1185,1185,1185,1185,1185,1189,1189,1189,1189,1189,1185,1185,1185,1185,1185,1185,1185,1189,1189,1189,1189,1189,1189,1185,1181,1181,1181,1181,1181,1181,1181,1185,1185,1185,1181,1181,1181,1181,1181,1177,1177,1177,1177,1177,1177,1177,1177,1181,1181,1181,1181,1181,1181,1177,1177,1177,1177,1177,1177,1177,1177,1177,1177,1177,1177,1177,1025,1025,1025,1022,1022,1022,1019,1016,1016,1013,1013,1013,1016,1016,1016,1019,1019,1022,1025,1028,1028,1028,1028,1169,1169,1169,1169,1165,1165,1165,1165,1161,1161,1161,1161,1157,1157,1165,1165,1165,1165,1165,1165,1161,1161,1161,1161,1161,1161,1161,1161,1161,1161,1161,1157,1157,1157,1157,1157,1157,1157,1157,1161,1161,1161,1161,1157,1157,1157,1157,1153,1153,1157,1157,1157,1157,1157,1157,1153,1153,1153,1153,1153,1153,1153,1153,1153,1153,1153,1153,1153,1153,1153,1153,1153,1153,1153,1153,1149,1149,1149,1149,1149,1149,1149,1149,1149,1149,1149,1145,1145,1145,1141,1141,1141,1141,0,0,0,0,0,0,0,761,761,759,759,759,755,754,752,752,750,749,747,747,746,746,746,746,747,747,749,750,754,754,757,757,757,761,762,766,767,767,767,769,0,0,0,0,0,0,1134,1134,1134,1134,1134,1134,1134,1130,1130,1130,1130,1130,1130,1130,1130,1130,1130,1130,1130,1130,889,894,894,894,894,894,894,894,894,894,894,894,894,894,894,894,896,898,898,901,906,908,910,915,915,918,920,925,928,930,930,935,938,1115,1115,1115,1119,1119,1119,1119,1119,1119,1119,1119,1119,1115,1115,1115,1115,1119,1119,1119,1119,1119,1115,1115,1115,1112,1112,1112,1112,1112,1112,1112,1112,1112,1112,1112,1112,1108,1108,1108,1108,1108,1108,1108,1108,1108,1108,1108,1108,1108,1108,1108,1108,1105,1105,1105,1105,1105,1108,1108,1108,1108,1108,1105,1105,1105,1105,1105,1105,1105,1105,1105,1101,1101,1101,1101,1101,1101,1101,1101,1101,1101,1101,1101,1101,1097,1097,1097,1097,1101,1101,1101,1101,1101,1101,1097,1097,1097,1097,1094,1094,1094,1094,1094,1094,1094,1094,1094,1094,1094,1094,1094,1094,1094,1097,1094,1094,1094,1094,1094,1094,1094,1094,1094,1094,1094,1094,1094,1090,1090,1090,1090,1090,1090,1090,1090,1090,1090,1090,1090,1087,1087,1087,1084,1084,1084,1084,1084,1084,1084,1084,1084,1087,1084,1084,1084,1084,1084,1084,1084,1084,1080,1080,1080,1080,1080,1080,1080,1080,1080,1080,1080,1080,1080,1080,1080,1080,1080,1077,1077,1080,1077,1077,1077,1077,1077,1077,1073,1073,1070,1070,1070,1070,1067,1067,1070,1073,1073,1073,1070,1070,1070,1070,1070,1070,1067,1067,1067,1067,1067,1067,1067,1067,1067,1067,1063,1063,1063,1063,1063,1063,1060,1060,1057,1057,1057,1057,1013,1013,1013,1013,1013,1013,1013,1016,1016,1016,1070,1067,1067,1063,1063,1063,1063,1063,959,959,956,954,954,954,951,951,948,948,948,948,948,948,948,948,948,951,951,951,948,948,948,1050,1050,1050,1050,1047,1047,1041,1041,0,0,0,0,0,0,0,0,0,0,0,0,0,0,0,0,0,0,0,0,0,0,0,0,0,0,0,0,0,0,0,0,0,0,0,0,0,0,0,0
0,0,0,0,0,0,0,0,1197,1193,1189,1189,1185,1185,1185,1189,1189,1189,1189,1189,1189,1185,1185,1185,1185,1189,1189,1185,1185,1185,1185,1185,1181,1181,1181,1181,1185,1185,1185,1185,1185,1189,1185,1185,1181,1181,1181,1181,1181,1181,1185,1185,1189,1185,1185,1185,1181,1181,1181,1181,1181,1181,1181,1181,1181,1181,1181,1181,1177,1177,1177,1177,1177,1177,1177,1181,1181,1181,1177,1177,1177,1177,1181,1177,1173,1173,1177,1177,1177,1177,1177,1173,1173,1173,1173,1173,1173,1177,1173,1173,1177,1173,1173,1173,1165,1165,1165,1165,1165,1025,1025,1025,1025,1022,1022,1022,1019,1016,1016,1016,1016,1016,1016,1016,1016,1019,1019,1022,1025,1028,1031,1034,1034,1169,1169,1165,1165,1165,1165,1165,1161,1161,1161,1161,1161,1157,1157,1161,1161,1161,1161,1161,1161,1161,1161,1161,1161,1157,1157,1157,1157,1157,1157,1157,1157,1153,1153,1153,1153,1153,1153,1157,1157,1157,1157,1157,1157,1153,1153,1153,1153,1153,1153,1153,1149,1149,1149,1149,1153,1149,1149,1149,1149,1149,1149,1149,1149,1149,1149,1149,1149,1149,1149,1149,1149,1149,1149,1149,1149,1145,1145,1145,1145,1145,1145,1145,1145,1145,1145,1145,1141,1141,1138,1138,1138,1138,1138,0,0,0,0,0,0,762,761,761,761,761,755,754,754,754,752,749,749,747,747,747,747,747,747,747,749,752,754,755,755,757,757,761,762,766,767,769,769,769,0,0,0,0,0,0,1134,1130,1130,1130,1130,1130,1130,1130,1130,1126,1126,1126,1130,1130,1130,1130,1130,1130,1130,1130,889,889,889,891,891,891,891,891,891,891,891,891,891,891,894,894,894,898,898,901,906,908,910,915,915,918,920,925,928,930,930,935,1115,1115,1115,1115,1115,1115,1115,1115,1115,1115,1115,1115,1112,1112,1112,1115,1115,1115,1115,1115,1115,1115,1115,1112,1112,1108,1108,1108,1108,1112,1112,1112,1112,1112,1108,1108,1108,1108,1108,1105,1105,1105,1105,1105,1105,1105,1105,1108,1105,1105,1105,1105,1105,1101,1101,1105,1105,1105,1105,1105,1105,1105,1105,1105,1105,1105,1105,1101,1101,1101,1101,1101,1101,1101,1101,1101,1097,1097,1101,1097,1097,1097,1097,1097,1097,1094,1094,1094,1094,1097,1097,1094,1094,1094,1094,1094,1094,1094,1094,1094,1094,1094,1094,1094,1094,1090,1090,1090,1090,1090,1090,1090,1090,1090,1090,1090,1094,1094,1090,1090,1090,1090,1090,1090,1090,1090,1090,1090,1087,1084,1084,1084,1084,1087,1087,1087,1087,1087,1087,1087,1084,1084,1084,1080,1080,1080,1080,1080,1080,1080,1080,1080,1084,1080,1080,1080,1080,1080,1080,1080,1080,1077,1077,1077,1077,1077,1077,1077,1077,1077,1077,1077,1077,1077,1077,1077,1077,1077,1077,1077,1077,1077,1077,1077,1073,1073,1073,1070,1070,1067,1067,1067,1067,1067,1067,1067,1070,1070,1070,1067,1067,1067,1067,1067,1067,1067,1067,1067,1067,1067,1067,1067,1067,1067,1063,1063,1063,1063,1063,1063,1060,1057,1054,1054,1054,1054,1054,1013,1013,1013,1013,1013,1016,1016,1016,1016,1016,1070,1067,1063,1063,1060,1060,1060,1063,959,959,956,954,954,954,951,951,951,948,948,951,951,951,951,951,951,954,954,951,951,1050,1050,1050,1050,1050,1047,1047,1044,1041,1041,1044,1047,0,0,0,0,0,0,0,0,0,0,0,0,0,0,0,0,0,0,0,0,0,0,0,0,0,0,0,0,0,0,0,0,0,0,0,0,0,0
0,0,0,0,0,0,0,0,1197,1189,1189,1189,1185,1181,1181,1181,1181,1185,1185,1185,1185,1185,1181,1181,1185,1185,1185,1185,1181,1181,1185,1181,1181,1181,1181,1181,1181,1181,1181,1181,1181,1185,1185,1185,1181,1181,1181,1181,1181,1181,1181,1181,1181,1177,1177,1177,1181,1181,1181,1177,1177,1181,1181,1181,1181,1181,1181,1177,1177,1177,1177,1177,1177,1173,1173,1177,1177,1177,1177,1177,1177,1177,1177,1169,1169,1173,1173,1173,1173,1173,1177,1173,1169,1169,1173,1169,1169,1173,1173,1173,1173,1165,1165,1165,1161,1161,1161,1161,1161,1025,1025,1025,1025,1025,1025,1022,1022,1019,1019,1016,1016,1016,1016,1016,1016,1019,1022,1025,1028,1031,1031,1034,1034,1165,1165,1165,1165,1161,1161,1161,1161,1161,1161,1157,1157,1157,1157,1161,1161,1161,1161,1161,1157,1157,1157,1157,1157,1157,1157,1157,1157,1157,1157,1153,1153,1149,1149,1149,1149,1149,1149,1153,1153,1153,1153,1153,1153,1149,1149,1149,1149,1149,1149,1149,1149,1149,1149,1145,1145,1145,1145,1145,1149,1149,1149,1149,1145,1145,1145,1145,1145,1145,1145,1145,1145,1145,1145,1145,1145,1145,1145,1145,1145,1145,1145,1141,1141,1141,1141,1138,1138,1138,1134,1134,1134,1134,1134,1134,1134,0,0,0,0,766,761,761,761,761,761,757,757,755,754,750,749,749,747,747,747,747,747,747,749,752,754,755,755,757,759,762,764,766,767,771,769,769,0,0,0,0,0,1134,1134,1130,1130,1130,1126,1126,1126,1126,1126,1126,1126,1126,1126,1126,1126,1126,1130,1130,1130,887,887,887,889,889,889,891,891,889,889,889,891,891,891,891,891,894,894,898,898,901,906,910,913,915,918,918,923,925,928,930,930,1119,1115,1115,1115,1115,1115,1115,1115,1115,1115,1112,1112,1112,1112,1108,1108,1112,1112,1112,1112,1112,1112,1112,1112,1112,1108,1108,1108,1108,1108,1108,1108,1108,1108,1108,1108,1108,1105,1105,1105,1105,1101,1101,1101,1101,1101,1105,1105,1105,1105,1105,1105,1101,1101,1101,1101,1101,1101,1101,1105,1105,1105,1105,1101,1101,1101,1101,1101,1101,1101,1101,1097,1097,1097,1097,1097,1097,1097,1097,1097,1097,1094,1094,1094,1094,1094,1094,1094,1094,1094,1094,1094,1090,1090,1090,1094,1090,1090,1090,1090,1090,1090,1090,1090,1090,1090,1090,1090,1090,1090,1090,1090,1090,1090,1090,1087,1087,1087,1087,1087,1087,1090,1090,1087,1087,1087,1087,1087,1087,1084,1084,1084,1084,1084,1084,1087,1087,1087,1087,1084,1084,1080,1080,1080,1080,1080,1080,1080,1080,1080,1077,1077,1077,1080,1080,1080,1080,1077,1077,1077,1077,1073,1073,1073,1073,1070,1070,1070,1073,1073,1073,1073,1073,1073,1073,1073,1073,1073,1073,1073,1073,1077,1077,1077,1073,1073,1070,1070,1070,1067,1067,1067,1067,1067,1067,1067,1067,1067,1067,1067,1067,1067,1067,1067,1067,1063,1063,1063,1063,1067,1063,1063,1063,1063,1063,1063,1063,1063,1063,1060,1060,1057,1054,1054,1054,1054,1054,1050,1016,1013,1013,1013,1013,1013,1013,1016,1016,1016,1019,1063,1060,1060,1060,1057,1057,959,959,959,956,956,954,954,954,954,951,951,951,954,951,951,954,951,951,954,954,951,951,1047,1047,1047,1047,1047,1047,1044,1044,1041,1041,1044,1044,1044,1044,0,0,0,0,0,0,0,0,0,0,0,0,0,0,0,0,0,0,0,0,0,0,0,0,0,0,0,0,0,0,0,0,0,0,0,0
0,0,0,0,0,0,0,0,1189,1181,1181,1185,1181,1181,1181,1181,1181,1181,1181,1181,1181,1181,1181,1181,1181,1181,1181,1181,1181,1181,1181,1177,1177,1177,1177,1177,1177,1177,1181,1181,1181,1181,1181,1181,1181,1181,1177,1177,1177,1177,1177,1177,1177,1177,1177,1177,1177,1173,1173,1173,1177,1177,1177,1177,1177,1177,1177,1177,1173,1173,1173,1173,1169,1169,1169,1169,1173,1173,1169,1169,1173,1173,1173,1169,1169,1169,1169,1169,1169,1169,1173,1169,1169,1169,1169,1169,1169,1169,1169,1169,1169,1165,1165,1165,1161,1161,1161,1161,1161,1153,1025,1025,1025,1025,1025,1025,1022,1022,1019,1016,1016,1016,1016,1016,1019,1022,1022,1025,1028,1031,1031,1034,1034,1038,1165,1165,1161,1157,1157,1153,1153,1153,1153,1157,1157,1157,1153,1153,1157,1157,1157,1157,1153,1153,1153,1153,1153,1153,1153,1153,1149,1149,1149,1149,1149,1149,1149,1149,1149,1149,1149,1149,1149,1149,1149,1149,1149,1149,1149,1149,1145,1145,1145,1145,1145,1145,1145,1145,1145,1141,1141,1141,1141,1141,1141,1141,1145,1145,1145,1145,1145,1145,1145,1145,1145,1141,1141,1145,1141,1141,1141,1141,1141,1141,1141,1138,1138,1138,1138,1138,1138,1134,1134,1134,1134,1134,1134,1134,1134,1134,0,0,0,766,764,764,762,761,761,759,757,757,755,754,752,752,747,747,747,747,747,749,750,752,754,757,757,757,761,762,764,767,767,771,769,769,774,0,0,0,0,1134,1130,1126,1126,1123,1123,1123,1126,1123,1123,1123,1123,1123,1123,1123,1123,1126,1126,1130,887,887,887,887,887,887,887,887,889,887,887,887,889,889,889,891,891,891,894,898,898,901,906,913,913,915,918,918,920,925,928,930,1112,1112,1115,1115,1115,1115,1115,1115,1115,1112,1112,1112,1112,1108,1108,1108,1108,1108,1108,1108,1108,1108,1108,1108,1108,1108,1108,1108,1105,1105,1105,1105,1105,1105,1105,1105,1105,1105,1101,1101,1101,1101,1101,1101,1101,1101,1101,1101,1101,1101,1101,1101,1101,1097,1097,1097,1097,1097,1097,1097,1097,1097,1097,1097,1101,1101,1097,1097,1097,1097,1097,1097,1097,1097,1094,1094,1094,1097,1094,1094,1094,1094,1094,1094,1090,1090,1090,1090,1090,1090,1090,1090,1090,1090,1090,1090,1090,1090,1090,1087,1087,1087,1090,1087,1087,1090,1090,1090,1090,1090,1087,1087,1087,1087,1087,1084,1084,1084,1084,1084,1084,1084,1084,1084,1084,1084,1084,1084,1084,1080,1080,1080,1080,1080,1080,1080,1080,1084,1080,1080,1080,1080,1080,1080,1077,1077,1077,1077,1077,1077,1077,1077,1077,1077,1077,1077,1077,1077,1077,1077,1073,1073,1070,1070,1070,1070,1067,1067,1067,1070,1070,1070,1070,1070,1073,1073,1070,1070,1070,1070,1070,1070,1070,1073,1073,1070,1070,1067,1067,1067,1067,1067,1067,1067,1063,1063,1063,1063,1063,1063,1063,1063,1063,1063,1063,1063,1063,1063,1063,1063,1063,1063,1063,1063,1063,1063,1063,1063,1060,1060,1060,1060,1054,1054,1054,1054,1054,1050,1047,1047,1016,1016,1016,1016,1013,1013,1016,1016,1016,1016,1019,1057,1057,1054,1050,1050,1050,959,959,956,956,956,954,954,954,951,951,951,954,951,951,954,954,954,954,951,951,951,1041,1041,1044,1044,1044,1044,1044,1041,1041,1041,1041,1041,1041,1041,1041,1038,1038,0,0,0,0,0,0,0,0,0,0,0,0,0,0,0,0,0,0,0,0,0,0,0,0,0,0,0,0,0,0,0,0,0
0,0,0,0,0,0,0,0,1189,1181,1181,1181,1177,1177,1177,1177,1173,1173,1177,1177,1177,1177,1177,1177,1177,1181,1181,1181,1181,1177,1177,1177,1177,1177,1177,1177,1177,1177,1177,1177,1177,1177,1177,1177,1177,1177,1177,1177,1177,1177,1177,1177,1173,1173,1173,1173,1173,1173,1169,1169,1169,1169,1173,1173,1173,1173,1173,1173,1173,1169,1169,1169,1169,1169,1169,1165,1165,1165,1165,1165,1169,1169,1169,1165,1165,1169,1165,1165,1165,1165,1169,1169,1165,1165,1169,1169,1169,1169,1165,1165,1165,1165,1161,1161,1157,1157,1157,1157,1157,1153,1153,1028,1025,1025,1025,1025,1025,1022,1022,1019,1019,1019,1016,1016,1019,1022,1025,1025,1028,1031,1031,1034,1038,1038,1161,1161,1157,1153,1153,1149,1149,1149,1149,1149,1149,1149,1149,1149,1153,1153,1153,1153,1153,1149,1149,1149,1149,1149,1149,1149,1149,1149,1149,1149,1145,1145,1145,1145,1145,1145,1145,1145,1145,1145,1145,1145,1145,1145,1145,1145,1145,1145,1145,1145,1145,1141,1141,1141,1141,1141,1141,1138,1138,1138,1138,1138,1138,1138,1138,1138,1141,1141,1141,1141,1141,1138,1138,1141,1141,1141,1141,1138,1138,1138,1138,1138,1138,1138,1134,1134,1134,1134,1134,1130,1130,1130,1130,1130,1130,1130,0,0,767,767,766,766,766,762,761,759,759,759,757,757,754,754,750,750,749,749,749,749,750,752,754,757,757,757,761,762,766,767,769,771,771,771,774,0,0,0,0,0,1126,1126,1123,1123,1119,1119,1119,1119,1119,1119,1119,1119,1123,1123,1123,1126,1126,885,885,885,885,885,885,885,887,887,887,887,887,887,887,887,889,889,891,891,894,898,898,903,908,913,913,915,918,918,920,925,928,1108,1108,1108,1108,1108,1108,1108,1112,1112,1112,1108,1108,1108,1108,1108,1105,1105,1105,1105,1105,1105,1105,1105,1105,1105,1105,1105,1105,1105,1105,1105,1105,1105,1101,1101,1101,1101,1101,1097,1097,1097,1097,1097,1097,1097,1097,1097,1097,1097,1097,1097,1097,1097,1097,1097,1097,1094,1094,1094,1094,1094,1094,1094,1094,1094,1094,1094,1094,1094,1094,1094,1094,1094,1094,1094,1094,1094,1094,1094,1094,1094,1094,1090,1090,1090,1090,1090,1090,1090,1087,1087,1087,1087,1087,1087,1087,1087,1087,1087,1084,1084,1084,1087,1087,1084,1084,1087,1087,1087,1087,1087,1084,1084,1084,1084,1084,1084,1084,1084,1084,1080,1080,1080,1080,1080,1080,1080,1080,1080,1080,1080,1080,1080,1080,1080,1080,1080,1080,1080,1077,1077,1077,1077,1077,1077,1077,1077,1077,1077,1077,1077,1077,1077,1077,1077,1077,1077,1077,1073,1073,1073,1070,1070,1067,1067,1067,1067,1063,1063,1067,1067,1067,1067,1067,1067,1070,1070,1067,1067,1067,1067,1067,1067,1063,1063,1063,1063,1067,1067,1067,1067,1067,1063,1063,1063,1063,1063,1063,1063,1063,1063,1063,1060,1060,1060,1060,1060,1060,1060,1060,1060,1060,1060,1060,1060,1060,1060,1060,1060,1060,1060,1057,1054,1054,1054,1050,1050,1050,1050,1047,1047,1016,1016,1016,1016,1013,1013,1013,1016,1016,1016,1016,1028,1047,1047,1047,1044,1044,959,956,956,956,956,956,954,954,954,954,954,954,951,951,954,954,954,951,951,951,1041,1041,1041,1041,1041,1044,1044,1041,1041,1041,1041,1041,1041,1041,1041,1038,1038,1038,0,0,0,0,0,0,0,0,0,0,0,0,0,0,0,0,0,0,0,0,0,0,0,0,0,0,0,0,0,0,0,0,0
0,0,0,0,0,0,0,0,1189,1177,1177,1181,1177,1177,1177,1173,1173,1173,1173,1173,1173,1173,1177,1177,1177,1177,1181,1177,1177,1177,1177,1177,1177,1173,1173,1173,1173,1177,1173,1173,1173,1177,1177,1177,1177,1177,1177,1173,1173,1173,1173,1173,1169,1169,1169,1169,1169,1169,1169,1169,1169,1169,1169,1169,1169,1165,1165,1165,1169,1165,1165,1165,1165,1165,1165,1161,1161,1165,1165,1165,1165,1165,1165,1165,1165,1165,1165,1165,1165,1161,1161,1165,1161,1161,1161,1161,1165,1165,1165,1165,1161,1161,1161,1161,1153,1153,1149,1149,1149,1149,1149,1031,1028,1028,1025,1025,1025,1025,1022,1022,1019,1019,1022,1019,1019,1022,1025,1028,1031,1031,1031,1034,1038,1038,1038,1038,1153,1149,1149,1149,1149,1149,1145,1145,1145,1149,1149,1149,1149,1149,1149,1149,1149,1149,1149,1149,1149,1149,1149,1149,1149,1145,1145,1145,1145,1141,1141,1141,1141,1141,1141,1141,1141,1141,1141,1141,1141,1141,1141,1141,1141,1141,1141,1141,1141,1138,1138,1138,1138,1138,1138,1138,1134,1134,1134,1134,1134,1134,1134,1134,1134,1134,1134,1138,1138,1138,1134,1134,1134,1134,1138,1138,1134,1134,1138,1134,1134,1134,1134,1134,1134,1134,1134,1130,1130,1130,1130,1130,1130,1130,0,0,767,767,767,767,766,764,761,761,761,759,759,757,757,755,754,752,752,752,750,750,752,754,755,757,757,757,762,764,767,767,771,773,773,773,774,0,0,0,0,0,1119,1119,1119,1119,1119,1119,1119,1119,1119,1119,1119,1119,1123,1123,1123,1123,882,882,882,882,885,885,885,885,885,885,885,885,885,885,885,887,887,889,891,894,894,898,901,903,908,910,913,915,918,920,920,925,1105,1105,1105,1108,1108,1108,1108,1108,1108,1108,1108,1108,1105,1105,1105,1105,1105,1105,1105,1105,1105,1105,1105,1105,1105,1105,1101,1101,1101,1101,1101,1101,1101,1101,1097,1097,1097,1097,1097,1097,1094,1094,1094,1094,1094,1094,1094,1094,1094,1094,1094,1094,1094,1094,1094,1094,1094,1090,1090,1090,1090,1090,1090,1090,1090,1090,1090,1090,1090,1090,1090,1090,1094,1094,1094,1094,1094,1090,1090,1090,1090,1090,1090,1090,1090,1090,1087,1087,1087,1087,1084,1084,1087,1087,1087,1084,1084,1084,1084,1084,1084,1080,1080,1084,1084,1080,1080,1084,1084,1084,1084,1084,1084,1084,1084,1084,1084,1080,1080,1080,1080,1080,1077,1077,1077,1077,1077,1077,1077,1077,1077,1077,1077,1077,1077,1077,1077,1077,1077,1077,1073,1070,1070,1073,1073,1073,1073,1073,1073,1077,1077,1077,1077,1077,1073,1070,1070,1070,1070,1070,1070,1067,1067,1067,1067,1063,1063,1063,1063,1063,1063,1063,1067,1063,1063,1067,1067,1067,1067,1063,1063,1063,1063,1063,1060,1060,1060,1060,1060,1063,1063,1063,1063,1063,1063,1063,1063,1060,1060,1060,1060,1060,1060,1060,1060,1060,1060,1060,1057,1057,1057,1057,1057,1057,1057,1057,1060,1060,1057,1057,1054,1054,1054,1054,1050,1050,1050,1050,1050,1050,1047,1044,1016,1016,1016,1016,1013,1013,1013,1016,1016,1016,1016,1025,1034,1044,1044,1044,1044,956,956,956,954,954,954,954,954,954,954,954,951,951,951,954,954,951,951,951,951,1041,1041,1041,1041,1041,1041,1041,1041,1041,1041,1041,1041,1041,1041,1041,1038,1038,1038,0,0,0,0,0,0,0,0,0,0,0,0,0,0,0,0,0,0,0,0,0,0,0,0,0,0,0,0,0,0,0,0,0
0,0,0,0,0,0,0,1189,1185,1177,1177,1177,1177,1173,1173,1173,1169,1169,1169,1169,1169,1169,1173,1173,1173,1177,1177,1173,1173,1169,1169,1173,1173,1169,1169,1169,1169,1173,1169,1169,1169,1173,1173,1173,1173,1173,1173,1169,1169,1169,1169,1169,1169,1169,1169,1169,1169,1165,1165,1165,1165,1165,1165,1165,1165,1165,1165,1165,1165,1161,1161,1165,1165,1165,1165,1161,1161,1161,1161,1161,1161,1161,1165,1165,1165,1161,1161,1161,1161,1161,1161,1157,1157,1157,1157,1157,1157,1161,1161,1157,1157,1157,1157,1157,1153,1149,1149,1149,1149,1149,1149,1149,1028,1028,1028,1025,1025,1025,1022,1022,1022,1022,1022,1022,1022,1025,1028,1028,1031,1034,1034,1034,1038,1038,1038,1038,1041,1145,1145,1145,1145,1145,1145,1145,1145,1145,1145,1145,1145,1145,1149,1145,1145,1145,1145,1145,1145,1145,1145,1145,1145,1145,1145,1141,1141,1141,1138,1138,1138,1138,1138,1138,1138,1138,1138,1138,1138,1138,1138,1138,1138,1138,1138,1138,1138,1134,1134,1134,1134,1134,1134,1134,1134,1134,1134,1134,1134,1134,1134,1134,1134,1134,1134,1130,1130,1130,1130,1134,1134,1134,1134,1134,1134,1134,1134,1134,1134,1134,1134,1130,1130,1130,1130,1130,1130,1130,1130,1130,1130,1130,0,0,767,767,767,767,766,764,762,761,761,761,759,759,757,757,754,754,752,752,752,752,752,754,757,757,759,761,764,766,767,767,771,773,773,773,774,0,0,0,0,0,1115,1115,1115,1115,1115,1115,1115,1115,1119,1119,1119,1119,1123,1123,882,882,882,880,880,880,882,882,882,882,882,882,882,882,882,882,882,885,887,889,891,894,896,901,903,906,908,910,910,915,915,915,1105,1105,1105,1105,1105,1105,1105,1105,1105,1105,1105,1105,1105,1105,1101,1101,1101,1101,1101,1101,1101,1101,1101,1101,1101,1101,1101,1101,1101,1101,1101,1101,1097,1097,1097,1097,1094,1094,1097,1097,1094,1094,1094,1094,1094,1094,1094,1090,1090,1090,1094,1094,1090,1090,1094,1094,1090,1090,1090,1090,1090,1090,1090,1090,1087,1087,1087,1087,1087,1087,1087,1087,1090,1087,1087,1087,1087,1090,1090,1090,1090,1090,1087,1087,1087,1087,1087,1084,1084,1084,1084,1084,1084,1084,1084,1084,1084,1084,1084,1084,1080,1080,1080,1080,1080,1080,1080,1080,1080,1080,1080,1080,1080,1080,1080,1080,1080,1080,1080,1080,1080,1080,1080,1077,1077,1077,1077,1077,1077,1077,1077,1077,1077,1077,1073,1073,1073,1073,1073,1073,1073,1073,1070,1067,1067,1070,1070,1070,1070,1070,1070,1073,1073,1073,1073,1073,1070,1070,1067,1067,1067,1067,1067,1067,1067,1063,1063,1063,1063,1063,1063,1063,1063,1063,1063,1063,1063,1063,1063,1063,1063,1063,1063,1063,1060,1060,1060,1060,1057,1057,1060,1060,1060,1060,1060,1060,1063,1063,1060,1060,1057,1057,1057,1057,1057,1057,1057,1057,1057,1057,1054,1054,1054,1054,1054,1054,1054,1054,1054,1054,1054,1054,1050,1050,1050,1050,1050,1050,1050,1050,1050,1050,1047,1044,1041,1016,1016,1016,1013,1013,1013,1013,1016,1016,1016,1022,1028,1038,1041,1041,956,956,956,956,954,954,954,954,954,954,951,951,951,951,951,951,951,951,951,951,951,1041,1041,1041,1041,1041,1041,1038,1038,1038,1038,1038,1041,1041,1041,1038,1038,1038,1038,0,0,0,0,0,0,0,0,0,0,0,0,0,0,0,0,0,0,0,0,0,0,0,0,0,0,0,0,0,0,0,0,0
0,0,0,0,0,0,0,1189,1181,1177,1177,1177,1177,1173,1173,1169,1169,1169,1169,1165,1165,1169,1169,1169,1173,1173,1173,1169,1169,1169,1169,1169,1169,1169,1165,1165,1169,1169,1165,1165,1169,1169,1169,1173,1173,1173,1169,1165,1165,1165,1165,1165,1165,1165,1165,1165,1165,1165,1165,1165,1165,1165,1165,1161,1161,1161,1161,1161,1161,1161,1161,1161,1161,1161,1157,1157,1161,1161,1161,1161,1161,1161,1161,1161,1161,1161,1161,1161,1157,1157,1157,1157,1153,1153,1153,1153,1153,1153,1157,1153,1153,1153,1153,1153,1153,1149,1149,1149,1149,1149,1149,1145,1145,1031,1028,1028,1028,1025,1025,1022,1022,1022,1022,1022,1022,1025,1028,1031,1031,1034,1034,1034,1038,1038,1038,1038,1041,1041,1145,1141,1141,1141,1141,1141,1141,1141,1141,1141,1145,1145,1145,1145,1145,1145,1145,1145,1145,1145,1145,1145,1141,1141,1141,1141,1138,1138,1134,1134,1134,1134,1134,1134,1134,1134,1134,1134,1134,1134,1134,1134,1134,1134,1134,1134,1134,1134,1134,1134,1134,1134,1134,1134,1134,1130,1130,1130,1130,1130,1130,1130,1130,1130,1130,1130,1130,1130,1130,1126,1126,1126,1126,1130,1130,1130,1130,1134,1134,1130,1130,1130,1130,1130,1130,1130,1130,1130,1130,1130,1130,1130,0,0,767,767,767,767,766,766,764,762,761,761,759,759,759,757,755,754,754,754,752,752,754,755,757,757,759,764,766,767,767,769,773,773,774,774,776,0,0,0,0,0,1108,1108,1112,1115,1115,1112,1112,1115,1115,1115,1119,1119,1119,1119,880,882,882,880,880,880,880,880,880,880,880,880,880,882,882,882,882,885,887,889,891,894,896,901,903,906,908,910,910,915,915,1097,1097,1097,1097,1097,1097,1097,1097,1097,1097,1097,1097,1097,1101,1101,1097,1097,1097,1097,1097,1097,1097,1097,1097,1097,1097,1097,1097,1097,1097,1097,1097,1097,1094,1094,1094,1094,1094,1090,1090,1094,1094,1090,1090,1090,1090,1090,1090,1090,1090,1090,1090,1090,1087,1087,1087,1087,1087,1087,1087,1087,1087,1087,1084,1084,1084,1084,1084,1084,1084,1084,1084,1087,1084,1084,1084,1084,1084,1084,1084,1084,1080,1080,1084,1084,1084,1084,1084,1084,1084,1084,1084,1084,1084,1084,1084,1084,1084,1080,1080,1080,1080,1080,1080,1080,1080,1080,1077,1077,1077,1077,1077,1077,1077,1077,1077,1077,1077,1077,1080,1077,1077,1077,1077,1077,1077,1077,1073,1073,1073,1073,1073,1073,1073,1073,1073,1070,1070,1070,1070,1067,1067,1070,1067,1067,1067,1067,1067,1067,1067,1067,1067,1067,1070,1070,1070,1070,1067,1067,1067,1067,1067,1063,1063,1063,1063,1063,1063,1063,1060,1060,1060,1060,1060,1060,1060,1060,1060,1060,1060,1060,1060,1060,1060,1060,1057,1057,1057,1057,1057,1057,1057,1057,1057,1057,1057,1057,1057,1057,1057,1057,1057,1057,1054,1054,1054,1054,1054,1054,1054,1054,1054,1054,1054,1050,1050,1050,1050,1050,1050,1050,1047,1047,1047,1047,1047,1047,1047,1047,1050,1050,1047,1047,1047,1044,1038,1016,1016,1016,1013,1013,1013,1013,1013,1016,1016,1019,1025,1038,1038,1041,956,956,956,956,956,956,954,954,954,954,951,951,951,951,951,951,951,951,951,951,951,1041,1041,1041,1038,1038,1038,1038,1038,1038,1038,1038,1038,1038,1038,1038,1034,1034,1034,0,0,0,0,0,0,0,0,0,0,0,0,0,0,0,0,0,0,0,0,0,0,0,0,0,0,0,0,0,0,0,0,0
0,0,0,0,0,0,0,0,1177,1177,1177,1173,1173,1173,1173,1169,1169,1169,1165,1165,1165,1165,1165,1165,1169,1169,1169,1165,1165,1165,1165,1165,1165,1165,1165,1165,1165,1165,1165,1165,1165,1165,1165,1169,1169,1169,1165,1165,1165,1165,1165,1165,1165,1165,1165,1165,1165,1165,1165,1161,1161,1161,1161,1161,1161,1157,1157,1157,1157,1157,1157,1157,1157,1157,1157,1153,1153,1153,1153,1153,1157,1157,1161,1161,1157,1157,1157,1157,1153,1153,1153,1153,1153,1153,1149,1149,1149,1149,1149,1149,1149,1149,1149,1149,1149,1149,1149,1149,1149,1149,1149,1141,1141,1031,1028,1028,1028,1028,1028,1025,1025,1025,1025,1025,1025,1028,1031,1031,1034,1034,1034,1038,1038,1038,1038,1038,1041,1041,1141,1141,1141,1138,1138,1138,1138,1138,1138,1138,1138,1141,1141,1141,1141,1141,1141,1141,1141,1141,1141,1141,1141,1141,1138,1138,1138,1134,1134,1134,1134,1134,1134,1134,1134,1130,1130,1134,1134,1134,1134,1134,1134,1134,1134,1134,1134,1134,1134,1134,1130,1130,1130,1130,1130,1130,1130,1130,1130,1130,1130,1126,1126,1126,1126,1130,1126,1126,1126,1126,1126,1126,1123,1123,1123,1123,1123,1130,1130,1130,1130,1126,1126,1126,1126,1126,1126,1123,1123,1126,1130,1130,0,0,766,766,767,767,767,766,766,764,762,761,761,761,759,757,757,755,754,754,754,754,754,755,757,757,759,764,766,767,767,773,773,774,774,776,778,0,0,0,0,0,1108,1108,1108,1108,1108,1108,1108,1108,1112,1115,1115,1119,1119,878,880,880,880,878,878,878,880,880,880,878,878,880,880,880,882,882,882,885,887,889,891,894,896,901,903,906,908,910,910,913,915,1094,1094,1094,1097,1097,1097,1097,1097,1097,1097,1094,1094,1094,1097,1094,1094,1094,1094,1094,1094,1094,1094,1094,1094,1094,1094,1094,1094,1094,1094,1094,1094,1094,1094,1094,1094,1090,1090,1090,1090,1090,1090,1090,1090,1090,1090,1090,1090,1087,1087,1087,1087,1087,1087,1087,1087,1087,1087,1087,1087,1084,1084,1084,1084,1080,1080,1080,1080,1080,1080,1080,1080,1080,1080,1080,1080,1080,1080,1080,1080,1077,1077,1077,1077,1077,1080,1080,1080,1080,1080,1080,1080,1080,1080,1080,1080,1080,1080,1080,1080,1080,1080,1077,1077,1077,1077,1077,1077,1077,1077,1077,1077,1077,1077,1073,1073,1073,1073,1077,1077,1077,1077,1077,1077,1073,1073,1073,1073,1073,1073,1073,1070,1070,1070,1070,1070,1070,1067,1067,1067,1067,1067,1067,1063,1063,1063,1063,1063,1063,1063,1063,1067,1067,1067,1067,1067,1067,1067,1067,1063,1063,1063,1063,1063,1063,1060,1060,1060,1060,1060,1060,1060,1060,1057,1057,1060,1060,1060,1057,1057,1057,1057,1057,1054,1054,1054,1054,1054,1054,1054,1054,1054,1054,1054,1054,1054,1054,1054,1054,1054,1054,1050,1050,1050,1054,1050,1050,1050,1054,1050,1050,1050,1050,1050,1047,1047,1047,1047,1047,1047,1047,1047,1047,1044,1044,1044,1044,1044,1044,1044,1047,1047,1044,1041,1038,1034,1019,1016,1016,1013,1013,1013,1013,1013,1013,1013,1013,1022,1038,1038,1038,956,956,956,956,956,956,956,956,956,954,954,951,951,951,951,951,951,951,951,951,951,1038,1038,1038,1038,1038,1038,1034,1034,1034,1034,1034,1034,1038,1034,1034,1034,1031,1031,0,0,0,0,0,0,0,0,0,0,0,0,0,0,0,0,0,0,0,0,0,0,0,0,0,0,0,0,0,0,0,0,0
0,0,0,0,0,0,0,0,1177,1173,1173,1173,1173,1173,1169,1169,1165,1165,1165,1165,1165,1165,1165,1165,1165,1165,1165,1165,1165,1165,1165,1161,1161,1161,1161,1161,1161,1161,1161,1161,1161,1161,1161,1161,1165,1165,1165,1161,1161,1161,1161,1161,1161,1161,1161,1161,1161,1161,1161,1161,1161,1157,1157,1157,1157,1157,1157,1157,1157,1157,1157,1157,1157,1157,1153,1149,1149,1149,1149,1149,1149,1149,1153,1153,1153,1153,1153,1153,1153,1149,1149,1149,1149,1149,1145,1145,1145,1149,1149,1149,1149,1149,1149,1149,1149,1149,1145,1145,1145,1145,1145,1141,1138,1138,1034,1031,1031,1031,1028,1028,1028,1028,1028,1028,1028,1031,1031,1031,1034,1034,1034,1038,1038,1041,1041,1044,1047,1047,1138,1138,1138,1138,1138,1138,1134,1134,1134,1134,1134,1134,1134,1134,1138,1138,1138,1138,1138,1141,1141,1138,1138,1138,1138,1134,1134,1134,1130,1130,1130,1130,1130,1130,1130,1130,1130,1130,1130,1130,1130,1130,1130,1130,1130,1130,1130,1130,1130,1130,1130,1130,1130,1130,1126,1126,1126,1126,1126,1123,1123,1123,1123,1123,1123,1123,1126,1126,1123,1123,1123,1123,1119,1119,1119,1119,1119,1123,1123,1123,1126,1123,1123,1123,1123,1119,1119,1119,1115,1115,1130,1130,0,766,766,766,767,767,767,767,767,766,764,762,761,761,759,759,757,755,754,754,754,754,755,757,757,759,762,764,767,767,769,773,774,774,776,776,778,780,0,0,0,0,1108,1105,1105,1105,1105,1105,1105,1105,1108,1112,1115,1115,871,878,878,878,878,878,878,878,878,878,878,878,878,878,878,880,880,880,882,885,887,889,891,894,896,901,903,906,908,908,910,910,1094,1094,1094,1094,1094,1094,1094,1094,1094,1094,1094,1094,1094,1094,1094,1090,1090,1090,1090,1090,1090,1090,1090,1090,1094,1094,1090,1090,1090,1094,1094,1094,1094,1094,1090,1090,1090,1090,1090,1087,1087,1090,1090,1090,1090,1087,1087,1087,1087,1087,1084,1084,1084,1084,1084,1084,1084,1084,1084,1084,1084,1084,1084,1084,1080,1080,1080,1080,1080,1080,1077,1077,1080,1080,1080,1077,1077,1077,1077,1077,1073,1073,1073,1073,1073,1073,1073,1073,1073,1073,1077,1077,1077,1077,1080,1080,1080,1080,1080,1077,1077,1077,1077,1077,1077,1077,1077,1077,1077,1077,1073,1073,1073,1073,1073,1073,1070,1070,1070,1070,1070,1073,1073,1073,1073,1073,1070,1070,1070,1070,1070,1070,1067,1067,1067,1067,1067,1067,1067,1067,1067,1067,1063,1063,1063,1063,1063,1063,1063,1063,1063,1063,1063,1063,1063,1063,1067,1067,1067,1063,1063,1063,1063,1060,1060,1060,1060,1060,1060,1060,1057,1057,1057,1057,1057,1057,1057,1057,1057,1054,1054,1054,1054,1054,1054,1054,1050,1050,1050,1050,1054,1050,1050,1050,1050,1050,1050,1050,1050,1050,1050,1050,1050,1050,1050,1050,1047,1047,1050,1050,1050,1050,1050,1050,1047,1044,1044,1044,1044,1044,1044,1044,1044,1044,1044,1044,1044,1041,1041,1041,1041,1041,1041,1038,1034,1031,1028,1022,1019,1016,1013,1013,1013,1013,1013,1013,1013,1013,1016,1034,1034,1034,959,956,956,956,954,954,954,954,948,946,946,948,951,951,951,951,948,948,948,948,951,1038,1038,1038,1034,1034,1034,1034,1034,1034,1031,1031,1034,1034,1034,1031,1031,1031,1031,0,0,0,0,0,0,0,0,0,0,0,0,0,0,0,0,0,0,0,0,0,0,0,0,0,0,0,0,0,0,0,0,0
0,0,0,0,0,0,0,0,1177,1169,1165,1165,1165,1169,1165,1165,1165,1165,1165,1165,1161,1161,1161,1161,1161,1161,1161,1161,1161,1161,1161,1161,1161,1161,1161,1161,1161,1161,1161,1161,1161,1161,1161,1161,1161,1161,1161,1161,1161,1161,1161,1161,1157,1157,1161,1157,1157,1157,1157,1157,1157,1157,1157,1153,1153,1153,1153,1153,1153,1153,1153,1153,1153,1153,1149,1145,1145,1149,1149,1149,1149,1149,1149,1149,1149,1149,1149,1149,1149,1149,1149,1149,1149,1145,1145,1145,1145,1145,1145,1145,1145,1145,1145,1145,1145,1145,1145,1145,1145,1141,1141,1138,1134,1134,1038,1034,1034,1031,1031,1031,1031,1031,1031,1031,1031,1031,1031,1031,1034,1034,1034,1038,1041,1041,1041,1044,1047,1047,1134,1134,1134,1134,1134,1134,1134,1134,1134,1134,1134,1134,1130,1130,1130,1130,1134,1134,1134,1134,1138,1134,1134,1134,1134,1134,1130,1130,1130,1126,1126,1126,1130,1130,1130,1126,1126,1126,1126,1126,1126,1126,1126,1126,1130,1130,1126,1126,1126,1130,1126,1126,1126,1126,1126,1123,1123,1123,1123,1123,1119,1119,1119,1119,1123,1123,1123,1123,1123,1123,1119,1119,1119,1119,1119,1119,1119,1119,1119,1119,1119,1119,1119,1119,1119,1119,1115,1115,1115,1115,1115,0,0,0,767,0,767,767,767,771,769,766,764,762,762,761,761,759,757,755,755,755,754,754,755,757,757,759,762,764,767,767,769,773,774,774,776,778,778,780,0,0,0,0,0,1101,1101,1101,1105,1101,1101,1105,1108,871,871,871,871,871,871,873,875,875,875,875,875,875,875,875,875,875,878,878,880,880,882,885,887,889,891,894,896,901,903,906,906,908,908,910,1094,1094,1094,1094,1094,1094,1094,1094,1094,1094,1094,1094,1090,1090,1090,1090,1090,1090,1090,1090,1090,1090,1090,1090,1090,1090,1090,1090,1090,1090,1090,1087,1087,1090,1087,1087,1087,1087,1087,1087,1087,1087,1087,1087,1087,1087,1084,1084,1080,1080,1080,1080,1080,1080,1080,1080,1080,1080,1080,1080,1080,1080,1080,1080,1080,1080,1080,1080,1080,1077,1077,1077,1077,1077,1077,1077,1077,1073,1073,1073,1073,1070,1070,1073,1073,1070,1070,1070,1070,1070,1070,1070,1070,1073,1077,1077,1077,1077,1077,1077,1073,1073,1073,1073,1073,1073,1073,1073,1073,1073,1073,1073,1070,1070,1070,1070,1070,1067,1067,1067,1067,1070,1070,1070,1070,1070,1067,1067,1067,1067,1067,1067,1067,1067,1067,1067,1063,1063,1063,1063,1063,1063,1063,1063,1063,1063,1063,1063,1063,1060,1060,1063,1063,1063,1063,1063,1063,1063,1063,1063,1060,1060,1060,1057,1057,1057,1057,1054,1054,1057,1057,1057,1057,1054,1054,1054,1054,1054,1054,1054,1054,1054,1054,1054,1050,1050,1050,1050,1050,1050,1050,1050,1050,1050,1050,1050,1047,1047,1047,1050,1050,1050,1050,1047,1047,1047,1047,1047,1044,1044,1047,1047,1047,1047,1044,1044,1044,1044,1044,1041,1041,1041,1041,1041,1041,1041,1041,1041,1038,1038,1038,1038,1031,1031,1031,1028,1028,1025,1019,1016,1013,1010,1010,1010,1010,1010,1010,1010,1016,1031,1031,1031,1031,956,956,956,954,954,954,954,946,943,943,946,946,948,948,948,948,948,948,948,948,951,1038,1038,1034,1031,1031,1031,1031,1031,1031,1031,1031,1034,1031,1031,1031,1028,1028,0,0,0,0,0,0,0,0,0,0,0,0,0,0,0,0,0,0,0,0,0,0,0,0,0,0,0,0,0,0,0,0,0
0,0,0,0,0,0,0,0,0,1161,1161,1165,1165,1165,1165,1165,1165,1165,1165,1165,1161,1157,1157,1157,1157,1157,1157,1157,1157,1157,1157,1157,1157,1157,1157,1157,1157,1157,1157,1157,1157,1157,1161,1161,1161,1157,1157,1157,1157,1157,1157,1157,1157,1157,1157,1153,1153,1153,1153,1153,1153,1153,1153,1153,1149,1149,1149,1149,1149,1149,1145,1145,1145,1145,1145,1145,1145,1145,1145,1145,1145,1145,1145,1145,1145,1145,1145,1145,1145,1145,1145,1145,1145,1145,1145,1141,1141,1141,1138,1138,1141,1141,1141,1141,1145,1141,1141,1141,1141,1138,1134,1134,1134,1134,1041,1038,1038,1034,1034,1034,1031,1031,1031,1031,1031,1031,1034,1034,1034,1034,1038,1038,1041,1044,1044,1047,1047,1047,1130,1130,1130,1134,1134,1134,1130,1130,1130,1130,1130,1130,1130,1130,1126,1126,1126,1126,1130,1126,1126,1126,1134,1130,1130,1130,1126,1126,1126,1126,1123,1123,1126,1126,1126,1126,1126,1126,1126,1126,1123,1123,1126,1126,1126,1126,1126,1126,1126,1126,1126,1126,1123,1123,1123,1119,1119,1119,1119,1119,1119,1119,1119,1119,1119,1119,1119,1119,1119,1119,1119,1119,1119,1115,1115,1115,1115,1115,1115,1115,1115,1115,1115,1115,1115,1115,1112,1112,1115,1115,1115,1115,0,0,0,0,0,767,767,771,769,767,766,764,764,762,761,761,759,757,755,755,755,755,757,757,759,761,762,764,767,767,771,774,774,776,776,778,780,780,0,0,0,0,0,1101,1101,1101,1101,1101,1101,869,869,869,867,867,869,869,871,873,873,873,875,873,873,873,873,873,875,875,875,878,878,878,882,885,887,891,891,894,896,903,903,906,906,908,908,1090,1090,1090,1090,1090,1090,1090,1090,1090,1090,1090,1090,1090,1090,1090,1090,1090,1087,1087,1087,1087,1087,1087,1087,1087,1090,1090,1090,1087,1087,1087,1087,1087,1084,1084,1084,1084,1084,1084,1084,1084,1084,1084,1084,1084,1084,1080,1080,1080,1077,1077,1077,1077,1077,1077,1077,1077,1077,1080,1080,1080,1080,1080,1080,1080,1077,1077,1077,1077,1077,1077,1073,1073,1073,1073,1073,1073,1073,1073,1070,1070,1070,1070,1070,1070,1070,1070,1070,1070,1067,1067,1067,1067,1067,1067,1070,1070,1070,1073,1073,1073,1073,1073,1073,1073,1070,1070,1070,1070,1070,1070,1070,1070,1070,1070,1070,1067,1067,1067,1067,1067,1067,1067,1067,1067,1067,1067,1067,1067,1067,1067,1063,1063,1063,1063,1063,1060,1060,1060,1060,1060,1060,1063,1060,1060,1060,1060,1060,1060,1060,1060,1060,1060,1060,1060,1060,1060,1063,1060,1060,1060,1060,1060,1057,1054,1054,1054,1054,1054,1054,1054,1054,1054,1054,1054,1054,1050,1050,1050,1050,1050,1050,1050,1050,1050,1050,1050,1050,1047,1047,1047,1047,1047,1047,1044,1044,1047,1047,1044,1044,1047,1047,1047,1047,1044,1044,1044,1044,1044,1041,1041,1041,1041,1041,1044,1041,1041,1041,1041,1041,1041,1041,1041,1041,1038,1038,1038,1038,1038,1038,1034,1034,1031,1031,1031,1031,1028,1028,1025,1019,1016,1010,1010,1010,1010,1010,1010,1010,1010,1025,1031,1031,1031,1028,1028,1028,1028,1028,1025,1025,1025,946,943,943,943,943,946,946,946,946,948,948,948,948,948,1038,1038,1031,1028,1028,1028,1028,1028,1028,1028,1028,1031,1028,1028,1028,1028,1028,0,0,0,0,0,0,0,0,0,0,0,0,0,0,0,0,0,0,0,0,0,0,0,0,0,0,0,0,0,0,0,0,0
0,0,0,0,0,0,0,0,0,1161,1161,1161,1161,1161,1161,1161,1161,1161,1161,1157,1153,1153,1149,1149,1153,1153,1153,1153,1153,1153,1157,1153,1153,1153,1153,1153,1157,1153,1153,1153,1153,1153,1153,1153,1153,1153,1153,1153,1153,1153,1153,1153,1153,1153,1153,1149,1149,1149,1149,1149,1149,1149,1149,1149,1149,1149,1149,1149,1145,1145,1141,1141,1141,1141,1141,1141,1141,1145,1141,1141,1145,1145,1141,1141,1141,1141,1141,1141,1141,1145,1145,1145,1141,1141,1141,1141,1138,1138,1138,1138,1141,1141,1141,1141,1141,1141,1141,1138,1138,1134,1134,1134,1134,1134,1134,1038,1038,1038,1034,1034,1034,1034,1031,1031,1031,1034,1034,1034,1034,1038,1038,1038,1041,1044,1044,1047,1047,1047,1130,1130,1130,1130,1130,1130,1130,1130,1130,1126,1126,1126,1126,1126,1126,1126,1126,1126,1126,1123,1123,1123,1123,1123,1123,1126,1123,1123,1123,1123,1123,1123,1123,1123,1123,1123,1123,1123,1123,1123,1123,1123,1123,1123,1123,1123,1123,1123,1123,1123,1123,1123,1119,1119,1119,1119,1119,1119,1119,1119,1119,1119,1115,1115,1119,1119,1119,1119,1119,1119,1115,1115,1115,1115,1115,1112,1112,1112,1115,1115,1115,1115,1115,1115,1115,1112,1112,1112,1101,1101,1101,0,1090,0,1090,0,0,0,771,771,771,769,769,766,766,764,762,761,761,759,759,757,757,757,757,759,759,761,764,766,767,767,773,774,774,776,778,780,780,781,781,0,0,0,0,1101,1101,1101,1101,1101,1101,869,869,869,867,867,869,869,869,869,869,869,871,871,871,871,871,873,873,873,875,878,878,878,882,885,887,891,894,894,896,903,906,906,908,908,908,1087,1087,1087,1087,1087,1090,1090,1090,1090,1090,1090,1090,1090,1084,1084,1087,1087,1084,1084,1084,1084,1084,1084,1084,1087,1087,1087,1087,1087,1084,1084,1084,1084,1080,1080,1080,1080,1080,1080,1080,1080,1080,1080,1080,1080,1080,1080,1077,1077,1077,1077,1077,1077,1077,1077,1077,1077,1077,1077,1077,1077,1077,1077,1077,1077,1077,1077,1077,1077,1077,1073,1073,1073,1073,1073,1070,1070,1070,1070,1070,1070,1070,1067,1067,1070,1067,1067,1067,1067,1067,1067,1067,1067,1067,1067,1067,1067,1067,1067,1067,1067,1070,1070,1070,1070,1067,1067,1067,1067,1067,1067,1067,1067,1067,1067,1067,1063,1063,1063,1063,1063,1063,1063,1063,1063,1063,1063,1063,1063,1063,1063,1063,1060,1060,1060,1060,1060,1060,1057,1057,1060,1060,1060,1057,1057,1057,1057,1057,1057,1057,1057,1057,1057,1057,1057,1054,1054,1054,1054,1054,1057,1057,1054,1054,1054,1054,1054,1054,1054,1054,1054,1054,1054,1054,1054,1054,1050,1050,1050,1050,1050,1050,1047,1047,1047,1047,1047,1047,1047,1044,1044,1044,1044,1044,1044,1044,1044,1044,1044,1044,1044,1044,1044,1044,1044,1041,1041,1044,1041,1041,1038,1038,1038,1038,1038,1038,1038,1038,1038,1038,1038,1038,1038,1038,1038,1038,1038,1038,1034,1034,1031,1031,1031,1028,1028,1028,1028,1028,1025,1022,1016,1010,1007,1007,1004,1004,1007,1007,1007,1034,1034,1031,1031,1028,1028,1028,1028,1028,1025,1025,1025,1025,943,943,943,943,946,946,946,946,948,948,948,948,948,948,1028,1025,1025,1025,1025,1025,1025,1025,1025,1028,1028,1025,1025,1025,1025,1025,0,0,0,0,0,0,0,0,0,0,0,0,0,0,0,0,0,0,0,0,0,0,0,0,0,0,0,0,0,0,0,0,0
