0,0,0,0,0,0,0,0,0,0,0,0,0,1536,1536,1536,1536,1529,1529,1529,1523,1523,1523,1523,1523,1523,1523,1523,1523,1523,1523,1523,1523,1529,1529,1529,1529,1529,1529,1529,1529,1523,1523,1529,1529,1529,1529,1529,1529,1529,1529,1529,1529,1523,1523,1529,1529,1529,1536,1536,1536,1543,1550,1550,1550,1557,1557,1843,1833,1823,1823,1813,1804,1804,1804,1804,1794,1794,1785,1776,1766,1766,1766,1766,1766,1766,1776,1776,1557,1557,1550,1550,1557,1550,1550,1550,1550,1550,1550,1550,1550,1557,1557,1564,1564,1564,1572,1572,1572,1579,1579,1586,1586,1594,1594,1601,1601,1601,1601,1601,1601,1609,1616,1616,1624,1624,1624,1632,1632,1632,1632,1632,1632,1639,1639,1647,1655,1655,1655,1663,1663,1671,1671,1671,1680,1680,1680,1688,1688,1688,1688,1696,1696,1705,1705,1713,1713,1713,1722,1722,1722,1722,1731,1731,1739,1739,1748,1748,1748,1757,1766,1766,1766,1766,1776,1776,1776,1776,1785,1785,1785,1794,1794,1794,1794,1794,1794,1785,1785,1785,1794,1785,1785,1794,0,0,0,1084,1073,1073,1063,1063,1063,1060,1060,1057,1057,1057,1057,1057,1057,1057,1060,1060,1063,1063,1063,1063,1067,1070,1073,1073,1077,1077,1080,1080,0,1696,1696,1696,1688,1688,1688,1680,1680,1680,1680,1671,1671,1663,1663,1663,1663,1655,1655,1655,1647,1647,1647,1639,1632,1632,1632,1632,1624,1624,1624,1624,1624,1624,1624,1616,1616,1609,1001,1001,998,995,992,989,989,987,984,984,984,984,984,984,978,978,978,975,973,970,970,967,967,967,967,967,964,962,962,959,956,956,954,951,951,951,948,946,946,943,943,943,940,938,935,935,935,935,935,933,930,928,928,928,925,925,923,920,920,918,918,915,915,913,910,908,908,903,901,898,896,896,894,894,891,891,889,889,889,889,889,889,891,891,894,896,898,898,903,906,906,908,0,0,0,0,0,1421,1421,1421,1421,1421,1421,1415,1415,1415,1415,1415,1410,1410,1404,1404,1404,1404,1398,1398,1398,1398,1398,1398,1392,1392,1392,1387,1387,1381,1381,1381,1376,1376,1376,1376,1376,1370,1370,1370,1370,1370,1365,1359,1359,1354,1354,1354,1354,1349,1349,1349,1349,1349,1349,1343,1338,1338,1338,1333,1333,1333,1333,1333,1333,1328,1328,1328,1328,1322,1317,1317,1317,1312,1312,1312,1312,1312,1312,1307,1307,1307,1302,1302,1302,1297,1297,1297,1292,1292,1288,1288,1288,1288,1283,1283,1283,1278,1278,1278,1273,1273,1273,1268,1268,1268,1268,1264,1264,1259,1259,1259,1259,1259,1255,1255,1255,1250,1250,1250,1250,1250,1245,1245,1245,1241,1241,1241,1236,1236,1236,1232,1232,1232,1232,1227,1227,1227,1223,1223,1223,1219,1219,1219,1219,1219,1214,1214,1214,1214,1210,1206,1206,1206,1206,1202,1202,1202,1197,1197,1197,1189,1189,1189,1185,1185,1185,1185,1185,1185,1185,1181,1181,1181,1181,1181,1177,1177,1173,1173,1169,1169,1169,1165,1165,1165,1165,1165,1161,1161,1157,1157,1153,1153,1153,1153,1153,1153,1149,1149,1149,1149,1149,1149,1145,1145,1145,1141,1141,1138,1138,1138,1138,1134,1134,1134,1134,1134,1134,1130,1130,1126,1126,1123,1123,1123,1123,1119,1119,1119,1119,1119,1115,1115,1115,1112,1112,1108,1108,1108,1108,1105,1105,1105,1105,1105,1105,1105,1101,1101,1101,0,0,0,0,0,0,0,0,0,0,0,0,0,0,0,0,0,0,0,0,0,0,0,0,0,0,0,0,0
0,0,0,0,0,0,0,0,0,0,0,0,0,1536,1536,1536,1536,1536,1536,1536,1536,1529,1523,1523,1523,1523,1536,1529,1529,1529,1529,1529,1529,1529,1529,1529,1529,1529,1529,1529,1529,1523,1523,1529,1529,1529,1529,1529,1529,1529,1529,1529,1529,1523,1523,1529,1529,1536,1536,1536,1536,1543,1550,1550,1557,1557,1557,1843,1833,1833,1823,1813,1813,1804,1804,1804,1794,1794,1785,1785,1776,1776,1766,1766,1766,1766,1776,1776,1776,1543,1543,1550,1550,1550,1550,1550,1550,1550,1550,1550,1557,1557,1557,1557,1557,1564,1572,1572,1572,1579,1579,1586,1586,1594,1594,1601,1601,1601,1601,1601,1601,1616,1616,1624,1624,1624,1624,1632,1632,1632,1632,1632,1632,1639,1639,1647,1655,1655,1663,1663,1663,1671,1671,1671,1680,1680,1680,1688,1688,1688,1688,1696,1696,1705,1713,1713,1713,1713,1722,1722,1722,1722,1731,1731,1739,1739,1748,1748,1757,1757,1766,1766,1766,1776,1776,1776,1776,1776,1785,1785,1785,1794,1794,1794,1794,1794,1794,1794,1785,1785,1794,1794,1794,1794,0,0,0,1084,1070,1067,1063,1063,1063,1060,1060,1057,1057,1057,1057,1057,1060,1060,1060,1060,1063,1063,1063,1063,1067,1070,1073,1073,1077,1080,1080,1080,0,1696,1696,1696,1688,1688,1688,1680,1680,1680,1680,1671,1671,1663,1663,1663,1663,1655,1655,1647,1647,1647,1647,1639,1639,1632,1632,1632,1624,1624,1624,1624,1624,1624,1624,1616,1616,1616,1609,1609,1601,1601,992,989,989,987,984,984,984,1594,1594,1594,1594,1586,1579,975,975,973,970,967,967,967,967,967,964,962,959,959,954,954,954,951,951,951,951,948,946,946,946,943,940,938,935,935,933,933,933,930,930,928,928,925,925,925,923,920,920,918,918,915,915,913,910,908,906,903,901,898,896,896,896,894,891,891,889,889,889,889,889,891,891,894,894,896,898,898,903,906,906,908,910,0,0,0,0,1421,1421,1421,1421,1421,1421,1415,1415,1415,1410,1410,1410,1410,1410,1404,1404,1404,1404,1398,1398,1398,1398,1398,1392,1392,1392,1392,1387,1381,1381,1381,1381,1376,1376,1376,1376,1376,1370,1370,1370,1370,1365,1359,1359,1354,1354,1354,1354,1354,1354,1354,1349,1349,1349,1343,1343,1338,1338,1333,1333,1333,1333,1333,1333,1328,1328,1328,1328,1322,1322,1317,1317,1317,1312,1312,1312,1312,1312,1307,1307,1307,1307,1307,1302,1302,1302,1297,1297,1292,1292,1288,1288,1288,1288,1288,1283,1278,1278,1278,1273,1273,1273,1268,1268,1268,1268,1268,1264,1264,1264,1259,1259,1259,1259,1255,1255,1255,1255,1255,1250,1250,1250,1250,1245,1245,1241,1241,1236,1236,1236,1232,1232,1232,1232,1227,1227,1227,1223,1223,1223,1219,1219,1219,1219,1219,1214,1214,1214,1214,1214,1210,1206,1206,1206,1206,1202,1202,1197,1197,1197,1193,1189,1189,1189,1189,1189,1185,1185,1185,1185,1181,1181,1181,1181,1181,1177,1177,1177,1173,1169,1169,1165,1165,1165,1165,1165,1165,1161,1161,1157,1157,1153,1153,1153,1153,1153,1153,1149,1149,1149,1149,1149,1149,1145,1145,1145,1141,1141,1138,1138,1138,1138,1134,1134,1134,1134,1134,1134,1130,1130,1130,1126,1126,1123,1123,1123,1123,1119,1119,1119,1119,1119,1119,1115,1112,1112,1108,1108,1108,1108,1105,1105,1105,1105,1105,1105,1105,1101,1101,1101,0,0,0,0,0,0,0,0,0,0,0,0,0,0,0,0,0,0,0,0,0,0,0,0,0,0,0,0,0
0,0,0,0,0,0,0,0,0,0,0,0,0,1536,1536,1536,1536,1536,1536,1536,1536,1536,1536,1536,1536,1536,1536,1529,1529,1529,1529,1529,1529,1529,1529,1529,1529,1529,1529,1529,1529,1529,1529,1529,1529,1529,1529,1529,1529,1529,1529,1529,1529,1529,1529,1529,1529,1536,1536,1536,1543,1543,1550,1550,1557,1557,1557,1564,1833,1833,1823,1813,1813,1813,1804,1804,1794,1794,1785,1785,1776,1776,1776,1766,1766,1776,1776,1776,1776,1543,1543,1543,1550,1550,1543,1543,1550,1550,1550,1550,1557,1557,1557,1557,1557,1564,1572,1572,1572,1579,1579,1586,1586,1594,1594,1601,1601,1601,1609,1609,1616,1616,1616,1624,1624,1624,1624,1632,1632,1632,1632,1632,1632,1639,1647,1647,1655,1655,1663,1663,1663,1671,1671,1671,1680,1680,1680,1688,1688,1688,1688,1696,1696,1705,1713,1713,1713,1713,1722,1722,1722,1731,1731,1739,1739,1739,1748,1748,1757,1757,1766,1766,1776,1776,1776,1776,1776,1785,1785,1785,1785,1794,1794,1794,1794,1794,1794,1794,1794,1794,1794,1794,1794,1794,0,0,0,1080,1070,1067,1063,1063,1063,1060,1060,1060,1057,1057,1057,1060,1060,1060,1060,1060,1063,1063,1063,1067,1070,1070,1073,1077,1077,1080,0,1080,0,1696,1696,1696,1688,1688,1688,1688,1680,1680,1680,1680,1671,1663,1663,1663,1663,1655,1655,1647,1647,1647,1647,1639,1639,1632,1632,1632,1632,1624,1624,1624,1624,1624,1624,1624,1616,1616,1616,1609,1609,1609,1601,1601,1601,1594,1594,1594,1594,1594,1594,1594,1594,1579,1579,1579,1572,1572,1572,967,967,967,967,967,964,962,959,959,954,954,954,951,951,951,951,948,946,946,946,943,940,938,935,933,933,933,930,930,928,928,928,925,925,925,923,920,920,918,915,915,915,913,910,908,906,903,901,898,896,896,896,894,894,891,891,889,889,889,889,891,894,894,894,896,898,901,903,906,908,910,910,0,0,0,0,0,1421,1421,1421,1421,1421,1415,1415,1415,1410,1410,1410,1410,1415,1404,1404,1404,1404,1404,1404,1404,1398,1398,1398,1392,1392,1392,1387,1387,1381,1381,1381,1381,1376,1376,1376,1376,1376,1370,1370,1370,1365,1365,1359,1359,1354,1354,1354,1354,1354,1354,1354,1354,1349,1349,1343,1338,1338,1333,1333,1333,1333,1333,1333,1333,1328,1328,1328,1322,1322,1322,1317,1317,1312,1312,1312,1312,1312,1307,1307,1307,1307,1307,1302,1302,1302,1297,1297,1292,1292,1292,1288,1288,1288,1288,1283,1283,1283,1278,1278,1273,1273,1268,1268,1268,1268,1268,1264,1264,1264,1264,1264,1259,1259,1255,1255,1255,1255,1255,1250,1250,1250,1250,1250,1245,1241,1241,1236,1236,1236,1232,1232,1232,1232,1227,1227,1227,1223,1223,1223,1223,1219,1219,1219,1219,1214,1214,1214,1214,1214,1210,1206,1206,1206,1202,1202,1202,1202,1197,1197,1193,1193,1189,1189,1189,1189,1189,1185,1185,1185,1181,1181,1181,1181,1181,1177,1177,1177,1177,1169,1169,1165,1165,1165,1165,1165,1165,1161,1161,1161,1157,1157,1157,1157,1153,1153,1153,1149,1149,1149,1149,1149,1149,1145,1145,1145,1141,1141,1141,1141,1138,1138,1138,1134,1134,1134,1134,1134,1130,1130,1130,1126,1126,1123,1123,1123,1123,1123,1119,1119,1119,1119,1119,1115,1115,1115,1112,1108,1108,1108,1108,1108,1105,1105,1105,1105,1105,1105,1105,1105,0,0,0,0,0,0,0,0,0,0,0,0,0,0,0,0,0,0,0,0,0,0,0,0,0,0,0,0,0
0,0,0,0,0,0,0,0,0,0,0,0,0,1543,1543,1536,1536,1536,1536,1536,1536,1536,1536,1536,1536,1536,1536,1529,1529,1529,1529,1529,1536,1536,1536,1536,1536,1536,1536,1529,1529,1536,1529,1529,1529,1536,1536,1536,1536,1536,1536,1536,1536,1529,1529,1529,1529,1536,1536,1536,1543,1543,1550,1550,1557,1557,1564,1564,1813,1813,1813,1813,1813,1813,1813,1804,1794,1794,1794,1785,1785,1785,1776,1776,1776,1776,1776,1776,1550,1543,1543,1543,1550,1550,1543,1543,1550,1550,1550,1550,1557,1557,1557,1564,1564,1564,1572,1572,1572,1579,1579,1586,1586,1594,1594,1601,1601,1601,1609,1616,1616,1616,1624,1624,1624,1624,1624,1632,1632,1632,1632,1632,1639,1639,1647,1647,1655,1655,1663,1663,1663,1671,1671,1680,1680,1688,1680,1680,1688,1688,1688,1696,1696,1705,1713,1713,1722,1722,1722,1722,1731,1731,1731,1739,1739,1739,1748,1748,1757,1766,1766,1776,1776,1776,1776,1776,1776,1785,1785,1785,1785,1794,1794,1794,1794,1794,1794,1794,1794,1794,1794,1785,1785,1804,0,0,0,1077,1077,1067,1063,1063,1063,1060,1060,1060,1057,1057,1057,1060,1060,1060,1060,1060,1063,1063,1063,1067,1070,1073,1073,1077,1077,1084,0,0,0,0,1696,1696,1696,1688,1688,1688,1688,1688,1688,1680,1671,1671,1663,1663,1663,1655,1655,1647,1647,1647,1647,1639,1639,1632,1632,1632,1632,1632,1632,1624,1624,1624,1624,1624,1616,1616,1616,1616,1616,1609,1609,1601,1601,1601,1594,1594,1594,1594,1594,1594,1594,1579,1579,1579,1572,1572,1572,1572,1572,967,967,967,964,964,959,959,954,954,954,951,951,951,951,948,948,946,946,943,940,938,935,933,933,933,928,928,928,928,928,925,925,925,923,923,920,918,915,915,915,913,910,908,906,903,901,898,898,896,896,896,894,894,891,889,889,889,889,891,894,894,896,896,898,901,906,906,908,910,910,0,0,0,0,0,1421,1421,1421,1421,1421,1421,1415,1415,1415,1415,1410,1410,1415,1410,1410,1410,1404,1404,1404,1398,1398,1398,1398,1392,1392,1392,1387,1387,1381,1381,1381,1381,1376,1376,1376,1376,1376,1376,1370,1370,1365,1365,1359,1359,1359,1354,1354,1354,1354,1354,1354,1354,1349,1349,1343,1338,1333,1333,1333,1333,1333,1333,1333,1333,1328,1328,1328,1322,1322,1322,1317,1317,1317,1312,1312,1312,1312,1312,1307,1307,1307,1307,1302,1302,1302,1297,1297,1297,1292,1292,1288,1288,1288,1288,1288,1283,1283,1283,1278,1273,1273,1273,1268,1268,1268,1268,1264,1264,1264,1264,1264,1259,1259,1259,1255,1255,1255,1255,1250,1250,1250,1250,1250,1245,1241,1241,1241,1236,1236,1232,1232,1232,1232,1227,1227,1227,1223,1223,1223,1223,1219,1219,1219,1219,1214,1214,1214,1214,1214,1210,1206,1206,1206,1202,1202,1202,1202,1197,1197,1197,1193,1193,1193,1189,1189,1189,1185,1185,1185,1185,1181,1181,1181,1181,1177,1177,1177,1177,1169,1169,1169,1169,1169,1165,1165,1165,1165,1161,1161,1157,1157,1157,1157,1153,1153,1153,1149,1149,1149,1149,1149,1149,1149,1145,1145,1145,1145,1141,1141,1138,1138,1138,1138,1138,1134,1134,1134,1130,1130,1130,1130,1126,1123,1123,1123,1123,1123,1123,1123,1123,1119,1119,1119,1115,1115,1112,1108,1108,1108,1108,1108,1105,1105,1105,1105,1105,1105,1105,1105,0,0,0,0,0,0,0,0,0,0,0,0,0,0,0,0,0,0,0,0,0,0,0,0,0,0,0,0,0
0,0,0,0,0,0,0,0,0,0,0,0,0,1543,1543,1536,1536,1536,1536,1536,1536,1536,1536,1536,1536,1536,1536,1529,1529,1529,1529,1529,1536,1536,1536,1536,1536,1536,1536,1536,1536,1536,1536,1536,1536,1536,1536,1536,1536,1536,1536,1536,1536,1529,1529,1529,1536,1536,1536,1536,1543,1543,1550,1550,1557,1557,1564,1564,1564,1813,1813,1813,1813,1813,1813,1804,1794,1794,1794,1794,1785,1785,1776,1776,1776,1776,1776,1776,1550,1543,1543,1543,1550,1550,1550,1550,1550,1550,1550,1557,1557,1557,1557,1564,1564,1564,1572,1572,1572,1579,1579,1586,1594,1594,1601,1601,1601,1601,1609,1616,1616,1616,1616,1624,1624,1624,1624,1632,1632,1632,1632,1639,1639,1639,1647,1655,1655,1655,1655,1663,1663,1671,1671,1680,1680,1688,1680,1680,1688,1688,1688,1696,1696,1705,1713,1713,1722,1722,1722,1722,1731,1731,1731,1739,1739,1739,1748,1748,1757,1766,1766,1766,1776,1776,1776,1776,1785,1785,1785,1785,1785,1794,1794,1794,1794,1804,1794,1794,1794,1794,1785,1785,1785,0,0,0,0,1077,1073,1070,1063,1063,1063,1060,1060,1060,1060,1060,1060,1060,1060,1060,1060,1060,1063,1063,1063,1067,1073,1073,1077,1077,1077,1084,0,0,0,0,1696,1696,1696,1688,1688,1688,1688,1688,1688,1680,1671,1671,1663,1663,1663,1655,1655,1655,1655,1647,1647,1647,1639,1639,1632,1632,1632,1632,1632,1624,1624,1624,1624,1624,1616,1616,1616,1616,1616,1616,1609,1601,1601,1601,1594,1594,1594,1594,1594,1594,1586,1579,1579,1579,1579,1579,1579,1579,1572,1572,1564,1564,1564,1564,1564,1557,954,954,954,954,954,951,951,1550,1550,1550,1543,1543,1536,1536,1536,1529,1529,933,928,928,928,928,928,925,925,925,923,923,920,918,918,915,913,913,910,908,906,903,901,898,898,896,896,896,894,894,891,891,891,891,891,891,894,894,896,896,898,903,906,908,910,910,913,0,0,0,0,0,1421,1421,1421,1421,1421,1421,1421,1415,1415,1415,1415,1415,1415,1410,1410,1410,1410,1404,1404,1398,1398,1398,1398,1392,1392,1392,1392,1387,1387,1387,1387,1381,1381,1376,1376,1376,1376,1376,1376,1370,1370,1365,1365,1359,1359,1359,1354,1354,1354,1354,1354,1354,1349,1349,1343,1338,1333,1333,1333,1333,1333,1333,1333,1333,1328,1328,1328,1322,1322,1322,1322,1322,1317,1317,1317,1317,1312,1312,1312,1307,1307,1307,1307,1302,1302,1297,1297,1297,1292,1292,1288,1288,1288,1288,1288,1288,1283,1283,1278,1278,1273,1273,1273,1268,1268,1268,1264,1264,1264,1264,1264,1259,1259,1259,1255,1255,1255,1255,1255,1250,1250,1245,1245,1245,1241,1241,1241,1236,1236,1236,1232,1232,1232,1232,1232,1227,1227,1227,1223,1223,1223,1219,1219,1219,1214,1214,1214,1214,1214,1210,1206,1206,1206,1206,1202,1202,1202,1197,1197,1197,1193,1193,1193,1193,1193,1189,1189,1185,1185,1185,1185,1181,1181,1181,1181,1177,1177,1177,1173,1169,1169,1169,1169,1165,1165,1165,1165,1161,1161,1161,1157,1157,1157,1153,1153,1153,1149,1149,1149,1149,1149,1149,1149,1149,1145,1145,1145,1141,1141,1138,1138,1138,1138,1134,1134,1134,1134,1134,1130,1130,1130,1126,1126,1123,1123,1123,1123,1123,1123,1123,1123,1119,1119,1119,1119,1115,1112,1112,1108,1108,1108,1105,1105,1105,1105,1105,1105,1105,1105,0,0,0,0,0,0,0,0,0,0,0,0,0,0,0,0,0,0,0,0,0,0,0,0,0,0,0,0,0
0,0,0,0,0,0,0,0,0,0,0,0,0,1543,1543,1536,1536,1536,1536,1536,1536,1536,1536,1536,1536,1536,1536,1529,1529,1529,1536,1536,1536,1536,1536,1536,1536,1536,1536,1536,1536,1536,1536,1536,1536,1536,1536,1536,1536,1536,1536,1536,1536,1536,1536,1536,1536,1536,1536,1543,1543,1543,1543,1550,1557,1557,1564,1564,1564,1813,1813,1813,1813,1813,1813,1804,1804,1804,1794,1794,1785,1785,1785,1776,1776,1776,1776,1776,1557,1550,1550,1550,1550,1550,1550,1550,1550,1550,1550,1557,1557,1564,1564,1572,1572,1572,1572,1572,1579,1579,1586,1586,1594,1594,1601,1601,1601,1601,1609,1616,1616,1616,1616,1624,1624,1624,1632,1632,1632,1632,1632,1639,1639,1639,1647,1655,1655,1655,1655,1663,1663,1671,1671,1680,1680,1680,1680,1680,1688,1688,1688,1696,1696,1705,1713,1713,1722,1722,1722,1722,1731,1731,1731,1739,1739,1739,1748,1757,1757,1766,1766,1766,1776,1776,1776,1785,1785,1785,1785,1794,1794,1794,1794,1794,1804,1804,1794,1794,1794,1785,1776,1776,0,0,0,0,0,0,1073,1070,1063,1063,1063,1063,1060,1060,1060,1060,1060,1060,1060,1060,1060,1060,1063,1063,1063,1070,1073,1073,1077,1077,1077,1080,1080,0,0,0,1696,1696,1696,1696,1688,1688,1688,1688,1688,1680,1680,1671,1671,1663,1663,1655,1655,1655,1655,1655,1647,1647,1647,1639,1639,1632,1632,1632,1632,1632,1624,1624,1624,1624,1624,1624,1624,1616,1616,1616,1616,1609,1601,1601,1594,1594,1594,1594,1594,1586,1586,1586,1586,1579,1579,1579,1579,1579,1572,1572,1564,1564,1564,1564,1557,1557,1550,1550,1543,1543,1543,1543,1543,1543,1550,1543,1543,1536,1536,1536,1529,1529,1529,1523,928,928,928,925,925,925,925,925,923,923,923,920,918,915,913,910,908,908,906,903,903,901,898,898,896,896,896,894,891,891,891,891,891,891,894,894,896,896,898,901,906,908,910,913,915,0,0,0,0,0,1427,1427,1427,1427,1427,1421,1421,1415,1415,1415,1415,1415,1410,1410,1410,1410,1410,1404,1404,1404,1398,1398,1398,1398,1392,1392,1392,1387,1387,1387,1387,1381,1381,1376,1376,1376,1376,1376,1370,1370,1370,1370,1365,1365,1359,1359,1359,1354,1354,1354,1354,1354,1349,1349,1349,1343,1338,1333,1333,1333,1333,1333,1333,1333,1328,1328,1328,1328,1322,1322,1322,1322,1322,1317,1317,1317,1312,1312,1312,1307,1307,1307,1307,1302,1302,1297,1297,1297,1292,1292,1292,1288,1288,1288,1288,1288,1283,1283,1278,1278,1273,1273,1273,1273,1268,1268,1268,1268,1268,1268,1268,1264,1264,1259,1255,1255,1255,1255,1255,1250,1250,1245,1245,1245,1241,1241,1241,1236,1236,1236,1236,1232,1232,1232,1232,1227,1227,1227,1223,1223,1223,1219,1219,1219,1214,1214,1214,1214,1214,1210,1210,1206,1206,1206,1202,1202,1202,1202,1197,1197,1197,1193,1193,1193,1193,1189,1189,1189,1185,1185,1185,1181,1181,1181,1181,1177,1177,1177,1173,1169,1169,1169,1169,1165,1165,1165,1165,1161,1161,1161,1161,1161,1157,1157,1153,1153,1153,1153,1149,1149,1149,1149,1149,1149,1145,1145,1145,1145,1141,1141,1138,1138,1138,1134,1134,1134,1134,1134,1130,1130,1130,1126,1126,1123,1123,1123,1123,1123,1123,1123,1123,1119,1119,1119,1119,1115,1115,1112,1112,1108,1108,1108,1108,1108,1105,1105,1105,1105,1105,0,0,0,0,0,0,0,0,0,0,0,0,0,0,0,0,0,0,0,0,0,0,0,0,0,0,0,0,0
0,0,0,0,0,0,0,0,0,0,0,0,0,1543,1543,1536,1536,1536,1536,1536,1536,1536,1536,1536,1536,1536,1536,1529,1529,1536,1536,1536,1536,1536,1536,1536,1536,1536,1536,1536,1536,1536,1536,1536,1536,1536,1536,1536,1536,1536,1536,1543,1543,1536,1536,1536,1536,1543,1543,1543,1543,1543,1543,1550,1557,1557,1564,1564,1564,1813,1813,1813,1813,1813,1813,1804,1804,1804,1794,1794,1794,1794,1785,1776,1776,1776,1776,1776,1776,1536,1536,1557,1550,1550,1550,1550,1550,1550,1550,1557,1564,1564,1564,1572,1572,1572,1572,1572,1579,1579,1586,1586,1594,1594,1601,1601,1601,1601,1609,1616,1616,1616,1624,1624,1624,1624,1632,1632,1632,1632,1639,1639,1639,1639,1647,1655,1655,1655,1655,1663,1663,1671,1671,1680,1680,1680,1680,1680,1688,1688,1688,1696,1696,1705,1713,1722,1722,1722,1722,1731,1731,1731,1731,1739,1748,1748,1748,1757,1757,1766,1766,1766,1776,1776,1776,1785,1785,1785,1785,1794,1794,1794,1804,1804,1804,1804,1794,1794,1794,1785,1776,1776,0,0,0,0,0,0,1077,1073,1070,1067,1063,1063,1063,1060,1060,1060,1060,1060,1060,1060,1060,1060,1063,1063,1063,1070,1073,1073,1077,1077,1077,1080,1080,0,0,0,0,1696,1696,1696,1688,1688,1688,1688,1688,1680,1680,1680,1671,1671,1663,1655,1655,1655,1655,1655,1655,1647,1647,1647,1639,1639,1632,1632,1632,1632,1632,1632,1632,1632,1624,1624,1624,1624,1624,1616,1616,1609,1601,1601,1601,1594,1594,1594,1594,1586,1586,1586,1586,1579,1579,1579,1579,1572,1572,1572,1572,1564,1564,1564,1557,1557,1550,1550,1550,1550,1543,1543,1543,1543,1543,1543,1543,1536,1536,1536,1529,1529,1523,1523,1516,928,925,923,923,925,923,923,923,923,923,920,918,915,910,910,908,908,906,903,903,901,898,898,898,896,896,896,891,891,891,891,891,891,894,894,896,896,898,901,906,908,910,913,913,0,0,0,0,0,1427,1427,1427,1427,1427,1421,1421,1415,1415,1415,1415,1415,1410,1410,1410,1410,1410,1410,1404,1404,1404,1398,1398,1398,1392,1392,1392,1387,1387,1387,1387,1381,1381,1376,1376,1376,1376,1376,1370,1370,1370,1370,1365,1365,1359,1359,1359,1354,1354,1354,1354,1354,1349,1349,1343,1343,1338,1333,1333,1333,1333,1333,1333,1333,1333,1333,1328,1328,1328,1322,1322,1322,1322,1317,1317,1317,1312,1312,1312,1307,1307,1307,1307,1302,1302,1302,1302,1297,1297,1292,1292,1292,1288,1288,1288,1288,1283,1283,1278,1278,1278,1273,1273,1273,1273,1273,1268,1268,1268,1268,1268,1264,1264,1259,1259,1255,1255,1255,1255,1255,1250,1250,1250,1245,1245,1245,1241,1241,1236,1236,1236,1236,1232,1232,1232,1232,1227,1227,1223,1223,1223,1219,1219,1219,1214,1214,1214,1214,1214,1210,1210,1206,1206,1206,1202,1202,1202,1202,1202,1197,1197,1197,1193,1193,1193,1193,1189,1189,1185,1185,1185,1185,1181,1181,1181,1177,1177,1177,1177,1173,1169,1169,1169,1165,1165,1165,1165,1165,1161,1161,1161,1161,1161,1157,1157,1157,1153,1153,1153,1149,1149,1149,1149,1145,1145,1145,1141,1141,1141,1141,1141,1138,1138,1138,1134,1134,1134,1134,1130,1130,1130,1126,1126,1126,1123,1123,1123,1123,1123,1123,1123,1123,1123,1119,1119,1119,1115,1112,1112,1108,1108,1108,1108,1108,1105,1105,1105,1105,1105,0,0,0,0,0,0,0,0,0,0,0,0,0,0,0,0,0,0,0,0,0,0,0,0,0,0,0,0,0
0,0,0,0,0,0,0,0,0,0,0,0,0,1543,1543,1536,1536,1536,1536,1536,1543,1543,1536,1536,1543,1536,1536,1536,1536,1536,1536,1536,1536,1536,1536,1536,1536,1536,1536,1536,1536,1536,1536,1536,1536,1536,1536,1536,1536,1536,1536,1543,1543,1543,1536,1536,1543,1543,1543,1543,1543,1543,1543,1550,1557,1557,1564,1564,1564,1823,1813,1813,1813,1813,1813,1813,1813,1804,1804,1794,1794,1794,1794,1785,1785,1776,1776,1776,1776,1536,1536,1557,1557,1557,1557,1557,1557,1557,1557,1557,1564,1564,1564,1572,1572,1572,1572,1572,1579,1579,1586,1586,1594,1594,1601,1601,1601,1609,1609,1616,1616,1616,1624,1624,1624,1632,1632,1632,1632,1632,1639,1639,1639,1639,1647,1655,1655,1655,1655,1663,1663,1671,1671,1680,1680,1688,1688,1688,1688,1688,1696,1696,1696,1705,1705,1713,1713,1713,1722,1731,1731,1731,1739,1739,1748,1748,1757,1757,1766,1766,1766,1766,1776,1776,1776,1785,1785,1785,1785,1794,1794,1794,1804,1804,1804,1804,1804,1794,1794,1785,1766,1766,0,0,0,0,0,0,1077,1073,1070,1067,1063,1063,1063,1060,1060,1060,1060,1060,1060,1060,1060,1060,1063,1063,1067,1070,1073,1077,1077,1077,1077,1080,1080,0,0,0,0,1696,1696,1696,1696,1688,1688,1688,1688,1680,1680,1680,1671,1671,1663,1663,1663,1655,1655,1655,1655,1655,1647,1647,1639,1639,1639,1632,1632,1632,1632,1632,1632,1632,1624,1624,1624,1624,1624,1624,1616,1616,1609,1601,1601,1601,1594,1594,1594,1594,1594,1586,1586,1586,1579,1579,1579,1572,1572,1572,1572,1564,1564,1564,1564,1557,1557,1557,1550,1550,1550,1543,1543,1543,1543,1543,1543,1536,1536,1536,1529,1529,1523,1523,1516,1516,925,923,923,925,923,923,923,923,923,920,918,915,910,910,908,908,906,903,903,901,898,898,898,896,896,896,894,891,891,891,891,891,894,894,896,898,898,901,906,908,910,913,913,915,0,0,0,0,1427,1427,1427,1427,1427,1421,1421,1415,1415,1415,1415,1415,1415,1415,1415,1415,1410,1410,1404,1404,1404,1398,1398,1398,1392,1392,1392,1387,1387,1387,1387,1381,1381,1376,1376,1376,1376,1376,1376,1370,1370,1370,1365,1365,1365,1359,1359,1354,1354,1354,1354,1354,1349,1349,1343,1343,1338,1338,1333,1333,1333,1333,1333,1333,1333,1333,1333,1328,1328,1328,1328,1328,1322,1322,1317,1317,1312,1312,1312,1307,1307,1307,1307,1307,1302,1302,1302,1297,1297,1297,1292,1292,1288,1288,1288,1288,1283,1283,1283,1278,1278,1273,1273,1273,1273,1273,1268,1268,1268,1268,1268,1268,1264,1259,1259,1255,1255,1255,1255,1255,1250,1250,1250,1250,1245,1245,1245,1241,1241,1236,1236,1236,1232,1232,1232,1232,1227,1227,1227,1223,1223,1223,1223,1219,1219,1219,1214,1214,1214,1214,1210,1206,1206,1206,1202,1202,1202,1202,1202,1202,1197,1197,1197,1197,1193,1193,1193,1189,1189,1189,1185,1185,1181,1181,1181,1181,1181,1181,1177,1177,1169,1169,1169,1165,1165,1165,1165,1165,1165,1165,1165,1165,1161,1161,1161,1157,1153,1153,1153,1149,1149,1149,1149,1145,1145,1145,1141,1141,1141,1141,1141,1141,1138,1138,1138,1134,1134,1134,1130,1130,1130,1126,1126,1126,1123,1123,1123,1123,1123,1123,1123,1123,1123,1123,1119,1119,1119,1115,1112,1108,1108,1108,1108,1108,1105,1105,1105,1105,1105,0,0,0,0,0,0,0,0,0,0,0,0,0,0,0,0,0,0,0,0,0,0,0,0,0,0,0,0,0
0,0,0,0,0,0,0,0,0,0,0,0,0,1543,1543,1543,1543,1543,1536,1536,1543,1543,1536,1536,1536,1543,1543,1536,1536,1536,1536,1536,1536,1536,1536,1536,1536,1536,1536,1536,1536,1536,1536,1536,1536,1536,1536,1536,1536,1536,1536,1543,1543,1543,1543,1543,1543,1543,1543,1543,1543,1543,1543,1550,1557,1557,1564,1564,1572,1594,1813,1813,1813,1813,1823,1813,1813,1813,1804,1804,1794,1794,1794,1794,1794,1785,1776,1776,1776,1564,1564,1557,1557,1557,1557,1557,1557,1557,1557,1564,1564,1564,1564,1572,1572,1572,1572,1579,1579,1579,1586,1594,1594,1601,1601,1601,1601,1609,1616,1616,1616,1624,1624,1624,1632,1632,1632,1632,1632,1639,1639,1639,1639,1647,1655,1655,1655,1655,1655,1663,1663,1671,1671,1680,1680,1688,1688,1688,1688,1688,1696,1696,1696,1705,1705,1713,1713,1713,1722,1731,1731,1731,1739,1739,1748,1748,1757,1757,1766,1766,1766,1766,1776,1776,1776,1785,1785,1785,1785,1794,1794,1794,1804,1804,1804,1804,1804,1794,1794,1785,1766,1766,0,0,0,0,0,0,1080,1080,1077,1070,1063,1063,1063,1060,1060,1060,1060,1060,1060,1060,1060,1063,1063,1067,1067,1073,1073,1077,1077,1077,1077,1080,1080,0,0,0,0,1696,1696,1696,1696,1688,1688,1688,1688,1680,1680,1680,1671,1671,1663,1663,1663,1663,1655,1655,1655,1655,1655,1647,1647,1639,1639,1639,1632,1632,1632,1632,1632,1632,1624,1624,1624,1624,1624,1624,1616,1616,1609,1609,1601,1601,1601,1594,1594,1594,1594,1594,1586,1586,1579,1579,1579,1572,1572,1572,1572,1564,1564,1564,1564,1557,1557,1557,1557,1550,1550,1543,1543,1543,1543,1543,1543,1536,1536,1536,1529,1529,1529,1523,1516,1516,925,925,1509,1509,1516,1516,1516,1516,925,923,918,915,910,910,908,908,906,906,903,901,901,898,898,898,896,896,894,891,891,891,891,891,894,894,896,898,898,903,906,908,913,913,913,915,0,0,0,0,1439,1433,1433,1427,1427,1427,1421,1421,1415,1415,1415,1415,1415,1415,1415,1415,1415,1410,1404,1404,1404,1398,1398,1398,1392,1392,1392,1392,1387,1387,1387,1381,1381,1376,1376,1376,1376,1376,1376,1370,1370,1370,1370,1365,1365,1365,1359,1359,1354,1354,1354,1354,1349,1349,1349,1343,1338,1338,1338,1333,1333,1333,1333,1333,1333,1333,1333,1333,1328,1328,1328,1328,1322,1322,1317,1317,1312,1312,1312,1312,1307,1307,1307,1307,1302,1302,1302,1302,1297,1297,1292,1292,1292,1288,1288,1288,1288,1283,1283,1283,1278,1278,1278,1273,1273,1273,1273,1273,1268,1268,1268,1268,1264,1259,1259,1255,1255,1255,1255,1255,1255,1250,1250,1250,1245,1245,1245,1241,1241,1241,1236,1236,1236,1232,1232,1232,1227,1227,1227,1227,1223,1223,1223,1219,1219,1219,1214,1214,1214,1214,1210,1210,1206,1206,1202,1202,1202,1202,1202,1202,1197,1197,1197,1197,1193,1193,1193,1193,1189,1189,1185,1185,1185,1185,1181,1181,1181,1181,1177,1177,1173,1169,1169,1169,1169,1165,1165,1165,1165,1165,1165,1165,1165,1161,1161,1157,1153,1153,1153,1149,1149,1149,1149,1149,1149,1145,1145,1145,1141,1141,1141,1141,1138,1138,1138,1134,1134,1134,1130,1130,1130,1126,1126,1126,1123,1123,1123,1123,1123,1123,1123,1123,1123,1123,1119,1119,1119,1115,1112,1108,1108,1108,1108,1108,1105,1105,1105,1105,1105,0,0,0,0,0,0,0,0,0,0,0,0,0,0,0,0,0,0,0,0,0,0,0,0,0,0,0,0,0
0,0,0,0,0,0,0,0,0,0,0,0,0,1543,1543,1543,1543,1543,1543,1543,1543,1543,1543,1536,1536,1543,1543,1536,1536,1536,1543,1543,1543,1536,1536,1536,1536,1536,1536,1536,1536,1536,1536,1536,1536,1543,1543,1543,1543,1543,1536,1536,1543,1543,1543,1543,1543,1543,1543,1543,1543,1543,1543,1550,1557,1564,1564,1564,1572,1594,1813,1813,1813,1813,1813,1813,1813,1804,1804,1804,1804,1794,1794,1794,1794,1794,1785,1785,1785,1564,1564,1557,1557,1557,1557,1557,1557,1557,1557,1564,1564,1572,1572,1572,1572,1572,1579,1579,1579,1586,1594,1594,1594,1601,1601,1601,1601,1609,1616,1616,1616,1616,1624,1624,1632,1632,1632,1632,1632,1639,1639,1639,1639,1647,1655,1655,1655,1655,1663,1663,1663,1671,1671,1680,1688,1688,1688,1688,1696,1696,1696,1696,1696,1705,1705,1713,1713,1713,1722,1731,1731,1731,1739,1739,1748,1748,1757,1757,1766,1766,1766,1766,1776,1776,1785,1785,1785,1794,1794,1794,1794,1804,1804,1804,1804,1804,1804,1794,1794,1785,1785,0,0,0,0,0,0,0,1080,1077,1077,1073,1070,1067,1063,1060,1060,1060,1060,1060,1060,1060,1060,1063,1063,1067,1070,1073,1073,1077,1077,1077,1080,1080,1084,0,0,0,0,0,1696,1696,1696,1696,1696,1688,1688,1688,1680,1680,1671,1671,1663,1663,1663,1663,1663,1655,1655,1655,1655,1655,1647,1647,1639,1639,1632,1632,1632,1632,1632,1632,1624,1624,1624,1624,1624,1624,1624,1616,1616,1609,1609,1601,1601,1594,1594,1594,1594,1594,1586,1586,1579,1579,1579,1572,1572,1572,1572,1564,1564,1564,1564,1557,1557,1557,1557,1550,1550,1543,1543,1543,1543,1543,1543,1543,1536,1536,1536,1529,1529,1529,1523,1516,1516,1516,1509,1509,1516,1516,1516,1516,0,0,910,0,0,910,908,908,906,906,903,903,901,898,898,898,896,896,896,894,894,891,891,891,894,894,896,898,898,908,908,910,913,915,915,0,0,0,0,0,1439,1433,1433,1433,1427,1427,1421,1421,1415,1415,1415,1415,1415,1415,1415,1415,1415,1410,1410,1404,1404,1404,1398,1398,1392,1392,1392,1392,1392,1387,1387,1381,1381,1381,1376,1376,1376,1376,1376,1376,1370,1370,1370,1370,1370,1365,1365,1359,1359,1354,1354,1354,1349,1349,1349,1343,1343,1343,1338,1338,1338,1338,1333,1333,1333,1333,1333,1333,1328,1328,1328,1328,1328,1322,1322,1317,1317,1312,1312,1312,1312,1307,1307,1307,1307,1302,1302,1302,1297,1297,1292,1292,1292,1288,1288,1288,1288,1283,1283,1283,1283,1278,1278,1278,1273,1273,1273,1273,1268,1268,1268,1264,1264,1264,1259,1259,1259,1255,1255,1255,1255,1250,1250,1250,1250,1250,1245,1241,1241,1241,1241,1236,1236,1236,1236,1232,1232,1232,1227,1227,1223,1223,1223,1219,1219,1219,1214,1214,1214,1214,1210,1210,1210,1206,1206,1202,1202,1202,1202,1202,1197,1197,1197,1197,1193,1193,1193,1193,1189,1189,1189,1185,1185,1185,1181,1181,1181,1181,1177,1177,1173,1173,1169,1169,1169,1169,1169,1165,1165,1165,1165,1165,1165,1165,1161,1157,1157,1153,1153,1153,1153,1149,1149,1149,1149,1145,1145,1145,1141,1141,1141,1141,1138,1138,1138,1134,1134,1134,1134,1130,1130,1130,1126,1126,1123,1123,1123,1123,1123,1123,1123,1123,1123,1123,1119,1119,1119,1115,1112,1108,1108,1108,1108,1108,1105,1105,1105,1105,1105,0,0,0,0,0,0,0,0,0,0,0,0,0,0,0,0,0,0,0,0,0,0,0,0,0,0,0,0,0
0,0,0,0,0,0,0,0,0,0,0,0,0,1550,1550,1543,1543,1543,1543,1543,1543,1543,1543,1543,1543,1543,1543,1543,1536,1536,1543,1543,1543,1536,1536,1536,1536,1536,1536,1536,1536,1536,1536,1536,1536,1536,1536,1543,1543,1543,1536,1536,1543,1543,1543,1543,1543,1543,1543,1543,1543,1543,1543,1550,1557,1564,1564,1564,1572,1594,1813,1813,1813,1813,1813,1813,1813,1804,1804,1804,1804,1794,1794,1794,1794,1794,1785,1785,1785,1785,1572,1572,1564,1564,1564,1564,1564,1564,1564,1564,1564,1572,1572,1572,1572,1579,1579,1579,1579,1586,1594,1594,1594,1601,1601,1601,1601,1609,1616,1616,1616,1616,1624,1624,1632,1632,1632,1632,1639,1639,1639,1639,1639,1647,1655,1655,1655,1663,1663,1663,1671,1671,1671,1680,1688,1688,1688,1696,1696,1696,1705,1705,1713,1713,1713,1713,1713,1713,1722,1731,1731,1731,1739,1748,1748,1757,1757,1757,1757,1766,1766,1766,1776,1776,1785,1785,1785,1794,1794,1794,1794,1804,1804,1804,1804,1813,1804,1804,1794,1785,1785,0,0,0,0,0,0,0,1080,1077,1077,1073,1070,1067,1063,1063,1063,1063,1060,1060,1060,1060,1060,1063,1063,1067,1070,1073,1073,1077,1077,1077,1080,1080,1084,0,0,0,0,1722,1696,1696,1696,1696,1696,1688,1688,1688,1680,1680,1688,1671,1663,1663,1663,1663,1663,1655,1655,1655,1655,1655,1655,1647,1647,1639,1639,1632,1632,1632,1632,1632,1624,1624,1624,1624,1624,1624,1624,1616,1616,1609,1609,1601,1601,1601,1601,1594,1594,1594,1594,1586,1586,1586,1579,1572,1572,1572,1572,1572,1564,1564,1564,1564,1557,1557,1557,1557,1550,1550,1550,1550,1543,1543,1543,1543,1536,1536,1536,1536,1529,1529,1523,1516,1516,1516,1516,1516,1523,1516,1516,0,0,0,0,0,0,910,908,908,906,906,903,903,901,898,898,898,896,896,896,894,894,891,891,891,894,896,896,898,906,908,910,910,913,915,915,0,0,0,0,0,1439,1439,1433,1433,1433,1427,1427,1427,1421,1421,1421,1421,1415,1415,1415,1415,1415,1410,1410,1404,1404,1404,1398,1398,1398,1398,1392,1392,1392,1387,1387,1381,1381,1381,1381,1381,1376,1376,1376,1376,1376,1370,1370,1370,1370,1370,1365,1365,1359,1359,1354,1354,1354,1349,1349,1349,1349,1343,1343,1343,1338,1338,1338,1338,1333,1333,1333,1333,1333,1328,1328,1328,1328,1328,1322,1322,1317,1317,1312,1312,1312,1312,1307,1307,1307,1307,1302,1302,1297,1297,1292,1292,1292,1292,1292,1288,1288,1283,1283,1283,1283,1278,1278,1278,1273,1273,1273,1273,1273,1268,1268,1264,1264,1264,1259,1259,1259,1255,1255,1255,1255,1255,1250,1250,1250,1250,1245,1245,1241,1241,1241,1241,1236,1236,1236,1232,1232,1232,1227,1227,1223,1223,1223,1219,1219,1219,1214,1214,1214,1214,1214,1210,1210,1206,1206,1202,1202,1202,1202,1202,1202,1197,1197,1197,1197,1193,1193,1193,1189,1189,1189,1185,1185,1185,1185,1181,1181,1181,1177,1177,1177,1173,1173,1169,1169,1169,1169,1165,1165,1165,1165,1165,1165,1165,1161,1161,1157,1153,1153,1153,1153,1153,1149,1149,1149,1145,1145,1145,1145,1141,1141,1141,1141,1141,1138,1138,1138,1134,1134,1130,1130,1130,1126,1126,1123,1123,1123,1123,1123,1123,1123,1123,1119,1119,1119,1119,1115,1115,1112,1108,1108,1108,1108,1108,1105,1105,1105,1105,1105,0,0,0,0,0,0,0,0,0,0,0,0,0,0,0,0,0,0,0,0,0,0,0,0,0,0,0,0,0
0,0,0,0,0,0,0,0,0,0,0,0,0,1550,1550,1543,1543,1543,1543,1543,1543,1543,1543,1543,1543,1543,1543,1543,1543,1543,1543,1543,1543,1536,1536,1543,1536,1536,1536,1536,1536,1536,1536,1536,1536,1536,1536,1543,1543,1543,1543,1543,1543,1543,1543,1543,1543,1543,1543,1543,1543,1543,1543,1550,1557,1564,1564,1572,1572,1813,1813,1813,1804,1804,1813,1813,1813,1804,1804,1804,1804,1804,1794,1794,1794,1794,1785,1785,1785,1785,1572,1572,1572,1572,1564,1564,1564,1564,1564,1564,1572,1572,1572,1572,1572,1579,1579,1586,1586,1586,1594,1594,1594,1601,1601,1601,1609,1609,1616,1616,1616,1616,1624,1624,1632,1632,1632,1632,1639,1639,1639,1639,1639,1647,1655,1655,1655,1663,1663,1671,1671,1671,1680,1688,1688,1688,1688,1696,1696,1696,1705,1705,1713,1713,1713,1722,1722,1722,1722,1731,1731,1739,1739,1748,1748,1757,1757,1757,1757,1766,1766,1766,1776,1776,1785,1785,1794,1794,1794,1794,1794,1804,1804,1804,1804,1813,1804,1804,1794,1794,1794,0,0,0,0,0,0,0,1077,1077,1077,1073,1070,1067,1063,1063,1063,1063,1063,1063,1063,1063,1063,1063,1067,1067,1070,1073,1073,1077,1077,1077,1080,1080,0,0,0,0,0,1713,1696,1696,1696,1696,1696,1688,1688,1688,1688,1688,1688,1671,1663,1663,1663,1663,1663,1663,1655,1655,1655,1655,1655,1647,1647,1639,1639,1632,1632,1632,1632,1632,1632,1632,1624,1624,1624,1624,1624,1624,1616,1616,1609,1601,1601,1601,1601,1601,1594,1594,1594,1586,1586,1586,1579,1579,1579,1572,1572,1572,1572,1564,1564,1564,1564,1557,1557,1557,1550,1550,1550,1550,1550,1543,1543,1543,1543,1536,1536,1536,1536,1529,1523,1523,1523,1523,1516,1516,1523,1516,1516,0,0,0,0,0,0,0,908,906,906,903,903,903,901,901,898,898,898,896,896,894,894,894,894,894,896,896,896,898,906,908,910,910,915,915,915,0,0,0,0,0,1439,1439,1433,1433,1433,1427,1427,1427,1421,1421,1421,1421,1415,1415,1415,1415,1415,1410,1410,1404,1404,1404,1398,1398,1398,1398,1392,1392,1392,1392,1387,1381,1381,1381,1381,1381,1376,1376,1376,1376,1376,1370,1370,1370,1370,1370,1365,1365,1359,1359,1354,1354,1354,1349,1349,1349,1349,1349,1343,1343,1343,1343,1338,1338,1333,1333,1333,1333,1333,1333,1328,1328,1328,1328,1322,1322,1317,1317,1312,1312,1312,1312,1307,1307,1307,1307,1307,1302,1302,1297,1297,1292,1292,1292,1292,1288,1288,1288,1283,1283,1283,1283,1278,1278,1278,1273,1273,1273,1273,1273,1268,1268,1268,1264,1264,1259,1259,1259,1259,1255,1255,1255,1255,1250,1250,1250,1245,1245,1245,1241,1241,1241,1236,1236,1236,1232,1232,1232,1227,1227,1227,1223,1223,1223,1219,1219,1219,1214,1214,1214,1214,1210,1210,1210,1206,1206,1202,1202,1202,1202,1202,1197,1197,1197,1197,1197,1197,1193,1193,1189,1189,1185,1185,1185,1185,1181,1181,1181,1181,1181,1177,1177,1173,1169,1169,1169,1169,1169,1169,1169,1169,1165,1165,1165,1161,1161,1157,1153,1153,1153,1153,1153,1149,1149,1149,1145,1145,1145,1145,1145,1141,1141,1141,1141,1138,1138,1138,1134,1134,1134,1130,1130,1130,1126,1126,1126,1123,1123,1123,1123,1123,1123,1119,1119,1119,1119,1115,1115,1112,1112,1108,1108,1108,1108,1108,1105,1105,1105,0,0,0,0,0,0,0,0,0,0,0,0,0,0,0,0,0,0,0,0,0,0,0,0,0,0,0,0,0,0
0,0,0,0,0,0,0,0,0,0,0,0,0,1550,1550,1550,1550,1543,1543,1543,1543,1543,1543,1543,1543,1543,1543,1536,1536,1536,1543,1543,1543,1543,1543,1543,1543,1543,1536,1536,1536,1536,1536,1536,1536,1536,1536,1536,1543,1543,1543,1543,1543,1543,1543,1543,1543,1543,1543,1543,1550,1550,1550,1557,1564,1564,1564,1572,1572,1579,1823,1813,1804,1804,1813,1804,1804,1804,1804,1804,1794,1794,1794,1794,1794,1794,1785,1785,1785,1572,1572,1572,1572,1572,1564,1564,1564,1564,1564,1564,1572,1572,1572,1572,1572,1579,1579,1586,1586,1586,1594,1594,1601,1601,1601,1609,1609,1616,1616,1616,1616,1624,1624,1624,1632,1632,1632,1632,1639,1639,1639,1639,1639,1655,1655,1655,1663,1663,1671,1671,1680,1680,1680,1688,1688,1688,1696,1696,1696,1705,1705,1705,1713,1713,1713,1722,1722,1722,1731,1731,1739,1748,1748,1748,1757,1757,1757,1757,1757,1766,1766,1766,1776,1785,1794,1794,1794,1794,1794,1794,1794,1804,1804,1813,1813,1813,1804,1804,1804,1794,1794,1804,0,0,0,0,0,0,1077,1077,1077,1073,1070,1067,1063,1063,1063,1063,1063,1063,1063,1063,1063,1067,1067,1070,1073,1073,1073,1077,1077,1077,1080,1080,0,0,0,1713,1713,1713,1696,1696,1696,1696,1696,1688,1688,1688,1688,1688,1680,1671,1671,1671,1663,1663,1663,1663,1655,1655,1655,1655,1655,1655,1647,1647,1639,1639,1632,1632,1632,1632,1632,1632,1624,1624,1624,1624,1624,1624,1616,1616,1609,1609,1601,1601,1601,1601,1601,1594,1594,1594,1586,1586,1586,1579,1579,1572,1572,1572,1572,1572,1564,1564,1564,1564,1564,1557,1557,1550,1550,1550,1550,1550,1543,1543,1543,1543,1536,1536,1536,1536,1529,1523,1523,1523,1516,1516,1523,1516,1516,0,0,0,0,0,0,0,908,906,906,903,903,903,901,901,898,898,898,896,896,894,894,894,894,894,896,896,896,898,906,908,910,910,913,913,913,0,0,0,0,0,1439,1439,1439,1433,1433,1427,1427,1427,1421,1421,1421,1421,1421,1421,1415,1415,1415,1415,1410,1410,1410,1404,1404,1398,1398,1398,1398,1392,1392,1392,1387,1387,1387,1381,1381,1381,1376,1376,1376,1376,1376,1370,1370,1370,1370,1370,1365,1365,1359,1359,1354,1354,1354,1349,1349,1349,1349,1349,1343,1343,1343,1343,1338,1338,1338,1333,1333,1333,1333,1333,1328,1328,1328,1328,1322,1322,1317,1317,1312,1312,1312,1312,1307,1307,1307,1307,1307,1302,1302,1297,1297,1297,1292,1292,1292,1288,1288,1288,1288,1288,1283,1283,1283,1278,1278,1278,1273,1273,1273,1273,1273,1268,1268,1264,1264,1264,1259,1259,1259,1255,1255,1255,1255,1250,1250,1250,1250,1245,1245,1245,1241,1241,1236,1236,1236,1232,1232,1232,1232,1227,1227,1227,1223,1223,1223,1219,1219,1219,1219,1214,1214,1214,1210,1210,1206,1206,1202,1202,1202,1202,1202,1197,1197,1197,1197,1197,1197,1197,1193,1189,1189,1189,1185,1185,1185,1181,1181,1181,1181,1181,1177,1177,1173,1173,1169,1169,1169,1169,1169,1169,1169,1169,1165,1165,1161,1161,1157,1157,1153,1153,1153,1153,1153,1149,1149,1149,1145,1145,1145,1145,1141,1141,1141,1141,1138,1138,1138,1134,1134,1134,1134,1130,1130,1130,1126,1126,1123,1123,1123,1123,1123,1119,1119,1119,1119,1119,1115,1115,1112,1112,1108,1108,1108,1108,1108,1108,1105,1105,0,0,0,0,0,0,0,0,0,0,0,0,0,0,0,0,0,0,0,0,0,0,0,0,0,0,0,0,0,0
0,0,0,0,0,0,0,0,0,0,0,0,0,1557,1550,1550,1550,1543,1543,1543,1543,1543,1543,1543,1543,1543,1543,1536,1536,1536,1543,1543,1543,1543,1543,1543,1543,1543,1536,1536,1536,1536,1536,1536,1536,1536,1536,1536,1543,1543,1543,1543,1543,1543,1543,1543,1543,1543,1543,1543,1550,1550,1550,1557,1564,1564,1564,1572,1572,1572,1823,1794,1794,1794,1794,1794,1794,1794,1794,1794,1794,1794,1794,1794,1794,1794,1785,1785,1785,1572,1572,1572,1572,1572,1572,1564,1564,1564,1564,1564,1572,1572,1572,1572,1579,1586,1586,1586,1586,1594,1594,1594,1601,1601,1601,1609,1609,1616,1616,1616,1616,1624,1624,1624,1632,1632,1632,1632,1632,1639,1639,1647,1647,1655,1655,1655,1663,1663,1671,1671,1680,1680,1688,1688,1688,1688,1696,1696,1696,1705,1705,1705,1713,1722,1722,1722,1722,1722,1731,1731,1739,1748,1748,1748,1757,1757,1757,1757,1757,1766,1766,1766,1776,1785,1794,1794,1794,1794,1794,1794,1794,1804,1804,1813,1813,1813,1813,1804,1804,1804,1804,1804,1804,0,0,0,0,0,1077,1073,1073,1073,1070,1067,1063,1063,1063,1063,1063,1063,1063,1063,1067,1067,1070,1070,1073,1073,1077,1077,1077,1080,1080,0,0,0,0,0,1713,1713,1696,1696,1696,1696,1696,1688,1688,1688,1688,1688,1680,1680,1671,1671,1671,1663,1663,1663,1655,1655,1655,1655,1655,1655,1647,1647,1647,1639,1632,1632,1632,1632,1632,1632,1624,1624,1624,1624,1624,1624,1616,1616,1609,1609,1609,1601,1601,1601,1601,1594,1594,1594,1594,1586,1586,1586,1586,1579,1572,1572,1572,1572,1564,1564,1564,1564,1564,1557,1557,1557,1557,1550,1550,1550,1543,1543,1543,1543,1536,1536,1536,1529,1529,1523,1523,1523,1516,1516,1523,1516,1516,0,0,0,0,0,0,0,908,906,906,903,903,903,901,901,898,898,898,896,896,894,894,894,894,896,896,896,898,906,906,908,910,910,913,910,910,0,0,0,0,0,1439,1439,1439,1433,1433,1433,1427,1427,1427,1421,1421,1421,1421,1421,1421,1415,1415,1415,1410,1410,1410,1404,1404,1398,1398,1398,1398,1398,1392,1392,1392,1387,1387,1387,1381,1381,1381,1381,1376,1376,1376,1376,1370,1370,1370,1370,1365,1365,1365,1359,1354,1354,1354,1354,1349,1349,1349,1349,1349,1343,1343,1343,1338,1338,1338,1338,1333,1333,1333,1333,1328,1328,1328,1328,1322,1322,1317,1317,1312,1312,1312,1312,1307,1307,1307,1307,1307,1307,1302,1302,1297,1297,1297,1292,1292,1288,1288,1288,1288,1288,1288,1283,1283,1283,1278,1278,1278,1273,1273,1273,1273,1268,1268,1268,1264,1264,1259,1259,1255,1255,1255,1255,1255,1250,1250,1250,1250,1250,1245,1245,1241,1241,1236,1236,1236,1236,1232,1232,1232,1232,1232,1232,1227,1227,1223,1219,1219,1219,1219,1214,1214,1214,1210,1210,1206,1206,1202,1202,1202,1202,1202,1202,1197,1197,1197,1197,1197,1197,1193,1193,1189,1189,1185,1185,1185,1181,1181,1181,1181,1181,1177,1177,1173,1173,1173,1169,1169,1169,1169,1169,1169,1169,1165,1165,1161,1161,1157,1157,1153,1153,1153,1153,1153,1153,1149,1149,1149,1149,1149,1145,1141,1141,1141,1141,1138,1138,1138,1134,1134,1134,1134,1130,1130,1130,1130,1126,1126,1123,1123,1123,1123,1119,1119,1119,1119,1119,1115,1115,1112,1112,1108,1108,1108,1108,1108,1105,1105,1105,0,0,0,0,0,0,0,0,0,0,0,0,0,0,0,0,0,0,0,0,0,0,0,0,0,0,0,0,0,0
0,0,0,0,0,0,0,0,0,0,0,0,0,1557,1557,1550,1550,1550,1550,1550,1543,1543,1543,1543,1543,1543,1543,1543,1543,1543,1550,1550,1543,1543,1543,1543,1543,1543,1536,1536,1536,1536,1536,1536,1536,1543,1543,1543,1543,1543,1543,1543,1543,1543,1543,1543,1543,1543,1543,1543,1550,1550,1550,1557,1564,1564,1564,1564,1572,1572,1579,1794,1794,1794,1785,1785,1776,1776,1785,1785,1794,1794,1785,1785,1785,1785,1776,1776,1776,1572,1572,1572,1572,1572,1572,1564,1564,1572,1572,1572,1572,1572,1572,1572,1579,1586,1586,1586,1586,1594,1594,1601,1601,1601,1609,1609,1609,1616,1616,1616,1616,1624,1624,1632,1632,1632,1632,1632,1632,1639,1639,1647,1647,1655,1655,1663,1663,1663,1671,1671,1680,1680,1688,1688,1688,1696,1696,1696,1705,1705,1705,1713,1722,1722,1722,1722,1722,1731,1731,1739,1748,1748,1748,1748,1757,1757,1757,1757,1757,1766,1766,1776,1785,1785,1794,1794,1794,1794,1794,1794,1794,1804,1804,1813,1813,1813,1813,1813,1813,1804,1804,1804,1804,0,0,0,0,1073,1073,1073,1073,1070,1070,1067,1067,1063,1063,1063,1063,1063,1063,1063,1067,1067,1070,1070,1073,1073,1077,1077,1077,1080,1084,1087,1087,0,0,1705,1705,1705,1696,1696,1696,1696,1696,1688,1688,1688,1688,1688,1680,1680,1671,1671,1671,1663,1663,1663,1663,1663,1655,1655,1655,1655,1655,1647,1647,1639,1639,1632,1632,1632,1632,1632,1624,1624,1624,1624,1624,1624,1616,1616,1609,1609,1609,1601,1601,1601,1601,1594,1594,1594,1594,1586,1586,1579,1579,1579,1579,1579,1572,1572,1572,1572,1564,1564,1564,1557,1557,1557,1557,1557,1550,1550,1543,1543,1543,1543,1536,1536,1536,1529,1529,1523,1523,1523,1516,1516,1523,1516,1516,0,0,0,0,0,0,0,908,908,906,906,903,903,901,901,898,898,898,896,896,896,896,896,896,896,898,898,898,906,908,908,908,910,910,910,910,0,0,0,0,1439,1439,1439,1439,1439,1433,1433,1427,1427,1427,1421,1421,1421,1421,1421,1421,1421,1415,1415,1410,1410,1410,1404,1404,1398,1398,1398,1398,1398,1392,1392,1392,1392,1392,1387,1387,1387,1381,1381,1376,1376,1376,1376,1370,1370,1370,1370,1370,1365,1365,1365,1354,1354,1354,1354,1354,1354,1349,1349,1349,1343,1343,1343,1338,1338,1338,1338,1333,1333,1333,1333,1328,1328,1328,1328,1328,1322,1317,1317,1317,1312,1312,1312,1307,1307,1307,1307,1307,1307,1307,1302,1302,1302,1297,1297,1292,1292,1288,1288,1288,1288,1288,1283,1283,1283,1278,1278,1278,1273,1273,1273,1273,1268,1268,1268,1264,1264,1259,1259,1255,1255,1255,1255,1255,1250,1250,1250,1250,1250,1245,1245,1245,1241,1236,1236,1236,1236,1236,1236,1232,1232,1232,1232,1227,1227,1223,1223,1219,1219,1219,1219,1214,1214,1214,1210,1210,1206,1206,1202,1202,1202,1202,1202,1202,1202,1197,1197,1197,1197,1193,1193,1193,1189,1185,1185,1185,1185,1181,1181,1181,1181,1181,1177,1177,1173,1173,1169,1169,1169,1169,1169,1169,1169,1165,1165,1161,1161,1157,1157,1157,1153,1153,1153,1153,1153,1149,1149,1149,1149,1149,1145,1145,1141,1141,1141,1138,1138,1138,1138,1134,1134,1134,1134,1134,1130,1130,1126,1126,1123,1123,1123,1123,1119,1119,1119,1119,1119,1115,1115,1112,1112,1108,1108,1108,1108,1108,1105,1105,1105,0,0,0,0,0,0,0,0,0,0,0,0,0,0,0,0,0,0,0,0,0,0,0,0,0,0,0,0,0,0
0,0,0,0,0,0,0,0,0,0,0,0,0,1557,1557,1557,1557,1550,1550,1543,1543,1543,1543,1543,1543,1543,1543,1543,1543,1543,1550,1550,1543,1543,1543,1543,1543,1543,1536,1536,1536,1536,1536,1536,1536,1543,1543,1543,1543,1543,1543,1543,1543,1543,1543,1543,1543,1543,1543,1543,1550,1550,1550,1557,1557,1564,1564,1564,1564,1572,1572,1776,1776,1776,1776,1766,1766,1766,1766,1776,1794,1785,1785,1785,1785,1776,1766,1757,1757,1572,1572,1572,1572,1572,1572,1572,1572,1572,1572,1572,1572,1572,1572,1572,1579,1579,1586,1586,1586,1594,1594,1601,1601,1601,1609,1609,1609,1616,1616,1624,1624,1624,1624,1632,1632,1632,1632,1632,1632,1639,1639,1647,1647,1655,1655,1663,1663,1671,1671,1680,1680,1680,1688,1688,1688,1696,1696,1696,1705,1705,1705,1713,1722,1722,1722,1722,1731,1731,1731,1739,1748,1748,1748,1748,1757,1757,1757,1757,1757,1766,1766,1766,1776,1785,1785,1794,1794,1794,1794,1794,1794,1804,1804,1813,1813,1813,1813,1813,1813,1804,1804,1794,1794,0,0,0,0,1073,1073,1073,1073,1070,1070,1067,1067,1063,1063,1063,1063,1063,1063,1063,1067,1067,1070,1073,1073,1077,1077,1080,1080,1084,1087,1087,0,1696,1696,1705,1705,1705,1696,1696,1696,1696,1696,1696,1696,1688,1688,1688,1688,1680,1680,1671,1671,1663,1663,1663,1663,1663,1663,1655,1655,1655,1655,1655,1647,1647,1639,1632,1632,1632,1632,1632,1632,1624,1624,1624,1624,1624,1624,1616,1616,1609,1609,1609,1601,1601,1601,1594,1594,1594,1594,1586,1586,1579,1579,1579,1579,1579,1579,1572,1572,1572,1572,1564,1564,1557,1557,1557,1557,1557,1557,1550,1550,1543,1543,1543,1536,1536,1536,1529,1529,1523,1523,1523,1516,1516,1523,1516,1516,0,0,0,0,0,0,0,908,908,906,906,906,903,903,901,898,898,898,896,896,896,896,896,896,898,898,901,901,906,908,908,908,910,910,910,0,0,0,0,0,1439,1439,1439,1439,1439,1433,1433,1433,1427,1427,1427,1421,1421,1421,1421,1421,1421,1415,1415,1415,1410,1410,1410,1404,1398,1398,1398,1398,1398,1392,1392,1392,1392,1392,1387,1387,1387,1381,1381,1381,1376,1376,1376,1376,1370,1370,1370,1370,1365,1365,1365,1359,1354,1354,1354,1354,1354,1354,1349,1349,1349,1343,1343,1343,1338,1338,1338,1333,1333,1333,1333,1333,1328,1328,1328,1328,1328,1322,1322,1317,1317,1312,1312,1307,1307,1307,1307,1307,1307,1307,1307,1302,1302,1302,1297,1297,1292,1288,1288,1288,1288,1288,1288,1283,1283,1278,1278,1278,1273,1273,1273,1273,1273,1268,1268,1264,1264,1259,1259,1259,1255,1255,1255,1255,1255,1250,1250,1250,1250,1245,1245,1245,1241,1241,1236,1236,1236,1236,1236,1232,1232,1232,1232,1232,1227,1223,1223,1219,1219,1219,1219,1214,1214,1214,1210,1210,1210,1206,1206,1202,1202,1202,1202,1202,1202,1202,1197,1197,1197,1197,1193,1193,1189,1189,1185,1185,1185,1181,1181,1181,1181,1181,1177,1177,1173,1173,1169,1169,1169,1169,1169,1169,1169,1165,1165,1161,1161,1161,1157,1157,1153,1153,1153,1153,1153,1149,1149,1149,1149,1149,1145,1145,1141,1141,1141,1138,1138,1138,1138,1134,1134,1134,1134,1134,1130,1130,1130,1130,1126,1123,1123,1123,1119,1119,1119,1119,1119,1115,1115,1112,1112,1112,1108,1108,1108,1108,1108,1105,1105,1108,0,0,0,0,0,0,0,0,0,0,0,0,0,0,0,0,0,0,0,0,0,0,0,0,0,0,0,0,0
0,0,0,0,0,0,0,0,0,0,0,0,0,1550,1550,1550,1557,1550,1550,1543,1543,1543,1543,1543,1543,1543,1543,1543,1543,1543,1550,1550,1543,1543,1543,1543,1543,1543,1536,1536,1536,1543,1543,1543,1543,1543,1543,1543,1543,1543,1543,1543,1543,1543,1543,1543,1543,1543,1543,1543,1550,1550,1550,1557,1557,1564,1564,1564,1564,1572,1572,1766,1766,1766,1766,1757,1757,1757,1757,1766,1776,1776,1776,1776,1776,1776,1766,1757,1757,1564,1564,1572,1572,1572,1572,1572,1572,1572,1564,1564,1564,1564,1564,1572,1572,1579,1586,1586,1586,1594,1601,1601,1601,1601,1609,1609,1616,1616,1616,1624,1624,1624,1624,1632,1632,1632,1632,1632,1639,1639,1639,1647,1655,1655,1655,1663,1663,1671,1680,1680,1680,1688,1688,1696,1696,1696,1696,1696,1705,1705,1705,1713,1722,1722,1722,1722,1731,1731,1731,1739,1748,1748,1748,1757,1757,1757,1757,1757,1757,1766,1766,1766,1776,1785,1785,1794,1794,1794,1794,1794,1804,1804,1804,1813,1813,1813,1813,1813,1813,1804,1804,1794,1794,0,0,0,0,1073,1073,1073,1073,1070,1070,1067,1067,1063,1063,1063,1063,1063,1063,1063,1067,1067,1070,1073,1077,1077,1077,1080,1080,1084,1087,1087,0,1696,1696,1705,1705,1705,1705,1696,1696,1696,1696,1696,1696,1688,1688,1688,1680,1680,1680,1671,1671,1663,1663,1663,1663,1663,1663,1663,1655,1655,1655,1655,1647,1647,1639,1639,1632,1632,1632,1632,1632,1632,1632,1632,1624,1624,1624,1616,1616,1609,1609,1609,1609,1609,1601,1601,1601,1594,1594,1594,1586,1586,1586,1586,1579,1579,1579,1579,1579,1572,1572,1572,1564,1564,1564,1557,1557,1564,1557,1557,1550,1550,1543,1543,1536,1536,1536,1529,1529,1523,1523,1523,1516,1516,1523,1523,1523,0,0,0,0,0,0,0,908,908,906,906,906,906,903,903,898,898,898,896,896,896,896,896,896,898,898,901,901,906,908,908,910,910,913,915,0,0,0,0,0,1439,1439,1439,1439,1439,1439,1433,1433,1433,1427,1427,1427,1421,1421,1421,1421,1421,1415,1415,1415,1415,1410,1410,1404,1398,1398,1398,1398,1398,1398,1398,1392,1392,1392,1392,1392,1392,1387,1381,1381,1376,1376,1376,1376,1370,1370,1370,1370,1370,1365,1365,1359,1359,1354,1354,1354,1354,1354,1349,1349,1349,1343,1343,1343,1338,1338,1338,1333,1333,1333,1333,1333,1328,1328,1328,1328,1328,1322,1322,1322,1317,1312,1312,1307,1307,1307,1307,1307,1307,1307,1307,1307,1307,1302,1302,1297,1292,1288,1288,1288,1288,1288,1288,1283,1283,1283,1278,1278,1273,1273,1273,1273,1273,1268,1268,1268,1264,1259,1259,1259,1255,1255,1255,1255,1255,1255,1250,1250,1250,1245,1245,1245,1241,1241,1236,1236,1236,1236,1236,1232,1232,1232,1232,1232,1232,1223,1223,1223,1219,1219,1219,1214,1214,1214,1214,1210,1210,1210,1206,1206,1206,1206,1202,1202,1202,1202,1202,1197,1197,1197,1193,1193,1189,1189,1185,1185,1185,1181,1181,1181,1181,1181,1181,1177,1173,1173,1169,1169,1169,1169,1169,1169,1165,1165,1165,1165,1161,1161,1161,1157,1157,1153,1153,1153,1153,1153,1149,1149,1149,1149,1145,1145,1145,1145,1141,1138,1138,1138,1138,1134,1134,1134,1134,1134,1130,1130,1130,1130,1126,1126,1123,1123,1123,1119,1119,1119,1119,1119,1115,1115,1115,1115,1115,1112,1108,1108,1108,1105,1105,1108,0,0,0,0,0,0,0,0,0,0,0,0,0,0,0,0,0,0,0,0,0,0,0,0,0,0,0,0,0
0,0,0,0,0,0,0,0,0,0,0,0,0,1550,1550,1550,1550,1550,1550,1550,1543,1543,1543,1543,1543,1543,1543,1543,1543,1543,1550,1550,1543,1543,1543,1543,1543,1543,1536,1536,1536,1543,1543,1543,1543,1543,1543,1543,1543,1543,1543,1543,1550,1543,1543,1543,1543,1543,1543,1550,1550,1550,1557,1557,1564,1564,1564,1564,1564,1572,1572,1766,1766,1766,1757,1748,1748,1748,1748,1766,1757,1739,1739,1757,1748,1748,1748,1748,1757,1564,1564,1572,1572,1572,1572,1572,1572,1572,1564,1564,1564,1564,1564,1572,1572,1579,1579,1586,1586,1594,1594,1601,1601,1601,1609,1609,1616,1616,1616,1624,1624,1624,1624,1632,1632,1632,1632,1639,1639,1639,1639,1647,1655,1655,1655,1663,1663,1671,1680,1680,1680,1688,1688,1696,1696,1696,1696,1696,1705,1705,1705,1713,1713,1722,1722,1722,1731,1731,1731,1748,1748,1748,1748,1757,1757,1757,1757,1757,1757,1766,1766,1776,1785,1785,1785,1794,1794,1794,1794,1794,1804,1804,1804,1813,1813,1813,1813,1813,1813,1813,1813,1804,1804,0,0,0,0,1073,1073,1073,1073,1070,1070,1067,1067,1063,1063,1063,1063,1063,1063,1063,1067,1067,1070,1073,1077,1077,1080,1080,1080,1080,1087,1087,0,1696,1696,1705,1705,1705,1705,1696,1696,1696,1696,1696,1696,1696,1688,1688,1680,1680,1680,1671,1671,1663,1663,1663,1663,1663,1663,1663,1655,1655,1655,1655,1655,1647,1647,1639,1639,1632,1632,1632,1632,1632,1632,1632,1624,1624,1624,1616,1616,1609,1609,1609,1609,1609,1601,1601,1601,1594,1594,1594,1586,1586,1586,1586,1579,1579,1579,1579,1579,1579,1579,1572,1564,1564,1564,1564,1564,1564,1557,1557,1550,1550,1543,1543,1536,1536,1536,1529,1529,1523,1523,1523,1516,1516,1523,1523,1523,0,0,0,0,0,0,0,908,908,908,906,906,906,903,903,898,898,898,898,896,896,896,896,896,898,898,901,901,906,908,908,910,910,910,910,0,0,0,0,0,1439,1439,1439,1439,1439,1439,1433,1433,1433,1427,1427,1427,1427,1427,1421,1421,1421,1421,1415,1415,1415,1410,1410,1410,1404,1404,1404,1398,1398,1398,1398,1398,1398,1398,1392,1392,1392,1387,1381,1381,1376,1376,1376,1376,1370,1370,1370,1370,1370,1370,1365,1359,1359,1354,1354,1354,1354,1354,1349,1349,1349,1349,1343,1343,1343,1338,1338,1338,1333,1333,1333,1333,1328,1328,1328,1328,1328,1322,1322,1322,1317,1312,1312,1312,1312,1307,1307,1307,1307,1307,1307,1307,1307,1302,1302,1297,1292,1288,1288,1288,1288,1288,1288,1283,1283,1283,1278,1278,1278,1273,1273,1273,1273,1268,1268,1268,1264,1259,1259,1259,1255,1255,1255,1255,1255,1255,1250,1250,1250,1250,1245,1245,1241,1241,1236,1236,1236,1236,1236,1232,1232,1232,1232,1232,1232,1223,1223,1223,1219,1219,1219,1214,1214,1214,1214,1214,1210,1210,1210,1210,1206,1206,1202,1202,1202,1202,1202,1202,1197,1197,1197,1193,1193,1189,1189,1185,1185,1185,1181,1181,1181,1181,1181,1177,1173,1173,1169,1169,1169,1169,1169,1169,1165,1165,1165,1165,1161,1161,1161,1161,1157,1157,1153,1153,1153,1153,1153,1153,1153,1149,1145,1145,1141,1141,1141,1138,1138,1138,1138,1138,1134,1134,1134,1134,1134,1130,1130,1130,1130,1126,1123,1123,1123,1123,1119,1119,1119,1119,1119,1115,1115,1115,1115,1112,1112,1112,1108,1108,1108,1108,0,0,0,0,0,0,0,0,0,0,0,0,0,0,0,0,0,0,0,0,0,0,0,0,0,0,0,0,0
0,0,0,0,0,0,0,0,0,0,0,0,0,1550,1550,1550,1550,1550,1550,1550,1550,1550,1543,1543,1543,1543,1550,1543,1543,1550,1557,1557,1550,1550,1550,1543,1543,1543,1536,1536,1536,1543,1543,1543,1543,1543,1543,1543,1543,1550,1543,1543,1550,1543,1543,1543,1543,1543,1543,1550,1550,1550,1557,1557,1564,1564,1564,1564,1564,1572,1572,1748,1748,1748,1748,1748,1748,1739,1739,1696,1696,1705,1705,1722,1722,1722,1731,1739,1757,1572,1572,1572,1572,1572,1572,1572,1572,1572,1572,1564,1564,1564,1564,1572,1572,1579,1579,1586,1586,1594,1594,1601,1601,1601,1609,1609,1609,1616,1616,1624,1624,1624,1632,1632,1632,1632,1632,1639,1639,1639,1647,1647,1655,1655,1655,1663,1663,1671,1680,1680,1680,1688,1688,1696,1696,1696,1696,1696,1705,1705,1705,1713,1713,1722,1722,1722,1731,1731,1731,1739,1739,1748,1748,1757,1757,1757,1757,1757,1766,1766,1766,1776,1785,1785,1785,1794,1794,1794,1794,1794,1804,1804,1813,1823,1823,1823,1823,1813,1813,1813,1813,1813,0,0,0,0,0,1077,1077,1077,1073,1073,1070,1070,1067,1063,1063,1063,1063,1063,1063,1063,1067,1067,1070,1073,1077,1077,1080,1080,1084,1087,1087,1087,1696,1696,1696,1705,1705,1705,1705,1705,1705,1705,1696,1696,1696,1696,1688,1688,1680,1680,1680,1680,1671,1671,1663,1663,1663,1663,1663,1663,1655,1655,1655,1655,1655,1655,1647,1647,1639,1639,1639,1632,1632,1632,1632,1632,1632,1632,1624,1616,1616,1616,1616,1609,1609,1609,1601,1601,1601,1594,1594,1594,1594,1594,1594,1586,1579,1579,1586,1579,1579,1579,1579,1572,1572,1564,1564,1564,1564,1564,1557,1557,1550,1550,1543,1543,1543,1543,1536,1536,1529,1529,1523,1523,1523,1523,1523,1523,1523,0,0,0,0,0,0,0,908,908,908,906,906,906,906,903,901,898,898,898,896,896,896,896,896,898,898,901,903,906,908,908,910,910,910,910,0,0,0,0,0,1445,1445,1445,1439,1439,1439,1433,1433,1433,1433,1433,1427,1427,1427,1421,1421,1421,1421,1415,1415,1415,1415,1410,1410,1404,1404,1404,1398,1398,1398,1398,1398,1398,1398,1392,1392,1392,1387,1387,1381,1381,1376,1376,1376,1376,1370,1370,1370,1370,1370,1370,1365,1359,1359,1359,1354,1354,1354,1354,1349,1349,1349,1349,1343,1343,1343,1338,1338,1333,1333,1333,1333,1333,1333,1333,1328,1328,1322,1322,1322,1317,1312,1312,1312,1312,1312,1307,1307,1307,1307,1307,1307,1307,1302,1302,1297,1292,1292,1292,1288,1288,1288,1288,1283,1283,1283,1283,1278,1278,1278,1278,1278,1273,1273,1268,1268,1264,1264,1259,1259,1255,1255,1255,1255,1255,1255,1255,1250,1250,1250,1245,1245,1245,1241,1241,1236,1236,1236,1236,1236,1236,1232,1232,1232,1223,1223,1223,1223,1223,1219,1219,1219,1219,1214,1214,1214,1210,1210,1210,1210,1206,1206,1206,1202,1202,1202,1202,1202,1197,1197,1197,1197,1193,1189,1189,1185,1185,1185,1185,1185,1181,1181,1181,1177,1173,1173,1173,1169,1169,1169,1169,1169,1165,1165,1165,1165,1165,1165,1161,1161,1161,1157,1157,1153,1153,1153,1153,1153,1153,1149,1145,1145,1141,1141,1141,1138,1138,1138,1138,1138,1134,1134,1134,1134,1134,1130,1130,1130,1130,1126,1123,1123,1123,1123,1123,1119,1119,1119,1119,1119,1119,1115,1115,1112,1112,1112,1112,1108,1108,1108,0,0,0,0,0,0,0,0,0,0,0,0,0,0,0,0,0,0,0,0,0,0,0,0,0,0,0,0,0
0,0,0,0,0,0,0,0,0,0,0,0,0,1557,1557,1550,1550,1550,1550,1550,1550,1550,1543,1543,1543,1543,1550,1550,1550,1557,1550,1550,1550,1550,1543,1543,1543,1543,1543,1543,1543,1543,1543,1543,1543,1543,1543,1543,1550,1550,1543,1543,1550,1543,1543,1543,1543,1543,1543,1550,1550,1550,1557,1557,1564,1564,1564,1564,1557,1557,1572,1713,1722,1748,1748,1748,1748,1739,1739,1671,1671,1663,1663,1663,1663,1663,1663,1713,1713,1572,1572,1572,1572,1572,1572,1572,1572,1572,1572,1564,1564,1564,1564,1572,1572,1579,1586,1586,1594,1594,1594,1601,1601,1601,1609,1609,1609,1616,1616,1624,1624,1624,1632,1632,1632,1632,1639,1639,1647,1647,1647,1647,1655,1655,1663,1663,1663,1671,1680,1680,1680,1688,1688,1696,1696,1696,1696,1696,1705,1705,1705,1713,1722,1722,1722,1722,1731,1731,1731,1739,1739,1748,1748,1757,1757,1757,1757,1757,1766,1766,1766,1776,1785,1785,1785,1794,1794,1794,1794,1804,1804,1804,1813,1823,1823,1823,1823,1823,1813,1813,1813,0,0,0,0,0,0,1077,1077,1077,1073,1073,1070,1070,1067,1063,1063,1063,1063,1063,1063,1063,1067,1070,1073,1077,1077,1080,1080,1084,1084,1084,1087,1087,1087,1705,0,1705,1705,1705,1705,1705,1705,1705,1705,1696,1696,1696,1696,1688,1680,1680,1680,1680,1671,1671,1663,1663,1663,1663,1663,1663,1655,1655,1655,1655,1655,1655,1655,1647,1639,1639,1639,1639,1632,1632,1632,1632,1632,1632,1624,1624,1616,1616,1616,1609,1609,1609,1609,1601,1601,1601,1594,1594,1594,1594,1594,1594,1586,1586,1586,1579,1579,1579,1579,1572,1572,1564,1564,1564,1564,1564,1557,1557,1550,1550,1543,1543,1543,1536,1536,1536,1536,1529,1523,1523,1523,1523,1523,1523,1523,0,0,0,0,0,0,0,908,908,908,906,906,906,906,906,901,898,898,898,898,896,896,896,898,898,898,901,903,908,908,910,910,910,910,910,0,0,0,0,0,1445,1445,1445,1439,1439,1439,1439,1439,1433,1433,1433,1433,1427,1427,1427,1421,1421,1421,1421,1415,1415,1415,1410,1410,1410,1404,1404,1404,1398,1398,1398,1398,1398,1398,1392,1392,1392,1392,1392,1381,1381,1381,1376,1376,1376,1370,1370,1370,1370,1370,1370,1365,1365,1359,1359,1354,1354,1354,1354,1349,1349,1349,1349,1343,1343,1343,1338,1338,1338,1333,1333,1333,1333,1333,1333,1328,1328,1322,1322,1322,1317,1312,1312,1312,1312,1312,1307,1307,1307,1307,1307,1307,1307,1302,1302,1297,1292,1292,1292,1292,1288,1288,1288,1288,1288,1288,1283,1283,1278,1278,1278,1278,1273,1273,1268,1268,1264,1264,1259,1259,1255,1255,1255,1255,1255,1255,1255,1250,1250,1250,1250,1245,1245,1241,1241,1241,1236,1236,1236,1236,1236,1232,1232,1232,1223,1223,1223,1223,1223,1219,1219,1219,1214,1214,1214,1214,1214,1214,1214,1210,1206,1206,1206,1206,1202,1202,1202,1202,1197,1197,1197,1197,1193,1193,1193,1185,1185,1185,1185,1185,1181,1181,1177,1177,1177,1173,1173,1173,1169,1169,1169,1169,1165,1165,1165,1165,1165,1165,1161,1161,1161,1161,1157,1157,1153,1153,1153,1153,1153,1149,1149,1145,1145,1145,1141,1141,1141,1138,1138,1138,1134,1134,1134,1134,1134,1134,1130,1130,1130,1130,1126,1123,1123,1123,1123,1123,1123,1123,1119,1119,1119,1115,1115,1115,1115,1115,1112,1108,1108,1108,0,0,0,0,0,0,0,0,0,0,0,0,0,0,0,0,0,0,0,0,0,0,0,0,0,0,0,0,0
0,0,0,0,0,0,0,0,0,0,0,0,0,1557,1557,1550,1550,1550,1550,1550,1550,1550,1543,1543,1543,1543,1550,1550,1550,1557,1550,1550,1550,1550,1543,1543,1543,1543,1543,1543,1543,1550,1550,1543,1543,1543,1550,1550,1550,1550,1550,1550,1550,1543,1543,1543,1543,1543,1543,1550,1550,1550,1557,1557,1564,1564,1564,1572,1557,1557,1572,1671,1680,1671,1671,1671,1680,1680,1663,1663,1663,1663,1663,1663,1663,1663,1663,1663,1663,1586,1586,1579,1579,1579,1579,1572,1572,1572,1572,1572,1572,1572,1572,1572,1572,1579,1579,1586,1594,1594,1601,1601,1601,1609,1609,1609,1609,1616,1616,1624,1624,1624,1632,1632,1639,1639,1647,1647,1647,1647,1647,1655,1655,1655,1663,1663,1663,1671,1680,1680,1680,1688,1688,1696,1696,1696,1696,1696,1705,1705,1705,1713,1713,1722,1722,1731,1731,1731,1731,1739,1739,1748,1748,1757,1757,1757,1757,1766,1766,1766,1776,1776,1785,1785,1794,1794,1794,1794,1794,1804,1804,1804,1813,1823,1823,1823,1823,1823,1813,1813,1813,0,0,0,0,0,1087,1080,1077,1077,1073,1073,1073,1070,1067,1067,1063,1063,1063,1063,1063,1067,1067,1070,1073,1077,1077,1077,1080,1080,1084,1084,1084,1084,0,0,0,1705,1705,1713,1713,1705,1705,1713,1705,1705,1696,1696,1696,1688,1688,1680,1680,1680,1671,1671,1663,1663,1663,1663,1663,1663,1655,1655,1655,1655,1655,1655,1655,1647,1647,1647,1639,1639,1639,1632,1632,1632,1632,1632,1624,1624,1616,1616,1616,1616,1616,1609,1609,1601,1601,1601,1594,1594,1594,1594,1594,1594,1586,1586,1586,1586,1586,1579,1579,1572,1572,1564,1564,1564,1564,1564,1557,1557,1550,1550,1543,1543,1543,1536,1536,1536,1536,1536,1529,1523,1523,1523,1529,1529,0,0,0,0,0,0,0,0,908,908,908,906,906,906,906,906,903,901,901,898,898,896,896,896,898,898,898,903,906,908,910,910,910,913,910,910,0,0,0,0,0,1445,1445,1445,1445,1439,1439,1439,1439,1433,1433,1433,1433,1427,1427,1427,1421,1421,1421,1421,1415,1415,1415,1415,1410,1410,1404,1404,1404,1398,1398,1398,1398,1398,1398,1392,1392,1392,1387,1387,1381,1381,1381,1376,1376,1376,1370,1370,1370,1370,1370,1370,1365,1365,1359,1359,1354,1354,1354,1354,1354,1349,1349,1349,1343,1343,1343,1338,1338,1338,1338,1333,1333,1333,1333,1333,1328,1328,1328,1322,1322,1317,1312,1312,1312,1312,1312,1307,1307,1307,1307,1307,1307,1307,1302,1302,1297,1292,1292,1292,1292,1288,1288,1288,1288,1288,1288,1288,1283,1283,1283,1278,1278,1273,1273,1268,1268,1268,1264,1264,1259,1259,1255,1255,1255,1255,1255,1255,1250,1250,1250,1250,1245,1245,1241,1241,1241,1236,1236,1236,1236,1236,1232,1232,1232,1223,1223,1223,1223,1223,1219,1219,1219,1214,1214,1214,1214,1214,1214,1214,1210,1210,1210,1206,1206,1202,1202,1202,1197,1197,1197,1197,1197,1193,1193,1193,1185,1185,1185,1185,1185,1181,1181,1177,1177,1177,1173,1173,1173,1169,1169,1169,1169,1169,1169,1165,1165,1165,1165,1161,1161,1161,1161,1157,1157,1153,1153,1153,1153,1149,1149,1149,1145,1145,1145,1141,1141,1141,1138,1138,1138,1134,1134,1134,1134,1134,1134,1134,1134,1130,1130,1130,1126,1123,1123,1123,1123,1123,1123,1119,1119,1119,1119,1119,1115,1115,1115,1112,1112,1108,1108,0,0,0,0,0,0,0,0,0,0,0,0,0,0,0,0,0,0,0,0,0,0,0,0,0,0,0,0,0
0,0,0,0,0,0,0,0,0,0,0,0,0,1557,1557,1557,1557,1557,1550,1550,1550,1550,1550,1550,1543,1543,1550,1550,1550,1550,1550,1550,1550,1550,1550,1550,1550,1550,1550,1550,1557,1550,1543,1543,1543,1543,1550,1550,1550,1550,1550,1550,1550,1550,1550,1543,1543,1543,1543,1543,1543,1550,1557,1557,1564,1564,1564,1572,1572,1572,1663,1663,1663,1663,1663,1663,1671,1663,1655,1655,1655,1655,1655,1655,1655,1655,1655,1655,1655,1586,1586,1579,1579,1579,1579,1572,1572,1572,1572,1572,1572,1572,1572,1572,1572,1579,1579,1586,1594,1594,1594,1601,1601,1609,1609,1609,1609,1616,1616,1624,1624,1624,1632,1632,1639,1639,1647,1647,1647,1647,1655,1655,1655,1655,1663,1663,1663,1671,1680,1680,1680,1688,1688,1696,1696,1696,1696,1705,1705,1705,1705,1713,1713,1722,1722,1731,1731,1731,1731,1739,1739,1748,1748,1757,1757,1757,1766,1766,1766,1766,1776,1785,1785,1785,1794,1794,1804,1804,1804,1804,1804,1813,1813,1823,1823,1823,1823,1823,1813,1813,0,0,0,0,0,0,1084,1080,1077,1077,1077,1073,1073,1070,1067,1067,1063,1063,1063,1063,1067,1067,1070,1070,1073,1077,1077,1077,1080,1080,1084,1084,0,0,0,0,0,1722,1722,1713,1713,1713,1713,1713,1713,1705,1696,1696,1688,1688,1688,1680,1680,1680,1671,1671,1663,1663,1663,1663,1663,1663,1663,1655,1655,1655,1655,1655,1655,1655,1647,1647,1647,1639,1639,1639,1632,1632,1632,1632,1624,1624,1624,1616,1616,1616,1616,1609,1609,1609,1601,1601,1594,1594,1594,1594,1594,1594,1586,1586,1586,1586,1586,1579,1579,1579,1572,1572,1572,1564,1564,1564,1557,1557,1550,1550,1550,1543,1543,1543,1543,1536,1536,1536,1536,1529,1529,1529,1529,1529,0,0,0,0,0,0,0,0,908,908,908,908,906,906,906,906,903,901,901,898,898,898,898,898,898,901,901,903,906,908,910,910,910,913,913,913,0,0,0,0,0,1452,1452,1445,1445,1439,1439,1439,1439,1439,1433,1433,1433,1433,1427,1427,1421,1421,1421,1421,1421,1415,1415,1415,1415,1410,1410,1404,1404,1404,1398,1398,1398,1398,1398,1392,1392,1392,1387,1387,1387,1381,1381,1376,1376,1376,1376,1376,1370,1370,1370,1370,1365,1365,1359,1359,1354,1354,1354,1354,1354,1349,1349,1349,1349,1343,1343,1343,1338,1338,1338,1338,1333,1333,1333,1333,1328,1328,1328,1322,1322,1317,1317,1312,1312,1312,1312,1307,1307,1307,1307,1307,1307,1307,1302,1302,1297,1292,1292,1292,1292,1288,1288,1288,1288,1288,1288,1288,1283,1283,1283,1283,1278,1278,1273,1268,1268,1268,1264,1264,1259,1259,1255,1255,1255,1255,1255,1255,1250,1250,1250,1250,1245,1245,1245,1241,1241,1236,1236,1236,1236,1236,1232,1232,1232,1223,1223,1223,1223,1223,1223,1219,1219,1219,1219,1214,1214,1214,1214,1214,1210,1210,1210,1206,1206,1202,1202,1202,1197,1197,1197,1197,1197,1193,1193,1193,1189,1185,1185,1185,1185,1181,1181,1177,1177,1177,1173,1173,1173,1169,1169,1169,1169,1169,1169,1169,1165,1165,1165,1165,1165,1161,1161,1157,1157,1157,1153,1153,1153,1149,1149,1149,1149,1145,1145,1145,1141,1141,1141,1138,1138,1138,1138,1134,1134,1134,1134,1134,1134,1134,1130,1130,1126,1126,1123,1123,1123,1123,1123,1119,1119,1119,1119,1119,1119,1119,1115,1115,1112,1112,1112,0,0,0,0,0,0,0,0,0,0,0,0,0,0,0,0,0,0,0,0,0,0,0,0,0,0,0,0,0
0,0,0,0,0,0,0,0,0,0,0,0,0,1564,1557,1557,1557,1557,1550,1550,1550,1550,1550,1550,1550,1550,1550,1550,1550,1550,1550,1550,1550,1550,1550,1550,1550,1550,1550,1550,1557,1557,1543,1543,1543,1543,1550,1550,1550,1550,1550,1550,1550,1550,1550,1543,1543,1543,1543,1543,1543,1550,1557,1557,1564,1564,1564,1572,1572,1572,1647,1647,1655,1655,1655,1655,1663,1647,1647,1647,1647,1647,1647,1647,1647,1639,1639,1647,1655,1639,1601,1594,1586,1579,1579,1572,1572,1572,1572,1572,1572,1572,1572,1572,1579,1579,1586,1594,1594,1594,1594,1601,1601,1609,1609,1609,1609,1616,1616,1624,1624,1624,1632,1632,1632,1639,1639,1647,1647,1647,1655,1655,1655,1655,1663,1663,1671,1671,1680,1680,1688,1688,1688,1696,1696,1696,1696,1705,1705,1705,1713,1713,1713,1722,1722,1731,1731,1731,1739,1748,1748,1748,1748,1757,1757,1757,1766,1766,1766,1776,1776,1785,1785,1785,1794,1794,1804,1804,1804,1804,1804,1813,1813,1823,1833,1833,1823,1823,1823,1823,0,0,0,0,0,0,1084,1077,1077,1077,1077,1073,1073,1070,1067,1067,1063,1063,1063,1063,1067,1067,1070,1073,1073,1077,1077,1080,1080,1080,1080,1080,0,0,0,0,1731,1722,1722,1722,1722,1713,1713,1713,1705,1705,1696,1696,1688,1688,1688,1680,1680,1680,1671,1671,1671,1663,1663,1663,1663,1663,1663,1663,1663,1655,1655,1655,1655,1655,1655,1647,1647,1647,1639,1639,1632,1632,1632,1632,1624,1624,1624,1624,1616,1616,1616,1616,1616,1609,1601,1601,1601,1594,1594,1594,1594,1594,1586,1586,1586,1586,1586,1579,1579,1579,1572,1572,1572,1564,1564,1564,1557,1557,1550,1550,1550,1543,1543,1543,1543,1543,1536,1536,1536,1529,1529,1529,1529,1529,0,0,0,0,0,0,0,906,906,908,908,908,906,906,906,906,903,901,901,898,898,898,898,898,898,901,903,906,906,908,910,910,913,913,915,915,0,0,0,0,1458,1452,1452,1452,1445,1445,1445,1439,1439,1439,1439,1433,1433,1433,1433,1427,1427,1421,1421,1421,1421,1421,1415,1415,1415,1410,1410,1410,1404,1404,1404,1398,1398,1398,1398,1392,1392,1392,1387,1387,1387,1387,1381,1381,1376,1376,1376,1376,1370,1370,1370,1370,1365,1365,1359,1359,1354,1354,1354,1354,1354,1354,1349,1349,1349,1343,1343,1343,1338,1338,1338,1338,1333,1333,1333,1333,1328,1328,1328,1322,1322,1317,1317,1312,1312,1312,1312,1307,1307,1307,1307,1307,1307,1307,1302,1302,1297,1292,1292,1292,1292,1292,1292,1288,1288,1288,1288,1288,1288,1283,1283,1283,1278,1278,1273,1273,1268,1268,1264,1264,1259,1259,1255,1255,1255,1255,1255,1255,1255,1250,1250,1250,1250,1245,1245,1245,1245,1241,1236,1236,1236,1236,1236,1232,1232,1227,1227,1227,1227,1223,1223,1223,1223,1219,1219,1219,1214,1214,1214,1214,1210,1210,1210,1206,1206,1202,1202,1202,1197,1197,1197,1197,1197,1197,1197,1193,1189,1189,1185,1185,1185,1181,1181,1177,1177,1177,1173,1173,1173,1173,1169,1169,1169,1169,1169,1169,1165,1165,1165,1165,1165,1165,1161,1157,1157,1157,1153,1153,1153,1149,1149,1149,1149,1145,1145,1145,1141,1141,1141,1141,1138,1138,1138,1138,1138,1134,1134,1134,1134,1134,1130,1130,1126,1126,1123,1123,1123,1123,1123,1123,1119,1119,1119,1119,1119,1119,1115,1115,1115,1115,1115,0,0,0,0,0,0,0,0,0,0,0,0,0,0,0,0,0,0,0,0,0,0,0,0,0,0,0,0,0
0,0,0,0,0,0,0,0,0,0,0,0,0,1564,1557,1557,1557,1557,1557,1550,1550,1557,1550,1550,1550,1550,1550,1550,1550,1550,1550,1550,1550,1550,1550,1550,1557,1550,1550,1557,1557,1550,1550,1543,1543,1550,1550,1557,1557,1557,1550,1550,1550,1550,1550,1543,1543,1543,1550,1550,1550,1550,1557,1557,1564,1564,1572,1572,1572,1579,1601,1647,1647,1647,1647,1655,1647,1647,1639,1632,1632,1632,1632,1632,1639,1639,1639,1647,1655,1639,1601,1601,1594,1586,1579,1579,1579,1572,1572,1572,1572,1572,1572,1572,1579,1586,1586,1594,1594,1594,1601,1601,1601,1609,1609,1609,1609,1616,1624,1624,1624,1624,1632,1632,1632,1639,1639,1647,1647,1647,1655,1655,1655,1655,1663,1663,1671,1680,1688,1688,1688,1688,1688,1696,1696,1696,1696,1705,1705,1705,1713,1713,1722,1722,1722,1731,1731,1731,1748,1748,1748,1748,1757,1757,1757,1766,1766,1776,1776,1776,1785,1785,1785,1794,1794,1794,1804,1804,1804,1804,1804,1813,1813,1823,1833,1833,1833,1823,1823,1823,0,0,0,0,0,0,1080,1077,1077,1077,1077,1073,1073,1070,1067,1067,1063,1063,1063,1063,1067,1067,1070,1073,1073,1077,1077,1080,1080,1080,1080,1080,0,0,0,0,1722,1722,1722,1722,1722,1713,1713,1713,1705,1705,1696,1696,1688,1688,1688,1688,1680,1680,1680,1680,1671,1671,1671,1671,1671,1671,1663,1663,1663,1663,1655,1655,1655,1655,1655,1647,1647,1647,1639,1639,1632,1632,1632,1632,1624,1624,1624,1624,1616,1616,1616,1616,1616,1609,1609,1601,1601,1594,1594,1594,1594,1594,1594,1594,1594,1586,1586,1586,1586,1579,1572,1572,1572,1564,1564,1564,1557,1550,1550,1550,1550,1543,1543,1543,1543,1543,1536,1536,1536,1536,1529,1529,1529,1529,0,0,0,0,0,0,0,906,906,908,908,908,906,906,906,906,903,901,901,898,898,898,898,898,898,901,903,906,906,908,910,913,913,913,913,0,0,0,0,0,1458,1452,1452,1452,1445,1445,1445,1445,1439,1439,1439,1439,1433,1433,1433,1427,1427,1421,1421,1421,1421,1421,1415,1415,1415,1410,1410,1410,1404,1404,1404,1398,1398,1398,1392,1392,1392,1392,1387,1387,1387,1387,1381,1381,1381,1376,1376,1376,1370,1370,1370,1370,1365,1365,1365,1359,1359,1354,1354,1354,1354,1354,1349,1349,1349,1349,1343,1343,1338,1338,1338,1338,1333,1333,1333,1333,1328,1328,1328,1322,1322,1317,1317,1317,1312,1312,1312,1312,1307,1307,1307,1307,1307,1307,1302,1302,1297,1292,1292,1292,1292,1292,1292,1292,1288,1288,1288,1288,1288,1288,1283,1283,1283,1278,1273,1273,1268,1268,1268,1264,1264,1259,1259,1259,1255,1255,1255,1255,1255,1250,1250,1250,1250,1250,1245,1245,1245,1241,1236,1236,1236,1236,1236,1232,1232,1227,1227,1227,1227,1227,1223,1223,1223,1223,1219,1219,1214,1214,1214,1214,1210,1210,1210,1206,1206,1202,1202,1202,1202,1197,1197,1197,1197,1197,1193,1193,1189,1185,1185,1185,1185,1181,1181,1177,1177,1177,1177,1177,1173,1173,1169,1169,1169,1169,1169,1169,1165,1165,1165,1165,1165,1165,1161,1157,1157,1157,1153,1153,1153,1153,1149,1149,1149,1145,1145,1145,1141,1141,1141,1141,1141,1138,1138,1138,1138,1138,1134,1134,1134,1134,1134,1130,1126,1126,1123,1123,1123,1123,1123,1123,1119,1119,1119,1119,1119,1119,1119,1119,1115,1115,1115,0,0,0,0,0,0,0,0,0,0,0,0,0,0,0,0,0,0,0,0,0,0,0,0,0,0,0,0,0
0,0,0,0,0,0,0,0,0,0,0,0,0,1564,1564,1557,1557,1564,1564,1550,1550,1557,1557,1550,1550,1550,1550,1550,1550,1550,1550,1550,1550,1550,1550,1550,1557,1550,1550,1557,1557,1550,1550,1543,1543,1550,1550,1550,1557,1557,1550,1550,1550,1550,1550,1543,1543,1543,1543,1550,1550,1550,1557,1557,1564,1572,1572,1572,1579,1586,1601,1639,1639,1647,1647,1647,1647,1647,1632,1632,1632,1632,1632,1632,1632,1632,1632,1632,1639,1639,1601,1601,1594,1586,1579,1579,1579,1572,1572,1572,1572,1572,1572,1579,1579,1586,1586,1594,1594,1594,1601,1601,1601,1609,1609,1609,1616,1616,1624,1624,1624,1624,1632,1632,1632,1639,1639,1647,1647,1655,1655,1655,1655,1655,1663,1663,1671,1680,1688,1688,1688,1688,1688,1696,1696,1696,1696,1705,1705,1713,1713,1722,1722,1722,1722,1731,1731,1731,1748,1748,1748,1757,1757,1757,1766,1766,1766,1776,1776,1776,1785,1785,1785,1794,1794,1794,1804,1804,1804,1804,1813,1813,1823,1823,1833,1833,1833,1833,1823,1823,0,0,0,0,0,0,1080,1077,1077,1077,1073,1073,1073,1070,1067,1067,1063,1063,1063,1063,1067,1067,1070,1073,1073,1077,1077,1077,1080,1080,1084,0,0,0,0,0,1722,1722,1722,1722,1722,1722,1713,1713,1713,1705,1696,1696,1696,1688,1688,1688,1688,1696,1688,1688,1671,1671,1671,1671,1671,1671,1663,1663,1663,1663,1655,1655,1655,1655,1655,1647,1647,1647,1639,1639,1632,1632,1632,1632,1624,1624,1624,1624,1624,1624,1624,1616,1616,1609,1609,1601,1601,1601,1601,1594,1594,1594,1594,1594,1594,1586,1586,1586,1586,1579,1572,1572,1572,1564,1564,1564,1557,1550,1550,1550,1550,1543,1543,1543,1543,1536,1536,1536,1536,1529,1529,1529,1523,1523,0,0,0,0,0,0,0,908,908,908,908,908,906,906,906,906,903,901,901,898,898,898,898,898,901,901,903,906,906,908,910,913,913,913,913,0,0,0,0,0,1458,1458,1452,1452,1445,1445,1445,1445,1439,1439,1439,1439,1433,1433,1433,1427,1427,1421,1421,1421,1421,1421,1415,1415,1415,1410,1410,1410,1404,1404,1404,1398,1398,1398,1392,1392,1392,1392,1392,1387,1387,1387,1381,1381,1381,1376,1376,1376,1370,1370,1370,1370,1370,1365,1365,1359,1359,1354,1354,1354,1354,1354,1349,1349,1349,1349,1343,1343,1343,1343,1343,1338,1338,1333,1333,1333,1333,1328,1328,1328,1322,1322,1317,1317,1312,1312,1312,1312,1312,1307,1307,1307,1307,1307,1302,1302,1302,1297,1297,1292,1292,1292,1292,1292,1288,1288,1288,1288,1288,1288,1288,1288,1283,1283,1273,1273,1273,1268,1268,1268,1264,1259,1259,1259,1255,1255,1255,1255,1255,1255,1255,1250,1250,1250,1250,1245,1245,1241,1241,1236,1236,1236,1236,1232,1232,1227,1227,1227,1227,1227,1227,1223,1223,1223,1219,1219,1219,1214,1214,1214,1210,1210,1210,1210,1206,1206,1202,1202,1202,1197,1197,1197,1197,1197,1193,1193,1189,1185,1185,1185,1185,1181,1181,1177,1177,1177,1177,1177,1177,1173,1173,1173,1169,1169,1169,1169,1169,1165,1165,1165,1165,1165,1161,1157,1157,1157,1153,1153,1153,1153,1153,1149,1149,1149,1145,1145,1145,1145,1141,1141,1141,1138,1138,1138,1138,1138,1134,1134,1134,1134,1134,1130,1126,1126,1123,1123,1123,1123,1123,1123,1119,1119,1119,1119,1119,1119,1119,1119,1115,1115,1115,0,0,0,0,0,0,0,0,0,0,0,0,0,0,0,0,0,0,0,0,0,0,0,0,0,0,0,0,0
0,0,0,0,0,0,0,0,0,0,0,0,0,1564,1564,1557,1557,1564,1564,1564,1564,1564,1557,1557,1557,1557,1550,1550,1550,1550,1550,1550,1550,1550,1550,1557,1557,1557,1557,1557,1557,1557,1550,1550,1550,1550,1550,1550,1557,1557,1557,1557,1557,1550,1550,1543,1543,1543,1543,1550,1550,1550,1557,1557,1572,1572,1572,1572,1579,1601,1601,1624,1624,1647,1647,1647,1639,1639,1632,1632,1632,1632,1624,1624,1632,1632,1632,1632,1632,1624,1609,1609,1601,1594,1586,1579,1579,1579,1572,1572,1572,1572,1579,1579,1579,1586,1594,1594,1594,1594,1601,1601,1601,1609,1609,1609,1616,1616,1624,1624,1624,1624,1632,1632,1632,1639,1639,1647,1647,1655,1655,1655,1655,1655,1663,1671,1671,1680,1688,1688,1688,1688,1696,1696,1696,1696,1696,1705,1705,1713,1713,1722,1722,1722,1722,1731,1731,1731,1748,1748,1748,1757,1757,1757,1766,1766,1766,1776,1776,1776,1785,1785,1785,1794,1794,1794,1804,1804,1804,1804,1813,1813,1823,1823,1833,1833,1833,1833,1823,1823,0,0,0,0,0,0,0,1077,1077,1077,1073,1073,1073,1070,1070,1067,1067,1063,1063,1067,1067,1070,1073,1073,1077,1077,1077,1077,1080,1080,1080,0,0,0,0,1722,1722,1722,1722,1722,1722,1722,1713,1713,1713,1705,1705,1696,1696,1696,1688,1688,1688,1688,1696,1680,1671,1671,1671,1671,1671,1671,1671,1663,1663,1663,1655,1655,1655,1655,1655,1655,1655,1647,1647,1647,1639,1639,1632,1632,1632,1632,1624,1624,1624,1624,1624,1616,1616,1616,1609,1601,1601,1601,1601,1601,1594,1594,1594,1594,1594,1586,1586,1586,1586,1579,1579,1572,1572,1564,1564,1564,1557,1550,1550,1550,1550,1543,1543,1543,1543,1536,1536,1536,1536,1529,1529,1529,1523,1523,0,0,0,0,0,0,0,908,908,908,908,908,906,906,906,906,901,901,901,898,898,898,898,901,901,903,903,906,908,910,910,913,913,913,913,0,0,0,0,1452,1452,1452,1452,1452,1445,1445,1445,1445,1439,1439,1439,1439,1433,1433,1433,1427,1427,1421,1421,1421,1421,1421,1415,1415,1415,1415,1410,1410,1410,1404,1404,1398,1398,1398,1398,1392,1392,1392,1392,1392,1392,1387,1387,1381,1381,1381,1376,1376,1376,1370,1370,1370,1370,1365,1365,1365,1359,1359,1359,1354,1354,1354,1354,1349,1349,1349,1343,1343,1343,1343,1338,1338,1338,1333,1333,1333,1333,1328,1328,1328,1322,1322,1317,1317,1312,1312,1312,1312,1312,1307,1307,1307,1307,1307,1302,1302,1302,1302,1297,1297,1292,1292,1292,1292,1292,1292,1288,1288,1288,1288,1288,1288,1283,1278,1278,1273,1273,1273,1268,1268,1268,1264,1259,1259,1255,1255,1255,1255,1255,1255,1255,1255,1250,1250,1250,1245,1245,1241,1241,1236,1236,1236,1236,1232,1232,1227,1227,1227,1227,1227,1227,1227,1223,1223,1223,1219,1219,1214,1214,1214,1210,1210,1210,1210,1210,1206,1202,1202,1202,1202,1197,1197,1197,1197,1197,1197,1193,1189,1185,1185,1185,1181,1181,1181,1177,1177,1177,1177,1177,1177,1177,1177,1173,1169,1169,1169,1169,1169,1165,1165,1165,1165,1161,1161,1157,1157,1153,1153,1153,1153,1153,1149,1149,1149,1149,1149,1145,1145,1145,1141,1141,1138,1138,1138,1138,1138,1138,1134,1134,1134,1134,1130,1130,1126,1123,1123,1123,1123,1123,1123,1119,1119,1119,1119,1119,1119,1119,1119,1119,1115,1115,0,0,0,0,0,0,0,0,0,0,0,0,0,0,0,0,0,0,0,0,0,0,0,0,0,0,0,0,0
0,0,0,0,0,0,0,0,0,0,0,0,0,1564,1564,1564,1564,1564,1564,1564,1564,1564,1564,1564,1564,1557,1557,1564,1564,1557,1557,1557,1557,1557,1557,1557,1557,1557,1557,1557,1557,1557,1550,1550,1550,1550,1550,1550,1557,1557,1557,1557,1557,1557,1557,1550,1550,1557,1557,1550,1550,1550,1557,1557,1572,1572,1572,1572,1579,1601,1601,1616,1616,1647,1647,1647,1639,1632,1632,1632,1624,1624,1624,1624,1624,1624,1624,1624,1624,1609,1609,1601,1594,1594,1586,1586,1579,1579,1572,1572,1572,1572,1579,1579,1579,1586,1594,1601,1601,1601,1601,1601,1601,1609,1616,1616,1616,1616,1624,1624,1624,1632,1632,1632,1632,1639,1639,1647,1655,1655,1655,1655,1655,1663,1663,1671,1680,1688,1688,1688,1688,1696,1696,1696,1696,1696,1696,1705,1705,1713,1713,1722,1722,1722,1722,1731,1731,1739,1748,1757,1757,1757,1757,1757,1766,1766,1766,1776,1776,1776,1785,1785,1785,1794,1794,1794,1804,1804,1804,1813,1813,1823,1823,1823,1833,1833,1833,1833,1833,1833,0,0,0,0,0,0,0,1077,1077,1077,1073,1073,1073,1070,1070,1067,1067,1067,1067,1067,1067,1070,1073,1073,1077,1077,1077,1080,1080,1080,1080,0,0,0,0,1731,1722,1722,1722,1722,1722,1722,1722,1713,1713,1713,1705,1696,1696,1696,1688,1688,1688,1688,1680,1680,1680,1671,1671,1671,1671,1671,1671,1663,1663,1663,1655,1655,1655,1655,1655,1655,1655,1647,1647,1647,1639,1639,1632,1632,1632,1632,1632,1632,1624,1624,1624,1624,1616,1609,1609,1609,1601,1601,1601,1601,1601,1601,1601,1594,1594,1586,1586,1586,1586,1579,1572,1572,1572,1572,1564,1564,1564,1557,1550,1550,1550,1543,1543,1543,1543,1543,1543,1536,1536,1536,1529,1529,1529,0,0,0,0,0,0,0,0,910,910,908,908,908,906,906,906,903,901,901,898,898,898,898,898,901,901,903,903,906,908,910,913,915,915,915,0,0,0,0,0,1445,1445,1452,1452,1452,1445,1445,1445,1445,1439,1439,1439,1439,1439,1433,1433,1433,1433,1427,1427,1421,1421,1421,1421,1415,1415,1415,1415,1410,1410,1410,1404,1404,1398,1398,1398,1392,1392,1392,1392,1392,1392,1392,1387,1387,1387,1381,1376,1376,1376,1370,1370,1370,1370,1365,1365,1365,1359,1359,1359,1354,1354,1354,1354,1349,1349,1349,1343,1343,1343,1343,1338,1338,1338,1333,1333,1333,1333,1333,1328,1328,1328,1322,1322,1317,1317,1317,1312,1312,1312,1312,1307,1307,1307,1307,1307,1307,1302,1302,1302,1297,1292,1292,1292,1292,1292,1292,1288,1288,1288,1288,1288,1288,1283,1278,1278,1273,1273,1273,1273,1268,1268,1268,1259,1259,1259,1255,1255,1255,1255,1255,1255,1255,1255,1250,1250,1250,1245,1245,1241,1241,1236,1236,1236,1232,1232,1232,1227,1227,1227,1227,1227,1227,1223,1223,1223,1219,1219,1219,1214,1214,1214,1214,1214,1210,1210,1206,1206,1202,1202,1202,1197,1197,1197,1197,1197,1197,1193,1189,1189,1185,1185,1185,1185,1181,1181,1181,1181,1177,1177,1177,1177,1177,1173,1169,1169,1169,1169,1169,1165,1165,1165,1165,1161,1161,1157,1157,1157,1153,1153,1153,1153,1149,1149,1149,1149,1149,1149,1145,1145,1145,1141,1141,1138,1138,1138,1138,1138,1134,1134,1134,1134,1130,1130,1126,1123,1123,1123,1123,1123,1123,1119,1119,1119,1119,1119,1119,1119,1119,1119,1119,0,0,0,0,0,0,0,0,0,0,0,0,0,0,0,0,0,0,0,0,0,0,0,0,0,0,0,0,0,0
0,0,0,0,0,0,0,0,0,0,0,0,0,1564,1564,1564,1564,1564,1564,1564,1564,1564,1564,1564,1564,1564,1564,1564,1564,1564,1557,1557,1557,1557,1557,1557,1557,1564,1564,1557,1557,1550,1550,1550,1550,1550,1550,1550,1557,1557,1557,1557,1557,1557,1557,1557,1557,1557,1557,1550,1550,1557,1564,1564,1572,1572,1572,1572,1579,1594,1601,1616,1616,1632,1632,1632,1632,1632,1632,1632,1624,1624,1624,1624,1624,1624,1624,1624,1624,1609,1601,1601,1594,1594,1586,1586,1586,1579,1579,1579,1579,1579,1579,1586,1586,1586,1594,1601,1601,1601,1601,1601,1601,1609,1609,1616,1616,1624,1624,1624,1624,1632,1632,1632,1639,1639,1639,1647,1655,1655,1655,1655,1655,1663,1663,1671,1688,1688,1696,1696,1696,1696,1696,1696,1696,1696,1696,1705,1713,1713,1713,1722,1722,1722,1722,1731,1731,1748,1748,1757,1757,1757,1757,1766,1766,1766,1766,1776,1776,1776,1785,1785,1785,1794,1794,1794,1804,1804,1804,1813,1823,1823,1823,1833,1833,1833,1833,1833,1833,1833,0,0,0,0,0,0,0,1077,1077,1077,1073,1073,1073,1070,1070,1070,1067,1067,1067,1067,1070,1070,1073,1073,1077,1077,1080,1080,1080,1080,1080,1080,0,0,0,1731,1731,1731,1731,1722,1722,1722,1722,1722,1713,1713,1705,1705,1696,1696,1688,1688,1688,1688,1680,1680,1680,1680,1680,1680,1680,1671,1671,1671,1671,1663,1663,1655,1655,1655,1655,1655,1655,1647,1647,1647,1647,1647,1639,1632,1632,1632,1632,1632,1624,1624,1624,1624,1616,1609,1609,1609,1601,1601,1601,1601,1601,1601,1601,1601,1601,1594,1594,1594,1586,1586,1572,1572,1572,1572,1564,1564,1564,1557,1550,1550,1550,1550,1543,1543,1543,1543,1543,1536,1536,1536,1529,1529,1536,0,0,0,0,0,0,0,913,910,910,910,908,908,906,906,906,903,901,901,898,898,898,898,898,901,901,903,906,908,910,913,915,915,915,915,0,0,0,0,0,1445,1445,1452,1452,1452,1445,1445,1445,1445,1439,1439,1439,1439,1439,1433,1433,1433,1433,1427,1427,1421,1421,1421,1421,1415,1415,1415,1415,1410,1410,1410,1404,1404,1398,1398,1398,1392,1392,1392,1392,1392,1392,1392,1392,1387,1387,1381,1381,1376,1376,1376,1370,1370,1370,1365,1365,1365,1365,1359,1359,1359,1354,1354,1354,1349,1349,1349,1343,1343,1343,1343,1343,1338,1338,1338,1333,1333,1333,1333,1333,1328,1328,1328,1322,1322,1317,1317,1312,1312,1312,1312,1312,1307,1307,1307,1307,1307,1307,1307,1302,1302,1297,1297,1292,1292,1292,1292,1292,1288,1288,1288,1288,1288,1283,1283,1278,1278,1273,1273,1273,1273,1268,1268,1264,1264,1259,1259,1259,1255,1255,1255,1255,1255,1255,1250,1250,1250,1245,1245,1241,1241,1236,1236,1236,1232,1232,1232,1232,1232,1227,1227,1227,1227,1223,1223,1223,1219,1219,1219,1214,1214,1214,1214,1214,1214,1210,1206,1206,1206,1202,1202,1202,1197,1197,1197,1197,1197,1197,1193,1193,1189,1189,1185,1185,1181,1181,1181,1181,1181,1177,1177,1177,1177,1173,1169,1169,1169,1169,1169,1169,1169,1165,1165,1161,1161,1161,1161,1157,1153,1153,1153,1153,1153,1149,1149,1149,1149,1149,1145,1145,1145,1141,1141,1141,1138,1138,1138,1138,1138,1138,1134,1134,1130,1130,1126,1126,1126,1126,1123,1123,1123,1123,1123,1119,1119,1119,1119,1119,1119,1119,1119,0,0,0,0,0,0,0,0,0,0,0,0,0,0,0,0,0,0,0,0,0,0,0,0,0,0,0,0,0,0
0,0,0,0,0,0,0,0,0,0,0,0,0,1564,1564,1564,1564,1564,1564,1564,1564,1564,1557,1557,1557,1557,1564,1564,1564,1564,1564,1564,1564,1564,1564,1557,1557,1564,1564,1557,1550,1550,1550,1550,1550,1550,1550,1557,1557,1557,1557,1557,1557,1557,1557,1557,1557,1557,1557,1557,1557,1564,1564,1564,1572,1572,1572,1572,1579,1594,1601,1616,1616,1632,1632,1632,1632,1632,1632,1632,1624,1624,1624,1624,1624,1624,1624,1624,1609,1609,1601,1601,1601,1594,1586,1586,1586,1579,1579,1579,1579,1579,1579,1586,1586,1586,1594,1601,1601,1601,1601,1601,1601,1609,1609,1616,1616,1624,1624,1624,1624,1632,1632,1632,1639,1639,1639,1647,1655,1655,1655,1655,1655,1663,1671,1680,1688,1688,1688,1696,1696,1696,1696,1696,1696,1696,1705,1705,1713,1713,1722,1722,1722,1731,1731,1731,1731,1748,1748,1757,1757,1757,1757,1766,1766,1766,1766,1776,1776,1776,1785,1785,1785,1794,1794,1794,1804,1804,1804,1813,1823,1823,1823,1833,1833,1833,1833,1833,1843,1843,1863,0,0,0,0,0,0,1080,1077,1077,1073,1073,1073,1070,1070,1070,1070,1070,1070,1070,1070,1073,1073,1077,1077,1077,1080,1080,1080,1080,1080,1080,0,0,0,1731,1731,1731,1722,1722,1722,1722,1722,1722,1713,1713,1705,1705,1696,1696,1696,1688,1688,1688,1688,1688,1688,1680,1680,1680,1680,1680,1671,1671,1671,1663,1655,1655,1655,1655,1655,1655,1655,1647,1647,1647,1647,1639,1639,1632,1632,1632,1632,1632,1632,1632,1624,1624,1624,1616,1609,1609,1609,1609,1609,1601,1601,1601,1601,1601,1601,1594,1594,1594,1594,1586,1579,1572,1572,1572,1564,1564,1564,1557,1557,1557,1550,1550,1550,1543,1543,1543,1543,1536,1536,1536,1529,1529,1536,0,0,0,0,0,0,0,913,910,910,910,908,908,906,906,906,906,903,903,901,901,898,898,898,901,901,901,906,908,910,913,915,915,915,915,0,0,0,0,1445,1445,1445,1452,1452,1452,1445,1445,1445,1445,1439,1439,1439,1439,1439,1433,1433,1433,1433,1427,1427,1421,1421,1427,1421,1421,1415,1415,1415,1410,1410,1410,1404,1404,1398,1398,1398,1398,1392,1392,1392,1392,1392,1392,1392,1387,1387,1381,1381,1381,1376,1376,1376,1370,1370,1370,1370,1365,1365,1365,1365,1359,1354,1354,1354,1349,1349,1349,1343,1343,1343,1343,1343,1338,1338,1338,1338,1333,1333,1333,1333,1328,1328,1328,1322,1322,1317,1317,1317,1312,1312,1312,1312,1312,1307,1307,1307,1307,1307,1307,1302,1302,1297,1297,1297,1292,1292,1292,1292,1292,1288,1288,1288,1288,1283,1283,1278,1278,1278,1273,1273,1273,1268,1268,1268,1268,1264,1259,1259,1255,1255,1255,1255,1255,1255,1250,1250,1250,1250,1245,1241,1241,1241,1236,1236,1236,1232,1232,1232,1232,1232,1232,1227,1227,1227,1227,1223,1219,1219,1219,1214,1214,1214,1214,1214,1214,1210,1210,1206,1206,1202,1202,1202,1197,1197,1197,1197,1197,1197,1193,1193,1189,1189,1185,1185,1185,1181,1181,1181,1181,1181,1181,1177,1177,1177,1169,1169,1169,1169,1169,1165,1165,1165,1165,1165,1161,1161,1161,1157,1157,1157,1157,1157,1153,1153,1149,1149,1149,1149,1149,1145,1145,1141,1141,1141,1138,1138,1138,1138,1138,1138,1134,1134,1130,1130,1126,1126,1126,1126,1123,1123,1123,1123,1123,1123,1119,1119,1119,1119,1119,1119,1119,0,0,0,0,0,0,0,0,0,0,0,0,0,0,0,0,0,0,0,0,0,0,0,0,0,0,0,0,0,0
0,0,0,0,0,0,0,0,0,0,0,0,0,1564,1564,1564,1564,1564,1564,1564,1564,1564,1557,1557,1557,1557,1564,1564,1564,1564,1564,1564,1564,1564,1564,1564,1564,1564,1564,1557,1550,1550,1550,1550,1550,1550,1550,1557,1557,1557,1557,1557,1557,1557,1557,1557,1557,1557,1557,1557,1564,1564,1564,1572,1572,1572,1572,1579,1586,1594,1601,1616,1616,1632,1632,1632,1632,1632,1632,1632,1624,1624,1624,1624,1624,1624,1624,1624,1601,1601,1601,1601,1601,1594,1594,1586,1586,1579,1579,1579,1579,1579,1579,1586,1586,1586,1594,1601,1601,1601,1601,1601,1601,1609,1616,1616,1624,1624,1624,1624,1632,1632,1632,1632,1639,1639,1647,1647,1655,1655,1655,1655,1663,1663,1671,1680,1688,1688,1688,1696,1696,1696,1696,1696,1696,1705,1705,1713,1713,1722,1722,1722,1731,1731,1731,1731,1748,1748,1748,1757,1757,1757,1757,1766,1766,1766,1766,1776,1776,1776,1785,1785,1785,1794,1794,1804,1804,1804,1813,1813,1823,1823,1823,1833,1833,1833,1833,1843,1843,1853,1863,0,0,0,0,0,0,1077,1077,1077,1073,1073,1073,1070,1070,1070,1070,1070,1070,1070,1073,1073,1073,1077,1077,1077,1080,1080,1080,1080,1080,1080,0,0,0,1722,1722,1722,1722,1722,1722,1722,1722,1722,1713,1713,1713,1705,1705,1713,1696,1696,1688,1688,1688,1688,1688,1688,1688,1688,1680,1680,1680,1671,1671,1663,1655,1655,1655,1655,1655,1655,1655,1655,1655,1647,1647,1639,1639,1639,1632,1632,1632,1632,1632,1632,1624,1624,1624,1624,1609,1609,1609,1609,1609,1601,1601,1601,1601,1601,1601,1594,1594,1594,1594,1586,1579,1572,1572,1572,1564,1564,1564,1564,1557,1557,1557,1557,1550,1550,1543,1543,1543,1536,1536,1536,1529,1529,1543,0,0,0,0,0,0,0,915,913,913,910,910,908,908,906,906,906,903,903,901,901,898,898,901,901,901,901,906,908,910,913,915,915,918,0,0,0,0,0,1445,1445,1445,1452,1452,1452,1452,1452,1445,1445,1439,1439,1439,1439,1439,1439,1433,1433,1433,1427,1427,1427,1427,1427,1421,1421,1415,1415,1415,1410,1410,1410,1404,1404,1398,1398,1398,1398,1398,1392,1392,1392,1392,1392,1392,1387,1387,1381,1381,1381,1376,1376,1376,1370,1370,1370,1370,1370,1370,1365,1365,1359,1359,1354,1354,1354,1349,1349,1349,1349,1343,1343,1343,1343,1338,1338,1338,1333,1333,1333,1333,1328,1328,1328,1322,1322,1322,1317,1317,1312,1312,1312,1312,1312,1312,1312,1307,1307,1307,1307,1307,1302,1302,1302,1297,1297,1297,1292,1292,1292,1292,1288,1288,1288,1283,1283,1278,1278,1278,1273,1273,1273,1273,1268,1268,1268,1264,1259,1259,1255,1255,1255,1255,1255,1255,1255,1250,1250,1250,1250,1245,1241,1241,1236,1236,1236,1232,1232,1232,1232,1232,1232,1227,1227,1227,1227,1223,1219,1219,1219,1214,1214,1214,1214,1214,1214,1210,1210,1210,1206,1202,1202,1202,1197,1197,1197,1197,1197,1197,1197,1193,1189,1189,1189,1185,1185,1185,1181,1181,1181,1181,1181,1177,1177,1177,1173,1173,1169,1169,1169,1165,1165,1165,1165,1165,1165,1161,1161,1161,1157,1157,1157,1157,1153,1153,1153,1153,1149,1149,1149,1149,1145,1145,1145,1141,1141,1138,1138,1138,1138,1134,1134,1134,1130,1130,1130,1126,1126,1126,1126,1126,1123,1123,1123,1123,1123,1119,1119,1119,1119,1119,1119,0,0,0,0,0,0,0,0,0,0,0,0,0,0,0,0,0,0,0,0,0,0,0,0,0,0,0,0,0,0
0,0,0,0,0,0,0,0,0,0,0,0,0,1564,1564,1564,1564,1564,1564,1564,1564,1564,1564,1564,1564,1564,1564,1564,1564,1564,1564,1564,1564,1564,1564,1564,1564,1564,1564,1564,1564,1557,1557,1550,1550,1557,1550,1550,1557,1557,1557,1557,1564,1557,1557,1564,1564,1564,1557,1557,1564,1564,1564,1572,1572,1572,1572,1579,1586,1594,1601,1624,1624,1632,1632,1632,1632,1632,1632,1632,1624,1624,1624,1624,1624,1624,1624,1624,1601,1601,1601,1601,1601,1594,1594,1586,1586,1579,1579,1579,1579,1579,1579,1586,1586,1586,1594,1601,1601,1601,1601,1601,1609,1609,1609,1616,1624,1624,1624,1632,1632,1632,1632,1632,1639,1639,1647,1647,1655,1655,1655,1663,1663,1663,1671,1680,1688,1688,1688,1696,1696,1696,1696,1696,1696,1705,1705,1713,1713,1722,1722,1722,1731,1731,1731,1731,1748,1748,1748,1757,1757,1757,1766,1766,1766,1766,1766,1766,1776,1776,1785,1785,1785,1794,1794,1804,1804,1804,1813,1813,1823,1823,1823,1833,1833,1833,1833,1843,1843,1853,1863,0,0,0,0,0,0,1077,1077,1077,1073,1073,1073,1070,1070,1070,1070,1070,1070,1073,1073,1073,1073,1077,1077,1077,1080,1084,1084,1084,1080,1080,0,0,0,1731,1722,1722,1722,1722,1722,1722,1722,1722,1722,1713,1713,1713,1713,1713,1696,1696,1696,1696,1688,1688,1688,1688,1688,1688,1688,1680,1680,1680,1671,1663,1663,1655,1655,1655,1655,1655,1655,1655,1655,1647,1647,1647,1639,1639,1632,1632,1632,1632,1632,1632,1624,1624,1624,1624,1624,1609,1609,1609,1609,1601,1601,1601,1601,1601,1601,1594,1594,1594,1594,1586,1579,1572,1572,1572,1572,1564,1564,1564,1564,1564,1557,1557,1550,1550,1543,1543,1543,1543,1536,1536,1536,1536,1543,0,0,0,0,0,0,0,915,915,913,910,910,908,908,908,906,906,903,903,901,901,901,901,901,901,903,903,906,908,913,915,918,918,920,923,0,0,0,0,1445,1445,1445,1452,1452,1452,1452,1452,1445,1445,1445,1445,1439,1439,1439,1439,1433,1433,1433,1433,1433,1427,1427,1427,1421,1421,1415,1415,1415,1415,1410,1410,1410,1404,1404,1398,1398,1398,1398,1392,1392,1392,1392,1392,1392,1387,1387,1381,1381,1381,1376,1376,1376,1370,1370,1370,1370,1370,1370,1365,1365,1359,1359,1359,1354,1354,1349,1349,1349,1349,1343,1343,1343,1343,1343,1343,1338,1338,1338,1333,1333,1333,1333,1328,1322,1322,1322,1322,1317,1317,1317,1312,1312,1312,1312,1312,1307,1307,1307,1307,1307,1307,1302,1302,1297,1297,1297,1292,1292,1292,1292,1288,1288,1288,1283,1283,1278,1278,1278,1273,1273,1273,1273,1268,1268,1268,1264,1259,1259,1255,1255,1255,1255,1255,1255,1255,1255,1255,1250,1250,1245,1241,1241,1236,1236,1236,1232,1232,1232,1232,1232,1232,1232,1227,1227,1227,1223,1219,1219,1219,1219,1214,1214,1214,1214,1214,1214,1210,1210,1206,1206,1202,1202,1202,1197,1197,1197,1197,1197,1197,1193,1193,1193,1189,1189,1185,1185,1185,1185,1181,1181,1181,1177,1177,1177,1173,1173,1169,1169,1169,1169,1165,1165,1165,1165,1165,1161,1161,1161,1157,1157,1157,1157,1153,1153,1153,1153,1153,1149,1149,1149,1145,1145,1145,1141,1141,1138,1138,1138,1138,1134,1134,1134,1130,1130,1130,1126,1126,1126,1126,1126,1123,1123,1123,1123,1123,1123,1123,1119,1119,1119,1119,0,0,0,0,0,0,0,0,0,0,0,0,0,0,0,0,0,0,0,0,0,0,0,0,0,0,0,0,0,0
0,0,0,0,0,0,0,0,0,0,0,0,0,1564,1564,1564,1564,1564,1564,1564,1564,1564,1564,1564,1564,1564,1564,1564,1564,1564,1564,1564,1564,1564,1564,1564,1564,1564,1564,1564,1564,1557,1557,1557,1557,1557,1550,1550,1557,1557,1564,1564,1564,1564,1564,1564,1564,1564,1564,1564,1564,1572,1572,1572,1572,1572,1572,1572,1579,1594,1601,1624,1624,1639,1639,1639,1639,1632,1632,1632,1624,1624,1624,1624,1624,1624,1624,1624,1616,1616,1601,1601,1601,1601,1594,1594,1586,1579,1579,1579,1579,1586,1586,1586,1586,1586,1594,1601,1601,1601,1601,1601,1609,1609,1609,1616,1624,1624,1624,1632,1632,1632,1639,1639,1639,1639,1647,1655,1655,1655,1655,1663,1663,1663,1671,1680,1680,1688,1688,1696,1696,1696,1696,1696,1696,1705,1705,1713,1713,1722,1722,1722,1731,1731,1731,1731,1748,1748,1748,1757,1757,1757,1766,1766,1766,1766,1766,1766,1776,1776,1785,1785,1785,1794,1794,1804,1804,1813,1813,1823,1823,1823,1823,1833,1833,1833,1833,1843,1853,1863,0,0,0,0,0,0,0,1077,1077,1077,1073,1073,1073,1073,1073,1070,1070,1070,1073,1073,1073,1073,1077,1077,1077,1080,1087,1087,1087,1087,1087,1087,0,0,0,1731,1731,1731,1731,1731,1731,1731,1722,1722,1722,1722,1722,1713,1713,1713,1705,1696,1696,1696,1696,1688,1688,1688,1688,1688,1688,1680,1680,1680,1671,1671,1663,1663,1663,1655,1655,1655,1655,1655,1655,1647,1647,1647,1639,1639,1639,1632,1632,1632,1632,1632,1624,1624,1624,1624,1624,1616,1616,1609,1609,1601,1601,1601,1601,1601,1601,1594,1594,1594,1594,1594,1586,1572,1572,1572,1572,1572,1564,1564,1564,1564,1564,1557,1557,1550,1543,1543,1543,1543,1536,1536,1536,1536,1543,0,0,0,0,0,0,915,915,915,913,913,910,908,908,908,906,906,903,901,901,901,901,901,901,903,903,906,906,908,913,915,918,918,920,923,0,0,0,0,0,1452,1452,1458,1458,1458,1452,1452,1445,1445,1445,1445,1439,1439,1439,1439,1433,1433,1433,1433,1433,1433,1427,1427,1421,1421,1421,1415,1415,1415,1415,1410,1410,1404,1404,1404,1398,1398,1398,1398,1392,1392,1392,1392,1392,1392,1387,1387,1381,1381,1376,1376,1376,1376,1370,1370,1370,1370,1370,1370,1365,1365,1359,1359,1354,1354,1349,1349,1349,1349,1349,1349,1343,1343,1343,1343,1343,1338,1338,1333,1333,1333,1333,1328,1328,1322,1322,1322,1317,1317,1317,1312,1312,1312,1312,1312,1312,1307,1307,1307,1307,1307,1302,1302,1297,1297,1297,1292,1292,1292,1292,1288,1288,1288,1283,1283,1283,1278,1278,1278,1273,1273,1273,1268,1268,1268,1264,1264,1259,1255,1255,1259,1255,1255,1255,1255,1255,1255,1250,1250,1245,1245,1241,1236,1236,1236,1236,1232,1232,1232,1232,1232,1232,1227,1227,1227,1227,1223,1223,1219,1219,1219,1219,1214,1214,1214,1214,1210,1210,1206,1206,1202,1202,1202,1197,1197,1197,1197,1197,1197,1193,1193,1193,1193,1189,1189,1185,1185,1185,1181,1181,1181,1181,1181,1177,1173,1173,1173,1169,1169,1169,1169,1165,1165,1165,1165,1165,1161,1161,1161,1161,1161,1157,1157,1153,1153,1153,1149,1149,1149,1149,1149,1149,1145,1145,1145,1141,1141,1138,1138,1138,1134,1134,1134,1134,1130,1130,1130,1130,1126,1126,1126,1126,1123,1123,1123,1123,1123,1119,1119,1119,1119,0,0,0,0,0,0,0,0,0,0,0,0,0,0,0,0,0,0,0,0,0,0,0,0,0,0,0,0,0,0
