0,0,0,0,0,0,0,0,0,0,1415,1410,1410,1410,1410,1410,1410,1404,1404,1404,1404,1404,1398,1392,1392,1392,1392,1392,1392,1398,1398,1404,1404,1404,1404,1404,1398,1398,1392,1392,1392,1392,1392,1392,1392,1392,1398,1398,1398,1398,1404,1398,1398,1398,1392,1392,1392,1392,1392,1392,1392,1392,1392,1392,1392,1392,1392,1392,1387,1387,1387,1387,1381,1381,1381,1038,1038,1038,1041,1041,1041,1041,1041,1041,1044,1044,1047,1047,1050,1050,1050,1050,1050,1050,1050,0,0,0,0,0,0,0,0,0,693,693,693,693,694,694,696,696,697,698,698,700,700,701,703,703,704,704,704,706,706,707,708,708,710,710,711,711,0,0,0,0,0,0,0,1108,1108,1108,1108,1112,1112,1115,1115,1115,1115,1119,1119,1119,1123,1123,1123,1123,1126,1126,1130,1130,1130,1130,1130,1134,1134,1134,1134,1138,1138,1141,1145,1145,1145,1145,1145,1145,1149,1149,1149,1149,1153,1149,1145,1145,1138,1138,1119,1119,1115,1115,1112,1112,1108,1105,1101,1097,1097,1097,1097,1094,1090,1090,1090,1090,1087,1087,1087,1087,1370,1370,1370,1365,1365,1370,1365,1365,1365,1365,1365,1365,1365,1359,1359,1365,1359,1359,1359,1359,1359,1359,1359,1359,1359,1359,1359,1359,1359,1359,1359,1359,1359,1359,1354,1354,1354,1354,1354,1354,1354,1354,1354,1354,1354,1359,1359,1359,1354,1354,1354,1354,1349,1283,1278,1273,1273,1268,1268,1268,1268,1268,1268,1268,1268,1268,1273,1273,1273,1273,1273,1273,1354,1354,1349,1349,1349,1349,1343,1343,1343,1343,1343,1338,1338,1338,1338,1338,1343,1343,1343,1343,1343,1343,1343,1338,1338,1338,1338,1338,1333,1333,1333,1333,1338,1333,1333,1333,1338,1338,1338,1338,1338,1338,1338,0,0,0,981,978,975,975,973,967,967,964,962,962,962,962,964,964,967,967,967,970,970,970,973,973,975,975,978,978,1328,1328,1328,1328,1328,1328,1328,1328,1328,1328,1328,1328,1328,1328,1322,1322,1322,1322,1322,1322,1322,1322,1322,1317,1317,1317,1317,1317,1317,1322,1317,1317,1317,1317,1317,1317,1317,1317,1317,1317,1317,1317,1317,1317,1317,1322,1322,1322,1322,1317,1317,1322,1317,1317,1317,1317,1317,1317,1317,1317,1312,1312,1312,1312,1312,1312,1312,1312,1312,1312,1312,1312,1307,1307,1307,1307,1307,1307,1307,1307,1307,1307,1307,1307,1307,1307,1307,1307,1307,1302,1302,1302,1302,1302,1307,1307,1307,1312,1312,1307,1307,1307,1307,1307,1307,1307,1307,1307,1307,1307,1307,1302,1302,1302,1302,1302,1302,1302,1302,1302,1302,1302,1302,1302,1302,1302,1302,1297,1297,1292,1292,1297,1297,1297,1297,1297,1297,1297,1297,1292,1292,1288,1288,1288,1288,1288,1288,1288,1288,1288,1288,1288,1283,1278,1278,1273,1273,1268,1268,1268,1264,1255,1255,1255,1250,1250,1250,1245,1245,1241,1241,1236,1236,1232,1232,1227,1227,1223,1223,1219,1219,1214,1214,1210,1206,1206,1202,1202,1202,1197,1197,1197,1189,1185,1185,1185,1185,1181,1177,1177,1169,1169,1165,1165,1165,1165,1161,1161,1157,1157,1153,1153,1149,1145,1145,1141,1138,1138,1138,1134,1130,1130,1126,1123,1123,1123,1119,1119,1115,1115,1115,1112,1108,1108,1105,1105,1105,1101,1097,1094,1094,1094,1090,1090,1087,1087,1084,1080,1080,1077,1077,1077,1073,1070,1070,1070,0,0,0,0,0,0,0,0,0,0,0,0,0,0,0,0,0,0,0,0,0,0,0,0,0,0,0,0,0,0,0,0
0,0,0,0,0,0,0,0,0,0,1410,1404,1404,1404,1404,1404,1404,1398,1398,1398,1398,1398,1392,1392,1392,1392,1392,1392,1392,1392,1392,1398,1392,1392,1392,1392,1392,1392,1392,1392,1392,1387,1387,1387,1387,1392,1392,1392,1392,1392,1398,1392,1392,1392,1387,1387,1387,1387,1387,1387,1387,1387,1387,1387,1387,1387,1387,1387,1387,1381,1381,1376,1370,1370,1370,1038,1038,1038,1041,1041,1041,1041,1041,1044,1044,1044,1047,1047,1050,1050,1050,1050,1050,1050,1050,0,0,0,0,0,0,0,0,0,0,693,693,693,694,696,697,697,698,698,698,700,701,701,703,703,704,704,704,706,707,707,708,708,710,710,711,711,0,0,0,0,0,0,0,1108,1108,1108,1108,1112,1115,1115,1115,1115,1119,1119,1119,1119,1123,1126,1126,1126,1126,1130,1130,1130,1130,1130,1130,1134,1134,1134,1134,1134,1134,1141,1145,1145,1145,1145,1145,1145,1149,1149,1149,1349,1349,1343,1149,1149,1338,1338,1119,1119,1115,1115,1115,1112,1105,1105,1101,1097,1097,1094,1094,1090,1087,1087,1087,1087,1087,1087,1087,1087,1365,1365,1365,1365,1365,1365,1365,1365,1365,1365,1359,1359,1359,1359,1359,1359,1354,1354,1354,1354,1354,1354,1354,1354,1354,1354,1354,1354,1354,1354,1354,1354,1354,1354,1354,1349,1349,1349,1349,1349,1349,1349,1349,1349,1349,1349,1349,1349,1349,1349,1349,1349,1349,1283,1278,1278,1273,1273,1268,1268,1268,1268,1268,1268,1268,1273,1273,1273,1273,1273,1273,1273,1349,1349,1349,1343,1343,1343,1343,1343,1338,1338,1338,1338,1333,1333,1333,1333,1338,1338,1338,1338,1338,1338,1338,1338,1333,1333,1333,1333,1333,1333,1333,1333,1333,1333,1328,1328,1333,1333,1328,1328,1328,1333,1333,0,0,0,981,981,978,978,973,970,967,964,964,964,962,962,964,964,967,967,970,970,970,973,973,975,975,975,978,978,1322,1322,1322,1322,1322,1322,1322,1322,1322,1322,1322,1322,1322,1322,1322,1322,1322,1322,1317,1317,1317,1317,1317,1317,1317,1317,1317,1317,1312,1312,1312,1312,1312,1312,1312,1312,1312,1312,1312,1312,1312,1312,1312,1312,1312,1317,1317,1317,1317,1317,1317,1317,1312,1312,1312,1312,1312,1312,1312,1312,1312,1312,1307,1307,1307,1307,1307,1307,1307,1312,1312,1307,1307,1302,1302,1302,1302,1302,1302,1307,1307,1307,1307,1307,1307,1302,1302,1302,1302,1297,1297,1297,1297,1297,1297,1302,1302,1307,1307,1307,1307,1307,1307,1302,1302,1307,1302,1302,1302,1302,1302,1302,1297,1297,1297,1297,1297,1297,1297,1297,1297,1297,1297,1297,1297,1297,1292,1292,1292,1292,1292,1292,1292,1292,1292,1292,1292,1292,1292,1288,1288,1288,1288,1288,1288,1288,1288,1288,1288,1288,1283,1283,1283,1278,1278,1273,1273,1268,1268,1268,1264,1259,1255,1255,1255,1250,1250,1250,1245,1245,1241,1241,1236,1232,1232,1227,1227,1223,1223,1219,1214,1214,1210,1210,1206,1206,1202,1202,1202,1202,1197,1197,1193,1189,1185,1185,1185,1181,1177,1177,1169,1169,1165,1165,1165,1165,1165,1161,1161,1157,1153,1153,1149,1149,1145,1141,1141,1138,1138,1134,1134,1130,1126,1126,1123,1123,1123,1119,1119,1115,1115,1112,1112,1108,1105,1105,1105,1101,1097,1094,1094,1094,1090,1090,1087,1087,1084,1080,1080,1077,1077,1077,1073,1070,1070,1070,0,0,0,0,0,0,0,0,0,0,0,0,0,0,0,0,0,0,0,0,0,0,0,0,0,0,0,0,0,0,0,0
0,0,0,0,0,0,0,0,0,0,1410,1404,1404,1404,1404,1398,1398,1398,1392,1392,1392,1392,1392,1392,1387,1387,1387,1387,1387,1387,1392,1392,1392,1392,1392,1392,1392,1387,1387,1387,1387,1387,1387,1387,1387,1387,1387,1387,1392,1392,1392,1392,1387,1387,1387,1387,1387,1387,1387,1387,1387,1387,1387,1387,1387,1387,1387,1387,1381,1381,1381,1376,1370,1370,1370,1370,1041,1041,1041,1041,1041,1041,1041,1044,1044,1047,1047,1047,1050,1050,1050,1050,1050,1050,1050,1050,0,0,0,0,0,0,0,0,0,0,696,696,697,697,697,698,700,700,700,701,701,703,704,704,704,704,706,706,707,708,708,708,710,710,711,711,0,0,0,0,0,0,0,1112,1112,1112,1112,1112,1115,1115,1115,1115,1119,1119,1119,1123,1123,1126,1126,1126,1130,1130,1130,1130,1130,1130,1130,1134,1134,1134,1134,1134,1134,1141,1145,1145,1145,1349,1349,1349,1349,1349,1349,1349,1354,1349,1343,1343,1338,1338,1119,1119,1115,1115,1115,1112,1105,1101,1101,1097,1094,1094,1090,1090,1087,1087,1084,1084,1084,1084,1080,1080,1084,1365,1365,1359,1359,1365,1365,1359,1359,1359,1359,1359,1354,1354,1354,1354,1354,1349,1349,1349,1349,1349,1349,1349,1349,1349,1349,1349,1349,1349,1349,1349,1349,1349,1349,1349,1349,1349,1349,1349,1349,1349,1343,1343,1343,1343,1343,1343,1343,1343,1343,1343,1343,1283,1283,1278,1273,1273,1273,1268,1268,1268,1268,1268,1268,1273,1273,1278,1278,1278,1273,1273,1349,1343,1343,1343,1343,1338,1338,1338,1338,1333,1333,1333,1333,1333,1333,1333,1333,1333,1333,1333,1338,1333,1333,1333,1328,1328,1328,1328,1328,1328,1328,1328,1328,1328,1328,1328,1328,1328,1328,1328,1322,1322,1328,0,0,0,981,981,978,978,975,970,967,967,964,964,964,964,964,967,967,970,970,970,970,973,975,975,978,978,978,1317,1317,1317,1317,1317,1317,1317,1317,1317,1317,1317,1317,1317,1317,1317,1317,1317,1317,1317,1312,1312,1312,1312,1312,1312,1312,1312,1312,1312,1312,1312,1312,1312,1312,1312,1312,1312,1312,1307,1307,1312,1312,1307,1307,1307,1307,1307,1307,1307,1307,1307,1307,1307,1307,1307,1307,1307,1307,1307,1307,1307,1307,1307,1307,1302,1302,1302,1302,1307,1307,1307,1307,1307,1302,1302,1302,1297,1297,1297,1297,1302,1302,1302,1302,1302,1302,1302,1297,1297,1297,1297,1297,1297,1297,1297,1297,1297,1297,1297,1297,1297,1302,1302,1302,1302,1302,1302,1302,1302,1297,1297,1297,1292,1292,1292,1292,1292,1292,1288,1288,1288,1292,1292,1292,1292,1292,1292,1292,1292,1288,1288,1288,1288,1288,1292,1292,1292,1288,1288,1288,1288,1283,1283,1283,1283,1283,1283,1283,1283,1283,1283,1283,1283,1278,1278,1273,1273,1273,1268,1268,1268,1264,1259,1259,1255,1255,1255,1250,1250,1250,1245,1245,1241,1236,1236,1232,1227,1227,1223,1223,1219,1214,1214,1210,1210,1206,1206,1202,1202,1202,1202,1202,1197,1193,1189,1185,1185,1185,1181,1181,1177,1173,1169,1169,1165,1165,1165,1165,1165,1161,1157,1153,1153,1153,1149,1149,1141,1141,1138,1138,1134,1134,1130,1130,1126,1126,1123,1123,1119,1119,1115,1115,1112,1108,1108,1105,1105,1105,1101,1097,1097,1094,1094,1090,1090,1090,1087,1084,1080,1080,1077,1077,1077,1073,1073,1070,1070,0,0,0,0,0,0,0,0,0,0,0,0,0,0,0,0,0,0,0,0,0,0,0,0,0,0,0,0,0,0,0,0
0,0,0,0,0,0,0,0,0,0,0,1398,1398,1387,1387,1387,1392,1392,1392,1387,1387,1387,1387,1381,1381,1387,1387,1387,1381,1381,1381,1381,1387,1387,1387,1387,1387,1387,1387,1387,1387,1387,1381,1381,1381,1381,1381,1381,1387,1387,1387,1387,1381,1381,1376,1376,1376,1376,1376,1376,1376,1376,1376,1381,1381,1376,1376,1376,1376,1376,1376,1370,1370,1370,1370,1370,1041,1041,1041,1041,1041,1041,1044,1044,1044,1047,1047,1047,1050,1050,1050,1050,1050,1050,1050,1050,1063,1067,0,0,0,0,0,0,0,0,697,697,697,698,698,698,700,701,701,703,703,703,704,704,704,706,706,707,707,708,708,710,710,711,713,713,713,0,0,0,0,0,0,1115,1112,1112,1112,1115,1115,1115,1115,1119,1119,1119,1119,1123,1126,1126,1126,1126,1130,1130,1130,1130,1130,1130,1130,1134,1134,1134,1134,1354,1349,1349,1349,1349,1349,1349,1349,1349,1349,1349,1349,1349,1349,1349,1343,1338,1338,1338,1338,1338,1338,1115,1115,1112,1105,1101,1101,1094,1094,1090,1090,1087,1084,1084,1084,1084,1084,1080,1080,1080,1080,1080,1359,1359,1359,1359,1359,1359,1359,1354,1354,1354,1354,1349,1349,1349,1349,1349,1349,1343,1343,1343,1343,1343,1343,1349,1349,1349,1349,1349,1349,1349,1349,1349,1349,1349,1349,1343,1343,1343,1343,1343,1343,1343,1338,1338,1338,1338,1338,1338,1338,1338,1333,1288,1283,1278,1278,1273,1273,1268,1268,1268,1268,1273,1273,1273,1278,1283,1283,1283,1278,1278,1343,1338,1338,1338,1338,1338,1333,1333,1333,1328,1328,1328,1328,1328,1328,1328,1328,1328,1333,1333,1333,1333,1333,1328,1328,1328,1328,1328,1322,1322,1322,1322,1322,1322,1322,1322,1328,1328,1328,1322,1322,1322,1328,0,0,0,981,981,978,978,975,970,970,967,967,964,964,964,967,967,967,970,970,973,973,975,975,978,978,978,978,981,1317,1317,1317,1317,1317,1312,1312,1312,1312,1312,1312,1317,1312,1312,1312,1312,1312,1312,1307,1307,1307,1307,1307,1307,1307,1307,1312,1312,1312,1312,1312,1307,1307,1307,1307,1307,1307,1302,1302,1302,1307,1307,1307,1302,1302,1302,1302,1302,1302,1302,1302,1302,1302,1307,1307,1307,1307,1307,1307,1307,1302,1302,1302,1302,1297,1297,1297,1302,1302,1307,1307,1302,1302,1297,1297,1297,1297,1297,1297,1297,1297,1302,1297,1297,1297,1297,1292,1292,1292,1292,1292,1292,1292,1292,1292,1292,1292,1292,1292,1292,1292,1292,1292,1292,1297,1302,1302,1297,1292,1292,1292,1292,1292,1288,1288,1288,1288,1288,1283,1283,1283,1283,1283,1283,1283,1288,1288,1288,1288,1288,1288,1288,1288,1288,1288,1288,1288,1283,1283,1283,1278,1278,1283,1278,1278,1278,1283,1278,1278,1278,1278,1278,1278,1273,1273,1273,1273,1273,1268,1268,1264,1259,1259,1259,1255,1255,1255,1250,1250,1245,1245,1241,1236,1236,1232,1227,1227,1223,1223,1219,1219,1214,1214,1210,1210,1206,1206,1202,1202,1202,1202,1197,1193,1189,1185,1185,1185,1185,1181,1177,1173,1169,1169,1169,1165,1165,1165,1165,1161,1157,1153,1153,1153,1149,1149,1145,1141,1138,1138,1134,1134,1134,1130,1130,1126,1123,1123,1119,1119,1115,1115,1112,1108,1108,1105,1105,1105,1101,1097,1097,1094,1094,1094,1090,1090,1087,1084,1080,1080,1077,1077,1077,1077,1073,1073,1073,0,0,0,0,0,0,0,0,0,0,0,0,0,0,0,0,0,0,0,0,0,0,0,0,0,0,0,0,0,0,0,0
0,0,0,0,0,0,0,0,0,0,0,1392,1392,1387,1387,1387,1387,1387,1387,1387,1381,1381,1381,1376,1376,1376,1376,1381,1381,1381,1376,1376,1381,1381,1381,1381,1381,1381,1381,1387,1381,1381,1381,1381,1381,1376,1376,1376,1381,1381,1381,1381,1376,1376,1376,1376,1370,1370,1376,1376,1376,1376,1376,1376,1376,1376,1370,1370,1370,1370,1370,1365,1365,1365,1365,1359,0,1044,1044,1044,1044,1044,1044,1044,1047,1047,1047,1047,1050,1050,1050,1050,1054,1054,1054,1054,1060,1067,0,0,0,0,0,0,0,0,697,697,697,698,698,698,700,701,701,703,704,704,704,704,706,706,707,708,708,710,710,710,711,713,713,713,713,0,0,0,0,0,0,0,1115,1112,1112,1115,1115,1119,1119,1119,1119,1123,1123,1126,1126,1130,1130,1130,1130,1130,1134,1134,1134,1134,1134,1134,1134,1134,1349,1349,1349,1349,1349,1349,1349,1349,1349,1349,1349,1349,1349,1349,1349,1349,1349,1338,1338,1338,1338,1338,1338,1115,1115,1112,1105,1105,1101,1094,1090,1090,1084,1084,1084,1080,1080,1080,1077,1077,1077,1077,1073,1073,1359,1359,1354,1354,1349,1349,1349,1349,1349,1354,1349,1349,1349,1349,1349,1343,1343,1343,1343,1343,1343,1343,1343,1343,1343,1343,1343,1343,1343,1343,1343,1343,1343,1343,1343,1343,1343,1343,1343,1343,1338,1338,1333,1333,1333,1333,1333,1333,1333,1333,1328,1328,1288,1283,1278,1278,1278,1273,1273,1273,1273,1273,1278,1278,1283,1283,1283,1278,1278,1278,1338,1338,1338,1333,1333,1333,1328,1328,1328,1328,1328,1328,1322,1322,1328,1328,1328,1328,1328,1328,1328,1328,1328,1328,1322,1322,1322,1322,1322,1322,1322,1322,1322,1322,1322,1322,1322,1322,1322,1317,1317,1317,1317,1317,0,984,984,981,981,981,975,973,970,967,967,967,967,967,967,967,970,970,970,973,973,975,978,978,978,978,981,981,1312,1312,1312,1312,1312,1312,1312,1312,1312,1312,1312,1312,1312,1312,1307,1307,1307,1307,1307,1302,1302,1302,1302,1302,1302,1307,1307,1307,1307,1307,1307,1302,1302,1302,1302,1302,1302,1297,1297,1297,1297,1297,1297,1297,1297,1297,1297,1297,1297,1297,1297,1297,1297,1302,1302,1297,1297,1302,1302,1302,1297,1297,1297,1297,1297,1292,1292,1297,1297,1297,1297,1297,1297,1292,1292,1292,1292,1292,1292,1292,1292,1292,1292,1292,1292,1292,1292,1288,1288,1288,1288,1288,1288,1288,1292,1292,1288,1288,1288,1288,1288,1288,1288,1288,1288,1288,1292,1292,1292,1292,1292,1288,1288,1288,1288,1283,1283,1283,1278,1278,1278,1278,1278,1278,1278,1278,1283,1283,1283,1283,1283,1283,1283,1283,1278,1278,1278,1278,1278,1278,1278,1273,1273,1273,1273,1273,1273,1273,1273,1273,1273,1273,1273,1273,1273,1273,1273,1268,1268,1268,1264,1259,1259,1259,1255,1255,1255,1250,1250,1250,1245,1245,1241,1236,1232,1227,1227,1223,1223,1219,1219,1214,1214,1214,1210,1210,1206,1206,1202,1202,1202,1197,1197,1193,1189,1185,1185,1185,1181,1177,1173,1169,1169,1169,1165,1165,1165,1165,1161,1157,1153,1153,1153,1149,1149,1145,1141,1138,1138,1134,1134,1134,1134,1130,1130,1123,1123,1123,1119,1115,1115,1112,1108,1108,1105,1105,1105,1101,1097,1097,1094,1094,1094,1090,1090,1090,1087,1080,1080,1077,1077,1077,1077,1073,1070,1070,0,0,0,0,0,0,0,0,0,0,0,0,0,0,0,0,0,0,0,0,0,0,0,0,0,0,0,0,0,0,0,0
0,0,0,0,0,0,0,0,0,0,0,1381,1381,1376,1376,1387,1381,1381,1381,1376,1376,1376,1376,1370,1370,1376,1370,1370,1376,1376,1376,1376,1376,1376,1376,1381,1381,1381,1381,1381,1381,1381,1376,1376,1376,1376,1376,1376,1381,1381,1370,1370,1376,1376,1370,1370,1370,1370,1370,1370,1370,1370,1370,1370,1370,1370,1370,1370,1370,1370,1365,1365,1359,1359,1359,1359,0,1044,1044,1044,1044,1047,1047,1047,1047,1047,1050,1050,1050,1050,1050,1054,1054,1054,1057,1057,1057,0,0,0,0,0,0,0,0,0,0,698,698,698,698,700,700,701,703,704,704,704,706,706,706,708,708,708,710,710,710,711,711,714,714,714,714,0,0,0,0,0,0,0,1115,1115,1115,1115,1115,1119,1119,1119,1119,1123,1123,1126,1130,1130,1130,1130,1130,1130,1134,1134,1134,1134,1134,1134,1138,1343,1343,1349,1349,1349,1349,1349,1349,1349,1349,1349,1349,1343,1343,1343,1343,1343,1343,1343,1343,1338,1338,1338,1333,1333,1328,1328,1105,1101,1101,1097,1090,1087,1084,1084,1077,1073,1073,1073,1077,1077,1073,1073,1073,1073,1073,1349,1349,1349,1343,1343,1343,1343,1343,1349,1349,1349,1349,1349,1343,1343,1343,1338,1338,1338,1338,1338,1338,1338,1338,1338,1343,1343,1343,1343,1343,1343,1343,1343,1343,1338,1338,1338,1338,1338,1333,1333,1328,1328,1328,1328,1328,1328,1328,1328,1328,1322,1292,1288,1288,1283,1283,1278,1278,1273,1273,1278,1278,1278,1283,1283,1283,1278,1278,1288,1328,1328,1328,1328,1328,1328,1328,1328,1322,1322,1322,1322,1322,1322,1322,1322,1322,1322,1322,1322,1322,1322,1322,1322,1322,1322,1317,1317,1317,1312,1312,1312,1317,1317,1317,1317,1322,1322,1317,1317,1317,1317,1312,1312,1312,984,984,984,981,981,978,975,973,970,967,967,967,967,967,967,970,970,973,973,975,978,978,978,978,981,981,981,1312,1312,1312,1312,1312,1312,1312,1312,1307,1307,1307,1307,1307,1307,1307,1302,1302,1302,1302,1297,1297,1297,1297,1297,1297,1297,1302,1302,1297,1297,1297,1297,1297,1297,1297,1297,1297,1297,1297,1297,1297,1292,1292,1292,1292,1292,1292,1292,1292,1292,1292,1292,1297,1297,1297,1297,1297,1297,1297,1297,1292,1292,1292,1292,1292,1292,1292,1292,1292,1292,1292,1292,1292,1292,1292,1292,1292,1288,1288,1288,1288,1288,1288,1288,1288,1288,1288,1288,1288,1288,1288,1288,1288,1288,1288,1288,1288,1288,1288,1283,1283,1283,1283,1283,1278,1278,1283,1283,1283,1283,1283,1288,1283,1283,1283,1283,1283,1278,1278,1278,1278,1278,1273,1273,1278,1278,1278,1278,1278,1278,1278,1278,1278,1278,1278,1278,1278,1273,1273,1273,1273,1273,1273,1273,1273,1273,1273,1273,1273,1273,1268,1268,1273,1273,1273,1273,1268,1268,1268,1264,1264,1259,1259,1259,1255,1255,1255,1250,1250,1250,1245,1245,1241,1236,1232,1232,1227,1223,1223,1219,1219,1219,1214,1214,1214,1210,1206,1206,1202,1202,1197,1197,1197,1193,1189,1185,1185,1185,1181,1181,1177,1173,1169,1169,1169,1165,1165,1165,1161,1161,1157,1153,1153,1149,1149,1145,1145,1141,1138,1138,1134,1134,1134,1130,1130,1126,1123,1123,1119,1115,1115,1112,1108,1108,1105,1105,1105,1101,1101,1097,1097,1094,1094,1090,1090,1090,1087,1080,1080,1077,1077,1077,1073,1070,1070,1070,0,0,0,0,0,0,0,0,0,0,0,0,0,0,0,0,0,0,0,0,0,0,0,0,0,0,0,0,0,0,0,0
0,0,0,0,0,0,0,0,0,0,0,1376,1376,1370,1370,1376,1376,1376,1376,1376,1370,1370,1376,1370,1370,1370,1370,1370,1376,1370,1370,1370,1370,1370,1370,1376,1376,1376,1376,1376,1376,1376,1376,1376,1376,1376,1376,1376,1376,1376,1370,1370,1370,1370,1370,1370,1365,1365,1370,1370,1365,1365,1365,1365,1370,1370,1365,1365,1365,1365,1365,1359,1359,1359,1359,1359,0,1047,1047,1047,1047,1050,1050,1047,1047,1047,1050,1050,1050,1050,1050,1054,1054,1057,1057,1057,1057,0,0,0,0,0,0,0,0,0,0,0,698,698,700,700,701,703,703,704,704,704,706,706,706,708,708,710,710,711,711,713,714,714,714,714,714,714,714,0,0,0,0,0,1115,1115,1115,1115,1115,1119,1119,1119,1119,1123,1126,1126,1130,1130,1130,1130,1130,1130,1134,1134,1134,1134,1349,1343,1343,1343,1343,1349,1349,1343,1343,1343,1349,1349,1343,1343,1343,1343,1343,1343,1343,1343,1338,1338,1338,1338,1338,1333,1333,1333,1328,1328,1105,1101,1101,1097,1090,1087,1084,1084,1077,1073,1073,1073,1070,1070,1070,1070,1070,1067,1067,1349,1349,1343,1343,1343,1343,1343,1343,1343,1343,1343,1343,1343,1343,1338,1338,1338,1338,1333,1333,1333,1333,1333,1333,1338,1338,1338,1338,1338,1338,1338,1338,1338,1338,1338,1333,1333,1333,1333,1328,1328,1328,1322,1322,1322,1322,1322,1322,1322,1322,1322,1317,1292,1292,1288,1283,1278,1278,1278,1278,1278,1278,1278,1283,1283,1283,1283,1283,1288,1297,1317,1322,1322,1322,1322,1322,1322,1322,1322,1322,1322,1322,1322,1322,1322,1322,1322,1322,1317,1317,1322,1317,1317,1317,1317,1317,1312,1312,1307,1307,1307,1307,1312,1312,1312,1317,1317,1317,1312,1312,1312,1312,1312,1312,0,984,984,984,984,978,978,975,973,970,970,967,967,970,970,970,973,973,975,978,978,981,981,981,981,981,981,1312,1312,1307,1307,1307,1307,1307,1307,1302,1302,1297,1297,1297,1297,1297,1297,1297,1297,1297,1292,1292,1292,1292,1292,1292,1292,1297,1297,1292,1292,1292,1292,1292,1292,1292,1292,1292,1292,1292,1292,1292,1292,1292,1292,1288,1288,1288,1288,1288,1288,1288,1292,1292,1292,1292,1292,1292,1292,1292,1297,1292,1292,1292,1292,1288,1288,1288,1288,1288,1292,1292,1292,1292,1288,1288,1288,1288,1288,1288,1288,1288,1288,1288,1283,1283,1288,1288,1283,1283,1283,1283,1283,1283,1283,1283,1283,1283,1283,1283,1278,1278,1278,1278,1278,1273,1273,1278,1273,1273,1273,1273,1273,1273,1273,1273,1278,1278,1278,1273,1273,1273,1273,1273,1273,1273,1273,1273,1273,1273,1273,1278,1273,1273,1273,1273,1273,1273,1273,1273,1273,1268,1268,1268,1268,1268,1268,1268,1268,1268,1268,1268,1268,1268,1268,1268,1268,1268,1264,1264,1264,1259,1255,1255,1255,1255,1255,1250,1250,1250,1245,1245,1245,1241,1236,1232,1232,1227,1223,1223,1219,1219,1219,1214,1214,1214,1210,1210,1206,1202,1202,1197,1197,1197,1193,1193,1185,1185,1185,1181,1181,1177,1173,1169,1169,1169,1169,1165,1165,1161,1161,1157,1157,1153,1153,1149,1149,1145,1138,1138,1138,1138,1134,1134,1130,1130,1126,1123,1123,1119,1119,1115,1115,1112,1108,1108,1105,1105,1105,1101,1097,1097,1094,1094,1090,1090,1090,1084,1080,1080,1077,1077,1073,1073,1070,1070,1070,0,0,0,0,0,0,0,0,0,0,0,0,0,0,0,0,0,0,0,0,0,0,0,0,0,0,0,0,0,0,0,0
0,0,0,0,0,0,0,0,0,0,0,1370,1370,1370,1365,1365,1370,1370,1370,1370,1370,1370,1370,1370,1370,1365,1365,1370,1370,1370,1370,1370,1370,1370,1370,1370,1370,1370,1370,1370,1370,1370,1370,1370,1370,1370,1370,1370,1370,1370,1370,1370,1370,1365,1365,1365,1365,1365,1365,1365,1365,1365,1365,1365,1365,1365,1365,1359,1359,1359,1359,1359,1354,1354,1354,1354,1349,0,1047,1047,1047,1050,1050,1050,1050,1050,1050,1050,1050,1054,1054,1054,1057,1057,1057,1060,1060,0,0,0,0,0,0,0,0,0,0,0,700,700,700,701,701,703,703,704,704,706,706,706,707,708,710,710,711,711,713,713,714,716,716,714,714,714,714,716,0,0,0,0,1115,1115,1115,1115,1115,1119,1119,1119,1123,1123,1126,1130,1130,1130,1130,1130,1130,1134,1134,1134,1134,1338,1338,1343,1343,1343,1343,1343,1343,1343,1343,1343,1343,1343,1343,1343,1343,1338,1338,1338,1338,1338,1338,1338,1338,1333,1333,1333,1333,1328,1328,1328,1328,1105,1101,1097,1090,1087,1084,1080,1077,1073,1070,1070,1067,1067,1067,1067,1063,1063,1060,1060,1060,1060,1343,1343,1338,1338,1338,1343,1343,1343,1343,1338,1338,1333,1333,1333,1333,1333,1328,1328,1328,1333,1333,1333,1333,1333,1338,1338,1338,1333,1333,1333,1333,1328,1328,1322,1322,1322,1322,1322,1322,1322,1322,1322,1322,1322,1317,1317,1322,1317,1317,1312,1292,1288,1288,1283,1283,1283,1283,1278,1278,1278,1283,1283,1283,1283,1288,1297,1297,1312,1317,1317,1322,1322,1322,1317,1317,1317,1317,1317,1317,1317,1317,1317,1317,1317,1312,1312,1312,1312,1312,1312,1312,1312,1307,1307,1307,1307,1307,1307,1307,1307,1307,1307,1312,1312,1312,1312,1312,1312,1307,1307,1307,0,989,989,987,987,984,978,975,973,970,970,970,970,970,970,970,973,975,975,978,978,981,981,981,981,981,981,981,1302,1302,1302,1302,1302,1302,1302,1297,1297,1292,1292,1292,1292,1292,1292,1292,1292,1292,1292,1292,1292,1292,1292,1292,1292,1292,1292,1292,1292,1292,1292,1292,1288,1288,1288,1288,1288,1288,1288,1288,1288,1288,1288,1288,1288,1288,1288,1288,1288,1288,1288,1283,1283,1288,1288,1292,1292,1292,1292,1292,1292,1292,1288,1288,1283,1283,1283,1283,1288,1288,1288,1288,1288,1288,1288,1288,1283,1283,1283,1283,1283,1283,1283,1283,1283,1283,1283,1283,1283,1283,1278,1278,1278,1278,1278,1278,1278,1278,1278,1273,1273,1273,1273,1273,1273,1273,1273,1273,1273,1273,1273,1273,1273,1273,1273,1273,1273,1273,1273,1273,1273,1273,1273,1273,1273,1273,1273,1273,1273,1273,1273,1273,1273,1273,1273,1273,1268,1268,1268,1264,1264,1268,1268,1268,1264,1264,1268,1268,1268,1264,1264,1264,1268,1268,1268,1264,1264,1259,1259,1259,1255,1255,1255,1255,1250,1250,1250,1250,1245,1245,1245,1241,1236,1232,1232,1227,1227,1223,1223,1219,1219,1219,1214,1214,1214,1210,1206,1206,1202,1197,1197,1197,1193,1193,1189,1185,1185,1181,1181,1177,1177,1173,1169,1169,1169,1165,1165,1161,1161,1157,1157,1153,1153,1149,1149,1145,1138,1138,1138,1138,1134,1134,1134,1134,1130,1126,1123,1119,1119,1119,1115,1112,1112,1108,1108,1105,1105,1101,1101,1097,1097,1094,1090,1090,1090,1084,1084,1080,1077,1077,1073,1070,1070,1070,1070,0,0,0,0,0,0,0,0,0,0,0,0,0,0,0,0,0,0,0,0,0,0,0,0,0,0,0,0,0,0,0,0
0,0,0,0,0,0,0,0,0,0,0,1365,1365,1365,1365,1365,1365,1365,1365,1365,1365,1365,1365,1365,1365,1365,1365,1365,1365,1365,1365,1365,1365,1365,1370,1370,1365,1365,1365,1365,1365,1365,1365,1365,1365,1370,1370,1370,1370,1370,1365,1365,1365,1365,1359,1359,1359,1359,1359,1359,1359,1359,1359,1359,1359,1359,1359,1359,1354,1354,1354,1354,1349,1349,1349,1349,1349,1349,0,1057,1057,1050,1050,1050,1050,1050,1050,1050,1050,1054,1054,1057,1057,1057,1057,1057,1057,1057,0,0,0,0,0,0,0,0,0,0,701,701,701,701,703,704,704,704,706,706,706,707,707,708,710,710,711,711,713,714,714,716,716,716,716,716,716,716,0,0,0,0,0,0,1119,1119,1119,1123,1123,1123,1123,1126,1130,1130,1130,1130,1130,1130,1134,1134,1333,1333,1333,1338,1333,1333,1338,1338,1338,1338,1338,1338,1338,1338,1343,1343,1338,1338,1338,1338,1333,1333,1333,1333,1333,1333,1333,1333,1333,1333,1328,1328,1328,1322,1322,1101,1101,1097,1094,1090,1084,1080,1077,1073,1070,1070,1067,1063,1063,1063,1060,1060,1060,1057,1057,1057,1057,1338,1338,1333,1333,1338,1338,1338,1338,1333,1333,1333,1333,1328,1328,1328,1328,1328,1328,1328,1328,1328,1328,1328,1328,1328,1328,1328,1328,1328,1322,1322,1322,1322,1322,1322,1322,1322,1322,1322,1317,1317,1317,1317,1317,1317,1317,1317,1312,1307,1297,1292,1288,1283,1283,1283,1283,1283,1283,1283,1283,1283,1288,1288,1288,1297,1302,1307,1307,1312,1317,1317,1317,1317,1312,1312,1312,1312,1307,1307,1312,1312,1312,1312,1307,1307,1312,1312,1307,1307,1307,1307,1307,1302,1302,1302,1302,1302,1302,1302,1302,1302,1307,1307,1307,1307,1307,1307,1307,1307,1307,1302,989,989,989,987,984,984,978,978,973,970,970,970,970,970,970,973,975,975,978,978,981,981,981,981,981,981,1288,1288,1288,1297,1297,1297,1297,1292,1292,1292,1292,1292,1292,1292,1292,1292,1292,1292,1292,1292,1292,1292,1292,1292,1288,1288,1288,1288,1288,1288,1288,1288,1288,1283,1283,1283,1283,1283,1283,1283,1283,1283,1283,1283,1283,1283,1283,1283,1283,1283,1283,1283,1278,1278,1278,1278,1278,1278,1288,1288,1288,1288,1288,1288,1288,1283,1278,1278,1283,1283,1283,1283,1283,1283,1283,1283,1283,1278,1278,1278,1278,1278,1278,1278,1278,1278,1278,1278,1278,1278,1278,1273,1273,1273,1273,1273,1273,1273,1273,1273,1273,1273,1273,1268,1268,1268,1268,1268,1268,1268,1268,1268,1268,1268,1268,1273,1273,1273,1273,1273,1273,1268,1268,1268,1268,1268,1268,1268,1268,1268,1268,1268,1268,1268,1268,1268,1268,1268,1264,1264,1259,1259,1264,1264,1264,1259,1259,1264,1264,1264,1259,1259,1259,1259,1264,1259,1259,1259,1259,1259,1255,1255,1255,1255,1250,1250,1250,1250,1250,1245,1245,1245,1241,1236,1232,1232,1232,1227,1223,1223,1219,1219,1219,1214,1214,1214,1210,1210,1206,1202,1197,1197,1197,1193,1193,1189,1185,1185,1181,1181,1177,1177,1177,1169,1169,1169,1165,1165,1161,1161,1157,1157,1157,1153,1153,1149,1145,1141,1138,1138,1138,1134,1134,1134,1134,1130,1126,1123,1123,1119,1119,1115,1115,1112,1108,1108,1108,1105,1105,1101,1101,1097,1094,1094,1094,1090,1084,1084,1080,1077,1077,1070,933,933,1067,1070,0,0,0,0,0,0,0,0,0,0,0,0,0,0,0,0,0,0,0,0,0,0,0,0,0,0,0,0,0,0,0,0
0,0,0,0,0,0,0,0,0,0,0,1365,1365,1359,1359,1359,1359,1359,1359,1359,1359,1359,1354,1354,1359,1359,1359,1359,1359,1365,1365,1359,1359,1359,1359,1365,1365,1359,1359,1359,1359,1365,1359,1359,1359,1365,1365,1365,1365,1365,1359,1359,1359,1354,1354,1354,1354,1354,1354,1354,1354,1354,1349,1349,1349,1349,1349,1349,1349,1349,1349,1349,1349,1343,1343,1343,1349,1349,1057,1057,1057,1054,1050,1050,1050,1050,1050,1050,1054,1054,1054,1057,1057,1060,1060,1057,1057,1054,1054,0,0,0,0,0,0,0,0,0,0,701,701,703,703,704,704,706,706,707,707,707,708,710,710,710,711,713,713,714,714,716,716,716,716,716,717,717,0,0,0,0,0,0,0,1322,1322,1322,1126,1126,1126,1130,1130,1130,1130,1130,1130,1328,1328,1328,1328,1333,1333,1333,1333,1333,1333,1333,1333,1333,1333,1333,1333,1338,1338,1338,1338,1338,1333,1333,1333,1333,1328,1328,1333,1333,1333,1328,1328,1328,1328,1322,1322,1322,1317,1101,1101,1094,1090,1087,1084,1080,1077,1073,1070,1067,1063,1060,1060,1060,1060,1057,1057,1054,1054,1054,1054,1054,1054,1328,1328,1328,1328,1328,1333,1328,1328,1328,1328,1328,1328,1322,1322,1322,1322,1322,1322,1322,1322,1322,1322,1322,1322,1317,1317,1317,1317,1317,1317,1317,1317,1317,1317,1317,1317,1317,1312,1312,1312,1317,1312,1312,1312,1312,1312,1307,1302,1292,1288,1283,1283,1283,1283,1283,1283,1283,1283,1288,1288,1292,1297,1297,1302,1302,1307,1307,1307,1307,1312,1312,1312,1307,1307,1307,1307,1307,1307,1307,1307,1307,1307,1307,1307,1307,1302,1302,1302,1302,1302,1302,1302,1302,1302,1302,1302,1302,1302,1302,1307,1307,1307,1302,1302,1302,1302,1302,1302,1302,992,992,989,989,987,987,984,978,975,975,973,973,970,970,973,973,975,978,978,978,981,981,981,981,984,984,1283,1283,1283,1288,1292,1292,1292,1288,1288,1288,1288,1288,1288,1288,1288,1288,1288,1288,1288,1288,1288,1288,1288,1288,1288,1288,1288,1288,1283,1283,1288,1283,1283,1283,1283,1283,1278,1278,1278,1278,1278,1278,1278,1278,1278,1278,1278,1278,1278,1278,1278,1278,1273,1273,1273,1273,1273,1273,1273,1278,1278,1283,1283,1283,1283,1278,1273,1273,1278,1278,1278,1278,1278,1278,1278,1278,1278,1278,1278,1278,1273,1273,1273,1273,1273,1273,1273,1273,1273,1273,1273,1268,1268,1273,1273,1273,1273,1273,1273,1268,1268,1268,1268,1268,1268,1268,1268,1268,1264,1264,1264,1264,1264,1264,1264,1268,1268,1268,1268,1268,1268,1268,1268,1264,1264,1268,1268,1268,1268,1268,1268,1268,1268,1268,1268,1264,1264,1264,1259,1259,1255,1255,1259,1259,1259,1259,1259,1259,1259,1259,1255,1255,1255,1255,1255,1255,1255,1255,1255,1255,1255,1250,1250,1250,1250,1250,1250,1245,1245,1245,1245,1241,1241,1236,1236,1232,1232,1232,1227,1223,1219,1219,1219,1219,1214,1214,1214,1210,1206,1202,1197,1197,1197,1193,1193,1189,1185,1185,1181,1181,1181,1177,1177,1177,1169,1169,1165,1165,1165,1161,1161,1157,1157,1153,1153,1149,1145,1141,1138,1138,1138,1134,1134,1134,1134,1130,1126,1123,1123,1119,1119,1119,1119,1115,1112,1108,1108,1105,1105,1101,1101,1097,1094,1094,1094,1090,1090,1087,1080,1077,935,935,933,933,1067,0,0,0,0,0,0,0,0,0,0,0,0,0,0,0,0,0,0,0,0,0,0,0,0,0,0,0,0,0,0,0,0,0
0,0,0,0,0,0,0,0,0,0,0,1359,1359,1359,1354,1354,1354,1354,1354,1354,1354,1354,1354,1354,1354,1354,1354,1349,1349,1354,1359,1359,1354,1354,1359,1359,1354,1354,1354,1354,1359,1359,1359,1349,1349,1354,1359,1359,1359,1349,1349,1349,1354,1354,1354,1349,1349,1354,1349,1349,1354,1349,1349,1349,1349,1349,1349,1349,1349,1349,1349,1349,1349,1343,1343,1343,1343,1343,1343,1057,1057,1054,1054,1054,1050,1050,1054,1054,1054,1054,1057,1060,1060,1060,1060,1057,1057,1054,1054,0,0,0,0,0,0,0,0,0,0,0,704,704,704,704,704,706,707,707,707,707,708,710,710,710,711,713,714,714,714,716,716,716,716,717,717,720,720,0,0,0,0,0,0,1322,1322,1322,1322,1322,1328,1328,1328,1328,1328,1328,1328,1328,1328,1328,1328,1328,1328,1328,1328,1333,1333,1333,1328,1328,1328,1328,1328,1333,1333,1328,1328,1328,1328,1328,1328,1328,1328,1328,1328,1328,1328,1328,1328,1328,1328,1322,1322,1317,1307,1307,1101,1094,1090,1087,1084,1080,1077,1073,1067,1067,1063,1060,1060,1057,1057,1054,1054,1054,1054,1050,1050,1050,1050,1328,1328,1328,1328,1328,1328,1328,1322,1322,1322,1322,1322,1322,1322,1322,1317,1317,1317,1317,1312,1312,1312,1312,1312,1312,1312,1312,1312,1312,1312,1312,1312,1312,1312,1312,1312,1312,1312,1312,1312,1312,1312,1312,1312,1307,1307,1302,1302,1297,1292,1288,1288,1288,1283,1283,1283,1283,1283,1288,1288,1288,1297,1297,1297,1302,1302,1302,1307,1307,1307,1302,1302,1302,1302,1302,1302,1302,1302,1302,1302,1302,1302,1302,1302,1302,1297,1297,1297,1297,1302,1297,1297,1297,1297,1297,1297,1297,1297,1297,1302,1302,1302,1297,1297,1297,1297,1297,1297,1297,992,992,989,989,987,987,984,978,978,975,975,973,973,973,975,978,978,978,978,981,981,981,984,984,984,989,1283,1283,1278,1278,1283,1288,1288,1288,1288,1288,1288,1288,1288,1288,1288,1288,1288,1283,1283,1283,1283,1283,1283,1283,1283,1283,1283,1283,1283,1283,1283,1283,1283,1278,1278,1278,1278,1278,1278,1278,1278,1278,1278,1278,1273,1273,1273,1273,1273,1273,1273,1273,1273,1268,1268,1268,1273,1273,1273,1273,1273,1273,1273,1273,1273,1273,1273,1273,1273,1273,1273,1273,1273,1273,1273,1273,1273,1273,1273,1273,1273,1268,1268,1268,1268,1268,1268,1268,1268,1268,1268,1268,1268,1268,1268,1268,1268,1268,1268,1268,1268,1268,1268,1268,1264,1264,1264,1264,1264,1259,1259,1259,1264,1264,1264,1264,1264,1264,1264,1264,1264,1264,1264,1264,1264,1264,1264,1264,1264,1264,1264,1264,1264,1264,1264,1259,1259,1255,1255,1255,1255,1255,1255,1255,1255,1255,1255,1255,1255,1255,1255,1250,1250,1250,1250,1250,1250,1250,1250,1250,1250,1250,1250,1245,1245,1245,1245,1245,1245,1241,1241,1241,1236,1236,1232,1232,1232,1232,1227,1223,1223,1219,1219,1219,1214,1214,1214,1210,1206,1202,1197,1197,1197,1193,1193,1189,1185,1185,1185,1181,1181,1181,1181,1177,1173,1169,1169,1165,1165,1165,1161,1161,1157,1153,1153,1149,1145,1141,1138,1138,1138,1134,1134,1134,1134,1130,1126,1126,1123,1123,1119,1119,1119,1115,1112,1108,1108,1105,1105,1101,1101,1097,1094,1094,1094,1094,1090,940,938,938,935,935,935,935,0,0,0,0,0,0,0,0,0,0,0,0,0,0,0,0,0,0,0,0,0,0,0,0,0,0,0,0,0,0,0,0,0,0
0,0,0,0,0,0,0,0,0,0,1359,1359,1359,1354,1354,1354,1354,1354,1354,1349,1349,1349,1349,1349,1349,1349,1349,1349,1349,1349,1349,1349,1349,1349,1354,1354,1354,1349,1349,1349,1354,1354,1354,1349,1349,1349,1349,1349,1349,1349,1349,1349,1349,1349,1349,1349,1349,1349,1349,1349,1349,1349,1349,1343,1343,1343,1343,1343,1343,1343,1343,1343,1343,1343,1343,1343,1343,1343,1343,0,1057,1057,1054,1054,1054,1054,1054,1054,1054,1054,1060,1060,1060,1060,1060,1060,1060,1057,1057,0,0,0,0,0,0,0,0,0,0,0,706,706,706,706,706,706,707,707,707,708,708,710,711,711,713,713,714,714,716,716,716,717,717,719,720,720,720,0,0,0,0,0,0,0,0,1322,1322,1322,1328,1328,1328,1328,1328,1328,1328,1328,1328,1328,1328,1328,1322,1322,1322,1322,1322,1328,1328,1328,1328,1328,1328,1328,1328,1328,1328,1328,1322,1322,1322,1322,1322,1322,1322,1322,1328,1328,1322,1322,1322,1322,1307,1307,1307,1307,1307,1094,1090,1087,1084,1084,1077,1073,1067,1067,1060,1060,1057,1057,1054,1050,1050,1050,1050,1047,1047,1047,1047,1047,1328,1328,1328,1328,1328,1322,1317,1317,1317,1317,1317,1317,1317,1317,1317,1312,1312,1312,1312,1312,1312,1307,1307,1307,1307,1307,1307,1307,1307,1307,1307,1307,1307,1307,1307,1307,1307,1307,1307,1307,1307,1307,1307,1307,1307,1302,1297,1297,1292,1288,1288,1288,1288,1283,1283,1283,1283,1288,1288,1288,1297,1297,1297,1297,1302,1302,1302,1302,1302,1302,1302,1302,1297,1297,1297,1297,1297,1297,1297,1297,1297,1292,1292,1297,1297,1292,1292,1292,1292,1297,1297,1292,1292,1292,1292,1292,1292,1297,1297,1297,1297,1292,1292,1292,1292,1292,1292,1292,995,995,992,992,989,989,987,981,978,978,978,975,975,975,978,978,978,981,981,984,984,984,987,987,989,989,989,1268,1268,1268,1268,1273,1278,1278,1283,1283,1283,1283,1283,1283,1283,1283,1283,1283,1283,1283,1283,1283,1283,1278,1278,1278,1278,1278,1278,1278,1278,1278,1278,1273,1273,1273,1273,1273,1273,1273,1273,1273,1273,1273,1273,1273,1273,1273,1268,1268,1268,1268,1268,1268,1268,1268,1268,1268,1268,1268,1268,1268,1268,1268,1268,1268,1268,1268,1268,1273,1268,1268,1273,1273,1268,1268,1268,1268,1268,1268,1268,1264,1264,1268,1268,1268,1268,1268,1268,1268,1268,1268,1268,1268,1268,1268,1268,1268,1264,1264,1264,1264,1264,1264,1264,1264,1264,1264,1259,1259,1255,1255,1259,1259,1259,1259,1259,1259,1264,1259,1259,1259,1259,1259,1259,1259,1259,1259,1259,1255,1255,1255,1259,1259,1259,1255,1255,1255,1255,1255,1255,1255,1255,1250,1250,1250,1250,1250,1250,1250,1250,1250,1250,1245,1245,1245,1245,1245,1245,1245,1245,1245,1245,1245,1245,1241,1241,1245,1241,1241,1241,1236,1236,1236,1232,1232,1232,1232,1227,1227,1223,1219,1219,1214,1214,1214,1214,1210,1206,1202,1197,1197,1197,1193,1193,1189,1189,1185,1185,1185,1181,1181,1181,1177,1177,1169,1169,1165,1165,1165,1161,1161,1157,1153,1153,1149,1145,1141,1141,1138,1138,1138,1134,1134,1134,1130,1126,1126,1123,1123,1123,1119,1119,1115,1112,1108,1108,1108,1105,1105,1101,1101,1097,1094,1094,1094,1090,940,938,938,938,935,933,933,0,0,0,0,0,0,0,0,0,0,0,0,0,0,0,0,0,0,0,0,0,0,0,0,0,0,0,0,0,0,0,0,0,0
0,0,0,0,0,0,0,0,0,0,1354,1354,1354,1349,1349,1349,1349,1349,1349,1349,1349,1349,1349,1349,1343,1343,1343,1343,1343,1338,1338,1343,1343,1338,1338,1343,1349,1349,1349,1349,1349,1349,1349,1343,1343,1343,1343,1349,1349,1343,1343,1343,1343,1343,1343,1343,1343,1349,1343,1343,1343,1343,1343,1343,1338,1338,1338,1338,1343,1343,1343,1343,1343,1343,1343,1343,1343,1343,1343,1057,1057,1057,1054,1054,1054,1054,1054,1054,1054,1057,1060,1060,1060,1060,1060,1060,1060,1060,1060,0,0,0,0,0,0,0,0,0,0,0,706,706,706,706,706,707,708,708,708,708,710,710,711,713,713,713,714,714,716,716,717,717,719,720,720,722,722,0,0,0,0,0,0,0,0,1322,1322,1322,1328,1328,1328,1322,1322,1322,1322,1322,1322,1322,1322,1322,1322,1322,1322,1322,1322,1322,1322,1322,1322,1322,1322,1322,1322,1322,1322,1322,1322,1322,1322,1322,1317,1317,1322,1322,1322,1322,1322,1322,1317,1317,1307,1307,1307,1307,1307,1307,1307,1087,1084,1084,1077,1073,1067,1063,1060,1057,1057,1054,1050,1050,1050,1047,1047,1047,1047,1047,1047,1047,1328,1328,1328,1328,1328,1322,1317,1317,1312,1312,1312,1312,1307,1307,1312,1312,1307,1307,1307,1307,1307,1307,1307,1307,1307,1307,1307,1302,1302,1307,1307,1307,1307,1307,1307,1307,1302,1302,1302,1302,1302,1302,1302,1302,1302,1297,1297,1297,1292,1292,1288,1288,1288,1288,1283,1283,1288,1288,1288,1288,1292,1292,1297,1297,1297,1297,1297,1297,1297,1297,1297,1297,1292,1292,1292,1292,1288,1288,1288,1292,1292,1292,1292,1292,1288,1288,1288,1288,1292,1292,1292,1292,1292,1292,1292,1288,1288,1292,1292,1292,1292,1292,1292,1292,1292,1288,1288,1288,995,995,995,992,992,989,987,981,981,978,978,978,978,978,978,978,981,981,981,984,984,987,989,989,989,989,1268,1268,1268,1268,1268,1273,1273,1273,1273,1278,1278,1278,1278,1278,1278,1278,1278,1278,1278,1278,1278,1278,1278,1273,1273,1273,1273,1273,1273,1273,1273,1273,1273,1273,1273,1273,1273,1273,1273,1273,1268,1268,1268,1268,1268,1268,1268,1268,1268,1268,1264,1264,1264,1264,1264,1264,1264,1264,1264,1264,1264,1264,1264,1259,1259,1264,1264,1264,1264,1264,1259,1259,1264,1268,1264,1264,1264,1264,1264,1264,1259,1259,1259,1264,1264,1264,1264,1264,1264,1264,1264,1264,1264,1264,1264,1264,1264,1264,1259,1259,1259,1259,1259,1259,1259,1259,1259,1259,1259,1255,1255,1255,1255,1255,1255,1255,1255,1255,1255,1255,1255,1255,1255,1255,1255,1255,1255,1255,1255,1250,1250,1250,1250,1250,1250,1250,1255,1250,1250,1250,1250,1250,1250,1250,1250,1250,1250,1245,1245,1245,1245,1245,1245,1245,1245,1245,1245,1245,1245,1241,1241,1245,1241,1241,1241,1241,1241,1241,1241,1236,1236,1236,1236,1232,1232,1232,1232,1232,1227,1223,1219,1219,1219,1214,1214,1214,1214,1210,1206,1202,1202,1197,1197,1193,1193,1189,1189,1185,1185,1185,1181,1181,1181,1177,1177,1169,1169,1165,1165,1165,1161,1161,1157,1153,1153,1153,1149,1141,1141,1138,1138,1138,1134,1134,1134,1130,1126,1126,1123,1123,1123,1119,1119,1115,1112,1112,1108,1108,1108,1105,1101,1101,1097,1094,1094,940,940,940,940,938,938,935,933,933,0,0,0,0,0,0,0,0,0,0,0,0,0,0,0,0,0,0,0,0,0,0,0,0,0,0,0,0,0,0,0,0,0,0
0,0,0,0,0,0,0,0,0,0,1349,1349,1349,1349,1349,1349,1349,1349,1349,1349,1343,1343,1343,1343,1343,1343,1343,1343,1322,1322,1328,1328,1338,1333,1333,1333,1338,1338,1338,1338,1338,1343,1349,1343,1343,1343,1343,1343,1343,1338,1338,1338,1338,1338,1338,1343,1343,1343,1343,1343,1338,1338,1338,1338,1333,1333,1338,1338,1338,1338,1338,1338,1338,1338,1338,1338,1338,1338,1338,1328,1057,1057,1054,1054,1054,1054,1054,1054,1054,1057,1060,1060,1060,1063,1063,1063,1063,1063,1063,0,0,0,0,0,0,0,0,0,0,0,707,706,706,706,706,707,708,708,708,708,710,710,711,713,714,714,714,716,716,717,717,717,719,720,722,723,723,0,0,0,0,0,0,0,0,1317,1317,1322,1322,1322,1322,1322,1317,1317,1317,1317,1317,1317,1317,1317,1317,1317,1317,1317,1317,1322,1317,1317,1317,1317,1317,1317,1317,1317,1317,1317,1317,1317,1317,1317,1317,1317,1317,1317,1317,1317,1317,1317,1312,1312,1307,1307,1307,1307,1307,1307,1307,1090,1087,1084,1080,1077,1067,1063,1057,1057,1054,1050,1050,1047,1047,1047,1044,1044,1044,1044,1041,1041,1038,1038,1038,1328,1328,1322,1317,1312,1312,1312,1307,1307,1307,1307,1307,1307,1302,1302,1302,1307,1307,1307,1302,1302,1302,1302,1302,1302,1302,1302,1302,1302,1302,1302,1302,1302,1302,1302,1302,1302,1302,1302,1302,1302,1297,1297,1292,1292,1292,1292,1288,1288,1288,1288,1283,1283,1288,1288,1288,1288,1292,1292,1292,1292,1292,1292,1292,1292,1292,1292,1292,1292,1288,1288,1288,1288,1288,1288,1288,1288,1288,1288,1288,1288,1288,1288,1288,1288,1288,1288,1288,1288,1288,1288,1288,1288,1288,1292,1292,1292,1288,1288,1288,1288,1288,1283,1283,1283,995,995,995,992,992,989,987,984,981,981,978,978,978,978,978,981,981,981,984,987,987,989,989,992,992,992,1268,1268,1268,1268,1268,1273,1273,1273,1273,1273,1273,1273,1273,1273,1273,1273,1273,1273,1273,1273,1273,1273,1273,1268,1268,1268,1268,1268,1268,1268,1268,1268,1268,1268,1268,1268,1268,1268,1268,1268,1268,1268,1268,1264,1264,1264,1264,1264,1264,1264,1264,1264,1264,1259,1259,1264,1264,1264,1259,1259,1259,1259,1259,1259,1259,1259,1259,1259,1259,1259,1259,1259,1259,1259,1259,1259,1259,1259,1259,1259,1259,1255,1255,1259,1259,1259,1259,1259,1264,1264,1264,1264,1264,1264,1259,1259,1259,1259,1255,1255,1255,1255,1255,1255,1255,1255,1255,1255,1255,1255,1255,1255,1255,1255,1255,1250,1250,1250,1255,1250,1250,1250,1255,1255,1255,1250,1250,1250,1250,1250,1250,1245,1245,1245,1245,1245,1245,1245,1245,1250,1250,1250,1245,1245,1245,1245,1245,1245,1245,1245,1245,1245,1241,1241,1241,1241,1241,1241,1241,1236,1236,1241,1236,1236,1236,1236,1236,1236,1236,1236,1236,1236,1232,1232,1232,1232,1232,1227,1223,1223,1219,1219,1214,1214,1214,1214,1210,1210,1202,1202,1202,1197,1197,1197,1193,1189,1189,1185,1185,1185,1181,1181,1181,1177,1173,1169,1169,1165,1165,1165,1165,1161,1157,1157,1153,1153,1149,1141,1141,1138,1138,1138,1134,1134,1134,1130,1126,1126,1123,1123,1123,1119,1119,1115,1112,1112,1108,1108,1108,1105,1105,1101,1097,946,943,940,940,940,940,940,938,935,933,933,0,0,0,0,0,0,0,0,0,0,0,0,0,0,0,0,0,0,0,0,0,0,0,0,0,0,0,0,0,0,0,0,0,0
0,0,0,0,0,0,0,0,0,0,1349,1349,1349,1349,1343,1343,1343,1343,1343,1343,1343,1343,1343,1338,1338,1338,1338,1338,1322,1322,1328,1328,1328,1328,1328,1328,1333,1333,1333,1333,1333,1333,1333,1333,1333,1338,1338,1338,1338,1338,1333,1333,1333,1333,1333,1338,1338,1338,1338,1333,1333,1333,1333,1333,1328,1328,1333,1333,1333,1333,1333,1333,1333,1333,1338,1328,1328,1328,1328,1328,1057,1057,1054,1054,1057,1054,1054,1054,1054,1057,1060,1060,1063,1063,1063,1063,1063,1063,1063,0,0,0,0,0,0,0,0,0,0,0,710,707,707,707,707,708,708,708,708,710,711,711,713,713,714,714,716,716,717,717,717,719,720,722,722,723,723,725,0,0,0,0,0,0,0,1317,1317,1317,1317,1312,1312,1312,1312,1317,1312,1312,1312,1317,1317,1317,1317,1312,1312,1312,1312,1312,1312,1312,1312,1312,1312,1312,1312,1307,1307,1307,1307,1312,1312,1312,1312,1312,1312,1312,1312,1312,1312,1312,1312,1307,1307,1307,1307,1307,1302,1302,1302,1307,1307,1084,1084,1077,1070,1063,1057,1054,1050,1047,1047,1047,1044,1044,1041,1041,1041,1041,1041,1038,1038,1038,1038,1038,1328,1328,1317,1312,1312,1307,1302,1302,1302,1302,1302,1302,1302,1297,1297,1302,1302,1302,1302,1302,1302,1302,1302,1297,1297,1297,1297,1302,1302,1302,1302,1302,1297,1297,1297,1297,1297,1297,1297,1297,1297,1292,1292,1292,1288,1288,1288,1288,1288,1288,1283,1283,1288,1288,1288,1288,1288,1288,1292,1288,1288,1288,1288,1288,1288,1288,1288,1288,1288,1288,1283,1283,1283,1283,1283,1283,1283,1283,1283,1283,1283,1283,1283,1288,1288,1283,1283,1283,1288,1283,1283,1283,1283,1288,1288,1288,1288,1288,1283,1278,1278,1278,1273,1273,1013,1004,998,995,992,992,987,984,981,981,981,981,981,981,981,981,981,984,987,987,987,989,989,992,992,992,1268,1268,1268,1268,1268,1268,1268,1268,1268,1268,1268,1268,1268,1268,1268,1268,1268,1268,1268,1268,1268,1268,1268,1268,1268,1268,1268,1268,1264,1264,1264,1264,1264,1264,1264,1264,1264,1268,1268,1268,1264,1264,1264,1259,1259,1259,1259,1259,1259,1259,1259,1259,1259,1259,1259,1259,1259,1259,1259,1259,1259,1255,1255,1255,1255,1255,1255,1255,1255,1255,1255,1255,1259,1255,1255,1255,1255,1255,1255,1255,1255,1255,1255,1255,1255,1255,1255,1255,1259,1259,1259,1259,1259,1259,1255,1255,1255,1255,1255,1250,1250,1250,1250,1250,1250,1250,1250,1250,1250,1250,1250,1250,1250,1250,1250,1245,1245,1245,1250,1250,1250,1250,1250,1250,1250,1250,1250,1245,1245,1245,1245,1241,1241,1241,1241,1241,1241,1241,1241,1245,1245,1245,1241,1241,1241,1241,1241,1241,1241,1241,1241,1241,1241,1241,1236,1236,1236,1236,1236,1236,1236,1236,1236,1236,1236,1236,1236,1236,1232,1232,1232,1232,1232,1232,1232,1232,1227,1227,1223,1219,1219,1214,1214,1214,1214,1214,1210,1210,1202,1202,1202,1197,1197,1197,1197,1193,1193,1189,1185,1185,1181,1181,1181,1177,1173,1169,1169,1169,1165,1165,1165,1161,1157,1157,1153,1153,1149,1145,1141,1138,1138,1138,1134,1134,1134,1130,1126,1126,1123,1123,1123,1119,1119,1119,1115,1112,1108,1108,1108,1105,1105,1101,1097,946,943,943,943,943,940,940,938,935,925,925,0,0,0,0,0,0,0,0,0,0,0,0,0,0,0,0,0,0,0,0,0,0,0,0,0,0,0,0,0,0,0,0,0,0
0,0,0,0,0,0,0,0,0,0,1343,1343,1343,1343,1338,1338,1343,1343,1343,1343,1343,1338,1338,1338,1338,1338,1338,1338,1322,1322,1328,1328,1328,1322,1322,1322,1328,1333,1333,1333,1333,1333,1333,1333,1333,1333,1333,1328,1328,1333,1328,1328,1328,1328,1328,1328,1328,1333,1333,1328,1328,1328,1328,1328,1328,1328,1328,1328,1328,1328,1328,1328,1328,1328,1328,1328,1328,1328,1328,1328,1054,1054,1054,1054,1057,1054,1054,1054,1057,1060,1060,1060,1063,1063,1063,1063,1063,1063,1063,0,0,0,0,0,0,0,0,0,0,0,710,707,707,707,708,708,708,710,710,711,713,713,713,714,714,714,716,717,717,719,719,719,720,722,722,723,725,725,0,0,0,0,0,0,0,0,1312,1312,1307,1307,1307,1307,1307,1312,1312,1312,1312,1312,1312,1312,1307,1307,1307,1307,1307,1312,1307,1307,1307,1307,1307,1307,1307,1307,1302,1302,1302,1302,1302,1302,1307,1307,1307,1307,1307,1307,1307,1307,1307,1307,1307,1307,1307,1307,1302,1302,1302,1302,1302,1302,1077,1077,1077,1063,1057,1054,1050,1047,1047,1044,1044,1041,1038,1038,1038,1038,1038,1038,1034,1034,1028,1028,1333,1333,1317,1307,1307,1302,1302,1302,1302,1302,1297,1297,1297,1292,1292,1297,1297,1297,1297,1292,1292,1292,1297,1292,1292,1292,1292,1297,1297,1297,1297,1297,1297,1292,1292,1292,1292,1292,1292,1292,1292,1292,1288,1288,1288,1288,1288,1288,1288,1283,1283,1283,1283,1283,1283,1288,1288,1283,1283,1283,1283,1283,1283,1283,1283,1283,1283,1283,1283,1283,1283,1278,1278,1278,1278,1278,1283,1283,1283,1283,1278,1278,1283,1278,1278,1278,1278,1283,1283,1283,1283,1283,1283,1288,1288,1283,1283,1283,1278,1273,1273,1268,1268,1268,1013,1004,1004,1001,998,995,989,987,984,981,981,981,981,981,981,981,984,984,987,987,989,989,992,992,992,995,1268,1268,1268,1268,1268,1264,1264,1268,1268,1268,1268,1268,1268,1264,1264,1264,1264,1264,1264,1264,1264,1268,1268,1264,1264,1264,1264,1264,1264,1264,1259,1259,1259,1259,1259,1259,1259,1264,1264,1264,1259,1259,1259,1259,1259,1259,1259,1259,1259,1255,1255,1255,1255,1255,1255,1255,1255,1255,1255,1255,1255,1255,1255,1255,1255,1255,1255,1255,1255,1255,1255,1255,1255,1255,1255,1255,1255,1255,1250,1250,1250,1250,1250,1250,1250,1250,1255,1255,1255,1255,1255,1255,1255,1255,1250,1250,1250,1250,1250,1250,1250,1250,1245,1245,1245,1245,1245,1245,1245,1245,1245,1245,1241,1241,1241,1241,1241,1241,1241,1241,1245,1245,1245,1245,1245,1245,1245,1241,1241,1241,1241,1241,1236,1236,1236,1241,1241,1241,1241,1241,1241,1241,1236,1236,1236,1236,1236,1236,1236,1236,1236,1241,1236,1236,1236,1236,1236,1232,1232,1232,1232,1232,1232,1232,1232,1232,1232,1232,1232,1232,1232,1232,1232,1232,1227,1227,1223,1223,1219,1219,1214,1214,1214,1214,1214,1214,1210,1206,1202,1202,1202,1197,1197,1197,1197,1193,1193,1193,1189,1185,1185,1181,1181,1181,1173,1169,1169,1169,1165,1165,1165,1161,1157,1153,1153,1153,1153,1145,1141,1138,1138,1138,1138,1134,1134,1130,1126,1126,1123,1123,1123,1119,1119,1119,1115,1112,1108,1108,1108,1105,1105,1101,946,946,946,943,940,940,940,938,938,930,920,920,0,0,0,0,0,0,0,0,0,0,0,0,0,0,0,0,0,0,0,0,0,0,0,0,0,0,0,0,0,0,0,0,0,0
0,0,0,0,0,0,0,0,0,0,1338,1338,1333,1333,1333,1333,1333,1333,1338,1338,1338,1338,1333,1333,1333,1333,1333,1333,1328,1328,1328,1328,1322,1322,1322,1322,1328,1328,1328,1328,1328,1328,1328,1328,1328,1328,1328,1328,1328,1328,1328,1328,1328,1328,1328,1328,1328,1328,1328,1328,1328,1328,1328,1328,1328,1328,1328,1328,1328,1328,1328,1328,1322,1322,1322,1322,1322,1317,1317,1317,1307,1057,1057,1057,1057,1057,1057,1057,1057,1060,1060,1063,1063,1063,1067,1067,1067,1067,1070,1073,1077,0,0,0,0,0,0,0,0,0,0,707,707,707,708,708,710,710,710,711,713,713,713,714,716,716,716,717,719,719,720,720,722,722,723,723,723,723,0,0,0,0,0,0,0,0,1307,1307,1307,1307,1307,1307,1307,1307,1307,1307,1307,1307,1307,1307,1307,1302,1302,1302,1302,1307,1302,1302,1302,1302,1302,1302,1302,1302,1302,1302,1302,1302,1302,1302,1302,1302,1302,1302,1302,1302,1302,1302,1302,1302,1302,1307,1307,1307,1302,1302,1302,1297,1297,1292,1292,1292,1063,1063,1057,1054,1050,1047,1047,1044,1041,1038,1038,1034,1034,1034,1031,1031,1031,1028,1028,1025,1025,1025,1307,1307,1307,1302,1302,1297,1297,1297,1297,1292,1292,1288,1288,1292,1292,1292,1292,1288,1288,1288,1288,1288,1288,1288,1292,1292,1292,1292,1292,1292,1292,1292,1288,1288,1288,1288,1288,1288,1288,1288,1288,1288,1288,1288,1288,1283,1283,1283,1283,1283,1283,1283,1283,1283,1283,1283,1278,1278,1278,1278,1278,1278,1278,1283,1283,1283,1283,1278,1278,1278,1278,1278,1278,1278,1278,1278,1278,1278,1278,1278,1278,1278,1273,1273,1273,1273,1273,1273,1278,1278,1278,1283,1283,1283,1278,1278,1273,1273,1273,1268,1268,1268,1268,1004,1001,1001,998,998,992,989,984,984,981,981,981,981,981,984,984,984,987,987,989,992,992,992,995,995,995,1264,1264,1264,1264,1264,1264,1264,1264,1264,1264,1264,1259,1259,1259,1259,1259,1259,1259,1259,1259,1259,1259,1259,1264,1259,1259,1259,1259,1259,1259,1259,1259,1259,1255,1255,1259,1255,1255,1259,1255,1255,1255,1255,1255,1255,1255,1255,1255,1255,1255,1255,1255,1255,1255,1255,1255,1255,1255,1255,1255,1250,1250,1250,1250,1250,1250,1250,1250,1250,1250,1250,1250,1250,1250,1250,1250,1250,1250,1245,1245,1245,1245,1245,1245,1245,1245,1250,1250,1250,1250,1250,1250,1250,1250,1250,1245,1245,1245,1245,1245,1245,1241,1241,1241,1241,1241,1241,1241,1241,1241,1241,1236,1236,1236,1236,1236,1236,1241,1241,1241,1241,1241,1241,1241,1241,1241,1241,1236,1236,1236,1236,1236,1236,1236,1236,1236,1236,1236,1236,1236,1236,1236,1236,1232,1232,1232,1232,1232,1232,1236,1236,1236,1232,1232,1232,1232,1232,1232,1232,1232,1232,1232,1232,1232,1227,1227,1227,1227,1227,1227,1227,1227,1227,1223,1223,1219,1219,1219,1214,1214,1214,1214,1214,1214,1210,1210,1206,1202,1202,1202,1202,1197,1197,1197,1197,1193,1193,1189,1189,1185,1185,1181,1177,1173,1169,1169,1169,1165,1165,1165,1161,1157,1153,1153,1153,1153,1145,1141,1141,1138,1138,1138,1134,1134,1130,1130,1126,1126,1123,1123,1123,1119,1119,1115,1112,1108,1108,1108,1105,1105,948,946,946,946,943,940,940,940,938,935,925,918,918,0,0,0,0,0,0,0,0,0,0,0,0,0,0,0,0,0,0,0,0,0,0,0,0,0,0,0,0,0,0,0,0,0,0
0,0,0,0,0,0,0,0,0,0,1333,1333,1328,1328,1322,1322,1322,1322,1328,1328,1333,1333,1333,1333,1333,1328,1328,1328,1328,1322,1322,1322,1322,1322,1317,1317,1322,1322,1322,1322,1322,1322,1322,1322,1322,1322,1322,1322,1322,1322,1322,1322,1322,1322,1322,1322,1322,1322,1322,1322,1322,1322,1322,1322,1322,1322,1322,1322,1322,1322,1322,1317,1317,1317,1312,1312,1312,1312,1307,1307,1307,1067,1067,1063,1063,1060,1060,1060,1060,1060,1063,1063,1067,1067,1070,1070,1070,1070,1073,1073,1077,0,0,0,0,0,0,0,0,0,0,0,710,708,708,710,710,710,710,711,713,713,713,714,716,716,717,719,719,720,720,720,722,722,723,723,723,723,0,0,0,0,0,0,0,0,1307,1302,1302,1302,1302,1302,1302,1302,1302,1302,1302,1302,1302,1302,1302,1302,1297,1297,1297,1302,1302,1302,1302,1302,1302,1302,1302,1302,1302,1297,1297,1297,1297,1302,1297,1297,1297,1297,1297,1297,1297,1297,1302,1302,1302,1302,1302,1302,1302,1297,1297,1292,1292,1288,1288,1288,1063,1063,1057,1054,1050,1047,1047,1044,1038,1038,1034,1031,1031,1031,1031,1031,1031,1028,1025,1025,1025,1025,1025,1025,1302,1302,1297,1297,1297,1297,1292,1288,1288,1288,1288,1288,1288,1288,1288,1288,1288,1288,1288,1288,1288,1288,1288,1288,1283,1283,1292,1292,1288,1288,1283,1283,1283,1283,1283,1283,1283,1283,1283,1283,1283,1283,1283,1283,1283,1278,1278,1278,1278,1278,1278,1278,1278,1278,1273,1273,1278,1273,1273,1273,1273,1273,1273,1273,1273,1273,1273,1273,1273,1273,1273,1273,1273,1273,1273,1273,1273,1273,1273,1268,1268,1268,1268,1268,1268,1268,1268,1268,1268,1273,1278,1278,1273,1273,1273,1268,1268,1268,1268,1264,1004,1004,1001,1001,1001,998,998,992,989,987,984,984,981,981,981,984,984,987,987,989,989,992,992,995,995,995,1001,1264,1264,1264,1259,1259,1259,1255,1255,1255,1255,1255,1255,1255,1255,1255,1255,1255,1255,1255,1255,1255,1255,1255,1255,1255,1255,1255,1255,1255,1255,1255,1255,1255,1255,1255,1255,1255,1255,1255,1255,1255,1255,1255,1255,1250,1250,1250,1250,1250,1250,1250,1250,1250,1250,1250,1250,1250,1250,1250,1250,1250,1245,1245,1245,1245,1245,1245,1245,1245,1245,1245,1245,1250,1245,1245,1245,1245,1245,1245,1245,1245,1241,1241,1241,1241,1241,1241,1241,1245,1245,1250,1250,1245,1245,1245,1245,1241,1241,1241,1241,1241,1241,1241,1236,1236,1236,1236,1236,1236,1236,1236,1236,1236,1236,1236,1236,1236,1236,1236,1236,1241,1241,1236,1236,1236,1236,1236,1236,1236,1232,1232,1232,1232,1232,1232,1232,1232,1232,1232,1232,1232,1232,1232,1232,1232,1232,1227,1227,1227,1227,1227,1227,1232,1232,1227,1227,1227,1227,1227,1227,1227,1227,1227,1227,1227,1223,1223,1223,1223,1223,1223,1223,1223,1223,1219,1219,1219,1214,1214,1214,1214,1214,1214,1214,1210,1210,1206,1202,1202,1202,1202,1202,1202,1197,1197,1197,1197,1193,1189,1185,1185,1185,1177,1173,1173,1169,1169,1165,1165,1165,1161,1157,1153,1153,1153,1153,1149,1145,1141,1138,1138,1138,1134,1134,1130,1130,1130,1126,1126,1126,1123,1119,1119,1115,1112,1112,1108,1108,1105,1105,948,948,946,946,943,943,940,938,938,935,925,913,913,0,0,0,0,0,0,0,0,0,0,0,0,0,0,0,0,0,0,0,0,0,0,0,0,0,0,0,0,0,0,0,0,0,0
0,0,0,0,0,0,0,0,0,0,1328,1328,1322,1322,1322,1322,1312,1312,1312,1322,1328,1328,1328,1328,1328,1328,1328,1322,1322,1322,1322,1322,1317,1317,1317,1317,1317,1317,1317,1317,1317,1322,1322,1317,1317,1322,1322,1322,1322,1322,1322,1322,1322,1317,1317,1317,1317,1317,1317,1317,1322,1322,1322,1322,1322,1322,1322,1317,1317,1317,1317,1312,1312,1312,1312,1312,1312,1307,1307,1307,1307,1063,1063,1063,1063,1060,1060,1060,1063,1063,1063,1067,1067,1070,1070,1070,1073,1073,1073,1073,1077,1077,0,0,0,0,0,0,0,0,0,0,710,708,708,710,710,710,711,713,713,713,714,714,716,717,719,720,720,720,720,722,722,723,723,725,723,723,0,0,0,0,0,0,0,1302,1302,1302,1302,1302,1302,1302,1302,1302,1302,1302,1302,1302,1297,1297,1297,1297,1292,1292,1292,1292,1292,1292,1292,1292,1292,1297,1297,1297,1297,1297,1297,1292,1292,1297,1297,1292,1292,1292,1292,1292,1292,1292,1292,1297,1297,1297,1302,1302,1297,1297,1292,1292,1288,1288,1283,1278,1278,1063,1054,1054,1054,1047,1047,1044,1038,1038,1034,1031,1031,1028,1028,1028,1028,1025,1025,1025,1025,1022,1022,1022,1302,1302,1292,1292,1292,1292,1288,1288,1288,1283,1283,1283,1283,1283,1283,1283,1283,1283,1283,1283,1283,1283,1283,1283,1278,1278,1278,1283,1278,1278,1278,1278,1283,1283,1283,1283,1283,1283,1283,1283,1283,1283,1283,1283,1278,1278,1273,1273,1273,1273,1273,1273,1273,1273,1273,1273,1273,1273,1273,1273,1273,1273,1273,1268,1268,1268,1268,1268,1268,1268,1268,1268,1268,1268,1268,1268,1268,1268,1268,1264,1264,1264,1264,1264,1264,1264,1264,1264,1264,1268,1268,1268,1268,1268,1268,1268,1268,1268,1264,1264,1004,1001,1001,1001,1001,1001,998,992,989,987,984,984,984,984,984,984,984,987,989,989,992,992,995,995,998,998,1001,1001,1259,1259,1255,1255,1255,1255,1250,1250,1250,1250,1250,1250,1250,1250,1255,1250,1250,1250,1250,1255,1250,1250,1250,1255,1255,1255,1255,1255,1255,1255,1255,1255,1250,1250,1255,1250,1250,1255,1250,1250,1250,1250,1250,1250,1245,1245,1245,1245,1245,1245,1245,1245,1245,1250,1250,1250,1245,1245,1245,1245,1245,1241,1241,1241,1241,1241,1245,1245,1241,1241,1241,1241,1241,1241,1245,1245,1245,1245,1241,1241,1241,1236,1236,1236,1236,1236,1241,1241,1241,1241,1241,1241,1241,1241,1241,1241,1236,1236,1236,1236,1236,1236,1236,1236,1236,1236,1232,1232,1232,1232,1232,1232,1236,1236,1236,1236,1232,1232,1236,1236,1236,1232,1232,1232,1232,1232,1232,1232,1232,1232,1232,1232,1227,1227,1227,1227,1227,1227,1227,1232,1232,1227,1227,1227,1227,1223,1223,1223,1223,1223,1223,1223,1223,1223,1223,1223,1223,1223,1223,1223,1223,1223,1223,1223,1223,1223,1219,1219,1219,1219,1219,1219,1219,1219,1214,1214,1214,1214,1214,1214,1214,1210,1210,1210,1206,1206,1202,1202,1202,1202,1202,1202,1197,1197,1197,1197,1193,1189,1185,1185,1185,1177,1177,1173,1169,1169,1169,1165,1165,1161,1157,1153,1153,1153,1153,1149,1145,1145,1141,1141,1138,1138,1134,1134,1130,1130,1130,1126,1126,1123,1119,1119,1115,1112,1112,1108,1108,1105,1105,951,946,946,946,943,940,938,938,935,935,908,908,908,0,0,0,0,0,0,0,0,0,0,0,0,0,0,0,0,0,0,0,0,0,0,0,0,0,0,0,0,0,0,0,0,0,0
0,0,0,0,0,0,0,0,0,0,1328,1322,1322,1317,1312,1312,1307,1307,1307,1312,1312,1322,1322,1322,1322,1322,1322,1322,1322,1317,1317,1317,1317,1317,1312,1312,1312,1312,1312,1312,1312,1317,1317,1317,1317,1317,1317,1317,1317,1317,1317,1322,1317,1317,1317,1317,1317,1312,1312,1317,1317,1317,1317,1317,1322,1317,1317,1317,1317,1312,1312,1312,1307,1307,1307,1307,1307,1307,1307,1307,1307,1302,1063,1063,1063,1063,1063,1063,1067,1067,1067,1067,1070,1070,1070,1070,1073,1073,1073,1073,1073,1077,0,0,0,0,0,0,0,0,0,0,711,710,710,710,710,711,711,713,713,714,714,716,716,717,719,720,720,720,722,722,723,723,725,725,725,728,0,0,0,0,0,0,0,1302,1302,1297,1297,1297,1297,1297,1297,1297,1297,1297,1297,1297,1297,1297,1292,1292,1292,1292,1288,1288,1288,1288,1288,1288,1288,1292,1292,1292,1292,1292,1292,1292,1292,1292,1292,1292,1288,1288,1288,1288,1288,1288,1288,1288,1292,1292,1292,1292,1292,1292,1288,1288,1288,1283,1283,1278,1273,1273,1054,1054,1054,1050,1047,1044,1038,1038,1031,1028,1028,1028,1028,1025,1025,1025,1022,1022,1022,1022,1013,1013,1013,1288,1288,1288,1288,1288,1288,1288,1283,1283,1283,1283,1278,1278,1278,1278,1278,1278,1278,1278,1278,1278,1278,1273,1273,1273,1273,1273,1273,1268,1268,1273,1273,1273,1278,1278,1278,1278,1278,1278,1278,1278,1278,1278,1273,1268,1268,1268,1268,1268,1268,1268,1268,1268,1268,1268,1268,1268,1268,1268,1268,1268,1268,1268,1268,1268,1268,1268,1268,1268,1264,1264,1264,1264,1264,1264,1264,1264,1264,1264,1264,1259,1259,1259,1259,1259,1259,1259,1259,1264,1264,1264,1264,1264,1264,1264,1264,1264,1259,1001,1001,1001,1001,1001,1001,1001,1001,992,989,987,984,984,984,984,984,987,987,989,989,992,992,995,995,998,998,1001,1001,1001,1259,1259,1250,1250,1250,1250,1250,1250,1250,1250,1245,1245,1250,1250,1250,1250,1250,1250,1250,1250,1250,1250,1250,1250,1250,1250,1250,1250,1250,1250,1245,1245,1245,1250,1250,1245,1245,1245,1245,1245,1245,1245,1245,1245,1245,1241,1241,1241,1241,1241,1241,1241,1241,1245,1245,1241,1241,1241,1241,1241,1241,1241,1241,1241,1241,1241,1241,1241,1241,1241,1241,1236,1236,1236,1236,1236,1236,1241,1236,1236,1236,1236,1236,1236,1236,1236,1236,1236,1236,1236,1236,1236,1236,1232,1232,1236,1236,1236,1236,1236,1236,1236,1232,1232,1232,1232,1232,1232,1232,1232,1232,1232,1232,1232,1232,1232,1232,1232,1232,1232,1232,1232,1227,1227,1232,1232,1227,1227,1227,1227,1227,1227,1227,1227,1227,1223,1223,1223,1227,1227,1227,1227,1223,1223,1223,1223,1219,1219,1219,1219,1219,1219,1219,1219,1219,1219,1219,1219,1219,1219,1219,1219,1219,1219,1219,1219,1219,1214,1214,1214,1214,1214,1214,1214,1214,1214,1210,1210,1210,1210,1210,1210,1210,1210,1206,1202,1202,1202,1202,1202,1197,1197,1197,1197,1197,1197,1193,1189,1185,1185,1185,1181,1177,1173,1173,1169,1169,1165,1165,1165,1161,1157,1157,1153,1153,1153,1149,1145,1145,1141,1138,1138,1134,1134,1134,1130,1130,1126,1126,1123,1123,1119,1119,1115,1112,1108,1108,1105,1105,948,946,946,946,943,940,938,938,935,935,908,906,906,0,0,0,0,0,0,0,0,0,0,0,0,0,0,0,0,0,0,0,0,0,0,0,0,0,0,0,0,0,0,0,0,0,0
0,0,0,0,0,0,0,0,0,0,1322,1322,1317,1312,1312,1312,1307,1307,1307,1307,1312,1312,1312,1317,1317,1317,1317,1317,1317,1317,1317,1317,1312,1312,1312,1312,1312,1312,1312,1307,1307,1307,1312,1312,1312,1312,1317,1317,1317,1317,1317,1317,1317,1312,1312,1312,1312,1312,1312,1312,1312,1317,1317,1317,1317,1312,1312,1312,1312,1312,1312,1307,1307,1307,1307,1307,1307,1307,1307,1302,1302,1302,1063,1063,1063,1063,1063,1063,1067,1067,1067,1067,1070,1070,1073,1073,1073,1073,1073,1073,1073,1077,0,0,0,0,0,0,0,0,0,0,711,711,711,711,711,711,711,713,713,714,714,716,716,717,719,720,722,722,722,722,723,725,725,727,725,725,0,0,0,0,0,0,0,0,1302,1297,1297,1297,1297,1292,1292,1292,1292,1292,1292,1292,1292,1292,1292,1292,1288,1288,1288,1288,1288,1288,1288,1288,1288,1288,1288,1288,1288,1288,1288,1288,1288,1288,1288,1288,1288,1288,1288,1288,1288,1288,1288,1288,1288,1288,1288,1288,1283,1283,1283,1278,1278,1278,1278,1278,1273,1268,1054,1054,1054,1050,1047,1047,1041,1038,1031,1028,1028,1025,1025,1025,1022,1022,1022,1019,1019,1019,1013,1013,1013,1288,1288,1283,1283,1283,1283,1283,1283,1283,1278,1278,1273,1273,1273,1273,1278,1278,1273,1273,1273,1268,1268,1268,1268,1268,1268,1268,1268,1268,1268,1268,1268,1268,1268,1268,1268,1268,1273,1273,1273,1273,1273,1268,1268,1268,1268,1268,1268,1268,1268,1268,1268,1268,1268,1268,1268,1268,1264,1264,1264,1264,1264,1264,1264,1264,1264,1264,1264,1264,1264,1264,1264,1264,1264,1264,1259,1259,1259,1259,1259,1255,1255,1255,1255,1255,1255,1255,1255,1259,1259,1264,1264,1264,1264,1264,1264,1264,1259,1001,1001,1001,1001,1001,1001,1001,1001,998,992,989,987,987,987,987,987,987,987,989,989,992,992,995,995,998,1001,1001,1001,1001,1255,1255,1250,1250,1250,1245,1245,1245,1245,1245,1245,1245,1245,1245,1245,1245,1245,1245,1245,1245,1245,1245,1245,1245,1245,1245,1245,1245,1245,1245,1245,1245,1241,1241,1241,1241,1241,1241,1245,1245,1245,1245,1245,1241,1241,1241,1236,1236,1236,1236,1236,1241,1241,1241,1241,1241,1241,1241,1241,1241,1236,1236,1236,1236,1241,1241,1241,1236,1236,1236,1236,1236,1236,1236,1236,1236,1236,1236,1236,1236,1236,1232,1232,1232,1232,1232,1232,1232,1232,1232,1236,1232,1232,1232,1227,1227,1227,1227,1227,1232,1232,1232,1232,1232,1232,1232,1227,1227,1227,1227,1227,1227,1227,1227,1227,1227,1223,1223,1227,1227,1227,1227,1227,1227,1227,1227,1223,1223,1223,1223,1223,1223,1223,1223,1223,1223,1223,1223,1223,1223,1223,1223,1219,1219,1219,1219,1219,1219,1214,1214,1214,1214,1214,1214,1214,1214,1214,1214,1214,1214,1214,1214,1214,1214,1214,1214,1214,1214,1214,1210,1210,1210,1210,1210,1210,1210,1210,1210,1206,1206,1206,1206,1206,1206,1206,1202,1202,1202,1202,1202,1197,1197,1197,1197,1197,1197,1193,1189,1189,1185,1185,1181,1177,1173,1173,1169,1169,1165,1165,1165,1161,1157,1157,1157,1153,1153,1149,1145,1145,1141,1138,1138,1134,1134,1134,1130,1130,1126,1123,1123,1123,1119,1119,1115,1115,1112,1108,1105,948,948,946,946,943,943,940,938,938,935,910,908,906,906,0,0,0,0,0,0,0,0,0,0,0,0,0,0,0,0,0,0,0,0,0,0,0,0,0,0,0,0,0,0,0,0,0,0
0,0,0,0,0,0,0,0,0,1322,1317,1317,1312,1307,1307,1307,1307,1307,1307,1307,1307,1312,1312,1312,1312,1317,1317,1317,1317,1312,1312,1312,1312,1312,1312,1312,1307,1307,1307,1302,1302,1302,1302,1307,1307,1307,1307,1312,1312,1312,1312,1312,1307,1307,1307,1307,1307,1307,1307,1307,1307,1312,1312,1312,1312,1307,1307,1307,1307,1307,1307,1307,1307,1307,1307,1307,1307,1302,1302,1302,1302,1302,1063,1063,1063,1063,1063,1067,1067,1067,1067,1067,1073,1073,1073,1073,1073,1073,1077,1077,1077,1077,0,0,0,0,0,0,0,0,0,0,711,711,714,713,713,713,713,713,714,714,714,717,717,719,720,720,722,722,723,723,725,727,727,727,725,725,0,0,0,0,0,0,0,0,1297,1292,1292,1292,1292,1288,1288,1288,1288,1288,1288,1288,1288,1288,1288,1288,1288,1283,1283,1283,1283,1283,1283,1283,1283,1288,1288,1288,1283,1283,1288,1288,1288,1288,1288,1288,1288,1283,1283,1283,1283,1283,1283,1283,1283,1283,1283,1283,1283,1283,1278,1278,1273,1273,1273,1273,1268,1268,1057,1057,1054,1054,1050,1047,1041,1038,1031,1028,1028,1025,1025,1022,1019,1019,1016,1016,1016,1016,1013,1013,1013,1013,1283,1283,1283,1283,1283,1283,1278,1278,1273,1268,1268,1268,1273,1273,1273,1273,1268,1268,1268,1268,1268,1268,1268,1268,1268,1268,1268,1268,1268,1268,1268,1268,1268,1268,1268,1268,1268,1268,1268,1268,1268,1268,1268,1264,1264,1264,1264,1264,1264,1264,1264,1264,1264,1264,1264,1264,1264,1264,1264,1259,1259,1259,1259,1259,1259,1259,1259,1259,1255,1255,1255,1255,1255,1255,1255,1255,1255,1255,1255,1250,1250,1250,1250,1250,1250,1250,1250,1255,1255,1255,1259,1259,1259,1259,1264,995,995,995,998,998,1001,1001,1001,1001,998,998,992,992,989,987,987,987,987,989,989,989,992,992,992,995,998,998,1001,1001,1004,1004,1250,1250,1245,1245,1245,1245,1241,1241,1241,1241,1241,1241,1241,1241,1241,1241,1241,1241,1241,1241,1241,1241,1241,1241,1241,1241,1241,1241,1241,1241,1236,1236,1236,1236,1236,1236,1236,1236,1236,1236,1236,1236,1241,1236,1236,1236,1236,1236,1236,1236,1236,1236,1236,1236,1241,1236,1236,1236,1236,1236,1236,1236,1232,1232,1236,1236,1236,1232,1232,1232,1232,1232,1232,1232,1232,1232,1227,1227,1232,1232,1232,1232,1227,1227,1227,1227,1227,1227,1227,1227,1232,1232,1227,1223,1223,1223,1223,1223,1223,1223,1223,1223,1227,1227,1227,1227,1227,1227,1227,1227,1223,1223,1223,1223,1223,1219,1219,1219,1223,1223,1223,1223,1223,1223,1223,1223,1219,1219,1219,1219,1219,1219,1219,1219,1219,1219,1219,1219,1219,1219,1219,1219,1219,1219,1214,1214,1214,1210,1210,1210,1210,1210,1210,1210,1210,1210,1210,1210,1210,1210,1210,1210,1206,1206,1210,1210,1210,1210,1210,1206,1206,1206,1206,1206,1206,1206,1206,1206,1206,1206,1206,1206,1206,1206,1206,1202,1202,1202,1202,1202,1197,1197,1197,1197,1197,1193,1189,1189,1185,1185,1185,1181,1181,1173,1173,1169,1169,1165,1165,1165,1161,1161,1157,1157,1153,1153,1153,1145,1145,1141,1141,1138,1134,1134,1134,1130,1130,1126,1123,1123,1123,1119,1119,1115,1115,1112,1108,951,948,946,946,946,943,940,938,938,938,910,908,906,906,906,0,0,0,0,0,0,0,0,0,0,0,0,0,0,0,0,0,0,0,0,0,0,0,0,0,0,0,0,0,0,0,0,0,0
0,0,0,0,0,0,0,0,0,1322,1312,1312,1307,1307,1307,1307,1307,1307,1307,1307,1307,1307,1307,1307,1307,1307,1307,1307,1307,1307,1307,1307,1307,1307,1307,1307,1307,1307,1307,1302,1297,1297,1297,1302,1302,1302,1307,1307,1307,1307,1307,1307,1302,1302,1302,1302,1302,1302,1302,1302,1307,1307,1307,1307,1307,1307,1302,1302,1302,1302,1297,1297,1297,1297,1297,1302,1302,1302,1302,1302,1302,1302,1307,1067,1067,1063,1063,1067,1067,1067,1067,1070,1073,1073,1073,1073,1077,1077,1077,1077,1077,1077,1080,0,0,0,0,0,0,0,0,0,713,713,714,714,713,713,713,713,714,716,716,717,717,719,720,722,722,722,725,725,725,727,727,727,728,728,0,0,0,0,0,0,0,0,1292,1288,1288,1288,1288,1288,1288,1288,1288,1288,1283,1283,1283,1283,1288,1288,1283,1283,1283,1283,1283,1283,1283,1283,1283,1283,1283,1283,1283,1283,1283,1283,1283,1283,1283,1283,1283,1283,1283,1283,1278,1278,1278,1278,1278,1278,1278,1278,1278,1278,1278,1273,1273,1268,1268,1268,1268,1268,1268,1060,1057,1054,1050,1047,1041,1038,1031,1028,1025,1025,1022,1022,1019,1016,1016,1016,1016,1013,1013,1013,1010,1007,1007,1007,1283,1283,1278,1278,1273,1268,1268,1268,1268,1268,1268,1268,1268,1268,1268,1268,1268,1264,1264,1264,1264,1264,1264,1264,1264,1264,1264,1264,1264,1264,1264,1264,1264,1264,1264,1264,1264,1264,1259,1259,1259,1264,1264,1264,1264,1264,1264,1264,1264,1264,1264,1264,1264,1264,1264,1259,1259,1259,1259,1259,1259,1259,1259,1259,1255,1255,1255,1255,1255,1255,1255,1255,1255,1255,1255,1250,1250,1250,1250,1250,1250,1250,1250,1250,1250,1255,1255,1255,1255,1255,1259,992,992,992,992,995,995,995,998,998,998,998,998,995,992,992,989,989,989,989,989,989,989,989,992,992,995,998,998,1001,1001,1001,1004,1004,1245,1245,1245,1241,1241,1241,1241,1241,1236,1236,1236,1236,1236,1236,1236,1236,1236,1236,1236,1236,1241,1241,1241,1236,1236,1236,1236,1236,1236,1232,1232,1232,1232,1232,1232,1232,1232,1232,1232,1232,1232,1232,1232,1232,1236,1236,1236,1232,1232,1236,1236,1236,1236,1236,1236,1236,1236,1236,1236,1232,1232,1232,1232,1232,1232,1232,1232,1232,1232,1232,1232,1232,1232,1227,1227,1227,1223,1223,1223,1227,1227,1227,1223,1223,1223,1223,1223,1223,1223,1223,1223,1223,1223,1223,1223,1219,1219,1219,1219,1219,1219,1219,1219,1219,1219,1219,1219,1223,1223,1223,1223,1219,1219,1219,1219,1219,1219,1219,1219,1219,1219,1219,1219,1219,1219,1219,1219,1219,1219,1214,1214,1214,1214,1214,1214,1214,1214,1214,1214,1214,1214,1214,1214,1214,1210,1210,1210,1206,1206,1206,1210,1206,1206,1206,1206,1206,1206,1206,1206,1206,1206,1206,1206,1206,1202,1202,1202,1202,1206,1206,1206,1202,1202,1202,1202,1202,1202,1202,1202,1202,1202,1202,1202,1202,1202,1202,1202,1202,1202,1197,1197,1197,1197,1197,1193,1193,1189,1185,1185,1185,1185,1181,1181,1177,1173,1173,1173,1169,1169,1165,1165,1161,1161,1161,1157,1153,1149,1145,1145,1145,1141,1138,1138,1134,1134,1134,1134,1130,1126,1123,1123,1123,1119,1119,1115,1112,1108,951,951,946,946,943,940,938,938,915,910,908,908,906,906,0,0,0,0,0,0,0,0,0,0,0,0,0,0,0,0,0,0,0,0,0,0,0,0,0,0,0,0,0,0,0,0,0,0,0
0,0,0,0,0,0,0,0,0,0,1312,1312,1307,1307,1307,1307,1302,1302,1302,1302,1307,1307,1307,1302,1302,1307,1307,1307,1307,1307,1307,1307,1307,1307,1307,1307,1307,1307,1302,1302,1297,1297,1297,1297,1297,1297,1302,1302,1302,1302,1302,1302,1297,1297,1297,1297,1297,1297,1297,1302,1302,1302,1302,1297,1297,1302,1297,1297,1297,1297,1292,1292,1292,1292,1292,1292,1292,1297,1297,1297,1297,1302,1307,1067,1067,1067,1067,1067,1070,1067,1067,1070,1073,1073,1073,1077,1077,1077,1077,1077,1077,1080,1080,0,0,0,0,0,0,0,0,714,714,714,714,714,713,713,714,714,714,716,717,719,719,720,720,722,722,723,725,725,725,727,727,728,728,728,733,0,0,0,0,0,0,0,1292,1283,1283,1283,1283,1283,1283,1283,1283,1283,1283,1283,1283,1283,1283,1283,1283,1283,1283,1283,1283,1283,1283,1283,1283,1283,1283,1278,1278,1278,1278,1278,1278,1278,1278,1278,1278,1278,1278,1278,1278,1273,1273,1273,1273,1273,1273,1278,1278,1273,1273,1273,1268,1268,1268,1268,1268,1268,1264,1264,1060,1054,1050,1047,1044,1038,1031,1028,1025,1022,1022,1019,1016,1016,1013,1013,1013,1013,1010,1010,1007,1004,1004,1004,1004,1278,1278,1278,1273,1268,1268,1268,1268,1268,1264,1264,1264,1264,1264,1264,1264,1264,1264,1264,1264,1264,1264,1264,1264,1264,1264,1264,1264,1264,1264,1264,1264,1259,1259,1259,1259,1259,1255,1255,1255,1259,1259,1259,1259,1259,1259,1259,1259,1259,1259,1259,1259,1259,1259,1259,1259,1255,1255,1255,1255,1255,1255,1255,1250,1250,1250,1250,1250,1250,1250,1250,1250,1250,1250,1250,1250,1250,1250,1250,1245,1245,1245,1245,1245,1250,1250,1255,1255,989,989,989,989,992,992,995,995,995,995,995,995,992,992,992,992,992,989,989,989,989,989,989,989,989,992,992,995,998,1001,1001,1001,1004,1004,1004,1241,1241,1241,1241,1241,1236,1236,1236,1236,1236,1236,1236,1232,1232,1232,1232,1232,1232,1236,1236,1236,1236,1236,1236,1236,1232,1232,1232,1232,1232,1227,1227,1227,1227,1232,1232,1232,1232,1232,1232,1227,1227,1227,1227,1227,1227,1227,1227,1232,1232,1232,1232,1232,1232,1232,1232,1232,1232,1232,1232,1227,1227,1227,1227,1227,1227,1227,1232,1232,1232,1227,1227,1227,1223,1223,1223,1223,1223,1223,1223,1223,1223,1219,1219,1219,1219,1219,1219,1219,1219,1219,1219,1219,1219,1219,1214,1214,1219,1219,1219,1214,1214,1214,1214,1214,1214,1214,1214,1214,1219,1219,1219,1219,1219,1219,1219,1214,1214,1219,1219,1219,1219,1219,1214,1214,1214,1214,1214,1214,1214,1214,1214,1210,1210,1210,1210,1210,1210,1210,1210,1210,1210,1210,1210,1210,1206,1206,1206,1202,1202,1206,1202,1202,1202,1202,1202,1202,1202,1202,1202,1202,1202,1202,1202,1202,1202,1202,1202,1197,1197,1197,1202,1202,1202,1202,1202,1197,1197,1197,1197,1197,1197,1197,1197,1197,1197,1197,1197,1197,1197,1197,1197,1193,1193,1193,1189,1185,1185,1185,1185,1181,1181,1181,1177,1173,1173,1169,1169,1169,1165,1165,1165,1165,1161,1157,1157,1149,1149,1145,1145,1141,1138,1138,1138,1138,1134,1134,1130,1123,1123,1123,1123,1123,1119,1119,1115,1115,948,948,946,943,940,938,933,918,915,910,908,908,906,906,0,0,0,0,0,0,0,0,0,0,0,0,0,0,0,0,0,0,0,0,0,0,0,0,0,0,0,0,0,0,0,0,0,0,0
0,0,0,0,0,0,0,0,0,0,1312,1302,1297,1297,1302,1307,1302,1302,1302,1302,1302,1302,1302,1302,1302,1302,1302,1302,1302,1302,1302,1302,1302,1302,1302,1302,1302,1302,1302,1292,1292,1292,1292,1292,1297,1297,1297,1302,1297,1297,1297,1292,1292,1292,1292,1292,1292,1292,1292,1292,1297,1297,1297,1297,1297,1297,1292,1292,1292,1292,1288,1288,1288,1288,1288,1288,1288,1288,1288,1283,1278,1278,1307,1067,1067,1067,1067,1070,1070,1070,1070,1073,1073,1073,1073,1077,1077,1077,1077,1077,1080,1080,1090,0,0,0,0,0,0,0,0,714,714,714,714,714,713,713,714,714,716,717,717,719,719,720,720,722,723,725,725,727,727,728,728,728,728,730,733,734,0,0,0,0,0,0,0,1283,1273,1273,1278,1278,1278,1278,1278,1278,1278,1278,1278,1278,1278,1278,1273,1273,1273,1273,1273,1278,1278,1278,1278,1278,1278,1273,1273,1273,1273,1273,1273,1273,1273,1273,1278,1273,1273,1273,1273,1268,1268,1268,1268,1268,1268,1273,1273,1273,1268,1268,1268,1264,1264,1268,1264,1264,1264,1264,1259,1054,1050,1047,1044,1041,1034,1028,1028,1022,1022,1016,1013,1013,1013,1010,1010,1010,1010,1007,1007,1004,1004,1004,1001,1001,1278,1278,1268,1268,1268,1264,1264,1264,1264,1259,1259,1259,1259,1259,1259,1259,1259,1259,1259,1259,1259,1259,1259,1259,1259,1259,1259,1259,1259,1259,1259,1255,1255,1255,1255,1250,1250,1250,1250,1250,1250,1250,1250,1250,1250,1250,1250,1255,1255,1255,1255,1255,1255,1255,1255,1250,1250,1250,1250,1250,1250,1250,1250,1250,1250,1250,1250,1250,1250,1250,1250,1250,1250,1250,1250,1250,1245,1245,1245,1245,1245,1245,1245,1250,1250,1250,987,987,987,987,989,989,989,992,992,992,992,992,992,992,992,992,992,992,989,989,989,989,989,989,989,992,992,992,995,998,1001,1001,1001,1004,1004,1004,1236,1236,1236,1236,1236,1236,1236,1236,1236,1236,1232,1232,1232,1232,1232,1232,1232,1232,1232,1232,1232,1232,1232,1232,1232,1232,1227,1227,1227,1227,1223,1223,1223,1223,1227,1227,1227,1227,1227,1227,1223,1223,1223,1223,1223,1223,1223,1223,1223,1223,1223,1227,1227,1227,1227,1227,1227,1227,1227,1227,1223,1223,1223,1223,1223,1223,1223,1223,1227,1227,1223,1223,1223,1219,1219,1219,1219,1219,1219,1219,1219,1219,1219,1219,1219,1219,1219,1219,1219,1219,1219,1219,1219,1219,1219,1214,1214,1214,1214,1214,1214,1214,1214,1214,1214,1214,1214,1214,1214,1214,1214,1214,1214,1214,1214,1214,1214,1214,1214,1214,1214,1214,1214,1214,1214,1214,1210,1210,1210,1210,1210,1210,1206,1206,1206,1206,1206,1206,1206,1206,1206,1206,1206,1202,1202,1202,1202,1202,1202,1202,1202,1202,1202,1202,1197,1197,1197,1197,1197,1197,1197,1197,1202,1202,1197,1197,1197,1197,1197,1197,1197,1193,1193,1197,1197,1197,1197,1197,1197,1197,1197,1197,1197,1197,1197,1197,1197,1197,1197,1197,1193,1193,1189,1189,1189,1185,1185,1185,1185,1185,1181,1181,1181,1177,1173,1173,1169,1169,1169,1169,1165,1165,1165,1161,1157,1157,1153,1149,1149,1145,1145,1141,1138,1138,1138,1134,1134,1130,1123,1123,1123,1123,1123,1119,1119,1115,948,948,946,943,940,935,933,918,918,913,910,910,906,906,906,0,0,0,0,0,0,0,0,0,0,0,0,0,0,0,0,0,0,0,0,0,0,0,0,0,0,0,0,0,0,0,0,0,0,0
0,0,0,0,0,0,0,0,0,0,0,1297,1292,1292,1297,1297,1297,1297,1302,1302,1302,1302,1302,1297,1297,1297,1302,1302,1302,1302,1302,1297,1297,1302,1302,1302,1297,1297,1297,1292,1292,1288,1288,1288,1288,1292,1292,1297,1292,1292,1292,1292,1292,1292,1292,1292,1292,1292,1292,1288,1288,1292,1292,1288,1288,1288,1288,1288,1288,1288,1288,1288,1288,1288,1288,1283,1283,1283,1283,1278,1278,1278,1278,1067,1067,1067,1067,1070,1070,1070,1070,1073,1073,1073,1073,1077,1077,1077,1077,1077,1080,1084,1090,1090,0,0,0,0,0,0,0,716,714,713,713,714,714,714,714,716,717,717,719,720,720,720,722,722,723,725,725,727,727,728,728,730,730,731,733,734,736,0,0,0,0,0,0,0,1273,1268,1268,1273,1273,1273,1273,1273,1273,1273,1273,1273,1273,1273,1273,1268,1268,1268,1268,1273,1273,1273,1273,1273,1273,1268,1268,1268,1268,1268,1268,1268,1268,1273,1268,1268,1268,1268,1268,1268,1268,1268,1268,1268,1268,1268,1268,1268,1268,1268,1268,1264,1264,1264,1264,1264,1264,1259,1259,1259,1050,1047,1044,1041,1038,1031,1028,1022,1022,1016,1013,1013,1010,1010,1010,1007,1007,1007,1004,1001,1001,1001,1001,1001,1001,1268,1268,1268,1264,1264,1264,1264,1259,1259,1259,1259,1259,1259,1259,1255,1255,1259,1259,1259,1255,1255,1255,1255,1255,1255,1255,1255,1255,1255,1255,1255,1255,1250,1250,1250,1250,1250,1250,1250,1250,1250,1250,1250,1250,1245,1245,1245,1245,1245,1245,1250,1250,1250,1250,1250,1250,1250,1250,1245,1245,1245,1245,1245,1245,1245,1245,1245,1245,1245,1245,1245,1250,1245,1245,1245,1245,1245,1245,1245,1245,1245,1245,1250,1250,984,984,987,987,987,987,987,989,989,989,989,992,992,992,992,992,992,992,992,989,989,989,989,989,989,992,992,992,992,995,998,1001,1001,1004,1004,1004,1004,1236,1236,1236,1236,1236,1236,1236,1232,1232,1232,1232,1232,1232,1227,1227,1227,1227,1227,1227,1227,1227,1227,1232,1232,1232,1227,1223,1223,1223,1223,1223,1223,1223,1223,1223,1223,1223,1223,1223,1223,1219,1219,1219,1219,1219,1219,1219,1219,1219,1219,1219,1219,1219,1219,1223,1223,1223,1223,1223,1223,1219,1219,1219,1219,1219,1219,1219,1219,1219,1223,1219,1219,1219,1219,1219,1219,1214,1214,1214,1214,1214,1214,1214,1214,1214,1214,1214,1214,1214,1214,1214,1214,1214,1214,1214,1214,1214,1214,1214,1214,1210,1210,1210,1210,1210,1210,1210,1210,1210,1210,1210,1210,1210,1210,1210,1210,1210,1210,1214,1214,1210,1210,1210,1210,1210,1210,1206,1206,1206,1206,1206,1206,1206,1202,1202,1202,1202,1202,1202,1202,1202,1202,1202,1202,1202,1202,1202,1202,1202,1202,1202,1197,1197,1197,1197,1197,1193,1193,1193,1193,1193,1193,1197,1197,1197,1197,1197,1193,1193,1193,1193,1193,1193,1193,1193,1193,1193,1193,1193,1193,1193,1189,1189,1189,1193,1193,1189,1189,1193,1193,1193,1189,1185,1185,1185,1185,1185,1185,1185,1181,1181,1181,1181,1177,1177,1173,1173,1169,1169,1169,1165,1165,1165,1161,1157,1157,1153,1149,1149,1149,1145,1141,1138,1138,1138,1138,1134,1130,1123,1123,1123,1123,1123,1119,1119,1115,946,946,943,940,935,930,920,918,918,913,910,910,906,906,906,0,0,0,0,0,0,0,0,0,0,0,0,0,0,0,0,0,0,0,0,0,0,0,0,0,0,0,0,0,0,0,0,0,0,0
0,0,0,0,0,0,0,0,0,0,0,1292,1288,1288,1288,1288,1288,1297,1297,1297,1292,1292,1297,1297,1297,1297,1297,1297,1292,1292,1292,1292,1292,1292,1292,1292,1292,1292,1292,1288,1288,1288,1288,1288,1288,1288,1288,1288,1288,1288,1288,1288,1288,1288,1288,1288,1288,1292,1288,1288,1288,1288,1288,1288,1288,1288,1288,1288,1288,1288,1288,1288,1288,1283,1283,1283,1278,1278,1278,1273,1273,1273,1273,1278,1067,1067,1067,1070,1070,1070,1070,1073,1073,1073,1073,1077,1077,1077,1077,1077,1080,1087,1090,1090,0,0,0,0,0,0,0,716,714,713,713,714,714,714,716,716,717,717,719,720,720,720,722,722,723,723,725,727,727,728,730,730,731,733,734,734,736,0,0,0,0,0,0,0,1268,1268,1268,1268,1264,1264,1264,1264,1268,1268,1268,1268,1268,1268,1268,1268,1268,1268,1268,1268,1268,1264,1264,1264,1264,1264,1264,1264,1264,1264,1264,1264,1264,1268,1268,1268,1268,1264,1264,1264,1264,1264,1264,1264,1264,1264,1264,1264,1264,1264,1264,1259,1259,1259,1264,1259,1259,1255,1255,1255,1255,1047,1047,1041,1038,1034,1031,1025,1019,1016,1013,1013,1010,1010,1007,1007,1004,1004,1001,1001,1001,1001,998,998,998,998,1268,1268,1264,1264,1264,1259,1259,1255,1255,1255,1250,1250,1250,1250,1250,1250,1255,1255,1255,1250,1250,1250,1250,1250,1255,1250,1250,1250,1250,1250,1250,1245,1245,1245,1245,1245,1245,1245,1245,1245,1245,1245,1245,1245,1245,1245,1241,1241,1241,1241,1241,1245,1245,1245,1245,1245,1245,1245,1241,1241,1241,1241,1241,1241,1241,1245,1245,1245,1245,1245,1245,1245,1245,1245,1245,1245,1241,1241,1245,1245,1245,984,981,981,984,984,984,984,987,987,987,989,989,989,989,989,989,989,992,992,992,992,992,992,992,992,992,992,992,992,992,995,998,1001,1001,1004,1004,1004,1004,1004,1232,1232,1232,1232,1232,1232,1232,1232,1232,1232,1227,1227,1227,1223,1223,1223,1223,1223,1223,1223,1223,1223,1223,1227,1223,1223,1219,1219,1223,1219,1219,1219,1219,1219,1223,1223,1219,1219,1219,1219,1219,1214,1214,1214,1214,1214,1214,1214,1219,1214,1214,1214,1214,1214,1214,1214,1219,1219,1219,1219,1219,1219,1214,1214,1214,1214,1214,1214,1219,1219,1219,1214,1214,1214,1214,1214,1214,1214,1214,1214,1214,1214,1214,1214,1214,1214,1214,1214,1214,1214,1214,1210,1210,1210,1210,1210,1210,1210,1210,1210,1210,1206,1206,1206,1206,1206,1206,1206,1206,1206,1206,1210,1206,1206,1206,1206,1206,1206,1206,1206,1210,1210,1210,1210,1206,1206,1206,1206,1206,1206,1202,1202,1202,1202,1202,1202,1202,1197,1197,1202,1202,1202,1202,1202,1202,1202,1202,1202,1197,1197,1197,1197,1197,1197,1193,1193,1193,1189,1189,1189,1189,1193,1193,1193,1193,1193,1193,1193,1189,1189,1189,1189,1189,1189,1189,1189,1189,1189,1189,1189,1189,1189,1189,1189,1189,1185,1185,1189,1189,1189,1189,1185,1185,1185,1185,1185,1185,1181,1181,1181,1181,1181,1181,1177,1177,1173,1173,1169,1169,1169,1165,1165,1165,1161,1157,1157,1153,1149,1149,1149,1145,1145,1141,1141,1138,1138,1134,1130,1126,1123,1123,1123,1123,1119,1119,1119,938,938,938,935,930,925,920,918,918,915,913,910,908,906,906,0,0,0,0,0,0,0,0,0,0,0,0,0,0,0,0,0,0,0,0,0,0,0,0,0,0,0,0,0,0,0,0,0,0,0
0,0,0,0,0,0,0,0,0,0,1288,1288,1288,1288,1283,1283,1283,1283,1283,1288,1288,1288,1288,1288,1288,1288,1292,1288,1288,1288,1288,1288,1288,1288,1288,1288,1288,1288,1288,1288,1288,1288,1288,1283,1283,1283,1283,1288,1288,1288,1288,1288,1288,1288,1288,1288,1288,1288,1288,1288,1283,1283,1283,1283,1283,1288,1288,1288,1288,1283,1283,1283,1283,1283,1283,1278,1278,1278,1278,1273,1273,1268,1268,1268,1268,1067,1067,1070,1070,1070,1073,1073,1073,1077,1077,1077,1077,1080,1080,1080,1084,1090,1090,1090,0,0,0,0,0,0,0,716,714,714,714,714,716,716,716,717,717,719,719,720,720,722,722,722,723,723,725,727,727,730,730,731,733,734,736,736,738,0,0,0,0,0,0,0,1268,1264,1264,1264,1264,1264,1259,1259,1259,1259,1264,1264,1264,1268,1268,1264,1264,1264,1264,1264,1264,1264,1264,1264,1264,1259,1259,1259,1259,1259,1264,1259,1259,1264,1264,1264,1264,1259,1259,1259,1259,1259,1259,1259,1259,1259,1259,1259,1259,1259,1264,1259,1259,1259,1259,1259,1255,1255,1250,1250,1250,1050,1047,1041,1038,1034,1031,1025,1019,1016,1013,1010,1010,1007,1007,1004,1001,1001,1001,1001,998,998,998,998,995,995,1268,1268,1268,1264,1264,1259,1255,1250,1250,1250,1250,1250,1250,1245,1245,1245,1250,1250,1250,1250,1250,1250,1250,1250,1250,1250,1245,1245,1245,1245,1245,1245,1241,1241,1241,1241,1241,1245,1245,1241,1241,1245,1245,1241,1241,1241,1241,1241,1236,1236,1236,1236,1236,1236,1236,1236,1236,1236,1236,1236,1236,1236,1236,1236,1236,1236,1236,1236,1241,1241,1241,1241,1241,1241,1241,1241,1241,1241,1241,1241,981,981,981,981,981,981,981,984,984,984,984,987,987,987,987,989,989,989,989,992,992,992,992,992,992,995,995,995,995,995,995,995,998,1001,1001,1004,1004,1004,1004,1004,1232,1232,1227,1227,1227,1227,1227,1227,1227,1227,1223,1223,1219,1219,1219,1219,1219,1219,1219,1223,1219,1219,1219,1223,1219,1219,1219,1219,1219,1219,1219,1219,1219,1219,1219,1219,1219,1219,1219,1214,1214,1214,1214,1214,1214,1214,1214,1214,1214,1214,1214,1214,1214,1214,1214,1214,1214,1214,1214,1214,1210,1210,1214,1214,1214,1214,1214,1214,1214,1214,1214,1214,1214,1214,1214,1214,1210,1210,1210,1210,1210,1210,1210,1210,1210,1210,1210,1210,1210,1210,1210,1210,1210,1210,1210,1206,1206,1206,1206,1206,1206,1202,1202,1202,1202,1202,1202,1202,1202,1202,1202,1202,1202,1202,1202,1202,1202,1202,1202,1202,1202,1202,1202,1202,1202,1202,1202,1202,1202,1202,1202,1197,1197,1197,1197,1197,1197,1197,1197,1197,1197,1197,1197,1197,1197,1197,1197,1197,1197,1197,1197,1197,1197,1193,1193,1189,1189,1189,1189,1189,1189,1189,1189,1189,1189,1189,1189,1189,1185,1185,1185,1185,1185,1185,1185,1185,1185,1185,1185,1185,1185,1185,1181,1181,1185,1185,1185,1185,1185,1185,1185,1185,1185,1185,1181,1181,1181,1181,1181,1181,1181,1181,1177,1177,1177,1173,1173,1169,1169,1169,1165,1165,1165,1161,1161,1157,1153,1153,1149,1149,1145,1145,1141,1141,1138,1138,1134,1130,1126,1123,1123,1123,1123,1123,1123,938,935,933,930,928,928,925,920,918,918,915,913,913,908,906,906,0,0,0,0,0,0,0,0,0,0,0,0,0,0,0,0,0,0,0,0,0,0,0,0,0,0,0,0,0,0,0,0,0,0,0
0,0,0,0,0,0,0,0,0,0,1288,1288,1288,1288,1283,1283,1283,1278,1278,1283,1283,1283,1283,1283,1283,1283,1283,1283,1283,1283,1288,1283,1283,1283,1283,1283,1283,1283,1283,1288,1288,1283,1283,1283,1283,1283,1283,1283,1283,1283,1288,1288,1288,1288,1288,1288,1288,1283,1283,1283,1283,1283,1278,1278,1278,1283,1283,1283,1283,1283,1283,1283,1278,1278,1278,1273,1273,1273,1273,1273,1273,1268,1268,1268,1268,1268,1070,1070,1073,1073,1073,1073,1077,1077,1077,1077,1077,1080,1080,1080,1084,1090,1087,1087,0,0,0,0,0,0,0,0,714,714,714,714,716,716,716,717,719,719,720,720,722,722,722,723,723,725,725,727,728,730,730,731,733,734,734,736,738,0,0,0,0,0,0,0,1264,1264,1264,1264,1259,1259,1259,1255,1255,1259,1259,1259,1264,1264,1264,1264,1264,1264,1259,1259,1259,1259,1259,1255,1255,1259,1259,1259,1259,1259,1259,1259,1255,1255,1255,1255,1259,1255,1255,1255,1255,1255,1255,1255,1255,1255,1255,1255,1255,1255,1259,1255,1255,1255,1255,1255,1250,1250,1250,1250,1245,1245,1245,1041,1038,1034,1031,1025,1019,1016,1013,1010,1010,1007,1004,1001,998,998,998,998,998,998,998,998,995,995,995,995,1268,1264,1259,1259,1255,1250,1250,1250,1245,1245,1245,1245,1245,1245,1241,1241,1245,1245,1245,1245,1245,1245,1245,1245,1241,1241,1241,1241,1241,1241,1236,1236,1241,1241,1241,1241,1241,1241,1241,1241,1241,1241,1236,1236,1236,1236,1232,1232,1232,1232,1232,1232,1232,1232,1232,1232,1232,1232,1232,1232,1232,1232,1236,1236,1236,1236,1236,1236,1236,1236,1236,1236,1236,1241,1236,1236,981,981,981,981,981,981,981,981,981,981,981,981,984,984,984,984,984,987,989,989,989,992,992,992,992,995,995,995,995,995,998,998,998,1001,1001,1001,1004,1004,1007,1007,1007,1010,1232,1232,1227,1223,1223,1223,1223,1223,1223,1223,1219,1219,1219,1219,1214,1214,1214,1214,1214,1214,1219,1219,1219,1219,1219,1219,1214,1214,1214,1214,1214,1214,1214,1214,1214,1214,1214,1214,1214,1214,1214,1214,1214,1210,1210,1210,1210,1210,1210,1210,1210,1214,1214,1214,1214,1214,1214,1210,1210,1210,1210,1210,1206,1206,1210,1210,1210,1210,1210,1210,1210,1210,1210,1210,1210,1210,1210,1210,1206,1206,1206,1206,1206,1206,1206,1206,1206,1206,1206,1206,1206,1206,1206,1206,1206,1206,1206,1202,1202,1202,1202,1202,1202,1202,1202,1202,1197,1197,1197,1197,1197,1197,1197,1197,1197,1197,1197,1197,1197,1197,1197,1197,1197,1197,1193,1193,1197,1197,1197,1197,1197,1197,1197,1193,1193,1193,1193,1193,1193,1193,1197,1197,1197,1197,1197,1197,1193,1193,1193,1193,1193,1193,1193,1189,1189,1189,1189,1185,1185,1185,1185,1185,1185,1185,1185,1185,1185,1185,1181,1181,1181,1181,1181,1185,1185,1185,1185,1185,1185,1181,1181,1181,1181,1177,1177,1177,1177,1181,1181,1181,1181,1181,1181,1181,1177,1177,1177,1177,1181,1177,1177,1177,1177,1177,1173,1173,1173,1169,1169,1169,1165,1165,1165,1161,1157,1153,1153,1153,1149,1149,1149,1145,1141,1141,1141,1138,1134,1134,1130,1126,1123,1123,1123,1123,1123,938,935,933,930,928,928,925,920,920,918,918,915,913,910,908,908,0,0,0,0,0,0,0,0,0,0,0,0,0,0,0,0,0,0,0,0,0,0,0,0,0,0,0,0,0,0,0,0,0,0,0
0,0,0,0,0,0,0,0,0,0,1283,1283,1283,1283,1278,1278,1278,1278,1278,1278,1278,1278,1278,1278,1278,1278,1278,1278,1278,1278,1283,1278,1278,1278,1283,1283,1283,1283,1283,1283,1283,1283,1283,1283,1283,1283,1283,1283,1283,1283,1283,1283,1288,1288,1283,1283,1283,1283,1278,1278,1278,1278,1278,1273,1273,1278,1278,1278,1278,1278,1278,1278,1278,1278,1273,1273,1273,1273,1273,1268,1268,1268,1268,1268,1268,1268,1073,1073,1073,1077,1077,1077,1077,1077,1077,1077,1080,1080,1080,1080,1084,1087,1084,1084,0,0,0,0,0,0,0,0,0,714,714,714,716,716,717,719,719,719,720,720,722,722,722,723,725,727,727,727,728,730,730,731,733,734,734,738,738,738,0,0,0,0,0,0,1264,1259,1259,1259,1255,1255,1255,1255,1250,1250,1250,1250,1259,1264,1264,1259,1259,1259,1259,1255,1255,1255,1255,1255,1255,1255,1255,1255,1255,1255,1255,1255,1250,1250,1250,1250,1255,1250,1250,1250,1250,1250,1250,1250,1250,1250,1250,1255,1255,1255,1255,1255,1250,1250,1250,1250,1250,1250,1245,1245,1245,1245,1245,1241,1038,1034,1031,1025,1022,1019,1016,1013,1010,1004,1001,998,995,995,998,995,995,995,995,995,992,992,992,992,992,1259,1259,1255,1250,1250,1245,1245,1245,1245,1241,1241,1241,1241,1236,1236,1241,1241,1241,1241,1241,1241,1241,1241,1236,1236,1236,1236,1236,1236,1236,1236,1236,1236,1236,1241,1241,1241,1241,1236,1236,1236,1236,1232,1232,1232,1232,1232,1232,1232,1227,1227,1227,1227,1227,1227,1227,1227,1227,1227,1227,1232,1232,1232,1232,1232,1232,1232,1232,1232,1232,1232,975,975,975,978,978,978,978,978,978,978,978,978,978,981,981,981,981,981,981,984,984,987,989,989,989,989,992,992,992,995,995,998,998,998,998,998,1001,1001,1001,1004,1007,1007,1010,1010,1010,1010,1013,1223,1223,1219,1219,1219,1219,1219,1219,1219,1214,1214,1214,1214,1214,1214,1214,1214,1214,1214,1214,1214,1214,1214,1214,1214,1210,1210,1214,1214,1214,1214,1214,1214,1214,1214,1214,1214,1210,1210,1210,1210,1206,1206,1206,1206,1206,1210,1210,1210,1210,1210,1210,1210,1210,1210,1210,1206,1206,1206,1206,1206,1202,1202,1202,1202,1202,1202,1206,1206,1206,1206,1206,1206,1206,1206,1206,1206,1206,1206,1202,1202,1202,1202,1202,1202,1202,1202,1206,1206,1206,1202,1202,1202,1202,1202,1202,1202,1202,1202,1197,1197,1197,1197,1197,1197,1197,1197,1193,1193,1197,1197,1197,1197,1193,1193,1193,1193,1193,1193,1189,1189,1189,1189,1189,1189,1189,1189,1189,1189,1193,1193,1193,1193,1189,1189,1193,1189,1189,1193,1193,1193,1193,1193,1193,1193,1193,1193,1189,1189,1193,1189,1189,1189,1185,1185,1185,1185,1185,1181,1181,1185,1185,1181,1181,1181,1181,1181,1181,1181,1181,1181,1181,1181,1181,1181,1181,1181,1177,1177,1177,1177,1177,1173,1173,1173,1173,1173,1173,1173,1173,1173,1177,1177,1177,1177,1177,1177,1177,1177,1177,1177,1177,1173,1173,1169,1169,1169,1169,1165,1165,1165,1161,1161,1153,1153,1153,1153,1149,1149,1149,1145,1145,1141,1141,1138,1134,1134,1130,1126,1123,1123,1123,1123,938,935,935,933,930,928,928,925,923,920,918,918,915,913,913,910,910,0,0,0,0,0,0,0,0,0,0,0,0,0,0,0,0,0,0,0,0,0,0,0,0,0,0,0,0,0,0,0,0,0,0,0
0,0,0,0,0,0,0,0,0,0,1278,1278,1278,1278,1273,1273,1273,1273,1273,1273,1273,1278,1278,1278,1278,1278,1278,1278,1278,1278,1278,1278,1278,1278,1278,1278,1278,1278,1278,1283,1283,1283,1278,1278,1278,1283,1283,1278,1278,1278,1278,1278,1283,1283,1283,1283,1278,1278,1273,1273,1273,1273,1273,1273,1273,1278,1278,1278,1278,1278,1278,1273,1268,1268,1268,1268,1268,1268,1268,1268,1268,1264,1264,1264,1264,1264,1073,1073,1073,1077,1077,1077,1077,1077,1080,1080,1080,1080,1080,1080,1084,1087,1084,1084,1087,0,0,0,0,0,0,0,0,716,716,716,716,717,717,719,719,720,720,720,723,723,723,725,725,727,727,728,728,730,731,733,733,734,734,738,738,738,0,0,0,0,0,0,0,1255,1255,1250,1250,1255,1255,1250,1250,1250,1250,1250,1255,1259,1259,1259,1255,1255,1255,1250,1250,1250,1250,1250,1250,1250,1250,1250,1250,1250,1250,1250,1250,1250,1250,1250,1250,1250,1250,1245,1245,1250,1250,1250,1250,1250,1250,1250,1250,1250,1250,1250,1250,1250,1250,1245,1245,1245,1245,1245,1245,1241,1241,1241,1038,1031,1028,1025,1022,1019,1019,1016,1007,1004,1001,998,995,995,995,992,989,989,989,989,989,989,989,989,989,989,1255,1255,1250,1245,1245,1245,1241,1241,1236,1236,1236,1236,1236,1236,1236,1236,1236,1236,1241,1241,1241,1236,1236,1232,1232,1232,1232,1232,1232,1232,1232,1232,1232,1236,1236,1236,1236,1236,1236,1232,1232,1232,1227,1227,1227,1227,1227,1227,1227,1223,1223,1227,1227,1227,1227,1227,1227,1227,1227,1227,1227,1227,1227,1227,1227,1227,1232,1232,970,970,973,975,975,978,978,978,978,978,978,978,978,978,978,978,978,978,978,981,981,981,981,984,989,989,989,989,992,992,995,998,998,998,1001,1001,1001,1001,1001,1001,1004,1004,1007,1010,1013,1013,1010,1010,1013,1013,1223,1214,1214,1210,1210,1210,1210,1214,1214,1214,1214,1214,1210,1210,1210,1210,1210,1210,1210,1210,1210,1206,1206,1206,1206,1206,1206,1206,1210,1210,1206,1206,1210,1210,1210,1210,1210,1206,1206,1202,1202,1202,1202,1202,1202,1202,1202,1206,1206,1206,1206,1206,1206,1206,1206,1206,1206,1206,1202,1202,1202,1202,1202,1202,1197,1197,1202,1202,1202,1202,1202,1202,1202,1202,1202,1202,1202,1202,1202,1202,1197,1197,1197,1197,1197,1197,1202,1202,1202,1202,1202,1202,1202,1202,1197,1197,1197,1197,1197,1197,1193,1193,1193,1193,1193,1193,1193,1193,1193,1193,1193,1193,1193,1189,1189,1189,1189,1189,1189,1189,1185,1185,1185,1185,1185,1185,1185,1185,1185,1185,1181,1181,1185,1185,1185,1189,1189,1189,1189,1189,1189,1189,1189,1189,1189,1189,1185,1185,1185,1185,1185,1185,1181,1181,1181,1181,1181,1181,1181,1181,1181,1181,1181,1181,1181,1181,1177,1177,1177,1177,1177,1177,1177,1177,1173,1173,1173,1169,1169,1169,1173,1169,1169,1169,1169,1169,1169,1169,1169,1169,1169,1169,1173,1173,1173,1173,1173,1173,1169,1169,1169,1169,1169,1169,1169,1165,1165,1165,1165,1161,1161,1157,1153,1153,1153,1153,1153,1149,1149,1149,1145,1141,1141,1138,1134,1134,1130,1130,1126,1126,1126,940,938,935,935,933,930,930,928,925,923,923,920,920,918,915,915,915,915,0,0,0,0,0,0,0,0,0,0,0,0,0,0,0,0,0,0,0,0,0,0,0,0,0,0,0,0,0,0,0,0,0,0,0
0,0,0,0,0,0,0,0,0,0,1273,1273,1268,1268,1268,1268,1268,1268,1268,1268,1268,1273,1273,1273,1273,1278,1278,1278,1273,1273,1278,1273,1273,1273,1273,1273,1268,1268,1268,1268,1268,1278,1278,1273,1273,1278,1278,1273,1273,1273,1273,1273,1278,1273,1273,1278,1278,1278,1273,1273,1273,1273,1273,1273,1273,1273,1273,1273,1273,1273,1273,1268,1268,1268,1268,1268,1268,1268,1268,1264,1264,1264,1264,1264,1264,1264,1073,1073,1073,1077,1077,1077,1077,1080,1080,1080,1080,1084,1080,1080,1084,1084,1084,1084,1084,0,0,0,0,0,0,0,0,717,717,717,719,719,719,720,720,720,720,722,723,723,725,725,727,727,727,728,728,731,731,733,733,734,738,738,739,739,741,0,0,0,0,0,0,1255,1250,1250,1250,1250,1250,1250,1250,1250,1250,1250,1250,1255,1255,1255,1255,1255,1250,1250,1250,1250,1245,1245,1245,1245,1245,1245,1250,1245,1245,1245,1245,1245,1245,1245,1245,1245,1245,1245,1245,1245,1245,1245,1245,1245,1245,1245,1245,1245,1245,1245,1245,1245,1245,1245,1245,1245,1245,1245,1241,1241,1241,1236,1232,1031,1028,1025,1022,1019,1019,1016,1007,1004,1001,992,992,992,992,989,989,989,987,987,987,987,987,987,987,989,1255,1255,1245,1245,1241,1241,1236,1236,1232,1232,1232,1232,1232,1232,1232,1232,1236,1236,1236,1236,1232,1232,1232,1232,1227,1227,1227,1232,1232,1232,1232,1232,1232,1232,1232,1232,1232,1232,1232,1232,1227,1227,1227,1227,1223,1223,1223,1223,1223,1223,1223,1223,1223,1223,1223,1227,1227,1227,1227,1227,1227,1227,1227,1227,1227,1227,1232,970,970,970,973,973,973,975,975,975,975,978,975,975,975,975,978,978,978,978,978,981,981,981,981,984,989,989,989,992,992,995,995,998,998,1001,1001,1001,1001,1001,1004,1004,1004,1007,1010,1010,1013,1013,1013,1013,1013,1013,1210,1210,1210,1206,1206,1206,1206,1206,1206,1206,1206,1210,1210,1206,1206,1206,1206,1206,1206,1206,1206,1206,1206,1202,1202,1202,1202,1202,1206,1206,1202,1202,1206,1206,1206,1206,1206,1202,1202,1202,1202,1202,1202,1202,1202,1202,1202,1202,1202,1197,1197,1197,1197,1197,1202,1197,1197,1202,1202,1202,1197,1197,1197,1197,1197,1197,1197,1197,1197,1197,1197,1197,1197,1197,1197,1202,1202,1202,1197,1197,1197,1197,1197,1197,1197,1197,1197,1197,1197,1197,1197,1197,1197,1197,1197,1193,1193,1193,1193,1193,1189,1189,1189,1189,1189,1189,1189,1189,1189,1189,1189,1189,1189,1189,1189,1185,1185,1185,1185,1185,1185,1185,1185,1185,1185,1185,1185,1181,1181,1181,1181,1181,1181,1181,1185,1185,1185,1185,1185,1185,1185,1185,1185,1185,1185,1185,1185,1181,1181,1181,1181,1181,1181,1181,1181,1181,1181,1181,1181,1181,1181,1181,1177,1177,1177,1177,1177,1173,1173,1173,1173,1173,1173,1169,1169,1169,1169,1169,1169,1169,1169,1169,1169,1169,1169,1169,1169,1165,1165,1165,1165,1165,1165,1165,1169,1169,1169,1169,1169,1169,1169,1169,1169,1165,1165,1165,1165,1165,1161,1161,1157,1157,1153,1153,1153,1153,1149,1149,1149,1149,1145,1141,1141,1138,1138,1134,1134,1130,1130,943,943,940,938,935,935,933,933,930,928,925,925,925,923,923,918,918,918,918,0,0,0,0,0,0,0,0,0,0,0,0,0,0,0,0,0,0,0,0,0,0,0,0,0,0,0,0,0,0,0,0,0,0,0,0
