0,0,0,0,0,0,0,0,0,0,0,1529,1529,1529,1529,1523,1523,1529,1529,1529,1529,1529,1529,1529,1529,1529,1529,1529,1529,1529,1529,1529,1529,1536,1536,1536,1536,1536,1536,1536,1536,1536,1536,1536,1536,1536,1529,1529,1536,1536,1543,1543,1536,1536,1529,1529,1529,1523,1523,1523,1529,1516,1516,1516,1516,1516,0,0,0,0,0,0,1016,1016,1016,1016,1016,1019,1019,1019,1019,1019,1022,1022,1022,1022,1022,1022,1022,0,0,0,0,0,0,0,0,0,0,0,0,0,678,676,676,679,679,680,680,680,680,682,683,684,684,684,686,686,687,687,688,688,690,691,691,693,693,693,694,696,697,697,698,698,700,701,703,704,0,0,0,0,0,1496,1496,1496,1496,1509,1509,1509,1509,1516,1509,1509,1509,1503,1503,1503,1503,1503,1503,1509,1509,1516,1516,1509,1509,1509,1509,1509,1509,1503,1503,1503,1503,1503,1503,1503,1516,1516,1509,1509,1509,1509,1509,1509,1509,1509,1503,1503,1503,1503,1503,1503,1496,1496,1503,1503,1503,1503,1509,1503,1503,1509,1509,1503,1503,1503,1503,1503,1503,1503,1503,1509,1509,1509,1509,1509,1197,1197,1197,1197,1193,1193,1193,1193,1193,1193,1193,1193,1197,1197,1197,1202,1202,1202,1202,1202,1206,1206,1206,1206,1206,1210,1210,1210,1210,1210,1214,1214,1214,1214,1219,1219,1219,1223,1223,1227,1227,1227,1227,1227,1227,1227,1227,1232,1232,1232,1232,1232,1236,1236,1241,1241,1241,1245,1245,1483,1483,1483,1483,1483,1483,1483,1483,1477,1470,1470,1470,1470,1470,1470,1470,1477,1477,1477,1477,1470,1470,1470,1477,1470,1470,1470,1470,1470,1470,1470,1470,1470,1470,1464,1464,1464,1464,1464,0,0,0,0,0,0,0,946,943,943,940,940,938,935,933,933,930,930,930,930,930,930,935,935,935,935,938,940,940,940,943,946,946,946,948,0,0,0,0,0,1464,1464,1458,1458,1458,1458,1452,1452,1458,1458,1452,1452,1452,1452,1452,1458,1452,1452,1452,1452,1445,1445,1445,1445,1452,1445,1445,1452,1452,1452,1452,1452,1452,1452,1445,1445,1445,1445,1445,1445,1445,1445,1445,1445,1445,1445,1445,1445,1445,1445,1445,1445,1445,1445,1445,1445,1445,1439,1439,1439,1445,1445,1439,1439,1439,1439,1439,1439,1439,1433,1433,1433,1433,1433,1433,1433,1433,1439,1439,1439,1439,1439,1439,1433,1433,1427,1427,1421,1421,1421,1421,1421,1421,1421,1415,1415,1410,1410,1404,1404,1398,1392,1392,1392,1387,1387,1381,1381,1376,1376,1370,1370,1365,1354,1354,1354,1349,1349,1349,1349,1343,1338,1333,1333,1333,1333,1328,1322,1317,1312,1312,1312,1312,1307,1302,1297,1292,1292,1292,1292,1292,1288,1288,1283,1278,1273,1273,1268,1268,1268,1264,1259,1255,1255,1250,1250,1245,1241,1236,1236,1236,1236,1232,1232,1227,1227,1223,1223,1219,1214,1214,1210,1210,1206,1206,1206,1202,1202,1197,1197,1197,1193,1189,1185,1185,1181,1181,1181,1177,1173,1173,1169,1169,1165,1165,1165,1161,1157,1153,1153,1149,1149,1145,1145,1141,1138,1138,1138,1134,1130,1130,1130,1123,1123,1123,1119,1119,1119,1115,1112,1112,1108,1105,1105,1105,1105,1101,1097,1094,1094,1094,1090,1090,1087,1087,1084,1080,1080,1077,1077,1073,1070,1070,1067,1067,1063,1063,1060,1060,1057,1057,1057,0,0,0,0,0,0,0,0,0,0,0,0,0,0,0,0,0,0,0,0,0,0,0,0,0,0,0,0,0,0,0,0
0,0,0,0,0,0,0,0,0,0,0,1523,1523,1523,1523,1523,1523,1523,1523,1523,1523,1523,1523,1523,1523,1523,1523,1523,1523,1523,1529,1529,1529,1529,1529,1529,1529,1523,1523,1523,1523,1529,1529,1529,1523,1523,1523,1523,1523,1523,1529,1536,1536,1536,1529,1523,1523,1523,1523,1523,1516,1516,1516,1516,1516,1516,0,0,0,0,0,0,1019,1019,1019,1019,1019,1019,1019,1019,1019,1022,1022,1022,1022,1022,1025,1025,1025,0,0,0,0,0,0,0,0,0,0,0,0,0,678,678,679,679,679,680,680,680,680,682,683,684,684,684,686,686,687,687,688,690,690,691,691,693,693,693,694,696,696,697,698,698,0,0,0,0,0,0,0,0,0,1489,1489,1489,1489,1503,1509,1503,1503,1509,1509,1509,1503,1503,1503,1496,1496,1496,1496,1496,1503,1503,1503,1503,1503,1503,1503,1503,1503,1496,1496,1496,1496,1496,1496,1496,1503,1503,1503,1503,1503,1503,1503,1503,1503,1503,1503,1503,1503,1503,1503,1496,1496,1496,1496,1496,1496,1503,1503,1503,1503,1503,1503,1503,1496,1496,1496,1503,1503,1503,1503,1509,1509,1509,1193,1193,1193,1193,1193,1193,1193,1193,1189,1189,1193,1193,1193,1193,1197,1197,1197,1197,1202,1202,1202,1202,1202,1206,1206,1206,1206,1210,1210,1210,1210,1210,1214,1214,1214,1214,1219,1219,1219,1223,1223,1227,1227,1227,1227,1227,1227,1232,1232,1232,1232,1232,1232,1232,1236,1236,1241,1241,1241,1245,1245,1483,1483,1483,1483,1477,1477,1477,1477,1477,1470,1470,1470,1470,1470,1470,1470,1470,1470,1470,1470,1464,1464,1464,1464,1464,1464,1464,1464,1464,1464,1464,1464,1464,1464,1464,1464,1458,1458,1458,1458,0,0,0,0,0,0,0,946,943,940,940,938,935,933,933,933,933,933,930,930,933,935,935,935,935,938,940,940,943,946,946,946,946,948,951,0,0,0,0,1452,1452,1452,1452,1452,1452,1445,1445,1445,1445,1445,1445,1445,1445,1445,1445,1445,1445,1445,1445,1445,1445,1445,1445,1445,1445,1445,1445,1445,1445,1445,1445,1445,1445,1445,1445,1445,1439,1439,1439,1439,1445,1445,1445,1445,1445,1445,1445,1439,1439,1439,1439,1439,1439,1439,1439,1439,1439,1433,1433,1439,1439,1439,1433,1433,1439,1433,1433,1433,1427,1427,1427,1427,1427,1427,1427,1427,1433,1433,1433,1433,1433,1433,1427,1427,1427,1421,1421,1421,1421,1421,1421,1421,1421,1415,1415,1415,1410,1410,1404,1398,1398,1392,1392,1387,1387,1381,1381,1376,1376,1370,1370,1365,1359,1354,1354,1354,1349,1349,1349,1343,1343,1338,1333,1333,1333,1333,1322,1317,1317,1312,1312,1312,1307,1307,1302,1297,1292,1292,1292,1292,1288,1288,1283,1278,1273,1273,1273,1268,1268,1264,1259,1259,1255,1250,1250,1245,1241,1236,1236,1232,1232,1232,1232,1232,1227,1223,1223,1219,1214,1214,1210,1210,1210,1206,1206,1202,1202,1197,1197,1197,1193,1193,1185,1185,1185,1181,1181,1177,1173,1173,1169,1165,1165,1165,1165,1161,1157,1157,1153,1149,1149,1149,1145,1141,1141,1138,1138,1134,1134,1134,1130,1130,1123,1123,1123,1119,1119,1115,1115,1112,1108,1108,1105,1105,1105,1101,1097,1094,1094,1094,1090,1090,1087,1087,1084,1080,1080,1077,1077,1073,1073,1070,1067,1067,1063,1063,1063,1063,1060,1057,1057,0,0,0,0,0,0,0,0,0,0,0,0,0,0,0,0,0,0,0,0,0,0,0,0,0,0,0,0,0,0,0,0
0,0,0,0,0,0,0,0,0,0,0,1523,1523,1523,1523,1523,1523,1523,1523,1516,1516,1516,1516,1516,1516,1516,1516,1516,1516,1523,1523,1523,1523,1523,1523,1523,1523,1523,1516,1516,1516,1516,1523,1516,1516,1516,1516,1516,1516,1516,1503,1503,1503,1523,1523,1523,1516,1516,1516,1516,1516,1516,1509,1509,1509,0,0,0,0,0,0,0,1022,1019,1019,1019,1019,1022,1022,1022,1022,1022,1022,1022,1022,1025,1025,1025,1025,0,0,0,0,0,0,0,0,0,0,0,0,0,678,678,679,680,680,680,680,680,682,682,683,684,684,686,686,687,687,687,688,690,691,691,691,693,693,693,694,694,696,696,698,0,0,0,0,0,0,0,0,0,1496,1489,1489,1489,1489,1496,1503,1496,1496,1503,1503,1503,1496,1496,1496,1496,1496,1496,1496,1496,1496,1496,1489,1489,1496,1496,1496,1496,1489,1489,1489,1489,1489,1489,1489,1489,1496,1496,1496,1496,1496,1496,1496,1496,1496,1503,1496,1496,1496,1496,1496,1496,1489,1489,1489,1489,1496,1496,1496,1496,1496,1496,1496,1496,1496,1496,1496,1496,1496,1185,1185,1185,1185,1189,1193,1193,1193,1193,1193,1193,1193,1189,1189,1189,1193,1193,1193,1193,1193,1197,1197,1197,1197,1197,1197,1202,1202,1206,1206,1206,1206,1210,1210,1210,1210,1210,1214,1214,1214,1214,1219,1219,1219,1223,1227,1227,1227,1227,1227,1227,1232,1232,1232,1232,1232,1232,1232,1236,1236,1236,1241,1241,1241,1245,1245,1477,1477,1477,1477,1470,1470,1470,1470,1470,1464,1464,1464,1464,1464,1464,1464,1464,1464,1464,1464,1464,1464,1464,1464,1458,1458,1458,1458,1458,1458,1458,1458,1458,1458,1458,1452,1452,1458,1458,1458,0,0,0,0,0,0,0,946,943,940,940,938,938,935,935,933,933,933,933,933,935,935,935,935,935,938,940,943,943,946,946,946,948,948,948,0,0,0,0,1445,1445,1445,1445,1445,1445,1445,1445,1445,1445,1445,1445,1439,1439,1439,1439,1439,1439,1439,1439,1439,1439,1439,1439,1439,1439,1439,1439,1439,1439,1439,1445,1439,1439,1439,1439,1439,1433,1433,1439,1439,1439,1439,1439,1439,1439,1439,1439,1439,1439,1439,1439,1433,1433,1433,1433,1433,1433,1433,1433,1433,1433,1433,1433,1433,1433,1433,1427,1427,1427,1427,1427,1427,1427,1427,1427,1427,1427,1427,1427,1427,1427,1427,1421,1421,1421,1421,1421,1421,1421,1421,1421,1421,1421,1415,1415,1415,1410,1404,1404,1398,1398,1392,1392,1392,1387,1381,1381,1381,1376,1376,1370,1365,1365,1354,1354,1354,1354,1349,1349,1349,1343,1338,1338,1333,1333,1333,1328,1322,1317,1312,1312,1312,1307,1307,1302,1297,1292,1292,1292,1292,1288,1288,1283,1278,1273,1273,1273,1268,1268,1268,1264,1259,1255,1255,1250,1250,1241,1236,1236,1232,1232,1232,1232,1232,1227,1227,1223,1219,1214,1214,1214,1210,1210,1206,1206,1202,1202,1197,1197,1197,1193,1193,1185,1185,1185,1181,1181,1177,1173,1173,1169,1165,1165,1165,1165,1161,1157,1157,1153,1153,1149,1149,1149,1145,1141,1138,1138,1134,1134,1134,1130,1130,1126,1123,1123,1123,1119,1119,1115,1112,1112,1108,1108,1105,1105,1105,1097,1097,1097,1094,1090,1090,1090,1087,1087,1084,1080,1080,1077,1073,1073,1070,1067,1067,1067,1063,1063,1060,1060,1057,1057,0,0,0,0,0,0,0,0,0,0,0,0,0,0,0,0,0,0,0,0,0,0,0,0,0,0,0,0,0,0,0,0
0,0,0,0,0,0,0,0,0,0,0,1523,1516,1516,1516,1516,1516,1516,1516,1516,1516,1516,1516,1509,1509,1509,1516,1516,1516,1516,1516,1516,1516,1516,1516,1516,1516,1516,1516,1516,1516,1516,1516,1516,1516,1516,1516,1509,1509,1516,1503,1503,1503,1516,1516,1516,1509,1509,1509,1509,1509,1509,1509,1509,1509,1509,0,0,0,0,0,0,1022,1019,1019,1019,1022,1022,1022,1022,1022,1022,1022,1025,1025,1025,1025,1025,1028,0,0,0,0,0,0,0,0,0,0,0,0,0,0,680,680,680,680,680,680,680,682,683,684,684,684,686,686,687,687,687,690,691,691,691,691,693,693,693,694,694,696,696,0,0,0,0,0,0,0,0,0,0,1489,1489,1489,1489,1489,1489,1496,1489,1489,1496,1496,1496,1489,1489,1489,1489,1489,1489,1489,1489,1489,1489,1489,1489,1489,1489,1489,1489,1489,1489,1489,1483,1483,1483,1483,1483,1483,1483,1483,1489,1489,1489,1489,1489,1489,1489,1489,1496,1496,1496,1496,1489,1489,1489,1489,1489,1489,1489,1489,1496,1496,1496,1496,1496,1181,1181,1181,1181,1181,1185,1185,1185,1185,1189,1189,1189,1189,1189,1189,1189,1189,1189,1189,1189,1193,1193,1193,1193,1193,1197,1197,1197,1197,1197,1197,1202,1202,1206,1206,1206,1206,1210,1210,1210,1210,1210,1214,1214,1214,1214,1219,1219,1223,1223,1227,1227,1227,1227,1232,1232,1232,1232,1232,1232,1232,1232,1232,1236,1236,1236,1241,1241,1241,1245,1245,1470,1470,1470,1470,1464,1464,1464,1464,1464,1464,1464,1464,1458,1458,1458,1458,1458,1464,1464,1464,1458,1458,1458,1458,1458,1452,1452,1452,1458,1452,1452,1452,1452,1452,1452,1452,1445,1445,1445,1445,1458,0,0,0,0,0,0,946,946,943,943,940,938,938,935,935,935,935,935,935,935,935,935,938,938,940,940,943,946,946,946,948,948,948,948,0,0,0,1445,1445,1445,1445,1445,1445,1445,1445,1439,1439,1439,1439,1439,1439,1439,1439,1439,1439,1439,1439,1439,1433,1433,1433,1433,1433,1433,1433,1439,1439,1439,1439,1439,1433,1433,1433,1433,1433,1433,1433,1433,1433,1433,1433,1433,1433,1433,1439,1439,1433,1433,1433,1433,1433,1427,1427,1427,1427,1427,1427,1427,1427,1433,1433,1427,1427,1427,1427,1421,1421,1421,1421,1421,1421,1421,1421,1421,1421,1421,1421,1427,1427,1421,1421,1421,1421,1421,1421,1415,1415,1415,1421,1415,1415,1415,1415,1415,1410,1410,1404,1404,1398,1398,1398,1392,1392,1387,1387,1381,1376,1376,1376,1370,1370,1365,1359,1354,1354,1354,1349,1349,1349,1349,1343,1338,1333,1333,1333,1328,1322,1317,1317,1317,1312,1312,1307,1302,1297,1292,1292,1292,1292,1292,1288,1288,1283,1278,1273,1273,1268,1268,1268,1264,1264,1259,1255,1250,1250,1241,1236,1236,1236,1232,1232,1232,1232,1232,1227,1223,1223,1219,1214,1214,1214,1210,1210,1206,1202,1202,1197,1197,1197,1197,1193,1189,1185,1185,1185,1181,1177,1177,1173,1169,1169,1169,1165,1165,1161,1157,1153,1153,1153,1153,1149,1149,1149,1145,1145,1141,1138,1134,1134,1134,1130,1126,1123,1123,1123,1119,1119,1115,1115,1112,1108,1108,1108,1105,1105,1101,1097,1097,1094,1090,1090,1090,1090,1087,1084,1080,1080,1077,1077,1073,1073,1070,1067,1067,1063,1063,1060,1060,1057,1057,0,0,0,0,0,0,0,0,0,0,0,0,0,0,0,0,0,0,0,0,0,0,0,0,0,0,0,0,0,0,0,0
0,0,0,0,0,0,0,0,0,0,0,1516,1516,1516,1516,1516,1516,1509,1509,1509,1509,1509,1509,1509,1509,1509,1509,1509,1509,1509,1509,1509,1509,1509,1509,1509,1509,1509,1509,1509,1509,1509,1509,1509,1509,1509,1509,1509,1509,1509,1509,1509,1509,1509,1509,1509,1509,1509,1509,1509,1509,1509,1509,1509,1503,1503,0,0,0,0,0,0,1019,1019,1019,1019,1022,1022,1022,1022,1022,1022,1022,1025,1025,1025,1025,1025,1028,0,0,0,0,0,0,0,0,0,0,0,0,0,682,680,680,680,680,680,680,682,683,684,686,686,686,686,687,687,687,688,690,691,691,691,693,693,694,694,694,694,696,696,0,0,0,0,0,0,0,0,0,1489,1489,1489,1489,1483,1483,1483,1489,1489,1489,1489,1489,1489,1489,1489,1489,1489,1489,1489,1489,1489,1489,1489,1489,1489,1489,1489,1489,1483,1483,1483,1483,1483,1483,1483,1483,1483,1483,1483,1483,1483,1483,1483,1483,1489,1489,1489,1489,1496,1496,1496,1496,1489,1489,1489,1489,1489,1489,1489,1489,1489,1181,1181,1181,1177,1177,1181,1181,1181,1181,1181,1181,1185,1185,1185,1189,1189,1189,1189,1189,1189,1189,1189,1189,1189,1193,1193,1193,1193,1197,1197,1197,1197,1197,1197,1197,1202,1206,1206,1210,1210,1210,1210,1210,1210,1214,1214,1214,1214,1214,1219,1219,1219,1223,1223,1227,1227,1227,1227,1227,1232,1232,1232,1232,1232,1232,1232,1236,1236,1236,1241,1241,1241,1241,1245,1241,1241,1470,1464,1464,1464,1464,1458,1458,1458,1458,1458,1458,1458,1458,1452,1452,1458,1458,1458,1458,1458,1458,1458,1452,1452,1452,1452,1452,1452,1452,1452,1452,1452,1452,1452,1445,1445,1445,1445,1445,1452,1452,0,0,0,0,0,946,946,943,943,940,940,938,938,935,935,935,935,935,935,935,938,938,940,940,943,946,946,946,948,948,948,948,948,0,0,0,1439,1439,1439,1439,1439,1439,1439,1439,1439,1439,1439,1439,1439,1433,1433,1433,1433,1433,1433,1433,1433,1433,1433,1433,1427,1427,1427,1427,1427,1427,1427,1433,1433,1427,1427,1427,1427,1427,1427,1427,1427,1427,1427,1427,1427,1427,1427,1427,1427,1427,1427,1427,1427,1427,1427,1427,1427,1421,1421,1421,1421,1421,1421,1427,1427,1427,1427,1421,1421,1415,1415,1415,1415,1415,1421,1421,1421,1421,1421,1421,1421,1421,1421,1421,1415,1415,1415,1415,1415,1415,1415,1415,1415,1415,1415,1415,1415,1410,1410,1404,1404,1398,1398,1398,1392,1392,1387,1387,1381,1376,1376,1376,1370,1370,1365,1365,1354,1354,1354,1349,1349,1349,1343,1343,1338,1333,1333,1333,1333,1328,1322,1317,1317,1312,1312,1307,1307,1302,1297,1297,1292,1292,1292,1288,1288,1283,1278,1273,1273,1268,1268,1268,1268,1264,1259,1255,1255,1250,1245,1241,1236,1236,1236,1232,1232,1232,1232,1227,1227,1223,1219,1214,1214,1210,1210,1210,1206,1202,1202,1202,1197,1197,1197,1193,1189,1185,1185,1185,1181,1181,1177,1173,1173,1169,1169,1165,1165,1161,1157,1153,1153,1153,1153,1149,1149,1149,1145,1145,1141,1138,1138,1134,1134,1130,1130,1123,1123,1123,1119,1119,1119,1115,1115,1112,1108,1108,1105,1105,1101,1097,1097,1094,1090,1090,1090,1090,1087,1084,1080,1080,1077,1077,1077,1073,1070,1067,1067,1063,1063,1060,1060,1057,1057,0,0,0,0,0,0,0,0,0,0,0,0,0,0,0,0,0,0,0,0,0,0,0,0,0,0,0,0,0,0,0,0
0,0,0,0,0,0,0,0,0,0,0,1516,1516,1516,1516,1509,1509,1503,1503,1503,1503,1503,1503,1503,1503,1509,1503,1503,1503,1509,1509,1509,1509,1503,1503,1503,1503,1503,1503,1503,1503,1509,1509,1509,1509,1509,1509,1503,1503,1503,1489,1489,1489,1489,1489,1509,1509,1509,1503,1503,1503,1503,1496,1496,1489,1470,1458,1458,0,0,0,0,1025,1022,1022,1022,1022,1022,1022,1022,1022,1022,1025,1025,1025,1028,1031,1031,1031,0,0,0,0,0,0,0,0,0,0,0,0,680,680,682,682,682,682,682,682,683,684,686,686,686,686,687,687,687,688,690,691,691,691,693,693,693,694,696,696,694,694,0,0,0,0,0,0,0,0,0,0,1489,1489,1489,1489,1483,1483,1483,1483,1483,1483,1483,1489,1489,1489,1483,1483,1489,1489,1483,1483,1483,1483,1483,1483,1483,1483,1483,1483,1483,1483,1483,1477,1477,1477,1477,1477,1477,1477,1477,1477,1477,1477,1477,1483,1483,1489,1489,1489,1489,1489,1496,1489,1489,1489,1489,1489,1489,1489,1489,1181,1181,1181,1177,1177,1177,1177,1177,1181,1181,1181,1181,1181,1181,1181,1185,1185,1189,1189,1189,1189,1189,1189,1189,1189,1189,1193,1193,1193,1193,1193,1197,1197,1197,1197,1197,1202,1202,1206,1206,1210,1210,1210,1210,1214,1214,1214,1214,1214,1219,1219,1219,1219,1223,1223,1227,1227,1227,1227,1227,1227,1232,1232,1232,1232,1232,1232,1232,1236,1236,1241,1241,1241,1245,1245,1245,1241,1241,1464,1464,1464,1458,1458,1458,1458,1458,1458,1452,1452,1452,1452,1452,1452,1452,1452,1452,1452,1452,1452,1452,1452,1445,1445,1445,1445,1445,1445,1445,1445,1445,1445,1445,1445,1439,1439,1439,1439,1445,1445,0,0,0,0,0,946,946,943,943,943,940,938,938,938,938,935,935,935,935,938,938,938,940,943,943,946,946,946,948,948,948,948,0,0,0,0,1439,1439,1433,1433,1433,1433,1433,1433,1433,1433,1433,1433,1433,1433,1433,1427,1427,1427,1427,1427,1427,1427,1427,1427,1427,1427,1427,1427,1421,1421,1421,1421,1421,1421,1421,1421,1421,1421,1421,1421,1421,1421,1421,1421,1421,1421,1421,1421,1421,1421,1421,1421,1421,1421,1421,1421,1421,1421,1421,1415,1415,1415,1415,1421,1421,1421,1421,1421,1415,1415,1415,1415,1415,1415,1415,1415,1415,1415,1415,1415,1415,1415,1415,1415,1415,1415,1415,1415,1410,1410,1410,1410,1410,1410,1410,1410,1410,1410,1404,1404,1398,1398,1398,1392,1392,1392,1387,1387,1381,1381,1376,1376,1370,1370,1370,1365,1365,1354,1354,1349,1349,1349,1343,1343,1338,1333,1333,1333,1333,1328,1322,1317,1317,1312,1312,1307,1307,1302,1297,1297,1292,1292,1292,1288,1288,1288,1283,1278,1273,1273,1273,1268,1268,1264,1264,1259,1255,1250,1250,1245,1241,1236,1236,1236,1236,1232,1232,1227,1227,1223,1219,1214,1214,1210,1210,1210,1206,1202,1202,1202,1197,1197,1197,1193,1189,1185,1185,1185,1185,1181,1177,1173,1173,1169,1169,1165,1165,1165,1161,1153,1153,1153,1153,1153,1149,1149,1149,1145,1145,1141,1138,1138,1134,1134,1130,1123,1123,1123,1119,1119,1119,1119,1115,1112,1108,1108,1105,1101,1101,1097,1094,1094,1090,1090,1090,1090,1087,1084,1084,1080,1080,1077,1077,1073,1070,1067,1067,1063,1063,1060,1060,1057,1057,0,0,0,0,0,0,0,0,0,0,0,0,0,0,0,0,0,0,0,0,0,0,0,0,0,0,0,0,0,0,0,0
0,0,0,0,0,0,0,0,0,0,0,1516,1509,1509,1509,1509,1509,1503,1496,1496,1503,1503,1503,1496,1496,1503,1496,1496,1496,1496,1496,1503,1496,1496,1496,1496,1496,1503,1503,1496,1496,1503,1503,1503,1503,1503,1496,1496,1496,1496,1489,1489,1489,1483,1483,1483,1483,1496,1496,1496,1496,1489,1489,1489,1483,1464,1458,1458,1458,0,0,0,1025,1022,1022,1022,1022,1022,1022,1022,1022,1022,1025,1025,1025,1028,1031,1031,1031,1031,0,0,0,0,0,0,0,0,0,0,0,680,680,682,682,682,682,682,683,683,684,686,686,687,687,687,687,688,688,690,691,693,693,693,693,694,694,696,696,694,694,0,0,0,0,0,0,0,0,0,0,1496,1489,1483,1483,1483,1483,1483,1483,1483,1483,1483,1483,1483,1483,1483,1483,1483,1483,1483,1483,1477,1477,1477,1477,1477,1477,1477,1477,1477,1477,1477,1470,1470,1470,1470,1470,1470,1470,1470,1470,1470,1477,1477,1483,1483,1483,1489,1489,1161,1161,1161,1161,1489,1489,1489,1165,1165,1489,1489,1177,1177,1177,1177,1177,1177,1177,1177,1177,1181,1181,1181,1181,1181,1181,1181,1185,1185,1185,1185,1189,1189,1189,1189,1189,1189,1193,1193,1193,1193,1193,1197,1197,1197,1202,1202,1202,1206,1206,1210,1210,1210,1210,1214,1214,1214,1214,1214,1219,1219,1219,1223,1223,1223,1223,1227,1227,1227,1227,1232,1232,1232,1232,1232,1236,1236,1236,1236,1236,1236,1241,1241,1245,1245,1245,1245,1245,1245,1464,1464,1458,1458,1458,1452,1452,1452,1452,1452,1452,1445,1445,1445,1445,1445,1445,1445,1445,1445,1445,1445,1445,1445,1445,1439,1439,1439,1439,1439,1439,1439,1439,1439,1439,1439,1439,1433,1433,1445,1445,0,0,0,0,0,0,946,946,946,943,943,940,938,938,938,935,935,935,935,938,938,940,940,943,943,946,946,948,948,948,948,951,0,0,0,0,1433,1433,1433,1433,1427,1427,1427,1433,1427,1427,1427,1427,1427,1427,1421,1421,1421,1421,1421,1421,1421,1421,1421,1421,1421,1421,1421,1421,1421,1421,1421,1421,1415,1415,1415,1415,1415,1415,1415,1415,1415,1415,1415,1415,1415,1415,1415,1415,1415,1421,1421,1421,1421,1421,1421,1415,1415,1415,1415,1415,1415,1415,1415,1415,1415,1415,1415,1415,1415,1415,1415,1415,1410,1410,1415,1415,1415,1415,1415,1415,1415,1415,1415,1415,1410,1410,1410,1410,1404,1404,1404,1404,1404,1404,1404,1410,1404,1404,1398,1398,1398,1398,1398,1392,1392,1392,1387,1387,1381,1381,1376,1376,1370,1370,1370,1365,1365,1354,1354,1354,1349,1349,1343,1343,1338,1338,1333,1333,1333,1328,1322,1322,1317,1312,1312,1307,1307,1302,1297,1297,1292,1292,1292,1288,1288,1288,1283,1278,1273,1273,1273,1268,1268,1268,1264,1259,1255,1250,1250,1245,1245,1241,1236,1236,1236,1236,1232,1232,1227,1223,1219,1214,1214,1214,1210,1210,1206,1206,1202,1202,1197,1197,1197,1193,1189,1189,1185,1185,1185,1181,1181,1177,1173,1169,1169,1165,1165,1165,1161,1153,1153,1153,1153,1153,1149,1149,1149,1145,1145,1141,1138,1138,1138,1134,1130,1123,1123,1123,1123,1119,1119,1119,1115,1112,1112,1108,1105,1101,1101,1097,1094,1094,1090,1090,1090,1090,1087,1087,1084,1080,1080,1077,1077,1077,1070,1070,1067,1067,1063,1063,1060,1060,1060,0,0,0,0,0,0,0,0,0,0,0,0,0,0,0,0,0,0,0,0,0,0,0,0,0,0,0,0,0,0,0,0
0,0,0,0,0,0,0,0,0,0,0,1509,1503,1503,1503,1503,1503,1496,1496,1496,1496,1503,1496,1489,1489,1496,1496,1496,1496,1489,1489,1496,1496,1496,1496,1489,1489,1496,1496,1496,1496,1496,1496,1496,1496,1496,1496,1496,1489,1489,1489,1489,1489,1483,1483,1483,1483,1489,1489,1489,1489,1489,1489,1483,1483,1464,1458,1458,1458,0,0,0,0,1022,1022,1022,1022,1022,1022,1022,1022,1025,1025,1028,1028,1031,1031,1031,1031,1031,1031,0,0,0,0,0,0,0,0,0,0,682,682,682,682,682,682,683,683,683,684,686,687,687,688,690,690,691,691,691,691,693,693,694,694,696,696,697,696,691,691,0,0,0,0,0,0,0,0,0,0,1496,1483,1483,1483,1477,1477,1477,1470,1470,1477,1477,1477,1477,1477,1477,1477,1477,1477,1477,1477,1477,1477,1464,1464,1464,1464,1470,1470,1470,1470,1470,1470,1470,1470,1470,1470,1470,1470,1464,1464,1470,1470,1470,1477,1157,1157,1157,1157,1161,1161,1161,1161,1165,1165,1165,1165,1165,1169,1169,1169,1173,1177,1177,1177,1177,1177,1177,1177,1177,1181,1181,1181,1181,1181,1181,1181,1185,1185,1185,1185,1189,1189,1189,1189,1189,1193,1193,1193,1197,1197,1197,1197,1197,1202,1202,1202,1206,1210,1210,1210,1210,1210,1214,1214,1214,1214,1219,1219,1219,1223,1223,1223,1223,1223,1223,1227,1227,1232,1232,1232,1232,1236,1236,1236,1236,1236,1236,1241,1241,1241,1245,1245,1245,1245,1245,1245,1245,1458,1458,1458,1452,1452,1445,1445,1445,1445,1445,1445,1439,1439,1439,1439,1439,1439,1439,1439,1439,1439,1445,1439,1439,1439,1439,1439,1439,1439,1439,1439,1439,1433,1433,1433,1433,1433,1433,1433,1439,1439,0,0,0,0,0,0,948,948,946,946,943,940,938,938,938,938,938,938,938,938,938,940,943,943,946,946,948,948,948,948,948,951,951,0,0,0,1427,1427,1427,1427,1427,1421,1421,1421,1421,1421,1421,1421,1421,1421,1415,1415,1415,1415,1415,1415,1415,1421,1421,1421,1421,1415,1415,1415,1415,1415,1415,1415,1415,1415,1410,1410,1410,1410,1410,1410,1410,1410,1415,1415,1415,1415,1415,1415,1415,1415,1415,1415,1415,1415,1415,1415,1410,1410,1415,1410,1410,1410,1410,1410,1410,1410,1410,1410,1410,1410,1410,1410,1404,1404,1410,1410,1410,1410,1410,1410,1410,1410,1410,1410,1404,1404,1404,1404,1404,1404,1404,1398,1398,1398,1398,1398,1398,1398,1398,1398,1392,1392,1392,1392,1392,1392,1387,1387,1381,1376,1376,1376,1370,1370,1370,1370,1365,1359,1354,1354,1349,1349,1349,1343,1338,1338,1338,1333,1333,1333,1328,1322,1322,1317,1312,1307,1307,1302,1297,1297,1292,1292,1292,1288,1288,1288,1283,1278,1273,1273,1273,1268,1268,1268,1264,1264,1255,1255,1250,1245,1245,1241,1236,1236,1236,1236,1232,1232,1227,1227,1223,1214,1214,1214,1210,1210,1206,1206,1202,1202,1202,1197,1197,1193,1193,1189,1185,1185,1185,1181,1181,1177,1173,1169,1169,1169,1165,1165,1161,1157,1153,1153,1153,1153,1153,1149,1149,1145,1145,1141,1138,1138,1138,1134,1130,1123,1123,1123,1123,1119,1119,1119,1115,1112,1112,1108,1105,1101,1101,1097,1094,1094,1090,1090,1090,1090,1087,1087,1084,1080,1080,1080,1077,1077,1070,1070,1067,1067,1067,1063,1063,1060,1060,0,0,0,0,0,0,0,0,0,0,0,0,0,0,0,0,0,0,0,0,0,0,0,0,0,0,0,0,0,0,0,0
0,0,0,0,0,0,0,0,0,0,0,1489,1489,1489,1489,1496,1496,1489,1489,1489,1496,1489,1489,1489,1489,1489,1489,1489,1489,1489,1489,1489,1489,1489,1489,1489,1489,1489,1496,1496,1496,1489,1489,1489,1489,1489,1489,1489,1489,1489,1489,1489,1489,1477,1477,1477,1477,1489,1489,1489,1489,1489,1483,1483,1483,1464,1464,1464,1464,1464,0,0,0,1022,1022,1022,1022,1022,1022,1022,1025,1025,1028,1028,1028,1031,1031,1031,1031,1031,1031,1034,1034,0,0,0,0,0,0,0,0,0,682,682,682,683,683,683,684,684,686,687,687,688,690,690,691,691,691,691,693,693,694,694,696,696,697,697,697,691,691,0,0,0,0,0,0,0,0,0,0,0,1477,1477,1477,1470,1470,1470,1464,1464,1464,1464,1470,1470,1470,1470,1470,1470,1470,1477,1477,1464,1464,1464,1464,1464,1464,1464,1464,1464,1464,1470,1464,1464,1464,1464,1464,1464,1470,1464,1464,1464,1470,1470,1470,1153,1153,1157,1157,1161,1161,1161,1161,1165,1165,1165,1165,1165,1165,1165,1169,1169,1169,1173,1173,1173,1177,1177,1177,1177,1177,1177,1181,1181,1181,1181,1181,1181,1185,1185,1185,1189,1189,1193,1193,1193,1193,1193,1193,1197,1197,1197,1197,1197,1202,1202,1206,1210,1210,1210,1210,1210,1214,1214,1214,1214,1214,1214,1219,1219,1223,1223,1223,1223,1223,1223,1227,1227,1232,1236,1241,1241,1241,1241,1241,1241,1241,1241,1241,1241,1241,1245,1245,1245,1245,1245,1245,1245,1245,1458,1452,1445,1445,1439,1439,1439,1439,1439,1439,1439,1433,1433,1433,1433,1439,1439,1439,1439,1439,1439,1439,1439,1439,1433,1433,1433,1433,1433,1433,1433,1433,1433,1433,1433,1427,1427,1427,1433,1439,0,0,0,0,0,0,951,948,948,948,946,943,940,940,938,938,938,938,938,938,940,943,943,946,946,946,948,948,951,951,951,951,956,0,0,0,1427,1421,1421,1421,1421,1421,1421,1421,1421,1415,1415,1415,1415,1415,1415,1415,1410,1410,1410,1410,1410,1415,1415,1415,1410,1410,1410,1410,1404,1404,1410,1410,1410,1410,1410,1410,1410,1410,1410,1410,1410,1410,1410,1410,1410,1410,1410,1410,1410,1415,1410,1410,1410,1410,1410,1410,1404,1404,1410,1404,1404,1404,1404,1404,1404,1404,1404,1404,1404,1404,1404,1404,1398,1398,1398,1404,1404,1404,1398,1398,1404,1404,1404,1404,1398,1398,1398,1398,1398,1398,1398,1398,1398,1398,1398,1398,1398,1392,1392,1392,1392,1392,1392,1387,1387,1387,1387,1381,1381,1376,1376,1376,1370,1370,1370,1370,1365,1359,1354,1354,1349,1349,1349,1349,1343,1338,1338,1333,1333,1333,1328,1322,1322,1317,1312,1307,1307,1302,1302,1297,1297,1292,1292,1288,1288,1288,1283,1278,1278,1273,1273,1268,1268,1268,1264,1264,1259,1255,1250,1250,1245,1245,1241,1236,1236,1236,1232,1232,1227,1227,1223,1214,1214,1214,1210,1210,1206,1206,1202,1202,1202,1197,1197,1193,1189,1189,1185,1185,1185,1181,1181,1177,1173,1169,1169,1169,1165,1165,1161,1157,1157,1153,1153,1153,1153,1149,1149,1145,1145,1141,1138,1138,1138,1134,1130,1126,1123,1123,1123,1119,1119,1119,1119,1115,1112,1108,1105,1101,1101,1097,1094,1094,1094,1094,1090,1090,1090,1087,1087,1084,1080,1080,1080,1077,1070,1070,1067,1067,1067,1063,1060,1057,1057,0,0,0,0,0,0,0,0,0,0,0,0,0,0,0,0,0,0,0,0,0,0,0,0,0,0,0,0,0,0,0,0
0,0,0,0,0,0,0,0,0,0,0,1489,1489,1489,1483,1483,1489,1483,1483,1483,1489,1489,1489,1483,1483,1489,1489,1489,1489,1483,1483,1489,1483,1483,1483,1483,1483,1483,1489,1489,1489,1489,1489,1489,1489,1489,1489,1489,1489,1489,1489,1483,1483,1477,1477,1477,1477,1483,1483,1483,1483,1483,1483,1483,1470,1464,1464,1464,1464,1464,0,0,0,0,1025,1022,1022,1022,1022,1022,1025,1025,1028,1028,1031,1031,1031,1034,1031,1031,1031,1034,1034,0,0,0,0,0,0,0,0,0,682,682,683,683,683,684,684,686,686,687,687,688,690,691,691,691,691,693,693,694,694,696,697,697,697,697,697,697,697,0,0,0,0,0,0,0,0,0,0,0,1464,1464,1464,1464,1464,1464,1464,1464,1464,1464,1464,1464,1464,1464,1464,1464,1464,1464,1464,1464,1464,1464,1464,1464,1464,1464,1464,1464,1464,1464,1464,1464,1464,1464,1464,1464,1470,1464,1464,1464,1464,1149,1149,1149,1153,1157,1161,1161,1161,1161,1161,1161,1165,1165,1165,1165,1165,1165,1165,1165,1169,1169,1173,1173,1173,1173,1173,1177,1177,1177,1181,1181,1181,1181,1181,1181,1185,1185,1185,1189,1189,1193,1193,1193,1197,1197,1197,1197,1197,1197,1197,1197,1202,1202,1206,1210,1210,1210,1210,1210,1210,1214,1214,1214,1214,1214,1219,1219,1223,1223,1223,1223,1223,1223,1223,1232,1236,1241,1245,1245,1245,1245,1245,1245,1241,1241,1241,1245,1245,1245,1245,1245,1245,1250,1250,1245,1245,1445,1445,1439,1439,1439,1439,1439,1433,1433,1433,1433,1433,1433,1433,1433,1433,1433,1433,1433,1433,1433,1433,1433,1433,1433,1433,1433,1427,1427,1421,1421,1421,1427,1427,1427,1421,1421,1421,1433,1433,0,0,0,0,0,956,956,951,951,948,948,946,943,940,940,938,938,938,938,938,940,943,946,946,946,948,948,951,951,951,951,954,956,0,0,0,0,1421,1421,1421,1415,1415,1415,1415,1415,1415,1410,1410,1410,1410,1410,1410,1410,1410,1410,1404,1404,1404,1404,1404,1404,1404,1404,1404,1404,1404,1404,1404,1404,1404,1404,1404,1404,1404,1404,1404,1404,1404,1404,1398,1398,1398,1398,1398,1404,1410,1410,1410,1410,1410,1410,1404,1398,1398,1404,1398,1398,1398,1398,1398,1398,1398,1398,1398,1398,1398,1398,1398,1398,1398,1398,1398,1398,1398,1398,1398,1398,1398,1398,1398,1398,1398,1392,1392,1392,1392,1392,1392,1392,1392,1392,1392,1392,1392,1387,1387,1387,1387,1387,1381,1376,1376,1381,1381,1376,1376,1376,1370,1370,1370,1370,1370,1365,1359,1354,1354,1354,1349,1349,1349,1343,1343,1338,1333,1333,1333,1333,1328,1322,1317,1312,1307,1307,1307,1302,1297,1297,1292,1292,1292,1288,1288,1288,1283,1278,1273,1273,1273,1268,1268,1264,1264,1259,1255,1255,1250,1250,1245,1241,1236,1236,1236,1232,1232,1227,1227,1223,1214,1214,1214,1210,1210,1206,1206,1202,1202,1202,1197,1197,1193,1189,1189,1185,1185,1185,1181,1181,1177,1173,1169,1169,1169,1165,1165,1161,1161,1157,1157,1157,1153,1153,1149,1149,1149,1145,1141,1141,1138,1138,1134,1130,1126,1123,1123,1123,1119,1119,1119,1119,1115,1112,1108,1105,1105,1105,1101,1094,1094,1094,1094,1090,1090,1090,1087,1087,1084,1080,1080,1080,1077,1070,1070,1067,1067,1067,1063,1060,1057,1057,0,0,0,0,0,0,0,0,0,0,0,0,0,0,0,0,0,0,0,0,0,0,0,0,0,0,0,0,0,0,0,0
0,0,0,0,0,0,0,0,0,0,0,1483,1483,1483,1483,1483,1477,1477,1477,1477,1483,1483,1483,1477,1477,1483,1483,1483,1483,1477,1477,1483,1483,1483,1483,1477,1477,1477,1483,1483,1483,1483,1483,1483,1483,1489,1489,1489,1483,1483,1483,1483,1477,1477,1477,1477,1477,1477,1477,1477,1477,1477,1477,1477,1470,1464,1464,1464,1464,1464,1464,0,0,0,0,1022,1022,1025,1025,1025,1025,1025,1028,1028,1031,1031,1031,1034,1034,1034,1034,1034,1034,0,0,0,0,0,0,0,0,0,0,683,683,683,684,684,686,686,687,687,687,688,690,691,691,691,693,693,693,694,696,696,697,697,698,698,698,698,700,0,0,0,0,0,0,0,0,0,0,0,1464,1464,1464,1458,1458,1458,1458,1458,1458,1458,1458,1458,1458,1458,1458,1458,1458,1458,1458,1458,1458,1458,1458,1458,1464,1464,1464,1464,1464,1464,1464,1464,1464,1464,1464,1464,1464,1464,1149,1149,1149,1149,1149,1149,1153,1157,1157,1161,1161,1161,1161,1161,1161,1161,1161,1165,1165,1165,1165,1165,1165,1169,1173,1173,1173,1173,1173,1177,1177,1177,1177,1181,1181,1181,1181,1181,1185,1185,1189,1189,1193,1193,1193,1193,1197,1197,1197,1197,1197,1197,1197,1202,1202,1206,1206,1210,1210,1210,1210,1210,1210,1214,1214,1214,1214,1214,1219,1219,1223,1223,1433,1433,1433,1223,1223,1427,1250,1250,1250,1245,1245,1245,1245,1245,1245,1245,1245,1245,1245,1245,1245,1245,1250,1250,1245,1245,1245,1439,1439,1433,1433,1433,1433,1433,1433,1433,1433,1433,1427,1427,1427,1427,1427,1427,1427,1427,1427,1427,1427,1427,1427,1427,1427,1421,1421,1421,1415,1415,1415,1415,1415,1415,1415,1415,1421,1421,1421,0,0,0,0,0,956,956,956,954,954,951,946,943,943,940,940,940,940,940,940,940,943,946,946,948,948,948,951,951,954,954,954,956,0,0,0,0,1415,1415,1415,1415,1410,1410,1410,1410,1404,1404,1404,1410,1404,1404,1404,1404,1404,1404,1404,1404,1404,1404,1398,1398,1398,1398,1398,1398,1398,1398,1398,1398,1398,1398,1398,1398,1398,1398,1398,1398,1398,1398,1398,1398,1398,1398,1398,1398,1398,1398,1398,1398,1398,1404,1398,1398,1398,1398,1398,1398,1392,1392,1392,1392,1392,1398,1398,1398,1398,1398,1398,1398,1392,1392,1392,1392,1392,1392,1392,1392,1392,1392,1392,1392,1392,1392,1392,1392,1387,1387,1387,1387,1387,1387,1387,1387,1381,1381,1381,1381,1381,1381,1376,1376,1376,1376,1376,1376,1376,1376,1370,1370,1370,1370,1370,1359,1359,1354,1354,1349,1349,1349,1349,1343,1343,1338,1338,1333,1333,1333,1328,1322,1317,1312,1307,1307,1307,1302,1302,1297,1292,1292,1292,1288,1288,1288,1283,1278,1273,1273,1273,1268,1268,1264,1259,1259,1255,1255,1250,1250,1245,1241,1236,1236,1236,1232,1232,1232,1227,1223,1219,1214,1214,1210,1210,1206,1206,1202,1202,1202,1202,1197,1197,1193,1189,1185,1185,1185,1181,1181,1181,1177,1173,1169,1169,1165,1165,1165,1161,1157,1157,1157,1153,1153,1149,1149,1149,1145,1145,1141,1138,1138,1134,1130,1126,1126,1126,1123,1123,1119,1119,1119,1115,1112,1108,1108,1105,1105,1101,1097,1094,1094,1094,1090,1090,1090,1090,1087,1084,1080,1080,1080,1077,1073,1070,1070,1070,1067,1063,1060,1060,1060,0,0,0,0,0,0,0,0,0,0,0,0,0,0,0,0,0,0,0,0,0,0,0,0,0,0,0,0,0,0,0,0
0,0,0,0,0,0,0,0,0,0,0,1483,1483,1477,1477,1477,1477,1470,1470,1470,1470,1470,1470,1470,1470,1477,1477,1483,1483,1477,1477,1477,1477,1477,1477,1477,1470,1470,1477,1477,1477,1477,1477,1477,1477,1483,1483,1483,1477,1477,1477,1477,1470,1470,1470,1470,1470,1470,1470,1477,1470,1470,1470,1470,1470,1464,1464,1464,1464,1464,1464,0,0,0,0,0,1025,1025,1025,1025,1025,1028,1028,1031,1031,1031,1034,1034,1034,1034,1034,1034,1034,1038,0,0,0,0,0,0,0,0,0,0,683,683,684,684,686,686,687,687,687,690,691,691,691,693,693,693,694,694,696,696,697,697,698,698,698,698,701,0,0,0,0,0,0,0,0,0,0,0,1470,1458,1458,1452,1452,1452,1452,1452,1445,1445,1452,1452,1452,1452,1452,1445,1445,1452,1452,1452,1458,1458,1458,1458,1458,1458,1458,1458,1464,1464,1464,1464,1464,1464,1149,1149,1149,1153,1149,1149,1149,1149,1149,1153,1153,1157,1157,1157,1157,1161,1161,1161,1161,1161,1161,1165,1165,1165,1165,1165,1165,1169,1173,1173,1173,1173,1177,1177,1177,1177,1177,1181,1181,1181,1181,1181,1185,1185,1189,1189,1193,1193,1193,1197,1197,1197,1197,1197,1202,1202,1202,1202,1206,1206,1206,1210,1210,1210,1210,1210,1210,1210,1210,1210,1214,1214,1427,1433,1433,1433,1433,1433,1433,1433,1427,1427,1259,1255,1250,1250,1250,1250,1250,1250,1245,1245,1245,1245,1245,1245,1245,1250,1250,1250,1245,1245,1245,1427,1427,1421,1421,1427,1427,1427,1427,1427,1427,1427,1421,1421,1421,1421,1421,1421,1421,1421,1421,1421,1421,1421,1421,1421,1421,1415,1415,1415,1415,1415,1415,1415,1415,1410,1410,1410,1415,1415,1415,0,0,0,0,0,959,959,956,956,954,951,948,946,946,946,943,940,940,940,940,943,943,946,946,948,948,948,954,954,954,954,956,956,0,0,0,1410,1410,1410,1410,1410,1404,1404,1404,1404,1404,1398,1398,1404,1398,1398,1398,1398,1398,1398,1398,1398,1398,1398,1398,1398,1398,1398,1398,1398,1398,1398,1398,1398,1398,1398,1398,1398,1398,1398,1398,1392,1392,1392,1392,1392,1392,1392,1392,1392,1392,1392,1392,1392,1392,1392,1392,1392,1392,1392,1392,1392,1392,1392,1392,1392,1392,1392,1392,1392,1392,1392,1392,1392,1392,1392,1392,1387,1387,1387,1387,1387,1387,1387,1392,1392,1392,1387,1387,1387,1387,1381,1381,1381,1381,1381,1381,1381,1381,1376,1376,1376,1376,1376,1376,1376,1376,1376,1376,1376,1376,1376,1370,1370,1370,1370,1370,1359,1359,1354,1354,1349,1349,1349,1349,1343,1343,1338,1338,1333,1333,1333,1328,1322,1317,1312,1312,1307,1307,1307,1302,1297,1292,1292,1288,1288,1288,1288,1283,1278,1273,1273,1273,1273,1268,1268,1259,1259,1255,1255,1250,1245,1245,1241,1236,1236,1236,1232,1232,1232,1232,1223,1219,1214,1214,1210,1210,1206,1206,1202,1202,1202,1202,1197,1197,1193,1189,1185,1185,1185,1181,1181,1177,1177,1173,1169,1169,1165,1165,1165,1161,1161,1157,1157,1153,1153,1149,1149,1149,1145,1145,1141,1141,1138,1138,1130,1126,1126,1126,1123,1123,1119,1119,1119,1115,1112,1108,1108,1105,1105,1105,1101,1097,1094,1094,1094,1094,1090,1090,1087,1084,1080,1080,1080,1077,1073,1073,1070,1070,1067,1063,1063,1060,1060,0,0,0,0,0,0,0,0,0,0,0,0,0,0,0,0,0,0,0,0,0,0,0,0,0,0,0,0,0,0,0,0
0,0,0,0,0,0,0,0,0,0,0,1477,1477,1470,1470,1470,1464,1464,1464,1464,1464,1464,1464,1464,1464,1464,1464,1464,1477,1470,1470,1470,1464,1464,1470,1464,1464,1470,1470,1470,1470,1470,1470,1470,1470,1470,1477,1464,1464,1470,1470,1470,1464,1464,1464,1464,1464,1464,1464,1470,1470,1464,1464,1464,1464,1464,1464,1464,1464,1464,1464,0,0,0,0,0,1028,1025,1025,1025,1025,1028,1028,1031,1031,1031,1034,1034,1034,1034,1034,1034,1038,1038,0,0,0,0,0,0,0,0,0,0,683,683,686,686,686,686,687,687,687,690,691,691,691,693,693,693,694,694,696,696,697,698,698,698,698,700,701,0,0,0,0,0,0,0,0,0,0,0,1452,1452,1452,1445,1445,1452,1452,1452,1445,1445,1445,1445,1445,1445,1445,1445,1445,1445,1445,1445,1452,1452,1452,1458,1458,1458,1458,1458,1458,1464,1464,1145,1145,1145,1145,1145,1149,1149,1149,1149,1149,1149,1149,1153,1153,1157,1157,1157,1157,1157,1157,1157,1161,1161,1161,1161,1165,1165,1165,1165,1165,1169,1169,1173,1173,1173,1177,1177,1177,1177,1181,1181,1181,1181,1181,1181,1185,1185,1189,1189,1193,1193,1193,1197,1197,1197,1197,1202,1202,1202,1202,1206,1206,1206,1206,1210,1210,1210,1210,1206,1206,1210,1210,1210,1427,1421,1421,1427,1427,1427,1427,1427,1427,1427,1427,1421,1264,1259,1255,1255,1255,1250,1250,1250,1250,1245,1245,1245,1245,1245,1250,1250,1250,1250,1250,1245,1245,1410,1410,1415,1415,1415,1415,1415,1415,1421,1421,1421,1415,1415,1415,1415,1415,1415,1415,1415,1415,1415,1415,1415,1415,1415,1415,1415,1415,1415,1415,1410,1410,1410,1410,1410,1410,1410,1410,1410,1410,0,0,0,0,0,959,959,959,956,956,954,951,948,946,946,943,943,943,943,943,943,946,946,948,948,948,951,954,954,954,954,956,956,0,0,0,1404,1404,1404,1404,1404,1398,1398,1398,1398,1398,1398,1398,1398,1398,1398,1398,1398,1398,1398,1398,1398,1398,1398,1392,1392,1392,1392,1392,1392,1392,1392,1392,1392,1392,1392,1392,1392,1392,1392,1392,1387,1387,1387,1387,1387,1387,1387,1387,1387,1387,1387,1387,1387,1381,1381,1387,1387,1387,1387,1387,1392,1392,1387,1387,1387,1387,1392,1392,1392,1392,1392,1392,1392,1392,1392,1387,1387,1387,1381,1381,1381,1381,1387,1387,1387,1387,1381,1381,1381,1381,1376,1376,1376,1376,1376,1376,1376,1376,1376,1376,1376,1376,1370,1370,1370,1370,1370,1370,1370,1370,1370,1370,1370,1370,1370,1365,1359,1354,1354,1354,1354,1349,1349,1349,1343,1343,1343,1343,1338,1333,1333,1328,1322,1317,1312,1312,1307,1307,1307,1302,1297,1292,1292,1288,1288,1288,1288,1283,1278,1278,1273,1273,1273,1268,1268,1264,1264,1259,1255,1250,1245,1245,1241,1236,1236,1236,1232,1232,1232,1232,1223,1219,1219,1214,1214,1214,1210,1206,1202,1202,1202,1202,1197,1197,1197,1189,1185,1185,1185,1181,1181,1177,1177,1173,1169,1169,1165,1165,1165,1165,1161,1161,1157,1153,1153,1153,1149,1149,1149,1145,1141,1141,1138,1134,1130,1130,1126,1126,1123,1123,1119,1119,1119,1115,1112,1112,1108,1105,1105,1105,1101,1097,1097,1097,1094,1094,1090,1090,1087,1084,1084,1084,1080,1077,1077,1073,1070,1070,1067,1063,1063,1063,1063,0,0,0,0,0,0,0,0,0,0,0,0,0,0,0,0,0,0,0,0,0,0,0,0,0,0,0,0,0,0,0,0
0,0,0,0,0,0,0,0,0,0,0,1470,1470,1470,1464,1464,1464,1464,1458,1458,1458,1458,1458,1458,1458,1458,1458,1458,1458,1458,1464,1464,1464,1464,1470,1464,1464,1470,1470,1470,1470,1470,1464,1464,1464,1464,1464,1464,1464,1464,1464,1464,1464,1464,1464,1464,1464,1464,1464,1464,1464,1464,1464,1458,1458,1464,1458,1458,1458,1464,1464,0,0,0,0,0,0,1025,1025,1025,1025,1031,1031,1031,1034,1034,1034,1034,1038,1038,1038,1038,1038,1038,0,0,0,0,0,0,0,0,0,0,684,684,686,686,686,687,687,687,688,690,691,693,693,693,693,693,694,694,696,696,697,698,698,698,698,700,701,0,0,0,0,0,0,0,0,0,0,0,1452,1445,1445,1445,1445,1445,1445,1445,1439,1439,1439,1439,1439,1439,1439,1439,1439,1439,1439,1439,1452,1452,1452,1452,1452,1458,1458,1134,1134,1138,1141,1141,1141,1145,1145,1145,1149,1149,1149,1149,1149,1149,1149,1149,1153,1153,1157,1153,1153,1153,1153,1153,1157,1157,1161,1161,1161,1161,1165,1165,1165,1169,1169,1173,1173,1173,1177,1177,1177,1181,1181,1181,1181,1181,1185,1185,1185,1189,1189,1193,1193,1197,1197,1197,1197,1197,1202,1202,1202,1202,1202,1206,1206,1202,1202,1206,1206,1206,1206,1206,1206,1421,1421,1421,1421,1421,1421,1421,1421,1421,1427,1421,1421,1427,1427,1421,1421,1264,1259,1259,1255,1255,1255,1250,1250,1250,1250,1250,1250,1250,1250,1250,1250,1250,1250,1250,1250,1392,1404,1404,1410,1410,1410,1410,1410,1410,1410,1410,1410,1415,1415,1415,1410,1410,1410,1410,1410,1410,1410,1410,1410,1410,1410,1410,1410,1410,1410,1410,1410,1410,1404,1404,1404,1404,1410,1410,1404,1404,0,0,0,0,0,0,959,959,956,954,951,948,948,946,946,943,943,943,943,946,946,948,948,948,948,951,954,954,954,956,956,956,0,0,0,0,1398,1398,1398,1398,1398,1398,1398,1398,1392,1392,1392,1392,1392,1392,1392,1392,1392,1392,1392,1392,1392,1392,1392,1392,1392,1392,1392,1392,1392,1392,1392,1392,1392,1392,1392,1387,1387,1387,1381,1381,1381,1381,1381,1381,1381,1381,1381,1381,1381,1381,1381,1381,1376,1376,1381,1381,1381,1381,1381,1381,1381,1381,1381,1381,1387,1387,1387,1387,1387,1387,1387,1392,1387,1387,1387,1381,1381,1376,1376,1376,1376,1376,1376,1381,1381,1376,1376,1376,1376,1376,1376,1376,1376,1376,1376,1376,1376,1376,1376,1370,1370,1370,1370,1370,1370,1370,1370,1370,1370,1370,1370,1370,1370,1365,1359,1354,1354,1354,1354,1354,1349,1349,1349,1349,1349,1343,1343,1338,1333,1333,1328,1328,1322,1317,1312,1312,1307,1307,1307,1297,1292,1292,1288,1288,1288,1288,1283,1283,1278,1273,1273,1273,1268,1268,1264,1264,1259,1255,1250,1250,1245,1241,1236,1236,1236,1232,1232,1232,1232,1223,1219,1219,1214,1214,1214,1210,1206,1202,1202,1202,1202,1197,1197,1197,1189,1185,1185,1185,1181,1181,1181,1177,1173,1173,1169,1169,1165,1165,1165,1165,1161,1157,1157,1153,1153,1149,1149,1149,1145,1141,1141,1138,1134,1134,1130,1126,1126,1123,1123,1119,1119,1119,1115,1115,1112,1108,1108,1108,1105,1105,1101,1097,1097,1094,1094,1090,1090,1090,1087,1084,1084,1080,1080,1077,1077,1073,1070,1067,1067,1063,1063,1063,0,0,0,0,0,0,0,0,0,0,0,0,0,0,0,0,0,0,0,0,0,0,0,0,0,0,0,0,0,0,0,0
0,0,0,0,0,0,0,0,0,0,0,1464,1464,1464,1464,1458,1458,1458,1458,1458,1458,1458,1458,1458,1458,1458,1458,1452,1452,1452,1458,1452,1452,1458,1458,1464,1464,1464,1464,1464,1464,1464,1458,1458,1464,1464,1464,1464,1458,1458,1458,1458,1458,1458,1464,1464,1464,1464,1464,1464,1464,1458,1458,1458,1458,1458,1458,1452,1445,1445,1458,0,0,0,0,0,0,1025,1025,1025,1031,1031,1031,1034,1034,1034,1034,1038,1038,1038,1038,1038,1038,1041,0,0,0,0,0,0,0,0,0,0,0,686,686,686,687,687,687,688,688,691,691,693,693,693,693,694,694,694,696,697,697,698,698,698,698,700,701,701,0,0,0,0,0,0,0,0,0,0,1445,1445,1445,1439,1439,1439,1439,1439,1439,1439,1439,1439,1439,1439,1134,1134,1134,1134,1134,1138,1138,1445,1452,1138,1138,1138,1138,1134,1134,1138,1141,1141,1141,1145,1145,1145,1145,1145,1145,1149,1149,1149,1149,1149,1149,1153,1153,1153,1153,1153,1153,1153,1153,1153,1157,1161,1161,1161,1165,1165,1165,1173,1173,1173,1173,1173,1177,1177,1177,1181,1181,1181,1181,1181,1185,1185,1189,1189,1193,1193,1193,1197,1197,1197,1197,1202,1202,1202,1202,1202,1202,1202,1202,1197,1197,1197,1206,1206,1206,1415,1415,1415,1415,1421,1415,1415,1415,1415,1415,1421,1421,1415,1415,1421,1421,1415,1415,1268,1264,1259,1259,1255,1255,1250,1250,1250,1250,1250,1250,1250,1250,1250,1255,1250,1250,1250,1392,1392,1398,1404,1410,1410,1410,1410,1410,1410,1410,1410,1410,1410,1404,1404,1410,1410,1410,1410,1404,1404,1404,1404,1404,1404,1404,1404,1410,1404,1404,1404,1404,1404,1398,1398,1404,1404,1398,1398,1398,1398,0,0,0,0,0,0,959,959,956,954,951,951,948,946,946,946,946,946,946,946,946,948,948,951,951,954,956,956,956,956,956,956,0,0,0,1392,1392,1392,1392,1392,1392,1392,1392,1392,1392,1392,1392,1392,1392,1392,1392,1392,1392,1392,1392,1392,1392,1392,1387,1387,1387,1387,1387,1387,1387,1387,1387,1387,1387,1387,1381,1381,1381,1381,1381,1376,1376,1381,1381,1376,1376,1381,1376,1376,1376,1376,1376,1376,1376,1376,1376,1376,1376,1376,1376,1376,1376,1376,1376,1376,1376,1376,1381,1381,1381,1381,1381,1387,1381,1381,1381,1376,1376,1376,1376,1376,1376,1376,1376,1376,1376,1376,1376,1376,1376,1376,1376,1376,1376,1370,1370,1370,1370,1370,1370,1370,1370,1370,1370,1370,1365,1365,1370,1370,1370,1370,1365,1365,1365,1365,1359,1354,1354,1354,1354,1354,1349,1349,1349,1349,1349,1343,1343,1338,1333,1333,1328,1328,1322,1317,1317,1312,1312,1312,1307,1302,1292,1292,1288,1288,1288,1288,1283,1283,1278,1278,1273,1273,1268,1268,1264,1259,1259,1255,1255,1250,1245,1241,1241,1236,1236,1236,1232,1232,1232,1227,1223,1219,1219,1214,1214,1210,1206,1202,1202,1202,1202,1197,1197,1193,1189,1185,1185,1185,1181,1181,1181,1177,1173,1173,1169,1169,1169,1165,1165,1165,1161,1161,1157,1153,1153,1149,1149,1149,1145,1141,1141,1138,1134,1134,1130,1130,1126,1123,1123,1119,1119,1119,1119,1115,1112,1108,1108,1108,1108,1105,1101,1097,1097,1094,1094,1090,1090,1090,1087,1087,1084,1080,1080,1077,1077,1073,1073,1070,1067,1067,1063,1063,0,0,0,0,0,0,0,0,0,0,0,0,0,0,0,0,0,0,0,0,0,0,0,0,0,0,0,0,0,0,0,0
0,0,0,0,0,0,0,0,0,0,0,1458,1458,1464,1458,1458,1458,1458,1458,1458,1458,1452,1452,1458,1458,1452,1452,1452,1445,1445,1452,1452,1452,1452,1458,1458,1458,1458,1458,1458,1458,1458,1458,1458,1458,1452,1452,1458,1452,1452,1458,1458,1458,1458,1458,1458,1458,1458,1458,1458,1458,1458,1452,1452,1452,1452,1452,1452,1439,1439,1458,0,0,0,0,0,0,1025,1025,1028,1031,1031,1031,1034,1034,1038,1038,1038,1038,1038,1038,1038,1038,0,0,0,0,0,0,0,0,0,0,0,0,0,687,687,687,687,687,688,691,691,691,693,693,693,693,694,694,696,697,697,698,698,698,700,700,701,701,701,0,0,0,0,0,0,0,0,0,1452,1445,1445,1445,1439,1439,1433,1433,1433,1433,1433,1433,1433,1433,1134,1134,1134,1134,1134,1134,1138,1138,1134,1134,1138,1138,1138,1138,1134,1134,1138,1138,1141,1141,1141,1141,1145,1145,1145,1145,1149,1149,1149,1149,1149,1149,1149,1149,1149,1149,1149,1145,1145,1149,1149,1153,1157,1161,1161,1165,1165,1169,1173,1173,1173,1177,1177,1177,1177,1181,1181,1181,1181,1181,1185,1185,1189,1189,1189,1193,1193,1193,1197,1197,1197,1197,1202,1202,1202,1202,1202,1202,1202,1202,1197,1197,1197,1415,1415,1415,1415,1415,1415,1415,1415,1415,1415,1415,1415,1415,1415,1415,1415,1415,1415,1415,1415,1415,1410,1264,1264,1264,1259,1259,1255,1250,1250,1250,1250,1250,1250,1250,1255,1255,1250,1250,1255,1392,1392,1398,1398,1404,1404,1404,1404,1404,1404,1404,1404,1404,1404,1398,1398,1398,1398,1398,1398,1404,1404,1398,1398,1398,1398,1398,1398,1404,1404,1404,1404,1404,1398,1398,1398,1398,1398,1398,1398,1398,1398,1398,0,0,0,0,0,962,959,956,956,954,951,948,948,946,946,946,946,946,946,948,948,951,954,954,954,956,956,956,956,959,959,0,0,0,1392,1392,1392,1387,1387,1387,1387,1387,1392,1392,1392,1387,1387,1392,1392,1392,1392,1392,1392,1387,1387,1387,1381,1381,1381,1381,1381,1381,1381,1381,1381,1381,1381,1381,1381,1381,1376,1376,1376,1376,1376,1376,1376,1376,1376,1376,1376,1376,1376,1370,1370,1370,1370,1370,1370,1370,1370,1370,1370,1370,1370,1370,1370,1370,1370,1370,1370,1370,1370,1370,1376,1376,1376,1376,1376,1376,1376,1370,1370,1370,1370,1370,1370,1370,1370,1370,1370,1370,1370,1370,1370,1370,1370,1370,1370,1370,1370,1370,1370,1370,1365,1365,1365,1365,1365,1365,1365,1365,1365,1365,1365,1359,1359,1359,1359,1354,1354,1354,1354,1354,1349,1349,1349,1349,1349,1343,1343,1343,1338,1333,1333,1328,1328,1322,1322,1317,1312,1312,1312,1312,1307,1292,1292,1292,1288,1288,1288,1288,1283,1278,1278,1273,1273,1273,1268,1264,1259,1259,1255,1255,1250,1245,1245,1241,1236,1236,1236,1232,1232,1232,1227,1223,1219,1219,1219,1214,1214,1210,1206,1202,1202,1202,1197,1197,1193,1189,1185,1185,1185,1181,1181,1181,1177,1173,1173,1173,1169,1169,1165,1165,1161,1161,1157,1153,1153,1153,1149,1149,1149,1145,1145,1141,1138,1134,1134,1130,1130,1126,1123,1123,1119,1119,1119,1119,1115,1112,1112,1108,1108,1108,1105,1101,1101,1097,1097,1094,1094,1090,1090,1087,1087,1084,1080,1080,1077,1077,1077,1073,1070,1067,1067,1063,1063,0,0,0,0,0,0,0,0,0,0,0,0,0,0,0,0,0,0,0,0,0,0,0,0,0,0,0,0,0,0,0,0
0,0,0,0,0,0,0,0,0,0,1452,1452,1458,1458,1458,1458,1458,1458,1458,1452,1452,1452,1452,1452,1452,1452,1452,1445,1445,1445,1445,1445,1445,1445,1445,1452,1452,1452,1452,1452,1452,1452,1452,1452,1452,1452,1452,1452,1452,1452,1452,1452,1458,1458,1458,1458,1458,1452,1452,1452,1452,1452,1445,1445,1445,1445,1445,1445,1439,1439,1439,0,0,0,0,0,0,1025,1025,1028,1034,1034,1034,1034,1034,1038,1038,1038,1038,1041,1041,1041,1041,0,0,0,0,0,0,0,0,0,0,0,0,0,0,687,687,688,688,691,691,693,693,693,693,693,694,694,696,697,697,698,698,700,700,701,701,703,703,703,704,0,0,0,0,0,0,0,0,1452,1445,1439,1439,1439,1433,1433,1433,1433,1433,1433,1130,1126,1126,1130,1130,1130,1130,1130,1134,1134,1134,1134,1134,1134,1134,1134,1138,1134,1134,1138,1138,1141,1141,1141,1141,1141,1145,1145,1149,1149,1149,1149,1149,1149,1149,1149,1149,1145,1145,1145,1141,1141,1145,1145,1149,1157,1161,1161,1165,1165,1173,1173,1173,1173,1177,1177,1177,1177,1181,1181,1181,1181,1181,1185,1185,1189,1189,1193,1193,1193,1193,1197,1197,1197,1202,1202,1202,1206,1202,1202,1202,1202,1410,1410,1415,1415,1415,1415,1415,1415,1415,1415,1410,1410,1410,1410,1410,1410,1410,1410,1410,1410,1410,1410,1410,1410,1410,1404,1404,1264,1264,1264,1259,1255,1255,1255,1255,1250,1250,1250,1250,1255,1259,1255,1255,1259,1387,1387,1392,1392,1392,1398,1398,1398,1398,1398,1398,1398,1398,1398,1392,1392,1398,1398,1398,1392,1392,1392,1392,1392,1392,1392,1398,1398,1398,1398,1398,1398,1398,1398,1392,1392,1398,1398,1398,1398,1398,1398,1398,0,0,0,0,0,962,959,956,956,954,954,951,948,948,946,946,946,946,948,948,948,951,954,954,956,956,956,959,959,959,0,959,0,1392,1392,1387,1387,1387,1381,1381,1381,1381,1381,1381,1381,1381,1381,1387,1387,1387,1387,1387,1381,1381,1381,1381,1376,1376,1376,1376,1376,1376,1376,1376,1376,1376,1376,1376,1376,1376,1376,1376,1376,1370,1370,1376,1376,1376,1370,1370,1370,1370,1370,1370,1370,1370,1370,1370,1370,1370,1370,1370,1365,1365,1365,1370,1370,1370,1370,1370,1370,1370,1370,1370,1370,1370,1370,1370,1370,1370,1370,1370,1370,1370,1370,1370,1370,1370,1370,1370,1370,1370,1370,1370,1370,1370,1370,1370,1370,1365,1365,1365,1365,1365,1365,1359,1359,1365,1365,1359,1359,1359,1359,1359,1354,1354,1354,1354,1354,1354,1354,1354,1354,1349,1349,1349,1349,1349,1349,1343,1343,1338,1338,1333,1333,1328,1328,1322,1322,1317,1317,1312,1312,1312,1307,1302,1292,1292,1288,1288,1288,1288,1283,1283,1278,1273,1273,1273,1268,1264,1264,1259,1255,1255,1250,1250,1245,1245,1241,1236,1236,1232,1232,1232,1227,1223,1219,1219,1219,1214,1214,1210,1210,1206,1202,1202,1202,1197,1197,1189,1185,1185,1185,1181,1181,1181,1177,1177,1173,1169,1169,1169,1165,1165,1161,1161,1157,1153,1153,1153,1149,1149,1149,1145,1145,1141,1138,1138,1134,1130,1130,1126,1126,1123,1123,1123,1119,1119,1115,1115,1112,1112,1108,1108,1105,1105,1101,1101,1097,1094,1094,1090,1090,1087,1087,1084,1080,1080,1080,1077,1077,1073,1070,1070,1067,1067,1067,0,0,0,0,0,0,0,0,0,0,0,0,0,0,0,0,0,0,0,0,0,0,0,0,0,0,0,0,0,0,0,0
0,0,0,0,0,0,0,0,0,0,1452,1452,1452,1452,1452,1452,1452,1458,1452,1452,1452,1445,1445,1445,1445,1445,1445,1445,1439,1439,1445,1439,1439,1439,1439,1445,1445,1445,1445,1445,1445,1445,1445,1445,1445,1445,1445,1445,1445,1445,1445,1445,1452,1452,1452,1452,1452,1445,1445,1445,1445,1445,1439,1439,1439,1439,1439,1439,1439,1439,1439,1439,0,0,0,0,0,1031,1031,1031,1034,1034,1034,1034,1038,1038,1038,1038,1038,1041,1041,1041,1041,0,0,0,0,0,0,0,0,0,0,0,0,0,0,688,688,690,691,691,691,693,693,693,693,694,694,696,697,697,697,698,698,700,701,701,701,703,703,703,704,706,0,0,0,0,0,0,0,0,1445,1119,1115,1115,1115,1433,1433,1427,1119,1119,1123,1123,1123,1126,1126,1130,1130,1130,1130,1134,1134,1134,1134,1134,1134,1134,1134,1134,1134,1134,1138,1141,1141,1141,1141,1141,1141,1145,1145,1145,1149,1149,1149,1149,1149,1149,1145,1145,1145,1141,1138,1134,1134,1134,1138,1157,1157,1165,1169,1169,1173,1173,1173,1177,1177,1177,1177,1177,1181,1181,1181,1181,1181,1185,1185,1189,1189,1193,1193,1193,1193,1197,1197,1197,1202,1202,1202,1404,1404,1404,1404,1404,1404,1410,1410,1410,1410,1410,1410,1410,1410,1410,1410,1410,1410,1410,1410,1410,1410,1410,1410,1410,1404,1404,1404,1404,1398,1398,1398,1398,1264,1264,1259,1255,1255,1255,1255,1250,1250,1250,1255,1259,1259,1259,1259,1259,1387,1387,1387,1392,1392,1392,1392,1392,1392,1392,1392,1392,1392,1392,1392,1392,1392,1392,1392,1392,1392,1392,1387,1387,1387,1387,1387,1387,1392,1392,1392,1392,1392,1392,1392,1392,1392,1392,1392,1392,1392,1392,1392,0,0,0,0,0,967,962,959,959,956,956,951,948,948,948,948,948,948,948,948,951,954,956,956,956,956,956,959,959,959,0,0,0,0,1392,1387,1387,1381,1376,1376,1376,1376,1376,1376,1376,1376,1376,1376,1376,1381,1381,1381,1381,1376,1376,1376,1376,1376,1376,1370,1370,1370,1370,1370,1370,1376,1376,1376,1376,1370,1370,1370,1370,1370,1370,1370,1370,1370,1370,1370,1370,1370,1370,1370,1365,1365,1365,1365,1365,1365,1370,1365,1365,1365,1365,1365,1365,1365,1365,1365,1365,1370,1370,1370,1365,1365,1365,1365,1365,1359,1359,1359,1365,1365,1365,1365,1365,1365,1365,1365,1365,1365,1365,1365,1365,1365,1365,1365,1365,1359,1359,1359,1359,1359,1359,1354,1354,1359,1359,1354,1354,1354,1354,1354,1354,1354,1354,1354,1354,1354,1354,1349,1349,1349,1349,1349,1349,1343,1343,1343,1338,1338,1333,1333,1333,1328,1328,1328,1322,1322,1317,1312,1312,1312,1307,1302,1292,1292,1288,1288,1288,1288,1283,1283,1278,1273,1273,1268,1268,1268,1264,1259,1259,1255,1250,1250,1250,1245,1241,1236,1236,1236,1232,1232,1227,1223,1219,1219,1219,1214,1214,1214,1210,1206,1206,1202,1202,1197,1197,1189,1185,1185,1185,1181,1181,1181,1181,1177,1173,1169,1169,1169,1165,1165,1165,1161,1157,1153,1153,1149,1149,1149,1149,1145,1145,1141,1138,1138,1134,1130,1130,1126,1126,1123,1123,1123,1119,1119,1115,1115,1112,1112,1108,1108,1105,1105,1101,1101,1097,1094,1094,1090,1090,1087,1087,1084,1080,1080,1080,1077,1077,1073,1070,1070,1067,1067,1067,0,0,0,0,0,0,0,0,0,0,0,0,0,0,0,0,0,0,0,0,0,0,0,0,0,0,0,0,0,0,0,0
0,0,0,0,0,0,0,0,0,0,1445,1445,1445,1445,1445,1445,1445,1445,1445,1445,1445,1439,1439,1439,1439,1439,1439,1439,1433,1433,1439,1439,1433,1433,1439,1439,1439,1439,1439,1439,1445,1445,1445,1445,1439,1439,1439,1439,1433,1433,1439,1439,1439,1439,1445,1445,1439,1439,1439,1439,1439,1439,1433,1433,1433,1433,1439,1433,1433,1433,1433,1433,0,0,0,0,0,0,1034,1034,1034,1034,1034,1034,1038,1038,1038,1038,1041,1041,1041,1041,1041,0,0,0,0,0,0,0,0,0,0,0,0,0,0,691,690,690,691,691,691,693,693,693,694,696,696,697,697,697,698,698,700,701,701,703,703,703,703,704,704,706,0,0,0,0,0,0,1123,1119,1119,1119,1115,1115,1115,1115,1115,1115,1115,1119,1119,1119,1123,1123,1126,1126,1126,1126,1130,1130,1134,1134,1134,1134,1134,1134,1134,1134,1134,1134,1138,1141,1141,1141,1141,1141,1141,1145,1145,1145,1149,1149,1149,1149,1145,1145,1145,1138,1138,1138,1134,1134,1134,1134,1134,1134,1157,1161,1165,1169,1173,1173,1177,1177,1177,1177,1177,1177,1177,1181,1181,1181,1181,1185,1185,1189,1189,1193,1193,1193,1197,1197,1197,1202,1202,1202,1404,1404,1404,1398,1398,1398,1398,1398,1404,1404,1410,1410,1404,1404,1404,1404,1404,1404,1404,1410,1410,1410,1410,1404,1404,1404,1398,1398,1398,1398,1392,1392,1392,1392,1264,1264,1264,1259,1259,1259,1255,1255,1250,1250,1255,1259,1259,1259,1259,1259,1264,1381,1381,1387,1387,1392,1392,1392,1392,1392,1392,1387,1387,1387,1387,1387,1387,1387,1387,1387,1387,1387,1387,1387,1387,1387,1387,1387,1387,1387,1387,1387,1392,1392,1387,1387,1387,1387,1387,1387,1387,1387,1387,0,0,0,0,0,967,964,962,959,959,956,954,951,948,948,948,948,948,948,948,951,954,956,956,956,959,959,959,959,962,967,967,0,1392,1392,1387,1381,1376,1376,1376,1376,1376,1370,1370,1370,1370,1370,1370,1370,1370,1370,1370,1370,1376,1376,1370,1370,1370,1370,1370,1370,1370,1370,1370,1370,1370,1370,1370,1370,1370,1370,1370,1365,1365,1365,1365,1365,1365,1365,1365,1365,1365,1365,1359,1359,1359,1359,1359,1359,1365,1365,1365,1365,1359,1359,1359,1359,1359,1359,1359,1359,1365,1365,1365,1359,1359,1359,1359,1354,1354,1354,1354,1354,1354,1354,1359,1359,1359,1359,1359,1359,1359,1359,1359,1359,1359,1359,1359,1359,1354,1354,1354,1354,1354,1354,1354,1354,1354,1354,1354,1349,1349,1343,1343,1349,1349,1349,1349,1349,1349,1349,1349,1349,1349,1349,1343,1343,1343,1338,1338,1338,1333,1333,1333,1333,1328,1328,1328,1328,1322,1317,1312,1312,1312,1307,1307,1302,1292,1288,1288,1288,1288,1283,1283,1278,1278,1273,1268,1268,1268,1264,1264,1259,1255,1255,1250,1250,1250,1241,1241,1236,1236,1236,1232,1227,1223,1223,1219,1219,1214,1214,1214,1210,1210,1206,1202,1202,1197,1197,1189,1189,1185,1185,1185,1185,1181,1181,1181,1177,1169,1169,1169,1165,1165,1161,1161,1157,1153,1153,1149,1149,1149,1149,1149,1145,1141,1138,1138,1134,1130,1130,1126,1126,1123,1123,1123,1119,1119,1115,1115,1112,1112,1108,1108,1105,1105,1101,1101,1097,1094,1094,1090,1090,1090,1087,1084,1080,1080,1080,1077,1077,1077,1073,1070,1070,1067,1067,0,0,0,0,0,0,0,0,0,0,0,0,0,0,0,0,0,0,0,0,0,0,0,0,0,0,0,0,0,0,0,0
0,0,0,0,0,0,0,0,0,0,1439,1439,1439,1439,1439,1433,1433,1439,1439,1439,1439,1439,1439,1439,1439,1439,1439,1433,1433,1433,1433,1433,1433,1433,1433,1433,1433,1433,1433,1439,1439,1439,1439,1439,1439,1433,1433,1433,1433,1433,1433,1433,1433,1433,1433,1439,1433,1433,1433,1433,1433,1433,1433,1433,1433,1433,1433,1433,1427,1427,1427,1427,1427,0,0,0,0,0,1034,1034,1034,1038,1038,1038,1038,1038,1038,1038,1041,1041,1041,1041,1044,0,0,0,0,0,0,0,0,0,0,0,0,0,693,691,691,691,691,691,691,693,693,693,694,696,697,697,698,698,698,700,700,701,703,703,703,704,704,704,704,706,0,0,0,0,0,1115,1115,1119,1119,1115,1115,1115,1115,1115,1115,1115,1115,1119,1119,1119,1119,1123,1123,1126,1126,1126,1126,1130,1130,1130,1130,1130,1134,1134,1134,1134,1134,1134,1138,1138,1138,1138,1141,1141,1141,1145,1145,1145,1149,1149,1149,1149,1145,1145,1141,1138,1138,1134,1134,1134,1134,1134,1134,1134,1161,1161,1165,1169,1173,1177,1177,1177,1177,1177,1177,1177,1177,1181,1181,1181,1181,1185,1185,1189,1189,1404,1398,1398,1398,1197,1197,1202,1404,1404,1404,1398,1398,1398,1398,1398,1398,1398,1404,1404,1404,1404,1398,1398,1398,1398,1398,1398,1398,1398,1404,1404,1404,1404,1404,1398,1392,1392,1392,1392,1392,1387,1387,1387,1264,1264,1264,1259,1259,1259,1259,1259,1255,1255,1259,1259,1259,1259,1259,1264,1264,1381,1381,1381,1387,1387,1387,1387,1387,1387,1387,1387,1387,1387,1387,1387,1387,1387,1387,1387,1387,1387,1381,1381,1381,1381,1381,1381,1381,1381,1376,1376,1381,1381,1381,1381,1381,1387,1387,1381,1381,1381,1381,1381,1381,0,0,0,967,964,962,959,959,959,956,954,951,951,951,948,948,948,951,954,954,956,956,956,959,959,962,962,964,967,967,973,1381,1381,1381,1381,1376,1370,1370,1370,1370,1365,1365,1365,1365,1365,1359,1359,1365,1365,1365,1365,1365,1365,1370,1370,1370,1370,1370,1365,1365,1365,1365,1365,1365,1365,1365,1365,1365,1365,1365,1365,1359,1359,1359,1359,1359,1359,1359,1359,1359,1359,1354,1354,1354,1354,1354,1359,1359,1359,1359,1359,1354,1354,1354,1354,1354,1354,1354,1354,1359,1359,1359,1354,1354,1354,1354,1354,1354,1354,1354,1354,1354,1354,1354,1354,1354,1354,1354,1354,1354,1354,1354,1354,1354,1354,1354,1354,1354,1354,1354,1354,1354,1354,1349,1349,1349,1349,1349,1343,1343,1338,1338,1343,1343,1343,1343,1343,1349,1349,1349,1349,1343,1343,1343,1343,1338,1338,1333,1333,1333,1333,1328,1328,1328,1328,1328,1328,1322,1317,1317,1312,1312,1307,1307,1302,1292,1292,1288,1288,1288,1283,1283,1278,1278,1273,1268,1268,1264,1264,1259,1259,1255,1255,1250,1250,1250,1245,1241,1236,1236,1232,1232,1227,1227,1223,1219,1219,1219,1214,1214,1210,1210,1206,1206,1202,1202,1197,1193,1189,1185,1185,1185,1185,1185,1181,1181,1177,1177,1169,1169,1165,1165,1161,1161,1157,1153,1153,1153,1149,1149,1149,1145,1145,1141,1138,1138,1134,1134,1130,1130,1126,1126,1123,1123,1119,1119,1115,1115,1112,1112,1108,1108,1105,1105,1101,1101,1097,1094,1094,1090,1090,1090,1087,1084,1080,1080,1080,1077,1077,1077,1073,1070,1070,1067,1067,0,0,0,0,0,0,0,0,0,0,0,0,0,0,0,0,0,0,0,0,0,0,0,0,0,0,0,0,0,0,0,0
0,0,0,0,0,0,0,0,0,0,1433,1433,1433,1427,1427,1427,1427,1433,1433,1439,1439,1439,1439,1439,1433,1433,1433,1427,1427,1427,1427,1427,1421,1421,1427,1427,1427,1427,1427,1433,1433,1433,1433,1433,1433,1433,1427,1427,1427,1427,1427,1427,1427,1427,1427,1427,1427,1433,1427,1427,1427,1427,1427,1427,1427,1427,1427,1427,1421,1421,1415,1415,1427,0,0,0,0,0,1034,1034,1034,1038,1038,1038,1038,1038,1038,1041,1041,1041,1041,1041,1041,0,0,0,0,0,0,0,0,0,0,0,0,0,693,693,693,691,691,693,693,693,693,694,694,697,697,697,698,698,698,700,700,701,703,703,704,704,704,704,706,0,0,0,0,0,0,1115,1115,1115,1115,1115,1115,1115,1115,1115,1115,1115,1115,1119,1119,1119,1119,1123,1123,1126,1126,1126,1126,1130,1130,1130,1130,1130,1134,1134,1134,1134,1134,1134,1138,1138,1138,1138,1141,1141,1145,1145,1145,1145,1149,1149,1149,1149,1145,1145,1141,1138,1134,1134,1134,1134,1130,1130,1130,1126,1119,1119,1165,1173,1173,1177,1177,1177,1177,1177,1181,1177,1177,1181,1181,1181,1181,1404,1404,1398,1398,1398,1398,1398,1398,1398,1404,1404,1404,1398,1398,1398,1398,1392,1392,1392,1392,1392,1398,1398,1398,1398,1392,1392,1392,1392,1392,1392,1392,1392,1392,1392,1392,1392,1392,1398,1392,1392,1392,1387,1387,1387,1387,1387,1264,1264,1264,1259,1259,1259,1259,1255,1255,1255,1259,1259,1264,1264,1264,1264,1264,1381,1381,1381,1381,1381,1381,1381,1381,1381,1381,1381,1381,1381,1381,1381,1381,1381,1381,1381,1376,1376,1376,1376,1376,1376,1376,1376,1376,1376,1370,1370,1376,1376,1376,1370,1370,1370,1381,1381,1376,1376,1376,1376,1376,0,0,0,967,964,964,962,962,959,956,954,954,954,951,951,951,951,954,954,956,956,956,959,959,962,964,964,964,967,973,0,0,0,1381,1370,1370,1365,1365,1365,1359,1359,1359,1359,1359,1359,1354,1354,1354,1359,1359,1359,1359,1359,1359,1359,1359,1359,1365,1359,1359,1359,1359,1359,1359,1359,1359,1359,1359,1359,1359,1359,1359,1354,1354,1354,1354,1354,1354,1354,1354,1354,1354,1354,1354,1354,1354,1354,1354,1354,1354,1354,1354,1354,1349,1349,1354,1354,1354,1354,1354,1354,1354,1354,1349,1349,1349,1349,1349,1349,1349,1349,1349,1349,1349,1349,1349,1349,1349,1349,1349,1349,1349,1349,1349,1349,1349,1349,1349,1349,1349,1349,1349,1349,1349,1343,1343,1343,1343,1338,1338,1338,1338,1338,1343,1343,1343,1343,1343,1343,1343,1343,1338,1338,1338,1338,1333,1333,1333,1333,1333,1328,1328,1328,1328,1328,1328,1328,1322,1317,1312,1312,1312,1307,1307,1307,1292,1292,1288,1288,1288,1283,1283,1278,1278,1273,1268,1268,1264,1264,1259,1259,1255,1255,1250,1250,1250,1245,1241,1236,1236,1232,1232,1227,1227,1223,1219,1219,1219,1214,1214,1214,1210,1210,1206,1202,1202,1197,1193,1189,1185,1185,1185,1185,1185,1181,1181,1181,1177,1169,1169,1165,1165,1161,1161,1157,1153,1153,1153,1149,1149,1149,1145,1145,1141,1138,1138,1134,1134,1134,1130,1130,1126,1123,1123,1123,1119,1119,1115,1112,1112,1108,1108,1105,1105,1105,1101,1097,1097,1094,1090,1090,1090,1090,1084,1080,1080,1080,1077,1077,1077,1073,1070,1070,1067,1067,0,0,0,0,0,0,0,0,0,0,0,0,0,0,0,0,0,0,0,0,0,0,0,0,0,0,0,0,0,0,0,0
0,0,0,0,0,0,0,0,0,0,1427,1427,1421,1421,1421,1415,1415,1421,1427,1433,1433,1433,1433,1433,1427,1427,1427,1421,1421,1421,1421,1421,1421,1421,1421,1421,1421,1421,1421,1421,1427,1427,1421,1421,1427,1427,1427,1421,1421,1427,1427,1421,1421,1421,1421,1421,1427,1427,1427,1427,1427,1427,1427,1427,1421,1421,1421,1421,1415,1415,1410,1410,1410,0,1398,1398,0,0,1034,1034,1034,1038,1038,1038,1038,1041,1041,1041,1041,1041,1041,1041,1041,1044,1047,0,0,0,0,0,0,0,0,0,0,0,693,693,693,693,693,693,693,694,694,694,696,697,697,698,698,698,700,700,700,703,703,704,704,704,706,706,706,707,0,0,0,0,0,1115,1115,1115,1115,1115,1115,1115,1115,1115,1115,1115,1119,1119,1119,1119,1119,1119,1123,1123,1126,1126,1126,1130,1130,1130,1130,1130,1134,1134,1134,1138,1138,1138,1138,1141,1138,1138,1141,1141,1145,1145,1149,1149,1149,1149,1149,1149,1145,1141,1138,1134,1134,1134,1130,1130,1126,1126,1123,1119,1115,1115,1112,1112,1173,1177,1177,1177,1181,1181,1181,1177,1177,1181,1181,1181,1398,1398,1398,1398,1398,1392,1392,1392,1392,1392,1392,1398,1398,1392,1392,1392,1392,1392,1392,1392,1392,1392,1392,1392,1392,1392,1387,1387,1387,1387,1387,1387,1387,1387,1387,1387,1387,1387,1387,1381,1381,1381,1381,1381,1381,1381,1381,1381,1264,1264,1264,1264,1259,1259,1259,1255,1255,1259,1259,1264,1264,1264,1264,1268,1268,1268,1381,1381,1376,1376,1376,1376,1381,1376,1376,1376,1376,1376,1376,1376,1376,1376,1376,1370,1370,1370,1370,1370,1370,1370,1370,1370,1370,1370,1365,1365,1370,1370,1370,1365,1365,1365,1376,1370,1370,1370,1370,1376,1376,0,0,0,970,967,964,962,962,959,959,956,954,954,954,954,954,954,954,956,956,956,959,959,962,964,964,964,967,970,973,0,0,0,1365,1365,1359,1359,1359,1359,1354,1354,1354,1354,1354,1354,1354,1354,1354,1354,1354,1354,1354,1354,1354,1354,1354,1354,1354,1354,1354,1354,1354,1354,1354,1354,1354,1354,1354,1354,1354,1354,1354,1354,1354,1354,1349,1349,1349,1349,1349,1349,1349,1349,1349,1349,1349,1349,1349,1349,1349,1349,1349,1349,1349,1349,1349,1349,1349,1349,1349,1349,1349,1343,1343,1349,1349,1349,1349,1349,1349,1349,1349,1349,1349,1349,1349,1349,1349,1349,1349,1349,1343,1338,1338,1343,1343,1343,1343,1343,1349,1349,1343,1343,1338,1338,1338,1338,1333,1333,1333,1333,1333,1333,1338,1338,1338,1338,1338,1338,1338,1333,1333,1333,1333,1333,1333,1333,1333,1333,1328,1328,1328,1328,1328,1328,1322,1322,1317,1317,1312,1312,1312,1307,1307,1302,1297,1292,1288,1288,1288,1283,1283,1278,1278,1273,1268,1268,1264,1264,1259,1255,1255,1255,1250,1250,1250,1245,1245,1241,1236,1232,1232,1227,1227,1223,1219,1219,1219,1219,1214,1214,1210,1210,1206,1202,1202,1197,1193,1193,1189,1189,1185,1185,1185,1185,1181,1181,1177,1169,1169,1169,1165,1161,1161,1157,1153,1153,1153,1149,1149,1149,1145,1141,1141,1138,1138,1138,1134,1134,1130,1130,1126,1126,1123,1123,1119,1119,1119,1115,1112,1108,1108,1105,1105,1105,1101,1101,1097,1094,1094,1090,1090,1090,1084,1080,1080,1080,1080,1077,1077,1073,1070,1070,1067,1067,0,0,0,0,0,0,0,0,0,0,0,0,0,0,0,0,0,0,0,0,0,0,0,0,0,0,0,0,0,0,0,0
0,0,0,0,0,0,0,0,0,0,1421,1421,1421,1421,1415,1415,1415,1415,1415,1421,1421,1427,1427,1427,1421,1421,1421,1421,1421,1415,1415,1415,1415,1415,1415,1415,1415,1415,1415,1415,1421,1415,1415,1421,1421,1421,1421,1415,1415,1421,1421,1421,1415,1415,1421,1421,1421,1421,1421,1421,1415,1415,1421,1421,1421,1421,1421,1415,1415,1415,1410,1410,1410,1398,1398,1398,0,0,1038,1034,1034,1038,1038,1038,1038,1041,1041,1044,1044,1044,1044,1044,1044,1044,1047,0,0,0,0,0,0,0,0,0,0,0,694,694,693,693,694,693,693,694,694,696,696,697,698,698,698,700,700,700,701,703,703,704,706,706,706,706,707,707,0,0,0,0,0,0,1115,1115,1115,1115,1115,1115,1115,1115,1115,1115,1115,1119,1119,1119,1119,1119,1123,1123,1126,1126,1126,1130,1130,1130,1130,1130,1134,1134,1134,1138,1138,1138,1138,1141,1141,1141,1141,1141,1145,1145,1149,1149,1149,1153,1153,1149,1145,1141,1138,1134,1130,1130,1126,1126,1123,1123,1119,1119,1115,1115,1112,1105,1105,1177,1177,1177,1181,1181,1181,1181,1181,1181,1392,1392,1392,1392,1392,1392,1392,1392,1392,1387,1387,1387,1387,1387,1387,1392,1392,1392,1392,1392,1392,1392,1387,1387,1387,1381,1381,1381,1381,1381,1381,1381,1381,1381,1381,1381,1376,1376,1376,1376,1376,1376,1376,1376,1376,1376,1376,1376,1376,1376,1264,1264,1264,1264,1264,1264,1259,1259,1259,1259,1259,1264,1264,1264,1264,1268,1268,1268,1376,1376,1376,1370,1370,1370,1370,1370,1370,1370,1370,1370,1370,1370,1370,1370,1370,1370,1370,1370,1370,1370,1370,1370,1365,1365,1365,1365,1365,1365,1365,1365,1365,1365,1365,1365,1370,1365,1365,1370,1370,1370,1370,0,0,0,970,970,967,967,964,962,959,959,956,954,954,954,954,954,954,956,956,956,959,959,962,964,967,967,970,970,973,973,0,1354,1354,1354,1354,1354,1354,1354,1354,1349,1349,1354,1354,1354,1349,1349,1349,1349,1349,1354,1354,1354,1354,1354,1354,1354,1354,1349,1349,1349,1349,1349,1349,1349,1349,1349,1354,1354,1349,1349,1349,1349,1349,1349,1349,1349,1349,1349,1349,1349,1349,1349,1349,1349,1349,1349,1349,1349,1349,1349,1349,1349,1349,1349,1349,1349,1349,1343,1343,1343,1338,1338,1338,1343,1343,1343,1343,1343,1343,1343,1343,1343,1343,1343,1343,1343,1343,1343,1343,1343,1343,1333,1333,1333,1333,1333,1338,1338,1343,1343,1343,1338,1338,1338,1338,1333,1333,1333,1333,1333,1333,1333,1333,1333,1333,1333,1333,1333,1333,1333,1333,1333,1333,1333,1328,1328,1328,1328,1328,1328,1328,1322,1322,1322,1322,1322,1317,1312,1312,1312,1312,1307,1307,1302,1297,1292,1292,1288,1288,1288,1283,1278,1278,1273,1268,1268,1264,1264,1259,1255,1255,1255,1250,1250,1250,1245,1245,1241,1236,1236,1232,1232,1227,1223,1223,1223,1219,1219,1214,1214,1210,1210,1206,1202,1202,1197,1197,1197,1193,1189,1185,1185,1185,1185,1181,1181,1177,1169,1169,1169,1165,1165,1161,1157,1157,1153,1153,1153,1149,1149,1149,1141,1141,1138,1138,1134,1134,1130,1130,1130,1130,1126,1123,1123,1119,1119,1119,1115,1115,1108,1108,1105,1105,1105,1101,1101,1097,1094,1094,1094,1090,1090,1087,1084,1080,1080,1080,1077,1077,1077,1073,1070,1070,1070,0,0,0,0,0,0,0,0,0,0,0,0,0,0,0,0,0,0,0,0,0,0,0,0,0,0,0,0,0,0,0,0
0,0,0,0,0,0,0,0,0,0,1415,1415,1415,1415,1415,1415,1415,1415,1415,1415,1421,1421,1421,1415,1415,1415,1415,1415,1415,1415,1415,1415,1415,1415,1415,1415,1415,1410,1410,1410,1415,1410,1410,1415,1415,1421,1415,1415,1415,1415,1415,1415,1415,1415,1415,1415,1415,1415,1415,1415,1415,1415,1415,1415,1415,1415,1415,1415,1410,1410,1410,1404,1404,1398,1398,1398,0,0,1038,1034,1034,1038,1038,1038,1041,1041,1044,1044,1047,1047,1047,1047,1047,1047,1047,0,0,0,0,0,0,0,0,0,0,0,0,697,696,694,694,696,696,696,696,697,697,697,698,698,698,700,700,700,703,703,703,704,706,707,707,707,708,708,0,0,0,0,0,0,1115,1115,1115,1115,1115,1115,1115,1115,1115,1115,1115,1119,1119,1119,1119,1123,1123,1123,1126,1126,1126,1130,1130,1130,1130,1134,1134,1134,1138,1138,1138,1141,1141,1141,1141,1141,1141,1141,1145,1145,1149,1149,1149,1153,1153,1153,1149,1141,1134,1130,1130,1130,1123,1119,1119,1119,1115,1115,1112,1112,1112,1105,1101,1101,1177,1177,1181,1181,1181,1181,1181,1387,1387,1387,1387,1387,1387,1387,1387,1387,1381,1381,1381,1381,1376,1376,1381,1381,1381,1387,1387,1387,1387,1387,1387,1381,1381,1381,1381,1376,1376,1381,1376,1376,1376,1376,1376,1376,1370,1370,1370,1370,1370,1370,1370,1370,1370,1370,1370,1370,1370,1370,1268,1268,1264,1264,1264,1264,1264,1259,1259,1259,1264,1264,1264,1264,1264,1268,1268,1268,1376,1370,1370,1370,1370,1370,1370,1370,1370,1370,1370,1370,1370,1370,1370,1365,1365,1365,1365,1365,1365,1365,1365,1365,1365,1365,1365,1359,1359,1359,1359,1359,1359,1359,1359,1359,1370,1365,1365,1365,1365,1365,1365,0,0,0,973,973,970,970,967,964,962,959,959,956,956,956,954,954,956,956,956,959,959,962,964,967,967,967,970,970,973,0,0,0,1349,1349,1349,1349,1349,1349,1349,1349,1349,1349,1349,1349,1349,1349,1349,1349,1349,1349,1349,1349,1349,1349,1349,1349,1349,1349,1349,1349,1349,1349,1349,1343,1343,1343,1343,1349,1349,1349,1349,1349,1349,1349,1343,1343,1343,1343,1343,1343,1343,1343,1343,1343,1343,1343,1343,1343,1343,1343,1343,1343,1343,1343,1343,1343,1343,1338,1338,1338,1338,1338,1338,1338,1338,1338,1338,1343,1343,1343,1338,1338,1338,1338,1338,1338,1343,1343,1343,1338,1338,1333,1333,1328,1328,1328,1328,1328,1333,1333,1338,1338,1333,1333,1333,1333,1328,1328,1328,1328,1328,1328,1328,1328,1328,1328,1328,1328,1328,1328,1328,1328,1328,1328,1328,1322,1322,1322,1322,1322,1322,1322,1322,1322,1317,1317,1312,1312,1312,1312,1307,1307,1307,1302,1297,1292,1292,1288,1288,1288,1283,1283,1278,1278,1273,1268,1268,1264,1259,1255,1255,1255,1250,1250,1250,1245,1245,1241,1236,1236,1232,1232,1232,1227,1223,1223,1219,1219,1214,1214,1210,1210,1206,1202,1202,1202,1197,1197,1193,1193,1189,1189,1185,1185,1185,1181,1177,1173,1169,1169,1169,1165,1161,1157,1157,1153,1153,1153,1149,1149,1149,1141,1141,1138,1138,1134,1134,1130,1130,1130,1126,1123,1123,1123,1119,1119,1119,1115,1112,1108,1108,1108,1108,1105,1105,1101,1097,1094,1094,1094,1090,1090,1090,1084,1084,1080,1080,1080,1077,1077,1073,1073,1070,1070,0,0,0,0,0,0,0,0,0,0,0,0,0,0,0,0,0,0,0,0,0,0,0,0,0,0,0,0,0,0,0,0
0,0,0,0,0,0,0,0,0,0,1415,1415,1415,1415,1415,1415,1415,1415,1415,1415,1415,1415,1415,1415,1415,1415,1415,1415,1415,1415,1415,1415,1415,1415,1415,1415,1410,1410,1410,1410,1410,1410,1410,1410,1410,1415,1415,1415,1415,1415,1415,1410,1410,1410,1415,1415,1415,1415,1415,1415,1415,1415,1415,1410,1410,1410,1410,1410,1404,1404,1404,1404,1404,1398,1398,1398,0,0,1038,1034,1034,1038,1038,1038,1041,1041,1044,1047,1047,1047,1047,1047,1047,1047,1047,0,0,0,0,0,0,0,0,0,0,0,0,698,697,697,696,696,696,696,696,697,697,698,698,698,700,701,703,703,703,703,704,704,706,707,707,707,708,710,0,0,0,0,0,0,1115,1115,1115,1115,1115,1115,1115,1115,1115,1115,1115,1119,1119,1119,1119,1123,1123,1123,1126,1126,1126,1130,1130,1130,1130,1134,1134,1134,1138,1141,1141,1141,1141,1141,1141,1141,1145,1145,1145,1145,1149,1149,1149,1149,1153,1153,1149,1138,1134,1130,1130,1130,1119,1119,1115,1115,1112,1112,1108,1108,1108,1108,1101,1101,1177,1177,1181,1181,1181,1387,1381,1381,1381,1381,1381,1381,1387,1381,1381,1381,1376,1376,1376,1376,1370,1370,1376,1376,1376,1376,1376,1376,1376,1376,1376,1376,1376,1376,1376,1376,1376,1376,1370,1370,1370,1370,1370,1370,1370,1370,1370,1370,1370,1370,1370,1370,1370,1370,1370,1370,1370,1370,1370,1268,1268,1268,1268,1264,1264,1259,1259,1264,1264,1264,1264,1264,1268,1268,1268,1268,1370,1370,1370,1365,1365,1365,1365,1365,1365,1365,1365,1365,1365,1365,1365,1365,1359,1359,1359,1359,1365,1359,1359,1359,1359,1359,1359,1359,1359,1359,1354,1354,1354,1354,1354,1354,1359,1359,1359,1359,1359,1359,1359,0,0,0,973,973,973,970,970,967,964,962,959,959,956,956,956,956,956,956,959,959,962,964,967,967,967,970,970,973,973,0,0,0,1349,1343,1343,1349,1349,1349,1349,1349,1349,1349,1349,1349,1343,1343,1343,1343,1343,1349,1349,1349,1349,1349,1343,1343,1343,1343,1343,1343,1343,1338,1338,1338,1338,1338,1338,1338,1338,1338,1343,1343,1343,1343,1343,1338,1338,1338,1338,1338,1338,1343,1343,1343,1338,1338,1338,1338,1338,1338,1333,1333,1338,1338,1338,1338,1338,1333,1333,1333,1333,1333,1333,1333,1333,1333,1333,1333,1333,1333,1333,1333,1333,1333,1333,1333,1333,1333,1333,1333,1333,1328,1328,1322,1322,1322,1322,1322,1322,1322,1328,1328,1328,1328,1333,1328,1328,1328,1322,1322,1322,1322,1328,1328,1328,1328,1328,1328,1328,1322,1322,1328,1328,1322,1322,1317,1317,1317,1317,1317,1317,1317,1317,1317,1312,1312,1312,1312,1312,1312,1307,1307,1307,1302,1297,1292,1292,1292,1288,1288,1283,1283,1283,1278,1273,1268,1268,1264,1259,1255,1255,1255,1250,1250,1250,1245,1245,1241,1236,1236,1232,1232,1232,1227,1227,1223,1223,1219,1219,1214,1210,1210,1206,1206,1202,1202,1197,1197,1193,1193,1189,1189,1185,1185,1185,1181,1181,1177,1173,1169,1169,1165,1161,1161,1157,1153,1153,1153,1149,1149,1149,1141,1141,1138,1138,1134,1134,1134,1130,1130,1126,1123,1123,1123,1119,1119,1119,1115,1112,1108,1108,1108,1108,1105,1105,1101,1097,1097,1094,1094,1094,1090,1090,1084,1084,1080,1080,1080,1077,1077,1077,1073,1070,1070,0,0,0,0,0,0,0,0,0,0,0,0,0,0,0,0,0,0,0,0,0,0,0,0,0,0,0,0,0,0,0,0
0,0,0,0,0,0,0,0,0,0,1415,1415,1415,1415,1415,1415,1415,1415,1415,1415,1410,1410,1410,1410,1410,1410,1410,1410,1410,1410,1410,1410,1410,1410,1410,1410,1410,1410,1404,1404,1404,1404,1404,1404,1410,1410,1410,1410,1410,1410,1410,1410,1404,1404,1410,1410,1410,1410,1410,1410,1410,1410,1410,1410,1404,1404,1404,1404,1398,1398,1398,1398,1398,1398,1392,1392,1392,1038,1038,1038,1038,1038,1038,1041,1041,1044,1044,1047,1047,1047,1047,1047,1047,1047,1047,0,0,0,0,0,0,0,0,0,0,0,0,698,698,697,697,697,696,696,696,697,698,698,698,698,700,701,703,703,703,703,704,704,706,707,707,708,710,710,0,0,0,0,0,0,1115,1115,1115,1112,1112,1115,1115,1115,1115,1115,1115,1119,1119,1119,1119,1123,1123,1123,1126,1126,1126,1130,1130,1130,1134,1134,1134,1138,1138,1141,1141,1141,1141,1141,1141,1141,1145,1145,1145,1149,1149,1149,1149,1149,1153,1149,1145,1138,1134,1134,1130,1130,1119,1115,1115,1112,1112,1108,1108,1108,1105,1105,1101,1101,1101,1392,1392,1387,1387,1387,1381,1381,1381,1381,1376,1376,1376,1376,1376,1376,1370,1370,1370,1370,1370,1370,1370,1370,1370,1370,1370,1370,1370,1370,1370,1370,1370,1370,1370,1370,1370,1370,1370,1370,1370,1370,1370,1370,1370,1365,1365,1365,1365,1365,1365,1365,1365,1365,1365,1365,1365,1365,1365,1273,1268,1268,1268,1268,1264,1264,1264,1264,1264,1264,1264,1264,1268,1268,1268,1268,1268,1370,1365,1365,1365,1365,1365,1365,1365,1365,1365,1365,1365,1365,1365,1359,1359,1359,1359,1359,1359,1359,1359,1354,1354,1354,1354,1354,1354,1354,1354,1354,1354,1349,1349,1354,1354,1354,1354,1354,1349,1343,1343,0,0,0,975,975,973,970,970,967,967,964,962,959,956,956,956,956,956,956,959,959,962,964,967,967,970,970,970,973,973,973,0,1343,1343,1343,1343,1343,1343,1343,1343,1343,1343,1343,1343,1343,1338,1338,1343,1343,1343,1343,1343,1343,1343,1343,1338,1338,1338,1338,1333,1333,1333,1333,1333,1333,1333,1333,1333,1333,1333,1333,1333,1333,1333,1333,1333,1338,1338,1338,1338,1338,1338,1338,1338,1338,1338,1333,1333,1333,1333,1333,1333,1333,1333,1333,1333,1333,1333,1333,1333,1333,1333,1333,1333,1328,1328,1333,1328,1328,1328,1328,1328,1328,1328,1328,1328,1328,1328,1328,1328,1328,1328,1322,1322,1317,1317,1317,1317,1317,1317,1317,1317,1322,1322,1322,1317,1317,1317,1322,1322,1322,1322,1322,1322,1322,1322,1322,1322,1322,1322,1322,1322,1322,1317,1317,1317,1317,1317,1317,1312,1312,1312,1312,1312,1312,1312,1312,1312,1312,1307,1307,1307,1307,1302,1302,1297,1292,1292,1292,1288,1288,1288,1283,1283,1278,1278,1273,1268,1264,1259,1255,1255,1255,1255,1250,1250,1250,1245,1241,1236,1236,1232,1232,1232,1232,1227,1223,1223,1219,1219,1214,1214,1210,1210,1206,1206,1202,1202,1197,1197,1193,1193,1189,1185,1185,1185,1181,1181,1177,1173,1169,1169,1165,1165,1161,1157,1153,1153,1153,1149,1149,1149,1145,1141,1138,1138,1138,1134,1134,1134,1130,1126,1123,1123,1123,1123,1119,1119,1115,1115,1112,1108,1108,1108,1105,1105,1101,1101,1097,1094,1094,1094,1090,1090,1090,1084,1084,1084,1080,1080,1077,1077,1073,1070,1070,0,0,0,0,0,0,0,0,0,0,0,0,0,0,0,0,0,0,0,0,0,0,0,0,0,0,0,0,0,0,0,0
0,0,0,0,0,0,0,0,0,0,1410,1410,1410,1415,1410,1410,1410,1410,1410,1410,1410,1410,1410,1410,1410,1410,1410,1410,1410,1410,1410,1410,1410,1410,1410,1410,1410,1404,1404,1398,1398,1398,1398,1398,1404,1404,1404,1404,1404,1404,1404,1404,1398,1398,1398,1398,1398,1404,1404,1398,1398,1404,1404,1404,1404,1398,1398,1398,1398,1392,1392,1392,1392,1392,1392,1392,1392,1038,1038,1038,1038,1038,1041,1041,1041,1044,1047,1047,1047,1047,1047,1047,1047,1047,1047,0,0,0,0,0,0,0,0,0,0,0,0,700,700,698,698,697,697,697,697,698,698,698,700,700,701,701,703,703,703,704,704,706,707,707,708,710,710,710,713,713,0,0,0,0,0,1115,1115,1112,1112,1115,1115,1115,1115,1115,1119,1119,1119,1119,1123,1123,1123,1126,1126,1126,1130,1130,1130,1130,1134,1134,1134,1138,1138,1138,1141,1141,1141,1141,1141,1145,1145,1145,1149,1149,1149,1149,1149,1149,1153,1149,1145,1138,1134,1130,1130,1126,1119,1115,1112,1112,1108,1108,1105,1105,1105,1101,1097,1097,1097,1392,1392,1387,1376,1376,1376,1376,1376,1376,1376,1376,1376,1370,1370,1370,1370,1370,1370,1370,1365,1365,1370,1370,1370,1370,1370,1370,1370,1370,1370,1370,1370,1370,1370,1370,1370,1370,1365,1365,1365,1365,1365,1365,1365,1365,1365,1365,1365,1365,1365,1365,1365,1365,1365,1365,1365,1365,1359,1292,1278,1278,1273,1268,1264,1264,1264,1264,1264,1264,1268,1268,1268,1268,1268,1268,1268,1365,1365,1359,1359,1359,1359,1359,1359,1359,1359,1359,1359,1359,1359,1354,1354,1354,1354,1354,1354,1354,1354,1354,1354,1354,1354,1354,1354,1349,1349,1349,1349,1349,1349,1349,1354,1349,1349,1343,1343,1338,1338,0,0,0,0,975,973,973,970,970,967,964,964,959,959,956,956,956,959,959,959,962,964,964,967,970,970,970,973,973,973,973,0,1343,1343,1343,1343,1343,1338,1338,1338,1338,1338,1338,1338,1338,1333,1333,1333,1338,1338,1338,1338,1338,1338,1338,1338,1338,1338,1333,1333,1333,1333,1333,1333,1333,1333,1333,1333,1333,1333,1328,1328,1328,1328,1328,1328,1328,1328,1328,1328,1333,1333,1333,1333,1333,1333,1333,1333,1328,1328,1328,1328,1328,1328,1328,1328,1328,1328,1328,1328,1328,1328,1328,1333,1328,1328,1328,1328,1322,1322,1322,1322,1322,1322,1322,1322,1322,1322,1317,1317,1317,1322,1317,1317,1317,1317,1317,1312,1312,1312,1312,1317,1317,1317,1317,1312,1312,1312,1312,1312,1312,1317,1317,1317,1317,1317,1317,1317,1317,1317,1317,1317,1317,1312,1312,1312,1312,1312,1312,1312,1312,1312,1307,1307,1307,1307,1307,1307,1307,1307,1307,1307,1307,1302,1297,1292,1292,1292,1292,1288,1288,1288,1288,1283,1283,1278,1273,1268,1264,1259,1259,1255,1255,1255,1255,1250,1250,1250,1241,1236,1236,1236,1232,1232,1232,1227,1223,1223,1219,1219,1214,1214,1210,1210,1206,1206,1202,1202,1197,1197,1197,1193,1189,1189,1185,1185,1181,1181,1177,1173,1169,1169,1165,1165,1161,1157,1157,1153,1153,1149,1149,1149,1145,1145,1141,1138,1138,1134,1134,1134,1130,1126,1123,1123,1123,1119,1119,1119,1115,1112,1108,1108,1108,1108,1105,1105,1101,1101,1097,1097,1094,1094,1094,1090,1090,1084,1084,1084,1080,1080,1077,1077,1073,1070,1070,0,0,0,0,0,0,0,0,0,0,0,0,0,0,0,0,0,0,0,0,0,0,0,0,0,0,0,0,0,0,0,0
0,0,0,0,0,0,0,0,0,0,1404,1404,1404,1410,1404,1404,1410,1410,1410,1410,1404,1404,1404,1404,1404,1404,1404,1404,1404,1404,1404,1404,1410,1404,1404,1404,1404,1398,1398,1398,1392,1392,1392,1398,1398,1398,1398,1398,1398,1398,1398,1398,1392,1392,1392,1392,1392,1398,1392,1392,1392,1398,1398,1398,1398,1398,1392,1392,1392,1392,1392,1392,1392,1392,1392,1392,1392,1038,1038,1038,1038,1038,1041,1041,1044,1044,1047,1047,1047,1047,1047,1047,1047,1047,1047,0,0,0,0,0,0,0,0,0,0,0,703,700,700,698,698,698,697,697,697,698,698,700,700,700,701,703,703,704,704,704,706,706,707,708,708,710,710,711,711,713,0,0,0,0,0,1115,1112,1112,1115,1115,1115,1115,1115,1115,1119,1119,1119,1119,1123,1123,1123,1126,1126,1126,1130,1130,1130,1134,1134,1134,1134,1138,1138,1138,1141,1141,1141,1141,1141,1145,1145,1145,1149,1149,1149,1149,1149,1149,1149,1145,1141,1138,1134,1130,1130,1123,1119,1115,1112,1112,1108,1105,1105,1105,1105,1101,1097,1097,1097,1097,1097,1387,1376,1376,1376,1370,1370,1370,1370,1370,1370,1370,1370,1370,1365,1365,1365,1365,1365,1365,1365,1365,1365,1365,1365,1365,1365,1365,1365,1365,1365,1365,1365,1365,1365,1365,1365,1365,1365,1365,1365,1365,1365,1359,1359,1359,1359,1359,1359,1359,1365,1365,1365,1359,1359,1359,1354,1292,1288,1283,1278,1273,1268,1268,1264,1264,1264,1264,1268,1268,1268,1268,1268,1268,1268,1365,1365,1359,1359,1354,1354,1359,1354,1354,1354,1354,1354,1354,1354,1354,1354,1354,1354,1354,1354,1354,1354,1349,1349,1349,1349,1349,1349,1349,1349,1343,1343,1343,1343,1343,1349,1343,1338,1338,1338,1333,1333,1333,1333,0,975,0,975,975,970,970,967,967,964,962,959,959,956,956,959,959,962,962,964,967,967,970,970,970,973,975,975,975,0,1338,1338,1338,1338,1338,1338,1338,1338,1338,1333,1333,1333,1333,1333,1333,1333,1333,1333,1333,1338,1338,1338,1333,1333,1333,1333,1328,1328,1328,1328,1328,1328,1328,1328,1328,1328,1328,1328,1322,1322,1322,1322,1322,1328,1328,1328,1328,1328,1328,1328,1328,1328,1328,1328,1328,1328,1328,1328,1328,1328,1322,1322,1322,1322,1322,1322,1322,1328,1328,1328,1328,1328,1322,1322,1322,1317,1317,1317,1317,1317,1317,1317,1317,1317,1317,1317,1317,1317,1317,1317,1317,1312,1312,1312,1312,1312,1312,1312,1312,1312,1312,1312,1312,1312,1312,1312,1312,1312,1312,1312,1312,1312,1312,1312,1312,1317,1317,1317,1312,1312,1312,1312,1312,1312,1307,1307,1312,1307,1307,1307,1307,1307,1307,1307,1302,1302,1302,1302,1302,1302,1302,1297,1297,1292,1292,1292,1292,1288,1288,1288,1288,1283,1283,1278,1273,1268,1264,1264,1259,1259,1255,1255,1255,1250,1250,1250,1241,1241,1236,1236,1232,1232,1232,1227,1223,1223,1219,1219,1214,1214,1210,1210,1206,1206,1202,1202,1197,1197,1197,1193,1189,1189,1185,1185,1181,1181,1177,1173,1169,1169,1169,1165,1165,1161,1157,1157,1153,1153,1153,1149,1145,1145,1141,1138,1138,1138,1134,1134,1130,1126,1123,1123,1123,1119,1119,1119,1115,1112,1108,1108,1108,1108,1105,1105,1101,1101,1097,1097,1094,1094,1094,1090,1090,1087,1084,1084,1080,1080,1080,1077,1077,1073,1073,0,0,0,0,0,0,0,0,0,0,0,0,0,0,0,0,0,0,0,0,0,0,0,0,0,0,0,0,0,0,0,0
0,0,0,0,0,0,0,0,0,0,1392,1392,1398,1398,1398,1398,1404,1404,1398,1398,1404,1398,1398,1398,1398,1398,1398,1398,1398,1398,1398,1398,1404,1404,1404,1398,1398,1398,1398,1392,1392,1392,1392,1392,1392,1392,1392,1392,1392,1392,1392,1392,1392,1392,1392,1392,1392,1392,1392,1392,1392,1392,1392,1392,1392,1392,1392,1392,1392,1387,1387,1387,1387,1392,1392,1392,1392,0,1041,1041,1041,1041,1041,1044,1044,1044,1047,1047,1050,1050,1050,1047,1047,1047,1047,0,0,0,0,0,0,0,0,0,0,0,703,703,701,698,698,698,698,698,698,698,700,700,701,701,703,703,703,704,704,706,707,707,708,708,710,710,710,711,711,713,0,0,0,0,0,0,1112,1112,1115,1115,1115,1119,1119,1119,1119,1119,1119,1119,1123,1123,1123,1126,1126,1130,1130,1130,1134,1134,1134,1134,1138,1138,1138,1141,1141,1141,1141,1141,1141,1145,1145,1145,1145,1145,1149,1149,1149,1149,1149,1145,1141,1138,1134,1130,1130,1123,1115,1112,1108,1108,1105,1105,1101,1101,1101,1101,1097,1097,1097,1094,1090,1090,1376,1376,1376,1370,1370,1370,1370,1370,1370,1370,1365,1365,1365,1365,1365,1365,1365,1365,1365,1365,1365,1365,1365,1365,1359,1359,1365,1365,1365,1365,1365,1365,1359,1359,1359,1359,1359,1359,1359,1359,1359,1359,1359,1354,1354,1359,1359,1359,1359,1359,1359,1359,1354,1354,1349,1292,1292,1288,1283,1278,1268,1268,1268,1268,1268,1268,1268,1268,1268,1268,1268,1268,1268,1365,1354,1354,1354,1349,1349,1349,1349,1349,1349,1349,1349,1349,1349,1349,1349,1349,1349,1349,1349,1349,1349,1349,1349,1349,1349,1349,1343,1343,1343,1343,1343,1343,1343,1343,1343,1343,1338,1333,1333,1333,1333,1333,0,0,0,0,975,975,973,973,970,967,964,962,962,959,959,959,959,962,962,964,964,967,967,970,970,973,975,978,978,978,981,1333,1333,1333,1338,1338,1333,1333,1333,1333,1333,1333,1328,1328,1328,1328,1328,1328,1328,1328,1333,1333,1333,1333,1328,1328,1328,1328,1322,1322,1322,1322,1328,1322,1322,1322,1322,1322,1322,1317,1317,1317,1317,1317,1317,1317,1322,1322,1317,1317,1322,1317,1317,1317,1317,1322,1322,1322,1322,1322,1322,1317,1317,1317,1317,1317,1322,1322,1322,1322,1322,1322,1322,1322,1317,1317,1312,1312,1312,1312,1312,1312,1312,1312,1312,1312,1312,1312,1312,1312,1312,1312,1312,1312,1312,1312,1312,1312,1312,1312,1312,1312,1312,1312,1312,1312,1307,1307,1307,1307,1307,1307,1307,1307,1307,1312,1312,1312,1312,1312,1312,1312,1312,1307,1307,1307,1307,1307,1307,1307,1307,1302,1302,1302,1302,1302,1302,1302,1302,1302,1297,1297,1297,1292,1292,1292,1292,1292,1288,1288,1288,1288,1283,1283,1278,1273,1268,1264,1264,1259,1259,1255,1255,1255,1255,1250,1250,1245,1241,1241,1236,1236,1232,1232,1227,1227,1223,1219,1219,1214,1214,1210,1206,1206,1206,1202,1202,1202,1197,1197,1193,1189,1189,1189,1185,1185,1181,1177,1177,1173,1169,1169,1165,1165,1161,1161,1157,1153,1153,1153,1149,1145,1145,1141,1138,1138,1134,1134,1134,1130,1126,1126,1123,1123,1123,1119,1119,1115,1112,1108,1108,1108,1108,1105,1105,1105,1101,1097,1097,1094,1094,1094,1090,1090,1090,1084,1084,1080,1080,1080,1077,1077,1073,1073,0,0,0,0,0,0,0,0,0,0,0,0,0,0,0,0,0,0,0,0,0,0,0,0,0,0,0,0,0,0,0,0
0,0,0,0,0,0,0,0,0,0,1387,1387,1387,1392,1392,1392,1392,1392,1392,1392,1392,1392,1392,1392,1392,1392,1392,1392,1392,1392,1392,1392,1392,1392,1392,1392,1392,1392,1392,1387,1387,1387,1387,1387,1387,1387,1387,1392,1392,1392,1392,1392,1392,1392,1392,1392,1392,1387,1387,1387,1387,1387,1387,1387,1387,1387,1387,1387,1387,1387,1387,1387,1387,1387,1387,1387,1387,0,1041,1041,1041,1041,1044,1044,1047,1047,1047,1050,1050,1050,1050,1050,1050,1050,1050,0,0,0,0,0,0,0,0,0,0,0,704,704,703,700,698,698,698,698,698,698,700,700,701,703,703,703,704,704,704,706,707,707,708,708,710,710,710,711,713,713,0,0,0,0,0,0,1115,1115,1115,1115,1119,1119,1119,1119,1119,1119,1119,1119,1123,1123,1126,1126,1126,1130,1130,1130,1134,1134,1134,1134,1138,1138,1138,1138,1141,1141,1141,1141,1141,1141,1145,1145,1145,1145,1149,1149,1149,1349,1349,1145,1141,1138,1134,1130,1130,1119,1115,1112,1108,1108,1105,1101,1101,1101,1097,1097,1094,1094,1094,1094,1087,1084,1084,1376,1376,1376,1376,1370,1370,1370,1365,1365,1359,1359,1359,1359,1359,1359,1359,1359,1359,1359,1359,1359,1359,1359,1359,1359,1359,1359,1359,1359,1359,1359,1354,1354,1354,1354,1354,1354,1354,1354,1354,1354,1354,1354,1354,1354,1354,1354,1354,1354,1354,1354,1349,1349,1343,1302,1292,1288,1288,1278,1268,1268,1268,1268,1268,1268,1268,1273,1273,1273,1273,1273,1273,1283,1333,1338,1338,1338,1343,1343,1343,1343,1343,1343,1343,1343,1343,1343,1343,1343,1343,1343,1343,1343,1343,1343,1343,1343,1343,1343,1343,1338,1338,1338,1338,1338,1338,1338,1338,1338,1333,1333,1333,1333,1333,1333,0,0,0,0,975,973,973,973,970,967,967,964,962,959,959,959,962,962,964,964,964,967,967,970,970,973,975,978,978,981,981,1333,1333,1333,1333,1333,1328,1328,1328,1328,1322,1322,1322,1322,1322,1322,1322,1328,1328,1328,1328,1328,1328,1328,1328,1328,1328,1322,1322,1322,1322,1322,1322,1322,1322,1317,1317,1317,1317,1317,1317,1317,1312,1312,1317,1317,1317,1312,1312,1312,1312,1312,1312,1312,1312,1312,1312,1312,1312,1317,1317,1317,1312,1312,1312,1312,1312,1312,1312,1317,1317,1317,1317,1317,1312,1312,1312,1312,1312,1312,1312,1312,1312,1312,1312,1312,1312,1312,1312,1312,1307,1307,1312,1307,1307,1307,1307,1307,1307,1307,1307,1307,1307,1307,1307,1307,1302,1302,1307,1307,1307,1307,1307,1307,1307,1307,1307,1307,1307,1307,1307,1307,1307,1307,1307,1307,1307,1307,1307,1302,1302,1302,1302,1302,1297,1297,1297,1297,1297,1297,1297,1297,1292,1292,1292,1292,1292,1292,1288,1288,1288,1283,1283,1278,1273,1273,1268,1268,1264,1264,1259,1259,1255,1255,1255,1255,1250,1245,1241,1241,1236,1236,1232,1232,1227,1227,1223,1219,1219,1214,1214,1210,1206,1206,1206,1202,1202,1202,1197,1197,1193,1189,1189,1189,1185,1185,1181,1177,1173,1173,1169,1169,1169,1165,1165,1161,1157,1157,1153,1153,1149,1145,1145,1141,1138,1138,1134,1134,1134,1130,1126,1126,1123,1123,1123,1119,1119,1115,1112,1108,1108,1108,1108,1105,1105,1105,1101,1097,1097,1094,1094,1094,1090,1090,1087,1087,1084,1080,1080,1080,1077,1077,1077,1077,0,0,0,0,0,0,0,0,0,0,0,0,0,0,0,0,0,0,0,0,0,0,0,0,0,0,0,0,0,0,0,0
0,0,0,0,0,0,0,0,0,0,1387,1387,1387,1387,1381,1381,1381,1381,1387,1387,1387,1387,1387,1387,1381,1381,1387,1387,1387,1387,1387,1387,1387,1387,1387,1387,1387,1387,1387,1387,1387,1387,1381,1381,1387,1387,1381,1381,1392,1392,1392,1392,1392,1392,1392,1387,1387,1387,1387,1387,1387,1387,1387,1387,1387,1387,1387,1387,1387,1387,1387,1381,1370,1365,1365,1387,1387,0,1047,1047,1047,1047,1047,1047,1047,1047,1047,1050,1050,1050,1050,1050,1050,1054,1054,1057,0,0,0,0,0,0,0,0,0,0,706,704,703,700,698,698,698,698,698,700,700,701,701,703,703,704,704,704,706,706,707,707,708,708,710,710,710,713,713,713,0,0,0,0,0,0,1115,1115,1115,1115,1119,1119,1119,1119,1119,1119,1119,1123,1123,1123,1126,1126,1126,1130,1130,1130,1134,1134,1134,1134,1138,1138,1138,1138,1141,1141,1141,1141,1141,1141,1145,1145,1145,1359,1149,1149,1349,1349,1349,1349,1354,1138,1134,1130,1130,1119,1115,1112,1108,1105,1105,1101,1101,1101,1097,1094,1090,1090,1090,1090,1087,1084,1077,1077,1376,1376,1376,1370,1370,1370,1365,1359,1354,1354,1354,1354,1354,1354,1354,1354,1359,1354,1354,1354,1354,1354,1354,1354,1354,1354,1354,1354,1354,1354,1354,1349,1349,1349,1349,1349,1349,1349,1349,1349,1349,1349,1349,1349,1349,1349,1349,1349,1349,1349,1343,1343,1338,1307,1297,1292,1288,1283,1278,1273,1268,1268,1268,1268,1273,1273,1273,1278,1278,1278,1283,1283,1322,1328,1333,1333,1333,1333,1333,1333,1333,1333,1338,1338,1338,1338,1338,1343,1343,1343,1338,1338,1338,1338,1338,1338,1338,1338,1338,1333,1333,1333,1333,1333,1333,1333,1333,1338,1333,1333,1333,1328,1328,1328,0,1333,0,973,0,973,973,973,970,970,967,964,964,962,962,962,964,964,964,964,967,967,970,970,973,975,978,978,978,981,981,1328,1328,1328,1328,1328,1328,1322,1322,1317,1317,1317,1322,1317,1317,1322,1322,1322,1322,1322,1322,1322,1322,1322,1322,1322,1322,1322,1317,1317,1317,1317,1317,1317,1317,1317,1317,1312,1312,1312,1312,1312,1312,1312,1312,1312,1312,1312,1312,1312,1312,1312,1312,1312,1312,1312,1312,1312,1307,1307,1312,1307,1307,1312,1312,1312,1312,1312,1312,1312,1312,1312,1312,1312,1312,1312,1307,1307,1307,1307,1307,1307,1307,1307,1307,1307,1307,1307,1307,1307,1307,1307,1307,1307,1307,1307,1307,1307,1307,1307,1307,1302,1302,1302,1302,1302,1297,1297,1297,1302,1302,1297,1297,1297,1297,1302,1302,1302,1302,1302,1297,1297,1297,1297,1302,1302,1302,1302,1302,1297,1297,1297,1297,1297,1292,1292,1292,1297,1297,1297,1297,1292,1292,1292,1292,1288,1288,1288,1288,1288,1288,1283,1283,1278,1273,1273,1268,1268,1268,1264,1259,1259,1255,1255,1255,1255,1250,1250,1241,1241,1236,1236,1232,1232,1232,1227,1223,1223,1219,1219,1214,1214,1210,1210,1210,1206,1202,1202,1197,1197,1193,1189,1189,1189,1185,1185,1181,1177,1173,1173,1169,1169,1169,1165,1165,1161,1161,1157,1153,1153,1149,1145,1145,1145,1138,1138,1138,1138,1134,1134,1130,1126,1123,1123,1123,1119,1119,1115,1112,1108,1108,1108,1108,1108,1105,1105,1101,1101,1097,1094,1094,1094,1090,1090,1087,1087,1084,1080,1080,1080,1077,1077,1077,1077,0,0,0,0,0,0,0,0,0,0,0,0,0,0,0,0,0,0,0,0,0,0,0,0,0,0,0,0,0,0,0,0
0,0,0,0,0,0,0,0,0,0,1387,1387,1387,1381,1376,1376,1376,1376,1376,1376,1376,1381,1381,1381,1381,1381,1381,1381,1381,1381,1381,1381,1381,1387,1387,1381,1381,1387,1387,1381,1381,1381,1381,1381,1381,1376,1376,1381,1387,1387,1387,1392,1387,1387,1387,1387,1381,1381,1381,1376,1376,1381,1381,1381,1381,1381,1381,1381,1381,1381,1381,1376,1365,1365,1365,1365,0,0,1047,1047,1047,1047,1047,1047,1047,1047,1047,1050,1050,1050,1050,1050,1054,1054,1057,1057,1060,0,0,0,0,0,0,0,0,0,0,0,703,700,700,700,700,700,700,701,701,703,703,703,703,704,704,706,706,707,707,708,708,708,710,710,711,713,713,713,0,0,0,0,0,0,1115,1115,1115,1115,1119,1119,1119,1119,1119,1123,1123,1123,1126,1126,1126,1126,1126,1130,1130,1134,1134,1134,1134,1134,1138,1138,1138,1138,1138,1138,1141,1141,1359,1359,1359,1354,1354,1354,1354,1354,1349,1349,1349,1349,1349,1349,1134,1134,1130,1130,1115,1112,1108,1105,1105,1101,1101,1097,1094,1090,1087,1087,1087,1087,1084,1080,1077,1077,1073,1073,1376,1370,1365,1365,1359,1354,1354,1354,1349,1349,1349,1349,1349,1349,1349,1349,1349,1349,1354,1349,1349,1349,1349,1349,1349,1349,1349,1349,1349,1349,1349,1349,1349,1343,1343,1343,1343,1343,1343,1343,1343,1343,1343,1343,1343,1343,1343,1338,1338,1338,1333,1312,1302,1292,1288,1283,1283,1278,1273,1273,1273,1273,1273,1273,1278,1278,1278,1283,1283,1288,1317,1322,1328,1328,1328,1328,1328,1328,1328,1328,1328,1328,1333,1333,1333,1338,1338,1338,1333,1333,1333,1333,1333,1333,1333,1333,1333,1328,1328,1328,1328,1328,1328,1328,1333,1333,1333,1328,1328,1328,1328,1328,1333,1333,0,0,0,975,975,973,973,970,967,967,967,964,964,964,964,964,967,967,967,970,970,970,973,975,978,978,978,981,981,0,1322,1322,1322,1322,1322,1317,1317,1312,1312,1312,1317,1312,1312,1312,1312,1317,1317,1317,1317,1317,1317,1317,1317,1317,1317,1317,1317,1317,1312,1312,1312,1312,1312,1312,1312,1312,1312,1312,1312,1312,1312,1312,1307,1307,1312,1312,1312,1312,1312,1312,1312,1312,1312,1307,1307,1307,1307,1307,1307,1307,1307,1307,1307,1307,1307,1307,1307,1307,1307,1307,1307,1307,1307,1307,1307,1307,1307,1307,1307,1307,1302,1302,1302,1302,1302,1302,1302,1302,1302,1302,1302,1302,1302,1302,1302,1302,1302,1302,1302,1302,1302,1297,1297,1297,1292,1292,1297,1297,1297,1292,1292,1292,1292,1292,1297,1297,1297,1292,1292,1297,1292,1292,1292,1292,1292,1292,1297,1292,1292,1292,1292,1292,1292,1292,1292,1292,1292,1292,1292,1292,1292,1288,1288,1288,1288,1288,1288,1288,1283,1283,1278,1278,1273,1273,1268,1268,1268,1264,1264,1259,1255,1255,1255,1255,1250,1250,1250,1241,1241,1236,1236,1232,1232,1227,1223,1223,1219,1219,1214,1214,1210,1210,1210,1206,1202,1202,1197,1197,1193,1189,1189,1189,1185,1185,1181,1181,1173,1173,1169,1169,1169,1165,1165,1165,1161,1157,1153,1153,1149,1145,1145,1145,1141,1138,1138,1138,1134,1134,1130,1126,1126,1123,1123,1123,1119,1115,1112,1108,1108,1108,1108,1105,1105,1105,1101,1101,1097,1094,1094,1094,1090,1090,1087,1087,1084,1080,1080,1080,1080,1077,1077,1077,0,0,0,0,0,0,0,0,0,0,0,0,0,0,0,0,0,0,0,0,0,0,0,0,0,0,0,0,0,0,0,0
