0,0,0,0,0,0,0,0,0,0,0,0,0,1594,1586,1586,1586,1579,1579,1579,1586,1586,1586,1579,1579,1586,1586,1586,1586,1579,1579,1579,1579,1579,1579,1579,1579,1579,1579,1579,1579,1579,1579,1579,1579,1572,1572,1572,1572,1579,1572,1572,1579,1579,1579,1579,1579,1579,1594,1594,1594,1601,1601,1601,1601,1926,1915,1915,1915,1915,1915,1904,1894,1894,1883,1873,1873,1873,1873,1863,1863,1863,1853,1572,1572,1594,1594,1594,1594,1594,1594,1594,1594,1594,1594,1594,1601,1601,1601,1609,1609,1616,1616,1616,1616,1616,1624,1624,1624,1632,1632,1632,1639,1639,1639,1647,1647,1647,1655,1655,1655,1655,1655,1655,1663,1671,1671,1680,1680,1688,1688,1688,1688,1696,1696,1696,1696,1705,1705,1705,1705,1705,1713,1713,1722,1722,1722,1731,1731,1731,1731,1731,1739,1748,1748,1748,1748,1739,1739,0,0,0,1077,1077,1077,1077,1073,1073,1070,1070,1070,1067,1063,1063,1063,1063,1060,1060,1060,1060,1060,1057,1057,1054,1054,1050,1047,1047,1047,1047,1047,1044,1044,1041,1041,1038,1038,1038,1034,1034,1028,1028,1025,1022,1022,1022,1022,1019,1019,1016,1016,1013,1010,1010,1010,1007,1004,1004,1001,1001,998,998,998,992,992,989,989,987,987,987,987,984,981,978,978,975,975,973,973,970,970,967,967,964,962,959,956,956,954,951,948,946,946,943,943,940,938,935,933,933,930,928,925,925,923,923,920,918,915,915,913,910,906,903,903,898,896,896,896,891,889,887,885,882,880,880,878,878,875,875,873,871,871,871,873,873,875,875,878,878,880,885,887,887,887,887,887,0,0,0,0,0,0,1483,1483,1489,1483,1483,1477,1477,1470,1470,1470,1464,1464,1464,1458,1458,1452,1445,1445,1439,1439,1439,1439,1439,1439,1433,1433,1433,1433,1427,1427,1421,1421,1421,1415,1415,1410,1410,1404,1404,1398,1398,1398,1398,1398,1392,1392,1392,1392,1387,1381,1381,1376,1376,1376,1370,1370,1370,1370,1365,1359,1359,1359,1359,1354,1354,1354,1354,1349,1349,1349,1343,1343,1338,1333,1333,1333,1333,1328,1328,1328,1328,1328,1328,1322,1322,1317,1312,1312,1312,1307,1307,1302,1302,1302,1302,1297,1297,1292,1292,1292,1288,1288,1288,1288,1288,1283,1283,1278,1273,1273,1273,1273,1268,1268,1268,1264,1264,1259,1259,1255,1255,1255,1255,1250,1250,1250,1250,1250,1241,1241,1236,1236,1236,1232,1232,1232,1232,1227,1227,1223,1223,1223,1223,1223,1219,1219,1214,1214,1214,1214,1214,1214,1210,1210,1206,1202,1202,1197,1197,1197,1193,1193,1189,1189,1189,1185,1185,1181,1181,1181,1181,1181,1177,1177,1173,1169,1169,1169,1165,1165,1165,1165,1161,1161,1157,1157,1153,1153,1153,1153,1149,1149,1149,1145,1145,1141,1141,1138,1138,1138,1138,1134,1134,1134,1130,1126,1123,1123,1123,1123,1123,1123,1119,1119,1119,1115,1115,1112,1112,1108,1108,1108,1105,1105,1105,1105,1105,1101,1097,1097,1094,1094,1094,1094,1094,1090,1087,1087,1084,1084,1080,1080,1080,1080,1080,1080,1077,1077,1077,1077,1073,1073,1070,1070,1067,1067,1067,1067,1067,1063,1063,1063,1060,1060,1057,1057,1054,1054,1054,1054,1050,1050,1050,1050,1050,1047,1047,1044,1044,1041,1041,1041,1041,1038,1038,1038,1038,1034,1031,1031,1028,1028,1028,1028,1028,1028,0,0,0,0,0,0,0,0,0,0,0,0,0,0,0,0,0,0,0,0,0,0,0,0,0,0,0,0,0,0,0
0,0,0,0,0,0,0,0,0,0,0,0,0,1594,1586,1586,1586,1579,1579,1579,1579,1579,1586,1586,1586,1586,1586,1586,1586,1586,1586,1586,1586,1586,1579,1579,1579,1579,1579,1579,1579,1579,1579,1579,1579,1579,1579,1572,1572,1579,1579,1579,1579,1579,1579,1579,1586,1586,1594,1594,1594,1601,1601,1601,1601,1926,1926,1926,1915,1915,1904,1904,1904,1894,1883,1883,1873,1873,1873,1873,1863,1863,1853,1594,1594,1594,1594,1594,1594,1594,1594,1594,1594,1594,1594,1594,1601,1601,1601,1609,1609,1616,1616,1616,1616,1616,1624,1632,1632,1632,1632,1632,1639,1639,1647,1647,1655,1655,1655,1655,1655,1655,1655,1655,1663,1671,1671,1680,1680,1688,1688,1688,1688,1696,1696,1696,1705,1705,1705,1705,1713,1713,1713,1713,1722,1722,1722,1731,1731,1731,1739,1739,1739,1748,1748,1748,1748,1748,1748,0,1766,0,0,0,1077,1077,1073,1073,1070,1070,1070,1067,1063,1063,1063,1063,1060,1060,1060,1060,1060,1060,1057,1054,1054,1050,1050,1047,1047,1047,1047,1044,1044,1041,1041,1038,1038,1038,1034,1034,1028,1028,1025,1022,1022,1022,1022,1019,1019,1016,1016,1016,1013,1010,1010,1007,1004,1004,1001,1001,1001,998,998,998,992,992,989,989,987,987,987,984,981,978,978,975,975,973,973,970,970,967,967,964,962,959,956,956,954,951,948,946,946,943,943,940,938,935,933,933,930,928,925,925,923,923,920,918,915,913,910,910,906,906,903,903,896,896,896,891,889,887,885,882,880,880,878,878,875,875,873,871,871,871,873,873,875,875,878,878,882,885,887,887,887,887,889,0,0,0,0,0,0,1483,1483,1489,1483,1483,1483,1477,1470,1470,1470,1470,1464,1464,1464,1458,1458,1452,1452,1445,1445,1439,1439,1439,1439,1433,1433,1433,1433,1427,1427,1421,1421,1421,1415,1415,1410,1410,1410,1404,1398,1398,1398,1398,1398,1398,1392,1392,1392,1392,1387,1381,1381,1376,1376,1376,1370,1370,1370,1365,1365,1365,1359,1359,1354,1354,1354,1354,1354,1349,1349,1343,1343,1338,1338,1338,1333,1333,1333,1328,1328,1328,1328,1328,1322,1317,1317,1317,1312,1312,1307,1307,1307,1302,1302,1302,1302,1297,1297,1292,1292,1292,1292,1288,1288,1288,1288,1283,1278,1278,1273,1273,1273,1273,1268,1268,1264,1264,1264,1259,1259,1255,1255,1255,1255,1250,1250,1250,1250,1245,1241,1236,1236,1236,1236,1232,1232,1232,1232,1227,1227,1223,1223,1223,1223,1219,1219,1219,1214,1214,1214,1214,1214,1210,1210,1206,1202,1202,1202,1197,1197,1193,1193,1189,1189,1189,1185,1185,1185,1181,1181,1181,1181,1181,1177,1177,1173,1169,1169,1169,1165,1165,1165,1161,1161,1157,1157,1153,1153,1153,1153,1149,1149,1149,1145,1145,1141,1141,1138,1138,1138,1138,1138,1134,1134,1130,1130,1126,1123,1123,1123,1123,1123,1119,1119,1119,1115,1115,1112,1112,1108,1108,1108,1108,1108,1108,1105,1105,1105,1101,1097,1094,1094,1094,1094,1094,1090,1090,1087,1087,1084,1084,1084,1084,1080,1080,1080,1080,1077,1077,1077,1077,1073,1070,1070,1067,1067,1067,1067,1067,1063,1063,1063,1060,1060,1060,1057,1057,1057,1054,1054,1054,1050,1050,1050,1050,1050,1047,1047,1044,1041,1041,1041,1041,1041,1038,1038,1038,1034,1031,1031,1028,1028,1028,1028,1028,1028,0,0,0,0,0,0,0,0,0,0,0,0,0,0,0,0,0,0,0,0,0,0,0,0,0,0,0,0,0,0,0
0,0,0,0,0,0,0,0,0,0,0,0,0,1594,1586,1586,1586,1579,1579,1579,1579,1579,1586,1586,1586,1586,1586,1586,1586,1586,1586,1586,1586,1586,1586,1579,1579,1586,1586,1586,1586,1586,1579,1579,1579,1579,1579,1579,1579,1579,1579,1579,1579,1579,1579,1579,1579,1586,1594,1594,1594,1601,1601,1601,1601,1926,1926,1915,1915,1915,1904,1904,1904,1894,1883,1883,1873,1873,1873,1873,1863,1863,1853,1594,1594,1594,1594,1594,1594,1594,1594,1594,1594,1594,1594,1594,1601,1601,1601,1609,1609,1616,1616,1616,1616,1616,1624,1624,1624,1632,1632,1639,1639,1639,1647,1647,1655,1655,1655,1655,1655,1655,1663,1663,1663,1671,1671,1671,1680,1680,1688,1688,1688,1696,1696,1705,1705,1705,1713,1713,1713,1713,1713,1722,1722,1722,1731,1731,1731,1739,1739,1739,1748,1748,1748,1757,1757,1757,1757,1766,0,0,0,0,1077,1077,1077,1073,1070,1070,1070,1067,1063,1063,1063,1063,1060,1060,1060,1060,1060,1060,1057,1054,1054,1050,1050,1047,1047,1047,1047,1044,1044,1041,1041,1038,1038,1034,1034,1034,1031,1028,1028,1025,1022,1022,1022,1019,1019,1019,1016,1016,1013,1010,1010,1007,1007,1004,1001,1001,1001,998,998,998,995,992,989,989,989,987,987,984,981,978,978,975,975,975,973,970,970,967,967,964,964,959,959,956,954,951,948,946,946,943,943,940,938,935,933,933,930,928,925,925,923,923,920,918,915,913,910,910,908,906,903,903,898,896,896,891,891,887,885,885,882,880,878,878,875,875,873,871,871,873,873,873,875,875,878,880,882,885,887,887,887,887,889,0,0,0,0,0,0,1483,1483,1489,1483,1483,1483,1477,1470,1470,1470,1470,1464,1464,1464,1458,1458,1458,1458,1452,1445,1445,1445,1439,1439,1439,1433,1433,1433,1427,1427,1421,1421,1421,1415,1415,1415,1410,1410,1404,1404,1404,1404,1398,1398,1398,1398,1392,1392,1392,1387,1387,1381,1381,1376,1376,1370,1370,1370,1365,1365,1365,1359,1359,1354,1354,1354,1354,1354,1349,1349,1349,1343,1343,1338,1338,1333,1333,1333,1328,1328,1328,1328,1328,1322,1317,1317,1317,1312,1312,1307,1307,1307,1307,1307,1302,1302,1302,1297,1292,1292,1292,1292,1288,1288,1288,1288,1283,1283,1278,1278,1273,1273,1273,1268,1268,1268,1264,1264,1259,1259,1255,1255,1255,1255,1250,1250,1250,1250,1245,1241,1241,1236,1236,1236,1232,1232,1232,1232,1227,1227,1227,1227,1227,1223,1219,1219,1219,1214,1214,1214,1214,1210,1210,1210,1206,1202,1202,1202,1197,1197,1197,1193,1193,1189,1189,1185,1185,1185,1181,1181,1181,1181,1181,1177,1177,1173,1169,1169,1169,1169,1165,1165,1165,1161,1161,1157,1157,1153,1153,1153,1149,1149,1149,1145,1145,1141,1141,1141,1138,1138,1138,1138,1138,1134,1134,1130,1126,1123,1123,1123,1123,1123,1123,1119,1119,1119,1115,1112,1112,1108,1108,1108,1108,1108,1108,1105,1105,1105,1101,1097,1097,1094,1094,1094,1094,1090,1090,1090,1087,1087,1087,1087,1084,1084,1080,1080,1080,1077,1077,1077,1077,1073,1070,1070,1067,1067,1067,1067,1067,1063,1063,1063,1060,1060,1060,1057,1057,1057,1054,1054,1054,1054,1050,1050,1050,1050,1047,1047,1044,1041,1041,1041,1041,1041,1038,1038,1038,1038,1034,1031,1028,1028,1028,1028,1028,1028,0,0,0,0,0,0,0,0,0,0,0,0,0,0,0,0,0,0,0,0,0,0,0,0,0,0,0,0,0,0,0
0,0,0,0,0,0,0,0,0,0,0,0,0,1594,1586,1586,1586,1579,1579,1579,1579,1586,1586,1586,1586,1586,1594,1586,1586,1594,1594,1586,1586,1586,1586,1579,1579,1586,1586,1586,1586,1586,1586,1579,1579,1579,1579,1579,1579,1579,1579,1579,1579,1579,1579,1579,1579,1586,1594,1594,1594,1601,1601,1601,1601,1926,1926,1915,1915,1915,1904,1904,1904,1894,1883,1883,1873,1873,1873,1873,1863,1863,1853,1594,1594,1594,1594,1594,1594,1594,1594,1594,1594,1594,1594,1594,1601,1601,1601,1609,1616,1616,1616,1624,1624,1624,1624,1624,1624,1632,1632,1639,1639,1647,1655,1655,1655,1655,1655,1655,1663,1663,1663,1663,1663,1663,1671,1671,1680,1680,1688,1688,1688,1696,1696,1705,1705,1705,1705,1713,1713,1713,1713,1722,1722,1722,1731,1731,1731,1739,1739,1739,1748,1757,1757,1757,1757,1757,1757,1766,0,0,0,0,1080,1077,1077,1073,1073,1070,1070,1067,1067,1063,1063,1063,1063,1060,1060,1060,1060,1060,1057,1054,1054,1050,1050,1050,1047,1047,1047,1044,1044,1041,1041,1038,1038,1034,1034,1034,1031,1028,1028,1025,1025,1022,1022,1019,1019,1019,1016,1016,1013,1010,1010,1007,1004,1004,1001,1001,1001,998,998,998,995,992,989,989,989,987,987,984,981,978,978,975,975,975,973,970,970,967,967,964,964,959,959,956,954,951,948,948,946,946,943,940,938,935,933,933,930,928,925,925,923,923,920,918,918,915,913,910,908,906,906,903,898,896,896,891,891,889,887,885,882,880,878,878,875,875,873,871,871,873,873,875,875,878,878,880,882,885,887,887,887,887,891,0,0,0,0,0,0,1483,1483,1489,1489,1483,1483,1477,1477,1470,1470,1470,1464,1464,1464,1464,1458,1458,1458,1452,1445,1445,1445,1439,1439,1439,1439,1433,1433,1433,1427,1421,1421,1421,1415,1415,1415,1410,1410,1404,1404,1404,1404,1398,1398,1398,1398,1392,1392,1392,1387,1387,1381,1381,1376,1376,1376,1370,1370,1365,1365,1365,1359,1359,1354,1354,1354,1354,1354,1349,1349,1349,1343,1343,1338,1338,1333,1333,1333,1328,1328,1328,1328,1328,1328,1322,1322,1317,1312,1312,1312,1307,1307,1307,1307,1302,1302,1302,1297,1292,1292,1292,1292,1288,1288,1288,1288,1288,1283,1283,1278,1278,1273,1273,1268,1268,1268,1268,1264,1259,1259,1259,1255,1255,1255,1250,1250,1250,1250,1245,1241,1241,1241,1236,1236,1236,1232,1232,1232,1232,1227,1227,1227,1227,1227,1219,1219,1219,1214,1214,1214,1214,1210,1210,1210,1206,1202,1202,1202,1197,1197,1197,1197,1193,1193,1189,1185,1185,1185,1185,1185,1181,1181,1181,1181,1177,1173,1169,1169,1169,1169,1165,1165,1165,1165,1161,1157,1157,1157,1153,1153,1153,1149,1149,1149,1145,1141,1141,1141,1138,1138,1138,1138,1138,1134,1134,1130,1126,1126,1126,1123,1123,1123,1123,1119,1119,1119,1115,1115,1112,1108,1108,1108,1108,1108,1108,1105,1105,1105,1101,1097,1097,1094,1094,1094,1094,1094,1090,1090,1090,1087,1087,1087,1084,1084,1080,1080,1080,1080,1077,1077,1077,1073,1073,1070,1070,1067,1067,1067,1067,1063,1063,1063,1063,1060,1060,1060,1060,1057,1054,1054,1054,1054,1054,1050,1050,1050,1047,1047,1044,1041,1041,1041,1041,1041,1038,1038,1038,1038,1034,1034,1031,1028,1028,1028,1028,1028,0,0,0,0,0,0,0,0,0,0,0,0,0,0,0,0,0,0,0,0,0,0,0,0,0,0,0,0,0,0,0
0,0,0,0,0,0,0,0,0,0,0,0,0,1594,1586,1586,1586,1579,1579,1579,1579,1586,1586,1586,1586,1586,1594,1586,1586,1594,1594,1594,1594,1586,1586,1586,1586,1586,1586,1586,1586,1586,1586,1586,1586,1586,1586,1579,1579,1579,1579,1579,1579,1579,1579,1579,1579,1586,1594,1594,1594,1601,1601,1601,1601,1609,1926,1926,1915,1915,1904,1904,1904,1894,1883,1883,1883,1873,1873,1873,1863,1863,1853,1586,1586,1594,1594,1594,1601,1601,1601,1601,1601,1594,1594,1594,1601,1601,1601,1601,1609,1616,1616,1616,1616,1624,1624,1624,1624,1632,1632,1639,1639,1647,1655,1655,1655,1655,1655,1655,1663,1663,1663,1663,1663,1663,1671,1671,1680,1688,1688,1688,1688,1696,1696,1696,1705,1705,1705,1713,1713,1713,1713,1722,1722,1722,1731,1731,1731,1739,1739,1739,1757,1757,1757,1757,1757,1757,1757,1757,0,0,0,0,1080,1080,1077,1073,1073,1070,1070,1070,1067,1063,1063,1063,1063,1063,1063,1060,1060,1060,1057,1057,1054,1050,1050,1050,1047,1047,1047,1047,1044,1041,1041,1038,1038,1038,1034,1034,1031,1028,1028,1025,1025,1022,1022,1022,1022,1019,1016,1016,1013,1010,1010,1007,1004,1004,1001,1001,1001,1001,998,998,995,992,989,989,989,987,987,984,981,978,978,975,975,973,973,970,970,967,967,964,964,959,959,956,954,951,948,948,946,946,943,943,938,938,933,933,930,928,925,925,923,923,920,918,918,915,913,910,908,906,906,903,901,896,896,891,891,887,887,885,882,880,878,878,878,875,873,873,873,873,873,875,875,878,878,880,882,885,889,887,887,887,891,0,0,0,0,0,0,1489,1489,1489,1489,1483,1483,1477,1477,1470,1470,1470,1470,1464,1464,1464,1464,1464,1458,1452,1452,1445,1445,1439,1439,1439,1439,1433,1433,1433,1427,1427,1421,1421,1421,1415,1415,1415,1410,1410,1404,1398,1398,1398,1398,1398,1398,1392,1392,1392,1387,1387,1387,1381,1381,1376,1376,1376,1370,1370,1365,1365,1359,1359,1354,1354,1354,1354,1354,1354,1349,1349,1343,1343,1343,1338,1338,1333,1333,1328,1328,1328,1328,1328,1328,1322,1322,1317,1312,1312,1312,1307,1307,1307,1307,1302,1302,1302,1297,1292,1292,1292,1292,1288,1288,1288,1288,1288,1283,1283,1278,1278,1273,1273,1268,1268,1268,1268,1264,1259,1259,1259,1255,1255,1255,1250,1250,1250,1250,1245,1245,1241,1241,1236,1236,1236,1232,1232,1232,1232,1232,1227,1227,1227,1227,1223,1219,1219,1214,1214,1214,1214,1210,1210,1210,1206,1202,1202,1202,1197,1197,1197,1197,1193,1193,1193,1189,1185,1185,1185,1185,1181,1181,1181,1181,1177,1173,1173,1169,1169,1169,1169,1165,1165,1165,1161,1157,1157,1157,1153,1153,1153,1149,1149,1149,1145,1145,1141,1141,1138,1138,1138,1138,1134,1134,1134,1134,1130,1126,1126,1123,1123,1123,1123,1123,1119,1119,1119,1115,1115,1112,1112,1108,1108,1108,1108,1105,1105,1105,1101,1101,1097,1097,1094,1094,1094,1094,1090,1090,1090,1087,1087,1087,1084,1084,1080,1080,1080,1080,1077,1077,1077,1073,1073,1073,1070,1070,1067,1067,1067,1063,1063,1063,1063,1060,1060,1060,1060,1057,1054,1054,1054,1054,1054,1050,1050,1050,1047,1047,1044,1041,1041,1041,1041,1041,1038,1038,1038,1038,1034,1034,1031,1031,1028,1028,1028,1028,0,0,0,0,0,0,0,0,0,0,0,0,0,0,0,0,0,0,0,0,0,0,0,0,0,0,0,0,0,0,0
0,0,0,0,0,0,0,0,0,0,0,0,0,1594,1586,1586,1586,1579,1579,1579,1579,1586,1586,1586,1586,1586,1594,1594,1594,1594,1594,1594,1594,1586,1586,1594,1594,1594,1586,1586,1586,1586,1586,1586,1586,1586,1586,1579,1579,1579,1579,1579,1579,1579,1579,1579,1586,1586,1594,1594,1594,1601,1601,1601,1601,1601,1926,1926,1915,1915,1904,1904,1904,1894,1883,1883,1883,1873,1873,1873,1863,1863,1863,1586,1586,1594,1594,1594,1601,1601,1601,1601,1601,1601,1601,1601,1601,1601,1601,1601,1609,1616,1616,1616,1616,1624,1624,1624,1632,1632,1632,1632,1639,1647,1655,1655,1655,1655,1655,1655,1663,1663,1663,1663,1663,1663,1671,1671,1680,1688,1688,1688,1696,1696,1696,1696,1705,1705,1705,1713,1713,1713,1713,1722,1722,1722,1731,1731,1739,1739,1739,1748,1757,1757,1757,1757,1757,1757,1757,1757,0,0,0,0,1084,1080,1077,1077,1073,1073,1070,1070,1067,1067,1067,1067,1063,1063,1063,1063,1060,1060,1060,1057,1054,1054,1050,1050,1047,1047,1047,1047,1044,1041,1041,1038,1038,1038,1034,1034,1034,1031,1028,1025,1025,1022,1022,1022,1022,1019,1016,1016,1013,1010,1010,1007,1007,1004,1001,1001,1001,1001,998,998,998,992,992,989,989,987,987,987,981,978,978,975,975,973,973,970,970,967,967,964,962,959,959,956,954,951,951,948,946,946,943,943,938,938,935,933,930,928,925,925,923,923,920,920,918,915,913,910,908,908,906,903,901,898,896,891,889,887,887,885,882,882,880,878,875,873,873,873,873,873,875,875,875,878,878,880,882,885,889,889,889,891,891,0,0,0,0,0,0,1489,1489,1489,1489,1489,1483,1483,1477,1477,1477,1470,1470,1470,1464,1464,1464,1464,1458,1458,1452,1445,1445,1439,1439,1439,1439,1439,1439,1433,1433,1427,1427,1421,1421,1415,1415,1415,1415,1410,1404,1398,1398,1398,1398,1398,1392,1392,1392,1392,1387,1387,1387,1387,1381,1381,1376,1376,1370,1370,1370,1365,1365,1359,1359,1359,1359,1354,1354,1354,1349,1349,1349,1343,1343,1338,1338,1333,1333,1328,1328,1328,1328,1328,1328,1322,1322,1322,1317,1312,1312,1307,1307,1307,1307,1302,1302,1302,1302,1292,1292,1292,1292,1292,1288,1288,1288,1288,1283,1283,1278,1278,1273,1273,1268,1268,1268,1268,1264,1264,1264,1259,1259,1255,1255,1255,1255,1250,1250,1250,1245,1241,1241,1236,1236,1236,1236,1232,1232,1232,1232,1232,1232,1232,1227,1223,1219,1219,1219,1214,1214,1214,1210,1210,1210,1206,1202,1202,1202,1197,1197,1197,1197,1193,1193,1193,1189,1185,1185,1185,1185,1185,1181,1181,1181,1177,1177,1173,1169,1169,1169,1169,1165,1165,1165,1161,1161,1157,1157,1157,1153,1153,1149,1149,1149,1145,1145,1141,1141,1141,1141,1138,1138,1134,1134,1134,1134,1130,1126,1126,1126,1123,1123,1123,1123,1119,1119,1119,1119,1115,1112,1112,1108,1108,1108,1108,1105,1105,1105,1105,1101,1101,1097,1097,1094,1094,1094,1090,1090,1090,1087,1087,1087,1084,1084,1084,1080,1080,1080,1080,1077,1077,1077,1077,1073,1073,1070,1067,1067,1067,1067,1067,1063,1063,1063,1060,1060,1060,1057,1057,1054,1054,1054,1054,1054,1054,1050,1050,1047,1044,1041,1041,1041,1041,1041,1038,1038,1038,1038,1034,1034,1034,1031,1031,1028,1028,1028,0,0,0,0,0,0,0,0,0,0,0,0,0,0,0,0,0,0,0,0,0,0,0,0,0,0,0,0,0,0,0
0,0,0,0,0,0,0,0,0,0,0,0,0,1586,1586,1586,1586,1579,1579,1579,1579,1586,1586,1586,1586,1594,1594,1594,1594,1594,1594,1594,1594,1586,1586,1594,1594,1594,1586,1586,1586,1586,1586,1586,1586,1586,1586,1579,1579,1579,1579,1579,1579,1579,1579,1579,1579,1586,1586,1594,1594,1601,1601,1601,1601,1601,1926,1926,1915,1915,1904,1904,1904,1904,1894,1883,1883,1883,1873,1873,1863,1863,1863,1594,1594,1594,1594,1594,1601,1601,1601,1601,1601,1601,1594,1594,1601,1601,1601,1601,1609,1616,1616,1616,1616,1624,1624,1624,1632,1632,1632,1632,1639,1639,1647,1647,1655,1655,1655,1663,1663,1663,1663,1663,1663,1663,1671,1671,1680,1688,1688,1688,1696,1696,1696,1696,1696,1705,1705,1713,1713,1713,1722,1722,1722,1722,1731,1731,1739,1739,1748,1748,1757,1757,1757,1757,1757,1757,1757,1757,0,0,0,1087,0,1080,1077,1077,1073,1073,1070,1070,1067,1067,1067,1067,1067,1067,1063,1063,1063,1063,1063,1060,1057,1057,1054,1054,1050,1047,1047,1047,1044,1041,1041,1038,1038,1038,1034,1034,1034,1031,1031,1028,1025,1025,1022,1022,1022,1019,1019,1016,1013,1010,1010,1007,1007,1004,1001,1001,1001,1001,998,998,998,992,992,989,989,989,987,987,984,981,978,975,975,975,973,970,967,967,967,964,962,959,959,954,954,951,951,948,946,946,943,943,940,938,935,933,930,930,925,925,923,923,920,920,918,915,913,910,910,908,906,903,901,898,896,891,889,887,887,885,885,882,880,878,875,873,873,873,873,873,875,875,875,878,878,880,882,885,889,889,889,891,891,0,0,0,0,0,0,1489,1489,1489,1489,1483,1483,1483,1477,1477,1477,1470,1470,1470,1470,1470,1464,1464,1458,1458,1452,1452,1445,1445,1439,1439,1439,1439,1439,1433,1433,1427,1427,1421,1421,1421,1415,1415,1415,1415,1410,1404,1404,1398,1398,1398,1392,1392,1392,1392,1392,1392,1387,1387,1381,1381,1376,1376,1370,1370,1370,1370,1365,1365,1359,1359,1359,1354,1354,1354,1349,1349,1349,1343,1343,1338,1338,1338,1333,1333,1333,1328,1328,1328,1328,1322,1322,1322,1317,1312,1312,1312,1307,1307,1307,1302,1302,1302,1302,1292,1292,1292,1292,1292,1288,1288,1288,1288,1288,1283,1278,1278,1273,1273,1268,1268,1268,1268,1268,1264,1264,1259,1259,1259,1255,1255,1255,1250,1250,1250,1245,1241,1241,1241,1236,1236,1236,1236,1236,1232,1232,1232,1232,1232,1227,1223,1223,1219,1219,1214,1214,1214,1210,1210,1210,1206,1206,1202,1202,1202,1197,1197,1197,1193,1193,1193,1189,1189,1185,1185,1185,1185,1185,1181,1181,1177,1177,1173,1173,1173,1169,1169,1169,1169,1165,1165,1161,1161,1157,1157,1153,1153,1153,1149,1149,1149,1145,1145,1141,1141,1141,1138,1138,1134,1134,1134,1134,1130,1130,1126,1126,1126,1123,1123,1123,1123,1123,1119,1119,1115,1115,1112,1108,1108,1108,1108,1105,1105,1105,1105,1105,1101,1097,1097,1094,1094,1094,1090,1090,1090,1090,1087,1087,1084,1084,1084,1080,1080,1080,1080,1077,1077,1077,1077,1073,1073,1073,1070,1067,1067,1067,1067,1063,1063,1063,1063,1060,1060,1057,1057,1057,1054,1054,1054,1054,1054,1050,1050,1047,1044,1041,1041,1041,1041,1041,1038,1038,1038,1038,1034,1034,1034,1031,1031,1028,1028,1028,0,0,0,0,0,0,0,0,0,0,0,0,0,0,0,0,0,0,0,0,0,0,0,0,0,0,0,0,0,0,0
0,0,0,0,0,0,0,0,0,0,0,0,0,1586,1586,1586,1586,1579,1579,1579,1579,1586,1586,1586,1594,1594,1594,1594,1594,1594,1594,1594,1594,1594,1594,1594,1594,1594,1586,1586,1594,1594,1594,1586,1586,1586,1586,1586,1579,1579,1579,1579,1579,1579,1579,1579,1579,1586,1586,1594,1594,1601,1601,1601,1601,1601,1616,1926,1915,1915,1904,1904,1904,1904,1894,1883,1883,1883,1873,1873,1873,1863,1863,1863,1594,1594,1594,1594,1601,1601,1601,1601,1601,1601,1594,1594,1601,1601,1601,1609,1609,1616,1616,1616,1616,1624,1624,1632,1632,1632,1632,1632,1639,1639,1647,1647,1655,1655,1663,1663,1663,1663,1663,1663,1663,1663,1671,1671,1680,1688,1688,1688,1688,1696,1696,1696,1696,1705,1705,1713,1713,1722,1722,1722,1722,1731,1731,1731,1739,1739,1748,1757,1757,1757,1757,1757,1757,1757,1757,1757,0,0,0,1087,1084,1080,1080,1077,1077,1073,1070,1070,1067,1067,1067,1067,1067,1067,1067,1067,1067,1067,1067,1063,1063,1063,1060,1060,1050,1050,1047,1047,1044,1041,1041,1038,1038,1038,1034,1034,1031,1031,1028,1028,1025,1025,1022,1022,1022,1019,1019,1016,1013,1010,1010,1007,1007,1004,1004,1001,1001,1001,1001,998,998,995,992,992,989,989,987,987,984,981,978,975,975,973,973,970,967,967,967,964,962,959,959,954,954,951,951,948,946,946,943,943,940,940,935,933,933,930,928,925,925,923,923,920,918,915,913,913,910,908,906,903,901,898,896,896,889,887,887,885,885,882,880,878,878,873,873,873,873,875,875,875,875,878,878,880,882,887,889,891,891,891,894,0,0,0,0,0,0,1489,1489,1489,1489,1483,1483,1483,1483,1477,1477,1470,1470,1470,1470,1470,1464,1464,1458,1458,1452,1452,1452,1445,1445,1439,1439,1439,1439,1433,1433,1427,1427,1421,1421,1421,1415,1415,1415,1415,1410,1404,1404,1404,1398,1398,1398,1392,1392,1392,1392,1392,1387,1387,1381,1381,1376,1376,1370,1370,1370,1370,1365,1365,1359,1359,1359,1354,1354,1354,1349,1349,1349,1343,1343,1343,1338,1338,1333,1333,1333,1328,1328,1328,1328,1328,1328,1322,1317,1317,1312,1312,1307,1307,1307,1307,1307,1302,1302,1297,1297,1292,1292,1292,1292,1288,1288,1288,1283,1283,1278,1278,1273,1273,1273,1268,1268,1268,1268,1264,1264,1264,1259,1259,1255,1255,1255,1255,1250,1250,1245,1245,1245,1241,1241,1236,1236,1236,1236,1236,1232,1232,1232,1232,1227,1223,1223,1219,1219,1214,1214,1214,1214,1210,1210,1206,1206,1206,1202,1202,1202,1197,1197,1197,1197,1193,1193,1193,1189,1189,1185,1185,1181,1181,1181,1177,1177,1173,1173,1173,1169,1169,1169,1169,1169,1165,1165,1161,1157,1157,1153,1153,1153,1153,1149,1149,1145,1145,1145,1141,1141,1141,1138,1138,1134,1134,1134,1134,1130,1130,1126,1126,1123,1123,1123,1123,1123,1119,1119,1119,1115,1115,1112,1108,1108,1108,1108,1105,1105,1105,1105,1101,1097,1097,1094,1094,1094,1090,1090,1090,1090,1087,1087,1084,1084,1080,1080,1080,1077,1077,1077,1077,1077,1077,1073,1073,1073,1070,1070,1070,1067,1067,1067,1063,1063,1063,1060,1060,1057,1057,1057,1054,1054,1054,1054,1054,1050,1050,1047,1044,1044,1041,1041,1041,1041,1041,1038,1038,1038,1038,1038,1034,1034,1031,1028,1028,1028,0,0,0,0,0,0,0,0,0,0,0,0,0,0,0,0,0,0,0,0,0,0,0,0,0,0,0,0,0,0,0
0,0,0,0,0,0,0,0,0,0,0,0,0,1594,1586,1586,1586,1586,1586,1579,1579,1586,1594,1594,1594,1594,1594,1594,1594,1594,1594,1594,1594,1594,1594,1594,1594,1594,1594,1594,1594,1594,1594,1586,1586,1586,1586,1586,1579,1579,1579,1579,1579,1579,1586,1586,1586,1594,1594,1594,1601,1601,1601,1609,1609,1616,1616,1624,1915,1915,1915,1915,1904,1904,1894,1894,1883,1883,1883,1873,1873,1863,1863,1863,1594,1594,1594,1594,1601,1601,1601,1601,1601,1601,1601,1601,1601,1601,1601,1609,1616,1616,1616,1616,1616,1624,1624,1632,1632,1632,1632,1632,1639,1639,1647,1647,1655,1655,1663,1663,1663,1663,1663,1663,1671,1671,1671,1671,1680,1688,1688,1688,1688,1696,1696,1696,1696,1705,1705,1713,1713,1722,1722,1722,1731,1731,1731,1731,1739,1739,1748,1757,1757,1757,1757,1757,1757,1757,1757,1757,0,0,0,1087,1084,1084,1080,1077,1077,1073,1070,1070,1067,1067,1067,1067,1067,1067,1070,1070,1070,1070,1070,1067,1067,1067,1067,1067,1054,1050,1050,1047,1044,1044,1041,1038,1038,1038,1034,1031,1031,1028,1028,1028,1025,1025,1022,1022,1022,1019,1019,1013,1013,1010,1010,1007,1007,1004,1004,1001,1001,1001,1001,998,998,998,992,992,989,989,989,987,984,981,978,975,975,973,973,970,967,967,967,964,962,959,959,954,954,954,951,948,946,946,943,943,943,940,935,935,933,930,928,925,925,923,923,918,915,915,913,913,913,908,906,903,901,898,896,896,889,887,887,885,885,882,882,878,878,875,875,873,873,875,875,875,878,878,880,882,885,887,889,891,891,891,894,894,0,0,0,0,0,1489,1489,1489,1489,1489,1483,1483,1483,1477,1477,1470,1470,1470,1470,1464,1464,1464,1458,1458,1452,1452,1452,1445,1445,1445,1439,1439,1439,1433,1433,1427,1427,1421,1421,1421,1415,1415,1415,1415,1410,1410,1404,1404,1398,1398,1398,1398,1398,1392,1392,1392,1392,1387,1387,1381,1381,1376,1376,1370,1370,1370,1365,1365,1359,1359,1359,1354,1354,1354,1349,1349,1349,1343,1343,1338,1338,1338,1338,1333,1333,1328,1328,1328,1328,1328,1328,1322,1322,1317,1317,1312,1307,1307,1307,1307,1307,1302,1302,1297,1297,1292,1292,1292,1292,1288,1288,1288,1283,1283,1278,1278,1273,1273,1273,1268,1268,1268,1268,1268,1264,1264,1259,1259,1255,1255,1255,1255,1250,1250,1245,1245,1245,1241,1241,1236,1236,1236,1236,1236,1232,1232,1232,1232,1227,1227,1223,1219,1219,1219,1214,1214,1214,1214,1210,1206,1206,1206,1202,1202,1202,1202,1197,1197,1197,1193,1193,1193,1189,1189,1189,1185,1181,1181,1181,1177,1177,1173,1173,1173,1169,1169,1169,1169,1169,1165,1165,1161,1161,1161,1157,1153,1153,1153,1153,1149,1149,1145,1145,1145,1141,1141,1138,1138,1138,1138,1134,1134,1134,1130,1130,1126,1126,1123,1123,1123,1123,1119,1119,1119,1119,1115,1115,1112,1108,1108,1108,1108,1105,1105,1105,1101,1101,1097,1094,1094,1094,1090,1090,1090,1090,1087,1087,1084,1084,1080,1080,1080,1077,1077,1077,1077,1077,1077,1077,1077,1073,1073,1070,1070,1067,1067,1067,1063,1063,1063,1063,1060,1057,1057,1057,1054,1054,1054,1054,1054,1050,1050,1047,1047,1044,1044,1041,1041,1041,1041,1038,1038,1038,1038,1038,1034,1034,1031,1028,1028,1028,0,0,0,0,0,0,0,0,0,0,0,0,0,0,0,0,0,0,0,0,0,0,0,0,0,0,0,0,0,0,0
0,0,0,0,0,0,0,0,0,0,0,0,0,1594,1594,1594,1586,1586,1594,1586,1586,1594,1594,1594,1594,1594,1594,1594,1594,1594,1594,1594,1594,1594,1594,1594,1594,1594,1594,1594,1594,1594,1594,1586,1586,1586,1586,1586,1579,1579,1579,1579,1586,1586,1586,1586,1586,1594,1594,1601,1601,1601,1609,1609,1616,1616,1616,1624,1915,1915,1915,1915,1915,1904,1894,1894,1883,1883,1883,1883,1873,1873,1863,1863,1863,1594,1594,1594,1601,1601,1601,1601,1601,1601,1601,1601,1601,1601,1609,1609,1616,1616,1616,1616,1616,1624,1624,1632,1632,1632,1632,1632,1639,1639,1639,1647,1655,1655,1663,1663,1663,1663,1663,1663,1671,1671,1671,1671,1680,1688,1688,1688,1688,1696,1696,1696,1696,1705,1713,1713,1722,1722,1722,1731,1731,1731,1731,1739,1739,1739,1748,1757,1757,1757,1757,1757,1757,1757,1757,1757,0,0,0,1084,1084,1080,1080,1077,1077,1073,1070,1070,1067,1067,1067,1067,1067,1070,1070,1070,1070,1073,1073,1073,1073,1077,1080,1080,1060,1054,1054,1050,1047,1047,1041,1041,1041,1038,1034,1031,1028,1028,1025,1025,1025,1025,1022,1022,1022,1019,1016,1013,1013,1010,1010,1007,1007,1004,1004,1001,1001,1001,1001,998,998,995,992,992,989,989,989,987,984,981,978,975,975,973,970,970,967,967,967,964,964,962,956,954,954,951,951,948,946,946,943,943,943,940,935,933,933,930,928,928,925,923,923,918,915,915,913,913,910,908,906,903,901,898,896,896,889,887,887,885,885,885,882,878,878,878,875,875,875,875,875,875,878,880,882,885,887,887,891,891,891,891,891,894,0,0,0,0,1489,1489,1489,1489,1489,1489,1489,1483,1483,1483,1477,1470,1470,1470,1470,1464,1464,1464,1458,1458,1452,1452,1452,1445,1445,1445,1445,1439,1439,1439,1439,1433,1427,1421,1421,1421,1415,1415,1415,1415,1410,1410,1404,1404,1398,1398,1398,1398,1398,1392,1392,1392,1392,1387,1387,1381,1381,1376,1376,1376,1370,1370,1370,1365,1359,1359,1359,1354,1354,1354,1349,1349,1349,1343,1343,1338,1338,1338,1338,1333,1333,1333,1328,1328,1328,1328,1328,1322,1322,1317,1317,1312,1312,1307,1307,1307,1307,1302,1302,1297,1297,1292,1292,1292,1292,1288,1288,1288,1283,1283,1278,1278,1273,1273,1273,1273,1268,1268,1268,1268,1264,1264,1264,1264,1259,1255,1255,1255,1255,1250,1250,1245,1245,1245,1241,1236,1236,1236,1236,1236,1232,1232,1232,1232,1227,1227,1223,1223,1219,1219,1214,1214,1214,1214,1210,1210,1206,1206,1202,1202,1202,1202,1197,1197,1197,1197,1197,1193,1193,1193,1189,1189,1181,1181,1181,1177,1177,1173,1173,1173,1173,1169,1169,1169,1169,1169,1165,1161,1161,1161,1157,1157,1153,1153,1153,1149,1149,1149,1145,1145,1141,1141,1138,1138,1138,1138,1134,1134,1134,1130,1130,1126,1126,1123,1123,1123,1123,1119,1119,1119,1119,1119,1115,1112,1112,1108,1108,1108,1108,1105,1105,1105,1101,1097,1097,1094,1094,1090,1090,1090,1090,1090,1087,1084,1084,1084,1080,1080,1080,1080,1077,1077,1077,1077,1077,1077,1073,1073,1073,1070,1070,1067,1067,1067,1067,1063,1063,1060,1060,1060,1057,1057,1057,1054,1054,1054,1050,1050,1050,1047,1047,1044,1044,1041,1041,1041,1041,1041,1038,1038,1038,1034,1034,1031,1031,1028,1028,0,0,0,0,0,0,0,0,0,0,0,0,0,0,0,0,0,0,0,0,0,0,0,0,0,0,0,0,0,0,0
0,0,0,0,0,0,0,0,0,0,0,0,0,1594,1594,1594,1586,1586,1594,1586,1586,1594,1594,1594,1601,1601,1601,1601,1601,1601,1594,1594,1594,1594,1594,1594,1594,1594,1594,1594,1594,1594,1594,1594,1594,1586,1586,1586,1586,1586,1586,1586,1586,1586,1586,1586,1586,1594,1594,1601,1601,1601,1609,1616,1616,1616,1609,1609,1970,1926,1926,1915,1915,1915,1904,1894,1894,1883,1883,1883,1873,1873,1863,1863,1863,1601,1601,1601,1601,1601,1601,1601,1601,1601,1601,1601,1609,1609,1609,1609,1616,1616,1616,1616,1616,1624,1624,1632,1632,1632,1639,1639,1639,1639,1639,1647,1655,1655,1663,1663,1663,1663,1671,1671,1671,1671,1671,1680,1688,1688,1688,1688,1688,1696,1696,1696,1696,1705,1713,1713,1722,1722,1722,1731,1731,1731,1731,1731,1739,1739,1748,1748,1757,1757,1757,1757,1757,1757,1757,1757,1757,0,1084,1084,1080,1080,1077,1077,1077,1073,1073,1070,1067,1067,1067,1067,1070,1070,1073,1073,1073,1073,1077,1077,1080,1084,1084,1084,1080,1063,1063,1060,1050,1050,1054,1044,1041,1038,1034,1031,1028,1028,1025,1025,1025,1022,1022,1022,1019,1019,1016,1013,1010,1010,1010,1007,1007,1004,1004,1001,1001,1001,1001,998,998,995,992,992,992,989,989,989,987,981,975,975,975,973,970,970,967,967,967,964,964,962,956,954,954,951,951,948,946,946,943,943,940,940,935,933,933,930,928,925,925,923,920,918,915,915,913,913,910,908,906,903,901,898,896,894,889,887,887,885,885,885,882,882,878,878,875,875,875,875,875,878,878,880,882,885,887,889,891,891,891,891,891,0,0,0,0,0,1489,1489,1489,1489,1489,1489,1489,1489,1489,1489,1483,1477,1470,1470,1470,1470,1464,1464,1458,1458,1452,1452,1452,1445,1445,1445,1445,1439,1439,1439,1433,1433,1427,1427,1421,1421,1415,1415,1415,1415,1415,1410,1410,1404,1398,1398,1398,1398,1398,1392,1392,1392,1392,1392,1387,1381,1376,1376,1376,1376,1370,1370,1370,1365,1365,1359,1359,1354,1354,1354,1349,1349,1349,1343,1343,1343,1343,1338,1338,1333,1333,1333,1333,1328,1328,1328,1328,1322,1322,1317,1317,1312,1312,1312,1307,1307,1307,1302,1302,1302,1297,1297,1292,1292,1292,1288,1288,1288,1283,1283,1283,1278,1278,1278,1273,1273,1268,1268,1268,1268,1264,1264,1264,1264,1259,1259,1255,1255,1255,1250,1250,1250,1245,1245,1241,1236,1236,1236,1236,1236,1232,1232,1232,1232,1227,1227,1223,1223,1219,1219,1219,1214,1214,1214,1214,1210,1206,1206,1202,1202,1202,1202,1197,1197,1197,1197,1197,1197,1193,1193,1189,1185,1185,1181,1181,1181,1177,1177,1173,1173,1173,1173,1169,1169,1169,1169,1165,1165,1161,1161,1157,1157,1157,1153,1153,1153,1149,1149,1145,1145,1145,1141,1138,1138,1138,1138,1134,1134,1134,1134,1130,1130,1126,1126,1123,1123,1123,1119,1119,1119,1119,1119,1115,1112,1112,1112,1108,1108,1108,1105,1105,1105,1105,1101,1097,1097,1094,1094,1090,1090,1090,1090,1087,1087,1084,1084,1080,1080,1080,1080,1080,1077,1077,1077,1077,1077,1077,1073,1073,1073,1070,1067,1067,1067,1067,1067,1063,1063,1060,1060,1057,1057,1057,1057,1054,1054,1050,1050,1050,1047,1047,1044,1044,1041,1041,1041,1041,1041,1038,1038,1038,1038,1034,1034,1031,1031,1031,0,0,0,0,0,0,0,0,0,0,0,0,0,0,0,0,0,0,0,0,0,0,0,0,0,0,0,0,0,0,0
0,0,0,0,0,0,0,0,0,0,0,0,0,1594,1594,1594,1594,1594,1594,1594,1594,1594,1594,1601,1601,1601,1601,1601,1601,1601,1594,1594,1594,1594,1594,1594,1594,1594,1594,1594,1594,1594,1594,1594,1594,1586,1586,1586,1586,1586,1594,1594,1594,1594,1594,1594,1594,1594,1594,1601,1601,1601,1609,1609,1616,1616,1609,1609,1947,1947,1936,1926,1926,1915,1915,1904,1894,1894,1883,1883,1873,1873,1873,1873,1863,1601,1601,1601,1601,1601,1601,1601,1601,1601,1601,1609,1609,1609,1616,1616,1616,1616,1616,1616,1624,1624,1632,1632,1632,1639,1639,1639,1639,1639,1639,1647,1655,1663,1663,1663,1663,1671,1671,1671,1671,1671,1671,1680,1688,1688,1688,1688,1688,1696,1696,1696,1696,1705,1713,1722,1722,1722,1731,1731,1731,1731,1731,1731,1739,1739,1748,1748,1757,1757,1757,1757,1757,1757,1757,1757,1757,0,1087,1087,1080,1080,1077,1077,1077,1073,1073,1070,1070,1067,1067,1067,1070,1070,1073,1073,1073,1077,1077,1080,1084,1084,1087,1087,1084,1077,1063,1063,1060,1060,1057,1057,1057,1804,1804,1804,1804,1804,1794,1794,1785,1022,1022,1022,1019,1016,1016,1013,1010,1010,1010,1007,1007,1004,1004,1001,1001,1001,1001,998,998,995,992,992,992,989,989,989,984,978,975,975,975,973,970,970,967,967,967,964,964,962,956,954,954,951,951,948,946,946,943,943,940,940,935,935,933,933,930,925,925,923,920,918,915,915,913,913,910,908,906,903,901,898,896,894,891,887,887,885,885,885,882,882,878,878,878,875,875,875,878,878,878,880,885,887,887,891,894,894,891,891,894,0,0,0,0,0,1489,1489,1489,1489,1489,1489,1489,1489,1489,1489,1483,1483,1477,1470,1470,1470,1470,1464,1458,1458,1458,1452,1452,1452,1445,1445,1445,1439,1439,1439,1433,1433,1427,1427,1427,1421,1421,1415,1415,1415,1410,1410,1410,1404,1398,1398,1398,1398,1398,1398,1398,1392,1392,1392,1387,1381,1376,1376,1376,1376,1370,1370,1370,1365,1365,1359,1359,1354,1354,1354,1349,1349,1349,1343,1343,1343,1343,1343,1338,1333,1333,1333,1333,1328,1328,1328,1328,1322,1322,1317,1317,1312,1312,1312,1307,1307,1307,1307,1302,1302,1302,1297,1292,1292,1292,1292,1288,1288,1288,1283,1283,1278,1278,1278,1273,1273,1273,1268,1268,1268,1264,1264,1264,1264,1259,1259,1259,1255,1255,1250,1250,1250,1245,1245,1241,1241,1236,1236,1236,1236,1232,1232,1232,1232,1232,1227,1223,1223,1219,1219,1219,1219,1214,1214,1214,1210,1210,1206,1202,1202,1202,1202,1197,1197,1197,1197,1197,1197,1197,1193,1193,1185,1185,1185,1181,1181,1177,1177,1177,1173,1173,1173,1169,1169,1169,1169,1165,1165,1161,1161,1157,1157,1157,1153,1153,1153,1153,1149,1149,1149,1145,1141,1141,1141,1138,1138,1134,1134,1134,1134,1130,1130,1126,1126,1126,1123,1123,1123,1119,1119,1119,1119,1119,1115,1112,1112,1108,1108,1108,1105,1105,1105,1101,1101,1097,1097,1094,1094,1090,1090,1090,1090,1087,1087,1087,1084,1084,1080,1080,1080,1080,1077,1077,1077,1077,1077,1077,1077,1073,1073,1070,1070,1070,1067,1067,1067,1063,1063,1063,1060,1060,1057,1057,1057,1054,1054,1050,1050,1050,1047,1047,1047,1044,1041,1041,1041,1041,1041,1038,1038,1038,1038,1034,1034,1031,1031,1031,0,0,0,0,0,0,0,0,0,0,0,0,0,0,0,0,0,0,0,0,0,0,0,0,0,0,0,0,0,0,0
0,0,0,0,0,0,0,0,0,0,0,0,0,1594,1594,1594,1594,1594,1594,1594,1594,1601,1601,1601,1601,1601,1601,1601,1601,1601,1601,1594,1594,1594,1594,1594,1594,1594,1594,1594,1594,1594,1594,1594,1594,1594,1594,1594,1594,1594,1594,1594,1594,1594,1594,1594,1594,1594,1594,1601,1601,1601,1609,1609,1616,1616,1616,1616,1936,1936,1936,1936,1926,1915,1915,1915,1904,1894,1894,1894,1883,1883,1873,1873,1873,1601,1601,1601,1601,1601,1601,1601,1601,1601,1601,1609,1609,1609,1616,1616,1616,1616,1616,1616,1624,1624,1632,1632,1632,1639,1639,1639,1639,1639,1647,1647,1655,1663,1663,1663,1663,1671,1671,1671,1671,1680,1680,1688,1688,1688,1688,1688,1688,1688,1696,1696,1696,1713,1722,1722,1722,1722,1731,1731,1731,1731,1731,1739,1739,1739,1748,1748,1757,1757,1757,1757,1757,1757,1757,1757,1757,0,1080,1080,1080,1080,1077,1077,1077,1077,1073,1073,1070,1070,1070,1070,1070,1070,1073,1073,1073,1077,1080,1080,1084,1084,1087,1087,1087,1084,1063,1063,1063,1063,1823,1823,1813,1813,1804,1804,1804,1804,1794,1794,1785,1785,1776,1766,1019,1016,1016,1013,1010,1010,1766,1766,1757,1004,1004,1001,1001,1001,1001,998,998,995,992,992,992,989,989,989,984,978,975,973,973,973,973,970,967,967,967,964,964,959,956,956,954,954,951,948,946,946,943,943,943,940,935,935,933,933,930,928,925,923,920,918,918,915,913,913,913,908,906,903,901,898,896,894,894,887,887,885,885,885,882,880,878,878,878,875,875,878,878,878,880,882,885,887,889,891,894,894,894,894,894,0,0,0,0,0,1489,1489,1489,1489,1489,1489,1489,1489,1489,1489,1483,1483,1483,1470,1470,1470,1470,1464,1464,1458,1458,1458,1458,1452,1452,1452,1445,1445,1439,1439,1439,1433,1433,1427,1427,1421,1421,1415,1415,1415,1410,1410,1410,1404,1404,1398,1398,1398,1398,1398,1398,1392,1392,1392,1387,1381,1376,1376,1376,1376,1370,1370,1370,1365,1365,1359,1359,1354,1354,1354,1349,1349,1349,1349,1343,1343,1343,1343,1338,1338,1333,1333,1333,1328,1328,1328,1328,1322,1322,1317,1317,1312,1312,1312,1307,1307,1307,1307,1307,1302,1302,1297,1297,1297,1292,1292,1288,1288,1288,1288,1283,1283,1278,1278,1278,1273,1273,1273,1268,1268,1268,1268,1264,1264,1259,1259,1259,1255,1255,1255,1250,1250,1250,1250,1245,1241,1241,1236,1236,1236,1236,1232,1232,1232,1232,1227,1223,1223,1219,1219,1219,1219,1214,1214,1214,1214,1210,1210,1206,1202,1202,1202,1202,1197,1197,1197,1197,1197,1193,1193,1193,1189,1185,1185,1181,1181,1181,1177,1177,1177,1173,1173,1169,1169,1169,1165,1165,1165,1161,1161,1157,1157,1157,1153,1153,1153,1153,1149,1149,1149,1145,1141,1141,1141,1138,1138,1138,1138,1134,1134,1134,1130,1130,1130,1126,1126,1123,1123,1123,1119,1119,1119,1119,1115,1112,1112,1108,1108,1108,1105,1105,1105,1101,1101,1097,1097,1094,1094,1094,1090,1090,1090,1090,1090,1087,1087,1084,1080,1080,1080,1080,1077,1077,1077,1077,1077,1077,1077,1077,1073,1070,1070,1070,1067,1067,1063,1063,1063,1063,1060,1060,1060,1057,1057,1054,1054,1054,1050,1050,1050,1050,1047,1047,1044,1044,1041,1041,1041,1041,1038,1038,1038,1038,1034,1034,1031,1031,0,0,0,0,0,0,0,0,0,0,0,0,0,0,0,0,0,0,0,0,0,0,0,0,0,0,0,0,0,0,0
0,0,0,0,0,0,0,0,0,0,0,0,0,1594,1594,1594,1594,1594,1594,1601,1601,1601,1601,1601,1601,1601,1601,1601,1601,1601,1601,1594,1594,1594,1594,1594,1594,1594,1594,1594,1594,1594,1594,1594,1594,1594,1594,1594,1594,1594,1594,1594,1594,1594,1594,1594,1594,1594,1594,1601,1601,1609,1609,1609,1616,1616,1616,1616,1936,1936,1936,1936,1936,1926,1926,1915,1915,1904,1904,1894,1894,1883,1883,1873,1873,1601,1601,1601,1601,1601,1601,1601,1601,1601,1601,1609,1609,1616,1616,1616,1616,1616,1624,1624,1624,1624,1632,1632,1639,1639,1639,1647,1647,1647,1647,1655,1655,1663,1663,1671,1671,1671,1671,1671,1671,1680,1680,1688,1688,1688,1688,1688,1688,1688,1696,1696,1705,1713,1722,1722,1722,1731,1731,1731,1731,1731,1739,1739,1739,1748,1748,1757,1757,1757,1757,1757,1757,1757,1757,1757,1757,1757,0,1084,1084,1080,1080,1080,1077,1077,1073,1073,1070,1070,1070,1070,1070,1070,1073,1073,1077,1077,1080,1084,1084,1087,1087,1087,1087,1087,1067,1067,1067,1067,1823,1823,1823,1813,1804,1804,1804,1794,1794,1794,1785,1785,1785,1776,1766,1766,1766,1766,1766,1766,1766,1766,1757,1757,1004,1001,1001,1001,998,998,998,995,992,992,989,989,989,987,984,978,975,973,973,973,973,970,970,967,967,964,964,959,959,956,956,954,951,948,946,946,943,943,943,940,935,935,935,933,930,928,925,923,923,918,915,915,913,913,913,908,906,903,901,898,896,894,894,889,887,885,885,885,882,880,880,878,878,878,878,878,878,878,880,882,885,887,889,891,894,894,894,894,896,896,0,0,0,0,1489,1489,1496,1489,1489,1489,1489,1489,1489,1489,1489,1489,1483,1470,1470,1470,1470,1464,1464,1458,1458,1458,1458,1452,1452,1452,1445,1445,1439,1439,1439,1433,1433,1427,1427,1421,1421,1415,1415,1415,1415,1410,1410,1410,1404,1404,1398,1398,1398,1398,1398,1392,1392,1392,1387,1381,1376,1376,1376,1376,1370,1370,1370,1370,1370,1365,1359,1359,1359,1354,1349,1349,1349,1349,1343,1343,1343,1343,1343,1338,1333,1333,1333,1333,1328,1328,1328,1322,1322,1317,1317,1312,1312,1312,1312,1307,1307,1307,1307,1307,1302,1302,1297,1297,1292,1292,1288,1288,1288,1288,1288,1283,1283,1283,1278,1273,1273,1273,1268,1268,1268,1268,1264,1264,1259,1259,1259,1255,1255,1255,1250,1250,1250,1250,1245,1245,1241,1241,1236,1236,1236,1232,1232,1232,1232,1227,1223,1223,1219,1219,1219,1219,1219,1214,1214,1214,1210,1210,1206,1206,1202,1202,1202,1202,1197,1197,1197,1197,1193,1193,1189,1189,1185,1185,1181,1181,1181,1181,1177,1177,1173,1173,1173,1169,1169,1165,1165,1165,1165,1161,1161,1157,1157,1157,1153,1153,1153,1149,1149,1149,1145,1141,1141,1141,1141,1138,1138,1138,1134,1134,1134,1134,1130,1130,1126,1126,1123,1123,1123,1119,1119,1119,1119,1115,1112,1112,1108,1108,1108,1105,1105,1105,1105,1101,1101,1097,1097,1094,1094,1094,1094,1090,1090,1090,1087,1087,1087,1084,1080,1080,1080,1080,1077,1077,1077,1077,1077,1077,1077,1073,1070,1070,1070,1067,1067,1063,1063,1063,1063,1063,1060,1060,1060,1057,1054,1054,1054,1050,1050,1050,1050,1047,1047,1044,1044,1041,1041,1041,1041,1041,1038,1038,1038,1034,1034,1031,1031,0,0,0,0,0,0,0,0,0,0,0,0,0,0,0,0,0,0,0,0,0,0,0,0,0,0,0,0,0,0,0
0,0,0,0,0,0,0,0,0,0,0,0,0,1594,1594,1594,1594,1594,1594,1601,1601,1601,1601,1601,1601,1601,1601,1601,1601,1601,1601,1601,1594,1594,1594,1594,1594,1594,1594,1594,1594,1601,1594,1594,1594,1594,1594,1594,1594,1594,1594,1601,1601,1601,1601,1594,1594,1594,1601,1601,1601,1601,1609,1609,1616,1616,1616,1616,1936,1936,1936,1926,1926,1915,1915,1915,1915,1904,1904,1904,1894,1894,1883,1883,1873,1873,1609,1609,1609,1609,1609,1609,1609,1601,1601,1609,1616,1616,1616,1616,1616,1616,1624,1624,1624,1624,1632,1632,1639,1647,1647,1647,1647,1647,1655,1655,1655,1663,1663,1663,1671,1671,1671,1671,1680,1680,1680,1688,1688,1688,1688,1696,1696,1696,1696,1696,1705,1713,1722,1722,1722,1731,1731,1731,1731,1731,1739,1739,1739,1748,1748,1757,1757,1757,1757,1757,1757,1757,1757,1757,1757,1757,0,1084,1084,1080,1080,1080,1077,1077,1073,1073,1073,1070,1070,1070,1070,1073,1073,1077,1077,1077,1080,1084,1087,1087,1087,1087,1087,1087,1087,1087,1087,1823,1823,1823,1823,1813,1804,1804,1804,1794,1794,1794,1785,1785,1785,1776,1776,1766,1766,1766,1766,1766,1766,1757,1757,1748,1748,1001,1001,1001,998,998,1739,1731,1731,992,989,989,989,987,984,978,975,973,973,973,973,967,967,967,967,964,964,959,959,956,956,954,951,948,948,946,943,943,943,940,938,935,935,933,930,928,925,923,923,918,915,915,913,913,910,908,906,903,901,901,896,894,894,889,887,885,885,885,882,880,880,878,878,878,878,878,878,878,880,882,885,887,889,894,894,894,896,896,896,896,0,0,0,0,0,0,1496,1496,1496,1496,1496,1489,1489,1489,1489,1483,1483,1477,1470,1470,1470,1464,1464,1464,1464,1458,1458,1452,1452,1445,1445,1445,1439,1439,1439,1433,1433,1427,1427,1421,1421,1421,1415,1415,1415,1415,1410,1410,1404,1404,1398,1398,1398,1398,1398,1392,1392,1392,1387,1381,1376,1376,1376,1376,1370,1370,1370,1370,1370,1365,1365,1359,1359,1354,1354,1354,1349,1349,1349,1343,1343,1343,1343,1338,1333,1333,1333,1333,1328,1328,1328,1322,1322,1317,1317,1317,1312,1312,1312,1312,1307,1307,1307,1307,1302,1302,1302,1302,1297,1292,1292,1288,1288,1288,1288,1283,1283,1283,1278,1273,1273,1273,1268,1268,1268,1268,1264,1264,1259,1259,1259,1255,1255,1255,1250,1250,1250,1250,1245,1245,1245,1241,1241,1236,1236,1236,1232,1232,1232,1227,1227,1223,1219,1219,1219,1219,1219,1214,1214,1214,1210,1210,1206,1206,1206,1202,1202,1202,1202,1197,1197,1197,1197,1193,1189,1189,1185,1185,1181,1181,1181,1181,1177,1177,1177,1173,1173,1169,1169,1165,1165,1165,1165,1165,1161,1161,1157,1157,1153,1153,1153,1149,1149,1149,1145,1145,1141,1141,1141,1138,1138,1138,1134,1134,1134,1134,1130,1130,1126,1126,1123,1123,1123,1123,1119,1119,1119,1115,1115,1112,1108,1108,1108,1105,1105,1105,1105,1101,1101,1097,1097,1094,1094,1094,1094,1094,1090,1090,1090,1087,1087,1084,1084,1080,1080,1080,1080,1080,1077,1077,1077,1077,1077,1073,1073,1070,1070,1067,1067,1067,1067,1063,1063,1063,1063,1060,1060,1060,1057,1054,1054,1050,1050,1050,1050,1050,1047,1047,1044,1041,1041,1041,1041,1041,1038,1038,1038,1038,1034,1034,1034,0,0,0,0,0,0,0,0,0,0,0,0,0,0,0,0,0,0,0,0,0,0,0,0,0,0,0,0,0,0,0
0,0,0,0,0,0,0,0,0,0,0,0,0,1594,1594,1601,1594,1594,1601,1601,1601,1601,1601,1601,1601,1601,1601,1601,1601,1601,1601,1601,1594,1594,1594,1594,1594,1594,1594,1594,1594,1601,1594,1594,1594,1594,1594,1594,1594,1594,1594,1601,1601,1601,1601,1594,1594,1594,1594,1601,1601,1601,1609,1609,1616,1616,1616,1609,1609,1936,1926,1926,1915,1915,1915,1904,1904,1894,1894,1894,1894,1894,1883,1883,1883,1883,1609,1609,1609,1609,1609,1609,1609,1609,1609,1609,1616,1616,1616,1616,1616,1616,1624,1624,1624,1632,1632,1632,1639,1647,1647,1647,1647,1647,1655,1655,1655,1663,1663,1663,1663,1671,1671,1680,1680,1680,1688,1688,1688,1688,1688,1696,1696,1696,1705,1705,1713,1722,1722,1722,1722,1731,1731,1731,1731,1731,1739,1739,1739,1748,1748,1757,1757,1757,1757,1757,1757,1757,1757,1757,1757,1757,0,1084,1084,1084,1080,1080,1077,1077,1073,1073,1073,1073,1073,1073,1073,1073,1073,1077,1077,1080,1084,1084,1087,1087,1087,1087,1087,1087,1087,1087,0,0,1833,1833,1823,1813,1804,1804,1804,1794,1794,1794,1794,1785,1785,1785,1776,1776,1766,1766,1766,1766,1766,1757,1757,1748,1748,1748,1739,1739,1739,1739,1739,1731,1731,1731,1722,989,989,989,987,984,984,1713,975,967,967,964,964,964,967,964,962,959,959,956,956,954,951,951,948,946,943,943,943,940,938,935,935,933,930,928,925,923,923,918,915,915,913,913,910,908,906,903,903,901,896,894,894,891,887,887,885,885,882,880,880,878,878,878,878,878,878,878,880,882,887,887,891,894,894,896,896,896,896,896,0,0,0,0,0,0,1496,1496,1496,1496,1496,1489,1489,1489,1489,1483,1483,1477,1470,1470,1470,1464,1464,1464,1464,1458,1452,1452,1452,1445,1445,1445,1439,1439,1439,1433,1433,1427,1427,1427,1421,1421,1421,1415,1415,1415,1415,1410,1404,1404,1404,1398,1398,1398,1398,1392,1392,1392,1387,1381,1376,1376,1376,1376,1376,1370,1370,1370,1370,1370,1365,1365,1365,1365,1354,1354,1354,1349,1349,1349,1349,1343,1343,1338,1338,1333,1333,1333,1328,1328,1328,1328,1322,1322,1322,1317,1317,1312,1312,1312,1312,1312,1307,1307,1302,1302,1302,1302,1297,1292,1292,1292,1288,1288,1288,1283,1283,1283,1278,1273,1273,1273,1273,1268,1268,1268,1268,1264,1264,1264,1259,1259,1255,1255,1255,1255,1250,1250,1250,1245,1245,1245,1241,1236,1236,1236,1232,1232,1232,1232,1227,1223,1223,1219,1219,1219,1219,1219,1214,1214,1214,1210,1210,1206,1206,1206,1202,1202,1202,1197,1197,1197,1197,1193,1193,1189,1185,1185,1185,1181,1181,1181,1181,1177,1177,1173,1173,1169,1169,1165,1165,1165,1165,1165,1161,1161,1157,1157,1153,1153,1153,1153,1149,1149,1145,1145,1145,1141,1141,1141,1138,1138,1134,1134,1134,1134,1134,1130,1130,1126,1123,1123,1123,1123,1119,1119,1119,1115,1115,1112,1108,1108,1108,1108,1108,1105,1105,1105,1101,1101,1097,1097,1094,1094,1094,1094,1094,1090,1090,1090,1090,1087,1084,1080,1080,1080,1080,1080,1077,1077,1077,1077,1077,1073,1073,1070,1070,1067,1067,1067,1067,1067,1063,1063,1063,1063,1060,1060,1057,1054,1054,1054,1054,1050,1050,1050,1050,1047,1047,1044,1044,1041,1041,1041,1041,1038,1038,1038,1038,1034,1034,0,0,0,0,0,0,0,0,0,0,0,0,0,0,0,0,0,0,0,0,0,0,0,0,0,0,0,0,0,0,0
0,0,0,0,0,0,0,0,0,0,0,0,0,1601,1601,1601,1601,1601,1601,1601,1601,1601,1601,1601,1601,1601,1601,1601,1601,1601,1601,1601,1594,1594,1594,1594,1594,1594,1594,1594,1594,1601,1594,1594,1594,1594,1594,1594,1601,1594,1594,1601,1601,1601,1601,1594,1594,1594,1594,1601,1601,1601,1609,1609,1616,1616,1616,1609,1609,1926,1926,1926,1915,1915,1904,1904,1904,1894,1894,1894,1894,1883,1883,1883,1883,1883,1883,1609,1609,1609,1609,1609,1609,1609,1609,1616,1616,1616,1616,1616,1616,1624,1624,1624,1624,1632,1632,1639,1647,1647,1647,1647,1647,1647,1655,1655,1655,1663,1663,1663,1663,1663,1671,1671,1671,1680,1688,1688,1688,1688,1696,1696,1705,1705,1713,1713,1713,1722,1722,1722,1722,1722,1722,1731,1731,1731,1739,1739,1748,1748,1748,1757,1757,1757,1757,1757,1757,1757,1757,1757,1757,1757,1087,1084,1084,1080,1080,1080,1077,1077,1073,1073,1073,1073,1073,1073,1073,1073,1073,1077,1077,1080,1084,1084,1084,1087,1087,1087,1087,1087,1087,1087,0,0,1833,1833,1823,1813,1804,1804,1804,1804,1794,1794,1794,1794,1794,1785,1785,1776,1776,1766,1766,1766,1766,1757,1757,1748,1748,1748,1748,1748,1739,1739,1739,1731,1731,1731,1722,1722,1722,1722,1722,1722,1713,1713,1713,967,967,964,964,964,967,964,959,959,959,956,956,954,954,951,948,946,943,943,943,940,938,935,935,930,928,928,925,923,923,920,918,915,913,913,910,908,906,903,903,901,896,894,894,891,887,887,885,885,882,882,880,878,878,878,878,878,878,880,880,882,887,889,891,894,894,896,896,896,896,896,0,0,0,0,0,0,1496,1496,1496,1496,1496,1489,1489,1489,1489,1483,1477,1477,1470,1470,1470,1464,1464,1464,1464,1458,1452,1452,1452,1445,1445,1445,1445,1439,1439,1439,1433,1433,1433,1427,1427,1421,1421,1415,1415,1415,1415,1410,1404,1404,1404,1398,1398,1398,1398,1398,1392,1392,1387,1381,1381,1376,1376,1376,1376,1376,1370,1370,1370,1370,1370,1365,1365,1365,1354,1354,1354,1354,1349,1349,1349,1349,1343,1343,1338,1338,1333,1333,1333,1333,1328,1328,1322,1322,1322,1317,1317,1312,1312,1312,1312,1312,1307,1307,1302,1302,1302,1302,1297,1292,1292,1292,1288,1288,1288,1288,1288,1283,1278,1278,1273,1273,1273,1273,1268,1268,1268,1268,1264,1264,1264,1259,1255,1255,1255,1255,1250,1250,1245,1245,1245,1245,1241,1241,1236,1236,1236,1232,1232,1232,1227,1227,1223,1223,1219,1219,1219,1219,1219,1214,1214,1214,1210,1210,1210,1206,1206,1202,1202,1197,1197,1197,1197,1193,1189,1189,1185,1185,1185,1185,1181,1181,1181,1177,1177,1173,1173,1169,1169,1165,1165,1165,1165,1165,1161,1161,1157,1157,1153,1153,1153,1153,1149,1149,1145,1145,1145,1141,1141,1141,1138,1138,1138,1138,1134,1134,1134,1134,1130,1130,1126,1123,1123,1123,1119,1119,1119,1119,1115,1112,1108,1108,1108,1108,1108,1105,1105,1105,1101,1101,1101,1097,1094,1094,1094,1094,1094,1090,1090,1090,1090,1087,1084,1084,1084,1080,1080,1080,1080,1077,1077,1077,1077,1077,1073,1070,1070,1070,1070,1067,1067,1067,1063,1063,1063,1063,1063,1060,1057,1054,1054,1054,1054,1054,1050,1050,1050,1050,1047,1044,1044,1041,1041,1041,1041,1038,1038,1038,1038,1034,1034,0,0,0,0,0,0,0,0,0,0,0,0,0,0,0,0,0,0,0,0,0,0,0,0,0,0,0,0,0,0,0
0,0,0,0,0,0,0,0,0,0,0,0,0,1601,1601,1601,1601,1601,1601,1601,1601,1601,1601,1601,1601,1601,1601,1601,1601,1601,1601,1601,1601,1601,1594,1594,1594,1601,1601,1601,1601,1601,1601,1601,1601,1601,1601,1601,1601,1601,1601,1601,1601,1601,1601,1601,1594,1594,1594,1594,1601,1601,1609,1609,1616,1616,1616,1616,1616,1915,1915,1915,1904,1904,1904,1904,1904,1894,1883,1883,1873,1863,1853,1853,1853,1853,1601,1601,1601,1609,1609,1609,1609,1609,1609,1616,1616,1616,1616,1616,1624,1624,1624,1624,1632,1632,1632,1639,1647,1647,1647,1647,1647,1647,1655,1655,1655,1663,1663,1663,1663,1663,1671,1671,1671,1680,1688,1688,1688,1696,1696,1705,1705,1705,1713,1713,1713,1722,1722,1722,1722,1722,1722,1731,1731,1731,1739,1739,1748,1748,1748,1757,1757,1757,1757,1757,1757,1757,1757,1757,1757,1087,1087,1087,1084,1080,1080,1080,1077,1077,1073,1073,1073,1073,1073,1073,1073,1073,1077,1077,1077,1080,1084,1084,1084,1087,1087,1087,1087,1087,1087,1087,0,1843,1843,1833,1833,1823,1813,1813,1813,1804,1804,1794,1794,1794,1794,1785,1785,1776,1776,1766,1766,1766,1766,1757,1757,1757,1748,1748,1748,1748,1739,1739,1739,1731,1731,1731,1722,1722,1722,1722,1722,1722,1713,1713,1713,1705,1696,1696,1696,1688,1688,964,959,959,959,956,954,954,954,951,948,946,943,943,943,940,938,935,935,930,928,928,925,923,923,920,918,915,913,910,910,908,906,906,903,901,896,894,894,891,887,887,885,885,882,882,880,878,878,878,878,878,878,880,880,885,887,891,891,894,894,896,896,896,896,896,0,0,0,0,0,0,1503,1503,1496,1496,1496,1496,1489,1489,1489,1483,1477,1477,1477,1470,1470,1464,1464,1464,1464,1458,1458,1452,1452,1445,1445,1445,1445,1439,1439,1439,1433,1433,1433,1433,1427,1421,1421,1421,1415,1415,1415,1410,1410,1404,1404,1404,1404,1398,1398,1398,1392,1392,1387,1381,1381,1381,1376,1376,1376,1376,1376,1376,1370,1370,1370,1370,1365,1365,1354,1354,1354,1354,1349,1349,1349,1349,1343,1343,1338,1338,1333,1333,1333,1333,1328,1328,1328,1322,1322,1317,1317,1317,1312,1312,1312,1312,1312,1307,1307,1302,1302,1302,1297,1297,1292,1292,1288,1288,1288,1288,1288,1283,1283,1278,1273,1273,1273,1273,1273,1268,1268,1268,1268,1264,1264,1259,1255,1255,1255,1255,1250,1250,1245,1245,1245,1245,1241,1241,1241,1236,1236,1232,1232,1232,1227,1227,1227,1223,1223,1219,1219,1219,1219,1214,1214,1214,1210,1210,1210,1206,1206,1202,1202,1202,1197,1197,1197,1193,1189,1189,1185,1185,1185,1185,1185,1181,1181,1181,1177,1177,1173,1169,1169,1169,1169,1165,1165,1165,1165,1161,1161,1157,1153,1153,1153,1153,1149,1149,1149,1149,1145,1141,1141,1141,1138,1138,1138,1138,1134,1134,1134,1134,1130,1130,1126,1126,1123,1123,1123,1123,1119,1119,1115,1112,1112,1108,1108,1108,1108,1105,1105,1105,1101,1101,1101,1097,1094,1094,1094,1094,1094,1094,1090,1090,1090,1087,1084,1084,1084,1080,1080,1080,1080,1077,1077,1077,1077,1077,1073,1070,1070,1070,1070,1070,1067,1067,1067,1063,1063,1063,1063,1060,1057,1057,1054,1054,1054,1054,1050,1050,1050,1050,1047,1044,1044,1044,1041,1041,1041,1041,1038,1038,1038,1034,1034,0,0,0,0,0,0,0,0,0,0,0,0,0,0,0,0,0,0,0,0,0,0,0,0,0,0,0,0,0,0,0
0,0,0,0,0,0,0,0,0,0,0,0,0,1601,1601,1609,1609,1601,1601,1601,1601,1601,1601,1601,1601,1601,1601,1601,1601,1601,1601,1601,1601,1601,1594,1594,1601,1601,1601,1601,1601,1601,1601,1601,1601,1594,1594,1601,1601,1601,1601,1601,1601,1601,1601,1601,1594,1594,1594,1594,1601,1601,1609,1616,1616,1616,1624,1624,1894,1894,1894,1904,1904,1894,1894,1894,1894,1883,1873,1863,1853,1853,1843,1843,1843,1594,1594,1594,1601,1609,1609,1616,1609,1609,1616,1616,1624,1624,1624,1624,1624,1624,1624,1632,1632,1632,1632,1639,1639,1647,1647,1647,1647,1647,1655,1655,1655,1663,1663,1663,1663,1663,1671,1671,1671,1680,1688,1688,1688,1696,1696,1696,1705,1705,1713,1713,1713,1722,1722,1722,1722,1722,1722,1731,1731,1731,1739,1739,1748,1748,1748,1757,1757,1757,1757,1757,1757,1757,1748,1748,1748,1094,1087,1087,1087,1084,1084,1080,1077,1077,1077,1073,1073,1073,1073,1073,1073,1073,1077,1077,1077,1077,1080,1084,1084,1084,1087,1087,1087,1087,0,0,0,0,1833,1833,1833,1823,1813,1813,1813,1804,1804,1804,1794,1794,1794,1794,1785,1785,1776,1766,1766,1766,1766,1757,1757,1757,1757,1748,1748,1748,1748,1748,1739,1731,1731,1731,1722,1722,1722,1722,1722,1722,1713,1713,1713,1705,1696,1696,1696,1696,1696,1688,1688,1688,1680,956,954,954,951,951,948,943,943,943,943,943,940,940,938,933,930,928,925,923,923,920,920,915,913,910,910,908,906,906,903,898,896,894,894,891,887,887,885,885,885,882,880,878,878,878,878,878,878,880,882,885,887,889,891,894,894,896,896,896,896,896,0,0,0,0,0,1503,1503,1503,1496,1496,1496,1496,1489,1489,1489,1483,1477,1477,1477,1470,1470,1464,1464,1464,1464,1464,1458,1452,1452,1452,1445,1445,1445,1439,1439,1439,1433,1433,1433,1433,1427,1427,1421,1421,1421,1415,1415,1410,1410,1404,1404,1404,1404,1398,1398,1392,1392,1392,1387,1381,1381,1381,1381,1376,1376,1376,1376,1376,1370,1370,1370,1370,1365,1365,1359,1354,1354,1354,1354,1349,1349,1349,1349,1343,1343,1338,1333,1333,1333,1333,1328,1328,1328,1328,1322,1322,1317,1317,1312,1312,1312,1312,1312,1307,1307,1302,1302,1302,1297,1297,1292,1292,1292,1288,1288,1288,1288,1283,1283,1278,1278,1273,1273,1273,1273,1273,1268,1268,1268,1264,1264,1259,1259,1255,1255,1255,1255,1250,1245,1245,1245,1245,1241,1241,1241,1236,1236,1232,1232,1232,1227,1227,1227,1223,1223,1219,1219,1219,1219,1214,1214,1214,1214,1210,1210,1206,1206,1206,1202,1202,1197,1197,1197,1193,1193,1189,1185,1185,1185,1185,1185,1181,1181,1181,1177,1177,1173,1173,1169,1169,1169,1165,1165,1165,1165,1165,1161,1161,1157,1157,1153,1153,1153,1149,1149,1149,1145,1145,1141,1141,1138,1138,1138,1138,1134,1134,1134,1134,1130,1130,1126,1126,1123,1123,1123,1123,1119,1119,1115,1115,1112,1108,1108,1108,1108,1108,1105,1105,1105,1101,1101,1097,1097,1097,1094,1094,1094,1094,1094,1090,1090,1087,1087,1084,1084,1080,1080,1080,1080,1077,1077,1077,1077,1077,1073,1070,1070,1070,1070,1070,1067,1067,1067,1067,1063,1063,1063,1060,1057,1057,1057,1054,1054,1054,1054,1050,1050,1050,1050,1047,1047,1044,1044,1041,1041,1041,1038,1038,1038,1034,1034,0,0,0,0,0,0,0,0,0,0,0,0,0,0,0,0,0,0,0,0,0,0,0,0,0,0,0,0,0,0,0
0,0,0,0,0,0,0,0,0,0,0,0,0,1601,1601,1609,1609,1601,1601,1601,1601,1601,1601,1601,1601,1601,1601,1601,1601,1601,1601,1601,1601,1601,1601,1601,1601,1601,1601,1601,1601,1601,1601,1601,1601,1594,1594,1601,1601,1601,1601,1601,1601,1601,1601,1601,1594,1594,1601,1601,1601,1601,1609,1616,1616,1624,1624,1624,1624,1632,1894,1883,1883,1883,1883,1883,1873,1873,1863,1853,1843,1843,1833,1833,1833,1594,1594,1594,1609,1609,1609,1616,1609,1609,1616,1616,1624,1624,1624,1624,1624,1624,1632,1632,1632,1632,1632,1639,1639,1647,1647,1647,1647,1647,1655,1655,1663,1663,1663,1663,1663,1663,1671,1671,1671,1688,1688,1688,1688,1696,1696,1696,1705,1705,1713,1713,1713,1722,1722,1722,1722,1722,1722,1731,1731,1731,1739,1739,1748,1748,1757,1757,1757,1757,1757,1757,1757,1757,1748,1748,1748,0,1094,1087,1087,1087,1084,1080,1080,1077,1077,1073,1073,1073,1073,1073,1073,1073,1077,1077,1077,1077,1080,1084,1084,1084,1087,1087,1087,1087,0,0,0,0,1823,1823,1823,1823,1823,1823,1823,1813,1813,1804,1804,1804,1794,1794,1794,1785,1785,1776,1766,1766,1766,1766,1757,1757,1757,1757,1757,1748,1748,1748,1739,1739,1731,1731,1731,1722,1722,1722,1722,1722,1713,1713,1713,1705,1696,1696,1696,1688,1688,1688,1688,1688,1680,1680,1680,1663,951,951,948,943,943,1663,943,943,940,940,940,1655,930,925,925,923,923,923,923,918,913,913,910,908,906,906,903,898,896,894,891,891,889,887,887,885,885,882,880,878,878,878,878,878,878,880,882,885,889,889,891,894,894,896,896,896,896,0,0,0,0,0,0,1503,1503,1503,1496,1496,1496,1496,1489,1489,1489,1483,1477,1477,1477,1470,1470,1470,1470,1470,1464,1464,1458,1458,1452,1452,1452,1445,1445,1445,1439,1439,1439,1439,1433,1433,1427,1427,1421,1421,1421,1415,1415,1410,1410,1410,1404,1404,1404,1398,1398,1392,1392,1392,1387,1387,1381,1381,1381,1381,1376,1376,1376,1376,1370,1370,1370,1370,1370,1365,1365,1354,1354,1354,1354,1349,1349,1349,1349,1349,1343,1338,1333,1333,1333,1333,1328,1328,1328,1328,1328,1322,1322,1317,1312,1312,1312,1312,1312,1307,1307,1302,1302,1302,1297,1297,1292,1292,1292,1292,1288,1288,1288,1283,1283,1278,1278,1273,1273,1273,1273,1273,1268,1268,1268,1268,1264,1259,1259,1255,1255,1255,1255,1250,1245,1245,1245,1245,1241,1241,1241,1241,1236,1236,1232,1232,1232,1227,1227,1227,1223,1223,1219,1219,1219,1214,1214,1214,1214,1210,1210,1206,1206,1206,1202,1202,1197,1197,1197,1197,1193,1189,1185,1185,1185,1185,1185,1181,1181,1181,1177,1177,1177,1173,1169,1169,1169,1169,1169,1165,1165,1165,1161,1161,1157,1157,1157,1153,1153,1153,1149,1149,1145,1145,1141,1141,1138,1138,1138,1138,1138,1134,1134,1134,1130,1130,1126,1126,1123,1123,1123,1123,1119,1119,1119,1115,1115,1112,1112,1108,1108,1108,1108,1105,1105,1105,1101,1097,1097,1097,1094,1094,1094,1094,1094,1094,1090,1090,1090,1087,1084,1080,1080,1080,1080,1080,1077,1077,1077,1077,1073,1073,1073,1070,1070,1070,1067,1067,1067,1067,1067,1063,1063,1060,1060,1057,1057,1054,1054,1054,1054,1054,1050,1050,1050,1047,1047,1047,1044,1044,1041,1041,1038,1038,1038,1034,1034,0,0,0,0,0,0,0,0,0,0,0,0,0,0,0,0,0,0,0,0,0,0,0,0,0,0,0,0,0,0,0
0,0,0,0,0,0,0,0,0,0,0,0,0,1609,1609,1609,1609,1609,1609,1609,1609,1601,1601,1601,1601,1601,1601,1601,1601,1601,1601,1601,1601,1601,1601,1601,1601,1601,1601,1601,1601,1601,1601,1601,1601,1601,1601,1601,1601,1594,1594,1601,1601,1601,1601,1601,1601,1601,1601,1601,1609,1609,1616,1616,1624,1624,1624,1624,1624,1632,1894,1883,1883,1873,1873,1863,1863,1853,1843,1843,1833,1833,1833,1833,1833,1833,1833,1609,1609,1609,1609,1616,1616,1616,1616,1624,1624,1624,1624,1624,1624,1624,1632,1632,1632,1632,1632,1639,1639,1639,1639,1647,1647,1647,1655,1655,1663,1663,1663,1663,1663,1663,1671,1671,1671,1688,1688,1688,1696,1696,1696,1705,1705,1713,1713,1713,1713,1722,1722,1722,1722,1722,1722,1731,1731,1731,1731,1739,1748,1757,1757,1757,1757,1757,1757,1757,1757,1757,1739,1739,1739,0,1094,1090,1090,1087,1084,1080,1080,1077,1077,1073,1073,1073,1073,1073,1073,1077,1077,1077,1077,1077,1080,1080,1084,1084,1087,1087,1087,1087,0,0,0,0,1823,1823,1823,1823,1823,1823,1823,1813,1813,1804,1804,1804,1794,1794,1794,1794,1785,1785,1776,1766,1766,1766,1757,1757,1757,1757,1757,1748,1748,1748,1748,1739,1731,1731,1731,1731,1722,1722,1722,1722,1713,1713,1713,1705,1696,1696,1696,1688,1688,1688,1688,1688,1680,1680,1680,1663,1663,1663,1671,1671,1663,1663,1655,1655,1655,1655,1655,1647,1647,925,925,923,923,923,923,918,913,913,910,908,906,903,903,898,896,894,891,891,889,887,887,885,885,885,882,878,878,878,878,878,878,880,885,887,889,891,894,894,894,896,896,896,896,0,0,0,0,0,0,1503,1503,1503,1496,1496,1496,1496,1496,1489,1489,1483,1477,1477,1477,1470,1470,1470,1470,1470,1464,1464,1464,1458,1458,1458,1452,1452,1445,1445,1445,1439,1439,1439,1433,1433,1433,1427,1427,1421,1421,1415,1415,1415,1410,1410,1410,1404,1404,1398,1398,1398,1392,1392,1392,1392,1387,1387,1381,1381,1381,1376,1376,1376,1376,1370,1370,1370,1370,1365,1365,1359,1354,1354,1354,1354,1349,1349,1349,1349,1343,1338,1338,1333,1333,1333,1333,1328,1328,1328,1328,1322,1322,1322,1317,1317,1312,1312,1312,1307,1307,1302,1302,1302,1297,1297,1297,1292,1292,1292,1288,1288,1288,1283,1283,1278,1278,1278,1273,1273,1273,1273,1268,1268,1268,1268,1264,1259,1259,1255,1255,1255,1255,1250,1250,1245,1245,1245,1241,1241,1241,1236,1236,1236,1232,1232,1232,1227,1227,1227,1223,1223,1219,1219,1219,1219,1214,1214,1214,1214,1210,1210,1206,1206,1202,1202,1202,1197,1197,1197,1193,1189,1189,1189,1185,1185,1185,1185,1181,1181,1181,1177,1177,1173,1169,1169,1169,1169,1169,1165,1165,1165,1161,1161,1157,1157,1157,1153,1153,1153,1153,1153,1149,1145,1141,1141,1138,1138,1138,1138,1138,1138,1134,1134,1134,1130,1126,1126,1123,1123,1123,1123,1119,1119,1119,1119,1115,1112,1112,1108,1108,1108,1108,1108,1105,1105,1105,1101,1101,1101,1097,1097,1094,1094,1094,1094,1090,1090,1090,1087,1087,1084,1080,1080,1080,1080,1077,1077,1077,1077,1073,1073,1073,1073,1073,1070,1070,1067,1067,1067,1067,1063,1063,1063,1060,1060,1057,1057,1057,1054,1054,1054,1050,1050,1050,1047,1047,1047,1044,1044,1041,1041,1038,1038,1038,1038,1038,0,0,0,0,0,0,0,0,0,0,0,0,0,0,0,0,0,0,0,0,0,0,0,0,0,0,0,0,0,0,0
0,0,0,0,0,0,0,0,0,0,0,0,0,1616,1616,1616,1616,1609,1609,1609,1609,1601,1601,1601,1601,1601,1601,1601,1601,1601,1601,1601,1601,1601,1601,1601,1601,1601,1601,1601,1601,1601,1601,1601,1601,1601,1601,1601,1601,1594,1594,1601,1601,1601,1601,1601,1601,1601,1601,1601,1609,1609,1609,1616,1624,1624,1632,1632,1632,1632,1632,1632,1883,1863,1853,1823,1823,1823,1823,1833,1823,1823,1823,1823,1823,1823,1823,1616,1616,1616,1616,1616,1616,1616,1616,1624,1624,1624,1624,1624,1624,1624,1632,1632,1632,1632,1632,1639,1639,1639,1639,1647,1647,1647,1655,1655,1663,1663,1663,1663,1663,1663,1671,1671,1671,1688,1688,1688,1696,1696,1696,1705,1705,1713,1713,1713,1713,1713,1722,1722,1722,1722,1722,1731,1731,1731,1731,1748,1748,1757,1757,1757,1757,1757,1757,1757,1757,1748,1739,1739,1739,1094,1094,1090,1090,1087,1084,1080,1080,1077,1077,1073,1073,1073,1073,1073,1073,1077,1077,1077,1077,1077,1080,1080,1084,1084,1087,1087,1084,1084,1084,0,0,0,1823,1823,1823,1823,1823,1823,1823,1823,1813,1813,1804,1804,1794,1794,1794,1794,1794,1785,1776,1776,1776,1766,1766,1766,1757,1757,1757,1757,1748,1748,1748,1739,1739,1731,1731,1731,1722,1722,1722,1722,1713,1713,1713,1705,1705,1696,1696,1696,1696,1688,1688,1688,1688,1680,1680,1671,1663,1663,1671,1663,1663,1663,1655,1655,1655,1655,1647,1647,1639,1639,925,923,923,925,925,928,930,0,0,0,906,903,903,896,896,894,894,891,889,887,887,885,885,885,882,880,878,878,878,878,880,882,885,887,889,891,894,894,894,896,896,896,898,0,0,0,0,0,0,1503,1503,1503,1503,1496,1496,1496,1496,1489,1489,1483,1477,1477,1477,1470,1470,1470,1470,1470,1464,1464,1464,1464,1464,1458,1458,1452,1452,1445,1445,1439,1439,1439,1439,1433,1433,1427,1427,1421,1421,1415,1415,1415,1410,1410,1410,1404,1404,1398,1398,1398,1392,1392,1392,1392,1392,1387,1387,1381,1381,1376,1376,1376,1376,1370,1370,1370,1370,1365,1365,1359,1354,1354,1354,1354,1349,1349,1349,1349,1343,1343,1338,1333,1333,1333,1333,1328,1328,1328,1328,1328,1322,1322,1317,1317,1312,1312,1312,1307,1307,1307,1302,1302,1302,1297,1297,1292,1292,1292,1292,1288,1288,1288,1283,1278,1278,1278,1273,1273,1273,1273,1268,1268,1268,1268,1264,1259,1259,1255,1255,1255,1255,1250,1250,1250,1245,1245,1241,1241,1241,1236,1236,1236,1232,1232,1232,1232,1227,1227,1223,1223,1223,1219,1219,1219,1214,1214,1214,1214,1210,1206,1206,1206,1202,1202,1202,1202,1197,1197,1197,1193,1189,1189,1185,1185,1185,1185,1181,1181,1181,1177,1177,1173,1169,1169,1169,1169,1169,1165,1165,1165,1161,1161,1157,1157,1157,1153,1153,1153,1153,1153,1153,1145,1145,1141,1141,1138,1138,1138,1138,1138,1134,1134,1134,1130,1126,1126,1126,1123,1123,1123,1123,1119,1119,1119,1119,1115,1115,1112,1108,1108,1108,1108,1108,1105,1105,1105,1101,1101,1101,1097,1097,1094,1094,1094,1090,1090,1090,1090,1087,1084,1084,1080,1080,1080,1077,1077,1077,1077,1077,1073,1073,1073,1073,1070,1070,1070,1067,1067,1063,1063,1063,1063,1063,1060,1060,1060,1057,1057,1054,1054,1054,1050,1050,1047,1047,1047,1044,1044,1041,1041,1038,1038,1038,1038,1038,0,0,0,0,0,0,0,0,0,0,0,0,0,0,0,0,0,0,0,0,0,0,0,0,0,0,0,0,0,0,0
0,0,0,0,0,0,0,0,0,0,0,0,0,1616,1616,1616,1616,1609,1609,1609,1609,1609,1601,1601,1601,1609,1601,1601,1601,1609,1609,1609,1609,1601,1601,1609,1601,1601,1601,1601,1601,1609,1601,1601,1601,1601,1601,1601,1601,1594,1594,1601,1601,1601,1601,1601,1601,1601,1601,1609,1609,1609,1609,1616,1624,1624,1632,1632,1632,1632,1632,1624,1624,1863,1785,1785,1794,1794,1794,1813,1813,1813,1823,1823,1823,1823,1823,1616,1616,1616,1616,1616,1616,1616,1624,1624,1624,1624,1624,1624,1624,1624,1632,1632,1632,1632,1639,1639,1639,1639,1639,1647,1647,1647,1655,1655,1663,1663,1663,1663,1663,1663,1671,1671,1671,1688,1688,1696,1696,1696,1696,1705,1705,1705,1713,1713,1713,1713,1722,1722,1722,1722,1722,1731,1731,1731,1731,1748,1748,1757,1757,1757,1766,1766,1766,1757,1757,1748,1739,1739,0,1094,1094,1090,1090,1087,1084,1080,1080,1077,1077,1077,1073,1073,1073,1073,1077,1077,1077,1077,1077,1077,1080,1080,1080,1084,1087,1087,1084,1084,1087,0,0,0,0,1833,1833,1833,1823,1823,1823,1823,1813,1813,1813,1804,1804,1794,1794,1794,1794,1785,1785,1776,1776,1766,1766,1766,1757,1757,1757,1757,1757,1748,1748,1739,1739,1731,1731,1731,1731,1722,1722,1722,1722,1722,1713,1705,1705,1696,1696,1696,1696,1688,1688,1688,1688,1680,1680,1671,1663,1663,1663,1663,1663,1663,1655,1655,1655,1655,1647,1647,1639,1639,1632,1632,1624,1624,1624,0,0,0,0,0,0,0,0,896,894,894,891,891,889,887,887,887,885,885,882,880,880,880,878,878,880,882,885,887,889,891,894,894,896,896,896,896,898,0,0,0,0,0,0,1496,1496,1503,1503,1503,1496,1496,1496,1489,1489,1489,1483,1483,1477,1477,1477,1470,1470,1470,1470,1470,1464,1464,1464,1458,1458,1452,1452,1445,1445,1439,1439,1439,1439,1433,1433,1427,1427,1421,1421,1415,1415,1415,1410,1410,1410,1404,1404,1404,1398,1398,1398,1398,1392,1392,1392,1392,1387,1387,1381,1381,1376,1376,1376,1376,1370,1370,1370,1365,1365,1359,1354,1354,1354,1354,1349,1349,1349,1349,1343,1343,1338,1333,1333,1333,1333,1328,1328,1328,1328,1328,1322,1322,1317,1317,1312,1312,1312,1307,1307,1307,1307,1307,1302,1302,1297,1297,1297,1292,1292,1288,1288,1288,1283,1283,1283,1278,1278,1273,1273,1273,1273,1268,1268,1268,1264,1259,1259,1255,1255,1255,1255,1250,1250,1250,1245,1245,1241,1241,1241,1236,1236,1236,1232,1232,1232,1232,1227,1227,1227,1223,1223,1219,1219,1219,1214,1214,1214,1214,1210,1206,1206,1206,1202,1202,1202,1202,1197,1197,1197,1197,1193,1189,1185,1185,1185,1185,1181,1181,1181,1181,1177,1177,1169,1169,1169,1169,1169,1165,1165,1165,1161,1161,1157,1157,1157,1157,1153,1153,1153,1153,1153,1149,1145,1145,1141,1138,1138,1138,1138,1138,1134,1134,1134,1134,1130,1126,1126,1123,1123,1123,1123,1123,1119,1119,1119,1119,1115,1112,1112,1108,1108,1105,1105,1105,1105,1105,1105,1105,1101,1101,1097,1097,1094,1094,1094,1090,1090,1090,1087,1084,1084,1080,1080,1080,1077,1077,1077,1077,1077,1077,1077,1073,1073,1073,1070,1070,1067,1067,1063,1063,1063,1063,1063,1063,1060,1060,1060,1057,1054,1054,1054,1050,1050,1050,1050,1047,1044,1044,1041,1041,1038,1038,1038,1038,1038,0,0,0,0,0,0,0,0,0,0,0,0,0,0,0,0,0,0,0,0,0,0,0,0,0,0,0,0,0,0,0
0,0,0,0,0,0,0,0,0,0,0,0,0,1616,1616,1616,1616,1609,1609,1609,1609,1609,1601,1601,1601,1609,1601,1601,1609,1609,1609,1609,1609,1601,1601,1601,1609,1609,1609,1609,1609,1609,1609,1609,1601,1601,1601,1601,1601,1601,1601,1601,1601,1601,1601,1601,1601,1601,1601,1609,1609,1609,1609,1616,1624,1624,1632,1632,1632,1632,1632,1624,1624,1776,1776,1776,1776,1776,1794,1794,1794,1804,1804,1813,1813,1823,1823,1616,1616,1616,1616,1616,1616,1616,1624,1624,1624,1624,1624,1624,1624,1632,1632,1632,1632,1632,1639,1639,1639,1639,1639,1639,1647,1655,1655,1655,1663,1663,1663,1663,1663,1663,1671,1671,1680,1688,1688,1696,1696,1696,1696,1705,1705,1705,1705,1705,1713,1713,1722,1722,1722,1731,1731,1731,1731,1731,1731,1748,1748,1757,1757,1757,1757,1766,1766,1757,1757,1757,1757,1757,1757,1090,1090,1090,1090,1087,1084,1080,1080,1077,1077,1077,1073,1073,1073,1073,1077,1077,1077,1077,1077,1077,1080,1080,1080,1084,1087,1087,1087,1087,1087,0,0,0,0,1833,1833,1833,1833,1833,1823,1813,1813,1813,1813,1804,1804,1794,1794,1794,1794,1785,1785,1776,1776,1766,1766,1766,1766,1766,1757,1757,1757,1748,1748,1748,1739,1739,1731,1731,1731,1731,1722,1722,1722,1722,1713,1705,1705,1696,1696,1696,1696,1696,1696,1688,1688,1680,1680,1671,1671,1663,1663,1663,1663,1663,1655,1655,1647,1647,1647,1639,1639,1639,1632,1632,1624,1616,1616,0,0,0,0,0,0,0,0,896,894,894,891,891,889,887,887,887,885,885,882,880,880,880,880,880,880,882,885,887,889,891,894,894,896,896,896,896,898,0,0,0,0,0,1496,1496,1496,1503,1503,1503,1496,1496,1496,1496,1489,1489,1483,1483,1477,1477,1477,1477,1477,1470,1470,1470,1464,1464,1464,1464,1458,1452,1452,1445,1445,1445,1439,1439,1439,1433,1433,1427,1427,1421,1421,1421,1415,1415,1410,1410,1410,1410,1404,1404,1404,1404,1398,1398,1398,1398,1392,1392,1387,1387,1381,1381,1376,1376,1376,1376,1370,1370,1370,1365,1365,1359,1354,1354,1354,1354,1349,1349,1349,1349,1343,1343,1338,1333,1333,1333,1333,1333,1328,1328,1328,1328,1328,1322,1322,1317,1317,1312,1312,1312,1307,1307,1307,1307,1302,1302,1302,1297,1297,1297,1292,1288,1288,1288,1288,1283,1283,1278,1278,1278,1273,1273,1273,1268,1268,1268,1264,1259,1259,1255,1255,1255,1255,1250,1250,1250,1245,1245,1245,1241,1241,1241,1236,1236,1236,1232,1232,1232,1232,1227,1227,1223,1223,1219,1219,1219,1214,1214,1214,1214,1210,1210,1206,1206,1206,1202,1202,1202,1202,1197,1197,1197,1197,1189,1189,1189,1185,1185,1185,1181,1181,1181,1181,1177,1173,1169,1169,1169,1169,1169,1165,1165,1165,1161,1161,1161,1157,1157,1153,1153,1153,1153,1149,1149,1145,1145,1141,1138,1138,1138,1138,1138,1134,1134,1134,1134,1130,1130,1126,1123,1123,1123,1123,1123,1119,1119,1119,1119,1115,1115,1112,1112,1108,1105,1105,1105,1105,1105,1105,1105,1101,1101,1097,1097,1094,1094,1094,1094,1090,1090,1087,1084,1084,1080,1080,1080,1077,1077,1077,1077,1077,1077,1077,1077,1073,1073,1070,1067,1067,1067,1067,1063,1063,1063,1063,1063,1060,1060,1060,1057,1057,1054,1054,1050,1050,1050,1050,1047,1044,1044,1041,1041,1038,1038,1038,1038,1038,0,0,0,0,0,0,0,0,0,0,0,0,0,0,0,0,0,0,0,0,0,0,0,0,0,0,0,0,0,0,0
0,0,0,0,0,0,0,0,0,0,0,0,0,1616,1616,1616,1616,1609,1609,1616,1616,1609,1609,1609,1609,1609,1609,1609,1609,1609,1609,1609,1609,1601,1601,1601,1609,1609,1609,1609,1616,1609,1609,1609,1609,1601,1601,1601,1601,1601,1601,1601,1601,1601,1601,1601,1601,1601,1601,1609,1609,1609,1609,1616,1624,1624,1632,1632,1639,1639,1632,1632,1632,1757,1757,1766,1766,1766,1776,1776,1785,1785,1794,1794,1813,1813,1624,1624,1624,1624,1624,1624,1624,1624,1624,1624,1624,1624,1624,1624,1624,1624,1624,1632,1632,1632,1639,1639,1639,1639,1639,1639,1647,1655,1655,1655,1663,1663,1663,1663,1663,1663,1671,1671,1680,1688,1688,1696,1696,1696,1696,1705,1705,1705,1705,1705,1713,1713,1722,1722,1731,1731,1731,1731,1731,1731,1739,1748,1748,1757,1757,1757,1757,1766,1766,1766,1757,1757,1757,1757,0,1090,1090,1090,1087,1087,1084,1080,1080,1077,1077,1077,1073,1073,1073,1073,1077,1077,1077,1077,1077,1080,1084,1084,1084,1084,1087,1090,1087,1087,1087,0,0,0,1833,1833,1833,1833,1833,1833,1823,1813,1813,1813,1813,1804,1804,1794,1794,1794,1794,1785,1785,1776,1776,1776,1766,1766,1766,1766,1757,1757,1757,1757,1748,1748,1748,1739,1731,1731,1731,1731,1722,1722,1722,1722,1713,1705,1705,1696,1696,1696,1696,1696,1696,1688,1688,1688,1680,1680,1680,1671,1671,1663,1663,1663,1655,1655,1647,1647,1647,1639,1639,1632,1632,1624,1624,1609,1609,0,0,0,0,0,0,0,0,896,896,894,894,891,889,887,887,887,885,885,882,880,880,880,880,880,880,882,885,887,889,891,894,894,896,896,896,896,0,0,0,0,0,0,1496,1496,1496,1509,1509,1503,1503,1503,1496,1496,1496,1489,1483,1483,1483,1477,1477,1477,1477,1470,1470,1470,1464,1464,1464,1464,1458,1452,1452,1445,1445,1445,1439,1439,1439,1433,1433,1427,1427,1427,1421,1421,1415,1415,1415,1415,1410,1410,1410,1404,1404,1404,1398,1398,1398,1398,1392,1392,1392,1387,1381,1381,1376,1376,1376,1376,1370,1370,1370,1370,1365,1359,1354,1354,1354,1354,1349,1349,1349,1349,1349,1343,1338,1338,1333,1333,1333,1333,1333,1333,1328,1328,1328,1328,1322,1317,1317,1312,1312,1312,1307,1307,1307,1307,1307,1302,1302,1297,1297,1297,1292,1292,1288,1288,1288,1283,1283,1278,1278,1278,1273,1273,1273,1268,1268,1268,1264,1259,1259,1255,1255,1255,1255,1250,1250,1250,1250,1245,1245,1245,1241,1241,1236,1236,1236,1236,1232,1232,1232,1227,1227,1223,1223,1219,1219,1219,1214,1214,1214,1214,1210,1210,1206,1206,1206,1202,1202,1202,1202,1197,1197,1197,1197,1193,1189,1189,1189,1185,1185,1185,1181,1181,1181,1177,1177,1173,1169,1169,1169,1169,1165,1165,1165,1165,1161,1161,1157,1157,1157,1157,1153,1153,1149,1149,1145,1145,1141,1141,1138,1138,1138,1138,1134,1134,1134,1134,1130,1130,1126,1126,1123,1123,1123,1123,1123,1123,1119,1119,1119,1115,1115,1112,1112,1108,1108,1105,1105,1105,1105,1105,1101,1101,1097,1097,1094,1094,1094,1094,1090,1090,1087,1087,1084,1080,1080,1080,1080,1080,1077,1077,1077,1077,1077,1077,1073,1073,1073,1067,1067,1067,1067,1063,1063,1063,1063,1063,1063,1060,1060,1057,1057,1054,1054,1054,1050,1050,1050,1050,1047,1044,1044,1041,1041,1041,1038,1038,1038,0,0,0,0,0,0,0,0,0,0,0,0,0,0,0,0,0,0,0,0,0,0,0,0,0,0,0,0,0,0,0
0,0,0,0,0,0,0,0,0,0,0,0,0,1624,1616,1616,1616,1616,1616,1616,1616,1609,1609,1609,1609,1609,1609,1609,1609,1609,1609,1609,1609,1601,1601,1609,1609,1609,1609,1616,1616,1609,1609,1609,1609,1601,1601,1601,1601,1601,1601,1601,1601,1601,1601,1601,1601,1601,1601,1609,1609,1609,1609,1616,1624,1624,1632,1632,1639,1639,1639,1632,1632,1757,1757,1757,1757,1757,1766,1766,1766,1766,1722,1722,1722,1696,1696,1624,1624,1624,1624,1624,1624,1624,1624,1624,1624,1624,1624,1624,1624,1624,1624,1624,1632,1632,1632,1639,1639,1639,1639,1647,1647,1655,1655,1663,1663,1663,1671,1671,1671,1671,1671,1671,1680,1688,1688,1696,1696,1696,1696,1705,1705,1705,1705,1713,1713,1713,1722,1722,1731,1731,1731,1731,1731,1739,1739,1748,1748,1757,1757,1766,1766,1766,1766,1766,1766,1757,1757,1757,0,1090,1090,1090,1087,1087,1084,1084,1080,1077,1077,1077,1077,1077,1073,1073,1077,1077,1077,1077,1080,1080,1084,1084,1084,1084,1087,1090,1087,1087,1087,0,0,0,0,1833,1833,1833,1833,1833,1823,1823,1823,1813,1813,1813,1804,1794,1794,1794,1785,1785,1785,1776,1776,1776,1776,1766,1766,1766,1757,1757,1757,1757,1748,1748,1748,1739,1739,1739,1731,1731,1731,1722,1722,1722,1713,1713,1705,1696,1696,1696,1696,1696,1696,1688,1688,1688,1680,1680,1680,1671,1671,1663,1663,1663,1655,1655,1647,1647,1647,1639,1639,1632,1632,1624,1624,1609,1609,0,0,0,0,0,0,0,0,896,896,896,894,891,891,887,887,885,885,885,882,882,880,880,880,880,882,885,885,887,889,891,894,896,896,896,898,898,0,0,0,0,0,0,1496,1496,1496,1509,1509,1503,1503,1503,1496,1496,1496,1489,1489,1489,1483,1477,1477,1477,1477,1470,1470,1470,1464,1464,1464,1464,1458,1458,1452,1452,1445,1445,1439,1439,1439,1439,1433,1433,1427,1427,1427,1421,1421,1415,1415,1415,1415,1410,1410,1410,1404,1404,1398,1398,1398,1398,1398,1392,1392,1387,1387,1381,1381,1376,1376,1376,1370,1370,1370,1370,1365,1365,1359,1354,1354,1354,1349,1349,1349,1349,1349,1343,1343,1338,1333,1333,1333,1333,1333,1333,1328,1328,1328,1328,1322,1322,1317,1312,1312,1312,1312,1307,1307,1307,1307,1302,1302,1297,1297,1297,1292,1292,1288,1288,1288,1288,1283,1283,1278,1278,1273,1273,1273,1268,1268,1268,1264,1264,1264,1259,1259,1255,1255,1250,1250,1250,1250,1250,1245,1245,1241,1241,1236,1236,1236,1236,1232,1232,1232,1232,1227,1227,1223,1223,1219,1219,1219,1214,1214,1214,1214,1210,1210,1206,1206,1206,1202,1202,1202,1197,1197,1197,1197,1193,1193,1189,1189,1185,1185,1185,1185,1185,1181,1181,1177,1173,1169,1169,1169,1169,1165,1165,1165,1165,1161,1161,1161,1157,1157,1157,1153,1153,1149,1149,1149,1145,1145,1141,1141,1138,1138,1138,1138,1134,1134,1134,1130,1130,1126,1126,1123,1123,1123,1123,1123,1119,1119,1119,1119,1119,1115,1115,1112,1108,1108,1105,1105,1105,1105,1105,1101,1101,1097,1097,1094,1094,1094,1090,1090,1090,1087,1087,1084,1084,1080,1080,1080,1080,1080,1077,1077,1077,1077,1077,1077,1073,1070,1067,1067,1067,1067,1067,1063,1063,1063,1063,1063,1060,1060,1057,1057,1054,1054,1054,1050,1050,1050,1050,1047,1044,1044,1041,1041,1041,1038,1038,1038,0,0,0,0,0,0,0,0,0,0,0,0,0,0,0,0,0,0,0,0,0,0,0,0,0,0,0,0,0,0,0
0,0,0,0,0,0,0,0,0,0,0,0,0,1624,1616,1616,1616,1616,1616,1616,1616,1609,1609,1609,1609,1609,1609,1609,1609,1609,1609,1609,1609,1609,1609,1609,1609,1609,1609,1609,1609,1609,1609,1609,1609,1601,1601,1601,1601,1601,1601,1601,1601,1601,1601,1601,1601,1601,1601,1609,1609,1609,1609,1616,1624,1624,1632,1639,1639,1639,1647,1639,1639,1731,1739,1748,1739,1739,1739,1739,1739,1731,1713,1713,1696,1696,1696,1624,1624,1624,1624,1624,1624,1624,1624,1624,1624,1616,1616,1624,1624,1624,1624,1624,1632,1632,1632,1639,1639,1647,1647,1647,1647,1655,1655,1663,1663,1663,1663,1671,1671,1671,1671,1680,1688,1688,1688,1696,1696,1696,1696,1705,1705,1713,1713,1713,1713,1722,1722,1731,1731,1731,1731,1731,1731,1739,1739,1748,1748,1757,1757,1766,1766,1766,1766,1766,1766,1757,1757,1757,0,1087,1087,1087,1087,1084,1084,1084,1080,1077,1077,1077,1077,1077,1073,1073,1077,1077,1077,1077,1080,1080,1084,1084,1084,1084,1087,1090,1090,1090,1090,0,0,0,0,1843,1833,1833,1833,1833,1823,1823,1823,1813,1813,1804,1804,1794,1794,1794,1785,1785,1785,1776,1776,1776,1776,1766,1766,1766,1766,1757,1757,1757,1748,1748,1748,1739,1739,1739,1731,1731,1731,1722,1722,1722,1713,1713,1713,1705,1705,1705,1696,1696,1696,1688,1688,1688,1688,1680,1680,1680,1680,1671,1663,1663,1663,1663,1655,1655,1647,1647,1639,1639,1632,1632,1624,1609,1609,0,0,0,0,0,0,0,0,0,896,896,894,891,891,887,887,885,885,885,882,882,880,880,880,882,882,885,885,887,889,891,894,896,896,898,898,898,0,0,0,0,0,0,1496,1496,1496,1509,1509,1509,1503,1503,1496,1496,1496,1489,1489,1489,1483,1483,1477,1477,1477,1470,1470,1470,1470,1464,1464,1464,1464,1458,1452,1452,1445,1445,1439,1439,1439,1439,1433,1433,1427,1427,1427,1421,1421,1415,1415,1415,1415,1415,1410,1410,1410,1404,1404,1398,1398,1398,1398,1392,1392,1392,1387,1387,1381,1376,1376,1376,1370,1370,1370,1370,1365,1365,1359,1354,1354,1354,1349,1349,1349,1349,1349,1349,1343,1343,1338,1333,1333,1333,1333,1333,1333,1328,1328,1328,1328,1322,1317,1317,1312,1312,1312,1307,1307,1307,1307,1302,1302,1297,1297,1297,1292,1292,1288,1288,1288,1288,1283,1283,1283,1278,1273,1273,1273,1273,1268,1268,1264,1264,1264,1259,1259,1255,1255,1255,1250,1250,1250,1250,1250,1250,1245,1241,1236,1236,1236,1236,1232,1232,1232,1232,1232,1227,1227,1223,1223,1219,1219,1214,1214,1214,1214,1214,1210,1210,1206,1206,1202,1202,1202,1202,1197,1197,1197,1197,1193,1193,1189,1189,1185,1185,1185,1185,1181,1181,1177,1173,1169,1169,1169,1169,1169,1165,1165,1165,1165,1161,1161,1161,1157,1157,1153,1153,1149,1149,1149,1145,1145,1145,1141,1141,1138,1138,1138,1134,1134,1134,1134,1130,1126,1126,1123,1123,1123,1123,1123,1119,1119,1119,1119,1119,1115,1115,1112,1108,1108,1105,1105,1105,1105,1105,1101,1101,1097,1097,1094,1094,1094,1090,1090,1090,1087,1087,1087,1084,1080,1080,1080,1080,1080,1080,1077,1077,1077,1077,1077,1073,1070,1067,1067,1067,1067,1067,1063,1063,1063,1063,1063,1060,1060,1057,1057,1054,1054,1054,1050,1050,1050,1050,1047,1044,1044,1044,1041,1041,1041,1041,1041,0,0,0,0,0,0,0,0,0,0,0,0,0,0,0,0,0,0,0,0,0,0,0,0,0,0,0,0,0,0,0
0,0,0,0,0,0,0,0,0,0,0,0,0,1624,1616,1616,1616,1616,1616,1616,1616,1609,1609,1609,1609,1609,1609,1609,1609,1609,1616,1609,1609,1609,1609,1609,1609,1609,1609,1609,1609,1609,1609,1609,1609,1601,1601,1601,1601,1609,1609,1609,1601,1601,1601,1601,1601,1601,1601,1609,1609,1609,1609,1616,1624,1624,1632,1632,1639,1639,1647,1655,1671,1722,1722,1739,1731,1731,1722,1722,1722,1722,1705,1696,1696,1688,1688,1680,1632,1624,1624,1624,1624,1624,1624,1624,1624,1616,1616,1624,1624,1624,1624,1624,1632,1632,1639,1639,1639,1639,1647,1647,1655,1655,1655,1663,1663,1663,1663,1671,1671,1671,1671,1680,1688,1688,1688,1696,1696,1696,1696,1696,1705,1713,1713,1713,1713,1722,1722,1731,1731,1731,1731,1731,1731,1739,1748,1748,1757,1757,1757,1766,1766,1766,1766,1766,1766,1766,1766,1766,1757,1090,1087,1087,1087,1084,1084,1084,1080,1077,1077,1077,1077,1077,1073,1073,1077,1077,1077,1080,1080,1080,1084,1084,1084,1087,1090,1090,1090,1090,1090,0,0,0,0,1843,1833,1833,1833,1833,1823,1823,1823,1813,1813,1804,1804,1794,1794,1794,1794,1785,1785,1776,1776,1776,1776,1766,1766,1766,1766,1766,1757,1757,1748,1748,1748,1739,1739,1739,1739,1739,1731,1731,1731,1722,1722,1713,1713,1705,1705,1705,1705,1696,1696,1696,1688,1688,1688,1688,1688,1680,1680,1671,1671,1663,1663,1663,1655,1655,1647,1647,1647,1639,1632,1632,1624,1624,0,0,0,0,0,0,0,0,0,0,896,896,894,891,891,887,887,887,885,885,882,882,882,882,882,882,885,885,887,887,889,891,894,896,896,898,898,898,901,0,0,0,0,0,1496,1496,1509,1509,1509,1509,1503,1503,1503,1496,1496,1496,1489,1489,1483,1483,1483,1477,1477,1470,1470,1470,1470,1464,1464,1464,1464,1458,1452,1452,1445,1445,1445,1439,1439,1439,1433,1433,1427,1427,1427,1421,1421,1421,1415,1415,1415,1415,1415,1410,1410,1410,1404,1404,1398,1398,1398,1392,1392,1392,1387,1387,1381,1376,1376,1376,1376,1370,1370,1370,1365,1365,1359,1354,1354,1354,1349,1349,1349,1349,1349,1349,1343,1343,1338,1338,1333,1333,1333,1333,1333,1328,1328,1328,1328,1322,1317,1317,1312,1312,1312,1312,1307,1307,1307,1307,1302,1302,1297,1297,1292,1292,1288,1288,1288,1288,1283,1283,1283,1283,1278,1278,1273,1273,1268,1268,1268,1264,1264,1259,1259,1255,1255,1255,1250,1250,1250,1250,1250,1250,1245,1241,1236,1236,1236,1236,1236,1232,1232,1232,1232,1232,1227,1227,1223,1219,1219,1219,1214,1214,1214,1214,1214,1210,1210,1206,1202,1202,1202,1202,1197,1197,1197,1197,1193,1193,1189,1189,1185,1185,1185,1185,1181,1181,1181,1177,1173,1169,1169,1169,1169,1169,1169,1165,1165,1165,1161,1161,1161,1157,1153,1153,1149,1149,1149,1149,1145,1145,1141,1141,1138,1138,1138,1138,1134,1134,1134,1130,1130,1126,1126,1123,1123,1123,1123,1119,1119,1119,1119,1119,1115,1115,1112,1108,1108,1108,1105,1105,1105,1105,1105,1101,1097,1097,1094,1094,1094,1094,1090,1090,1090,1087,1087,1084,1084,1084,1084,1080,1080,1080,1080,1080,1077,1077,1077,1077,1073,1070,1067,1067,1067,1067,1067,1063,1063,1063,1063,1063,1060,1057,1057,1057,1054,1054,1054,1050,1050,1050,1047,1044,1044,1044,1041,1041,1041,1041,1041,0,0,0,0,0,0,0,0,0,0,0,0,0,0,0,0,0,0,0,0,0,0,0,0,0,0,0,0,0,0,0
0,0,0,0,0,0,0,0,0,0,0,0,0,1624,1616,1616,1616,1616,1616,1616,1616,1609,1609,1609,1609,1609,1609,1609,1609,1609,1616,1616,1609,1609,1609,1609,1609,1609,1609,1609,1609,1609,1609,1609,1609,1601,1601,1609,1609,1609,1609,1609,1609,1601,1601,1601,1601,1601,1601,1609,1609,1609,1616,1624,1624,1624,1632,1632,1639,1639,1647,1655,1671,1722,1722,1731,1722,1722,1713,1713,1713,1705,1705,1696,1696,1688,1688,1680,1655,1639,1632,1624,1624,1624,1624,1624,1624,1624,1624,1624,1624,1624,1624,1624,1632,1632,1632,1639,1639,1639,1647,1647,1655,1655,1663,1663,1663,1663,1663,1671,1671,1671,1671,1680,1688,1688,1688,1696,1696,1696,1696,1696,1705,1713,1713,1713,1722,1722,1722,1731,1731,1731,1731,1739,1739,1739,1748,1748,1757,1757,1757,1766,1766,1766,1766,1766,1766,1766,1757,1757,1757,1090,1090,1087,1087,1084,1084,1084,1080,1077,1077,1077,1077,1077,1073,1073,1077,1077,1077,1080,1080,1084,1084,1087,1087,1087,1090,1090,1090,1090,1090,0,0,0,1843,1843,1843,1843,1833,1833,1833,1823,1823,1813,1813,1804,1804,1794,1794,1794,1794,1785,1785,1776,1776,1776,1776,1776,1766,1766,1766,1766,1757,1757,1757,1748,1748,1739,1739,1739,1739,1739,1731,1731,1731,1722,1722,1713,1713,1713,1705,1705,1705,1696,1696,1696,1688,1688,1688,1688,1688,1680,1680,1671,1663,1663,1663,1663,1655,1655,1647,1647,1647,1639,1632,1632,1632,1632,0,0,0,0,0,0,0,0,0,0,896,896,894,891,891,887,887,887,885,885,882,882,882,882,882,885,885,885,887,887,891,894,894,896,896,898,898,898,901,0,0,0,0,0,1503,1503,1516,1509,1509,1509,1503,1503,1503,1496,1496,1496,1489,1489,1483,1483,1483,1477,1477,1477,1470,1470,1470,1470,1464,1464,1464,1458,1452,1452,1445,1445,1445,1445,1439,1439,1439,1433,1433,1427,1427,1427,1427,1421,1421,1421,1415,1415,1415,1415,1410,1410,1404,1404,1398,1398,1398,1392,1392,1392,1387,1387,1381,1381,1376,1376,1376,1370,1370,1370,1370,1365,1359,1359,1354,1354,1354,1354,1349,1349,1349,1349,1343,1343,1338,1338,1333,1333,1333,1333,1333,1333,1328,1328,1328,1322,1317,1317,1312,1312,1312,1312,1307,1307,1307,1307,1302,1302,1297,1297,1292,1292,1288,1288,1288,1288,1288,1283,1283,1283,1283,1278,1278,1273,1273,1268,1268,1268,1264,1259,1259,1255,1255,1255,1255,1255,1250,1250,1250,1250,1250,1245,1241,1241,1236,1236,1236,1236,1232,1232,1232,1232,1232,1227,1223,1223,1219,1219,1219,1214,1214,1214,1214,1210,1210,1206,1202,1202,1202,1202,1197,1197,1197,1197,1193,1193,1193,1189,1185,1185,1185,1185,1181,1181,1181,1177,1173,1169,1169,1169,1169,1169,1169,1165,1165,1165,1165,1165,1161,1157,1153,1153,1149,1149,1149,1149,1149,1145,1145,1141,1138,1138,1138,1138,1138,1138,1134,1134,1130,1130,1126,1126,1123,1123,1123,1123,1119,1119,1119,1119,1115,1115,1112,1108,1108,1108,1105,1105,1105,1105,1105,1101,1101,1097,1097,1094,1094,1094,1090,1090,1090,1090,1087,1087,1084,1084,1084,1084,1080,1080,1080,1080,1077,1077,1077,1077,1073,1070,1070,1067,1067,1067,1067,1063,1063,1063,1063,1063,1060,1057,1057,1057,1054,1054,1054,1054,1050,1050,1047,1047,1044,1044,1041,1041,1041,1041,1041,0,0,0,0,0,0,0,0,0,0,0,0,0,0,0,0,0,0,0,0,0,0,0,0,0,0,0,0,0,0,0
0,0,0,0,0,0,0,0,0,0,0,0,0,1616,1616,1616,1616,1616,1616,1616,1616,1616,1616,1616,1616,1616,1609,1609,1609,1609,1616,1616,1616,1609,1609,1609,1601,1601,1601,1609,1609,1609,1609,1609,1609,1609,1609,1609,1609,1609,1609,1609,1609,1601,1601,1601,1601,1601,1601,1609,1609,1616,1616,1624,1624,1624,1632,1632,1639,1639,1647,1655,1688,1713,1713,1722,1722,1713,1705,1705,1713,1705,1705,1696,1696,1696,1688,1680,1663,1655,1639,1632,1632,1632,1632,1624,1624,1624,1624,1624,1624,1624,1624,1624,1632,1632,1632,1639,1639,1639,1647,1647,1655,1655,1663,1663,1663,1663,1663,1671,1671,1671,1680,1688,1688,1688,1696,1696,1696,1696,1696,1696,1705,1713,1713,1713,1722,1722,1722,1731,1731,1731,1739,1739,1739,1748,1748,1748,1757,1757,1757,1757,1766,1766,1766,1766,1757,1757,1757,1757,1757,1090,1090,1087,1087,1084,1084,1084,1080,1077,1077,1077,1077,1077,1077,1077,1077,1077,1077,1080,1080,1084,1084,1087,1087,1087,1090,1090,1090,1090,0,0,0,0,1843,1843,1843,1843,1843,1833,1833,1823,1823,1813,1813,1804,1804,1804,1794,1794,1794,1785,1785,1785,1785,1776,1776,1776,1776,1776,1766,1766,1766,1757,1757,1748,1748,1748,1748,1748,1739,1739,1739,1731,1731,1731,1722,1722,1722,1713,1713,1713,1705,1696,1696,1696,1688,1688,1688,1688,1688,1680,1680,1671,1663,1663,1663,1663,1655,1655,1647,1647,1647,1639,1632,1632,1632,1632,0,0,0,0,0,0,0,0,0,896,896,896,894,894,891,887,887,887,887,885,885,885,885,885,885,885,885,887,887,889,889,894,896,896,898,898,898,901,901,0,0,0,0,1509,1509,1509,1516,1516,1509,1509,1509,1503,1503,1496,1496,1496,1489,1489,1489,1483,1483,1477,1477,1477,1470,1470,1470,1470,1464,1464,1464,1464,1458,1452,1452,1445,1445,1445,1445,1439,1439,1433,1433,1433,1427,1427,1427,1421,1421,1421,1415,1415,1415,1415,1410,1410,1404,1404,1398,1398,1398,1398,1392,1392,1387,1387,1381,1381,1376,1376,1376,1376,1370,1370,1370,1365,1359,1359,1354,1354,1354,1354,1354,1349,1349,1349,1343,1343,1338,1338,1333,1333,1333,1333,1333,1333,1333,1328,1328,1322,1322,1317,1317,1312,1312,1312,1307,1307,1307,1307,1302,1302,1297,1297,1292,1292,1288,1288,1288,1288,1288,1283,1283,1283,1283,1278,1278,1278,1273,1273,1268,1268,1268,1264,1264,1259,1255,1255,1255,1255,1250,1250,1250,1250,1250,1250,1241,1241,1236,1236,1236,1236,1236,1232,1232,1232,1232,1227,1227,1223,1219,1219,1219,1214,1214,1214,1214,1210,1210,1206,1206,1202,1202,1202,1197,1197,1197,1197,1197,1193,1193,1189,1189,1185,1185,1185,1181,1181,1181,1177,1173,1169,1169,1169,1169,1169,1169,1169,1165,1165,1165,1165,1161,1157,1153,1153,1153,1149,1149,1149,1149,1145,1145,1141,1141,1138,1138,1138,1138,1138,1134,1134,1130,1130,1126,1126,1123,1123,1123,1123,1119,1119,1119,1119,1115,1115,1112,1108,1108,1108,1105,1105,1105,1105,1105,1101,1101,1097,1097,1094,1094,1094,1090,1090,1090,1090,1090,1087,1087,1084,1084,1084,1080,1080,1080,1080,1080,1077,1077,1077,1073,1070,1070,1067,1067,1067,1067,1067,1063,1063,1063,1063,1060,1060,1057,1057,1054,1054,1054,1054,1054,1050,1050,1047,1047,1044,1041,1041,1041,1041,1041,0,0,0,0,0,0,0,0,0,0,0,0,0,0,0,0,0,0,0,0,0,0,0,0,0,0,0,0,0,0,0
0,0,0,0,0,0,0,0,0,0,0,0,0,1616,1616,1616,1616,1616,1616,1616,1616,1616,1616,1616,1616,1616,1609,1609,1609,1609,1616,1616,1616,1609,1609,1609,1601,1601,1601,1609,1609,1609,1609,1609,1609,1609,1609,1609,1609,1609,1609,1609,1609,1609,1601,1601,1601,1609,1609,1609,1609,1609,1616,1616,1616,1624,1624,1632,1632,1639,1647,1655,1688,1713,1713,1713,1705,1705,1705,1705,1705,1696,1696,1696,1696,1688,1688,1680,1671,1663,1655,1639,1632,1632,1632,1632,1624,1624,1624,1624,1624,1624,1624,1624,1632,1632,1632,1639,1639,1647,1647,1655,1655,1655,1663,1663,1663,1663,1663,1671,1671,1680,1688,1688,1688,1688,1696,1696,1696,1696,1696,1705,1705,1713,1713,1713,1722,1722,1731,1731,1731,1739,1739,1739,1739,1748,1748,1748,1757,1757,1757,1757,1766,1766,1766,1766,1757,1757,1748,1748,1748,1090,1090,1087,1087,1084,1084,1084,1080,1077,1077,1077,1077,1077,1077,1077,1077,1077,1080,1080,1084,1084,1084,1087,1087,1090,1090,1090,1090,1090,1090,0,0,0,1843,1843,1843,1843,1843,1833,1833,1833,1823,1823,1813,1804,1804,1804,1804,1794,1794,1794,1794,1785,1785,1785,1785,1785,1776,1776,1776,1766,1766,1757,1757,1757,1757,1748,1748,1748,1748,1739,1739,1731,1731,1731,1722,1722,1722,1722,1713,1713,1713,1713,1696,1696,1688,1688,1688,1688,1688,1688,1680,1671,1671,1663,1663,1663,1655,1655,1647,1647,1647,1639,1639,1632,1632,1632,0,0,0,0,0,0,0,0,0,896,896,896,894,894,891,889,887,887,887,885,885,885,885,885,885,885,885,887,887,889,889,894,896,896,898,901,901,901,0,0,0,0,0,1509,1509,1509,1516,1516,1516,1509,1509,1503,1503,1496,1496,1496,1489,1489,1489,1489,1483,1477,1477,1477,1470,1470,1470,1470,1464,1464,1464,1464,1458,1458,1452,1452,1445,1445,1445,1439,1439,1439,1433,1433,1433,1427,1427,1421,1421,1421,1421,1415,1415,1415,1415,1410,1404,1404,1398,1398,1398,1398,1392,1392,1392,1392,1387,1381,1381,1376,1376,1376,1370,1370,1370,1365,1359,1359,1354,1354,1354,1354,1354,1354,1349,1349,1349,1349,1338,1338,1333,1333,1333,1333,1333,1333,1333,1328,1328,1322,1322,1317,1317,1312,1312,1312,1307,1307,1307,1307,1302,1302,1302,1297,1292,1292,1288,1288,1288,1288,1288,1283,1283,1283,1283,1278,1278,1278,1273,1273,1268,1268,1268,1268,1264,1264,1264,1259,1259,1259,1255,1255,1250,1250,1250,1250,1245,1245,1241,1236,1236,1236,1236,1236,1232,1232,1232,1232,1227,1223,1219,1219,1219,1219,1214,1214,1214,1214,1210,1206,1206,1202,1202,1202,1197,1197,1197,1197,1197,1193,1193,1189,1189,1189,1185,1185,1185,1181,1181,1177,1173,1173,1169,1169,1169,1169,1169,1169,1169,1165,1165,1165,1161,1157,1153,1153,1153,1153,1149,1149,1149,1149,1145,1145,1141,1141,1138,1138,1138,1138,1134,1134,1134,1130,1126,1126,1126,1123,1123,1123,1119,1119,1119,1119,1115,1115,1112,1108,1108,1108,1105,1105,1105,1105,1105,1105,1101,1101,1097,1097,1094,1094,1090,1090,1090,1090,1090,1087,1087,1084,1084,1084,1084,1080,1080,1080,1080,1077,1077,1077,1073,1073,1070,1070,1067,1067,1067,1067,1067,1063,1063,1063,1060,1060,1057,1057,1054,1054,1054,1054,1054,1050,1050,1047,1047,1044,1041,1041,1041,1041,1041,0,0,0,0,0,0,0,0,0,0,0,0,0,0,0,0,0,0,0,0,0,0,0,0,0,0,0,0,0,0,0
0,0,0,0,0,0,0,0,0,0,0,0,0,1624,1616,1616,1624,1624,1624,1624,1624,1624,1616,1616,1616,1616,1616,1616,1616,1616,1616,1616,1616,1616,1616,1609,1609,1609,1609,1609,1609,1609,1609,1609,1609,1609,1609,1609,1609,1609,1609,1609,1609,1609,1601,1601,1609,1609,1609,1609,1609,1609,1616,1616,1616,1624,1624,1632,1632,1639,1647,1663,1696,1713,1713,1705,1705,1696,1696,1696,1696,1696,1688,1688,1688,1688,1680,1680,1671,1663,1655,1647,1639,1632,1632,1632,1624,1624,1624,1624,1624,1624,1624,1624,1632,1632,1632,1639,1639,1647,1647,1655,1655,1655,1663,1663,1663,1663,1663,1663,1671,1680,1688,1688,1696,1696,1696,1696,1696,1696,1696,1705,1705,1713,1713,1713,1722,1722,1731,1731,1731,1739,1739,1739,1739,1748,1748,1748,1757,1757,1757,1766,1766,1766,1766,1766,1757,1757,1748,1739,1739,1090,1090,1087,1087,1087,1084,1084,1080,1077,1077,1077,1077,1077,1077,1077,1077,1077,1080,1080,1084,1084,1087,1087,1090,1090,1094,1094,1094,1094,0,0,0,0,1843,1843,1843,1843,1843,1833,1833,1833,1833,1823,1823,1804,1804,1804,1804,1804,1794,1794,1794,1785,1785,1785,1785,1785,1776,1776,1776,1766,1766,1766,1757,1757,1757,1757,1748,1748,1748,1748,1739,1739,1731,1731,1722,1722,1722,1722,1713,1713,1713,1713,1696,1696,1688,1688,1688,1688,1688,1688,1680,1671,1671,1663,1663,1663,1655,1655,1655,1655,1655,1647,1639,1639,1639,1647,0,0,0,0,0,0,0,0,0,896,896,896,894,894,891,889,887,887,887,885,885,885,885,885,885,885,885,887,887,889,891,894,896,896,898,901,901,903,0,0,0,0,0,1516,1509,1509,1516,1516,1516,1516,1509,1503,1503,1496,1496,1496,1489,1489,1489,1489,1483,1477,1477,1477,1477,1470,1470,1470,1464,1464,1464,1464,1458,1458,1452,1452,1445,1445,1445,1445,1439,1439,1439,1433,1433,1433,1427,1421,1421,1421,1421,1421,1415,1415,1415,1410,1404,1404,1404,1398,1398,1398,1392,1392,1392,1392,1387,1381,1381,1376,1376,1376,1370,1370,1370,1365,1365,1359,1359,1359,1354,1354,1354,1354,1354,1349,1349,1349,1343,1338,1333,1333,1333,1333,1333,1333,1333,1328,1328,1322,1322,1317,1317,1312,1312,1312,1307,1307,1307,1307,1307,1302,1302,1297,1292,1292,1292,1288,1288,1288,1288,1288,1288,1283,1283,1283,1278,1278,1278,1273,1273,1268,1268,1268,1268,1264,1264,1259,1259,1259,1255,1255,1255,1250,1250,1250,1245,1245,1241,1236,1236,1236,1236,1236,1232,1232,1232,1232,1227,1223,1223,1219,1219,1219,1219,1214,1214,1214,1210,1210,1206,1206,1202,1202,1197,1197,1197,1197,1197,1197,1193,1193,1189,1189,1185,1185,1185,1181,1181,1177,1177,1173,1173,1169,1169,1169,1169,1169,1169,1165,1165,1165,1161,1157,1153,1153,1153,1153,1153,1149,1149,1149,1149,1145,1141,1141,1138,1138,1138,1138,1134,1134,1134,1130,1130,1130,1126,1123,1123,1123,1123,1119,1119,1119,1119,1115,1112,1112,1108,1108,1108,1105,1105,1105,1105,1105,1101,1101,1097,1097,1094,1094,1094,1094,1090,1090,1090,1090,1087,1087,1087,1084,1084,1080,1080,1080,1080,1077,1077,1077,1073,1073,1073,1070,1070,1067,1067,1067,1067,1063,1063,1063,1063,1060,1060,1057,1054,1054,1054,1054,1054,1050,1050,1047,1047,1044,1044,1044,1041,1041,1041,0,0,0,0,0,0,0,0,0,0,0,0,0,0,0,0,0,0,0,0,0,0,0,0,0,0,0,0,0,0,0
