0,0,0,0,0,0,0,0,0,0,0,0,0,1722,1722,1722,1722,1722,1722,1722,1722,1713,1713,1722,1722,1713,1713,1713,1713,1713,1713,1713,1705,1705,1705,1705,1705,1705,1713,1705,1705,1705,1705,1705,1696,1696,1696,1696,1696,1696,1696,1696,1696,1696,1696,1696,1696,1696,1688,1688,1688,1688,1696,1688,1688,1696,1688,1688,1688,1688,1688,1688,1688,1688,1688,1688,1688,1680,1680,1680,1688,1680,1680,1680,1680,1680,1680,1671,1671,1671,1671,1671,1680,1680,1680,1680,1680,1680,1680,1680,1680,1671,1671,1671,1671,1671,1663,1663,1663,1663,1663,1663,1663,1663,1663,1663,1663,1663,1655,1655,1655,1655,1655,1655,1655,1655,1663,1663,1663,1663,1663,1663,1671,1671,1680,1680,1688,1688,1696,1705,1713,1722,1731,1731,1731,1731,1731,1731,1731,1722,1722,1722,1713,1705,1696,1696,1696,1696,1696,1688,1688,1680,1680,1671,1671,1671,1663,1663,1671,1671,1680,1680,1688,1688,1688,1696,1696,1696,1696,1696,1696,1705,1713,1722,1722,1722,1722,1731,1731,1731,1739,1748,1748,1748,1748,1748,1757,1757,1757,1766,1766,1766,1776,1776,1785,1794,1794,1794,1794,1794,1794,1804,1804,1813,1804,1804,1813,1833,1833,1833,1833,1843,1843,1843,1853,1853,1853,1863,1863,1873,1873,1873,1873,1883,1883,1883,1883,1894,1894,1894,1894,1904,1904,1904,1904,1904,1904,1915,1915,1904,1904,1915,0,0,0,0,0,0,0,0,1119,1119,1119,1119,1119,1119,1115,1115,1115,1112,1112,1115,1115,1115,1115,1119,1119,1123,1126,1126,1126,1126,1130,1126,1126,1126,0,1776,1776,1766,1766,1766,1766,1757,1757,1748,1748,1739,1739,1739,1731,1731,1731,1731,1731,1722,1722,1722,1713,1713,1705,1705,1696,1696,1696,1696,1696,1688,1688,1688,1688,1688,1680,1680,1671,1671,1671,1671,1663,1663,1663,1663,1663,1655,1647,1647,1639,1639,1639,1632,1632,1632,1632,1624,1624,1616,1616,1609,1609,1609,1609,1601,1601,1601,1601,1601,1601,1594,1594,1586,1586,1579,1579,1572,1572,1572,1572,1572,1564,1564,1557,1557,1550,1550,1550,1550,1543,1543,1543,1543,1543,1550,0,0,0,0,0,0,0,0,925,925,925,925,923,918,918,915,915,915,915,913,913,913,913,913,915,915,915,918,920,923,925,928,928,930,0,0,0,1445,1445,1445,1445,1445,1445,1445,1439,1439,1439,1439,1439,1439,1439,1433,1433,1427,1421,1421,1421,1421,1415,1415,1415,1415,1410,1410,1410,1404,1398,1398,1398,1398,1392,1392,1387,1387,1381,1381,1381,1381,1381,1381,1381,1376,1376,1370,1370,1365,1365,1365,1365,1365,1359,1359,1354,1354,1354,1354,1349,1349,1343,1343,1338,1338,1338,1333,1333,1333,1333,1328,1328,1328,1328,1328,1322,1317,1312,1312,1312,1312,1307,1307,1307,1302,1302,1302,1297,1297,1292,1292,1292,1292,1288,1288,1288,1288,1288,1283,1278,1278,1273,1273,1273,1273,1268,1268,1268,1268,1268,1264,1264,1259,1259,1255,1255,1255,1255,1250,1250,1250,1250,1245,1241,1241,1236,1236,1236,1236,1236,1232,1232,1232,1227,1227,1227,1223,1223,1223,1219,1219,1219,1214,1214,1214,1214,1210,1210,1206,1206,1206,1202,1202,1202,1202,1202,1197,1197,1197,1193,1189,1189,1185,1185,1185,1181,1181,1181,1181,1181,1181,1177,1177,1177,1173,1169,1169,1169,1169,1169,1165,1165,1165,1165,1165,1161,1157,1157,1153,1153,1153,0,0,0,0,0,0,0,0,0,0,0,0,0,0,0,0,0,0,0,0,0,0,0,0,0,0,0,0,0,0
0,0,0,0,0,0,0,0,0,0,0,0,0,1722,1722,1722,1722,1722,1722,1722,1722,1713,1713,1722,1722,1722,1713,1713,1713,1713,1713,1713,1705,1705,1705,1705,1705,1705,1713,1705,1705,1705,1705,1705,1696,1696,1696,1696,1696,1696,1696,1696,1696,1696,1696,1696,1696,1696,1696,1688,1688,1688,1696,1696,1696,1696,1696,1696,1688,1688,1696,1696,1688,1688,1688,1680,1680,1680,1680,1680,1680,1680,1680,1680,1680,1680,1680,1671,1671,1671,1671,1671,1680,1680,1680,1680,1680,1680,1680,1680,1671,1671,1671,1671,1671,1671,1663,1663,1663,1663,1663,1663,1663,1663,1663,1663,1663,1663,1663,1655,1655,1655,1655,1655,1655,1655,1655,1663,1663,1663,1663,1663,1671,1671,1680,1680,1688,1688,1696,1705,1713,1722,1731,2016,2016,1739,1731,1731,1731,1722,1722,1713,1705,1696,1696,1696,1696,1696,1696,1688,1688,1680,1680,1671,1671,1671,1671,1671,1671,1680,1680,1680,1688,1688,1688,1696,1696,1696,1696,1705,1705,1713,1722,1722,1722,1722,1722,1731,1731,1731,1739,1748,1748,1748,1748,1757,1757,1757,1757,1766,1766,1766,1776,1776,1785,1794,1794,1794,1794,1794,1804,1804,1804,1813,1813,1813,1833,1833,1833,1833,1843,1843,1843,1843,1853,1853,1863,1863,1873,1873,1873,1873,1873,1883,1883,1883,1883,1894,1894,1894,1894,1904,1904,1904,1904,1904,1904,1915,1915,1904,1904,1883,1883,0,0,0,0,0,0,0,1119,1119,1119,1119,1115,1115,1115,1115,1115,1112,1112,1115,1115,1115,1115,1119,1119,1123,1126,1126,1126,1126,1130,1130,0,0,0,0,1766,1766,1766,1766,1766,1757,1757,1757,1748,1739,1739,1731,1731,1731,1731,1731,1731,1722,1722,1722,1713,1713,1705,1705,1696,1696,1696,1696,1696,1688,1688,1688,1688,1688,1680,1680,1680,1671,1671,1671,1671,1663,1663,1663,1663,1655,1647,1647,1639,1639,1639,1632,1632,1632,1632,1624,1624,1624,1616,1609,1609,1609,1609,1601,1601,1601,1601,1601,1601,1594,1594,1586,1586,1579,1579,1579,1572,1572,1572,1572,1564,1564,1557,1557,1557,1550,1550,1550,1543,1543,1543,1543,1543,0,0,0,0,0,0,0,0,0,925,925,923,923,923,918,918,915,915,915,913,913,913,913,913,913,915,915,915,918,920,925,928,928,930,0,930,0,1445,1445,1445,1445,1445,1445,1445,1445,1445,1445,1439,1439,1439,1439,1439,1433,1433,1427,1421,1421,1421,1421,1421,1415,1415,1415,1410,1410,1410,1404,1398,1398,1398,1398,1392,1392,1387,1381,1381,1376,1376,1376,1376,1376,1376,1376,1376,1370,1370,1365,1365,1365,1365,1365,1359,1359,1359,1354,1354,1354,1349,1349,1343,1343,1343,1338,1338,1333,1333,1333,1333,1328,1328,1328,1328,1328,1322,1322,1312,1312,1312,1312,1307,1307,1307,1302,1302,1302,1297,1297,1292,1292,1292,1292,1292,1288,1288,1288,1288,1283,1283,1278,1273,1273,1273,1273,1268,1268,1268,1268,1268,1264,1264,1259,1259,1255,1255,1255,1255,1255,1250,1250,1250,1250,1241,1241,1236,1236,1236,1236,1236,1232,1232,1232,1232,1227,1227,1223,1223,1223,1219,1219,1219,1214,1214,1214,1214,1210,1210,1206,1206,1206,1202,1202,1202,1202,1202,1197,1197,1197,1193,1193,1189,1185,1185,1185,1181,1181,1181,1181,1181,1181,1177,1177,1173,1173,1169,1169,1169,1169,1169,1169,1165,1165,1165,1165,1161,1157,1157,1157,1153,1153,0,0,0,0,0,0,0,0,0,0,0,0,0,0,0,0,0,0,0,0,0,0,0,0,0,0,0,0,0,0
0,0,0,0,0,0,0,0,0,0,0,0,0,1713,1713,1722,1722,1722,1722,1722,1722,1722,1722,1722,1722,1722,1713,1713,1713,1713,1713,1713,1705,1705,1705,1705,1705,1713,1713,1705,1705,1705,1705,1705,1696,1696,1696,1696,1696,1696,1696,1696,1696,1696,1696,1696,1696,1696,1696,1688,1688,1696,1696,1696,1696,1696,1696,1696,1696,1696,1696,1696,1688,1688,1688,1680,1680,1680,1680,1680,1680,1680,1680,1680,1680,1680,1680,1671,1671,1671,1671,1671,1680,1680,1680,1680,1680,1680,1680,1680,1671,1671,1671,1671,1671,1671,1663,1663,1663,1663,1663,1663,1663,1663,1663,1663,1663,1663,1655,1655,1655,1655,1655,1655,1655,1655,1655,1655,1663,1663,1663,1663,1671,1671,1680,1680,1688,1688,1696,1696,1705,1713,2016,2016,2016,2016,2016,2016,1731,1722,1722,1713,1705,1696,1696,1696,1696,1696,1696,1688,1688,1680,1680,1680,1671,1671,1671,1671,1671,1680,1680,1680,1688,1688,1688,1696,1696,1696,1705,1705,1705,1713,1722,1722,1722,1722,1722,1731,1731,1731,1739,1748,1748,1748,1748,1757,1757,1757,1757,1766,1766,1766,1776,1785,1785,1794,1794,1794,1794,1794,1804,1804,1804,1813,1813,1813,1833,1833,1833,1843,1843,1843,1843,1843,1853,1863,1863,1863,1873,1873,1873,1873,1873,1883,1883,1883,1883,1894,1894,1894,1894,1904,1904,1904,1904,1904,1904,1915,1915,1904,1904,1883,1883,0,0,0,0,0,0,0,1119,1119,1119,1119,1115,1115,1115,1115,1112,1112,1112,1115,1115,1115,1115,1119,1119,1123,1123,1123,1123,1126,1130,1130,0,0,0,1766,1766,1766,1766,1766,1766,1757,1757,1757,1748,1739,1739,1731,1731,1731,1731,1731,1731,1722,1722,1722,1713,1713,1705,1705,1696,1696,1696,1696,1696,1688,1688,1688,1696,1688,1688,1680,1680,1671,1671,1671,1671,1663,1663,1663,1663,1655,1647,1647,1639,1639,1639,1632,1632,1632,1632,1632,1624,1624,1616,1609,1609,1609,1609,1601,1601,1601,1601,1601,1601,1594,1594,1586,1586,1579,1579,1579,1572,1572,1572,1572,1564,1564,1557,1557,1550,1550,1550,1550,1543,1543,1543,1543,1543,0,0,0,0,0,0,0,0,0,925,923,923,923,918,918,918,915,915,915,913,913,913,913,913,913,915,915,918,920,923,928,930,930,933,0,0,0,1445,1445,1445,1445,1445,1445,1445,1445,1445,1445,1445,1439,1439,1439,1439,1433,1433,1427,1421,1421,1421,1421,1421,1415,1415,1415,1415,1410,1410,1404,1404,1398,1398,1398,1392,1392,1387,1381,1381,1376,1376,1376,1376,1376,1376,1376,1376,1370,1370,1370,1365,1365,1365,1365,1359,1359,1354,1354,1354,1354,1349,1349,1343,1343,1343,1338,1338,1333,1333,1333,1333,1333,1328,1328,1328,1328,1322,1322,1322,1317,1312,1312,1307,1307,1307,1302,1302,1302,1297,1297,1292,1292,1292,1292,1292,1288,1288,1288,1288,1283,1283,1278,1273,1273,1273,1273,1268,1268,1268,1268,1268,1264,1264,1259,1259,1255,1255,1255,1255,1255,1250,1250,1250,1250,1241,1241,1236,1236,1236,1236,1236,1232,1232,1232,1232,1227,1227,1223,1223,1223,1219,1219,1219,1214,1214,1214,1214,1210,1210,1210,1206,1206,1202,1202,1202,1202,1202,1197,1197,1197,1197,1193,1189,1185,1185,1185,1181,1181,1181,1181,1181,1181,1177,1177,1173,1173,1169,1169,1169,1169,1169,1169,1165,1165,1165,1165,1161,1161,1157,1157,1153,1153,0,0,0,0,0,0,0,0,0,0,0,0,0,0,0,0,0,0,0,0,0,0,0,0,0,0,0,0,0,0
0,0,0,0,0,0,0,0,0,0,0,0,0,1713,1713,1713,1722,1722,1722,1722,1722,1722,1722,1722,1722,1722,1713,1713,1713,1713,1705,1705,1696,1696,1705,1705,1705,1705,1705,1705,1705,1705,1705,1705,1696,1696,1696,1696,1696,1696,1696,1696,1696,1696,1696,1696,1696,1696,1696,1688,1688,1696,1696,1696,1696,1696,1696,1696,1696,1696,1696,1696,1688,1688,1688,1688,1688,1680,1680,1680,1680,1680,1680,1680,1680,1680,1680,1680,1680,1680,1680,1680,1680,1680,1680,1680,1680,1680,1680,1680,1680,1671,1671,1671,1671,1671,1663,1663,1663,1663,1663,1663,1663,1663,1663,1663,1663,1663,1655,1655,1655,1655,1655,1655,1655,1655,1655,1655,1663,1663,1663,1663,1663,1671,1680,1680,1688,1696,1696,1696,1696,1705,2005,2005,2005,2016,2016,2005,1731,1731,1722,1722,1705,1705,1696,1696,1696,1696,1696,1688,1688,1688,1680,1680,1671,1671,1671,1671,1671,1680,1680,1688,1688,1688,1688,1696,1696,1696,1705,1705,1713,1713,1722,1722,1722,1722,1731,1731,1731,1739,1739,1748,1757,1757,1757,1757,1757,1766,1766,1766,1766,1766,1776,1785,1785,1794,1794,1794,1804,1804,1804,1804,1804,1813,1813,1823,1833,1833,1833,1843,1843,1843,1843,1843,1853,1863,1863,1863,1873,1873,1873,1873,1883,1883,1883,1883,1894,1894,1904,1904,1904,1915,1904,1904,1904,1904,1915,1915,1915,1904,1904,1915,0,0,0,0,0,0,0,0,0,1119,1119,1119,1119,1115,1115,1115,1112,1112,1112,1115,1115,1115,1115,1119,1119,1123,1123,1123,1123,1126,1130,0,0,0,0,1766,1766,1766,1766,1766,1766,1757,1757,1757,1748,1748,1739,1739,1731,1731,1731,1731,1731,1731,1722,1722,1713,1713,1713,1705,1705,1696,1696,1696,1696,1688,1688,1688,1696,1688,1688,1680,1680,1671,1671,1671,1671,1663,1663,1663,1663,1655,1647,1647,1639,1639,1639,1639,1632,1632,1632,1632,1624,1624,1624,1609,1609,1609,1609,1601,1601,1601,1601,1601,1601,1594,1594,1586,1586,1579,1579,1579,1572,1572,1572,1572,1564,1564,1557,1557,1550,1550,1550,1550,1543,1543,1543,1543,1543,0,0,0,0,0,0,0,0,928,925,923,923,923,918,918,915,915,915,915,913,913,913,913,913,913,915,915,918,923,925,928,930,930,933,0,0,0,1445,1445,1445,1445,1445,1445,1445,1445,1445,1445,1445,1445,1439,1439,1439,1433,1433,1427,1421,1421,1421,1421,1421,1415,1415,1415,1415,1415,1410,1404,1404,1398,1398,1398,1392,1392,1387,1381,1381,1376,1376,1376,1376,1376,1376,1376,1376,1370,1370,1370,1365,1365,1365,1365,1359,1359,1354,1354,1354,1354,1349,1349,1343,1343,1343,1338,1338,1333,1333,1333,1333,1333,1328,1328,1328,1328,1328,1322,1322,1317,1312,1312,1312,1307,1307,1307,1307,1302,1302,1297,1292,1292,1292,1292,1292,1288,1288,1288,1288,1283,1283,1278,1278,1273,1273,1273,1268,1268,1268,1268,1268,1264,1264,1259,1259,1255,1255,1255,1255,1255,1250,1250,1250,1250,1241,1241,1236,1236,1236,1236,1236,1236,1236,1232,1232,1232,1227,1227,1227,1223,1219,1219,1219,1214,1214,1214,1214,1210,1210,1210,1206,1206,1206,1202,1202,1202,1202,1197,1197,1197,1193,1193,1189,1189,1189,1185,1185,1185,1181,1181,1181,1181,1177,1177,1173,1173,1169,1169,1169,1169,1169,1169,1165,1165,1165,1161,1161,1157,1157,1157,1153,1153,0,0,0,0,0,0,0,0,0,0,0,0,0,0,0,0,0,0,0,0,0,0,0,0,0,0,0,0,0,0
0,0,0,0,0,0,0,0,0,0,0,0,0,1713,1713,1713,1722,1722,1722,1722,1722,1722,1722,1722,1722,1722,1713,1713,1713,1713,1705,1705,1696,1696,1705,1705,1705,1705,1705,1705,1705,1705,1705,1705,1696,1696,1696,1696,1696,1696,1696,1696,1696,1696,1696,1696,1696,1696,1696,1688,1688,1696,1696,1696,1696,1696,1696,1696,1696,1696,1696,1696,1688,1688,1688,1688,1688,1688,1680,1680,1688,1688,1688,1688,1680,1680,1680,1680,1680,1680,1680,1680,1680,1680,1680,1680,1680,1680,1680,1680,1680,1680,1680,1671,1671,1671,1671,1663,1663,1671,1671,1671,1671,1671,1671,1663,1663,1663,1663,1663,1663,1655,1655,1655,1655,1655,1663,1663,1663,1663,1663,1663,1663,1671,1680,1680,1688,1696,1696,1696,1696,1705,2005,2005,2005,2005,2005,2005,2005,1731,1722,1722,1713,1705,1705,1696,1696,1696,1696,1696,1688,1688,1688,1680,1680,1671,1671,1671,1680,1680,1680,1688,1688,1688,1688,1696,1696,1705,1705,1705,1713,1722,1722,1722,1722,1722,1731,1731,1731,1731,1739,1748,1748,1757,1757,1757,1766,1766,1766,1766,1766,1766,1776,1785,1785,1794,1794,1794,1804,1804,1804,1804,1813,1813,1813,1823,1833,1833,1833,1843,1843,1843,1843,1853,1853,1863,1863,1873,1873,1873,1883,1883,1883,1883,1883,1894,1894,1904,1904,1904,1904,1915,1904,1904,1904,1904,1915,1915,1915,1915,0,0,0,0,0,0,0,0,0,0,1123,1123,1123,1119,1119,1115,1115,1115,1112,1112,1112,1115,1115,1115,1115,1119,1119,1123,1123,1123,1123,1123,1130,0,0,0,1785,1776,1776,1766,1766,1766,1766,1757,1757,1757,1748,1739,1739,1739,1731,1731,1731,1731,1731,1731,1722,1722,1722,1713,1713,1705,1705,1705,1696,1696,1696,1688,1688,1688,1696,1688,1688,1680,1680,1671,1671,1671,1671,1671,1663,1663,1663,1655,1655,1647,1647,1639,1639,1639,1639,1632,1632,1632,1632,1624,1624,1616,1609,1609,1609,1601,1601,1601,1601,1601,1601,1594,1594,1586,1579,1579,1579,1579,1572,1572,1572,1572,1564,1564,1557,1557,1550,1550,1550,1550,1543,1543,1543,1543,1543,0,0,0,0,0,0,0,0,928,925,923,923,923,918,918,915,915,915,915,913,913,913,913,913,915,915,918,918,923,925,928,930,933,933,0,0,1452,1445,1445,1445,1445,1445,1452,1445,1445,1445,1445,1445,1439,1439,1439,1439,1439,1433,1427,1421,1421,1421,1415,1415,1415,1415,1415,1415,1410,1410,1404,1404,1398,1398,1398,1392,1392,1387,1387,1381,1381,1381,1376,1376,1376,1376,1376,1376,1370,1370,1370,1370,1370,1365,1365,1359,1359,1354,1354,1354,1354,1349,1349,1349,1349,1343,1343,1338,1333,1333,1333,1333,1333,1328,1328,1328,1328,1328,1322,1322,1317,1312,1312,1312,1307,1307,1307,1307,1302,1302,1297,1292,1292,1292,1292,1292,1288,1288,1288,1288,1288,1283,1283,1278,1278,1273,1273,1273,1268,1268,1268,1268,1268,1264,1264,1259,1259,1255,1255,1255,1255,1250,1250,1250,1250,1245,1241,1241,1236,1236,1236,1236,1236,1236,1232,1232,1232,1232,1227,1227,1223,1219,1219,1219,1214,1214,1214,1214,1214,1210,1210,1210,1206,1206,1202,1202,1202,1202,1197,1197,1197,1193,1193,1193,1189,1189,1185,1185,1185,1181,1181,1181,1181,1181,1177,1177,1173,1169,1169,1169,1169,1169,1169,1165,1165,1165,1161,1161,1157,1157,1157,1153,1153,0,0,0,0,0,0,0,0,0,0,0,0,0,0,0,0,0,0,0,0,0,0,0,0,0,0,0,0,0,0
0,0,0,0,0,0,0,0,0,0,0,0,0,1713,1713,1722,1722,1713,1713,1722,1722,1722,1722,1722,1722,1722,1713,1713,1713,1713,1713,1713,1705,1705,1705,1705,1705,1705,1705,1705,1705,1705,1705,1705,1705,1705,1705,1705,1705,1696,1696,1696,1696,1696,1696,1696,1696,1696,1696,1688,1688,1696,1696,1696,1696,1696,1696,1696,1696,1696,1696,1688,1688,1688,1688,1688,1688,1688,1688,1688,1688,1688,1688,1688,1688,1688,1688,1680,1680,1680,1680,1680,1680,1680,1680,1680,1680,1680,1680,1680,1680,1680,1680,1680,1680,1671,1671,1671,1671,1671,1671,1671,1671,1671,1671,1671,1663,1663,1663,1663,1663,1663,1655,1655,1663,1663,1655,1655,1663,1663,1663,1663,1663,1671,1680,1680,1688,1696,1696,1696,1696,1705,1993,1993,1993,2005,2005,2005,2005,2005,2005,1722,1713,1713,1705,1696,1696,1696,1696,1696,1688,1688,1688,1680,1680,1671,1671,1680,1680,1680,1680,1688,1688,1688,1696,1696,1696,1705,1705,1713,1713,1722,1722,1722,1722,1731,1731,1731,1731,1731,1739,1748,1748,1748,1757,1757,1766,1766,1766,1766,1766,1766,1776,1785,1785,1794,1794,1794,1804,1804,1804,1813,1813,1823,1823,1833,1833,1833,1833,1843,1843,1843,1843,1853,1853,1863,1863,1873,1873,1873,1883,1883,1883,1883,1883,1894,1894,1904,1904,1904,1904,1915,1915,1915,1915,1915,1915,1915,1904,1904,0,0,0,0,0,0,0,0,0,0,1123,1123,1123,1119,1119,1115,1115,1115,1112,1112,1115,1115,1115,1115,1119,1119,1119,1123,1123,1123,1123,1123,1123,0,0,0,1785,1776,1766,1766,1766,1766,1766,1757,1757,1757,1748,1739,1739,1739,1731,1731,1731,1731,1731,1731,1722,1722,1722,1713,1713,1705,1705,1705,1696,1696,1696,1696,1688,1688,1696,1688,1688,1680,1680,1680,1671,1671,1671,1671,1663,1663,1663,1655,1655,1647,1647,1639,1639,1639,1639,1639,1632,1632,1632,1624,1624,1616,1609,1609,1609,1609,1609,1601,1601,1601,1601,1594,1594,1586,1579,1579,1579,1579,1572,1572,1572,1572,1572,1564,1557,1557,1557,1550,1550,1550,1550,1543,1543,1543,1550,0,0,0,0,0,0,0,0,928,925,925,923,923,918,918,915,915,915,915,913,913,913,913,913,915,915,918,918,923,925,928,930,930,933,0,0,0,1452,1452,1452,1452,1452,1452,1445,1445,1445,1445,1445,1439,1439,1439,1439,1439,1433,1427,1421,1421,1421,1415,1415,1415,1415,1415,1415,1410,1410,1404,1404,1398,1398,1398,1392,1392,1387,1387,1387,1381,1381,1376,1376,1376,1376,1376,1376,1370,1370,1370,1370,1370,1370,1365,1359,1359,1354,1354,1354,1354,1349,1349,1349,1343,1343,1343,1338,1333,1333,1333,1333,1333,1328,1328,1328,1328,1328,1322,1322,1317,1312,1312,1312,1307,1307,1307,1307,1302,1302,1302,1297,1297,1292,1292,1292,1292,1288,1288,1288,1288,1283,1283,1278,1278,1273,1273,1273,1268,1268,1268,1268,1268,1268,1264,1264,1259,1255,1255,1255,1255,1250,1250,1250,1250,1245,1241,1241,1236,1236,1236,1236,1236,1236,1232,1232,1232,1232,1227,1227,1223,1219,1219,1219,1214,1214,1214,1214,1214,1210,1210,1210,1206,1206,1202,1202,1202,1202,1197,1197,1197,1197,1193,1193,1189,1189,1189,1185,1185,1185,1185,1185,1181,1181,1181,1177,1177,1169,1169,1169,1169,1169,1169,1165,1165,1165,1165,1161,1157,1157,1157,1153,1153,0,0,0,0,0,0,0,0,0,0,0,0,0,0,0,0,0,0,0,0,0,0,0,0,0,0,0,0,0,0
0,0,0,0,0,0,0,0,0,0,0,0,0,1713,1713,1722,1722,1713,1713,1722,1713,1713,1722,1713,1713,1713,1713,1713,1713,1713,1713,1713,1705,1705,1705,1705,1713,1705,1696,1696,1705,1705,1705,1705,1705,1705,1705,1705,1705,1696,1696,1696,1696,1696,1696,1696,1696,1696,1696,1696,1696,1696,1696,1696,1696,1696,1696,1696,1696,1696,1688,1688,1688,1688,1688,1688,1688,1688,1688,1688,1688,1688,1688,1688,1688,1688,1688,1688,1688,1688,1688,1688,1680,1680,1680,1680,1680,1680,1680,1680,1680,1680,1680,1680,1680,1671,1671,1671,1671,1671,1671,1671,1671,1671,1671,1671,1663,1663,1663,1663,1663,1663,1663,1663,1663,1655,1655,1655,1655,1663,1663,1663,1663,1671,1680,1680,1688,1696,1696,1696,1696,1993,1993,1993,1993,1993,1993,1993,1993,1993,1993,1993,1722,1713,1713,1705,1705,1696,1696,1696,1688,1688,1688,1688,1680,1680,1680,1680,1680,1680,1680,1688,1688,1688,1696,1696,1696,1705,1705,1713,1713,1722,1722,1722,1731,1731,1731,1731,1731,1739,1739,1739,1748,1748,1757,1757,1766,1766,1766,1766,1766,1776,1776,1785,1785,1794,1794,1794,1804,1804,1804,1813,1813,1823,1823,1833,1833,1833,1843,1843,1843,1843,1843,1853,1863,1863,1863,1873,1873,1873,1883,1883,1883,1883,1894,1894,1894,1904,1904,1915,1915,1915,1915,1915,1915,1915,1915,1915,1904,1904,0,0,0,0,0,0,0,0,0,1123,1123,1123,1123,1119,1119,1115,1115,1115,1115,1115,1115,1115,1115,1115,1119,1119,1119,1123,1123,1126,1126,1130,0,0,0,1785,1785,1776,1766,1766,1766,1766,1766,1757,1757,1757,1757,1748,1739,1739,1731,1731,1731,1731,1731,1731,1722,1722,1722,1713,1713,1713,1705,1705,1705,1696,1696,1696,1696,1696,1696,1688,1688,1680,1680,1680,1671,1671,1671,1671,1663,1663,1663,1655,1655,1647,1647,1647,1639,1639,1639,1639,1632,1632,1632,1624,1624,1616,1609,1609,1609,1609,1609,1601,1601,1601,1601,1601,1594,1594,1586,1579,1579,1579,1572,1572,1572,1572,1572,1564,1564,1557,1557,1550,1550,1550,1550,1543,1543,1543,0,0,0,0,0,0,0,0,928,928,925,925,923,923,918,918,915,915,915,915,913,913,913,913,913,915,915,918,918,923,925,928,930,930,0,0,0,0,1452,1452,1452,1452,1452,1452,1445,1445,1445,1445,1445,1439,1439,1439,1439,1439,1433,1427,1421,1421,1421,1415,1415,1415,1415,1415,1415,1410,1410,1410,1404,1398,1398,1398,1392,1392,1392,1387,1387,1381,1381,1376,1376,1376,1376,1376,1376,1370,1370,1370,1370,1370,1365,1365,1359,1359,1354,1354,1354,1354,1349,1349,1349,1343,1343,1343,1338,1333,1333,1333,1333,1333,1328,1328,1328,1328,1328,1322,1322,1317,1312,1312,1312,1312,1307,1307,1307,1307,1302,1302,1302,1297,1292,1292,1292,1292,1288,1288,1288,1288,1283,1283,1278,1278,1273,1273,1273,1268,1268,1268,1268,1268,1268,1264,1264,1259,1259,1255,1255,1255,1255,1250,1250,1250,1245,1241,1241,1236,1236,1236,1236,1236,1236,1232,1232,1232,1232,1227,1227,1223,1219,1219,1214,1214,1214,1214,1214,1214,1214,1210,1210,1206,1206,1202,1202,1202,1202,1202,1197,1197,1197,1193,1193,1193,1193,1189,1185,1185,1185,1185,1185,1181,1181,1181,1177,1177,1173,1173,1169,1169,1169,1169,1165,1165,1165,1165,1161,1157,1157,1157,1153,1153,0,0,0,0,0,0,0,0,0,0,0,0,0,0,0,0,0,0,0,0,0,0,0,0,0,0,0,0,0,0
0,0,0,0,0,0,0,0,0,0,0,0,0,1713,1713,1722,1713,1713,1713,1713,1713,1713,1722,1713,1713,1713,1713,1713,1713,1713,1713,1713,1705,1705,1713,1713,1713,1705,1696,1696,1705,1705,1705,1705,1705,1705,1705,1705,1705,1705,1705,1705,1705,1705,1696,1696,1696,1696,1696,1696,1696,1696,1696,1696,1696,1696,1696,1696,1696,1696,1688,1688,1688,1688,1688,1688,1688,1688,1688,1688,1688,1688,1688,1688,1688,1688,1688,1688,1688,1688,1688,1688,1688,1688,1680,1680,1680,1680,1680,1688,1688,1680,1680,1680,1680,1671,1671,1671,1671,1671,1671,1671,1671,1671,1671,1671,1663,1663,1663,1663,1663,1663,1663,1663,1663,1655,1655,1655,1655,1663,1663,1663,1663,1671,1680,1680,1688,1688,1696,1696,1696,1981,1981,1981,1981,1981,1981,1981,1981,1993,1993,1993,1993,1993,1993,1705,1705,1696,1696,1696,1688,1688,1688,1688,1680,1680,1680,1680,1680,1680,1680,1688,1688,1688,1696,1696,1696,1705,1705,1713,1713,1722,1722,1722,1731,1731,1731,1731,1731,1739,1739,1739,1748,1748,1757,1757,1766,1766,1766,1766,1766,1776,1776,1785,1785,1794,1794,1794,1804,1804,1804,1813,1813,1823,1823,1833,1833,1833,1843,1843,1843,1843,1853,1853,1863,1863,1863,1873,1873,1873,1883,1883,1883,1883,1894,1894,1894,1904,1904,1915,1915,1915,1915,1915,1915,1915,1915,1915,1915,0,0,0,0,0,0,0,0,0,0,1119,1119,1123,1123,1119,1119,1119,1115,1115,1115,1115,1115,1115,1115,1115,1119,1119,1119,1123,1123,1126,1126,1130,0,0,0,0,1785,1776,1776,1766,1766,1766,1766,1757,1757,1757,1757,1748,1748,1739,1739,1731,1731,1731,1731,1731,1731,1722,1722,1713,1713,1713,1705,1705,1705,1696,1696,1696,1696,1696,1696,1688,1688,1680,1680,1680,1671,1671,1671,1663,1663,1663,1663,1655,1655,1647,1647,1647,1639,1639,1639,1639,1632,1632,1632,1632,1624,1616,1609,1609,1609,1609,1609,1601,1601,1601,1601,1601,1594,1594,1586,1586,1579,1579,1579,1572,1572,1572,1572,1564,1564,1557,1557,1557,1550,1550,1550,1543,1543,1543,0,0,0,0,0,0,0,930,928,928,925,925,923,923,918,918,915,915,915,915,913,913,913,915,915,915,915,918,920,923,928,930,930,930,930,0,0,0,1458,1458,1458,1458,1452,1452,1452,1445,1445,1445,1445,1445,1439,1439,1439,1439,1433,1427,1421,1421,1421,1415,1415,1415,1415,1415,1415,1410,1410,1410,1404,1404,1398,1398,1392,1392,1392,1387,1387,1387,1381,1381,1376,1376,1376,1376,1376,1370,1370,1370,1370,1370,1365,1365,1359,1359,1354,1354,1354,1354,1349,1349,1349,1349,1349,1343,1338,1338,1333,1333,1333,1333,1328,1328,1328,1328,1328,1322,1322,1317,1312,1312,1312,1312,1307,1307,1307,1307,1302,1302,1302,1297,1297,1292,1292,1292,1292,1288,1288,1288,1283,1283,1278,1278,1273,1273,1273,1268,1268,1268,1268,1268,1264,1264,1264,1259,1259,1259,1255,1255,1255,1250,1250,1250,1245,1241,1241,1241,1236,1236,1236,1236,1236,1232,1232,1232,1232,1227,1227,1223,1219,1219,1214,1214,1214,1214,1214,1214,1210,1210,1210,1206,1206,1202,1202,1202,1202,1202,1197,1197,1197,1197,1193,1193,1193,1189,1189,1185,1185,1185,1185,1181,1181,1181,1181,1177,1173,1173,1169,1169,1169,1169,1165,1165,1165,1165,1161,1157,1157,1157,1157,1157,0,0,0,0,0,0,0,0,0,0,0,0,0,0,0,0,0,0,0,0,0,0,0,0,0,0,0,0,0,0
0,0,0,0,0,0,0,0,0,0,0,0,0,1713,1713,1722,1713,1713,1713,1713,1713,1713,1722,1713,1713,1713,1713,1713,1713,1713,1713,1713,1705,1705,1713,1713,1713,1705,1705,1705,1705,1705,1705,1705,1705,1705,1705,1705,1705,1705,1705,1705,1705,1705,1705,1705,1705,1696,1696,1696,1696,1696,1696,1696,1696,1696,1696,1696,1696,1696,1696,1696,1696,1696,1696,1696,1688,1688,1688,1688,1688,1688,1688,1688,1688,1688,1688,1688,1688,1688,1688,1688,1688,1688,1688,1688,1680,1680,1688,1688,1688,1688,1688,1680,1680,1680,1671,1671,1671,1671,1671,1671,1671,1671,1671,1671,1671,1671,1671,1663,1663,1663,1663,1663,1663,1663,1663,1663,1663,1663,1663,1663,1671,1671,1680,1680,1688,1688,1696,1696,1959,1959,1970,1970,1970,1970,1970,1970,1981,1981,1981,1993,1993,1993,1993,1993,1794,1696,1696,1696,1696,1688,1688,1688,1680,1680,1680,1680,1680,1680,1680,1688,1688,1688,1696,1696,1696,1705,1705,1713,1713,1722,1722,1731,1731,1731,1731,1731,1739,1739,1739,1748,1748,1757,1766,1766,1766,1766,1766,1766,1766,1776,1776,1785,1785,1794,1794,1794,1794,1804,1804,1813,1813,1823,1823,1833,1833,1833,1843,1843,1843,1843,1853,1853,1863,1863,1873,1873,1873,1873,1883,1883,1883,1883,1894,1904,1904,1904,1915,1915,1915,1915,1915,1915,1915,1915,1915,1915,1915,0,0,0,0,0,0,0,0,0,0,1119,1119,1123,1123,1119,1119,1119,1115,1115,1115,1115,1115,1115,1115,1115,1119,1119,1123,1123,1126,1130,1130,1130,1130,0,0,0,1776,1776,1776,1766,1766,1766,1766,1766,1757,1757,1757,1748,1748,1739,1739,1739,1731,1731,1731,1731,1731,1722,1722,1713,1713,1713,1705,1705,1705,1696,1696,1696,1696,1696,1696,1688,1688,1680,1680,1680,1671,1671,1671,1663,1663,1663,1663,1655,1655,1655,1647,1647,1639,1639,1639,1639,1632,1632,1632,1632,1624,1624,1616,1609,1609,1609,1609,1601,1601,1601,1601,1601,1594,1594,1586,1586,1579,1579,1579,1572,1572,1572,1572,1572,1564,1564,1557,1557,1550,1550,1550,1550,1550,0,0,0,0,0,0,0,0,930,928,928,925,925,923,923,918,918,918,915,915,915,913,913,913,915,915,915,915,918,920,923,928,930,933,930,930,0,0,0,0,0,1458,1458,1452,1452,1452,1445,1445,1445,1445,1445,1439,1439,1439,1439,1433,1427,1421,1421,1421,1421,1421,1415,1415,1415,1415,1410,1410,1410,1404,1404,1398,1398,1392,1392,1392,1392,1392,1387,1387,1381,1381,1381,1376,1376,1376,1370,1370,1370,1370,1370,1370,1365,1359,1359,1354,1354,1354,1354,1349,1349,1349,1349,1349,1343,1338,1338,1333,1333,1333,1333,1328,1328,1328,1328,1328,1322,1322,1317,1312,1312,1312,1312,1307,1307,1307,1307,1302,1302,1302,1297,1297,1292,1292,1292,1292,1288,1288,1288,1283,1283,1278,1278,1273,1273,1273,1268,1268,1268,1268,1268,1264,1264,1264,1259,1259,1259,1255,1255,1255,1250,1250,1250,1245,1241,1241,1241,1236,1236,1236,1236,1236,1232,1232,1232,1232,1227,1227,1223,1219,1219,1214,1214,1214,1214,1214,1214,1210,1210,1210,1206,1206,1202,1202,1202,1202,1202,1197,1197,1197,1197,1193,1193,1193,1193,1189,1185,1185,1185,1185,1181,1181,1181,1181,1177,1173,1173,1169,1169,1169,1169,1165,1165,1165,1165,1161,1161,1157,1157,1157,1157,0,0,0,0,0,0,0,0,0,0,0,0,0,0,0,0,0,0,0,0,0,0,0,0,0,0,0,0,0,0
0,0,0,0,0,0,0,0,0,0,0,0,0,1722,1722,1722,1713,1713,1713,1713,1713,1713,1722,1713,1713,1713,1713,1713,1713,1713,1713,1713,1713,1713,1713,1713,1722,1713,1713,1705,1705,1713,1713,1705,1705,1705,1705,1705,1705,1705,1713,1713,1705,1705,1705,1705,1705,1696,1696,1696,1696,1696,1696,1696,1696,1696,1696,1696,1696,1696,1696,1696,1696,1696,1696,1696,1696,1696,1688,1688,1688,1688,1688,1688,1688,1688,1688,1688,1688,1688,1688,1688,1688,1688,1680,1680,1680,1680,1688,1688,1688,1688,1688,1688,1680,1680,1671,1671,1671,1671,1671,1671,1671,1671,1671,1671,1671,1671,1671,1663,1663,1663,1663,1663,1663,1663,1663,1663,1663,1663,1663,1663,1671,1671,1680,1680,1688,1688,1696,1696,1959,1959,1947,1947,1947,1947,1959,1959,1959,1959,1959,1970,1794,1794,1794,1804,1794,1794,1794,1696,1696,1696,1696,1688,1680,1680,1680,1680,1688,1688,1688,1688,1696,1696,1696,1696,1696,1705,1705,1713,1722,1722,1731,1731,1731,1731,1731,1731,1731,1739,1739,1748,1757,1757,1757,1766,1766,1766,1766,1766,1776,1776,1776,1785,1785,1794,1794,1794,1794,1804,1804,1813,1813,1823,1823,1833,1833,1833,1843,1843,1843,1853,1853,1863,1863,1863,1873,1873,1873,1873,1883,1883,1883,1894,1894,1904,1904,1915,1915,1915,1915,1915,1915,1915,1915,1915,1915,1915,1915,0,0,0,0,0,0,0,0,0,0,1123,1123,1123,1119,1119,1119,1115,1115,1115,1115,1115,1115,1115,1115,1115,1119,1119,1123,1123,1126,1130,1134,1134,1134,0,0,0,1776,1776,1776,1766,1766,1766,1766,1766,1757,1757,1757,1757,1748,1739,1739,1739,1739,1731,1731,1731,1731,1722,1722,1722,1713,1713,1713,1705,1705,1696,1696,1696,1696,1696,1696,1688,1688,1680,1680,1680,1671,1671,1671,1663,1663,1663,1663,1655,1655,1655,1647,1647,1639,1639,1639,1639,1639,1632,1632,1632,1624,1624,1616,1609,1609,1609,1609,1601,1601,1601,1601,1601,1594,1594,1586,1586,1579,1579,1579,1572,1572,1572,1572,1572,1564,1564,1557,1557,1557,1550,1550,1550,1550,0,0,0,0,0,0,0,930,928,928,928,925,925,923,923,918,918,918,915,915,915,913,913,913,915,915,915,915,918,920,925,928,930,933,933,933,0,0,0,0,0,1464,1458,1458,1452,1445,1445,1445,1445,1445,1445,1439,1439,1439,1439,1433,1433,1427,1427,1421,1421,1421,1415,1415,1415,1415,1410,1410,1410,1404,1404,1398,1398,1392,1392,1392,1392,1392,1392,1387,1387,1381,1381,1376,1376,1376,1376,1370,1370,1370,1365,1365,1365,1359,1359,1354,1354,1354,1354,1349,1349,1349,1349,1349,1343,1338,1338,1333,1333,1333,1333,1333,1328,1328,1328,1328,1322,1322,1317,1312,1312,1312,1312,1307,1307,1307,1307,1302,1302,1302,1297,1297,1292,1292,1292,1292,1292,1288,1288,1283,1283,1278,1278,1273,1273,1273,1273,1268,1268,1268,1268,1264,1264,1264,1259,1259,1259,1255,1255,1255,1250,1250,1250,1245,1245,1241,1241,1236,1236,1236,1236,1236,1232,1232,1232,1232,1227,1227,1223,1219,1219,1214,1214,1214,1214,1214,1214,1210,1210,1210,1206,1206,1202,1202,1202,1202,1202,1197,1197,1197,1197,1193,1193,1193,1193,1189,1185,1185,1185,1185,1181,1181,1181,1181,1181,1177,1177,1173,1173,1169,1169,1165,1165,1165,1165,1161,1161,1157,1157,1157,1157,0,0,0,0,0,0,0,0,0,0,0,0,0,0,0,0,0,0,0,0,0,0,0,0,0,0,0,0,0,0
0,0,0,0,0,0,0,0,0,0,0,0,0,1722,1722,1722,1722,1713,1713,1713,1713,1722,1722,1713,1713,1713,1713,1713,1713,1713,1713,1713,1713,1713,1713,1713,1722,1713,1713,1705,1705,1713,1713,1705,1705,1705,1705,1705,1705,1705,1713,1713,1713,1713,1713,1713,1713,1713,1705,1705,1705,1696,1696,1696,1696,1696,1705,1696,1696,1696,1696,1696,1696,1696,1696,1696,1696,1696,1688,1688,1688,1688,1688,1688,1688,1688,1688,1696,1688,1688,1688,1688,1688,1688,1680,1680,1680,1680,1688,1688,1688,1688,1688,1688,1688,1680,1680,1680,1680,1671,1671,1671,1671,1671,1671,1671,1671,1671,1671,1671,1663,1663,1663,1663,1663,1663,1663,1663,1663,1663,1663,1663,1671,1671,1680,1680,1688,1696,1696,1696,1947,1947,1936,1926,1926,1926,1926,1926,1926,1926,1947,1813,1794,1794,1794,1804,1794,1794,1794,1794,1696,1696,1696,1688,1680,1680,1680,1680,1688,1688,1688,1688,1696,1696,1696,1696,1696,1705,1705,1713,1722,1722,1722,1731,1731,1731,1731,1731,1731,1739,1739,1748,1757,1757,1757,1766,1766,1766,1766,1766,1766,1776,1776,1785,1785,1794,1794,1794,1804,1804,1804,1813,1813,1823,1823,1833,1833,1833,1843,1843,1843,1853,1863,1863,1863,1873,1873,1873,1873,1883,1883,1883,1883,1894,1904,1904,1904,1915,1915,1915,1915,1915,1915,1915,1915,1915,1915,1915,1915,0,0,0,0,0,0,0,0,0,0,1123,1123,1123,1119,1119,1119,1115,1115,1115,1115,1115,1115,1115,1115,1115,1119,1119,1123,1126,1130,1130,1134,1134,1134,0,0,0,0,1785,1776,1776,1766,1766,1766,1766,1757,1757,1757,1757,1748,1748,1739,1739,1739,1739,1731,1731,1731,1722,1722,1713,1713,1713,1713,1705,1705,1696,1696,1696,1696,1696,1696,1688,1688,1680,1680,1680,1680,1671,1671,1663,1663,1663,1663,1655,1655,1655,1647,1647,1639,1639,1639,1639,1639,1632,1632,1632,1632,1624,1616,1609,1609,1609,1609,1601,1601,1601,1601,1601,1601,1594,1594,1586,1586,1579,1579,1579,1572,1572,1572,1572,1572,1564,1564,1564,1557,1550,1550,1550,1550,0,0,0,0,0,0,0,928,928,928,928,925,925,925,923,918,918,918,915,915,915,915,915,915,915,915,915,915,918,923,925,928,933,933,933,933,0,0,0,0,0,1464,1458,1458,1452,1445,1445,1445,1445,1445,1445,1439,1439,1439,1439,1439,1433,1427,1427,1421,1421,1421,1421,1415,1415,1415,1415,1410,1410,1404,1404,1398,1398,1398,1398,1392,1392,1392,1392,1392,1387,1387,1381,1376,1376,1376,1376,1370,1370,1370,1365,1365,1365,1359,1359,1354,1354,1354,1354,1354,1354,1349,1349,1349,1343,1343,1338,1333,1333,1333,1333,1333,1328,1328,1328,1328,1322,1317,1317,1312,1312,1312,1312,1307,1307,1307,1307,1307,1302,1302,1302,1297,1297,1292,1292,1292,1292,1288,1288,1288,1283,1278,1278,1273,1273,1273,1273,1273,1268,1268,1268,1264,1264,1264,1259,1259,1259,1255,1255,1255,1250,1250,1250,1250,1245,1241,1241,1241,1236,1236,1236,1236,1232,1232,1232,1232,1227,1227,1223,1219,1219,1219,1219,1214,1214,1214,1214,1214,1210,1210,1206,1206,1202,1202,1202,1202,1202,1197,1197,1197,1197,1193,1193,1189,1189,1189,1185,1185,1185,1185,1181,1181,1181,1181,1177,1177,1177,1173,1173,1169,1169,1165,1165,1165,1165,1165,1161,1161,1157,1157,1157,0,0,0,0,0,0,0,0,0,0,0,0,0,0,0,0,0,0,0,0,0,0,0,0,0,0,0,0,0,0
0,0,0,0,0,0,0,0,0,0,0,0,0,1722,1722,1722,1722,1722,1713,1713,1713,1722,1722,1722,1713,1713,1713,1713,1713,1713,1713,1713,1713,1713,1713,1713,1713,1713,1705,1705,1713,1713,1713,1713,1713,1713,1713,1713,1705,1705,1705,1705,1713,1713,1713,1713,1713,1713,1705,1705,1705,1705,1705,1705,1696,1696,1705,1696,1696,1696,1696,1696,1696,1696,1696,1696,1696,1696,1696,1696,1688,1688,1688,1688,1688,1688,1688,1688,1688,1688,1688,1688,1688,1688,1688,1688,1688,1688,1680,1680,1680,1680,1680,1688,1688,1680,1680,1680,1680,1671,1671,1671,1671,1671,1671,1671,1671,1671,1671,1671,1663,1663,1663,1663,1663,1663,1663,1663,1663,1663,1663,1663,1671,1671,1680,1680,1688,1696,1696,1705,1936,1926,1915,1904,1904,1904,1904,1904,1883,1843,1833,1813,1804,1804,1804,1804,1794,1794,1794,1794,1696,1696,1696,1688,1688,1680,1680,1680,1688,1688,1688,1688,1696,1696,1696,1696,1705,1705,1705,1713,1722,1722,1722,1731,1731,1731,1731,1731,1739,1739,1748,1748,1757,1757,1757,1766,1766,1766,1766,1766,1766,1776,1776,1785,1785,1794,1794,1794,1794,1804,1804,1813,1813,1823,1823,1833,1833,1843,1843,1843,1853,1853,1863,1863,1863,1873,1873,1873,1873,1883,1883,1883,1883,1883,1894,1904,1904,1904,1915,1915,1915,1915,1915,1915,1915,1915,1915,1915,1915,0,0,0,0,0,0,0,0,0,0,1123,1123,1123,1119,1119,1119,1115,1115,1115,1115,1115,1115,1115,1115,1119,1119,1123,1126,1126,1130,1130,1134,1134,1134,0,0,0,0,1785,1776,1776,1776,1776,1766,1766,1757,1757,1757,1757,1748,1748,1739,1739,1739,1731,1731,1731,1731,1722,1722,1713,1713,1713,1713,1705,1705,1696,1696,1696,1688,1688,1696,1696,1688,1688,1680,1680,1680,1671,1671,1663,1663,1663,1663,1663,1655,1655,1647,1647,1639,1639,1639,1639,1639,1632,1632,1632,1624,1624,1616,1609,1609,1609,1609,1601,1601,1601,1601,1601,1601,1601,1594,1586,1586,1579,1579,1579,1579,1572,1572,1572,1572,1572,1564,1564,1557,1550,1550,1550,1550,0,0,0,0,0,0,928,928,928,928,928,925,925,925,923,920,918,918,918,915,915,915,915,915,915,915,915,918,920,923,925,930,933,933,933,933,0,0,0,0,0,1464,1458,1458,1452,1452,1445,1445,1445,1445,1445,1439,1439,1439,1439,1439,1433,1427,1427,1427,1421,1421,1421,1415,1415,1415,1415,1410,1410,1404,1404,1398,1398,1398,1398,1392,1392,1392,1392,1392,1392,1387,1381,1376,1376,1376,1376,1370,1370,1370,1365,1365,1365,1359,1359,1354,1354,1354,1354,1354,1354,1349,1349,1349,1349,1343,1343,1338,1333,1333,1333,1333,1328,1328,1328,1328,1322,1317,1317,1312,1312,1312,1312,1307,1307,1307,1307,1307,1302,1302,1302,1302,1297,1292,1292,1292,1292,1288,1288,1288,1283,1278,1278,1278,1273,1273,1273,1273,1268,1268,1268,1268,1264,1264,1259,1259,1259,1255,1255,1255,1250,1250,1250,1250,1245,1241,1241,1241,1236,1236,1236,1236,1232,1232,1232,1232,1227,1227,1227,1223,1219,1219,1219,1214,1214,1214,1214,1214,1210,1210,1206,1206,1206,1202,1202,1202,1197,1197,1197,1197,1197,1193,1193,1189,1189,1189,1185,1185,1185,1185,1181,1181,1181,1181,1177,1177,1177,1173,1169,1169,1169,1169,1169,1165,1165,1165,1161,1161,1157,1157,1157,0,0,0,0,0,0,0,0,0,0,0,0,0,0,0,0,0,0,0,0,0,0,0,0,0,0,0,0,0,0
0,0,0,0,0,0,0,0,0,0,0,0,0,1722,1722,1722,1722,1722,1722,1722,1722,1722,1722,1722,1722,1722,1722,1722,1722,1722,1713,1713,1713,1713,1713,1713,1713,1713,1705,1705,1713,1713,1713,1713,1713,1713,1713,1713,1705,1705,1705,1705,1713,1713,1713,1713,1713,1713,1705,1705,1705,1705,1705,1705,1696,1696,1705,1696,1696,1696,1696,1696,1696,1696,1696,1696,1696,1696,1696,1696,1696,1696,1688,1688,1688,1688,1688,1688,1688,1688,1688,1688,1688,1688,1688,1688,1688,1688,1680,1680,1680,1680,1680,1688,1680,1680,1680,1680,1680,1680,1680,1680,1680,1680,1671,1671,1671,1671,1671,1671,1671,1663,1663,1663,1663,1663,1663,1663,1663,1663,1663,1663,1671,1671,1680,1680,1688,1688,1696,1936,1926,1904,1894,1894,1894,1894,1883,1873,1853,1833,1823,1813,1804,1804,1813,1804,1794,1794,1785,1785,1696,1696,1696,1688,1688,1688,1688,1688,1688,1688,1688,1688,1696,1696,1696,1696,1705,1705,1705,1713,1713,1722,1722,1731,1731,1731,1731,1731,1739,1739,1748,1748,1757,1757,1757,1766,1766,1766,1766,1766,1766,1776,1776,1785,1785,1794,1794,1794,1794,1804,1804,1813,1813,1823,1823,1833,1833,1843,1843,1843,1853,1853,1863,1863,1873,1873,1873,1873,1873,1883,1883,1883,1883,1883,1894,1904,1904,1904,1915,1915,1915,1915,1915,1915,1915,1915,1915,1915,0,0,0,0,0,0,0,0,0,0,0,1123,1123,1119,1119,1119,1119,1115,1115,1115,1115,1115,1115,1115,1115,1119,1119,1123,1126,1126,1130,1130,1134,1134,1134,0,0,0,1785,1785,1776,1776,1776,1776,1776,1766,1766,1757,1757,1757,1748,1748,1739,1739,1739,1731,1731,1731,1731,1722,1722,1722,1713,1713,1713,1705,1705,1696,1696,1696,1688,1688,1696,1696,1688,1688,1680,1680,1680,1671,1671,1671,1663,1663,1663,1663,1655,1655,1647,1647,1647,1639,1639,1639,1639,1632,1632,1632,1624,1624,1616,1609,1609,1609,1609,1601,1601,1601,1601,1601,1601,1601,1601,1594,1586,1579,1579,1579,1579,1579,1572,1572,1572,1572,1572,1564,1564,1550,1550,1550,1550,0,0,0,0,0,0,928,928,928,928,925,925,925,925,923,923,918,918,918,915,915,915,915,915,915,915,915,918,920,923,925,930,933,933,935,935,0,0,0,1464,0,1464,1458,1458,1452,1452,1445,1445,1445,1445,1445,1439,1439,1439,1439,1439,1433,1427,1427,1427,1421,1421,1421,1421,1415,1415,1415,1415,1410,1404,1404,1398,1398,1398,1398,1398,1392,1392,1392,1392,1392,1387,1381,1381,1376,1376,1376,1370,1370,1370,1365,1365,1365,1359,1359,1354,1354,1354,1354,1354,1354,1349,1349,1349,1349,1343,1343,1338,1333,1333,1333,1333,1333,1328,1328,1328,1322,1317,1317,1312,1312,1312,1312,1312,1312,1312,1307,1307,1302,1302,1302,1302,1297,1292,1292,1292,1292,1288,1288,1288,1283,1278,1278,1278,1278,1273,1273,1273,1268,1268,1268,1264,1264,1259,1259,1259,1259,1255,1255,1255,1255,1250,1250,1250,1245,1245,1241,1241,1236,1236,1236,1236,1232,1232,1232,1232,1227,1227,1227,1223,1219,1219,1219,1219,1214,1214,1214,1214,1210,1210,1206,1206,1206,1202,1202,1202,1197,1197,1197,1197,1197,1193,1193,1189,1189,1189,1185,1185,1185,1181,1181,1181,1181,1177,1177,1177,1177,1173,1169,1169,1169,1169,1169,1165,1165,1165,1165,1161,1157,1157,1157,0,0,0,0,0,0,0,0,0,0,0,0,0,0,0,0,0,0,0,0,0,0,0,0,0,0,0,0,0,0
0,0,0,0,0,0,0,0,0,0,0,0,0,1722,1722,1722,1722,1722,1722,1722,1722,1722,1722,1722,1722,1722,1722,1722,1722,1722,1713,1713,1713,1705,1705,1705,1705,1705,1705,1705,1713,1713,1713,1713,1713,1713,1713,1713,1705,1705,1713,1713,1713,1713,1713,1713,1713,1713,1705,1705,1705,1705,1705,1705,1705,1705,1705,1705,1696,1696,1696,1696,1696,1696,1696,1696,1696,1696,1696,1696,1696,1696,1688,1688,1688,1688,1688,1688,1688,1688,1688,1688,1688,1688,1688,1688,1688,1688,1688,1688,1688,1680,1680,1688,1680,1680,1680,1680,1680,1680,1680,1680,1680,1680,1671,1671,1671,1671,1671,1671,1671,1663,1663,1663,1663,1663,1663,1663,1663,1663,1663,1663,1671,1671,1680,1680,1688,1688,1696,1894,1894,1883,1883,1883,1883,1883,1873,1863,1843,1833,1823,1823,1804,1804,1813,1804,1794,1794,1785,1748,1696,1696,1688,1688,1688,1688,1688,1688,1688,1688,1688,1688,1696,1696,1696,1696,1705,1705,1705,1713,1713,1722,1722,1731,1731,1731,1731,1731,1739,1739,1748,1748,1757,1757,1766,1766,1766,1766,1766,1766,1766,1776,1776,1785,1785,1794,1794,1804,1804,1804,1804,1813,1823,1823,1833,1833,1833,1843,1843,1843,1853,1853,1863,1863,1873,1873,1873,1873,1873,1883,1883,1883,1883,1883,1894,1904,1904,1904,1915,1915,1915,1915,1915,1915,1915,1915,1915,1915,0,0,0,0,0,0,0,0,0,0,1126,1123,1123,1119,1119,1119,1119,1115,1115,1115,1115,1115,1115,1115,1119,1119,1123,1126,1126,1130,1130,1134,1134,1134,1134,0,0,0,1785,1785,1785,1785,1785,1776,1776,1766,1766,1766,1757,1757,1757,1748,1748,1739,1739,1739,1731,1731,1731,1722,1722,1722,1722,1713,1713,1713,1705,1696,1696,1696,1688,1688,1696,1696,1688,1688,1688,1680,1680,1671,1671,1671,1663,1663,1663,1663,1663,1655,1647,1647,1647,1639,1639,1639,1639,1632,1632,1632,1632,1624,1624,1616,1609,1609,1609,1601,1601,1601,1601,1601,1601,1601,1601,1594,1586,1579,1579,1579,1579,1579,1572,1572,1572,1572,1572,1564,1564,1550,1550,1550,1550,0,0,0,0,0,0,925,925,925,925,925,925,925,925,923,923,918,918,918,915,915,915,915,915,915,915,915,918,920,923,925,930,933,935,935,935,0,0,0,1464,1464,1464,1458,1458,1452,1452,1445,1445,1445,1445,1445,1439,1439,1439,1439,1439,1433,1433,1433,1427,1427,1421,1421,1421,1421,1415,1415,1415,1410,1410,1404,1398,1398,1398,1398,1398,1398,1398,1392,1392,1392,1387,1381,1381,1376,1376,1376,1376,1370,1370,1365,1365,1365,1359,1359,1359,1359,1354,1354,1354,1354,1354,1349,1349,1349,1349,1343,1338,1338,1333,1333,1333,1333,1333,1328,1328,1322,1322,1317,1317,1312,1312,1312,1312,1312,1312,1307,1307,1307,1307,1302,1297,1297,1292,1292,1292,1292,1288,1288,1288,1283,1278,1278,1278,1278,1278,1273,1273,1268,1268,1268,1264,1264,1259,1259,1255,1255,1255,1255,1255,1255,1250,1250,1250,1245,1245,1241,1241,1236,1236,1236,1236,1232,1232,1232,1232,1227,1227,1227,1223,1219,1219,1219,1219,1214,1214,1214,1214,1210,1210,1206,1206,1206,1202,1202,1202,1197,1197,1197,1197,1197,1193,1193,1189,1189,1189,1185,1185,1185,1181,1181,1181,1181,1177,1177,1177,1177,1173,1169,1169,1169,1169,1169,1165,1165,1165,1161,1161,1157,1157,1157,0,0,0,0,0,0,0,0,0,0,0,0,0,0,0,0,0,0,0,0,0,0,0,0,0,0,0,0,0,0
0,0,0,0,0,0,0,0,0,0,0,0,0,1722,1722,1722,1722,1722,1722,1722,1722,1731,1731,1731,1731,1731,1722,1722,1722,1722,1713,1713,1713,1705,1705,1705,1705,1705,1705,1705,1705,1705,1713,1713,1713,1713,1713,1713,1713,1713,1713,1713,1696,1696,1705,1705,1713,1713,1713,1713,1713,1705,1705,1705,1705,1705,1705,1705,1696,1696,1705,1696,1696,1696,1696,1696,1696,1696,1696,1696,1696,1696,1688,1688,1688,1688,1688,1688,1688,1688,1688,1688,1688,1688,1688,1688,1688,1688,1688,1688,1688,1680,1680,1688,1680,1680,1680,1680,1680,1680,1680,1680,1680,1680,1680,1671,1671,1671,1671,1671,1671,1671,1671,1671,1671,1671,1663,1663,1663,1663,1663,1663,1671,1671,1680,1680,1688,1688,1688,1883,1883,1873,1873,1873,1873,1873,1873,1863,1843,1833,1823,1813,1813,1813,1813,1804,1794,1794,1785,1748,1696,1696,1688,1688,1688,1688,1688,1688,1688,1688,1688,1696,1696,1696,1696,1696,1705,1705,1705,1713,1722,1722,1722,1731,1731,1731,1731,1731,1739,1739,1748,1748,1757,1757,1766,1766,1766,1766,1766,1776,1776,1776,1776,1785,1785,1794,1794,1804,1804,1804,1804,1813,1823,1823,1833,1833,1833,1843,1843,1843,1853,1853,1863,1873,1873,1873,1873,1873,1873,1883,1883,1883,1883,1883,1894,1904,1904,1915,1915,1915,1915,1915,1915,1915,1915,1915,1915,1915,0,0,0,0,0,0,0,0,0,1130,1126,1126,1123,1119,1119,1119,1119,1115,1115,1115,1115,1115,1115,1115,1119,1123,1123,1126,1126,1130,1134,1134,1134,1134,1134,1134,0,0,0,1785,1785,1785,1785,1785,1776,1766,1766,1766,1757,1757,1757,1748,1748,1748,1739,1739,1739,1731,1731,1722,1722,1722,1722,1713,1713,1713,1705,1696,1696,1696,1688,1688,1696,1696,1696,1688,1688,1680,1680,1671,1671,1671,1663,1663,1663,1663,1663,1655,1655,1647,1647,1647,1639,1639,1639,1632,1632,1632,1632,1624,1624,1616,1616,1609,1609,1609,1601,1601,1601,1601,1601,1601,1601,1594,1586,1579,1579,1579,1579,1579,1572,1572,1572,1572,1572,1572,1557,1557,1557,1550,1550,0,0,0,0,0,0,925,925,925,925,925,925,925,925,923,920,918,918,918,915,915,915,915,915,915,915,915,918,920,923,925,930,933,935,935,935,0,0,0,1464,1464,1464,1464,1458,1452,1452,1445,1445,1445,1445,1445,1445,1439,1439,1439,1439,1433,1433,1433,1427,1427,1427,1421,1421,1421,1421,1415,1415,1410,1410,1404,1398,1398,1398,1398,1398,1398,1398,1392,1392,1392,1387,1381,1381,1376,1376,1376,1376,1370,1370,1365,1365,1365,1359,1359,1359,1359,1359,1354,1354,1354,1354,1354,1349,1349,1349,1343,1338,1338,1333,1333,1333,1333,1333,1328,1328,1322,1322,1317,1317,1312,1312,1312,1312,1312,1312,1307,1307,1307,1307,1302,1297,1297,1292,1292,1292,1288,1288,1288,1288,1283,1278,1278,1278,1278,1278,1273,1273,1273,1268,1268,1264,1264,1259,1259,1255,1255,1255,1255,1255,1255,1250,1250,1250,1250,1245,1245,1241,1236,1236,1236,1236,1232,1232,1232,1232,1227,1227,1227,1223,1219,1219,1219,1219,1214,1214,1214,1214,1214,1210,1206,1206,1206,1206,1202,1202,1197,1197,1197,1197,1197,1193,1193,1189,1189,1189,1185,1185,1185,1181,1181,1181,1181,1177,1177,1177,1177,1173,1173,1169,1169,1169,1169,1165,1165,1165,1161,1161,1157,1157,1157,0,0,0,0,0,0,0,0,0,0,0,0,0,0,0,0,0,0,0,0,0,0,0,0,0,0,0,0,0,0
0,0,0,0,0,0,0,0,0,0,0,0,0,1722,1722,1722,1722,1722,1722,1722,1722,1731,1731,1731,1731,1731,1731,1722,1722,1722,1713,1713,1713,1705,1705,1705,1705,1705,1705,1705,1705,1705,1713,1713,1713,1713,1713,1713,1713,1713,1713,1713,1696,1696,1705,1705,1705,1705,1713,1713,1705,1705,1705,1705,1705,1705,1705,1705,1696,1696,1705,1696,1696,1696,1696,1696,1696,1696,1696,1696,1696,1696,1696,1688,1688,1688,1688,1688,1688,1688,1688,1688,1688,1688,1688,1688,1688,1688,1688,1680,1680,1680,1680,1688,1688,1688,1688,1688,1688,1680,1680,1680,1680,1680,1680,1680,1680,1671,1671,1671,1671,1671,1671,1671,1671,1671,1671,1671,1663,1663,1663,1663,1671,1671,1680,1688,1688,1688,1688,1873,1873,1873,1873,1873,1873,1873,1863,1853,1853,1833,1823,1813,1813,1813,1813,1804,1794,1794,1785,1748,1705,1696,1688,1688,1688,1688,1688,1688,1688,1688,1688,1696,1696,1696,1696,1696,1705,1705,1705,1713,1713,1722,1722,1722,1731,1731,1731,1731,1739,1739,1748,1748,1757,1757,1766,1766,1766,1766,1766,1776,1776,1776,1776,1785,1785,1794,1794,1804,1804,1804,1813,1813,1823,1823,1833,1833,1833,1843,1843,1843,1843,1853,1863,1873,1873,1873,1873,1873,1883,1883,1883,1883,1883,1894,1904,1904,1904,1915,1915,1915,1915,1915,1915,1915,1915,1915,1915,1915,0,0,0,0,0,0,0,0,0,1130,1126,1126,1123,1119,1119,1119,1119,1115,1115,1115,1115,1115,1115,1115,1119,1123,1123,1126,1126,1130,1134,1134,1134,1134,1134,0,0,0,0,1785,1785,1785,1785,1785,1776,1766,1766,1766,1766,1757,1757,1757,1748,1748,1739,1739,1739,1731,1731,1731,1722,1722,1722,1713,1713,1713,1705,1705,1696,1696,1696,1696,1696,1696,1696,1688,1688,1680,1680,1671,1671,1671,1671,1663,1663,1663,1663,1655,1655,1647,1647,1647,1639,1639,1639,1632,1632,1632,1632,1624,1624,1616,1609,1609,1609,1609,1609,1601,1601,1601,1601,1601,1601,1594,1586,1586,1579,1579,1579,1579,1579,1572,1572,1572,1572,1572,1557,1557,1550,1550,1550,0,0,0,0,0,0,925,925,925,925,925,925,925,925,923,920,918,918,918,915,915,915,915,915,915,915,915,918,920,925,928,933,935,935,935,935,0,0,1470,1470,1464,1464,1464,1458,1452,1452,1445,1445,1445,1445,1445,1445,1439,1439,1439,1439,1433,1433,1433,1427,1427,1421,1421,1421,1421,1421,1415,1415,1410,1410,1404,1398,1398,1398,1398,1398,1398,1398,1392,1392,1392,1387,1381,1381,1376,1376,1376,1376,1370,1370,1365,1365,1365,1359,1359,1359,1359,1359,1354,1354,1354,1354,1354,1349,1349,1349,1343,1343,1338,1333,1333,1333,1333,1333,1328,1328,1322,1322,1317,1317,1312,1312,1312,1312,1312,1312,1307,1307,1307,1307,1307,1297,1297,1292,1292,1292,1288,1288,1288,1288,1283,1278,1278,1278,1278,1278,1273,1273,1273,1273,1268,1268,1264,1264,1259,1259,1259,1255,1255,1255,1255,1255,1250,1250,1250,1245,1245,1241,1236,1236,1236,1236,1232,1232,1232,1232,1227,1227,1227,1223,1219,1219,1219,1219,1214,1214,1214,1214,1214,1210,1210,1210,1210,1206,1202,1202,1197,1197,1197,1197,1197,1193,1193,1189,1189,1189,1185,1185,1185,1181,1181,1181,1181,1177,1177,1177,1177,1173,1173,1169,1169,1169,1169,1165,1165,1165,1165,1161,1157,1157,1157,0,0,0,0,0,0,0,0,0,0,0,0,0,0,0,0,0,0,0,0,0,0,0,0,0,0,0,0,0,0
0,0,0,0,0,0,0,0,0,0,0,0,0,1722,1722,1722,1722,1722,1722,1731,1722,1722,1731,1731,1731,1731,1731,1722,1722,1722,1722,1713,1713,1705,1705,1705,1705,1705,1705,1705,1713,1713,1713,1713,1713,1713,1713,1713,1713,1713,1713,1713,1705,1705,1705,1705,1705,1705,1713,1713,1705,1705,1705,1705,1705,1705,1705,1705,1705,1705,1705,1705,1696,1696,1705,1705,1696,1696,1696,1696,1696,1696,1696,1688,1688,1688,1688,1688,1688,1688,1688,1688,1688,1688,1688,1688,1688,1688,1688,1680,1680,1680,1680,1688,1688,1688,1688,1688,1688,1680,1680,1680,1680,1680,1680,1680,1680,1671,1671,1671,1671,1671,1671,1671,1671,1671,1671,1671,1663,1663,1671,1671,1671,1671,1680,1688,1688,1688,1688,1863,1863,1863,1863,1863,1863,1863,1853,1853,1843,1843,1833,1823,1813,1813,1813,1804,1794,1794,1785,1748,1713,1696,1688,1688,1688,1688,1688,1688,1688,1688,1688,1696,1696,1696,1696,1696,1705,1705,1705,1705,1713,1722,1722,1722,1731,1731,1731,1731,1739,1739,1748,1748,1757,1757,1766,1766,1766,1776,1776,1776,1776,1776,1776,1785,1785,1794,1794,1804,1804,1804,1813,1813,1823,1823,1833,1833,1833,1843,1843,1843,1843,1853,1863,1863,1873,1873,1873,1873,1883,1883,1883,1883,1883,1894,1904,1904,1904,1915,1915,1915,1915,1915,1915,1915,1915,1915,1915,1915,0,0,0,0,0,0,0,0,0,1130,1126,1123,1123,1119,1119,1119,1119,1115,1115,1115,1115,1115,1115,1119,1119,1123,1123,1126,1130,1130,1134,1134,1134,1134,1134,0,0,0,1794,1794,1785,1785,1785,1785,1776,1766,1766,1766,1766,1757,1757,1757,1748,1748,1739,1739,1739,1731,1731,1731,1722,1722,1722,1722,1713,1713,1705,1705,1696,1696,1696,1696,1696,1696,1696,1688,1688,1680,1680,1671,1671,1671,1671,1663,1663,1663,1663,1663,1655,1647,1647,1647,1639,1639,1639,1639,1632,1632,1632,1624,1624,1616,1609,1609,1609,1609,1609,1601,1601,1601,1601,1601,1601,1594,1594,1586,1586,1579,1579,1579,1579,1572,1572,1572,1572,1572,1557,1557,1550,1550,0,0,0,0,0,0,0,925,925,925,925,925,925,925,923,923,920,918,918,918,915,915,915,915,915,915,915,918,918,920,925,928,933,935,0,935,935,0,0,1470,1470,1464,1464,1464,1464,1458,1458,1452,1445,1445,1445,1445,1445,1445,1439,1439,1439,1433,1433,1433,1427,1427,1421,1421,1421,1421,1421,1415,1415,1410,1410,1404,1398,1398,1398,1398,1398,1398,1398,1392,1392,1392,1387,1381,1381,1376,1376,1376,1376,1370,1370,1370,1365,1365,1365,1365,1359,1359,1359,1354,1354,1354,1354,1354,1349,1349,1349,1349,1343,1338,1338,1333,1333,1333,1333,1328,1328,1328,1322,1317,1317,1317,1312,1312,1312,1312,1312,1312,1307,1307,1307,1307,1302,1297,1292,1292,1292,1288,1288,1288,1288,1283,1283,1283,1283,1278,1278,1273,1273,1273,1273,1268,1268,1264,1264,1259,1259,1255,1255,1255,1255,1255,1250,1250,1250,1250,1245,1245,1241,1241,1236,1236,1236,1236,1232,1232,1232,1232,1232,1227,1223,1223,1223,1219,1219,1219,1214,1214,1214,1214,1210,1210,1210,1210,1206,1202,1202,1197,1197,1197,1197,1197,1197,1193,1193,1193,1189,1185,1185,1185,1185,1185,1181,1181,1177,1177,1177,1177,1173,1173,1169,1169,1169,1169,1169,1165,1165,1165,1161,1157,1157,1157,0,0,0,0,0,0,0,0,0,0,0,0,0,0,0,0,0,0,0,0,0,0,0,0,0,0,0,0,0,0
0,0,0,0,0,0,0,0,0,0,0,0,0,1722,1722,1722,1722,1722,1722,1731,1722,1722,1731,1731,1731,1722,1722,1722,1722,1722,1722,1722,1713,1713,1705,1696,1696,1705,1705,1705,1713,1713,1713,1713,1713,1722,1713,1713,1713,1713,1713,1713,1705,1705,1705,1705,1705,1705,1713,1713,1705,1705,1705,1705,1705,1705,1705,1705,1705,1705,1705,1705,1705,1705,1705,1705,1696,1696,1696,1696,1696,1696,1696,1688,1688,1688,1688,1688,1688,1688,1688,1688,1688,1688,1688,1688,1688,1688,1688,1688,1688,1680,1680,1688,1688,1688,1688,1688,1688,1680,1680,1680,1680,1680,1680,1680,1680,1680,1680,1671,1671,1671,1671,1671,1671,1671,1671,1671,1671,1671,1671,1671,1671,1671,1680,1688,1688,1688,1688,1853,1853,1853,1853,1853,1853,1853,1853,1843,1843,1833,1833,1823,1813,1813,1813,1804,1794,1794,1785,1748,1713,1696,1688,1688,1688,1688,1688,1688,1688,1688,1688,1696,1696,1696,1696,1696,1705,1705,1705,1705,1713,1722,1722,1722,1731,1731,1731,1731,1739,1739,1748,1748,1757,1757,1766,1766,1766,1776,1776,1776,1776,1776,1785,1785,1785,1794,1794,1804,1804,1804,1813,1813,1823,1833,1833,1833,1833,1843,1843,1843,1853,1853,1863,1863,1873,1873,1873,1873,1873,1883,1883,1883,1883,1894,1904,1904,1904,1915,1915,1915,1915,1915,1915,1915,1915,1915,1915,1915,1915,1926,0,0,0,0,0,0,1134,1130,1126,1123,1123,1119,1119,1119,1119,1115,1115,1115,1115,1115,1119,1119,1119,1123,1123,1126,1130,1130,1130,1134,1134,1134,0,0,0,0,1794,1794,1794,1785,1785,1776,1776,1766,1766,1766,1766,1757,1757,1757,1748,1748,1739,1739,1731,1731,1731,1731,1722,1722,1722,1722,1722,1713,1705,1705,1696,1696,1696,1696,1696,1696,1696,1688,1688,1688,1680,1680,1671,1671,1671,1663,1663,1663,1663,1663,1655,1647,1647,1647,1639,1639,1639,1639,1632,1632,1632,1632,1624,1616,1616,1609,1609,1609,1609,1609,1601,1601,1601,1601,1601,1594,1594,1586,1586,1579,1579,1579,1579,1572,1572,1572,1572,1572,1557,1557,1557,0,0,0,0,0,0,0,0,925,925,925,925,925,925,925,923,923,920,918,918,915,915,915,915,915,915,915,918,918,920,923,928,933,933,935,0,0,0,0,0,1470,1464,1464,1464,1464,1464,1458,1458,1452,1445,1445,1445,1445,1445,1445,1439,1439,1439,1433,1433,1433,1427,1421,1421,1421,1421,1421,1421,1415,1415,1415,1410,1404,1404,1398,1398,1398,1398,1398,1392,1392,1392,1392,1387,1381,1381,1376,1376,1376,1376,1376,1370,1370,1370,1365,1365,1365,1359,1359,1359,1354,1354,1354,1354,1354,1349,1349,1349,1349,1343,1338,1338,1333,1333,1333,1333,1328,1328,1328,1322,1322,1317,1317,1317,1312,1312,1312,1312,1312,1312,1307,1307,1307,1302,1297,1292,1292,1292,1288,1288,1288,1288,1283,1283,1283,1283,1283,1278,1273,1273,1273,1273,1268,1268,1264,1264,1259,1259,1255,1255,1255,1255,1255,1250,1250,1250,1250,1245,1245,1241,1241,1236,1236,1236,1236,1232,1232,1232,1232,1232,1227,1227,1223,1223,1219,1219,1219,1214,1214,1214,1214,1214,1210,1210,1210,1206,1202,1202,1197,1197,1197,1197,1197,1197,1193,1193,1193,1189,1185,1185,1185,1185,1185,1181,1181,1181,1177,1177,1177,1173,1173,1169,1169,1169,1169,1169,1165,1165,1165,1161,1157,1157,1157,0,0,0,0,0,0,0,0,0,0,0,0,0,0,0,0,0,0,0,0,0,0,0,0,0,0,0,0,0,0
0,0,0,0,0,0,0,0,0,0,0,0,0,1722,1722,1722,1722,1722,1722,1731,1731,1731,1722,1722,1722,1722,1722,1722,1722,1722,1722,1722,1722,1722,1705,1696,1696,1705,1705,1705,1713,1713,1713,1713,1722,1722,1713,1713,1713,1713,1713,1713,1705,1705,1713,1713,1713,1713,1713,1713,1705,1705,1705,1705,1705,1705,1705,1705,1705,1705,1705,1705,1705,1705,1705,1705,1696,1696,1696,1696,1696,1696,1696,1688,1688,1688,1688,1688,1688,1688,1688,1696,1696,1696,1688,1688,1688,1688,1688,1688,1688,1688,1688,1688,1688,1688,1688,1688,1688,1680,1680,1680,1680,1680,1680,1680,1680,1680,1680,1680,1680,1680,1671,1671,1671,1671,1671,1671,1671,1671,1671,1671,1671,1680,1688,1688,1688,1688,1680,1680,1853,1853,1853,1853,1853,1853,1853,1843,1843,1833,1833,1823,1813,1813,1804,1804,1804,1794,1794,1785,1713,1696,1688,1688,1688,1688,1688,1688,1688,1688,1688,1696,1696,1696,1696,1696,1705,1705,1705,1705,1713,1722,1722,1722,1731,1731,1731,1739,1739,1739,1748,1748,1757,1757,1766,1766,1776,1776,1776,1776,1776,1785,1785,1785,1785,1794,1794,1804,1804,1804,1813,1813,1833,1833,1833,1833,1833,1843,1843,1843,1853,1853,1863,1873,1873,1873,1873,1873,1873,1883,1883,1883,1883,1894,1904,1904,1904,1915,1915,1915,1915,1915,1915,1915,1915,1915,1915,1915,1915,1926,0,0,0,0,0,1134,1130,1130,1126,1123,1123,1119,1119,1119,1119,1115,1115,1115,1115,1115,1119,1119,1119,1123,1123,1126,1130,1130,1130,1134,1134,1134,0,0,0,1794,1794,1794,1794,1785,1785,1776,1776,1766,1766,1766,1766,1757,1757,1757,1748,1748,1739,1739,1731,1731,1731,1731,1731,1722,1722,1722,1722,1722,1713,1705,1696,1696,1696,1696,1696,1696,1696,1688,1688,1688,1680,1680,1680,1671,1671,1663,1663,1663,1663,1663,1655,1655,1647,1647,1639,1639,1639,1639,1639,1632,1632,1632,1624,1624,1616,1616,1609,1609,1609,1609,1601,1601,1601,1601,1594,1594,1594,1586,1586,1579,1579,1579,1579,1572,1572,1572,1572,1564,1557,1557,1557,0,0,0,0,0,0,0,0,925,925,925,925,925,925,925,923,923,920,918,918,915,915,915,915,915,915,915,918,918,920,923,928,933,933,935,935,935,0,0,0,1470,1464,1464,1464,1464,1464,1464,1458,1452,1452,1445,1445,1445,1445,1445,1439,1439,1439,1433,1433,1433,1427,1421,1421,1421,1421,1421,1421,1415,1415,1415,1410,1410,1404,1404,1398,1398,1398,1398,1392,1392,1392,1392,1392,1381,1381,1376,1376,1376,1376,1376,1370,1370,1370,1365,1365,1365,1359,1359,1359,1354,1354,1354,1354,1354,1354,1349,1349,1349,1343,1338,1338,1333,1333,1333,1333,1333,1328,1328,1322,1322,1317,1317,1317,1312,1312,1312,1312,1312,1312,1307,1307,1307,1302,1297,1292,1292,1292,1288,1288,1288,1288,1288,1283,1283,1283,1283,1273,1273,1273,1273,1273,1268,1268,1264,1264,1259,1259,1259,1255,1255,1255,1255,1250,1250,1250,1250,1245,1245,1241,1241,1236,1236,1236,1236,1232,1232,1232,1232,1232,1232,1227,1223,1223,1219,1219,1219,1214,1214,1214,1214,1214,1214,1210,1210,1206,1202,1202,1197,1197,1197,1197,1197,1197,1193,1193,1193,1189,1185,1185,1185,1185,1185,1181,1181,1181,1181,1177,1177,1173,1173,1173,1169,1169,1169,1169,1165,1165,1165,1161,1157,1157,1157,0,0,0,0,0,0,0,0,0,0,0,0,0,0,0,0,0,0,0,0,0,0,0,0,0,0,0,0,0,0
0,0,0,0,0,0,0,0,0,0,0,0,0,1722,1722,1722,1722,1722,1731,1731,1722,1722,1722,1722,1722,1722,1722,1722,1722,1731,1731,1722,1722,1722,1722,1722,1705,1705,1713,1713,1713,1713,1722,1722,1722,1722,1713,1713,1713,1713,1713,1713,1705,1705,1705,1705,1705,1705,1705,1705,1705,1705,1705,1705,1705,1705,1705,1705,1705,1705,1713,1713,1713,1705,1705,1705,1696,1696,1696,1696,1696,1696,1696,1696,1696,1696,1688,1688,1688,1688,1688,1696,1696,1696,1696,1696,1688,1688,1688,1688,1688,1688,1688,1688,1688,1688,1688,1688,1688,1688,1680,1680,1680,1680,1680,1680,1680,1680,1680,1680,1680,1680,1680,1671,1671,1671,1671,1671,1671,1671,1671,1671,1680,1680,1688,1688,1688,1688,1680,1680,1843,1843,1843,1843,1843,1843,1843,1843,1843,1833,1833,1823,1813,1813,1804,1804,1804,1794,1794,1785,1722,1696,1688,1688,1688,1688,1688,1688,1688,1688,1688,1696,1696,1696,1696,1696,1705,1705,1705,1713,1713,1722,1722,1722,1731,1731,1731,1739,1748,1748,1748,1748,1757,1757,1766,1766,1776,1776,1776,1776,1776,1785,1785,1785,1794,1794,1794,1804,1804,1804,1813,1823,1833,1833,1833,1833,1833,1843,1843,1843,1853,1853,1863,1863,1873,1873,1873,1873,1873,1883,1883,1883,1883,1894,1904,1904,1904,1915,1915,1915,1915,1915,1915,1915,1915,1915,1915,1915,1915,1926,0,0,0,0,0,1134,1130,1130,1126,1126,1123,1119,1119,1119,1119,1115,1115,1115,1115,1115,1119,1119,1119,1123,1126,1126,1130,1130,1130,1134,1134,0,0,0,0,1794,1794,1794,1794,1785,1785,1776,1766,1766,1766,1766,1766,1757,1757,1757,1757,1748,1748,1739,1739,1731,1731,1731,1731,1722,1722,1722,1722,1722,1713,1705,1696,1696,1696,1696,1696,1696,1696,1696,1688,1688,1688,1680,1680,1671,1671,1671,1663,1663,1663,1663,1655,1655,1655,1647,1647,1639,1639,1639,1639,1632,1632,1632,1624,1624,1616,1616,1609,1609,1609,1609,1601,1601,1601,1601,1594,1594,1594,1586,1586,1586,1579,1579,1579,1572,1572,1572,1572,1564,1564,1557,1557,0,0,0,0,0,0,0,0,925,925,925,925,925,925,925,923,920,920,918,918,915,915,915,915,915,915,918,918,920,920,923,928,933,933,935,935,0,0,0,0,0,1470,1470,1464,1464,1464,1464,1458,1458,1452,1445,1445,1445,1445,1445,1439,1439,1439,1433,1433,1433,1427,1427,1421,1421,1421,1421,1421,1415,1415,1415,1410,1410,1404,1404,1398,1398,1398,1398,1392,1392,1392,1392,1392,1381,1381,1376,1376,1376,1376,1376,1370,1370,1370,1365,1365,1365,1359,1359,1359,1354,1354,1354,1354,1354,1354,1349,1349,1349,1343,1338,1338,1333,1333,1333,1333,1328,1328,1328,1328,1322,1317,1317,1317,1312,1312,1312,1312,1312,1312,1307,1307,1307,1302,1297,1297,1292,1292,1292,1288,1288,1288,1288,1283,1283,1283,1278,1273,1273,1273,1273,1273,1268,1268,1268,1264,1264,1259,1259,1255,1255,1255,1255,1250,1250,1250,1250,1245,1245,1241,1241,1236,1236,1236,1236,1232,1232,1232,1232,1227,1227,1227,1223,1223,1223,1219,1219,1219,1214,1214,1214,1214,1214,1210,1210,1206,1202,1202,1202,1202,1202,1197,1197,1197,1197,1193,1193,1193,1189,1185,1185,1185,1185,1181,1181,1181,1181,1177,1177,1177,1173,1173,1169,1169,1169,1169,1165,1165,1165,1161,1157,1157,1157,0,0,0,0,0,0,0,0,0,0,0,0,0,0,0,0,0,0,0,0,0,0,0,0,0,0,0,0,0,0
0,0,0,0,0,0,0,0,0,0,0,0,0,1722,1722,1722,1722,1722,1731,1731,1722,1722,1722,1722,1731,1722,1722,1722,1722,1731,1731,1722,1722,1722,1722,1722,1705,1705,1713,1713,1713,1713,1722,1722,1722,1722,1722,1722,1713,1713,1713,1713,1705,1705,1705,1705,1705,1705,1705,1705,1705,1705,1705,1705,1705,1705,1705,1705,1705,1713,1713,1713,1713,1713,1705,1705,1696,1696,1696,1696,1696,1696,1696,1696,1696,1696,1696,1696,1696,1696,1696,1696,1696,1696,1696,1696,1688,1688,1688,1688,1688,1688,1688,1688,1688,1688,1688,1688,1688,1688,1680,1680,1680,1680,1680,1680,1680,1680,1680,1680,1680,1680,1680,1671,1671,1671,1671,1671,1671,1671,1671,1671,1680,1680,1688,1688,1688,1688,1680,1680,1833,1833,1833,1843,1843,1843,1843,1843,1843,1833,1833,1823,1813,1813,1804,1804,1804,1794,1794,1785,1696,1696,1696,1688,1688,1688,1688,1688,1688,1688,1688,1696,1696,1696,1696,1705,1705,1713,1713,1713,1713,1722,1722,1731,1731,1731,1739,1739,1748,1748,1757,1757,1757,1766,1766,1766,1776,1776,1776,1785,1785,1785,1785,1794,1794,1794,1794,1804,1804,1804,1813,1823,1833,1833,1833,1833,1843,1843,1843,1843,1853,1853,1863,1863,1873,1873,1873,1873,1873,1883,1883,1883,1883,1894,1904,1904,1904,1915,1915,1915,1915,1915,1915,1915,1915,1915,1915,1915,0,0,0,0,0,0,0,1134,1130,1126,1126,1126,1123,1119,1119,1119,1119,1115,1115,1115,1115,1119,1119,1119,1119,1123,1126,1126,1130,1130,1134,1134,1134,0,0,0,1804,1804,1794,1794,1794,1785,1785,1776,1766,1766,1766,1766,1766,1757,1757,1757,1757,1748,1748,1739,1739,1739,1731,1731,1731,1722,1722,1722,1722,1713,1713,1705,1696,1696,1696,1696,1696,1696,1696,1696,1696,1688,1688,1688,1680,1671,1671,1671,1663,1663,1663,1663,1663,1655,1655,1655,1647,1639,1639,1639,1639,1639,1632,1632,1632,1624,1616,1616,1609,1609,1609,1609,1601,1601,1601,1601,1594,1594,1594,1586,1586,1586,1579,1579,1579,1579,1572,1572,1572,1564,1564,1564,1564,0,0,0,0,0,0,0,0,925,925,925,925,925,925,925,923,920,920,918,918,915,915,915,915,915,915,918,918,920,920,923,930,933,935,935,938,0,0,0,0,1470,1470,1470,1464,1464,1464,1464,1458,1452,1452,1445,1445,1445,1445,1445,1439,1439,1439,1433,1433,1433,1427,1427,1421,1421,1421,1421,1421,1415,1415,1415,1410,1404,1404,1398,1398,1398,1398,1398,1392,1392,1392,1392,1392,1381,1381,1376,1376,1376,1376,1376,1370,1370,1370,1365,1365,1365,1359,1359,1354,1354,1354,1354,1354,1354,1354,1349,1349,1349,1343,1343,1338,1338,1333,1333,1333,1328,1328,1328,1328,1322,1322,1317,1317,1312,1312,1312,1312,1312,1312,1307,1307,1307,1302,1302,1297,1292,1292,1292,1288,1288,1288,1288,1283,1283,1283,1278,1273,1273,1273,1273,1273,1268,1268,1268,1264,1264,1264,1264,1259,1259,1255,1255,1255,1250,1250,1250,1245,1245,1241,1241,1236,1236,1236,1236,1232,1232,1232,1232,1227,1227,1227,1223,1223,1223,1219,1219,1219,1214,1214,1214,1214,1214,1210,1210,1206,1202,1202,1202,1202,1202,1197,1197,1197,1197,1197,1193,1193,1189,1189,1185,1185,1185,1181,1181,1181,1181,1181,1177,1177,1177,1173,1173,1173,1169,1169,1165,1165,1165,1165,1161,1157,1157,0,0,0,0,0,0,0,0,0,0,0,0,0,0,0,0,0,0,0,0,0,0,0,0,0,0,0,0,0,0
0,0,0,0,0,0,0,0,0,0,0,0,0,1731,1731,1731,1731,1731,1731,1731,1731,1731,1731,1731,1731,1731,1731,1731,1731,1731,1731,1731,1731,1722,1722,1722,1722,1722,1713,1713,1713,1713,1722,1722,1722,1722,1722,1722,1713,1713,1713,1713,1713,1713,1705,1705,1705,1705,1705,1705,1705,1705,1705,1705,1705,1705,1705,1705,1705,1713,1713,1713,1713,1713,1705,1705,1696,1696,1696,1696,1696,1696,1696,1696,1696,1696,1696,1696,1696,1696,1696,1696,1696,1696,1696,1696,1688,1688,1688,1688,1688,1688,1688,1688,1688,1688,1688,1688,1688,1688,1688,1680,1680,1680,1680,1680,1680,1680,1680,1680,1680,1680,1680,1671,1671,1671,1671,1671,1671,1671,1671,1680,1680,1680,1688,1688,1688,1688,1680,1680,1833,1833,1833,1833,1833,1833,1843,1833,1833,1833,1833,1823,1813,1804,1804,1804,1804,1794,1794,1748,1696,1696,1696,1688,1688,1688,1688,1688,1688,1688,1688,1696,1696,1696,1705,1705,1713,1713,1713,1722,1722,1722,1731,1731,1731,1739,1739,1739,1748,1748,1757,1757,1757,1766,1766,1766,1776,1776,1785,1785,1785,1785,1785,1794,1794,1794,1804,1804,1804,1804,1813,1823,1833,1833,1833,1843,1843,1843,1843,1843,1853,1853,1863,1873,1873,1873,1873,1873,1883,1883,1883,1883,1883,1894,1904,1904,1915,1915,1915,1915,1915,1915,1915,1915,1915,1915,1915,1926,0,0,0,0,0,0,0,1134,1130,1126,1126,1126,1123,1119,1119,1119,1119,1115,1115,1115,1115,1119,1119,1119,1119,1123,1126,1130,1130,1134,1134,1134,1138,0,0,0,0,1804,1794,1794,1794,1785,1776,1776,1766,1766,1766,1766,1766,1757,1757,1757,1757,1748,1748,1739,1739,1739,1731,1731,1731,1731,1722,1722,1722,1713,1713,1705,1696,1696,1696,1696,1696,1696,1696,1696,1696,1696,1688,1688,1680,1671,1671,1671,1671,1663,1663,1663,1663,1655,1655,1655,1647,1639,1639,1639,1639,1639,1632,1632,1632,1624,1624,1616,1616,1609,1609,1609,1609,1601,1601,1601,1594,1594,1594,1586,1586,1586,1579,1579,1579,1572,1572,1572,1564,1564,1557,1557,1564,0,0,0,0,0,0,0,0,925,925,925,925,925,925,925,923,920,920,918,918,915,915,915,915,915,915,918,920,920,923,925,930,933,935,935,938,0,0,0,0,1470,1470,1470,1464,1464,1464,1464,1458,1452,1452,1445,1445,1445,1445,1445,1439,1439,1439,1439,1433,1433,1433,1427,1421,1421,1421,1421,1421,1415,1415,1410,1410,1404,1404,1398,1398,1398,1398,1398,1392,1392,1392,1392,1392,1392,1381,1381,1376,1376,1376,1376,1370,1370,1370,1370,1365,1365,1359,1354,1354,1354,1354,1354,1354,1354,1354,1349,1349,1349,1343,1343,1338,1338,1333,1333,1333,1333,1328,1328,1328,1322,1322,1317,1317,1317,1312,1312,1312,1312,1312,1307,1307,1307,1302,1302,1297,1292,1292,1292,1292,1288,1288,1288,1283,1283,1283,1278,1273,1273,1273,1273,1273,1273,1273,1268,1268,1268,1264,1264,1259,1259,1255,1255,1255,1250,1250,1250,1245,1245,1245,1241,1236,1236,1236,1236,1236,1236,1232,1232,1232,1232,1227,1223,1223,1223,1219,1219,1219,1214,1214,1214,1214,1214,1210,1210,1206,1206,1202,1202,1202,1202,1202,1197,1197,1197,1197,1193,1193,1189,1189,1189,1185,1185,1181,1181,1181,1181,1181,1177,1177,1177,1177,1173,1173,1169,1169,1169,1165,1165,1165,1161,1161,1161,0,0,0,0,0,0,0,0,0,0,0,0,0,0,0,0,0,0,0,0,0,0,0,0,0,0,0,0,0,0
0,0,0,0,0,0,0,0,0,0,0,0,0,1731,1731,1722,1722,1731,1731,1731,1731,1731,1731,1731,1731,1731,1731,1731,1731,1731,1731,1731,1731,1722,1722,1705,1705,1713,1713,1713,1713,1722,1722,1722,1731,1722,1722,1722,1713,1713,1713,1713,1713,1713,1713,1713,1713,1713,1713,1713,1705,1705,1705,1705,1705,1705,1705,1705,1705,1713,1713,1713,1713,1713,1705,1705,1696,1696,1696,1696,1696,1696,1696,1696,1696,1696,1696,1696,1696,1696,1696,1696,1696,1696,1696,1696,1696,1696,1696,1696,1688,1688,1688,1688,1688,1688,1688,1688,1688,1688,1688,1680,1680,1680,1680,1688,1680,1680,1680,1680,1680,1680,1680,1671,1671,1671,1671,1671,1671,1671,1671,1680,1680,1680,1688,1688,1688,1680,1680,1680,1823,1823,1823,1833,1833,1833,1833,1833,1833,1833,1833,1823,1813,1804,1804,1804,1804,1794,1794,1748,1696,1696,1696,1688,1688,1688,1688,1688,1688,1688,1688,1696,1696,1696,1705,1713,1713,1713,1722,1722,1722,1731,1731,1731,1739,1739,1739,1739,1748,1757,1757,1757,1766,1766,1766,1766,1776,1776,1785,1785,1785,1785,1794,1794,1794,1794,1804,1804,1804,1813,1813,1823,1833,1833,1843,1843,1843,1843,1853,1853,1853,1853,1863,1873,1873,1873,1873,1873,1883,1883,1883,1883,1883,1894,1904,1904,1915,1915,1915,1915,1915,1915,1915,1915,1915,1915,1926,1926,1926,0,0,0,0,0,0,1134,1130,1126,1126,1126,1123,1123,1119,1119,1119,1115,1115,1115,1115,1119,1119,1119,1123,1123,1126,1130,1130,1134,1134,1134,1134,1134,0,0,0,1804,1794,1794,1794,1785,1776,1776,1766,1766,1766,1766,1766,1757,1757,1757,1757,1748,1748,1739,1739,1739,1731,1731,1731,1731,1722,1722,1722,1722,1713,1713,1696,1696,1696,1705,1705,1696,1696,1696,1696,1696,1696,1688,1688,1680,1671,1671,1671,1663,1663,1663,1663,1663,1655,1655,1655,1647,1639,1639,1639,1639,1632,1632,1632,1624,1624,1616,1616,1609,1609,1609,1609,1601,1601,1601,1594,1594,1586,1586,1586,1586,1579,1579,1579,1572,1572,1572,1564,1564,1557,1557,0,0,0,0,0,0,0,0,0,0,928,925,925,925,925,925,923,920,920,918,918,915,915,915,915,918,918,918,920,920,923,925,930,933,935,938,938,0,0,0,0,1470,1470,1470,1464,1464,1464,1458,1458,1452,1445,1445,1445,1445,1445,1445,1439,1439,1439,1439,1439,1433,1433,1427,1427,1421,1421,1421,1421,1415,1415,1410,1410,1404,1404,1398,1398,1398,1398,1398,1392,1392,1392,1392,1392,1392,1381,1381,1376,1376,1376,1376,1370,1370,1370,1370,1365,1365,1359,1354,1354,1354,1354,1354,1354,1354,1354,1349,1349,1349,1349,1343,1343,1338,1338,1333,1333,1333,1328,1328,1328,1322,1322,1322,1317,1317,1312,1312,1312,1312,1312,1307,1307,1307,1302,1302,1297,1292,1292,1292,1292,1288,1288,1288,1283,1283,1283,1278,1278,1273,1273,1273,1273,1273,1273,1268,1268,1268,1268,1264,1264,1259,1255,1255,1255,1250,1250,1250,1245,1245,1245,1241,1236,1236,1236,1236,1236,1236,1232,1232,1227,1227,1227,1223,1223,1223,1219,1219,1219,1219,1214,1214,1214,1214,1214,1210,1206,1206,1202,1202,1202,1202,1202,1197,1197,1197,1197,1193,1193,1189,1189,1189,1185,1185,1181,1181,1181,1181,1181,1177,1177,1177,1177,1173,1173,1169,1169,1169,1169,1169,1165,1161,1161,0,0,0,0,0,0,0,0,0,0,0,0,0,0,0,0,0,0,0,0,0,0,0,0,0,0,0,0,0,0,0
0,0,0,0,0,0,0,0,0,0,0,0,0,1731,1731,1722,1722,1731,1731,1731,1731,1731,1731,1731,1739,1731,1731,1731,1731,1739,1739,1731,1731,1722,1722,1705,1705,1713,1713,1713,1713,1722,1722,1731,1731,1722,1722,1722,1722,1722,1722,1722,1713,1713,1713,1713,1713,1713,1713,1713,1713,1713,1705,1705,1705,1705,1705,1705,1705,1713,1713,1713,1713,1705,1705,1705,1696,1696,1696,1696,1696,1696,1696,1696,1696,1696,1696,1696,1696,1696,1696,1696,1696,1696,1696,1696,1696,1696,1696,1696,1696,1696,1696,1696,1696,1688,1688,1688,1688,1688,1688,1688,1688,1680,1680,1688,1680,1680,1688,1680,1680,1680,1680,1671,1671,1671,1671,1671,1680,1680,1680,1680,1680,1680,1688,1688,1688,1680,1671,1671,1823,1823,1823,1823,1823,1823,1833,1833,1833,1833,1823,1823,1813,1804,1804,1804,1804,1794,1794,1785,1696,1696,1688,1688,1688,1688,1688,1688,1688,1688,1696,1696,1696,1705,1705,1713,1722,1722,1722,1722,1722,1731,1731,1731,1739,1739,1748,1748,1748,1757,1757,1757,1766,1766,1766,1776,1776,1785,1785,1785,1785,1794,1794,1794,1794,1804,1804,1804,1804,1813,1813,1823,1833,1833,1843,1843,1843,1843,1853,1853,1853,1863,1863,1873,1873,1873,1873,1873,1883,1883,1883,1883,1894,1894,1904,1915,1915,1915,1915,1915,1915,1915,1915,1915,1915,1915,1926,1926,1926,0,0,0,0,0,0,1130,1130,1130,1130,1126,1123,1123,1119,1119,1119,1115,1115,1115,1115,1119,1119,1119,1123,1126,1126,1130,1130,1134,1134,1134,1134,0,0,0,0,1804,1794,1794,1794,1785,1776,1776,1776,1766,1766,1766,1766,1766,1757,1757,1757,1748,1748,1739,1739,1739,1731,1731,1731,1731,1722,1722,1722,1722,1722,1713,1705,1696,1696,1705,1705,1696,1696,1696,1696,1696,1696,1688,1688,1680,1671,1671,1671,1663,1663,1663,1663,1663,1655,1655,1655,1647,1639,1639,1639,1639,1632,1632,1632,1632,1624,1624,1616,1616,1609,1609,1609,1601,1601,1601,1594,1594,1586,1586,1586,1586,1579,1579,1579,1572,1572,1572,1564,1564,1557,1557,0,0,0,0,0,0,0,0,0,928,928,928,928,928,925,925,920,920,918,918,918,915,915,915,915,918,918,918,920,920,923,925,930,933,935,938,938,0,0,0,0,1470,1470,1470,1464,1464,1464,1458,1458,1452,1445,1445,1445,1445,1445,1445,1439,1439,1439,1439,1439,1439,1433,1433,1427,1421,1421,1421,1421,1415,1415,1415,1410,1410,1404,1404,1398,1398,1398,1398,1398,1392,1392,1392,1392,1392,1381,1381,1381,1376,1376,1376,1370,1370,1370,1370,1370,1365,1359,1359,1354,1354,1354,1354,1354,1354,1354,1354,1349,1349,1349,1343,1343,1338,1338,1333,1333,1333,1328,1328,1328,1322,1322,1322,1317,1317,1312,1312,1312,1312,1312,1307,1307,1307,1302,1302,1297,1292,1292,1292,1292,1288,1288,1288,1283,1283,1283,1278,1278,1273,1273,1273,1273,1273,1268,1268,1268,1268,1268,1264,1264,1259,1255,1255,1255,1250,1250,1250,1250,1245,1245,1245,1241,1241,1236,1236,1236,1236,1232,1232,1227,1227,1227,1223,1223,1223,1219,1219,1219,1219,1214,1214,1214,1214,1214,1210,1206,1206,1206,1206,1202,1202,1202,1197,1197,1197,1193,1193,1193,1193,1189,1189,1185,1185,1181,1181,1181,1181,1181,1177,1177,1177,1177,1173,1173,1173,1173,1169,1169,1169,1165,1165,1165,0,0,0,0,0,0,0,0,0,0,0,0,0,0,0,0,0,0,0,0,0,0,0,0,0,0,0,0,0,0,0
0,0,0,0,0,0,0,0,0,0,0,0,0,1731,1731,1731,1731,1731,1731,1731,1731,1731,1739,1739,1739,1731,1731,1731,1739,1739,1731,1731,1731,1731,1722,1713,1713,1722,1722,1722,1731,1731,1731,1731,1731,1722,1722,1722,1722,1722,1713,1713,1713,1713,1705,1705,1713,1713,1713,1713,1713,1713,1713,1713,1713,1705,1705,1705,1705,1713,1713,1713,1713,1705,1705,1705,1696,1696,1696,1696,1696,1696,1696,1696,1696,1696,1696,1696,1696,1696,1696,1696,1705,1705,1696,1696,1696,1696,1696,1696,1696,1696,1696,1696,1696,1688,1688,1688,1688,1688,1688,1688,1688,1688,1688,1688,1680,1680,1680,1680,1680,1680,1680,1671,1671,1671,1680,1680,1680,1680,1680,1680,1688,1688,1688,1688,1688,1680,1671,1671,1813,1823,1823,1823,1823,1823,1833,1833,1833,1833,1823,1823,1813,1804,1804,1804,1804,1794,1794,1785,1696,1696,1688,1688,1688,1688,1688,1688,1688,1688,1696,1696,1696,1705,1705,1713,1722,1722,1722,1722,1731,1731,1731,1731,1739,1739,1748,1748,1757,1757,1757,1766,1766,1766,1766,1776,1776,1785,1785,1785,1785,1794,1794,1794,1794,1804,1804,1804,1804,1813,1823,1823,1833,1833,1843,1843,1843,1843,1853,1853,1853,1863,1863,1873,1873,1873,1873,1873,1883,1883,1883,1883,1894,1904,1904,1915,1915,1915,1915,1926,1915,1915,1915,1915,1915,1915,1926,1926,1926,0,0,0,0,0,0,1130,1130,1130,1130,1126,1126,1123,1119,1119,1119,1115,1115,1115,1115,1119,1119,1119,1123,1126,1130,1130,1130,1134,1134,1134,1134,0,0,0,0,1804,1794,1794,1794,1785,1776,1776,1776,1766,1766,1766,1766,1766,1757,1757,1757,1748,1748,1739,1739,1739,1739,1731,1731,1731,1722,1722,1722,1722,1722,1713,1705,1705,1705,1705,1705,1705,1696,1696,1696,1696,1696,1688,1688,1680,1671,1671,1671,1663,1663,1663,1663,1663,1655,1655,1655,1647,1639,1639,1639,1639,1632,1632,1632,1632,1624,1624,1616,1616,1609,1609,1609,1601,1601,1601,1594,1594,1586,1586,1586,1586,1579,1579,1579,1572,1572,1572,1564,1564,1557,1557,0,0,0,0,0,0,0,0,0,928,928,928,928,928,925,925,920,920,918,918,918,915,915,915,915,915,918,918,920,923,925,928,933,935,935,938,938,938,0,1470,1470,1470,1470,1470,1464,1464,1464,1464,1458,1452,1445,1445,1445,1445,1445,1445,1439,1439,1439,1439,1439,1439,1433,1433,1433,1427,1421,1421,1421,1415,1415,1415,1415,1410,1404,1404,1404,1398,1398,1398,1398,1398,1392,1392,1392,1392,1392,1387,1381,1376,1376,1376,1370,1370,1370,1370,1370,1365,1359,1359,1354,1354,1354,1354,1354,1354,1354,1354,1349,1349,1349,1343,1343,1338,1338,1333,1333,1333,1333,1328,1328,1322,1322,1322,1317,1317,1312,1312,1312,1312,1312,1307,1307,1307,1302,1302,1297,1297,1292,1292,1292,1288,1288,1288,1288,1283,1283,1283,1278,1278,1273,1273,1273,1273,1268,1268,1268,1268,1268,1264,1264,1259,1255,1255,1255,1250,1250,1250,1250,1250,1245,1245,1241,1241,1236,1236,1236,1236,1232,1232,1232,1227,1227,1223,1223,1223,1219,1219,1219,1219,1214,1214,1214,1214,1214,1210,1210,1210,1206,1206,1202,1202,1202,1197,1197,1193,1193,1193,1193,1193,1189,1189,1185,1185,1181,1181,1181,1181,1181,1177,1177,1177,1177,1177,1173,1173,1173,1169,1169,1165,1165,1165,1165,0,0,0,0,0,0,0,0,0,0,0,0,0,0,0,0,0,0,0,0,0,0,0,0,0,0,0,0,0,0,0
0,0,0,0,0,0,0,0,0,0,0,0,0,1731,1731,1731,1731,1731,1731,1739,1731,1731,1739,1739,1739,1731,1731,1731,1739,1731,1731,1731,1731,1731,1722,1722,1722,1722,1722,1722,1731,1731,1731,1731,1731,1722,1722,1722,1722,1722,1713,1713,1713,1713,1705,1705,1713,1713,1713,1713,1713,1713,1713,1713,1713,1713,1713,1705,1705,1705,1713,1705,1705,1705,1705,1705,1705,1705,1696,1696,1696,1696,1696,1696,1696,1696,1696,1696,1696,1696,1696,1696,1705,1705,1696,1696,1696,1696,1696,1696,1696,1696,1696,1696,1696,1688,1688,1688,1688,1688,1688,1688,1688,1688,1688,1688,1680,1680,1680,1680,1680,1671,1671,1671,1671,1680,1680,1680,1688,1688,1688,1688,1688,1688,1688,1688,1688,1688,1680,1680,1813,1823,1823,1823,1823,1823,1833,1833,1833,1833,1823,1813,1813,1804,1804,1804,1804,1794,1794,1785,1696,1696,1696,1696,1688,1688,1688,1688,1688,1688,1696,1696,1696,1705,1705,1713,1722,1722,1722,1722,1731,1731,1731,1731,1739,1739,1748,1748,1757,1757,1757,1766,1766,1766,1766,1776,1776,1785,1785,1785,1794,1794,1794,1794,1804,1804,1804,1804,1813,1813,1823,1833,1833,1843,1843,1843,1843,1853,1853,1853,1863,1863,1863,1873,1873,1873,1873,1883,1883,1883,1883,1883,1894,1904,1904,1915,1915,1915,1915,1926,1915,1915,1915,1915,1915,1915,0,0,0,0,0,0,0,0,1130,1130,1130,1130,1130,1126,1126,1123,1119,1119,1119,1115,1115,1115,1115,1119,1119,1119,1123,1126,1130,1130,1130,1134,1134,1134,1134,0,0,0,1804,1804,1794,1794,1794,1785,1785,1776,1776,1766,1766,1766,1766,1766,1757,1757,1757,1748,1748,1748,1739,1739,1739,1731,1731,1731,1722,1722,1722,1722,1713,1713,1705,1696,1696,1705,1705,1705,1705,1705,1696,1696,1696,1688,1688,1680,1680,1671,1671,1671,1663,1663,1663,1663,1663,1655,1655,1647,1639,1639,1639,1632,1632,1632,1632,1632,1624,1624,1616,1616,1609,1609,1609,1601,1601,1601,1594,1594,1594,1586,1586,1586,1579,1579,1579,1572,1572,1572,1572,1564,1557,1557,0,0,0,0,0,0,0,0,0,928,928,928,928,928,925,925,923,920,918,918,918,915,915,915,915,915,918,918,920,923,925,928,933,935,935,938,0,0,0,0,1470,1470,1470,1470,1464,1464,1464,1464,1458,1458,1452,1445,1445,1445,1445,1445,1445,1445,1439,1439,1439,1439,1439,1433,1433,1427,1421,1421,1421,1415,1415,1415,1415,1410,1410,1404,1404,1404,1398,1398,1398,1398,1398,1392,1392,1392,1392,1387,1381,1381,1376,1376,1376,1376,1370,1370,1370,1365,1365,1359,1359,1359,1354,1354,1354,1354,1354,1354,1349,1349,1349,1343,1343,1338,1338,1333,1333,1333,1333,1328,1328,1328,1322,1322,1317,1317,1317,1312,1312,1312,1312,1307,1307,1307,1302,1302,1297,1297,1292,1292,1292,1292,1288,1288,1288,1288,1283,1283,1278,1278,1273,1273,1273,1273,1268,1268,1268,1268,1268,1268,1264,1259,1255,1255,1255,1250,1250,1250,1250,1250,1245,1245,1241,1241,1236,1236,1236,1236,1232,1232,1232,1232,1227,1227,1223,1223,1219,1219,1219,1219,1214,1214,1214,1214,1214,1210,1210,1210,1210,1206,1202,1202,1202,1197,1197,1193,1193,1193,1193,1193,1189,1189,1185,1185,1181,1181,1181,1181,1181,1177,1177,1177,1177,1177,1173,1173,1169,1169,1169,1165,1165,1165,1165,0,0,0,0,0,0,0,0,0,0,0,0,0,0,0,0,0,0,0,0,0,0,0,0,0,0,0,0,0,0,0
0,0,0,0,0,0,0,0,0,0,0,0,0,1739,1739,1731,1731,1739,1739,1739,1739,1739,1739,1739,1739,1739,1731,1731,1731,1731,1731,1731,1731,1731,1722,1722,1722,1722,1722,1722,1731,1731,1731,1731,1731,1722,1722,1722,1722,1722,1722,1713,1713,1713,1713,1713,1713,1713,1713,1713,1713,1713,1713,1713,1713,1705,1705,1705,1705,1705,1713,1705,1705,1705,1705,1705,1705,1705,1705,1705,1696,1696,1696,1696,1696,1696,1696,1696,1696,1696,1696,1696,1696,1696,1696,1696,1696,1696,1696,1696,1696,1696,1696,1696,1696,1688,1688,1688,1688,1688,1688,1688,1688,1688,1688,1688,1688,1680,1680,1680,1671,1671,1671,1671,1671,1680,1680,1688,1688,1688,1688,1688,1688,1688,1688,1688,1688,1688,1688,1688,1823,1823,1823,1823,1823,1823,1833,1833,1833,1833,1823,1813,1813,1804,1804,1804,1804,1794,1794,1785,1696,1696,1696,1696,1696,1688,1688,1688,1688,1688,1696,1696,1696,1705,1713,1713,1722,1722,1722,1722,1731,1731,1731,1739,1739,1739,1748,1748,1757,1757,1757,1766,1766,1766,1766,1776,1776,1785,1785,1785,1794,1794,1794,1804,1804,1804,1804,1804,1813,1813,1823,1823,1833,1843,1843,1843,1843,1853,1853,1853,1863,1863,1863,1873,1873,1873,1873,1883,1883,1883,1883,1894,1894,1904,1904,1915,1915,1915,1926,1926,1915,1915,1915,1915,1915,1915,0,0,0,0,0,0,0,0,1130,1130,1130,1130,1126,1126,1123,1123,1119,1119,1119,1115,1115,1115,1115,1119,1119,1123,1126,1126,1130,1130,1134,1134,1134,1138,1138,0,0,0,1804,1804,1794,1794,1794,1785,1785,1776,1776,1766,1766,1766,1766,1766,1757,1757,1757,1748,1748,1748,1739,1739,1739,1731,1731,1731,1722,1722,1722,1722,1713,1713,1705,1696,1696,1705,1705,1705,1705,1705,1696,1696,1696,1688,1688,1680,1680,1671,1671,1671,1663,1663,1663,1663,1663,1655,1655,1647,1639,1639,1639,1632,1632,1632,1632,1632,1632,1624,1616,1616,1609,1609,1609,1601,1601,1601,1601,1594,1594,1586,1586,1586,1579,1579,1579,1579,1579,1572,1572,1572,1564,1564,0,0,0,0,0,0,0,0,0,928,928,928,928,928,925,923,920,920,918,918,918,915,915,915,915,915,918,918,920,923,928,930,933,935,935,938,938,0,0,0,1470,1470,1470,1470,1464,1464,1464,1464,1458,1458,1452,1445,1445,1445,1445,1445,1445,1445,1439,1439,1439,1439,1439,1439,1433,1427,1427,1421,1421,1415,1415,1415,1415,1410,1410,1404,1404,1404,1404,1398,1398,1398,1398,1398,1392,1392,1392,1387,1381,1381,1376,1376,1376,1376,1370,1370,1370,1370,1365,1365,1359,1359,1354,1354,1354,1354,1354,1354,1349,1349,1349,1343,1343,1338,1338,1333,1333,1333,1333,1328,1328,1328,1322,1322,1322,1322,1317,1317,1312,1312,1312,1307,1307,1307,1302,1302,1297,1297,1297,1292,1292,1292,1292,1288,1288,1288,1283,1283,1278,1278,1273,1273,1273,1273,1268,1268,1268,1268,1268,1268,1264,1259,1255,1255,1255,1250,1250,1250,1250,1250,1245,1245,1241,1241,1236,1236,1236,1236,1232,1232,1232,1232,1227,1227,1223,1223,1219,1219,1219,1219,1219,1214,1214,1214,1214,1210,1210,1206,1206,1206,1202,1202,1197,1197,1197,1197,1193,1193,1193,1193,1189,1189,1185,1185,1185,1181,1181,1181,1181,1181,1177,1177,1177,1177,1173,1173,1169,1169,1169,1165,1165,1165,1165,0,0,0,0,0,0,0,0,0,0,0,0,0,0,0,0,0,0,0,0,0,0,0,0,0,0,0,0,0,0,0
0,0,0,0,0,0,0,0,0,0,0,0,0,1739,1739,1739,1739,1748,1748,1748,1739,1739,1739,1739,1739,1739,1731,1731,1731,1731,1731,1731,1731,1731,1722,1722,1722,1722,1731,1731,1731,1731,1731,1731,1731,1722,1722,1722,1722,1722,1722,1713,1713,1713,1713,1713,1713,1713,1722,1713,1713,1713,1713,1713,1713,1705,1705,1705,1705,1713,1713,1705,1705,1705,1705,1713,1713,1713,1705,1705,1696,1696,1696,1696,1696,1696,1696,1696,1696,1696,1696,1696,1696,1696,1696,1696,1696,1696,1696,1696,1696,1696,1696,1696,1696,1688,1688,1688,1688,1688,1688,1688,1688,1688,1688,1688,1688,1680,1680,1680,1671,1671,1671,1671,1671,1680,1688,1688,1688,1688,1688,1688,1688,1688,1688,1688,1688,1688,1688,1688,1823,1823,1823,1823,1823,1833,1833,1833,1833,1833,1823,1823,1813,1804,1804,1804,1804,1804,1794,1696,1696,1696,1696,1696,1688,1688,1688,1696,1688,1688,1696,1696,1705,1705,1713,1713,1722,1722,1722,1722,1731,1731,1731,1739,1739,1748,1748,1748,1757,1757,1757,1766,1766,1766,1766,1776,1776,1785,1785,1794,1794,1794,1794,1804,1804,1804,1804,1804,1813,1813,1823,1823,1833,1833,1843,1843,1843,1853,1853,1863,1863,1863,1873,1873,1873,1873,1883,1883,1883,1883,1894,1894,1894,1904,1904,1915,1915,1915,1926,1926,1915,1915,1915,1915,1915,1915,0,0,0,0,0,0,0,0,1130,1130,1130,1130,1126,1126,1123,1123,1119,1119,1119,1115,1115,1115,1115,1119,1119,1123,1126,1126,1130,1130,1134,1134,1134,1138,1138,0,0,0,0,1804,1794,1794,1794,1785,1785,1776,1776,1776,1776,1766,1766,1766,1766,1757,1757,1757,1748,1748,1748,1739,1739,1731,1731,1731,1731,1722,1722,1722,1713,1713,1705,1705,1705,1705,1705,1705,1705,1705,1696,1696,1696,1688,1688,1680,1680,1671,1671,1671,1663,1663,1663,1663,1663,1655,1655,1647,1639,1639,1639,1632,1632,1632,1632,1632,1624,1624,1616,1616,1609,1609,1609,1601,1601,1601,1601,1594,1594,1586,1586,1586,1579,1579,1579,1579,1579,1572,1572,1572,1564,1564,0,0,0,0,0,0,0,0,930,928,928,928,928,928,925,923,920,920,918,918,915,915,915,915,915,915,918,918,920,923,928,930,933,935,935,938,0,0,0,0,1470,1470,1470,1470,1464,1464,1464,1464,1464,1458,1452,1452,1452,1445,1445,1445,1445,1445,1439,1439,1439,1439,1439,1439,1433,1427,1427,1421,1421,1415,1415,1415,1415,1415,1410,1404,1404,1404,1404,1398,1398,1398,1398,1398,1392,1392,1392,1387,1387,1381,1376,1376,1376,1376,1376,1370,1370,1370,1365,1365,1365,1359,1359,1354,1354,1354,1354,1349,1349,1349,1349,1343,1343,1338,1338,1333,1333,1333,1333,1333,1328,1328,1322,1322,1322,1322,1317,1317,1312,1312,1312,1307,1307,1307,1302,1302,1297,1297,1297,1292,1292,1292,1292,1288,1288,1288,1288,1283,1283,1278,1273,1273,1273,1273,1268,1268,1268,1268,1264,1264,1264,1259,1255,1255,1255,1255,1250,1250,1250,1250,1250,1245,1245,1245,1241,1236,1236,1236,1232,1232,1232,1232,1227,1227,1223,1223,1219,1219,1219,1219,1219,1214,1214,1214,1214,1210,1210,1206,1206,1206,1202,1202,1197,1197,1197,1193,1193,1193,1193,1193,1189,1189,1185,1185,1185,1185,1181,1181,1181,1181,1181,1177,1177,1177,1173,1173,1169,1169,1169,1169,1165,1165,1165,0,0,0,0,0,0,0,0,0,0,0,0,0,0,0,0,0,0,0,0,0,0,0,0,0,0,0,0,0,0,0
0,0,0,0,0,0,0,0,0,0,0,0,0,1739,1739,1739,1739,1748,1748,1748,1739,1731,1731,1731,1731,1731,1731,1731,1731,1731,1731,1731,1731,1731,1731,1731,1731,1731,1731,1731,1731,1731,1731,1722,1722,1722,1722,1722,1722,1722,1722,1722,1722,1722,1722,1722,1722,1722,1722,1722,1722,1713,1713,1713,1713,1713,1713,1705,1705,1713,1713,1713,1705,1705,1705,1713,1713,1713,1713,1705,1705,1705,1705,1696,1696,1696,1696,1696,1696,1696,1696,1696,1696,1696,1696,1696,1705,1705,1696,1696,1696,1696,1696,1696,1696,1688,1688,1688,1688,1688,1688,1688,1688,1688,1688,1688,1688,1680,1680,1680,1680,1680,1671,1671,1671,1680,1688,1688,1688,1688,1688,1688,1688,1688,1688,1696,1688,1688,1688,1688,1823,1823,1833,1833,1833,1833,1833,1833,1833,1833,1823,1823,1813,1804,1804,1804,1804,1804,1794,1696,1696,1696,1688,1688,1688,1688,1688,1696,1688,1688,1696,1696,1696,1705,1705,1713,1722,1722,1722,1731,1731,1731,1731,1739,1748,1748,1748,1748,1757,1757,1757,1766,1766,1766,1766,1776,1785,1785,1794,1794,1794,1794,1794,1804,1804,1804,1804,1813,1813,1823,1823,1833,1833,1833,1843,1843,1853,1853,1853,1863,1863,1863,1873,1873,1873,1873,1883,1883,1883,1883,1894,1894,1894,1904,1904,1915,1915,1915,1926,1926,1915,1915,1915,1915,1904,1904,0,0,0,0,0,0,0,0,0,1130,1130,1130,1126,1126,1123,1123,1119,1119,1119,1115,1115,1115,1115,1119,1119,1123,1126,1130,1130,1130,1134,1134,1134,1138,1138,0,0,0,1804,1804,1794,1794,1794,1785,1785,1785,1776,1776,1776,1776,1766,1766,1766,1757,1757,1757,1757,1748,1748,1739,1739,1739,1731,1731,1731,1722,1722,1722,1713,1713,1705,1705,1705,1705,1705,1705,1705,1705,1696,1696,1696,1688,1688,1680,1680,1671,1671,1671,1671,1663,1663,1663,1663,1655,1655,1647,1647,1639,1639,1632,1632,1632,1632,1632,1624,1624,1616,1616,1609,1609,1609,1601,1601,1601,1601,1594,1594,1586,1586,1586,1579,1579,1579,1579,1579,1572,1572,1572,1572,1572,0,0,0,0,0,0,0,930,930,928,928,928,928,928,925,923,920,920,918,918,915,915,915,915,915,915,918,918,920,925,930,933,935,935,938,938,938,0,1470,1470,1470,1470,1470,1470,1470,1464,1464,1464,1464,1458,1458,1452,1452,1445,1445,1445,1445,1445,1439,1439,1439,1439,1439,1433,1433,1427,1427,1421,1421,1421,1415,1415,1415,1415,1415,1410,1410,1404,1404,1404,1398,1398,1398,1398,1398,1392,1392,1392,1387,1381,1381,1376,1376,1376,1376,1370,1370,1370,1370,1365,1365,1359,1359,1354,1354,1354,1354,1349,1349,1349,1349,1349,1343,1338,1338,1333,1333,1333,1333,1333,1333,1328,1328,1322,1322,1322,1317,1317,1312,1312,1312,1307,1307,1307,1302,1302,1302,1297,1297,1292,1292,1292,1292,1288,1288,1288,1283,1283,1283,1278,1273,1273,1273,1273,1268,1268,1268,1268,1264,1264,1264,1259,1255,1255,1255,1255,1250,1250,1250,1250,1250,1250,1245,1245,1241,1236,1236,1236,1232,1232,1232,1232,1232,1227,1227,1223,1223,1219,1219,1219,1219,1214,1214,1214,1214,1210,1210,1210,1206,1206,1202,1202,1197,1197,1197,1193,1193,1193,1193,1193,1189,1189,1189,1189,1185,1185,1185,1181,1181,1181,1181,1177,1177,1177,1173,1173,1169,1169,1169,1169,1165,1165,1165,0,0,0,0,0,0,0,0,0,0,0,0,0,0,0,0,0,0,0,0,0,0,0,0,0,0,0,0,0,0,0
0,0,0,0,0,0,0,0,0,0,0,0,0,1739,1739,1739,1739,1748,1739,1739,1739,1731,1731,1731,1731,1722,1722,1722,1731,1731,1731,1731,1731,1731,1731,1731,1731,1731,1731,1731,1731,1731,1722,1722,1722,1722,1722,1722,1722,1722,1722,1722,1722,1722,1722,1722,1722,1722,1722,1722,1722,1722,1713,1713,1713,1713,1713,1705,1705,1713,1713,1705,1705,1705,1713,1713,1713,1713,1713,1713,1713,1713,1705,1696,1696,1696,1696,1696,1696,1696,1696,1696,1696,1696,1696,1705,1705,1705,1696,1696,1696,1696,1696,1696,1696,1688,1688,1688,1688,1688,1688,1688,1688,1688,1688,1688,1688,1680,1680,1680,1680,1680,1671,1671,1680,1688,1688,1688,1688,1688,1688,1688,1696,1696,1696,1696,1696,1696,1696,1696,1823,1833,1833,1833,1833,1833,1833,1833,1833,1833,1823,1823,1813,1813,1804,1804,1804,1804,1794,1696,1696,1696,1688,1688,1688,1688,1688,1696,1688,1688,1696,1696,1696,1705,1705,1713,1722,1722,1722,1731,1731,1731,1731,1731,1739,1739,1748,1748,1757,1757,1757,1766,1766,1766,1766,1776,1785,1785,1794,1794,1794,1794,1804,1804,1804,1804,1804,1813,1813,1823,1823,1833,1833,1833,1843,1853,1853,1853,1863,1863,1863,1863,1873,1873,1873,1873,1883,1883,1883,1894,1894,1894,1904,1904,1904,1915,1915,1926,1926,1926,1926,1915,1915,1915,1904,1904,0,0,0,0,0,0,0,0,0,1126,1126,1126,1126,1123,1123,1123,1119,1119,1119,1119,1115,1115,1119,1119,1123,1126,1126,1130,1130,1130,1134,1134,1134,1134,1138,1138,0,1813,1813,1804,1794,1794,1794,1794,1785,1785,1785,1776,1776,1776,1776,1766,1766,1766,1757,1757,1757,1748,1748,1739,1739,1739,1731,1731,1731,1722,1722,1722,1722,1722,1713,1705,1705,1705,1705,1705,1705,1705,1696,1696,1696,1696,1688,1688,1680,1671,1671,1671,1671,1663,1663,1663,1663,1663,1655,1655,1647,1647,1639,1632,1632,1632,1632,1632,1632,1624,1616,1616,1609,1609,1609,1601,1601,1601,1601,1594,1594,1594,1586,1586,1586,1579,1579,1579,1579,1572,1572,1572,1572,1572,1572,0,0,0,0,0,0,930,928,928,928,928,928,925,925,923,920,920,918,918,915,915,915,915,915,915,918,918,920,925,930,933,935,935,938,0,0,0,0,1470,1470,1470,1470,1470,1470,1464,1464,1464,1464,1464,1458,1458,1458,1452,1445,1445,1445,1445,1439,1439,1439,1439,1439,1433,1433,1427,1427,1421,1421,1421,1415,1415,1415,1415,1415,1410,1410,1404,1404,1404,1398,1398,1398,1398,1398,1392,1392,1392,1387,1387,1381,1376,1376,1376,1376,1370,1370,1370,1370,1365,1365,1359,1359,1354,1354,1354,1354,1349,1349,1349,1349,1349,1343,1343,1338,1338,1333,1333,1333,1333,1333,1328,1328,1322,1322,1322,1322,1317,1312,1312,1312,1312,1307,1307,1307,1307,1302,1297,1297,1292,1292,1292,1292,1288,1288,1288,1283,1283,1283,1278,1273,1273,1273,1273,1268,1268,1268,1268,1264,1264,1259,1259,1255,1255,1255,1255,1250,1250,1250,1250,1250,1250,1250,1245,1241,1236,1236,1236,1232,1232,1232,1232,1232,1227,1227,1223,1223,1223,1223,1219,1219,1219,1214,1214,1214,1210,1210,1206,1206,1206,1202,1202,1197,1197,1197,1193,1193,1193,1193,1193,1189,1189,1189,1189,1185,1185,1185,1181,1181,1181,1181,1177,1177,1177,1173,1173,1169,1169,1169,1169,1165,1165,1165,0,0,0,0,0,0,0,0,0,0,0,0,0,0,0,0,0,0,0,0,0,0,0,0,0,0,0,0,0,0,0
0,0,0,0,0,0,0,0,0,0,0,0,1739,1739,1739,1739,1739,1748,1739,1739,1739,1739,1731,1731,1731,1722,1722,1722,1731,1731,1731,1731,1731,1731,1731,1731,1731,1731,1731,1731,1731,1731,1722,1722,1722,1722,1722,1722,1722,1722,1722,1722,1722,1722,1722,1722,1722,1722,1722,1722,1722,1722,1713,1713,1713,1713,1713,1705,1705,1713,1713,1705,1705,1705,1713,1713,1713,1713,1713,1713,1713,1713,1713,1705,1705,1705,1696,1696,1696,1696,1696,1696,1696,1696,1696,1705,1705,1705,1696,1696,1696,1696,1696,1696,1696,1696,1688,1688,1688,1688,1688,1688,1688,1688,1688,1688,1688,1688,1688,1680,1680,1680,1680,1680,1680,1688,1688,1688,1688,1688,1688,1688,1696,1696,1696,1696,1696,1696,1696,1696,1823,1823,1833,1833,1833,1833,1833,1833,1833,1833,1823,1823,1813,1813,1804,1804,1804,1804,1794,1696,1696,1696,1688,1688,1688,1688,1688,1696,1696,1696,1696,1696,1696,1705,1705,1713,1713,1722,1722,1722,1731,1731,1731,1731,1739,1739,1748,1748,1757,1757,1757,1766,1766,1766,1776,1776,1785,1785,1794,1794,1794,1794,1804,1804,1804,1804,1804,1813,1813,1823,1833,1833,1833,1843,1843,1843,1853,1853,1863,1863,1863,1873,1873,1873,1873,1883,1883,1883,1883,1894,1894,1894,1904,1904,1915,1915,1915,1926,1926,1926,1926,1926,1915,1915,1915,0,0,0,0,0,0,0,0,0,0,1126,1126,1126,1126,1123,1123,1123,1119,1119,1119,1119,1119,1119,1119,1119,1123,1126,1126,1130,1134,1134,1134,1134,1134,1134,1138,0,0,0,1813,1804,1804,1794,1794,1794,1794,1785,1785,1785,1785,1776,1776,1766,1766,1766,1757,1757,1757,1757,1748,1739,1739,1739,1731,1731,1731,1731,1722,1722,1722,1722,1713,1713,1713,1713,1705,1705,1705,1705,1696,1696,1696,1696,1688,1688,1680,1671,1671,1671,1671,1663,1663,1663,1663,1663,1655,1655,1655,1647,1639,1632,1632,1632,1632,1632,1632,1624,1624,1616,1616,1609,1609,1609,1601,1601,1601,1601,1594,1594,1594,1594,1586,1579,1579,1579,1579,1579,1579,1572,1572,1572,1572,0,0,0,0,0,0,930,928,928,928,928,928,925,925,923,920,920,918,918,915,915,915,915,915,918,918,920,923,925,930,933,935,935,938,0,0,0,1477,1470,1470,1470,1470,1470,1470,1470,1464,1464,1464,1464,1458,1458,1458,1452,1452,1445,1445,1445,1439,1439,1439,1439,1439,1433,1433,1427,1427,1427,1421,1421,1421,1415,1415,1415,1415,1410,1410,1410,1404,1404,1398,1398,1398,1398,1398,1392,1392,1392,1392,1387,1381,1376,1376,1376,1376,1376,1370,1370,1370,1365,1365,1359,1359,1354,1354,1354,1354,1349,1349,1349,1349,1349,1343,1343,1338,1338,1333,1333,1333,1333,1333,1333,1328,1328,1322,1322,1322,1317,1317,1312,1312,1312,1307,1307,1307,1307,1302,1297,1297,1297,1292,1292,1292,1292,1288,1288,1288,1283,1283,1278,1273,1273,1273,1273,1273,1268,1268,1268,1268,1268,1259,1259,1255,1255,1255,1255,1250,1250,1250,1250,1250,1250,1250,1245,1241,1241,1236,1236,1236,1232,1232,1232,1232,1227,1227,1223,1223,1223,1223,1219,1219,1219,1214,1214,1214,1210,1210,1206,1206,1206,1202,1202,1197,1197,1197,1193,1193,1193,1193,1193,1189,1189,1189,1189,1185,1185,1185,1185,1181,1181,1181,1177,1177,1177,1177,1173,1169,1169,1169,1169,1165,1165,1165,0,0,0,0,0,0,0,0,0,0,0,0,0,0,0,0,0,0,0,0,0,0,0,0,0,0,0,0,0,0,0
0,0,0,0,0,0,0,0,0,0,0,0,1731,1731,1739,1739,1739,1748,1748,1748,1739,1739,1739,1739,1731,1731,1731,1731,1731,1731,1731,1731,1731,1731,1731,1731,1731,1731,1731,1731,1731,1731,1731,1722,1722,1722,1722,1722,1722,1722,1722,1722,1722,1722,1722,1722,1722,1722,1722,1722,1722,1722,1722,1722,1722,1722,1722,1713,1713,1713,1713,1713,1713,1713,1713,1722,1713,1713,1713,1713,1713,1713,1713,1705,1705,1713,1705,1705,1696,1696,1696,1696,1696,1696,1705,1705,1705,1705,1696,1696,1696,1696,1696,1696,1696,1696,1696,1688,1688,1688,1688,1688,1688,1688,1688,1688,1688,1688,1688,1688,1688,1688,1680,1680,1688,1688,1688,1688,1688,1688,1688,1688,1696,1696,1696,1696,1696,1696,1696,1705,1823,1823,1833,1833,1833,1833,1833,1833,1833,1833,1833,1823,1823,1823,1813,1804,1804,1804,1794,1696,1696,1696,1696,1696,1696,1696,1696,1696,1696,1696,1696,1696,1696,1705,1705,1713,1713,1722,1722,1722,1731,1731,1731,1731,1739,1739,1748,1748,1757,1757,1757,1766,1766,1766,1766,1776,1785,1785,1794,1794,1794,1804,1804,1804,1804,1804,1813,1813,1823,1823,1833,1833,1833,1833,1843,1843,1843,1853,1853,1863,1863,1863,1873,1873,1873,1883,1883,1883,1883,1883,1894,1894,1904,1904,1915,1915,1915,1926,1926,1926,1926,1926,1915,1915,1915,0,0,0,0,0,0,0,0,0,0,1126,1126,1126,1126,1126,1123,1123,1119,1119,1119,1119,1119,1119,1119,1123,1123,1126,1130,1130,1134,1134,1134,1138,1138,1141,1141,1141,0,1813,1813,1804,1804,1794,1794,1794,1794,1794,1785,1785,1785,1785,1776,1776,1766,1766,1757,1757,1757,1748,1748,1739,1739,1739,1731,1731,1731,1731,1722,1722,1722,1722,1713,1713,1713,1713,1713,1705,1705,1705,1696,1696,1696,1696,1688,1688,1680,1671,1671,1671,1671,1663,1663,1663,1663,1663,1655,1655,1655,1647,1639,1639,1632,1632,1632,1632,1632,1624,1624,1616,1616,1616,1609,1609,1609,1609,1601,1601,1601,1594,1594,1594,1586,1586,1579,1579,1579,1579,1579,1572,1572,1572,1572,0,0,0,0,0,928,928,928,928,928,925,925,925,925,923,920,920,918,918,918,915,915,915,915,918,918,920,925,928,930,933,935,935,0,0,0,0,1477,1470,1470,1470,1470,1470,1470,1470,1464,1464,1464,1464,1458,1458,1458,1452,1452,1445,1445,1445,1445,1439,1439,1439,1433,1433,1433,1427,1427,1427,1421,1421,1421,1415,1415,1415,1415,1415,1410,1410,1404,1404,1398,1398,1398,1398,1398,1398,1392,1392,1392,1387,1381,1376,1376,1376,1376,1376,1370,1370,1370,1370,1365,1359,1359,1354,1354,1354,1354,1349,1349,1349,1349,1349,1343,1343,1338,1338,1338,1333,1333,1333,1333,1333,1328,1328,1322,1322,1322,1317,1317,1312,1312,1312,1307,1307,1307,1307,1302,1297,1297,1297,1292,1292,1292,1292,1288,1288,1288,1283,1283,1278,1273,1273,1273,1273,1273,1273,1268,1268,1268,1268,1259,1255,1255,1255,1255,1255,1250,1250,1250,1250,1250,1250,1250,1245,1241,1241,1236,1236,1236,1232,1232,1232,1232,1227,1227,1223,1223,1223,1223,1219,1219,1219,1219,1214,1214,1214,1210,1206,1206,1206,1202,1202,1197,1197,1197,1197,1193,1193,1193,1193,1189,1189,1189,1189,1185,1185,1185,1185,1181,1181,1181,1177,1177,1177,1177,1173,1173,1169,1169,1169,1165,1165,1165,0,0,0,0,0,0,0,0,0,0,0,0,0,0,0,0,0,0,0,0,0,0,0,0,0,0,0,0,0,0,0
