0,0,0,0,0,0,0,0,0,0,0,0,0,0,0,1632,1632,1632,1624,1609,1609,1609,1601,1601,1601,1601,1601,1601,1594,1594,1594,1594,1586,1579,1579,1579,1579,1579,1579,1579,1572,1572,1572,1572,1564,1564,1572,1564,1564,1564,1564,1564,1564,1564,1564,1564,1557,1550,1550,1550,1550,1550,1543,1543,1543,1536,1536,1536,1529,1529,1529,1529,1536,1536,1536,1536,1529,1529,1529,1529,1529,1523,1523,1523,1523,1523,1523,1523,1523,1523,1523,1523,1523,1523,1516,1516,1516,1516,1516,1516,1516,1516,1516,1516,1516,1516,1516,1516,1509,1509,1509,1509,1509,1516,1516,1516,1509,1509,1509,1509,1509,1509,1509,1509,1509,1509,1516,1529,1529,1536,1536,1529,1529,1529,1523,1523,0,0,0,0,0,0,0,0,0,0,0,0,0,0,0,0,0,0,1543,1536,1536,1523,1523,1523,1516,1516,1523,1523,1523,1523,1523,1523,1523,1529,1529,1536,1536,1543,1543,1543,1543,1550,1557,1564,1564,1564,1564,1564,1572,1572,1572,1572,1572,1579,1586,1586,1594,1594,1594,1601,1601,1601,1609,1609,1616,1616,1624,1624,1624,1624,1632,1632,1632,1632,1639,1639,1647,1647,1655,1655,1655,1655,1663,1663,1663,1663,1663,1688,1688,1688,1688,1688,1696,1696,1696,1696,1705,1713,1722,1722,1722,1722,1722,1722,1722,1722,1722,1722,1722,1722,1722,1722,1722,1713,1705,1696,1696,1688,1688,1688,1688,1688,1688,1688,1688,1688,1688,1680,1680,1680,1671,1671,1671,1671,1663,1663,1663,1663,1647,1647,0,0,0,0,0,0,0,0,0,0,0,0,0,0,0,0,0,0,0,0,0,0,0,0,0,0,0,0,0,0,0,0,0,0,0,0,0,0,0,0,0,0,0,0,0,0,0,0,0,0,0,0,0,0,0,0,0,0,0,0,0,0,0,0,0,0,0,0,0,0,0,0,0,0,0,0,0,0,0,0,0,0,0,0,0,0,0,0,0,0,0,0,0,0,0,0,0,0,0,0,0,0,0,0,0,0,0,0,0,0,0,0,0,0,0,0,0,0,0,0,0,0,0,0,0,0,0,0,0,0,0,0,0,0,0,0,0,0,0,0,0,0,0,0,0,0,0,0,0,0,0,0,0,0,0,0,0,0,0,0,0,0,0,0,0,0,0,0,0,0,0,0,0,0,0,0,0,0,0,0,0,0,0,0,0,0,0,0,0,0,0,0,0,0,0,0,0,0,0,0,0,0,0,0,0,0,0,0,0,0,0,0,0,0,0,0,0,0,0,0,0,0,0,0,0,0,0,0,0,0,0,0,0,0,0,0,0,0,0,0,0,0,0,0,0,0,0,0,0,0,0,0,0,0,0,0,0,0,0,0,0,0,0,0,0,0,0,0,0,0,0,0,0,0,0,0,0,0,0,0,0,0,0,0,0,0,0,0,0,0,0,0,0,0,0,0,0,0,0,0,0,0,0,0,0,0,0,0,0,0,0,0,0,0,0,0,0,0,0,0,0,0,0,0,0,0,0,0,0,0,0,0,0,0,0,0,0,0,0,0,0,0,0,0,0,0,0,0,0,0,0,0,0,0,0,0,0,0,0,0,0,0,0,0
0,0,0,0,0,0,0,0,0,0,0,0,0,0,0,1632,1632,1632,1624,1609,1609,1609,1601,1601,1601,1594,1594,1594,1594,1594,1594,1586,1579,1579,1579,1579,1579,1579,1579,1579,1579,1579,1579,1572,1572,1572,1572,1572,1572,1572,1572,1572,1572,1572,1564,1564,1550,1550,1550,1550,1550,1550,1550,1543,1543,1536,1536,1536,1529,1529,1529,1529,1536,1536,1536,1536,1529,1529,1529,1529,1529,1529,1529,1529,1529,1523,1523,1523,1523,1523,1523,1523,1523,1523,1523,1516,1516,1516,1516,1516,1516,1516,1516,1516,1516,1516,1516,1516,1509,1509,1509,1509,1516,1516,1516,1516,1509,1509,1509,1509,1509,1509,1509,1509,1509,1509,1516,1523,1529,1536,1536,1529,1529,1523,1523,1523,0,0,0,0,0,0,0,0,0,0,0,0,0,0,0,0,0,0,1543,1536,1536,1529,1523,1523,1516,1516,1516,1516,1523,1523,1523,1523,1523,1529,1529,1536,1536,1543,1550,1550,1550,1550,1557,1564,1564,1564,1564,1564,1572,1572,1572,1572,1579,1579,1586,1586,1594,1594,1594,1601,1601,1601,1609,1609,1616,1616,1624,1624,1624,1624,1632,1632,1632,1632,1639,1639,1647,1647,1655,1655,1655,1655,1663,1663,1663,1663,1663,1671,1680,1688,1688,1688,1688,1696,1696,1696,1696,1705,1713,1713,1713,1713,1722,1722,1722,1722,1722,1722,1722,1722,1722,1722,1722,1713,1705,1696,1696,1688,1688,1688,1688,1688,1688,1688,1688,1688,1688,1680,1680,1680,1671,1671,1671,1671,1663,1663,1663,1663,1647,1647,1639,1639,1639,1632,1632,1632,1632,1632,1624,1624,1624,1624,1616,1609,1609,1601,1601,1601,1601,1594,1594,1594,1594,1594,1586,1586,1572,1572,1572,1572,1572,1572,1564,1564,1564,1564,1557,1557,1557,1550,1550,1543,1543,1543,1543,1543,1543,1543,1536,1536,1529,1529,1529,1523,1523,1523,1523,1523,1516,1516,1509,1509,1509,1509,1503,1503,1496,1496,1496,1489,1489,1489,1489,1489,0,0,0,0,0,0,0,0,0,0,0,0,0,0,0,0,0,0,0,0,0,0,0,0,0,0,0,0,0,0,0,0,0,0,0,0,0,0,0,0,0,0,0,0,0,0,0,0,0,0,0,0,0,0,0,0,0,0,0,0,0,0,0,0,0,0,0,0,0,0,0,0,0,0,0,0,0,0,0,0,0,0,0,0,0,0,0,0,0,0,0,0,0,0,0,0,0,0,0,0,0,0,0,0,0,0,0,0,0,0,0,0,0,0,0,0,0,0,0,0,0,0,0,0,0,0,0,0,0,0,0,0,0,0,0,0,0,0,0,0,0,0,0,0,0,0,0,0,0,0,0,0,0,0,0,0,0,0,0,0,0,0,0,0,0,0,0,0,0,0,0,0,0,0,0,0,0,0,0,0,0,0,0,0,0,0,0,0,0,0,0,0,0,0,0,0,0,0,0,0,0,0,0,0,0,0,0,0,0,0,0,0,0,0,0,0,0,0,0,0,0,0,0,0,0,0,0,0,0,0,0,0,0,0,0,0,0,0,0,0,0,0,0,0,0,0,0,0,0,0,0,0,0,0,0,0,0,0,0,0,0,0,0,0,0,0,0,0,0,0,0,0,0,0,0,0,0,0,0,0,0,0,0,0,0,0,0,0,0,0
0,0,0,0,0,0,0,0,0,0,0,0,0,0,0,1632,1632,1632,1624,1609,1609,1609,1601,1594,1594,1594,1594,1594,1586,1586,1586,1586,1579,1579,1579,1579,1579,1579,1579,1579,1579,1579,1579,1579,1572,1572,1572,1572,1564,1564,1564,1564,1572,1572,1572,1564,1550,1550,1550,1550,1550,1550,1550,1543,1543,1543,1543,1536,1536,1536,1536,1536,1536,1536,1529,1529,1529,1529,1529,1529,1529,1529,1529,1529,1529,1523,1523,1523,1523,1523,1523,1523,1523,1523,1523,1523,1523,1516,1516,1516,1516,1516,1516,1516,1516,1516,1516,1516,1509,1509,1509,1509,1516,1516,1516,1516,1509,1509,1509,1509,1509,1509,1509,1509,1509,1509,1516,1523,1529,1536,1536,1523,1523,1523,1523,1523,0,0,0,0,0,0,0,0,0,0,0,0,0,0,0,0,0,0,1543,1536,1536,1529,1523,1523,1523,1516,1516,1516,1529,1529,1529,1529,1529,1529,1536,1536,1536,1543,1543,1550,1550,1550,1557,1564,1564,1564,1564,1564,1572,1572,1579,1579,1579,1586,1586,1586,1594,1594,1594,1601,1601,1609,1609,1609,1616,1616,1624,1624,1624,1632,1632,1632,1632,1632,1639,1639,1647,1647,1655,1655,1663,1663,1663,1663,1663,1663,1663,1671,1680,1680,1688,1688,1688,1696,1696,1696,1696,1705,1713,1713,1713,1713,1722,1722,1722,1722,1722,1722,1722,1731,1731,1722,1722,1722,1705,1696,1696,1688,1688,1688,1688,1688,1688,1688,1688,1688,1688,1680,1680,1680,1671,1671,1671,1671,1663,1663,1663,1663,1655,1647,1639,1639,1639,1632,1632,1632,1632,1632,1624,1624,1624,1624,1616,1609,1609,1601,1601,1601,1601,1594,1594,1594,1594,1594,1586,1586,1572,1572,1572,1572,1572,1572,1564,1564,1564,1557,1557,1557,1557,1550,1550,1543,1543,1543,1543,1543,1543,1543,1536,1536,1529,1523,1523,1523,1523,1523,1523,1523,1516,1516,1509,1509,1509,1509,1503,1503,1496,1496,1496,1489,1489,1489,1489,1489,1483,1483,1477,1470,1470,1470,1470,1464,1464,1464,1464,1458,1458,1452,1445,1445,1445,1445,1445,1439,1439,1439,1433,1433,1433,1433,1427,1427,1421,1421,1421,1421,1415,1415,1415,1415,1404,1404,1398,1398,1398,1398,1392,1392,1392,1392,1392,1392,1392,1392,1381,1381,1376,1376,1376,1370,1370,1370,1370,1365,1365,1365,1359,1354,1354,1354,1354,1349,1349,1349,1349,1343,1343,1338,1338,1333,1333,1333,1333,1333,1333,1328,1328,1322,1317,1317,1317,0,0,0,0,0,0,0,0,0,0,0,0,0,0,0,0,0,0,0,0,0,0,0,0,0,0,0,0,0,0,0,0,0,0,0,0,0,0,0,0,0,0,0,0,0,0,0,0,0,0,0,0,0,0,0,0,0,0,0,0,0,0,0,0,0,0,0,0,0,0,0,0,0,0,0,0,0,0,0,0,0,0,0,0,0,0,0,0,0,0,0,0,0,0,0,0,0,0,0,0,0,0,0,0,0,0,0,0,0,0,0,0,0,0,0,0,0,0,0,0,0,0,0,0,0,0,0,0,0,0,0,0,0,0,0,0,0,0,0,0,0,0,0,0,0,0,0,0,0,0,0,0,0,0,0,0,0,0,0,0,0,0,0,0,0,0,0,0,0,0,0,0,0,0,0,0,0,0,0,0,0,0,0,0,0,0,0,0,0,0,0,0,0,0,0,0,0,0,0,0,0,0,0
0,0,0,0,0,0,0,0,0,0,0,0,0,0,0,1632,1632,1632,1624,1609,1609,1609,1601,1594,1594,1594,1594,1594,1586,1586,1586,1586,1579,1579,1579,1579,1579,1579,1579,1579,1579,1579,1579,1579,1572,1572,1572,1572,1564,1564,1564,1564,1564,1564,1564,1564,1564,1564,1557,1557,1550,1550,1550,1550,1543,1543,1543,1543,1536,1536,1536,1536,1536,1536,1529,1529,1529,1529,1529,1529,1529,1529,1529,1529,1529,1529,1523,1523,1523,1523,1523,1523,1523,1523,1523,1523,1523,1523,1523,1516,1516,1516,1516,1516,1516,1516,1516,1516,1516,1516,1509,1509,1516,1516,1516,1516,1509,1509,1509,1509,1509,1509,1509,1509,1509,1509,1516,1523,1529,1536,1536,1523,1523,1523,1523,1523,0,0,0,0,0,0,0,0,0,0,0,0,0,0,0,0,0,0,1543,1536,1536,1529,1529,1529,1529,1529,1529,1529,1529,1529,1529,1529,1529,1529,1536,1536,1536,1543,1543,1550,1550,1564,1564,1564,1564,1572,1572,1572,1572,1572,1579,1579,1586,1586,1586,1586,1594,1594,1594,1601,1609,1609,1616,1616,1616,1616,1624,1624,1632,1632,1632,1632,1632,1639,1639,1647,1647,1647,1655,1655,1663,1663,1663,1663,1663,1663,1663,1680,1680,1680,1688,1688,1688,1696,1696,1696,1705,1705,1705,1713,1713,1713,1722,1722,1722,1722,1722,1722,1722,1731,1731,1731,1722,1722,1705,1705,1696,1696,1696,1696,1688,1688,1688,1688,1688,1688,1688,1680,1680,1680,1680,1671,1671,1663,1663,1663,1663,1663,1655,1655,1647,1647,1639,1632,1632,1632,1632,1632,1632,1624,1624,1624,1616,1609,1609,1601,1601,1601,1601,1594,1594,1594,1594,1594,1586,1586,1579,1579,1579,1572,1572,1572,1564,1564,1564,1557,1557,1557,1550,1550,1543,1543,1543,1543,1543,1543,1543,1543,1536,1536,1529,1523,1523,1523,1523,1523,1523,1523,1516,1516,1516,1516,1509,1503,1503,1496,1496,1496,1496,1489,1489,1489,1489,1489,1483,1483,1477,1470,1470,1470,1470,1464,1464,1464,1464,1458,1458,1452,1445,1445,1445,1445,1445,1439,1439,1439,1433,1433,1433,1427,1427,1427,1421,1421,1421,1421,1415,1415,1415,1410,1404,1404,1398,1398,1398,1398,1392,1392,1392,1392,1392,1392,1392,1392,1381,1381,1376,1376,1376,1370,1370,1370,1370,1365,1365,1365,1359,1354,1354,1354,1354,1349,1349,1349,1349,1343,1343,1338,1338,1333,1333,1333,1333,1333,1333,1328,1328,1322,1317,1317,1317,1317,1312,1312,1312,1312,1312,1312,1307,1307,1307,1302,1302,1302,1292,1292,1297,1292,1292,1292,1292,1288,1288,1283,1283,1278,1278,1273,1273,1273,1273,1268,1268,1268,1268,1264,1264,1259,1259,1255,1255,1250,1250,1250,1250,1250,1245,1245,1241,1241,1241,1241,1236,1236,1236,1232,1232,1232,1227,1227,1227,1227,1223,1223,1223,1223,1223,1219,1219,1219,1214,1214,1214,1214,1206,1206,1202,1202,1202,1202,1202,1197,1197,1197,1197,1197,1193,1193,1189,1189,1185,1185,1185,1185,1185,1181,1181,1181,1181,1177,1173,1173,1169,1169,1165,1165,1165,1165,1165,1165,0,0,0,0,0,0,0,0,0,0,0,0,0,0,0,0,0,0,0,0,0,0,0,0,0,0,0,0,0,0,0,0,0,0,0,0,0,0,0,0,0,0,0,0,0,0,0,0,0,0,0,0,0,0,0,0,0,0,0,0,0,0,0,0,0,0,0,0,0,0,0,0,0,0,0,0,0,0,0,0,0,0,0,0,0,0,0,0,0,0,0,0,0,0
0,0,0,0,0,0,0,0,0,0,0,0,0,0,0,1632,1632,1632,1624,1609,1609,1609,1601,1601,1601,1594,1594,1594,1594,1594,1594,1586,1586,1579,1579,1579,1579,1579,1579,1579,1579,1579,1579,1572,1572,1572,1572,1564,1564,1564,1564,1564,1564,1564,1564,1564,1564,1564,1557,1557,1550,1550,1550,1550,1543,1543,1543,1543,1536,1536,1536,1536,1536,1536,1536,1529,1529,1536,1536,1529,1529,1529,1529,1529,1529,1529,1523,1523,1523,1523,1523,1523,1523,1523,1523,1523,1523,1523,1523,1516,1516,1516,1516,1516,1516,1516,1516,1516,1516,1516,1509,1509,1516,1516,1516,1516,1509,1509,1509,1509,1509,1509,1509,1509,1509,1516,1516,1523,1529,1536,1529,1529,1529,1523,1523,1529,0,0,0,0,0,0,0,0,0,0,0,0,0,0,0,0,0,0,1543,1543,1536,1536,1529,1529,1529,1529,1523,1523,1529,1529,1529,1529,1536,1536,1536,1543,1543,1550,1550,1550,1550,1564,1564,1564,1564,1564,1572,1572,1572,1572,1579,1579,1586,1586,1586,1586,1594,1594,1594,1601,1601,1609,1616,1616,1616,1616,1624,1624,1632,1632,1632,1632,1639,1639,1639,1647,1647,1647,1655,1655,1663,1663,1663,1663,1663,1663,1663,1680,1680,1680,1688,1688,1696,1696,1696,1696,1696,1705,1705,1705,1713,1713,1722,1722,1722,1722,1722,1722,1731,1731,1731,1722,1722,1722,1705,1705,1696,1696,1696,1696,1688,1688,1688,1688,1688,1688,1688,1680,1680,1680,1680,1671,1671,1663,1663,1663,1663,1655,1655,1655,1647,1647,1639,1639,1639,1632,1632,1632,1632,1624,1624,1624,1616,1609,1609,1601,1601,1601,1601,1594,1594,1594,1594,1594,1586,1586,1579,1579,1579,1572,1572,1572,1564,1564,1564,1564,1557,1557,1550,1550,1543,1543,1543,1543,1543,1543,1543,1543,1536,1536,1529,1523,1523,1523,1523,1523,1523,1523,1516,1516,1516,1516,1509,1503,1496,1496,1496,1496,1496,1489,1489,1489,1489,1489,1489,1489,1477,1477,1477,1470,1470,1464,1464,1464,1464,1458,1458,1452,1452,1445,1445,1445,1445,1439,1439,1433,1433,1427,1427,1427,1427,1427,1421,1421,1421,1421,1421,1415,1415,1410,1410,1410,1398,1398,1398,1398,1392,1392,1392,1392,1392,1392,1392,1387,1381,1381,1376,1376,1376,1370,1370,1370,1370,1365,1365,1365,1359,1359,1354,1354,1354,1349,1349,1349,1349,1343,1343,1338,1338,1333,1333,1333,1333,1333,1333,1328,1328,1322,1317,1317,1317,1317,1312,1312,1312,1312,1312,1312,1307,1307,1302,1302,1297,1297,1292,1292,1297,1292,1292,1292,1288,1288,1288,1283,1283,1278,1278,1273,1273,1273,1273,1268,1268,1268,1268,1264,1264,1259,1259,1255,1255,1250,1250,1250,1250,1250,1245,1245,1241,1241,1241,1241,1236,1236,1236,1232,1232,1232,1227,1227,1227,1227,1223,1223,1223,1223,1219,1219,1219,1219,1214,1214,1214,1210,1206,1206,1202,1202,1202,1202,1202,1197,1197,1197,1197,1197,1193,1193,1189,1189,1185,1185,1185,1185,1181,1181,1181,1181,1177,1177,1173,1173,1169,1169,1165,1165,1165,1165,1165,1161,1161,1157,1157,1157,1157,1153,1153,1153,1153,1153,1149,1149,1145,1145,1145,1145,1141,1138,1138,1138,1134,1134,1134,1130,1130,1130,1130,1126,1126,1123,1123,1123,1119,1119,1119,1119,1119,1112,1108,1108,1108,1105,1105,1105,1105,1101,1097,1097,1097,1094,1094,1094,1090,1087,1087,1087,1084,1084,1080,1080,1080,1077,1077,1077,1077,1077,0,0,0,0,0,0,0,0,0,0,0,0,0,0,0,0,0,0,0,0,0,0,0,0,0,0,0,0
0,0,0,0,0,0,0,0,0,0,0,0,0,0,0,1632,1632,1632,1624,1624,1624,1624,1609,1601,1601,1594,1594,1594,1594,1594,1594,1594,1586,1586,1586,1586,1579,1579,1579,1579,1579,1579,1579,1572,1572,1572,1572,1564,1564,1564,1564,1564,1564,1564,1564,1564,1564,1564,1564,1557,1557,1557,1550,1550,1543,1543,1543,1543,1543,1536,1536,1536,1536,1536,1536,1529,1529,1536,1536,1529,1529,1536,1536,1536,1536,1529,1529,1529,1523,1523,1523,1523,1523,1523,1523,1523,1523,1523,1523,1523,1523,1516,1516,1516,1516,1516,1516,1516,1516,1516,1516,1516,1516,1516,1516,1516,1509,1509,1509,1509,1509,1509,1509,1509,1509,1516,1516,1523,1529,1536,1529,1529,1529,1529,1529,1529,0,0,0,0,0,0,0,0,0,0,0,0,0,0,0,0,0,0,1543,1543,1536,1536,1529,1529,1529,1529,1523,1523,1529,1529,1529,1529,1536,1536,1536,1543,1543,1550,1550,1557,1557,1564,1564,1564,1564,1564,1572,1572,1572,1572,1579,1579,1586,1586,1586,1586,1594,1594,1594,1601,1601,1609,1616,1616,1616,1624,1624,1624,1632,1632,1632,1632,1639,1639,1647,1647,1647,1647,1655,1655,1663,1663,1663,1663,1663,1663,1663,1680,1688,1688,1688,1688,1696,1696,1696,1696,1696,1696,1705,1705,1713,1713,1722,1722,1722,1722,1722,1722,1731,1731,1731,1722,1722,1722,1705,1705,1705,1696,1696,1696,1696,1688,1688,1688,1688,1688,1688,1680,1680,1680,1671,1671,1663,1663,1663,1663,1663,1655,1655,1655,1655,1655,1647,1639,1639,1632,1632,1632,1632,1624,1624,1624,1616,1609,1609,1601,1601,1601,1601,1601,1594,1594,1594,1594,1586,1586,1586,1579,1579,1572,1572,1572,1572,1564,1564,1564,1564,1557,1550,1550,1543,1543,1543,1536,1536,1543,1543,1543,1536,1536,1529,1523,1523,1523,1523,1523,1523,1523,1523,1516,1516,1516,1509,1503,1496,1489,1489,1496,1496,1489,1489,1489,1489,1489,1489,1489,1477,1477,1477,1470,1470,1464,1464,1464,1464,1458,1458,1452,1452,1445,1445,1445,1445,1439,1439,1433,1433,1427,1427,1427,1427,1427,1421,1421,1421,1421,1415,1415,1415,1410,1410,1410,1398,1398,1398,1398,1392,1392,1392,1392,1392,1392,1392,1387,1381,1381,1376,1376,1376,1376,1370,1370,1370,1370,1370,1365,1359,1359,1354,1354,1354,1349,1349,1349,1349,1343,1343,1338,1338,1338,1333,1333,1333,1333,1333,1328,1328,1322,1322,1322,1322,1317,1317,1317,1312,1312,1312,1312,1307,1307,1302,1302,1297,1297,1292,1292,1292,1292,1288,1288,1288,1288,1283,1283,1278,1278,1278,1273,1273,1273,1273,1268,1268,1268,1268,1264,1264,1259,1259,1255,1255,1250,1250,1250,1250,1250,1245,1245,1241,1241,1241,1241,1236,1236,1236,1232,1232,1232,1232,1227,1227,1227,1223,1223,1223,1219,1219,1219,1219,1219,1214,1214,1214,1210,1206,1206,1202,1202,1202,1202,1202,1197,1197,1197,1197,1197,1193,1189,1189,1189,1185,1185,1185,1185,1181,1181,1181,1181,1177,1177,1173,1169,1169,1169,1165,1165,1165,1165,1165,1161,1161,1157,1157,1157,1157,1153,1153,1153,1153,1153,1149,1145,1145,1145,1141,1141,1138,1138,1138,1138,1134,1134,1134,1130,1130,1130,1130,1126,1126,1123,1123,1119,1119,1119,1119,1119,1119,1108,1108,1108,1105,1105,1105,1105,1105,1101,1097,1097,1097,1094,1094,1090,1090,1087,1087,1087,1084,1084,1080,1080,1080,1077,1077,1077,1077,1077,0,0,0,0,0,0,0,0,0,0,0,0,0,0,0,0,0,0,0,0,0,0,0,0,0,0,0,0
0,0,0,0,0,0,0,0,0,0,0,0,0,0,0,1632,1632,1624,1624,1624,1624,1624,1601,1601,1601,1601,1601,1601,1594,1594,1594,1594,1594,1586,1586,1586,1586,1586,1586,1572,1572,1572,1572,1572,1572,1572,1564,1564,1564,1564,1564,1564,1564,1564,1564,1564,1564,1564,1564,1557,1557,1557,1550,1550,1550,1543,1543,1543,1543,1543,1536,1536,1543,1536,1536,1536,1536,1536,1536,1536,1536,1536,1536,1536,1536,1536,1529,1529,1529,1523,1523,1523,1523,1523,1523,1523,1523,1523,1523,1523,1523,1516,1516,1516,1516,1516,1516,1516,1516,1516,1516,1516,1516,1516,1516,1516,1509,1509,1509,1509,1509,1509,1509,1509,1509,1516,1516,1523,1529,1536,1536,1529,1529,1529,1529,0,0,0,0,0,0,0,0,0,0,0,0,0,0,0,0,0,0,0,0,1543,1543,1536,1536,1536,1529,1529,1529,1529,1529,1529,1529,1529,1536,1536,1536,1543,1543,1550,1557,1564,1564,1564,1564,1564,1564,1564,1572,1572,1572,1572,1579,1579,1586,1586,1586,1586,1594,1594,1594,1601,1609,1609,1616,1616,1616,1624,1624,1624,1632,1632,1632,1639,1639,1639,1647,1647,1647,1647,1647,1655,1663,1663,1663,1663,1663,1663,1680,1680,1680,1680,1688,1688,1688,1688,1688,1696,1696,1696,1696,1705,1713,1722,1722,1722,1722,1722,1722,1731,1731,1731,1731,1722,1722,1722,1722,1705,1705,1696,1696,1696,1696,1696,1696,1696,1688,1688,1688,1680,1680,1680,1671,1671,1663,1663,1655,1655,1663,1655,1655,1655,1655,1655,1647,1639,1639,1632,1632,1632,1632,1624,1624,1616,1616,1616,1609,1609,1601,1601,1601,1601,1594,1594,1594,1594,1594,1594,1586,1579,1579,1572,1572,1572,1572,1564,1564,1564,1564,1557,1550,1550,1543,1543,1543,1536,1536,1543,1543,1543,1543,1536,1529,1523,1523,1523,1523,1523,1523,1523,1516,1516,1516,1509,1509,1503,1496,1489,1489,1496,1496,1489,1489,1489,1489,1489,1489,1483,1483,1477,1477,1470,1470,1464,1464,1464,1464,1458,1458,1452,1452,1445,1445,1445,1445,1445,1439,1433,1433,1433,1433,1427,1427,1427,1427,1421,1421,1421,1415,1415,1415,1415,1410,1410,1398,1398,1398,1398,1398,1398,1392,1392,1392,1392,1392,1387,1381,1381,1376,1376,1376,1370,1370,1370,1370,1370,1370,1365,1359,1359,1354,1354,1354,1349,1349,1349,1349,1343,1343,1343,1338,1338,1333,1333,1333,1333,1333,1328,1328,1322,1322,1322,1322,1317,1317,1317,1317,1317,1312,1312,1312,1307,1302,1302,1297,1297,1292,1292,1292,1292,1288,1288,1288,1288,1283,1283,1278,1278,1278,1273,1273,1273,1273,1268,1268,1268,1268,1264,1264,1259,1259,1255,1255,1255,1250,1250,1250,1250,1245,1245,1245,1241,1241,1241,1241,1236,1236,1232,1232,1232,1232,1227,1227,1223,1223,1223,1223,1219,1219,1219,1219,1214,1214,1214,1214,1210,1210,1210,1206,1202,1202,1202,1202,1197,1197,1197,1197,1197,1193,1189,1189,1189,1185,1185,1185,1185,1181,1181,1181,1181,1177,1177,1173,1169,1169,1169,1165,1165,1165,1165,1165,1161,1161,1157,1157,1157,1157,1153,1153,1153,1153,1153,1149,1145,1145,1141,1141,1141,1138,1138,1138,1134,1134,1134,1134,1134,1134,1130,1130,1130,1126,1123,1123,1119,1119,1119,1119,1119,1119,1108,1108,1108,1105,1105,1105,1105,1105,1101,1097,1097,1097,1094,1094,1090,1090,1090,1087,1087,1084,1084,1084,1080,1080,1077,1077,1077,1077,1077,0,0,0,0,0,0,0,0,0,0,0,0,0,0,0,0,0,0,0,0,0,0,0,0,0,0,0,0
0,0,0,0,0,0,0,0,0,0,0,0,0,0,0,1632,1632,1624,1624,1624,1624,1624,1601,1601,1601,1601,1601,1601,1594,1594,1594,1594,1594,1586,1586,1586,1586,1586,1586,1572,1572,1572,1564,1564,1572,1564,1564,1564,1564,1564,1564,1564,1564,1557,1557,1564,1564,1564,1564,1557,1557,1550,1550,1543,1543,1543,1543,1543,1543,1543,1543,1543,1543,1536,1536,1536,1536,1536,1536,1536,1536,1536,1536,1536,1536,1536,1529,1529,1529,1523,1523,1523,1523,1523,1523,1523,1523,1523,1523,1523,1523,1516,1516,1516,1516,1516,1516,1516,1516,1516,1516,1516,1516,1516,1516,1516,1509,1509,1509,1509,1509,1509,1509,1509,1516,1516,1516,1523,1529,1529,1536,1536,1536,1536,0,0,0,0,0,0,0,0,0,0,0,0,0,0,0,0,0,0,0,0,0,1543,1543,1536,1536,1536,1529,1529,1529,1529,1529,1529,1529,1529,1536,1536,1536,1543,1550,1557,1557,1564,1564,1564,1564,1564,1564,1564,1572,1572,1572,1579,1579,1586,1586,1594,1594,1594,1594,1594,1601,1601,1609,1609,1616,1616,1616,1624,1624,1632,1632,1632,1639,1639,1639,1639,1639,1639,1647,1647,1647,1655,1663,1663,1663,1663,1663,1671,1671,1671,1680,1680,1688,1688,1688,1688,1688,1696,1696,1696,1696,1705,1722,1722,1722,1722,1722,1722,1731,1731,1731,1731,1731,1722,1722,1722,1722,1722,1705,1705,1705,1705,1696,1696,1696,1696,1696,1688,1688,1688,1680,1680,1680,1671,1663,1663,1655,1655,1663,1655,1655,1655,1655,1655,1647,1647,1647,1639,1632,1632,1632,1624,1624,1616,1616,1609,1609,1609,1601,1601,1601,1601,1601,1594,1594,1594,1594,1594,1586,1579,1572,1572,1572,1572,1572,1564,1564,1564,1564,1557,1550,1550,1543,1543,1543,1536,1536,1543,1543,1543,1536,1536,1529,1523,1523,1523,1523,1523,1523,1523,1516,1516,1516,1509,1509,1503,1503,1496,1496,1496,1496,1489,1489,1489,1489,1489,1489,1483,1483,1483,1477,1470,1470,1464,1464,1464,1464,1464,1464,1458,1452,1452,1445,1445,1445,1445,1439,1439,1433,1433,1433,1427,1427,1427,1421,1421,1421,1421,1415,1415,1415,1415,1410,1410,1404,1398,1398,1398,1398,1398,1392,1392,1392,1392,1392,1392,1381,1381,1381,1376,1376,1370,1370,1370,1370,1370,1370,1365,1359,1354,1354,1354,1354,1349,1349,1349,1349,1349,1343,1343,1343,1338,1333,1333,1333,1333,1333,1328,1328,1328,1322,1322,1322,1317,1317,1317,1317,1312,1312,1312,1312,1307,1302,1302,1297,1297,1292,1292,1292,1292,1288,1288,1288,1288,1288,1283,1283,1278,1278,1278,1273,1273,1273,1268,1268,1268,1268,1264,1264,1264,1259,1255,1255,1255,1255,1250,1250,1250,1245,1245,1245,1241,1241,1241,1241,1236,1236,1232,1232,1232,1232,1227,1227,1223,1223,1223,1223,1223,1223,1219,1219,1214,1214,1214,1214,1210,1210,1210,1206,1202,1202,1202,1202,1197,1197,1197,1197,1197,1197,1193,1189,1189,1185,1185,1185,1185,1185,1181,1181,1181,1177,1177,1173,1169,1169,1165,1165,1165,1165,1165,1165,1161,1161,1161,1161,1157,1157,1157,1157,1153,1153,1153,1149,1145,1145,1141,1141,1141,1138,1138,1138,1134,1134,1134,1134,1134,1134,1130,1130,1130,1130,1123,1123,1123,1123,1119,1119,1119,1119,1112,1112,1108,1108,1105,1105,1105,1105,1101,1097,1097,1097,1094,1094,1090,1090,1090,1087,1087,1087,1084,1084,1080,1080,1077,1077,1077,1077,1077,0,0,0,0,0,0,0,0,0,0,0,0,0,0,0,0,0,0,0,0,0,0,0,0,0,0,0,0
0,0,0,0,0,0,0,0,0,0,0,0,0,0,0,1632,1632,1624,1624,1624,1616,1616,1616,1609,1609,1601,1601,1601,1594,1594,1594,1594,1594,1594,1594,1586,1586,1586,1586,1572,1572,1572,1564,1564,1564,1564,1564,1564,1564,1564,1564,1564,1564,1557,1557,1557,1564,1557,1557,1557,1557,1550,1550,1543,1543,1543,1543,1543,1543,1543,1543,1543,1543,1536,1536,1536,1536,1536,1536,1536,1536,1536,1536,1536,1536,1536,1536,1529,1529,1523,1523,1523,1523,1523,1523,1523,1529,1529,1529,1523,1523,1523,1523,1516,1516,1516,1516,1516,1516,1516,1516,1516,1516,1516,1516,1516,1509,1509,1509,1509,1509,1509,1509,1509,1516,1516,1516,1523,1529,1529,1536,1536,1543,1543,0,0,0,0,0,0,0,0,0,0,0,0,0,0,0,0,0,0,0,0,0,1543,1543,1543,1543,1536,1536,1529,1529,1529,1529,1529,1536,1536,1536,1536,1536,1543,1550,1557,1557,1564,1564,1564,1564,1564,1572,1572,1572,1572,1572,1579,1579,1586,1586,1586,1586,1594,1594,1594,1601,1609,1609,1616,1616,1616,1624,1624,1624,1632,1632,1632,1639,1639,1639,1639,1639,1639,1647,1647,1655,1655,1663,1663,1671,1671,1671,1671,1671,1671,1680,1688,1688,1688,1696,1696,1696,1696,1696,1696,1696,1705,1713,1722,1722,1722,1722,1722,1731,1731,1731,1731,1731,1731,1722,1722,1722,1713,1713,1705,1705,1705,1696,1696,1696,1696,1696,1688,1688,1688,1680,1680,1680,1671,1663,1663,1663,1663,1663,1655,1655,1655,1655,1655,1647,1647,1639,1639,1632,1632,1632,1624,1624,1616,1616,1609,1609,1609,1609,1601,1601,1601,1601,1594,1594,1594,1594,1594,1586,1572,1572,1572,1572,1572,1564,1564,1564,1564,1564,1557,1550,1543,1543,1543,1543,1536,1536,1543,1543,1543,1536,1536,1529,1523,1523,1523,1523,1523,1523,1523,1516,1516,1516,1516,1509,1509,1509,1503,1496,1496,1496,1496,1496,1489,1489,1489,1489,1489,1483,1483,1477,1470,1470,1464,1464,1464,1464,1464,1464,1458,1458,1452,1452,1445,1445,1445,1439,1439,1439,1433,1433,1427,1427,1427,1421,1421,1421,1421,1421,1415,1415,1415,1410,1410,1404,1398,1398,1398,1398,1398,1392,1392,1392,1392,1392,1392,1381,1381,1381,1376,1376,1376,1376,1370,1370,1370,1370,1370,1359,1354,1354,1354,1354,1349,1349,1349,1349,1349,1343,1343,1343,1338,1333,1333,1333,1333,1333,1328,1328,1322,1322,1322,1317,1317,1317,1317,1317,1312,1312,1312,1312,1307,1302,1302,1302,1297,1297,1292,1292,1292,1288,1288,1288,1288,1288,1283,1283,1278,1278,1278,1273,1273,1273,1273,1268,1268,1268,1268,1264,1264,1259,1259,1255,1255,1255,1255,1250,1250,1245,1245,1245,1241,1241,1241,1241,1236,1236,1232,1232,1232,1227,1227,1227,1223,1223,1223,1223,1223,1223,1219,1219,1214,1214,1214,1214,1210,1206,1206,1206,1202,1202,1202,1202,1202,1202,1197,1197,1197,1197,1197,1189,1189,1185,1185,1185,1185,1185,1181,1181,1181,1177,1177,1169,1169,1169,1165,1165,1165,1165,1165,1165,1161,1161,1161,1161,1161,1157,1157,1153,1153,1153,1153,1149,1145,1145,1141,1141,1141,1138,1138,1138,1134,1134,1134,1134,1134,1134,1130,1130,1130,1130,1126,1123,1123,1123,1123,1119,1119,1119,1112,1112,1108,1108,1105,1105,1105,1105,1101,1097,1097,1097,1094,1094,1094,1090,1090,1090,1087,1087,1087,1084,1080,1080,1077,1077,1077,1077,1077,0,0,0,0,0,0,0,0,0,0,0,0,0,0,0,0,0,0,0,0,0,0,0,0,0,0,0,0
0,0,0,0,0,0,0,0,0,0,0,0,0,0,0,1632,1632,1624,1624,1624,1616,1616,1609,1609,1616,1609,1601,1601,1594,1594,1594,1594,1594,1594,1594,1586,1586,1586,1579,1572,1572,1572,1572,1564,1564,1564,1564,1564,1564,1557,1557,1557,1557,1557,1557,1557,1564,1557,1557,1557,1557,1550,1550,1543,1543,1543,1543,1543,1543,1543,1543,1543,1543,1536,1536,1536,1536,1536,1536,1536,1536,1536,1536,1536,1536,1536,1536,1529,1529,1529,1529,1529,1529,1523,1523,1523,1529,1529,1529,1523,1523,1523,1523,1516,1516,1516,1516,1516,1516,1523,1516,1516,1516,1516,1516,1516,1509,1509,1509,1509,1509,1509,1509,1509,1516,1516,1516,1523,1529,1529,1536,1536,1543,0,0,0,0,0,0,0,0,0,0,0,0,0,0,0,0,0,0,0,0,0,0,1550,1543,1543,1543,1536,1536,1529,1529,1529,1529,1529,1529,1536,1536,1543,1543,1543,1550,1557,1557,1564,1564,1564,1564,1572,1572,1572,1564,1564,1572,1579,1579,1586,1586,1586,1586,1594,1594,1601,1601,1609,1609,1616,1616,1624,1624,1624,1624,1632,1632,1632,1639,1639,1639,1639,1639,1639,1647,1647,1655,1663,1663,1671,1671,1671,1671,1671,1680,1680,1688,1688,1688,1688,1696,1696,1696,1696,1696,1696,1705,1705,1713,1713,1722,1722,1722,1722,1722,1731,1731,1731,1731,1731,1722,1722,1722,1713,1713,1713,1713,1705,1696,1696,1696,1696,1696,1688,1688,1688,1688,1680,1680,1671,1663,1663,1663,1663,1663,1663,1663,1655,1655,1655,1647,1647,1639,1639,1632,1632,1632,1624,1624,1624,1616,1616,1616,1616,1609,1609,1609,1601,1601,1601,1594,1594,1594,1594,1586,1572,1572,1572,1572,1572,1564,1564,1564,1564,1564,1557,1550,1543,1543,1543,1543,1536,1536,1543,1543,1543,1536,1536,1529,1529,1529,1523,1523,1523,1523,1523,1523,1516,1516,1516,1516,1509,1509,1503,1503,1496,1496,1496,1496,1496,1496,1496,1489,1489,1483,1483,1477,1470,1470,1470,1464,1464,1464,1464,1464,1458,1458,1452,1452,1445,1445,1445,1439,1439,1439,1433,1433,1427,1427,1421,1421,1421,1421,1421,1415,1415,1415,1415,1415,1410,1404,1404,1404,1398,1398,1398,1392,1392,1392,1392,1392,1392,1381,1381,1381,1376,1376,1376,1370,1370,1370,1370,1370,1370,1359,1354,1354,1354,1354,1354,1349,1349,1349,1349,1343,1343,1343,1338,1333,1333,1333,1333,1333,1328,1328,1322,1322,1322,1317,1317,1317,1317,1317,1317,1312,1312,1307,1307,1302,1302,1302,1297,1297,1292,1292,1292,1292,1288,1288,1288,1288,1283,1283,1283,1278,1278,1273,1273,1273,1273,1273,1268,1268,1268,1264,1264,1259,1259,1259,1255,1255,1255,1250,1250,1250,1250,1245,1245,1245,1241,1241,1236,1236,1232,1232,1232,1227,1227,1227,1223,1223,1223,1223,1223,1223,1219,1219,1214,1214,1214,1214,1210,1206,1206,1206,1202,1202,1202,1202,1197,1197,1197,1197,1197,1197,1193,1193,1189,1185,1185,1185,1185,1185,1181,1181,1181,1177,1177,1169,1169,1169,1169,1169,1169,1165,1165,1165,1165,1161,1161,1161,1161,1157,1153,1153,1153,1149,1149,1149,1149,1145,1141,1141,1141,1138,1138,1138,1134,1134,1134,1134,1134,1134,1130,1130,1130,1130,1126,1123,1123,1123,1123,1123,1119,1119,1115,1112,1108,1108,1105,1105,1105,1105,1101,1097,1097,1094,1094,1094,1094,1090,1090,1090,1087,1087,1087,1084,1080,1080,1077,1077,1077,1077,1077,0,0,0,0,0,0,0,0,0,0,0,0,0,0,0,0,0,0,0,0,0,0,0,0,0,0,0,0
0,0,0,0,0,0,0,0,0,0,0,0,0,0,0,1632,1624,1616,1616,1616,1616,1616,1609,1609,1616,1609,1601,1601,1601,1594,1594,1594,1594,1594,1594,1586,1586,1579,1579,1572,1572,1572,1572,1564,1564,1564,1564,1564,1564,1557,1557,1557,1557,1557,1557,1557,1564,1557,1557,1550,1550,1550,1550,1550,1550,1543,1543,1543,1543,1543,1543,1543,1543,1536,1536,1536,1536,1536,1536,1536,1536,1536,1536,1536,1536,1536,1536,1536,1529,1529,1529,1529,1529,1523,1523,1529,1529,1529,1523,1523,1523,1523,1523,1516,1516,1516,1516,1516,1516,1523,1523,1523,1516,1516,1516,1516,1516,1516,1509,1509,1509,1516,1509,1509,1516,1516,1516,1523,1529,1529,1536,1543,1543,0,0,0,0,0,0,0,0,0,0,0,0,0,0,0,0,0,0,0,0,0,0,0,1543,1536,1536,1536,1536,1536,1529,1529,1529,1529,1529,1536,1536,1543,1543,1550,1550,1557,1557,1564,1564,1564,1572,1564,1564,1572,1564,1564,1572,1579,1579,1586,1586,1586,1594,1594,1594,1601,1601,1609,1609,1616,1616,1624,1624,1624,1624,1632,1632,1632,1632,1639,1639,1639,1647,1647,1647,1655,1655,1655,1663,1663,1671,1671,1671,1680,1680,1688,1688,1688,1688,1696,1696,1696,1696,1696,1696,1705,1705,1705,1705,1713,1713,1722,1722,1722,1722,1731,1731,1731,1731,1731,1722,1722,1722,1722,1722,1713,1713,1705,1705,1696,1696,1696,1696,1688,1688,1688,1688,1680,1680,1671,1671,1663,1663,1663,1663,1663,1663,1655,1655,1655,1647,1647,1639,1639,1632,1632,1632,1624,1624,1624,1624,1616,1616,1616,1609,1609,1609,1609,1609,1601,1594,1594,1594,1594,1586,1579,1579,1572,1572,1572,1572,1572,1564,1564,1557,1550,1550,1543,1543,1543,1543,1543,1543,1543,1543,1543,1536,1536,1536,1536,1529,1529,1523,1523,1523,1523,1523,1516,1516,1516,1516,1509,1509,1503,1503,1503,1496,1496,1496,1496,1489,1489,1489,1489,1483,1483,1477,1477,1470,1470,1464,1464,1464,1464,1464,1464,1458,1458,1452,1452,1445,1439,1439,1439,1439,1439,1433,1427,1427,1421,1421,1421,1421,1421,1415,1415,1415,1415,1410,1410,1404,1404,1404,1398,1398,1398,1392,1392,1392,1392,1392,1392,1381,1381,1381,1376,1376,1376,1370,1370,1370,1370,1370,1370,1365,1354,1354,1354,1354,1354,1349,1349,1349,1349,1343,1343,1343,1338,1338,1338,1338,1338,1333,1328,1328,1328,1322,1322,1322,1317,1317,1317,1317,1317,1312,1307,1307,1307,1302,1302,1302,1297,1297,1292,1292,1292,1292,1288,1288,1288,1288,1283,1283,1283,1283,1278,1273,1273,1273,1273,1268,1268,1268,1268,1264,1264,1259,1259,1259,1259,1255,1255,1250,1250,1250,1250,1245,1245,1241,1241,1236,1236,1236,1232,1232,1232,1232,1227,1227,1227,1223,1223,1223,1223,1219,1219,1219,1214,1214,1214,1214,1210,1210,1210,1206,1202,1202,1202,1197,1197,1197,1197,1197,1197,1197,1193,1193,1189,1185,1185,1185,1185,1185,1181,1181,1181,1181,1177,1177,1173,1169,1169,1169,1169,1169,1165,1165,1165,1161,1161,1161,1161,1157,1153,1153,1153,1149,1149,1149,1149,1145,1141,1141,1141,1138,1138,1138,1138,1134,1134,1138,1134,1134,1134,1134,1134,1130,1126,1126,1123,1123,1123,1123,1119,1119,1115,1115,1108,1108,1108,1108,1105,1105,1101,1097,1097,1094,1094,1094,1094,1090,1090,1090,1087,1087,1087,1084,1084,1080,1077,1077,1077,1077,1077,0,0,0,0,0,0,0,0,0,0,0,0,0,0,0,0,0,0,0,0,0,0,0,0,0,0,0,0
0,0,0,0,0,0,0,0,0,0,0,0,0,0,0,1632,1624,1616,1616,1616,1609,1609,1616,1616,1616,1609,1601,1601,1601,1594,1594,1594,1594,1594,1594,1586,1586,1579,1572,1572,1572,1572,1572,1564,1564,1564,1564,1564,1564,1564,1564,1564,1564,1557,1557,1557,1557,1557,1557,1550,1550,1550,1550,1550,1550,1550,1550,1550,1543,1543,1543,1543,1543,1543,1543,1543,1543,1536,1536,1536,1536,1536,1536,1536,1536,1536,1536,1536,1529,1529,1529,1529,1529,1529,1529,1529,1529,1529,1523,1523,1523,1523,1523,1516,1516,1516,1516,1516,1523,1523,1523,1523,1523,1516,1516,1516,1516,1516,1516,1509,1509,1516,1516,1516,1516,1516,1516,1523,1529,1536,1536,1543,1550,0,0,0,0,0,0,0,0,0,0,0,0,0,0,0,0,0,0,0,0,0,0,0,1543,1536,1536,1536,1536,1536,1529,1529,1529,1529,1536,1536,1543,1543,1543,1550,1550,1557,1557,1564,1564,1564,1572,1564,1564,1572,1572,1572,1572,1579,1579,1586,1586,1594,1594,1594,1594,1601,1601,1609,1609,1616,1624,1624,1624,1624,1632,1632,1632,1632,1632,1639,1639,1639,1647,1647,1647,1655,1655,1655,1663,1663,1671,1671,1671,1680,1680,1688,1688,1688,1688,1696,1696,1696,1696,1696,1696,1705,1705,1705,1705,1713,1713,1722,1722,1731,1731,1731,1731,1731,1731,1731,1722,1722,1722,1722,1722,1722,1713,1713,1713,1696,1696,1696,1696,1688,1688,1688,1688,1680,1680,1671,1671,1671,1663,1663,1663,1663,1655,1655,1655,1655,1647,1639,1639,1639,1632,1632,1632,1624,1624,1624,1624,1616,1616,1616,1616,1616,1609,1609,1609,1601,1601,1594,1594,1594,1586,1579,1579,1572,1572,1572,1572,1572,1572,1564,1557,1550,1550,1550,1543,1543,1543,1543,1543,1543,1543,1543,1543,1543,1543,1536,1529,1529,1523,1523,1523,1523,1523,1516,1516,1516,1516,1509,1509,1509,1509,1509,1503,1503,1496,1496,1489,1489,1489,1489,1483,1483,1483,1477,1477,1470,1470,1470,1464,1464,1464,1464,1458,1458,1452,1452,1445,1439,1439,1439,1439,1439,1433,1433,1433,1427,1421,1421,1421,1421,1421,1415,1415,1410,1410,1410,1404,1404,1404,1398,1398,1398,1392,1392,1398,1392,1392,1392,1381,1381,1381,1376,1376,1376,1370,1370,1370,1370,1370,1370,1365,1365,1354,1354,1354,1354,1349,1349,1349,1349,1343,1343,1343,1343,1338,1338,1338,1333,1333,1333,1328,1328,1322,1322,1322,1317,1317,1317,1317,1317,1312,1307,1307,1307,1302,1302,1302,1297,1297,1292,1292,1292,1292,1292,1288,1288,1288,1288,1288,1283,1283,1283,1273,1273,1273,1273,1268,1268,1268,1268,1264,1259,1259,1259,1259,1255,1255,1255,1250,1250,1250,1250,1245,1245,1241,1241,1236,1236,1236,1232,1232,1232,1232,1232,1227,1223,1223,1223,1223,1219,1219,1219,1219,1214,1214,1214,1214,1210,1210,1206,1206,1202,1202,1202,1197,1197,1197,1197,1197,1197,1197,1197,1193,1189,1189,1189,1185,1185,1185,1181,1181,1181,1181,1177,1177,1173,1173,1169,1169,1169,1169,1169,1165,1165,1161,1161,1161,1161,1161,1157,1153,1153,1153,1153,1149,1149,1145,1141,1141,1141,1138,1138,1138,1138,1138,1138,1138,1134,1134,1134,1134,1134,1130,1126,1126,1123,1123,1123,1123,1119,1119,1115,1115,1112,1108,1108,1108,1105,1105,1105,1101,1097,1094,1094,1094,1094,1090,1090,1090,1090,1090,1087,1087,1084,1080,1077,1077,1077,1073,1073,0,0,0,0,0,0,0,0,0,0,0,0,0,0,0,0,0,0,0,0,0,0,0,0,0,0,0,0
0,0,0,0,0,0,0,0,0,0,0,0,0,0,0,1624,1624,1616,1616,1616,1609,1609,1609,1609,1609,1601,1601,1601,1601,1594,1594,1594,1594,1594,1594,1586,1586,1579,1572,1572,1572,1572,1572,1564,1564,1564,1564,1564,1564,1564,1564,1564,1564,1557,1557,1557,1557,1557,1550,1550,1550,1550,1550,1550,1550,1550,1550,1550,1543,1543,1543,1543,1543,1543,1543,1543,1543,1543,1543,1543,1543,1536,1536,1536,1536,1536,1536,1536,1536,1536,1536,1536,1529,1529,1523,1523,1529,1529,1529,1523,1523,1529,1523,1523,1523,1523,1523,1523,1523,1523,1523,1523,1523,1523,1516,1516,1516,1516,1516,1516,1516,1516,1516,1516,1516,1516,1516,1523,1529,1536,1536,1543,1550,0,0,0,0,0,0,0,0,0,0,0,0,0,0,0,0,0,0,0,0,0,0,0,1536,1536,1536,1536,1536,1536,1529,1529,1529,1529,1536,1543,1543,1543,1543,1550,1550,1557,1557,1564,1564,1564,1572,1572,1572,1572,1572,1572,1572,1579,1579,1586,1586,1594,1594,1594,1594,1601,1601,1601,1609,1609,1624,1624,1624,1624,1632,1632,1632,1632,1632,1639,1639,1639,1647,1647,1647,1655,1663,1663,1663,1663,1671,1671,1671,1680,1680,1688,1688,1688,1688,1696,1696,1696,1705,1705,1705,1705,1705,1713,1713,1713,1713,1722,1722,1731,1731,1739,1731,1731,1731,1731,1722,1722,1722,1722,1722,1722,1722,1713,1713,1696,1696,1696,1696,1688,1688,1688,1688,1688,1688,1671,1671,1671,1663,1663,1663,1663,1655,1655,1655,1647,1647,1639,1639,1639,1632,1632,1632,1624,1624,1624,1624,1616,1616,1616,1616,1616,1609,1609,1609,1601,1601,1594,1594,1594,1586,1586,1579,1579,1572,1572,1572,1572,1564,1564,1564,1557,1550,1550,1550,1543,1543,1543,1543,1543,1543,1543,1543,1543,1543,1536,1536,1529,1529,1523,1523,1523,1523,1523,1516,1516,1516,1516,1516,1509,1509,1509,1509,1503,1496,1496,1489,1489,1489,1489,1483,1483,1483,1477,1477,1470,1470,1470,1464,1464,1464,1464,1458,1458,1458,1452,1452,1445,1439,1439,1439,1439,1433,1433,1433,1427,1427,1421,1421,1421,1421,1415,1415,1410,1410,1410,1410,1404,1404,1398,1398,1398,1398,1398,1398,1392,1392,1392,1381,1381,1381,1376,1376,1376,1376,1370,1370,1370,1370,1370,1370,1359,1354,1354,1354,1354,1354,1349,1349,1349,1349,1349,1343,1343,1338,1338,1338,1333,1333,1333,1328,1328,1328,1322,1317,1317,1317,1317,1317,1312,1312,1312,1307,1307,1302,1302,1302,1297,1297,1297,1297,1292,1292,1292,1292,1292,1288,1288,1288,1283,1283,1283,1278,1273,1273,1273,1273,1268,1268,1268,1264,1259,1259,1255,1255,1255,1255,1255,1250,1250,1250,1250,1245,1245,1241,1241,1236,1236,1236,1232,1232,1232,1232,1232,1227,1223,1223,1223,1223,1219,1219,1219,1219,1214,1214,1214,1214,1210,1210,1206,1206,1202,1202,1202,1197,1197,1197,1197,1197,1197,1197,1197,1193,1189,1189,1189,1185,1185,1185,1181,1181,1181,1181,1181,1177,1173,1173,1169,1169,1169,1169,1169,1169,1165,1165,1165,1165,1161,1161,1157,1157,1153,1153,1153,1149,1149,1145,1145,1141,1141,1141,1141,1138,1138,1138,1138,1138,1134,1134,1134,1134,1130,1126,1126,1126,1123,1123,1123,1123,1119,1119,1119,1119,1112,1112,1108,1108,1108,1105,1105,1101,1097,1094,1094,1094,1094,1094,1090,1090,1090,1090,1090,1087,1080,1080,1077,1077,1077,1073,1073,0,0,0,0,0,0,0,0,0,0,0,0,0,0,0,0,0,0,0,0,0,0,0,0,0,0,0,0
0,0,0,0,0,0,0,0,0,0,0,0,0,0,0,1624,1624,1616,1616,1616,1609,1609,1609,1601,1601,1601,1601,1601,1594,1594,1594,1594,1594,1594,1586,1586,1586,1579,1572,1572,1572,1572,1572,1572,1572,1564,1564,1564,1564,1564,1564,1564,1564,1564,1564,1557,1557,1557,1550,1550,1550,1550,1550,1550,1550,1550,1550,1550,1543,1543,1543,1543,1543,1543,1536,1536,1543,1543,1543,1543,1543,1536,1536,1536,1536,1536,1536,1536,1536,1536,1529,1529,1529,1523,1523,1523,1529,1529,1529,1523,1523,1529,1523,1523,1523,1523,1523,1523,1523,1529,1529,1529,1523,1523,1523,1523,1523,1516,1516,1516,1516,1516,1516,1516,1516,1516,1516,1523,1529,1529,1529,1543,0,0,0,0,0,0,0,0,0,0,0,0,0,0,0,0,0,0,0,0,0,0,0,1543,1536,1536,1536,1536,1536,1536,1529,1529,1529,1536,1536,1543,1543,1543,1543,1550,1550,1557,1557,1564,1564,1564,1572,1572,1572,1572,1572,1572,1572,1579,1579,1586,1586,1594,1594,1594,1601,1601,1601,1601,1609,1609,1624,1624,1624,1624,1632,1632,1632,1632,1632,1639,1639,1647,1647,1647,1655,1655,1663,1663,1663,1663,1671,1671,1671,1680,1680,1688,1688,1688,1688,1696,1696,1696,1696,1696,1705,1705,1705,1713,1713,1713,1713,1722,1722,1731,1739,1739,1739,1731,1731,1731,1731,1722,1722,1722,1722,1722,1713,1713,1713,1696,1696,1696,1696,1688,1688,1688,1688,1688,1688,1680,1671,1671,1663,1663,1663,1663,1655,1655,1655,1647,1647,1639,1639,1639,1632,1632,1632,1624,1624,1624,1624,1616,1616,1616,1616,1616,1616,1616,1609,1601,1601,1594,1594,1594,1586,1586,1579,1579,1572,1572,1572,1572,1564,1564,1564,1557,1550,1550,1550,1543,1543,1543,1543,1543,1550,1543,1543,1543,1543,1543,1536,1529,1529,1523,1523,1523,1523,1523,1516,1516,1516,1516,1516,1516,1509,1509,1503,1503,1496,1496,1489,1489,1489,1489,1489,1483,1483,1483,1477,1477,1470,1470,1470,1464,1464,1464,1464,1458,1458,1458,1452,1445,1445,1439,1439,1439,1433,1433,1433,1427,1427,1427,1427,1427,1427,1421,1421,1421,1415,1410,1410,1404,1404,1398,1398,1398,1398,1398,1398,1398,1392,1392,1392,1387,1381,1381,1376,1376,1376,1376,1376,1370,1370,1370,1370,1359,1354,1354,1354,1354,1354,1354,1349,1349,1349,1349,1343,1343,1343,1338,1338,1333,1333,1333,1328,1328,1328,1322,1317,1317,1317,1317,1317,1312,1312,1307,1307,1307,1302,1302,1302,1297,1297,1297,1297,1292,1292,1292,1292,1292,1288,1288,1288,1283,1283,1283,1278,1273,1273,1273,1273,1273,1268,1268,1264,1259,1259,1255,1255,1255,1255,1255,1250,1250,1250,1250,1245,1245,1241,1236,1236,1236,1236,1232,1232,1232,1232,1232,1223,1223,1223,1223,1219,1219,1219,1219,1219,1214,1214,1214,1214,1210,1210,1206,1206,1202,1202,1202,1202,1197,1197,1197,1197,1197,1197,1197,1193,1189,1189,1189,1185,1185,1185,1181,1181,1181,1181,1181,1177,1173,1173,1169,1169,1169,1169,1169,1169,1165,1165,1165,1165,1161,1161,1157,1157,1153,1153,1153,1153,1149,1149,1145,1145,1141,1141,1141,1138,1138,1138,1138,1138,1134,1134,1134,1134,1130,1126,1126,1126,1123,1123,1123,1123,1119,1119,1119,1115,1115,1115,1112,1108,1108,1105,1105,1101,1097,1094,1094,1094,1094,1094,1094,1090,1090,1090,1090,1087,1080,1080,1077,1077,1077,1073,1073,0,0,0,0,0,0,0,0,0,0,0,0,0,0,0,0,0,0,0,0,0,0,0,0,0,0,0,0
0,0,0,0,0,0,0,0,0,0,0,0,0,0,0,1616,1616,1616,1616,1609,1609,1601,1601,1601,1601,1601,1601,1601,1594,1594,1594,1594,1594,1586,1586,1586,1579,1579,1572,1572,1572,1572,1572,1572,1572,1564,1564,1564,1564,1564,1564,1564,1564,1564,1564,1564,1557,1557,1550,1550,1550,1550,1550,1550,1550,1550,1550,1550,1543,1543,1543,1543,1543,1543,1536,1536,1543,1543,1543,1543,1543,1543,1543,1536,1536,1536,1536,1536,1536,1536,1529,1529,1529,1523,1523,1523,1529,1529,1529,1523,1523,1529,1529,1523,1523,1523,1523,1523,1523,1523,1523,1523,1523,1523,1523,1523,1523,1516,1516,1516,1516,1516,1516,1516,1516,1516,1516,1529,1529,1529,1529,1536,1550,0,0,0,0,0,0,0,0,0,0,0,0,0,0,0,0,0,0,0,0,0,0,1543,1536,1536,1536,1536,1536,1536,1536,1536,1536,1536,1536,1536,1536,1543,1550,1550,1550,1557,1557,1564,1564,1564,1564,1572,1572,1572,1572,1572,1579,1579,1579,1586,1586,1594,1594,1594,1601,1609,1609,1609,1609,1609,1624,1624,1624,1624,1632,1632,1632,1632,1632,1639,1639,1647,1647,1655,1655,1655,1663,1663,1663,1663,1663,1671,1671,1680,1688,1688,1688,1688,1696,1696,1696,1696,1696,1696,1705,1705,1705,1713,1713,1713,1713,1722,1722,1731,1731,1739,1739,1731,1731,1731,1722,1722,1722,1722,1722,1722,1713,1713,1713,1705,1705,1696,1696,1688,1688,1688,1688,1688,1688,1680,1671,1671,1663,1663,1663,1663,1655,1655,1647,1647,1647,1639,1639,1632,1632,1632,1624,1624,1624,1624,1624,1616,1616,1616,1616,1616,1609,1609,1609,1601,1601,1601,1601,1594,1594,1586,1579,1579,1579,1572,1572,1572,1564,1564,1564,1557,1550,1550,1550,1543,1543,1543,1543,1543,1550,1543,1543,1543,1543,1543,1536,1536,1529,1529,1529,1523,1523,1523,1523,1523,1516,1516,1516,1516,1509,1509,1503,1503,1496,1496,1489,1489,1489,1489,1489,1489,1489,1483,1470,1470,1470,1470,1470,1464,1464,1464,1464,1464,1464,1458,1452,1445,1445,1439,1439,1439,1439,1433,1433,1427,1427,1427,1427,1427,1427,1421,1421,1421,1415,1415,1415,1404,1404,1398,1398,1398,1398,1398,1398,1398,1392,1392,1387,1387,1381,1381,1376,1376,1376,1376,1376,1376,1370,1370,1370,1365,1354,1354,1354,1354,1354,1354,1349,1349,1349,1349,1343,1343,1343,1338,1338,1333,1333,1333,1333,1328,1328,1322,1317,1317,1312,1312,1317,1312,1312,1307,1307,1307,1302,1302,1302,1297,1297,1292,1292,1292,1292,1292,1292,1288,1288,1288,1288,1283,1283,1283,1278,1278,1273,1273,1273,1273,1268,1268,1264,1264,1259,1259,1259,1255,1255,1255,1250,1250,1250,1250,1245,1245,1241,1236,1236,1236,1236,1236,1236,1232,1232,1232,1223,1223,1223,1223,1219,1219,1219,1219,1219,1219,1214,1214,1214,1210,1210,1206,1206,1202,1202,1202,1202,1202,1197,1197,1197,1197,1193,1193,1193,1189,1189,1189,1185,1185,1181,1181,1181,1181,1181,1177,1177,1177,1173,1169,1169,1169,1169,1169,1165,1165,1165,1165,1165,1161,1161,1157,1153,1153,1153,1153,1153,1149,1149,1145,1145,1141,1141,1141,1138,1138,1138,1138,1138,1134,1134,1134,1134,1130,1126,1126,1126,1123,1123,1123,1123,1119,1119,1119,1115,1115,1115,1115,1112,1108,1108,1105,1101,1097,1094,1094,1094,1094,1090,1090,1090,1090,1090,1087,1084,1080,1080,1077,1077,1077,1077,1077,0,0,0,0,0,0,0,0,0,0,0,0,0,0,0,0,0,0,0,0,0,0,0,0,0,0,0,0
0,0,0,0,0,0,0,0,0,0,0,0,0,0,0,1616,1616,1616,1616,1609,1601,1601,1601,1601,1601,1601,1601,1601,1594,1594,1594,1594,1586,1586,1586,1586,1579,1579,1572,1572,1572,1572,1572,1579,1572,1572,1572,1564,1564,1572,1564,1564,1564,1564,1564,1564,1557,1557,1550,1550,1550,1550,1550,1550,1550,1550,1550,1550,1550,1550,1550,1543,1543,1543,1536,1536,1543,1543,1543,1543,1543,1543,1543,1543,1543,1536,1536,1536,1536,1536,1536,1536,1529,1529,1529,1529,1529,1529,1529,1523,1523,1529,1529,1523,1523,1523,1523,1523,1523,1523,1523,1523,1523,1523,1523,1523,1523,1516,1516,1516,1516,1523,1523,1523,1516,1516,1523,1529,1529,1529,1529,1536,1550,0,0,0,0,0,0,0,0,0,0,0,0,0,0,0,0,0,0,0,0,0,0,1536,1536,1536,1536,1536,1536,1536,1536,1536,1536,1536,1536,1536,1536,1543,1543,1550,1550,1557,1557,1564,1564,1564,1564,1572,1572,1572,1572,1572,1579,1579,1586,1586,1586,1594,1594,1594,1601,1609,1609,1609,1609,1609,1624,1624,1624,1624,1632,1632,1632,1632,1632,1639,1639,1647,1655,1655,1655,1663,1663,1663,1663,1663,1663,1671,1680,1688,1688,1688,1696,1696,1696,1696,1696,1696,1696,1696,1705,1705,1713,1713,1713,1722,1722,1722,1731,1731,1731,1731,1731,1731,1731,1731,1722,1722,1713,1713,1713,1713,1713,1713,1713,1705,1705,1705,1696,1688,1688,1688,1688,1688,1688,1680,1680,1680,1671,1663,1663,1663,1655,1655,1647,1647,1647,1639,1639,1632,1632,1632,1624,1624,1624,1624,1624,1624,1616,1616,1616,1616,1609,1609,1609,1601,1601,1601,1594,1594,1594,1594,1586,1579,1579,1572,1572,1572,1564,1564,1564,1557,1557,1550,1550,1543,1543,1543,1543,1543,1550,1543,1543,1543,1543,1543,1536,1536,1536,1529,1529,1523,1523,1523,1523,1523,1516,1516,1516,1516,1509,1509,1503,1503,1496,1496,1489,1489,1489,1483,1483,1483,1483,1477,1470,1470,1470,1470,1470,1464,1464,1464,1464,1464,1464,1458,1452,1452,1445,1439,1439,1439,1439,1433,1433,1433,1433,1433,1427,1427,1415,1415,1415,1415,1421,1415,1415,1404,1404,1404,1398,1398,1398,1398,1398,1398,1392,1392,1387,1387,1381,1381,1376,1376,1376,1376,1376,1376,1370,1370,1370,1365,1359,1354,1354,1354,1354,1354,1349,1349,1343,1343,1343,1343,1343,1343,1338,1338,1333,1333,1333,1328,1328,1322,1317,1317,1312,1312,1312,1312,1307,1307,1307,1307,1302,1302,1302,1297,1297,1292,1292,1292,1292,1292,1292,1288,1288,1288,1288,1283,1283,1283,1278,1278,1273,1273,1273,1273,1268,1268,1264,1264,1259,1259,1259,1255,1255,1255,1250,1250,1250,1250,1245,1245,1241,1236,1236,1236,1236,1236,1236,1232,1232,1232,1227,1223,1223,1223,1223,1219,1219,1219,1219,1219,1214,1214,1214,1210,1210,1206,1206,1206,1202,1202,1202,1202,1197,1197,1197,1197,1193,1193,1193,1189,1189,1189,1185,1185,1181,1181,1181,1181,1181,1177,1177,1177,1177,1173,1169,1169,1169,1169,1165,1165,1165,1165,1165,1161,1161,1157,1153,1153,1153,1153,1153,1153,1149,1149,1145,1145,1141,1141,1138,1138,1138,1138,1138,1138,1134,1134,1134,1130,1126,1126,1126,1123,1123,1123,1123,1123,1119,1119,1119,1119,1115,1115,1112,1108,1108,1105,1101,1097,1094,1094,1094,1094,1090,1090,1090,1090,1090,1087,1084,1080,1080,1077,1077,1077,1077,1077,0,0,0,0,0,0,0,0,0,0,0,0,0,0,0,0,0,0,0,0,0,0,0,0,0,0,0,0
0,0,0,0,0,0,0,0,0,0,0,0,0,0,0,1616,1616,1616,1609,1609,1601,1601,1601,1601,1601,1601,1601,1601,1594,1594,1594,1594,1586,1586,1586,1579,1579,1579,1572,1572,1579,1572,1572,1579,1572,1572,1572,1564,1564,1572,1564,1564,1564,1564,1564,1564,1557,1557,1550,1550,1550,1550,1550,1550,1550,1550,1550,1550,1550,1550,1550,1550,1543,1543,1543,1543,1543,1543,1543,1543,1543,1543,1543,1543,1543,1536,1536,1536,1536,1536,1529,1529,1529,1529,1523,1523,1529,1529,1529,1529,1529,1536,1529,1529,1529,1536,1529,1529,1529,1536,1529,1529,1529,1529,1529,1529,1523,1516,1516,1516,1516,1523,1523,1523,1516,1516,1523,1529,1529,1529,1529,1536,1543,1543,0,0,0,0,0,0,0,0,0,0,0,1993,1993,2005,2016,2016,0,0,0,0,0,1536,1536,1536,1536,1536,1536,1536,1536,1536,1536,1536,1536,1536,1536,1543,1543,1550,1550,1557,1557,1564,1564,1564,1564,1564,1572,1572,1572,1572,1579,1579,1586,1586,1586,1594,1594,1601,1609,1609,1609,1609,1609,1616,1616,1624,1624,1632,1632,1632,1632,1632,1639,1639,1639,1647,1655,1655,1655,1663,1663,1663,1663,1663,1663,1671,1680,1688,1688,1688,1688,1696,1696,1696,1696,1696,1696,1696,1705,1705,1713,1713,1722,1722,1722,1731,1731,1731,1731,1731,1731,1731,1731,1731,1722,1722,1713,1713,1713,1713,1713,1705,1705,1705,1705,1705,1696,1696,1696,1688,1688,1688,1688,1680,1680,1671,1663,1663,1663,1663,1655,1655,1647,1647,1647,1639,1639,1639,1632,1632,1632,1624,1624,1624,1624,1624,1616,1616,1616,1616,1609,1609,1601,1601,1601,1601,1594,1594,1594,1594,1586,1579,1579,1572,1572,1572,1564,1564,1564,1557,1557,1550,1550,1543,1543,1543,1543,1543,1550,1550,1543,1543,1543,1543,1536,1536,1536,1536,1529,1529,1529,1523,1523,1523,1516,1516,1516,1516,1509,1509,1503,1503,1496,1496,1489,1489,1489,1483,1483,1483,1483,1477,1477,1470,1470,1470,1470,1464,1464,1464,1464,1464,1464,1464,1458,1452,1445,1439,1439,1439,1439,1439,1433,1433,1433,1433,1427,1421,1415,1415,1415,1415,1415,1415,1415,1415,1415,1404,1398,1398,1398,1398,1398,1398,1392,1392,1387,1387,1387,1381,1376,1376,1376,1376,1376,1376,1376,1370,1370,1365,1359,1359,1354,1354,1354,1354,1349,1349,1343,1343,1343,1343,1349,1349,1338,1338,896,896,1333,891,889,889,889,889,889,889,889,1312,1307,1307,1307,1307,1302,1302,1302,1297,1297,1292,1292,1292,1292,1292,1288,1288,1288,1288,1288,1283,1283,1283,1278,1278,1273,1273,1273,1273,1273,1268,1268,1268,1259,1259,1255,1255,1255,1255,1250,1250,1250,1250,1245,1245,1241,1236,1236,1236,1236,1236,1236,1232,1232,1232,1227,1227,1223,1223,1223,1219,1219,1219,1219,1219,1214,1214,1214,1214,1210,1206,1206,1206,1202,1202,1202,1202,1197,1197,1197,1197,1193,1193,1193,1189,1189,1189,1185,1185,1181,1181,1181,1181,1181,1177,1177,1177,1177,1173,1169,1169,1169,1169,1169,1165,1165,1165,1165,1161,1161,1157,1153,1153,1153,1153,1153,1153,1149,1149,1149,1149,1145,1141,1141,1141,1138,1138,1138,1138,1138,1134,1134,1130,1130,1126,1126,1126,1123,1123,1123,1123,1119,1119,1119,1115,1115,1115,1112,1108,1108,1105,1105,1101,1094,1094,1094,1094,1090,1090,1090,1090,1090,1090,1084,1080,1080,1077,1077,1077,1077,1077,0,0,0,0,0,0,0,0,0,0,0,0,0,0,0,0,0,0,0,0,0,0,0,0,0,0,0,0
0,0,0,0,0,0,0,0,0,0,0,0,0,0,0,1624,1624,1624,1609,1601,1601,1601,1601,1601,1601,1601,1601,1601,1594,1594,1594,1594,1586,1586,1579,1579,1579,1579,1579,1579,1579,1572,1572,1579,1572,1572,1572,1564,1564,1572,1572,1564,1564,1564,1564,1564,1564,1564,1557,1557,1557,1550,1550,1550,1550,1550,1550,1557,1550,1550,1550,1550,1543,1543,1543,1543,1543,1543,1543,1543,1543,1543,1543,1543,1543,1536,1536,1536,1536,1536,1529,1529,1529,1529,1523,1523,1529,1529,1529,1529,1529,1529,1529,1536,1536,1536,1536,1529,1529,1529,1536,1529,1529,1529,1529,1529,1523,1516,1516,1516,1516,1523,1523,1523,1523,1523,1523,1529,1529,1529,1529,1536,1543,1543,0,0,0,0,2016,2005,2005,2016,0,2005,2005,1993,1993,2005,2016,2016,2053,0,0,0,0,1536,1536,1536,1536,1536,1536,1536,1536,1536,1536,1536,1536,1536,1543,1543,1543,1550,1550,1557,1557,1564,1564,1564,1564,1564,1572,1572,1572,1579,1579,1579,1586,1586,1586,1594,1601,1609,1609,1609,1609,1609,1609,1616,1616,1624,1624,1632,1632,1632,1639,1639,1639,1639,1639,1647,1655,1655,1655,1663,1663,1663,1663,1663,1663,1671,1680,1688,1688,1688,1688,1696,1696,1696,1696,1696,1696,1705,1705,1705,1713,1713,1722,1722,1722,1722,1731,1731,1731,1731,1731,1731,1731,1731,1722,1722,1713,1713,1713,1713,1713,1705,1705,1705,1705,1705,1705,1696,1696,1688,1688,1688,1688,1688,1680,1671,1663,1663,1663,1655,1655,1655,1647,1647,1647,1639,1639,1639,1639,1632,1632,1624,1624,1624,1624,1624,1616,1616,1616,1616,1609,1609,1601,1601,1601,1601,1594,1594,1594,1594,1586,1586,1579,1579,1572,1572,1564,1564,1564,1557,1550,1550,1550,1543,1543,1543,1543,1543,1550,1550,1550,1550,1543,1543,1536,1536,1536,1536,1536,1529,1529,1523,1523,1523,1516,1516,1516,1516,1509,1509,1503,1503,1496,1496,1496,1489,1489,1489,1483,1483,1483,1483,1477,1470,1470,1470,1470,1464,1464,1464,1464,1464,1464,1464,1458,1452,1445,1445,1439,1439,1439,1439,1433,1433,1433,1433,1427,1421,1421,1415,1415,1415,1415,1421,1415,1415,1415,1404,1398,1398,1398,1398,1398,1398,1392,1392,1392,1392,1387,1387,1376,1376,1376,1376,1376,1376,1370,1370,1370,1365,1359,1359,1354,1354,1354,1354,1349,1349,1343,1343,1349,1349,1349,898,898,898,896,891,891,891,889,889,889,889,889,889,889,889,889,889,1307,1307,1302,1302,1297,1297,1297,1292,1292,1292,1292,1292,1288,1288,1288,1288,1288,1283,1283,1283,1278,1278,1273,1273,1273,1273,1268,1268,1264,1264,1259,1259,1255,1255,1255,1255,1250,1250,1250,1250,1245,1245,1241,1241,1236,1236,1236,1236,1236,1236,1236,1232,1232,1223,1223,1223,1223,1219,1219,1219,1219,1219,1219,1219,1214,1214,1214,1210,1206,1206,1202,1202,1202,1202,1197,1197,1197,1197,1193,1193,1193,1189,1189,1189,1185,1185,1181,1181,1181,1181,1181,1177,1177,1177,1173,1173,1169,1169,1169,1169,1169,1165,1165,1165,1165,1161,1161,1157,1153,1153,1153,1153,1153,1153,1153,1149,1149,1145,1141,1141,1138,1138,1138,1138,1138,1138,1138,1134,1130,1130,1130,1126,1126,1126,1123,1123,1123,1123,1119,1119,1119,1115,1115,1115,1112,1108,1108,1105,1105,1105,1101,1094,1094,1094,1094,1094,1090,1090,1090,1090,1084,1080,1080,1077,1077,1077,1077,1077,0,0,0,0,0,0,0,0,0,0,0,0,0,0,0,0,0,0,0,0,0,0,0,0,0,0,0,0
0,0,0,0,0,0,0,0,0,0,0,0,0,0,0,1624,1616,1609,1609,1601,1601,1601,1601,1601,1601,1601,1601,1601,1594,1594,1594,1594,1586,1586,1579,1579,1579,1579,1572,1572,1579,1579,1579,1579,1572,1572,1572,1564,1564,1572,1572,1564,1564,1564,1564,1564,1564,1564,1557,1557,1557,1557,1557,1550,1550,1550,1550,1557,1550,1550,1550,1550,1543,1543,1543,1543,1543,1543,1543,1543,1543,1543,1543,1543,1543,1543,1536,1536,1536,1536,1536,1529,1529,1529,1529,1529,1529,1529,1523,1523,1529,1529,1529,1529,1529,1529,1536,1529,1529,1529,1536,1529,1529,1529,1529,1529,1523,1516,1516,1516,1516,1523,1523,1523,1523,1523,1529,1529,1529,1529,1529,1536,1557,1557,0,0,0,2040,2016,2005,2005,2016,2016,2005,2005,2005,2016,2016,2028,2040,2053,2065,0,1536,1536,1536,1536,1536,1536,1536,1536,1536,1536,1536,1536,1536,1536,1536,1543,1543,1543,1550,1550,1557,1557,1564,1564,1564,1564,1572,1572,1572,1579,1579,1579,1586,1586,1586,1586,1594,1601,1609,1609,1609,1609,1609,1609,1616,1616,1624,1624,1632,1632,1632,1639,1639,1639,1639,1647,1647,1655,1655,1655,1663,1663,1663,1663,1663,1663,1680,1680,1688,1688,1688,1696,1696,1696,1696,1696,1696,1696,1705,1705,1713,1722,1722,1722,1722,1722,1722,1731,1731,1731,1731,1739,1731,1731,1731,1731,1722,1713,1713,1713,1713,1713,1705,1705,1705,1705,1705,1705,1696,1696,1688,1688,1688,1688,1688,1680,1671,1663,1663,1663,1655,1655,1655,1647,1647,1647,1639,1639,1639,1639,1632,1632,1624,1624,1624,1624,1616,1616,1616,1616,1616,1609,1609,1601,1601,1601,1594,1594,1594,1594,1594,1586,1586,1579,1579,1572,1572,1564,1564,1564,1557,1550,1550,1550,1543,1543,1543,1543,1543,1550,1550,1550,1550,1543,1543,1536,1536,1536,1536,1536,1529,1529,1523,1523,1523,1516,1516,1516,1516,1509,1509,1503,1503,1496,1496,1496,1489,1489,1489,1483,1483,1483,1483,1477,1477,1470,1470,1470,1464,1464,1464,1464,1464,1464,1464,1464,1458,1445,1445,1439,1439,1439,1439,1433,1433,1433,1433,1427,1421,1421,1415,1415,1421,1421,1421,1415,1415,1415,1404,1404,1404,1398,1398,1398,1398,1392,1392,1392,1392,1387,1387,1381,1381,1381,1381,1376,1376,1370,1370,1370,1365,1365,1359,1354,1354,1354,1349,1349,1349,1343,1343,1343,0,898,898,898,898,896,891,891,891,889,889,889,889,889,889,889,889,889,889,891,1302,1302,1302,1297,1297,1292,1292,1292,1292,1292,1292,1292,1288,1288,1288,1288,1283,1283,1283,1278,1278,1273,1273,1273,1273,1268,1268,1264,1264,1264,1259,1255,1255,1255,1255,1250,1250,1250,1250,1245,1245,1241,1241,1241,1236,1236,1236,1232,1232,1232,1232,1232,1223,1223,1219,1219,1219,1219,1219,1219,1219,1219,1219,1214,1214,1214,1210,1210,1206,1206,1206,1202,1202,1202,1197,1197,1197,1193,1193,1189,1189,1189,1189,1185,1185,1185,1181,1181,1181,1177,1177,1177,1177,1173,1169,1169,1169,1169,1169,1165,1165,1165,1165,1165,1161,1161,1157,1157,1153,1153,1153,1153,1153,1153,1149,1149,1145,1141,1141,1138,1138,1138,1138,1138,1138,1138,1134,1130,1130,1130,1126,1126,1126,1123,1123,1123,1123,1123,1123,1119,1119,1115,1112,1112,1108,1108,1105,1105,1105,1101,1097,1097,1094,1094,1094,1090,1090,1090,1090,1084,1084,1080,1080,1080,1077,1077,1077,0,0,0,0,0,0,0,0,0,0,0,0,0,0,0,0,0,0,0,0,0,0,0,0,0,0,0,0
0,0,0,0,0,0,0,0,0,0,0,0,0,0,0,1624,1616,1609,1609,1601,1601,1601,1601,1601,1601,1601,1601,1601,1601,1594,1594,1594,1586,1586,1579,1579,1579,1579,1572,1572,1579,1579,1579,1579,1572,1572,1572,1564,1564,1572,1564,1564,1564,1564,1564,1564,1564,1557,1557,1557,1557,1557,1557,1557,1557,1557,1557,1557,1550,1550,1550,1550,1543,1543,1543,1543,1543,1543,1543,1543,1543,1543,1543,1543,1543,1543,1536,1536,1536,1536,1536,1536,1529,1529,1529,1529,1529,1529,1523,1523,1523,1529,1523,1523,1529,1529,1529,1529,1529,1529,1536,1536,1529,1529,1529,1529,1523,1523,1523,1516,1516,1523,1523,1523,1523,1523,1523,1529,1529,1529,1529,1536,1557,1564,1564,0,0,2040,2028,2028,2028,2016,2016,2016,2016,2016,2028,2040,2053,2053,2053,2065,2065,2078,1536,1536,1536,1543,1543,1543,1536,1536,1536,1536,1536,1536,1536,1536,1543,1543,1543,1550,1550,1557,1557,1557,1564,1564,1564,1572,1572,1572,1579,1579,1586,1586,1586,1586,1594,1594,1601,1609,1609,1616,1616,1616,1616,1616,1616,1624,1624,1632,1632,1632,1639,1639,1639,1639,1647,1647,1655,1655,1655,1663,1663,1663,1663,1663,1671,1671,1680,1688,1688,1688,1696,1696,1696,1696,1696,1696,1705,1705,1705,1713,1722,1722,1722,1722,1722,1731,1731,1731,1731,1731,1739,1731,1731,1731,1731,1722,1722,1713,1713,1713,1713,1705,1705,1713,1705,1705,1705,1696,1696,1688,1688,1688,1688,1680,1680,1663,1663,1663,1663,1655,1655,1655,1647,1647,1647,1647,1647,1647,1639,1632,1632,1624,1624,1624,1624,1616,1616,1616,1616,1616,1609,1609,1601,1601,1601,1594,1594,1594,1594,1594,1586,1586,1586,1579,1572,1572,1564,1564,1564,1557,1550,1550,1550,1543,1543,1543,1543,1543,1550,1550,1550,1550,1550,1543,1543,1543,1536,1536,1536,1529,1529,1529,1523,1523,1516,1516,1516,1516,1509,1509,1503,1503,1496,1496,1496,1489,1489,1489,1489,1483,1483,1483,1483,1477,1470,1470,1470,1470,1464,1464,1464,1464,1464,1464,1464,1464,1452,1445,1439,1439,1439,1439,1439,1433,1433,1433,1427,1427,1421,1421,1421,1415,1415,1415,1415,1415,1415,1410,1410,1404,1398,1398,1398,1398,1392,1392,1392,1392,1392,1387,1381,1381,1381,1381,1376,1376,1370,1370,1370,1365,1365,1359,1354,1354,1354,1349,1349,0,0,0,0,0,898,898,898,898,896,894,894,894,891,889,889,889,889,889,889,889,889,891,891,898,1302,1302,1297,1297,1292,1292,1292,1292,1292,1292,1292,1292,1292,1288,1288,1288,1288,1283,1283,1278,1273,1273,1273,1273,1268,1268,1264,1264,1264,1259,1255,1255,1255,1255,1250,1250,1250,1250,1245,1245,1241,1241,1241,1236,1236,1236,1232,1232,1232,1232,1232,1227,1223,1219,1219,1219,1219,1219,1219,1219,1219,1214,1214,1214,1214,1210,1210,1210,1206,1206,1206,1202,1202,1197,1197,1193,1193,1193,1189,1189,1189,1189,1185,1185,1185,1181,1181,1181,1177,1177,1177,1177,1173,1169,1169,1169,1169,1169,1165,1165,1165,1165,1165,1161,1161,1157,1157,1153,1153,1153,1153,1153,1153,1149,1149,1145,1141,1141,1141,1141,1138,1138,1138,1138,1138,1134,1130,1130,1130,1126,1126,1126,1123,1123,1123,1123,1123,1123,1119,1115,1115,1112,1112,1108,1108,1105,1105,1105,1101,1097,1097,1094,1094,1094,1090,1090,1090,1090,1087,1084,1080,1080,1080,1080,1077,1077,0,0,0,0,0,0,0,0,0,0,0,0,0,0,0,0,0,0,0,0,0,0,0,0,0,0,0,0
0,0,0,0,0,0,0,0,0,0,0,0,0,0,0,1624,1616,1616,1609,1609,1601,1601,1601,1601,1601,1601,1601,1594,1594,1594,1594,1594,1586,1586,1579,1579,1579,1579,1579,1579,1579,1579,1579,1579,1572,1572,1572,1564,1564,1564,1564,1564,1564,1564,1564,1564,1564,1557,1557,1557,1557,1557,1557,1557,1557,1557,1557,1557,1557,1550,1550,1550,1543,1543,1543,1543,1543,1543,1543,1543,1543,1543,1543,1543,1543,1543,1543,1543,1536,1536,1536,1536,1536,1529,1529,1529,1529,1529,1523,1523,1523,1523,1523,1523,1529,1529,1523,1523,1523,1529,1529,1529,1529,1529,1529,1529,1523,1523,1523,1516,1516,1523,1523,1523,1523,1523,1523,1529,1529,1529,1529,1536,1557,1564,1564,1564,2040,2040,2040,2040,2040,2053,2053,2028,2028,2040,2053,2053,2053,2053,2065,2053,2053,2078,1536,1536,1536,1543,1543,1543,1543,1536,1536,1536,1536,1536,1536,1536,1543,1543,1543,1550,1550,1557,1557,1557,1564,1564,1564,1572,1572,1572,1579,1579,1586,1586,1594,1594,1594,1601,1601,1609,1609,1609,1616,1616,1616,1624,1624,1624,1624,1632,1632,1632,1639,1639,1639,1639,1639,1647,1655,1655,1655,1663,1663,1663,1663,1663,1671,1671,1680,1688,1688,1688,1688,1696,1696,1696,1696,1696,1705,1705,1705,1713,1722,1722,1722,1722,1722,1731,1731,1731,1731,1731,1739,1739,1739,1731,1731,1722,1722,1722,1713,1713,1713,1713,1713,1713,1713,1705,1705,1696,1696,1688,1688,1688,1688,1680,1680,1663,1663,1663,1663,1655,1655,1655,1655,1647,1647,1647,1647,1647,1639,1632,1632,1632,1632,1624,1624,1624,1624,1616,1616,1616,1609,1601,1601,1601,1601,1594,1594,1594,1594,1594,1586,1586,1586,1572,1572,1572,1572,1564,1564,1557,1550,1550,1550,1543,1543,1543,1543,1543,1550,1550,1550,1550,1543,1543,1536,1536,1536,1536,1536,1529,1529,1529,1523,1523,1516,1516,1516,1516,1509,1509,1503,1503,1496,1496,1496,1496,1489,1489,1489,1483,1483,1483,1483,1477,1470,1470,1470,1470,1470,1464,1464,1464,1464,1464,1458,1458,1452,1445,1439,1439,1439,1439,1439,1439,1439,1433,1427,1427,1421,1421,1421,1415,1415,1415,1415,1415,1415,1410,1410,1410,1404,1398,1398,1398,1392,1392,1392,1392,1392,1392,1387,1387,1387,1381,1376,1376,1376,1370,1370,1365,1365,1359,1354,1349,1349,1354,0,0,0,0,0,0,898,898,898,898,896,896,894,894,891,891,889,889,889,889,889,889,891,891,896,898,898,1297,1297,1297,1297,1292,1292,1292,1292,1292,1292,1288,1288,1288,1288,1288,1288,1288,1283,1283,1273,1273,1273,1273,1268,1268,1264,1264,1259,1259,1255,1255,1255,1250,1250,1250,1250,1250,1250,1245,1241,1241,1241,1236,1236,1236,1232,1232,1232,1232,1232,1227,1227,1223,1223,1223,1223,1219,1219,1219,1219,1214,1214,1214,1214,1210,1210,1210,1206,1206,1206,1202,1202,1197,1197,1193,1193,1193,1189,1189,1189,1189,1185,1185,1185,1181,1181,1181,1177,1177,1177,1177,1173,1169,1169,1169,1169,1169,1165,1165,1165,1165,1165,1161,1161,1157,1157,1157,1153,1153,1153,1153,1153,1149,1149,1145,1145,1141,1141,1141,1138,1138,1138,1138,1138,1134,1130,1130,1130,1126,1126,1126,1123,1123,1123,1123,1123,1123,1119,1115,1115,1112,1108,1108,1108,1105,1105,1105,1101,1101,1101,1094,1094,1094,1090,1090,1090,1090,1087,1084,1080,1080,1080,1077,1077,1077,0,0,0,0,0,0,0,0,0,0,0,0,0,0,0,0,0,0,0,0,0,0,0,0,0,0,0,0
0,0,0,0,0,0,0,0,0,0,0,0,0,0,0,1624,1624,1624,1616,1609,1609,1601,1601,1601,1601,1601,1601,1594,1594,1594,1594,1594,1586,1586,1586,1579,1579,1579,1579,1579,1579,1579,1579,1579,1572,1572,1572,1564,1564,1564,1564,1564,1564,1564,1564,1564,1564,1564,1557,1557,1557,1557,1557,1564,1564,1557,1557,1557,1557,1550,1550,1550,1550,1543,1543,1543,1543,1543,1543,1543,1543,1543,1543,1543,1543,1543,1543,1543,1543,1543,1536,1536,1536,1529,1529,1529,1529,1523,1523,1523,1523,1523,1523,1523,1523,1523,1523,1523,1523,1529,1529,1529,1529,1529,1529,1529,1523,1523,1523,1516,1516,1523,1523,1523,1523,1523,1529,1529,1529,1529,1536,1543,1564,1564,1564,1564,2065,2065,2053,2053,2053,2065,2053,2053,2053,2053,2053,2053,2053,2053,2053,2053,2053,1529,1529,1536,1543,1543,1543,1543,1536,1536,1536,1536,1536,1536,1536,1543,1543,1543,1550,1550,1550,1557,1557,1564,1564,1564,1572,1572,1572,1572,1579,1579,1586,1594,1594,1594,1594,1601,1601,1609,1609,1609,1616,1616,1616,1624,1624,1624,1632,1632,1632,1632,1639,1639,1639,1639,1639,1647,1655,1655,1655,1655,1655,1663,1663,1663,1671,1680,1680,1688,1688,1688,1688,1696,1696,1696,1696,1696,1705,1713,1713,1722,1722,1722,1722,1722,1731,1731,1731,1739,1739,1739,1739,1739,1739,1731,1731,1722,1722,1722,1722,1722,1713,1713,1713,1713,1713,1705,1705,1696,1696,1688,1688,1688,1680,1680,1680,1671,1671,1671,1663,1663,1655,1655,1655,1655,1655,1647,1647,1647,1639,1639,1632,1632,1632,1624,1624,1624,1624,1616,1616,1616,1609,1601,1601,1601,1601,1594,1594,1594,1594,1594,1586,1586,1586,1572,1572,1572,1572,1564,1564,1564,1557,1557,1550,1550,1550,1550,1550,1550,1550,1557,1557,1550,1543,1543,1536,1536,1536,1536,1536,1529,1529,1529,1523,1523,1516,1516,1516,1509,1509,1509,1503,1503,1496,1496,1496,1489,1489,1489,1483,1483,1483,1477,1477,1477,1477,1470,1470,1470,1470,1464,1464,1464,1464,1464,1458,1452,1452,1445,1439,1439,1439,1439,1439,1439,1439,1433,1433,1427,1427,1421,1421,1421,1421,1421,1415,1415,1415,1410,1410,1410,1404,1404,1398,1398,1392,1392,1392,1392,1392,1392,1387,1387,1387,1381,1376,1376,1370,1370,1370,1370,1365,1359,1354,1349,1349,1349,0,0,0,0,0,898,898,898,898,898,896,896,894,894,891,891,889,889,889,889,889,889,891,894,896,898,901,901,898,1297,1297,1292,1292,1292,1292,1292,1292,1288,1288,1288,1288,1288,1288,1288,1283,1283,1273,1273,1273,1273,1268,1268,1264,1264,1259,1259,1255,1255,1255,1250,1250,1250,1250,1250,1250,1245,1241,1241,1241,1236,1236,1236,1232,1232,1232,1232,1232,1227,1227,1227,1227,1223,1223,1223,1219,1219,1219,1214,1214,1214,1214,1210,1210,1210,1206,1206,1206,1202,1202,1197,1197,1193,1193,1193,1189,1189,1189,1189,1185,1185,1185,1181,1181,1181,1181,1177,1177,1177,1173,1169,1169,1169,1169,1165,1165,1165,1165,1165,1165,1161,1161,1161,1157,1157,1153,1153,1153,1153,1149,1149,1149,1145,1145,1145,1141,1141,1138,1138,1138,1138,1134,1134,1134,1134,1130,1130,1126,1126,1126,1126,1126,1126,1123,1123,1119,1119,1115,1112,1108,1108,1108,1105,1105,1105,1105,1101,1101,1097,1094,1094,1090,1090,1090,1090,1087,1084,1084,1080,1080,1077,1077,1077,0,0,0,0,0,0,0,0,0,0,0,0,0,0,0,0,0,0,0,0,0,0,0,0,0,0,0,0
0,0,0,0,0,0,0,0,0,0,0,0,0,0,0,1624,1624,1616,1609,1609,1609,1609,1601,1601,1601,1601,1601,1601,1601,1594,1594,1594,1586,1586,1586,1579,1579,1579,1579,1579,1579,1579,1579,1579,1572,1572,1572,1564,1564,1564,1564,1564,1564,1564,1564,1564,1564,1564,1557,1557,1564,1557,1557,1557,1564,1557,1557,1557,1557,1557,1557,1557,1550,1550,1543,1543,1543,1543,1543,1543,1543,1543,1543,1543,1543,1543,1543,1543,1536,1536,1536,1536,1536,1529,1529,1529,1529,1523,1523,1523,1523,1523,1523,1523,1523,1523,1523,1523,1523,1529,1529,1529,1529,1529,1529,1529,1523,1523,1523,1523,1523,1529,1523,1523,1523,1523,1529,1529,1529,1529,1543,1543,1564,1564,1572,1572,2065,2065,2065,2065,2078,2065,2065,2065,2053,2053,2065,2065,2053,2053,2053,2053,2053,1529,1529,1536,1543,1543,1543,1543,1536,1536,1536,1536,1536,1536,1543,1543,1543,1543,1550,1550,1550,1557,1564,1564,1564,1564,1572,1572,1572,1572,1579,1579,1586,1594,1594,1594,1594,1601,1609,1609,1609,1616,1616,1616,1616,1624,1624,1624,1632,1632,1639,1639,1639,1639,1639,1639,1647,1647,1655,1655,1655,1655,1655,1663,1663,1663,1671,1680,1680,1688,1688,1688,1688,1696,1696,1696,1696,1696,1705,1705,1713,1722,1722,1722,1722,1722,1731,1731,1731,1739,1739,1739,1739,1739,1739,1731,1731,1722,1722,1722,1722,1722,1713,1713,1713,1713,1713,1705,1705,1696,1696,1688,1688,1688,1680,1680,1680,1671,1671,1671,1663,1663,1655,1655,1655,1655,1655,1647,1647,1647,1647,1639,1639,1632,1632,1624,1624,1624,1624,1616,1616,1616,1609,1601,1601,1601,1601,1594,1594,1594,1594,1594,1586,1586,1586,1572,1572,1572,1572,1572,1564,1564,1557,1557,1550,1550,1550,1550,1550,1550,1550,1557,1557,1550,1550,1543,1543,1543,1536,1536,1536,1529,1529,1523,1523,1523,1516,1516,1516,1509,1509,1509,1503,1503,1503,1496,1496,1489,1489,1489,1483,1483,1483,1477,1477,1477,1477,1470,1470,1470,1470,1464,1464,1464,1464,1464,1458,1452,1445,1445,1439,1439,1439,1439,1433,1433,1439,1433,1433,1433,1427,1421,1421,1421,1421,1415,1415,1415,1415,1410,1410,1410,1404,1404,1404,1398,1398,1392,1392,1392,1392,1387,1387,1387,1381,1376,1376,1376,1370,1370,1370,1370,1365,1365,1365,1365,1365,1365,0,0,0,0,0,0,898,898,898,898,896,896,896,894,891,891,889,889,889,889,889,889,891,894,896,898,898,898,898,1292,1292,1292,1292,1292,1292,1292,1292,1288,1288,1288,1288,1288,1288,1283,1283,1278,1278,1273,1273,1273,1268,1268,1264,1264,1259,1259,1255,1255,1255,1255,1255,1255,1250,1250,1250,1245,1245,1245,1241,1241,1236,1236,1232,1232,1232,1232,1232,1232,1232,1227,1227,1223,1223,1223,1219,1219,1219,1214,1214,1214,1214,1210,1210,1210,1206,1206,1206,1206,1202,1202,1197,1197,1193,1193,1193,1193,1189,1189,1185,1185,1185,1185,1181,1181,1181,1181,1181,1177,1173,1169,1169,1169,1169,1165,1165,1165,1165,1165,1165,1161,1161,1161,1157,1157,1153,1153,1153,1153,1149,1149,1149,1149,1145,1145,1145,1141,1141,1138,1138,1138,1134,1134,1134,1134,1130,1130,1126,1126,1126,1126,1126,1126,1123,1123,1119,1119,1115,1112,1108,1108,1108,1108,1108,1105,1105,1105,1105,1101,1097,1094,1094,1090,1090,1090,1090,1084,1084,1084,1080,1080,1077,1077,0,0,0,0,0,0,0,0,0,0,0,0,0,0,0,0,0,0,0,0,0,0,0,0,0,0,0,0
0,0,0,0,0,0,0,0,0,0,0,0,0,0,0,1624,1624,1616,1609,1609,1609,1609,1601,1601,1601,1601,1601,1601,1601,1594,1594,1594,1586,1586,1586,1579,1579,1579,1579,1579,1572,1572,1579,1579,1572,1572,1572,1564,1564,1564,1564,1564,1564,1572,1564,1564,1564,1564,1557,1557,1564,1564,1557,1557,1564,1557,1557,1557,1557,1557,1557,1557,1550,1550,1550,1543,1543,1543,1543,1543,1543,1543,1543,1543,1543,1543,1543,1543,1536,1536,1536,1536,1536,1529,1529,1529,1529,1523,1523,1523,1523,1523,1523,1523,1523,1523,1523,1523,1523,1523,1529,1529,1529,1529,1529,1529,1529,1523,1523,1523,1529,1529,1523,1523,1523,1523,1529,1529,1529,1536,1550,1557,1564,1564,1564,1564,1564,2090,2090,2090,2078,2078,2065,2065,2065,2065,2065,2065,2065,2065,2065,2065,2065,1529,1529,1536,1543,1543,1543,1543,1536,1536,1536,1536,1536,1536,1536,1543,1543,1550,1550,1550,1557,1557,1557,1564,1564,1564,1572,1572,1572,1572,1579,1579,1586,1594,1594,1594,1594,1601,1609,1609,1609,1616,1616,1624,1624,1624,1624,1632,1632,1632,1639,1639,1639,1639,1639,1639,1647,1647,1647,1655,1655,1655,1655,1663,1663,1671,1671,1680,1680,1688,1688,1688,1688,1696,1696,1696,1696,1696,1705,1705,1713,1722,1722,1722,1722,1722,1731,1731,1731,1739,1739,1739,1739,1739,1739,1731,1731,1722,1722,1722,1722,1722,1713,1713,1713,1713,1705,1705,1705,1696,1696,1688,1688,1688,1688,1680,1680,1680,1671,1671,1663,1663,1663,1655,1655,1655,1655,1655,1655,1647,1647,1647,1639,1632,1632,1624,1624,1624,1624,1616,1616,1616,1609,1609,1609,1601,1601,1594,1594,1594,1594,1594,1586,1586,1586,1579,1579,1579,1572,1572,1572,1572,1564,1564,1550,1550,1557,1550,1550,1550,1557,1557,1550,1550,1550,1550,1543,1543,1536,1536,1536,1529,1529,1523,1523,1523,1516,1516,1516,1509,1509,1509,1509,1503,1503,1496,1496,1496,1489,1489,1483,1483,1483,1477,1477,1477,1477,1477,1470,1470,1470,1470,1464,1464,1464,1464,1458,1452,1445,1445,1439,1439,1439,1439,1433,1433,1433,1433,1433,1433,1427,1427,1421,1421,1421,1415,1410,1410,1410,1404,1404,1410,1410,1404,1404,1398,1392,1392,1392,1392,1392,1387,1387,1387,1381,1376,1376,1376,1370,1370,1370,1370,1370,1370,1370,1370,0,0,0,0,0,0,0,901,898,898,898,898,898,896,896,894,894,891,889,889,889,889,889,891,891,894,896,898,898,898,898,898,1297,1297,1297,1292,1292,1292,1292,1292,1292,1288,1288,1288,1288,1283,1283,1278,1278,1273,1273,1273,1268,1268,1268,1264,1259,1259,1255,1255,1255,1255,1255,1255,1250,1250,1250,1245,1245,1245,1241,1241,1236,1236,1232,1232,1232,1232,1232,1232,1232,1227,1227,1223,1223,1223,1219,1219,1219,1214,1214,1214,1210,1210,1210,1210,1206,1206,1206,1202,1202,1197,1197,1197,1197,1193,1193,1189,1189,1189,1185,1185,1185,1185,1185,1181,1181,1181,1181,1177,1173,1173,1169,1169,1169,1165,1165,1165,1165,1165,1165,1161,1161,1161,1157,1157,1153,1153,1153,1153,1149,1149,1149,1149,1145,1145,1145,1145,1141,1141,1141,1138,1134,1134,1134,1134,1130,1130,1126,1126,1126,1126,1126,1126,1123,1123,1123,1119,1115,1112,1108,1108,1108,1108,1108,1105,1105,1105,1105,1105,1101,1097,1094,1094,1090,1090,1090,1084,1084,1084,1080,1080,1077,1077,0,0,0,0,0,0,0,0,0,0,0,0,0,0,0,0,0,0,0,0,0,0,0,0,0,0,0,0
0,0,0,0,0,0,0,0,0,0,0,0,0,0,0,1624,1624,1624,1616,1609,1609,1609,1601,1601,1601,1601,1594,1594,1594,1594,1594,1594,1586,1586,1586,1579,1579,1579,1579,1572,1572,1572,1572,1572,1572,1572,1572,1572,1572,1572,1564,1564,1572,1572,1564,1564,1564,1564,1557,1557,1557,1557,1557,1564,1564,1557,1557,1557,1557,1557,1557,1557,1550,1550,1550,1550,1543,1543,1543,1543,1543,1543,1543,1543,1543,1543,1543,1543,1536,1536,1536,1536,1536,1529,1529,1529,1529,1523,1523,1523,1523,1523,1523,1523,1523,1516,1516,1516,1516,1523,1523,1529,1529,1529,1529,1529,1529,1529,1523,1523,1529,1529,1529,1529,1529,1529,1529,1529,1529,1536,1550,1557,1564,1564,1564,1564,2103,2103,2090,2090,2090,2090,2078,2065,2065,2065,2065,2065,2065,2065,2065,2065,2065,1529,1529,1536,1543,1543,1543,1543,1543,1536,1536,1536,1536,1536,1536,1543,1543,1543,1550,1550,1550,1557,1557,1564,1564,1572,1572,1572,1572,1572,1579,1579,1586,1594,1594,1594,1601,1601,1609,1609,1616,1616,1624,1624,1624,1624,1624,1632,1632,1632,1632,1639,1639,1639,1639,1639,1647,1647,1647,1655,1655,1655,1655,1663,1663,1680,1680,1688,1688,1688,1688,1688,1688,1688,1696,1696,1696,1705,1705,1705,1713,1722,1722,1722,1722,1722,1731,1731,1731,1739,1739,1739,1748,1748,1748,1739,1731,1722,1722,1722,1722,1722,1722,1722,1722,1713,1705,1705,1705,1696,1696,1688,1688,1688,1688,1680,1680,1680,1671,1671,1671,1663,1663,1655,1655,1655,1655,1655,1655,1647,1647,1647,1639,1632,1632,1624,1624,1624,1624,1616,1616,1616,1609,1601,1601,1601,1601,1594,1594,1594,1594,1586,1586,1586,1579,1579,1579,1579,1572,1572,1572,1572,1564,1564,1557,1557,1557,1557,1557,1557,1557,1557,1550,1550,1550,1550,1543,1543,1543,1536,1536,1536,1529,1529,1529,1523,1516,1516,1516,1516,1509,1509,1509,1503,1503,1496,1496,1489,1489,1489,1483,1477,1477,1477,1477,1477,1477,1477,1477,1477,1477,1470,1470,1470,1464,998,998,998,998,1445,1439,1439,1439,1433,1433,1433,1433,1433,975,975,975,975,973,973,970,967,967,1410,1410,1404,1404,1410,1410,1410,964,964,962,956,956,1392,1392,1387,1387,1387,1387,1376,1376,1376,1370,1370,930,930,1370,1370,1370,920,0,0,0,0,0,0,0,901,901,898,898,898,898,896,896,894,894,894,891,889,889,889,889,891,891,894,896,898,898,898,898,898,0,1297,1297,1292,1292,1292,1292,1292,1292,1288,1288,1288,1288,1283,1283,1283,1278,1273,1273,1273,1268,1268,1268,1264,1259,1259,1259,1259,1255,1255,1255,1255,1250,1250,1250,1250,1250,1245,1241,1241,1236,1236,1232,1232,1232,1232,1232,1232,1232,1232,1232,1223,1223,1223,1219,1219,1219,1214,1214,1214,1210,1210,1210,1210,1206,1206,1202,1202,1202,1197,1197,1197,1197,1193,1193,1189,1189,1185,1185,1185,1185,1185,1185,1181,1181,1181,1181,1177,1173,1173,1169,1169,1169,1165,1165,1165,1165,1165,1165,1161,1161,1161,1157,1157,1153,1153,1153,1153,1149,1149,1149,1149,1145,1145,1145,1145,1141,1141,1138,1138,1134,1134,1134,1134,1130,1130,1126,1126,1126,1126,1126,1126,1123,1123,1123,1119,1115,1112,1108,1108,1108,1108,1108,1105,1105,1105,1105,1105,1101,1097,1097,1094,1090,1090,1090,1084,1084,1084,1084,1080,1080,1080,0,0,0,0,0,0,0,0,0,0,0,0,0,0,0,0,0,0,0,0,0,0,0,0,0,0,0,0
0,0,0,0,0,0,0,0,0,0,0,0,0,0,0,1624,1624,1616,1616,1616,1609,1609,1601,1601,1601,1601,1594,1594,1594,1594,1594,1594,1594,1594,1586,1579,1579,1586,1579,1572,1572,1572,1572,1572,1572,1572,1572,1572,1572,1572,1572,1572,1572,1572,1564,1564,1564,1564,1557,1557,1557,1557,1557,1564,1564,1564,1557,1557,1557,1557,1557,1557,1557,1550,1550,1550,1550,1550,1543,1543,1543,1543,1543,1543,1543,1543,1543,1543,1536,1536,1543,1536,1536,1529,1529,1529,1523,1523,1529,1523,1523,1523,1523,1523,1523,1516,1516,1516,1516,1516,1523,1529,1529,1529,1529,1529,1529,1529,1529,1529,1529,1529,1529,1529,1529,1529,1529,1529,1529,1536,1550,1557,1564,1564,1564,1564,2103,2103,2103,2103,2090,2090,2078,2078,2065,2065,2065,2065,2065,2065,2065,2053,2053,2040,1536,1536,1543,1543,1543,1543,1543,1536,1536,1536,1536,1536,1543,1543,1543,1543,1550,1550,1550,1557,1564,1564,1564,1572,1572,1572,1572,1572,1579,1579,1586,1594,1594,1594,1601,1601,1609,1616,1616,1616,1624,1624,1624,1624,1632,1632,1632,1632,1632,1639,1639,1639,1639,1639,1647,1647,1655,1655,1655,1655,1655,1663,1671,1680,1680,1688,1688,1688,1688,1688,1688,1688,1696,1696,1696,1705,1705,1705,1713,1722,1722,1722,1722,1731,1731,1731,1731,1739,1739,1739,1748,1748,1748,1739,1731,1731,1731,1722,1722,1722,1722,1722,1722,1713,1705,1705,1705,1705,1696,1696,1688,1688,1688,1688,1688,1680,1680,1680,1671,1671,1663,1663,1663,1655,1655,1655,1655,1647,1647,1647,1639,1632,1632,1632,1624,1624,1624,1616,1616,1616,1601,1601,1601,1601,1601,1594,1594,1586,1586,1586,1586,1586,1579,1579,1579,1579,1572,1572,1572,1572,1564,1564,1557,1557,1564,1557,1557,1557,1557,1557,1557,1550,1550,1550,1550,1543,1543,1536,1536,1536,1536,1529,1529,1523,1516,1516,1516,1516,1509,1509,1509,1503,1503,1496,1025,1022,1022,1483,1483,1477,1477,1477,1477,1477,1477,1477,1004,1004,1477,1470,1470,1001,998,995,995,992,989,987,984,981,981,984,978,978,978,978,975,975,975,973,973,970,967,964,964,962,959,956,956,959,959,959,959,959,959,956,956,1392,1392,1392,1387,1387,1387,1381,938,938,935,933,930,930,928,928,925,920,918,915,915,910,908,908,906,903,901,898,898,898,898,896,896,896,894,894,891,889,889,889,889,891,891,894,896,896,898,898,898,0,0,0,0,1292,1292,1292,1292,1292,1292,1288,1288,1288,1288,1283,1283,1283,1278,1273,1273,1273,1268,1268,1268,1264,1264,1259,1259,1259,1259,1255,1255,1255,1250,1250,1250,1250,1250,1245,1245,1241,1236,1236,1236,1232,1232,1232,1232,1232,1232,1227,1227,1223,1223,1223,1219,1219,1219,1214,1214,1214,1210,1210,1210,1210,1206,1206,1202,1202,1202,1197,1197,1197,1197,1193,1193,1193,1189,1185,1185,1185,1185,1185,1185,1181,1181,1181,1181,1177,1173,1173,1169,1169,1169,1169,1165,1165,1165,1165,1165,1165,1161,1161,1157,1157,1153,1153,1153,1153,1149,1149,1149,1149,1145,1145,1145,1141,1141,1141,1138,1138,1134,1134,1134,1134,1134,1130,1130,1130,1130,1126,1126,1126,1123,1123,1123,1119,1115,1112,1112,1108,1108,1108,1108,1108,1108,1105,1105,1105,1101,1097,1097,1097,1094,1094,1090,1090,1084,1084,1084,1080,1080,1080,0,0,0,0,0,0,0,0,0,0,0,0,0,0,0,0,0,0,0,0,0,0,0,0,0,0,0,0
0,0,0,0,0,0,0,0,0,0,0,0,0,0,0,1624,1616,1616,1616,1616,1609,1609,1609,1601,1601,1601,1601,1594,1594,1594,1594,1594,1594,1594,1594,1579,1579,1586,1579,1579,1572,1572,1572,1572,1572,1572,1572,1572,1572,1572,1572,1572,1572,1564,1564,1564,1564,1564,1557,1557,1564,1564,1564,1564,1564,1564,1557,1557,1557,1557,1557,1557,1557,1550,1550,1550,1550,1550,1550,1550,1550,1550,1543,1543,1543,1543,1543,1543,1543,1543,1543,1536,1536,1536,1529,1529,1523,1523,1529,1529,1523,1523,1523,1523,1516,1516,1516,1516,1516,1516,1523,1529,1529,1529,1529,1529,1536,1529,1529,1529,1529,1529,1529,1529,1529,1529,1529,1529,1529,1543,1550,1557,1564,1572,1572,1572,2116,2116,2116,2103,2103,2090,2078,2078,2065,2065,2065,2065,2065,2065,2065,2053,2040,2040,1543,1543,1543,1543,1543,1543,1543,1543,1543,1536,1536,1543,1543,1543,1543,1550,1550,1550,1550,1557,1564,1572,1572,1572,1572,1572,1572,1572,1579,1586,1586,1594,1594,1594,1601,1601,1609,1616,1616,1616,1624,1624,1624,1624,1632,1632,1632,1632,1632,1632,1639,1639,1639,1639,1647,1647,1655,1655,1655,1663,1663,1663,1680,1680,1680,1688,1688,1688,1688,1688,1688,1696,1696,1696,1705,1705,1705,1705,1713,1722,1722,1722,1722,1731,1731,1731,1739,1739,1748,1748,1748,1748,1748,1739,1731,1731,1731,1722,1722,1722,1722,1722,1722,1713,1713,1705,1696,1696,1696,1688,1688,1688,1688,1688,1688,1680,1680,1680,1671,1671,1663,1663,1663,1655,1655,1655,1647,1647,1647,1647,1639,1632,1632,1624,1624,1624,1624,1616,1616,1616,1601,1601,1601,1594,1594,1594,1586,1586,1586,1586,1586,1579,1579,1579,1579,1579,1579,1579,1572,1572,1564,1564,1564,1564,1564,1557,1557,1557,1557,1564,1564,1550,1550,1550,1550,1543,1543,1543,1536,1536,1536,1536,1529,1529,1523,1523,1516,1516,1034,1028,1028,1025,1025,1028,1022,1022,1019,1019,1019,1019,1016,1016,1013,1013,1010,1010,1004,1004,1007,1007,1004,1001,998,995,995,992,989,987,984,981,981,981,978,978,978,978,975,975,973,973,970,970,967,964,962,962,959,956,956,959,959,959,959,959,956,954,954,951,951,951,1398,1398,1392,935,933,933,933,933,928,928,928,923,918,918,918,915,915,910,908,908,906,903,903,901,898,898,898,896,896,896,894,894,891,889,889,889,889,891,891,894,896,896,898,898,898,898,0,0,1302,1302,1297,1297,1292,1292,1292,1288,1288,1288,1288,1283,1283,1283,1278,1273,1268,1268,1268,1268,1268,1264,1264,1264,1264,1259,1259,1255,1255,1255,1255,1250,1250,1250,1250,1245,1245,1245,1241,1236,1236,1236,1232,1232,1232,1232,1232,1227,1227,1223,1223,1223,1219,1219,1219,1214,1214,1214,1210,1210,1210,1210,1206,1206,1202,1202,1202,1202,1197,1197,1197,1193,1193,1193,1189,1185,1185,1185,1185,1185,1185,1181,1181,1181,1181,1177,1177,1177,1173,1169,1169,1169,1169,1165,1165,1165,1165,1165,1161,1161,1157,1157,1153,1153,1153,1153,1153,1149,1149,1149,1145,1145,1145,1141,1141,1141,1138,1138,1138,1134,1134,1134,1134,1130,1130,1130,1130,1126,1126,1126,1123,1123,1123,1119,1115,1112,1112,1108,1108,1108,1108,1108,1108,1105,1105,1101,1101,1097,1097,1097,1094,1094,1090,1087,1087,1087,1087,1084,1080,1080,0,0,0,0,0,0,0,0,0,0,0,0,0,0,0,0,0,0,0,0,0,0,0,0,0,0,0,0
0,0,0,0,0,0,0,0,0,0,0,0,0,0,0,1624,1616,1616,1616,1616,1609,1609,1609,1609,1601,1601,1601,1601,1601,1594,1594,1594,1594,1594,1594,1586,1586,1586,1586,1579,1572,1572,1579,1579,1572,1572,1572,1572,1572,1572,1572,1572,1572,1564,1564,1564,1564,1564,1564,1564,1564,1564,1564,1564,1564,1564,1557,1557,1557,1557,1557,1557,1557,1550,1550,1550,1550,1550,1550,1550,1557,1550,1543,1543,1543,1543,1543,1543,1536,1536,1536,1536,1536,1536,1529,1529,1529,1529,1529,1529,1516,1516,1516,1516,1516,1516,1516,1516,1516,1516,1523,1523,1523,1529,1529,1529,1536,1529,1529,1529,1529,1536,1536,1536,1536,1536,1536,1536,1536,1543,1550,1557,1564,1572,1572,2103,2103,2103,2116,2116,2103,2090,2078,2078,2065,2065,2065,2065,2065,2065,2065,2065,2040,2040,1557,1543,1543,1543,1543,1543,1543,1543,1543,1543,1543,1543,1543,1550,1550,1550,1550,1557,1557,1557,1564,1572,1572,1572,1572,1572,1572,1579,1579,1586,1586,1594,1594,1601,1601,1609,1609,1616,1616,1616,1624,1624,1624,1624,1632,1632,1632,1632,1632,1632,1639,1639,1639,1639,1647,1647,1655,1655,1655,1663,1663,1663,1680,1688,1688,1688,1688,1688,1688,1688,1696,1696,1696,1696,1705,1705,1705,1713,1722,1722,1722,1722,1731,1731,1731,1731,1739,1739,1739,1739,1739,1739,1739,1739,1731,1731,1731,1722,1722,1722,1722,1722,1722,1713,1713,1705,1696,1696,1696,1688,1688,1688,1688,1688,1688,1680,1680,1680,1671,1671,1663,1663,1663,1655,1655,1655,1647,1647,1647,1647,1639,1632,1632,1624,1624,1624,1624,1616,1616,1616,1601,1601,1601,1090,1080,1080,1077,1077,1077,1077,1077,1077,1077,1579,1579,1586,1579,1579,1572,1572,1572,1564,1564,1564,1564,1557,1557,1557,1557,1564,1564,1557,1557,1557,1550,1543,1543,1028,1028,1038,1038,1038,1038,1038,1038,1038,1038,1038,1034,1028,1028,1025,1025,1025,1022,1019,1019,1019,1016,1016,1016,1013,1013,1007,1007,1007,1007,1004,1004,1004,1001,998,995,995,995,992,992,989,987,984,984,981,981,978,978,978,973,973,973,970,970,970,967,964,962,962,959,959,959,959,956,956,954,951,951,951,948,948,946,943,938,935,935,935,933,933,933,933,928,928,928,923,918,918,918,915,915,910,908,908,906,903,903,901,898,898,896,896,896,896,894,894,891,889,889,889,889,891,891,894,896,896,898,898,898,0,0,0,0,1302,1297,1297,1292,1292,1292,1288,1288,1288,1283,1283,1278,1278,1273,1273,1268,1268,1268,1268,1268,1264,1259,1259,1264,1259,1259,1259,1255,1255,1255,1250,1250,1250,1250,1245,1245,1245,1241,1236,1236,1236,1236,1232,1232,1232,1227,1227,1227,1223,1223,1223,1219,1219,1219,1214,1214,1214,1214,1210,1210,1210,1206,1206,1202,1202,1202,1202,1197,1197,1197,1193,1193,1193,1193,1189,1185,1185,1185,1185,1185,1185,1181,1181,1181,1181,1177,1177,1173,1173,1169,1169,1169,1165,1165,1165,1165,1165,1165,1161,1161,1157,1153,1153,1153,1153,1153,1149,1149,1149,1149,1149,1145,1141,1141,1141,1138,1138,1138,1134,1134,1134,1134,1134,1130,1130,1130,1130,1126,1126,1123,1123,1123,1119,1115,1112,1112,1108,1108,1108,1108,1105,1105,1105,1105,1101,1101,1097,1097,1097,1094,1094,1090,1087,1087,1087,1087,1084,1080,1080,0,0,0,0,0,0,0,0,0,0,0,0,0,0,0,0,0,0,0,0,0,0,0,0,0,0,0,0
0,0,0,0,0,0,0,0,0,0,0,0,0,0,0,1624,1616,1616,1616,1616,1616,1616,1609,1609,1609,1609,1601,1601,1601,1601,1594,1594,1594,1594,1586,1586,1586,1586,1586,1586,1579,1579,1579,1579,1572,1572,1572,1579,1572,1572,1572,1572,1572,1572,1564,1564,1564,1564,1564,1564,1564,1564,1564,1557,1557,1557,1557,1557,1557,1557,1557,1557,1557,1557,1557,1557,1550,1550,1557,1557,1564,1557,1543,1543,1543,1536,1536,1536,1536,1536,1536,1536,1536,1536,1536,1523,1523,1523,1523,1523,1516,1516,1516,1516,1516,1516,1516,1516,1516,1516,1523,1523,1523,1523,1523,1529,1529,1529,1529,1529,1529,1529,1529,1536,1536,1536,1536,1536,1536,1543,1550,1564,1572,1572,2103,2103,2103,2103,2116,2116,2103,2090,2078,2078,2065,2065,2065,2065,2065,2065,2065,2065,2065,2040,1557,1550,1543,1543,1543,1543,1543,1543,1543,1543,1543,1543,1543,1550,1550,1550,1550,1557,1557,1557,1564,1572,1579,1579,1579,1579,1579,1579,1586,1586,1594,1594,1594,1601,1601,1609,1609,1616,1616,1616,1624,1624,1624,1624,1632,1632,1632,1632,1632,1632,1639,1639,1639,1639,1655,1655,1655,1655,1663,1663,1663,1671,1688,1688,1688,1688,1688,1688,1688,1696,1696,1696,1696,1696,1705,1705,1713,1713,1722,1722,1722,1722,1731,1731,1731,1731,1739,1739,1739,1739,1739,1739,1739,1739,1731,1731,1731,1722,1722,1722,1722,1722,1722,1713,1713,1705,1696,1696,1696,1696,1688,1688,1688,1688,1688,1680,1680,1671,1671,1671,1663,1663,1663,1655,1655,1655,1647,1647,1647,1647,1639,1632,1632,1632,1624,1624,1624,1616,1101,1097,1097,1094,1090,1090,1080,1080,1077,1077,1077,1077,1077,1077,1077,1084,1084,1084,1579,1579,1579,1572,1572,1564,1564,1564,1564,1564,1550,1550,1557,1564,1564,1054,1050,1050,1050,1047,1044,1028,1028,1038,1038,1038,1038,1038,1038,1038,1038,1038,1034,1031,1028,1025,1025,1025,1022,1019,1019,1019,1016,1016,1013,1013,1010,1007,1007,1007,1007,1004,1004,1004,1001,998,995,995,992,992,989,989,987,984,984,981,981,981,978,978,973,973,973,970,970,970,967,967,962,962,959,959,956,956,956,956,954,951,951,948,948,948,946,943,938,935,935,935,933,933,933,933,928,928,925,925,923,918,918,915,915,913,910,908,906,906,903,901,898,898,896,896,896,896,894,894,891,889,889,889,889,891,891,896,896,898,898,898,898,898,0,0,1302,1302,1302,1297,1297,1292,1292,1288,1288,1288,1283,1283,1278,1278,1273,1273,1268,1268,1268,1268,1264,1264,1259,1259,1264,1264,1259,1259,1259,1255,1255,1255,1250,1250,1250,1250,1245,1245,1241,1241,1236,1236,1236,1232,1232,1232,1227,1227,1227,1223,1223,1219,1219,1219,1219,1214,1214,1214,1214,1210,1210,1206,1206,1202,1202,1202,1202,1202,1197,1197,1197,1193,1193,1193,1193,1189,1189,1185,1185,1185,1185,1185,1181,1181,1181,1181,1177,1177,1177,1173,1169,1169,1169,1165,1165,1165,1165,1165,1165,1161,1157,1157,1153,1153,1153,1153,1153,1149,1149,1149,1149,1149,1145,1141,1141,1138,1138,1138,1138,1134,1134,1134,1134,1134,1130,1130,1130,1130,1126,1126,1123,1123,1123,1119,1115,1112,1112,1108,1108,1108,1108,1105,1105,1105,1105,1105,1101,1097,1097,1097,1094,1090,1090,1090,1087,1087,1084,1084,1080,1080,0,0,0,0,0,0,0,0,0,0,0,0,0,0,0,0,0,0,0,0,0,0,0,0,0,0,0,0
0,0,0,0,0,0,0,0,0,0,0,0,0,0,0,1624,1624,1616,1616,1616,1616,1616,1609,1609,1609,1609,1609,1601,1601,1601,1594,1594,1594,1594,1586,1586,1586,1586,1586,1579,1579,1579,1579,1579,1579,1572,1572,1572,1572,1572,1572,1572,1572,1564,1564,1564,1564,1564,1564,1564,1557,1557,1564,1557,1557,1557,1550,1550,1550,1557,1550,1550,1557,1557,1557,1557,1550,1550,1564,1564,1564,1536,1536,1536,1523,1523,1529,1529,1529,1529,1529,1529,1536,1536,1536,1523,1523,1509,1509,1509,1509,1509,1509,1509,1509,1516,1516,1516,1516,1516,1523,1523,1523,1523,1523,1529,1529,1529,1523,1523,1529,1529,1529,1536,1536,1536,1536,1536,1536,1543,1550,1557,1564,1572,2103,2103,2103,2103,2103,2116,2103,2090,2078,2078,2065,2065,2078,2078,2078,2078,2078,2065,2065,2053,2053,1550,1543,1543,1543,1543,1550,1550,1543,1543,1543,1543,1543,1550,1550,1550,1550,1557,1564,1564,1564,1572,1579,1579,1579,1579,1586,1586,1594,1594,1594,1601,1601,1601,1601,1609,1609,1616,1616,1616,1624,1624,1624,1624,1632,1632,1632,1632,1632,1632,1639,1639,1639,1639,1655,1655,1655,1663,1663,1663,1663,1671,1680,1688,1688,1688,1688,1688,1688,1696,1696,1696,1705,1705,1705,1705,1705,1705,1713,1713,1722,1722,1731,1731,1731,1739,1739,1739,1748,1748,1748,1748,1748,1739,1739,1731,1731,1722,1722,1722,1722,1713,1713,1713,1713,1705,1705,1705,1696,1696,1696,1688,1688,1688,1688,1680,1680,1671,1671,1671,1663,1663,1663,1655,1655,1655,1647,1647,1647,1647,1639,1639,1632,1632,1632,1097,1097,1097,1094,1090,1090,1090,1090,1087,1084,1084,1080,1080,1080,1077,1077,1077,1077,1080,1080,1080,1080,1579,1579,1579,1572,1572,1564,1564,1557,1557,1550,1550,1557,1054,1054,1054,1050,1050,1050,1047,1044,1044,1041,1041,1038,1038,1038,1038,1038,1038,1038,1034,1034,1031,1028,1025,1025,1025,1022,1022,1019,1016,1016,1016,1013,1010,1010,1007,1007,1007,1004,1004,1004,1001,1001,998,998,995,992,992,989,989,987,984,984,984,981,981,978,978,973,973,970,970,967,967,967,967,964,962,959,959,956,956,954,954,954,951,951,948,946,946,943,940,938,935,935,935,933,933,933,930,928,928,925,925,920,918,918,915,913,913,910,908,906,906,903,901,898,898,896,896,896,894,894,894,891,891,891,891,891,891,891,896,896,898,896,891,891,891,0,1232,0,1302,1302,1302,1292,1292,1292,1288,1288,1288,1283,1283,1278,1273,1273,1268,1268,1268,1268,1268,1264,1264,1259,1219,1219,1255,1255,1259,1259,1255,1255,1255,1250,1250,1250,1250,1245,1245,1245,1241,1236,1236,1236,1232,1232,1232,1227,1227,1227,1223,1223,1219,1219,1219,1219,1214,1214,1214,1214,1210,1210,1206,1206,1202,1202,1202,1202,1197,1197,1197,1197,1193,1193,1193,1193,1189,1189,1189,1185,1185,1185,1185,1185,1181,1181,1181,1177,1177,1173,1173,1173,1169,1169,1169,1165,1165,1165,1165,1161,1161,1157,1153,1153,1153,1153,1153,1153,1149,1149,1149,1145,1145,1145,1141,1141,1138,1138,1138,1138,1134,1134,1134,1134,1134,1134,1130,1130,1126,1126,1123,1123,1119,1119,1115,1115,1112,1112,1108,1108,1108,1108,1108,1108,1105,1105,1105,1101,1097,1097,1094,1094,1090,1090,1087,1087,1087,1084,1084,1080,1080,0,0,0,0,0,0,0,0,0,0,0,0,0,0,0,0,0,0,0,0,0,0,0,0,0,0,0,0
0,0,0,0,0,0,0,0,0,0,0,0,0,0,0,1624,1624,1616,1616,1616,1616,1616,1609,1609,1609,1609,1609,1601,1601,1601,1594,1594,1594,1594,1586,1586,1586,1586,1586,1579,1579,1579,1579,1579,1579,1572,1572,1572,1572,1572,1572,1572,1572,1564,1564,1564,1564,1564,1564,1564,1557,1557,1564,1557,1557,1564,1550,1550,1550,1557,1543,1543,1557,1557,0,0,0,0,0,0,0,1536,1523,1516,1496,1496,1529,1529,1529,1483,1470,1464,1464,1470,1489,1489,1489,1489,1496,1503,1503,1509,1509,1509,1509,1516,1516,1516,1516,1516,1523,1523,1523,1523,1523,1523,1523,1523,1523,1523,1529,1529,1529,1536,1536,1536,1536,1536,1536,1550,1550,1557,1564,1564,2103,2103,2103,2103,2103,2103,2103,2090,2078,2078,2078,2078,2078,2078,2078,2078,2078,2065,2053,2053,1564,1557,1557,1557,1550,1550,1550,1550,1543,1543,1543,1543,1550,1550,1550,1550,1557,1557,1564,1564,1564,1572,1572,1572,1579,1579,1586,1586,1594,1594,1594,1601,1601,1601,1601,1609,1609,1616,1616,1624,1624,1624,1624,1624,1632,1632,1632,1632,1632,1632,1639,1639,1647,1647,1655,1655,1663,1663,1663,1663,1663,1680,1680,1688,1688,1688,1688,1688,1696,1696,1705,1705,1713,1713,1713,1705,1705,1705,1713,1713,1722,1722,1731,1731,1731,1739,1739,1739,1739,1748,1748,1748,1748,1739,1739,1731,1731,1722,1722,1722,1722,1713,1713,1713,1713,1705,1705,1705,1696,1696,1696,1696,1688,1688,1688,1688,1680,1680,1671,1671,1663,1663,1663,1655,1655,1655,1647,1647,1647,1647,1639,1639,1647,1647,1647,1090,1090,1090,1090,1087,1087,1087,1087,1084,1084,1084,1080,1080,1080,1080,1080,1080,1080,1080,1080,1084,1080,1080,1586,1579,1057,1057,1564,1564,1557,1557,1564,1564,1054,1054,1054,1054,1054,1054,1050,1047,1047,1044,1044,1044,1038,1038,1041,1038,1038,1038,1038,1034,1034,1031,1028,1028,1028,1028,1025,1022,1019,1016,1016,1016,1013,1010,1010,1007,1007,1007,1004,1004,1004,1001,998,998,995,995,992,992,989,989,987,987,984,981,981,981,978,978,973,973,970,970,967,967,967,967,964,962,959,959,956,956,954,954,951,951,951,948,946,946,943,940,938,935,935,935,933,933,933,930,928,928,925,925,920,918,918,915,913,913,910,908,906,906,903,901,898,898,896,896,896,894,894,891,891,889,889,889,891,891,894,896,898,898,896,891,891,0,0,1232,1232,1232,1227,1223,1219,1219,1214,1214,1288,1288,1283,1283,1273,1273,1273,1268,1268,1268,1268,1210,1210,1210,1210,1214,1214,1219,1250,1255,1255,1255,1255,1255,1250,1250,1250,1250,1245,1245,1241,1241,1241,1236,1232,1232,1232,1227,1227,1227,1227,1223,1223,1223,1223,1219,1219,1219,1219,1214,1214,1210,1210,1206,1206,1206,1206,1202,1202,1197,1197,1197,1197,1197,1193,1193,1193,1189,1189,1189,1185,1185,1185,1185,1185,1181,1181,1181,1177,1177,1173,1173,1173,1169,1169,1169,1169,1165,1165,1165,1161,1161,1157,1153,1153,1153,1153,1149,1149,1149,1149,1145,1145,1145,1145,1141,1138,1138,1138,1138,1138,1134,1134,1134,1134,1134,1134,1130,1130,1126,1126,1123,1123,1119,1119,1115,1115,1112,1112,1108,1108,1108,1108,1105,1105,1105,1105,1101,1101,1097,1094,1094,1090,1090,1090,1087,1087,1084,1080,1080,1080,1080,0,0,0,0,0,0,0,0,0,0,0,0,0,0,0,0,0,0,0,0,0,0,0,0,0,0,0,0
0,0,0,0,0,0,0,0,0,0,0,0,0,0,0,1624,1624,1624,1616,1616,1616,1616,1616,1609,1609,1609,1601,1601,1601,1601,1594,1594,1594,1594,1586,1586,1586,1586,1586,1586,1586,1586,1586,1579,1572,1572,1572,1572,1572,1572,1572,1564,1564,1564,1564,1564,1564,1564,1564,1564,1564,1564,1564,1557,1557,1557,1550,1550,1550,1550,1543,1543,0,0,0,0,0,0,0,0,0,0,1523,1516,1489,1489,1483,1483,1477,1477,1464,1464,1464,1464,1477,1483,1483,1483,1489,1496,1496,1496,1503,1503,1509,1516,1516,1516,1516,1516,1523,1523,1523,1523,1523,1523,1523,1523,1523,1523,1529,1529,1529,1536,1536,1536,1536,1543,1543,1550,1550,1557,1564,1564,1564,2103,2103,2103,2116,2103,2103,2090,2078,2078,2078,2078,2065,2065,2065,2065,2065,2065,2040,2040,1564,1557,1557,1557,1557,1550,1550,1550,1543,1543,1543,1550,1550,1550,1550,1557,1557,1557,1564,1564,1564,1572,1572,1572,1579,1586,1586,1586,1594,1594,1601,1601,1601,1601,1601,1609,1609,1616,1616,1616,1624,1624,1624,1624,1624,1632,1632,1632,1632,1632,1639,1647,1655,1655,1655,1655,1663,1663,1663,1663,1663,1680,1680,1688,1688,1688,1688,1688,1696,1696,1705,1705,1713,1713,1713,1713,1713,1713,1713,1722,1722,1722,1731,1731,1731,1739,1739,1739,1739,1748,1748,1748,1748,1739,1739,1731,1731,1731,1722,1722,1722,1713,1713,1713,1713,1705,1705,1705,1696,1696,1696,1696,1688,1688,1688,1688,1680,1671,1663,1663,1663,1663,1663,1663,1663,1655,1647,1647,1647,1647,1639,1639,1639,1639,0,1090,1090,1090,1087,1087,1087,1087,1084,1084,1084,1084,1080,1080,1080,1080,1084,1084,1084,1084,1084,1084,1080,1080,1080,1057,1057,1057,1067,1063,1063,1063,1057,1057,1057,1057,1054,1054,1054,1054,1050,1047,1047,1044,1044,1041,1041,1041,1041,1038,1038,1038,1038,1034,1034,1031,1031,1028,1028,1028,1025,1022,1019,1016,1016,1016,1013,1013,1013,1010,1007,1007,1007,1004,1004,1001,998,998,995,995,992,992,989,989,987,987,984,981,981,981,978,978,973,973,970,970,967,967,967,967,964,962,959,959,956,956,954,954,951,951,948,948,946,946,943,940,938,935,935,935,933,933,933,930,928,928,925,923,918,918,915,915,913,913,908,908,906,906,901,901,898,898,896,896,896,894,894,891,891,889,889,889,891,891,894,898,901,901,901,901,0,0,0,1232,1232,1232,1227,1223,1219,1219,1214,1214,1214,1214,1214,1283,1273,1273,1273,1268,1268,1214,1210,1210,1210,1210,1210,1214,1214,1219,1227,1245,1250,1250,1250,1250,1250,1250,1250,1250,1245,1245,1241,1241,1241,1236,1232,1232,1232,1227,1227,1227,1227,1223,1223,1223,1223,1223,1219,1219,1219,1214,1214,1210,1210,1206,1206,1206,1202,1202,1202,1197,1197,1197,1197,1197,1193,1193,1193,1189,1189,1189,1189,1185,1185,1185,1185,1181,1181,1181,1177,1177,1173,1173,1173,1169,1169,1169,1169,1165,1165,1165,1161,1161,1157,1153,1153,1153,1153,1149,1149,1149,1145,1145,1141,1141,1141,1138,1138,1138,1138,1138,1138,1134,1134,1134,1134,1134,1134,1130,1126,1126,1126,1123,1123,1119,1115,1115,1115,1112,1112,1108,1108,1108,1105,1105,1105,1105,1105,1101,1101,1097,1094,1094,1090,1090,1090,1087,1087,1084,1080,1080,1080,1080,0,0,0,0,0,0,0,0,0,0,0,0,0,0,0,0,0,0,0,0,0,0,0,0,0,0,0,0
