0,0,0,0,0,0,0,1288,1288,1288,1288,1288,1288,1288,1288,1283,1283,1283,1283,1283,1283,1278,1278,1283,1283,1283,1283,1278,1278,1283,1283,1283,1283,1283,1283,1283,1283,1283,1283,1278,1278,1278,1278,1283,1283,1283,1283,1278,1278,1273,1273,1273,1273,1273,1278,1278,1278,1283,1278,1278,1283,1278,1278,1278,1278,1278,1273,1273,1273,1273,1268,1268,1273,1273,1273,1278,1278,1278,1278,1278,1278,1278,1278,1278,1278,1278,1278,1278,1273,1273,1273,1273,1273,1273,1273,1278,1278,1283,1283,1283,1283,1278,1278,1278,1278,1278,1278,1087,1084,1084,1087,1084,1084,1084,1084,1084,1084,1084,1087,1087,1087,1090,1090,1090,1090,1090,1090,0,0,0,0,0,0,0,0,0,717,717,717,717,717,717,716,716,717,717,719,719,719,720,720,722,725,727,727,727,727,727,728,727,727,727,727,727,0,0,0,0,0,0,0,0,1268,1268,1268,1268,1268,1268,1268,1268,1273,1268,1268,1268,1268,1268,1273,1268,1268,1268,1268,1268,1268,1268,1268,1268,1268,1268,1268,1268,1268,1268,1268,1268,1268,1268,1264,1264,1264,1264,1264,1264,1264,1264,1268,1268,1268,1264,1264,1264,1264,1264,1264,1264,1264,1264,1268,1063,1060,1054,1054,1050,1047,1044,1041,1038,1034,1034,1031,1031,1028,1028,1028,1028,1028,1025,1025,1283,1283,1273,1268,1264,1264,1264,1264,1264,1264,1264,1264,1264,1264,1264,1264,1264,1264,1264,1264,1264,1264,1264,1264,1264,1264,1259,1259,1259,1255,1255,1255,1255,1255,1255,1255,1255,1255,1255,1255,1255,1255,1255,1255,1259,1259,1259,1259,1259,1259,1264,1264,1264,1259,1259,1259,1259,1255,1255,1255,1259,1259,1259,1255,1255,1255,1255,1259,1259,1259,1259,1259,1255,1255,1255,1255,1255,1255,1255,1255,1255,1255,1255,1255,1255,1250,1250,1255,1255,1255,1255,1255,1255,1255,1255,1255,1250,1250,1250,1250,1250,1255,1255,1245,989,989,987,984,978,978,975,973,973,970,970,970,970,970,973,973,975,978,978,978,978,978,981,981,981,1255,1255,1255,1255,1255,1250,1250,1250,1250,1250,1250,1250,1250,1250,1250,1250,1250,1250,1250,1250,1250,1250,1250,1250,1250,1250,1250,1245,1245,1250,1250,1250,1250,1250,1250,1250,1250,1250,1250,1250,1250,1250,1250,1245,1245,1245,1245,1245,1245,1245,1245,1245,1245,1245,1245,1245,1245,1245,1245,1245,1245,1245,1245,1245,1245,1245,1245,1245,1245,1245,1245,1241,1241,1241,1241,1241,1241,1241,1236,1236,1236,1236,1236,1241,1241,1245,1245,1241,1241,1241,1236,1236,1236,1236,1236,1236,1236,1236,1236,1236,1236,1236,1236,1236,1236,1236,1232,1232,1232,1232,1232,1232,1232,1232,1232,1232,1232,1232,1232,1232,1232,1232,1236,1236,1236,1236,1232,1232,1232,1232,1232,1223,1223,1223,1223,1223,1227,1223,1223,1223,1223,1223,1223,1223,1227,1227,1227,1227,1227,1223,1223,1227,1227,1232,1227,1227,1227,1227,1227,1227,1227,1223,1223,1223,1223,1223,1223,1223,1223,1219,1219,1219,1214,1214,1214,1210,1210,1210,1206,1202,1202,1197,1197,1197,1193,1189,1185,1185,1185,1181,1181,1177,1177,1173,1169,1169,1169,1165,1165,1165,1161,1157,1153,1153,1153,1149,1149,1149,1145,1141,1138,1138,1134,1134,1134,1130,1126,1123,1119,1119,1119,1119,1115,1112,1108,1105,1105,1101,1097,1097,1097,0,0,0,0,0,0,0,0,0,0,0,0,0,0,0,0,0,0,0,0,0,0,0,0,0,0,0,0,0,0,0,0,0
0,0,0,0,0,0,0,1283,1283,1283,1283,1283,1283,1283,1283,1283,1283,1283,1283,1283,1278,1278,1278,1278,1278,1278,1278,1278,1278,1278,1278,1278,1273,1273,1273,1273,1273,1273,1273,1273,1273,1273,1273,1278,1278,1278,1273,1273,1273,1268,1268,1268,1268,1268,1273,1273,1273,1278,1278,1278,1278,1278,1273,1273,1273,1273,1268,1268,1268,1268,1268,1268,1268,1268,1268,1273,1273,1268,1268,1273,1273,1273,1273,1273,1273,1273,1273,1273,1273,1273,1273,1273,1273,1273,1273,1278,1278,1278,1278,1278,1278,1278,1273,1273,1273,1273,1273,1090,1087,1087,1087,1087,1087,1084,1084,1084,1084,1084,1087,1087,1087,1090,1090,1090,1090,1090,1094,0,0,0,0,0,0,0,0,0,0,719,719,719,719,717,717,717,717,719,719,720,720,720,722,722,725,727,727,727,727,728,728,727,727,728,727,727,0,0,0,0,0,0,0,0,1268,1268,1268,1268,1268,1268,1268,1268,1268,1268,1268,1268,1268,1268,1268,1268,1268,1268,1268,1268,1264,1264,1264,1264,1264,1264,1264,1264,1264,1264,1264,1264,1264,1264,1264,1259,1259,1264,1264,1264,1264,1264,1264,1264,1264,1264,1264,1264,1264,1264,1264,1264,1264,1264,1264,1063,1057,1054,1054,1050,1047,1044,1041,1038,1034,1031,1031,1028,1028,1028,1025,1025,1025,1022,1022,1022,1273,1273,1268,1264,1264,1264,1264,1264,1259,1259,1259,1259,1259,1259,1259,1259,1264,1264,1259,1259,1259,1259,1259,1259,1259,1255,1255,1255,1255,1255,1255,1255,1255,1255,1250,1250,1250,1250,1250,1250,1255,1255,1255,1255,1255,1255,1255,1255,1259,1259,1259,1259,1259,1259,1255,1255,1250,1250,1255,1255,1255,1255,1255,1250,1250,1250,1255,1255,1255,1255,1255,1255,1255,1255,1250,1250,1250,1250,1250,1250,1250,1250,1250,1250,1250,1250,1250,1250,1250,1250,1250,1250,1250,1250,1250,1250,1250,1250,1250,1245,1245,1245,1245,987,987,987,984,978,978,975,973,973,970,970,970,970,973,973,973,975,978,978,978,978,978,981,981,981,1250,1250,1250,1250,1250,1245,1245,1250,1250,1250,1250,1245,1245,1245,1245,1245,1245,1245,1245,1245,1245,1245,1250,1245,1245,1245,1241,1241,1241,1241,1241,1245,1245,1245,1245,1245,1250,1250,1245,1245,1245,1245,1241,1241,1241,1241,1245,1245,1245,1241,1241,1241,1241,1241,1241,1241,1236,1236,1241,1241,1241,1241,1241,1241,1241,1241,1241,1241,1241,1241,1241,1236,1236,1236,1236,1236,1236,1236,1236,1236,1232,1232,1236,1236,1236,1236,1236,1236,1241,1236,1236,1236,1236,1236,1236,1236,1236,1236,1236,1236,1232,1232,1232,1232,1232,1232,1232,1232,1232,1232,1232,1232,1232,1232,1232,1232,1232,1232,1227,1227,1227,1227,1227,1227,1232,1232,1232,1223,1223,1223,1223,1219,1219,1219,1219,1219,1223,1223,1219,1219,1219,1219,1223,1223,1223,1223,1223,1223,1223,1223,1223,1223,1223,1227,1227,1223,1223,1223,1223,1223,1223,1223,1219,1219,1219,1219,1219,1219,1219,1219,1219,1219,1214,1214,1214,1210,1210,1210,1206,1202,1197,1197,1202,1197,1197,1193,1189,1185,1185,1181,1181,1181,1177,1177,1169,1169,1169,1165,1165,1165,1161,1157,1157,1153,1153,1149,1149,1149,1145,1141,1138,1138,1134,1134,1134,1130,1126,1123,1123,1119,1119,1119,1119,1115,1112,1108,1105,1101,1097,1097,1097,0,0,0,0,0,0,0,0,0,0,0,0,0,0,0,0,0,0,0,0,0,0,0,0,0,0,0,0,0,0,0,0,0
0,0,0,0,0,0,0,1273,1273,1283,1283,1278,1278,1283,1283,1278,1278,1278,1278,1278,1273,1273,1273,1273,1273,1273,1273,1273,1273,1273,1273,1273,1273,1273,1268,1268,1273,1273,1273,1268,1268,1273,1273,1273,1273,1268,1268,1268,1268,1264,1264,1264,1264,1264,1268,1268,1268,1273,1273,1273,1273,1273,1273,1268,1268,1268,1268,1268,1268,1268,1268,1268,1268,1268,1268,1268,1268,1268,1268,1268,1268,1268,1268,1268,1268,1268,1268,1273,1268,1268,1268,1268,1268,1268,1268,1268,1268,1273,1273,1273,1273,1273,1268,1268,1268,1268,1268,1268,1090,1087,1087,1087,1087,1084,1084,1084,1084,1084,1087,1087,1087,1090,1090,1090,1090,1090,1090,0,0,0,0,0,0,0,0,0,0,0,720,719,719,719,717,717,719,719,720,720,720,722,723,723,727,727,727,727,727,728,728,728,728,728,727,727,0,0,0,0,0,0,0,0,1264,1264,1264,1264,1264,1264,1264,1264,1264,1264,1264,1264,1264,1264,1264,1264,1264,1264,1264,1264,1264,1264,1264,1259,1255,1255,1259,1259,1259,1259,1259,1259,1259,1259,1259,1255,1255,1255,1255,1259,1259,1259,1259,1259,1259,1259,1259,1259,1259,1259,1259,1255,1255,1255,1255,1264,1057,1057,1054,1054,1047,1044,1038,1034,1031,1028,1028,1028,1025,1025,1025,1025,1025,1022,1022,1022,1022,1022,1268,1264,1264,1264,1264,1259,1259,1259,1259,1259,1259,1259,1259,1259,1259,1255,1255,1255,1250,1250,1255,1250,1250,1250,1250,1250,1250,1250,1250,1250,1250,1250,1250,1250,1250,1250,1250,1250,1250,1250,1250,1250,1255,1255,1250,1250,1255,1255,1255,1255,1250,1250,1250,1250,1250,1250,1250,1250,1250,1250,1250,1250,1250,1250,1255,1255,1255,1255,1250,1250,1250,1250,1250,1250,1250,1250,1245,1245,1245,1245,1245,1245,1245,1245,1250,1250,1250,1250,1250,1250,1250,1250,1250,1250,1245,1245,1245,1245,1245,1245,1245,995,989,989,987,984,978,975,973,973,970,970,970,970,973,973,973,975,978,978,978,981,981,981,981,981,1250,1250,1245,1245,1241,1241,1245,1245,1245,1245,1245,1241,1241,1241,1241,1241,1241,1241,1241,1241,1241,1245,1245,1241,1241,1241,1236,1236,1236,1236,1236,1236,1236,1236,1236,1241,1245,1245,1241,1241,1241,1241,1241,1236,1236,1236,1241,1241,1241,1241,1236,1236,1236,1236,1236,1236,1236,1236,1236,1236,1236,1236,1236,1236,1236,1236,1236,1236,1236,1236,1236,1236,1232,1232,1236,1232,1232,1232,1232,1232,1232,1232,1232,1232,1227,1227,1232,1232,1232,1232,1232,1232,1232,1232,1232,1232,1232,1232,1232,1232,1232,1232,1232,1232,1232,1232,1227,1227,1227,1227,1227,1227,1227,1227,1227,1227,1223,1223,1223,1223,1223,1223,1223,1223,1223,1223,1223,1223,1219,1219,1219,1219,1219,1219,1219,1219,1219,1219,1219,1219,1219,1219,1219,1219,1219,1219,1219,1219,1219,1219,1219,1219,1219,1219,1219,1219,1219,1223,1223,1223,1223,1219,1219,1219,1219,1219,1219,1219,1219,1219,1214,1214,1210,1210,1210,1206,1206,1206,1206,1202,1197,1197,1202,1197,1197,1197,1189,1189,1185,1185,1181,1181,1177,1177,1169,1169,1169,1165,1165,1165,1161,1161,1157,1153,1153,1149,1149,1149,1145,1141,1138,1138,1138,1134,1134,1130,1126,1123,1123,1123,1119,1119,1119,1115,1112,1108,1105,1101,1097,1097,1097,0,0,0,0,0,0,0,0,0,0,0,0,0,0,0,0,0,0,0,0,0,0,0,0,0,0,0,0,0,0,0,0,0
0,0,0,0,0,0,0,1273,1273,1268,1268,1268,1268,1268,1273,1273,1273,1273,1273,1273,1268,1268,1268,1273,1273,1273,1273,1268,1268,1273,1273,1268,1268,1268,1268,1268,1268,1268,1268,1264,1264,1264,1264,1268,1268,1264,1264,1264,1264,1264,1264,1264,1264,1264,1264,1268,1268,1268,1268,1268,1268,1268,1268,1268,1268,1268,1268,1268,1268,1268,1264,1264,1264,1264,1264,1264,1264,1268,1268,1268,1268,1264,1264,1264,1264,1264,1264,1264,1264,1264,1264,1264,1264,1264,1264,1264,1264,1268,1268,1268,1268,1268,1268,1268,1264,1264,1264,1264,1264,1087,1087,1087,1087,1087,1084,1084,1084,1087,1087,1087,1087,1090,1090,1090,1090,1090,1087,1087,0,0,0,0,0,0,0,0,0,0,720,720,720,719,719,719,720,720,720,720,720,722,723,723,727,727,727,727,728,728,728,728,728,728,727,727,0,0,0,0,0,0,0,1259,1259,1259,1259,1259,1259,1259,1259,1259,1259,1259,1264,1264,1259,1259,1259,1259,1259,1259,1255,1255,1255,1255,1255,1255,1255,1255,1255,1255,1255,1255,1255,1255,1255,1255,1255,1255,1255,1255,1255,1255,1255,1255,1255,1255,1255,1255,1255,1255,1255,1255,1255,1255,1255,1250,1250,1250,1060,1057,1054,1054,1047,1041,1038,1031,1028,1025,1025,1025,1025,1022,1022,1022,1022,1022,1022,1019,1019,1019,1019,1259,1259,1259,1259,1259,1259,1255,1255,1255,1255,1255,1255,1255,1255,1250,1250,1245,1245,1245,1245,1250,1245,1245,1245,1245,1245,1245,1245,1245,1245,1250,1245,1245,1245,1245,1245,1245,1245,1245,1245,1245,1245,1245,1245,1250,1250,1250,1245,1245,1245,1245,1245,1245,1245,1245,1250,1250,1250,1250,1245,1245,1250,1250,1250,1250,1250,1250,1250,1250,1250,1250,1245,1245,1245,1245,1241,1241,1241,1241,1241,1241,1241,1241,1245,1245,1245,1245,1250,1250,1250,1250,1245,1245,1245,1245,1245,1241,1241,1245,1245,995,995,992,989,987,984,978,975,973,973,970,970,973,973,973,975,978,978,981,981,981,981,984,981,981,981,1241,1241,1241,1236,1236,1241,1236,1236,1241,1241,1241,1241,1236,1236,1236,1241,1241,1236,1236,1236,1241,1241,1236,1236,1236,1236,1236,1236,1236,1236,1236,1236,1236,1236,1236,1236,1236,1236,1236,1236,1236,1236,1236,1236,1236,1236,1236,1236,1236,1236,1236,1236,1236,1232,1232,1232,1232,1232,1232,1232,1232,1232,1232,1232,1232,1232,1232,1232,1232,1232,1232,1232,1232,1232,1232,1232,1227,1227,1227,1227,1227,1227,1227,1223,1223,1223,1227,1227,1227,1227,1227,1227,1232,1232,1232,1227,1227,1227,1232,1227,1227,1227,1227,1227,1227,1227,1223,1223,1227,1223,1223,1223,1223,1223,1223,1219,1219,1219,1219,1219,1219,1219,1219,1219,1219,1219,1219,1219,1219,1219,1214,1214,1214,1214,1214,1219,1219,1214,1214,1214,1214,1214,1214,1214,1214,1214,1219,1219,1214,1214,1219,1219,1219,1219,1219,1219,1219,1219,1219,1214,1214,1214,1214,1214,1219,1219,1219,1219,1214,1214,1214,1210,1206,1206,1206,1206,1202,1202,1202,1197,1197,1197,1197,1197,1197,1189,1189,1185,1185,1181,1181,1181,1177,1173,1169,1169,1169,1165,1165,1161,1157,1157,1153,1153,1149,1149,1149,1145,1141,1141,1138,1138,1134,1134,1130,1126,1123,1123,1123,1119,1119,1119,1115,1112,1108,1108,1105,1097,1097,1097,0,0,0,0,0,0,0,0,0,0,0,0,0,0,0,0,0,0,0,0,0,0,0,0,0,0,0,0,0,0,0,0,0
0,0,0,0,0,0,0,1268,1268,1268,1268,1268,1268,1268,1268,1268,1268,1268,1268,1268,1268,1268,1268,1268,1268,1268,1268,1268,1268,1268,1268,1268,1268,1268,1268,1264,1264,1264,1264,1264,1264,1264,1264,1264,1264,1264,1264,1264,1264,1264,1264,1264,1264,1264,1264,1264,1264,1264,1268,1268,1264,1264,1264,1264,1264,1264,1264,1264,1264,1264,1264,1264,1264,1264,1259,1259,1264,1264,1264,1264,1264,1264,1264,1264,1264,1264,1264,1264,1259,1259,1259,1259,1259,1259,1259,1264,1264,1264,1264,1264,1264,1264,1264,1264,1264,1264,1264,1259,1259,1259,1087,1087,1087,1087,1087,1087,1087,1087,1087,1087,1090,1090,1090,1090,1090,1090,1087,1087,0,0,0,0,0,0,0,0,0,0,720,720,720,719,719,720,720,720,722,722,722,723,725,725,727,727,728,728,728,728,730,730,730,728,727,727,0,0,0,0,0,0,1236,1236,1250,1250,1255,1255,1255,1255,1255,1255,1255,1255,1255,1255,1255,1255,1255,1255,1255,1255,1255,1255,1255,1255,1255,1255,1250,1250,1250,1255,1255,1255,1250,1250,1255,1255,1255,1250,1250,1250,1250,1250,1250,1250,1250,1250,1250,1250,1250,1250,1255,1255,1250,1250,1250,1250,1250,1245,1245,1245,1057,1057,1047,1041,1038,1028,1028,1025,1025,1022,1022,1022,1022,1022,1022,1019,1019,1016,1016,1016,1016,1259,1259,1259,1259,1259,1255,1255,1250,1250,1250,1250,1250,1250,1250,1245,1245,1245,1245,1245,1245,1245,1245,1245,1245,1245,1245,1245,1245,1245,1245,1245,1245,1245,1245,1245,1245,1245,1245,1245,1241,1241,1241,1241,1236,1236,1236,1236,1241,1236,1236,1236,1236,1241,1241,1241,1241,1241,1245,1241,1241,1245,1245,1245,1245,1245,1245,1245,1245,1245,1245,1245,1245,1245,1241,1241,1241,1236,1236,1241,1236,1236,1236,1236,1241,1245,1241,1241,1245,1245,1245,1245,1245,1241,1241,1236,1236,1236,1236,1236,1004,995,995,992,992,989,984,981,978,975,973,973,973,973,975,975,975,978,978,981,981,984,984,984,984,984,984,1241,1241,1236,1236,1236,1236,1236,1236,1236,1236,1236,1236,1236,1236,1236,1236,1236,1236,1236,1236,1236,1236,1236,1236,1236,1236,1236,1232,1232,1232,1232,1232,1232,1232,1232,1232,1232,1232,1232,1232,1236,1236,1232,1232,1232,1232,1232,1232,1232,1232,1232,1232,1232,1232,1232,1232,1232,1232,1232,1232,1232,1232,1232,1232,1232,1227,1227,1227,1227,1227,1227,1227,1227,1227,1227,1227,1227,1227,1227,1223,1223,1223,1223,1223,1223,1223,1223,1223,1223,1223,1223,1227,1227,1223,1223,1223,1223,1223,1223,1223,1223,1219,1219,1219,1219,1219,1219,1219,1219,1219,1219,1219,1219,1219,1219,1219,1214,1214,1219,1214,1214,1214,1214,1219,1219,1219,1219,1219,1214,1214,1214,1214,1214,1214,1214,1214,1214,1214,1214,1214,1214,1214,1210,1210,1210,1210,1210,1214,1214,1214,1214,1219,1214,1214,1214,1214,1214,1214,1210,1210,1210,1210,1214,1214,1214,1214,1214,1214,1214,1214,1210,1206,1206,1206,1202,1202,1202,1202,1202,1197,1197,1197,1202,1197,1197,1189,1189,1185,1185,1181,1181,1181,1177,1177,1169,1169,1169,1165,1165,1161,1157,1157,1153,1153,1149,1149,1149,1145,1145,1141,1138,1138,1134,1134,1130,1126,1126,1123,1123,1119,1119,1119,1115,1115,1112,1108,1105,1101,1097,1097,0,0,0,0,0,0,0,0,0,0,0,0,0,0,0,0,0,0,0,0,0,0,0,0,0,0,0,0,0,0,0,0,0
0,0,0,0,0,0,0,1268,1268,1268,1268,1264,1264,1264,1264,1264,1264,1264,1264,1264,1264,1264,1264,1264,1264,1264,1264,1264,1264,1264,1264,1268,1268,1268,1264,1264,1264,1264,1264,1259,1259,1259,1264,1264,1264,1259,1259,1259,1259,1259,1259,1259,1259,1259,1259,1259,1259,1259,1264,1264,1264,1259,1259,1259,1259,1259,1264,1264,1264,1264,1264,1264,1264,1259,1259,1259,1259,1259,1264,1259,1259,1259,1259,1259,1259,1259,1259,1259,1255,1255,1255,1255,1255,1255,1255,1255,1255,1255,1255,1255,1259,1259,1259,1259,1259,1259,1259,1259,1259,1259,1087,1087,1087,1087,1087,1087,1087,1087,1087,1090,1090,1090,1094,1094,1094,1090,1087,1087,0,0,0,0,0,0,0,0,0,0,722,722,722,720,720,720,722,722,722,722,723,725,727,727,727,728,728,728,728,730,730,731,731,728,728,0,0,0,0,0,0,1236,1236,1236,1245,1250,1250,1250,1250,1250,1250,1250,1250,1250,1250,1250,1250,1250,1250,1250,1250,1250,1250,1250,1250,1250,1250,1250,1250,1250,1250,1250,1250,1250,1250,1250,1250,1250,1250,1250,1250,1250,1250,1250,1250,1250,1245,1245,1245,1245,1245,1245,1250,1250,1250,1250,1250,1250,1245,1245,1241,1241,1060,1057,1054,1044,1034,1028,1025,1025,1025,1022,1022,1022,1019,1019,1019,1016,1016,1013,1013,1013,1013,1013,1259,1259,1259,1259,1255,1250,1250,1250,1245,1245,1245,1241,1241,1241,1241,1241,1241,1241,1241,1241,1241,1241,1241,1241,1241,1241,1241,1241,1241,1241,1241,1241,1245,1241,1241,1241,1241,1241,1236,1236,1236,1236,1232,1232,1232,1232,1232,1232,1232,1232,1236,1236,1236,1236,1236,1236,1241,1241,1241,1241,1241,1245,1245,1245,1245,1245,1241,1241,1245,1241,1241,1241,1241,1236,1236,1236,1236,1236,1236,1236,1236,1236,1236,1241,1241,1241,1241,1241,1241,1241,1236,1236,1232,1232,1232,1232,1232,1232,1004,1004,995,992,992,989,987,984,978,975,973,973,973,975,975,975,975,978,981,981,981,984,984,984,984,984,984,1236,1236,1232,1232,1232,1232,1232,1232,1232,1232,1232,1232,1232,1232,1232,1232,1232,1232,1232,1232,1232,1232,1232,1232,1232,1232,1232,1232,1232,1232,1232,1232,1232,1227,1227,1227,1227,1227,1227,1227,1232,1232,1232,1232,1232,1232,1227,1227,1227,1227,1227,1227,1227,1227,1227,1227,1227,1227,1227,1227,1227,1232,1227,1227,1227,1227,1227,1223,1223,1223,1223,1223,1223,1223,1223,1223,1223,1223,1223,1219,1219,1219,1219,1219,1219,1219,1219,1219,1219,1219,1219,1219,1219,1219,1214,1214,1214,1214,1219,1219,1219,1219,1219,1219,1219,1219,1219,1219,1219,1219,1219,1219,1219,1219,1214,1214,1214,1210,1210,1210,1210,1210,1210,1214,1214,1214,1214,1214,1214,1214,1214,1210,1210,1214,1214,1210,1210,1210,1210,1210,1210,1210,1206,1206,1206,1206,1210,1210,1210,1210,1210,1210,1214,1214,1210,1210,1210,1206,1206,1206,1206,1206,1210,1210,1214,1214,1214,1214,1210,1210,1206,1206,1206,1206,1202,1202,1202,1202,1197,1197,1197,1197,1202,1197,1197,1189,1189,1185,1185,1181,1181,1181,1177,1177,1173,1169,1169,1165,1165,1161,1157,1157,1157,1153,1153,1149,1149,1145,1145,1141,1138,1138,1138,1134,1130,1126,1126,1123,1123,1119,1119,1119,1115,1115,1112,1112,1105,1101,1097,1097,0,0,0,0,0,0,0,0,0,0,0,0,0,0,0,0,0,0,0,0,0,0,0,0,0,0,0,0,0,0,0,0,0
0,0,0,0,0,0,0,1264,1264,1264,1264,1264,1264,1264,1264,1264,1264,1264,1264,1264,1259,1259,1259,1259,1259,1259,1259,1264,1264,1264,1264,1264,1264,1264,1264,1264,1259,1259,1259,1259,1259,1259,1259,1259,1259,1259,1259,1259,1259,1255,1255,1255,1255,1259,1259,1259,1259,1259,1259,1259,1259,1255,1255,1255,1255,1255,1259,1259,1259,1259,1259,1259,1259,1259,1259,1259,1259,1259,1259,1259,1259,1255,1255,1255,1255,1250,1250,1255,1250,1250,1250,1250,1250,1250,1250,1250,1250,1250,1250,1255,1255,1255,1255,1255,1255,1255,1255,1250,1250,1250,1090,1087,1087,1087,1087,1087,1087,1087,1090,1090,1090,1094,1090,1090,1090,1090,1087,1087,1087,0,0,0,0,0,0,0,0,723,722,722,722,722,722,722,722,722,722,723,723,725,727,727,728,728,728,730,730,731,731,733,733,733,0,0,0,0,0,0,0,1232,1232,1232,1236,1241,1245,1245,1245,1245,1245,1245,1245,1245,1245,1250,1250,1250,1250,1250,1245,1245,1250,1250,1250,1245,1245,1245,1245,1245,1245,1245,1245,1250,1250,1250,1250,1250,1250,1245,1245,1245,1245,1245,1245,1245,1245,1245,1241,1241,1241,1241,1241,1245,1245,1245,1245,1245,1245,1241,1241,1241,1236,1236,1236,1034,1034,1025,1025,1022,1022,1022,1022,1019,1019,1016,1016,1013,1013,1010,1010,1007,1007,1004,1004,1004,1001,1250,1250,1245,1245,1241,1241,1236,1236,1236,1236,1236,1236,1236,1236,1236,1236,1236,1236,1236,1236,1241,1241,1241,1241,1236,1236,1241,1236,1236,1241,1236,1236,1236,1236,1236,1232,1232,1232,1232,1232,1232,1232,1232,1232,1232,1227,1227,1227,1227,1232,1232,1232,1232,1236,1236,1236,1236,1236,1241,1241,1241,1241,1241,1241,1241,1241,1241,1241,1236,1236,1236,1236,1232,1232,1232,1232,1232,1232,1232,1232,1236,1236,1236,1236,1236,1236,1236,1232,1227,1227,1227,1223,1223,1219,1219,1004,1004,1001,998,995,992,989,984,978,975,975,975,975,975,975,975,978,981,981,981,984,984,987,987,984,984,1232,1232,1232,1232,1232,1232,1232,1232,1232,1232,1232,1232,1232,1227,1227,1227,1227,1227,1227,1227,1232,1232,1232,1232,1232,1232,1232,1232,1232,1232,1227,1227,1227,1227,1223,1223,1223,1223,1223,1223,1223,1227,1227,1227,1227,1227,1227,1223,1223,1223,1223,1223,1223,1223,1223,1223,1223,1223,1223,1223,1223,1223,1227,1223,1223,1223,1223,1223,1223,1223,1219,1219,1219,1219,1219,1219,1219,1219,1219,1219,1219,1219,1219,1219,1214,1214,1219,1214,1214,1214,1214,1214,1219,1214,1214,1214,1210,1210,1210,1210,1210,1214,1214,1214,1214,1214,1214,1214,1214,1214,1214,1214,1214,1214,1214,1214,1214,1214,1210,1206,1206,1210,1210,1210,1214,1214,1214,1214,1214,1214,1210,1210,1210,1210,1210,1206,1206,1206,1206,1206,1206,1206,1206,1206,1206,1202,1202,1206,1206,1206,1206,1206,1210,1210,1206,1206,1206,1206,1206,1202,1202,1206,1202,1202,1202,1210,1210,1210,1210,1210,1206,1202,1202,1202,1202,1197,1197,1202,1202,1197,1197,1197,1197,1197,1197,1193,1189,1189,1185,1185,1181,1181,1181,1181,1177,1177,1169,1169,1165,1165,1161,1157,1157,1157,1153,1153,1149,1145,1145,1141,1141,1138,1138,1138,1134,1130,1126,1126,1123,1123,1119,1119,1119,1115,1115,1112,1108,1105,1105,1097,1097,0,0,0,0,0,0,0,0,0,0,0,0,0,0,0,0,0,0,0,0,0,0,0,0,0,0,0,0,0,0,0,0,0
0,0,0,0,0,0,0,1264,1264,1259,1259,1259,1259,1259,1259,1259,1259,1259,1259,1259,1255,1255,1255,1255,1255,1255,1255,1255,1255,1255,1259,1259,1259,1264,1259,1259,1255,1255,1259,1255,1255,1255,1255,1255,1255,1255,1255,1255,1255,1250,1250,1250,1250,1255,1255,1255,1255,1255,1255,1255,1255,1250,1250,1250,1250,1250,1255,1255,1255,1255,1259,1259,1259,1259,1255,1255,1259,1259,1255,1255,1255,1255,1255,1255,1250,1250,1250,1250,1250,1250,1250,1245,1245,1250,1250,1250,1245,1245,1250,1250,1250,1250,1250,1250,1250,1250,1250,1250,1250,1250,1090,1087,1087,1087,1087,1087,1087,1087,1090,1090,1090,1094,1090,1090,1090,1090,1087,1087,1087,0,0,0,0,0,0,0,723,723,723,723,723,722,722,722,722,722,722,723,725,725,727,728,728,728,728,730,731,731,733,733,733,733,0,0,0,0,0,0,0,1232,1232,1232,1236,1241,1241,1241,1241,1245,1245,1245,1245,1245,1245,1245,1245,1245,1245,1245,1245,1245,1245,1245,1245,1241,1241,1241,1241,1241,1241,1241,1245,1245,1245,1245,1245,1245,1245,1245,1245,1241,1241,1241,1241,1241,1241,1241,1241,1241,1236,1236,1236,1241,1241,1241,1241,1241,1241,1241,1241,1236,1236,1236,1236,1236,1025,1025,1025,1022,1022,1022,1019,1016,1016,1013,1013,1010,1010,1007,1007,1004,1004,1001,1001,1001,1001,1236,1236,1236,1241,1236,1236,1236,1232,1232,1232,1232,1232,1232,1232,1232,1232,1232,1232,1232,1236,1236,1236,1236,1236,1236,1236,1236,1236,1236,1236,1232,1232,1232,1232,1232,1232,1232,1232,1232,1232,1232,1227,1227,1227,1227,1227,1227,1227,1227,1227,1227,1227,1227,1232,1232,1232,1232,1232,1236,1236,1236,1236,1236,1236,1236,1236,1236,1236,1236,1232,1232,1232,1227,1227,1232,1232,1232,1232,1232,1232,1232,1232,1232,1232,1232,1232,1232,1227,1227,1227,1223,1223,1223,1219,1219,1004,1004,1001,1001,998,995,992,984,981,978,978,978,978,978,978,978,978,981,981,981,984,987,987,987,987,987,1232,1232,1232,1227,1227,1232,1232,1227,1227,1227,1227,1227,1227,1223,1223,1227,1227,1223,1223,1227,1227,1227,1227,1227,1227,1232,1232,1227,1227,1227,1227,1223,1223,1223,1223,1219,1219,1219,1219,1219,1219,1219,1219,1223,1223,1223,1219,1219,1219,1219,1219,1219,1219,1219,1219,1219,1223,1219,1219,1219,1219,1219,1223,1219,1219,1219,1219,1219,1219,1219,1214,1214,1219,1219,1219,1219,1219,1219,1219,1219,1219,1219,1214,1214,1214,1214,1214,1214,1210,1210,1210,1210,1210,1210,1210,1210,1210,1210,1206,1206,1206,1206,1210,1210,1210,1210,1210,1210,1210,1210,1214,1210,1210,1214,1214,1214,1214,1210,1210,1206,1206,1206,1210,1210,1210,1210,1210,1210,1210,1206,1206,1206,1206,1206,1206,1206,1202,1202,1202,1202,1202,1202,1202,1202,1202,1202,1202,1202,1202,1202,1202,1202,1202,1206,1206,1202,1202,1202,1202,1202,1202,1202,1202,1202,1202,1206,1206,1206,1206,1202,1202,1202,1197,1197,1197,1197,1197,1197,1197,1197,1197,1197,1193,1193,1197,1189,1189,1185,1185,1185,1181,1181,1181,1181,1177,1177,1169,1169,1165,1165,1165,1161,1161,1157,1153,1153,1149,1145,1145,1141,1141,1138,1138,1138,1134,1134,1130,1126,1126,1123,1119,1119,1119,1115,1115,1112,1108,1105,1101,1097,1097,0,0,0,0,0,0,0,0,0,0,0,0,0,0,0,0,0,0,0,0,0,0,0,0,0,0,0,0,0,0,0,0,0
0,0,0,0,0,0,0,1259,1259,1255,1255,1255,1255,1255,1255,1255,1255,1255,1255,1255,1250,1250,1250,1250,1250,1250,1250,1250,1250,1250,1250,1250,1250,1250,1255,1255,1255,1255,1255,1255,1255,1255,1255,1255,1255,1255,1255,1250,1250,1250,1250,1250,1250,1250,1250,1250,1255,1255,1255,1250,1250,1250,1250,1250,1250,1250,1250,1250,1250,1255,1255,1259,1255,1255,1255,1255,1255,1255,1250,1250,1250,1250,1250,1250,1245,1245,1245,1245,1245,1245,1245,1245,1245,1245,1245,1245,1245,1245,1245,1245,1245,1245,1245,1245,1245,1245,1245,1241,1241,1241,1245,1090,1090,1090,1090,1090,1090,1090,1090,1090,1094,1094,1094,1094,1090,1090,1087,1084,1084,0,0,0,0,0,0,0,723,723,725,723,723,723,723,723,723,723,723,723,725,727,727,728,728,728,730,730,731,733,733,733,734,734,734,0,0,0,0,0,0,1232,1232,1232,1236,1241,1241,1241,1241,1241,1241,1241,1241,1241,1241,1241,1241,1241,1245,1241,1241,1241,1241,1241,1241,1241,1236,1236,1241,1241,1236,1236,1241,1241,1241,1241,1241,1241,1241,1241,1241,1241,1241,1236,1236,1236,1236,1236,1236,1236,1232,1232,1236,1236,1236,1236,1236,1241,1241,1236,1236,1236,1236,1232,1232,1232,1232,1025,1025,1022,1022,1019,1019,1013,1010,1010,1010,1010,1007,1004,1004,1004,1001,1001,1001,1001,1001,1001,1236,1236,1236,1232,1232,1232,1232,1232,1232,1232,1227,1227,1232,1227,1227,1232,1232,1232,1232,1232,1232,1232,1232,1232,1232,1232,1232,1232,1232,1232,1232,1232,1232,1232,1227,1227,1227,1227,1227,1227,1227,1227,1227,1227,1223,1223,1227,1227,1227,1227,1227,1227,1227,1227,1227,1227,1227,1232,1232,1232,1232,1232,1232,1232,1232,1232,1232,1232,1232,1232,1232,1227,1227,1227,1227,1227,1227,1227,1227,1227,1227,1227,1227,1227,1227,1227,1223,1223,1223,1223,1219,1219,1219,1219,1004,1004,1001,998,995,995,992,984,981,981,978,978,978,978,978,978,978,981,981,981,984,987,989,989,989,989,989,1232,1232,1227,1227,1227,1227,1227,1227,1227,1227,1223,1223,1223,1223,1223,1223,1223,1223,1223,1223,1223,1223,1223,1223,1227,1227,1227,1223,1223,1223,1219,1219,1219,1219,1214,1214,1214,1214,1214,1214,1214,1214,1219,1219,1219,1219,1214,1214,1214,1214,1214,1214,1214,1219,1219,1219,1219,1219,1219,1219,1219,1219,1219,1219,1219,1214,1214,1214,1214,1214,1214,1214,1214,1214,1214,1214,1214,1214,1214,1214,1214,1214,1214,1210,1210,1210,1210,1210,1210,1206,1206,1210,1206,1206,1206,1206,1206,1202,1202,1206,1206,1206,1206,1206,1206,1206,1206,1206,1206,1206,1206,1206,1206,1210,1206,1206,1206,1206,1206,1206,1206,1206,1206,1206,1202,1202,1206,1202,1202,1202,1202,1206,1206,1202,1202,1202,1202,1202,1202,1197,1197,1197,1197,1197,1197,1197,1197,1197,1197,1197,1202,1202,1202,1202,1202,1197,1197,1197,1197,1202,1202,1197,1197,1202,1202,1202,1202,1202,1197,1197,1197,1197,1197,1197,1197,1197,1197,1197,1197,1193,1193,1193,1189,1189,1189,1189,1185,1185,1185,1181,1181,1181,1181,1177,1177,1169,1169,1169,1165,1165,1161,1161,1157,1153,1153,1149,1145,1145,1141,1141,1141,1138,1138,1138,1134,1130,1130,1126,1123,1119,1119,1115,1115,1115,1112,1108,1105,1101,1097,1097,0,0,0,0,0,0,0,0,0,0,0,0,0,0,0,0,0,0,0,0,0,0,0,0,0,0,0,0,0,0,0,0,0
0,0,0,0,0,0,0,1255,1255,1250,1250,1250,1250,1250,1250,1250,1250,1250,1250,1250,1250,1250,1245,1245,1245,1245,1245,1250,1250,1250,1250,1250,1250,1245,1245,1245,1245,1245,1250,1250,1250,1250,1250,1255,1250,1250,1250,1250,1250,1250,1245,1245,1245,1245,1245,1250,1250,1250,1245,1245,1245,1245,1245,1245,1245,1245,1250,1250,1250,1250,1250,1255,1255,1255,1250,1250,1250,1250,1250,1250,1245,1245,1241,1241,1245,1245,1245,1245,1245,1245,1245,1245,1245,1245,1245,1245,1245,1245,1245,1245,1241,1241,1241,1241,1241,1241,1241,1236,1236,1236,1094,1090,1090,1090,1090,1090,1090,1090,1090,1094,1094,1094,1094,1094,1094,1090,1087,1084,1084,0,0,0,0,0,0,0,723,723,725,725,725,725,725,725,725,723,723,725,725,727,727,728,728,730,730,731,733,733,733,734,734,734,734,0,0,0,0,0,0,0,1232,1232,1236,1236,1236,1236,1236,1236,1236,1236,1236,1236,1236,1236,1236,1241,1241,1241,1241,1236,1236,1236,1236,1236,1236,1232,1232,1232,1236,1236,1236,1236,1236,1236,1241,1241,1241,1236,1236,1236,1236,1232,1232,1232,1232,1232,1232,1232,1232,1232,1232,1232,1232,1232,1232,1232,1236,1232,1232,1232,1232,1232,1232,1227,1227,1227,1022,1022,1022,1019,1016,1013,1010,1007,1004,1001,1001,1001,1001,1001,1001,1001,1001,1001,1001,1001,1232,1232,1232,1232,1232,1232,1232,1232,1227,1227,1227,1227,1227,1227,1227,1227,1227,1227,1223,1223,1227,1227,1227,1227,1227,1227,1227,1227,1227,1227,1227,1227,1227,1227,1227,1227,1223,1223,1223,1223,1223,1227,1227,1223,1219,1219,1223,1223,1223,1223,1223,1223,1227,1227,1223,1223,1223,1227,1227,1227,1227,1227,1227,1232,1232,1232,1227,1227,1227,1227,1227,1223,1223,1223,1227,1227,1223,1223,1223,1223,1223,1223,1223,1223,1223,1223,1223,1219,1219,1219,1219,1219,1219,1219,1001,1001,998,998,995,995,992,987,984,981,981,978,978,978,978,978,981,981,984,984,987,989,989,989,992,989,989,1223,1223,1223,1227,1227,1223,1223,1223,1223,1223,1219,1219,1219,1219,1219,1219,1219,1219,1219,1219,1219,1219,1219,1219,1223,1223,1223,1223,1219,1219,1219,1214,1214,1214,1214,1214,1214,1214,1214,1214,1214,1214,1214,1214,1214,1214,1214,1214,1214,1210,1210,1210,1210,1214,1214,1219,1219,1219,1219,1219,1219,1219,1214,1214,1214,1214,1214,1210,1210,1210,1210,1210,1210,1210,1210,1214,1214,1214,1214,1210,1210,1210,1210,1206,1206,1206,1206,1206,1206,1206,1206,1206,1202,1202,1202,1206,1202,1202,1202,1202,1202,1202,1202,1206,1202,1202,1202,1202,1202,1206,1202,1202,1206,1206,1202,1202,1206,1202,1202,1202,1202,1202,1202,1202,1197,1197,1202,1202,1202,1202,1202,1202,1202,1202,1202,1197,1197,1197,1197,1197,1197,1197,1197,1197,1197,1193,1193,1193,1193,1193,1197,1193,1193,1193,1197,1197,1197,1197,1193,1193,1193,1193,1197,1197,1197,1197,1197,1197,1193,1193,1197,1193,1193,1193,1193,1193,1193,1193,1193,1193,1193,1189,1189,1189,1189,1189,1185,1185,1185,1181,1181,1181,1177,1177,1173,1169,1169,1169,1165,1165,1165,1161,1157,1153,1153,1153,1145,1145,1141,1141,1141,1138,1138,1138,1134,1134,1130,1126,1123,1119,1119,1115,1115,1115,1112,1108,1105,1101,1097,1097,0,0,0,0,0,0,0,0,0,0,0,0,0,0,0,0,0,0,0,0,0,0,0,0,0,0,0,0,0,0,0,0,0
0,0,0,0,0,0,0,1250,1250,1250,1245,1245,1250,1250,1245,1245,1250,1250,1245,1245,1245,1245,1241,1241,1245,1245,1245,1245,1245,1245,1245,1245,1245,1241,1241,1241,1241,1241,1245,1245,1245,1245,1250,1250,1250,1250,1250,1245,1245,1245,1241,1241,1241,1241,1241,1241,1245,1245,1241,1241,1245,1245,1241,1241,1241,1241,1245,1245,1245,1245,1245,1245,1250,1250,1245,1245,1250,1250,1245,1245,1241,1241,1236,1236,1236,1241,1241,1241,1241,1241,1241,1241,1241,1241,1241,1241,1241,1236,1236,1241,1236,1236,1236,1236,1236,1236,1236,1236,1236,1236,1094,1094,1090,1090,1090,1090,1090,1090,1090,1094,1097,1097,1097,1097,1094,1090,1087,1087,1087,0,0,0,0,0,0,0,0,725,725,725,725,725,725,725,725,725,725,725,727,727,727,728,728,730,730,731,733,733,733,734,734,734,734,734,0,0,0,0,0,0,1232,1232,1232,1236,1236,1236,1236,1232,1232,1232,1232,1232,1232,1232,1232,1227,1227,1227,1227,1232,1232,1232,1232,1232,1232,1232,1232,1232,1232,1232,1232,1232,1232,1232,1232,1232,1232,1232,1232,1232,1232,1232,1232,1232,1232,1232,1232,1232,1232,1232,1232,1227,1227,1227,1227,1227,1227,1227,1227,1227,1227,1227,1227,1227,1227,1227,1022,1022,1022,1019,1016,1013,1010,1007,1001,1001,998,998,998,998,998,998,998,998,998,998,998,1232,1227,1227,1227,1227,1227,1227,1227,1227,1227,1227,1223,1223,1223,1219,1219,1219,1219,1219,1223,1223,1223,1223,1223,1223,1223,1223,1223,1223,1223,1223,1223,1223,1219,1219,1223,1223,1223,1223,1223,1223,1223,1219,1219,1219,1219,1219,1223,1223,1223,1223,1223,1223,1219,1219,1219,1223,1223,1223,1223,1223,1227,1227,1227,1227,1223,1223,1223,1223,1223,1219,1219,1219,1223,1223,1219,1219,1219,1219,1219,1219,1219,1219,1219,1219,1219,1219,1219,1219,1219,1219,1219,992,992,992,992,995,995,992,992,987,984,981,981,978,978,978,978,978,981,981,984,984,987,989,989,992,992,992,992,1223,1223,1223,1223,1223,1219,1219,1219,1219,1219,1219,1219,1214,1214,1214,1214,1214,1214,1214,1214,1214,1219,1219,1219,1219,1219,1219,1219,1219,1214,1214,1214,1214,1214,1214,1210,1210,1210,1210,1210,1210,1210,1214,1214,1210,1210,1210,1210,1210,1206,1206,1206,1206,1206,1210,1210,1214,1214,1214,1214,1214,1214,1214,1210,1210,1206,1206,1206,1206,1206,1206,1206,1206,1206,1206,1206,1210,1210,1210,1210,1210,1206,1206,1206,1206,1206,1206,1202,1202,1202,1202,1202,1202,1202,1202,1202,1202,1202,1202,1202,1202,1202,1202,1202,1202,1202,1202,1202,1202,1197,1197,1197,1202,1202,1202,1202,1202,1202,1197,1197,1197,1197,1197,1193,1193,1193,1193,1193,1197,1197,1197,1202,1202,1197,1197,1197,1197,1197,1197,1197,1197,1197,1197,1197,1193,1189,1189,1189,1189,1189,1189,1189,1189,1189,1193,1193,1193,1193,1193,1193,1193,1189,1189,1189,1193,1189,1189,1189,1189,1189,1189,1189,1189,1189,1189,1193,1193,1189,1189,1189,1189,1189,1185,1185,1185,1185,1185,1185,1185,1181,1181,1181,1177,1177,1173,1169,1169,1169,1165,1165,1165,1161,1157,1153,1153,1153,1149,1145,1141,1141,1138,1138,1138,1134,1134,1134,1134,1126,1123,1119,1119,1119,1115,1115,1112,1108,1105,1101,1097,1097,0,0,0,0,0,0,0,0,0,0,0,0,0,0,0,0,0,0,0,0,0,0,0,0,0,0,0,0,0,0,0,0,0
0,0,0,0,0,0,0,1250,1250,1245,1245,1245,1245,1245,1245,1245,1245,1245,1241,1241,1236,1236,1236,1236,1236,1241,1241,1245,1245,1245,1245,1245,1241,1236,1236,1236,1236,1236,1236,1236,1236,1236,1241,1241,1241,1241,1245,1245,1245,1241,1236,1236,1236,1236,1236,1236,1236,1241,1241,1241,1241,1241,1241,1236,1236,1236,1236,1241,1241,1241,1241,1241,1241,1241,1245,1245,1241,1241,1241,1241,1236,1236,1232,1232,1232,1236,1236,1236,1236,1236,1236,1236,1236,1232,1232,1236,1236,1232,1232,1236,1232,1232,1232,1232,1236,1236,1236,1232,1232,1232,1094,1094,1090,1090,1090,1090,1090,1090,1094,1094,1097,1097,1097,1097,1097,1094,1090,1090,0,0,0,0,0,0,0,0,0,723,723,723,723,725,725,725,725,725,725,725,727,727,728,728,730,730,731,733,733,733,734,734,734,734,734,734,0,0,0,0,0,0,0,1232,1232,1232,1232,1232,1232,1232,1232,1227,1227,1227,1227,1227,1227,1227,1227,1227,1227,1227,1227,1227,1232,1232,1232,1227,1227,1227,1227,1227,1227,1227,1227,1232,1232,1232,1227,1227,1227,1227,1227,1227,1227,1227,1227,1227,1227,1227,1227,1227,1227,1227,1223,1223,1223,1223,1223,1223,1223,1223,1227,1223,1223,1223,1223,1223,1223,1022,1022,1019,1016,1010,1007,1004,1001,998,998,998,998,998,998,998,998,998,995,995,998,1227,1227,1227,1227,1227,1227,1227,1227,1227,1223,1223,1223,1219,1219,1219,1219,1219,1219,1219,1219,1219,1219,1219,1219,1219,1223,1219,1219,1219,1219,1219,1219,1219,1214,1214,1214,1214,1214,1214,1214,1219,1219,1219,1214,1214,1214,1219,1214,1214,1214,1214,1214,1214,1214,1214,1214,1219,1219,1219,1219,1219,1219,1219,1219,1223,1219,1219,1219,1219,1219,1219,1219,1219,1219,1219,1219,1214,1214,1214,1214,1219,1219,1219,1219,1219,1219,1219,1219,1219,1219,1219,1219,987,987,987,989,992,992,992,989,987,984,981,981,981,981,978,978,981,981,981,984,984,987,989,989,992,992,992,992,1214,1214,1214,1219,1219,1219,1219,1219,1219,1219,1214,1214,1214,1214,1210,1210,1210,1210,1210,1210,1214,1214,1214,1214,1214,1214,1214,1214,1210,1210,1210,1206,1206,1210,1210,1210,1210,1210,1210,1210,1206,1206,1210,1210,1210,1210,1206,1206,1206,1206,1206,1206,1206,1206,1206,1206,1206,1206,1206,1210,1210,1210,1210,1206,1206,1206,1206,1206,1206,1206,1202,1202,1206,1202,1202,1202,1202,1206,1206,1206,1206,1202,1202,1202,1202,1202,1202,1202,1202,1202,1202,1202,1202,1197,1197,1202,1197,1197,1197,1197,1197,1197,1202,1197,1197,1197,1197,1197,1197,1197,1197,1193,1193,1193,1197,1197,1197,1197,1197,1197,1193,1193,1193,1189,1189,1189,1189,1189,1189,1197,1197,1197,1197,1197,1197,1193,1193,1197,1197,1193,1193,1193,1193,1193,1193,1189,1189,1189,1189,1189,1189,1185,1185,1185,1185,1185,1185,1185,1189,1189,1189,1185,1185,1185,1185,1185,1185,1185,1185,1185,1185,1185,1185,1185,1185,1185,1185,1185,1185,1185,1185,1185,1185,1185,1185,1185,1185,1185,1181,1181,1181,1181,1177,1173,1169,1169,1169,1169,1165,1165,1165,1161,1161,1157,1153,1153,1153,1145,1141,1141,1138,1138,1138,1134,1134,1134,1134,1130,1123,1119,1119,1119,1115,1115,1112,1108,1105,1101,1101,1101,0,0,0,0,0,0,0,0,0,0,0,0,0,0,0,0,0,0,0,0,0,0,0,0,0,0,0,0,0,0,0,0,0
0,0,0,0,0,0,0,1245,1245,1245,1241,1241,1245,1241,1241,1245,1241,1241,1236,1236,1236,1236,1232,1232,1232,1236,1236,1236,1241,1241,1245,1241,1241,1236,1236,1236,1232,1232,1232,1232,1232,1232,1232,1236,1236,1236,1236,1236,1236,1236,1236,1236,1236,1232,1232,1232,1232,1236,1236,1236,1236,1236,1236,1236,1236,1236,1236,1236,1236,1236,1236,1236,1236,1236,1236,1236,1236,1236,1232,1232,1232,1232,1232,1232,1232,1232,1232,1236,1232,1232,1236,1232,1232,1232,1232,1232,1232,1232,1232,1232,1232,1232,1232,1232,1232,1232,1232,1232,1232,1232,1227,1094,1094,1094,1090,1090,1090,1090,1094,1094,1097,1097,1097,1097,1097,1094,1094,1097,0,0,0,0,0,0,0,0,0,723,723,723,723,725,725,725,725,725,725,727,727,728,728,730,730,731,731,733,733,733,734,734,734,736,736,736,738,0,0,0,0,0,0,1232,1227,1227,1227,1227,1227,1227,1227,1227,1227,1227,1223,1223,1223,1223,1223,1223,1223,1223,1227,1227,1227,1227,1227,1227,1227,1227,1227,1227,1223,1223,1227,1227,1227,1227,1227,1227,1227,1227,1227,1227,1227,1227,1227,1227,1227,1227,1227,1227,1227,1223,1223,1223,1219,1219,1219,1219,1219,1219,1219,1219,1219,1219,1219,1219,1219,1019,1019,1019,1010,1007,1004,1001,998,998,995,995,995,995,995,995,995,995,992,992,989,989,1232,1227,1227,1227,1227,1227,1223,1223,1219,1219,1219,1219,1214,1214,1214,1214,1214,1214,1219,1214,1214,1214,1219,1219,1219,1214,1214,1214,1214,1214,1214,1214,1214,1214,1214,1214,1214,1214,1214,1214,1214,1214,1214,1210,1210,1214,1214,1210,1210,1210,1210,1210,1210,1210,1210,1214,1214,1214,1214,1214,1214,1214,1214,1210,1210,1214,1214,1214,1214,1214,1214,1214,1214,1214,1214,1214,1210,1210,1210,1214,1214,1214,1219,1219,1219,1219,1219,1219,984,984,987,987,987,987,987,989,989,989,989,987,984,981,981,981,981,981,981,981,981,981,984,987,989,992,992,992,992,992,992,1214,1214,1214,1214,1214,1214,1214,1214,1214,1214,1214,1214,1214,1210,1210,1210,1210,1210,1210,1206,1206,1206,1206,1210,1206,1206,1210,1206,1206,1206,1206,1206,1206,1206,1206,1206,1206,1206,1206,1206,1206,1206,1206,1202,1202,1202,1202,1202,1202,1202,1202,1202,1202,1202,1206,1202,1202,1202,1202,1206,1202,1202,1202,1206,1202,1202,1202,1202,1202,1202,1202,1202,1202,1202,1202,1202,1202,1202,1202,1202,1202,1202,1202,1197,1197,1197,1197,1197,1197,1197,1197,1197,1197,1197,1197,1197,1197,1197,1197,1197,1197,1197,1197,1197,1197,1197,1197,1193,1189,1189,1193,1193,1189,1189,1189,1189,1189,1193,1193,1189,1189,1189,1189,1189,1185,1185,1185,1185,1185,1185,1189,1189,1189,1189,1189,1189,1189,1189,1193,1189,1189,1189,1189,1189,1189,1185,1185,1185,1189,1189,1185,1185,1185,1185,1185,1181,1181,1185,1185,1185,1185,1185,1185,1185,1185,1181,1181,1181,1181,1181,1185,1185,1185,1185,1185,1185,1185,1185,1181,1181,1185,1185,1181,1181,1185,1185,1185,1181,1181,1181,1181,1181,1177,1173,1169,1169,1169,1169,1165,1165,1165,1161,1161,1157,1157,1153,1153,1145,1145,1141,1141,1138,1138,1134,1134,1134,1130,1126,1123,1119,1119,1119,1115,1115,1112,1108,1105,1105,1101,1101,0,0,0,0,0,0,0,0,0,0,0,0,0,0,0,0,0,0,0,0,0,0,0,0,0,0,0,0,0,0,0,0,0
0,0,0,0,0,0,0,1241,1241,1241,1236,1236,1241,1236,1236,1241,1236,1236,1232,1232,1232,1232,1232,1232,1232,1232,1232,1232,1236,1236,1241,1236,1236,1232,1232,1232,1232,1232,1227,1227,1227,1227,1232,1232,1232,1232,1232,1232,1232,1232,1232,1227,1227,1232,1232,1232,1232,1232,1232,1232,1232,1232,1232,1232,1232,1232,1232,1232,1232,1232,1232,1232,1232,1232,1232,1232,1227,1227,1227,1227,1227,1227,1227,1227,1227,1227,1232,1232,1232,1232,1232,1232,1232,1227,1227,1227,1227,1227,1227,1227,1227,1227,1227,1232,1232,1232,1227,1227,1227,1227,1227,1223,1094,1094,1094,1094,1094,1094,1097,1097,1097,1097,1097,1097,1097,1097,1097,1097,0,0,0,0,0,0,0,0,0,0,0,725,725,725,725,725,725,725,725,727,727,728,728,730,730,731,733,733,733,733,734,734,736,736,736,738,738,0,0,0,0,0,0,0,1227,1227,1227,1227,1227,1227,1227,1223,1223,1223,1219,1219,1219,1219,1219,1219,1219,1219,1223,1223,1223,1223,1227,1223,1223,1223,1223,1223,1223,1223,1223,1223,1223,1223,1223,1223,1227,1227,1227,1223,1223,1223,1223,1227,1227,1223,1223,1223,1223,1223,1219,1219,1219,1219,1214,1214,1214,1214,1214,1214,1214,1214,1214,1214,1214,1210,1010,1010,1007,1004,1001,998,998,995,995,995,995,995,995,992,992,989,989,989,989,987,987,987,1227,1227,1223,1219,1219,1223,1219,1219,1214,1214,1214,1214,1214,1214,1214,1214,1214,1214,1214,1214,1214,1214,1214,1214,1214,1214,1214,1210,1210,1210,1210,1210,1210,1210,1210,1210,1210,1210,1210,1214,1210,1210,1210,1210,1210,1210,1206,1206,1206,1206,1206,1206,1206,1214,1214,1214,1214,1214,1210,1210,1210,1206,1206,1210,1210,1210,1210,1214,1214,1214,1214,1214,1214,1210,1210,1210,1210,1210,1210,1214,1214,1219,1219,981,981,981,981,984,984,984,984,984,987,987,987,987,987,987,984,981,981,981,981,981,981,981,984,984,987,987,989,992,992,995,998,998,998,998,1214,1214,1206,1206,1210,1206,1206,1210,1210,1210,1210,1210,1210,1206,1206,1206,1206,1206,1206,1206,1206,1206,1206,1206,1206,1206,1206,1206,1202,1202,1202,1202,1202,1202,1202,1202,1202,1202,1202,1202,1202,1202,1202,1202,1202,1197,1197,1197,1197,1197,1202,1202,1202,1202,1202,1202,1202,1202,1202,1202,1197,1197,1197,1197,1197,1202,1202,1202,1202,1202,1202,1202,1197,1197,1197,1197,1197,1197,1197,1197,1197,1197,1197,1197,1197,1197,1197,1197,1197,1197,1193,1193,1193,1193,1193,1193,1189,1189,1189,1193,1193,1193,1189,1189,1189,1193,1189,1189,1189,1189,1189,1189,1185,1185,1185,1185,1185,1185,1185,1185,1185,1185,1185,1185,1185,1181,1181,1181,1185,1185,1185,1185,1185,1185,1185,1185,1185,1189,1189,1189,1189,1185,1185,1185,1185,1185,1185,1185,1185,1185,1185,1185,1185,1181,1181,1181,1181,1181,1181,1181,1181,1185,1185,1181,1181,1181,1181,1181,1181,1181,1181,1185,1185,1185,1181,1181,1181,1181,1181,1181,1181,1181,1181,1181,1181,1181,1181,1181,1181,1177,1177,1173,1173,1169,1169,1169,1169,1165,1165,1165,1161,1161,1161,1157,1153,1153,1145,1145,1141,1141,1138,1138,1134,1134,1134,1130,1126,1123,1123,1119,1119,1115,1115,1112,1108,1105,1105,1101,1101,0,0,0,0,0,0,0,0,0,0,0,0,0,0,0,0,0,0,0,0,0,0,0,0,0,0,0,0,0,0,0,0,0
0,0,0,0,0,0,0,1241,1241,1236,1236,1236,1236,1236,1236,1236,1232,1232,1232,1232,1232,1232,1232,1232,1232,1227,1227,1227,1232,1232,1232,1232,1232,1232,1227,1227,1227,1227,1227,1227,1227,1227,1227,1227,1227,1227,1232,1232,1232,1232,1227,1227,1227,1227,1227,1227,1227,1227,1232,1232,1232,1232,1232,1232,1232,1232,1232,1232,1232,1232,1227,1227,1227,1227,1227,1227,1227,1227,1227,1227,1227,1223,1223,1227,1223,1223,1227,1232,1227,1227,1232,1232,1227,1227,1227,1227,1227,1227,1227,1227,1227,1227,1227,1227,1227,1227,1227,1227,1227,1227,1227,1227,1227,1227,1094,1094,1094,1094,1097,1097,1101,1101,1101,1101,1097,1097,1097,1097,0,0,0,0,0,0,0,0,0,0,0,0,725,725,725,725,725,725,727,727,728,728,728,730,730,731,733,733,733,734,734,734,736,736,738,738,738,0,0,0,0,0,0,0,1227,1223,1223,1227,1223,1223,1223,1219,1219,1219,1219,1219,1219,1214,1214,1214,1214,1219,1219,1219,1219,1223,1223,1219,1219,1219,1219,1219,1219,1219,1219,1223,1223,1223,1223,1223,1223,1223,1223,1223,1223,1223,1223,1223,1223,1219,1219,1219,1219,1219,1219,1214,1214,1214,1214,1214,1214,1214,1214,1214,1210,1210,1210,1210,1210,1210,1010,1010,1007,1004,1001,998,998,995,992,992,992,989,989,989,989,987,987,987,987,984,984,984,1227,1227,1219,1214,1214,1214,1214,1214,1214,1214,1214,1214,1210,1210,1210,1210,1210,1210,1210,1210,1210,1214,1210,1210,1210,1210,1210,1210,1210,1210,1210,1210,1210,1210,1210,1210,1210,1210,1210,1210,1210,1210,1210,1210,1210,1206,1206,1202,1202,1202,1202,1202,1202,1206,1206,1210,1210,1210,1206,1206,1206,1206,1206,1206,1206,1206,1206,1206,1206,1206,1210,1210,1210,1210,1206,1206,1210,1210,1210,1210,978,978,978,981,981,981,981,981,984,984,984,984,984,987,987,987,987,987,984,984,981,981,981,981,981,984,984,987,987,989,992,992,995,998,998,998,998,998,1202,1202,1202,1202,1202,1202,1202,1202,1202,1202,1202,1206,1206,1202,1202,1202,1202,1202,1202,1202,1202,1202,1202,1202,1202,1202,1202,1202,1202,1202,1202,1202,1202,1202,1202,1202,1202,1202,1202,1202,1197,1197,1197,1197,1197,1197,1197,1197,1197,1197,1197,1202,1202,1202,1202,1202,1197,1197,1197,1197,1197,1197,1197,1197,1197,1197,1197,1197,1197,1197,1197,1197,1197,1197,1197,1193,1193,1193,1193,1193,1193,1193,1193,1193,1193,1193,1193,1193,1193,1189,1189,1189,1189,1189,1189,1185,1185,1185,1185,1185,1189,1185,1185,1185,1185,1185,1185,1185,1185,1189,1189,1185,1185,1185,1181,1181,1181,1181,1181,1181,1181,1185,1185,1185,1185,1181,1181,1177,1177,1181,1181,1185,1185,1185,1185,1185,1185,1185,1185,1185,1185,1185,1185,1185,1185,1185,1185,1185,1185,1185,1185,1185,1181,1181,1181,1181,1181,1181,1177,1177,1177,1181,1181,1181,1181,1177,1177,1181,1181,1181,1181,1181,1181,1181,1181,1181,1181,1181,1181,1181,1181,1181,1181,1181,1181,1181,1181,1177,1177,1177,1177,1169,1169,1169,1169,1169,1169,1165,1165,1165,1161,1161,1161,1157,1153,1153,1153,1149,1145,1141,1138,1138,1134,1134,1134,1130,1130,1126,1123,1119,1119,1115,1112,1112,1108,1108,1105,1101,1101,0,0,0,0,0,0,0,0,0,0,0,0,0,0,0,0,0,0,0,0,0,0,0,0,0,0,0,0,0,0,0,0,0
0,0,0,0,0,0,0,1236,1236,1236,1232,1232,1232,1232,1232,1232,1232,1232,1227,1227,1227,1227,1227,1227,1227,1227,1223,1223,1223,1223,1227,1227,1227,1227,1227,1227,1227,1227,1223,1223,1223,1227,1227,1227,1227,1227,1227,1232,1232,1232,1227,1227,1227,1227,1223,1223,1223,1223,1223,1223,1227,1227,1227,1232,1232,1227,1227,1227,1227,1227,1223,1223,1223,1227,1227,1227,1227,1227,1227,1227,1227,1223,1223,1227,1223,1223,1227,1227,1227,1227,1227,1227,1227,1227,1227,1227,1223,1223,1223,1223,1223,1223,1223,1223,1223,1223,1227,1223,1223,1227,1227,1227,1227,1097,1094,1094,1097,1097,1097,1101,1101,1101,1101,1101,1101,1101,1101,1101,0,0,0,0,0,0,0,0,0,0,0,0,0,727,725,725,727,727,727,728,728,730,730,730,731,733,733,733,734,734,734,734,736,736,738,738,738,0,0,0,0,0,0,0,1223,1223,1223,1223,1223,1223,1214,1214,1214,1214,1214,1214,1214,1214,1214,1214,1214,1214,1214,1214,1219,1219,1219,1214,1214,1214,1214,1214,1214,1219,1219,1219,1219,1219,1219,1219,1219,1219,1219,1219,1214,1214,1214,1214,1214,1214,1214,1214,1214,1214,1214,1214,1214,1214,1214,1214,1214,1214,1214,1210,1210,1210,1206,1206,1206,1210,1210,1010,1010,1004,1004,1001,998,992,992,992,989,989,987,987,987,987,984,984,984,984,981,981,981,981,1219,1214,1210,1210,1210,1210,1210,1210,1206,1206,1210,1210,1210,1206,1206,1206,1206,1206,1206,1210,1210,1210,1206,1206,1206,1210,1210,1206,1206,1206,1206,1206,1206,1206,1206,1206,1206,1210,1206,1206,1206,1206,1202,1202,1202,1202,1197,1197,1197,1197,1197,1202,1202,1206,1206,1206,1206,1206,1202,1202,1202,1202,1202,1202,1202,1202,1202,1206,1202,1202,1206,1206,1206,1206,1206,1206,1206,978,978,978,978,978,981,981,981,981,981,981,981,984,984,987,984,984,984,984,984,984,984,984,984,984,984,984,987,987,989,989,992,992,995,998,998,998,998,998,1197,1197,1197,1197,1197,1197,1197,1202,1202,1202,1202,1202,1202,1202,1197,1197,1197,1197,1197,1197,1197,1197,1197,1197,1197,1197,1197,1197,1197,1197,1197,1197,1197,1197,1197,1197,1197,1197,1197,1197,1197,1197,1197,1197,1197,1193,1193,1193,1193,1193,1193,1197,1197,1197,1197,1197,1197,1193,1193,1193,1193,1193,1193,1193,1193,1193,1193,1193,1193,1193,1197,1197,1193,1193,1193,1193,1193,1189,1189,1193,1193,1193,1193,1193,1193,1189,1189,1189,1189,1189,1185,1185,1185,1185,1185,1185,1181,1181,1181,1181,1185,1181,1181,1181,1181,1181,1185,1185,1185,1185,1185,1185,1181,1181,1181,1181,1181,1181,1181,1181,1181,1181,1181,1181,1181,1177,1177,1177,1177,1177,1181,1181,1181,1181,1181,1181,1181,1181,1185,1185,1181,1181,1181,1181,1181,1181,1181,1185,1185,1185,1185,1181,1181,1177,1177,1177,1177,1177,1173,1173,1177,1177,1177,1181,1177,1177,1177,1177,1177,1177,1177,1177,1173,1173,1173,1181,1181,1177,1177,1181,1181,1177,1177,1177,1177,1177,1177,1173,1173,1173,1169,1169,1169,1169,1169,1169,1169,1169,1165,1165,1161,1161,1161,1161,1157,1153,1153,1149,1145,1141,1141,1138,1138,1134,1134,1134,1130,1126,1123,1123,1119,1115,1112,1112,1108,1108,1105,1101,1101,0,0,0,0,0,0,0,0,0,0,0,0,0,0,0,0,0,0,0,0,0,0,0,0,0,0,0,0,0,0,0,0,0
0,0,0,0,0,0,0,1232,1232,1232,1232,1232,1232,1227,1227,1227,1227,1227,1227,1227,1227,1227,1227,1227,1227,1223,1223,1223,1219,1219,1223,1223,1223,1223,1223,1223,1223,1223,1223,1223,1223,1227,1223,1223,1223,1223,1227,1227,1227,1227,1227,1227,1227,1227,1223,1219,1219,1219,1219,1223,1223,1223,1223,1227,1227,1227,1223,1223,1223,1223,1219,1219,1219,1223,1223,1223,1223,1223,1223,1223,1227,1223,1223,1223,1219,1219,1223,1223,1223,1223,1227,1227,1223,1223,1223,1223,1219,1219,1223,1219,1219,1219,1219,1219,1219,1223,1223,1223,1223,1223,1227,1227,1227,1097,1097,1097,1097,1097,1097,1101,1101,1101,1101,1101,1101,1101,1101,1101,0,0,0,0,0,0,0,0,0,0,0,0,0,725,725,725,727,727,727,728,728,730,730,730,733,733,733,733,734,734,734,734,736,736,738,738,739,739,0,0,0,0,0,0,1223,1219,1219,1219,1219,1214,1214,1214,1210,1210,1210,1210,1210,1210,1210,1210,1210,1214,1214,1214,1214,1214,1214,1214,1214,1214,1214,1214,1214,1214,1214,1214,1214,1214,1214,1214,1210,1210,1219,1214,1214,1210,1210,1210,1210,1210,1210,1210,1210,1210,1210,1210,1210,1210,1210,1210,1210,1210,1210,1210,1206,1206,1206,1206,1206,1206,1010,1010,1010,1007,1004,1001,998,992,992,992,989,987,987,984,984,984,981,981,981,981,978,978,978,978,978,1210,1210,1206,1206,1206,1206,1206,1202,1202,1202,1202,1202,1202,1202,1202,1202,1202,1202,1202,1202,1206,1206,1202,1202,1206,1202,1202,1202,1202,1202,1202,1206,1206,1206,1202,1202,1206,1202,1202,1197,1197,1197,1197,1197,1197,1197,1197,1197,1197,1197,1202,1202,1202,1202,1202,1202,1202,1202,1202,1202,1202,1202,1202,1202,1202,1202,1202,1202,1202,1202,1202,1202,1202,1202,1202,975,975,978,978,978,978,978,978,978,981,981,981,981,981,981,984,984,984,984,984,984,984,984,984,984,987,987,987,987,989,989,989,992,992,995,998,1001,1001,998,998,1193,1193,1193,1193,1193,1197,1197,1197,1197,1197,1197,1197,1197,1197,1197,1197,1197,1197,1197,1197,1193,1193,1197,1197,1197,1197,1197,1197,1197,1197,1197,1193,1193,1193,1193,1193,1193,1193,1193,1193,1193,1193,1193,1193,1193,1193,1189,1189,1189,1189,1193,1193,1193,1193,1193,1197,1193,1193,1189,1189,1189,1189,1189,1189,1189,1189,1189,1189,1185,1185,1189,1189,1193,1189,1189,1189,1189,1189,1189,1189,1189,1189,1189,1189,1189,1189,1189,1185,1185,1185,1185,1185,1185,1185,1181,1181,1177,1177,1177,1177,1177,1177,1177,1177,1177,1181,1181,1181,1181,1181,1181,1181,1181,1181,1181,1181,1177,1177,1177,1177,1177,1181,1177,1177,1173,1173,1173,1173,1173,1173,1173,1177,1181,1181,1181,1181,1181,1181,1181,1181,1181,1181,1181,1181,1181,1177,1177,1181,1181,1181,1181,1177,1177,1177,1173,1173,1173,1173,1173,1173,1173,1173,1173,1177,1173,1173,1173,1173,1173,1173,1173,1173,1173,1173,1173,1173,1173,1173,1177,1177,1177,1173,1173,1173,1173,1173,1177,1173,1173,1173,1169,1169,1169,1169,1169,1169,1169,1165,1165,1165,1161,1161,1161,1157,1157,1153,1153,1149,1145,1145,1141,1141,1138,1138,1134,1134,1134,1130,1126,1123,1119,1119,1112,1112,1108,1108,1105,1105,1105,0,0,0,0,0,0,0,0,0,0,0,0,0,0,0,0,0,0,0,0,0,0,0,0,0,0,0,0,0,0,0,0,0
0,0,0,0,0,0,0,1232,1232,1232,1227,1227,1227,1227,1227,1223,1223,1223,1223,1223,1227,1227,1227,1227,1223,1223,1219,1219,1219,1219,1219,1219,1219,1219,1214,1214,1219,1219,1219,1219,1219,1223,1223,1223,1223,1223,1223,1227,1227,1227,1227,1227,1223,1223,1223,1214,1214,1214,1214,1219,1219,1214,1214,1223,1223,1223,1219,1214,1214,1219,1214,1214,1214,1219,1219,1219,1219,1219,1219,1223,1223,1219,1219,1219,1214,1214,1214,1214,1219,1219,1223,1223,1223,1223,1223,1223,1219,1219,1219,1214,1214,1214,1214,1214,1214,1219,1219,1219,1219,1219,1223,1227,1227,1097,1097,1097,1101,1101,1101,1101,1101,1101,1101,1101,1101,1105,1105,1105,0,0,0,0,0,0,0,0,0,0,0,0,0,727,727,727,727,727,727,728,730,730,730,731,733,733,733,734,734,734,734,736,736,738,738,738,739,739,0,0,0,0,0,0,0,1214,1214,1214,1214,1210,1210,1210,1206,1206,1206,1210,1210,1210,1206,1206,1210,1210,1206,1206,1206,1210,1210,1210,1210,1210,1210,1210,1210,1214,1214,1214,1214,1210,1210,1210,1202,1202,1206,1202,1202,1210,1210,1210,1210,1210,1206,1206,1206,1206,1206,1206,1206,1210,1210,1210,1206,1206,1206,1206,1206,1206,1202,1202,1202,1202,1202,1010,1007,1007,1004,1001,998,995,992,989,987,984,984,981,981,978,978,978,978,978,978,978,975,975,975,1206,1206,1206,1206,1206,1202,1202,1197,1197,1197,1197,1197,1197,1197,1197,1197,1197,1197,1197,1197,1202,1202,1202,1202,1202,1202,1202,1202,1202,1202,1202,1202,1202,1202,1197,1197,1197,1197,1197,1197,1197,1197,1197,1197,1197,1197,1193,1193,1193,1193,1202,1202,1202,1202,1202,1202,1202,1202,1202,1202,1202,1202,1202,1202,1202,1202,1202,1202,1202,1202,1202,1202,1202,973,973,973,975,975,975,978,978,978,978,978,981,981,981,981,981,981,981,984,984,984,984,984,984,984,984,984,987,987,987,987,989,989,989,992,992,995,998,1001,1001,1001,1001,1193,1193,1193,1193,1193,1193,1193,1193,1193,1193,1193,1193,1193,1193,1193,1193,1193,1193,1193,1193,1193,1193,1193,1193,1193,1197,1193,1193,1197,1193,1193,1193,1193,1189,1189,1189,1189,1189,1189,1189,1189,1189,1189,1193,1189,1189,1189,1189,1189,1189,1189,1189,1189,1189,1189,1193,1189,1189,1185,1185,1185,1185,1185,1185,1185,1185,1185,1185,1181,1181,1185,1185,1185,1185,1185,1185,1185,1185,1185,1185,1185,1185,1185,1185,1185,1185,1185,1185,1185,1185,1181,1181,1181,1181,1177,1177,1173,1173,1173,1173,1173,1177,1177,1177,1177,1177,1181,1181,1181,1181,1181,1177,1177,1177,1177,1177,1177,1173,1173,1173,1173,1173,1173,1169,1169,1169,1169,1169,1169,1173,1173,1177,1177,1177,1177,1177,1177,1177,1173,1173,1173,1173,1173,1173,1173,1173,1173,1173,1181,1181,1181,1177,1177,1173,1173,1173,1169,1169,1169,1169,1169,1169,1169,1169,1169,1169,1169,1169,1169,1169,1169,1169,1169,1169,1165,1165,1165,1165,1165,1165,1165,1169,1169,1169,1169,1173,1173,1169,1169,1169,1169,1169,1165,1165,1169,1165,1165,1165,1165,1165,1161,1161,1161,1157,1153,1153,1153,1149,1145,1145,1141,1141,1138,1138,1134,1134,1134,1130,1130,1126,1123,1115,1115,1112,1108,1108,1105,1105,1105,0,0,0,0,0,0,0,0,0,0,0,0,0,0,0,0,0,0,0,0,0,0,0,0,0,0,0,0,0,0,0,0,0
0,0,0,0,0,0,0,1227,1227,1227,1227,1227,1227,1227,1227,1223,1223,1219,1219,1219,1223,1223,1223,1223,1219,1219,1214,1214,1214,1214,1214,1214,1214,1214,1214,1214,1214,1214,1214,1214,1214,1210,1210,1219,1219,1219,1223,1223,1223,1223,1223,1223,1219,1219,1214,1214,1210,1210,1210,1214,1214,1210,1210,1214,1219,1214,1214,1210,1210,1210,1210,1206,1206,1210,1214,1214,1214,1214,1219,1219,1219,1214,1214,1214,1214,1214,1214,1214,1214,1219,1219,1219,1219,1219,1214,1214,1214,1214,1214,1214,1214,1214,1214,1214,1214,1214,1214,1214,1214,1214,1214,1219,1223,1101,1097,1097,1101,1101,1101,1101,1101,1101,1101,1105,1105,1105,1105,1105,0,0,0,0,0,0,0,0,0,0,0,739,738,738,728,728,728,728,728,730,730,730,731,731,733,733,734,734,734,734,736,736,738,738,738,738,739,739,0,0,0,0,0,0,0,1214,1214,1210,1210,1206,1206,1206,1202,1202,1202,1206,1206,1206,1206,1206,1206,1206,1206,1206,1206,1206,1206,1206,1206,1206,1206,1206,1206,1206,1206,1206,1206,1206,1206,1202,1197,1197,1202,1202,1202,1202,1202,1202,1202,1206,1202,1202,1202,1202,1202,1202,1202,1202,1206,1206,1202,1202,1202,1206,1202,1202,1197,1197,1197,1197,1197,1197,1007,1007,1004,1001,998,992,992,989,987,984,981,978,978,978,975,975,975,975,975,975,973,973,973,1206,1206,1206,1206,1206,1197,1197,1197,1197,1193,1193,1197,1193,1193,1193,1193,1193,1193,1193,1197,1197,1197,1197,1197,1202,1202,1197,1197,1197,1197,1197,1197,1197,1197,1193,1193,1193,1193,1193,1193,1193,1193,1193,1193,1193,1193,1193,1193,1193,1193,1197,1197,1197,1197,1197,1197,1197,1197,1197,1197,1197,1197,1197,1197,1202,1202,1202,1202,1202,970,970,970,970,973,973,973,973,975,975,978,978,978,978,978,978,978,978,978,981,981,981,984,984,984,984,984,984,984,984,984,987,987,987,989,989,989,992,992,995,998,998,1001,1001,1001,1001,1001,1193,1193,1189,1189,1189,1189,1189,1189,1189,1189,1189,1189,1189,1189,1189,1189,1189,1189,1189,1185,1185,1185,1189,1193,1193,1193,1193,1193,1189,1189,1189,1189,1189,1185,1185,1185,1185,1185,1185,1185,1185,1185,1185,1185,1185,1185,1185,1185,1185,1185,1185,1185,1185,1185,1185,1185,1185,1185,1185,1185,1185,1181,1181,1181,1181,1181,1181,1177,1177,1177,1181,1181,1181,1181,1181,1181,1181,1181,1181,1181,1181,1181,1181,1181,1181,1181,1181,1181,1181,1181,1177,1177,1177,1177,1177,1173,1173,1173,1173,1173,1173,1173,1173,1173,1173,1173,1173,1173,1173,1173,1173,1173,1169,1169,1173,1169,1169,1169,1169,1169,1169,1169,1169,1169,1169,1169,1169,1169,1169,1169,1173,1173,1173,1173,1173,1173,1173,1169,1169,1169,1169,1169,1169,1169,1169,1169,1173,1173,1177,1177,1177,1177,1173,1169,1169,1169,1169,1169,1169,1169,1169,1165,1165,1165,1169,1165,1165,1165,1165,1165,1165,1165,1165,1165,1165,1165,1161,1161,1161,1161,1161,1161,1165,1165,1165,1169,1169,1169,1165,1165,1165,1161,1161,1165,1165,1165,1161,1161,1165,1161,1161,1161,1157,1153,1153,1149,1149,1149,1145,1145,1141,1141,1138,1138,1134,1134,1134,1130,1126,1123,1115,1115,1112,1108,1108,1105,1105,1105,0,0,0,0,0,0,0,0,0,0,0,0,0,0,0,0,0,0,0,0,0,0,0,0,0,0,0,0,0,0,0,0,0
0,0,0,0,0,0,0,1223,1223,1223,1223,1223,1223,1223,1223,1219,1219,1219,1219,1219,1219,1219,1219,1219,1219,1214,1214,1214,1214,1214,1214,1210,1210,1210,1210,1210,1210,1210,1210,1210,1206,1206,1206,1214,1210,1210,1214,1214,1219,1214,1214,1214,1214,1214,1214,1210,1206,1206,1210,1210,1210,1210,1210,1210,1214,1214,1210,1206,1206,1206,1206,1202,1202,1206,1206,1210,1210,1210,1214,1214,1214,1214,1214,1214,1214,1210,1210,1210,1210,1210,1210,1214,1210,1210,1210,1210,1210,1210,1210,1210,1210,1210,1210,1210,1210,1210,1210,1210,1206,1206,1206,1206,1223,1101,1101,1101,1101,1101,1101,1101,1101,1101,1105,1105,1105,1105,1105,1105,0,0,0,0,0,0,0,0,0,0,0,739,734,734,733,730,728,728,730,730,731,731,731,733,733,734,734,734,736,736,736,738,738,739,739,739,739,739,0,0,0,0,0,0,0,1210,1210,1206,1206,1202,1202,1202,1202,1202,1202,1202,1202,1202,1202,1202,1202,1202,1202,1202,1202,1202,1202,1202,1202,1202,1202,1197,1197,1202,1197,1197,1197,1197,1197,1197,1197,1197,1197,1197,1197,1197,1197,1202,1197,1197,1197,1197,1197,1197,1197,1197,1202,1202,1202,1202,1197,1197,1197,1197,1197,1197,1197,1197,1197,1193,1193,1193,1193,1004,1004,1001,998,992,992,989,987,981,981,978,978,975,975,975,975,975,973,970,970,967,967,1206,1206,1202,1202,1202,1197,1197,1197,1193,1193,1193,1193,1193,1193,1193,1193,1193,1193,1193,1193,1193,1193,1197,1197,1197,1197,1197,1197,1193,1193,1193,1193,1193,1189,1189,1189,1189,1189,1189,1193,1193,1193,1193,1193,1193,1193,1193,1193,1189,1189,1193,1193,1197,1197,1197,1197,1197,1197,1197,1197,1197,1197,1197,1197,1202,1202,1202,967,967,967,967,967,970,970,970,970,973,973,975,975,975,975,975,975,975,975,978,978,978,981,981,984,984,984,987,987,984,984,987,987,987,989,989,989,989,989,992,992,995,998,998,1001,1001,1001,1001,1001,1189,1189,1189,1189,1189,1185,1185,1185,1185,1185,1189,1189,1189,1189,1189,1185,1185,1185,1185,1185,1185,1185,1185,1185,1185,1189,1189,1189,1185,1185,1185,1185,1185,1185,1185,1185,1185,1185,1185,1185,1185,1185,1185,1185,1185,1181,1181,1181,1181,1181,1181,1181,1181,1181,1181,1181,1181,1181,1181,1181,1181,1181,1181,1181,1181,1177,1177,1173,1173,1173,1177,1177,1177,1177,1173,1173,1177,1173,1173,1173,1177,1177,1177,1177,1181,1181,1181,1181,1181,1177,1177,1173,1173,1173,1173,1173,1169,1169,1169,1173,1173,1169,1169,1173,1173,1173,1169,1169,1169,1169,1169,1169,1169,1169,1169,1169,1165,1165,1165,1165,1165,1165,1165,1165,1165,1165,1165,1165,1169,1169,1169,1169,1169,1169,1169,1173,1169,1169,1169,1169,1165,1165,1165,1165,1165,1165,1169,1169,1169,1173,1173,1173,1169,1169,1169,1169,1169,1169,1169,1169,1165,1165,1165,1165,1165,1165,1165,1165,1165,1165,1161,1161,1161,1161,1161,1161,1161,1161,1157,1157,1161,1161,1161,1161,1165,1165,1165,1165,1165,1165,1165,1161,1161,1165,1165,1161,1161,1161,1161,1161,1161,1157,1153,1153,1149,1149,1149,1149,1145,1145,1141,1141,1138,1138,1134,1134,1134,1134,1130,1123,1119,1115,1115,1112,1108,1108,1105,1105,0,0,0,0,0,0,0,0,0,0,0,0,0,0,0,0,0,0,0,0,0,0,0,0,0,0,0,0,0,0,0,0,0
0,0,0,0,0,0,0,1219,1219,1219,1219,1219,1219,1219,1219,1219,1214,1214,1214,1214,1214,1214,1214,1214,1214,1214,1214,1214,1214,1210,1210,1210,1210,1206,1206,1206,1206,1206,1206,1206,1202,1202,1206,1206,1206,1206,1210,1210,1214,1210,1210,1214,1210,1210,1210,1206,1206,1206,1206,1206,1206,1206,1206,1206,1206,1206,1206,1202,1202,1202,1202,1197,1197,1202,1202,1202,1202,1202,1202,1202,1206,1206,1210,1210,1210,1210,1210,1206,1206,1206,1206,1206,1206,1206,1206,1206,1202,1202,1202,1206,1206,1206,1210,1210,1210,1210,1210,1206,1206,1202,1202,1202,1202,1101,1101,1101,1101,1101,1101,1101,1101,1101,1105,1105,1105,1105,1105,1105,0,0,0,0,0,0,0,0,0,0,0,738,734,734,733,730,730,730,730,730,731,731,731,733,733,734,734,734,736,738,738,738,739,739,739,739,741,741,0,0,0,0,0,0,0,1202,1202,1202,1197,1197,1197,1197,1197,1197,1197,1197,1202,1202,1197,1197,1197,1197,1197,1197,1197,1197,1197,1197,1197,1197,1197,1197,1197,1197,1193,1193,1193,1193,1193,1193,1193,1193,1193,1193,1197,1197,1197,1197,1197,1197,1197,1197,1197,1197,1197,1197,1197,1197,1197,1197,1197,1197,1193,1193,1193,1193,1193,1193,1193,1193,1193,1193,1193,1193,1001,1001,998,992,992,987,984,981,981,978,978,975,975,973,973,973,973,970,967,967,967,967,1197,1197,1197,1197,1197,1193,1193,1193,1193,1193,1193,1193,1189,1189,1189,1189,1189,1189,1189,1189,1193,1193,1189,1189,1193,1193,1193,1193,1193,1193,1189,1189,1185,1185,1185,1185,1185,1185,1189,1189,1189,1189,1189,1189,1189,1189,1189,1189,1189,1193,1193,1193,1193,1193,1193,1193,1193,1193,1193,1193,1193,1193,962,962,962,964,964,964,967,967,967,967,967,967,967,967,970,970,970,970,970,973,973,975,975,975,978,978,981,981,981,984,984,987,987,987,987,987,987,989,989,989,989,989,989,992,992,995,998,998,1001,1001,1001,1001,1185,1185,1185,1185,1185,1185,1185,1185,1185,1185,1185,1185,1185,1185,1185,1185,1185,1185,1181,1181,1181,1181,1181,1181,1181,1177,1177,1181,1185,1185,1185,1185,1185,1185,1185,1181,1181,1181,1185,1181,1181,1181,1181,1181,1177,1177,1177,1177,1177,1177,1177,1177,1177,1177,1177,1177,1177,1177,1177,1177,1177,1177,1177,1173,1173,1173,1173,1173,1173,1173,1173,1173,1173,1173,1173,1173,1173,1173,1169,1169,1169,1169,1169,1173,1173,1177,1177,1177,1177,1177,1177,1173,1173,1173,1169,1169,1169,1169,1169,1169,1169,1169,1169,1169,1169,1169,1169,1169,1169,1169,1169,1169,1165,1165,1165,1165,1165,1165,1165,1165,1165,1165,1165,1165,1165,1165,1165,1165,1165,1165,1161,1161,1165,1165,1165,1165,1165,1169,1169,1165,1165,1165,1165,1165,1165,1161,1161,1165,1161,1161,1165,1165,1169,1169,1165,1165,1165,1165,1165,1165,1165,1157,1157,1157,1161,1165,1161,1161,1161,1161,1161,1161,1157,1157,1157,1157,1157,1157,1157,1157,1157,1157,1157,1157,1157,1157,1157,1161,1161,1161,1157,1157,1157,1157,1157,1157,1157,1157,1157,1157,1157,1157,1153,1153,1153,1149,1149,1149,1149,1149,1145,1145,1141,1141,1138,1138,1134,1134,1134,1130,1126,1119,1119,1115,1112,1112,1108,1108,1108,0,0,0,0,0,0,0,0,0,0,0,0,0,0,0,0,0,0,0,0,0,0,0,0,0,0,0,0,0,0,0,0,0
0,0,0,0,0,0,1214,1214,1214,1214,1214,1219,1214,1214,1214,1214,1214,1210,1210,1210,1210,1210,1210,1210,1210,1210,1210,1210,1210,1210,1210,1206,1206,1206,1206,1206,1202,1202,1206,1206,1197,1197,1197,1202,1202,1202,1197,1197,1206,1202,1202,1206,1206,1206,1206,1202,1202,1202,1202,1202,1202,1202,1202,1202,1202,1202,1202,1197,1197,1197,1197,1197,1197,1197,1197,1197,1197,1197,1197,1197,1202,1202,1206,1206,1206,1206,1206,1206,1206,1206,1202,1202,1202,1202,1202,1202,1202,1202,1202,1202,1202,1202,1202,1206,1206,1206,1206,1202,1202,1197,1197,1197,1193,1193,1101,1101,1101,1101,1101,1101,1101,1105,1105,1105,1105,1105,1105,1112,0,0,0,0,0,0,0,0,0,0,0,738,734,734,733,731,731,730,730,730,731,731,733,733,734,734,734,736,736,738,738,739,739,739,741,741,741,741,0,0,0,0,0,0,0,1197,1193,1193,1197,1197,1197,1197,1197,1197,1197,1197,1197,1197,1197,1197,1197,1197,1197,1197,1197,1197,1197,1197,1197,1197,1193,1193,1193,1193,1193,1193,1193,1193,1193,1193,1193,1193,1193,1193,1193,1193,1193,1197,1193,1193,1193,1197,1193,1193,1193,1193,1193,1189,1189,1193,1193,1193,1193,1193,1193,1193,1193,1193,1193,1189,1189,1189,1189,1189,1189,1001,1001,995,992,987,984,981,981,978,975,975,973,973,970,970,970,970,967,967,964,964,964,1197,1197,1197,1197,1193,1193,1193,1189,1189,1189,1189,1185,1185,1185,1189,1189,1189,1185,1185,1185,1185,1185,1185,1185,1185,1185,1189,1189,1189,1185,1185,1185,1181,1181,1181,1181,1181,1185,1185,1185,1185,1185,1185,1189,1185,1185,1185,1185,1189,1193,1193,1189,1189,1189,1189,1193,959,956,956,956,959,959,959,962,962,962,964,964,964,964,964,964,964,967,967,967,967,967,970,970,970,970,973,975,975,975,978,981,981,981,984,987,989,987,987,989,989,989,989,989,989,989,989,992,992,995,995,998,1001,1001,1004,1004,1004,1185,1185,1185,1185,1185,1185,1181,1181,1181,1181,1181,1181,1181,1181,1181,1181,1181,1181,1181,1181,1181,1177,1177,1181,1177,1177,1173,1173,1177,1177,1177,1181,1181,1181,1181,1181,1181,1181,1181,1181,1181,1181,1177,1177,1173,1173,1173,1173,1173,1173,1173,1173,1173,1173,1173,1173,1173,1173,1173,1173,1173,1173,1173,1169,1169,1169,1169,1169,1169,1169,1169,1169,1169,1173,1173,1169,1169,1169,1165,1165,1165,1165,1165,1165,1169,1169,1173,1169,1169,1169,1169,1169,1169,1169,1169,1169,1169,1165,1165,1165,1165,1165,1169,1169,1169,1169,1169,1169,1165,1165,1165,1165,1165,1165,1165,1161,1161,1161,1161,1161,1161,1161,1165,1165,1157,1153,1153,1161,1165,1161,1157,1157,1161,1161,1161,1161,1161,1161,1161,1161,1161,1165,1161,1161,1161,1157,1157,1161,1157,1157,1161,1161,1161,1161,1161,1161,1161,1161,1161,1161,1161,1153,1153,1153,1157,1161,1161,1161,1157,1157,1157,1157,1157,1153,1153,1153,1153,1153,1153,1153,1153,1153,1153,1153,1153,1153,1153,1153,1153,1157,1157,1157,1157,1153,1153,1153,1153,1153,1153,1157,1157,1153,1153,1153,1153,1149,1149,1149,1149,1149,1145,1145,1141,1141,1138,1138,1134,1134,1134,1130,1123,1119,1119,1115,1112,1112,1108,1108,1108,0,0,0,0,0,0,0,0,0,0,0,0,0,0,0,0,0,0,0,0,0,0,0,0,0,0,0,0,0,0,0,0,0
0,0,0,0,0,0,1214,1214,1214,1214,1214,1214,1214,1214,1214,1214,1214,1210,1210,1210,1210,1206,1206,1206,1206,1206,1206,1206,1210,1206,1206,1206,1202,1202,1202,1202,1202,1202,1202,1202,1197,1197,1197,1202,1202,1197,1197,1197,1202,1197,1197,1202,1202,1202,1202,1202,1202,1202,1202,1202,1202,1197,1197,1197,1197,1197,1197,1197,1197,1197,1197,1193,1193,1193,1193,1197,1197,1197,1197,1197,1197,1202,1202,1202,1202,1202,1202,1202,1202,1202,1197,1197,1202,1197,1197,1197,1197,1197,1197,1197,1197,1197,1197,1202,1202,1202,1202,1202,1197,1197,1197,1193,1193,1189,1101,1101,1101,1101,1101,1101,1105,1105,1105,1105,1108,1108,1108,1112,1112,0,0,0,0,0,0,0,0,0,0,0,733,733,733,733,731,731,731,731,731,731,733,734,734,734,736,736,738,738,739,739,739,741,741,741,741,741,742,0,0,0,0,0,0,1189,1189,1193,1193,1193,1193,1193,1193,1193,1193,1193,1193,1193,1193,1193,1193,1193,1193,1193,1193,1193,1193,1193,1193,1193,1193,1193,1193,1193,1189,1189,1189,1189,1189,1189,1189,1189,1193,1193,1193,1193,1193,1193,1193,1193,1193,1193,1193,1193,1193,1193,1189,1189,1189,1189,1189,1189,1189,1189,1189,1189,1189,1189,1189,1189,1189,1189,1185,1185,1185,1185,1185,992,992,987,984,981,978,978,975,973,970,970,970,967,967,967,964,964,964,962,962,964,964,1202,1197,1193,1193,1193,1189,1185,1185,1185,1181,1181,1181,1185,1185,1181,1181,1181,1181,1185,1181,1181,1181,1185,1185,1185,1185,1181,1181,1181,1181,1181,1181,1181,1181,1181,1185,1185,1185,1185,1185,1185,1185,1181,1181,1181,1181,1185,1189,1189,1189,1189,1189,1189,959,956,956,956,956,959,959,959,959,962,962,962,962,962,962,964,964,964,964,964,967,967,967,967,967,970,970,973,973,975,975,978,981,981,981,984,987,989,989,989,989,989,989,989,989,992,992,992,992,992,995,998,998,1001,1001,1004,1004,1004,1181,1181,1177,1177,1181,1181,1181,1181,1177,1177,1177,1177,1177,1177,1177,1177,1177,1177,1177,1177,1177,1177,1177,1177,1173,1173,1173,1173,1173,1173,1173,1173,1173,1173,1181,1177,1177,1181,1181,1177,1177,1177,1173,1169,1169,1169,1169,1169,1169,1169,1169,1169,1169,1169,1169,1169,1169,1169,1169,1169,1169,1169,1169,1169,1165,1165,1169,1169,1169,1169,1169,1169,1169,1169,1169,1165,1165,1165,1165,1161,1161,1161,1161,1161,1165,1165,1165,1165,1165,1169,1169,1169,1165,1165,1165,1165,1165,1165,1165,1165,1165,1165,1165,1165,1165,1165,1165,1165,1165,1165,1165,1165,1161,1161,1161,1161,1161,1157,1157,1157,1157,1161,1161,1161,1153,1153,1153,1153,1153,1153,1153,1153,1157,1157,1157,1157,1157,1157,1157,1157,1157,1161,1161,1157,1157,1157,1157,1157,1153,1153,1157,1157,1157,1157,1161,1161,1157,1153,1153,1153,1153,1153,1153,1153,1153,1153,1153,1157,1157,1157,1157,1153,1153,1153,1153,1149,1149,1149,1149,1153,1153,1153,1153,1153,1153,1153,1153,1149,1149,1153,1153,1153,1153,1153,1153,1153,1153,1153,1153,1153,1153,1153,1149,1149,1149,1149,1149,1149,1149,1145,1145,1141,1141,1138,1138,1134,1134,1134,1130,1130,1123,1119,1119,1115,1115,1112,1112,1108,1108,0,0,0,0,0,0,0,0,0,0,0,0,0,0,0,0,0,0,0,0,0,0,0,0,0,0,0,0,0,0,0,0,0
0,0,0,0,0,0,1214,1210,1210,1210,1210,1210,1210,1210,1214,1210,1210,1210,1210,1206,1206,1202,1202,1202,1202,1206,1206,1206,1206,1206,1202,1202,1202,1197,1197,1197,1197,1197,1197,1197,1197,1197,1197,1197,1197,1197,1197,1197,1197,1197,1197,1197,1197,1197,1197,1197,1197,1197,1197,1197,1197,1197,1197,1197,1197,1197,1197,1193,1193,1193,1193,1193,1193,1193,1193,1193,1193,1193,1193,1193,1193,1197,1197,1197,1197,1197,1197,1197,1197,1197,1197,1197,1197,1197,1197,1197,1197,1193,1193,1193,1193,1193,1193,1197,1197,1197,1197,1197,1197,1197,1193,1193,1193,1189,1101,1101,1101,1101,1101,1101,1105,1105,1105,1105,1108,1108,1112,1112,1112,0,0,0,0,0,0,0,0,0,0,0,733,733,733,733,733,731,731,731,733,733,733,734,734,736,736,738,738,739,739,741,741,741,741,742,742,742,742,0,0,0,0,0,0,1189,1189,1189,1189,1189,1189,1189,1193,1193,1193,1193,1193,1193,1193,1189,1189,1189,1189,1189,1189,1189,1189,1193,1193,1193,1189,1189,1189,1189,1189,1189,1189,1189,1189,1185,1185,1189,1189,1189,1189,1189,1189,1189,1189,1189,1189,1189,1189,1189,1189,1189,1189,1185,1185,1185,1185,1185,1181,1181,1181,1181,1185,1185,1185,1185,1185,1185,1185,1181,1181,1185,1185,992,992,984,981,981,978,975,975,973,970,967,967,964,964,964,964,964,962,962,962,962,964,964,1193,1193,1185,1185,1185,1181,1181,1181,1181,1181,1181,1181,1181,1181,1181,1181,1181,1181,1181,1181,1181,1181,1181,1181,1181,1177,1177,1177,1177,1181,1181,1181,1177,1177,1181,1181,1181,1181,1181,1181,1181,1181,1181,1177,1177,1185,1185,1185,1185,1185,1185,1185,956,956,954,954,954,956,956,956,959,959,959,962,962,962,962,962,962,962,962,962,964,964,967,967,967,967,970,973,973,975,975,981,981,981,981,984,987,989,989,989,989,989,989,992,992,992,992,992,992,995,995,998,1001,1001,1001,1004,1004,1007,1173,1173,1173,1173,1177,1177,1177,1177,1177,1173,1173,1173,1173,1173,1173,1173,1173,1173,1177,1177,1177,1173,1173,1173,1173,1169,1169,1169,1169,1169,1169,1169,1169,1169,1169,1169,1169,1177,1177,1177,1173,1169,1169,1169,1169,1169,1165,1165,1169,1169,1169,1169,1169,1169,1169,1169,1169,1169,1169,1169,1169,1169,1169,1165,1165,1165,1165,1165,1165,1165,1165,1165,1165,1165,1165,1165,1161,1161,1161,1157,1157,1157,1157,1161,1161,1161,1161,1161,1161,1161,1161,1165,1165,1165,1165,1165,1165,1161,1161,1161,1161,1161,1161,1161,1165,1165,1165,1165,1161,1161,1161,1157,1157,1157,1153,1153,1153,1153,1153,1153,1153,1157,1153,1153,1153,1153,1153,1153,1153,1153,1153,1153,1153,1153,1153,1153,1153,1153,1153,1153,1153,1153,1153,1153,1153,1153,1153,1153,1149,1149,1153,1153,1157,1157,1161,1157,1153,1153,1153,1153,1153,1153,1149,1149,1149,1153,1153,1153,1153,1153,1153,1153,1149,1149,1149,1149,1149,1149,1149,1149,1149,1149,1149,1149,1149,1149,1149,1149,1149,1149,1149,1153,1153,1149,1149,1153,1153,1153,1153,1149,1149,1149,1149,1149,1149,1149,1149,1149,1149,1145,1145,1141,1141,1138,1138,1134,1134,1130,1130,1130,1123,1119,1119,1115,1115,1112,1112,1108,1108,0,0,0,0,0,0,0,0,0,0,0,0,0,0,0,0,0,0,0,0,0,0,0,0,0,0,0,0,0,0,0,0,0
0,0,0,0,0,0,1210,1210,1210,1206,1206,1210,1206,1206,1206,1206,1206,1210,1206,1206,1202,1202,1202,1202,1202,1197,1197,1197,1202,1202,1202,1197,1197,1197,1197,1197,1197,1197,1197,1197,1197,1193,1193,1197,1193,1193,1197,1197,1197,1197,1197,1197,1197,1197,1197,1197,1197,1197,1197,1197,1197,1197,1193,1193,1193,1193,1193,1193,1193,1193,1193,1193,1193,1193,1193,1193,1193,1193,1193,1193,1193,1193,1193,1193,1193,1193,1193,1193,1193,1193,1193,1193,1193,1193,1193,1193,1193,1193,1193,1193,1193,1193,1193,1193,1197,1197,1197,1197,1197,1197,1193,1193,1193,1189,1101,1101,1105,1105,1105,1105,1105,1105,1105,1105,1108,1112,1112,1112,1108,1108,0,0,0,0,0,0,0,0,0,0,733,733,733,733,733,731,731,733,733,733,734,734,736,736,738,738,739,739,739,741,741,742,742,742,742,742,744,0,0,0,0,0,0,1185,1185,1185,1185,1189,1185,1185,1189,1189,1189,1189,1189,1189,1189,1185,1185,1185,1189,1189,1189,1189,1189,1189,1189,1189,1189,1189,1189,1185,1185,1185,1181,1181,1181,1181,1181,1181,1185,1185,1185,1185,1185,1185,1185,1185,1185,1185,1185,1185,1185,1185,1181,1181,1181,1181,1181,1181,1181,1181,1181,1181,1181,1181,1181,1181,1185,1185,1181,1181,1181,1181,1181,987,987,984,981,981,978,975,975,973,970,967,964,962,962,962,962,962,962,959,959,962,962,962,962,1185,1185,1185,1181,1181,1181,1177,1177,1177,1177,1177,1177,1177,1177,1177,1177,1177,1177,1177,1177,1177,1177,1177,1177,1177,1177,1177,1177,1177,1177,1177,1177,1177,1177,1177,1177,1177,1177,1177,1177,1177,1177,1177,1177,1181,1181,1181,1185,1185,956,956,954,954,951,951,951,951,954,956,956,956,959,959,959,959,959,959,959,959,962,962,964,964,964,967,967,967,970,973,973,975,978,981,981,981,981,984,989,989,989,989,989,989,989,992,992,992,992,992,995,995,998,1001,1001,1001,1001,1004,1004,1173,1173,1169,1169,1173,1173,1173,1173,1173,1173,1169,1169,1169,1169,1169,1169,1169,1169,1169,1173,1173,1169,1169,1169,1169,1169,1165,1165,1165,1165,1165,1165,1169,1169,1169,1169,1169,1169,1169,1169,1169,1169,1169,1165,1165,1165,1165,1165,1165,1165,1165,1165,1165,1165,1165,1169,1169,1165,1165,1165,1165,1165,1165,1165,1165,1165,1165,1165,1165,1165,1165,1165,1165,1165,1165,1165,1161,1157,1157,1157,1157,1157,1157,1157,1157,1161,1161,1161,1161,1161,1161,1161,1157,1157,1157,1161,1161,1161,1157,1157,1157,1157,1157,1157,1157,1161,1161,1161,1161,1161,1161,1161,1157,1157,1153,1153,1153,1153,1153,1153,1153,1153,1153,1153,1153,1153,1149,1149,1149,1149,1149,1149,1149,1149,1153,1149,1149,1149,1149,1149,1149,1153,1153,1153,1149,1149,1149,1149,1149,1149,1149,1149,1153,1153,1153,1153,1153,1153,1153,1149,1149,1149,1149,1149,1149,1149,1149,1149,1149,1149,1145,1145,1145,1149,1149,1149,1145,1145,1149,1149,1149,1149,1149,1149,1145,1145,1145,1149,1145,1145,1149,1149,1149,1149,1149,1149,1149,1149,1149,1149,1145,1145,1145,1145,1145,1149,1149,1149,1149,1145,1145,1145,1141,1138,1138,1138,1134,1134,1130,1130,1130,1123,1123,1119,1119,1115,1115,1112,1112,1112,0,0,0,0,0,0,0,0,0,0,0,0,0,0,0,0,0,0,0,0,0,0,0,0,0,0,0,0,0,0,0,0,0
0,0,0,0,0,0,1210,1206,1206,1206,1206,1206,1202,1202,1202,1202,1202,1202,1202,1197,1197,1197,1197,1197,1197,1197,1197,1197,1197,1197,1197,1197,1197,1197,1197,1197,1197,1197,1197,1193,1193,1193,1193,1193,1193,1193,1193,1193,1197,1197,1197,1193,1193,1193,1193,1193,1193,1193,1193,1193,1193,1193,1193,1193,1193,1193,1193,1193,1193,1193,1193,1193,1193,1189,1189,1193,1193,1193,1193,1189,1189,1189,1189,1185,1185,1185,1189,1189,1189,1189,1189,1193,1193,1193,1193,1193,1189,1189,1189,1189,1189,1189,1189,1193,1193,1193,1193,1193,1193,1193,1193,1189,1189,1189,1189,1105,1105,1105,1105,1105,1105,1105,1105,1108,1108,1112,1112,1112,1108,1105,1105,0,0,0,0,0,0,0,0,0,733,733,733,733,733,733,733,733,733,734,734,736,736,738,738,739,739,739,739,741,741,742,742,744,744,744,746,0,0,0,0,0,0,1181,1181,1181,1181,1185,1185,1185,1185,1185,1185,1185,1185,1185,1185,1185,1181,1181,1181,1181,1181,1181,1181,1185,1185,1185,1185,1185,1185,1181,1181,1181,1181,1181,1181,1181,1181,1181,1181,1181,1181,1181,1181,1181,1181,1177,1177,1177,1177,1177,1177,1177,1177,1177,1177,1181,1181,1181,1181,1181,1181,1181,1177,1177,1177,1177,1181,1181,1181,1181,1181,1177,1177,987,987,984,981,978,978,975,973,970,967,964,962,962,959,959,959,962,959,959,959,959,959,956,954,954,1185,1185,1181,1177,1177,1177,1177,1177,1177,1177,1177,1177,1177,1177,1177,1177,1177,1177,1177,1177,1177,1177,1173,1173,1173,1169,1169,1169,1173,1173,1173,1173,1169,1169,1177,1173,1173,1173,1173,1173,1173,1173,1173,1181,1181,1181,1181,951,951,951,951,951,951,951,951,951,951,951,954,956,956,956,956,959,959,959,959,959,962,962,962,964,964,967,967,967,970,973,975,975,978,981,981,981,984,987,989,989,989,989,992,992,992,992,992,992,992,995,995,998,998,1001,1001,1001,1001,1004,1004,1169,1169,1169,1169,1169,1169,1169,1169,1169,1169,1169,1169,1165,1165,1165,1169,1165,1165,1165,1169,1169,1165,1165,1165,1165,1165,1165,1165,1165,1165,1165,1165,1165,1165,1165,1169,1165,1165,1165,1165,1165,1165,1165,1165,1165,1165,1165,1165,1161,1161,1165,1165,1165,1165,1165,1165,1165,1165,1165,1165,1165,1165,1165,1165,1165,1161,1161,1165,1165,1161,1161,1161,1161,1161,1161,1161,1157,1157,1157,1153,1153,1153,1153,1153,1153,1157,1157,1157,1157,1157,1157,1157,1157,1157,1157,1157,1157,1157,1157,1157,1153,1153,1153,1153,1153,1157,1157,1157,1157,1157,1157,1157,1153,1153,1153,1153,1153,1153,1153,1153,1153,1149,1149,1149,1149,1149,1149,1149,1145,1145,1149,1149,1149,1149,1149,1149,1149,1149,1149,1149,1149,1149,1149,1149,1149,1149,1145,1145,1145,1145,1145,1145,1149,1149,1149,1149,1149,1149,1149,1149,1149,1149,1149,1149,1149,1149,1149,1149,1145,1145,1141,1141,1141,1145,1145,1145,1145,1145,1145,1145,1149,1145,1145,1145,1145,1141,1141,1145,1145,1145,1145,1145,1145,1145,1145,1145,1145,1145,1141,1141,1141,1141,1141,1141,1145,1145,1145,1149,1145,1145,1145,1141,1138,1138,1138,1134,1134,1130,1130,1130,1130,1123,1123,1119,1119,1115,1115,1115,1112,1112,0,0,0,0,0,0,0,0,0,0,0,0,0,0,0,0,0,0,0,0,0,0,0,0,0,0,0,0,0,0,0,0,0
0,0,0,0,0,0,1206,1206,1206,1202,1202,1202,1202,1202,1202,1202,1197,1197,1197,1197,1197,1193,1193,1197,1193,1193,1193,1193,1193,1193,1193,1193,1193,1193,1193,1193,1193,1193,1193,1193,1193,1193,1193,1193,1193,1189,1189,1189,1193,1193,1193,1189,1189,1189,1189,1189,1189,1189,1193,1193,1193,1193,1189,1189,1189,1189,1189,1189,1189,1189,1189,1189,1189,1189,1189,1189,1189,1189,1189,1185,1185,1181,1181,1181,1181,1181,1181,1185,1185,1185,1185,1189,1189,1189,1189,1189,1185,1185,1185,1185,1185,1185,1185,1185,1189,1189,1189,1189,1189,1189,1185,1185,1185,1185,1185,1108,1108,1105,1105,1105,1105,1105,1105,1108,1108,1112,1112,1112,1108,1105,1105,0,0,0,0,0,0,0,0,0,0,733,733,733,733,733,733,733,733,734,734,736,736,738,739,739,739,741,741,741,742,744,744,746,746,746,746,0,0,0,0,0,0,1177,1177,1177,1177,1181,1181,1181,1181,1181,1181,1181,1181,1181,1181,1181,1181,1181,1181,1181,1181,1181,1181,1181,1181,1181,1181,1181,1181,1181,1177,1177,1177,1177,1181,1177,1177,1177,1181,1177,1177,1177,1177,1173,1173,1173,1173,1177,1177,1177,1177,1177,1177,1173,1173,1177,1177,1177,1177,1177,1177,1177,1177,1173,1173,1173,1177,1173,1173,1173,1173,1173,1169,1169,984,984,981,978,978,975,973,970,962,962,959,959,956,956,959,959,959,956,956,956,956,954,951,951,951,1177,1177,1177,1177,1173,1173,1173,1173,1173,1173,1173,1173,1173,1173,1173,1173,1173,1173,1173,1173,1173,1169,1169,1169,1165,1165,1165,1165,1165,1165,1169,1165,1165,1169,1169,1173,1173,1173,1173,1173,1173,1173,1181,948,948,948,951,951,951,951,951,948,948,951,948,948,951,951,954,956,956,956,956,959,959,959,959,962,962,962,964,964,967,967,967,970,973,975,975,981,981,981,981,984,987,989,989,992,992,992,992,992,992,995,995,995,998,998,998,998,1001,1001,1004,1004,1004,1004,1169,1169,1169,1165,1165,1165,1165,1165,1165,1165,1165,1165,1165,1165,1165,1165,1165,1165,1165,1165,1165,1161,1161,1161,1161,1165,1165,1165,1165,1165,1165,1165,1165,1165,1165,1165,1165,1165,1161,1161,1161,1157,1157,1157,1157,1157,1161,1161,1161,1161,1161,1161,1161,1161,1161,1161,1161,1161,1161,1161,1161,1161,1161,1161,1161,1157,1157,1161,1161,1157,1157,1157,1157,1161,1157,1157,1153,1153,1153,1153,1153,1153,1153,1153,1153,1153,1153,1153,1153,1153,1153,1153,1153,1149,1149,1153,1153,1153,1153,1153,1153,1153,1153,1153,1153,1153,1153,1153,1153,1153,1153,1153,1153,1149,1149,1149,1149,1149,1149,1149,1149,1149,1145,1145,1145,1145,1145,1145,1145,1145,1145,1145,1145,1145,1145,1145,1145,1145,1145,1145,1149,1149,1145,1145,1145,1145,1145,1141,1141,1141,1141,1141,1149,1149,1149,1149,1149,1149,1149,1145,1145,1145,1145,1149,1145,1145,1141,1141,1141,1141,1141,1141,1141,1141,1141,1141,1141,1141,1141,1145,1145,1141,1141,1141,1141,1141,1141,1141,1141,1141,1141,1141,1145,1145,1145,1141,1141,1141,1141,1138,1138,1138,1138,1141,1141,1141,1141,1145,1145,1141,1141,1138,1138,1138,1134,1134,1130,1130,1130,1130,1123,1123,1119,1119,1119,1115,1115,1115,1112,1112,0,0,0,0,0,0,0,0,0,0,0,0,0,0,0,0,0,0,0,0,0,0,0,0,0,0,0,0,0,0,0,0,0
0,0,0,0,0,0,1202,1202,1197,1197,1197,1197,1197,1197,1197,1197,1197,1197,1197,1197,1193,1193,1193,1193,1189,1189,1189,1189,1189,1189,1189,1193,1193,1193,1189,1189,1189,1189,1189,1189,1189,1189,1189,1189,1189,1185,1185,1185,1189,1185,1185,1181,1181,1185,1185,1185,1185,1185,1189,1189,1189,1189,1189,1189,1185,1185,1185,1185,1185,1185,1185,1185,1189,1189,1189,1185,1185,1185,1185,1181,1181,1181,1181,1181,1181,1181,1181,1181,1181,1181,1181,1181,1181,1181,1185,1185,1181,1181,1181,1181,1181,1181,1181,1181,1181,1185,1185,1185,1185,1185,1185,1181,1181,1185,1185,1108,1108,1105,1105,1105,1105,1105,1105,1108,1108,1112,1112,1112,1112,1112,1112,1115,0,0,0,0,0,0,0,0,0,0,733,733,733,733,733,733,734,734,736,736,738,738,739,739,741,741,741,742,742,744,746,746,746,746,747,0,0,0,0,0,0,1173,1173,1173,1173,1177,1177,1177,1177,1177,1177,1177,1177,1177,1181,1177,1177,1177,1177,1177,1177,1177,1177,1177,1177,1177,1177,1177,1177,1177,1177,1177,1173,1173,1177,1177,1177,1177,1177,1173,1173,1173,1173,1169,1169,1169,1173,1173,1173,1173,1173,1173,1173,1173,1173,1173,1173,1173,1173,1173,1173,1173,1169,1169,1169,1173,1169,1169,1169,1169,1169,1169,1165,1165,1165,984,981,978,978,975,975,970,962,959,956,956,956,956,956,956,956,954,954,954,954,951,948,948,948,948,1177,1177,1173,1169,1169,1169,1169,1169,1169,1169,1169,1169,1169,1169,1169,1173,1169,1169,1173,1169,1169,1165,1165,1165,1165,1165,1165,1165,1165,1165,1165,1165,1165,1169,1169,1169,1169,1169,1173,946,946,948,948,948,948,948,948,948,948,948,948,948,948,948,948,948,951,951,954,956,956,956,959,959,959,959,962,962,962,964,964,967,967,967,970,973,975,975,981,981,981,981,984,987,989,992,992,992,992,992,992,995,995,995,995,998,998,1001,1001,1001,1001,1004,1004,1004,1010,1013,1013,1165,1161,1161,1161,1161,1161,1161,1161,1161,1161,1161,1161,1161,1161,1161,1161,1161,1161,1161,1157,1157,1157,1157,1161,1161,1161,1161,1161,1161,1161,1161,1161,1161,1161,1161,1161,1157,1157,1157,1157,1153,1153,1153,1153,1153,1153,1153,1157,1157,1157,1157,1157,1157,1157,1157,1157,1157,1157,1157,1157,1157,1157,1161,1157,1157,1157,1157,1157,1157,1157,1153,1153,1157,1157,1153,1153,1149,1149,1149,1149,1149,1149,1153,1153,1153,1149,1149,1149,1149,1149,1149,1149,1149,1149,1149,1149,1149,1149,1149,1149,1149,1149,1149,1149,1149,1149,1149,1149,1149,1149,1149,1149,1149,1149,1149,1145,1145,1145,1145,1145,1141,1138,1138,1141,1141,1141,1141,1141,1145,1145,1141,1141,1141,1141,1141,1141,1141,1141,1145,1141,1141,1141,1141,1141,1141,1141,1138,1138,1138,1138,1141,1141,1141,1145,1141,1141,1141,1141,1141,1141,1141,1141,1138,1138,1138,1138,1138,1141,1138,1138,1138,1141,1141,1141,1138,1138,1141,1141,1141,1141,1141,1141,1141,1138,1138,1141,1138,1138,1138,1138,1141,1141,1141,1141,1138,1138,1138,1138,1134,1134,1134,1134,1141,1141,1141,1141,1141,1141,1138,1138,1138,1134,1134,1130,1130,1130,1130,1123,1119,1119,1119,1119,1119,1115,1115,1115,1112,1112,0,0,0,0,0,0,0,0,0,0,0,0,0,0,0,0,0,0,0,0,0,0,0,0,0,0,0,0,0,0,0,0,0
0,0,0,0,0,0,1197,1197,1193,1193,1193,1193,1193,1193,1193,1193,1193,1193,1193,1193,1193,1193,1193,1193,1189,1189,1189,1185,1185,1185,1185,1185,1185,1189,1185,1185,1185,1185,1189,1185,1185,1185,1185,1185,1185,1181,1181,1181,1185,1181,1181,1181,1181,1181,1181,1181,1181,1181,1185,1185,1185,1185,1185,1185,1185,1181,1181,1181,1181,1185,1181,1181,1185,1185,1185,1181,1181,1181,1181,1177,1177,1177,1177,1181,1181,1181,1181,1181,1181,1181,1181,1181,1181,1181,1181,1181,1181,1181,1181,1181,1181,1181,1181,1181,1181,1181,1181,1181,1181,1181,1177,1177,1177,1181,1181,1108,1108,1108,1105,1105,1108,1105,1105,1108,1108,1112,1112,1112,1112,1112,1112,1115,0,0,0,0,0,0,0,0,0,0,0,733,733,733,733,734,734,736,736,738,738,739,739,739,741,741,741,742,744,746,746,747,747,747,747,0,0,0,0,0,0,1173,1169,1169,1173,1173,1173,1173,1173,1173,1173,1173,1177,1177,1177,1177,1177,1173,1173,1173,1173,1173,1173,1173,1173,1173,1177,1173,1173,1173,1173,1173,1173,1173,1173,1173,1173,1173,1173,1169,1169,1169,1169,1169,1169,1169,1169,1169,1169,1169,1169,1169,1169,1169,1169,1169,1169,1169,1169,1169,1169,1169,1165,1165,1165,1169,1165,1165,1165,1165,1165,1165,1165,1165,1165,984,981,978,978,975,975,970,962,959,956,954,954,954,954,954,954,951,951,954,951,948,946,946,946,948,1169,1169,1169,1169,1169,1165,1165,1165,1165,1165,1165,1165,1161,1161,1161,1165,1165,1165,1165,1165,1165,1161,1161,1161,1161,1161,1161,1161,1161,1165,1165,1165,1165,1165,1165,1165,943,943,943,943,943,946,946,946,948,948,948,948,948,948,948,948,946,946,948,948,948,951,954,954,956,956,959,959,959,959,962,962,964,964,967,967,967,970,970,973,975,978,981,981,981,981,987,987,989,992,995,995,998,998,998,998,998,998,998,1001,1001,1001,1001,1001,1004,1004,1004,1007,1010,1013,1013,1161,1161,1157,1157,1157,1157,1157,1157,1157,1157,1157,1157,1157,1157,1161,1157,1157,1157,1157,1153,1153,1153,1153,1157,1157,1157,1157,1157,1161,1161,1161,1157,1157,1157,1157,1157,1153,1153,1153,1153,1153,1153,1149,1149,1153,1149,1149,1149,1149,1149,1157,1153,1153,1157,1157,1157,1157,1157,1157,1153,1153,1157,1157,1153,1153,1153,1153,1153,1153,1153,1153,1153,1153,1153,1149,1149,1149,1149,1149,1149,1149,1149,1149,1149,1149,1149,1149,1149,1145,1141,1141,1141,1145,1145,1149,1145,1145,1145,1145,1145,1145,1141,1141,1145,1149,1149,1149,1149,1149,1149,1149,1145,1145,1145,1145,1145,1141,1141,1141,1141,1138,1138,1138,1138,1138,1138,1141,1141,1141,1141,1138,1138,1138,1138,1138,1138,1138,1138,1138,1138,1138,1138,1138,1138,1138,1138,1138,1138,1138,1138,1138,1138,1138,1138,1138,1138,1138,1138,1138,1138,1138,1138,1138,1138,1138,1138,1138,1138,1138,1134,1134,1138,1138,1138,1138,1138,1138,1141,1141,1138,1138,1138,1138,1138,1138,1138,1134,1134,1134,1134,1138,1134,1134,1138,1134,1134,1134,1134,1134,1134,1134,1134,1134,1134,1134,1138,1138,1138,1138,1134,1134,1134,1130,1130,1130,1126,1123,1123,1119,1119,1119,1119,1115,1115,1115,1115,1112,1112,0,0,0,0,0,0,0,0,0,0,0,0,0,0,0,0,0,0,0,0,0,0,0,0,0,0,0,0,0,0,0,0,0
0,0,0,0,0,0,1193,1189,1189,1189,1189,1185,1185,1189,1189,1189,1189,1189,1189,1193,1189,1189,1189,1189,1185,1185,1185,1181,1181,1181,1181,1181,1181,1181,1181,1177,1177,1185,1185,1181,1181,1181,1181,1181,1181,1177,1177,1181,1181,1181,1181,1181,1181,1181,1181,1181,1181,1181,1181,1181,1181,1181,1181,1181,1181,1181,1181,1181,1181,1181,1181,1181,1181,1181,1181,1177,1177,1177,1177,1177,1173,1173,1173,1177,1177,1177,1177,1177,1177,1177,1177,1177,1177,1177,1177,1177,1177,1177,1177,1177,1177,1177,1177,1177,1177,1177,1181,1177,1177,1177,1177,1173,1169,1169,1169,1108,1108,1108,1108,1108,1108,1108,1108,1108,1112,1115,1115,1115,1112,1112,1115,1115,0,0,0,0,0,0,0,0,0,0,0,733,733,734,734,734,734,736,736,738,738,739,739,739,741,741,741,742,744,746,747,747,747,747,749,0,0,0,0,0,0,1173,1169,1169,1169,1173,1173,1169,1169,1169,1169,1169,1169,1169,1169,1177,1173,1173,1173,1173,1173,1173,1173,1169,1169,1169,1169,1169,1169,1169,1169,1169,1165,1165,1165,1169,1169,1169,1169,1169,1169,1165,1165,1165,1165,1165,1165,1165,1165,1165,1165,1165,1165,1165,1165,1165,1165,1165,1165,1165,1165,1165,1165,1165,1165,1165,1165,1161,1161,1161,1161,1165,1161,1161,1165,1165,981,978,978,975,975,970,962,959,954,954,954,951,951,948,948,948,948,948,946,946,946,946,946,943,943,1169,1169,1169,1169,1165,1161,1161,1161,1161,1161,1161,1157,1157,1157,1161,1161,1161,1161,1161,1161,1161,1161,1161,1161,1161,1161,1161,1161,1161,1161,1161,1161,1165,1165,1165,943,943,943,943,943,946,946,946,946,946,948,948,946,946,946,946,946,946,946,948,948,948,951,954,954,956,959,959,959,962,962,964,964,967,967,967,967,970,970,975,975,978,981,981,981,981,987,989,989,992,1004,1004,1004,1001,1001,1001,1001,998,998,1001,1001,1001,1001,1001,1004,1004,1007,1007,1010,1010,1010,1161,1157,1153,1153,1153,1153,1153,1153,1153,1153,1157,1157,1157,1157,1157,1157,1157,1153,1153,1153,1153,1153,1153,1153,1153,1153,1153,1153,1153,1153,1153,1153,1153,1153,1153,1153,1153,1153,1153,1149,1149,1149,1149,1149,1149,1149,1149,1149,1149,1149,1149,1149,1149,1153,1153,1153,1153,1153,1153,1149,1149,1149,1149,1149,1149,1149,1145,1145,1145,1149,1149,1149,1149,1149,1145,1145,1145,1145,1145,1145,1145,1149,1149,1149,1149,1149,1145,1145,1145,1138,1138,1138,1138,1138,1138,1138,1138,1141,1141,1141,1141,1141,1141,1141,1141,1141,1145,1145,1145,1145,1145,1141,1141,1141,1141,1138,1138,1138,1138,1138,1138,1134,1134,1134,1138,1138,1138,1138,1138,1138,1138,1138,1134,1134,1138,1138,1138,1138,1138,1138,1138,1134,1134,1134,1134,1134,1134,1134,1138,1134,1134,1134,1138,1138,1134,1134,1134,1138,1138,1138,1138,1134,1134,1134,1134,1134,1134,1134,1134,1134,1134,1134,1134,1138,1134,1134,1138,1138,1138,1134,1134,1134,1134,1134,1134,1134,1134,1134,1134,1134,1134,1134,1134,1134,1134,1134,1134,1134,1134,1130,1130,1130,1134,1134,1134,1134,1134,1134,1134,1134,1130,1130,1130,1126,1126,1123,1123,1123,1119,1119,1119,1119,1115,1115,1115,1115,1112,1112,0,0,0,0,0,0,0,0,0,0,0,0,0,0,0,0,0,0,0,0,0,0,0,0,0,0,0,0,0,0,0,0,0
0,0,0,0,0,0,1193,1189,1189,1189,1185,1185,1185,1185,1185,1185,1185,1185,1185,1185,1185,1185,1181,1181,1181,1181,1181,1181,1181,1181,1181,1177,1177,1177,1177,1177,1177,1181,1177,1177,1177,1177,1177,1177,1177,1177,1177,1177,1177,1177,1177,1177,1177,1177,1177,1177,1177,1177,1181,1181,1181,1181,1181,1177,1177,1177,1177,1177,1177,1177,1177,1177,1177,1177,1177,1177,1177,1177,1177,1173,1173,1173,1173,1177,1177,1177,1177,1177,1177,1177,1177,1177,1173,1173,1173,1177,1173,1173,1173,1173,1173,1173,1173,1173,1177,1177,1177,1177,1177,1173,1169,1169,1165,1165,1165,1108,1108,1108,1108,1108,1108,1108,1108,1108,1112,1115,1115,1115,1115,1115,1115,1115,0,0,0,0,0,0,0,0,0,0,0,0,734,734,734,734,736,736,738,738,739,739,739,741,741,742,742,744,746,746,747,747,747,747,749,0,0,0,0,0,0,1169,1169,1169,1169,1169,1169,1169,1165,1165,1169,1169,1169,1169,1169,1169,1169,1165,1165,1169,1169,1169,1169,1165,1165,1169,1169,1169,1169,1165,1165,1169,1165,1165,1165,1165,1165,1165,1165,1165,1165,1165,1165,1165,1165,1165,1165,1165,1165,1165,1165,1165,1165,1165,1165,1165,1165,1161,1161,1161,1161,1161,1161,1161,1161,1161,1161,1161,1161,1161,1161,1161,1161,1161,1161,1161,1165,978,975,975,975,973,962,959,954,954,951,951,948,948,946,946,946,946,943,943,943,943,943,943,943,943,1165,1165,1165,1161,1161,1157,1157,1157,1157,1157,1153,1153,1153,1157,1157,1157,1157,1157,1161,1161,1157,1157,1157,1157,1161,1161,1161,935,935,1161,1161,1165,935,935,938,940,940,940,940,940,940,943,943,943,946,946,946,946,946,946,946,946,946,946,948,948,948,951,954,956,956,959,962,962,964,964,967,967,967,967,970,970,973,975,978,978,981,981,981,981,984,989,989,992,1010,1007,1007,1004,1004,1001,1001,1001,1001,1001,1001,1001,1001,1001,1004,1004,1007,1007,1013,1010,1010,1013,1153,1153,1153,1153,1153,1153,1153,1153,1153,1153,1153,1153,1153,1153,1153,1153,1153,1153,1153,1153,1153,1153,1153,1153,1153,1149,1149,1149,1149,1149,1149,1149,1149,1153,1153,1153,1149,1149,1149,1149,1149,1145,1145,1145,1145,1145,1145,1145,1141,1141,1141,1141,1145,1145,1149,1149,1149,1149,1149,1149,1145,1145,1145,1145,1141,1141,1141,1141,1141,1141,1141,1141,1145,1141,1141,1141,1141,1141,1141,1145,1145,1145,1145,1145,1145,1145,1141,1141,1138,1138,1138,1138,1138,1138,1138,1138,1138,1138,1138,1138,1138,1138,1138,1138,1138,1138,1138,1138,1141,1141,1141,1141,1138,1138,1138,1138,1138,1134,1134,1134,1134,1134,1134,1134,1134,1138,1138,1138,1134,1134,1134,1134,1134,1134,1134,1134,1134,1134,1134,1134,1134,1134,1134,1134,1134,1134,1134,1134,1134,1134,1134,1134,1134,1130,1130,1130,1130,1130,1130,1134,1134,1134,1134,1134,1134,1134,1130,1130,1130,1130,1130,1130,1130,1130,1130,1130,1130,1134,1130,1130,1134,1134,1130,1130,1130,1130,1130,1130,1130,1130,1130,1130,1130,1130,1130,1130,1130,1130,1130,1130,1126,1126,1130,1134,1130,1130,1130,1130,1134,1130,1130,1126,1126,1126,1123,1123,1119,1119,1119,1119,1119,1115,1115,1115,1112,1112,1112,0,0,0,0,0,0,0,0,0,0,0,0,0,0,0,0,0,0,0,0,0,0,0,0,0,0,0,0,0,0,0,0,0
0,0,0,0,0,0,1189,1185,1185,1185,1181,1181,1181,1185,1181,1181,1181,1181,1181,1181,1177,1173,1173,1173,1173,1173,1177,1177,1177,1177,1177,1177,1177,1177,1177,1173,1173,1177,1173,1173,1173,1173,1173,1173,1173,1173,1173,1173,1173,1173,1177,1177,1177,1177,1177,1177,1177,1177,1177,1177,1177,1177,1177,1177,1177,1177,1177,1177,1177,1173,1173,1173,1177,1177,1177,1173,1173,1173,1173,1173,1169,1169,1169,1173,1177,1173,1173,1173,1173,1177,1173,1169,1169,1169,1173,1169,1169,1169,1169,1169,1169,1169,1169,1169,1169,1169,1173,1169,1169,1169,1165,1165,1165,1161,1161,1161,1108,1108,1108,1108,1108,1108,1108,1112,1112,1112,1115,1115,1115,1115,1115,0,0,0,0,0,0,0,0,0,0,0,0,0,0,736,736,736,736,738,738,738,739,739,741,741,741,742,742,744,746,746,747,747,747,747,749,750,0,0,0,0,0,1169,1165,1165,1165,1165,1165,1165,1165,1165,1165,1165,1165,1165,1165,1165,1165,1165,1165,1165,1165,1165,1165,1165,1165,1165,1165,1165,1165,1165,1165,1165,1161,1161,1161,1161,1161,1161,1161,1161,1165,1165,1165,1165,1165,1165,1165,1161,1161,1165,1165,1165,1165,1165,1161,1161,1161,1161,1161,1157,1157,1157,1161,1161,1161,1161,1161,1157,1157,1157,1157,1157,1157,1157,1157,1161,1161,1165,975,975,975,973,962,959,954,954,951,951,948,946,946,943,943,943,940,940,940,940,940,938,938,938,1165,1165,1161,1161,1157,1157,1157,1153,1153,1153,1153,1153,1153,1153,1153,1153,1153,1153,1157,1157,1157,1157,1157,1157,1157,1157,1157,933,933,933,933,933,935,935,935,938,940,938,938,940,940,940,938,938,940,940,946,946,946,946,946,946,946,946,948,948,948,951,954,956,956,959,962,962,964,964,967,967,967,970,970,970,973,975,978,978,981,981,981,981,981,989,989,1019,1016,1010,1010,1004,1004,1004,1004,1001,1001,1001,1001,1004,1004,1004,1007,1007,1010,1010,1013,1013,1013,1013,1153,1153,1149,1149,1149,1149,1149,1149,1149,1149,1149,1149,1149,1149,1149,1149,1149,1149,1149,1149,1149,1149,1149,1149,1149,1149,1149,1145,1145,1141,1141,1145,1149,1149,1149,1149,1149,1149,1145,1145,1145,1141,1141,1145,1141,1141,1141,1141,1141,1141,1138,1138,1141,1141,1141,1141,1145,1145,1145,1145,1141,1141,1141,1141,1141,1138,1138,1141,1138,1138,1141,1141,1141,1138,1138,1141,1141,1141,1141,1141,1141,1145,1145,1145,1145,1141,1141,1138,1138,1134,1134,1134,1134,1134,1134,1134,1134,1134,1134,1134,1134,1138,1138,1138,1138,1138,1138,1138,1134,1134,1138,1138,1138,1138,1134,1134,1134,1134,1134,1134,1134,1134,1134,1134,1134,1134,1134,1134,1134,1134,1134,1134,1134,1134,1134,1134,1134,1134,1134,1134,1134,1134,1130,1130,1130,1134,1134,1130,1130,1130,1126,1126,1126,1126,1123,1123,1123,1123,1123,1123,1123,1134,1134,1134,1134,1134,1130,1130,1130,1126,1126,1126,1130,1126,1126,1126,1126,1126,1126,1126,1126,1130,1126,1126,1126,1126,1126,1130,1126,1126,1130,1130,1130,1130,1126,1126,1130,1126,1126,1126,1126,1126,1130,1130,1126,1126,1126,1126,1126,1126,1126,1126,1126,1123,1123,1119,1115,1115,1115,1115,1115,1112,1112,1112,1112,1108,1108,0,0,0,0,0,0,0,0,0,0,0,0,0,0,0,0,0,0,0,0,0,0,0,0,0,0,0,0,0,0,0,0,0
