0,0,0,0,0,0,0,0,0,0,1496,1496,1496,1496,1496,1496,1496,1496,1496,1496,1496,1496,1496,1496,1496,1503,1503,1503,1503,1509,1516,1516,1516,1516,1516,1516,1509,1509,1509,1509,1509,1509,1509,1509,1509,1509,1509,1509,1516,1509,1509,1509,1509,1509,1509,1509,1509,1509,1509,1509,1509,1509,1509,1509,1516,1516,1516,1516,1516,1516,1516,1516,1516,1516,1516,1516,1516,1516,1516,1516,1516,1516,1509,1503,1503,1483,1483,1483,0,0,0,0,0,0,935,933,933,933,933,930,928,928,925,925,925,925,925,925,925,928,928,930,933,933,933,935,935,935,935,935,0,0,0,0,1523,1516,1516,1516,1523,1523,1523,1516,1516,1523,1523,1523,1523,1523,1523,1523,1523,1523,1523,1523,1523,1523,1523,1523,1523,1523,1523,1523,1523,1523,1529,1529,1529,1536,1536,1536,1536,1536,1536,1536,1529,1529,1529,1536,1536,1536,1536,1543,1543,1543,1543,1536,1516,1516,1516,1516,1516,1516,1516,1516,1516,1516,1516,0,0,0,0,0,0,0,0,0,0,0,734,734,733,733,731,728,728,725,723,722,722,720,720,719,717,716,716,714,711,710,708,707,707,704,703,700,698,698,697,697,697,682,679,678,678,676,675,674,674,672,671,670,668,667,666,666,664,664,666,666,667,670,670,671,672,672,675,678,679,680,682,682,683,684,696,701,701,703,703,704,707,711,713,713,714,716,717,720,720,725,727,728,730,730,733,733,734,736,739,741,742,742,744,0,0,0,0,0,0,0,0,0,1543,1543,1543,1543,1543,1543,1543,1550,1550,1550,1557,1557,1550,1550,1557,1557,1564,1557,1557,1557,1557,1557,1557,1557,1557,1557,1557,1557,1557,1550,1550,1557,1557,1557,1557,1557,1557,1557,1557,1550,1550,1550,1550,1550,1550,1550,1550,1550,1550,1550,1550,1550,1550,1550,1550,1557,1557,1557,1557,1557,1557,1557,1557,0,0,0,0,0,0,1007,1004,1004,1004,1004,1004,1004,1001,1001,1001,998,995,992,992,992,992,992,992,995,998,1001,1007,1007,1010,1013,1016,0,0,0,1579,1579,1564,1564,1557,1557,1557,1557,1557,1557,1557,1557,1550,1550,1550,1550,1550,1550,1550,1550,1550,1543,1543,1543,1543,1543,1543,1536,1536,1536,1529,1523,1523,1523,1523,1523,1516,1516,1516,1509,1509,1503,1503,1496,1496,1496,1496,1496,1489,1489,1489,1489,1489,1489,1483,1483,1477,1477,1470,1470,1470,1470,1464,1464,1464,1464,1464,1458,1458,1452,1452,1445,1445,1445,1439,1439,1439,1439,1439,1433,1433,1427,1427,1421,1421,1421,1421,1415,1415,1410,1410,1404,1398,1398,1398,1398,1398,1398,1398,1398,1392,1392,1392,1387,1381,1381,1376,1376,1376,1376,1370,1370,1370,1365,1365,1365,1359,1359,1354,1354,1354,1354,1349,1349,1349,1349,1349,1343,1343,1338,1338,1333,1333,1333,1328,1328,1328,1328,1322,1322,1322,1317,1317,1317,1312,1312,1312,1312,1307,1307,1307,1307,1307,1302,1302,1297,1292,1292,1292,1288,1288,1288,1288,1288,1288,1288,1288,1283,1278,1278,1273,1273,1268,1268,1268,1264,1264,1264,1259,1259,1255,1255,1255,1255,1255,1255,1250,1250,1250,1250,1241,1236,1236,1236,1236,1236,1232,1232,1232,1232,1232,1227,1227,1223,1223,1219,1219,1219,1214,1214,1214,0,0,0,0,0,0,0,0,0,0,0,0,0,0,0,0,0,0,0,0,0,0,0,0,0,0,0,0,0,0,0
0,0,0,0,0,0,0,0,0,0,1496,1496,1496,1489,1489,1489,1496,1489,1489,1489,1496,1496,1489,1489,1489,1489,1489,1496,1496,1496,1503,1509,1509,1509,1509,1509,1509,1503,1503,1503,1503,1503,1503,1503,1503,1503,1503,1503,1503,1503,1503,1503,1503,1509,1509,1509,1509,1509,1509,1509,1509,1509,1509,1509,1509,1509,1509,1509,1509,1516,1509,1509,1509,1509,1516,1509,1509,1509,1509,1509,1509,1509,1509,1509,1489,1483,1483,1483,0,0,0,0,0,0,935,935,935,935,933,930,928,928,925,925,925,925,925,925,925,928,928,930,933,933,935,938,940,935,935,935,935,0,0,0,0,0,1516,1516,1523,1523,1516,1516,1516,1516,1516,1509,1509,1509,1509,1516,1516,1516,1516,1523,1523,1523,1523,1523,1523,1523,1523,1516,1516,1516,1523,1523,1523,1529,1529,1529,1529,1529,1529,1523,1523,1523,1523,1529,1529,1529,1529,1536,1536,1536,1536,1529,1509,1509,1509,1516,1516,1516,1516,1516,1516,1516,1516,1509,1509,1509,0,0,0,0,0,0,0,0,0,734,733,733,731,728,728,725,723,722,722,720,720,719,717,716,716,714,714,711,710,708,707,706,703,701,700,698,697,697,697,682,679,678,678,676,676,675,674,674,672,671,670,668,667,666,666,666,666,667,667,670,670,671,672,672,676,680,682,682,683,683,683,683,696,701,701,703,704,704,708,713,713,713,716,716,717,720,720,725,725,727,730,730,731,733,734,736,739,741,742,742,0,0,0,0,0,0,0,0,1543,1543,1543,1543,1543,1543,1543,1543,1543,1543,1543,1543,1543,1543,1543,1543,1543,1543,1550,1550,1550,1550,1550,1557,1550,1550,1550,1550,1550,1550,1550,1550,1550,1550,1550,1550,1550,1550,1543,1543,1543,1543,1543,1550,1550,1550,1550,1550,1550,1550,1550,1543,1543,1543,1543,1543,1543,1543,1543,1550,1550,1550,1550,1550,1543,1543,0,0,0,0,0,0,1007,1004,1004,1004,1004,1004,1001,1001,1001,998,995,992,992,992,992,992,995,995,998,1001,1007,1010,1013,1016,1016,0,0,0,0,1572,1557,1557,1550,1550,1550,1550,1550,1550,1550,1550,1550,1550,1550,1550,1550,1550,1550,1550,1550,1543,1543,1543,1543,1543,1543,1536,1536,1536,1529,1529,1523,1523,1523,1523,1523,1516,1516,1516,1509,1509,1503,1503,1496,1496,1496,1496,1496,1496,1489,1489,1489,1489,1483,1483,1477,1477,1470,1470,1470,1470,1470,1464,1464,1464,1464,1464,1458,1452,1452,1445,1445,1445,1445,1439,1439,1439,1439,1433,1433,1433,1427,1421,1421,1421,1421,1415,1415,1410,1410,1404,1404,1398,1398,1398,1398,1398,1398,1398,1392,1392,1392,1392,1381,1381,1376,1376,1376,1376,1370,1370,1370,1365,1365,1365,1359,1359,1354,1354,1354,1354,1349,1349,1349,1349,1349,1343,1343,1338,1338,1338,1333,1333,1333,1328,1328,1328,1322,1322,1322,1322,1322,1317,1312,1312,1312,1312,1307,1307,1307,1307,1307,1302,1302,1297,1292,1292,1292,1288,1288,1288,1288,1288,1288,1288,1288,1283,1278,1278,1273,1273,1273,1268,1268,1264,1264,1264,1259,1259,1255,1255,1255,1255,1255,1255,1250,1250,1250,1245,1241,1241,1236,1236,1236,1236,1232,1232,1232,1232,1232,1227,1227,1223,1223,1223,1219,1219,1219,1219,1219,0,0,0,0,0,0,0,0,0,0,0,0,0,0,0,0,0,0,0,0,0,0,0,0,0,0,0,0,0,0,0
0,0,0,0,0,0,0,0,0,0,1489,1489,1489,1489,1489,1489,1489,1489,1489,1489,1489,1489,1489,1483,1483,1489,1489,1489,1483,1483,1496,1503,1503,1496,1496,1496,1496,1489,1489,1496,1496,1496,1496,1496,1496,1496,1496,1496,1489,1489,1496,1496,1496,1496,1503,1503,1503,1503,1503,1503,1503,1503,1489,1489,1503,1503,1496,1496,1503,1509,1509,1509,1503,1503,1509,1509,1509,1509,1509,1509,1509,1509,1503,1503,1489,1489,1489,1489,0,0,0,0,0,0,0,935,935,935,933,933,928,925,925,925,925,925,925,925,928,928,930,933,933,933,935,940,940,938,938,935,935,0,0,0,0,0,1516,1516,1516,1516,1516,1516,1516,1516,1516,1503,1503,1503,1503,1509,1509,1509,1509,1516,1516,1516,1516,1516,1516,1516,1516,1516,1516,1516,1516,1516,1516,1523,1523,1523,1523,1523,1523,1516,1516,1516,1516,1516,1523,1523,1523,1529,1529,1529,1523,1523,1509,1509,1509,1516,1516,1516,1516,1516,1516,1516,1516,1509,1509,1509,1509,1509,0,0,0,0,0,0,0,0,733,733,733,730,730,725,723,722,722,720,720,719,717,716,716,714,714,711,710,708,708,706,704,703,701,700,697,697,696,683,682,679,678,676,676,675,674,674,672,671,670,668,667,666,666,666,666,667,668,670,670,670,671,671,672,680,682,682,683,683,683,683,697,701,703,704,704,706,710,713,713,713,716,717,717,720,720,725,725,727,728,730,730,733,734,736,739,741,0,0,0,0,0,0,0,1523,1523,1529,1536,1543,1536,1536,1543,1543,1543,1543,1543,1536,1536,1536,1536,1536,1536,1536,1536,1536,1543,1543,1543,1550,1550,1550,1550,1550,1550,1543,1543,1543,1550,1543,1543,1543,1550,1543,1543,1543,1536,1536,1536,1536,1536,1543,1543,1543,1543,1543,1543,1543,1543,1543,1543,1536,1536,1543,1543,1543,1543,1543,1543,1543,1543,1543,1543,1543,0,0,0,0,0,1010,1007,1004,1004,1004,1004,1004,1001,1001,1001,1001,995,992,992,992,995,995,995,998,1001,1004,1007,1010,1013,1016,1016,1019,1019,0,1572,1572,1557,1550,1550,1550,1550,1550,1550,1550,1550,1550,1543,1543,1543,1543,1543,1543,1543,1543,1543,1543,1536,1536,1536,1536,1536,1536,1536,1536,1529,1529,1523,1523,1523,1523,1523,1516,1516,1516,1509,1509,1503,1503,1496,1496,1496,1496,1496,1496,1489,1489,1489,1489,1483,1483,1477,1477,1470,1470,1470,1470,1470,1464,1464,1464,1464,1458,1458,1452,1452,1452,1445,1445,1445,1445,1439,1439,1439,1439,1433,1433,1427,1427,1421,1421,1421,1415,1415,1410,1410,1404,1404,1404,1404,1398,1398,1398,1398,1398,1392,1392,1392,1392,1381,1381,1376,1376,1376,1376,1370,1370,1370,1370,1365,1365,1365,1359,1354,1354,1354,1354,1354,1349,1349,1349,1349,1343,1343,1338,1338,1338,1333,1333,1333,1328,1328,1328,1322,1322,1322,1322,1322,1317,1312,1312,1312,1312,1307,1307,1307,1307,1307,1302,1302,1297,1292,1292,1292,1288,1288,1288,1288,1288,1288,1288,1288,1283,1278,1278,1278,1273,1273,1268,1268,1268,1264,1264,1264,1259,1255,1255,1255,1255,1255,1255,1250,1250,1250,1245,1241,1241,1241,1236,1236,1236,1236,1232,1232,1232,1232,1232,1227,1227,1223,1223,1223,1219,1219,1219,1219,0,0,0,0,0,0,0,0,0,0,0,0,0,0,0,0,0,0,0,0,0,0,0,0,0,0,0,0,0,0,0
0,0,0,0,0,0,0,0,0,0,1483,1483,1483,1483,1483,1483,1483,1483,1483,1483,1483,1483,1483,1483,1483,1483,1483,1483,1483,1483,1489,1489,1489,1489,1489,1489,1489,1489,1489,1489,1489,1489,1489,1489,1489,1489,1489,1489,1489,1489,1489,1489,1489,1496,1489,1489,1496,1496,1489,1483,1483,1489,1483,1483,1496,1496,1496,1496,1496,1503,1503,1503,1496,1496,1503,1503,1503,1503,1503,1503,1503,1489,1483,1483,1483,1483,1483,1483,0,0,0,0,0,0,0,938,938,938,933,933,928,925,925,925,925,925,925,925,928,928,933,933,933,935,935,940,940,938,938,938,943,0,0,0,0,0,1509,1509,1509,1509,1509,1509,1509,1509,1503,1496,1496,1496,1496,1503,1509,1509,1509,1509,1516,1509,1509,1509,1509,1509,1509,1509,1509,1509,1509,1509,1509,1516,1516,1516,1516,1516,1516,1516,1516,1516,1516,1516,1516,1516,1516,1516,1516,1523,1516,1516,1516,1516,1516,1516,1516,1516,1516,1516,1516,1516,1509,1509,1509,1509,1509,1509,1509,1509,0,0,0,0,0,0,0,0,0,725,725,725,723,722,722,720,720,719,717,716,716,714,714,711,710,708,708,707,704,704,703,701,698,697,696,696,683,679,678,678,676,675,675,674,672,671,670,670,667,667,666,666,666,667,668,670,670,670,671,671,672,680,682,683,684,684,686,686,687,701,703,704,704,707,710,713,713,713,717,717,717,720,723,723,725,727,728,728,728,733,734,736,739,0,0,0,0,0,0,1523,1523,1523,1523,1523,1529,1529,1529,1529,1536,1536,1536,1536,1536,1536,1529,1529,1529,1529,1529,1529,1529,1529,1543,1543,1543,1543,1543,1543,1543,1543,1543,1543,1543,1543,1543,1543,1543,1543,1543,1536,1536,1536,1529,1529,1529,1529,1529,1536,1536,1536,1543,1543,1536,1536,1536,1536,1536,1536,1536,1536,1536,1536,1536,1543,1543,1536,1536,1536,1536,1536,0,0,0,0,0,1010,1007,1004,1004,1004,1004,1004,1001,1001,1001,1001,998,995,995,995,995,995,995,998,1001,1004,1007,1010,1013,1016,1016,1016,0,0,0,0,1550,1550,1543,1543,1543,1543,1543,1543,1543,1543,1543,1543,1536,1536,1543,1543,1543,1543,1543,1536,1536,1536,1536,1529,1529,1529,1529,1536,1529,1529,1523,1523,1523,1523,1516,1516,1516,1516,1516,1509,1509,1503,1496,1496,1496,1496,1496,1496,1489,1489,1489,1489,1489,1483,1483,1477,1470,1470,1470,1470,1470,1464,1464,1464,1464,1458,1458,1452,1452,1452,1445,1445,1445,1445,1439,1439,1439,1439,1433,1433,1427,1427,1421,1421,1421,1415,1415,1415,1410,1410,1404,1404,1404,1398,1398,1398,1398,1392,1392,1392,1392,1392,1387,1381,1376,1376,1376,1376,1370,1370,1370,1370,1365,1365,1365,1359,1354,1354,1354,1354,1354,1349,1349,1349,1349,1343,1343,1338,1338,1333,1333,1333,1333,1328,1328,1328,1328,1322,1322,1322,1317,1317,1312,1312,1312,1312,1307,1307,1307,1307,1307,1302,1302,1297,1292,1292,1292,1288,1288,1288,1288,1288,1288,1288,1288,1283,1278,1278,1278,1273,1273,1268,1268,1268,1264,1264,1264,1259,1259,1255,1255,1255,1255,1255,1255,1250,1250,1245,1241,1241,1241,1241,1236,1236,1236,1232,1232,1232,1232,1232,1227,1227,1227,1223,1223,1223,1219,1219,1219,0,0,0,0,0,0,0,0,0,0,0,0,0,0,0,0,0,0,0,0,0,0,0,0,0,0,0,0,0,0,0
0,0,0,0,0,0,0,0,0,0,1477,1477,1477,1477,1477,1477,1477,1477,1477,1477,1483,1483,1483,1477,1477,1483,1483,1483,1483,1483,1483,1483,1483,1483,1483,1483,1489,1483,1483,1489,1489,1489,1489,1489,1483,1483,1483,1483,1483,1483,1483,1483,1489,1489,1489,1489,1489,1496,1489,1483,1483,1489,1483,1483,1489,1489,1489,1489,1496,1496,1496,1496,1496,1496,1496,1496,1496,1496,1496,1489,1489,1489,1483,1483,1483,1483,1483,1483,0,0,0,0,0,0,0,940,940,940,935,933,928,928,925,925,925,925,928,928,928,933,933,933,935,935,935,940,943,943,943,943,943,0,0,0,0,0,1509,1509,1509,1509,1509,1503,1503,1503,1503,1496,1496,1496,1496,1503,1503,1503,1503,1509,1509,1509,1509,1509,1509,1509,1509,1503,1503,1509,1503,1503,1503,1509,1509,1509,1509,1509,1516,1509,1509,1509,1509,1509,1509,1509,1509,1503,1503,1509,1503,1503,1503,1509,1516,1516,1516,1516,1516,1516,1516,1516,1509,1509,1509,1509,1509,1509,1503,1496,1496,0,0,0,0,0,0,0,0,0,725,725,723,722,722,720,720,719,719,717,716,714,714,711,710,710,708,707,706,704,703,701,698,697,694,694,684,679,678,678,676,675,675,675,674,672,670,668,667,667,666,666,667,667,670,670,670,671,671,671,679,680,682,683,684,686,686,686,687,701,704,704,706,708,711,713,713,714,717,717,717,720,722,723,725,727,728,728,728,0,728,0,0,0,0,0,0,0,1523,1516,1516,1516,1516,1516,1523,1523,1523,1529,1529,1529,1529,1529,1529,1529,1529,1529,1523,1523,1523,1523,1523,1523,1529,1529,1536,1536,1536,1536,1536,1536,1536,1536,1536,1536,1536,1536,1536,1536,1536,1536,1536,1536,1529,1529,1529,1529,1529,1529,1529,1536,1536,1536,1536,1536,1536,1529,1529,1529,1529,1529,1529,1529,1529,1536,1536,1536,1529,1529,1529,1523,1523,0,0,0,0,1013,1007,1007,1007,1004,1004,1004,1004,1001,1001,1001,998,995,995,995,995,998,998,1001,1001,1004,1007,1013,1013,1016,1016,1016,0,0,0,0,1543,1543,1543,1543,1543,1543,1543,1543,1536,1536,1536,1536,1529,1529,1536,1536,1536,1536,1536,1529,1529,1529,1529,1529,1529,1529,1529,1529,1529,1529,1523,1523,1523,1523,1516,1516,1516,1516,1516,1509,1509,1503,1496,1496,1496,1496,1496,1496,1489,1489,1489,1489,1489,1483,1483,1477,1470,1470,1470,1470,1470,1464,1464,1464,1464,1458,1458,1452,1452,1452,1445,1445,1445,1445,1445,1439,1439,1439,1439,1433,1427,1427,1421,1421,1421,1415,1415,1415,1410,1410,1410,1404,1404,1398,1398,1398,1398,1392,1392,1392,1392,1392,1387,1381,1381,1376,1376,1376,1376,1370,1370,1370,1365,1365,1365,1359,1354,1354,1354,1354,1354,1349,1349,1349,1349,1343,1343,1338,1333,1333,1333,1333,1333,1328,1328,1328,1328,1328,1322,1322,1317,1317,1312,1312,1312,1312,1307,1307,1307,1307,1307,1302,1302,1297,1292,1292,1292,1288,1288,1288,1288,1288,1288,1288,1288,1283,1283,1278,1278,1273,1273,1268,1268,1268,1268,1268,1264,1259,1259,1255,1255,1255,1255,1255,1255,1250,1250,1245,1241,1241,1241,1241,1236,1236,1236,1236,1236,1232,1232,1232,1227,1227,1227,1223,1223,1219,1219,1219,1219,0,0,0,0,0,0,0,0,0,0,0,0,0,0,0,0,0,0,0,0,0,0,0,0,0,0,0,0,0,0,0
0,0,0,0,0,0,0,0,0,0,1477,1470,1470,1477,1477,1470,1470,1470,1470,1477,1477,1477,1477,1477,1477,1477,1477,1477,1477,1477,1483,1483,1483,1483,1483,1483,1483,1483,1483,1483,1483,1483,1483,1483,1483,1483,1483,1483,1483,1483,1483,1483,1483,1483,1483,1489,1489,1489,1489,1489,1489,1489,1489,1489,1489,1483,1483,1489,1489,1489,1489,1489,1489,1489,1489,1489,1489,1489,1489,1489,1483,1483,1483,1483,1483,1483,1477,1477,0,0,0,0,0,0,0,940,940,940,935,933,930,928,928,925,925,928,928,928,930,933,933,933,935,935,938,943,943,943,943,946,946,0,0,0,0,0,1509,1509,1509,1509,1503,1496,1496,1496,1496,1489,1489,1489,1496,1496,1496,1496,1496,1503,1509,1503,1503,1503,1503,1503,1503,1503,1503,1503,1503,1503,1503,1503,1503,1503,1503,1503,1509,1509,1503,1503,1503,1503,1503,1503,1503,1496,1496,1503,1496,1496,1496,1503,1503,1509,1509,1509,1509,1509,1509,1509,1509,1509,1509,1509,1509,1509,1503,1496,1489,1489,1489,0,0,0,0,0,0,0,725,725,723,722,722,720,720,719,719,717,716,714,711,711,710,710,708,707,706,704,703,701,698,697,694,688,684,682,679,678,676,676,675,675,674,672,670,668,667,667,667,667,667,668,670,670,671,671,671,671,679,680,682,683,684,686,686,686,687,704,704,706,707,708,710,713,713,716,717,717,719,720,722,723,725,727,728,728,0,0,0,0,0,0,0,0,1523,1523,1523,1516,1516,1516,1516,1516,1516,1516,1516,1523,1523,1529,1523,1523,1523,1523,1523,1523,1523,1523,1523,1523,1516,1516,1523,1523,1529,1529,1529,1529,1536,1536,1536,1536,1536,1529,1529,1536,1529,1529,1529,1529,1529,1523,1523,1523,1523,1523,1523,1523,1529,1529,1529,1529,1529,1529,1529,1523,1523,1523,1523,1523,1523,1523,1529,1529,1529,1529,1523,1523,1523,1523,1523,0,0,0,0,1013,1007,1007,1007,1007,1004,1004,1004,1001,1001,1001,998,995,995,995,998,998,998,1001,1004,1007,1010,1013,1013,1013,1013,1013,1013,0,1523,0,1536,1536,1536,1536,1536,1536,1536,1536,1536,1536,1529,1529,1529,1529,1529,1529,1529,1529,1529,1529,1529,1529,1523,1523,1523,1523,1523,1529,1523,1523,1523,1523,1523,1523,1516,1516,1516,1516,1516,1516,1509,1503,1503,1503,1496,1496,1496,1496,1496,1489,1489,1489,1489,1483,1483,1477,1470,1470,1470,1470,1470,1464,1464,1464,1464,1458,1458,1452,1452,1452,1445,1445,1445,1445,1445,1439,1439,1439,1439,1433,1433,1427,1427,1427,1421,1415,1415,1415,1415,1410,1410,1404,1404,1404,1398,1398,1398,1392,1392,1392,1392,1392,1392,1387,1381,1376,1376,1376,1376,1370,1370,1370,1365,1365,1365,1359,1359,1354,1354,1354,1354,1354,1349,1349,1349,1343,1343,1338,1333,1333,1333,1333,1333,1328,1328,1328,1328,1328,1322,1322,1317,1317,1317,1312,1312,1312,1307,1307,1307,1307,1307,1307,1302,1297,1292,1292,1292,1292,1292,1288,1288,1288,1288,1288,1283,1283,1278,1278,1273,1273,1273,1273,1273,1268,1268,1268,1264,1259,1259,1255,1255,1255,1255,1255,1250,1250,1250,1245,1241,1241,1241,1241,1236,1236,1236,1236,1236,1236,1232,1232,1227,1227,1227,1223,1223,1219,1219,1219,1219,0,0,0,0,0,0,0,0,0,0,0,0,0,0,0,0,0,0,0,0,0,0,0,0,0,0,0,0,0,0,0
0,0,0,0,0,0,0,0,0,0,1470,1470,1470,1470,1470,1470,1470,1470,1470,1470,1470,1470,1464,1464,1470,1470,1470,1477,1477,1477,1483,1483,1483,1483,1477,1477,1477,1477,1477,1477,1477,1477,1477,1477,1477,1477,1477,1477,1477,1477,1470,1470,1477,1477,1483,1483,1483,1483,1489,1483,1483,1483,1483,1483,1483,1477,1477,1483,1483,1483,1483,1483,1489,1489,1489,1489,1483,1483,1489,1489,1483,1483,1483,1483,1483,1477,1477,1477,0,0,0,0,0,0,0,0,943,940,938,935,933,930,928,928,928,928,928,930,930,933,935,935,935,935,938,943,943,943,943,946,946,0,0,0,0,0,1503,1503,1503,1503,1496,1489,1489,1489,1489,1489,1489,1489,1489,1489,1496,1489,1489,1496,1496,1496,1496,1496,1496,1496,1496,1489,1489,1496,1496,1496,1496,1496,1496,1496,1489,1489,1496,1503,1496,1496,1503,1503,1503,1503,1496,1496,1496,1496,1496,1496,1496,1496,1503,1503,1503,1503,1503,1503,1509,1509,1503,1503,1503,1509,1509,1503,1503,1496,1489,1489,1489,1489,1489,1489,1489,1489,1489,0,1489,722,722,722,722,720,720,720,719,717,716,714,711,711,710,708,708,707,707,704,703,701,700,697,696,688,684,683,679,678,678,676,676,675,674,674,671,670,667,667,667,667,667,668,670,671,671,672,672,672,679,682,683,683,684,686,686,687,687,704,704,706,708,708,710,711,713,714,717,717,719,720,722,723,725,728,0,0,0,0,0,0,0,0,1516,1516,1516,1516,1516,1516,1516,1516,1516,1516,1516,1516,1516,1516,1516,1516,1516,1516,1516,1516,1516,1516,1516,1516,1516,1516,1516,1516,1523,1523,1523,1523,1523,1529,1529,1529,1529,1529,1529,1523,1523,1523,1523,1523,1523,1523,1523,1523,1523,1523,1523,1523,1523,1523,1523,1523,1523,1523,1523,1523,1523,1523,1523,1516,1516,1523,1523,1523,1523,1523,1523,1523,1523,1523,1523,1523,1523,1523,0,0,0,1013,1010,1010,1010,1007,1007,1007,1004,1004,1004,1001,998,998,998,998,998,1001,1001,1004,1007,1007,1010,1013,1013,1013,1013,1013,0,0,0,1523,1523,1529,1529,1536,1536,1536,1536,1536,1529,1529,1529,1529,1529,1529,1529,1529,1529,1523,1523,1523,1523,1523,1523,1523,1523,1523,1523,1523,1523,1523,1523,1523,1523,1516,1516,1516,1516,1516,1516,1516,1509,1503,1503,1503,1503,1496,1496,1496,1496,1489,1489,1489,1489,1483,1483,1477,1470,1470,1470,1470,1464,1464,1464,1464,1464,1458,1458,1452,1452,1452,1445,1445,1445,1445,1445,1439,1439,1439,1439,1433,1427,1427,1421,1421,1421,1415,1415,1415,1415,1415,1410,1410,1410,1404,1404,1398,1398,1398,1392,1392,1392,1392,1392,1387,1381,1381,1376,1376,1376,1370,1370,1370,1370,1365,1365,1365,1359,1354,1354,1354,1354,1354,1349,1349,1349,1343,1343,1338,1333,1333,1333,1333,1333,1333,1328,1328,1328,1328,1328,1322,1317,1317,1317,1312,1312,1312,1307,1307,1307,1307,1307,1307,1302,1302,1297,1297,1292,1292,1292,1292,1288,1288,1288,1288,1283,1283,1278,1278,1273,1273,1273,1273,1273,1268,1268,1268,1264,1259,1259,1255,1255,1255,1255,1250,1250,1250,1245,1245,1245,1245,1241,1241,1241,1236,1236,1236,1236,1236,1232,1232,1227,1227,1227,1223,1219,1219,1219,1219,1219,0,0,0,0,0,0,0,0,0,0,0,0,0,0,0,0,0,0,0,0,0,0,0,0,0,0,0,0,0,0,0
0,0,0,0,0,0,0,0,0,0,1464,1464,1464,1464,1464,1464,1464,1464,1464,1464,1464,1470,1464,1464,1470,1470,1470,1470,1464,1464,1470,1470,1477,1477,1477,1477,1477,1477,1477,1477,1470,1470,1470,1470,1470,1470,1470,1470,1464,1464,1464,1470,1470,1470,1470,1470,1477,1483,1483,1477,1477,1477,1477,1477,1477,1470,1470,1477,1477,1477,1477,1483,1483,1483,1483,1483,1483,1483,1483,1483,1477,1477,1477,1477,1477,1477,1477,1477,0,0,0,0,0,0,0,0,943,940,940,935,933,930,930,928,928,930,930,930,933,933,935,935,935,935,940,943,946,946,946,946,946,948,0,0,0,0,1489,1489,1496,1496,1489,1489,1489,1489,1489,1489,1489,1489,1489,1489,1489,1489,1489,1489,1496,1489,1489,1489,1489,1489,1489,1489,1489,1489,1489,1489,1489,1496,1496,1489,1489,1489,1489,1496,1489,1489,1496,1496,1496,1496,1489,1489,1489,1489,1489,1489,1489,1496,1496,1496,1496,1496,1496,1496,1496,1496,1496,1496,1496,1503,1503,1503,1503,1496,1489,1489,1489,1489,1489,1489,1489,1489,1489,1489,0,0,0,0,0,1489,0,719,719,717,716,714,711,710,710,708,708,707,707,704,703,701,700,698,697,691,684,683,682,679,678,676,676,675,675,674,671,670,668,668,667,667,668,668,670,671,671,672,675,678,680,682,683,683,686,687,687,687,688,704,704,706,708,708,710,711,711,714,717,717,719,720,722,725,0,0,0,0,0,0,0,0,1509,1509,1509,1509,1509,1516,1516,1516,1516,1516,1516,1509,1509,1509,1509,1509,1509,1509,1509,1509,1509,1509,1509,1516,1509,1509,1509,1509,1509,1509,1516,1516,1523,1523,1523,1523,1523,1523,1523,1523,1523,1523,1523,1523,1523,1523,1516,1516,1523,1523,1523,1523,1523,1523,1523,1523,1516,1516,1516,1516,1516,1516,1516,1516,1516,1516,1516,1516,1516,1516,1516,1516,1516,1516,1516,1516,1516,1516,1516,1523,0,0,0,1016,1013,1010,1010,1010,1010,1007,1004,1004,1004,1001,1001,998,998,998,1001,1001,1001,1004,1007,1010,1013,1013,1016,1016,1016,1016,0,0,1516,1516,1516,1523,1523,1523,1523,1523,1523,1523,1523,1523,1523,1523,1523,1523,1523,1523,1523,1523,1523,1523,1523,1523,1523,1516,1516,1523,1523,1523,1523,1516,1516,1516,1516,1516,1516,1516,1509,1509,1509,1509,1509,1503,1503,1503,1503,1496,1496,1496,1496,1489,1489,1489,1489,1483,1483,1477,1477,1470,1470,1470,1464,1464,1464,1464,1464,1458,1458,1458,1452,1452,1445,1445,1445,1445,1445,1439,1439,1439,1439,1433,1427,1421,1421,1421,1421,1415,1415,1415,1415,1415,1415,1410,1410,1404,1404,1398,1398,1398,1392,1392,1392,1392,1392,1387,1381,1381,1381,1376,1376,1376,1370,1370,1370,1365,1365,1365,1359,1354,1354,1354,1354,1354,1349,1349,1349,1343,1343,1338,1338,1333,1333,1333,1333,1333,1333,1328,1328,1328,1328,1322,1317,1317,1317,1312,1312,1312,1307,1307,1307,1307,1307,1307,1302,1302,1297,1297,1297,1292,1292,1292,1292,1292,1288,1288,1283,1283,1278,1278,1273,1273,1273,1273,1273,1268,1268,1268,1264,1259,1259,1255,1255,1255,1255,1250,1250,1250,1245,1245,1245,1250,1241,1241,1241,1236,1236,1236,1236,1236,1232,1232,1227,1227,1227,1223,1219,1219,1214,1214,1214,0,0,0,0,0,0,0,0,0,0,0,0,0,0,0,0,0,0,0,0,0,0,0,0,0,0,0,0,0,0,0
0,0,0,0,0,0,0,0,0,0,1458,1458,1464,1464,1464,1464,1458,1458,1458,1458,1458,1464,1464,1464,1464,1464,1464,1464,1458,1458,1458,1458,1458,1458,1458,1464,1470,1470,1470,1470,1470,1464,1464,1464,1464,1464,1464,1464,1464,1464,1458,1458,1458,1464,1464,1464,1464,1470,1477,1470,1470,1470,1470,1470,1470,1470,1470,1470,1470,1477,1477,1477,1483,1483,1483,1483,1477,1477,1477,1477,1477,1477,1477,1470,1470,1470,1470,1470,0,0,0,0,0,0,0,0,943,940,940,938,935,933,933,930,930,930,933,933,933,935,935,935,935,935,940,943,946,946,946,946,948,948,0,0,0,0,1489,1489,1489,1489,1483,1483,1483,1483,1483,1483,1483,1489,1489,1489,1489,1489,1489,1489,1489,1489,1489,1489,1489,1489,1489,1483,1483,1483,1489,1489,1489,1489,1489,1483,1483,1483,1483,1489,1483,1483,1489,1489,1489,1489,1489,1489,1489,1483,1483,1489,1489,1489,1489,1489,1489,1496,1496,1496,1496,1489,1489,1489,1489,1489,1496,1496,1489,1489,1489,1489,1483,1483,1483,1483,1483,1483,1483,1483,1483,1489,1489,0,1489,0,0,0,720,719,717,714,711,710,710,708,708,708,707,706,703,701,700,697,696,691,686,684,682,680,679,678,676,676,675,674,672,670,668,668,668,668,668,670,670,671,671,672,676,679,680,682,683,683,686,686,687,687,688,704,704,706,708,708,710,711,711,714,717,717,719,720,0,0,0,0,0,0,0,0,1509,1503,1503,1503,1503,1503,1503,1509,1509,1509,1509,1509,1509,1503,1503,1503,1503,1503,1503,1503,1503,1509,1503,1503,1503,1509,1509,1503,1503,1503,1503,1503,1509,1509,1509,1516,1516,1516,1516,1516,1516,1516,1516,1516,1516,1509,1509,1509,1516,1516,1516,1516,1516,1516,1516,1516,1516,1516,1516,1516,1516,1516,1516,1516,1516,1516,1516,1516,1516,1516,1516,1516,1516,1509,1509,1516,1516,1509,1509,1516,1516,1516,0,0,0,1016,1016,1013,1013,1013,1010,1010,1007,1004,1004,1004,1001,998,998,1001,1001,1001,1001,1004,1007,1010,1013,1013,1016,1016,1016,1016,0,1509,0,1509,1509,1516,1516,1516,1516,1516,1516,1516,1516,1516,1516,1516,1516,1516,1516,1516,1516,1516,1516,1516,1516,1516,1516,1516,1516,1516,1516,1516,1516,1516,1516,1516,1516,1516,1509,1509,1509,1509,1509,1509,1503,1503,1503,1503,1496,1496,1496,1496,1489,1489,1489,1489,1489,1483,1483,1477,1477,1470,1470,1470,1464,1464,1464,1464,1464,1458,1458,1458,1452,1452,1452,1445,1445,1445,1445,1439,1439,1439,1439,1433,1427,1421,1421,1421,1421,1415,1415,1415,1415,1415,1415,1410,1410,1404,1404,1398,1398,1398,1398,1398,1392,1392,1392,1387,1381,1381,1381,1376,1376,1376,1376,1370,1370,1370,1370,1365,1365,1359,1354,1354,1354,1354,1349,1349,1349,1343,1343,1343,1338,1333,1333,1333,1333,1333,1333,1333,1328,1328,1328,1322,1317,1317,1317,1312,1312,1312,1307,1307,1307,1307,1307,1307,1302,1302,1297,1297,1297,1292,1292,1292,1292,1292,1288,1288,1283,1283,1278,1278,1278,1273,1273,1273,1273,1268,1268,1268,1264,1264,1259,1259,1255,1255,1255,1250,1250,1250,1245,1245,1250,1250,1241,1241,1241,1236,1236,1236,1236,1241,0,0,0,0,0,0,1219,1219,1214,1214,1214,0,0,0,0,0,0,0,0,0,0,0,0,0,0,0,0,0,0,0,0,0,0,0,0,0,0,0,0,0,0,0
0,0,0,0,0,0,0,0,0,0,1458,1458,1458,1458,1458,1458,1458,1458,1458,1458,1458,1458,1458,1458,1458,1464,1464,1458,1458,1458,1445,1445,1445,1445,1445,1445,1458,1470,1470,1464,1464,1464,1464,1464,1464,1464,1464,1464,1464,1458,1458,1458,1458,1458,1458,1458,1458,1458,1464,1464,1464,1464,1464,1470,1464,1464,1464,1470,1470,1470,1470,1477,1477,1477,1477,1477,1477,1477,1470,1470,1470,1470,1470,1464,1464,1464,1464,1464,0,0,0,0,0,0,0,0,946,943,943,940,938,935,935,933,933,933,933,933,935,935,935,935,935,935,940,943,946,946,948,948,948,948,0,0,0,0,1483,1483,1483,1483,1483,1483,1483,1483,1483,1483,1483,1483,1483,1483,1483,1483,1483,1483,1483,1483,1483,1483,1483,1483,1483,1483,1483,1483,1483,1483,1483,1483,1483,1483,1477,1477,1477,1477,1477,1477,1483,1483,1483,1483,1483,1483,1483,1483,1483,1483,1483,1483,1483,1483,1483,1489,1483,1483,1489,1483,1483,1483,1483,1483,1489,1483,1483,1483,1489,1489,1483,1483,1483,1483,1483,1483,1483,1483,1483,1483,1483,1489,0,0,0,0,0,0,0,0,711,710,710,708,708,708,707,706,703,701,700,697,696,691,687,684,682,682,679,678,676,676,676,675,672,670,668,668,668,668,668,670,670,671,671,674,678,679,680,682,683,683,686,686,687,687,688,704,704,706,708,708,710,711,711,714,717,0,0,0,0,0,0,0,0,0,0,1503,1503,1503,1503,1503,1496,1496,1503,1503,1503,1503,1503,1503,1503,1496,1496,1496,1503,1496,1496,1496,1503,1503,1496,1496,1496,1496,1496,1496,1496,1496,1496,1496,1503,1503,1509,1509,1509,1509,1509,1509,1516,1509,1509,1509,1509,1509,1509,1509,1509,1509,1509,1516,1516,1516,1516,1516,1509,1509,1509,1509,1509,1509,1509,1509,1509,1516,1509,1509,1509,1509,1509,1509,1509,1503,1503,1503,1503,1503,1503,1503,1503,1509,0,0,0,1016,1016,1016,1013,1013,1010,1010,1007,1004,1004,1004,1001,1001,1001,1001,1001,1001,1004,1007,1010,1013,1013,1016,1016,1016,1016,1016,0,1509,1509,1509,1509,1516,1516,1516,1509,1509,1509,1509,1509,1509,1509,1509,1516,1516,1509,1509,1509,1516,1516,1516,1516,1516,1516,1516,1516,1516,1516,1516,1516,1509,1509,1509,1509,1509,1509,1509,1503,1503,1503,1503,1503,1503,1496,1496,1496,1496,1496,1496,1489,1489,1489,1489,1489,1483,1483,1477,1470,1470,1470,1470,1470,1464,1464,1464,1464,1458,1458,1458,1452,1452,1452,1445,1445,1445,1445,1439,1439,1439,1433,1433,1427,1421,1421,1421,1421,1415,1415,1415,1415,1415,1415,1410,1410,1410,1404,1404,1398,1398,1398,1398,1392,1392,1392,1387,1381,1381,1381,1376,1376,1376,1376,1370,1370,1370,1370,1365,1365,1359,1354,1354,1354,1354,1349,1349,1349,1343,1343,1343,1338,1338,1333,1333,1333,1333,1333,1333,1333,1328,1328,1328,1322,1317,1317,1312,1312,1312,1307,1307,1307,1307,1307,1307,1302,1302,1302,1297,1297,1292,1292,1292,1292,1292,1288,1288,1288,1283,1283,1283,1278,1273,1273,1273,1273,1268,1268,1268,1268,1264,1259,1259,1255,1255,1255,1255,1250,1250,1245,1245,1250,1250,1241,1241,1241,1236,1236,1236,1236,1241,0,0,0,0,0,0,0,0,0,1219,1219,0,0,0,0,0,0,0,0,0,0,0,0,0,0,0,0,0,0,0,0,0,0,0,0,0,0,0,0,0,0,0
0,0,0,0,0,0,0,0,0,0,1445,1445,1452,1452,1452,1452,1452,1452,1452,1452,1458,1452,1452,1458,1452,1452,1452,1445,1445,1445,1445,1445,1445,1445,1445,1445,1452,1464,1464,1458,1458,1458,1458,1458,1458,1464,1464,1464,1458,1458,1458,1458,1458,1452,1452,1452,1452,1458,1458,1458,1458,1458,1464,1464,1464,1458,1458,1464,1464,1464,1464,1464,1470,1477,1470,1470,1470,1470,1470,1464,1464,1464,1464,1464,1464,1464,1464,1464,1464,0,0,0,0,0,0,0,943,943,943,943,940,935,935,933,933,933,933,933,935,935,935,938,938,940,940,943,946,948,948,948,948,951,0,0,0,0,1483,1483,1483,1483,1477,1477,1477,1477,1477,1477,1477,1477,1477,1477,1477,1477,1477,1477,1477,1477,1477,1477,1477,1477,1477,1477,1477,1477,1477,1477,1477,1477,1477,1477,1470,1470,1470,1470,1470,1470,1477,1483,1483,1477,1477,1483,1483,1483,1483,1483,1483,1477,1477,1483,1483,1483,1477,1477,1483,1483,1477,1477,1477,1477,1477,1483,1483,1483,1483,1483,1483,1483,1483,1483,1483,1483,1483,1477,1477,1477,1477,1483,1483,0,0,0,0,0,0,0,711,711,710,710,708,708,707,706,703,701,700,697,696,688,687,686,683,682,679,678,676,676,676,675,675,671,670,670,670,670,670,670,671,671,672,675,678,679,680,682,683,684,686,686,687,687,688,704,704,707,708,708,710,711,711,714,714,0,0,0,0,0,0,0,0,0,0,1496,1496,1496,1496,1496,1496,1496,1496,1503,1503,1496,1496,1496,1496,1489,1489,1489,1489,1489,1489,1489,1489,1496,1489,1489,1489,1489,1489,1489,1489,1489,1489,1496,1496,1496,1503,1503,1503,1503,1509,1503,1496,1496,1496,1496,1503,1503,1503,1503,1503,1503,1503,1509,1509,1509,1509,1509,1509,1509,1509,1509,1503,1503,1503,1503,1503,1503,1503,1503,1503,1503,1503,1503,1503,1503,1503,1503,1503,1503,1503,1503,1503,1509,0,0,0,0,1016,1016,1013,1013,1013,1010,1010,1004,1004,1004,1001,1001,1001,1001,1001,1004,1004,1007,1010,1013,1016,1016,1016,1019,0,1503,0,1503,1503,1503,1509,1509,1509,1503,1503,1503,1503,1503,1503,1503,1503,1503,1509,1509,1509,1509,1509,1509,1509,1509,1509,1516,1516,1516,1509,1509,1509,1509,1509,1509,1509,1503,1503,1503,1503,1503,1496,1496,1496,1496,1496,1496,1496,1496,1496,1496,1496,1496,1489,1489,1489,1489,1483,1483,1470,1470,1470,1470,1470,1470,1470,1470,1464,1464,1464,1464,1464,1458,1452,1452,1452,1445,1445,1445,1445,1439,1439,1439,1433,1433,1427,1421,1421,1421,1421,1415,1415,1415,1415,1415,1415,1410,1410,1410,1410,1404,1398,1398,1398,1398,1398,1392,1392,1392,1387,1381,1381,1381,1376,1376,1376,1370,1370,1370,1370,1365,1365,1354,1354,1354,1354,1354,1354,1349,1349,1343,1343,1343,1338,1338,1333,1333,1333,1333,1333,1333,1333,1328,1328,1328,1322,1317,1317,1312,1312,1312,1307,1307,1307,1307,1307,1307,1307,1302,1302,1302,1297,1297,1297,1292,1292,1292,1288,1288,1288,1283,1283,1283,1278,1273,1273,1273,1273,1268,1268,1268,1268,1264,1264,1259,1259,1259,1255,1255,1250,1250,1250,1245,1245,1245,1245,1241,1241,1236,1236,1241,1241,0,0,0,0,0,0,0,0,0,0,0,0,0,0,0,0,0,0,0,0,0,0,0,0,0,0,0,0,0,0,0,0,0,0,0,0,0,0,0,0,0,0,0
0,0,0,0,0,0,0,0,0,0,1439,1439,1439,1439,1445,1445,1445,1452,1445,1445,1452,1452,1452,1452,1452,1452,1452,1445,1445,1445,1439,1439,1439,1439,1439,1439,1445,1452,1452,1452,1452,1452,1452,1452,1452,1458,1458,1458,1458,1458,1452,1452,1445,1445,1439,1439,1445,1452,1452,1452,1452,1452,1452,1452,1452,1452,1458,1458,1464,1458,1458,1458,1458,1458,1458,1458,1458,1458,1464,1464,1464,1464,1464,1464,1458,1458,1458,1458,1464,0,0,0,0,0,0,0,943,943,943,943,940,938,935,933,933,933,933,933,935,935,938,938,938,940,943,943,948,948,948,951,951,951,0,0,0,0,0,1483,1483,1477,1470,1470,1470,1464,1464,1470,1470,1470,1470,1470,1470,1470,1470,1470,1470,1470,1470,1470,1470,1470,1470,1470,1470,1470,1470,1470,1470,1470,1470,1470,1470,1470,1470,1470,1470,1470,1470,1477,1477,1470,1470,1477,1470,1470,1470,1477,1477,1477,1477,1477,1477,1477,1470,1470,1470,1477,1470,1470,1470,1470,1470,1470,1477,1477,1483,1483,1483,1483,1483,1483,1477,1470,1470,1477,1477,1477,1477,1477,1477,1483,0,0,0,0,0,0,0,0,710,708,708,708,707,706,703,701,700,697,696,688,687,686,684,682,680,678,678,676,676,675,675,671,671,670,670,670,670,671,671,672,674,676,679,680,682,682,683,684,686,686,687,687,688,690,706,708,708,708,710,710,711,714,0,0,0,1250,0,0,1259,1259,1259,1489,1489,1489,1489,1489,1489,1489,1489,1489,1489,1496,1496,1489,1489,1489,1489,1489,1489,1489,1489,1489,1489,1489,1489,1489,1489,1489,1489,1483,1483,1489,1489,1489,1489,1496,1496,1496,1496,1496,1496,1496,1496,1496,1496,1496,1489,1489,1489,1489,1489,1496,1496,1496,1496,1496,1496,1496,1496,1496,1496,1503,1496,1496,1496,1496,1496,1496,1496,1496,1496,1496,1496,1496,1496,1496,1496,1496,1496,1496,1496,1496,1496,1496,1503,1509,0,0,0,0,1016,1016,1016,1016,1013,1013,1010,1007,1007,1004,1001,1001,1001,1001,1001,1004,1004,1007,1010,1013,1016,1016,1019,1019,0,0,0,1503,1503,1503,1503,1503,1503,1503,1496,1496,1496,1496,1496,1496,1496,1503,1503,1503,1503,1503,1503,1503,1503,1503,1503,1503,1503,1509,1503,1503,1503,1503,1503,1503,1503,1503,1503,1503,1496,1496,1496,1496,1496,1496,1496,1496,1496,1496,1496,1496,1496,1496,1489,1489,1489,1489,1483,1483,1470,1470,1470,1470,1470,1470,1470,1470,1470,1470,1464,1464,1464,1464,1458,1452,1452,1445,1445,1445,1445,1439,1439,1439,1433,1433,1427,1421,1421,1421,1421,1421,1421,1415,1415,1415,1415,1415,1415,1410,1410,1404,1404,1398,1398,1398,1398,1398,1392,1387,1387,1381,1381,1381,1376,1376,1376,1370,1370,1370,1370,1370,1365,1354,1354,1354,1354,1354,1354,1349,1349,1349,1343,1343,1343,1338,1338,1338,1333,1333,1333,1333,1333,1328,1328,1328,1322,1317,1317,1312,1312,1307,1307,1307,1307,1307,1307,1307,1302,1302,1302,1302,1297,1297,1297,1292,1292,1292,1288,1288,1288,1283,1283,1283,1278,1273,1273,1273,1273,1268,1268,1268,1268,1264,1264,1259,1259,1259,1255,1255,1255,1250,1250,1245,1245,1245,1245,1245,1241,1241,1236,1236,1236,0,0,0,0,0,0,0,0,0,0,0,0,0,0,0,0,0,0,0,0,0,0,0,0,0,0,0,0,0,0,0,0,0,0,0,0,0,0,0,0,0,0,0
0,0,0,0,0,0,0,0,0,0,1439,1439,1439,1439,1439,1439,1439,1445,1439,1439,1439,1445,1445,1445,1445,1445,1445,1439,1439,1445,1439,1439,1439,1439,1439,1439,1439,1445,1439,1439,1439,1445,1445,1445,1445,1445,1452,1452,1452,1452,1445,1445,1445,1445,1439,1439,1445,1452,1452,1452,1452,1445,1445,1445,1445,1445,1445,1452,1452,1452,1452,1452,1452,1452,1452,1452,1452,1458,1458,1458,1458,1458,1458,1458,1458,1458,1458,1458,1458,0,0,0,0,0,0,0,943,943,943,943,940,938,935,933,933,933,933,933,935,935,938,938,938,940,943,943,948,948,951,951,951,951,0,0,0,0,0,1483,1483,1477,1464,1464,1464,1458,1458,1458,1458,1458,1458,1464,1464,1464,1464,1464,1464,1464,1464,1470,1470,1464,1464,1464,1464,1464,1464,1464,1464,1464,1464,1464,1464,1464,1464,1464,1464,1464,1464,1464,1464,1464,1464,1470,1464,1464,1464,1470,1470,1470,1470,1470,1470,1470,1470,1470,1470,1470,1470,1464,1464,1464,1464,1464,1470,1470,1477,1477,1477,1477,1477,1477,1470,1470,1464,1464,1464,1464,1470,1470,1477,1483,0,0,0,0,0,0,0,0,0,708,708,708,707,706,703,701,701,698,697,691,688,686,684,683,682,679,678,676,676,675,675,674,671,671,671,671,671,671,672,674,676,678,679,680,682,682,684,684,686,687,687,687,688,690,706,708,708,708,710,710,0,0,0,0,0,0,1250,1250,1259,1259,1259,1489,1489,1489,1489,1489,1489,1489,1489,1489,1489,1489,1489,1483,1483,1483,1483,1483,1483,1483,1483,1483,1483,1483,1483,1483,1483,1483,1483,1483,1483,1483,1483,1483,1483,1489,1489,1489,1489,1489,1489,1489,1489,1489,1489,1489,1489,1489,1489,1489,1489,1489,1489,1489,1489,1489,1489,1489,1496,1496,1496,1496,1496,1496,1496,1496,1496,1496,1496,1496,1496,1496,1496,1496,1496,1496,1496,1489,1489,1489,1489,1489,1489,1489,1489,0,0,0,0,0,1016,1016,1016,1016,1016,1013,1013,1010,1007,1004,1004,1004,1004,1004,1004,1004,1004,1010,1010,1016,1019,1019,1019,1025,0,0,1503,1503,1503,1503,1503,1496,1496,1496,1496,1496,1496,1496,1496,1496,1496,1496,1496,1496,1496,1496,1496,1496,1496,1496,1496,1496,1496,1503,1503,1496,1496,1496,1503,1496,1496,1496,1496,1496,1496,1489,1489,1489,1489,1489,1489,1496,1496,1496,1496,1496,1489,1489,1489,1489,1489,1489,1483,1483,1470,1470,1470,1470,1470,1470,1470,1470,1470,1470,1470,1464,1464,1464,1458,1452,1452,1452,1445,1445,1445,1439,1439,1439,1433,1433,1427,1421,1421,1421,1421,1421,1421,1415,1415,1415,1415,1415,1415,1410,1410,1404,1404,1398,1398,1398,1392,1392,1392,1387,1387,1381,1381,1381,1381,1376,1376,1370,1370,1370,1370,1370,1365,1354,1354,1354,1354,1354,1354,1349,1349,1349,1343,1343,1343,1338,1338,1338,1333,1333,1333,1333,1333,1328,1328,1328,1322,1317,1317,1312,1312,1307,1307,1307,1307,1307,1307,1302,1302,1302,1302,1302,1297,1297,1297,1292,1292,1292,1292,1288,1288,1288,1283,1283,1278,1273,1273,1273,1273,1268,1268,1268,1268,1268,1264,1259,1259,1259,1255,1255,1255,1255,1250,1250,1245,1245,1245,1245,1245,1241,1236,1236,1236,0,0,0,0,0,0,0,0,0,0,0,0,0,0,0,0,0,0,0,0,0,0,0,0,0,0,0,0,0,0,0,0,0,0,0,0,0,0,0,0,0,0,0
0,0,0,0,0,0,0,0,0,0,1433,1433,1433,1433,1433,1433,1433,1439,1439,1439,1439,1439,1439,1439,1439,1439,1439,1439,1439,1439,1439,1439,1439,1439,1433,1433,1427,1427,1439,1439,1439,1439,1439,1439,1439,1439,1445,1452,1445,1439,1439,1439,1439,1439,1439,1439,1439,1445,1445,1445,1445,1439,1439,1445,1445,1445,1445,1445,1445,1445,1445,1445,1445,1445,1445,1445,1445,1452,1452,1452,1452,1452,1452,1452,1452,1445,1445,1433,1433,0,0,0,0,0,0,0,954,951,948,946,943,940,935,935,935,935,935,935,935,935,938,938,938,943,943,946,948,948,951,951,951,954,0,0,0,0,0,1483,1483,1464,1458,1458,1458,1458,1452,1452,1452,1452,1452,1452,1452,1458,1458,1464,1464,1464,1464,1464,1464,1464,1464,1464,1464,1464,1464,1464,1464,1464,1464,1464,1464,1464,1464,1458,1458,1458,1458,1458,1458,1458,1458,1458,1464,1464,1464,1464,1464,1464,1464,1464,1464,1464,1464,1464,1464,1464,1464,1464,1464,1464,1464,1464,1464,1464,1470,1470,1470,1477,1470,1470,1470,1464,1464,1464,1464,1464,1464,1458,1452,1452,0,0,0,0,0,0,0,0,0,0,0,0,0,706,703,701,698,697,697,691,688,686,684,683,682,680,678,676,676,675,675,674,671,671,671,671,671,671,672,674,676,678,679,680,682,683,684,686,687,687,687,688,690,690,708,708,708,0,0,0,0,0,0,0,1245,1245,1250,1250,1259,1259,1259,1259,1489,1489,1489,1489,1483,1483,1483,1483,1483,1483,1483,1477,1477,1477,1483,1483,1483,1483,1483,1483,1483,1477,1477,1477,1477,1477,1477,1477,1483,1483,1483,1483,1483,1483,1483,1489,1489,1483,1483,1483,1483,1483,1489,1489,1483,1483,1483,1483,1483,1483,1483,1483,1483,1483,1483,1483,1489,1489,1489,1489,1489,1489,1489,1489,1489,1489,1489,1489,1489,1489,1489,1489,1489,1489,1489,1489,1489,1489,1489,1489,1483,1483,1483,0,0,0,0,0,0,1019,1016,1016,1016,1016,1013,1013,1010,1007,1004,1004,1004,1004,1004,1004,1007,1010,1013,1016,1019,1019,1022,1025,1025,0,1489,1489,1489,1496,1496,1496,1496,1489,1489,1489,1489,1489,1489,1489,1489,1496,1496,1496,1496,1496,1496,1496,1496,1489,1489,1496,1496,1489,1489,1489,1489,1496,1496,1496,1496,1496,1496,1496,1489,1489,1489,1489,1489,1489,1489,1489,1489,1489,1489,1489,1489,1489,1483,1483,1483,1483,1483,1477,1470,1470,1470,1470,1470,1470,1470,1470,1470,1470,1470,1464,1464,1464,1464,1458,1452,1452,1445,1445,1445,1439,1439,1439,1433,1433,1427,1421,1421,1421,1421,1421,1421,1415,1415,1415,1415,1415,1415,1410,1410,1404,1404,1398,1398,1398,1392,1392,1392,1387,1387,1387,1387,1381,1381,1376,1376,1376,1376,1370,1370,1370,1365,1359,1354,1354,1354,1354,1354,1349,1349,1349,1343,1343,1343,1338,1338,1338,1338,1333,1333,1333,1333,1328,1328,1328,1322,1317,1317,1312,1312,1307,1307,1307,1307,1307,1307,1302,1302,1302,1302,1302,1297,1297,1297,1292,1292,1292,1292,1288,1288,1288,1288,1283,1273,1273,1273,1273,1273,1268,1268,1268,1268,1268,1264,1264,1264,1264,1259,1259,1255,1255,1255,1250,1250,1250,1250,1245,1245,1241,1236,1236,1236,0,0,0,0,0,0,0,0,1108,1105,1105,0,0,0,0,0,0,0,0,0,0,0,0,0,0,0,0,0,0,0,0,0,0,0,0,0,0,0,0,0,0,0,0
0,0,0,0,0,0,0,0,0,0,1433,1433,1433,1433,1427,1421,1421,1427,1433,1433,1433,1433,1433,1433,1433,1433,1433,1433,1433,1439,1433,1433,1433,1433,1433,1433,1427,1427,1433,1433,1433,1439,1439,1433,1433,1439,1439,1439,1439,1439,1439,1439,1439,1439,1439,1439,1439,1439,1439,1439,1439,1439,1439,1439,1439,1439,1439,1439,1439,1439,1439,1439,1439,1439,1439,1439,1439,1439,1445,1452,1445,1445,1445,1445,1445,1439,1439,1427,1427,0,0,0,0,0,0,0,954,951,948,946,946,943,938,935,935,935,935,935,935,935,938,938,938,943,943,946,948,948,951,951,951,954,0,0,0,0,0,1477,1477,1452,1452,1452,1452,1452,1445,1445,1452,1452,1452,1452,1452,1452,1452,1452,1452,1452,1452,1452,1458,1458,1458,1458,1458,1458,1458,1458,1458,1458,1458,1458,1458,1458,1458,1458,1458,1458,1458,1458,1458,1458,1458,1458,1458,1458,1458,1458,1458,1458,1458,1458,1458,1458,1458,1458,1458,1464,1464,1464,1458,1458,1458,1458,1458,1464,1464,1464,1464,1470,1470,1464,1464,1464,1458,1458,1458,1458,1458,1452,1452,1445,1445,0,0,0,0,0,0,0,0,0,0,0,0,0,703,703,698,697,697,690,688,686,686,684,682,680,679,678,676,676,675,674,672,672,671,671,671,672,672,674,676,678,679,680,682,684,686,686,687,687,688,688,690,690,0,0,0,0,0,0,0,0,1245,1245,1245,1245,1250,1250,1255,1255,1259,1259,1489,1489,1489,1483,1483,1483,1483,1483,1477,1477,1477,1477,1477,1477,1477,1477,1477,1477,1477,1477,1477,1470,1470,1470,1470,1470,1477,1477,1477,1477,1477,1477,1477,1477,1483,1483,1483,1477,1477,1477,1477,1477,1477,1477,1483,1483,1483,1483,1483,1483,1483,1483,1483,1483,1477,1477,1477,1477,1477,1477,1483,1483,1483,1483,1483,1483,1483,1483,1483,1483,1483,1483,1483,1483,1483,1483,1483,1483,1483,1483,1477,1477,1477,1477,0,0,0,0,0,1019,1016,1016,1016,1016,1013,1013,1010,1007,1004,1004,1004,1004,1004,1004,1007,1010,1013,1016,1019,1022,1022,1025,1025,0,1483,1483,1483,1489,1489,1489,1489,1489,1489,1489,1489,1489,1489,1489,1489,1489,1489,1489,1489,1489,1489,1489,1489,1489,1489,1489,1489,1489,1489,1489,1489,1489,1489,1489,1489,1489,1489,1489,1489,1489,1489,1489,1489,1489,1489,1489,1489,1489,1489,1489,1489,1489,1483,1483,1483,1477,1477,1470,1470,1470,1470,1470,1470,1470,1470,1470,1470,1470,1470,1464,1464,1464,1464,1458,1452,1452,1445,1445,1445,1439,1439,1439,1433,1433,1427,1427,1421,1421,1421,1421,1421,1421,1421,1415,1415,1415,1415,1410,1410,1404,1404,1398,1398,1398,1398,1398,1392,1392,1387,1387,1387,1381,1381,1381,1376,1376,1376,1370,1370,1370,1370,1365,1359,1354,1354,1354,1354,1349,1349,1349,1349,1349,1343,1343,1343,1343,1338,1338,1333,1333,1333,1328,1328,1328,1322,1322,1317,1312,1312,1312,1307,1307,1307,1307,1307,1307,1302,1302,1302,1302,1297,1297,1297,1292,1292,1292,1292,1288,1288,1288,1288,1283,1273,1273,1273,1273,1273,1268,1268,1268,1268,1268,1264,1264,1264,1264,1259,1259,1255,1255,1255,1250,1250,1250,1250,1245,1245,1241,1241,1236,1236,1236,0,0,0,0,0,0,1112,1108,1105,1105,0,0,0,0,0,0,0,0,0,0,0,0,0,0,0,0,0,0,0,0,0,0,0,0,0,0,0,0,0,0,0,0
0,0,0,0,0,0,0,0,0,0,1433,1433,1427,1427,1427,1421,1421,1427,1427,1427,1427,1427,1427,1433,1427,1427,1433,1433,1433,1433,1433,1433,1433,1427,1427,1427,1427,1427,1427,1427,1427,1433,1433,1433,1433,1433,1433,1433,1433,1433,1433,1433,1433,1433,1433,1433,1433,1433,1439,1433,1433,1433,1433,1433,1433,1433,1433,1433,1433,1433,1433,1433,1433,1433,1433,1433,1433,1433,1439,1439,1439,1439,1439,1439,1439,1439,1433,1427,1427,1433,0,0,0,0,0,0,0,951,948,946,946,943,940,935,935,935,935,935,935,935,938,938,940,943,943,946,948,948,951,951,951,954,954,0,0,0,0,1477,1445,1445,1445,1445,1445,1445,1445,1445,1445,1445,1445,1445,1445,1439,1439,1445,1445,1445,1445,1445,1445,1445,1445,1452,1452,1458,1458,1458,1458,1458,1458,1458,1452,1452,1452,1452,1452,1452,1452,1452,1452,1452,1458,1458,1458,1458,1458,1458,1458,1458,1458,1458,1458,1458,1458,1458,1458,1458,1458,1458,1458,1458,1458,1458,1458,1458,1458,1458,1458,1464,1464,1458,1458,1458,1458,1458,1452,1452,1452,1445,1445,1445,1439,1439,0,0,0,0,0,0,0,0,0,0,0,0,0,0,0,0,691,690,688,687,686,684,683,682,680,678,678,676,675,675,674,672,672,672,672,674,674,675,676,678,679,682,683,684,686,687,687,688,688,690,691,691,0,0,0,0,0,0,0,0,1245,1245,1245,1245,1250,1250,1255,1255,1259,1259,1264,1489,1483,1483,1477,1477,1477,1477,1470,1470,1470,1470,1470,1470,1470,1470,1470,1470,1470,1470,1470,1470,1470,1470,1470,1470,1470,1470,1477,1477,1477,1470,1470,1477,1477,1477,1477,1470,1470,1470,1470,1470,1470,1470,1477,1477,1477,1477,1470,1470,1477,1477,1477,1477,1477,1477,1477,1477,1477,1477,1477,1477,1477,1477,1477,1477,1477,1477,1477,1477,1477,1483,1483,1483,1477,1477,1477,1477,1477,1477,1477,1470,1470,1477,0,0,0,0,0,1022,1019,1019,1019,1016,1016,1013,1010,1010,1007,1007,1004,1004,1007,1007,1007,1010,1013,1019,1019,1022,1025,1025,1025,0,1477,1477,1477,1483,1483,1483,1483,1483,1483,1483,1483,1483,1483,1489,1483,1483,1489,1489,1489,1489,1489,1489,1483,1483,1483,1483,1483,1483,1483,1483,1483,1489,1489,1489,1489,1489,1489,1489,1483,1483,1483,1483,1483,1483,1483,1483,1483,1483,1483,1483,1483,1483,1483,1477,1477,1477,1477,1470,1470,1470,1470,1470,1470,1470,1470,1470,1470,1470,1470,1464,1464,1464,1464,1464,1452,1452,1445,1445,1445,1439,1439,1439,1439,1433,1433,1427,1427,1421,1421,1421,1421,1421,1421,1415,1415,1415,1415,1410,1410,1404,1404,1404,1398,1398,1398,1398,1392,1392,1387,1387,1387,1381,1381,1381,1376,1376,1376,1370,1370,1370,1370,1365,1359,1359,1354,1354,1354,1349,1349,1349,1349,1349,1349,1343,1343,1343,1343,1338,1333,1333,1333,1333,1328,1328,1322,1322,1317,1312,1312,1312,1307,1307,1307,1307,1307,1307,1307,1307,1302,1302,1302,1297,1297,1292,1292,1292,1292,1288,1288,1288,1283,1283,1278,1273,1273,1273,1273,1268,1268,1268,1268,1268,1268,1264,1264,1264,1264,1259,1259,1255,1255,1255,1250,1250,1250,1245,1245,1241,1236,1236,1232,1232,0,0,0,0,0,1112,1112,1108,1108,1108,0,0,0,0,0,0,0,0,0,0,0,0,0,0,0,0,0,0,0,0,0,0,0,0,0,0,0,0,0,0,0,0
0,0,0,0,0,0,0,0,0,0,1427,1427,1427,1421,1421,1415,1415,1415,1415,1415,1421,1421,1421,1427,1427,1427,1427,1427,1427,1427,1427,1427,1427,1421,1421,1421,1421,1421,1427,1427,1427,1427,1427,1427,1427,1427,1427,1427,1427,1427,1427,1427,1427,1433,1433,1427,1427,1433,1433,1427,1427,1427,1433,1433,1427,1427,1427,1433,1433,1433,1433,1433,1433,1433,1433,1433,1433,1433,1433,1433,1433,1433,1433,1433,1433,1433,1433,1433,1427,1427,1427,0,0,0,0,0,0,954,951,948,946,943,940,935,935,935,935,935,935,935,938,938,940,943,943,946,948,948,951,954,954,954,954,0,0,0,0,0,1445,1439,1439,1439,1439,1439,1439,1439,1439,1439,1439,1439,1439,1439,1439,1439,1439,1439,1439,1439,1439,1439,1439,1439,1445,1445,1445,1452,1452,1452,1452,1452,1445,1445,1445,1445,1445,1452,1445,1445,1445,1452,1452,1452,1452,1452,1452,1452,1452,1452,1452,1452,1452,1452,1452,1452,1452,1452,1458,1458,1452,1452,1452,1452,1452,1445,1445,1445,1445,1452,1452,1452,1452,1452,1452,1452,1452,1452,1445,1445,1445,1445,1439,1439,1439,0,0,0,0,0,0,0,0,0,0,0,0,0,0,0,691,690,688,688,686,686,684,683,682,679,678,676,676,675,674,674,674,674,674,674,675,675,676,678,679,682,683,684,686,687,687,688,690,691,693,693,0,0,0,0,0,0,0,0,1245,1245,1245,1245,1250,1250,1255,1255,1259,1259,1264,1268,1483,1470,1470,1470,1464,1464,1464,1464,1464,1464,1464,1464,1464,1464,1464,1470,1464,1464,1464,1464,1464,1464,1464,1464,1470,1470,1470,1470,1470,1464,1464,1470,1470,1470,1470,1470,1470,1470,1464,1464,1464,1464,1464,1464,1464,1464,1464,1470,1470,1470,1470,1470,1470,1470,1470,1470,1470,1470,1470,1470,1470,1470,1470,1470,1477,1470,1470,1470,1477,1477,1477,1477,1477,1477,1477,1477,1470,1470,1470,1470,1458,1458,0,0,0,1022,0,1022,1022,1022,1019,1019,1016,1016,1013,1010,1007,1007,1007,1007,1007,1007,1007,1013,1016,1019,1022,1022,1025,1025,1025,0,0,1470,1470,1470,1477,1477,1477,1477,1477,1477,1477,1477,1477,1477,1483,1483,1483,1483,1483,1483,1483,1483,1483,1477,1477,1483,1483,1477,1477,1477,1477,1483,1483,1483,1483,1483,1483,1483,1483,1483,1483,1477,1477,1477,1477,1477,1477,1477,1477,1477,1477,1477,1477,1470,1470,1470,1470,1470,1470,1470,1470,1470,1470,1470,1470,1470,1470,1470,1470,1464,1464,1464,1464,1464,1452,1452,1445,1445,1445,1445,1439,1439,1439,1433,1433,1427,1427,1427,1421,1421,1421,1421,1421,1415,1415,1415,1415,1410,1410,1410,1404,1404,1398,1398,1398,1398,1392,1392,1387,1387,1387,1387,1381,1381,1376,1376,1376,1370,1370,1370,1370,1365,1359,1359,1354,1354,1354,1354,1354,1349,1349,1349,1349,1349,1343,1343,1343,1338,1338,1333,1333,1333,1333,1328,1322,1322,1317,1312,1312,1312,1307,1307,1307,1307,1307,1307,1307,1307,1307,1302,1302,1297,1297,1292,1292,1292,1292,1292,1288,1288,1283,1283,1278,1278,1273,1273,1273,1268,1268,1268,1268,1268,1268,1268,1268,1264,1264,1259,1259,1259,1255,1255,1250,1250,1250,1245,1245,1241,1236,1236,1232,1232,0,0,0,0,1119,1112,1108,1108,1105,1105,0,0,0,0,0,0,0,0,0,0,0,0,0,0,0,0,0,0,0,0,0,0,0,0,0,0,0,0,0,0,0,0
0,0,0,0,0,0,0,0,0,0,1427,1427,1421,1421,1415,1415,1415,1415,1415,1415,1421,1415,1415,1421,1415,1415,1415,1415,1415,1421,1415,1415,1421,1421,1415,1415,1415,1415,1421,1421,1421,1421,1421,1427,1421,1421,1421,1421,1421,1421,1421,1421,1421,1421,1427,1427,1427,1427,1427,1427,1427,1427,1427,1427,1427,1427,1427,1427,1433,1433,1433,1433,1427,1427,1433,1427,1427,1427,1427,1427,1427,1427,1427,1421,1421,1421,1421,1421,1421,1421,1421,0,0,0,0,0,0,954,951,948,946,943,940,935,935,935,935,935,935,935,938,938,940,943,943,948,948,951,951,954,954,954,954,0,0,0,0,1445,1439,1433,1433,1433,1433,1439,1439,1439,1439,1439,1439,1433,1433,1433,1433,1439,1433,1433,1433,1433,1433,1433,1433,1439,1439,1439,1439,1439,1439,1439,1439,1439,1439,1439,1439,1439,1439,1445,1445,1445,1445,1445,1445,1445,1445,1445,1445,1445,1445,1445,1445,1445,1445,1445,1445,1445,1445,1445,1452,1452,1452,1445,1445,1452,1452,1445,1445,1445,1445,1452,1445,1445,1445,1452,1452,1445,1445,1445,1445,1445,1445,1439,1439,1439,1439,0,0,0,0,0,0,0,0,0,0,0,0,0,0,0,691,690,690,688,687,686,684,684,682,680,679,678,676,675,675,674,674,674,674,674,675,675,676,678,680,682,683,684,686,688,688,690,691,693,693,0,0,0,0,0,0,0,0,0,1245,1245,1245,1245,1250,1255,1255,1259,1259,1264,1264,1268,1483,1458,1458,1458,1458,1458,1458,1458,1464,1464,1464,1464,1464,1464,1464,1464,1464,1464,1458,1458,1458,1458,1458,1464,1464,1464,1464,1464,1464,1464,1464,1470,1470,1470,1470,1470,1464,1464,1464,1464,1464,1464,1464,1464,1458,1458,1458,1464,1464,1464,1464,1470,1464,1464,1464,1464,1464,1464,1464,1464,1464,1464,1464,1464,1464,1464,1464,1464,1470,1470,1470,1470,1470,1470,1470,1470,1464,1464,1464,1464,1458,1458,0,1445,1445,1022,1022,1022,1022,1022,1022,1019,1019,1016,1016,1013,1010,1007,1007,1007,1007,1007,1010,1013,1016,1019,1022,1022,1025,1025,1025,1028,1470,1470,1470,1470,1470,1470,1470,1470,1470,1470,1470,1470,1470,1470,1470,1470,1470,1477,1477,1477,1477,1477,1477,1477,1477,1477,1477,1477,1477,1477,1477,1477,1477,1477,1477,1477,1477,1477,1477,1477,1477,1470,1470,1470,1470,1470,1470,1470,1470,1470,1470,1470,1470,1470,1470,1470,1470,1470,1470,1470,1470,1470,1470,1470,1470,1470,1470,1470,1464,1464,1464,1464,1464,1452,1452,1452,1445,1445,1445,1445,1445,1439,1439,1439,1439,1433,1427,1427,1427,1421,1421,1421,1421,1415,1415,1415,1415,1410,1410,1410,1404,1404,1404,1404,1398,1398,1392,1392,1387,1387,1387,1387,1381,1381,1376,1376,1376,1370,1370,1370,1370,1365,1365,1359,1354,1354,1354,1354,1354,1349,1349,1349,1349,1349,1343,1343,1343,1338,1338,1333,1333,1333,1333,1328,1328,1328,1322,1317,1317,1312,1312,1312,1312,1307,1307,1307,1307,1307,1307,1302,1302,1297,1297,1292,1292,1292,1292,1292,1288,1288,1283,1283,1278,1278,1278,1273,1273,1273,1268,1268,1268,1268,1268,1268,1268,1268,1264,1259,1259,1259,1255,1255,1255,1250,1250,1250,1245,1241,1236,1236,1236,1236,0,0,1123,1115,1112,1108,1108,1108,1105,1105,0,0,0,0,0,0,0,0,0,0,0,0,0,0,0,0,0,0,0,0,0,0,0,0,0,0,0,0,0,0,0,0
0,0,0,0,0,0,0,0,0,0,1415,1415,1415,1415,1415,1410,1410,1404,1404,1404,1404,1410,1415,1415,1410,1410,1415,1410,1410,1410,1410,1415,1415,1415,1415,1415,1415,1415,1415,1415,1415,1415,1415,1415,1415,1421,1415,1415,1415,1421,1415,1415,1421,1421,1421,1421,1421,1427,1427,1421,1421,1421,1421,1421,1421,1421,1421,1421,1421,1421,1421,1421,1421,1421,1427,1421,1415,1415,1415,1415,1421,1421,1421,1421,1421,1421,1421,1421,1415,1415,1415,0,0,0,0,0,0,954,951,948,946,946,940,938,938,935,935,935,935,935,938,940,940,943,946,948,948,951,954,954,954,954,954,0,0,0,0,1439,1439,1433,1433,1433,1433,1439,1439,1439,1439,1439,1433,1433,1433,1433,1433,1433,1433,1433,1433,1427,1427,1433,1433,1433,1433,1433,1433,1439,1439,1433,1433,1433,1433,1433,1433,1439,1439,1439,1439,1445,1445,1445,1445,1445,1445,1445,1445,1445,1439,1439,1439,1439,1439,1439,1445,1445,1445,1445,1445,1445,1445,1445,1445,1445,1445,1439,1439,1439,1439,1445,1439,1439,1445,1445,1445,1439,1439,1445,1439,1439,1439,1439,1439,1433,1433,0,0,0,0,0,0,0,0,0,0,0,0,0,0,0,693,691,690,688,687,686,684,684,683,682,680,679,678,676,675,675,674,674,675,675,675,676,676,679,680,683,683,686,687,688,688,691,691,693,693,0,0,0,0,0,0,0,0,0,1245,1245,1245,1245,1250,1255,1255,1255,1264,1268,1273,1273,1452,1445,1445,1452,1452,1452,1452,1452,1452,1458,1458,1458,1458,1458,1458,1458,1458,1458,1458,1458,1458,1458,1458,1458,1458,1458,1458,1458,1458,1458,1458,1464,1464,1464,1464,1464,1464,1464,1464,1458,1458,1458,1458,1458,1458,1458,1458,1458,1458,1458,1464,1464,1464,1464,1464,1464,1464,1464,1458,1458,1458,1458,1458,1458,1458,1458,1458,1458,1464,1464,1464,1464,1464,1464,1464,1464,1464,1458,1458,1458,1452,1445,1445,1445,1445,1022,1022,1022,1022,1022,1022,1022,1019,1016,1016,1013,1010,1010,1010,1010,1010,1010,1013,1013,1019,1022,1022,1025,1025,1025,1028,1028,1470,1470,1464,1464,1464,1464,1464,1464,1464,1464,1464,1464,1464,1464,1464,1464,1464,1464,1464,1464,1470,1470,1470,1470,1470,1470,1470,1470,1470,1470,1470,1470,1470,1470,1470,1470,1470,1470,1470,1470,1470,1470,1470,1470,1470,1470,1464,1464,1464,1464,1464,1464,1464,1464,1464,1470,1464,1464,1470,1470,1470,1470,1470,1470,1470,1470,1464,1464,1464,1464,1464,1464,1464,1452,1452,1445,1445,1445,1445,1445,1445,1439,1439,1439,1439,1433,1433,1427,1427,1421,1421,1421,1421,1415,1415,1415,1415,1410,1410,1410,1404,1404,1404,1404,1398,1392,1392,1392,1387,1387,1387,1381,1381,1381,1376,1376,1376,1370,1370,1370,1370,1370,1365,1365,1359,1354,1354,1354,1354,1349,1349,1349,1349,1349,1343,1343,1343,1338,1338,1338,1333,1333,1333,1328,1328,1328,1322,1317,1317,1312,1312,1312,1312,1307,1307,1307,1307,1307,1307,1302,1302,1297,1297,1297,1292,1292,1292,1292,1292,1288,1283,1283,1283,1278,1278,1273,1273,1273,1268,1268,1268,1268,1264,1264,1268,1268,1264,1264,1264,1259,1259,1255,1255,1255,1250,1250,1245,1241,1241,1236,1236,1236,1119,1119,1115,1112,1108,1108,1105,1105,1105,1105,0,0,0,0,0,0,0,0,0,0,0,0,0,0,0,0,0,0,0,0,0,0,0,0,0,0,0,0,0,0,0,0
0,0,0,0,0,0,0,0,0,1410,1410,1410,1410,1410,1410,1410,1410,1404,1398,1398,1404,1404,1404,1404,1404,1404,1410,1410,1404,1404,1404,1404,1410,1410,1410,1410,1410,1410,1410,1415,1415,1415,1415,1415,1415,1415,1415,1410,1410,1415,1410,1410,1410,1410,1415,1415,1415,1415,1421,1415,1415,1415,1415,1415,1415,1415,1410,1410,1415,1415,1415,1415,1415,1415,1415,1415,1415,1415,1410,1410,1415,1415,1415,1415,1415,1415,1415,1421,1415,1415,1415,0,0,0,0,0,0,956,951,948,946,946,943,940,940,938,938,938,938,938,938,940,943,943,948,948,951,951,954,954,954,954,954,0,0,0,1439,1433,1433,1427,1427,1427,1433,1433,1433,1433,1433,1433,1433,1433,1427,1427,1427,1427,1427,1427,1427,1427,1427,1427,1427,1433,1433,1427,1427,1433,1433,1433,1427,1427,1427,1427,1433,1427,1427,1433,1439,1439,1439,1439,1439,1439,1439,1439,1439,1439,1439,1439,1439,1439,1439,1439,1439,1439,1439,1439,1439,1439,1439,1439,1439,1439,1439,1439,1439,1439,1439,1439,1439,1439,1439,1439,1439,1439,1439,1439,1439,1439,1439,1439,1439,1433,1433,0,0,0,0,0,0,0,0,0,0,0,0,0,0,0,691,691,690,688,687,686,684,684,683,682,682,680,679,676,675,675,675,675,675,675,675,676,678,679,682,683,684,686,687,688,690,691,691,693,693,696,0,0,0,0,0,0,0,0,1250,1250,1250,1250,1250,1255,1255,1255,1264,1268,1273,1445,1445,1445,1445,1445,1445,1445,1445,1445,1445,1445,1445,1452,1452,1452,1458,1458,1452,1452,1452,1452,1452,1452,1452,1458,1452,1452,1452,1452,1452,1452,1452,1464,1464,1464,1458,1458,1458,1458,1452,1452,1452,1452,1452,1452,1452,1452,1452,1452,1452,1452,1458,1458,1458,1458,1458,1458,1452,1452,1452,1452,1458,1458,1458,1458,1458,1458,1458,1458,1458,1458,1458,1458,1458,1458,1458,1458,1458,1458,1458,1458,1452,1445,1445,1445,1028,1028,1025,1025,1025,1025,1025,1022,1019,1019,1016,1016,1013,1010,1010,1010,1010,1010,1013,1016,1019,1022,1022,1025,1025,1028,1028,1028,1464,1464,1464,1464,1464,1464,1458,1458,1464,1464,1464,1464,1464,1464,1464,1464,1464,1464,1464,1464,1464,1464,1464,1470,1470,1470,1470,1470,1464,1464,1464,1464,1464,1464,1464,1464,1464,1464,1470,1470,1470,1464,1464,1464,1464,1464,1464,1464,1464,1464,1464,1464,1464,1464,1464,1464,1464,1464,1464,1464,1464,1464,1464,1464,1464,1464,1464,1464,1464,1464,1464,1458,1458,1452,1452,1445,1445,1445,1445,1445,1445,1445,1439,1439,1439,1433,1433,1427,1427,1421,1421,1421,1421,1415,1415,1415,1415,1415,1410,1410,1404,1404,1404,1404,1398,1392,1392,1392,1387,1387,1387,1381,1381,1381,1376,1376,1376,1376,1370,1370,1370,1370,1365,1365,1359,1359,1354,1354,1354,1354,1349,1349,1349,1349,1343,1343,1343,1338,1338,1338,1333,1333,1333,1328,1328,1328,1322,1317,1317,1312,1312,1312,1312,1307,1307,1307,1307,1307,1307,1302,1302,1297,1297,1297,1292,1292,1292,1292,1288,1288,1283,1283,1283,1278,1278,1273,1273,1273,1268,1268,1268,1268,1264,1264,1268,1268,1264,1264,1264,1259,1259,1255,1255,1255,1255,1250,1250,1245,1245,1241,1123,1119,1119,1119,1115,1108,1108,1108,1105,1105,1105,1105,0,0,0,0,0,0,0,0,0,0,0,0,0,0,0,0,0,0,0,0,0,0,0,0,0,0,0,0,0,0,0,0
0,0,0,0,0,0,0,0,0,1404,1404,1404,1404,1404,1404,1404,1404,1398,1392,1392,1398,1398,1398,1398,1398,1398,1404,1404,1404,1404,1404,1404,1410,1410,1410,1404,1404,1410,1410,1410,1410,1410,1410,1410,1410,1410,1410,1410,1410,1410,1410,1410,1410,1410,1410,1410,1410,1415,1415,1415,1415,1415,1410,1410,1410,1404,1404,1404,1404,1404,1404,1410,1410,1415,1415,1415,1415,1415,1410,1410,1415,1415,1415,1410,1410,1415,1415,1415,1415,1415,1415,0,0,0,0,0,0,956,951,948,948,946,943,940,940,940,938,938,938,938,940,940,943,946,948,948,951,951,954,954,954,954,954,0,0,0,1427,1427,1427,1421,1421,1421,1427,1433,1433,1433,1433,1433,1433,1427,1427,1427,1427,1427,1421,1421,1427,1421,1421,1421,1421,1427,1427,1421,1421,1427,1427,1427,1427,1427,1427,1427,1427,1421,1421,1427,1427,1427,1427,1427,1433,1433,1433,1433,1433,1433,1433,1427,1427,1433,1433,1433,1433,1433,1433,1433,1433,1433,1433,1433,1433,1433,1433,1433,1433,1433,1433,1433,1433,1433,1433,1433,1439,1439,1439,1439,1439,1439,1439,1433,1433,1433,1433,0,0,0,0,0,0,0,0,0,0,0,0,0,0,0,691,691,690,688,687,686,684,684,683,683,682,680,679,676,675,675,675,675,675,675,675,676,678,679,682,683,684,686,687,690,690,691,691,693,694,696,0,0,0,0,0,0,0,0,1250,1250,1250,1250,1255,1255,1255,1259,1264,1268,1268,1439,1439,1439,1439,1439,1439,1439,1439,1439,1439,1445,1445,1445,1445,1445,1445,1445,1445,1445,1445,1445,1445,1445,1445,1445,1445,1445,1445,1445,1445,1445,1445,1458,1458,1458,1458,1458,1458,1452,1452,1445,1445,1445,1445,1445,1445,1445,1445,1445,1445,1445,1452,1452,1452,1452,1452,1452,1452,1445,1445,1445,1452,1452,1452,1452,1452,1452,1452,1452,1452,1452,1452,1452,1452,1452,1452,1452,1452,1452,1452,1452,1445,1445,1445,1445,1034,1028,1028,1025,1025,1025,1025,1022,1022,1019,1016,1016,1013,1013,1010,1010,1013,1013,1013,1016,1019,1022,1025,1025,1025,1028,1028,1034,0,1458,1458,1458,1458,1452,1452,1452,1458,1458,1458,1458,1458,1458,1458,1458,1458,1458,1458,1458,1458,1458,1458,1458,1458,1458,1458,1464,1458,1458,1458,1458,1458,1458,1458,1464,1464,1464,1464,1464,1464,1464,1464,1464,1464,1464,1458,1458,1458,1458,1458,1458,1458,1464,1464,1464,1464,1458,1458,1464,1464,1458,1458,1458,1464,1464,1464,1458,1458,1458,1458,1452,1452,1452,1445,1445,1445,1445,1445,1445,1445,1445,1445,1439,1439,1439,1433,1433,1427,1427,1421,1421,1421,1415,1415,1415,1415,1415,1410,1410,1404,1404,1404,1404,1398,1398,1392,1392,1392,1387,1387,1381,1381,1381,1376,1376,1376,1376,1370,1370,1370,1370,1370,1365,1359,1359,1359,1354,1354,1354,1349,1349,1349,1349,1349,1343,1343,1338,1338,1338,1333,1333,1333,1328,1328,1328,1322,1322,1317,1317,1312,1312,1312,1312,1307,1307,1307,1307,1307,1302,1302,1297,1297,1297,1292,1292,1292,1292,1288,1288,1283,1283,1283,1278,1278,1273,1273,1273,1273,1273,1268,1268,1268,1268,1268,1268,1264,1264,1264,1259,1259,1255,1255,1255,1255,1250,1250,1250,1119,1119,1123,1119,1119,1119,1115,1108,1108,1108,1105,1105,1105,1105,0,0,0,0,0,0,0,0,0,0,0,0,0,0,0,0,0,0,0,0,0,0,0,0,0,0,0,0,0,0,0,0
0,0,0,0,0,0,0,0,0,1398,1398,1398,1398,1398,1398,1398,1398,1392,1392,1392,1392,1392,1392,1392,1392,1392,1398,1398,1398,1398,1398,1398,1398,1398,1404,1398,1398,1404,1404,1404,1404,1404,1404,1404,1404,1404,1404,1404,1404,1410,1404,1404,1404,1404,1404,1410,1410,1410,1410,1415,1415,1410,1410,1410,1404,1398,1398,1398,1398,1398,1398,1404,1404,1410,1410,1410,1410,1410,1410,1410,1410,1410,1410,1410,1410,1410,1410,1410,1410,1410,1410,0,0,0,0,0,0,954,951,948,948,946,946,943,940,940,940,940,938,938,940,943,943,946,948,948,951,951,954,954,954,954,0,0,0,0,1421,1421,1421,1415,1415,1415,1415,1427,1427,1427,1427,1427,1427,1427,1421,1421,1421,1415,1415,1415,1415,1415,1415,1415,1415,1421,1415,1415,1415,1421,1421,1421,1421,1421,1421,1421,1421,1421,1415,1415,1415,1415,1415,1415,1421,1421,1421,1421,1427,1427,1427,1421,1421,1427,1427,1433,1433,1433,1433,1433,1433,1433,1433,1433,1433,1433,1433,1433,1433,1427,1427,1427,1427,1427,1433,1433,1433,1433,1433,1433,1433,1433,1433,1433,1149,1149,1145,1145,1145,0,0,0,0,0,0,0,0,0,0,0,0,0,691,691,691,690,688,686,686,684,684,683,682,680,679,676,675,675,675,675,675,675,676,676,679,680,682,683,684,686,687,688,691,691,693,693,694,696,0,0,0,0,0,0,0,0,1250,1250,1250,1250,1255,1255,1259,1259,1264,1268,1268,1439,1439,1439,1439,1439,1439,1439,1433,1433,1439,1439,1439,1439,1439,1439,1439,1439,1439,1439,1439,1439,1439,1439,1439,1439,1439,1439,1439,1439,1439,1439,1439,1452,1452,1452,1452,1452,1452,1445,1445,1445,1445,1445,1445,1439,1439,1439,1439,1445,1445,1445,1445,1445,1445,1445,1445,1445,1445,1445,1445,1445,1445,1445,1445,1445,1445,1445,1445,1445,1445,1445,1445,1445,1445,1445,1445,1445,1445,1445,1445,1445,1439,1439,1439,1034,1034,1031,1028,1028,1025,1025,1025,1025,1022,1019,1019,1016,1013,1013,1013,1013,1013,1013,1016,1016,1022,1025,1025,1025,1028,1028,1034,1034,1458,1458,1452,1452,1452,1452,1445,1445,1452,1452,1445,1445,1452,1452,1452,1452,1458,1458,1458,1458,1458,1452,1452,1452,1452,1452,1452,1452,1452,1452,1452,1452,1452,1458,1458,1458,1452,1452,1452,1458,1458,1458,1458,1458,1458,1458,1458,1458,1458,1458,1452,1452,1458,1458,1458,1458,1458,1458,1458,1458,1458,1458,1452,1452,1458,1458,1458,1452,1452,1452,1452,1452,1445,1445,1445,1445,1445,1445,1445,1445,1445,1445,1445,1439,1439,1439,1433,1433,1427,1427,1421,1421,1421,1421,1415,1415,1415,1415,1410,1410,1404,1404,1404,1404,1398,1398,1392,1392,1392,1387,1387,1381,1381,1381,1381,1376,1376,1376,1376,1376,1370,1370,1370,1365,1365,1359,1359,1354,1354,1354,1354,1349,1349,1349,1343,1343,1343,1338,1338,1333,1333,1333,1328,1328,1328,1322,1322,1322,1317,1317,1312,1312,1312,1312,1307,1307,1307,1307,1307,1302,1302,1297,1297,1297,1292,1292,1292,1292,1292,1288,1283,1283,1283,1278,1278,1273,1273,1273,1273,1273,1268,1268,1268,1268,1268,1268,1264,1264,1264,1255,1255,1255,1255,1255,1250,1250,1250,1250,1119,1119,1119,1119,1119,1115,1112,1108,1108,1108,1105,1105,1101,1101,0,0,0,0,0,0,0,0,0,0,0,0,0,0,0,0,0,0,0,0,0,0,0,0,0,0,0,0,0,0,0,0
0,0,0,0,0,0,0,0,0,1392,1392,1392,1392,1392,1392,1392,1392,1392,1387,1387,1387,1387,1392,1392,1392,1392,1392,1392,1392,1392,1392,1392,1392,1392,1392,1392,1392,1392,1398,1398,1398,1398,1398,1398,1398,1398,1398,1404,1404,1404,1404,1404,1404,1404,1398,1398,1398,1398,1404,1410,1410,1410,1404,1404,1404,1398,1398,1392,1392,1398,1398,1398,1398,1398,1404,1404,1410,1410,1410,1410,1410,1410,1410,1404,1404,1404,1404,1404,1404,1404,1404,0,0,0,0,0,0,954,951,948,948,946,946,943,943,943,940,940,940,940,943,943,943,948,948,951,954,954,954,954,954,956,0,0,0,0,1415,1415,1415,1410,1410,1410,1410,1415,1421,1421,1421,1421,1415,1415,1415,1415,1415,1410,1410,1415,1415,1410,1410,1415,1415,1415,1415,1415,1415,1415,1415,1415,1415,1415,1415,1415,1415,1415,1415,1415,1410,1410,1415,1415,1415,1415,1415,1415,1415,1415,1415,1415,1421,1421,1421,1427,1427,1427,1427,1427,1427,1427,1427,1427,1427,1427,1427,1427,1427,1421,1421,1421,1421,1427,1427,1427,1427,1433,1433,1433,1433,1433,1141,1141,1141,1145,1145,1141,1141,1145,1145,0,0,0,0,0,0,0,0,0,0,0,691,691,691,690,688,687,686,684,684,683,682,682,680,678,676,675,675,675,675,675,676,678,679,680,682,683,684,686,687,688,691,691,693,693,694,696,0,0,0,0,0,0,0,0,0,1250,1250,1255,1259,1259,1259,1264,1264,1264,1268,1439,1439,1433,1433,1433,1433,1433,1433,1433,1433,1433,1433,1433,1433,1433,1433,1433,1433,1433,1433,1433,1433,1433,1433,1433,1433,1433,1433,1433,1433,1433,1433,1445,1445,1445,1445,1439,1439,1439,1439,1439,1439,1439,1439,1439,1439,1439,1439,1439,1439,1439,1439,1439,1439,1439,1439,1439,1439,1439,1439,1439,1439,1439,1439,1439,1439,1445,1445,1445,1439,1439,1439,1439,1439,1445,1445,1445,1445,1439,1439,1439,1439,1439,1439,1034,1034,1031,1028,1028,1028,1025,1025,1025,1025,1022,1019,1016,1016,1013,1013,1013,1013,1016,1016,1019,1022,1025,1025,1028,1028,1031,1034,1034,1034,1452,1452,1452,1452,1452,1445,1445,1445,1445,1445,1445,1445,1445,1445,1445,1445,1452,1452,1452,1452,1452,1452,1445,1445,1445,1445,1445,1445,1445,1445,1445,1445,1452,1452,1452,1452,1445,1445,1452,1452,1452,1452,1452,1452,1452,1452,1452,1452,1452,1452,1452,1452,1452,1452,1452,1452,1452,1452,1452,1452,1452,1445,1445,1445,1452,1452,1445,1445,1445,1445,1445,1445,1445,1439,1439,1439,1439,1439,1439,1439,1439,1439,1439,1439,1439,1433,1433,1427,1427,1421,1421,1421,1421,1421,1415,1415,1415,1410,1410,1410,1410,1404,1404,1398,1398,1392,1392,1392,1392,1387,1387,1387,1381,1381,1376,1376,1376,1376,1376,1370,1370,1370,1370,1365,1365,1359,1354,1354,1354,1349,1349,1349,1349,1343,1343,1338,1338,1338,1333,1333,1333,1328,1328,1328,1322,1322,1322,1317,1317,1317,1317,1312,1312,1307,1307,1307,1307,1307,1302,1302,1302,1297,1297,1292,1292,1292,1292,1288,1288,1283,1283,1283,1278,1278,1273,1273,1273,1273,1273,1268,1268,1268,1268,1268,1268,1264,1264,1264,1255,1255,1255,1255,1255,1250,1250,1250,1123,1123,1123,1119,1119,1115,1115,1112,1108,1108,1105,1101,1101,1097,1097,0,0,0,0,0,0,0,0,0,0,0,0,0,0,0,0,0,0,0,0,0,0,0,0,0,0,0,0,0,0,0,0
0,0,0,0,0,0,0,0,0,1387,1387,1387,1387,1387,1387,1387,1387,1387,1387,1387,1387,1387,1387,1392,1387,1387,1392,1392,1392,1392,1392,1392,1387,1387,1392,1387,1387,1387,1392,1392,1392,1392,1392,1392,1392,1392,1398,1404,1404,1404,1404,1404,1398,1398,1392,1392,1392,1392,1392,1404,1404,1404,1398,1398,1398,1392,1392,1392,1392,1392,1392,1392,1392,1392,1392,1398,1398,1404,1404,1404,1404,1404,1404,1404,1404,1404,1398,1398,1398,1398,1398,0,0,0,0,0,0,954,954,951,948,948,946,943,943,943,940,940,943,943,943,943,946,948,948,951,954,954,954,954,954,956,956,0,0,0,1415,1415,1410,1410,1404,1404,1404,1404,1404,1404,1410,1415,1415,1410,1410,1410,1410,1410,1410,1410,1404,1404,1404,1410,1410,1410,1410,1410,1410,1410,1415,1410,1410,1410,1410,1410,1410,1410,1410,1410,1410,1410,1410,1410,1410,1415,1415,1415,1415,1415,1410,1410,1410,1415,1415,1421,1421,1421,1421,1421,1421,1421,1421,1421,1421,1421,1421,1421,1421,1421,1421,1421,1421,1421,1421,1421,1421,1427,1427,1427,1134,1134,1134,1138,1138,1141,1141,1141,1141,1141,1138,1138,0,0,0,0,0,0,0,0,0,0,691,691,691,691,690,687,686,686,684,684,683,682,680,676,676,676,675,675,676,676,678,679,680,682,682,683,684,686,687,688,691,693,693,694,696,697,0,0,0,0,0,0,0,0,1250,1250,1255,1255,1259,1259,1264,1264,1264,1264,1268,1433,1433,1433,1433,1433,1427,1427,1427,1427,1427,1427,1427,1427,1427,1427,1427,1427,1427,1427,1427,1427,1427,1427,1427,1427,1427,1427,1427,1433,1433,1433,1433,1439,1439,1439,1439,1439,1439,1439,1439,1433,1433,1433,1433,1433,1433,1433,1439,1439,1439,1439,1439,1439,1433,1433,1433,1433,1433,1433,1433,1433,1439,1439,1439,1439,1439,1439,1439,1439,1439,1439,1439,1439,1439,1439,1439,1439,1439,1433,1433,1433,1427,1427,1427,1031,1031,1031,1028,1028,1028,1028,1028,1025,1025,1022,1019,1019,1016,1016,1013,1013,1013,1016,1016,1019,1022,1025,1028,1028,1031,1034,1034,1034,1034,1452,1452,1445,1445,1445,1445,1445,1445,1439,1439,1439,1439,1439,1445,1445,1445,1445,1445,1445,1445,1445,1445,1445,1445,1445,1445,1445,1439,1439,1445,1445,1445,1445,1445,1445,1445,1445,1445,1445,1445,1445,1445,1445,1445,1445,1445,1445,1445,1445,1445,1445,1445,1445,1445,1445,1445,1445,1445,1445,1445,1445,1445,1445,1445,1445,1445,1439,1439,1439,1439,1439,1439,1439,1439,1439,1439,1439,1439,1439,1439,1439,1439,1439,1439,1439,1433,1427,1427,1427,1421,1421,1421,1421,1421,1415,1415,1415,1410,1410,1410,1410,1404,1404,1398,1398,1392,1392,1392,1392,1387,1387,1387,1381,1381,1376,1376,1376,1376,1376,1370,1370,1370,1370,1365,1365,1359,1354,1354,1354,1349,1349,1349,1349,1343,1343,1338,1338,1333,1333,1333,1333,1328,1328,1328,1322,1322,1322,1322,1317,1317,1312,1312,1312,1307,1307,1307,1307,1307,1302,1302,1297,1297,1297,1292,1292,1292,1288,1288,1288,1283,1283,1283,1278,1278,1273,1273,1273,1273,1273,1268,1268,1268,1268,1268,1268,1268,1268,1264,1255,1255,1255,1255,1255,1250,1250,1255,1123,1123,1123,1119,1115,1115,1112,1108,1108,1105,1105,1101,1097,1094,1094,0,0,0,0,0,0,0,0,0,0,0,0,0,0,0,0,0,0,0,0,0,0,0,0,0,0,0,0,0,0,0,0
0,0,0,0,0,0,0,0,0,1381,1381,1381,1381,1381,1381,1381,1387,1387,1381,1376,1376,1387,1387,1387,1387,1387,1387,1387,1392,1387,1387,1387,1387,1387,1387,1387,1387,1387,1387,1387,1387,1387,1387,1387,1387,1387,1392,1398,1398,1398,1398,1398,1392,1392,1392,1392,1392,1387,1387,1392,1398,1398,1398,1398,1392,1392,1392,1392,1392,1392,1392,1392,1392,1392,1392,1392,1392,1392,1398,1398,1398,1398,1398,1398,1398,1398,1398,1392,1392,1392,1392,0,0,0,0,0,0,954,954,951,951,948,946,946,943,943,943,943,943,943,943,946,946,948,948,951,954,956,956,956,956,956,956,0,0,0,1415,1410,1404,1404,1398,1398,1398,1398,1398,1398,1398,1404,1404,1404,1404,1404,1404,1404,1404,1404,1404,1404,1398,1398,1398,1398,1404,1404,1404,1404,1410,1410,1410,1404,1404,1404,1404,1404,1404,1404,1404,1404,1404,1404,1410,1410,1410,1410,1410,1410,1410,1410,1410,1410,1410,1410,1410,1410,1410,1415,1415,1415,1415,1415,1415,1415,1415,1415,1415,1415,1415,1415,1415,1415,1421,1421,1421,1421,1421,1130,1130,1134,1134,1134,1134,1138,1138,1138,1138,1138,1134,1134,0,0,0,0,0,0,0,0,0,0,0,0,693,693,691,688,687,686,686,684,683,682,680,676,676,676,675,675,676,676,678,679,680,682,683,683,684,686,687,688,691,693,693,694,696,697,0,0,0,0,0,0,0,0,1250,1250,1255,1259,1259,1259,1264,1264,1264,1264,1264,1433,1433,1427,1427,1421,1421,1421,1427,1421,1421,1421,1421,1421,1421,1421,1421,1421,1421,1421,1421,1421,1421,1421,1421,1421,1421,1421,1421,1421,1421,1421,1421,1433,1433,1433,1433,1433,1433,1433,1433,1433,1433,1433,1433,1433,1433,1433,1433,1433,1433,1433,1433,1433,1427,1427,1427,1427,1433,1433,1427,1427,1433,1433,1433,1433,1433,1433,1433,1439,1433,1433,1433,1433,1433,1433,1433,1433,1433,1427,1427,1427,1421,1421,1421,1421,1034,1034,1031,1031,1028,1028,1028,1028,1025,1025,1022,1019,1016,1016,1016,1016,1016,1016,1019,1019,1025,1025,1028,1028,1031,1034,1034,1034,1034,1439,1439,1439,1439,1439,1439,1439,1439,1439,1433,1433,1433,1433,1439,1439,1439,1439,1439,1439,1439,1439,1439,1439,1439,1439,1439,1439,1439,1439,1439,1439,1439,1439,1439,1439,1439,1439,1439,1439,1439,1439,1439,1439,1439,1439,1439,1439,1439,1439,1439,1439,1445,1445,1445,1445,1445,1445,1445,1445,1439,1439,1439,1439,1439,1439,1439,1439,1439,1439,1439,1439,1439,1439,1439,1439,1439,1433,1433,1439,1439,1439,1439,1433,1433,1433,1427,1427,1427,1421,1421,1421,1421,1421,1421,1415,1415,1415,1410,1410,1410,1410,1404,1404,1398,1398,1392,1392,1392,1392,1387,1387,1387,1381,1381,1376,1376,1376,1376,1376,1370,1370,1370,1370,1365,1365,1359,1354,1354,1354,1354,1349,1349,1349,1343,1343,1338,1338,1333,1333,1333,1328,1328,1328,1322,1322,1322,1322,1322,1317,1317,1312,1312,1312,1307,1307,1307,1307,1307,1302,1302,1297,1297,1297,1292,1292,1292,1288,1288,1288,1283,1283,1283,1283,1278,1278,1278,1278,1273,1273,1268,1268,1268,1268,1268,1268,1268,1268,1259,1255,1255,1255,1255,1255,1250,1250,1123,1123,1123,1119,1119,1115,1112,1108,1108,1105,1105,1101,1097,1094,1090,1090,0,0,0,0,0,0,0,0,0,0,0,0,0,0,0,0,0,0,0,0,0,0,0,0,0,0,0,0,0,0,0,0
0,0,0,0,0,0,0,0,0,1376,1376,1381,1376,1376,1376,1376,1376,1381,1376,1370,1370,1376,1381,1376,1376,1376,1381,1381,1387,1387,1387,1387,1387,1387,1387,1381,1381,1381,1381,1381,1381,1387,1387,1387,1387,1387,1387,1387,1387,1387,1392,1392,1387,1387,1387,1387,1387,1387,1387,1392,1392,1392,1392,1392,1392,1392,1392,1392,1392,1392,1392,1392,1392,1392,1392,1392,1387,1387,1392,1392,1392,1392,1392,1392,1392,1392,1392,1387,1387,1387,1387,0,0,0,0,0,956,954,954,954,951,948,948,946,943,943,943,943,943,943,943,946,946,948,948,951,954,956,956,956,956,956,956,0,0,0,0,1404,1398,1398,1398,1398,1392,1392,1392,1392,1392,1398,1398,1398,1398,1398,1398,1398,1398,1398,1398,1398,1398,1392,1392,1398,1398,1398,1404,1398,1398,1404,1404,1398,1398,1398,1398,1404,1404,1404,1404,1404,1404,1404,1404,1404,1410,1410,1404,1404,1404,1404,1404,1404,1404,1404,1410,1410,1410,1410,1410,1410,1410,1410,1410,1410,1410,1410,1410,1410,1415,1415,1415,1415,1415,1415,1415,1126,1126,1126,1130,1130,1130,1134,1134,1134,1134,1134,1134,1134,1134,1130,1130,0,0,0,0,0,0,0,0,0,0,0,693,693,691,690,687,686,686,684,684,683,680,678,676,676,676,676,676,676,679,679,680,682,683,683,686,686,687,690,691,693,694,696,697,697,0,0,0,0,0,0,0,0,0,1255,1255,1259,1259,1264,1264,1264,1264,1264,1264,1268,1427,1421,1421,1421,1421,1421,1421,1421,1421,1421,1421,1421,1421,1415,1415,1415,1415,1415,1421,1421,1421,1421,1421,1421,1421,1415,1415,1415,1415,1415,1415,1421,1421,1421,1427,1427,1427,1427,1427,1427,1427,1427,1427,1427,1427,1427,1427,1427,1427,1427,1427,1427,1427,1421,1421,1427,1427,1427,1427,1427,1427,1427,1427,1427,1427,1427,1427,1433,1433,1427,1427,1427,1427,1427,1427,1427,1427,1427,1421,1421,1421,1421,1421,1421,1034,1034,1034,1031,1031,1028,1028,1028,1025,1025,1022,1019,1016,1016,1016,1016,1016,1016,1019,1019,1025,1025,1028,1028,1031,1034,1034,1034,1034,1439,1439,1433,1433,1439,1433,1433,1433,1433,1427,1427,1427,1427,1427,1427,1427,1433,1439,1439,1439,1439,1439,1439,1439,1439,1439,1439,1433,1433,1433,1433,1433,1433,1433,1433,1433,1433,1433,1433,1427,1427,1433,1433,1433,1433,1439,1433,1433,1433,1433,1439,1439,1439,1439,1439,1439,1439,1439,1439,1439,1439,1439,1433,1433,1439,1439,1439,1439,1439,1439,1439,1433,1433,1433,1433,1433,1433,1433,1433,1433,1433,1433,1433,1433,1433,1421,1421,1421,1421,1421,1421,1421,1421,1421,1415,1415,1415,1410,1410,1410,1410,1404,1404,1398,1398,1392,1392,1392,1392,1387,1387,1387,1387,1387,1376,1376,1376,1376,1376,1370,1370,1370,1370,1365,1365,1359,1354,1354,1354,1354,1349,1349,1349,1343,1343,1338,1338,1333,1333,1328,1328,1328,1328,1322,1322,1322,1322,1322,1322,1317,1317,1312,1312,1312,1312,1307,1307,1307,1307,1307,1302,1297,1297,1292,1292,1292,1288,1288,1288,1288,1288,1283,1283,1283,1278,1278,1283,1273,1273,1273,1268,1268,1268,1268,1268,1268,1268,1259,1255,1250,1250,1250,1250,1250,1123,1123,1123,1119,1119,1115,1112,1112,1108,1105,1105,1101,1097,1094,1090,1087,1087,0,0,0,0,0,0,0,0,0,0,0,0,0,0,0,0,0,0,0,0,0,0,0,0,0,0,0,0,0,0,0,0
0,0,0,0,0,0,0,0,0,1370,1370,1370,1370,1370,1370,1370,1370,1370,1370,1370,1370,1370,1370,1370,1370,1370,1370,1376,1376,1381,1381,1381,1381,1381,1381,1381,1376,1376,1376,1376,1376,1381,1381,1381,1381,1381,1387,1387,1381,1381,1381,1381,1381,1381,1381,1381,1381,1381,1387,1387,1387,1387,1387,1387,1387,1387,1387,1387,1387,1392,1387,1387,1387,1387,1387,1387,1387,1387,1387,1387,1387,1392,1387,1387,1387,1387,1387,1381,1381,1381,1381,1381,0,0,0,0,956,956,954,954,954,951,948,946,946,943,943,943,943,943,946,946,948,948,948,951,954,956,956,956,956,956,956,0,0,0,0,1398,1398,1398,1398,1392,1392,1392,1392,1392,1392,1392,1392,1392,1398,1398,1392,1392,1392,1392,1392,1392,1392,1392,1392,1392,1392,1392,1398,1398,1398,1398,1398,1398,1392,1392,1392,1398,1398,1398,1398,1398,1398,1404,1404,1404,1404,1398,1398,1398,1398,1398,1398,1398,1398,1404,1404,1404,1404,1398,1398,1404,1398,1398,1398,1398,1404,1410,1410,1410,1410,1410,1415,1415,1415,1415,1123,1123,1126,1126,1126,1130,1130,1130,1130,1134,1134,1134,1134,1134,1130,1130,1130,0,0,0,0,0,0,0,0,0,0,0,693,693,691,690,688,687,687,686,684,683,682,678,676,676,676,676,676,678,679,679,682,682,683,684,686,687,688,691,693,694,694,696,697,697,0,0,0,0,0,0,0,0,1259,1259,1259,1259,1264,1264,1264,1264,1264,1264,1264,1268,1421,1421,1415,1415,1415,1415,1415,1415,1415,1415,1415,1415,1415,1415,1410,1410,1415,1415,1415,1415,1415,1415,1415,1415,1415,1415,1415,1415,1410,1410,1415,1421,1421,1421,1421,1421,1421,1421,1421,1421,1421,1421,1421,1421,1421,1421,1421,1421,1421,1421,1421,1421,1421,1421,1421,1421,1421,1421,1421,1421,1421,1421,1421,1421,1421,1421,1421,1427,1427,1421,1421,1421,1421,1421,1421,1421,1421,1421,1421,1421,1421,1415,1415,1415,1038,1038,1038,1034,1031,1031,1028,1028,1028,1025,1025,1022,1016,1016,1016,1016,1016,1019,1019,1019,1025,1025,1028,1028,1031,1034,1034,1034,1427,1427,1427,1433,1433,1433,1427,1427,1427,1427,1427,1427,1427,1427,1421,1421,1421,1421,1427,1427,1427,1427,1433,1433,1433,1433,1433,1433,1433,1427,1427,1427,1427,1427,1427,1427,1427,1427,1427,1427,1427,1427,1427,1427,1427,1427,1427,1433,1433,1427,1427,1433,1433,1433,1433,1433,1433,1433,1433,1433,1433,1433,1433,1433,1433,1433,1433,1433,1433,1433,1433,1433,1427,1427,1427,1427,1427,1427,1427,1433,1433,1433,1427,1427,1427,1427,1421,1421,1421,1421,1421,1421,1421,1421,1415,1415,1415,1410,1410,1410,1410,1410,1404,1404,1398,1398,1392,1392,1392,1392,1392,1387,1387,1387,1387,1381,1376,1376,1376,1376,1370,1370,1370,1370,1365,1365,1359,1354,1354,1354,1354,1349,1349,1349,1343,1343,1338,1338,1333,1333,1328,1328,1328,1328,1322,1322,1322,1322,1322,1322,1317,1317,1317,1312,1312,1312,1307,1307,1307,1307,1307,1302,1297,1297,1292,1292,1292,1292,1288,1288,1288,1288,1283,1283,1283,1283,1283,1278,1278,1273,1273,1273,1273,1268,1268,1268,1268,1264,1259,1255,1250,1250,1250,1250,1126,1123,1123,1123,1119,1119,1115,1112,1108,1108,1105,1101,1097,1094,1090,1084,1084,1087,0,0,0,0,0,0,0,0,0,0,0,0,0,0,0,0,0,0,0,0,0,0,0,0,0,0,0,0,0,0,0,0
0,0,0,0,0,0,0,0,0,1370,1370,1370,1370,1370,1370,1370,1370,1370,1365,1365,1365,1365,1365,1365,1365,1365,1370,1370,1370,1370,1370,1376,1376,1376,1376,1370,1370,1370,1370,1370,1370,1376,1376,1376,1376,1376,1381,1381,1376,1376,1370,1370,1376,1376,1376,1376,1376,1376,1381,1381,1381,1381,1381,1381,1381,1381,1381,1387,1387,1387,1387,1387,1381,1381,1381,1381,1381,1381,1381,1387,1387,1387,1387,1387,1387,1387,1387,1381,1381,1376,1376,1376,1376,0,0,0,956,956,956,956,954,954,951,948,946,946,943,943,943,946,946,948,948,948,951,954,954,956,956,956,956,954,954,0,0,0,0,1387,1387,1392,1392,1392,1392,1392,1392,1392,1392,1392,1392,1392,1392,1392,1392,1392,1392,1392,1392,1392,1387,1387,1387,1387,1387,1392,1392,1392,1392,1392,1392,1392,1392,1392,1392,1392,1392,1392,1392,1398,1398,1398,1398,1398,1398,1392,1392,1392,1392,1392,1392,1392,1392,1398,1398,1398,1398,1398,1398,1398,1398,1392,1392,1398,1398,1398,1398,1404,1410,1410,1410,1410,1415,1119,1119,1123,1123,1126,1126,1130,1130,1130,1130,1130,1130,1130,1130,1130,1130,1126,1126,0,0,0,0,0,0,0,0,0,0,0,693,693,691,691,690,688,687,686,686,684,683,678,678,676,676,676,676,678,679,680,682,682,683,684,686,687,688,691,693,694,696,697,697,697,0,0,0,0,0,0,0,0,1259,1259,1264,1264,1264,1264,1268,1268,1264,1264,1264,1264,1415,1415,1410,1410,1410,1410,1410,1410,1410,1410,1410,1410,1410,1410,1410,1410,1410,1410,1410,1410,1410,1410,1410,1410,1410,1410,1410,1410,1410,1410,1410,1415,1415,1415,1415,1415,1415,1415,1415,1415,1421,1421,1421,1421,1421,1421,1415,1415,1415,1421,1421,1421,1421,1421,1421,1421,1421,1421,1415,1415,1415,1415,1415,1415,1415,1415,1415,1421,1421,1415,1415,1421,1421,1421,1421,1421,1421,1421,1421,1421,1421,1415,1415,1415,1038,1038,1038,1034,1034,1031,1031,1028,1028,1025,1025,1022,1019,1019,1016,1016,1016,1019,1019,1022,1025,1028,1028,1028,1031,1038,1038,1421,1421,1421,1421,1421,1421,1421,1427,1421,1421,1421,1421,1421,1421,1421,1421,1421,1421,1421,1421,1421,1421,1421,1427,1427,1427,1427,1427,1427,1427,1421,1421,1421,1421,1421,1421,1421,1421,1421,1421,1421,1421,1421,1421,1421,1421,1421,1421,1421,1421,1421,1427,1427,1427,1427,1427,1421,1421,1427,1421,1421,1427,1421,1421,1427,1421,1421,1427,1427,1427,1427,1427,1427,1427,1427,1427,1427,1427,1421,1421,1427,1427,1427,1421,1421,1421,1421,1421,1421,1421,1421,1421,1421,1415,1415,1415,1415,1415,1410,1410,1410,1410,1410,1404,1404,1404,1398,1398,1392,1392,1392,1392,1387,1387,1387,1387,1381,1376,1376,1376,1376,1370,1370,1370,1370,1370,1365,1365,1359,1354,1354,1354,1349,1349,1349,1343,1343,1338,1338,1333,1333,1333,1328,1328,1328,1322,1322,1322,1322,1322,1322,1317,1317,1317,1312,1312,1312,1312,1307,1307,1307,1307,1302,1302,1297,1297,1292,1292,1292,1288,1288,1288,1288,1288,1283,1283,1283,1283,1278,1278,1273,1273,1273,1273,1273,1268,1268,1268,1264,1259,1255,1250,1250,1250,1126,1126,1123,1123,1123,1119,1119,1115,1108,1108,1105,1101,1097,1094,1090,1090,1084,1084,0,0,0,0,0,0,0,0,0,0,0,0,0,0,0,0,0,0,0,0,0,0,0,0,0,0,0,0,0,0,0,0,0
0,0,0,0,0,0,0,0,0,1370,1370,1365,1365,1365,1365,1365,1370,1365,1365,1365,1365,1365,1365,1365,1365,1365,1365,1365,1370,1370,1370,1370,1370,1370,1370,1370,1365,1365,1365,1365,1365,1370,1370,1370,1370,1370,1370,1370,1370,1370,1370,1370,1370,1370,1370,1370,1370,1370,1370,1376,1376,1376,1376,1376,1376,1376,1376,1376,1376,1381,1381,1381,1381,1381,1381,1381,1376,1376,1376,1381,1381,1381,1381,1381,1381,1381,1381,1376,1376,1370,1370,1365,1365,0,0,956,956,956,956,956,956,954,951,948,946,946,943,943,943,946,946,948,948,951,951,954,956,956,956,956,956,954,954,0,0,0,1387,1387,1387,1387,1387,1387,1387,1387,1387,1387,1387,1387,1387,1387,1387,1387,1387,1387,1387,1387,1387,1387,1387,1387,1381,1381,1387,1387,1387,1387,1387,1387,1387,1387,1387,1387,1387,1387,1387,1387,1392,1392,1392,1398,1398,1392,1392,1392,1387,1387,1387,1387,1387,1392,1392,1392,1392,1392,1392,1392,1392,1392,1392,1392,1392,1392,1392,1398,1398,1115,1115,1404,1112,1112,1112,1115,1119,1123,1123,1126,1126,1126,1126,1126,1126,1126,1130,1130,1130,1130,1126,1123,1123,0,0,0,0,0,0,0,0,0,0,696,694,693,693,691,690,688,687,687,686,686,684,682,679,678,678,678,678,678,679,680,682,683,684,686,687,687,688,691,693,696,696,697,697,697,0,0,0,0,0,0,0,0,1259,1259,1264,1264,1264,1264,1268,1268,1264,1264,1264,1264,1410,1410,1404,1404,1404,1404,1404,1404,1404,1410,1410,1404,1404,1404,1404,1404,1404,1404,1404,1404,1404,1404,1404,1404,1404,1404,1404,1404,1404,1404,1410,1410,1415,1410,1410,1410,1410,1410,1415,1415,1415,1415,1415,1415,1415,1415,1415,1415,1415,1415,1415,1415,1415,1415,1415,1415,1415,1415,1415,1415,1415,1415,1410,1410,1410,1410,1410,1415,1415,1415,1415,1415,1415,1415,1415,1415,1415,1415,1415,1415,1415,1410,1410,1410,1038,1038,1038,1034,1034,1034,1034,1031,1028,1028,1025,1025,1019,1019,1019,1019,1019,1022,1022,1022,1025,1028,1028,1028,1034,1038,1038,1421,1421,1415,1415,1415,1415,1415,1415,1415,1421,1421,1421,1421,1421,1421,1415,1415,1415,1415,1415,1415,1415,1415,1415,1421,1421,1421,1421,1421,1421,1421,1421,1421,1421,1421,1421,1421,1421,1421,1421,1421,1415,1415,1421,1421,1421,1421,1415,1415,1421,1421,1421,1415,1415,1421,1421,1421,1421,1421,1421,1421,1421,1421,1421,1421,1421,1421,1421,1421,1421,1421,1421,1421,1421,1421,1421,1421,1421,1421,1421,1421,1421,1421,1421,1415,1415,1415,1415,1415,1415,1415,1415,1415,1415,1415,1410,1410,1410,1410,1410,1410,1410,1410,1404,1404,1404,1398,1398,1392,1392,1392,1392,1387,1387,1387,1387,1381,1381,1381,1376,1376,1376,1370,1370,1370,1365,1365,1359,1359,1354,1354,1354,1354,1354,1349,1349,1343,1338,1338,1333,1333,1328,1328,1328,1328,1322,1322,1322,1322,1322,1322,1322,1317,1317,1312,1312,1312,1312,1307,1307,1307,1307,1307,1302,1297,1297,1292,1292,1292,1288,1288,1288,1288,1288,1288,1283,1283,1283,1278,1278,1278,1273,1273,1273,1273,1268,1268,1264,1264,1264,1255,1255,1250,1130,1126,1123,1123,1123,1123,1119,1115,1112,1108,1108,1105,1101,1097,1094,1090,1084,1084,1084,0,0,0,0,0,0,0,0,0,0,0,0,0,0,0,0,0,0,0,0,0,0,0,0,0,0,0,0,0,0,0,0,0
0,0,0,0,0,0,0,0,0,1365,1365,1359,1359,1359,1359,1359,1365,1365,1365,1359,1359,1365,1359,1359,1359,1365,1365,1365,1365,1365,1365,1365,1365,1365,1365,1365,1365,1365,1365,1365,1365,1365,1365,1365,1365,1365,1370,1370,1370,1365,1365,1365,1365,1365,1365,1365,1365,1370,1370,1370,1370,1370,1370,1370,1370,1376,1370,1370,1376,1376,1376,1376,1376,1376,1376,1376,1370,1370,1376,1376,1376,1376,1376,1376,1381,1376,1376,1370,1370,1370,1370,1365,1365,0,956,956,956,956,956,956,956,954,954,951,948,946,946,943,943,946,946,948,948,951,951,954,956,956,956,956,956,954,954,0,0,0,0,1381,1381,1381,1381,1381,1381,1381,1381,1387,1387,1387,1387,1387,1387,1387,1381,1381,1381,1381,1381,1381,1381,1381,1381,1381,1381,1381,1387,1387,1387,1387,1387,1387,1381,1381,1381,1387,1387,1387,1387,1392,1392,1392,1392,1392,1392,1387,1387,1387,1387,1387,1387,1387,1387,1387,1387,1387,1387,1387,1387,1387,1387,1387,1387,1392,1392,1112,1112,1112,1112,1112,1112,1112,1112,1115,1119,1119,1123,1123,1123,1126,1123,1123,1123,1126,1126,1126,1126,1126,1126,1123,1123,0,0,0,0,0,0,0,0,0,0,696,694,693,693,691,691,690,688,687,686,686,684,683,679,678,678,678,679,679,680,680,682,683,684,686,687,688,688,693,694,696,696,697,697,697,0,0,0,0,0,0,0,0,1259,1259,1264,1264,1264,1268,1268,1268,1264,1264,1264,1264,1410,1404,1404,1404,1398,1398,1404,1404,1404,1404,1404,1404,1404,1404,1398,1398,1398,1398,1398,1398,1398,1398,1398,1398,1398,1398,1398,1398,1398,1398,1404,1404,1404,1404,1404,1404,1404,1404,1410,1410,1415,1410,1410,1410,1410,1410,1410,1410,1410,1415,1415,1415,1415,1415,1415,1415,1415,1415,1410,1410,1410,1410,1404,1404,1404,1404,1410,1410,1410,1410,1410,1415,1410,1410,1410,1410,1410,1415,1415,1415,1415,1410,1410,1410,1038,1038,1038,1038,1034,1034,1034,1031,1031,1028,1028,1025,1022,1022,1022,1019,1019,1022,1022,1025,1028,1028,1028,1028,1034,1034,1041,1415,1415,1410,1410,1410,1410,1410,1410,1410,1415,1415,1415,1415,1415,1415,1415,1415,1410,1410,1415,1415,1415,1410,1410,1415,1415,1415,1415,1415,1415,1415,1415,1415,1415,1415,1415,1415,1415,1415,1415,1415,1415,1415,1415,1415,1415,1415,1415,1415,1415,1415,1415,1415,1415,1415,1415,1415,1415,1415,1415,1415,1415,1415,1415,1415,1415,1415,1415,1415,1415,1415,1415,1415,1415,1415,1415,1421,1421,1415,1415,1415,1415,1415,1415,1415,1415,1415,1415,1415,1415,1415,1415,1415,1415,1410,1410,1410,1410,1410,1410,1410,1410,1404,1404,1404,1398,1398,1398,1392,1392,1392,1392,1387,1387,1387,1387,1387,1381,1381,1376,1376,1376,1370,1370,1370,1365,1365,1359,1359,1354,1354,1354,1354,1354,1349,1349,1343,1343,1338,1333,1333,1328,1328,1328,1328,1328,1322,1322,1328,1322,1322,1322,1317,1317,1312,1312,1312,1312,1307,1307,1307,1307,1307,1302,1297,1297,1292,1292,1292,1292,1288,1288,1288,1283,1283,1283,1283,1283,1283,1278,1278,1278,1273,1273,1273,1268,1268,1264,1259,1255,1255,1255,1250,1130,1126,1123,1123,1123,1119,1115,1112,1108,1105,1105,1101,1097,1094,1090,1084,1084,1080,1080,0,0,0,0,0,0,0,0,0,0,0,0,0,0,0,0,0,0,0,0,0,0,0,0,0,0,0,0,0,0,0,0,0
0,0,0,0,0,0,0,0,0,1359,1359,1354,1354,1354,1354,1359,1359,1359,1359,1359,1359,1359,1359,1359,1359,1359,1359,1359,1359,1365,1365,1365,1365,1365,1365,1365,1359,1359,1359,1359,1359,1354,1354,1359,1354,1354,1359,1359,1365,1365,1365,1365,1365,1365,1365,1365,1365,1365,1365,1365,1365,1365,1365,1365,1370,1370,1370,1370,1370,1370,1370,1370,1370,1370,1370,1370,1370,1370,1370,1370,1370,1370,1370,1370,1376,1370,1370,1370,1370,1370,1365,1365,1365,0,0,956,956,956,956,956,956,956,954,951,948,946,946,946,946,946,946,948,948,951,954,956,956,956,956,956,956,956,956,0,0,0,0,1376,1376,1376,1376,1376,1376,1376,1376,1381,1381,1381,1376,1376,1381,1381,1381,1376,1376,1376,1376,1376,1376,1381,1376,1376,1381,1381,1381,1381,1381,1381,1381,1381,1381,1376,1376,1381,1381,1381,1381,1387,1387,1387,1387,1387,1387,1387,1387,1387,1381,1381,1381,1381,1381,1381,1381,1387,1387,1387,1381,1097,1097,1101,1101,1105,1105,1105,1108,1108,1108,1108,1112,1112,1112,1115,1115,1115,1119,1119,1119,1123,1123,1123,1123,1123,1126,1126,1126,1126,1126,1126,1126,0,0,0,0,0,0,0,0,0,0,0,694,693,693,691,691,690,688,687,686,686,686,683,682,679,679,679,679,680,680,682,683,684,686,687,687,690,691,693,694,696,696,697,697,697,0,0,0,0,0,0,0,0,1259,1259,1264,1264,1264,1268,1268,1268,1264,1264,1264,1404,1404,1398,1398,1398,1398,1398,1398,1398,1398,1398,1404,1398,1398,1398,1392,1392,1392,1392,1392,1392,1392,1392,1392,1392,1392,1392,1392,1392,1392,1392,1398,1398,1398,1398,1398,1404,1398,1398,1398,1404,1410,1410,1404,1404,1404,1404,1398,1398,1398,1404,1404,1410,1410,1410,1410,1410,1410,1410,1410,1410,1404,1404,1404,1404,1398,1398,1404,1404,1404,1404,1404,1410,1410,1410,1410,1410,1410,1410,1410,1410,1410,1404,1404,1404,1038,1038,1038,1038,1034,1034,1034,1034,1031,1028,1028,1025,1025,1022,1022,1022,1022,1022,1022,1025,1028,1028,1031,1031,1034,1041,1041,1415,1415,1410,1410,1410,1410,1404,1404,1410,1410,1410,1410,1415,1415,1415,1410,1410,1404,1404,1410,1410,1410,1404,1404,1410,1410,1410,1410,1410,1410,1410,1410,1415,1415,1415,1415,1415,1415,1415,1410,1410,1410,1410,1410,1410,1410,1410,1410,1410,1415,1415,1410,1410,1410,1410,1410,1404,1404,1404,1404,1410,1410,1410,1410,1410,1410,1410,1410,1410,1410,1410,1410,1410,1415,1415,1415,1415,1415,1415,1415,1415,1415,1410,1410,1410,1410,1415,1415,1410,1410,1410,1410,1410,1410,1410,1404,1404,1404,1404,1404,1404,1404,1404,1404,1404,1398,1398,1398,1392,1392,1392,1392,1387,1387,1387,1387,1381,1381,1381,1376,1376,1376,1370,1370,1370,1365,1365,1359,1359,1354,1354,1354,1354,1354,1349,1349,1343,1343,1338,1333,1333,1333,1328,1328,1328,1328,1322,1322,1328,1322,1322,1322,1317,1317,1317,1312,1312,1307,1307,1307,1307,1307,1307,1302,1302,1302,1297,1292,1292,1292,1292,1288,1288,1283,1283,1283,1283,1283,1283,1278,1278,1278,1273,1273,1273,1268,1268,1264,1259,1255,1130,1126,1126,1130,1126,1123,1123,1119,1119,1112,1108,1105,1105,1101,1097,1094,1094,1090,1084,1080,1080,1080,0,0,0,0,0,0,0,0,0,0,0,0,0,0,0,0,0,0,0,0,0,0,0,0,0,0,0,0,0,0,0,0,0
0,0,0,0,0,0,0,0,0,1354,1354,1354,1354,1354,1354,1354,1354,1354,1359,1359,1359,1359,1354,1354,1354,1354,1354,1359,1359,1359,1359,1359,1354,1354,1354,1354,1359,1359,1359,1354,1354,1354,1354,1354,1349,1349,1349,1354,1359,1359,1365,1365,1365,1365,1365,1359,1359,1359,1359,1359,1359,1359,1359,1365,1365,1365,1365,1365,1365,1365,1365,1365,1365,1365,1370,1370,1365,1365,1365,1365,1365,1365,1365,1365,1370,1365,1365,1365,1365,1365,1365,1359,1359,0,0,956,956,956,959,956,956,956,954,951,948,946,946,946,946,946,948,948,951,951,954,956,956,959,959,959,959,956,956,956,0,0,0,1370,1370,1370,1370,1370,1370,1370,1370,1370,1376,1376,1370,1370,1370,1370,1370,1370,1376,1376,1376,1376,1376,1376,1376,1376,1376,1376,1376,1376,1376,1376,1376,1376,1376,1376,1376,1376,1376,1376,1376,1381,1381,1381,1381,1381,1381,1381,1381,1381,1381,1381,1381,1381,1381,1381,1381,1381,1381,1381,1094,1094,1097,1101,1101,1101,1101,1105,1105,1105,1105,1105,1108,1108,1112,1112,1115,1115,1115,1115,1115,1115,1119,1119,1119,1119,1123,1119,1119,1119,1119,1119,1119,0,0,0,0,0,0,0,0,0,0,0,696,694,693,693,691,690,688,687,687,686,686,684,682,682,680,680,680,680,682,682,684,686,686,687,690,691,693,694,694,696,697,697,698,698,0,0,0,0,0,0,0,0,1264,1264,1264,1264,1264,1268,1268,1268,1268,1268,1268,1398,1398,1392,1392,1392,1392,1392,1392,1392,1392,1392,1392,1392,1392,1392,1392,1392,1392,1392,1387,1387,1387,1392,1392,1387,1387,1387,1387,1392,1392,1392,1398,1398,1398,1398,1398,1398,1398,1398,1398,1398,1404,1404,1398,1398,1398,1398,1398,1398,1398,1398,1398,1398,1398,1398,1398,1404,1404,1404,1404,1404,1398,1398,1398,1398,1398,1398,1398,1398,1404,1404,1404,1404,1404,1404,1404,1404,1404,1404,1404,1404,1404,1398,1392,1392,1038,1038,1038,1038,1038,1034,1034,1034,1031,1028,1028,1025,1025,1025,1025,1025,1025,1025,1025,1028,1031,1031,1031,1031,1038,1041,1041,1044,1398,1398,1398,1398,1404,1404,1404,1404,1404,1404,1404,1404,1404,1410,1410,1404,1398,1398,1404,1404,1404,1398,1398,1404,1404,1404,1404,1404,1404,1410,1410,1410,1410,1410,1410,1410,1410,1410,1404,1404,1404,1404,1404,1404,1404,1404,1404,1404,1410,1410,1410,1404,1404,1404,1404,1404,1404,1404,1404,1404,1404,1404,1404,1404,1404,1404,1404,1404,1404,1404,1404,1404,1410,1410,1410,1410,1410,1410,1404,1404,1404,1404,1404,1404,1410,1410,1410,1410,1410,1410,1410,1410,1404,1404,1404,1404,1404,1404,1404,1404,1404,1404,1404,1398,1398,1398,1398,1392,1392,1392,1392,1387,1387,1387,1387,1381,1381,1376,1376,1376,1376,1376,1370,1370,1365,1365,1359,1359,1359,1354,1354,1354,1354,1349,1349,1349,1343,1343,1338,1333,1333,1328,1328,1328,1328,1328,1328,1328,1322,1322,1322,1317,1317,1317,1317,1312,1307,1307,1302,1302,1307,1307,1302,1302,1302,1297,1297,1297,1292,1292,1288,1288,1288,1288,1283,1283,1283,1283,1283,1283,1283,1278,1278,1273,1268,1268,1264,1259,1134,1130,1126,1126,1130,1126,1123,1119,1119,1112,1112,1108,1105,1101,1097,1097,1094,1094,1090,1084,1080,1080,1080,0,0,0,0,0,0,0,0,0,0,0,0,0,0,0,0,0,0,0,0,0,0,0,0,0,0,0,0,0,0,0,0,0
0,0,0,0,0,0,0,0,0,1349,1349,1349,1349,1349,1349,1354,1354,1354,1354,1354,1354,1354,1354,1354,1354,1354,1354,1354,1354,1354,1354,1354,1354,1354,1349,1349,1349,1354,1354,1354,1354,1349,1349,1349,1349,1349,1349,1349,1349,1354,1354,1359,1359,1359,1359,1359,1359,1354,1354,1354,1354,1354,1359,1359,1359,1359,1359,1359,1365,1365,1359,1359,1359,1359,1359,1359,1359,1365,1365,1365,1365,1365,1365,1365,1365,1365,1365,1365,1365,1359,1359,1359,1359,0,0,956,956,956,956,956,956,956,954,951,948,948,946,946,946,946,948,948,951,951,954,956,956,959,959,959,959,956,956,0,0,0,1370,1370,1370,1365,1365,1370,1370,1365,1365,1365,1370,1370,1370,1370,1370,1370,1370,1370,1370,1370,1370,1370,1370,1370,1370,1370,1370,1370,1370,1370,1370,1370,1370,1370,1370,1370,1370,1370,1370,1370,1370,1376,1376,1376,1376,1376,1376,1376,1376,1376,1376,1376,1376,1376,1376,1376,1381,1381,1097,1094,1094,1094,1094,1101,1101,1101,1101,1105,1105,1105,1105,1105,1108,1108,1112,1112,1115,1115,1115,1115,1115,1115,1115,1115,1115,1115,1119,1119,1119,1119,1119,1115,1115,0,0,0,0,0,0,0,0,0,0,0,696,694,693,693,691,691,690,688,687,686,686,684,683,682,680,680,680,682,682,682,684,686,687,687,690,691,693,694,696,697,697,698,698,698,0,0,0,0,0,0,0,0,1264,1264,1264,1264,1264,1268,1268,1268,1268,1268,1268,1398,1392,1392,1387,1387,1387,1387,1387,1387,1387,1392,1392,1392,1387,1387,1387,1387,1387,1387,1387,1387,1387,1387,1387,1387,1387,1387,1387,1387,1387,1387,1392,1392,1392,1392,1392,1392,1392,1392,1392,1392,1392,1398,1398,1392,1392,1392,1392,1392,1392,1392,1392,1392,1392,1392,1387,1387,1392,1392,1398,1398,1398,1398,1392,1392,1392,1392,1392,1398,1398,1398,1398,1398,1398,1398,1398,1398,1392,1392,1398,1398,1398,1392,1387,1387,1041,1041,1041,1038,1038,1038,1038,1034,1034,1031,1028,1028,1025,1025,1025,1025,1025,1025,1028,1028,1031,1034,1038,1038,1041,1041,1044,1044,1398,1398,1392,1392,1392,1392,1392,1398,1398,1398,1398,1398,1398,1404,1398,1398,1398,1398,1398,1398,1398,1398,1398,1392,1392,1398,1398,1398,1398,1398,1398,1404,1404,1410,1404,1404,1404,1404,1398,1398,1398,1398,1398,1398,1398,1398,1398,1398,1398,1398,1398,1398,1398,1398,1398,1398,1398,1398,1398,1404,1404,1404,1398,1398,1398,1404,1398,1398,1398,1398,1398,1404,1404,1404,1404,1404,1404,1404,1398,1398,1398,1398,1398,1398,1398,1404,1404,1404,1404,1404,1404,1404,1404,1398,1398,1398,1398,1398,1398,1398,1398,1398,1398,1398,1398,1392,1392,1392,1392,1392,1387,1387,1387,1387,1381,1381,1376,1376,1376,1376,1376,1376,1370,1370,1365,1365,1359,1359,1359,1354,1354,1354,1354,1349,1349,1349,1343,1343,1338,1333,1333,1328,1328,1328,1328,1328,1328,1328,1328,1322,1322,1317,1317,1322,1317,1312,1307,1307,1302,1302,1307,1307,1302,1302,1302,1302,1302,1297,1292,1292,1288,1288,1288,1288,1288,1283,1283,1283,1283,1283,1283,1278,1278,1273,1268,1268,1268,1138,1134,1130,1130,1126,1126,1123,1119,1115,1115,1112,1108,1105,1101,1097,1097,1094,1094,1090,1090,1084,1080,1080,1080,0,0,0,0,0,0,0,0,0,0,0,0,0,0,0,0,0,0,0,0,0,0,0,0,0,0,0,0,0,0,0,0,0
