0,0,0,0,0,0,0,0,0,0,1387,1387,1387,1387,1387,1387,1387,1387,1387,1387,1387,1387,1387,1381,1381,1381,1381,1387,1381,1381,1387,1387,1387,1387,1387,1387,1387,1387,1387,1381,1381,1381,1381,1381,1381,1381,1381,1387,1387,1387,1387,1387,1387,1381,1381,1376,1376,1376,0,935,935,935,933,933,928,928,925,923,923,923,923,923,923,923,923,925,925,928,930,933,935,935,935,938,940,943,943,943,946,946,0,0,0,1392,1387,1387,1387,1387,1387,1387,1387,1387,1387,1387,1387,1381,1381,1387,1381,1381,1387,1387,1387,1387,1381,1381,1381,1381,1381,1381,1376,1376,1381,1381,1387,1387,1387,1387,1387,1387,1387,1387,1381,1381,1387,1387,1381,1381,1381,1381,1381,1376,1376,1376,1376,1381,1381,1381,1387,1387,1387,1392,1387,1387,1387,1392,1392,1392,1387,1387,1387,1392,1392,1392,1108,1108,1108,1108,1108,1108,1112,1112,1112,1112,1112,1115,1115,1115,1115,1115,1115,1115,1115,1115,0,0,0,0,0,0,0,0,0,0,691,688,687,687,686,684,684,683,682,680,679,678,675,675,674,674,674,674,674,674,675,676,679,680,682,683,686,687,687,690,691,693,694,694,696,697,0,0,0,0,0,0,0,1264,1264,1264,1264,1264,1264,1264,1264,1264,1264,1264,1268,1268,1273,1273,1273,1392,1392,1387,1387,1387,1387,1387,1387,1387,1387,1387,1381,1381,1381,1387,1381,1381,1387,1381,1381,1381,1381,1381,1381,1381,1381,1387,1381,1381,1381,1381,1381,1381,1387,1387,1387,1381,1381,1381,1381,1381,1381,1381,1381,1381,1381,1381,1381,1381,1381,1381,1381,1381,1381,1381,1381,1381,1381,1381,1381,1376,1376,1381,1381,1381,1376,1376,1381,1381,1381,1381,1381,1381,1387,1387,1381,1381,1381,1381,1381,1381,1381,1381,1387,1387,1387,1054,1054,1050,1050,1047,1047,1044,1041,1041,1041,1041,1038,1038,1038,1038,1038,1041,1041,1044,1047,1050,1050,1054,1054,1054,1381,1381,1381,1376,1376,1376,1376,1376,1381,1381,1376,1376,1376,1376,1376,1376,1376,1376,1376,1376,1376,1376,1376,1376,1376,1376,1376,1376,1376,1376,1376,1376,1376,1376,1376,1376,1376,1376,1376,1376,1376,1376,1376,1376,1376,1376,1376,1376,1376,1376,1376,1376,1376,1376,1376,1376,1376,1376,1370,1370,1376,1376,1376,1376,1376,1376,1376,1376,1370,1370,1370,1376,1376,1376,1376,1376,1376,1376,1370,1370,1370,1370,1370,1370,1370,1370,1370,1370,1370,1370,1370,1370,1370,1370,1370,1370,1370,1370,1370,1370,1370,1376,1376,1376,1376,1370,1370,1370,1370,1370,1370,1365,1365,1359,1359,1365,1365,1365,1370,1370,1370,1370,1370,1370,1370,1365,1365,1365,1365,1365,1365,1365,1365,1365,1365,1359,1359,1365,1359,1359,1359,1359,1359,1359,1359,1359,1359,1359,1359,1359,1359,1359,1354,1354,1354,1354,1354,1354,1349,1349,1349,1349,1349,1349,1343,1343,1343,1338,1338,1338,1338,1333,1333,1333,1328,1328,1322,1165,1165,1161,1161,1157,1157,1153,1149,1149,1141,1138,1134,1134,1134,1134,1134,1138,1138,1141,1141,1138,1138,1134,1134,1130,1123,1115,1108,1105,1101,1101,1097,1094,1094,1090,1087,1084,1084,1084,1084,1084,1084,1087,946,946,946,946,943,943,940,940,940,940,938,938,938,940,943,946,946,946,946,946,946,946,0,0,0,0,0,0,0,0,0,0,0,0,0,0,0,0,0,0,0,0,0,0,0,0,0,0,0,0,0,0,0,0,0,0
0,0,0,0,0,0,0,0,0,1381,1381,1381,1376,1376,1381,1381,1381,1381,1381,1381,1381,1381,1381,1376,1376,1376,1381,1381,1376,1376,1381,1387,1387,1387,1387,1387,1387,1387,1381,1381,1381,1381,1381,1376,1376,1376,1376,1381,1381,1381,1387,1381,1381,1376,1370,1365,1365,1370,0,935,935,935,935,933,930,930,925,925,925,923,923,923,923,923,923,925,925,928,930,933,935,935,935,938,940,943,943,943,946,946,0,0,0,1392,1381,1381,1381,1381,1381,1381,1381,1381,1381,1381,1381,1381,1381,1381,1381,1381,1381,1381,1381,1381,1381,1381,1376,1376,1376,1376,1370,1370,1376,1376,1381,1381,1381,1381,1381,1381,1381,1381,1381,1381,1381,1381,1381,1381,1376,1376,1376,1376,1376,1376,1376,1376,1376,1376,1376,1376,1376,1376,1381,1381,1387,1387,1387,1387,1387,1387,1387,1387,1387,1387,1108,1108,1108,1108,1108,1108,1108,1112,1112,1112,1112,1112,1112,1115,1115,1115,1115,1115,1115,1115,0,0,0,0,0,0,0,0,0,0,691,690,687,687,686,684,684,683,682,682,680,679,676,675,675,675,674,674,675,675,675,676,680,680,682,683,687,687,688,690,691,693,694,694,696,0,0,0,0,0,0,0,0,1264,1264,1264,1264,1264,1264,1264,1264,1264,1264,1268,1268,1273,1273,1273,1273,1392,1387,1387,1381,1381,1381,1381,1381,1381,1381,1381,1381,1381,1381,1381,1381,1381,1381,1381,1381,1376,1376,1376,1376,1376,1376,1376,1376,1376,1381,1381,1381,1381,1381,1381,1376,1376,1376,1376,1376,1381,1376,1376,1381,1381,1381,1381,1381,1376,1376,1376,1376,1376,1376,1376,1376,1376,1376,1376,1376,1376,1376,1376,1376,1376,1376,1376,1376,1376,1376,1376,1376,1376,1381,1381,1376,1376,1376,1376,1376,1376,1376,1376,1381,1387,1387,1057,1057,1054,1054,1047,1047,1044,1044,1041,1041,1041,1038,1038,1038,1038,1038,1041,1041,1044,1047,1050,1050,1054,1054,1054,1370,1370,1370,1376,1376,1376,1376,1376,1376,1376,1376,1370,1370,1370,1370,1370,1370,1370,1370,1370,1370,1370,1370,1370,1370,1370,1370,1370,1370,1370,1370,1370,1370,1370,1370,1370,1370,1370,1370,1370,1370,1370,1370,1376,1376,1376,1376,1376,1376,1376,1376,1376,1370,1370,1370,1370,1370,1370,1370,1370,1370,1370,1376,1376,1376,1376,1370,1370,1370,1370,1370,1370,1370,1370,1370,1370,1370,1370,1370,1370,1370,1370,1370,1370,1370,1370,1365,1365,1365,1365,1365,1365,1365,1365,1365,1365,1365,1365,1365,1365,1365,1365,1365,1365,1365,1370,1365,1365,1365,1365,1365,1365,1365,1359,1359,1365,1365,1365,1365,1370,1370,1365,1365,1365,1359,1359,1359,1359,1359,1359,1359,1359,1359,1359,1359,1359,1359,1359,1354,1354,1359,1354,1354,1354,1354,1354,1354,1354,1354,1354,1354,1354,1354,1354,1354,1354,1354,1354,1349,1349,1349,1343,1343,1343,1343,1343,1343,1338,1338,1338,1338,1333,1333,1333,1328,1317,1317,1165,1165,1161,1161,1157,1153,1149,1149,1145,1141,1138,1134,1134,1134,1134,1138,1138,1138,1141,1141,1138,1134,1134,1130,1126,1119,1112,1108,1101,1101,1097,1094,1094,1090,1090,1087,1084,1084,1084,1080,1080,1084,1084,946,946,943,943,943,943,940,940,940,940,938,938,938,940,943,946,946,946,946,946,946,946,0,0,0,0,0,0,0,0,0,0,0,0,0,0,0,0,0,0,0,0,0,0,0,0,0,0,0,0,0,0,0,0,0,0
0,0,0,0,0,0,0,0,0,1370,1370,1370,1370,1370,1370,1370,1370,1376,1376,1376,1376,1376,1376,1376,1370,1370,1376,1376,1376,1376,1376,1381,1387,1387,1387,1387,1387,1387,1381,1381,1381,1376,1376,1376,1376,1370,1370,1376,1376,1376,1381,1376,1376,1370,1370,1365,1365,1370,0,935,935,935,935,935,933,933,928,928,925,925,925,925,925,925,925,925,928,930,930,933,935,935,938,940,943,943,943,943,946,946,946,0,1370,0,1370,1370,1376,1376,1376,1376,1370,1370,1376,1381,1381,1376,1376,1376,1376,1376,1376,1376,1376,1376,1376,1376,1376,1370,1370,1370,1370,1370,1370,1370,1370,1376,1376,1370,1370,1370,1370,1370,1370,1370,1370,1376,1376,1370,1370,1370,1370,1370,1370,1370,1370,1370,1376,1370,1370,1376,1376,1376,1376,1376,1376,1376,1387,1387,1387,1387,1387,1387,1112,1112,1108,1108,1108,1108,1108,1108,1108,1108,1108,1108,1108,1108,1108,1112,1112,1112,1112,1112,1112,1112,0,0,0,0,0,0,0,0,0,0,691,690,687,687,687,686,684,683,683,682,680,679,678,676,676,675,675,675,675,675,676,679,680,680,682,683,687,687,690,691,693,694,694,696,696,0,0,0,0,0,0,0,0,0,1268,1268,1268,1268,1264,1264,1264,1264,1264,1268,1268,1273,1273,1273,1283,1392,1387,1381,1381,1381,1381,1381,1376,1376,1376,1376,1376,1376,1376,1376,1376,1376,1376,1376,1370,1370,1370,1376,1376,1376,1370,1370,1370,1370,1370,1370,1370,1370,1376,1376,1370,1370,1370,1370,1370,1370,1370,1370,1376,1376,1376,1376,1376,1370,1370,1370,1370,1370,1370,1370,1370,1370,1370,1370,1370,1370,1370,1376,1376,1376,1376,1376,1376,1376,1376,1376,1376,1376,1376,1376,1376,1376,1376,1370,1370,1370,1370,1370,1376,1376,1057,1057,1057,1057,1054,1050,1050,1047,1044,1044,1041,1041,1041,1041,1041,1041,1041,1041,1044,1044,1050,1050,1050,1054,1054,1365,1365,1365,1370,1370,1370,1370,1370,1370,1370,1370,1370,1370,1365,1365,1365,1365,1365,1365,1365,1365,1365,1365,1365,1365,1365,1365,1365,1365,1365,1365,1365,1365,1365,1365,1365,1365,1365,1365,1365,1365,1365,1365,1365,1365,1365,1365,1365,1370,1370,1370,1370,1370,1370,1370,1370,1370,1365,1365,1365,1365,1365,1365,1370,1370,1370,1370,1370,1370,1365,1365,1365,1365,1365,1365,1365,1365,1365,1365,1365,1365,1365,1365,1365,1365,1365,1365,1359,1359,1359,1359,1359,1359,1354,1354,1359,1359,1359,1359,1359,1359,1365,1365,1365,1359,1359,1359,1359,1359,1359,1359,1359,1359,1354,1354,1359,1359,1359,1359,1359,1359,1365,1359,1359,1359,1354,1354,1354,1354,1354,1354,1359,1359,1354,1354,1354,1354,1354,1354,1354,1354,1354,1354,1354,1354,1354,1354,1354,1354,1349,1349,1349,1354,1349,1349,1349,1349,1349,1349,1349,1349,1349,1343,1343,1338,1338,1343,1343,1343,1343,1338,1338,1338,1333,1333,1328,1317,1317,1169,1165,1165,1161,1153,1149,1149,1145,1145,1141,1138,1138,1134,1134,1138,1141,1141,1141,1141,1138,1138,1134,1130,1126,1123,1119,1112,1108,1101,1097,1097,1094,1094,1090,1087,1087,1084,1084,1084,1080,1080,1080,946,946,946,943,943,943,943,940,940,940,940,938,938,938,940,940,946,946,946,946,946,946,946,0,0,0,0,0,0,0,0,0,0,0,0,0,0,0,0,0,0,0,0,0,0,0,0,0,0,0,0,0,0,0,0,0,0
0,0,0,0,0,0,0,0,0,1365,1365,1370,1370,1370,1370,1370,1370,1370,1370,1370,1370,1370,1370,1370,1370,1370,1370,1370,1370,1370,1370,1381,1381,1381,1381,1381,1387,1381,1376,1376,1376,1376,1376,1370,1370,1370,1370,1370,1370,1370,1376,1376,1370,1370,1370,1365,1365,1365,1365,0,935,935,935,935,935,933,930,928,925,925,925,925,925,925,925,925,928,930,935,935,935,935,938,943,943,943,943,946,946,948,0,0,0,1370,1370,1370,1370,1370,1370,1376,1370,1370,1370,1370,1370,1370,1370,1370,1370,1370,1370,1370,1376,1376,1370,1370,1370,1370,1370,1365,1365,1365,1370,1370,1370,1370,1370,1370,1370,1370,1370,1370,1370,1365,1365,1370,1365,1365,1365,1365,1365,1365,1365,1365,1370,1370,1370,1370,1370,1370,1370,1370,1370,1370,1370,1376,1387,1387,1381,1381,1381,1381,1105,1105,1105,1105,1105,1105,1105,1105,1105,1105,1105,1105,1108,1108,1108,1108,1108,1108,1105,1105,1105,1105,0,0,0,0,0,0,0,0,0,0,691,690,687,687,687,687,684,684,683,683,682,680,679,678,676,676,676,676,676,676,678,679,680,682,682,684,688,688,690,691,694,694,696,697,697,0,0,0,0,0,0,0,0,0,1268,1268,1268,1268,1264,1264,1264,1264,1264,1268,1273,1273,1273,1278,1283,1283,1381,1381,1376,1376,1376,1376,1370,1370,1370,1370,1370,1370,1370,1370,1370,1370,1370,1370,1370,1370,1370,1370,1370,1370,1370,1370,1365,1365,1370,1365,1365,1365,1365,1365,1365,1365,1370,1365,1365,1370,1370,1370,1370,1370,1370,1370,1370,1370,1370,1370,1365,1365,1370,1370,1365,1365,1370,1370,1370,1370,1370,1370,1370,1376,1370,1370,1370,1370,1370,1370,1370,1370,1370,1370,1370,1370,1370,1370,1370,1365,1365,1370,1370,1370,0,1060,1060,1057,1054,1050,1050,1050,1047,1044,1044,1041,1041,1041,1041,1041,1041,1041,1044,1047,1050,1054,1054,1054,1054,1359,1359,1359,1365,1365,1370,1370,1370,1370,1370,1370,1365,1365,1365,1365,1359,1359,1359,1359,1359,1359,1359,1359,1359,1359,1359,1359,1359,1359,1359,1359,1359,1365,1365,1365,1359,1359,1365,1365,1365,1359,1359,1359,1359,1359,1359,1359,1359,1359,1359,1359,1359,1365,1365,1365,1365,1365,1365,1365,1359,1359,1359,1365,1365,1365,1365,1365,1365,1359,1359,1359,1359,1359,1359,1359,1359,1359,1359,1359,1359,1359,1359,1359,1359,1359,1359,1359,1354,1354,1354,1354,1354,1354,1354,1354,1354,1354,1354,1354,1354,1354,1359,1359,1359,1359,1354,1354,1354,1354,1354,1354,1354,1354,1354,1354,1354,1354,1354,1354,1354,1359,1359,1354,1354,1354,1354,1354,1354,1354,1354,1354,1354,1354,1354,1354,1354,1354,1354,1354,1349,1349,1349,1349,1349,1349,1349,1349,1349,1349,1349,1349,1349,1349,1349,1349,1349,1349,1349,1349,1349,1349,1349,1349,1343,1338,1338,1338,1338,1338,1338,1333,1333,1338,1333,1333,1328,1328,1169,1169,1165,1165,1157,1153,1149,1149,1145,1141,1138,1138,1138,1138,1138,1138,1141,1141,1141,1141,1134,1134,1130,1126,1123,1119,1115,1108,1105,1097,1094,1094,1090,1090,1090,1087,1084,1080,1080,1084,1080,1077,1077,946,946,943,943,943,943,943,940,940,940,940,940,938,938,940,940,946,946,946,946,946,946,946,0,0,0,0,0,0,0,0,0,0,0,0,0,0,0,0,0,0,0,0,0,0,0,0,0,0,0,0,0,0,0,0,0,0
0,0,0,0,0,0,0,0,0,1365,1365,1365,1365,1365,1365,1365,1365,1365,1365,1365,1365,1365,1365,1365,1365,1365,1365,1365,1365,1365,1365,1370,1376,1376,1376,1376,1381,1376,1376,1370,1370,1370,1370,1370,1365,1365,1365,1365,1365,1365,1365,1365,1365,1365,1365,1365,1365,1365,1365,0,935,935,935,935,935,933,933,930,928,928,925,925,925,925,925,928,928,930,935,935,938,938,940,943,943,943,943,943,946,946,0,0,0,1370,1370,1370,1370,1370,1370,1370,1370,1370,1365,1365,1365,1365,1365,1365,1370,1370,1370,1370,1370,1370,1370,1370,1370,1365,1365,1365,1365,1365,1365,1365,1365,1365,1365,1365,1365,1370,1370,1365,1365,1365,1365,1365,1354,1354,1359,1359,1359,1359,1359,1365,1365,1370,1370,1370,1370,1370,1370,1370,1370,1370,1370,1376,1387,1387,1381,1381,1094,1094,1101,1101,1101,1101,1105,1105,1105,1105,1105,1105,1105,1105,1105,1105,1105,1105,1105,1105,1105,1101,1101,1101,1105,0,0,0,0,0,0,0,0,0,690,690,690,687,687,687,684,684,683,683,682,680,680,679,678,676,676,676,676,676,678,680,680,682,683,686,687,688,691,693,694,696,696,697,697,0,0,0,0,0,0,0,0,0,1278,1273,1273,1268,1268,1268,1264,1264,1268,1268,1273,1273,1273,1278,1283,1283,1381,1376,1370,1370,1370,1370,1370,1370,1370,1365,1365,1365,1365,1365,1365,1365,1365,1365,1365,1365,1365,1365,1365,1365,1365,1365,1365,1365,1365,1365,1365,1365,1365,1365,1365,1365,1365,1365,1365,1365,1365,1365,1365,1365,1365,1365,1365,1365,1365,1365,1365,1365,1365,1365,1365,1365,1365,1365,1365,1365,1365,1370,1370,1370,1370,1370,1370,1370,1370,1370,1370,1370,1370,1370,1370,1370,1370,1370,1365,1365,1365,1365,1365,1365,1354,1063,1063,1060,1057,1054,1054,1050,1047,1047,1044,1044,1041,1041,1041,1041,1041,1044,1044,1050,1054,1054,1057,1057,1354,1354,1354,1354,1359,1359,1365,1365,1365,1365,1365,1365,1359,1359,1359,1359,1359,1354,1354,1354,1354,1354,1354,1354,1354,1354,1354,1354,1354,1354,1354,1354,1354,1359,1359,1359,1354,1354,1359,1359,1354,1354,1359,1359,1354,1354,1354,1354,1354,1354,1354,1354,1354,1354,1354,1354,1359,1359,1359,1359,1359,1359,1359,1359,1359,1359,1359,1359,1359,1359,1359,1359,1359,1359,1354,1354,1354,1354,1354,1354,1354,1354,1354,1354,1359,1354,1354,1354,1354,1354,1354,1354,1354,1354,1349,1349,1354,1354,1354,1354,1354,1354,1354,1354,1354,1354,1354,1354,1354,1349,1349,1354,1354,1349,1349,1349,1354,1354,1354,1354,1354,1354,1354,1354,1354,1354,1349,1349,1349,1349,1349,1349,1354,1354,1349,1349,1349,1349,1349,1349,1349,1349,1349,1349,1343,1343,1343,1343,1343,1343,1343,1338,1338,1343,1343,1343,1338,1338,1343,1343,1343,1219,1219,1223,1223,1223,1223,1223,1338,1338,1333,1333,1333,1333,1333,1328,1328,1328,1169,1169,1165,1165,1153,1153,1149,1149,1141,1141,1138,1138,1138,1138,1138,1138,1141,1141,1138,1138,1134,1134,1126,1123,1119,1119,1115,1108,1097,1094,1094,1090,1090,1087,1087,1084,1084,1080,1080,1084,1080,1077,1077,948,946,943,943,943,943,943,943,940,940,940,940,940,940,940,940,946,946,946,946,948,948,948,0,0,0,0,0,0,0,0,0,0,0,0,0,0,0,0,0,0,0,0,0,0,0,0,0,0,0,0,0,0,0,0,0,0
0,0,0,0,0,0,0,0,0,1365,1365,1365,1365,1365,1365,1359,1359,1359,1359,1359,1359,1359,1359,1359,1359,1354,1354,1354,1359,1359,1359,1365,1370,1370,1370,1370,1370,1370,1370,1365,1365,1365,1365,1365,1365,1359,1359,1365,1365,1359,1359,1365,1365,1359,1359,1354,1354,1359,0,0,0,938,935,935,935,935,933,930,928,928,925,925,925,925,925,928,928,933,935,935,938,938,940,943,943,943,943,943,946,946,0,1359,0,1365,1365,1370,1365,1365,1365,1365,1365,1365,1365,1359,1359,1359,1359,1359,1365,1365,1365,1365,1370,1370,1365,1365,1365,1365,1365,1365,1365,1365,1359,1359,1365,1359,1359,1365,1365,1365,1365,1365,1365,1359,1359,1349,1349,1354,1354,1354,1354,1359,1359,1359,1365,1365,1370,1370,1370,1370,1370,1370,1365,1365,1370,1084,1084,1087,1087,1087,1090,1090,1094,1097,1097,1101,1101,1105,1105,1105,1105,1105,1105,1105,1105,1105,1101,1101,1101,1101,1101,1097,1097,1097,1101,0,0,0,0,0,0,0,0,688,688,690,690,690,690,687,686,684,684,683,682,682,680,679,679,678,678,678,678,679,680,680,680,682,683,687,687,690,691,693,694,696,696,697,698,0,0,0,0,0,0,0,0,0,1283,1278,1273,1273,1268,1268,1264,1264,1268,1268,1273,1273,1273,1278,1283,1283,1283,1370,1365,1365,1365,1365,1365,1365,1365,1365,1365,1365,1359,1359,1359,1354,1354,1354,1359,1359,1359,1359,1359,1359,1359,1359,1359,1359,1359,1359,1359,1359,1359,1359,1359,1359,1359,1359,1359,1359,1359,1359,1359,1359,1365,1365,1365,1365,1365,1365,1365,1365,1365,1359,1359,1359,1354,1354,1354,1354,1365,1365,1365,1365,1365,1365,1365,1365,1365,1365,1365,1365,1365,1365,1365,1365,1365,1365,1359,1359,1359,1359,1354,1354,1354,1067,1067,1063,1057,1057,1054,1054,1050,1050,1050,1044,1044,1044,1044,1044,1044,1047,1050,1054,1054,1057,1057,1057,1349,1349,1349,1349,1354,1354,1359,1359,1359,1359,1359,1359,1359,1354,1354,1354,1354,1354,1354,1354,1354,1354,1354,1354,1354,1354,1354,1349,1349,1349,1349,1349,1349,1354,1354,1354,1354,1354,1354,1354,1354,1354,1354,1354,1354,1354,1354,1354,1354,1349,1349,1349,1349,1349,1349,1349,1349,1349,1349,1354,1354,1354,1354,1354,1354,1354,1354,1354,1354,1354,1354,1354,1354,1354,1354,1354,1354,1354,1354,1354,1354,1354,1354,1354,1354,1354,1354,1354,1354,1354,1354,1349,1349,1349,1349,1349,1349,1349,1349,1349,1349,1354,1349,1349,1349,1349,1349,1349,1349,1349,1349,1349,1349,1349,1349,1349,1349,1349,1349,1349,1349,1349,1349,1349,1349,1349,1349,1349,1349,1349,1349,1349,1349,1349,1349,1349,1343,1343,1343,1343,1343,1343,1343,1343,1343,1343,1343,1343,1338,1338,1338,1338,1338,1338,1338,1338,1338,1338,1338,1338,1343,1219,1219,1223,1223,1223,1223,1223,1219,1214,1214,1214,1214,1214,1333,1328,1328,0,1165,1165,1165,1165,1153,1149,1149,1141,1141,1141,1138,1138,1138,1138,1138,1138,1141,1141,1138,1134,1134,1130,1126,1123,1119,1115,1112,1105,1097,1094,1094,1090,1087,1087,1084,1084,1080,1080,1080,1080,1080,1080,946,946,946,946,946,946,943,943,943,940,940,940,940,940,940,940,940,943,946,948,948,948,948,948,0,0,0,0,0,0,0,0,0,0,0,0,0,0,0,0,0,0,0,0,0,0,0,0,0,0,0,0,0,0,0,0,0,0
0,0,0,0,0,0,0,0,0,1359,1359,1359,1359,1359,1359,1359,1359,1354,1354,1354,1359,1359,1359,1354,1354,1354,1354,1354,1354,1349,1349,1349,1359,1359,1365,1365,1365,1365,1365,1365,1365,1359,1359,1359,1359,1359,1359,1359,1359,1359,1359,1359,1359,1354,1354,1354,1354,1354,0,0,0,938,935,935,935,935,933,930,930,928,925,925,925,925,925,928,930,933,935,935,938,938,940,943,943,943,943,946,946,0,0,0,1359,1359,1365,1365,1365,1365,1365,1359,1359,1354,1354,1354,1354,1354,1354,1359,1359,1359,1365,1365,1365,1365,1365,1365,1365,1365,1365,1359,1359,1359,1359,1359,1359,1359,1359,1359,1359,1359,1359,1359,1359,1359,1359,1349,1349,1349,1349,1349,1354,1354,1359,1359,1359,1365,1365,1370,1370,1370,1370,1073,1073,1077,1077,1080,1084,1084,1087,1087,1087,1090,1090,1094,1094,1094,1097,1101,1101,1101,1101,1101,1101,1101,1105,1101,1101,1101,1101,1101,1097,1094,1094,1094,1097,1101,0,0,0,0,0,0,0,688,688,690,690,690,690,688,687,686,684,683,683,682,682,680,679,679,679,679,679,679,680,680,682,683,684,687,687,690,691,693,694,696,696,697,700,0,0,0,0,0,0,0,0,0,1283,1283,1278,1273,1268,1268,1268,1268,1268,1273,1273,1273,1278,1283,1283,1283,1283,1365,1359,1354,1354,1354,1359,1359,1359,1359,1359,1359,1354,1354,1354,1354,1354,1354,1354,1354,1354,1354,1354,1354,1354,1354,1354,1354,1354,1354,1354,1359,1359,1359,1354,1354,1354,1354,1349,1349,1354,1354,1354,1349,1349,1354,1354,1359,1359,1359,1359,1359,1359,1359,1354,1354,1349,1349,1349,1349,1354,1359,1359,1359,1359,1359,1359,1365,1359,1359,1359,1359,1359,1359,1359,1359,1359,1354,1354,1354,1354,1354,1354,1354,1354,1067,1067,1067,1060,1057,1057,1057,1054,1050,1050,1050,1047,1047,1044,1044,1044,1047,1050,1054,1057,1057,1057,1060,1349,1349,1349,1349,1349,1354,1354,1354,1354,1354,1354,1354,1354,1354,1354,1354,1354,1349,1349,1349,1349,1349,1349,1349,1349,1349,1349,1349,1349,1349,1349,1349,1349,1349,1349,1349,1349,1349,1354,1354,1354,1354,1354,1354,1349,1349,1349,1349,1349,1349,1343,1343,1343,1343,1343,1343,1343,1349,1349,1349,1349,1349,1349,1349,1349,1349,1349,1349,1354,1354,1349,1349,1354,1349,1349,1349,1349,1349,1349,1349,1349,1349,1349,1349,1349,1349,1349,1349,1349,1349,1349,1349,1349,1349,1349,1349,1349,1349,1349,1349,1349,1349,1349,1343,1343,1343,1343,1343,1343,1343,1343,1343,1343,1343,1343,1343,1343,1343,1343,1343,1343,1338,1338,1343,1343,1343,1343,1338,1338,1338,1343,1343,1343,1343,1343,1343,1338,1338,1338,1338,1338,1338,1338,1338,1338,1338,1338,1338,1333,1333,1333,1333,1333,1333,1333,1333,1333,1333,1333,1333,1333,1343,1227,1223,1219,1219,1223,1219,1214,1214,1214,1214,1214,1214,1219,1219,1328,0,0,1153,1153,1153,1153,1149,1141,1141,1141,1141,1138,1138,1138,1138,1138,1138,1141,1138,1134,1134,1130,1126,1123,1119,1119,1115,1112,1105,1097,1094,1090,1087,1087,1084,1084,1080,1080,1080,1080,1080,1084,951,951,946,946,946,946,946,946,946,943,943,943,943,940,940,940,940,940,943,946,948,948,948,948,948,0,0,0,0,0,0,0,0,0,0,0,0,0,0,0,0,0,0,0,0,0,0,0,0,0,0,0,0,0,0,0,0,0,0
0,0,0,0,0,0,0,0,0,1354,1354,1354,1354,1349,1349,1354,1354,1349,1349,1349,1349,1354,1354,1349,1349,1349,1349,1349,1349,1349,1343,1343,1354,1354,1354,1354,1354,1354,1359,1359,1359,1354,1354,1354,1354,1354,1354,1354,1359,1359,1359,1359,1359,1354,1354,1354,1354,1354,0,0,0,0,938,938,935,935,933,933,930,930,928,928,928,928,928,930,930,933,935,935,938,938,943,943,943,943,946,946,0,946,0,1354,1354,1354,1359,1359,1359,1359,1354,1354,1354,1354,1349,1349,1349,1349,1349,1349,1354,1354,1359,1359,1359,1359,1359,1359,1359,1359,1359,1359,1359,1359,1354,1354,1354,1354,1354,1354,1354,1359,1359,1359,1359,1354,1354,1354,1349,1349,1349,1349,1349,1354,1354,1359,1359,1365,1365,1365,1365,1370,1370,1073,1073,1077,1077,1080,1080,1084,1084,1084,1087,1087,1090,1090,1090,1094,1094,1097,1101,1101,1101,1101,1101,1101,1105,1101,1101,1101,1097,1097,1097,1094,1094,1094,1097,1101,0,0,0,0,0,0,0,688,688,690,690,690,691,688,687,686,686,684,683,682,682,680,679,679,679,679,679,679,680,680,682,683,687,687,688,690,691,693,694,696,696,697,700,0,0,0,0,0,0,0,0,0,1288,1288,1283,1278,1273,1268,1268,1268,1268,1273,1273,1273,1278,1283,1283,1283,1288,1354,1354,1349,1349,1349,1349,1354,1354,1349,1349,1354,1354,1354,1349,1349,1349,1349,1349,1349,1349,1349,1349,1349,1349,1349,1354,1349,1349,1349,1349,1354,1354,1354,1354,1349,1349,1349,1349,1349,1349,1349,1349,1349,1349,1349,1349,1349,1349,1349,1354,1354,1354,1354,1349,1349,1349,1349,1343,1343,1354,1354,1354,1354,1354,1354,1354,1359,1359,1359,1359,1359,1359,1354,1354,1354,1354,1354,1354,1354,1354,1354,1354,1354,1354,1067,1067,1063,1060,1057,1057,1057,1054,1054,1054,1050,1050,1050,1050,1050,1050,1050,1054,1054,1057,1060,1063,1063,1349,1349,1349,1349,1349,1349,1349,1349,1349,1349,1349,1349,1349,1349,1349,1349,1349,1349,1349,1349,1349,1349,1349,1343,1343,1343,1343,1343,1343,1343,1343,1343,1343,1349,1343,1343,1343,1343,1349,1349,1349,1349,1349,1349,1349,1349,1343,1343,1343,1343,1343,1338,1338,1338,1338,1338,1338,1343,1343,1343,1343,1343,1343,1338,1338,1338,1349,1349,1349,1349,1349,1349,1349,1349,1349,1343,1343,1343,1343,1349,1349,1349,1343,1343,1349,1349,1349,1349,1349,1349,1349,1343,1343,1343,1343,1343,1343,1343,1343,1343,1343,1343,1343,1338,1338,1338,1338,1338,1338,1338,1338,1338,1338,1338,1338,1338,1338,1338,1338,1338,1338,1333,1333,1338,1333,1333,1333,1338,1338,1338,1338,1338,1338,1338,1338,1338,1333,1333,1333,1333,1333,1333,1333,1333,1333,1333,1333,1333,1333,1333,1333,1333,1333,1333,1333,1333,1328,1328,1328,1328,1328,1223,1223,1223,1219,1219,1219,1214,1214,1214,1214,1214,1214,1214,1214,1219,1219,1219,0,0,0,0,1145,1141,1141,1141,1141,1141,1141,1141,1141,1141,1138,1138,1138,1138,1134,1130,1126,1126,1123,1119,1115,1108,1108,1094,1094,1090,1087,1084,1084,1080,1080,1080,1080,1080,1077,1077,948,948,948,946,946,946,946,946,946,946,946,946,943,943,943,943,940,940,943,943,948,948,948,948,948,951,0,0,0,0,0,0,0,0,0,0,0,0,0,0,0,0,0,0,0,0,0,0,0,0,0,0,0,0,0,0,0,0,0,0
0,0,0,0,0,0,0,0,0,1349,1349,1349,1349,1349,1349,1349,1349,1349,1349,1349,1349,1349,1349,1349,1343,1343,1343,1343,1343,1343,1338,1338,1343,1343,1349,1349,1349,1349,1349,1349,1349,1349,1349,1349,1349,1349,1354,1354,1354,1354,1354,1354,1354,1354,1349,1349,1349,1354,0,0,0,0,938,935,935,935,935,933,933,930,930,928,928,928,928,930,930,933,935,935,935,943,943,943,943,943,946,946,946,0,0,0,1354,1354,1354,1359,1354,1354,1354,1354,1354,1349,1349,1349,1349,1349,1349,1349,1349,1349,1349,1349,1354,1349,1349,1349,1343,1343,1349,1354,1354,1354,1354,1354,1354,1354,1349,1349,1354,1354,1354,1354,1354,1354,1349,1349,1349,1349,1349,1349,1349,1354,1354,1359,1359,1365,1365,1365,1365,1370,1077,1077,1077,1077,1077,1080,1080,1084,1084,1084,1087,1087,1087,1090,1090,1090,1090,1094,1097,1101,1101,1101,1105,1105,1105,1105,1101,1101,1097,1097,1094,1094,1090,1090,1094,0,0,0,0,0,0,0,0,0,690,690,691,691,691,691,691,687,686,684,684,682,682,680,680,679,679,679,679,679,680,680,682,683,687,687,690,691,691,694,696,696,697,698,700,703,0,0,0,0,0,0,0,0,1288,1288,1283,1278,1273,1268,1268,1268,1268,1273,1273,1278,1283,1283,1283,1288,1288,1349,1349,1349,1349,1349,1349,1349,1349,1349,1349,1349,1349,1349,1349,1343,1343,1343,1349,1349,1349,1349,1349,1349,1349,1349,1349,1349,1349,1349,1349,1349,1349,1349,1349,1349,1349,1349,1349,1349,1343,1343,1343,1343,1343,1343,1343,1343,1343,1343,1343,1349,1349,1349,1349,1343,1343,1343,1343,1343,1349,1349,1349,1349,1349,1349,1354,1354,1354,1354,1354,1354,1354,1354,1354,1354,1349,1349,1349,1349,1349,1349,1349,1349,1349,1067,1067,1063,1060,1057,1057,1057,1057,1054,1054,1054,1050,1050,1050,1050,1050,1050,1054,1054,1057,1060,1063,1067,1067,1349,1343,1343,1343,1343,1338,1338,1343,1343,1349,1343,1343,1343,1343,1349,1349,1349,1349,1349,1349,1349,1343,1343,1343,1343,1343,1343,1343,1343,1343,1343,1343,1343,1343,1343,1343,1343,1343,1343,1343,1343,1343,1343,1343,1343,1343,1343,1343,1343,1338,1338,1338,1333,1333,1333,1333,1338,1338,1338,1338,1338,1338,1338,1338,1338,1338,1338,1343,1343,1349,1349,1349,1343,1343,1338,1338,1338,1343,1338,1338,1343,1343,1343,1343,1343,1343,1343,1343,1343,1343,1338,1338,1338,1338,1338,1338,1338,1338,1338,1338,1338,1338,1333,1333,1333,1333,1333,1333,1333,1333,1333,1333,1333,1333,1333,1333,1333,1333,1333,1333,1333,1333,1333,1333,1328,1328,1333,1333,1333,1333,1333,1333,1333,1333,1333,1333,1333,1333,1333,1333,1333,1333,1328,1328,1328,1328,1328,1328,1328,1328,1328,1328,1328,1328,1328,1322,1322,1322,1317,1317,1219,1219,1223,1219,1219,1219,1214,1214,1214,1214,1214,1214,1214,1214,0,0,0,0,1141,0,1141,1141,1141,1141,1138,1138,1141,1141,1141,1141,1141,1138,1138,1138,1134,1134,1130,1126,1123,1119,1115,1112,1108,1105,1094,1090,1087,1087,1084,1080,1080,1080,1080,1077,1077,1077,1077,948,948,948,946,946,946,946,946,946,946,946,946,946,943,943,943,943,943,943,943,948,948,948,948,951,951,0,0,0,0,0,0,0,0,0,0,0,0,0,0,0,0,0,0,0,0,0,0,0,0,0,0,0,0,0,0,0,0,0,0
0,0,0,0,0,0,0,0,0,1343,1343,1343,1343,1343,1343,1343,1343,1349,1349,1349,1349,1349,1349,1343,1343,1338,1338,1343,1343,1338,1338,1338,1343,1343,1343,1343,1343,1343,1349,1349,1343,1343,1343,1343,1343,1349,1349,1349,1349,1349,1349,1354,1354,1354,1349,1349,1349,1354,0,0,0,0,0,935,935,935,935,933,933,930,930,930,928,928,928,930,930,933,935,935,935,943,943,943,946,946,946,946,0,0,0,0,1354,1354,1354,1354,1354,1349,1349,1349,1349,1349,1349,1349,1349,1349,1349,1349,1343,1343,1343,1343,1343,1343,1343,1343,1343,1343,1343,1349,1349,1349,1349,1349,1349,1349,1343,1343,1343,1349,1349,1349,1349,1349,1349,1349,1349,1349,1349,1349,1349,1349,1349,1354,1354,1359,1070,1070,1073,1073,1077,1077,1077,1077,1077,1080,1080,1080,1080,1084,1087,1087,1087,1090,1090,1090,1090,1094,1097,1101,1101,1101,1105,1105,1105,1105,1101,1097,1097,1094,1094,1094,1090,1090,1090,1090,0,0,0,0,0,0,0,0,690,690,691,691,691,691,691,690,687,686,684,683,683,682,680,680,680,680,680,680,680,680,682,683,688,688,690,691,693,694,696,696,698,701,701,703,0,0,0,0,0,0,0,0,0,1288,1288,1283,1278,1268,1268,1268,1273,1273,1273,1278,1283,1283,1288,1288,1288,1343,1343,1343,1343,1343,1349,1349,1349,1343,1343,1343,1343,1343,1343,1343,1343,1343,1343,1343,1343,1343,1343,1343,1343,1343,1343,1343,1343,1343,1343,1349,1343,1343,1343,1343,1343,1343,1343,1343,1343,1343,1343,1343,1343,1338,1338,1338,1338,1338,1338,1338,1343,1338,1338,1338,1338,1343,1343,1343,1343,1349,1349,1349,1349,1349,1349,1349,1349,1349,1349,1349,1349,1349,1349,1349,1349,1349,1343,1343,1343,1338,1338,1343,1343,1067,1067,1063,1063,1060,1060,1060,1057,1054,1054,1054,1054,1050,1050,1050,1050,1050,1054,1054,1057,1063,1063,1067,1067,1338,1338,1338,1333,1333,1333,1333,1338,1338,1338,1338,1338,1338,1338,1343,1343,1343,1343,1343,1343,1343,1343,1338,1338,1338,1338,1338,1338,1338,1338,1338,1338,1338,1338,1338,1338,1338,1343,1343,1343,1343,1343,1343,1343,1338,1338,1338,1338,1338,1338,1333,1333,1333,1333,1333,1333,1333,1333,1333,1333,1333,1333,1333,1333,1333,1333,1333,1333,1333,1333,1333,1333,1333,1338,1338,1338,1338,1338,1338,1338,1338,1338,1338,1338,1338,1333,1333,1333,1338,1338,1338,1333,1333,1333,1333,1333,1333,1333,1333,1333,1333,1333,1333,1333,1333,1333,1333,1333,1333,1333,1333,1333,1333,1328,1328,1328,1328,1328,1328,1322,1322,1322,1328,1328,1328,1328,1328,1328,1328,1328,1328,1328,1328,1333,1333,1328,1328,1328,1333,1328,1328,1328,1328,1328,1322,1322,1322,1322,1322,1322,1322,1322,1328,1328,1322,1322,1317,1317,1317,1312,1219,1219,1219,1214,1214,1214,1210,1210,1214,1214,1214,1214,1214,1214,0,0,0,0,0,1141,1141,1138,1138,1138,1138,1138,1138,1138,1141,1141,1138,1138,1138,1138,1134,1130,1126,1123,1123,1115,1112,1108,1105,1105,1094,1090,1087,1084,1080,1077,1077,1077,1077,1077,1077,1080,948,948,948,948,946,946,946,946,946,946,946,946,946,946,946,946,943,943,943,946,946,946,946,948,948,951,954,0,0,0,0,0,0,0,0,0,0,0,0,0,0,0,0,0,0,0,0,0,0,0,0,0,0,0,0,0,0,0,0,0,0
0,0,0,0,0,0,0,0,0,1338,1338,1338,1338,1343,1343,1343,1343,1343,1343,1343,1343,1343,1343,1343,1343,1338,1338,1343,1343,1338,1338,1338,1338,1338,1343,1343,1343,1343,1343,1343,1343,1343,1343,1343,1343,1343,1343,1343,1343,1343,1343,1343,1343,1343,1343,1343,1349,1354,0,0,0,0,0,938,938,935,935,935,933,933,930,930,930,930,930,930,930,933,933,935,935,943,943,946,946,946,946,946,946,0,0,1354,1354,1349,1349,1349,1349,1343,1343,1343,1343,1349,1343,1343,1343,1343,1343,1343,1343,1338,1338,1338,1338,1338,1333,1333,1333,1333,1333,1338,1343,1343,1343,1343,1343,1343,1338,1338,1338,1343,1343,1343,1349,1349,1349,1349,1349,1349,1349,1349,1349,1063,1063,1354,1070,1070,1070,1070,1073,1073,1077,1077,1077,1077,1077,1080,1080,1080,1080,1080,1084,1087,1087,1087,1090,1090,1090,1094,1097,1101,1101,1105,1105,1105,1105,1105,1101,1097,1097,1094,1090,1090,1090,1090,1090,1087,1087,0,0,0,0,0,0,0,690,690,691,693,693,691,691,690,688,687,686,684,683,682,682,680,680,680,680,680,680,682,682,683,688,688,690,691,693,694,696,696,698,701,703,703,704,0,0,0,0,0,0,0,0,1288,1283,1283,1278,1273,1273,1273,1273,1273,1273,1278,1283,1283,1288,1288,1288,1338,1338,1343,1343,1343,1343,1343,1343,1343,1343,1343,1343,1343,1343,1343,1343,1343,1343,1343,1343,1338,1338,1338,1338,1338,1343,1343,1338,1338,1343,1343,1343,1338,1338,1338,1338,1338,1338,1338,1338,1338,1338,1338,1338,1333,1333,1333,1333,1333,1333,1333,1333,1333,1333,1333,1333,1338,1338,1338,1338,1343,1343,1343,1343,1343,1343,1343,1343,1343,1343,1343,1343,1343,1343,1343,1338,1338,1338,1338,1338,1333,1333,1338,1338,1067,1067,1067,1063,1063,1060,1060,1060,1057,1057,1054,1054,1054,1054,1054,1054,1054,1054,1057,1060,1063,1067,1067,1067,1070,1338,1333,1333,1333,1333,1333,1333,1333,1333,1333,1333,1333,1333,1333,1338,1338,1338,1338,1338,1338,1338,1333,1333,1333,1333,1333,1333,1333,1333,1333,1333,1333,1333,1333,1333,1333,1338,1338,1333,1333,1338,1333,1333,1333,1333,1333,1333,1333,1333,1333,1333,1328,1328,1328,1328,1328,1328,1328,1328,1333,1333,1333,1333,1333,1333,1333,1333,1333,1333,1333,1328,1328,1328,1328,1333,1333,1333,1333,1333,1333,1333,1333,1333,1333,1328,1328,1328,1328,1328,1333,1333,1333,1333,1333,1333,1333,1328,1328,1328,1328,1328,1328,1328,1328,1328,1328,1328,1328,1328,1328,1328,1328,1328,1328,1322,1322,1322,1322,1317,1317,1317,1317,1322,1322,1322,1322,1328,1322,1322,1322,1322,1322,1322,1322,1328,1328,1328,1328,1328,1328,1322,1322,1322,1317,1317,1317,1317,1317,1317,1317,1317,1322,1322,1317,1317,1317,1312,1312,1312,1219,1219,1219,1214,1214,1214,1210,1210,1214,1210,1210,1210,1214,1214,0,0,0,0,1141,1138,1138,1138,1138,1138,1138,1138,1138,1138,1141,1141,1138,1138,1138,1138,1134,1130,1126,1123,1119,1115,1112,1108,1105,1101,1090,1087,1084,1080,1077,1077,1073,1073,1070,1070,1070,1070,946,946,946,946,946,946,946,946,946,946,946,943,943,946,946,946,946,946,946,946,946,946,946,948,948,951,954,0,0,0,0,0,0,0,0,0,0,0,0,0,0,0,0,0,0,0,0,0,0,0,0,0,0,0,0,0,0,0,0,0,0
0,0,0,0,0,0,0,0,0,1338,1338,1338,1338,1338,1338,1343,1343,1343,1343,1338,1338,1338,1343,1338,1338,1333,1333,1338,1338,1338,1333,1333,1333,1333,1338,1338,1338,1338,1343,1343,1343,1338,1338,1338,1338,1338,1338,1338,1338,1338,1338,1333,1333,1333,1333,1338,1338,0,0,0,0,0,0,0,940,938,938,935,935,933,933,933,933,933,933,933,933,933,933,935,935,943,943,946,946,946,946,948,0,0,0,0,1349,1349,1343,1343,1343,1343,1343,1343,1343,1343,1343,1343,1343,1343,1338,1338,1338,1338,1338,1333,1333,1333,1333,1328,1328,1328,1328,1328,1328,1328,1333,1338,1333,1333,1338,1333,1333,1338,1338,1338,1343,1343,1349,1349,1349,1349,1349,1349,1067,1063,1063,1063,1067,1067,1070,1073,1073,1073,1073,1073,1073,1077,1077,1077,1077,1080,1080,1080,1084,1084,1087,1087,1087,1090,1090,1094,1097,1101,1101,1105,1105,1105,1105,1105,1101,1101,1097,1094,1090,1090,1090,1090,1087,1087,1087,1087,0,0,0,0,0,0,0,696,694,694,693,693,691,691,688,687,686,686,684,682,682,682,680,680,680,680,682,682,683,686,688,688,690,691,694,696,696,697,700,703,703,703,704,0,0,0,0,0,0,0,0,0,1283,1283,1278,1278,1278,1278,1278,1278,1278,1283,1288,1288,1288,1288,1292,1338,1338,1338,1338,1338,1338,1338,1338,1338,1338,1338,1338,1338,1338,1338,1338,1338,1338,1338,1338,1333,1333,1333,1333,1333,1338,1338,1333,1333,1333,1338,1338,1338,1338,1338,1338,1338,1338,1338,1338,1338,1333,1333,1333,1328,1328,1328,1328,1328,1328,1328,1328,1328,1328,1328,1328,1333,1333,1333,1333,1333,1333,1333,1333,1338,1338,1338,1338,1338,1338,1338,1333,1333,1333,1333,1333,1333,1333,1333,1333,1333,1333,1333,1333,1067,1067,1067,1067,1063,1063,1060,1060,1057,1057,1054,1054,1054,1054,1054,1054,1054,1057,1057,1060,1063,1067,1067,1067,1070,1333,1333,1328,1328,1333,1333,1333,1333,1333,1328,1328,1328,1328,1328,1333,1333,1333,1338,1338,1333,1333,1333,1333,1328,1328,1328,1328,1328,1333,1333,1333,1333,1333,1333,1333,1333,1333,1333,1333,1333,1333,1333,1333,1333,1328,1328,1328,1328,1328,1328,1322,1322,1322,1322,1322,1328,1328,1328,1328,1328,1328,1328,1328,1328,1328,1328,1328,1328,1328,1322,1322,1322,1322,1322,1322,1322,1328,1328,1328,1328,1328,1328,1328,1328,1328,1322,1322,1322,1322,1328,1328,1328,1328,1328,1328,1328,1328,1328,1322,1322,1322,1328,1328,1328,1328,1328,1328,1328,1328,1322,1322,1322,1322,1322,1317,1317,1317,1317,1312,1312,1312,1312,1317,1317,1317,1317,1322,1317,1317,1317,1317,1317,1317,1322,1322,1322,1322,1328,1328,1322,1317,1317,1317,1312,1312,1312,1312,1312,1312,1312,1317,1317,1317,1312,1312,1312,1312,1312,1312,1219,1219,1219,1214,1214,1214,1210,1210,1214,1210,1210,1210,1214,0,0,0,0,1145,1141,1138,1138,1138,1138,1138,1138,1138,1134,1134,1138,1138,1138,1138,1134,1134,1134,1130,1123,1119,1115,1112,1108,1105,1101,1094,1087,1084,1084,1080,1077,1073,1070,1070,1067,1067,1070,1070,946,946,946,946,946,946,946,946,946,946,946,943,943,946,946,946,946,946,946,946,948,948,948,948,951,954,954,0,0,0,0,0,0,0,0,0,0,0,0,0,0,0,0,0,0,0,0,0,0,0,0,0,0,0,0,0,0,0,0,0,0
0,0,0,0,0,0,0,0,0,1333,1333,1333,1333,1338,1338,1338,1338,1338,1338,1338,1333,1333,1333,1333,1333,1333,1333,1333,1333,1333,1328,1328,1328,1328,1328,1328,1328,1328,1333,1333,1338,1338,1338,1338,1338,1338,1333,1333,1333,1333,1333,1333,1328,1328,1328,1328,1328,1328,0,0,0,0,0,0,943,943,940,940,938,935,933,933,933,933,933,933,933,933,935,935,938,943,946,946,946,946,946,948,954,0,0,0,1349,1343,1343,1338,1338,1338,1338,1338,1338,1338,1338,1338,1338,1338,1338,1338,1338,1333,1333,1333,1328,1328,1328,1328,1328,1328,1328,1328,1328,1328,1322,1322,1322,1322,1328,1333,1333,1333,1338,1338,1343,1343,1343,1343,1349,1349,1349,1060,1060,1060,1060,1060,1063,1067,1070,1070,1073,1073,1073,1073,1073,1073,1073,1077,1077,1077,1077,1080,1084,1084,1087,1087,1087,1090,1094,1094,1097,1101,1101,1101,1105,1105,1105,1105,1101,1101,1097,1094,1090,1090,1090,1090,1087,1087,1087,1087,0,0,0,0,0,0,0,696,696,696,694,693,693,691,688,687,687,686,684,683,682,682,682,680,680,680,682,682,683,686,687,688,690,691,694,696,696,698,701,703,703,704,704,706,0,0,0,0,0,0,0,0,1288,1283,1278,1278,1278,1278,1278,1278,1278,1288,1288,1288,1288,1292,1292,1307,1328,1328,1333,1338,1333,1333,1333,1333,1333,1333,1333,1333,1333,1333,1333,1333,1333,1333,1333,1333,1328,1328,1328,1328,1333,1333,1333,1333,1333,1333,1333,1333,1333,1333,1333,1333,1333,1333,1333,1333,1328,1328,1328,1328,1322,1322,1322,1322,1322,1322,1328,1328,1328,1328,1328,1328,1328,1328,1333,1333,1328,1328,1328,1328,1328,1333,1333,1333,1333,1333,1333,1333,1333,1333,1333,1333,1328,1328,1328,1328,1328,1328,1328,1067,1067,1067,1067,1063,1063,1063,1060,1057,1057,1057,1054,1054,1054,1054,1054,1054,1057,1060,1063,1063,1067,1067,1067,1070,1328,1328,1322,1322,1328,1328,1328,1328,1328,1328,1328,1328,1328,1328,1328,1328,1328,1328,1328,1328,1328,1328,1328,1328,1328,1328,1328,1328,1328,1328,1328,1328,1328,1328,1328,1328,1328,1328,1328,1328,1328,1328,1328,1328,1328,1328,1322,1322,1322,1322,1322,1322,1317,1317,1317,1322,1322,1322,1322,1322,1322,1328,1328,1328,1328,1322,1322,1322,1322,1322,1317,1317,1317,1317,1317,1317,1322,1322,1317,1317,1322,1322,1322,1322,1317,1317,1317,1317,1317,1322,1322,1322,1322,1322,1322,1322,1317,1317,1317,1317,1317,1322,1322,1322,1322,1322,1322,1322,1322,1317,1317,1317,1317,1317,1312,1312,1312,1312,1312,1312,1307,1307,1312,1312,1312,1312,1312,1312,1312,1312,1312,1312,1317,1317,1317,1317,1317,1322,1322,1317,1317,1312,1312,1312,1312,1312,1312,1312,1312,1312,1312,1312,1312,1312,1307,1307,1307,1307,1307,1307,1223,1223,1214,1214,1214,1214,1214,1214,1210,1210,1210,0,0,0,0,0,1145,1141,1138,1138,1138,1138,1138,1138,1138,1134,1134,1138,1138,1138,1134,1130,1130,1126,1123,1119,1115,1112,1108,1105,1101,1097,1090,1087,1084,1080,1077,1073,1073,1070,1067,1067,1067,1067,948,948,948,946,946,946,946,946,946,946,946,946,946,946,946,946,946,946,946,946,946,948,948,948,948,951,954,954,0,0,0,0,0,0,0,0,0,0,0,0,0,0,0,0,0,0,0,0,0,0,0,0,0,0,0,0,0,0,0,0,0,0
0,0,0,0,0,0,0,0,0,1328,1328,1328,1328,1328,1328,1333,1333,1333,1333,1333,1328,1328,1333,1328,1328,1328,1328,1328,1328,1328,1328,1328,1322,1322,1328,1328,1328,1328,1328,1333,1333,1333,1333,1333,1333,1333,1328,1328,1333,1328,1328,1328,1322,1322,1322,1322,1322,1328,0,0,0,0,0,0,951,946,943,940,938,938,935,935,933,933,933,933,933,935,935,935,940,943,946,946,946,946,948,951,954,0,954,0,1338,1338,1338,1333,1333,1333,1333,1333,1328,1328,1328,1328,1328,1333,1333,1333,1333,1333,1328,1328,1328,1328,1328,1322,1322,1328,1322,1322,1322,1322,1322,1322,1322,1322,1322,1322,1322,1322,1328,1333,1338,1343,1343,1343,1343,1060,1060,1060,1060,1057,1057,1057,1060,1063,1067,1067,1070,1070,1070,1073,1073,1073,1073,1077,1077,1077,1077,1080,1084,1087,1087,1090,1090,1094,1094,1097,1097,1101,1101,1101,1105,1105,1105,1105,1101,1101,1101,1097,1094,1094,1090,1090,1090,1087,1087,1087,1087,0,0,0,0,0,0,697,696,696,696,694,694,693,690,688,687,687,686,683,683,682,682,682,682,682,682,683,684,686,687,688,690,693,694,696,697,698,701,703,704,704,704,706,0,0,0,0,0,0,0,0,0,1283,1283,1283,1283,1283,1278,1278,1283,1288,1288,1288,1292,1297,1302,1307,1317,1322,1328,1328,1328,1328,1328,1328,1328,1328,1328,1328,1328,1328,1328,1328,1328,1328,1328,1328,1328,1328,1328,1328,1328,1328,1328,1328,1328,1328,1328,1328,1328,1328,1328,1328,1333,1333,1333,1328,1328,1328,1328,1322,1322,1322,1322,1322,1322,1322,1322,1322,1322,1322,1322,1322,1322,1322,1328,1328,1328,1328,1328,1328,1328,1328,1328,1328,1328,1328,1328,1328,1328,1328,1328,1328,1328,1328,1328,1322,1322,1322,1317,1067,1067,1067,1067,1063,1063,1063,1063,1060,1060,1057,1057,1057,1054,1054,1054,1057,1057,1060,1063,1063,1067,1067,1070,1070,1322,1322,1322,1322,1322,1322,1328,1328,1322,1322,1322,1322,1322,1322,1322,1322,1322,1322,1322,1322,1317,1317,1317,1322,1322,1322,1322,1322,1322,1322,1328,1328,1328,1328,1328,1328,1328,1322,1322,1322,1322,1322,1322,1322,1322,1322,1317,1317,1317,1317,1317,1317,1317,1317,1317,1317,1317,1317,1322,1322,1322,1322,1322,1322,1322,1317,1317,1317,1317,1317,1317,1317,1312,1312,1312,1312,1312,1312,1312,1312,1312,1312,1312,1312,1312,1317,1312,1312,1312,1317,1317,1317,1317,1317,1317,1317,1317,1317,1312,1312,1312,1317,1317,1317,1317,1317,1317,1317,1317,1317,1317,1317,1312,1312,1312,1312,1312,1307,1307,1307,1307,1307,1307,1307,1312,1312,1312,1312,1312,1312,1312,1312,1312,1312,1312,1312,1312,1312,1312,1312,1307,1307,1307,1307,1307,1307,1307,1307,1307,1307,1307,1307,1307,1307,1307,1302,1302,1302,1302,1302,1302,1219,1219,1219,1219,1219,1214,1214,1214,1210,1210,0,0,0,0,0,1145,1141,1138,1138,1138,1138,1138,1138,1138,1134,1134,1138,1138,1138,1134,1130,1130,1123,1123,1119,1112,1108,1105,1105,1101,1094,1090,1087,1080,1080,1073,1073,1070,1070,1067,1067,1067,1067,948,948,946,946,946,946,946,946,946,946,946,946,946,946,946,946,946,946,946,946,946,948,948,948,948,951,954,954,0,0,0,0,0,0,0,0,0,0,0,0,0,0,0,0,0,0,0,0,0,0,0,0,0,0,0,0,0,0,0,0,0,0
0,0,0,0,0,0,0,0,0,1322,1322,1322,1322,1322,1317,1317,1322,1322,1328,1328,1322,1322,1328,1328,1328,1328,1328,1322,1322,1322,1322,1322,1322,1322,1322,1322,1322,1322,1322,1328,1328,1328,1328,1328,1328,1328,1328,1328,1328,1328,1328,1322,1322,1322,1317,1317,1317,0,0,0,0,0,0,956,954,948,943,940,938,938,935,935,935,933,933,933,935,935,935,938,940,943,946,946,948,948,948,954,954,954,954,0,1338,1338,1333,1328,1328,1328,1328,1328,1328,1328,1328,1322,1322,1328,1328,1328,1328,1328,1328,1322,1322,1322,1322,1322,1322,1322,1322,1322,1322,1322,1322,1322,1322,1322,1322,1322,1322,1322,1328,1328,1328,1338,1343,1057,1057,1060,1057,1057,1057,1054,1054,1057,1060,1060,1060,1063,1067,1067,1070,1070,1070,1070,1073,1077,1077,1077,1077,1080,1084,1087,1087,1090,1090,1094,1094,1097,1097,1101,1101,1101,1105,1105,1105,1105,1105,1101,1101,1097,1094,1094,1090,1090,1090,1087,1087,1087,1087,0,0,0,0,0,0,697,697,697,697,696,696,694,691,690,688,687,686,684,683,683,682,682,682,682,682,683,684,686,687,688,691,694,696,696,697,698,701,703,704,704,706,706,0,0,0,0,0,0,0,0,0,1288,1283,1283,1283,1283,1283,1283,1283,1288,1288,1288,1292,1297,1302,1312,1317,1322,1328,1328,1322,1322,1322,1328,1328,1322,1322,1328,1328,1328,1328,1322,1322,1328,1328,1328,1328,1328,1328,1328,1328,1328,1328,1328,1328,1328,1328,1328,1328,1328,1328,1328,1328,1328,1328,1328,1322,1322,1322,1322,1317,1317,1317,1317,1317,1317,1317,1317,1317,1322,1317,1317,1322,1322,1328,1322,1322,1322,1322,1322,1322,1322,1322,1322,1322,1322,1322,1317,1317,1317,1322,1322,1322,1322,1322,1322,1322,1322,1060,1060,1063,1063,1067,1063,1063,1063,1063,1060,1060,1057,1057,1057,1057,1057,1057,1057,1060,1060,1063,1067,1067,1070,1070,1070,1322,1322,1317,1317,1317,1317,1322,1322,1322,1317,1317,1317,1317,1317,1317,1317,1317,1317,1317,1317,1317,1317,1317,1312,1312,1317,1312,1312,1317,1317,1317,1322,1322,1322,1322,1322,1322,1322,1317,1317,1317,1317,1317,1312,1312,1312,1312,1312,1312,1312,1312,1312,1312,1312,1312,1312,1312,1312,1312,1317,1317,1317,1317,1317,1317,1312,1312,1312,1312,1312,1312,1312,1312,1312,1307,1307,1307,1307,1312,1312,1312,1312,1312,1312,1307,1307,1307,1312,1312,1312,1312,1312,1312,1307,1307,1312,1312,1312,1312,1312,1312,1312,1312,1317,1312,1312,1312,1312,1312,1312,1312,1312,1312,1307,1307,1307,1307,1307,1307,1302,1302,1302,1302,1302,1307,1307,1307,1307,1307,1307,1307,1307,1307,1307,1307,1302,1302,1307,1307,1307,1307,1302,1302,1307,1307,1307,1307,1307,1307,1307,1307,1307,1302,1302,1302,1302,1302,1302,1302,1302,1302,1236,1236,1227,1223,1219,1219,1214,1214,1214,0,0,0,1149,0,0,1145,1141,1138,1138,1138,1138,1138,1138,1138,1134,1134,1138,1138,1138,1130,1126,1126,1123,1119,1115,1112,1108,1101,1097,1094,1090,1087,1084,1080,1077,1073,1070,1070,1070,1067,1067,1067,943,943,943,946,946,946,946,946,946,946,946,946,946,946,946,946,946,946,946,946,948,948,948,948,948,948,951,954,954,0,0,0,0,0,0,0,0,0,0,0,0,0,0,0,0,0,0,0,0,0,0,0,0,0,0,0,0,0,0,0,0,0,0
0,0,0,0,0,0,0,0,0,1317,1317,1317,1317,1317,1317,1317,1317,1322,1322,1322,1322,1322,1322,1328,1328,1322,1322,1322,1322,1322,1322,1322,1317,1317,1317,1317,1317,1317,1322,1322,1322,1322,1322,1322,1322,1322,1322,1322,1322,1322,1322,1322,1322,1317,1317,1312,1312,1312,0,0,0,0,0,954,954,951,946,943,940,938,938,935,935,935,935,935,935,935,938,940,940,943,946,946,948,948,951,954,954,954,954,956,0,1328,1328,1322,1322,1322,1322,1322,1322,1322,1322,1317,1317,1322,1322,1322,1322,1322,1322,1322,1322,1317,1317,1322,1322,1322,1322,1322,1322,1322,1317,1317,1317,1317,1322,1322,1322,1322,1328,1328,1328,1338,1338,1057,1057,1057,1057,1057,1057,1054,1054,1057,1057,1060,1060,1063,1063,1067,1067,1067,1067,1070,1073,1077,1077,1077,1080,1080,1084,1087,1087,1090,1090,1094,1094,1097,1097,1101,1101,1101,1105,1105,1105,1105,1105,1105,1101,1097,1094,1094,1090,1090,1090,1087,1087,1087,1087,0,0,0,0,0,0,697,697,697,697,697,697,694,691,691,690,688,687,686,684,683,683,682,682,682,683,683,686,687,687,688,691,694,696,696,697,700,703,703,704,704,706,707,0,0,0,0,0,0,0,0,0,1288,1288,1288,1288,1283,1283,1283,1283,1288,1288,1288,1292,1297,1302,1307,1312,1317,1322,1322,1322,1322,1322,1322,1322,1322,1322,1322,1322,1322,1322,1322,1322,1322,1322,1328,1328,1328,1328,1328,1328,1322,1322,1322,1322,1322,1322,1322,1322,1322,1322,1322,1322,1322,1322,1322,1322,1317,1317,1317,1312,1312,1312,1312,1312,1312,1312,1312,1312,1317,1317,1317,1317,1317,1322,1322,1317,1317,1317,1317,1322,1317,1317,1317,1317,1317,1317,1312,1312,1312,1312,1312,1312,1317,1317,1322,1322,1322,1060,1060,1063,1063,1063,1063,1063,1063,1063,1063,1060,1060,1060,1060,1057,1057,1057,1060,1060,1063,1067,1067,1070,1070,1073,1073,1317,1317,1317,1317,1312,1312,1312,1312,1312,1312,1312,1312,1317,1317,1312,1312,1312,1312,1312,1312,1312,1312,1312,1312,1312,1312,1312,1312,1312,1312,1317,1317,1317,1317,1317,1317,1317,1317,1312,1312,1312,1312,1312,1312,1312,1312,1312,1312,1312,1312,1312,1312,1312,1312,1312,1312,1312,1312,1312,1312,1312,1312,1312,1312,1312,1312,1312,1312,1312,1312,1312,1307,1307,1307,1307,1307,1307,1307,1307,1307,1307,1307,1307,1307,1307,1307,1307,1307,1307,1302,1302,1307,1307,1302,1302,1307,1307,1307,1307,1307,1307,1312,1312,1312,1312,1312,1312,1312,1312,1307,1307,1307,1307,1307,1307,1302,1302,1302,1302,1302,1302,1302,1302,1302,1302,1302,1302,1302,1307,1302,1302,1302,1302,1302,1302,1297,1297,1297,1302,1302,1302,1302,1302,1302,1302,1302,1302,1302,1302,1302,1302,1302,1302,1297,1297,1297,1297,1297,1297,1288,1255,1250,1236,1227,1227,1227,1223,1214,1214,1214,0,0,1149,1149,1149,1149,1145,1141,1138,1138,1138,1138,1138,1138,1138,1134,1134,1138,1138,1134,1126,1123,1123,1119,1115,1112,1108,1105,1101,1094,1094,1087,1084,1080,1077,1077,1073,1070,1070,1070,1067,1067,1067,943,943,943,946,946,946,946,946,946,946,946,946,946,946,946,948,948,948,948,948,948,948,948,948,948,948,951,954,954,0,0,0,0,0,0,0,0,0,0,0,0,0,0,0,0,0,0,0,0,0,0,0,0,0,0,0,0,0,0,0,0,0,0
0,0,0,0,0,0,0,0,0,1317,1317,1317,1317,1312,1312,1312,1312,1312,1317,1317,1317,1317,1317,1322,1322,1317,1317,1317,1317,1317,1317,1317,1312,1312,1317,1312,1312,1312,1317,1317,1317,1317,1322,1322,1322,1317,1317,1317,1317,1317,1317,1317,1317,1317,1312,1312,1312,1312,0,0,0,0,0,954,954,951,948,946,943,940,938,935,935,935,935,935,935,935,938,940,940,943,946,946,948,948,951,954,954,954,956,956,0,1317,1317,1317,1317,1317,1317,1317,1317,1317,1317,1317,1317,1317,1322,1322,1317,1317,1322,1317,1317,1317,1317,1317,1317,1317,1317,1317,1317,1317,1317,1317,1317,1317,1322,1322,1044,1044,1044,1047,1047,1047,1050,1050,1050,1050,1054,1054,1054,1054,1054,1054,1057,1057,1057,1060,1063,1067,1067,1067,1067,1070,1073,1077,1077,1077,1080,1084,1087,1087,1090,1090,1090,1094,1094,1097,1097,1101,1101,1101,1105,1105,1108,1108,1105,1105,1101,1097,1094,1094,1090,1090,1090,1090,1090,1087,1087,0,0,0,0,0,0,698,698,698,698,697,697,694,693,691,691,688,688,687,686,684,683,683,683,683,683,684,686,687,687,688,691,694,696,696,697,701,703,703,704,704,706,706,0,0,0,0,0,0,0,0,0,1292,1288,1288,1288,1288,1283,1283,1288,1288,1288,1292,1297,1302,1302,1307,1307,1312,1312,1317,1317,1317,1317,1317,1317,1317,1317,1317,1317,1317,1317,1317,1317,1322,1322,1322,1322,1322,1322,1322,1322,1322,1322,1322,1322,1317,1317,1317,1322,1322,1317,1317,1317,1322,1322,1317,1317,1312,1312,1312,1312,1312,1312,1312,1312,1307,1307,1307,1307,1312,1312,1312,1312,1312,1317,1317,1312,1312,1312,1317,1317,1317,1312,1312,1312,1312,1312,1312,1312,1312,1312,1312,1312,1312,1312,1312,1312,1317,1317,1060,1060,1060,1060,1060,1060,1063,1063,1063,1063,1060,1060,1060,1060,1060,1060,1060,1063,1063,1067,1070,1070,1073,1073,1073,1317,1317,1312,1312,1312,1312,1307,1307,1312,1312,1312,1312,1312,1312,1312,1312,1312,1307,1307,1307,1307,1307,1307,1307,1307,1307,1307,1307,1307,1312,1312,1312,1312,1312,1312,1312,1312,1312,1312,1312,1307,1307,1307,1307,1307,1307,1307,1307,1307,1307,1307,1307,1307,1307,1307,1307,1307,1307,1307,1307,1307,1307,1307,1307,1307,1307,1307,1307,1307,1307,1307,1307,1307,1307,1302,1302,1302,1302,1302,1302,1302,1307,1307,1307,1307,1302,1302,1302,1302,1297,1297,1297,1297,1297,1297,1302,1302,1302,1302,1302,1307,1307,1307,1312,1307,1307,1307,1307,1307,1307,1302,1302,1307,1302,1302,1302,1302,1302,1302,1302,1297,1297,1297,1297,1297,1297,1297,1297,1302,1297,1297,1297,1297,1297,1297,1297,1297,1297,1297,1297,1297,1297,1297,1297,1297,1297,1297,1297,1297,1292,1292,1292,1292,1292,1292,1292,1292,1288,1288,1268,1255,1250,1245,1236,1232,1232,1214,1214,1214,1219,0,0,1149,1149,1149,1149,1149,1145,1141,1141,1141,1138,1138,1138,1138,1138,1138,1138,1134,1134,1123,1123,1119,1115,1112,1112,1105,1101,1097,1094,1090,1084,1080,1080,1077,1077,1070,1070,1070,1067,1067,1067,1070,946,946,946,946,946,946,946,946,946,946,946,948,948,948,948,948,948,948,948,948,948,948,948,948,951,951,951,954,954,0,0,0,0,0,0,0,0,0,0,0,0,0,0,0,0,0,0,0,0,0,0,0,0,0,0,0,0,0,0,0,0,0,0
0,0,0,0,0,0,0,0,0,1312,1312,1312,1312,1312,1307,1307,1307,1307,1307,1312,1312,1312,1317,1317,1317,1312,1312,1312,1312,1312,1312,1312,1312,1312,1312,1307,1307,1307,1307,1307,1312,1312,1317,1317,1317,1312,1312,1312,1312,1312,1312,1312,1312,1312,1312,1312,1307,1307,1307,0,0,0,0,956,954,951,948,946,943,940,940,938,938,935,935,935,935,938,938,940,943,943,946,946,948,948,951,954,956,956,956,956,0,1312,1312,1312,1312,1312,1312,1317,1317,1317,1317,1312,1312,1317,1317,1317,1317,1317,1317,1312,1312,1312,1312,1312,1312,1312,1312,1312,1317,1317,1317,1317,1317,1317,1322,1044,1044,1044,1044,1047,1047,1047,1050,1050,1050,1050,1050,1050,1050,1050,1050,1054,1054,1057,1057,1060,1060,1063,1067,1067,1067,1070,1073,1077,1077,1077,1080,1084,1087,1087,1090,1090,1090,1094,1094,1094,1097,1101,1101,1101,1105,1108,1108,1108,1108,1105,1101,1101,1094,1094,1090,1090,1090,1090,1090,1090,1090,0,0,0,0,0,0,698,698,698,698,698,697,697,693,693,691,690,688,687,686,686,684,684,684,684,684,684,687,687,687,690,694,696,696,697,697,701,703,703,704,704,706,706,0,0,0,0,0,0,0,0,1297,1297,1292,1292,1288,1288,1288,1288,1288,1288,1292,1292,1297,1297,1302,1302,1307,1307,1307,1312,1312,1312,1312,1317,1317,1317,1317,1317,1312,1312,1312,1312,1312,1312,1312,1312,1317,1322,1322,1322,1317,1317,1317,1317,1317,1312,1312,1312,1317,1317,1317,1312,1312,1317,1312,1312,1312,1307,1307,1307,1307,1307,1307,1307,1307,1307,1307,1307,1307,1307,1307,1307,1307,1307,1312,1312,1312,1312,1312,1312,1312,1312,1312,1312,1307,1307,1307,1307,1307,1307,1307,1307,1307,1307,1307,1312,1312,1317,1317,1057,1057,1057,1057,1060,1060,1060,1060,1063,1060,1060,1060,1060,1060,1060,1060,1063,1063,1067,1067,1070,1073,1073,1073,1073,1312,1312,1312,1312,1307,1307,1302,1302,1302,1302,1307,1307,1307,1302,1302,1307,1307,1307,1307,1307,1307,1307,1307,1307,1307,1307,1307,1307,1307,1307,1307,1307,1307,1307,1302,1302,1307,1307,1307,1307,1307,1307,1307,1307,1307,1307,1307,1307,1307,1307,1307,1307,1307,1307,1307,1307,1307,1302,1302,1302,1302,1302,1302,1302,1302,1302,1307,1307,1307,1302,1302,1302,1302,1302,1302,1302,1302,1302,1302,1302,1302,1302,1302,1302,1302,1302,1297,1297,1297,1292,1292,1292,1292,1292,1292,1292,1292,1292,1297,1297,1302,1302,1302,1307,1307,1307,1302,1302,1302,1302,1297,1297,1297,1297,1297,1297,1297,1297,1297,1297,1292,1292,1297,1297,1297,1297,1297,1297,1297,1292,1292,1292,1292,1292,1292,1292,1292,1292,1292,1292,1292,1292,1292,1292,1292,1292,1292,1292,1292,1292,1292,1292,1288,1288,1288,1288,1288,1288,1278,1268,1255,1255,1250,1245,1245,1241,1236,1227,1219,1219,1219,0,1153,1149,1149,1149,1149,1145,1141,1141,1141,1141,1141,1138,1138,1138,1138,1134,1134,1123,1123,1119,1115,1115,1112,1108,1105,1097,1094,1090,1087,1084,1080,1080,1077,1077,1070,1070,1070,1067,1067,1067,943,943,946,946,946,946,946,946,946,946,946,946,948,948,948,948,948,948,948,948,948,948,948,948,948,951,951,951,954,954,0,0,0,0,0,0,0,0,0,0,0,0,0,0,0,0,0,0,0,0,0,0,0,0,0,0,0,0,0,0,0,0,0,0
0,0,0,0,0,0,0,0,0,1312,1312,1312,1312,1312,1307,1307,1307,1307,1307,1307,1307,1307,1307,1307,1307,1307,1307,1307,1307,1307,1307,1312,1307,1307,1307,1307,1307,1307,1302,1302,1307,1307,1312,1312,1312,1312,1312,1307,1307,1307,1307,1307,1307,1307,1307,1307,1307,1302,1302,0,1307,0,0,956,954,954,951,948,943,943,940,938,938,935,935,935,935,938,940,943,943,943,946,946,948,948,951,956,959,959,962,962,962,1312,1312,1302,1302,1302,1307,1307,1312,1312,1312,1312,1312,1312,1312,1312,1307,1307,1312,1312,1312,1312,1312,1312,1307,1307,1307,1307,1312,1317,1317,1317,1317,1041,1041,1041,1044,1044,1047,1047,1047,1047,1047,1047,1047,1047,1047,1047,1050,1050,1050,1054,1054,1054,1057,1060,1060,1063,1067,1067,1067,1070,1073,1077,1077,1080,1084,1087,1087,1090,1090,1090,1094,1094,1094,1094,1097,1101,1101,1101,1105,1307,1307,1307,1307,1105,1101,1101,1094,1094,1094,1090,1090,1090,1090,1090,1090,0,0,0,0,0,0,0,701,701,700,700,698,697,694,693,691,691,690,688,687,686,686,684,684,684,684,686,687,687,688,691,696,696,697,697,697,700,703,704,704,706,706,0,0,0,0,0,0,0,0,1302,1297,1297,1297,1292,1292,1288,1288,1288,1288,1288,1292,1292,1297,1297,1302,1302,1302,1302,1307,1307,1307,1307,1312,1312,1312,1312,1312,1312,1307,1307,1307,1307,1307,1307,1307,1307,1312,1312,1312,1312,1312,1317,1312,1312,1312,1312,1312,1312,1312,1312,1312,1312,1312,1312,1307,1307,1307,1307,1307,1307,1307,1307,1307,1307,1307,1307,1307,1302,1302,1307,1307,1307,1307,1307,1312,1312,1307,1307,1307,1307,1307,1307,1307,1307,1307,1307,1302,1302,1302,1302,1302,1302,1307,1307,1307,1307,1312,1063,1050,1050,1050,1054,1057,1057,1057,1057,1060,1060,1060,1060,1060,1060,1060,1060,1063,1063,1063,1067,1070,1073,1073,1073,1077,1077,1307,1307,1302,1302,1302,1297,1297,1297,1297,1297,1297,1297,1302,1297,1297,1302,1302,1302,1302,1302,1302,1302,1302,1302,1302,1302,1302,1302,1302,1307,1307,1302,1302,1297,1297,1297,1302,1297,1297,1302,1302,1307,1307,1302,1302,1302,1302,1302,1302,1302,1302,1302,1302,1302,1302,1302,1302,1302,1297,1297,1297,1297,1297,1297,1297,1297,1302,1302,1302,1297,1297,1297,1297,1297,1297,1297,1297,1297,1297,1297,1297,1297,1297,1297,1297,1297,1297,1292,1292,1292,1292,1292,1292,1292,1292,1292,1292,1292,1292,1292,1297,1297,1302,1302,1302,1302,1302,1302,1297,1297,1297,1297,1297,1292,1292,1292,1292,1292,1292,1292,1292,1292,1292,1292,1292,1292,1292,1292,1292,1292,1288,1288,1288,1288,1288,1288,1288,1292,1292,1292,1292,1288,1288,1288,1288,1288,1292,1288,1288,1288,1288,1288,1288,1288,1283,1283,1278,1278,1273,1268,1255,1255,1250,1245,1245,1241,1236,1227,1223,1223,1223,1153,1153,1149,1149,1149,1149,1145,1141,1141,1141,1141,1138,1138,1138,1138,1138,1134,1130,1123,1119,1119,1115,1108,1108,1108,1101,1097,1094,1090,1084,1080,1077,1077,1073,1073,1070,1070,1070,1070,940,940,943,943,946,946,946,946,946,946,946,946,948,948,948,948,948,948,948,948,948,948,948,948,948,948,948,951,951,951,956,956,0,0,0,0,0,0,0,0,0,0,0,0,0,0,0,0,0,0,0,0,0,0,0,0,0,0,0,0,0,0,0,0,0,0
0,0,0,0,0,0,0,0,0,1307,1307,1307,1307,1307,1307,1307,1307,1302,1302,1302,1302,1302,1307,1302,1302,1302,1302,1307,1307,1307,1307,1307,1302,1302,1302,1302,1302,1302,1302,1302,1302,1302,1307,1307,1307,1307,1307,1307,1307,1302,1302,1302,1307,1307,1307,1307,1307,1302,1302,1307,1307,1302,0,956,956,954,954,951,946,946,943,938,938,938,935,935,935,938,940,943,943,943,946,946,948,951,954,956,959,959,959,962,962,1297,1297,1297,1297,1302,1302,1307,1307,1312,1312,1307,1307,1307,1307,1307,1307,1307,1307,1307,1307,1307,1307,1307,1307,1302,1302,1302,1307,1312,1317,1034,1034,1038,1038,1038,1041,1041,1044,1044,1044,1044,1044,1047,1047,1047,1047,1047,1050,1050,1050,1054,1054,1054,1057,1057,1063,1063,1067,1067,1067,1070,1073,1077,1077,1080,1084,1087,1087,1090,1090,1090,1094,1094,1094,1094,1097,1101,1302,1302,1307,1307,1307,1307,1307,1105,1105,1101,1094,1094,1094,1090,1090,1090,1090,1094,1094,0,0,0,0,0,0,0,703,703,701,700,700,698,697,694,693,691,691,690,687,687,686,686,686,684,684,686,688,688,691,693,696,696,697,697,698,700,703,704,704,706,0,0,0,0,0,0,0,0,0,1297,1297,1297,1297,1297,1297,1292,1288,1288,1292,1292,1292,1292,1292,1292,1297,1302,1302,1302,1302,1302,1307,1307,1307,1307,1307,1307,1307,1307,1302,1302,1302,1302,1302,1302,1302,1302,1302,1307,1307,1307,1307,1307,1307,1302,1302,1307,1307,1307,1307,1307,1307,1307,1307,1307,1307,1302,1302,1302,1302,1302,1302,1302,1302,1302,1302,1302,1302,1302,1302,1302,1302,1302,1302,1302,1307,1307,1307,1302,1302,1302,1302,1302,1302,1302,1302,1302,1302,1302,1302,1302,1302,1302,1302,1302,1302,1307,1307,1047,1047,1047,1050,1050,1054,1054,1054,1054,1057,1060,1060,1060,1060,1060,1060,1063,1063,1063,1063,1067,1070,1073,1073,1073,1077,1077,1302,1302,1297,1297,1297,1297,1297,1297,1297,1297,1297,1297,1297,1297,1297,1297,1297,1297,1297,1297,1297,1297,1297,1297,1297,1297,1297,1297,1297,1302,1302,1297,1297,1292,1292,1292,1292,1292,1292,1292,1292,1297,1292,1292,1297,1297,1297,1297,1297,1297,1297,1297,1297,1297,1297,1297,1297,1297,1297,1297,1297,1297,1292,1292,1292,1292,1297,1292,1292,1292,1292,1292,1292,1297,1292,1292,1292,1292,1292,1292,1292,1292,1292,1292,1292,1292,1292,1292,1292,1292,1288,1288,1288,1288,1288,1288,1292,1292,1292,1292,1292,1292,1292,1292,1297,1297,1297,1297,1292,1292,1292,1292,1292,1292,1292,1292,1292,1292,1292,1292,1288,1288,1288,1288,1288,1292,1292,1288,1288,1288,1288,1288,1288,1288,1288,1288,1288,1288,1288,1288,1288,1288,1288,1283,1283,1283,1288,1288,1288,1288,1283,1283,1283,1283,1283,1278,1273,1273,1264,1259,1255,1255,1250,1245,1245,1245,1241,1232,1223,1223,1223,1149,1149,1149,1149,1149,1149,1145,1141,1141,1141,1141,1138,1138,1138,1138,1138,1134,1130,1123,1119,1115,1112,1108,1108,1105,1097,1094,1094,1084,1080,1080,1077,1073,1073,1070,1070,1070,1070,943,940,940,946,946,946,946,946,946,946,946,946,946,948,948,948,948,948,948,948,948,948,948,948,948,948,951,951,951,951,951,956,959,0,0,0,0,0,0,0,0,0,0,0,0,0,0,0,0,0,0,0,0,0,0,0,0,0,0,0,0,0,0,0,0,0,0
0,0,0,0,0,0,0,0,0,1302,1302,1302,1302,1302,1302,1302,1302,1297,1297,1297,1297,1302,1302,1302,1302,1302,1297,1297,1302,1302,1302,1302,1302,1302,1302,1302,1297,1297,1297,1297,1302,1302,1307,1307,1307,1307,1307,1302,1302,1302,1302,1302,1302,1302,1302,1307,1302,1302,1302,1302,1302,1302,0,0,956,954,954,951,948,946,943,940,938,938,935,935,935,938,940,943,943,943,946,946,951,951,954,956,959,959,959,962,962,0,1297,1297,1297,1297,1302,1302,1307,1307,1307,1307,1307,1307,1307,1307,1302,1302,1302,1302,1302,1302,1307,1307,1302,1302,1302,1302,1302,1312,1038,1034,1034,1038,1038,1038,1041,1041,1041,1044,1038,1038,1044,1044,1044,1044,1047,1047,1047,1050,1050,1054,1054,1054,1057,1057,1063,1063,1067,1067,1067,1073,1077,1080,1080,1080,1084,1087,1087,1090,1090,1090,1094,1094,1094,1094,1097,1302,1302,1302,1302,1302,1307,1307,1307,1302,1302,1101,1097,1097,1094,1090,1090,1090,1094,1094,0,0,0,0,0,0,0,704,703,703,701,700,700,700,698,697,694,691,691,690,688,687,687,687,686,686,686,686,687,688,691,693,696,697,697,698,700,701,703,704,704,706,708,0,0,0,0,0,0,0,0,1297,1292,1292,1292,1292,1292,1292,1292,1292,1292,1292,1292,1292,1292,1292,1297,1297,1302,1297,1297,1302,1302,1302,1302,1302,1302,1302,1302,1302,1302,1302,1297,1297,1297,1297,1297,1297,1297,1302,1302,1302,1302,1302,1302,1302,1297,1297,1297,1297,1302,1302,1302,1302,1302,1302,1302,1302,1302,1302,1302,1302,1302,1302,1302,1302,1302,1302,1302,1297,1297,1297,1297,1297,1297,1297,1302,1302,1302,1302,1302,1302,1302,1302,1302,1302,1297,1297,1297,1297,1297,1297,1297,1297,1297,1297,1297,1297,1307,1044,1044,1044,1047,1050,1050,1054,1054,1054,1054,1054,1057,1057,1060,1060,1060,1063,1063,1063,1067,1067,1073,1077,1077,1077,1077,1077,1297,1297,1297,1292,1292,1292,1292,1292,1292,1292,1292,1292,1292,1292,1292,1292,1292,1292,1292,1292,1292,1297,1292,1292,1292,1292,1292,1292,1292,1292,1297,1292,1292,1292,1292,1292,1288,1288,1288,1288,1292,1292,1292,1292,1292,1288,1288,1292,1292,1292,1292,1292,1292,1292,1292,1292,1292,1292,1292,1292,1292,1292,1292,1292,1292,1292,1292,1292,1292,1292,1288,1288,1292,1292,1292,1292,1292,1292,1292,1292,1288,1288,1288,1288,1288,1288,1288,1288,1288,1288,1288,1288,1288,1288,1288,1288,1288,1288,1288,1288,1288,1288,1288,1288,1292,1292,1292,1292,1292,1292,1288,1288,1288,1288,1288,1288,1288,1288,1288,1288,1288,1288,1288,1288,1288,1288,1288,1288,1288,1283,1283,1283,1283,1283,1283,1283,1283,1288,1283,1283,1278,1278,1278,1283,1278,1278,1278,1278,1283,1283,1283,1278,1278,1278,1278,1278,1268,1268,1264,1259,1255,1250,1250,1245,1245,1245,1241,1232,1227,1227,1227,1236,1268,1268,1268,1149,1149,1149,1153,1153,1149,1138,1138,1138,1134,1134,1134,1130,1123,1119,1115,1112,1108,1108,1105,1101,1097,1094,1090,1080,1080,1077,1073,1070,1070,1067,1067,1067,943,943,943,943,946,946,946,946,946,946,946,946,946,948,948,948,948,948,948,951,948,948,948,948,948,951,951,951,951,951,954,954,956,959,0,0,0,0,0,0,0,0,0,0,0,0,0,0,0,0,0,0,0,0,0,0,0,0,0,0,0,0,0,0,0,0,0,0
0,0,0,0,0,0,0,0,0,1297,1297,1302,1302,1297,1297,1302,1297,1292,1292,1288,1288,1292,1292,1292,1292,1292,1292,1297,1297,1297,1297,1297,1297,1297,1297,1297,1297,1297,1297,1297,1302,1302,1302,1302,1302,1302,1302,1302,1297,1297,1302,1302,1302,1302,1302,1307,1302,1302,1302,1302,1302,1302,1302,956,956,956,954,951,951,948,946,943,940,938,935,935,935,938,940,943,943,946,946,948,951,951,954,956,959,959,959,962,962,962,1297,1297,1297,1297,1302,1302,1302,1302,1302,1302,1302,1302,1302,1297,1297,1297,1302,1302,1302,1302,1302,1302,1302,1297,1297,1031,1031,1034,1034,1034,1038,1038,1038,1038,1038,1041,1041,1041,1038,1038,1041,1044,1044,1044,1044,1047,1047,1050,1050,1054,1054,1054,1057,1057,1063,1063,1067,1067,1067,1073,1077,1080,1080,1080,1084,1087,1087,1090,1090,1090,1094,1094,1094,1288,1297,1297,1297,1302,1302,1302,1302,1302,1302,1297,1297,1297,1292,1288,1288,1288,0,0,0,0,0,0,0,0,0,0,0,704,703,703,703,701,701,701,700,698,694,693,693,691,690,688,688,687,687,686,686,687,687,688,691,696,696,697,697,698,700,703,704,704,707,707,708,0,0,0,0,0,0,0,0,0,1292,1292,1292,1292,1292,1288,1288,1288,1292,1292,1292,1292,1292,1292,1292,1297,1297,1292,1292,1297,1297,1297,1292,1292,1297,1297,1297,1297,1292,1292,1292,1292,1292,1292,1292,1292,1292,1292,1292,1292,1292,1297,1292,1292,1292,1292,1292,1292,1292,1292,1292,1292,1297,1297,1297,1297,1297,1297,1297,1297,1297,1297,1297,1297,1297,1297,1297,1297,1297,1297,1292,1292,1297,1297,1297,1297,1297,1297,1297,1297,1297,1297,1297,1297,1292,1292,1292,1292,1292,1297,1292,1292,1297,1297,1297,1041,1041,1041,1041,1041,1044,1047,1050,1050,1050,1050,1050,1054,1054,1054,1057,1060,1060,1063,1063,1063,1067,1067,1073,1077,1077,1077,1077,1077,1297,1297,1292,1292,1292,1292,1292,1292,1292,1292,1292,1292,1292,1292,1292,1292,1292,1292,1292,1292,1292,1292,1288,1288,1288,1288,1288,1288,1288,1292,1292,1292,1288,1288,1288,1288,1288,1288,1288,1288,1288,1288,1288,1288,1288,1288,1288,1283,1283,1283,1283,1288,1288,1288,1288,1288,1292,1292,1292,1292,1292,1292,1288,1288,1288,1288,1288,1288,1288,1288,1288,1288,1288,1288,1288,1288,1288,1288,1288,1288,1283,1283,1283,1283,1283,1283,1283,1283,1283,1288,1283,1283,1288,1288,1288,1288,1288,1288,1288,1288,1283,1283,1283,1283,1288,1288,1288,1288,1288,1288,1288,1288,1288,1288,1288,1288,1283,1283,1283,1283,1283,1283,1283,1283,1283,1283,1283,1278,1278,1278,1278,1278,1278,1283,1283,1278,1278,1283,1278,1278,1273,1273,1278,1278,1273,1273,1273,1273,1278,1278,1278,1273,1273,1278,1278,1273,1268,1268,1259,1255,1255,1250,1250,1250,1245,1245,1245,1241,1232,1232,1236,1236,1259,1259,1259,1149,1149,1149,1149,1149,1149,1259,1138,1138,1134,1134,1130,1123,1119,1115,1112,1108,1108,1105,1101,1097,1094,1090,1084,1080,1077,1073,1073,1070,1067,1067,1067,1067,943,943,943,943,946,946,946,946,946,946,946,946,946,948,948,948,948,948,951,951,951,951,951,951,951,951,951,951,954,954,954,956,959,962,0,0,0,0,0,0,0,0,0,0,0,0,0,0,0,0,0,0,0,0,0,0,0,0,0,0,0,0,0,0,0,0,0,0
0,0,0,0,0,0,0,0,1292,1292,1292,1292,1292,1292,1292,1297,1297,1292,1288,1288,1288,1288,1288,1288,1288,1288,1292,1292,1292,1292,1292,1292,1292,1292,1292,1292,1292,1292,1292,1292,1297,1297,1297,1297,1297,1297,1297,1297,1297,1292,1292,1292,1292,1292,1292,1297,1297,1297,1297,1297,1297,1302,1302,956,956,956,954,951,951,948,946,943,940,938,938,938,938,938,940,943,946,946,946,948,951,951,954,956,959,959,959,962,962,962,1297,1297,1288,1288,1297,1297,1302,1302,1302,1302,1302,1297,1297,1297,1292,1292,1297,1297,1297,1302,1028,1028,1025,1025,1028,1028,1031,1034,1034,1034,1038,1038,1038,1038,1038,1038,1038,1038,1038,1041,1041,1044,1044,1044,1044,1047,1047,1050,1054,1054,1054,1057,1057,1060,1063,1063,1067,1067,1073,1077,1077,1080,1080,1084,1087,1087,1090,1090,1090,1090,1094,1288,1288,1288,1297,1297,1297,1297,1297,1297,1302,1297,1292,1292,1292,1292,1292,1288,1283,1283,0,0,0,0,0,0,0,0,0,0,0,704,704,703,703,703,703,701,700,698,696,694,693,691,691,690,690,688,687,687,687,687,687,688,691,696,696,697,698,698,700,703,704,704,707,707,708,0,0,0,0,0,0,0,0,0,1292,1288,1288,1288,1288,1288,1288,1288,1288,1288,1288,1288,1292,1292,1292,1292,1292,1292,1292,1292,1292,1292,1292,1292,1292,1292,1292,1292,1288,1288,1292,1292,1292,1288,1288,1288,1288,1292,1292,1292,1292,1292,1288,1288,1288,1288,1288,1288,1288,1288,1288,1288,1288,1288,1288,1292,1292,1292,1292,1292,1292,1292,1292,1292,1292,1292,1292,1292,1292,1292,1288,1288,1292,1292,1292,1292,1292,1292,1292,1292,1292,1292,1292,1292,1288,1288,1288,1292,1292,1292,1292,1292,1292,1038,1038,1038,1038,1038,1038,1038,1041,1044,1047,1047,1047,1050,1050,1050,1054,1054,1057,1060,1060,1063,1063,1067,1067,1067,1073,1077,1077,1077,1080,1080,1297,1297,1292,1292,1288,1288,1288,1288,1288,1288,1288,1288,1288,1288,1288,1288,1288,1288,1288,1288,1288,1288,1288,1288,1288,1288,1288,1288,1288,1288,1288,1288,1288,1288,1288,1283,1283,1283,1283,1283,1283,1288,1288,1288,1283,1283,1283,1283,1283,1283,1283,1283,1283,1283,1288,1288,1288,1288,1288,1288,1288,1288,1288,1288,1288,1288,1283,1283,1283,1283,1283,1283,1283,1283,1283,1283,1283,1283,1283,1278,1278,1278,1278,1278,1278,1278,1278,1283,1283,1283,1283,1283,1283,1283,1283,1283,1278,1278,1283,1283,1283,1278,1278,1278,1278,1283,1283,1283,1283,1283,1283,1278,1278,1278,1283,1283,1283,1283,1283,1283,1283,1278,1278,1278,1278,1278,1278,1278,1278,1278,1278,1278,1278,1278,1278,1278,1278,1278,1273,1273,1273,1273,1273,1273,1273,1273,1273,1273,1273,1273,1273,1273,1273,1273,1273,1268,1268,1264,1259,1255,1250,1250,1250,1250,1245,1245,1245,1245,1236,1236,1236,1245,1255,1259,1259,1264,1259,1259,1149,1149,1259,1259,1123,1130,1130,1126,1123,1123,1119,1115,1112,1108,1105,1105,1101,1094,1090,1084,1080,1077,1073,1073,1070,1067,1067,1063,1063,1063,943,943,943,943,946,946,946,946,946,946,946,946,946,946,948,948,948,948,951,951,951,951,951,951,951,954,954,954,954,956,956,959,962,964,0,0,0,0,0,0,0,0,0,0,0,0,0,0,0,0,0,0,0,0,0,0,0,0,0,0,0,0,0,0,0,0,0,0
0,0,0,0,0,0,0,0,1288,1288,1288,1288,1288,1283,1283,1288,1288,1288,1288,1283,1283,1283,1288,1288,1288,1288,1288,1292,1292,1292,1292,1292,1292,1292,1292,1292,1292,1292,1288,1288,1292,1292,1292,1292,1292,1292,1292,1292,1292,1292,1292,1292,1288,1288,1292,1292,1292,1292,1292,1288,1288,1297,1297,956,956,956,954,954,951,951,948,946,943,940,940,938,938,940,943,943,946,946,948,951,954,954,956,956,959,959,959,962,962,962,962,1288,1288,1288,1292,1288,1288,1297,1297,1292,1292,1292,1292,1292,1288,1288,1292,1297,1297,1302,1028,1028,1025,1025,1028,1028,1031,1031,1031,1034,1034,1034,1034,1034,1034,1038,1038,1038,1038,1041,1041,1044,1044,1044,1044,1047,1047,1050,1054,1054,1057,1057,1060,1060,1063,1067,1067,1070,1073,1077,1077,1080,1080,1084,1087,1087,1090,1090,1090,1090,1288,1288,1288,1288,1292,1292,1297,1297,1297,1297,1292,1292,1288,1288,1288,1288,1288,1288,1283,1283,0,0,0,0,0,0,0,0,0,0,0,703,703,704,704,703,703,703,701,700,697,694,694,693,691,690,690,688,688,687,687,687,687,690,691,696,697,697,698,700,701,703,704,704,707,707,708,0,0,0,0,0,0,0,0,0,1288,1288,1288,1288,1288,1288,1288,1288,1288,1288,1288,1288,1288,1288,1288,1288,1288,1288,1288,1288,1288,1288,1288,1288,1288,1288,1288,1288,1288,1288,1288,1288,1288,1288,1288,1288,1288,1288,1288,1288,1288,1288,1288,1288,1288,1288,1288,1288,1283,1283,1288,1288,1288,1288,1288,1288,1288,1288,1288,1288,1288,1288,1288,1288,1288,1288,1288,1288,1288,1288,1288,1288,1288,1288,1292,1292,1292,1292,1292,1292,1288,1288,1288,1288,1288,1288,1288,1288,1288,1288,1288,1288,1288,1034,1034,1034,1034,1034,1034,1034,1038,1038,1041,1044,1044,1047,1047,1050,1050,1054,1057,1060,1060,1063,1063,1067,1067,1070,1073,1077,1080,1080,1080,1080,1292,1292,1292,1288,1288,1288,1288,1288,1288,1288,1288,1288,1288,1288,1288,1288,1288,1288,1288,1288,1283,1283,1288,1288,1288,1283,1283,1283,1283,1288,1288,1283,1283,1283,1283,1283,1278,1278,1278,1278,1278,1278,1283,1283,1278,1278,1278,1278,1278,1278,1278,1278,1278,1278,1278,1278,1278,1278,1283,1283,1283,1283,1283,1283,1283,1278,1278,1278,1278,1278,1278,1278,1278,1278,1278,1278,1278,1278,1278,1278,1278,1278,1278,1278,1278,1273,1273,1278,1278,1278,1278,1278,1273,1273,1278,1278,1273,1273,1273,1273,1273,1273,1273,1273,1273,1273,1273,1273,1273,1273,1273,1273,1273,1273,1273,1273,1273,1278,1278,1278,1278,1278,1278,1273,1273,1273,1273,1273,1273,1273,1273,1273,1273,1273,1273,1273,1273,1273,1273,1273,1268,1268,1268,1268,1268,1268,1268,1268,1268,1273,1273,1268,1268,1268,1268,1264,1264,1259,1255,1255,1250,1250,1250,1250,1245,1245,1245,1245,1245,1245,1245,1245,1255,1259,1259,1264,1259,1259,1259,1259,1259,1259,1123,1123,1123,1123,1123,1119,1115,1112,1108,1105,1105,1101,1097,1090,1090,1080,1080,1073,1070,1070,1067,1063,1063,1063,1060,1060,943,943,943,943,943,946,946,946,946,946,946,946,946,946,948,948,948,948,951,951,951,951,951,951,951,954,954,956,956,959,959,964,964,967,0,0,0,0,0,0,0,0,0,0,0,0,0,0,0,0,0,0,0,0,0,0,0,0,0,0,0,0,0,0,0,0,0,0
0,0,0,0,0,0,0,0,1288,1283,1283,1283,1283,1283,1278,1278,1283,1283,1283,1278,1278,1278,1283,1283,1283,1283,1283,1288,1288,1288,1288,1283,1283,1288,1288,1288,1288,1288,1288,1288,1288,1288,1288,1288,1288,1288,1288,1288,1288,1288,1288,1288,1288,1288,1288,1292,1292,1292,1292,1288,1288,1292,1292,959,959,956,956,954,954,954,951,946,943,943,940,940,940,943,943,946,946,946,948,951,954,954,956,956,956,959,959,962,962,962,962,1292,1292,1292,1288,1288,1283,1283,1283,1288,1288,1288,1288,1288,1288,1288,1292,1297,1031,1031,1031,1028,1028,1028,1028,1028,1031,1031,1031,1031,1034,1034,1034,1034,1034,1034,1038,1038,1038,1041,1041,1044,1044,1044,1044,1047,1047,1050,1054,1057,1057,1057,1060,1063,1063,1067,1067,1070,1073,1077,1077,1080,1084,1084,1087,1288,1288,1288,1288,1283,1283,1283,1283,1283,1283,1283,1283,1283,1288,1292,1288,1288,1288,1288,1283,1283,1283,1283,1283,1268,1268,0,0,0,0,0,0,0,0,0,703,703,703,703,703,703,703,703,703,700,698,697,696,693,693,691,691,690,688,688,688,688,688,690,696,696,697,698,698,700,701,704,704,706,708,708,710,0,0,0,0,0,0,0,0,0,1288,1283,1283,1283,1283,1283,1283,1283,1283,1283,1288,1288,1283,1283,1283,1283,1283,1283,1288,1288,1288,1288,1288,1288,1288,1283,1283,1288,1283,1283,1288,1288,1288,1288,1288,1283,1283,1283,1283,1283,1283,1283,1283,1283,1283,1283,1283,1283,1283,1283,1283,1283,1283,1283,1283,1283,1283,1283,1283,1283,1283,1283,1288,1283,1283,1283,1283,1283,1283,1283,1283,1283,1283,1283,1288,1288,1288,1288,1288,1288,1288,1288,1288,1283,1283,1283,1283,1283,1288,1283,1283,1283,1028,1028,1028,1031,1031,1031,1031,1031,1034,1034,1038,1038,1041,1044,1044,1047,1050,1054,1057,1060,1063,1063,1067,1067,1067,1070,1073,1077,1080,1080,1080,1080,1292,1292,1288,1288,1283,1283,1283,1283,1283,1283,1283,1283,1283,1283,1283,1283,1283,1283,1283,1278,1278,1278,1283,1283,1283,1283,1283,1278,1278,1278,1278,1278,1278,1278,1278,1278,1273,1273,1273,1273,1273,1278,1278,1278,1273,1273,1278,1273,1273,1273,1273,1273,1273,1278,1278,1278,1278,1278,1278,1278,1278,1278,1278,1278,1278,1273,1273,1273,1273,1273,1273,1273,1273,1273,1273,1273,1273,1273,1273,1273,1273,1273,1273,1273,1273,1273,1273,1273,1273,1273,1273,1273,1273,1273,1273,1273,1273,1273,1273,1273,1273,1273,1268,1268,1268,1268,1268,1268,1268,1268,1268,1273,1268,1268,1268,1268,1268,1268,1268,1268,1268,1273,1273,1273,1273,1273,1273,1273,1273,1268,1268,1268,1273,1273,1268,1268,1268,1268,1268,1268,1268,1268,1268,1268,1268,1268,1268,1268,1268,1268,1268,1268,1268,1268,1259,1259,1259,1255,1255,1250,1250,1245,1245,1245,1245,1245,1245,1245,1245,1250,1250,1250,1255,1255,1255,1259,1259,1255,1255,1255,1255,1255,1130,1123,1123,1123,1119,1119,1115,1112,1108,1105,1101,1094,1090,1090,1084,1080,1077,1073,1070,1067,1067,1063,1063,1060,1060,1060,1060,943,943,943,943,946,946,946,946,946,946,946,946,946,946,948,948,948,951,951,951,951,951,951,954,954,956,956,956,959,959,964,967,967,0,0,0,0,0,0,0,0,0,0,0,0,0,0,0,0,0,0,0,0,0,0,0,0,0,0,0,0,0,0,0,0,0,0
0,0,0,0,0,0,0,0,1283,1283,1283,1278,1278,1273,1273,1273,1278,1278,1278,1278,1278,1278,1278,1278,1283,1283,1283,1283,1283,1283,1283,1283,1283,1283,1283,1283,1283,1283,1283,1283,1283,1283,1283,1283,1283,1283,1283,1283,1288,1288,1288,1288,1283,1283,1288,1288,1288,1288,1288,1283,1283,1283,1278,1278,962,956,956,956,956,954,954,948,946,943,943,940,940,943,943,946,946,946,948,951,954,954,956,956,956,959,959,962,962,962,962,962,1288,1288,1288,1283,1283,1278,1278,1283,1283,1283,1283,1283,1288,1288,1292,1028,1028,1028,1028,1028,1028,1025,1025,1028,1028,1028,1028,1031,1031,1031,1031,1031,1034,1034,1034,1034,1038,1038,1041,1044,1044,1044,1047,1047,1050,1050,1054,1057,1057,1057,1060,1063,1067,1067,1070,1073,1077,1077,1080,1080,1084,1278,1283,1283,1283,1283,1283,1283,1283,1283,1278,1278,1278,1278,1278,1278,1283,1283,1283,1283,1283,1283,1283,1283,1283,1278,1278,1268,1268,0,0,0,0,0,0,0,0,0,701,701,701,703,703,703,703,703,703,700,698,697,696,694,693,693,691,691,690,690,688,688,688,690,696,696,697,698,700,701,703,704,704,708,708,708,710,710,711,0,0,0,0,0,0,0,1288,1283,1283,1283,1283,1283,1283,1283,1283,1283,1283,1283,1283,1283,1283,1283,1283,1283,1283,1283,1283,1283,1283,1283,1283,1283,1283,1283,1283,1283,1283,1283,1283,1283,1283,1283,1283,1283,1283,1283,1283,1278,1278,1278,1278,1278,1283,1283,1283,1283,1283,1283,1283,1278,1278,1278,1278,1278,1278,1278,1278,1278,1278,1273,1273,1273,1278,1278,1278,1278,1278,1278,1278,1278,1283,1283,1283,1283,1283,1283,1283,1283,1278,1278,1278,1278,1278,1278,1283,1283,1283,1025,1025,1028,1028,1028,1031,1031,1031,1031,1031,1031,1034,1038,1038,1041,1044,1047,1050,1054,1060,1063,1063,1067,1067,1070,1070,1073,1077,1080,1084,1080,1080,1090,1288,1288,1278,1278,1278,1278,1278,1278,1278,1278,1278,1278,1278,1278,1278,1283,1278,1278,1278,1278,1278,1278,1278,1278,1278,1278,1278,1273,1273,1273,1273,1273,1273,1273,1273,1273,1273,1273,1273,1273,1273,1273,1273,1273,1273,1273,1273,1273,1273,1273,1273,1273,1273,1273,1273,1273,1273,1273,1273,1273,1273,1273,1273,1273,1273,1273,1273,1273,1273,1273,1273,1268,1268,1273,1268,1268,1268,1268,1268,1273,1273,1273,1273,1273,1273,1268,1268,1268,1268,1268,1268,1268,1268,1268,1268,1268,1268,1268,1268,1268,1268,1268,1268,1268,1268,1268,1268,1264,1264,1264,1264,1264,1264,1264,1264,1264,1264,1264,1264,1259,1259,1264,1264,1268,1268,1268,1268,1268,1268,1268,1268,1268,1268,1268,1268,1268,1268,1268,1268,1268,1268,1264,1264,1264,1264,1264,1264,1264,1264,1264,1264,1264,1264,1264,1259,1259,1255,1255,1255,1250,1250,1245,1245,1245,1245,1245,1245,1245,1245,1245,1250,1250,1250,1255,1255,1255,1255,1255,1255,1255,1255,1134,1130,1123,1123,1123,1119,1119,1115,1108,1105,1101,1097,1094,1090,1090,1080,1077,1077,1070,1067,1067,1063,1063,1060,1060,1057,1057,1057,943,943,943,946,946,946,946,946,946,946,946,946,946,946,948,948,948,951,951,951,951,954,954,954,956,956,956,959,962,962,967,967,967,0,0,0,0,0,0,0,0,0,0,0,0,0,0,0,0,0,0,0,0,0,0,0,0,0,0,0,0,0,0,0,0,0,0
0,0,0,0,0,0,0,0,1278,1278,1273,1273,1273,1273,1273,1268,1268,1273,1273,1273,1273,1273,1278,1278,1278,1278,1278,1278,1278,1278,1278,1278,1278,1278,1278,1278,1278,1273,1273,1273,1278,1283,1283,1278,1278,1278,1278,1283,1283,1283,1283,1283,1283,1283,1283,1283,1283,1283,1283,1278,1278,1273,1273,1268,1268,956,956,956,956,956,954,951,948,946,943,943,943,943,943,946,946,948,948,951,954,954,956,956,959,959,962,962,962,962,962,962,0,1283,1283,1283,1278,1278,1278,1016,1016,1016,1016,1016,1016,1288,1288,1025,1025,1025,1028,1028,1025,1025,1025,1025,1025,1025,1025,1028,1028,1031,1031,1031,1034,1034,1034,1034,1038,1038,1041,1044,1044,1044,1047,1047,1050,1050,1054,1057,1057,1057,1060,1063,1067,1067,1070,1073,1077,1080,1268,1273,1273,1278,1278,1283,1283,1278,1278,1278,1278,1278,1273,1273,1273,1273,1273,1273,1273,1278,1278,1278,1278,1278,1278,1278,1278,1278,1278,1268,1268,0,0,0,0,0,0,0,0,0,701,701,701,703,703,704,704,703,703,701,700,697,697,694,693,693,691,691,690,690,690,690,690,690,696,696,697,698,701,703,704,704,706,710,710,710,710,710,711,0,0,0,0,0,0,1013,1013,1283,1283,1278,1278,1283,1283,1283,1283,1283,1283,1283,1278,1278,1278,1278,1283,1283,1283,1283,1283,1283,1278,1278,1278,1278,1278,1278,1278,1278,1278,1278,1278,1278,1278,1278,1278,1283,1278,1278,1278,1273,1273,1273,1273,1273,1278,1278,1278,1278,1278,1278,1278,1273,1273,1273,1273,1273,1273,1273,1273,1273,1273,1273,1273,1268,1268,1268,1268,1268,1273,1273,1273,1273,1278,1278,1278,1278,1283,1278,1278,1278,1273,1273,1273,1273,1273,1273,1278,1022,1022,1022,1025,1025,1025,1028,1028,1028,1028,1028,1031,1031,1034,1034,1038,1038,1041,1044,1047,1054,1060,1063,1063,1067,1067,1070,1070,1073,1077,1084,1087,1080,1080,1090,1090,1268,1268,1273,1268,1268,1273,1273,1273,1273,1273,1273,1273,1273,1273,1273,1278,1273,1273,1273,1273,1273,1273,1273,1273,1273,1273,1273,1273,1273,1273,1268,1268,1268,1268,1268,1268,1268,1268,1273,1273,1273,1273,1273,1268,1268,1268,1268,1268,1268,1268,1268,1268,1268,1268,1268,1268,1268,1268,1268,1268,1268,1268,1268,1268,1268,1268,1268,1268,1268,1268,1268,1268,1268,1268,1268,1268,1268,1268,1268,1268,1268,1268,1268,1268,1268,1268,1268,1268,1268,1268,1268,1268,1268,1268,1268,1268,1268,1268,1268,1264,1264,1264,1264,1264,1264,1264,1264,1264,1259,1259,1264,1259,1259,1259,1259,1259,1259,1259,1259,1259,1259,1259,1259,1264,1264,1264,1264,1264,1264,1264,1264,1259,1259,1264,1264,1264,1264,1264,1264,1264,1264,1264,1264,1259,1259,1259,1259,1264,1259,1259,1264,1264,1259,1259,1255,1255,1255,1255,1250,1250,1245,1245,1245,1245,1245,1245,1245,1245,1245,1245,1250,1250,1250,1255,1255,1255,1250,1250,1250,1250,1134,1123,1123,1119,1119,1119,1115,1108,1105,1101,1097,1094,1090,1087,1084,1080,1077,1073,1070,1067,1063,1063,1060,1060,1057,1057,1057,1054,943,943,943,946,946,946,946,946,946,946,946,946,946,946,948,948,948,951,951,954,954,954,954,954,956,956,959,962,962,964,967,967,967,0,0,0,0,0,0,0,0,0,0,0,0,0,0,0,0,0,0,0,0,0,0,0,0,0,0,0,0,0,0,0,0,0,0
0,0,0,0,0,0,0,0,1278,1273,1273,1268,1268,1268,1268,1268,1268,1268,1268,1268,1268,1273,1273,1273,1278,1273,1273,1273,1273,1273,1273,1273,1273,1273,1273,1273,1273,1273,1273,1273,1273,1273,1278,1273,1273,1273,1273,1278,1278,1278,1278,1278,1283,1283,1283,1278,1278,1278,1278,1273,1268,1268,1268,1268,1268,956,956,956,956,956,954,954,951,946,946,943,943,946,946,946,946,948,951,954,954,954,956,956,959,959,962,962,962,962,962,962,1007,1278,1278,1013,1010,1010,1013,1013,1013,1013,1013,1013,1013,1013,1013,1013,1016,1022,1025,1025,1025,1025,1025,1025,1025,1025,1025,1025,1025,1028,1031,1031,1034,1034,1034,1038,1038,1038,1041,1044,1044,1044,1047,1050,1050,1054,1057,1060,1060,1060,1063,1063,1067,1067,1070,1073,1264,1264,1264,1268,1273,1273,1273,1273,1278,1273,1273,1273,1273,1273,1273,1268,1268,1268,1268,1268,1273,1273,1273,1273,1273,1278,1273,1273,1268,1268,1268,1268,1268,1268,0,0,0,0,0,0,0,0,703,703,703,703,703,704,704,704,703,701,700,698,697,694,694,693,693,691,691,691,691,691,691,691,696,696,697,698,701,703,704,704,706,710,710,711,711,711,711,0,0,0,0,0,0,1013,1013,1013,1013,1013,1278,1278,1278,1278,1278,1278,1278,1278,1273,1273,1278,1278,1278,1278,1278,1278,1278,1278,1273,1273,1273,1273,1273,1273,1273,1273,1273,1273,1273,1273,1273,1273,1273,1273,1273,1273,1273,1273,1273,1273,1268,1268,1273,1273,1273,1273,1273,1273,1273,1268,1268,1268,1268,1268,1268,1268,1268,1268,1268,1268,1268,1268,1268,1268,1268,1268,1268,1264,1264,1273,1273,1273,1273,1273,1273,1273,1273,1273,1273,1273,1273,1273,1273,1273,1278,1022,1022,1022,1022,1025,1025,1025,1028,1028,1028,1028,1028,1031,1031,1034,1038,1038,1041,1044,1047,1054,1060,1063,1063,1067,1067,1070,1070,1077,1077,1084,1087,1087,1090,1090,1090,1264,1264,1268,1268,1268,1268,1268,1268,1268,1268,1268,1268,1273,1273,1273,1268,1268,1273,1268,1268,1268,1268,1268,1268,1268,1268,1268,1268,1268,1268,1268,1264,1264,1264,1264,1264,1264,1264,1268,1268,1268,1268,1268,1264,1264,1264,1264,1264,1264,1264,1264,1268,1268,1268,1268,1268,1268,1264,1264,1264,1264,1264,1259,1259,1259,1259,1259,1264,1264,1264,1264,1264,1264,1264,1264,1264,1264,1264,1264,1264,1264,1264,1264,1264,1264,1264,1264,1264,1264,1264,1264,1264,1264,1264,1264,1264,1264,1264,1264,1264,1264,1264,1264,1259,1259,1259,1259,1259,1255,1255,1259,1255,1255,1255,1255,1255,1255,1255,1255,1255,1255,1255,1255,1259,1259,1259,1259,1259,1259,1259,1259,1255,1255,1255,1255,1259,1259,1259,1259,1259,1259,1255,1255,1259,1259,1259,1259,1259,1255,1255,1259,1259,1259,1255,1255,1255,1255,1250,1250,1250,1245,1245,1245,1245,1245,1245,1245,1245,1245,1245,1245,1250,1250,1250,1250,1250,1250,1250,1250,1250,1250,1123,1119,1119,1119,1115,1112,1108,1101,1097,1097,1094,1090,1084,1080,1080,1077,1073,1067,1067,1063,1060,1060,1057,1057,1054,1054,946,943,943,946,946,946,946,946,946,946,946,946,946,946,948,948,948,948,951,951,954,954,954,956,956,956,959,959,962,964,967,967,967,967,0,0,0,0,0,0,0,0,0,0,0,0,0,0,0,0,0,0,0,0,0,0,0,0,0,0,0,0,0,0,0,0,0,0
0,0,0,0,0,0,0,0,1273,1273,1268,1268,1268,1268,1268,1264,1264,1264,1264,1264,1264,1268,1268,1268,1268,1268,1268,1268,1268,1268,1268,1268,1268,1268,1268,1273,1268,1268,1268,1268,1268,1268,1273,1273,1273,1273,1273,1273,1273,1273,1273,1273,1278,1278,1278,1273,1273,1273,1273,1268,1268,1268,1264,1264,1259,956,956,956,956,959,956,956,954,946,946,946,946,946,946,946,946,948,951,951,954,954,956,956,959,959,962,964,964,962,962,962,1007,1007,1007,1010,1010,1010,1013,1013,1013,1013,1013,1013,1013,1013,1013,1013,1013,1016,1019,1019,1019,1022,1022,1022,1022,1025,1025,1025,1025,1025,1031,1031,1034,1034,1034,1038,1038,1041,1044,1044,1044,1047,1047,1050,1054,1057,1060,1060,1060,1063,1063,1067,1067,1067,1264,1259,1259,1259,1264,1264,1268,1268,1268,1268,1268,1268,1268,1268,1268,1268,1268,1268,1268,1268,1268,1268,1268,1268,1268,1268,1268,1268,1268,1268,1268,1264,1264,1264,1264,1264,0,0,0,0,0,0,0,0,703,703,703,703,703,704,704,704,703,703,701,698,697,696,694,694,693,693,691,691,691,691,691,694,696,696,697,698,701,703,704,704,708,710,711,713,713,711,711,0,0,0,0,0,0,1013,1013,1013,1013,1013,1013,1278,1278,1273,1273,1273,1273,1268,1268,1273,1273,1273,1273,1273,1273,1273,1273,1273,1273,1268,1268,1268,1268,1268,1268,1268,1268,1268,1268,1268,1273,1273,1273,1273,1273,1273,1268,1268,1268,1268,1268,1268,1268,1268,1268,1268,1268,1268,1268,1268,1268,1268,1268,1268,1268,1268,1268,1268,1268,1268,1264,1264,1264,1264,1264,1264,1264,1264,1264,1268,1268,1268,1273,1268,1268,1273,1268,1268,1268,1268,1273,1268,1268,1016,1016,1019,1019,1019,1022,1022,1022,1025,1025,1025,1025,1028,1028,1031,1031,1034,1038,1038,1041,1044,1050,1054,1060,1063,1067,1067,1070,1070,1073,1077,1080,1084,1087,1090,1090,1090,1090,1259,1259,1264,1264,1264,1264,1264,1264,1264,1264,1259,1259,1259,1268,1268,1268,1268,1268,1268,1268,1268,1268,1264,1264,1268,1268,1264,1264,1264,1264,1264,1259,1259,1259,1259,1259,1259,1259,1264,1264,1264,1264,1264,1259,1259,1259,1259,1259,1259,1259,1259,1259,1259,1259,1264,1264,1264,1264,1264,1259,1259,1259,1259,1259,1259,1259,1259,1259,1259,1259,1259,1259,1264,1259,1259,1259,1259,1259,1264,1264,1259,1259,1259,1259,1259,1259,1259,1259,1259,1259,1259,1259,1264,1259,1259,1264,1264,1264,1259,1259,1259,1259,1259,1255,1255,1255,1255,1255,1255,1255,1255,1255,1255,1255,1255,1255,1255,1255,1255,1255,1255,1255,1255,1255,1255,1255,1255,1255,1255,1255,1255,1255,1255,1255,1255,1255,1255,1255,1255,1255,1255,1255,1255,1255,1255,1255,1255,1255,1255,1255,1259,1259,1255,1255,1250,1250,1250,1250,1250,1245,1241,1241,1241,1241,1241,1241,1241,1241,1245,1245,1245,1241,1241,1245,1245,1250,1245,1245,1250,1250,1250,1119,1115,1115,1112,1112,1112,1105,1101,1097,1094,1090,1084,1080,1080,1077,1073,1073,1067,1063,1060,1057,1057,1054,1054,1054,1054,943,943,943,946,946,946,946,946,946,946,946,946,946,948,948,948,948,948,951,951,954,954,956,956,956,959,959,962,962,964,967,970,967,967,0,0,0,0,0,0,0,0,0,0,0,0,0,0,0,0,0,0,0,0,0,0,0,0,0,0,0,0,0,0,0,0,0,0
0,0,0,0,0,0,0,0,1268,1268,1264,1264,1264,1264,1264,1264,1259,1259,1259,1264,1264,1264,1264,1264,1268,1264,1264,1264,1264,1268,1268,1264,1264,1268,1268,1268,1264,1264,1264,1264,1264,1264,1268,1268,1268,1268,1268,1268,1268,1268,1264,1264,1268,1273,1273,1273,1273,1273,1268,1268,1264,1264,1264,1264,1259,1259,959,956,956,959,959,956,956,954,948,946,946,946,946,946,948,948,951,951,954,954,956,956,959,962,964,964,964,964,964,956,956,1007,1007,1010,1010,1010,1010,1013,1013,1013,1013,1013,1013,1013,1013,1013,1013,1013,1016,1016,1016,1019,1022,1022,1022,1022,1022,1025,1025,1025,1031,1031,1034,1034,1034,1038,1038,1041,1044,1044,1047,1047,1050,1054,1054,1057,1060,1060,1060,1067,1067,1067,1264,1264,1259,1255,1255,1255,1255,1259,1264,1264,1264,1264,1264,1264,1264,1264,1264,1264,1264,1264,1268,1268,1268,1268,1268,1268,1268,1264,1264,1264,1264,1264,1264,1264,1259,1259,1259,1259,1259,0,0,0,0,0,0,0,0,0,0,704,704,704,706,706,706,703,703,700,698,696,694,694,693,693,693,693,693,693,693,694,696,696,697,698,703,703,704,704,708,711,711,713,713,711,711,0,0,0,0,0,0,1013,1013,1013,1013,1013,1013,1016,1273,1273,1268,1268,1268,1268,1268,1268,1268,1268,1268,1268,1268,1268,1268,1268,1268,1268,1268,1268,1268,1268,1268,1268,1268,1268,1268,1268,1268,1268,1268,1268,1268,1268,1268,1268,1268,1268,1264,1264,1268,1268,1264,1264,1264,1264,1264,1264,1264,1264,1264,1264,1264,1264,1264,1264,1264,1264,1264,1264,1259,1259,1264,1259,1259,1259,1259,1264,1264,1264,1264,1264,1264,1268,1268,1268,1268,1268,1268,1268,1268,1016,1016,1016,1016,1019,1019,1019,1019,1022,1025,1025,1025,1025,1028,1028,1031,1034,1038,1038,1044,1044,1050,1054,1060,1063,1067,1070,1073,1073,1077,1080,1084,1087,1087,1090,1090,1090,1090,1255,1255,1259,1259,1259,1259,1259,1259,1259,1259,1259,1259,1259,1259,1259,1259,1264,1264,1264,1264,1264,1264,1264,1264,1264,1264,1259,1259,1259,1259,1259,1259,1255,1255,1259,1259,1259,1259,1259,1259,1259,1259,1259,1255,1255,1255,1255,1255,1255,1255,1255,1255,1255,1255,1259,1259,1259,1259,1259,1259,1259,1255,1255,1255,1255,1255,1255,1255,1255,1255,1255,1255,1255,1255,1255,1255,1259,1259,1259,1259,1259,1259,1259,1259,1259,1255,1255,1255,1255,1255,1255,1255,1255,1255,1255,1259,1259,1259,1259,1255,1255,1255,1255,1255,1255,1255,1255,1255,1250,1250,1250,1250,1250,1250,1250,1250,1250,1250,1250,1250,1250,1250,1250,1250,1250,1250,1255,1255,1250,1250,1250,1250,1250,1250,1250,1250,1250,1255,1255,1255,1255,1250,1250,1250,1255,1250,1250,1250,1250,1250,1255,1255,1255,1250,1250,1250,1250,1250,1245,1245,1241,1241,1241,1241,1241,1236,1236,1236,1241,1241,1241,1241,1241,1241,1241,1245,1241,1241,1245,1245,1245,1119,1115,1112,1112,1108,1105,1101,1097,1097,1094,1090,1084,1080,1080,1077,1073,1070,1063,1060,1060,1057,1054,1054,1054,1054,1050,943,943,943,943,943,943,946,946,946,946,946,946,946,948,948,948,948,948,951,951,954,954,956,956,956,959,959,962,964,964,970,970,967,967,0,0,0,0,0,0,0,0,0,0,0,0,0,0,0,0,0,0,0,0,0,0,0,0,0,0,0,0,0,0,0,0,0,0
0,0,0,0,0,0,0,0,1268,1264,1264,1264,1264,1259,1259,1259,1259,1259,1259,1259,1259,1259,1259,1264,1264,1264,1264,1264,1264,1264,1264,1264,1264,1264,1264,1264,1259,1259,1259,1255,1255,1259,1259,1264,1264,1259,1259,1259,1264,1264,1259,1259,1264,1264,1264,1264,1264,1268,1268,1268,1264,1264,1259,1259,1255,1255,959,959,959,959,959,956,956,954,951,948,946,946,946,946,948,948,951,954,954,954,956,956,959,962,964,964,964,964,964,956,956,1007,1007,1007,1010,1010,1010,1010,1010,1010,1010,1010,1010,1013,1013,1013,1013,1013,1013,1016,1016,1019,1019,1022,1022,1022,1022,1025,1025,1025,1028,1031,1034,1034,1038,1038,1041,1041,1044,1047,1047,1047,1050,1054,1054,1057,1060,1060,1063,1067,1067,1264,1264,1259,1259,1255,1255,1255,1255,1255,1259,1259,1259,1259,1259,1259,1259,1259,1259,1259,1264,1264,1264,1264,1264,1264,1264,1264,1264,1259,1259,1259,1259,1259,1259,1259,1255,1255,1255,1250,1250,0,0,0,0,0,0,0,0,0,0,0,0,707,707,706,706,706,703,701,698,697,696,694,694,693,693,693,693,693,693,694,696,696,697,701,703,704,704,704,708,711,711,713,713,713,713,0,0,0,0,0,1016,1013,1013,1013,1013,1013,1013,1013,1013,1268,1268,1268,1268,1268,1264,1264,1264,1264,1264,1264,1264,1264,1264,1264,1264,1264,1264,1264,1264,1264,1264,1264,1264,1264,1264,1264,1268,1268,1264,1264,1264,1264,1264,1264,1264,1264,1264,1264,1264,1264,1264,1259,1259,1259,1259,1259,1259,1259,1259,1259,1259,1259,1259,1259,1259,1259,1255,1255,1255,1255,1255,1255,1255,1255,1255,1259,1259,1259,1259,1264,1264,1264,1264,1264,1268,1268,1268,1273,1016,1016,1016,1016,1016,1016,1016,1016,1016,1019,1022,1022,1025,1025,1025,1028,1031,1034,1038,1041,1044,1044,1047,1054,1060,1067,1067,1070,1073,1073,1077,1080,1084,1087,1090,1090,1090,1090,1090,1255,1255,1255,1259,1259,1255,1255,1255,1255,1255,1255,1255,1255,1255,1255,1255,1255,1255,1255,1259,1259,1259,1259,1259,1259,1259,1255,1255,1255,1255,1255,1255,1255,1255,1255,1255,1255,1255,1255,1255,1255,1255,1255,1255,1255,1255,1255,1255,1255,1250,1250,1250,1255,1255,1255,1255,1255,1255,1255,1255,1255,1255,1255,1250,1250,1255,1255,1255,1250,1250,1250,1255,1255,1255,1250,1250,1255,1255,1255,1255,1255,1255,1255,1255,1255,1255,1255,1250,1250,1250,1250,1250,1250,1250,1250,1255,1255,1250,1250,1250,1250,1250,1250,1250,1250,1250,1250,1250,1250,1250,1250,1250,1250,1250,1250,1250,1250,1250,1250,1250,1250,1250,1250,1245,1245,1250,1250,1245,1245,1245,1245,1245,1245,1245,1245,1245,1250,1250,1250,1250,1250,1241,1241,1250,1250,1250,1245,1245,1250,1181,1181,1250,1250,1250,1250,1250,1250,1245,1245,1241,1236,1236,1236,1241,1236,1236,1236,1236,1236,1236,1236,1236,1236,1236,1236,1236,1236,1236,1236,1245,1245,1119,1115,1112,1108,1108,1105,1097,1097,1097,1094,1090,1084,1080,1077,1073,1070,1067,1063,1060,1057,1054,1054,1054,1054,1054,1050,943,943,943,943,943,943,946,946,946,946,946,946,946,948,948,948,948,951,951,951,954,954,956,956,959,959,962,962,967,967,970,970,967,967,0,0,0,0,0,0,0,0,0,0,0,0,0,0,0,0,0,0,0,0,0,0,0,0,0,0,0,0,0,0,0,0,0,0
0,0,0,0,0,0,0,0,1264,1264,1259,1259,1259,1255,1255,1255,1255,1255,1255,1255,1255,1255,1255,1259,1259,1255,1255,1259,1259,1259,1264,1259,1259,1259,1259,1259,1255,1255,1255,1250,1250,1255,1255,1255,1255,1255,1255,1255,1255,1255,1255,1255,1259,1259,1259,1264,1264,1264,1264,1264,1264,1259,1259,1259,1255,1255,959,959,959,959,959,959,956,956,954,954,951,948,948,948,948,951,951,954,954,954,956,959,962,964,964,964,964,964,967,967,1007,1007,1004,1004,1007,1007,1007,1007,1007,1010,1010,1010,1010,1010,1010,1010,1010,1013,1013,1013,1013,1016,1019,1022,1022,1022,1022,1025,1025,1025,1028,1031,1034,1034,1038,1038,1041,1041,1044,1047,1047,1047,1050,1054,1054,1057,1060,1060,1063,1067,1070,1255,1255,1255,1255,1255,1255,1255,1255,1255,1255,1255,1255,1255,1255,1255,1259,1255,1255,1255,1259,1259,1264,1264,1264,1264,1259,1259,1259,1255,1255,1255,1255,1255,1255,1255,1255,1255,1250,1250,1250,0,0,0,0,0,0,0,0,0,0,0,0,707,707,707,707,706,703,701,700,697,697,696,694,694,693,693,693,693,694,696,696,696,697,703,703,704,704,706,708,711,711,713,713,713,0,0,0,0,0,0,1016,1013,1013,1013,1013,1013,1013,1013,1013,1013,1013,1268,1268,1264,1264,1264,1264,1264,1259,1259,1259,1259,1259,1259,1259,1259,1264,1264,1264,1264,1264,1264,1264,1264,1264,1264,1264,1264,1264,1264,1259,1259,1259,1259,1259,1259,1259,1259,1259,1259,1259,1255,1255,1255,1255,1255,1255,1255,1255,1255,1255,1255,1255,1255,1255,1255,1255,1255,1250,1250,1250,1250,1250,1250,1250,1255,1255,1255,1259,1259,1259,1264,1264,1264,1268,1268,1268,1013,1013,1013,1013,1016,1016,1016,1016,1016,1016,1016,1019,1019,1022,1022,1025,1028,1031,1034,1038,1041,1044,1044,1047,1050,1063,1070,1073,1073,1077,1077,1077,1080,1084,1087,1090,1090,1094,1094,1094,1250,1250,1255,1255,1255,1255,1255,1255,1250,1250,1250,1250,1250,1250,1250,1250,1250,1250,1250,1250,1250,1250,1250,1255,1255,1255,1255,1255,1255,1255,1255,1255,1250,1250,1250,1250,1250,1250,1250,1250,1250,1250,1250,1250,1250,1250,1250,1250,1250,1250,1245,1245,1250,1250,1250,1250,1250,1255,1255,1250,1250,1250,1250,1250,1250,1250,1250,1250,1250,1250,1250,1250,1250,1250,1250,1250,1250,1250,1250,1250,1250,1250,1250,1250,1250,1250,1250,1250,1250,1250,1250,1250,1250,1250,1250,1245,1245,1245,1245,1245,1245,1245,1245,1245,1245,1245,1245,1245,1245,1245,1245,1245,1245,1245,1245,1245,1245,1245,1245,1245,1245,1245,1241,1241,1241,1241,1241,1236,1236,1236,1236,1245,1245,1245,1245,1245,1250,1250,1250,1250,1250,1202,1202,1250,1250,1250,1245,1245,1185,1181,1181,1250,1181,1177,1177,1250,1250,1245,1245,1241,1236,1236,1236,1236,1236,1236,1236,1236,1236,1236,1232,1232,1232,1232,1236,1236,1232,1232,1232,1245,1245,1115,1112,1108,1108,1105,1105,1097,1097,1094,1090,1084,1080,1073,1073,1073,1067,1063,1060,1057,1057,1054,1054,1054,1054,1054,943,943,943,946,946,946,946,946,946,946,946,946,946,946,948,948,948,948,951,951,951,954,956,956,956,959,959,962,964,967,970,970,970,967,967,0,0,0,0,0,0,0,0,0,0,0,0,0,0,0,0,0,0,0,0,0,0,0,0,0,0,0,0,0,0,0,0,0,0
