0,0,0,1013,1013,1010,1010,1010,1010,1010,1010,1007,1007,1007,1004,1004,1004,1001,1001,998,998,998,995,995,989,989,989,989,992,992,989,989,995,995,995,995,995,995,995,995,995,995,992,992,992,992,992,989,989,989,989,989,989,989,989,989,989,989,989,989,989,989,989,989,989,989,987,987,987,987,987,987,989,989,989,989,989,989,987,987,987,987,987,987,987,987,987,987,987,987,987,987,987,987,987,987,987,987,987,987,987,987,987,987,987,987,987,987,984,984,984,984,984,984,981,981,987,987,987,987,987,987,987,987,987,987,984,984,984,984,984,984,984,984,984,984,984,984,978,978,978,978,978,975,975,975,0,0,0,787,787,787,787,787,787,787,787,787,787,789,789,789,789,790,794,796,798,798,798,800,802,802,803,803,807,811,813,815,815,813,813,813,813,817,817,819,975,975,975,975,975,975,975,975,975,978,978,978,978,978,978,978,975,975,975,975,975,975,975,975,975,973,973,975,973,973,973,973,973,973,973,970,970,970,970,970,973,973,973,973,973,973,973,973,973,973,973,973,973,973,973,973,973,973,970,970,970,967,967,967,967,967,967,967,967,967,967,967,967,967,967,967,967,967,967,967,967,967,967,967,967,967,967,967,967,970,970,970,967,967,967,967,967,967,967,967,967,967,964,964,964,964,964,964,962,962,962,962,962,964,964,964,964,962,962,962,962,962,962,964,964,964,964,964,964,967,967,967,967,967,967,967,967,964,964,967,967,967,964,964,964,964,964,964,964,964,967,967,964,964,964,964,964,964,964,962,962,962,964,962,962,962,964,964,962,962,962,964,962,962,962,962,962,959,959,959,962,962,962,962,959,959,959,959,959,959,959,959,959,959,962,962,962,962,962,962,959,959,959,959,959,959,959,959,959,959,959,959,959,959,959,959,959,956,956,956,956,956,956,956,956,956,956,954,954,954,951,951,954,954,954,951,951,951,951,948,948,948,948,956,956,956,954,954,954,951,951,951,951,951,948,948,948,948,951,951,948,948,948,948,951,948,948,948,948,948,948,948,946,946,946,946,946,946,948,948,948,948,948,948,948,946,946,946,946,946,946,946,946,946,946,948,946,946,946,946,946,946,946,946,946,946,946,946,946,946,946,946,946,946,943,943,943,943,943,943,943,940,940,940,940,938,938,938,938,940,940,940,940,943,943,946,946,943,943,943,943,943,943,943,943,943,943,943,943,943,943,943,943,946,946,946,943,943,940,940,940,938,938,940,940,940,940,940,940,940,940,940,940,943,943,943,749,749,750,750,750,750,749,749,749,749,749,749,749,749,749,747,747,747,746,746,744,744,744,744,744,742,742,742,742,742,742,742,741,741,741,741,741,741,0,0,0,0,0,0,0,0,0,0,0,0,0,0,0,0,0,0,0,0,0,0,0,0,0,0,0,0,0,0,0,0,0,0,0,0,0,0,0,0
0,0,0,1010,1010,1010,1010,1010,1010,1007,1004,1004,1004,1004,1001,1001,1001,998,998,995,995,995,995,995,989,989,989,989,989,989,989,989,989,989,989,989,989,992,992,992,992,992,989,989,989,989,989,989,987,987,987,987,987,987,987,987,987,987,987,987,987,987,987,987,987,987,984,984,984,984,984,984,984,987,987,984,984,987,984,984,981,981,981,981,981,981,981,984,984,984,984,987,987,987,987,987,984,984,984,984,981,981,984,984,984,984,984,984,981,981,981,981,981,981,981,981,981,981,981,981,984,984,984,984,984,984,984,981,981,981,981,984,984,981,981,981,981,981,978,978,978,978,975,975,973,973,973,0,787,787,787,787,789,789,789,789,787,787,789,789,789,789,789,794,794,796,798,800,802,802,802,802,803,803,807,811,813,815,815,813,813,813,813,817,817,973,973,973,973,975,973,973,973,973,975,975,975,975,975,975,975,975,975,975,975,975,975,975,975,973,973,970,970,973,973,973,973,970,970,970,970,967,967,967,967,967,970,970,970,970,970,970,970,970,970,970,973,970,970,970,970,970,970,970,967,967,967,967,967,967,967,967,967,967,967,967,967,967,967,967,967,967,964,964,964,964,964,964,964,964,967,967,964,964,964,967,967,967,967,964,964,964,964,964,964,964,964,964,964,964,964,962,962,962,962,962,962,962,962,962,962,959,959,962,959,959,962,959,959,964,962,962,962,962,962,964,962,962,962,962,967,964,964,962,962,964,964,964,964,962,962,962,962,962,962,962,964,964,964,964,962,962,964,964,962,959,959,959,959,959,959,959,959,962,959,959,962,962,959,959,959,959,959,959,959,959,959,959,959,959,959,959,956,956,956,956,956,956,956,959,959,959,959,959,959,959,959,959,956,956,956,956,956,956,959,956,956,956,956,956,956,956,954,954,954,954,954,954,954,954,954,954,954,954,951,951,951,951,951,951,951,948,948,948,948,946,946,946,946,948,948,951,954,951,951,951,951,951,948,948,948,948,948,948,948,948,948,948,946,946,946,948,948,948,948,946,946,946,946,946,943,943,943,946,946,946,946,946,946,946,946,946,946,946,943,943,943,943,943,943,943,943,943,943,940,940,940,943,943,943,943,943,943,943,943,943,943,943,943,943,943,943,943,943,940,940,940,940,940,938,938,938,938,938,938,938,938,940,940,940,940,943,943,940,940,940,940,940,940,938,938,940,940,940,938,938,940,940,940,940,940,940,943,940,940,940,938,938,938,938,938,938,938,938,938,940,940,938,938,943,943,750,749,749,750,750,750,750,749,749,749,749,749,749,749,747,747,747,747,746,746,746,744,744,744,744,742,742,741,741,742,742,742,742,741,741,741,741,741,741,0,0,0,0,0,0,0,0,0,0,0,0,0,0,0,0,0,0,0,0,0,0,0,0,0,0,0,0,0,0,0,0,0,0,0,0,0,0,0,0
0,0,0,1010,1010,1007,1007,1007,1007,1004,1001,1001,1001,1001,1001,1001,998,998,998,995,995,995,995,992,989,989,989,989,989,989,989,989,987,987,987,987,987,989,987,987,987,989,987,987,987,987,987,987,987,987,987,987,987,987,987,987,987,984,984,984,984,984,981,981,984,984,981,981,981,981,981,981,981,981,981,981,981,984,984,981,981,981,981,981,978,978,981,981,981,981,981,981,984,984,984,984,981,981,981,978,978,978,978,978,978,981,981,981,978,978,978,978,978,978,978,978,978,978,975,975,975,975,978,981,981,981,981,981,981,981,981,981,981,981,981,978,978,978,975,975,975,975,975,973,973,973,0,970,0,789,787,787,789,789,789,789,789,789,789,789,789,790,790,796,796,798,798,800,802,802,802,802,803,803,805,811,811,811,813,813,813,813,967,967,970,970,970,970,970,973,970,970,970,970,970,970,973,973,973,973,973,973,973,973,973,973,973,973,973,973,970,970,970,970,970,970,970,970,970,967,967,967,967,967,967,967,967,967,967,967,967,967,967,967,967,967,967,967,967,964,964,967,967,967,967,964,964,964,964,964,964,964,964,964,964,964,964,964,964,964,964,964,964,964,964,964,964,964,962,962,964,964,962,962,962,962,962,964,964,964,962,962,962,962,962,962,962,962,962,962,962,962,962,962,959,959,959,959,959,959,959,956,956,959,959,959,959,956,956,962,959,959,959,959,959,959,959,959,959,959,959,959,959,959,959,962,962,962,962,959,959,959,959,959,959,959,959,962,962,962,959,959,959,959,959,959,956,956,959,959,959,959,959,959,959,959,959,959,959,959,956,956,956,956,956,956,956,956,956,956,956,956,956,956,954,954,954,954,954,954,956,956,956,956,956,956,956,956,956,954,954,954,956,956,956,956,956,956,956,954,954,954,954,951,951,951,951,951,951,951,948,948,948,948,948,948,948,948,948,948,948,946,946,946,946,943,943,946,946,946,946,948,948,948,948,948,948,948,948,948,948,946,946,946,946,946,946,946,946,943,943,943,943,946,946,946,946,946,943,943,943,943,943,943,943,943,943,943,943,943,943,943,943,943,940,940,940,940,940,940,940,940,940,940,940,940,940,940,940,940,940,940,940,940,940,940,940,940,940,940,940,940,940,940,940,940,940,938,938,938,938,938,938,938,938,938,938,938,938,938,938,938,940,938,938,938,938,938,938,935,935,935,935,938,938,938,938,938,938,938,938,938,938,938,938,938,938,935,935,938,938,938,938,938,938,938,938,938,938,747,747,749,749,749,750,750,750,749,749,749,749,749,749,747,747,747,747,747,746,746,746,746,744,744,742,742,742,741,741,741,741,741,741,742,741,741,741,741,741,741,0,0,0,0,0,0,0,0,0,0,0,0,0,0,0,0,0,0,0,0,0,0,0,0,0,0,0,0,0,0,0,0,0,0,0,0,0,0,0,0
0,0,0,1010,1007,1007,1004,1004,1004,1001,998,998,1001,998,998,998,998,995,995,992,992,995,992,992,992,989,989,989,989,989,989,989,987,987,987,987,987,989,987,987,984,984,984,984,984,987,984,984,987,987,987,984,984,984,984,984,984,984,984,984,981,981,981,981,981,981,981,981,978,978,978,978,978,978,978,978,978,978,981,981,978,978,978,981,978,978,978,978,981,978,978,978,981,981,981,981,981,978,978,975,975,975,975,975,975,978,978,978,978,978,978,978,978,978,978,978,975,975,975,975,975,975,975,975,975,975,978,978,978,978,978,981,981,978,978,978,978,975,975,973,973,973,973,973,970,970,970,0,0,0,787,787,789,789,789,789,789,789,789,789,789,790,790,796,798,798,800,802,802,802,802,803,803,803,805,811,809,809,813,813,962,962,964,967,967,967,967,970,970,970,970,967,967,967,967,967,967,967,967,970,970,970,970,970,973,970,970,970,970,967,967,967,967,967,967,967,967,967,967,967,964,964,964,964,964,964,964,964,964,964,964,964,967,967,967,964,964,964,964,962,962,964,964,964,964,964,964,964,964,964,964,964,964,964,964,964,964,964,964,962,962,962,959,959,959,962,962,962,959,959,962,962,962,962,959,959,959,959,959,962,962,959,959,959,962,962,962,962,959,959,962,959,959,959,959,956,956,956,956,956,956,956,956,956,956,956,956,956,956,959,956,956,956,956,956,959,956,956,956,956,956,956,954,954,954,956,959,959,959,956,956,956,956,956,956,956,956,959,959,959,959,959,959,959,956,956,956,956,956,956,956,956,956,956,956,956,956,956,956,954,954,954,954,954,954,954,954,954,954,954,956,954,954,954,954,951,951,951,951,951,951,951,951,956,956,956,956,956,954,954,954,954,954,954,954,954,954,954,954,951,951,951,948,948,948,948,948,948,948,948,948,948,946,946,946,946,946,946,946,948,946,943,943,943,943,940,940,943,943,943,946,946,946,946,946,946,948,946,946,946,946,946,943,943,946,943,943,943,943,943,943,943,943,943,943,943,943,943,943,940,940,940,940,940,940,940,940,940,940,940,940,938,938,938,938,938,938,938,938,938,938,938,938,938,938,938,938,938,938,938,938,938,938,938,938,938,938,938,938,938,938,938,938,938,938,938,938,938,938,935,935,935,935,935,935,935,935,935,935,935,933,933,933,933,933,933,933,935,935,935,935,933,933,933,935,935,935,935,935,935,935,935,935,933,933,935,935,935,935,935,938,938,938,938,938,938,938,938,747,747,747,749,749,749,750,750,750,749,749,749,749,749,749,747,747,746,746,746,746,746,744,744,744,742,742,742,742,741,741,741,741,741,741,742,741,741,741,741,741,741,0,0,0,0,0,0,0,0,0,0,0,0,0,0,0,0,0,0,0,0,0,0,0,0,0,0,0,0,0,0,0,0,0,0,0,0,0,0,0,0
0,0,0,1010,1007,1004,1004,1004,1001,998,998,995,995,995,995,995,995,995,995,992,992,992,989,989,989,989,989,989,989,989,989,989,987,987,987,987,987,981,978,978,978,978,981,981,981,981,981,981,984,984,984,981,981,981,981,981,981,981,981,981,981,978,978,978,978,978,978,978,978,978,975,975,975,978,978,975,975,975,978,975,975,975,975,978,975,975,978,978,978,978,975,975,975,975,978,978,978,978,975,975,975,973,973,973,975,975,975,975,975,975,975,975,975,975,975,975,975,975,973,973,973,973,973,973,973,973,973,973,975,975,978,978,978,975,975,975,975,973,973,970,970,970,970,970,970,967,967,967,0,0,0,789,789,789,789,789,789,789,789,790,790,792,792,796,798,798,800,802,802,802,803,803,803,803,805,811,809,809,964,964,962,962,964,964,967,964,964,967,967,967,967,964,964,967,967,967,967,967,967,967,967,964,964,967,967,967,967,967,967,967,964,964,964,964,964,964,964,964,964,964,964,964,964,964,964,964,964,964,964,962,962,964,964,964,964,962,962,962,962,959,959,959,962,962,962,962,962,962,962,962,962,962,962,962,962,962,962,962,962,962,959,959,956,956,956,956,956,956,956,956,959,959,956,956,959,956,956,956,956,956,956,956,956,956,956,956,956,956,956,956,956,956,956,956,956,956,956,956,956,956,956,956,956,956,956,956,954,954,954,956,956,956,956,956,956,956,956,956,954,954,954,954,954,954,954,954,954,954,954,954,954,954,954,954,954,954,954,954,956,956,956,956,954,954,954,954,954,954,954,954,954,954,954,954,954,951,951,954,954,951,951,951,948,948,951,948,948,948,951,951,951,951,951,951,948,948,948,948,948,948,948,948,948,951,951,954,954,954,954,951,951,951,951,951,951,951,951,951,951,951,948,948,948,948,946,946,946,946,946,946,946,946,946,946,946,946,946,946,946,946,943,940,940,940,940,940,940,940,940,940,943,943,943,943,943,943,943,943,943,946,943,943,940,940,943,940,940,940,940,940,940,940,940,943,943,940,940,940,940,940,938,938,938,938,938,938,938,938,938,938,938,938,938,938,938,938,938,938,938,938,938,938,938,938,935,935,935,935,935,935,935,935,935,935,935,935,935,935,935,935,938,935,935,938,938,938,938,935,935,935,933,933,935,935,933,933,933,933,933,930,930,930,930,930,930,930,930,930,933,933,933,933,930,930,930,930,930,930,933,933,933,933,933,930,930,933,933,933,935,935,935,935,935,938,938,938,938,938,747,747,749,750,750,750,750,750,750,749,749,749,749,749,747,747,746,746,746,746,744,744,744,744,744,742,742,742,741,741,741,739,739,739,741,741,741,741,741,741,741,741,0,0,0,0,0,0,0,0,0,0,0,0,0,0,0,0,0,0,0,0,0,0,0,0,0,0,0,0,0,0,0,0,0,0,0,0,0,0,0,0
0,0,0,1007,1004,1004,1004,1001,1001,998,995,992,992,992,992,992,992,992,992,989,989,992,989,989,989,987,987,987,987,987,987,987,987,987,981,981,981,978,978,978,978,978,981,981,981,981,978,978,978,978,978,978,978,978,978,981,981,981,981,978,978,978,978,975,975,975,975,975,975,975,975,975,975,975,975,975,975,975,975,975,975,973,973,975,975,975,975,975,975,975,975,975,973,973,973,975,975,975,973,973,973,973,970,970,973,973,973,975,975,975,975,975,975,975,975,973,973,973,973,970,970,970,970,970,970,970,970,970,970,973,973,973,973,975,975,973,973,973,970,970,970,970,970,967,967,967,967,967,967,0,0,0,789,789,789,789,789,790,790,790,790,792,794,796,798,798,800,802,802,803,803,803,803,803,805,805,962,962,962,962,962,962,962,964,964,964,964,964,967,967,967,964,964,964,964,964,964,964,964,964,964,964,964,964,964,964,964,964,964,964,964,962,962,964,964,964,964,962,962,964,964,964,964,962,962,962,962,962,962,959,959,962,962,962,959,959,959,959,959,956,956,959,959,959,959,959,959,959,959,959,959,959,959,959,959,959,959,959,959,959,956,956,956,956,956,954,954,954,954,954,954,956,956,956,956,956,956,956,956,956,954,954,954,954,954,954,954,954,954,954,954,954,954,954,954,954,954,954,954,954,954,954,954,954,954,954,951,951,951,954,954,954,954,954,954,954,951,951,951,951,951,951,951,951,951,951,951,951,951,948,948,948,951,951,951,951,951,951,951,951,954,954,951,951,951,951,951,951,951,951,951,951,951,951,951,948,948,951,948,948,948,948,948,948,948,948,948,948,948,948,948,948,948,948,948,948,948,948,948,948,948,948,948,948,948,948,948,948,951,948,948,948,948,948,948,948,948,948,948,948,948,946,946,946,943,943,943,943,943,943,943,943,943,943,943,946,943,943,943,943,940,940,938,938,940,940,940,940,940,940,940,940,940,943,940,940,943,943,943,943,940,940,940,940,940,940,940,940,940,940,940,940,940,940,940,938,938,938,938,938,938,938,938,938,938,938,938,938,935,935,935,935,935,935,935,935,935,935,935,935,935,935,935,935,935,935,935,935,935,933,933,933,933,933,935,933,933,933,935,935,933,933,933,933,933,933,933,933,933,933,930,930,933,933,930,930,930,930,930,930,928,928,928,928,928,928,928,928,930,930,930,930,928,928,928,928,928,928,928,928,930,930,930,930,930,933,933,933,933,935,935,935,935,935,935,938,935,935,747,747,750,750,750,750,750,750,750,749,749,749,749,749,747,746,746,744,744,744,744,742,742,742,742,742,742,742,741,741,739,739,739,739,741,741,741,741,741,741,741,741,0,0,0,0,0,0,0,0,0,0,0,0,0,0,0,0,0,0,0,0,0,0,0,0,0,0,0,0,0,0,0,0,0,0,0,0,0,0,0,0
0,0,0,1004,1004,1001,1001,1001,998,998,995,992,992,992,992,989,989,989,989,987,987,989,987,987,987,987,987,984,984,984,984,984,984,981,981,981,978,978,978,978,978,978,978,978,981,978,978,978,975,975,975,975,973,973,973,973,975,978,978,978,978,975,975,975,975,975,973,973,975,975,975,975,975,975,975,973,973,973,973,973,973,973,973,975,975,975,975,975,973,973,973,973,970,970,970,970,970,970,973,973,973,970,970,970,970,970,970,973,973,973,973,973,975,973,973,973,970,970,970,970,970,967,967,967,967,967,967,967,967,967,970,970,970,970,970,967,967,970,967,967,967,967,967,967,967,967,967,967,967,0,0,0,0,790,790,790,790,790,790,792,792,794,796,798,798,800,800,802,803,803,803,803,803,805,807,807,962,962,962,962,962,962,962,962,962,962,962,964,964,964,964,964,964,962,962,962,962,964,964,964,964,962,962,962,959,959,959,959,962,962,962,962,962,962,962,962,962,959,959,959,962,962,962,962,962,962,962,962,962,959,959,959,959,959,956,956,956,956,956,956,956,956,956,956,956,956,956,959,956,956,956,956,956,956,954,954,954,954,956,956,954,954,954,954,954,954,954,954,954,954,954,954,954,954,956,956,954,954,954,954,954,954,951,951,951,951,951,951,951,951,951,951,951,951,954,954,954,951,951,951,951,951,951,951,951,951,951,948,948,951,951,951,951,951,951,948,948,948,948,948,948,948,948,948,948,948,948,948,948,948,948,948,948,948,948,948,948,948,948,948,951,951,948,948,948,948,948,948,948,948,948,948,948,948,948,948,948,946,946,946,946,948,946,946,948,948,948,946,946,946,946,946,946,946,946,946,946,946,946,946,946,946,946,946,946,946,946,946,946,946,948,946,946,946,946,946,946,946,946,946,943,943,946,943,940,940,940,940,940,940,940,940,940,940,940,943,943,943,943,940,940,938,938,938,938,938,938,938,940,940,940,938,938,940,940,940,940,940,940,938,938,938,938,938,938,938,938,938,938,938,938,938,938,938,938,938,938,938,938,938,938,938,938,938,938,935,935,935,933,933,933,933,933,933,933,933,933,933,933,933,933,933,933,933,933,933,933,933,933,930,930,930,930,933,933,933,933,933,933,933,930,930,933,933,933,933,933,930,930,933,930,930,930,930,930,930,928,928,928,928,928,928,928,928,928,928,928,928,928,928,928,928,928,928,928,928,928,928,928,928,928,928,928,928,928,930,930,930,933,933,933,935,935,935,935,935,935,935,749,749,750,750,750,752,750,750,750,749,749,749,749,747,747,746,744,744,744,744,742,742,742,742,742,742,742,741,741,741,739,739,739,739,741,741,741,741,741,741,741,741,0,0,0,0,0,0,0,0,0,0,0,0,0,0,0,0,0,0,0,0,0,0,0,0,0,0,0,0,0,0,0,0,0,0,0,0,0,0,0,0
0,0,0,1001,1001,1001,1001,998,998,998,995,992,992,989,989,989,989,987,987,987,987,987,987,984,984,984,981,981,981,981,981,978,978,978,978,978,978,978,978,978,978,978,978,978,978,978,975,975,973,973,973,973,973,973,970,970,975,975,975,975,975,975,975,973,973,973,973,973,973,973,973,973,973,973,973,973,970,970,970,970,973,970,970,973,973,973,973,973,970,970,967,967,967,967,967,967,967,967,970,970,970,970,967,967,970,970,970,970,970,973,973,973,973,970,970,970,967,967,970,967,967,967,967,967,967,967,964,964,964,964,967,967,967,967,967,967,967,964,964,964,967,967,967,967,967,967,967,967,967,0,0,0,790,0,790,790,790,790,790,792,792,794,796,798,798,800,802,802,803,803,803,805,805,807,809,809,962,962,962,962,959,959,959,959,959,959,959,962,962,962,962,962,962,962,962,962,962,962,962,962,962,962,959,959,956,956,956,956,956,959,959,959,962,962,962,962,959,959,959,959,959,959,959,959,959,959,959,959,959,956,956,956,956,956,956,956,954,954,954,954,954,954,954,954,954,954,954,956,954,954,956,956,954,954,951,951,951,951,951,954,954,954,951,951,954,951,951,951,951,951,951,951,951,954,954,954,954,954,954,951,951,951,951,951,951,951,948,948,948,948,948,948,948,951,951,951,951,951,951,951,948,948,948,948,948,948,948,948,948,951,948,948,948,948,948,948,946,946,946,946,946,946,946,946,946,948,948,948,946,946,946,946,946,946,946,946,948,948,948,948,948,948,948,948,948,948,948,948,946,946,946,946,946,946,946,946,946,946,946,946,946,946,946,946,946,946,946,946,946,946,946,946,946,946,943,943,943,943,946,946,943,943,940,940,943,943,940,940,940,940,940,943,943,943,943,943,943,943,943,943,940,940,940,940,938,938,938,938,938,938,938,940,940,940,940,940,940,940,940,938,938,938,935,935,935,935,935,935,938,938,938,938,938,938,938,938,938,938,938,935,935,935,935,935,935,938,938,938,938,938,938,935,935,935,935,935,935,935,935,935,935,935,935,935,935,935,933,933,930,930,930,930,930,930,930,930,933,930,930,930,930,930,933,933,930,930,930,930,930,928,928,928,928,928,930,930,930,930,930,930,930,930,930,930,930,930,930,928,928,930,928,928,928,928,928,928,928,928,928,928,925,925,925,925,925,925,925,925,925,928,928,928,928,928,925,925,925,925,925,925,925,925,925,928,928,928,928,928,930,930,930,933,933,933,933,933,935,754,750,750,752,752,752,752,750,750,749,749,747,747,747,747,747,744,744,744,744,744,742,742,742,742,742,742,742,741,741,741,739,739,739,739,739,739,741,739,739,739,741,741,0,0,0,0,0,0,0,0,0,0,0,0,0,0,0,0,0,0,0,0,0,0,0,0,0,0,0,0,0,0,0,0,0,0,0,0,0,0,0,0
0,0,0,1001,1001,998,998,995,995,995,992,989,989,987,987,987,987,987,984,984,984,984,984,981,981,978,978,978,978,978,978,975,975,975,975,978,978,978,978,978,975,975,975,975,975,975,973,973,970,970,973,967,967,967,967,967,967,967,973,973,973,973,973,973,973,970,970,970,973,973,970,970,970,970,973,970,967,967,967,967,967,967,967,970,970,970,970,970,967,967,967,967,964,964,964,964,967,967,967,967,970,967,967,967,967,967,967,967,967,967,967,967,967,970,970,967,967,967,967,967,967,967,967,964,964,964,964,962,962,964,964,964,964,964,964,964,964,962,962,964,964,964,964,964,964,964,964,964,964,0,0,0,0,0,792,792,792,792,792,792,792,796,798,798,800,800,802,803,803,803,803,805,807,807,809,809,962,962,962,959,959,959,959,959,959,956,956,959,959,959,959,959,959,959,959,959,959,959,959,959,959,959,959,956,956,956,956,956,956,956,956,956,956,956,956,959,956,956,956,956,956,956,956,956,956,956,956,956,956,956,954,954,954,954,954,954,954,954,954,954,954,954,954,951,951,951,954,954,954,951,951,951,951,951,948,948,948,948,948,951,951,951,951,951,951,951,951,951,951,951,951,951,951,951,951,951,951,951,951,951,951,948,948,948,948,948,946,946,946,946,946,946,948,948,948,948,948,948,948,946,946,946,946,946,946,946,946,946,946,948,948,948,948,946,946,946,946,946,946,946,946,946,946,946,946,946,946,946,946,946,946,946,943,943,943,946,946,946,946,946,946,946,946,946,946,946,946,946,946,946,946,946,943,943,946,943,943,943,943,943,943,946,946,946,946,946,946,943,943,943,943,943,943,943,943,943,943,943,943,943,940,940,940,940,940,940,938,938,938,938,938,938,938,938,938,940,940,940,940,940,940,940,938,938,938,938,938,938,938,938,938,938,938,938,938,938,940,938,938,938,935,935,935,935,935,935,935,935,935,935,935,935,935,935,935,935,935,935,935,935,935,935,935,935,933,933,935,935,935,935,935,935,935,935,935,935,935,935,935,933,933,933,933,933,933,933,933,933,930,930,930,930,928,928,928,928,928,928,928,928,928,928,928,928,928,928,928,928,928,928,928,928,928,928,928,928,928,930,930,928,928,928,928,928,928,928,928,928,928,928,928,928,928,928,928,928,925,925,925,925,925,925,925,925,925,925,925,925,925,925,925,925,925,925,925,925,925,925,925,925,925,925,925,925,925,928,928,928,928,928,928,930,930,930,930,933,754,754,752,752,752,752,752,752,750,750,749,749,747,747,747,747,747,744,744,744,742,742,742,742,742,742,742,742,742,741,741,741,741,739,739,739,739,739,741,739,739,739,741,741,0,0,0,0,0,0,0,0,0,0,0,0,0,0,0,0,0,0,0,0,0,0,0,0,0,0,0,0,0,0,0,0,0,0,0,0,0,0,0,0
0,0,0,1001,998,998,998,992,992,992,989,987,987,987,987,987,987,984,984,981,981,981,981,978,978,975,975,975,973,967,967,973,973,973,973,973,973,975,975,975,975,975,973,973,973,973,970,967,967,967,970,967,967,967,967,967,967,967,970,970,970,970,970,967,967,967,967,967,967,967,967,967,967,967,970,967,967,964,964,964,964,964,964,964,964,967,967,967,964,964,964,964,964,964,964,964,964,964,967,967,967,967,967,967,967,967,967,967,967,967,967,964,964,967,967,964,964,964,964,967,967,964,964,964,964,964,962,962,962,962,962,962,962,962,964,962,962,959,959,959,962,962,962,962,962,962,962,964,964,0,0,0,0,0,0,794,794,792,792,794,794,796,798,798,800,800,802,803,803,803,805,807,809,809,809,809,962,962,962,959,959,959,959,959,956,956,956,956,956,956,959,956,956,956,956,956,956,956,956,956,956,956,956,956,956,956,956,956,956,956,956,956,956,954,954,954,954,954,954,954,954,954,954,954,954,954,954,954,954,954,954,951,951,951,951,951,951,951,951,951,951,951,951,951,951,951,951,951,951,948,948,948,948,946,946,946,946,946,948,948,948,948,948,948,951,948,948,948,948,948,948,948,948,948,948,948,948,948,948,946,946,946,946,946,946,946,946,946,943,943,943,946,946,946,946,946,946,946,946,946,943,943,943,946,946,946,946,946,946,946,946,946,946,946,946,943,943,943,943,943,943,943,943,943,943,943,943,943,943,943,943,943,943,943,943,943,943,943,943,943,943,943,946,943,943,946,943,943,940,940,940,940,940,940,943,940,940,940,940,943,943,943,943,943,946,946,946,943,943,943,940,940,943,943,940,940,940,940,940,940,940,940,938,938,938,938,935,935,935,935,935,935,935,935,935,935,935,935,938,938,938,938,938,938,935,935,935,935,935,935,935,935,935,935,935,938,935,935,935,935,933,933,933,933,933,933,933,933,933,933,933,933,933,933,930,930,933,933,933,933,933,933,933,933,933,933,933,930,930,930,933,933,933,933,933,933,933,933,933,933,933,933,933,933,933,933,930,930,930,930,928,928,928,928,928,928,925,925,925,925,925,925,925,925,928,928,925,925,925,925,925,925,925,925,925,925,925,928,928,928,925,925,925,925,925,925,925,925,925,928,928,925,925,925,925,925,925,923,923,925,925,925,925,925,925,925,925,925,925,925,925,925,925,925,925,925,925,923,923,923,923,923,923,925,925,925,928,928,928,928,928,930,930,755,755,755,754,754,752,752,752,752,752,752,750,750,749,749,747,747,747,747,746,744,744,742,742,742,742,742,742,742,742,742,742,741,741,741,741,739,739,739,739,739,741,739,739,739,741,741,0,0,0,0,0,0,0,0,0,0,0,0,0,0,0,0,0,0,0,0,0,0,0,0,0,0,0,0,0,0,0,0,0,0,0,0,0,0,0,0
0,0,0,998,998,992,989,987,987,987,987,987,984,984,984,984,984,984,981,981,981,981,978,978,975,973,973,970,970,967,967,967,967,967,970,970,970,975,975,975,975,973,973,973,973,970,967,967,964,964,964,967,967,967,967,967,967,967,967,967,967,967,967,964,964,964,964,964,964,962,962,964,964,964,967,964,964,962,962,962,962,962,962,962,962,964,964,964,964,962,962,962,962,962,962,962,962,964,964,964,967,967,964,964,964,964,964,964,964,964,959,959,962,962,964,964,962,962,962,964,964,964,964,962,962,962,962,959,959,962,962,959,959,959,962,959,959,959,956,956,959,959,959,959,956,956,959,959,959,0,0,0,0,0,0,794,794,794,794,794,794,798,798,798,800,802,803,803,803,805,807,809,809,809,809,809,962,962,959,959,956,956,956,956,956,956,956,956,956,956,956,956,956,954,954,954,954,954,954,954,954,954,954,954,954,954,954,954,954,954,951,951,951,948,948,951,951,951,951,951,951,951,951,951,951,951,951,951,951,951,951,948,948,948,948,951,951,948,948,951,951,948,948,948,948,948,948,948,948,948,948,948,946,946,946,946,946,946,946,946,946,946,946,946,948,948,948,948,946,946,946,946,946,946,946,946,946,946,946,946,946,943,943,943,943,943,943,943,943,943,943,943,943,943,943,943,943,943,943,943,940,940,943,943,943,943,943,943,946,946,943,943,943,943,943,943,943,943,943,943,940,940,940,940,940,940,940,940,940,940,940,940,940,940,940,940,940,940,940,940,940,940,940,938,938,940,938,938,938,938,938,938,938,938,938,938,938,938,938,940,940,940,940,943,943,943,943,940,940,940,940,940,940,940,938,938,938,938,938,938,938,938,935,935,938,935,935,935,933,933,933,933,933,933,933,935,935,935,935,935,938,938,935,935,935,935,935,935,935,935,935,935,935,933,933,933,933,933,933,933,930,930,930,930,930,933,930,930,933,933,933,933,930,930,928,928,928,928,928,928,930,930,930,930,930,930,930,928,928,928,928,928,930,928,928,928,928,928,928,928,928,928,928,930,930,930,930,928,928,928,928,928,925,925,925,925,925,923,923,925,923,923,923,923,925,925,923,923,925,925,925,925,925,925,925,925,925,925,925,925,925,925,925,923,923,923,923,925,925,925,925,925,925,925,925,925,923,923,923,923,923,923,923,923,923,923,923,923,923,923,923,923,925,925,925,925,923,923,920,920,920,920,923,923,925,925,928,928,928,928,928,930,755,755,755,755,755,754,754,754,754,752,752,752,750,750,749,747,747,746,746,746,746,744,742,742,742,742,742,742,742,742,742,742,742,741,741,741,741,741,739,739,739,741,741,739,739,739,741,741,0,0,0,0,0,0,0,0,0,0,0,0,0,0,0,0,0,0,0,0,0,0,0,0,0,0,0,0,0,0,0,0,0,0,0,0,0,0,0,0
0,0,0,995,989,987,987,984,984,984,984,984,981,981,981,981,981,981,978,978,978,978,978,978,975,973,973,970,970,967,967,967,967,967,970,967,967,967,967,970,970,970,970,970,967,967,967,964,964,964,964,964,964,964,964,964,964,964,964,964,964,964,964,962,962,962,962,962,962,962,962,959,959,959,962,962,962,959,959,959,962,962,962,962,962,962,964,962,962,962,962,962,962,962,962,962,962,962,962,962,964,964,964,964,964,962,962,962,962,962,956,956,959,959,959,959,959,956,956,962,962,962,959,959,959,959,959,959,959,959,959,956,956,956,959,956,956,956,956,956,956,956,956,954,954,954,954,954,954,0,0,0,802,0,796,794,794,794,794,794,798,798,798,800,802,803,803,803,803,805,807,809,809,809,809,809,809,959,959,956,956,956,956,956,954,954,954,954,954,954,954,954,954,954,954,951,951,951,951,951,948,948,951,951,951,951,951,951,951,948,948,948,948,946,946,948,948,948,948,948,948,948,948,948,948,948,948,948,948,948,948,946,946,948,948,948,948,948,948,948,948,946,946,946,946,946,948,946,946,946,946,946,946,943,943,946,946,946,946,946,946,946,946,946,946,946,946,946,946,946,943,943,943,943,943,943,943,943,943,943,943,943,943,943,940,940,940,940,940,940,940,940,940,940,940,940,940,940,938,938,938,938,940,940,943,943,943,943,946,946,943,943,943,943,940,940,940,940,940,940,938,938,938,938,938,938,938,938,938,938,938,938,938,938,938,938,938,938,938,938,938,938,935,935,935,935,938,938,938,938,938,938,938,938,938,938,938,938,938,938,938,938,938,940,940,940,940,938,938,938,938,938,938,938,938,938,938,935,935,935,935,935,935,935,935,935,933,933,930,930,930,930,930,930,930,933,933,933,933,933,933,935,933,933,933,933,933,933,933,933,933,933,933,930,930,928,928,928,928,928,928,928,930,930,930,930,930,930,930,930,930,930,930,928,928,928,925,925,928,928,928,928,928,928,928,930,928,928,928,925,925,925,925,925,925,925,925,925,925,925,925,925,925,928,928,928,928,928,928,928,925,925,925,925,923,923,923,923,923,923,923,923,923,920,920,923,920,920,923,923,923,923,923,923,923,923,923,923,923,923,923,923,923,923,923,923,923,923,923,923,925,925,923,923,923,923,923,923,923,923,923,923,923,923,920,920,920,920,920,920,920,923,923,923,923,923,920,920,920,920,920,920,920,923,925,829,829,928,928,928,928,928,754,754,754,755,755,754,754,754,752,752,752,752,750,750,749,747,747,746,746,746,744,742,742,742,742,742,742,742,742,742,742,742,741,741,741,741,741,741,741,741,741,741,741,739,739,739,741,741,0,0,0,0,0,0,0,0,0,0,0,0,0,0,0,0,0,0,0,0,0,0,0,0,0,0,0,0,0,0,0,0,0,0,0,0,0,0,0,0
0,0,0,992,987,984,984,978,978,978,978,978,978,978,978,978,978,978,975,975,975,975,975,975,975,973,970,970,967,967,967,967,967,967,967,967,967,967,967,970,967,967,967,967,964,964,964,962,962,962,962,962,962,962,962,962,962,962,962,962,962,959,959,959,959,959,959,959,959,959,959,956,956,956,956,956,956,956,956,956,959,959,959,959,956,956,962,962,962,959,959,959,959,959,959,956,956,956,959,959,959,959,959,962,962,959,959,959,959,959,956,956,956,956,956,956,956,954,954,959,959,959,959,956,956,956,956,956,956,956,956,956,956,956,956,956,956,956,954,954,954,954,954,951,951,951,948,948,948,0,0,802,802,800,796,796,796,796,796,796,798,800,800,802,802,803,803,805,805,807,809,809,809,811,811,811,811,959,959,954,954,954,954,954,951,951,951,954,954,951,951,951,951,954,951,951,948,948,948,948,948,948,948,948,948,948,948,948,946,946,946,946,946,946,946,946,946,946,946,946,946,946,946,946,946,946,946,946,946,946,946,946,946,946,946,946,946,946,946,946,946,946,946,946,946,946,946,946,946,946,946,943,943,943,943,943,943,943,943,943,943,943,940,940,943,943,943,943,943,943,943,940,940,940,940,940,940,940,940,940,940,938,938,940,938,938,938,938,938,938,940,940,940,938,938,938,938,938,938,938,935,935,938,938,940,940,940,940,943,943,943,940,940,940,940,940,940,940,940,940,938,938,938,938,938,938,938,938,938,938,935,935,935,935,938,938,938,938,938,938,938,935,935,935,933,933,930,930,933,935,935,935,935,935,935,935,935,935,935,935,938,935,935,935,935,935,935,935,935,935,935,935,935,935,935,935,935,933,933,933,933,933,933,933,933,933,930,930,930,930,930,930,930,930,930,930,930,930,930,930,930,933,930,930,933,933,933,930,930,930,930,930,930,928,928,928,925,925,925,925,925,925,928,928,928,928,928,928,928,928,928,928,928,925,925,925,925,925,925,925,928,928,928,928,928,928,928,925,925,925,925,923,923,920,920,920,925,925,923,923,925,925,925,925,925,925,925,925,925,925,925,923,923,920,920,920,920,920,920,920,920,920,920,918,918,920,918,918,920,918,918,920,920,920,920,920,920,918,918,918,918,918,918,918,918,918,920,920,920,920,920,923,923,923,920,920,923,920,920,920,920,920,920,920,918,918,918,918,918,918,918,920,920,920,920,918,918,918,918,918,918,920,920,923,925,827,827,928,928,928,825,754,754,754,754,754,754,754,754,754,752,752,752,752,750,749,749,747,747,746,746,746,744,742,742,742,741,741,741,741,742,741,741,741,741,741,741,741,741,741,741,739,739,739,739,739,739,739,739,741,0,0,0,0,0,0,0,0,0,0,0,0,0,0,0,0,0,0,0,0,0,0,0,0,0,0,0,0,0,0,0,0,0,0,0,0,0,0,0,0
0,0,992,989,987,981,981,978,975,975,975,978,978,978,975,975,975,975,975,975,975,975,973,973,973,970,970,967,967,967,967,967,967,967,967,967,967,967,967,967,964,964,964,962,962,962,962,959,959,959,959,959,959,959,959,959,956,956,956,956,959,956,956,956,956,956,956,956,956,956,956,956,956,956,956,954,954,954,954,954,954,954,956,956,956,956,959,959,959,959,959,959,956,956,956,956,956,956,956,956,956,956,956,956,956,956,956,956,956,956,954,954,954,954,954,954,954,954,954,956,956,956,956,954,954,954,954,954,954,954,954,954,954,954,954,954,954,954,954,954,951,951,951,948,948,946,946,943,943,943,940,802,802,800,798,798,798,798,798,798,798,800,802,802,803,803,805,805,805,807,809,809,811,811,811,811,811,811,954,954,954,951,951,951,948,948,948,951,951,948,948,948,948,951,948,946,946,948,948,946,946,946,946,946,946,946,946,946,946,943,943,943,943,943,943,943,943,943,943,943,943,943,943,943,943,943,943,943,943,943,946,943,943,943,943,943,943,943,943,946,943,943,943,943,943,943,946,943,943,943,943,943,943,940,940,940,943,940,940,940,940,940,938,938,940,940,940,940,940,940,938,938,938,938,938,938,938,938,938,938,938,938,938,938,938,938,938,938,938,938,935,935,938,938,938,938,938,938,938,938,935,935,935,938,938,935,935,938,940,940,938,938,938,938,938,938,938,938,938,938,938,938,938,938,938,938,938,935,935,935,935,935,935,935,935,935,935,935,935,935,935,933,933,933,930,930,930,930,930,930,930,933,935,935,935,935,935,935,935,935,935,933,933,933,933,933,933,933,933,933,935,935,935,933,933,933,930,930,930,930,930,930,930,930,930,930,930,930,928,928,928,928,928,928,928,928,928,928,928,928,928,930,930,930,928,928,928,928,928,928,928,928,928,928,925,925,925,925,925,925,925,925,925,928,928,928,925,925,925,925,925,925,925,925,923,923,923,923,925,925,925,925,925,928,928,928,925,925,925,925,923,923,920,920,920,920,918,918,920,920,923,923,923,923,923,923,923,925,923,923,923,923,920,920,920,920,920,920,920,920,920,920,920,918,918,918,918,918,918,918,918,918,918,918,918,918,918,918,918,915,915,918,918,918,918,918,918,918,920,920,920,920,920,920,920,920,920,918,918,920,918,918,918,918,918,915,915,915,915,918,918,918,918,918,918,915,915,915,915,918,918,918,918,825,825,825,827,827,825,825,0,0,752,752,752,754,754,754,752,752,752,750,750,750,750,749,747,747,747,746,746,744,744,742,742,742,741,741,741,741,741,741,741,741,741,741,741,741,741,741,741,739,739,738,738,738,738,738,739,739,0,0,0,0,0,0,0,0,0,0,0,0,0,0,0,0,0,0,0,0,0,0,0,0,0,0,0,0,0,0,0,0,0,0,0,0,0,0,0,0
0,0,989,989,987,978,978,975,975,975,975,978,975,975,973,973,975,973,973,973,973,973,970,970,970,967,967,967,967,964,964,964,964,964,964,964,964,964,964,964,964,964,962,959,959,959,959,956,956,956,956,956,956,956,956,956,956,954,954,954,956,956,956,956,956,956,956,954,954,954,954,954,954,954,954,954,954,954,954,951,951,954,954,954,954,954,956,956,956,956,956,956,956,956,956,954,954,954,954,954,954,954,954,954,956,956,954,954,954,954,954,954,954,951,951,951,951,951,951,948,948,951,954,951,951,951,951,951,948,948,951,951,951,951,954,954,954,951,951,951,951,948,948,946,946,946,943,943,940,940,940,802,802,800,800,800,800,800,800,800,800,800,802,803,803,803,805,807,807,809,809,811,811,811,811,811,811,811,951,951,951,948,948,946,946,946,948,948,948,946,946,946,946,948,946,946,946,946,946,946,946,946,946,946,946,946,943,943,943,943,943,943,943,943,943,943,943,943,940,940,940,940,940,940,940,940,940,943,943,943,940,940,940,943,943,943,943,943,943,943,940,940,940,943,943,943,943,943,940,940,940,940,940,938,938,938,940,940,938,938,938,938,938,938,938,938,938,938,938,938,938,935,935,935,938,938,935,935,935,935,935,935,935,935,935,935,935,935,935,935,935,935,935,935,935,935,935,935,935,935,935,935,935,935,935,935,935,935,938,938,938,938,938,935,935,938,938,938,938,938,938,938,938,938,938,938,935,935,935,935,933,933,933,933,933,933,933,933,933,935,933,933,933,933,930,930,930,930,928,928,930,930,930,930,930,933,933,930,930,930,930,930,930,930,930,930,930,930,930,930,933,933,933,933,930,930,928,928,928,928,928,928,928,928,930,930,928,928,928,928,928,928,928,928,925,925,925,925,925,925,928,928,928,928,925,925,925,925,925,928,928,925,925,925,925,923,923,923,923,925,925,925,925,925,925,925,925,923,923,923,923,923,923,923,923,923,920,920,920,920,923,923,923,923,925,925,923,923,923,923,923,920,920,920,918,918,918,918,918,918,920,920,920,920,920,923,923,923,923,923,920,918,918,918,918,918,918,918,918,920,918,918,918,918,918,915,915,915,915,915,915,918,918,915,915,918,915,915,915,915,915,915,915,915,915,915,915,915,915,915,918,918,918,918,918,918,918,918,918,918,918,918,915,915,915,915,915,915,915,913,913,915,915,915,915,915,915,915,915,915,918,827,825,825,825,825,825,825,825,825,825,825,752,752,752,752,752,752,750,750,750,749,749,749,749,747,747,747,747,746,746,744,744,742,742,742,741,741,741,741,741,741,741,741,741,741,741,741,741,741,741,739,739,738,738,738,738,738,739,739,0,0,0,0,0,0,0,0,0,0,0,0,0,0,0,0,0,0,0,0,0,0,0,0,0,0,0,0,0,0,0,0,0,0,0,0,0,0,0,0
0,0,989,989,987,978,978,975,975,975,975,975,975,975,973,973,973,973,973,970,970,970,970,967,967,967,967,964,964,964,964,962,962,962,962,962,962,962,962,962,962,959,959,959,956,956,956,956,956,956,956,956,954,954,954,954,954,954,954,954,954,954,954,954,954,954,954,954,954,954,954,954,954,954,954,954,951,951,951,951,951,951,951,951,954,954,954,954,954,954,956,956,954,954,954,954,954,954,954,954,951,951,951,951,951,954,954,954,954,954,954,951,951,951,948,948,948,948,948,946,946,946,948,948,948,948,948,948,946,946,948,948,948,948,948,951,951,948,948,948,948,946,946,943,943,943,943,940,940,938,938,803,803,802,800,800,800,800,800,800,800,800,802,803,803,805,807,807,807,809,809,811,811,811,811,811,813,815,946,946,946,946,946,946,943,943,946,946,946,943,943,943,943,946,946,946,946,946,946,946,943,943,943,943,943,943,943,943,943,943,943,943,943,943,943,940,940,940,940,938,938,938,938,938,938,938,938,940,940,940,938,938,938,938,935,935,940,940,940,940,938,938,938,940,940,940,940,940,940,940,940,938,938,938,935,935,938,938,935,935,935,935,935,935,935,935,935,935,935,935,935,935,935,935,935,935,935,935,935,935,933,933,933,935,935,935,935,935,935,935,933,933,933,935,933,933,933,933,933,935,933,933,933,933,933,933,933,933,935,935,935,935,935,933,933,935,935,935,935,935,935,935,935,935,935,935,935,933,933,933,930,930,930,930,930,930,930,930,930,933,933,930,930,930,930,930,928,928,928,928,928,928,928,928,928,928,928,928,928,928,928,928,928,928,928,928,928,930,930,930,930,930,930,930,928,928,928,928,928,925,925,928,928,928,925,925,925,925,925,925,928,925,925,925,925,925,923,923,925,925,925,925,923,923,923,923,923,923,923,923,923,923,923,923,923,923,923,923,923,923,923,923,923,923,923,923,923,923,923,923,920,920,920,920,920,920,918,918,918,918,920,920,920,923,923,923,923,923,923,920,920,918,918,918,918,918,918,918,918,918,918,918,918,918,918,920,920,918,918,920,918,918,918,918,918,918,918,918,918,918,918,918,918,918,915,915,915,915,915,915,915,915,915,915,915,915,915,913,913,913,913,913,913,913,913,913,913,913,913,913,910,910,915,915,915,915,915,915,915,918,915,915,915,915,913,913,913,913,913,913,913,910,910,913,913,913,913,913,913,915,827,825,823,823,825,825,825,825,825,825,825,825,750,750,750,752,752,752,750,750,750,749,749,749,749,747,747,747,746,746,746,744,744,742,742,742,741,741,741,741,741,741,741,741,741,741,741,741,741,739,739,739,739,738,738,738,738,739,739,739,0,0,0,0,0,0,0,0,0,0,0,0,0,0,0,0,0,0,0,0,0,0,0,0,0,0,0,0,0,0,0,0,0,0,0,0,0,0,0,0
0,0,987,987,987,975,975,975,973,973,975,975,975,975,973,973,973,973,973,970,967,967,967,967,964,964,967,964,964,964,962,959,959,959,959,959,959,959,959,959,959,956,956,956,956,956,956,956,956,956,954,954,954,954,954,954,954,951,951,954,954,954,954,954,954,954,951,951,951,951,951,951,951,951,951,951,951,951,951,948,948,948,951,951,951,951,951,951,951,951,948,948,951,951,951,951,951,951,951,951,951,951,951,951,951,951,951,951,951,951,951,948,948,948,948,946,946,946,946,946,946,946,946,946,946,946,946,946,946,946,946,946,946,946,946,946,946,946,946,946,946,946,943,943,943,943,943,940,940,938,938,938,802,802,802,802,802,802,800,800,802,802,802,803,805,805,807,807,809,809,811,811,811,811,813,813,813,815,819,946,946,943,943,943,943,943,943,943,943,943,943,940,940,943,943,943,943,943,943,943,943,943,940,940,940,940,940,940,940,940,940,940,940,940,940,938,938,938,938,938,935,935,935,935,935,935,935,935,935,938,935,935,935,935,935,935,935,935,935,935,935,935,935,935,935,938,938,938,935,935,935,935,935,935,935,935,935,935,935,935,935,935,935,935,935,935,933,933,933,933,933,933,933,933,933,933,933,933,933,933,933,933,930,930,933,933,933,933,933,933,933,933,933,933,930,930,930,930,930,930,930,930,930,930,930,930,930,930,933,933,933,930,930,930,930,933,933,933,935,935,935,935,935,935,935,933,933,930,930,930,930,930,928,928,928,928,928,928,930,930,930,928,928,928,928,928,928,928,925,925,928,928,928,925,925,925,925,925,925,928,928,928,928,928,928,928,928,928,928,928,930,928,928,928,928,928,925,925,925,925,925,925,925,925,925,925,925,925,925,925,925,925,925,923,923,923,923,923,923,923,920,920,920,920,920,920,920,920,920,920,920,918,918,923,920,920,923,923,923,923,923,923,923,923,923,920,920,920,920,920,920,918,918,918,918,918,918,918,918,918,918,918,918,920,920,920,920,920,920,920,918,918,918,918,918,918,915,915,915,915,915,915,915,915,915,918,918,918,918,918,918,915,915,915,915,915,915,915,918,918,918,918,915,915,915,915,915,913,913,913,915,915,915,913,913,913,913,910,910,910,910,910,913,913,910,910,910,910,910,910,908,908,908,910,910,910,910,913,913,913,913,913,913,913,913,910,910,910,910,910,910,910,910,910,910,910,910,913,913,825,825,825,823,823,825,825,827,825,825,825,825,825,0,750,750,749,749,750,750,750,750,749,749,749,749,747,747,747,746,746,746,744,744,742,742,742,741,741,741,742,741,741,741,741,741,741,739,739,741,739,739,739,738,738,738,738,738,739,739,739,0,0,0,0,0,0,0,0,0,0,0,0,0,0,0,0,0,0,0,0,0,0,0,0,0,0,0,0,0,0,0,0,0,0,0,0,0,0,0,0
0,0,987,987,984,975,975,975,973,973,973,975,975,973,970,970,973,970,970,967,967,967,967,964,964,964,964,964,962,962,962,959,956,956,956,956,956,956,956,956,956,956,956,956,954,954,954,954,954,954,954,954,954,954,951,951,951,951,951,951,951,951,951,951,951,951,951,948,948,948,948,951,951,951,951,951,948,948,948,948,948,948,948,948,948,948,948,948,948,948,948,948,948,948,946,946,948,948,948,948,948,948,948,948,948,948,948,948,948,948,948,946,946,946,946,946,946,946,946,946,946,946,946,946,946,946,946,946,943,943,943,943,943,943,943,943,943,943,943,943,943,943,943,943,940,940,940,940,940,938,938,938,802,802,800,800,802,802,802,802,802,802,803,803,805,807,807,809,809,809,811,811,811,813,815,815,817,817,819,943,943,943,943,940,940,940,940,940,940,940,940,940,940,940,940,940,943,943,943,943,940,940,940,940,938,938,938,938,938,938,938,938,938,938,938,938,935,935,935,935,935,935,935,935,935,935,933,933,933,933,933,933,933,935,933,933,935,935,933,933,933,933,933,933,933,933,933,933,933,933,933,933,933,933,933,933,933,933,933,933,933,933,933,933,933,933,930,930,930,930,930,930,930,930,930,930,930,930,930,930,930,928,928,930,930,930,930,930,930,930,928,928,928,930,930,928,928,928,928,928,925,925,928,928,930,930,930,930,930,933,933,930,930,930,930,930,930,930,933,933,933,933,933,933,933,933,930,930,930,928,928,928,928,928,928,928,928,928,928,928,928,928,928,925,925,925,925,925,925,925,925,925,925,925,925,925,925,925,925,925,925,925,925,925,925,925,925,925,925,925,928,925,925,925,925,925,923,923,925,923,923,923,923,923,923,923,923,923,923,923,923,923,923,923,920,920,920,920,920,920,920,920,918,918,920,918,918,918,918,918,918,915,915,915,915,915,918,918,920,920,920,920,920,920,920,918,918,918,918,918,918,915,915,915,918,918,915,915,915,915,918,915,915,915,915,918,918,918,918,918,918,918,918,918,915,915,913,913,913,913,913,913,913,913,913,913,913,915,915,915,915,915,915,915,915,915,915,915,915,915,915,915,915,915,913,913,913,910,910,910,913,913,913,910,910,910,910,910,910,908,908,910,910,910,908,908,910,908,908,908,908,908,908,908,908,908,908,910,910,910,910,910,913,910,910,910,910,910,910,908,908,908,908,910,910,910,910,910,825,823,823,825,823,823,825,825,827,827,827,825,825,825,825,750,750,749,749,750,749,749,749,749,749,749,747,747,747,746,746,744,744,744,744,742,742,741,741,741,741,741,741,741,741,741,741,741,739,739,739,739,739,738,738,738,738,738,738,739,739,739,0,0,0,0,0,0,0,0,0,0,0,0,0,0,0,0,0,0,0,0,0,0,0,0,0,0,0,0,0,0,0,0,0,0,0,0,0,0,0,0
0,0,0,987,984,978,978,975,973,973,973,975,975,973,970,970,973,970,970,967,967,967,967,964,964,964,964,964,962,962,962,959,956,956,956,956,956,956,956,956,956,956,956,956,954,954,954,954,954,954,954,954,954,954,951,951,951,951,951,951,951,951,951,951,951,951,951,948,948,948,948,951,951,951,951,951,948,948,948,948,948,948,948,948,948,948,948,948,948,948,948,948,948,948,946,946,946,946,946,946,946,946,946,946,946,946,946,946,946,946,946,946,946,946,946,943,943,943,943,943,943,943,943,943,943,943,946,943,943,943,943,943,940,940,943,940,940,940,940,943,940,940,938,938,940,940,938,938,938,938,938,938,0,802,800,800,802,802,802,802,802,802,803,805,805,807,809,809,809,809,811,811,813,813,815,817,817,819,819,943,943,940,940,940,938,938,938,938,938,938,938,938,938,938,938,938,938,938,940,938,938,938,938,938,935,935,935,935,935,935,935,935,935,935,935,935,935,935,933,933,933,933,933,933,933,933,933,930,930,930,930,930,930,933,933,933,933,933,930,930,930,930,930,930,930,933,933,933,933,930,930,930,930,930,930,930,930,930,930,930,930,930,930,930,930,928,928,928,928,928,928,928,928,928,928,928,928,928,928,930,928,928,928,928,928,928,925,925,928,928,925,925,925,928,928,925,925,925,925,925,925,925,925,925,925,925,928,928,928,930,930,928,928,928,928,928,928,928,930,930,930,930,930,930,930,930,928,928,928,928,925,925,925,925,925,925,925,925,925,925,925,925,925,925,923,923,923,923,923,923,923,923,925,923,923,923,925,923,923,923,923,925,923,923,925,925,925,925,923,923,925,923,923,923,923,923,920,920,920,920,920,920,920,920,920,920,920,920,920,920,923,923,923,920,920,920,918,918,918,918,918,918,918,918,918,918,918,915,915,915,915,915,915,915,915,915,915,915,918,918,918,918,918,918,918,918,915,915,915,915,915,915,915,915,915,915,915,913,913,913,915,915,915,913,913,915,915,915,915,915,915,915,915,915,915,913,913,913,910,910,910,910,910,910,910,910,908,908,910,910,913,913,913,913,913,913,913,913,913,913,913,913,910,910,913,913,910,910,910,910,910,910,910,910,910,910,910,908,908,908,908,908,908,908,906,906,906,906,906,906,906,906,906,906,906,908,908,908,908,908,908,908,908,908,908,908,908,908,908,908,908,908,908,908,908,908,908,908,821,821,823,825,823,823,825,827,827,827,827,827,827,827,749,749,749,749,749,750,749,749,749,749,749,749,747,747,747,746,746,744,744,744,742,742,741,741,741,741,741,741,741,741,739,739,739,739,739,738,738,739,738,738,738,738,738,738,738,739,739,739,0,0,0,0,0,0,0,0,0,0,0,0,0,0,0,0,0,0,0,0,0,0,0,0,0,0,0,0,0,0,0,0,0,0,0,0,0,0,0,0
0,0,0,0,0,0,0,0,0,0,0,0,0,0,0,0,0,0,0,0,0,0,0,0,0,0,0,0,0,0,0,0,0,0,0,0,0,0,0,0,0,0,0,0,0,0,0,0,0,0,0,0,0,0,0,0,0,0,0,0,0,0,0,0,0,0,0,0,0,0,0,0,0,0,0,0,0,0,0,0,0,0,0,0,0,0,0,0,0,0,0,0,0,0,0,0,946,946,946,946,946,946,946,946,946,946,946,946,946,946,946,946,946,946,946,943,943,943,943,943,943,943,943,943,943,943,946,943,943,943,943,943,940,940,943,940,940,940,940,943,940,940,938,938,940,940,938,938,938,938,938,938,0,0,800,800,802,802,802,802,802,803,805,805,807,809,809,809,811,811,811,811,813,815,817,817,817,819,819,821,943,940,938,938,938,935,935,935,935,935,935,935,935,935,935,935,935,935,935,935,935,935,935,935,935,933,933,933,933,933,933,935,933,933,933,933,933,933,933,933,933,933,933,933,933,930,930,930,928,928,928,928,928,930,930,930,930,930,928,928,928,928,928,928,928,928,928,930,930,928,928,928,928,928,928,928,928,928,928,930,928,928,928,928,925,925,925,925,925,925,925,925,925,925,925,925,925,925,925,925,925,925,925,925,925,925,925,925,925,925,925,925,925,925,925,923,923,925,925,923,923,923,923,923,923,923,923,923,925,928,928,925,925,925,928,928,928,928,928,928,928,928,928,928,928,928,925,925,925,925,925,925,925,925,925,923,923,923,923,923,923,923,920,920,920,920,920,920,920,920,920,923,923,923,920,920,923,923,923,923,923,923,923,923,923,923,923,923,920,920,920,920,920,920,920,920,920,920,920,918,918,918,918,918,918,918,918,918,918,920,920,920,920,920,920,918,918,918,918,918,918,915,915,915,915,915,915,915,915,915,913,913,913,913,913,913,915,915,915,915,915,915,915,915,915,915,915,915,915,913,913,913,913,913,913,913,913,913,910,910,913,913,913,913,913,913,913,913,913,913,913,915,915,913,913,913,910,910,910,910,908,908,908,908,908,908,908,908,908,908,908,910,908,908,908,908,908,908,908,908,908,908,910,910,910,910,908,908,908,908,910,910,908,908,908,908,908,908,908,906,906,906,906,906,906,906,906,906,906,906,906,906,906,906,906,906,906,906,906,908,908,908,908,908,906,906,906,906,906,906,906,906,906,906,908,906,906,823,821,821,823,825,825,825,827,827,827,827,827,827,827,827,749,749,749,749,749,749,749,749,749,749,749,747,746,746,746,744,744,742,742,742,742,742,741,741,741,741,741,741,741,739,739,739,739,739,739,738,738,739,738,738,738,738,738,738,738,739,739,739,0,0,0,0,0,0,0,0,0,0,0,0,0,0,0,0,0,0,0,0,0,0,0,0,0,0,0,0,0,0,0,0,0,0,0,0,0,0,0,0
0,0,0,0,0,0,0,0,0,0,0,0,0,0,0,0,0,0,0,0,0,0,0,0,0,0,0,0,0,0,0,0,0,0,0,0,0,0,0,0,0,0,0,0,0,0,0,0,0,0,0,0,0,0,0,0,0,0,0,0,0,0,0,0,0,0,0,0,0,0,0,0,0,0,0,0,0,0,0,0,0,0,0,0,0,0,0,0,0,0,0,0,0,0,0,0,0,0,0,0,0,0,0,0,0,0,0,0,0,0,0,0,0,0,0,0,0,0,0,0,0,0,0,0,0,0,0,0,0,0,0,0,0,0,0,0,0,0,0,0,0,0,0,0,0,0,0,0,0,0,0,0,0,0,0,0,0,0,0,0,0,0,0,0,0,0,0,0,0,0,0,0,0,817,817,819,819,819,821,821,0,940,938,938,938,935,935,935,935,935,935,935,935,935,935,935,935,935,935,935,935,935,935,935,935,933,933,933,933,933,933,935,933,933,933,933,933,933,933,933,933,933,933,933,933,930,930,930,928,928,928,928,928,930,930,930,930,930,928,928,928,928,928,928,928,928,928,928,928,925,925,925,925,925,925,925,925,925,925,925,925,925,925,925,925,923,923,925,925,925,925,925,925,925,925,925,925,925,925,925,925,925,925,925,925,925,923,923,925,923,923,923,923,923,923,923,923,923,923,923,923,923,923,923,923,923,920,920,923,923,923,925,925,925,925,925,925,925,925,925,925,925,925,925,925,925,925,925,925,923,923,923,923,923,923,920,920,920,920,920,920,918,918,918,918,918,918,918,918,918,920,920,920,920,920,920,920,920,920,920,920,923,920,920,920,918,918,918,918,918,918,918,918,918,918,918,918,918,918,918,918,918,918,918,918,918,915,915,915,918,918,918,918,918,918,918,915,915,915,915,915,915,915,915,915,915,915,913,913,913,910,910,910,910,910,910,913,913,913,913,910,910,910,913,913,913,913,913,913,913,913,910,910,910,910,910,910,910,910,910,910,910,910,910,910,910,910,910,910,910,910,910,910,910,910,910,908,908,908,908,908,908,908,908,908,906,906,906,908,906,906,908,908,908,906,906,906,906,906,906,906,908,908,908,908,908,908,908,906,906,908,908,906,906,906,906,906,906,906,906,906,906,906,903,903,903,903,903,903,903,903,903,903,906,906,906,906,906,903,903,906,906,906,906,906,906,906,906,906,906,903,903,906,906,906,906,903,823,823,825,825,827,825,825,827,829,829,829,829,829,829,829,829,749,749,749,749,749,749,749,749,749,747,747,746,746,746,744,742,742,742,742,742,742,741,741,741,741,741,741,741,739,739,739,739,739,738,738,738,738,738,738,738,738,738,738,738,739,739,739,0,0,0,0,0,0,0,0,0,0,0,0,0,0,0,0,0,0,0,0,0,0,0,0,0,0,0,0,0,0,0,0,0,0,0,0,0,0,0,0
0,0,0,0,0,0,0,0,0,0,0,0,0,0,0,0,0,0,0,0,0,0,0,0,0,0,0,0,0,0,0,0,0,0,0,0,0,0,0,0,0,0,0,0,0,0,0,0,0,0,0,0,0,0,0,0,0,0,0,0,0,0,0,0,0,0,0,0,0,0,0,0,0,0,0,0,0,0,0,0,0,0,0,0,0,0,0,0,0,0,0,0,0,0,0,0,0,0,0,0,0,0,0,0,0,0,0,0,0,0,0,0,0,0,0,0,0,0,0,0,0,0,0,0,0,0,0,0,0,0,0,0,0,0,0,0,0,0,0,0,0,0,0,0,0,0,0,0,0,0,0,0,0,0,0,0,0,0,0,0,0,0,0,0,0,0,0,0,0,0,0,0,0,0,0,0,0,0,0,0,0,0,0,0,0,0,0,0,0,0,0,0,0,0,0,0,0,0,0,0,0,0,0,0,0,0,0,0,0,0,0,0,0,0,0,0,0,0,0,0,0,0,0,0,0,0,0,0,0,0,0,0,0,0,0,0,0,0,0,0,0,0,0,0,0,0,928,928,928,925,925,925,925,925,925,925,925,925,925,925,925,925,925,925,925,923,923,925,925,925,925,925,925,925,925,925,925,925,925,925,925,925,925,925,925,925,923,923,925,923,923,923,923,923,923,923,923,923,923,923,923,923,923,923,923,923,920,920,923,923,923,923,923,923,925,925,925,923,923,923,923,923,923,923,923,923,923,923,923,923,920,920,920,923,920,920,918,918,918,918,918,918,918,918,918,915,915,918,918,918,918,918,918,918,918,918,918,918,918,918,918,920,918,918,918,918,918,915,915,915,915,918,918,918,918,918,915,915,915,915,915,915,915,915,915,915,915,915,915,915,915,915,915,915,915,915,915,915,913,913,913,915,913,913,913,915,913,913,913,910,910,910,910,908,908,910,910,910,910,910,908,908,908,908,908,910,910,910,910,910,910,910,908,908,908,908,908,908,908,908,908,908,908,908,908,908,908,908,908,908,908,908,908,908,908,908,906,906,906,906,906,906,906,906,906,906,906,906,906,906,906,906,906,906,906,903,903,906,903,903,906,906,906,906,908,908,906,906,906,906,906,906,906,903,903,906,906,903,903,903,903,903,903,901,901,901,901,901,901,901,901,903,903,903,903,903,903,903,903,903,901,901,901,903,903,903,903,903,903,903,903,903,903,903,903,903,827,825,825,825,827,827,827,827,829,829,829,829,829,829,829,829,829,749,749,749,749,749,749,749,747,747,747,746,746,744,744,742,742,742,742,742,742,742,741,741,741,739,739,739,738,738,738,738,738,738,738,738,738,738,738,738,736,736,738,738,738,738,739,739,0,0,0,0,0,0,0,0,0,0,0,0,0,0,0,0,0,0,0,0,0,0,0,0,0,0,0,0,0,0,0,0,0,0,0,0,0,0,0,0
0,0,0,0,0,0,0,0,0,0,0,0,0,0,0,0,0,0,0,0,0,0,0,0,0,0,0,0,0,0,0,0,0,0,0,0,0,0,0,0,0,0,0,0,0,0,0,0,0,0,0,0,0,0,0,0,0,0,0,0,0,0,0,0,0,0,0,0,0,0,0,0,0,0,0,0,0,0,0,0,0,0,0,0,0,0,0,0,0,0,0,0,0,0,0,0,0,0,0,0,0,0,0,0,0,0,0,0,0,0,0,0,0,0,0,0,0,0,0,0,0,0,0,0,0,0,0,0,0,0,0,0,0,0,0,0,0,0,0,0,0,0,0,0,0,0,0,0,0,0,0,0,0,0,0,0,0,0,0,0,0,0,0,0,0,0,0,0,0,0,0,0,0,0,0,0,0,0,0,0,0,0,0,0,0,0,0,0,0,0,0,0,0,0,0,0,0,0,0,0,0,0,0,0,0,0,0,0,0,0,0,0,0,0,0,0,0,0,0,0,0,0,0,0,0,0,0,0,0,0,0,0,0,0,0,0,0,0,0,0,0,0,0,0,0,0,0,0,0,0,0,0,0,0,0,0,0,0,0,0,0,0,0,0,0,0,0,0,0,0,0,0,0,0,0,0,0,0,0,0,0,0,0,0,0,0,0,0,0,0,0,0,0,0,0,0,0,0,0,0,0,0,0,0,0,0,0,0,0,0,0,923,923,923,925,925,925,923,923,923,923,923,923,923,923,923,923,923,923,923,920,920,920,923,920,920,918,918,918,918,918,918,918,918,918,915,915,918,918,918,918,918,918,918,918,918,918,918,918,918,918,920,918,918,918,918,918,915,915,915,915,915,915,915,915,915,913,913,913,913,913,913,913,913,915,915,913,913,913,913,915,915,913,913,915,915,915,913,913,913,913,913,913,913,913,913,913,910,910,910,910,908,908,908,908,908,908,908,908,908,908,908,908,908,908,908,908,908,908,908,908,908,908,908,908,908,908,906,906,906,906,908,908,906,906,906,906,906,906,906,908,908,908,908,906,906,906,903,903,903,903,903,903,903,903,903,906,906,906,903,903,903,903,903,901,901,901,903,903,903,903,903,903,906,906,906,906,903,903,903,903,903,903,901,901,903,903,903,903,901,901,901,901,898,898,898,898,898,901,901,901,901,901,901,901,901,901,901,901,901,898,898,898,898,901,901,901,901,901,901,901,901,901,901,901,829,827,827,827,827,827,827,827,827,829,829,829,829,829,829,829,829,747,747,747,747,747,749,749,747,747,747,747,746,744,744,744,742,742,741,741,741,741,741,741,741,741,738,738,738,738,738,736,736,736,738,738,736,736,738,738,738,736,736,738,738,738,738,739,739,0,0,0,0,0,0,0,0,0,0,0,0,0,0,0,0,0,0,0,0,0,0,0,0,0,0,0,0,0,0,0,0,0,0,0,0,0,0,0,0
0,0,0,0,0,0,0,0,0,0,0,0,0,0,0,0,0,0,0,0,0,0,0,0,0,0,0,0,0,0,0,0,0,0,0,0,0,0,0,0,0,0,0,0,0,0,0,0,0,0,0,0,0,0,0,0,0,0,0,0,0,0,0,0,0,0,0,0,0,0,0,0,0,0,0,0,0,0,0,0,0,0,0,0,0,0,0,0,0,0,0,0,0,0,0,0,0,0,0,0,0,0,0,0,0,0,0,0,0,0,0,0,0,0,0,0,0,0,0,0,0,0,0,0,0,0,0,0,0,0,0,0,0,0,0,0,0,0,0,0,0,0,0,0,0,0,0,0,0,0,0,0,0,0,0,0,0,0,0,0,0,0,0,0,0,0,0,0,0,0,0,0,0,0,0,0,0,0,0,0,0,0,0,0,0,0,0,0,0,0,0,0,0,0,0,0,0,0,0,0,0,0,0,0,0,0,0,0,0,0,0,0,0,0,0,0,0,0,0,0,0,0,0,0,0,0,0,0,0,0,0,0,0,0,0,0,0,0,0,0,0,0,0,0,0,0,0,0,0,0,0,0,0,0,0,0,0,0,0,0,0,0,0,0,0,0,0,0,0,0,0,0,0,0,0,0,0,0,0,0,0,0,0,0,0,0,0,0,0,0,0,0,0,0,0,0,0,0,0,0,0,0,0,0,0,0,0,0,0,0,0,0,0,0,0,0,0,0,0,0,0,0,0,0,0,0,0,0,0,0,0,0,0,0,0,0,0,0,0,0,0,0,0,0,0,0,0,0,0,0,0,0,0,0,0,0,0,0,0,0,0,0,0,0,0,0,0,0,0,0,915,915,915,915,915,915,913,913,913,913,913,913,913,913,915,915,913,913,913,913,915,915,913,913,915,915,915,913,913,913,913,913,913,913,913,913,913,910,910,910,910,908,908,908,908,908,908,908,908,908,908,908,908,908,908,908,908,908,908,908,908,908,908,906,906,906,906,906,906,906,906,906,906,903,903,901,901,903,903,903,906,906,908,906,906,906,903,903,903,903,903,903,901,901,903,903,901,901,903,901,901,901,901,901,901,901,898,898,901,901,903,901,901,903,903,903,903,901,901,901,901,901,901,901,901,901,901,901,901,898,898,898,898,898,898,898,898,898,898,898,898,898,898,898,898,898,898,898,898,898,898,898,898,898,898,898,898,901,901,898,898,898,898,898,898,829,827,827,827,827,827,827,827,829,831,831,831,831,831,831,831,831,747,747,747,747,747,749,749,747,747,747,747,746,744,744,742,742,742,741,741,741,741,741,739,739,738,738,738,736,736,736,736,736,736,736,736,736,736,736,738,738,736,736,738,738,738,739,739,739,0,0,0,0,0,0,0,0,0,0,0,0,0,0,0,0,0,0,0,0,0,0,0,0,0,0,0,0,0,0,0,0,0,0,0,0,0,0,0,0
0,0,0,0,0,0,0,0,0,0,0,0,0,0,0,0,0,0,0,0,0,0,0,0,0,0,0,0,0,0,0,0,0,0,0,0,0,0,0,0,0,0,0,0,0,0,0,0,0,0,0,0,0,0,0,0,0,0,0,0,0,0,0,0,0,0,0,0,0,0,0,0,0,0,0,0,0,0,0,0,0,0,0,0,0,0,0,0,0,0,0,0,0,0,0,0,0,0,0,0,0,0,0,0,0,0,0,0,0,0,0,0,0,0,0,0,0,0,0,0,0,0,0,0,0,0,0,0,0,0,0,0,0,0,0,0,0,0,0,0,0,0,0,0,0,0,0,0,0,0,0,0,0,0,0,0,0,0,0,0,0,0,0,0,0,0,0,0,0,0,0,0,0,0,0,0,0,0,0,0,0,0,0,0,0,0,0,0,0,0,0,0,0,0,0,0,0,0,0,0,0,0,0,0,0,0,0,0,0,0,0,0,0,0,0,0,0,0,0,0,0,0,0,0,0,0,0,0,0,0,0,0,0,0,0,0,0,0,0,0,0,0,0,0,0,0,0,0,0,0,0,0,0,0,0,0,0,0,0,0,0,0,0,0,0,0,0,0,0,0,0,0,0,0,0,0,0,0,0,0,0,0,0,0,0,0,0,0,0,0,0,0,0,0,0,0,0,0,0,0,0,0,0,0,0,0,0,0,0,0,0,0,0,0,0,0,0,0,0,0,0,0,0,0,0,0,0,0,0,0,0,0,0,0,0,0,0,0,0,0,0,0,0,0,0,0,0,0,0,0,0,0,0,0,0,0,0,0,0,0,0,0,0,0,0,0,0,0,0,0,0,0,0,0,0,0,0,0,0,0,0,0,0,0,0,0,0,0,0,0,0,0,0,0,0,0,0,0,0,0,0,0,0,0,0,0,0,0,0,0,0,0,0,0,0,0,0,0,0,0,0,0,0,0,0,0,908,908,908,908,908,908,908,906,906,906,906,906,906,906,906,906,906,903,903,901,901,903,903,903,906,906,908,906,906,906,903,903,903,903,903,903,901,901,903,903,901,901,903,901,901,901,901,901,901,901,898,898,901,901,901,901,901,901,898,898,898,898,898,898,898,898,901,898,898,896,896,898,898,898,896,896,898,898,898,898,898,898,898,898,898,898,898,896,896,898,898,896,896,896,896,896,896,896,896,898,898,898,898,898,896,896,896,896,896,829,827,827,827,827,829,829,829,829,831,831,831,831,833,833,833,835,747,747,747,747,747,749,749,747,747,747,747,746,744,742,742,742,741,741,741,741,741,741,739,739,738,738,736,736,736,736,736,736,736,736,736,736,736,736,738,738,736,736,738,738,738,739,739,739,0,0,0,0,0,0,0,0,0,0,0,0,0,0,0,0,0,0,0,0,0,0,0,0,0,0,0,0,0,0,0,0,0,0,0,0,0,0,0,0
0,0,0,0,0,0,0,0,0,0,0,0,0,0,0,0,0,0,0,0,0,0,0,0,0,0,0,0,0,0,0,0,0,0,0,0,0,0,0,0,0,0,0,0,0,0,0,0,0,0,0,0,0,0,0,0,0,0,0,0,0,0,0,0,0,0,0,0,0,0,0,0,0,0,0,0,0,0,0,0,0,0,0,0,0,0,0,0,0,0,0,0,0,0,0,0,0,0,0,0,0,0,0,0,0,0,0,0,0,0,0,0,0,0,0,0,0,0,0,0,0,0,0,0,0,0,0,0,0,0,0,0,0,0,0,0,0,0,0,0,0,0,0,0,0,0,0,0,0,0,0,0,0,0,0,0,0,0,0,0,0,0,0,0,0,0,0,0,0,0,0,0,0,0,0,0,0,0,0,0,0,0,0,0,0,0,0,0,0,0,0,0,0,0,0,0,0,0,0,0,0,0,0,0,0,0,0,0,0,0,0,0,0,0,0,0,0,0,0,0,0,0,0,0,0,0,0,0,0,0,0,0,0,0,0,0,0,0,0,0,0,0,0,0,0,0,0,0,0,0,0,0,0,0,0,0,0,0,0,0,0,0,0,0,0,0,0,0,0,0,0,0,0,0,0,0,0,0,0,0,0,0,0,0,0,0,0,0,0,0,0,0,0,0,0,0,0,0,0,0,0,0,0,0,0,0,0,0,0,0,0,0,0,0,0,0,0,0,0,0,0,0,0,0,0,0,0,0,0,0,0,0,0,0,0,0,0,0,0,0,0,0,0,0,0,0,0,0,0,0,0,0,0,0,0,0,0,0,0,0,0,0,0,0,0,0,0,0,0,0,0,0,0,0,0,0,0,0,0,0,0,0,0,0,0,0,0,0,0,0,0,0,0,0,0,0,0,0,0,0,0,0,0,0,0,0,0,0,0,0,0,0,0,0,0,0,0,0,0,0,0,0,0,0,0,0,0,0,0,0,0,0,0,0,0,0,0,0,0,0,0,0,0,0,0,0,0,0,0,0,0,0,0,0,0,0,0,0,0,0,0,0,0,0,0,0,0,0,0,0,0,0,0,0,0,0,0,0,901,901,901,901,901,901,898,898,898,898,898,898,898,898,901,898,898,896,896,898,898,898,896,896,898,898,898,898,898,898,898,898,898,898,898,896,896,898,898,896,896,896,896,896,896,896,896,898,898,898,898,896,896,896,896,896,833,829,829,827,827,829,829,829,829,829,831,831,831,831,831,831,833,835,0,747,747,747,747,747,747,747,747,747,746,746,744,742,742,741,741,741,741,741,741,741,739,738,736,736,736,736,736,736,734,734,734,736,736,736,736,736,736,738,738,738,738,738,738,739,739,739,0,0,0,0,0,0,0,0,0,0,0,0,0,0,0,0,0,0,0,0,0,0,0,0,0,0,0,0,0,0,0,0,0,0,0,0,0,0,0,0
0,0,0,0,0,0,0,0,0,0,0,0,0,0,0,0,0,0,0,0,0,0,0,0,0,0,0,0,0,0,0,0,0,0,0,0,0,0,0,0,0,0,0,0,0,0,0,0,0,0,0,0,0,0,0,0,0,0,0,0,0,0,0,0,0,0,0,0,0,0,0,0,0,0,0,0,0,0,0,0,0,0,0,0,0,0,0,0,0,0,0,0,0,0,0,0,0,0,0,0,0,0,0,0,0,0,0,0,0,0,0,0,0,0,0,0,0,0,0,0,0,0,0,0,0,0,0,0,0,0,0,0,0,0,0,0,0,0,0,0,0,0,0,0,0,0,0,0,0,0,0,0,0,0,0,0,0,0,0,0,0,0,0,0,0,0,0,0,0,0,0,0,0,0,0,0,0,0,0,0,0,0,0,0,0,0,0,0,0,0,0,0,0,0,0,0,0,0,0,0,0,0,0,0,0,0,0,0,0,0,0,0,0,0,0,0,0,0,0,0,0,0,0,0,0,0,0,0,0,0,0,0,0,0,0,0,0,0,0,0,0,0,0,0,0,0,0,0,0,0,0,0,0,0,0,0,0,0,0,0,0,0,0,0,0,0,0,0,0,0,0,0,0,0,0,0,0,0,0,0,0,0,0,0,0,0,0,0,0,0,0,0,0,0,0,0,0,0,0,0,0,0,0,0,0,0,0,0,0,0,0,0,0,0,0,0,0,0,0,0,0,0,0,0,0,0,0,0,0,0,0,0,0,0,0,0,0,0,0,0,0,0,0,0,0,0,0,0,0,0,0,0,0,0,0,0,0,0,0,0,0,0,0,0,0,0,0,0,0,0,0,0,0,0,0,0,0,0,0,0,0,0,0,0,0,0,0,0,0,0,0,0,0,0,0,0,0,0,0,0,0,0,0,0,0,0,0,0,0,0,0,0,0,0,0,0,0,0,0,0,0,0,0,0,0,0,0,0,0,0,0,0,0,0,0,0,0,0,0,0,0,0,0,0,0,0,0,0,0,0,0,0,0,0,0,0,0,0,0,0,0,0,0,0,0,0,0,0,0,0,0,0,0,0,0,0,0,0,0,0,0,0,0,0,0,0,0,0,0,0,0,0,0,0,0,0,0,0,0,0,0,0,0,0,0,0,0,0,0,0,0,0,0,0,0,0,0,0,0,0,0,0,0,0,0,0,0,898,898,896,896,896,896,896,833,829,829,827,827,829,829,829,829,829,831,831,831,831,831,831,833,0,0,747,747,747,747,747,747,747,747,747,746,746,744,742,742,741,741,741,741,741,741,741,739,738,736,736,736,734,734,734,734,734,734,736,736,736,736,736,736,736,736,736,736,736,738,738,739,739,0,0,0,0,0,0,0,0,0,0,0,0,0,0,0,0,0,0,0,0,0,0,0,0,0,0,0,0,0,0,0,0,0,0,0,0,0,0,0,0
0,0,0,0,0,0,0,0,0,0,0,0,0,0,0,0,0,0,0,0,0,0,0,0,0,0,0,0,0,0,0,0,0,0,0,0,0,0,0,0,0,0,0,0,0,0,0,0,0,0,0,0,0,0,0,0,0,0,0,0,0,0,0,0,0,0,0,0,0,0,0,0,0,0,0,0,0,0,0,0,0,0,0,0,0,0,0,0,0,0,0,0,0,0,0,0,0,0,0,0,0,0,0,0,0,0,0,0,0,0,0,0,0,0,0,0,0,0,0,0,0,0,0,0,0,0,0,0,0,0,0,0,0,0,0,0,0,0,0,0,0,0,0,0,0,0,0,0,0,0,0,0,0,0,0,0,0,0,0,0,0,0,0,0,0,0,0,0,0,0,0,0,0,0,0,0,0,0,0,0,0,0,0,0,0,0,0,0,0,0,0,0,0,0,0,0,0,0,0,0,0,0,0,0,0,0,0,0,0,0,0,0,0,0,0,0,0,0,0,0,0,0,0,0,0,0,0,0,0,0,0,0,0,0,0,0,0,0,0,0,0,0,0,0,0,0,0,0,0,0,0,0,0,0,0,0,0,0,0,0,0,0,0,0,0,0,0,0,0,0,0,0,0,0,0,0,0,0,0,0,0,0,0,0,0,0,0,0,0,0,0,0,0,0,0,0,0,0,0,0,0,0,0,0,0,0,0,0,0,0,0,0,0,0,0,0,0,0,0,0,0,0,0,0,0,0,0,0,0,0,0,0,0,0,0,0,0,0,0,0,0,0,0,0,0,0,0,0,0,0,0,0,0,0,0,0,0,0,0,0,0,0,0,0,0,0,0,0,0,0,0,0,0,0,0,0,0,0,0,0,0,0,0,0,0,0,0,0,0,0,0,0,0,0,0,0,0,0,0,0,0,0,0,0,0,0,0,0,0,0,0,0,0,0,0,0,0,0,0,0,0,0,0,0,0,0,0,0,0,0,0,0,0,0,0,0,0,0,0,0,0,0,0,0,0,0,0,0,0,0,0,0,0,0,0,0,0,0,0,0,0,0,0,0,0,0,0,0,0,0,0,0,0,0,0,0,0,0,0,0,0,0,0,0,0,0,0,0,0,0,0,0,0,0,0,0,0,0,0,0,0,0,0,0,0,0,0,0,0,0,0,0,0,0,0,0,0,0,0,0,0,0,0,0,0,0,0,0,0,0,0,0,0,0,0,0,0,0,0,0,0,0,0,0,0,0,0,0,0,0,0,0,0,0,0,0,0,0,0,0,0,0,0,0,0,0,0,0,0,0,0,0,741,741,739,738,736,736,736,734,734,734,734,734,734,736,736,736,736,736,736,736,736,736,736,736,738,738,739,739,0,0,0,0,0,0,0,0,0,0,0,0,0,0,0,0,0,0,0,0,0,0,0,0,0,0,0,0,0,0,0,0,0,0,0,0,0,0,0,0
0,0,0,0,0,0,0,0,0,0,0,0,0,0,0,0,0,0,0,0,0,0,0,0,0,0,0,0,0,0,0,0,0,0,0,0,0,0,0,0,0,0,0,0,0,0,0,0,0,0,0,0,0,0,0,0,0,0,0,0,0,0,0,0,0,0,0,0,0,0,0,0,0,0,0,0,0,0,0,0,0,0,0,0,0,0,0,0,0,0,0,0,0,0,0,0,0,0,0,0,0,0,0,0,0,0,0,0,0,0,0,0,0,0,0,0,0,0,0,0,0,0,0,0,0,0,0,0,0,0,0,0,0,0,0,0,0,0,0,0,0,0,0,0,0,0,0,0,0,0,0,0,0,0,0,0,0,0,0,0,0,0,0,0,0,0,0,0,0,0,0,0,0,0,0,0,0,0,0,0,0,0,0,0,0,0,0,0,0,0,0,0,0,0,0,0,0,0,0,0,0,0,0,0,0,0,0,0,0,0,0,0,0,0,0,0,0,0,0,0,0,0,0,0,0,0,0,0,0,0,0,0,0,0,0,0,0,0,0,0,0,0,0,0,0,0,0,0,0,0,0,0,0,0,0,0,0,0,0,0,0,0,0,0,0,0,0,0,0,0,0,0,0,0,0,0,0,0,0,0,0,0,0,0,0,0,0,0,0,0,0,0,0,0,0,0,0,0,0,0,0,0,0,0,0,0,0,0,0,0,0,0,0,0,0,0,0,0,0,0,0,0,0,0,0,0,0,0,0,0,0,0,0,0,0,0,0,0,0,0,0,0,0,0,0,0,0,0,0,0,0,0,0,0,0,0,0,0,0,0,0,0,0,0,0,0,0,0,0,0,0,0,0,0,0,0,0,0,0,0,0,0,0,0,0,0,0,0,0,0,0,0,0,0,0,0,0,0,0,0,0,0,0,0,0,0,0,0,0,0,0,0,0,0,0,0,0,0,0,0,0,0,0,0,0,0,0,0,0,0,0,0,0,0,0,0,0,0,0,0,0,0,0,0,0,0,0,0,0,0,0,0,0,0,0,0,0,0,0,0,0,0,0,0,0,0,0,0,0,0,0,0,0,0,0,0,0,0,0,0,0,0,0,0,0,0,0,0,0,0,0,0,0,0,0,0,0,0,0,0,0,0,0,0,0,0,0,0,0,0,0,0,0,0,0,0,0,0,0,0,0,0,0,0,0,0,0,0,0,0,0,0,0,0,0,0,0,0,0,0,0,0,0,0,0,0,0,0,0,0,0,0,0,0,0,0,0,0,0,0,0,0,0,0,0,0,0,0,0,0,0,0,0,0,0,0,0,0,0,0,0,0,0,0,0,0,0,0,0,0,0,0,0,0,0,0,0,0,0,0,0,0,0,0,0,0,0,0,0,0,0,0,0,0,0,0,0,0,0,0,0,0,0,0,0,0,0,0,0,0,0,0,0,0,0,0,0,0,0,0
0,0,0,0,0,0,0,0,0,0,0,0,0,0,0,0,0,0,0,0,0,0,0,0,0,0,0,0,0,0,0,0,0,0,0,0,0,0,0,0,0,0,0,0,0,0,0,0,0,0,0,0,0,0,0,0,0,0,0,0,0,0,0,0,0,0,0,0,0,0,0,0,0,0,0,0,0,0,0,0,0,0,0,0,0,0,0,0,0,0,0,0,0,0,0,0,0,0,0,0,0,0,0,0,0,0,0,0,0,0,0,0,0,0,0,0,0,0,0,0,0,0,0,0,0,0,0,0,0,0,0,0,0,0,0,0,0,0,0,0,0,0,0,0,0,0,0,0,0,0,0,0,0,0,0,0,0,0,0,0,0,0,0,0,0,0,0,0,0,0,0,0,0,0,0,0,0,0,0,0,0,0,0,0,0,0,0,0,0,0,0,0,0,0,0,0,0,0,0,0,0,0,0,0,0,0,0,0,0,0,0,0,0,0,0,0,0,0,0,0,0,0,0,0,0,0,0,0,0,0,0,0,0,0,0,0,0,0,0,0,0,0,0,0,0,0,0,0,0,0,0,0,0,0,0,0,0,0,0,0,0,0,0,0,0,0,0,0,0,0,0,0,0,0,0,0,0,0,0,0,0,0,0,0,0,0,0,0,0,0,0,0,0,0,0,0,0,0,0,0,0,0,0,0,0,0,0,0,0,0,0,0,0,0,0,0,0,0,0,0,0,0,0,0,0,0,0,0,0,0,0,0,0,0,0,0,0,0,0,0,0,0,0,0,0,0,0,0,0,0,0,0,0,0,0,0,0,0,0,0,0,0,0,0,0,0,0,0,0,0,0,0,0,0,0,0,0,0,0,0,0,0,0,0,0,0,0,0,0,0,0,0,0,0,0,0,0,0,0,0,0,0,0,0,0,0,0,0,0,0,0,0,0,0,0,0,0,0,0,0,0,0,0,0,0,0,0,0,0,0,0,0,0,0,0,0,0,0,0,0,0,0,0,0,0,0,0,0,0,0,0,0,0,0,0,0,0,0,0,0,0,0,0,0,0,0,0,0,0,0,0,0,0,0,0,0,0,0,0,0,0,0,0,0,0,0,0,0,0,0,0,0,0,0,0,0,0,0,0,0,0,0,0,0,0,0,0,0,0,0,0,0,0,0,0,0,0,0,0,0,0,0,0,0,0,0,0,0,0,0,0,0,0,0,0,0,0,0,0,0,0,0,0,0,0,0,0,0,0,0,0,0,0,0,0,0,0,0,0,0,0,0,0,0,0,0,0,0,0,0,0,0,0,0,0,0,0,0,0,0,0,0,0,0,0,0,0,0,0,0,0,0,0,0,0,0,0,0,0,0,0,0,0,0,0,0,0,0,0,0,0,0,0,0,0,0,0,0,0,0,0,0,0,0,0,0,0,0,0,0,0,0,0,0,0,0,0,0,0,0
0,0,0,0,0,0,0,0,0,0,0,0,0,0,0,0,0,0,0,0,0,0,0,0,0,0,0,0,0,0,0,0,0,0,0,0,0,0,0,0,0,0,0,0,0,0,0,0,0,0,0,0,0,0,0,0,0,0,0,0,0,0,0,0,0,0,0,0,0,0,0,0,0,0,0,0,0,0,0,0,0,0,0,0,0,0,0,0,0,0,0,0,0,0,0,0,0,0,0,0,0,0,0,0,0,0,0,0,0,0,0,0,0,0,0,0,0,0,0,0,0,0,0,0,0,0,0,0,0,0,0,0,0,0,0,0,0,0,0,0,0,0,0,0,0,0,0,0,0,0,0,0,0,0,0,0,0,0,0,0,0,0,0,0,0,0,0,0,0,0,0,0,0,0,0,0,0,0,0,0,0,0,0,0,0,0,0,0,0,0,0,0,0,0,0,0,0,0,0,0,0,0,0,0,0,0,0,0,0,0,0,0,0,0,0,0,0,0,0,0,0,0,0,0,0,0,0,0,0,0,0,0,0,0,0,0,0,0,0,0,0,0,0,0,0,0,0,0,0,0,0,0,0,0,0,0,0,0,0,0,0,0,0,0,0,0,0,0,0,0,0,0,0,0,0,0,0,0,0,0,0,0,0,0,0,0,0,0,0,0,0,0,0,0,0,0,0,0,0,0,0,0,0,0,0,0,0,0,0,0,0,0,0,0,0,0,0,0,0,0,0,0,0,0,0,0,0,0,0,0,0,0,0,0,0,0,0,0,0,0,0,0,0,0,0,0,0,0,0,0,0,0,0,0,0,0,0,0,0,0,0,0,0,0,0,0,0,0,0,0,0,0,0,0,0,0,0,0,0,0,0,0,0,0,0,0,0,0,0,0,0,0,0,0,0,0,0,0,0,0,0,0,0,0,0,0,0,0,0,0,0,0,0,0,0,0,0,0,0,0,0,0,0,0,0,0,0,0,0,0,0,0,0,0,0,0,0,0,0,0,0,0,0,0,0,0,0,0,0,0,0,0,0,0,0,0,0,0,0,0,0,0,0,0,0,0,0,0,0,0,0,0,0,0,0,0,0,0,0,0,0,0,0,0,0,0,0,0,0,0,0,0,0,0,0,0,0,0,0,0,0,0,0,0,0,0,0,0,0,0,0,0,0,0,0,0,0,0,0,0,0,0,0,0,0,0,0,0,0,0,0,0,0,0,0,0,0,0,0,0,0,0,0,0,0,0,0,0,0,0,0,0,0,0,0,0,0,0,0,0,0,0,0,0,0,0,0,0,0,0,0,0,0,0,0,0,0,0,0,0,0,0,0,0,0,0,0,0,0,0,0,0,0,0,0,0,0,0,0,0,0,0,0,0,0,0,0,0,0,0,0,0,0,0,0,0,0,0,0,0,0,0,0,0,0,0,0,0,0,0,0,0,0,0,0,0,0,0,0,0
0,0,0,0,0,0,0,0,0,0,0,0,0,0,0,0,0,0,0,0,0,0,0,0,0,0,0,0,0,0,0,0,0,0,0,0,0,0,0,0,0,0,0,0,0,0,0,0,0,0,0,0,0,0,0,0,0,0,0,0,0,0,0,0,0,0,0,0,0,0,0,0,0,0,0,0,0,0,0,0,0,0,0,0,0,0,0,0,0,0,0,0,0,0,0,0,0,0,0,0,0,0,0,0,0,0,0,0,0,0,0,0,0,0,0,0,0,0,0,0,0,0,0,0,0,0,0,0,0,0,0,0,0,0,0,0,0,0,0,0,0,0,0,0,0,0,0,0,0,0,0,0,0,0,0,0,0,0,0,0,0,0,0,0,0,0,0,0,0,0,0,0,0,0,0,0,0,0,0,0,0,0,0,0,0,0,0,0,0,0,0,0,0,0,0,0,0,0,0,0,0,0,0,0,0,0,0,0,0,0,0,0,0,0,0,0,0,0,0,0,0,0,0,0,0,0,0,0,0,0,0,0,0,0,0,0,0,0,0,0,0,0,0,0,0,0,0,0,0,0,0,0,0,0,0,0,0,0,0,0,0,0,0,0,0,0,0,0,0,0,0,0,0,0,0,0,0,0,0,0,0,0,0,0,0,0,0,0,0,0,0,0,0,0,0,0,0,0,0,0,0,0,0,0,0,0,0,0,0,0,0,0,0,0,0,0,0,0,0,0,0,0,0,0,0,0,0,0,0,0,0,0,0,0,0,0,0,0,0,0,0,0,0,0,0,0,0,0,0,0,0,0,0,0,0,0,0,0,0,0,0,0,0,0,0,0,0,0,0,0,0,0,0,0,0,0,0,0,0,0,0,0,0,0,0,0,0,0,0,0,0,0,0,0,0,0,0,0,0,0,0,0,0,0,0,0,0,0,0,0,0,0,0,0,0,0,0,0,0,0,0,0,0,0,0,0,0,0,0,0,0,0,0,0,0,0,0,0,0,0,0,0,0,0,0,0,0,0,0,0,0,0,0,0,0,0,0,0,0,0,0,0,0,0,0,0,0,0,0,0,0,0,0,0,0,0,0,0,0,0,0,0,0,0,0,0,0,0,0,0,0,0,0,0,0,0,0,0,0,0,0,0,0,0,0,0,0,0,0,0,0,0,0,0,0,0,0,0,0,0,0,0,0,0,0,0,0,0,0,0,0,0,0,0,0,0,0,0,0,0,0,0,0,0,0,0,0,0,0,0,0,0,0,0,0,0,0,0,0,0,0,0,0,0,0,0,0,0,0,0,0,0,0,0,0,0,0,0,0,0,0,0,0,0,0,0,0,0,0,0,0,0,0,0,0,0,0,0,0,0,0,0,0,0,0,0,0,0,0,0,0,0,0,0,0,0,0,0,0,0,0,0,0,0,0,0,0,0,0,0,0,0,0,0,0,0,0,0,0,0
0,0,0,0,0,0,0,0,0,0,0,0,0,0,0,0,0,0,0,0,0,0,0,0,0,0,0,0,0,0,0,0,0,0,0,0,0,0,0,0,0,0,0,0,0,0,0,0,0,0,0,0,0,0,0,0,0,0,0,0,0,0,0,0,0,0,0,0,0,0,0,0,0,0,0,0,0,0,0,0,0,0,0,0,0,0,0,0,0,0,0,0,0,0,0,0,0,0,0,0,0,0,0,0,0,0,0,0,0,0,0,0,0,0,0,0,0,0,0,0,0,0,0,0,0,0,0,0,0,0,0,0,0,0,0,0,0,0,0,0,0,0,0,0,0,0,0,0,0,0,0,0,0,0,0,0,0,0,0,0,0,0,0,0,0,0,0,0,0,0,0,0,0,0,0,0,0,0,0,0,0,0,0,0,0,0,0,0,0,0,0,0,0,0,0,0,0,0,0,0,0,0,0,0,0,0,0,0,0,0,0,0,0,0,0,0,0,0,0,0,0,0,0,0,0,0,0,0,0,0,0,0,0,0,0,0,0,0,0,0,0,0,0,0,0,0,0,0,0,0,0,0,0,0,0,0,0,0,0,0,0,0,0,0,0,0,0,0,0,0,0,0,0,0,0,0,0,0,0,0,0,0,0,0,0,0,0,0,0,0,0,0,0,0,0,0,0,0,0,0,0,0,0,0,0,0,0,0,0,0,0,0,0,0,0,0,0,0,0,0,0,0,0,0,0,0,0,0,0,0,0,0,0,0,0,0,0,0,0,0,0,0,0,0,0,0,0,0,0,0,0,0,0,0,0,0,0,0,0,0,0,0,0,0,0,0,0,0,0,0,0,0,0,0,0,0,0,0,0,0,0,0,0,0,0,0,0,0,0,0,0,0,0,0,0,0,0,0,0,0,0,0,0,0,0,0,0,0,0,0,0,0,0,0,0,0,0,0,0,0,0,0,0,0,0,0,0,0,0,0,0,0,0,0,0,0,0,0,0,0,0,0,0,0,0,0,0,0,0,0,0,0,0,0,0,0,0,0,0,0,0,0,0,0,0,0,0,0,0,0,0,0,0,0,0,0,0,0,0,0,0,0,0,0,0,0,0,0,0,0,0,0,0,0,0,0,0,0,0,0,0,0,0,0,0,0,0,0,0,0,0,0,0,0,0,0,0,0,0,0,0,0,0,0,0,0,0,0,0,0,0,0,0,0,0,0,0,0,0,0,0,0,0,0,0,0,0,0,0,0,0,0,0,0,0,0,0,0,0,0,0,0,0,0,0,0,0,0,0,0,0,0,0,0,0,0,0,0,0,0,0,0,0,0,0,0,0,0,0,0,0,0,0,0,0,0,0,0,0,0,0,0,0,0,0,0,0,0,0,0,0,0,0,0,0,0,0,0,0,0,0,0,0,0,0,0,0,0,0,0,0,0,0,0,0,0,0,0,0,0
0,0,0,0,0,0,0,0,0,0,0,0,0,0,0,0,0,0,0,0,0,0,0,0,0,0,0,0,0,0,0,0,0,0,0,0,0,0,0,0,0,0,0,0,0,0,0,0,0,0,0,0,0,0,0,0,0,0,0,0,0,0,0,0,0,0,0,0,0,0,0,0,0,0,0,0,0,0,0,0,0,0,0,0,0,0,0,0,0,0,0,0,0,0,0,0,0,0,0,0,0,0,0,0,0,0,0,0,0,0,0,0,0,0,0,0,0,0,0,0,0,0,0,0,0,0,0,0,0,0,0,0,0,0,0,0,0,0,0,0,0,0,0,0,0,0,0,0,0,0,0,0,0,0,0,0,0,0,0,0,0,0,0,0,0,0,0,0,0,0,0,0,0,0,0,0,0,0,0,0,0,0,0,0,0,0,0,0,0,0,0,0,0,0,0,0,0,0,0,0,0,0,0,0,0,0,0,0,0,0,0,0,0,0,0,0,0,0,0,0,0,0,0,0,0,0,0,0,0,0,0,0,0,0,0,0,0,0,0,0,0,0,0,0,0,0,0,0,0,0,0,0,0,0,0,0,0,0,0,0,0,0,0,0,0,0,0,0,0,0,0,0,0,0,0,0,0,0,0,0,0,0,0,0,0,0,0,0,0,0,0,0,0,0,0,0,0,0,0,0,0,0,0,0,0,0,0,0,0,0,0,0,0,0,0,0,0,0,0,0,0,0,0,0,0,0,0,0,0,0,0,0,0,0,0,0,0,0,0,0,0,0,0,0,0,0,0,0,0,0,0,0,0,0,0,0,0,0,0,0,0,0,0,0,0,0,0,0,0,0,0,0,0,0,0,0,0,0,0,0,0,0,0,0,0,0,0,0,0,0,0,0,0,0,0,0,0,0,0,0,0,0,0,0,0,0,0,0,0,0,0,0,0,0,0,0,0,0,0,0,0,0,0,0,0,0,0,0,0,0,0,0,0,0,0,0,0,0,0,0,0,0,0,0,0,0,0,0,0,0,0,0,0,0,0,0,0,0,0,0,0,0,0,0,0,0,0,0,0,0,0,0,0,0,0,0,0,0,0,0,0,0,0,0,0,0,0,0,0,0,0,0,0,0,0,0,0,0,0,0,0,0,0,0,0,0,0,0,0,0,0,0,0,0,0,0,0,0,0,0,0,0,0,0,0,0,0,0,0,0,0,0,0,0,0,0,0,0,0,0,0,0,0,0,0,0,0,0,0,0,0,0,0,0,0,0,0,0,0,0,0,0,0,0,0,0,0,0,0,0,0,0,0,0,0,0,0,0,0,0,0,0,0,0,0,0,0,0,0,0,0,0,0,0,0,0,0,0,0,0,0,0,0,0,0,0,0,0,0,0,0,0,0,0,0,0,0,0,0,0,0,0,0,0,0,0,0,0,0,0,0,0,0,0,0,0,0,0,0,0
